ply
format ascii 1.0
comment Created by Open3D
element vertex 1935
property double x
property double y
property double z
end_header
-2.71879 92.5963 10.3776
14.543 116.269 -3.66976
-18.3778 84.7902 -1.60173
9.00716 105.348 7.02472
22.8083 122.161 -0.475419
22.513 118.532 5.83394
20.6338 122.807 -5.17007
20.6931 122.851 -5.10828
-8.97048 97.0029 -7.79282
-14.0171 87.6683 0.818525
-15.4817 86.8105 -0.0833984
23.61 118.12 8.63838
-1.26008 103.379 -6.40945
-3.38791 92.6698 9.67888
16.9925 117.797 -1.93786
24.9491 122.881 2.21939
-9.97838 89.7926 3.88273
18.3283 117.95 0.112629
24.7361 122.457 2.69109
-14.0807 87.7248 0.794512
4.92052 100.214 10.0834
4.86887 108.211 -4.68444
15.67 110.968 8.59076
15.2998 111.219 7.56776
22.3209 123.512 -3.03026
21.5145 113.684 13.6695
-11.6872 95.0042 -8.13103
23.7076 121.101 3.9003
-17.6086 87.1723 -3.73737
-2.7735 93.0525 10.6459
24.5639 129.118 -9.30974
3.70104 99.1121 10.4885
14.6197 112.124 5.15643
6.66731 102.518 9.337
-15.472 87.2627 -0.082802
22.3766 123.467 -2.43986
-4.73849 92.8234 7.93391
25.501 127.355 -4.2265
19.8237 123.05 -5.92648
-1.2595 94.2098 11.404
20.8721 126.358 -10.1604
19.6793 111.708 14.7825
22.785 119.475 5.78639
25.8617 127.651 -3.89954
22.4408 122.573 -0.360111
25.6603 127.13 -3.24686
23.4408 120.525 5.13355
24.7101 127.71 -5.89225
26.754 130.181 -6.96048
23.7809 122.042 3.06848
23.9852 127.009 -5.68067
25.7864 128.567 -5.47995
16.1861 110.59 11.3024
25.4323 127.051 -3.27958
20.2292 123.454 -5.41813
-12.3359 94.7249 -7.77711
18.3816 123.066 -7.59165
18.0926 110.179 15.6417
12.9393 114.425 -0.865344
2.00936 97.9718 10.8812
-6.15463 99.9551 -6.58659
20.0208 112.608 14.5197
16.4628 118.941 -3.11512
19.2784 123.408 -6.47875
22.7127 118.789 7.85771
8.46148 105.683 7.80493
16.1041 118.867 -3.43093
23.6925 129.042 -9.25996
21.4128 124.12 -4.07541
-4.26211 93.3898 8.99477
18.0031 118.508 0.613699
24.545 123.413 2.73969
-13.6602 88.8873 1.45987
23.3289 128.905 -9.37619
27.3424 130.478 -5.41678
7.39542 109.799 -1.15326
-1.70494 104.421 -6.6775
25.7238 130.422 -7.97591
6.09453 102.971 9.25551
26.0387 129.446 -5.56854
13.2085 112.433 3.97105
4.64257 109.111 -4.43604
22.3243 119.013 7.44198
15.0044 118.642 -4.26867
24.5354 129.804 -8.60893
27.2888 130.889 -5.92478
26.9661 130.125 -4.96181
21.7524 121.564 1.94253
17.5095 119.823 -2.02987
18.8532 111.609 15.4126
-14.8294 88.6123 0.60263
-11.4369 96.6432 -8.22957
-2.05956 104.492 -6.75053
17.3999 120.063 -2.2993
-12.9215 94.9075 -7.4434
8.36307 106.327 7.69556
7.78268 110.454 -0.846265
24.5559 124.367 2.01817
-10.3704 97.7059 -8.14707
25.3868 126.422 -0.309413
11.939 111.795 3.81647
20.3539 113.818 14.3859
18.0134 123.956 -8.18851
15.2181 113.454 6.37666
18.2544 124.443 -8.65115
25.3798 127.015 -1.25195
21.7144 121.914 1.91674
20.7927 121.443 1.22236
16.2059 110.412 13.7715
21.6619 123.801 -1.5751
9.29047 111.57 -0.0415268
-15.3418 92.3238 -6.37601
-14.7796 92.9618 -6.55329
5.64565 109.965 -3.15273
19.569 126.462 -9.79973
-3.07551 94.3451 10.8915
-12.8271 95.3474 -7.44365
23.3973 126.447 -3.20788
15.9475 119.936 -3.83324
-10.6421 97.7847 -8.17709
23.3294 121.698 5.46851
15.6845 113.031 8.47979
26.7049 130.184 -4.36411
13.954 118.276 -4.0588
24.1617 124.954 1
13.2937 113.381 3.88015
22.1971 122.519 2.18458
12.1087 114.403 0.00986416
21.9878 128.635 -9.39517
-16.4972 91.3681 -6.08727
-1.89321 95.4347 11.2133
25.2291 126.612 -0.110637
25.9643 126.226 1.85086
-5.47603 102.221 -7.30724
-18.9601 87.1947 -2.53423
23.7793 124.831 0.732286
-18.1654 88.9463 -4.39524
21.4053 115.834 13.4431
-6.63448 101.092 -6.9643
25.5226 126.719 0.513047
0.508853 107.086 -5.73085
5.12625 110.329 -3.83621
0.272136 97.8749 10.8329
20.8212 122.041 1.2483
0.55897 98.2033 10.7383
-5.11393 94.1493 8.5769
20.5927 121.934 1.07621
18.4335 120.508 0.0511017
22.8081 123.092 2.72274
-3.09341 94.6514 11.106
-8.11629 92.6946 6.1947
13.8513 118.555 -4.07753
18.5722 112.327 15.4287
6.26445 110.321 -1.6834
14.7807 119.747 -4.55182
20.3329 114.597 14.3501
8.6825 107.949 6.83199
12.338 115.875 -1.44276
-13.9238 94.6241 -6.86938
22.2135 123.431 1.43804
-13.3167 95.3647 -7.18417
17.0534 120.435 -1.78778
-10.4485 91.8386 4.18443
-6.74695 93.6395 7.23947
-3.78921 94.8279 10.081
23.68 124.498 2.10108
-3.87601 94.8196 9.95233
25.3332 126.367 1.47306
16.2731 111.192 14.0106
4.80926 110.582 -4.25404
12.8601 113.692 3.74024
-17.1315 88.3085 -0.419129
-0.542485 106.809 -6.17274
19.0661 121.593 -0.0705092
0.00800699 98.1572 10.7403
25.4787 126.716 1.42325
-12.3487 96.8316 -7.73676
-8.93773 92.7093 5.72525
16.5743 111.648 14.2294
-18.2365 89.8988 -4.70982
24.6916 126.26 1.29446
9.20029 109.716 5.49393
18.3496 125.932 -8.73856
7.87303 106.884 8.61692
21.9719 120.48 7.52772
16.8677 111.983 14.5749
-12.8799 96.5245 -7.41064
24.8869 131.247 -7.22286
15.8611 112.759 11.4703
15.3944 114.426 7.64608
19.8279 124.765 -3.77512
-10.0812 99.6171 -8.09099
18.3439 126.171 -8.70604
16.1944 112.095 13.5973
18.3462 124.97 -6.4125
19.4995 127.645 -9.25843
-6.36123 94.5826 7.82519
25.8213 127.605 1.69404
22.0824 121.288 6.98873
17.077 112.464 14.7996
24.8009 125.778 3.43228
-9.76334 100.099 -7.86763
15.6285 121.486 -4.14276
23.8968 126.228 1.20105
9.05645 110.133 5.64365
-7.17998 102.284 -7.40942
-3.68338 95.5881 10.8651
14.9691 115.736 5.46382
19.5652 114.998 14.6583
26.9219 131.955 -4.0348
-13.7543 90.8871 2.59293
-11.0656 92.5404 4.1128
14.9837 115.996 5.16494
-4.08846 95.602 10.3598
25.3823 126.012 4.53597
25.7439 127.626 2.1874
23.8449 127.815 -1.33486
-4.35043 95.6225 10.0604
22.9745 124.203 3.8446
24.3909 127.718 -0.147098
-16.3374 89.6935 0.745077
15.0178 115.7 6.14418
19.1699 125.665 -5.07559
16.1662 122.387 -4.09809
-12.3526 98.1358 -7.85052
22.0848 120.065 10.2362
24.374 124.815 5.3899
17.9434 122.371 -0.925998
19.7679 115.718 14.4036
26.2346 128.48 2.01837
22.1311 119.359 11.8893
18.008 126.596 -8.37871
26.7471 132.208 -3.85577
25.5661 130.462 -2.62944
15.0692 116.319 5.64612
-0.157383 108.41 -5.60168
15.7236 122.457 -4.38981
-18.1251 89.5358 -1.1436
17.2508 113.578 14.6283
21.894 119.199 12.1868
8.0604 108.612 8.21251
-6.15713 103.876 -7.14128
0.693745 100.985 9.7916
12.034 118.323 -2.85403
17.7362 125.588 -6.45113
-17.9043 89.7332 -0.868467
2.73255 103.19 9.38318
2.50825 110.513 -4.43735
5.81996 106.269 8.98785
25.4455 132.627 -6.17621
23.6857 131.487 -7.05291
-15.5197 90.5828 1.72876
-6.55384 95.2795 8.29701
25.7371 131.447 -3.44364
22.6903 124.629 3.99231
21.8806 123.891 4.03384
17.7572 123.133 -1.53381
16.3439 121.788 -1.43506
26.5546 128.97 2.68116
-11.1285 100.112 -8.06728
5.18942 111.887 -2.05288
15.5112 115.377 9.03418
0.485227 109.349 -5.3499
2.08744 102.829 9.39899
19.392 116.106 14.34
16.3016 122.371 -2.40611
15.4167 115.52 8.68707
9.66883 112.516 4.50859
13.4746 120.88 -4.39615
26.5516 128.768 3.35325
-3.95934 105.711 -5.96406
-8.1301 94.9439 6.84492
17.2956 126.263 -7.58017
7.81475 113.442 -0.0585842
23.7247 127.423 1.23882
-5.60596 104.629 -6.55762
-5.66295 104.604 -6.60075
-17.3565 93.4817 -5.87202
-18.766 91.1763 -4.02297
21.1868 118.821 13.0354
25.6184 131.728 -3.12913
22.2656 122.733 7.79241
4.18469 112.419 -3.84632
8.654 111.193 6.02532
21.087 124.367 2.90576
-13.402 92.3954 3.26313
12.9806 120.853 -4.32275
15.1234 116.814 6.85643
22.3517 123.103 7.65382
18.5036 115.797 14.569
-13.1544 98.8382 -7.89449
-18.5934 90.9355 -2.56608
15.1549 117.507 5.84721
22.9416 125.825 3.82304
22.4657 125.329 3.96853
-17.0247 91.6113 -0.904733
17.4994 124.046 -2.00036
15.1737 117.642 5.8293
2.85047 104.645 8.89369
18.7281 125.949 -3.25041
26.7277 133.621 -3.768
24.437 128.466 1.84044
3.17263 105.143 8.68585
-14.1044 97.9535 -7.37384
-18.9472 91.1494 -3.07115
20.9257 125.067 2.16342
19.245 125.596 -1.62507
15.8332 115.077 11.9285
7.79616 114.111 0.123458
3.31127 112.388 -4.26848
21.0588 124.267 3.98094
26.3687 129.282 3.77577
20.0597 118.072 13.7246
21.5013 121.66 9.59181
15.1698 117.707 6.13445
-0.153116 101.728 9.57648
2.94583 105.046 8.75068
22.0789 131.4 -7.25798
-1.55151 100.257 10.1023
13.7243 122.318 -4.53048
17.8058 115.873 14.2858
25.3911 127.781 5.281
18.5294 126.723 -4.39766
-17.5539 94.2313 -5.656
4.41157 112.917 -2.76412
21.6363 120.839 11.9293
-9.75716 95.1611 5.98745
9.64759 116.171 0.279501
22.922 125.877 4.94726
23.083 125.962 5.15179
20.6356 126.487 0.0700159
-16.2867 96.1815 -6.62311
24.2842 133.1 -5.6752
23.9533 132.912 -5.84828
24.9165 127.631 5.51361
20.6168 124.807 3.52164
17.1033 116.053 13.7112
18.9416 129.649 -8.09169
22.7278 126.479 4.18794
23.3736 126.569 5.23412
-16.6706 92.3496 0.28704
-6.79687 96.5697 9.28222
11.0325 119.273 -2.19331
11.357 119.748 -2.46312
17.7674 116.663 14.1005
4.85261 113.505 -1.88449
16.1643 116.091 12.5346
22.0413 123.919 8.22258
0.727544 111.366 -4.82193
22.8587 127.505 3.02278
20.1801 125.029 3.11999
23.1401 126.967 4.64513
19.9986 119.299 13.4371
17.9488 117.031 14.1686
21.2263 125.35 4.43374
-5.79164 106.238 -6.19217
-19.0728 92.3973 -3.18318
22.658 125.476 6.74772
17.5059 116.895 13.8563
-18.0681 92.694 -1.94443
25.8996 131.046 2.09103
15.396 119.317 5.85323
10.0798 115.408 4.11207
14.0817 119.177 4.02436
11.1401 116.768 3.52782
-9.22801 104.103 -7.70922
25.1376 132.772 -2.06558
1.05449 104.555 8.99043
7.97972 112.078 6.98703
18.5237 126.671 -1.91308
-17.6974 95.2691 -5.57439
-8.99458 104.544 -7.81651
20.4479 125.76 3.10905
12.5237 118.31 3.42165
18.1918 125.421 -0.0423004
-7.85014 105.474 -7.476
-12.7089 101.274 -7.96609
15.428 125.013 -3.79736
21.0551 122.481 10.4313
20.9837 122.198 10.8599
24.9427 131.961 -0.337283
-18.3651 94.5492 -4.92816
21.2091 122.859 10.1126
-1.72119 102.004 9.59005
10.1177 115.928 4.08981
0.225871 111.736 -4.9584
25.0596 134.885 -5.37552
-8.07248 96.8688 8.37412
-11.4777 102.621 -7.93644
-12.0412 95.0743 4.98026
26.2838 135.049 -3.51973
12.671 123.149 -4.70501
21.4965 123.695 9.39294
-3.04812 108.922 -4.99512
20.2215 131.877 -7.72393
20.3699 126.403 2.63214
17.5215 127.594 -4.38009
24.8361 132.212 -0.465056
20.9495 122.236 11.33
25.5538 131.726 1.69102
-14.6221 99.7943 -7.69429
-17.5858 93.532 -1.20356
7.23312 110.906 8.9733
19.3153 127.159 -0.401251
9.97747 119.154 -1.47345
18.361 125.558 0.992571
16.9621 126.255 -2.65768
-3.98278 108.253 -5.05991
-5.20537 98.2271 11.3128
8.21987 113.232 6.49461
21.7047 124.572 8.54169
7.20518 115.77 0.191638
10.5505 120.038 -1.88191
12.1281 118.677 3.30371
-18.8135 93.6596 -3.10991
23.9356 128.553 5.41981
16.5953 128.16 -6.26306
3.79111 108.018 9.18214
16.7476 127.963 -5.49435
25.6067 135.522 -4.35116
17.7033 127.258 -2.54369
7.45246 111.951 8.27182
17.1628 127.206 -3.19147
22.536 133.912 -6.33212
11.8041 118.809 3.242
14.5197 120.701 4.4337
17.6469 118.589 13.6699
15.3129 119.241 8.54346
-16.6831 97.9002 -6.43756
22.5276 128.401 3.96912
18.4863 125.922 1.70941
10.2837 117.148 3.97627
-12.2267 95.6884 5.31738
23.5095 134.556 -5.55862
4.67234 115.032 -1.56184
17.1053 129.615 -7.28443
16.7158 127.151 -3.38408
7.41488 112.298 8.18931
8.26218 114.056 6.48458
-17.1484 94.459 -0.554285
-13.5547 101.954 -8.12733
-3.76716 100.537 11.0905
16.517 128.404 -5.71941
13.7829 120.694 3.83951
21.0571 123.846 10.3786
19.4384 128.726 -1.30424
4.77463 109.355 9.44992
16.624 127.583 -3.8899
-8.95273 106.111 -7.71445
19.2276 120.652 13.3283
-18.6104 95.3084 -4.1666
22.4216 128.445 4.49714
-12.6071 103.18 -8.25293
-14.8338 100.855 -7.74413
4.03075 115.192 -2.09864
2.89056 115.067 -3.78882
-5.51757 108.346 -5.67184
4.95111 109.746 9.52111
19.7594 126.972 3.18052
-15.2978 100.498 -7.50557
21.984 128.754 3.74424
11.8479 119.714 3.27997
20.5026 129.674 -0.312189
18.8401 128.98 -1.8493
-17.9519 97.0628 -5.51436
-12.789 103.287 -8.17402
10.2178 120.967 -1.63948
4.21384 109.444 9.37255
19.5378 128.964 -0.492887
-14.9994 101.069 -7.70198
7.31156 113.183 7.99666
20.1741 127.882 2.84818
16.0071 119.24 11.7467
17.6695 128.664 -2.72338
24.7268 131.536 3.98466
-18.6908 95.5761 -3.43765
15.254 121.833 5.86645
16.2973 128.303 -4.13332
-15.0048 95.3123 3.46509
25.5469 136.136 -2.81657
-14.1207 95.5654 4.5424
15.3726 119.993 9.68694
16.188 129.344 -5.94579
21.6093 127.799 6.14294
20.1417 130.233 -0.798629
18.7934 129.679 -2.04413
24.7794 136.499 -4.4252
-0.352195 113.493 -4.68646
7.15758 113.394 8.25327
-13.1562 96.3114 5.26482
-6.63325 108.647 -6.31956
18.9136 128.669 0.178856
24.9409 136.534 -4.01524
8.82104 116.489 5.56065
-10.4133 106.263 -8.14799
19.6144 127.91 3.00724
-11.5982 97.223 6.55643
7.23184 113.747 8.11418
-15.8755 100.814 -7.27001
21.7402 128.772 5.09522
6.31872 117.566 -0.424036
-3.05662 111.114 -4.44542
-9.62388 98.2106 8.15831
19.0264 127.508 2.88179
24.5215 136.687 -4.63478
14.7924 122.626 4.73653
2.06698 115.7 -4.02135
-8.18427 98.799 9.75336
-1.73736 112.39 -4.27768
10.1364 122.163 -2.09552
20.4396 133.991 -6.33992
19.5161 128.243 2.66935
15.1481 122.785 5.35095
15.3201 128.569 -4.98897
-10.3365 106.581 -8.03626
10.6407 119.587 3.64229
16.6911 120.26 12.6756
10.0497 118.777 4.14678
-1.3837 112.843 -4.28536
19.6679 128.748 2.16806
19.8482 128.414 3.10296
16.8799 127.347 0.111704
17.9746 127.872 1.06018
5.2656 111.364 9.97216
14.4452 128.184 -5.36709
8.58803 116.549 6.1956
10.1801 119.22 3.99968
16.978 127.415 0.487374
16.0241 128.675 -3.25156
24.9879 134.98 0.46098
-1.54449 113.068 -4.13655
19.8419 129.928 1.15854
16.3325 130.996 -6.74511
11.7495 125.777 -4.86074
-12.6634 97.4112 5.97609
-16.3638 96.4061 1.69189
22.124 136.203 -6.18182
25.4183 137.194 -2.41869
18.4635 130.181 -1.31282
14.2497 123.399 4.02077
24.9293 134.269 2.19812
15.4187 121.576 9.41526
19.3885 131.065 -1.23761
20.2028 134.675 -6.43263
-16.7562 96.4703 1.19885
-13.959 96.9783 5.08122
-17.0329 100.397 -6.32259
25.1973 136.35 -0.759495
16.4865 121.287 12.201
17.0355 127.839 1.15549
1.96927 116.717 -3.93403
15.5635 122.438 8.59237
19.1967 129.22 2.3207
-9.44685 99.1714 9.06513
-17.3584 96.5688 0.46788
18.9078 129.473 1.46408
8.71996 117.448 6.31633
-7.73677 100.1 10.4712
19.0465 130.205 0.631815
7.59167 119.622 0.679655
7.81658 116.019 7.73805
16.1673 129.959 -3.70809
-4.62341 102.73 11.106
25.187 136.699 -0.801238
10.0832 124.231 -3.31028
-13.2381 105.088 -7.55702
11.0316 125.859 -4.5886
14.4175 124.205 4.19565
23.2612 131.944 5.03756
-16.4932 101.775 -6.87013
12.8464 123.394 3.20327
15.4758 129.957 -4.3973
10.2939 124.791 -3.63097
18.7109 131.948 -2.51594
15.6354 122.27 10.0611
11.9388 122.79 2.86857
-6.3427 110.592 -5.60121
16.7489 132.649 -6.89236
11.3621 126.561 -4.78334
17.8133 130.443 -0.959581
5.3912 118.853 -0.593792
18.5018 132.277 -3.04764
18.684 130.93 -0.236585
-16.9792 101.335 -6.24925
10.0074 124.628 -3.32628
-2.00444 113.778 -3.71913
17.4644 122.653 12.9751
9.81209 124.376 -3.08759
0.309838 116.198 -4.10318
17.8064 131.771 -3.07211
12.2478 123.419 2.90135
19.851 135.617 -6.56316
9.34697 119.792 4.72467
17.3518 130.35 -1.10606
-14.5774 104.338 -7.37982
15.6425 130.839 -4.79409
19.1195 131.186 0.541358
19.2045 135.12 -6.5299
16.9177 133.174 -6.79885
15.6848 124.761 6.57524
-6.40601 111 -5.56184
1.91307 117.694 -3.64381
23.5408 138.274 -4.76727
24.4051 134.975 2.86215
24.6541 136.895 -0.231447
-10.4988 108.717 -7.93258
1.18406 117.302 -3.90859
-18.5383 99.1611 -3.96346
14.9172 130.683 -5.15147
-4.57882 104 10.8597
-0.199925 116.112 -3.96339
24.9329 138.315 -2.09597
-18.0461 98.4698 -1.61906
7.12446 115.87 9.08249
-17.3401 101.495 -5.90592
16.0255 130.874 -3.32233
16.0951 131.041 -3.32298
17.4809 132.249 -3.18037
16.0889 132.719 -6.25444
15.6497 123.862 9.29763
15.7479 124.916 7.57251
-9.356 109.981 -7.48567
19.3726 127.87 8.36114
-6.88107 111.536 -6.08436
23.4258 138.632 -4.49891
-0.618269 109.23 8.91127
15.576 131.001 -3.65307
8.70586 119.531 5.81624
24.9962 138.702 -1.79045
15.6984 124.504 8.54929
0.214717 116.919 -3.74235
11.244 127.683 -4.79935
-7.40453 111.421 -6.47709
7.195 116.517 8.97701
9.17888 124.721 -2.56567
24.336 137.284 0.0488275
15.2696 130.921 -3.54377
15.2938 131.471 -4.50556
-9.28955 101.312 9.31744
15.8086 125.173 8.03838
3.62369 119.519 -2.1538
15.6386 126.265 5.81583
24.7785 138.221 -0.600036
11.9188 124.476 2.89576
-12.8615 107.439 -7.76633
7.36703 117.179 8.68602
16.6079 130.764 -0.538255
-14.1393 99.259 5.32502
-13.4039 107.029 -7.70303
18.2171 133.339 -2.45328
-0.0202193 110.373 8.91685
17.7976 132.103 -0.810845
-18.0763 101.297 -4.87837
-14.6714 106.021 -7.70571
-5.37426 104.418 11.0142
15.8485 124.11 10.8224
-17.2825 98.9464 0.95931
15.1708 131.925 -4.62515
-2.02617 108.671 8.97947
0.529135 111.058 8.92758
10.4744 123.196 3.69944
16.9173 134.397 -5.93191
-10.5474 101.235 8.47864
-16.7556 98.9334 2.19826
10.3431 123.037 3.83152
18.1894 133.979 -2.93336
22.3254 139.202 -5.40714
8.5017 119.856 6.72465
7.43738 117.914 8.49017
15.2031 131.413 -3.1421
9.20236 125.891 -3.10647
24.3566 137.886 0.596068
-8.8084 102.25 9.96552
8.46793 124.068 -0.85108
12.8767 126.233 2.72248
18.1758 127.097 10.2426
-11.3609 109.839 -8.00162
-1.7913 116.1 -3.24758
23.0917 135.087 4.02852
-18.6931 100.557 -3.31338
24.3123 138.128 0.515346
-8.03895 112.412 -7.00907
5.69356 115.871 9.95186
10.7431 128.477 -4.6274
-17.8579 99.951 -0.603349
7.46391 118.412 8.43987
-15.783 105.55 -7.31308
-10.6575 110.633 -7.90773
-7.63331 103.117 11.0866
24.2691 138.369 0.438562
-18.1953 100.23 -1.31729
-15.1365 106.56 -7.65034
-7.3479 103.453 11.2617
8.93016 126.149 -2.86155
14.6292 127.535 4.26698
7.75345 119.054 8.2152
-16.8868 103.695 -5.07172
3.1673 120.612 -2.17464
7.56561 123.461 0.0529465
17.2993 126.379 11.2984
20.4438 132.524 5.33432
18.1649 127.825 10.1662
16.3416 125.478 11.5106
-15.6214 106.154 -7.10173
-17.3025 100.223 1.04183
9.25599 127.393 -3.81107
-12.1451 101.55 7.47438
8.40846 125.395 -1.51836
18.1338 128.053 10.1593
12.6279 127.037 2.7908
-17.2731 100.514 0.882008
23.7736 137.404 2.6605
-6.37875 114.326 -6.01709
20.5724 133.291 5.00338
2.87155 114.226 10.0548
17.7227 127.704 10.454
18.5764 129.034 9.47447
14.5033 133.46 -5.55083
-9.37518 112.531 -7.52738
3.31117 121.145 -1.81996
12.5218 127.137 2.81614
2.86879 114.337 10.0965
-17.0798 100.811 1.24468
6.80195 118.673 9.10242
15.7394 128.503 6.20116
4.48456 121.847 -0.560876
18.7177 129.833 8.95293
8.53574 121.695 6.69298
15.8305 133.93 -3.37806
8.89776 127.649 -3.56484
2.63806 114.441 10.1082
10.5937 125.495 3.29258
3.7653 121.628 -1.17037
20.9133 134.087 5.03016
-18.381 102.755 -3.86217
-1.45893 117.854 -2.90138
19.6437 132.183 6.56905
-1.43067 111.477 8.95576
24.4021 139.276 1.67067
-0.722331 118.59 -2.86431
5.48627 122.73 0.14919
10.0788 124.964 3.84196
16.4563 134.828 -3.46403
-11.2639 103.007 8.10482
22.9618 141.14 -3.90025
-9.79625 112.955 -7.58392
-4.7721 115.752 -4.1699
15.4305 129.195 5.46114
12.833 128.273 2.77471
15.4349 134.759 -4.71837
19.3442 132.128 6.77946
-6.16016 106.297 11.0583
4.28526 122.289 -0.589585
18.5346 130.551 8.38735
-13.3146 102.257 6.60725
-16.9024 102.672 -0.223771
8.72724 123 5.88636
14.3157 134.707 -6.04401
-17.0118 102.777 -0.426485
-4.8259 116.094 -4.19494
15.9907 126.879 11.2985
12.4989 132.764 -5.38269
7.44509 120.608 8.42492
-4.04102 109.25 9.9217
-16.7236 105.787 -5.19642
-5.91651 107.006 10.8814
-12.2655 111.404 -7.85681
10.887 126.865 3.08685
-5.85562 107.217 10.8345
-9.10133 104.47 10.4098
-18.2424 102.715 -1.83159
16.383 127.504 11.3072
24.2937 141.561 -1.05666
8.89928 128.845 -3.73978
14.6032 135.337 -5.89863
1.48463 121.373 -2.45031
23.556 139.363 1.9191
12.8201 133.563 -5.61169
21.8869 141.358 -4.57108
18.8042 132.119 7.18707
6.53325 124.563 0.358431
11.9994 132.648 -5.13811
10.8282 131.465 -4.81568
-9.29248 104.836 10.2879
7.78573 127.081 -1.57607
16.5139 137.315 -5.5532
-13.1887 111.148 -7.77155
21.7303 137.138 3.7584
11.5689 132.537 -4.9815
15.2807 134.868 -2.94451
2.38859 115.718 10.4045
17.8933 131.24 8.20554
10.4061 131.371 -4.65646
-16.1922 107.624 -6.07848
22.754 138.879 2.5372
-9.97916 114.122 -7.41488
-8.65582 115.124 -6.91296
22.637 138.801 2.63512
-7.97713 115.626 -6.62609
-14.5734 110.068 -7.49651
-2.87014 118.223 -2.64446
7.04121 121.291 8.5551
17.6634 131.06 8.68719
12.028 129.097 2.83998
12.1268 129.211 2.8169
-6.589 116.811 -6.09756
16.3532 137.04 -4.30286
-15.788 109.001 -7.12947
1.80431 122.44 -1.89685
18.5853 133.009 7.18399
11.3426 133.034 -5.03212
-12.8776 112.11 -7.61962
20.5844 136.459 4.39122
-15.7398 109.276 -7.13044
7.93388 122.789 8.17845
-7.19474 116.717 -6.29871
23.9336 141.474 0.992131
8.66687 124.599 6.18866
-9.37745 115.204 -7.05813
-17.3627 104.711 -1.20614
-16.2433 108.632 -6.46632
19.8495 140.866 -4.49503
4.64213 124.467 -0.076056
-5.04188 117.903 -4.41253
2.93162 117.797 9.30614
-7.13191 107.421 11.4583
-6.34449 117.669 -6.02646
-18.0289 104.693 -1.92303
5.00096 119.919 9.14209
10.2499 132.16 -4.45293
-5.89026 117.864 -5.5057
-15.3447 104.02 3.99443
8.45449 124.445 6.81717
19.5152 140.841 -4.44507
8.14487 123.768 7.69935
11.5184 129.505 2.88829
4.3875 119.712 8.8233
11.5754 134.051 -5.24069
-4.07871 118.653 -3.28121
-17.8 105.011 -1.45204
5.17765 120.536 9.19632
-6.52824 117.969 -5.91428
16.5202 130.64 9.86044
-1.626 120.394 -2.03875
7.55385 129.13 -2.33369
-8.23918 107.243 11.1442
-6.0022 109.527 10.777
15.2511 129.728 9.6955
4.88702 120.539 9.03841
-10.3864 106.291 9.45666
3.64113 119.748 8.50716
21.4177 139.156 2.99017
15.7946 137.324 -3.05862
-11.526 105.958 8.32091
14.9981 129.834 9.41694
14.515 132.731 3.28957
20.4091 137.802 4.1265
3.26402 124.976 -1.28894
-17.2195 105.778 -0.540022
7.96549 130.599 -3.446
-18.2078 106.752 -3.94092
4.28588 120.664 8.69096
22.7975 143.885 -2.61263
-14.1302 105.478 5.62905
-5.55227 110.882 10.3068
-10.2061 116.1 -7.1252
23.2914 142.294 1.5094
-15.4328 106.44 1.80812
8.52595 131.663 -3.82121
-3.89275 112.918 9.6129
6.68813 128.102 -0.309486
23.3792 144.209 -1.33799
-17.4812 106.136 -0.537503
-1.56805 115.292 9.68928
21.6956 140.574 2.67332
15.9408 139.291 -4.58085
-17.3588 109.021 -5.37414
13.0236 132.807 2.40981
7.164 130.067 -2.41597
19.2099 136.925 5.51661
14.6299 132.254 6.35403
-8.74825 117.752 -6.57439
7.82117 125.111 8.03199
5.6836 127.447 0.189477
-9.54643 107.715 10.6676
-14.568 107.025 3.482
18.6868 136.171 6.27641
-13.7921 106.651 5.52002
-3.53708 120.67 -2.62995
-4.45779 113.11 9.72521
14.5792 132.72 6.0461
18.5002 135.718 7.1973
-4.29672 120.689 -3.80299
7.78039 125.469 8.01191
14.3765 134.474 2.79703
18.4338 135.874 7.10817
-15.81 107.443 1.42253
6.40338 124.084 8.48149
7.88104 125.899 7.67122
14.4095 133.777 4.2791
-6.79948 119.497 -5.36686
1.24675 118.919 9.33805
-16.4781 107.181 0.875733
-15.4541 107.633 1.82416
17.5403 134.802 7.816
-5.17121 112.726 9.95419
-17.8647 108.884 -4.42353
-12.6663 114.981 -6.78427
-0.806409 116.595 10.3586
16.0812 132.872 9.11007
15.5665 139.482 -3.83674
-4.66235 121.252 -4.5021
14.4992 133.429 5.59526
14.9114 132.217 8.52628
14.386 133.904 4.60849
2.39586 120.551 8.84127
6.55466 129.775 -0.940556
15.1414 139.622 -4.35109
16.4118 133.961 8.27922
-12.044 107.793 8.1531
19.8333 139.543 3.83134
-12.7991 115.194 -6.68763
10.738 130.687 4.82062
-11.4287 116.583 -6.80557
20.9336 144.567 -3.37389
-16.8594 107.429 0.840266
-18.1209 108.765 -3.75056
6.96551 131.459 -2.93629
20.5446 144.298 -3.50872
-12.7732 107.877 6.99473
7.44632 132.137 -3.28409
19.7786 139.618 3.86625
9.78045 135.185 -4.88214
17.3934 141.811 -4.07057
11.9587 133.158 2.64978
7.24568 132.005 -3.18541
-17.8764 109.644 -4.41814
5.97829 129.493 -0.392765
4.7361 128.102 0.0735917
21.6378 142.265 2.7597
-15.2643 113.391 -6.69541
13.7469 135.217 2.36154
18.9328 138.235 5.61938
-11.7331 108.355 8.58938
18.6545 137.941 5.79427
18.8552 138.193 5.67107
14.6347 133.641 6.94064
-1.57531 123.377 -1.63771
12.9186 138.919 -5.63771
3.9539 127.869 -0.433197
14.7686 133.602 7.48519
-2.6329 122.674 -1.80388
7.57994 133.129 -3.63997
-12.2361 116.592 -6.60124
-3.36384 122.581 -2.5068
4.97789 128.785 0.240761
-9.01053 119.255 -5.93447
14.5459 134.225 6.4762
10.9173 132.531 3.46975
19.299 139.779 4.5244
-12.4782 109.408 6.59046
14.444 134.988 5.21173
-8.53661 119.697 -5.52863
14.5269 140.634 -4.91797
15.1532 139.804 -2.30218
5.65646 129.932 -0.238989
13.97 140.361 -5.16169
2.46022 122.518 8.13532
4.13222 128.678 -0.188732
-10.8358 118.428 -6.65329
-6.43637 121.429 -4.70592
-18.0307 110.417 -4.09664
12.9056 139.843 -5.71369
16.8429 136.084 8.03329
-5.66977 122.217 -4.59912
7.42993 133.992 -3.92476
-12.2713 109.844 7.23009
-16.502 108.733 2.29043
14.9238 134.659 7.91244
6.18233 131.991 -1.908
14.8116 140.049 -2.08908
-18.0415 110.896 -4.13022
-4.39749 123.362 -3.82073
3.72767 124.588 7.93818
-13.3515 116.555 -6.18834
20.7664 142.947 3.16277
13.9554 141.246 -5.19316
-5.7208 122.862 -4.72426
4.07264 124.884 8.17974
-1.00581 125.349 -1.27501
21.857 145.193 1.12422
-13.7966 116.316 -6.22113
14.266 136.922 3.48374
5.51968 126.094 8.66395
11.9199 135.094 3.07625
8.64564 130.171 6.59049
-3.17504 124.093 -2.2485
16.0718 141.999 -2.53516
-16.6401 113.674 -5.84151
-11.132 110.592 9.16893
11.9759 135.357 2.8242
17.1835 143.451 -3.2147
-12.5309 110.762 6.56165
-18.1232 109.077 0.268451
19.6651 145.605 -2.77904
21.6737 145.984 0.0067594
-6.58655 122.491 -4.69795
-10.0063 120.087 -6.06565
16.2342 142.306 -2.37759
-6.67136 122.487 -4.69793
-8.0311 112.542 11.3199
-12.9411 111.376 5.22254
-7.49685 113.328 10.9144
-5.01365 116.27 9.78076
2.63977 124.805 7.15912
11.3757 135.067 3.12755
14.7543 136.789 5.75305
1.66956 123.418 8.19945
3.27912 125.252 7.57104
14.4442 140.824 -2.07123
1.98755 124.13 7.63174
-0.642836 120.571 9.87188
9.98863 133.69 3.83102
-17.7963 109.392 1.43266
2.72065 125.202 7.17862
-6.96229 114.512 10.4762
13.723 141.563 -4.16859
17.3936 139.129 6.52941
-9.42559 111.76 11.387
8.33154 130.808 6.61538
-8.55378 121.594 -5.06369
10.7949 134.993 3.11686
-3.29727 124.838 -2.0925
-1.24985 126.219 -1.08943
5.45486 127.08 8.70073
-8.98301 112.338 11.3426
15.9264 137.146 8.05349
6.98577 135.413 -3.89886
-15.5951 110.344 3.92502
-9.59724 111.874 11.3236
-17.5704 113.436 -4.9639
-12.8229 112.089 5.57441
10.4944 134.952 3.11334
-18.2455 109.978 0.340256
13.973 138.102 3.37182
14.7216 138.451 4.00542
14.8903 137.641 5.85138
14.9281 137.997 5.30174
-0.279268 127.3 -0.797904
-11.0492 111.939 9.1991
-17.8407 113.123 -4.46384
-8.7342 121.881 -5.05054
20.732 144.874 2.66908
1.09764 123.6 8.50753
-0.757915 127.05 -0.924253
19.6225 146.532 -2.18495
18.0647 140.973 5.44754
-0.278033 121.809 9.74736
15.5059 137.734 7.34696
19.3518 143.455 3.612
21.0601 147.35 -0.603132
-3.26973 119.485 9.51403
-14.9399 117.131 -5.85816
14.4974 139.021 3.80619
18.5523 142.67 3.98395
-18.2075 110.514 0.832
-18.6959 111.175 -1.11581
-10.3314 112.572 10.5474
15.5451 138.333 7.05208
-18.0374 110.42 1.48767
4.63855 132.373 -0.336875
10.0092 140.289 -5.77069
1.71175 129.759 -0.460373
-0.958825 127.643 -0.9947
-16.6408 110.821 3.39105
-15.0082 111.979 4.33625
-8.38995 114.266 11.3577
10.7864 141.553 -6.23744
3.66321 131.632 -0.0321766
6.51476 136.37 -3.8583
-15.6491 111.655 4.01224
9.66224 134.347 5.20113
-14.019 118.538 -5.8257
10.396 135.872 3.77685
-3.22981 126.379 -1.84568
8.4314 139.057 -5.27213
-11.0742 113.542 8.59718
-0.615451 122.665 9.63016
3.86059 132.089 -0.103883
20.2675 145.82 2.47471
-9.53246 113.706 11.01
14.8634 139.93 4.28618
16.9527 140.383 7.05574
10.3958 135.911 4.22428
14.9836 139.964 4.61275
12.4287 142.834 -4.85585
-17.3584 115.555 -5.09968
-15.7821 117.386 -5.71551
-17.862 114.776 -4.36632
-13.2734 119.87 -5.90182
-2.99747 127.12 -1.7176
18.0579 143.283 4.29812
-10.5494 113.509 10.5552
-17.9138 111.457 1.94781
-12.1607 114.034 6.97458
1.27318 126.522 6.85013
10.2776 141.967 -6.17237
-16.0494 117.47 -5.67093
-0.0413767 124.188 9.20909
16.7535 140.895 7.13056
1.53505 131.058 -0.519681
13.5199 143.341 -2.77914
-10.5109 113.954 10.5411
-18.6911 112.369 -0.382475
20.0407 147.175 1.34419
-6.85939 125.837 -4.94897
-0.438034 123.869 9.64229
11.8955 143.347 -5.15017
15.5252 144.41 -0.951596
-8.77799 124.642 -5.71857
8.71619 133.89 7.01119
8.11806 133.144 7.37706
9.23468 141.21 -5.46859
10.4587 138.074 2.41875
9.43411 134.958 6.40893
-5.70331 126.61 -3.70378
-0.342117 124.492 9.34807
1.31129 127.42 6.78808
2.45339 128.188 7.31516
-15.6452 113.107 4.36396
11.9293 143.699 -5.11202
-18.1342 113.175 0.0590436
-12.587 121.752 -6.27993
-13.4562 120.663 -5.74559
-10.5895 114.704 10.163
18.9523 145.743 3.28341
16.1848 145.449 -0.820015
17.7385 144.135 4.37023
19.479 147.053 2.01966
-2.84847 128.501 -1.63288
18.5814 148.303 -1.65563
-17.2594 114.63 -0.191649
-1.26725 123.984 9.80255
14.1559 141.38 4.04614
7.46105 133.52 7.16725
-17.2812 114.788 -0.10941
4.12461 134.835 -0.677813
-7.10458 118.211 10.9755
-6.59543 126.97 -4.21715
-6.76822 126.951 -4.40892
-17.1159 117.379 -4.17851
10.4137 139.226 2.32872
19.2698 148.182 0.878366
14.3812 141.743 4.47316
18.4189 146.025 3.51117
1.44416 132.44 -0.250349
-18.0809 113.301 1.8404
19.1441 147.889 1.36041
15.2399 142.027 5.53236
-17.6631 116.215 -2.68033
-12.2655 122.997 -5.93972
-5.77792 120.16 10.2794
0.652354 132.072 -0.691783
-14.0706 121.208 -5.61586
7.1011 134.12 6.86462
-11.3373 115.863 9.22938
7.24162 134.55 6.46701
-0.613396 126.16 8.59185
-15.0913 114.291 5.88327
-7.40957 127.208 -4.80643
1.22175 132.75 -0.282116
-6.63414 119.517 10.7273
-13.175 122.787 -6.27099
-12.1686 115.57 8.75577
13.427 141.979 3.62423
8.79615 142.77 -5.39291
-7.60505 127.385 -4.88206
-17.6358 116.548 -1.8597
8.57416 142.64 -5.25292
8.69415 137.349 4.71277
-3.85171 122.913 10.0436
-10.5823 116.49 10.5379
-7.89466 118.565 11.3739
8.59985 142.932 -5.2929
-6.90662 128.326 -4.69801
16.3469 144.312 5.35966
1.09263 129.396 6.97221
-9.97908 126.767 -6.66332
12.9601 145.317 -1.81812
-9.73212 117.457 10.954
5.40227 139.279 -3.42402
-16.0029 119.477 -3.25419
-11.4542 116.647 9.66246
-16.9618 116.731 0.218324
10.1973 139.138 5.09039
-3.86866 123.434 10.1535
9.90794 144.755 -5.62219
3.39496 135.994 -0.488893
0.135816 133.178 -0.73249
-6.38756 120.884 10.8149
1.12189 130.206 6.50676
-17.6739 114.424 3.68049
5.91907 134.749 6.35736
16.3508 145.068 5.07291
-12.0127 124.736 -5.6238
-17.3683 114.515 4.12151
-8.53023 127.938 -5.5344
-7.66005 128.674 -5.27861
0.0412661 133.329 -0.754446
2.84029 132.209 6.07087
-7.46539 119.8 11.4308
5.0191 134.043 6.41156
-12.6157 124.482 -5.88929
-11.5665 125.256 -5.52121
-2.8496 125.775 8.34853
11.4488 142.415 2.03195
3.19569 136.181 -0.415564
-16.0454 120.52 -4.0835
4.4869 133.879 6.24697
-9.6936 127.906 -6.76004
10.5764 141.855 1.97205
-15.8344 121.048 -4.54278
3.30109 133.095 5.8791
-16.3124 118.65 -0.80557
-17.671 114.933 3.7799
-10.4787 117.876 10.5678
-2.52253 131.955 -1.786
-16.2898 119.952 -3.02353
-16.486 118.546 -0.655744
6.92621 137.35 4.47709
-15.8324 120.341 -2.63826
-15.6953 120.731 -3.09521
-7.96993 129.363 -5.80195
10.4775 142.166 2.05193
15.7221 148.398 -0.447061
7.54706 143.221 -4.67753
-0.181485 134.028 -0.813461
10.0343 141.905 2.02682
-13.908 116.677 7.906
7.14877 142.879 -4.51034
1.25089 131.949 5.59659
11.7138 146.57 -3.53926
-10.5822 128.026 -7.20113
-9.99634 128.662 -7.36214
0.261051 134.461 -0.548365
-15.0112 116.516 6.6424
-9.07131 129.433 -6.87468
6.6339 137.889 4.28991
-4.57961 124.931 9.1051
-4.57577 131.564 -3.02545
0.897807 135.161 -0.211068
-15.5511 120.058 -0.288654
-2.19497 127.729 8.25691
-17.7654 116.088 3.34146
12.1933 143.924 3.05198
-16.1679 116.141 6.197
-12.9466 125.421 -5.38244
-14.6289 123.724 -5.07443
-8.52041 120.535 11.139
-7.38331 121.644 11.036
-16.7513 118.723 0.639126
-4.8373 125.743 7.93208
-6.6939 122.506 10.7555
12.9797 147.866 -2.45265
10.8531 143.435 2.1135
-11.9469 118.1 10.0777
9.22419 141.516 2.95907
-5.32108 124.8 9.03476
-11.8519 127.263 -6.52256
-3.10169 127.572 7.74583
-5.50567 123.989 10.2777
16.5208 147.951 3.62937
17.2561 149.595 1.9302
-16.21 121.074 -2.34564
4.03382 139.546 -1.96169
17.2384 149.572 2.00627
-13.2918 125.36 -5.20555
14.3138 145.262 5.05968
-0.573972 134.829 -0.943035
-15.3421 122.725 -3.69678
8.56099 145.714 -5.40779
-12.0003 127.387 -6.55369
-13.2253 125.821 -5.70074
-16.9943 119.094 0.276319
11.2008 147.449 -4.03384
8.1006 145.192 -5.1254
-15.1317 123.588 -4.61627
5.84734 138.101 4.28194
-16.1665 117.207 5.38037
11.1602 147.546 -4.01165
2.77722 138.049 -0.718568
-11.7999 118.832 9.94412
12.9109 144.893 4.00482
-8.11765 122.394 9.74308
9.22393 141.58 3.92839
9.92801 147.31 -5.25183
-16.102 117.155 6.07121
-15.4858 122.78 -3.17659
-17.1842 120.465 -1.79866
-17.0174 120.659 -1.84316
-8.84311 131.049 -7.04857
13.7728 149.005 -1.71095
-15.1363 123.317 -3.47389
4.82368 141.605 -3.23608
-13.4028 126.125 -5.6176
-12.3589 127.635 -6.62061
-11.3025 119.661 9.9051
0.668942 133.203 5.30724
-16.897 120.393 -0.88692
-9.67284 130.585 -7.2738
-16.8939 119.792 0.359493
-4.43015 133.175 -3.08244
-14.5688 117.752 8.1199
-5.9024 132.573 -4.40969
-7.21528 123.314 10.4213
8.54565 141.886 3.01744
-9.39989 121.158 10.8567
-16.2681 121.03 -0.494417
-11.1544 129.236 -6.90865
-16.4015 121.637 -1.76635
-8.39405 123.18 9.06633
-9.33006 121.714 10.206
-9.35147 121.463 10.6657
-8.71424 124.137 7.14802
-9.36178 123.475 7.31433
-9.28422 123.608 7.20183
-6.03717 126.19 7.99619
-16.5057 120.3 1.17428
-15.8039 117.876 6.87706
14.8617 149.998 -0.182558
-16.1235 121.343 -0.0107804
4.07207 141.266 -2.34945
3.01234 136.277 5.02745
16.1505 150.127 1.84421
4.38205 141.8 -2.77355
-10.34 121.054 10.4163
-4.21431 128.815 6.54031
-10.4806 120.994 10.3468
-5.13197 127.68 7.19689
-5.90378 126.628 7.83572
-14.5318 124.96 -3.65573
-2.90493 134.699 -1.82462
-11.8876 128.725 -6.05349
-11.3083 120.612 9.85189
0.79821 134.471 4.91066
-4.26687 128.948 6.49781
-2.19171 131.434 5.46893
-14.1877 125.889 -4.54202
-11.7815 129.28 -6.6537
1.51491 135.445 4.58048
-9.90086 123.453 7.2821
8.00129 142.597 2.61395
-13.7846 126.303 -4.21273
-16.8048 121.336 -0.188767
13.0963 146.839 3.74672
15.2158 149.475 2.50755
-16.0004 122.004 0.150812
-16.5222 120.099 2.7855
-9.58565 131.721 -6.80343
-2.23884 131.874 5.45335
1.92899 136.217 4.58186
-15.2118 123.435 -0.895105
1.94357 136.307 4.57001
-15.4917 119.322 6.2643
-15.252 122.794 0.326071
4.09772 138.574 4.11807
-5.05313 128.736 6.70616
-7.43351 126.23 7.30598
-11.5859 129.587 -5.88921
-10.6229 122.119 9.50444
0.678618 135.27 4.51153
11.5161 146.213 2.77391
-17.1736 119.069 4.04426
-10.082 131.412 -6.55729
-15.2616 122.858 0.395056
6.57512 141.664 2.85222
0.18676 134.861 4.65708
6.40365 141.574 2.88875
-4.76132 129.475 6.29998
-15.6869 119.891 5.42976
-16.3482 120.573 3.14256
-2.88532 135.863 -2.08662
-2.24379 132.451 5.30217
-15.6944 119.758 5.95107
-17.3043 119.395 3.90427
-2.67129 132.174 5.22239
11.5385 149.794 -3.07472
-16.3599 118.586 7.06092
-16.1266 119.872 5.12314
-15.4323 123.211 0.230482
-17.4968 119.393 3.77699
-6.34173 127.673 7.53742
-14.8541 124.081 -0.257779
13.1192 147.94 3.36591
14.1909 149.226 2.82619
3.91002 142.634 -2.46956
-16.4382 119.922 4.84078
10.9651 146.716 2.24784
-17.1096 121.114 1.80425
14.2677 151.005 0.0845713
-16.0894 122.238 1.63048
14.7156 150.451 1.9842
-16.781 121.228 2.39221
-15.1388 123.089 1.7627
-14.3694 120.701 7.4766
3.91237 139.783 3.41198
-13.691 121.002 8.19938
-11.4272 130.327 -5.09255
-15.8663 123.188 0.50797
5.59506 145.387 -3.91853
-15.3129 123.738 0.445294
11.0612 147.01 2.3781
-16.0553 119.341 7.28851
-16.0318 121.051 4.21422
6.43062 146.397 -4.29259
-7.63843 127.302 6.97626
-16.781 120.016 4.95375
-11.9738 123.196 7.25687
-14.742 125.979 -2.50546
-17.2079 120.637 3.14329
-16.4236 119.802 6.02735
-14.5427 120.458 8.0601
14.6258 150.809 1.76927
-17.5552 119.627 4.58062
-17.4224 119.985 4.22464
-7.84681 127.348 6.95237
-17.0009 120.377 4.28009
-16.523 122.925 0.409216
-16.3871 122.098 2.25557
-11.1694 131.005 -5.25388
5.67297 145.836 -3.96888
-16.3139 120.371 5.60968
-11.1874 130.985 -5.19529
-5.38682 130.474 5.58251
-18.2129 119.393 4.26109
-3.99934 132.261 4.72332
-6.26284 129.418 6.15974
10.2694 146.916 2.06451
-18.0303 120.07 3.45396
-16.2894 121.374 4.01105
6.88915 142.701 4.13289
-16.7646 121.553 3.0139
-2.90169 137.332 -2.48452
-14.9281 120.733 7.83083
-17.1261 121.012 3.68395
-4.13121 132.491 4.63849
-12.7928 122.179 8.97778
5.62072 143.03 1.98079
-4.56043 132.173 4.68298
-17.4485 120.644 4.03948
-13.3841 128.7 -3.8765
-17.4194 120.704 4.00721
-15.9032 124.001 0.528073
-13.6171 128.281 -3.4613
-17.4145 119.871 5.57037
-8.70955 134.593 -6.71911
-16.0837 124.17 -0.0537523
-14.7561 121.187 7.76097
-15.246 120.399 8.43698
-16.5501 119.836 7.26345
5.98326 146.848 -4.13559
-18.0076 120.314 4.074
-16.5376 123.855 0.0599966
-4.078 137.26 -3.44331
-16.1064 124.223 0.191697
-14.5742 125.925 -0.298726
-17.0822 121.416 3.75252
-8.56997 127.556 6.9199
0.366786 140.017 -0.733074
-16.4996 123.8 0.491532
-14.6628 121.239 8.39454
-16.4946 123.826 0.559005
-7.3174 129.099 6.48598
-15.0145 121.407 7.59714
-17.0236 120.653 5.61512
-15.8061 123.243 3.02854
-0.995873 136.488 3.90757
-5.20165 132.061 4.95241
-18.2688 120.243 4.53142
10.7262 150.859 -2.59102
10.1025 147.761 2.07278
-16.6096 120.445 7.03434
-16.0147 123.968 1.57782
-16.1431 123.935 1.42034
-15.7023 124.435 1.25605
-15.8716 123.975 1.82055
-16.6851 121.049 5.84777
-17.5429 120.207 6.01033
4.05423 141.96 2.6616
-9.17035 127.557 6.76518
-13.8087 122.508 8.20165
-13.5906 123.545 6.68505
-2.17203 135.396 4.26518
4.86054 146.197 -3.63587
-17.1008 122.802 2.33414
-4.20758 133.425 4.68771
-15.2663 121.632 7.63646
-11.0096 126.341 6.42916
-14.9054 122.59 6.77872
-15.9163 124.565 1.45285
8.41935 144.895 5.36268
-16.5178 120.412 8.10856
-5.19754 132.822 4.51719
-17.6847 122.846 1.72152
-15.2391 122.394 6.73523
-14.7774 122.668 7.0194
-16.5136 121.652 5.96462
-21.6943 117.185 5.41939
-15.5109 126.503 -1.21242
-15.5163 126.47 -1.11125
-16.9749 121.117 6.30526
11.6672 149.423 2.82273
-16.0607 124.192 2.21782
-13.4724 129.664 -3.34391
-15.7049 121.077 8.89767
-17.5922 122.955 2.26481
3.36386 144.974 -2.5808
-16.8412 121.691 6.12655
-16.9332 124.148 1.46132
1.60016 140.477 2.88251
2.58771 141.498 2.72432
-10.5434 133.314 -4.4504
-16.4457 124.564 1.63591
6.36531 148.776 -4.15528
-19.5067 119.647 5.72346
-19.1911 119.76 6.09414
-10.4573 133.786 -4.81949
-15.9081 126.64 -0.878918
12.7335 151.843 1.34726
-1.85096 139.979 -1.53115
-19.9931 119.546 5.28978
11.3215 149.96 2.45862
-17.6586 123.18 2.57606
-11.0896 132.423 -3.23905
1.73959 143.116 -1.1415
-6.13005 132.38 5.53687
8.23476 145.608 5.5842
10.5893 149.58 2.2766
11.0415 149.958 2.35068
-15.415 126.408 0.929698
-17.9257 123.644 1.76944
-21.3588 117.812 6.68962
-14.2398 128.657 -1.1572
10.6946 149.786 2.27361
4.03015 146.713 -3.26232
-12.8693 125.121 7.82764
-5.47129 133.608 4.82245
-13.0671 124.885 8.01811
-2.85051 139.894 -2.17516
3.48739 143.81 1.40132
-14.7305 128.248 -0.832619
-6.47397 132.289 5.79293
-5.86079 133.492 4.78994
-7.98292 130.263 7.17261
8.81955 148.339 2.4457
-17.5524 120.812 8.34908
-13.9203 124.383 7.96675
-5.60553 133.746 4.84929
3.39592 146.224 -2.79137
-21.1955 118.995 5.58822
-16.6741 123.887 4.30663
-14.4975 128.515 -0.5038
-4.85578 134.502 4.83855
12.0626 151.75 1.82439
6.25946 149.587 -3.9785
-18.093 125.149 -0.29797
-18.5621 123.798 1.42357
-14.3858 128.797 -0.684278
-16.816 120.763 9.98023
-13.389 124.691 8.58717
-11.5116 126.736 8.06994
-13.7395 130.113 -1.81444
-12.4617 125.63 8.60157
-12.4144 131.5 -2.10303
-11.912 126.341 8.34133
-16.9278 124.027 4.36356
-15.1027 123.492 8.44119
-5.89143 133.864 5.00735
-15.3623 123.357 8.29991
-17.2541 124.005 3.91783
-16.1974 123.523 6.6233
-16.2664 123.473 6.6148
-4.90331 139.744 -4.01471
2.10292 145.046 -1.78097
-14.5968 124.385 7.9304
-16.5962 126.878 -0.012894
-8.0878 130.88 7.06975
-16.8243 121.872 8.82581
4.86384 148.677 -3.61714
-8.17303 130.834 7.12379
10.3314 150.814 1.79152
-18.8717 123.592 2.34911
-16.7786 123.145 6.74503
-22.6513 118.615 5.1338
-6.76315 139.107 -5.58981
-11.7237 132.936 -2.57973
1.78407 144.879 -1.6278
-15.1076 127.93 0.920898
-16.4165 128.211 -1.78433
-3.7769 136.718 4.03682
-12.0976 126.796 8.22916
2.4807 143.759 1.77897
-6.1157 134.257 4.75799
-16.5131 122.186 9.34697
-15.6687 123.883 7.7458
-18.2842 125.24 0.856018
-17.3538 121.164 9.94523
-7.00933 139.184 -5.63032
-16.0556 128.618 -1.42749
-7.48119 138.946 -5.76095
-15.1227 123.994 8.7806
-16.1695 122.9 9.0223
-19.8006 119.685 8.79229
-15.6382 122.719 10.3445
8.49496 148.4 4.17299
6.16292 150.601 -3.76456
-5.42387 135.453 4.44746
-8.6246 131.036 7.23912
11.4406 152.821 1.27763
-19.8861 119.784 8.94738
-6.73776 139.777 -5.49262
-16.7729 123.197 8.13153
-15.1054 124.252 9.04451
-12.4846 132.567 -1.73888
-4.84111 140.909 -4.01843
-3.93774 137.662 3.51315
-0.786895 143.059 -1.06086
-17.0882 121.708 10.5717
-6.13144 135.044 4.65338
-8.77583 138.121 -5.44489
11.3499 153.116 1.10674
-13.2834 125.999 9.20317
1.02927 142.898 2.48299
-9.67762 137.086 -4.96826
-9.18033 137.737 -5.19396
-10.3811 129.649 7.7174
-12.8128 132.392 -1.44089
0.643852 142.63 2.57014
-6.80055 140.123 -5.41462
-22.6836 119.442 5.81733
-14.0633 130.443 0.338455
-18.4575 125.841 1.40481
-20.1498 120.24 8.8613
3.55349 148.594 -3.06725
-19.219 125.109 1.55476
-17.8556 128.373 -1.819
-21.0942 122.787 2.98267
-3.1957 138.947 3.62961
-7.06347 134.089 6.16775
-21.7804 119.807 7.48186
-9.13993 131.438 7.5508
-8.65533 139.013 -5.53396
-18.0772 128.361 -1.85005
10.9021 153.659 0.824412
1.68276 146.704 -1.91511
3.61343 149.251 -3.09182
-13.1422 127.655 8.29277
-20.2809 123.939 3.09329
-13.2822 132.582 -0.914428
-13.5198 132.052 -0.257908
-3.09928 142.693 -2.14934
-21.4101 120.355 7.9472
-20.3912 123.989 3.03992
-14.0629 126.016 10.2362
-6.17544 141.451 -4.73704
-22.4245 121.723 4.06968
-20.222 121.083 8.98865
-14.2722 131.803 -0.596852
-18.9071 121.764 10.0202
-1.1225 142.08 2.87731
-18.664 121.972 10.1815
-19.7099 125.996 1.01665
-11.4067 136.314 -3.78172
-9.33425 131.977 7.70417
-3.60739 142.899 -2.61858
4.70507 150.978 -3.38041
-4.71687 138.71 3.20436
-5.86944 137.426 3.64093
-17 123.445 10.5005
-13.7765 132.167 0.115782
-20.7012 125.374 0.864875
-15.7817 131.218 -1.52938
-13.5749 132.655 -0.309002
-9.87281 131.483 8.17785
0.0860531 145.811 -1.23793
3.68184 150.212 -3.12056
-0.989253 144.908 -1.28077
9.0888 153.804 -0.550606
-15.6998 131.338 -1.23006
5.55376 152.009 -3.13959
-22.1494 120.816 7.32738
-7.8291 134.431 6.95392
-7.05272 136.177 5.06227
-0.899983 143.098 2.86092
-15.8084 125.499 10.076
-0.893209 143.253 2.85201
8.16834 151.764 2.69711
-20.4825 126.377 0.815377
-7.75509 135.668 5.46873
-13.6483 133.774 -1.02465
-22.0768 121.369 7.5069
-14.0344 132.976 -0.0578076
-23.0062 121.117 6.57257
-8.136 134.578 7.18076
-17.5078 124.371 10.3247
2.11873 149.453 -2.45938
-17.0628 125.392 9.27876
-10.0326 139.419 -4.57257
-9.50621 133.16 8.01904
8.13509 152.433 2.54551
-13.8377 134.071 -0.927805
-13.651 134.427 -1.22435
-13.6325 134.507 -1.30387
-6.36843 138.613 3.58857
-13.3097 135.353 -2.15607
-21.2227 125.622 2.5441
-19.1215 128.733 0.42285
-20.7339 126.003 2.72544
-15.8739 126.321 10.4948
-5.77287 143.702 -4.31119
-5.64706 139.681 3.29403
-14.7274 133.279 -0.237778
-19.5391 123.365 9.99653
-16.1481 126.299 10.3723
-8.09833 136.316 5.62409
-14.2828 128.637 9.41581
9.30612 154.815 1.29437
-15.0828 133.156 -0.228394
-16.1426 126.412 10.3943
-13.6853 135.558 -2.15039
-3.32525 145.167 -2.24607
-19.8844 127.039 3.09919
-9.17255 134.303 7.91066
-21.4573 125.796 2.95349
-4.08045 145.024 -2.88543
-22.4506 125.404 2.05987
8.07787 153.47 2.29541
-18.1107 130.853 -0.491925
-14.9158 128.402 9.5761
-17.5003 126.689 8.40196
-2.21871 143.877 2.73056
4.07649 152.819 -2.8395
-8.56416 142.359 -5.01754
-8.49522 142.442 -5.01476
-21.5816 125.899 3.25786
-23.0317 122.49 7.10017
-17.0568 127.699 7.81142
-11.6596 138.768 -3.3127
-21.2252 126.229 3.7557
-7.96157 143.254 -4.94789
-3.68303 145.97 -2.45052
-15.1468 133.984 0.17354
-23.303 124.076 4.73079
6.76139 154.665 -0.496939
-7.60319 138.466 5.02079
-13.2103 137.221 -2.18746
-3.90378 143.049 2.88609
-5.47476 145.321 -3.95059
-23.1509 123.391 6.51176
-22.9717 125.026 3.84088
-14.6752 134.607 0.353409
-19.0755 130.956 -0.355574
-15.8713 133.658 0.19266
-19.187 125.243 10.1005
-23.1959 123.767 6.08755
-1.05057 148.265 -1.40268
-11.9501 139.124 -2.94351
-16.4626 128.728 8.57102
-22.8917 124.103 6.22661
-8.59807 143.275 -4.76678
-2.03599 147.552 -1.49635
-15.2124 129.797 8.86203
-22.9009 124.049 6.41799
-20.359 127.362 4.73228
-21.7745 123.952 8.62929
-7.40312 139.451 4.50533
-22.2904 125.413 5.47285
-22.0904 124.006 8.4226
-16.1934 129.72 7.93668
-19.285 126.024 9.68872
-22.4896 124.525 7.20876
-9.25568 136.675 7.35337
-17.2566 129.237 7.55034
-22.2313 126.109 4.89914
-21.5877 126.071 6.21671
-15.2097 131.03 7.99237
1.09253 151.832 -2.42505
4.91352 154.925 -1.56987
-21.6745 126.677 5.38631
-12.7996 137.853 -0.0340047
3.07922 153.757 -2.17557
-10.6565 142.191 -3.74389
-12.9537 132.998 9.27576
-10.5663 135.832 8.27543
-19.6397 131.763 0.459851
4.17614 154.865 -1.54335
-3.32619 148.267 -2.09111
-10.281 136.271 8.22119
-3.69164 148.057 -2.25044
-5.74149 147.148 -4.00975
-12.1728 139.568 -0.819095
-5.04607 147.533 -3.36979
-10.8092 142.402 -3.69023
3.70914 154.722 -1.58936
-20.1456 130.234 3.06127
-9.76847 137.341 8.06905
-19.0897 128.76 8.0846
-18.2589 133.786 0.260221
-2.38741 149.556 -1.6085
-17.0962 135.021 0.338787
1.80349 153.794 -2.00499
-4.19829 148.564 -2.53198
-11.2136 136.161 8.41305
-11.8265 141.9 -2.79993
-19.901 128.185 8.76033
-21.516 126.562 9.0795
-20.3446 127.485 9.47512
1.98569 154.224 -1.73679
-20.365 127.54 9.45848
-10.0063 138.076 7.93776
-11.3827 142.91 -3.06917
-7.97911 141.917 4.53389
-12.8221 140.649 -1.2768
-15.6592 132.97 8.1752
-12.3886 141.64 -2.08338
-21.0706 127.687 9.25339
-0.785736 152.523 -1.96475
-3.97689 149.858 -2.22399
-20.0108 131.63 4.21746
-19.8194 129.63 8.25156
-10.7196 144.328 -3.29292
-20.0061 132.218 3.29207
-18.9049 130.784 8.09903
-20.8313 130.532 5.38492
-11.6838 143.049 -1.95592
-10.3882 145.162 -3.53646
-9.686 146.143 -4.09605
-8.60293 142.175 5.07636
-8.17398 143.009 4.48999
-14.5827 134.421 9.56776
-17.8386 135.232 2.58
-21.7975 128.585 8.17089
-10.9483 144.782 -2.97021
-15.8708 138.047 1.13068
-1.91196 152.399 -1.5711
-15.6684 138.317 1.23815
-7.01402 145.363 2.98657
-15.9535 133.95 9.00045
-12.9122 141.87 -0.0175134
-12.0825 143.327 -1.26796
-12.5223 141.632 1.26601
-4.75687 151.171 -2.34992
-9.44641 147.668 -3.53197
-21.6184 130.477 7.61597
-12.4615 142.739 0.6367
-19.1077 134.837 4.16931
-8.87143 143.878 5.00736
-21.7261 130.257 8.46077
-12.3765 143.405 0.216059
-4.76495 151.826 -2.27457
-14.483 136.486 9.77943
-14.4348 136.567 9.75229
-14.54 136.512 9.79033
-19.9802 134.406 4.59416
-9.44068 143.301 6.21737
-3.17238 153.515 -1.68827
-19.7198 132.656 8.84122
-14.4156 141.545 1.88291
-20.8354 131.901 8.74171
-7.02888 150.923 -2.77847
-6.89492 148.301 2.46067
-11.3454 141.132 8.4881
-16.8136 135.4 9.85082
-13.6464 138.643 9.29651
-9.96718 143.095 7.35529
-15.5208 136.797 9.70085
-6.48792 151.745 -2.40482
-11.5291 146.638 -1.52911
-17.5435 134.976 9.72724
-19.2384 133.835 9.2974
-20.2896 133.667 8.06534
-17.1105 139.251 3.25007
-20.3195 133.568 8.27291
-18.0289 137.723 4.61415
-12.3945 145.693 0.0731625
-9.80615 145.38 5.54085
-7.0705 150.12 2.04434
-14.3486 139.443 9.34814
-7.97706 148.882 2.83257
-15.7047 138.538 9.19443
-14.5763 142.952 3.02391
-8.36536 148.647 3.08891
-13.7389 140.657 9.05984
-18.3762 136.682 8.59682
-7.72161 151.929 -1.21594
-7.35798 150.737 2.01584
-12.1467 142.958 8.22871
-9.93355 146.77 5.08778
-11.3356 148.565 -0.549078
-14.1641 141.001 8.91431
-13.4899 144.451 3.9072
-8.65973 151.534 -0.857614
-8.76385 149.271 3.13726
-11.6457 144.37 7.39179
-14.6593 143.615 3.82883
-17.7112 139.971 5.44459
-7.68798 151.178 1.86692
-6.94822 153.284 -0.684041
-10.3404 150.282 -0.805089
-11.8595 148.105 0.641859
-12.1836 147.608 1.07899
-9.87934 147.768 4.74213
-9.32189 151.274 -0.644909
-17.2949 138.959 8.4991
-7.8433 151.71 1.08112
-17.4808 139.454 7.33843
-7.13737 153.296 -0.564192
-16.5863 141.687 4.80719
-5.71093 154.644 -0.520264
-8.26314 151.574 1.17089
-16.4232 142.028 4.90203
-16.5163 141.904 5.39838
-12.9923 144.003 7.8392
-9.96449 151.247 0.0247956
-7.06058 154.007 -0.0927879
-10.6368 149.988 1.58433
-10.8784 147.969 4.88873
-10.8123 149.773 1.73051
-11.8258 148.461 2.44533
-10.4107 150.42 1.29002
-10.748 149.125 3.31404
-15.6391 143.329 6.00805
-11.4644 148.348 4.06196
-11.7166 147.76 4.89171
-11.9925 147.673 4.60565
