ply
format ascii 1.0
comment Created by Open3D
element vertex 1949
property double x
property double y
property double z
end_header
8.12341 101.422 9.97207
10.3765 106.144 -1.00643
-15.3779 99.61 7.85572
11.6619 101.986 9.91315
-3.73985 105.73 -3.74203
20.3445 102.201 12.0537
17.8022 104.006 6.87875
6.23552 100.895 11.3753
18.999 103.147 9.57137
17.8607 104.008 7.12385
-5.1485 98.712 13.59
-2.45028 99.0407 13.5791
-13.5663 104.558 -3.29124
-1.56694 105.99 -3.35485
13.3366 101.365 12.4996
0.727627 99.5261 13.5038
7.92927 101.485 10.8458
13.6372 102.292 10.5522
-9.95771 99.241 11.3075
-10.8906 104.82 -2.6219
-14.6321 99.9827 8.32164
10.4315 106.638 -0.911167
-16.9991 104.107 -2.58434
20.7585 98.0412 23.5246
-2.34159 106.295 -3.6385
-11.026 104.941 -2.61431
6.02581 107.054 -2.86015
9.34189 107.173 -2.14745
-16.528 104.345 -2.56178
11.0364 103.064 8.6585
21.8485 101.097 16.7482
17.3015 96.8489 26.0926
10.0091 99.9623 16.2432
20.7592 98.3416 23.4248
18.8941 97.1808 25.778
17.8407 104.668 7.01995
-9.36612 105.519 -2.83634
19.9706 103.113 11.7988
12.8336 102.981 10.075
-19.92 101.904 3.2585
14.5862 97.9926 23.0622
8.55645 107.502 -2.25107
18.8277 103.918 9.79503
21.5609 99.6791 21.1223
10.8147 107.123 -0.469732
-2.69008 106.897 -3.7677
-13.7945 100.395 9.16035
0.00712472 107.005 -3.20494
-12.9857 105.574 -3.39989
-17.215 104.837 -2.47575
-20.9774 103.339 0.210248
-2.40817 100.187 13.4375
-17.7382 104.839 -2.55681
21.4859 102.282 15.2074
-19.2814 103.875 -0.475135
-0.994557 107.249 -3.49268
-12.7542 105.837 -3.379
-3.31866 106.992 -3.38853
-2.40272 100.404 13.4005
-8.32592 106.054 -2.34351
11.0851 99.8047 18.9094
-16.3799 101.236 7.40435
17.8842 106.274 4.91219
2.5922 107.908 -3.58943
-1.34475 100.611 13.4255
9.4911 108.074 -1.87999
13.8441 103.197 11.5218
21.6341 100.447 20.6191
11.2442 107.721 -0.309375
-16.1453 101.355 7.55726
21.7852 101.812 17.4941
11.9087 101.695 14.9554
13.8635 103.949 9.94519
-11.097 100.532 11.1837
17.6357 106.943 3.63501
13.1841 99.2345 21.5602
10.2146 100.662 17.2224
-21.0267 103.823 0.319264
-9.14178 106.29 -2.27485
4.31081 101.704 13.0679
11.3865 107.898 -0.254579
20.282 99.2577 23.7906
11.3867 100.225 18.8392
19.2354 98.7293 24.8722
11.4854 107.951 -0.21086
3.86488 108.48 -3.72677
-0.214985 101.18 13.4093
13.8908 103.799 11.1842
19.3732 104.397 11.2965
18.0218 105.664 7.79043
21.5839 102.68 16.2531
-9.88296 100.771 11.8464
-6.68125 100.597 13.2573
-13.5834 106.299 -2.90579
10.9215 100.917 17.7088
-11.0843 100.957 11.2659
-7.59805 106.786 -2.17144
-12.8709 101.217 10.1953
-18.0224 105.765 -2.5511
16.9972 98.6509 25.3062
10.9788 101.023 17.6854
3.82844 108.834 -3.73466
10.9866 108.509 -0.619727
21.7045 102.368 17.7774
13.2131 108.389 0.40394
-14.5926 106.284 -2.29077
6.33617 108.642 -1.99782
-20.3425 103.911 2.11397
-21.0933 104.489 0.476964
-9.74415 106.925 -2.21396
20.2213 100.117 23.4658
16.5824 99.0184 25.196
18.1026 106.014 8.31317
0.293614 108.672 -3.22377
-10.9012 101.56 11.4668
13.643 103.802 13.0874
10.6816 105.594 7.85178
-7.15043 101.345 13.2533
18.5521 105.895 9.45992
20.1074 104.846 12.5398
18.0214 107.515 5.34954
11.4493 102.667 15.5291
13.2068 103.443 14.2331
21.371 103.874 15.5629
15.9265 100.107 23.3857
21.4047 103.763 15.9395
12.8422 103.327 14.5563
15.9196 108.979 1.43315
19.5454 100.458 23.7791
6.46914 109.275 -1.83195
-11.4829 101.931 11.2059
3.33067 102.993 12.9518
16.2768 100.208 23.7633
16.6208 99.9661 24.4703
-20.877 105.177 0.669383
-7.55658 101.724 13.1838
20.378 105.073 13.1117
17.9648 108.022 5.10737
13.6549 101.334 20.4811
-10.4494 102.108 11.7953
-2.92318 108.941 -2.95871
-19.205 106.121 -0.622705
4.36611 109.85 -3.02396
8.82964 104.808 10.8271
-12.1842 107.747 -2.51925
-10.1025 102.179 11.9898
-20.4492 105.305 1.4286
-17.6437 103.626 6.63739
20.1476 105.794 12.3992
-4.34944 102.463 13.689
-1.48541 109.704 -3.41299
15.3572 109.876 1.09784
12.2832 102.018 19.778
16.1206 101.092 23.2874
-18.9293 104.811 3.88437
-6.93671 102.339 13.5206
-10.879 108.286 -2.33484
17.9324 100.706 24.9275
19.6288 106.497 11.066
21.2426 103.496 18.9948
13.5342 106.752 8.68731
4.68583 110.283 -2.61859
-20.2311 105.609 1.76184
-9.57138 108.641 -2.51086
-4.55138 102.717 13.7742
7.5636 110.667 -2.42958
5.47976 110.261 -2.02516
11.1657 110.73 -1.51515
18.1071 107.826 7.75679
21.2177 104.721 16.3748
6.13244 110.346 -1.74605
3.38365 110.75 -3.49682
18.0088 108.459 6.45096
-7.10854 108.946 -2.05672
10.9021 103.222 17.412
-13.2547 103.308 10.1879
20.3882 102.966 20.947
17.7874 108.925 5.42904
-20.1697 106.843 -0.385359
21.2503 104.621 17.192
10.9723 107.262 7.67593
-18.7107 105.003 4.68068
14.2823 106.451 10.8164
12.383 104.401 15.403
-3.06328 109.925 -2.76804
21.0855 104.505 17.7264
10.4754 111.24 -2.00098
20.7084 106.195 13.6092
-2.40864 110.325 -3.27057
20.9975 104.028 19.1838
10.9355 103.685 17.3291
6.60738 110.991 -1.96854
-16.524 104.315 7.89455
20.5383 106.52 13.2
-19.1666 106.111 2.78659
20.559 106.621 13.2525
-1.15981 104.243 12.9122
-8.82483 103.395 12.9207
4.59073 105.127 12.6419
-1.42834 110.892 -3.26297
8.65713 106.698 10.1176
10.8175 103.771 18.0378
17.2654 101.922 24.5695
17.625 110.75 2.79849
-17.8595 108.896 -2.81324
7.61731 111.755 -2.48628
13.4057 108.243 8.13429
14.4646 112.09 -1.09775
-17.8266 105.693 5.45226
5.70663 111.447 -1.86941
-11.457 110.147 -3.37591
20.4529 105.137 18.5207
20.6904 105.8 17.0831
12.3968 105.293 15.9335
19.3932 108.214 10.8788
20.1514 104.353 20.7313
-20.411 108.138 -0.414695
20.6474 106.791 14.9198
1.91672 105.333 13.263
0.755481 111.961 -3.50689
-4.60271 104.403 13.8211
17.0363 102.787 24.134
11.041 104.896 17.1622
17.5955 110.561 5.01913
-14.4454 110.326 -3.57909
-14.6198 110.295 -3.53663
18.6666 103.351 23.3828
-11.0638 104.738 11.7738
1.75221 112.561 -3.82977
20.0369 108.251 12.2333
-13.415 105.151 10.2262
14.0687 108.75 9.33403
14.0018 113.099 -1.44444
18.9078 109.033 10.1043
-10.2614 104.732 12.366
1.35337 105.738 13.2782
8.71055 108.053 9.74887
14.4783 107.943 11.7951
20.0331 105.789 18.7641
13.6125 103.971 21.4515
18.8171 109.193 10.0001
17.8795 111.009 5.251
13.4809 106.51 15.1653
-14.7677 105.519 9.61114
11.0456 113.432 -2.49274
14.3882 107.607 12.9914
16.1562 103.511 23.7053
-3.66537 111.519 -1.89927
-3.78442 105.302 13.5919
14.0276 109.296 8.87479
-5.95457 111.046 -1.27117
-6.6706 111.081 -1.55288
2.15049 113.046 -3.85951
-11.8737 111.265 -3.4336
-12.9887 105.501 10.6061
-4.33138 111.531 -1.58769
8.43066 113.462 -2.67027
-15.0577 105.967 9.41173
9.36655 109.174 8.57757
5.08519 112.93 -1.95497
-20.3258 108.103 2.65033
10.5912 113.913 -2.61373
1.6945 113.396 -3.81537
-19.5868 108.029 3.42019
20.2302 107.569 16.2137
13.4395 113.888 -1.32493
-19.3853 108.096 3.5946
-17.1312 107.886 4.83059
18.1472 110.352 8.9672
-16.789 107.438 6.05521
11.5212 113.967 -1.82254
8.69307 108.979 9.75784
-15.5399 106.664 8.4844
8.35921 108.624 10.6336
14.1081 110.02 8.88666
5.80233 113.386 -1.75241
-18.595 108.206 4.05442
-7.36012 111.841 -1.69741
6.43702 113.542 -1.86589
9.138 109.564 8.94759
15.0128 114.095 -0.594915
9.55592 110.005 8.00878
-7.9062 105.712 13.6557
-4.64937 112.118 -1.29428
-5.99305 105.85 13.9386
17.9561 105.382 22.1021
-11.0238 112.085 -2.92937
14.5277 108.885 12.4564
19.8705 106.67 19.6338
6.39955 113.761 -1.88961
-9.11271 105.934 13.1673
15.4229 105.033 22.678
9.24524 109.968 8.64052
6.49248 113.989 -1.93352
-10.6945 112.421 -2.83994
8.9935 114.75 -2.87027
9.11444 110.126 8.86699
20.2487 108.857 15.3124
18.6118 111.164 9.16553
-1.94402 113.71 -3.12132
14.2562 110.851 8.96667
5.79585 114.27 -1.89118
14.3115 114.934 -1.06365
12.9821 106.496 19.5029
13.937 106.126 20.8187
6.11209 108.489 12.6813
19.4487 106.788 21.0719
-11.667 113.059 -3.39938
19.747 107.188 20.3138
-17.4863 112.371 -3.36592
-12.6464 113.164 -3.82829
4.77135 114.45 -1.88311
18.8748 111.6 9.3838
18.746 110.909 11.0796
4.18187 108.404 13.2007
4.06019 108.417 13.2322
1.31382 108.015 13.5371
-6.71766 113.042 -1.20036
15.2468 115.511 -0.935885
-15.9215 113.051 -3.86324
9.97147 115.534 -2.48589
-3.74597 113.512 -1.34719
-20.187 111.203 -0.360171
-20.0033 111.464 -0.936929
19.6452 107.792 19.7305
14.4712 110.759 10.894
-18.4526 112.491 -2.91362
0.188261 108.175 13.3456
-12.4736 113.593 -3.78582
18.7628 107.158 21.3759
8.0079 109.902 11.4718
-20.5697 110.876 0.877189
3.47678 108.672 13.3718
-18.8509 109.577 4.72551
-12.942 107.706 11.2424
-9.49932 113.666 -2.52063
20.4207 110.21 14.7591
7.31134 109.801 11.9811
14.0906 112.236 7.91788
-5.85593 107.439 14.0338
14.485 110.565 12.2022
19.1078 113.775 5.59403
17.2203 115.427 1.0074
7.4801 109.966 11.8331
14.3218 106.958 21.2959
1.5911 115.486 -3.52465
0.072926 115.342 -3.47032
-13.745 113.925 -3.95588
20.0364 109.219 17.5726
-12.8983 114.021 -3.86579
18.6963 107.857 20.6322
-14.3893 109.033 8.10448
3.68988 115.319 -2.21733
16.3358 116.281 -0.925207
3.3832 109.021 13.4058
14.7471 106.828 22.1639
15.7888 116.192 -0.728421
14.1079 109.654 15.0312
8.2222 110.542 11.1703
13.9688 112.708 7.4694
-4.11522 108.019 13.9408
12.5262 107.748 19.513
-20.6504 111.263 1.2335
-16.5412 109.805 6.06834
13.7746 116.025 -0.532547
0.97821 108.86 13.5681
-4.22902 108.166 13.9637
5.68384 109.788 12.9241
-16.3954 109.935 6.20156
-19.2983 110.241 4.60756
-4.19123 114.344 -1.06538
-14.7036 109.706 7.41773
9.98464 112.668 7.28356
8.07635 116.592 -3.01349
9.50156 112.403 7.89766
19.5296 112.665 10.1821
-3.88662 114.483 -1.10817
14.6466 107.475 21.7591
13.7436 107.868 20.6179
4.37151 109.753 13.2349
19.4573 112.188 11.6605
19.2818 114.517 5.83611
17.6208 115.191 3.71648
7.6703 110.835 11.6798
20.367 110.793 15.5285
6.22568 110.296 12.7105
-9.63379 108.225 13.2633
19.9771 111.186 14.5281
-13.7982 109.514 8.90902
16.2544 115.988 1.66842
19.4074 111.472 13.8004
19.5321 109.462 18.8488
3.73445 109.83 13.3906
13.4236 109.72 16.6031
-0.289147 109.395 13.4777
7.03492 110.801 12.1367
-19.5225 110.784 4.5645
-12.5488 108.887 11.318
12.8673 117.021 -1.3902
-19.2954 113.507 -1.9616
-3.72374 108.941 13.947
13.2822 117.333 -1.92378
-12.027 115.079 -3.58329
12.2183 108.63 19.5639
19.6618 109.969 18.4372
-19.6906 113.372 -1.41891
-13.3745 109.556 9.93152
20.1841 111.264 15.485
18.7994 115.049 5.7828
-2.69259 115.636 -1.89048
-13.2578 109.58 10.1583
-19.5289 111.111 4.57816
-7.29293 108.724 14.0674
-9.23231 108.725 13.5179
-12.081 109.076 11.8373
-20.6504 112.305 1.38489
-16.5795 110.725 6.53932
-12.8787 109.472 10.7989
12.3209 109.296 18.5856
-7.15796 108.869 14.0873
-11.559 109.06 12.4447
9.26895 113.024 8.67795
-8.84107 108.884 13.7035
9.1508 112.855 9.12805
17.8507 115.589 4.9161
19.8369 113.557 10.6105
-12.5826 109.647 11.1008
-0.211026 116.92 -3.3313
10.9302 117.299 -1.03084
7.72603 117.496 -2.41822
14.9145 108.728 21.5528
12.6554 109.019 20.2132
9.31606 117.677 -2.20793
-6.88769 115.278 -0.936527
-16.7773 111.082 6.64089
-3.52935 109.729 13.8551
-19.9769 113.765 -0.750749
15.7112 109.07 21.3227
-8.5619 115.46 -1.59309
18.8262 110.655 18.3568
15.6058 116.703 2.4285
-0.135651 117.202 -3.34164
13.5985 118.576 -2.7593
-18.4299 114.842 -2.73055
-19.7747 114.041 -1.10213
-3.18859 116.053 -1.24931
-20.217 113.599 -0.0360058
19.7849 114.816 8.58914
-20.4892 113.199 0.91587
-12.5536 110.088 11.0309
-1.83727 116.757 -2.37878
12.3488 115.111 5.91393
-17.5465 115.364 -3.2665
-1.95106 116.803 -2.27507
17.1268 109.763 20.7722
-0.531861 110.577 13.6424
2.32038 117.733 -3.271
-14.1784 111.361 7.82366
-11.1554 109.732 12.8331
-11.8761 110.038 11.8664
13.0732 110.92 16.9736
-0.111607 110.749 13.6239
14.0288 118.146 -0.618748
-15.2175 115.837 -3.34081
14.9367 117.334 1.78102
18.6547 115.415 7.78679
16.278 116.306 4.99269
-17.1814 111.764 6.59439
18.3699 111.217 18.3057
15.7642 116.388 4.76618
-19.733 114.673 -1.04883
12.3117 118.595 -1.04686
-18.3666 112.224 5.887
-9.07036 116.558 -2.12201
-20.1262 114.519 -0.237086
-17.6113 112.143 6.39512
12.5725 111.731 16.4191
-8.40493 116.574 -1.6986
12.886 112.294 15.1446
16.1653 116.592 5.5003
19.8355 113.165 15.2897
19.6166 115.422 9.72461
-12.4407 111.246 10.8249
13.3834 112.838 14.4459
15.1918 117.609 3.20171
-2.45043 111.341 13.6757
-11.1831 117.165 -3.2962
-11.7275 111.15 11.5787
19.7599 114.132 13.4567
13.5504 113.126 14.1779
-6.85631 116.734 -0.693362
12.9134 119.689 -2.25478
-12.9592 111.874 9.71934
9.28885 115.052 8.45214
-15.8196 116.79 -3.14386
15.2812 117.156 5.02402
18.2185 116.02 8.72167
10.6001 119.298 -1.48497
-14.4696 117.091 -3.23427
19.4547 115.642 10.4169
14.8089 115.334 9.95624
17.6327 112.258 18.5164
14.2956 118.832 1.25685
-17.8793 116.897 -3.20912
11.8795 119.595 -1.17331
3.03559 119.189 -2.73055
12.0619 116.869 5.71676
3.00038 119.254 -2.76491
-13.4503 112.694 8.74315
-4.6581 111.524 14.2045
-16.4094 117.155 -3.0841
11.4526 119.632 -1.07568
-15.9964 117.23 -3.04807
-19.817 114.231 3.30155
17.583 120.97 -2.51096
6.04857 119.255 -1.59386
11.6194 120.114 -2.08631
-17.2211 117.227 -3.10183
17.0346 120.92 -2.22415
-1.33484 118.757 -2.1759
17.5079 112.672 18.4866
15.8565 120.478 -1.34325
20.9296 121.838 -3.12216
-18.6706 113.668 5.70835
19.1369 116.263 10.2831
10.5647 116.967 6.10704
11.3083 119.967 -1.06937
9.62696 120.074 -1.80353
20.1113 115.582 12.4865
-19.0124 115.32 1.82397
18.1049 121.67 -2.96844
-17.8263 117.557 -3.08869
-13.8343 118.232 -3.58487
-19.4581 116.805 -1.49179
13.6481 114.731 13.3723
12.2673 112.373 18.8766
17.7855 121.929 -3.04738
-6.0824 118.043 -0.273117
-2.62953 118.796 -1.12869
13.5856 112.458 19.3307
12.8529 121.392 -3.05181
11.1038 120.818 -2.07295
15.5319 112.816 19.1183
16.2918 118.105 6.20586
-14.3167 113.89 7.81438
-8.06683 118.371 -1.47982
-2.12111 112.973 13.6917
-15.9835 118.064 -2.92732
8.53065 115.505 10.5549
9.23404 116.391 8.5715
-14.9809 113.965 7.55731
14.9614 116.85 9.16024
10.7776 120.535 -1.18733
-10.5835 112.463 12.675
14.8526 117.233 8.323
-1.47363 113.201 13.6475
20.8521 122.572 -3.06259
15.8377 113.131 19.0347
16.6471 120.46 1.0789
4.75697 120.38 -2.17663
14.8274 117.394 8.18823
14.7412 116.793 9.69018
12.466 112.927 18.6272
15.071 121.43 -1.69137
9.22512 116.616 8.59046
-6.07057 118.4 -0.267971
14.7745 117.595 7.79301
17.4346 113.981 17.5509
16.6908 117.106 9.70084
-10.6861 112.8 12.564
3.1212 120.62 -2.79605
14.5291 116.872 9.88615
17.2307 119.11 5.2434
16.6937 117.91 8.13447
10.4549 118.025 6.07105
-11.6961 113.391 11.1558
19.3152 116.678 12.0361
20.8605 123.047 -3.23764
14.6384 121.118 -0.197573
14.495 121.143 -0.254291
16.3037 119.714 3.94138
16.47 113.884 18.5241
8.32485 116.074 10.7253
15.3323 120.741 1.24006
14.3747 121.218 -0.210884
9.70173 117.738 7.18954
17.3099 121.227 0.747802
-18.7533 118.062 -1.82458
14.1915 121.236 0.0692623
14.639 122.053 -1.8257
9.08962 117.015 9.09092
-14.9776 119.182 -3.17416
10.2969 122.316 -3.55955
-18.3163 118.716 -2.92446
14.4326 121.558 -0.435264
18.0585 118.293 8.74234
-19.335 115.556 4.67433
21.3709 124.214 -4.97841
19.6504 116.167 14.5193
15.9721 114.279 18.1708
-1.64033 120.249 -1.6076
1.03115 121.046 -2.79246
17.9931 117.214 11.6836
11.7062 114.238 17.286
21.4107 124.359 -5.02318
17.6231 117.334 11.3853
15.6169 121.004 1.72733
22.1407 124.66 -5.33312
-13.4534 119.815 -3.6232
7.43756 120.915 -0.28116
2.49717 114.73 13.6991
2.08325 114.675 13.7411
13.9173 121.617 -0.0555035
14.8306 122.451 -1.73414
13.8994 114.283 18.4343
21.4716 124.323 -4.28982
-16.1156 115.097 7.71302
-15.2002 119.544 -3.05859
16.6579 120.811 3.10131
-0.285503 114.532 13.7863
21.4675 124.107 -3.6612
-18.0156 119.243 -3.01878
8.25012 116.778 10.8196
-12.2701 120.131 -3.46462
-11.401 119.997 -2.83237
10.9752 123.07 -3.95235
13.0215 116.923 11.9629
17.197 120.392 4.58493
17.0742 117.913 10.7464
13.305 121.635 0.509365
17.7095 120.281 5.18172
9.83141 122.231 -1.94515
15.7611 123.393 -3.08817
14.2149 121.092 2.17918
13.7166 121.512 1.0306
21.798 124.991 -5.16864
13.1662 114.396 18.6345
13.5296 123.378 -3.53603
0.920698 114.906 13.8401
12.2685 119.758 5.13443
16.0129 121.32 2.38821
-18.7936 116.432 4.42155
5.28951 115.806 13.0451
13.8403 121.696 0.917849
15.1697 115.272 17.3231
17.8304 121.674 2.20544
13.3069 117.762 10.6106
21.9775 125.236 -5.41839
5.70848 121.484 -0.713065
21.9061 125.178 -5.11822
13.0888 122.766 -1.65954
18.3107 117.782 12.236
13.0094 120.023 5.19313
0.12858 121.549 -2.33528
12.2739 116.257 14.3529
-10.5352 114.13 13.0351
1.94379 115.333 13.7633
22.1279 122.094 2.91018
15.0054 121.614 2.05133
13.1616 120.14 5.23275
-17.5462 118.76 -0.0978802
-5.2933 120.197 -0.0945803
-7.21427 120.284 -0.863772
22.4386 123.797 -0.915264
15.3457 121.797 1.99152
21.4891 125.002 -4.11354
16.9248 121.178 4.10047
9.55694 123.414 -3.5821
-18.7315 116.764 4.73158
17.8015 118.147 11.9316
2.08264 115.591 13.7517
13.7839 120.317 5.43225
11.4303 115.828 16.0288
19.0833 117.25 14.8459
12.4807 115.233 17.9534
-10.2758 120.617 -1.86438
14.6522 119.301 8.66854
16.6841 116.376 16.5405
14.052 122.11 1.55278
16.3995 122.513 1.30014
22.2585 125.64 -4.75258
18.1642 120.9 5.84045
18.8154 122.192 2.85641
-11.2207 115.219 11.4637
3.92548 122.386 -1.90455
20.6489 125.127 -3.71383
3.67693 122.498 -2.07243
-3.8989 115.145 14.0647
22.5735 126.165 -5.59292
17.2871 119.685 9.01598
15.5516 116.501 16.4211
13.9696 122.974 -0.0773786
16.0461 116.623 16.3714
13.8166 123.995 -2.52542
18.2377 120.365 7.88885
22.9457 123.635 1.13842
-15.5968 120.805 -3.01623
15.4019 124.47 -3.05868
18.2429 124.468 -2.07488
22.3849 123.247 2.2575
14.121 122.845 0.881675
22.1062 126.125 -4.94047
17.1807 120.088 8.75011
18.9851 118.072 14.2891
21.8624 122.558 3.98801
13.5641 124.431 -2.99444
-5.0729 115.553 13.8222
-17.3546 119.791 -0.0925704
20.9126 122.988 3.31279
20.9939 122.953 3.55262
18.3835 120.826 8.15291
-7.60182 121.696 -1.55803
-10.7639 115.608 12.6462
18.8252 118.579 13.9399
-12.9512 121.907 -3.55109
-17.5219 118.614 3.29917
-16.9742 120.041 -0.0736628
14.9388 123.038 1.81277
-17.0948 119.601 1.03809
13.2393 123.838 -0.647568
22.4141 126.685 -5.01234
14.0906 121.523 5.39198
-17.4698 120.128 -0.308044
12.4468 124.139 -1.40053
14.6993 123.317 1.32444
-8.47594 115.4 14.2581
11.5046 118.251 13.0854
11.255 117.153 15.7391
11.4864 118.234 13.1384
11.189 117.293 15.4203
-6.06442 121.866 -0.907123
17.7293 118.062 15.5028
11.737 118.84 12.0249
18.7587 121.391 7.74184
23.1419 124.934 0.333328
1.26869 123.463 -2.29775
14.1546 125.201 -2.81586
3.73817 123.488 -1.57349
-17.5251 120.171 0.491591
18.3767 119.58 12.3982
14.6387 123.919 0.645591
-17.2323 120.747 -0.670355
20.5292 126.036 -2.774
-17.2644 120.543 -0.11167
12.8195 124.983 -2.35605
-11.0713 116.432 11.9468
9.84094 120.771 7.2586
10.7243 121.641 5.37303
-15.9558 117.212 8.6249
13.2034 124.346 -0.508096
-13.5191 116.773 10.5899
3.08707 123.743 -1.8244
18.3263 119.187 13.9518
16.8125 125.669 -2.54951
-15.869 122.191 -3.24466
-0.675734 117 14.0876
6.56556 123.603 -0.1958
22.5362 126.442 -2.58231
22.1077 124.473 2.1998
15.8799 118.357 15.5802
13.685 123.743 1.58759
-21.8395 119.325 2.2472
19.7943 125.961 -2.09088
13.2695 124.338 0.0674652
16.7445 120.837 9.82929
-0.0710702 123.431 -1.38762
3.23877 118.13 12.7453
-18.8354 119.612 2.72526
8.29862 124.929 -2.56012
17.8619 120.535 11.185
17.2056 125.903 -2.29114
-6.26231 122.694 -1.11276
9.53343 120.855 8.12448
-11.3692 117.007 11.7115
14.6351 123.775 2.48397
-17.6009 120.326 1.68071
20.6028 124.062 3.54676
16.791 122.772 5.69286
21.7011 123.692 4.86228
12.2897 125.007 -1.12749
-17.7973 118.438 6.4938
13.1168 118.077 16.3882
13.2007 125.197 -1.13967
-21.3793 119.235 3.62582
-3.09976 117.23 14.005
-19.9346 118.997 4.75738
13.6519 125.924 -2.62516
14.0061 124.231 1.68412
11.5959 120.232 10.9146
13.261 125.069 -0.593174
21.085 123.684 5.12769
-19.7283 119.878 2.73233
15.8038 123.861 3.18675
-12.2887 122.939 -2.64121
21.3324 127.182 -3.3793
11.2379 119.785 12.0936
-9.53383 122.997 -1.8455
-22.2026 119.594 2.93946
13.737 124.432 1.41761
22.6144 127.211 -2.87822
20.5138 124.264 3.87436
16.5815 119.216 15.3087
19.4739 124.226 3.7669
14.7125 126.343 -2.76115
6.08827 124.266 -0.0868221
11.5048 125.124 -0.637735
-20.1338 120.723 1.12494
-19.6653 120.448 1.98424
-13.918 123.412 -3.67068
18.2604 126.406 -1.71726
21.8509 125.06 2.68639
-19.7228 120.5 1.94846
-21.14 119.577 4.146
11.348 125.405 -0.849856
21.853 125.498 2.07061
14.4228 124.299 2.96993
-17.4762 122.206 -1.09099
12.3486 126.212 -2.33421
14.2288 124.419 2.66647
4.85574 119.465 12.2662
-17.8764 120.54 2.99187
12.452 127.397 -5.1376
21.6205 124.496 4.73683
-16.1585 118.371 8.97535
-2.4702 117.909 14.1195
15.9373 124.913 2.08338
-21.0461 119.973 3.6315
12.3775 121.495 9.58391
11.0477 119.714 13.7133
21.4305 124.948 3.85921
11.1371 119.587 14.1962
-10.5724 117.495 13.1694
11.728 118.997 16.0122
21.8963 125.831 2.02051
-22.7756 120.156 3.23947
16.0036 123.671 5.81013
16.846 121.495 11.4816
13.1919 125.126 1.45127
18.2927 123.382 7.28181
18.2626 127.005 -1.68272
8.67287 121.117 10.1923
13.3829 119.613 15.3061
-16.9822 120.662 3.89307
-11.8963 123.988 -2.81679
7.80046 120.721 11.0793
18.2812 127.107 -1.66741
-16.3983 121.116 3.13507
14.1792 122.6 8.36437
-20.6243 119.777 5.2611
18.9165 123.415 7.74414
-20.4552 121.702 0.621087
17.2461 123.61 6.91402
-16.9666 121.024 3.39152
-16.9301 121.563 2.08457
16.7357 124.566 4.42655
13.8094 127.511 -3.69142
-18.2004 119.683 6.53904
7.211 125.411 -0.268232
-16.6675 119.242 8.16321
11.2612 119.908 14.6589
-17.8884 121.252 2.86437
14.0472 126.929 -1.94424
-16.713 121.334 3.07771
22.87 126.669 1.359
16.6711 121.75 11.8698
-4.91782 124.059 -0.106926
-17.6942 121.645 2.25261
14.3657 126.719 -0.836046
21.9667 124.969 5.73144
-4.05986 118.679 13.8216
-9.54478 124.716 -2.75663
8.06298 121.323 10.8029
-17.7237 121.369 3.20088
-1.23559 124.972 -0.938771
8.79965 121.833 9.79841
10.9021 123.781 5.5892
-16.9056 121.166 4.0158
-12.3621 124.519 -2.93992
-20.2661 122.131 0.72225
-19.4933 121.141 3.41152
-10.0494 118.232 13.4523
18.532 123.332 9.10011
-20.1945 119.745 6.8298
22.3983 125.576 4.76825
-0.659013 119.251 13.8462
-21.4388 121.749 1.64764
-19.0544 122.476 0.56592
12.702 125.814 1.60776
12.7126 120.375 15.2177
17.582 123.332 9.36192
5.07821 125.708 -0.170811
2.50084 120.485 12.0616
-15.1175 119.318 9.8468
-16.3696 123.655 -1.23179
12.5111 122.987 8.82614
-12.9758 124.784 -3.04036
-17.6812 122.873 0.33889
-16.0382 124.36 -2.82371
7.32961 126.324 -0.892447
0.825469 119.987 12.9867
7.70147 126.81 -1.93526
-16.5563 123.646 -1.11961
11.347 122.383 10.1352
14.6869 127.02 -0.377961
20.7599 124.91 6.69741
12.2008 126.87 -0.614309
17.0371 125.045 5.33924
-17.2986 121.34 4.61526
-4.89377 119.145 13.6863
-13.6899 119.129 11.1864
-19.0371 122.685 0.838144
-20.5527 122.41 1.18997
-13.1903 125.143 -3.28081
-13.1424 119.174 11.6224
-16.5602 122.452 2.5207
-22.5551 121.441 3.36214
23.6895 129.518 -3.22017
23.9962 129.053 -1.93493
21.1077 125.588 5.98229
15.2287 127.047 0.668731
-5.25463 119.442 13.6021
21.6488 128.814 -1.83878
22.2753 125.676 6.16425
-17.9871 121.021 6.02661
12.123 126.796 0.495146
-16.526 122.689 2.45249
-17.3672 122.427 2.89377
5.39035 121.498 11.8288
15.0911 122.886 11.2249
16.706 124.957 6.55986
12.1933 126.436 1.58424
10.6639 122.364 11.4068
12.1436 127.573 -1.09381
0.827928 120.649 12.8373
-17.6826 120.857 7.03232
-17.9687 122.241 3.61175
-17.6791 120.915 7.02093
-18.4708 121.9 4.38449
-21.4352 120.257 7.62089
-2.53473 125.547 -0.0181253
23.2474 129.867 -3.2315
-23.74 120.921 5.33414
16.9719 128.641 -1.99661
-7.82126 125.795 -2.09698
-17.3278 122.611 3.0547
17.1637 124.937 7.38079
19.0139 128.861 -1.78829
14.4154 125.514 5.2763
11.0361 124.994 5.59415
-18.5631 121.095 6.69269
-7.43604 125.796 -1.73997
23.4755 130.169 -3.59641
14.2165 127.772 -0.335067
-16.7229 123.52 1.25414
13.8884 125.817 4.47601
13.5489 121.519 15.0615
10.6625 122.52 11.7816
-12.1597 126.081 -3.65658
-16.6381 123.666 1.06636
10.6576 122.584 11.7512
-12.7688 125.937 -3.35062
11.1003 123.443 9.8314
-17.9215 121.328 6.65108
-7.19014 125.87 -1.50492
17.1772 128.909 -1.92257
-23.7072 121.179 5.4022
23.2622 126.466 5.9413
-6.61575 119.878 13.6201
3.48807 126.929 -0.714818
-23.0062 121.774 4.41872
11.8839 127.882 -0.580992
-5.38039 120.233 13.3986
-5.30494 120.243 13.3977
12.0318 127.486 0.46623
-16.5548 121.031 8.28734
-17.9039 123.589 1.58931
22.3498 129.548 -1.42946
-15.4947 125.683 -2.81808
12.6161 128.81 -2.38407
21.2388 126.414 6.08455
-14.6049 120.858 9.46952
10.584 123.319 10.7274
-17.2975 122.128 5.58712
17.6344 125.564 7.21556
-19.0302 120.723 8.60093
-8.04472 119.69 14.4088
12.1884 130.056 -5.43748
9.73995 129.184 -3.94486
9.78536 124.42 7.95372
-22.9087 120.464 8.34808
16.3288 126.486 4.82893
-11.3215 127.119 -4.78044
13.2762 126.392 4.18332
-4.62792 120.619 13.3139
18.7596 125.753 7.38467
-14.7064 126.216 -3.45182
-12.4896 126.681 -3.94852
-10.0153 120.191 12.9423
22.9798 127.076 5.50618
-18.0197 123.942 1.41318
22.641 129.881 -1.46128
11.5177 128.297 -0.676073
-18.491 121.418 7.79994
4.9665 127.323 -0.0435164
-15.3879 126.184 -3.09685
-15.0249 126.262 -3.14563
-17.0991 122.093 6.63268
-17.1479 121.782 7.48134
19.8384 130.165 -2.57081
-8.03071 120.075 14.3859
15.1308 129.661 -2.6757
15.3465 126.189 6.00855
-21.7333 120.99 8.14749
13.1681 129.548 -2.89537
-18.0351 122.009 6.79427
-23.505 121.941 5.44816
-16.7004 122.779 5.36506
-16.8262 121.576 8.33681
20.6404 126.663 6.65656
-14.2672 126.757 -3.63397
-17.0216 121.696 8.1537
10.4753 125.406 6.94149
20.7865 126.947 6.14038
-12.8871 121.077 10.9607
-16.4746 124.505 1.43898
24.6015 130.285 -0.956908
11.6679 122.756 13.9832
-7.14912 126.813 -1.43631
1.28104 127.741 -1.27641
11.8166 127.553 2.27288
22.5648 127.755 4.90529
14.4215 124.061 11.7183
11.6848 129.469 -2.50533
8.2994 123.812 10.5764
-2.13481 126.848 0.0979328
6.89407 123.458 11.2076
-20.1264 123.991 2.031
-17.6193 124.805 0.748053
16.2915 124.775 10.7149
22.188 127.041 6.8076
20.8 127.067 6.37411
4.61016 123.219 11.2249
7.08267 123.559 11.1236
17.5452 126.643 6.50892
1.52174 127.873 -1.19501
-17.2143 121.886 8.24935
11.4741 129.09 -1.26347
-3.38699 121.603 13.0144
19.8706 126.317 8.08675
10.9745 123.268 13.088
-18.9566 121.987 7.6043
11.2777 129.374 -1.88366
-1.65953 127.147 -0.0756309
18.2634 126.55 7.25004
19.6256 130.782 -2.85873
13.1945 125.689 7.93014
14.8747 126.684 5.97643
8.01815 129.548 -3.12712
-14.8616 127.143 -3.76821
15.4169 126.645 6.28879
10.257 130.461 -4.65337
-14.4639 127.332 -4.05857
-23.7538 119.241 13.4214
18.6081 130.83 -3.03749
-17.9637 121.654 9.1476
10.5907 124.872 9.47887
0.584471 128.008 -1.16152
14.0302 130.527 -3.4873
11.3176 129.304 -1.222
-14.7581 121.994 9.39228
-13.158 127.983 -5.00029
-17.818 122.443 7.42806
5.25093 123.552 11.3982
-23.8051 119.309 13.5122
-18.4728 122.001 8.39885
21.4095 126.886 7.87923
15.46 128.313 2.65763
13.7897 130.511 -3.21816
11.0852 129.083 -0.361067
-22.8545 120.171 11.9098
20.9231 130.9 -1.99907
-18.5422 122.583 7.20807
3.26719 123.805 10.6629
11.9894 125.792 8.29075
-24.944 119.155 14.0471
-16.1285 126.467 -1.46342
-8.95732 127.829 -2.74858
16.5442 131.226 -3.67185
-18.0285 123.229 6.13793
-22.4092 121.033 10.3572
-9.68828 121.367 13.3071
-24.3169 121.943 7.65642
11.143 129.666 -1.17229
19.8147 126.934 8.15504
9.32601 125.321 9.12295
-18.6759 122.727 7.43065
-8.79977 121.339 13.834
-20.7347 121.577 9.78166
7.88453 124.64 10.6138
-2.09936 127.713 0.0888754
-17.6489 122.189 9.29478
-19.4691 122.283 8.53765
-19.3033 122.344 8.47285
24.752 131.112 -0.490755
9.33996 130.748 -4.05978
-20.341 121.515 10.2599
-14.0169 122.254 10.292
-22.9881 121.083 10.599
23.6565 130.473 0.860624
-12.1656 128.76 -5.2955
19.2873 127.724 6.42199
-21.6652 124.268 3.12958
12.3004 130.691 -2.93732
10.1489 126.091 7.92532
-17.6123 125.432 1.49575
-24.0509 121.828 8.64271
-16.7934 122.595 8.85571
-23.7715 122.858 6.25402
-17.3337 122.462 9.1511
3.4566 124.293 10.6575
15.2818 125.602 10.8496
15.1913 125.58 10.9304
11.2076 129.591 -0.0867142
-12.9332 128.818 -5.1675
-23.9649 121.878 8.8966
24.8164 131.343 -0.397377
-20.7186 124.947 2.27886
13.6838 131.326 -3.55068
15.495 127.044 7.62009
-24.1073 122.056 8.65494
1.81577 123.95 11.5566
2.94923 128.925 -0.434426
-12.1255 129.071 -5.17163
-25.5753 119.979 13.5024
17.6882 128.025 6.10293
-23.7437 121.171 11.144
-19.0224 122.58 9.03201
16.4464 130.848 -1.10583
17.273 128.071 6.06954
-21.2233 124.786 3.0667
-3.83703 122.788 13.1288
22.8692 131.85 -1.56315
-19.561 122.219 10.0525
22.739 129.076 5.34929
18.7653 132.019 -3.05974
13.8665 131.74 -3.75144
-8.11835 128.708 -2.6051
-15.255 123.103 9.23917
-23.8608 123.201 6.53977
4.06456 124.789 10.7897
13.6719 131.525 -3.14017
19.2347 132.114 -2.95461
1.60031 129.131 -0.672444
11.2953 130.327 -0.80715
6.34135 130.155 -1.63536
11.859 128.24 4.75661
16.5165 129.831 2.18212
13.1558 129.458 2.14047
-16.2797 123.274 8.95435
11.1323 132.003 -4.7408
13.4855 129.613 1.92565
18.5658 128.697 5.70547
11.4044 132.128 -4.85131
15.6167 131.636 -2.37086
-15.7517 127.49 -1.18489
14.4302 128.41 5.32001
7.28853 130.875 -2.87033
-9.44078 129.361 -3.91866
12.0892 131.216 -2.16362
15.4912 131.801 -2.61233
-16.5006 126.291 1.82438
-23.7332 123.609 6.41944
18.8309 128.779 6.07322
11.5833 125.265 12.7077
-22.5597 121.507 12.1403
11.4522 131.073 -1.71714
14.9335 128.088 6.71284
-19.8343 122.458 10.5896
11.8066 129.541 2.20973
-16.1807 127.183 -0.0489554
-20.0785 126.215 1.2357
-18.577 126.284 1.50747
13.6459 127.65 7.52712
-9.94187 122.567 13.377
11.4604 130.665 -0.440658
22.8627 128.899 7.32151
11.9782 128.838 4.30856
12.9504 129.543 2.84864
0.311154 129.548 -0.836884
23.0571 129.834 5.14843
24.6617 132.095 0.0149688
11.4485 128.416 5.33483
-16.0977 123.817 8.79342
16.073 130.093 2.65839
-22.9903 124.506 5.21651
16.5708 127.999 8.08018
3.1456 129.676 0.0394022
23.202 131.245 2.04405
9.71494 127.063 8.51191
16.3077 127.443 9.50365
10.8002 132.472 -4.57579
-8.48625 123.177 12.9354
22.3108 128.8 7.93544
-19.182 122.699 11.0262
16.3065 128.043 8.07503
18.498 132.84 -3.17049
-7.56816 129.574 -2.63525
-18.8023 122.862 10.7667
12.9824 126.917 9.95645
10.1984 126.687 9.74083
6.49114 131.237 -2.61
3.98107 125.604 10.648
19.8247 128.454 8.19909
11.7211 125.891 12.2122
11.5745 131.206 -1.01145
-18.0784 122.723 11.468
18.3564 129.343 5.62423
10.969 125.949 11.9379
-25.4905 121.517 12.4081
13.0139 129.908 2.82526
14.0144 126.273 12.1676
-22.4573 121.922 12.4643
15.5947 128.172 8.06833
15.1333 127.793 8.88889
14.7604 127.337 9.92058
11.6636 126.266 11.6977
12.8007 126.475 11.5446
-14.6859 124.025 9.66827
7.5289 131.731 -2.96864
13.3514 128.109 7.73497
-10.3167 123.662 11.9074
-23.4053 124.645 5.68942
-12.9478 129.411 -3.08215
-18.7024 126.873 1.7221
-24.0713 123.071 9.65326
24.3205 132.439 0.496776
-4.53512 123.934 13.3501
13.8368 133.734 -5.58694
-11.5601 130.462 -4.81527
-17.1852 127.313 1.37906
20.3941 128.888 8.39266
-2.31413 124.312 13.1642
20.2585 128.939 8.30086
-21.6904 126.716 1.66497
-5.58268 129.844 -1.37322
22.0317 132.71 -0.444886
22.9121 130.105 6.33621
-23.9915 122.477 11.6718
12.8838 128.218 8.16951
10.4534 128.138 7.70405
11.0202 127.444 9.61581
-23.9182 122.913 10.8438
11.1255 128.882 6.25216
-12.1269 130.528 -4.56645
-14.7347 124.298 10.1536
12.2456 130.759 2.00225
14.2044 130.109 4.24285
11.8887 131.827 -0.612719
11.9669 130.893 1.77338
15.9676 130.799 3.20056
14.2636 131.5 0.96726
-8.67842 130.749 -3.80675
-12.626 124.673 10.1464
-11.3891 124.679 10.4927
-14.0619 129.67 -2.63615
10.9519 128.679 7.10393
-5.689 124.185 13.4595
-9.44433 131.104 -4.78836
-14.12 124.621 9.9515
-23.294 122.362 12.895
5.54603 126.548 10.9174
12.5677 134.18 -5.97764
13.4075 134.336 -6.11465
-5.84034 124.195 13.495
-15.2172 129.259 -1.79359
-11.3602 130.975 -4.90109
15.3181 133.766 -4.07203
14.1944 128.702 8.23161
-14.446 124.522 10.3352
15.6545 132.584 -0.774367
-8.17982 130.881 -3.4546
-24.347 124.891 6.7342
-18.785 123.988 10.5931
-18.7293 127.932 0.834388
2.95095 126.772 10.1143
-24.22 122.955 11.7452
17.5124 129.557 7.49867
14.0142 130.033 5.38548
13.5456 131.791 0.892037
10.7642 128.362 8.65412
-21.6017 127.471 1.47079
22.8972 132.098 2.94122
19.5324 130.153 6.79408
-18.0383 128.495 0.0233115
14.1267 129.648 6.56596
-17.2109 123.743 12.1224
10.7545 133.919 -4.93875
-19.3824 123.389 12.4485
5.50025 131.847 -1.31864
-4.1066 130.35 -0.371998
14.4509 130.7 4.15583
21.2794 133.851 -1.66014
7.86051 127.503 10.231
15.8889 131.661 2.25036
-22.9626 126.335 4.21337
-11.1199 131.389 -4.88699
11.2763 130.116 4.86162
5.98159 132.461 -2.4771
-24.5501 125.114 6.89196
-25.3373 121.658 15.2678
-14.8254 124.702 10.7667
10.9406 129.233 7.01388
11.0024 129.404 6.60888
19.2045 134.349 -3.26565
-3.29057 125.193 12.9624
-22.6662 122.411 14.3004
-25.078 124.251 9.0912
5.48992 132.03 -1.31903
-7.52772 131.172 -2.94107
-2.37432 125.521 12.6049
21.4229 134.096 -1.64265
11.2483 129.131 7.72896
7.02669 132.99 -3.0797
0.865802 131.086 -0.128745
-15.6133 124.691 11.015
12.456 133.334 -2.28281
5.92061 132.616 -2.38325
-20.6844 123.204 13.3847
-7.41621 124.829 13.223
0.262749 126.336 11.8055
-1.04699 131.022 -0.16856
22.6 133.838 -0.281712
14.1032 132.704 0.0688133
23.0356 132.131 4.10173
14.7885 130.479 5.96032
-13.8835 125.515 10.0016
-3.07327 130.66 0.382373
24.6127 134.098 -0.0645698
-4.6277 131.018 -0.869546
-9.47508 126.239 9.61397
-18.3976 123.975 12.6659
-24.9254 124.097 10.538
-16.7772 128.913 1.08185
14.7988 133.909 -2.12335
-8.70731 132.024 -4.27157
-14.8883 124.886 11.7662
-3.16445 126.039 12.3237
-0.609024 131.412 -0.266323
11.6519 129.799 7.32119
-16.2713 128.794 1.73678
-14.9253 125.384 10.6035
-23.8941 126.367 5.63185
23.036 132.777 3.45583
-14.7127 125.341 10.9548
-21.2853 128.541 1.25258
8.68355 128.783 9.37065
0.338904 127.341 10.8066
-21.0632 123.456 14.317
12.9294 134.125 -2.22997
-25.4604 123.223 13.7614
-25.4614 123.259 13.6929
-13.1539 131.077 -2.11834
-18.685 124.352 13.0081
-25.5695 124.198 11.4275
2.66304 128.101 9.95349
3.78138 128.181 10.1543
-0.0261034 127.47 10.8366
-4.04303 126.469 12.2013
11.2551 131.043 5.32656
-9.0301 132.738 -4.75487
12.2628 132.078 3.13221
21.283 131.603 6.96074
-15.8619 130.519 -1.13136
-3.25132 131.488 0.145835
-3.9639 131.644 -0.414286
-25.5458 124.693 10.6809
-16.3847 129.699 0.96492
-2.22398 126.904 12.0233
-16.4367 129.812 0.687105
1.69225 128.261 9.83906
16.9496 131.23 6.95583
16.2151 134.991 -2.57695
-7.95502 126.726 10.9208
-7.13908 132.32 -2.66198
-10.0489 132.917 -4.94634
13.9326 134.641 -2.19574
-13.4644 126.119 11.0317
-4.88151 132.021 -1.05789
11.9006 136.091 -6.2626
13.7594 134.303 -1.23961
-25.481 124.178 12.5143
23.9029 134.046 2.40235
-22.6265 128.18 3.47635
16.2677 130.98 7.93213
14.8016 135.188 -2.84541
-24.1152 126.651 7.09964
10.1103 135.553 -5.05336
-12.834 131.711 -2.17513
-16.8301 125.185 12.8998
-5.41982 132.283 -1.36665
-13.0747 126.861 9.91225
2.29207 128.657 9.94608
20.8608 131.641 7.94376
-4.24203 132.18 -0.673809
13.5409 132.985 2.59525
-12.9782 126.965 9.84776
-15.3661 131.121 -1.14524
-7.93853 133.148 -3.96522
14.3885 135.009 -2.05624
5.99503 134.394 -2.9082
21.2469 135.929 -2.26317
-25.2202 124.388 12.9724
10.3646 135.967 -5.37738
-24.7297 126.348 8.33199
10.9679 136.305 -5.91863
-12.3193 132.322 -2.63558
-7.09053 133.145 -3.13947
-18.6189 130.251 0.757343
10.0197 130.747 7.85462
-5.42743 127.636 11.2053
14.028 132.265 5.46648
15.4813 131.086 8.82747
13.3927 133.428 2.43414
11.0426 131.521 6.55581
15.548 135.939 -3.10458
-2.73121 127.909 11.5445
-11.1354 133.08 -3.62833
-12.6248 126.806 11.5647
-21.9236 129.132 3.10285
22.5949 135.843 -0.582145
13.8077 131.214 8.43471
7.81367 135.656 -4.24902
-0.437794 129.014 9.85382
11.8586 130.774 9.1218
11.3591 136.961 -6.3686
13.3793 131.239 8.43897
15.4496 136.181 -3.13167
5.51747 134.609 -2.04152
16.0032 136.674 -4.01766
-6.86718 133.707 -3.29283
14.0418 133.353 3.71557
-15.6032 130.89 1.28397
-18.4504 130.648 1.07143
-16.1458 130.683 1.69828
-22.0759 124.685 15.0073
24.3194 135.871 0.747362
11.019 132.012 6.47894
-15.8624 131.1 0.947384
-12.8036 132.657 -1.92271
-1.0679 129.433 9.51822
15.6747 136.262 -2.37389
-1.21063 129.526 9.55196
-7.10555 128.03 11.5537
19.8906 137.106 -3.119
-10.919 133.915 -4.11224
-16.6801 131.214 1.01017
11.0204 132.407 6.13996
23.1342 136.324 -0.0146592
-22.3658 125.006 14.9019
-17.9823 126.284 13.0417
13.685 132.832 6.0486
14.681 137.049 -3.91201
-13.0362 132.965 -1.80903
-8.56017 128.594 10.4255
15.5894 136.275 -1.60118
-21.1901 130.224 2.87063
-13.4333 132.896 -1.47887
-24.3462 125.252 14.3428
15.123 136.771 -2.58848
3.94985 130.375 10.1413
11.8742 131.906 8.69389
22.4972 136.69 -0.0840392
15.567 137.208 -3.36536
11.139 132.643 6.72227
-21.1336 130.466 2.76815
-21.5836 129.749 4.43946
6.94743 136.648 -4.32257
10.6537 133.512 4.56871
-22.2548 129.285 5.63241
-7.42277 135.063 -4.39009
11.319 133.84 4.18667
14.4576 136.726 -2.05696
11.378 138.162 -6.50513
11.9922 138.004 -5.9181
12.2871 137.991 -5.74127
-21.238 130.228 3.83251
11.4846 133.953 4.10337
-1.86221 129.898 10.3118
22.8923 134.873 5.15654
0.434642 134.073 0.666385
-17.9546 127.164 12.5575
-23.3631 125.721 14.5924
-11.3261 128.569 11.0569
19.5741 133.438 8.0469
-21.105 130.677 3.08938
6.6153 131.189 9.92389
-23.9066 125.913 14.2806
-10.1949 135.152 -4.60359
-0.211671 130.789 9.16154
15.6735 132.981 8.37494
12.9221 138.154 -5.26376
13.1631 133.569 6.35932
21.5977 134.737 5.99079
-21.615 130.217 4.78969
-23.2589 128.618 8.29837
22.1124 137.566 -0.688904
-5.72215 129.722 10.7076
-23.753 126.215 14.1927
-24.229 126.53 13.2986
-10.961 129.059 10.9008
13.1394 133.096 7.88358
17.6843 133.62 7.90977
15.4637 137.24 -1.6548
-20.5345 126.637 14.2379
-18.7533 132.458 0.341224
-23.7746 126.385 14.0062
-22.6991 129.082 7.64452
-21.2108 126.535 14.4453
-23.7891 128.189 9.60742
-19.6254 127.231 13.2567
21.1236 138.184 -2.07747
3.31421 135.395 -0.284992
21.7912 138.09 -1.44932
15.4301 137.515 -1.80722
-18.7035 132.808 0.0517459
-8.91586 135.934 -4.83801
7.56709 132.217 9.19085
15.4158 138.01 -2.90323
8.5583 132.562 8.71177
11.1858 138.966 -6.31877
14.1245 134.941 4.53725
-15.2922 128.048 13.1574
3.21392 135.729 -0.284191
-22.0836 126.922 14.2933
-10.6568 135.697 -4.10782
13.946 134.774 5.39497
17.2855 138.797 -3.58677
-0.0400072 135.123 0.523135
5.96728 132.184 9.66858
-18.4762 133.164 0.382725
-15.0898 128.508 12.9926
-4.98731 130.858 10.0984
-12.2233 135.422 -3.31165
20.2352 138.971 -2.56633
-18.594 128.452 12.2963
14.3764 135.867 3.5433
-9.37624 130.438 10.2507
-9.51964 136.349 -4.44103
3.30182 132.584 8.63858
-4.04749 135.648 -1.07323
9.15296 133.333 8.54339
-21.1128 131.711 3.88079
-5.74537 131.044 10.0373
13.0771 135.061 5.57524
11.6767 134.574 6.37683
-14.361 128.937 12.8124
14.7413 138.848 -3.15996
-2.63283 132.043 8.72109
5.87948 137.972 -3.51199
-7.2348 136.929 -4.67873
21.9325 136.302 5.38096
-21.9171 130.981 5.8737
16.7781 134.665 8.00215
-23.0824 129.398 9.51702
23.1132 137.092 3.99681
14.8428 139.118 -3.43255
-3.96688 136.111 -1.23676
-20.2085 128.537 12.8982
12.9489 134.699 7.27343
-21.3162 128.003 13.9602
15.8584 139.152 -2.90059
21.4951 136.495 5.43109
-0.446398 136.001 0.371775
24.1297 138.222 2.03821
16.2453 139.369 -3.0627
-4.51095 132.007 9.22817
24.2542 138.352 1.84546
10.1258 135.75 4.30885
19.4102 139.582 -2.43896
-20.9456 132.679 3.13898
-15.032 134.945 -0.765879
-21.8375 131.379 6.12043
-22.1218 128.223 13.8786
-11.4206 136.585 -3.75083
15.8172 139.422 -2.80976
10.1759 135.591 5.28241
17.2038 135.454 7.73409
6.74679 139.262 -4.72841
18.7478 136.133 6.71754
14.3715 137.094 3.1457
-21.2029 128.743 13.5714
-12.5571 136.422 -2.90094
-1.93273 133.07 8.57888
11.3823 136.954 2.86464
-7.23263 137.835 -4.65124
-9.97725 131.364 10.6407
1.14958 136.906 0.135072
7.42867 134.193 8.79511
-23.5379 128.996 12.7245
9.04393 140.199 -5.56192
11.5529 135.736 6.26609
19.0773 140.086 -2.30427
19.0323 140.119 -2.29833
16.5536 140.114 -2.98944
13.248 135.485 7.56762
13.5097 135.488 7.68545
9.90881 135.237 7.28258
18.068 136.251 7.15172
-9.8497 131.619 10.5856
-22.3521 131.288 7.80623
-17.1563 134.6 1.16442
-5.50636 132.73 9.24117
-4.58933 133.1 8.69091
-3.87482 133.46 8.13657
21.5104 140.241 -1.26314
-10.0685 131.782 10.6122
-7.7154 132.253 10.1437
0.856543 137.307 0.0916765
-12.6684 136.88 -2.77185
20.2009 137.367 5.5802
-21.4163 129.447 13.3336
-3.63572 133.699 8.00618
-7.71568 138.325 -4.63073
-5.26099 133.195 8.86854
13.8094 140.794 -4.34622
12.3541 137.952 2.28853
21.9435 140.331 -0.812193
-8.1016 138.39 -4.69344
-4.36044 137.791 -2.04497
3.38629 138.315 -1.06472
-13.681 136.746 -2.05885
-7.73848 138.466 -4.6013
7.68068 135.343 7.71914
-23.1819 130.707 10.2819
22.4167 140.326 -0.333656
-14.4467 136.097 -0.548025
-10.0243 138.095 -4.18923
-8.47658 132.516 10.1555
-13.3691 131.514 11.3061
-4.36069 133.891 8.03973
-21.7415 129.831 13.255
-23.5162 130.415 11.3872
7.04641 135.538 7.55382
-10.2588 132.243 10.7267
10.1743 137.158 4.47839
-12.8075 137.511 -3.04385
23.2675 139.92 1.50555
-19.3395 134.801 1.84193
13.4963 136.346 7.84071
-17.9446 131.211 11.5098
5.93335 135.559 7.66987
-14.7575 136.758 -1.23733
13.0544 138.721 2.02153
-7.0151 133.294 9.67573
-22.2497 130.227 12.8841
21.6463 138.654 4.81462
11.8233 141.616 -5.35752
-5.843 133.946 8.61383
11.1754 138.182 3.14959
-19.4726 135.104 1.88383
-5.64126 133.926 8.84315
-22.5416 131.803 9.21475
-13.1171 132.253 10.8789
-6.34712 139.066 -3.9494
18.68 137.747 6.60674
-12.3241 138.106 -3.24319
17.0725 137.249 7.44488
16.8687 141.29 -2.56219
18.9924 141.277 -1.89888
13.4343 138.027 4.57181
-21.0022 130.934 12.2496
18.2662 137.727 6.87219
-21.3363 132.949 7.22892
-8.60209 133.369 9.89654
13.8423 141.06 -2.59305
-12.5659 132.506 11.1085
6.95393 141.17 -4.62023
-2.68096 135.199 7.41784
14.5148 138.784 3.51449
9.28554 136.867 6.76007
8.57083 141.699 -5.40592
7.57235 136.767 6.57235
-17.6634 135.796 1.69812
-21.5229 131.034 12.5265
-2.66945 138.633 -0.66875
-14.2126 137.011 0.0707313
4.29816 140.118 -2.25753
7.09592 141.534 -4.67369
-11.8089 138.785 -3.31178
5.39634 137.128 5.91745
23.3647 140.946 1.69261
9.8305 138.263 4.45249
5.07531 137.063 6.07614
-5.40931 134.933 8.335
18.4253 138.412 6.62897
10.3479 142.583 -5.89521
15.1489 137.974 6.96137
-13.4018 133.073 10.8523
-11.3411 139.128 -3.55438
-18.9423 135.789 2.54866
-17.4341 132.38 11.5252
-8.98015 139.88 -4.5918
22.1178 139.932 4.33639
15.5331 138.097 7.0898
0.628785 136.784 6.11101
-9.30793 134 10.2706
6.74208 137.503 6.3054
7.49005 137.563 6.49755
10.8662 139.144 3.55382
14.4473 139.57 3.56221
-8.54192 140.216 -4.69759
8.28988 137.68 6.61812
-0.591776 136.836 6.19194
12.7789 138.618 5.65785
-14.8586 133.26 10.9332
-21.5118 133.522 8.75188
-21.5455 133.501 8.8246
16.1736 138.558 7.27871
17.2111 138.749 7.12004
-2.48183 139.807 -0.874141
-3.02885 136.479 7.36873
-2.93636 136.54 7.31832
22.9754 141.921 1.56238
-4.60735 140.271 -2.3576
-7.64208 135.102 9.64677
-19.2259 133.018 11.5927
-14.9928 137.821 1.12031
2.89028 137.926 6.06785
-13.9403 139.24 -2.07606
11.2006 139.946 3.48839
-2.29604 140.176 -0.878149
-16.4619 133.629 11.2821
-1.30146 140.177 -0.324105
6.02623 138.896 5.08044
-0.0853281 140.394 -0.407526
9.68524 143.693 -5.75174
14.516 139.213 6.77972
10.1991 138.831 6.51211
4.71802 142.088 -3.11985
-8.59017 135.263 9.97106
4.6688 138.902 4.96163
1.4737 140.899 -0.672859
-5.16412 141.114 -2.97231
2.00077 138.61 5.345
-13.1327 139.874 -2.0752
-21.1898 134.377 9.29275
-7.10882 141.409 -4.06039
-19.8094 133.697 11.6158
14.1307 141.157 2.98157
-13.9666 139.317 -0.599865
14.4534 142.843 -1.09015
-14.4306 134.595 11.0811
-11.7438 134.791 11.3866
-20.115 136.03 5.98079
-9.83195 135.261 11.0093
7.29188 139.26 6.11732
9.77255 139.989 5.07412
-5.10383 141.525 -2.96851
0.467607 141.219 -0.588608
21.5925 142.086 3.48738
-7.89649 136.536 8.70439
-16.5301 138.301 1.82583
21.3782 143.675 -0.479234
18.7364 143.894 -1.67739
3.93785 142.425 -2.32598
-7.78518 136.217 9.7154
7.81559 144.062 -5.1138
-13.5521 140.291 -1.75346
17.5874 140.591 6.60674
-2.1514 141.312 -0.894626
-0.471392 141.352 -0.495766
3.53282 139.918 4.29384
1.5737 139.559 4.61678
4.63926 140.112 4.14941
-6.54928 142.117 -3.85962
21.2445 142.092 4.30306
8.04395 139.831 6.09031
4.96051 143.36 -3.50676
13.9803 141.613 3.47359
-2.48513 138.461 6.53394
5.96303 140.086 5.04305
5.15349 140.478 3.94573
11.4002 141.752 2.89037
13.3033 140.665 6.18921
-4.65342 138.582 6.17633
21.4781 142.902 3.05566
2.39584 142.525 -1.34441
6.59803 144.408 -4.5393
-17.2097 138.647 2.96948
-13.1802 141.025 -1.74874
4.70942 143.762 -3.33457
3.75615 143.36 -2.29314
13.062 145.346 -4.52004
10.1843 140.87 5.82789
13.4889 141.18 6.02207
10.6473 145.46 -5.30919
5.20757 141.265 3.55366
5.19925 144.218 -3.66758
14.9247 144.159 -0.619655
15.0003 144.069 -0.335614
11.6664 142.673 2.23611
11.165 142.539 2.47202
-4.73965 142.757 -2.68035
-9.78695 136.751 10.8024
2.07841 140.773 4.28571
-16.961 135.709 11.4513
-20.094 136.909 7.60876
-19.2197 135.315 11.8922
11.9786 143.075 1.99831
-16.4948 139.488 2.69134
8.48536 141.263 5.56368
6.39214 145.042 -4.42393
0.246974 140.64 4.91657
17.8016 145.017 -0.667795
5.38301 144.825 -3.79072
1.7046 143.318 -1.11469
16.7846 144.902 -0.582719
11.8708 143.313 1.94217
2.48904 141.324 4.17602
6.02486 145.202 -4.19228
3.27018 141.63 3.95076
-14.1437 136.495 11.6837
11.9005 143.564 1.86916
20.1951 143.424 4.69235
-9.16058 137.591 10.6815
-17.6737 139.355 4.25088
-1.77346 140.546 5.98886
-13.6942 141.777 -0.473481
-16.4256 136.533 11.8571
10.9841 143.747 2.04458
6.7815 141.869 5.50277
-9.53133 143.868 -4.06375
-20.2466 136.473 11.2216
15.0171 142.917 5.60971
10.3686 146.849 -5.15097
11.4811 144.211 1.74443
-18.9858 138.456 7.39327
20.7488 146.02 0.170693
15.3084 145.424 0.534106
-19.4867 136.948 11.4959
12.4707 144.762 1.52337
7.39185 143.086 4.30463
2.84032 142.682 4.10202
-1.65448 141.61 5.52556
-19.0802 137.204 11.5125
6.80962 142.994 4.68262
8.64386 147.194 -5.10265
-16.2754 141.061 3.24658
-19.7784 138.554 8.49399
13.2292 144.721 2.79449
-2.48523 141.683 5.78786
-2.73805 141.643 5.81536
-8.30058 139.952 8.40586
20.0166 146.704 0.0299652
15.5614 144.109 5.18957
0.506224 144.923 -1.16954
-9.6054 139.151 10.2945
-6.56954 140.981 6.85117
-18.6457 139.339 7.52264
15.0832 146.172 0.370604
5.05567 146.655 -3.60984
-13.0243 143.283 -0.463567
-4.11892 141.811 5.84276
3.98698 146.355 -2.99186
1.45247 145.485 -1.52756
8.70198 143.408 5.77546
12.3984 145.628 1.40384
9.33912 144.817 2.62599
2.32397 143.365 4.27071
-1.19838 145.198 -1.17656
-1.94522 142.657 5.0328
11.0074 147.926 -4.2214
-4.49107 142.169 5.67857
-1.11111 143.032 4.54649
17.431 147.092 -0.0702885
-15.5015 141.991 3.02117
14.1407 147.396 -1.63075
-13.2299 143.11 1.12251
18.8144 145.569 4.39146
-15.7719 141.986 3.2427
-13.0659 143.739 -0.282109
-5.72589 142.237 5.6342
-18.4271 138.603 10.9929
10.702 145.85 1.6331
-3.77087 142.622 5.56606
-12.3269 139.563 10.7071
-9.14899 145.954 -4.13281
-4.13161 145.81 -2.28563
-6.22193 142.167 6.17507
-15.3785 139.014 11.3846
-17.7418 138.798 11.2492
-1.87819 143.363 4.56626
18.7036 145.979 4.16257
9.34584 148.622 -4.92466
2.78744 144.024 4.59342
14.2736 147.746 -1.15113
-1.02208 146.021 -1.14973
9.75694 145.131 4.19547
7.43285 144.501 5.21409
-13.1568 143.371 2.03927
-16.9052 141.866 4.71759
-6.61954 142.326 6.58264
-16.4828 142.101 4.30996
-4.80899 143.285 5.23794
16.52 145.956 4.82475
18.3743 148.134 0.174994
-6.40874 142.791 6.29805
-18.3437 140.813 7.86067
-15.9274 142.685 3.97943
9.78844 145.672 4.05907
-1.52574 144.231 4.35288
-4.14593 143.6 5.19224
13.0394 147.185 1.32561
19.214 147.829 1.61787
4.12783 148.04 -3.14851
-12.4823 145.13 -0.719246
5.43489 148.535 -3.88921
17.8605 148.456 0.051746
-14.9024 143.327 3.29922
11.8045 147.351 1.22389
18.1408 147.229 3.37714
-6.69319 143.268 6.49369
0.571486 147.489 -1.62216
-13.84 140.851 10.8096
18.5913 148.346 1.71048
18.1575 147.944 2.61529
-12.6666 144.598 2.2554
13.4302 147.099 3.76836
-10.8231 141.773 10.3128
-12.7574 144.688 2.63134
-10.8267 141.889 10.2533
-16.028 143.494 4.90664
-16.4351 143.314 5.31452
17.3821 149.039 1.00186
-10.4441 142.326 9.65936
-10.3732 142.409 9.54829
-10.0682 142.552 9.3367
13.2825 148.132 2.34138
-12.9267 144.754 3.15182
10.7468 148.414 1.14788
-13.8468 144.503 3.74917
-7.16197 144.122 6.6559
13.5835 149.566 -0.714345
9.43548 148.259 1.34501
-10.1099 147.82 -3.14483
16.7582 148.016 4.20537
17.5509 148.885 2.31736
15.7203 149.677 -0.146254
6.09641 150.055 -3.84634
