ply
format ascii 1.0
comment Created by Open3D
element vertex 1831
property double x
property double y
property double z
end_header
-3.16266 136.192 -2.48657
-4.74892 100.015 8.67166
-5.14469 112.966 2.32713
-6.37189 125.836 -6.01473
-12.034 100.679 -9.45165
-1.63545 150.504 -4.515
-3.3566 106.848 9.41466
-10.3073 80.7078 3.16931
-7.74647 88.404 6.36706
-2.34233 115.871 8.32223
-16.2121 80.6728 -11.2131
-5.38043 128.674 -4.44914
-15.7713 82.0721 -10.6079
0.027593 145.833 1.84515
-12.3992 99.4388 -9.47241
-8.58835 85.6658 5.66304
-2.32628 113.798 9.43841
-3.06138 138.768 -2.75425
-3.46482 115.271 6.0865
-11.4714 108.717 -10.7534
-3.24788 130.674 0.44085
-9.27077 83.7246 5.13117
-15.9387 82.0766 -10.5384
-6.05699 116.842 -0.54532
-2.72838 114.9 8.51879
-2.6544 113.871 9.16768
-3.65771 136.081 -2.45904
-6.37881 112.346 0.790782
-3.0859 114.722 7.94754
-11.3961 78.375 2.60598
-2.71929 132.628 1.4362
-13.8705 94.6435 -10.2395
-0.763076 143.198 1.98603
-3.93021 114.159 6.27346
-6.29528 110.893 1.92005
-10.1742 82.2177 4.31926
-5.64096 121.243 -0.701866
-9.21494 85.3119 5.46504
-13.3062 97.6919 -9.64752
-4.3569 104.634 9.54569
-16.3047 81.9719 -10.4528
-3.27288 139.407 -2.22151
-5.80721 110.17 3.77962
-6.64645 110.615 1.57008
-6.46868 109.965 2.27927
-5.33377 130.434 -3.43448
-3.3346 113.596 8.52947
-4.51573 127.13 -0.00271266
-12.4375 101.802 -8.92145
-3.6306 130.725 0.832537
-3.44354 113.241 8.63044
-15.951 83.2594 -9.71371
-12.2241 105.98 -9.92583
-4.05923 113.185 7.24764
-5.13028 101.746 9.37948
-2.76079 146.954 -3.5538
-3.69897 130.798 0.937169
-14.797 92.1245 -10.1851
-17.6951 78.4304 -11.5993
-2.88523 149.638 -4.65016
-7.44149 110.834 0.316014
-15.6469 84.8971 -9.02085
-6.54806 108.26 3.69896
-1.52928 153.624 -2.74827
-13.5884 97.9937 -9.32132
-2.68741 135.141 2.14219
-7.51652 114.112 -0.923206
-6.8835 118.082 -0.976417
-0.973558 148.178 1.08733
-8.09326 90.7852 7.43372
-5.58328 101.212 9.33902
-10.51 83.3118 4.73096
-6.35323 121.296 -0.810502
-5.62575 132.152 -3.38269
-7.353 125.791 -4.97404
-12.8089 104.125 -9.38436
-7.39057 116.015 -0.963722
-2.62648 151.962 -4.08569
-8.03279 110.126 0.0119768
-3.30292 143.503 -2.18509
-7.28414 117.018 -0.96104
-3.34781 149.395 -4.71749
-2.05749 139.024 2.7932
-8.18585 91.0932 7.66039
-4.31961 111.06 8.90215
-15.4216 88.689 -9.14152
-8.31328 109.218 0.149201
-5.81118 109.35 6.27397
-8.04069 107.798 1.49426
-5.79164 108.408 6.79418
-4.21815 139.079 -2.01256
-7.06011 119.334 -0.801817
-14.4976 95.9056 -9.37478
-9.82356 120.461 -7.82562
-7.35755 126.68 -4.32181
-7.49749 107.076 3.55181
-4.05347 139.975 -1.62707
-8.54786 107.625 0.785968
-5.57553 104.125 9.6165
-5.56255 109.528 7.41784
-8.51556 112.638 -1.08395
-3.92952 147.746 -4.33445
-6.55181 123.113 -0.357183
-15.9253 86.9701 -8.40188
-11.4977 114.735 -9.01023
-14.8295 95.5836 -9.22068
-12.6046 79.8562 2.81885
-11.7235 81.7897 4.18728
-12.3133 111.924 -9.80069
-6.61904 123.012 -0.370698
-5.08645 107.848 9.79075
-9.24116 107.705 -0.255923
-7.25994 120.831 -0.653499
-4.27132 143.915 -2.88457
-2.08803 147.762 0.926018
-4.46897 139.654 -1.54158
-13.406 108.122 -10.4271
-3.20898 136.784 2.78554
-5.16764 137.693 -2.41628
-7.13913 98.9402 8.87372
-17.5471 81.8347 -9.61243
-11.2245 117.024 -8.66776
-9.51343 122.514 -6.72951
-5.9162 134.497 -2.80923
-10.8022 118.503 -8.19887
-16.1029 90.6511 -9.58585
-2.27545 144.312 2.27671
-9.4698 122.87 -6.5324
-12.556 112.25 -9.72079
-11.7596 83.0666 4.41628
-4.47549 143.045 -2.56306
-8.37066 94.0883 8.2565
-4.44399 141.758 -1.89767
-5.36642 137.543 -2.41417
-4.50103 141.983 -2.06795
-6.90831 123.357 -0.137206
-14.0202 102.668 -8.98025
-10.6115 119.967 -7.68755
-3.47577 152.563 -3.64816
-4.80662 144.31 -3.42293
-7.32338 121.912 -0.272255
-18.8892 79.2189 -10.8386
-4.88642 146.313 -4.21795
-10.21 108.007 -1.20351
-6.32428 105.271 9.57433
-5.04371 146.178 -4.22974
-5.11675 145.338 -3.98393
-17.8741 82.716 -9.3737
-2.91206 142.508 2.64735
-17.6275 83.8603 -9.19225
-7.57027 100.802 8.81247
-5.21737 148.485 -5.04778
-2.86194 146.028 1.87917
-13.4357 111.733 -9.89654
-10.1223 105.256 0.977756
-9.82458 112.247 -1.19339
-12.6621 82.5798 4.21318
-8.1056 99.407 8.4903
-11.1779 87.3182 5.96163
-12.923 81.667 4.03427
-19.3345 79.3325 -10.6776
-8.89857 125.713 -4.23748
-13.6989 80.098 2.96861
-4.73832 133.045 3.0836
-2.83369 145.349 2.74426
-5.64827 146.182 -4.44296
-11.9833 117.565 -8.14781
-9.02395 105.723 4.08634
-10.8274 107.93 -1.21927
-8.07595 100.483 8.68174
-5.6982 140.643 -2.1571
-18.7424 81.572 -9.69404
-10.8604 104.506 0.227628
-2.98445 145.641 2.5668
-5.8906 141.686 -2.89622
-12.8414 83.3635 4.27063
-7.43602 105.076 8.65081
-5.92778 141.162 -2.62138
-13.5809 81 3.64405
-11.0092 108.186 -1.22595
-5.80556 149.062 -5.3885
-3.61381 145.997 1.36104
-5.13603 132.402 3.27964
-6.41961 128.442 1.89591
-12.9734 83.8388 4.30037
-11.2272 88.9553 6.48626
-5.12842 132.816 3.284
-10.55 104.71 1.64506
-10.8948 92.289 5.96554
-10.4098 112.474 -1.18631
-18.771 83.3323 -9.61826
-8.21215 104.264 7.74452
-16.3654 95.3196 -8.58658
-15.1906 104.43 -9.4703
-8.75436 106.105 5.80808
-8.50002 102.278 8.05123
-10.9336 104.503 1.14116
-9.0568 105.766 5.25716
-9.46572 105.335 4.43509
-9.42077 117.375 -0.405189
-8.23335 105.05 7.66284
-8.74374 106.138 5.95506
-5.63028 151.238 -5.12471
-13.4379 82.9171 4.08448
-9.03668 119.426 -0.151048
-7.1906 135.519 -2.20391
-17.6285 89.6961 -8.78124
-6.1501 149.706 -5.43429
-10.9752 121.923 -5.70209
-6.57594 128.829 2.30239
-7.88218 124.2 1.024
-10.8921 93.1392 6.53193
-18.0234 86.7513 -8.38699
-9.04875 105.858 5.82975
-11.0996 110.851 -1.19208
-5.23102 134.347 3.51181
-8.85444 128.6 -2.95426
-6.65657 128.865 2.40687
-6.63863 137.993 -1.24392
-4.54029 140.018 3.21055
-11.8543 106.329 -0.773904
-5.50219 133.573 3.57745
-4.84832 145.786 0.167518
-6.86544 144.315 -4.17826
-4.70944 139.327 3.25786
-5.49538 133.947 3.5951
-12.098 105.128 -0.674041
-16.8147 95.6981 -8.31987
-9.12407 102.844 7.68363
-9.18916 128.288 -3.02632
-5.66088 133.07 3.69896
-13.8104 114.755 -8.60835
-4.44559 154.158 -1.91625
-5.33536 152.794 -3.50015
-10.1404 116.717 -0.316242
-12.9622 117.37 -7.42244
-6.65208 150.314 -5.53987
-17.3858 93.8513 -8.49986
-9.45649 100.67 8.23424
-6.05153 131.481 3.86746
-9.09819 121.177 0.664414
-15.9066 106.189 -9.81207
-7.13353 147.763 -5.48162
-14.4818 82.9365 3.37774
-12.5228 92.1741 4.38574
-8.98448 121.865 0.895899
-14.8564 111.93 -9.43754
-7.56987 127.181 2.40514
-7.38994 145.357 -4.70824
-7.89226 140.041 -3.60471
-12.6546 92.9917 4.25035
-10.065 118.345 0.0912723
-19.9783 82.6918 -9.50682
-5.9444 133.385 4.00624
-10.5446 99.0618 6.96571
-12.7939 88.6596 5.77286
-15.1903 111.576 -9.56341
-17.7127 93.6212 -8.30943
-7.47795 147.941 -5.67314
-14.9358 90.5037 -0.100508
-12.8108 93.0111 4.13986
-10.8607 115.315 -0.329967
-11.5365 104.191 2.68838
-18.2845 91.111 -8.50121
-10.5619 116.778 -0.122397
-7.71991 144.625 -4.53569
-9.54459 120.63 1.0016
-7.98389 126.495 2.4451
-14.647 83.9501 3.73322
-12.4328 94.137 4.95526
-7.77009 146.45 -5.31698
-12.2397 109.79 -1.04843
-10.0123 127.802 -3.00251
-5.2158 140.341 3.62192
-16.6589 102.883 -8.92431
-9.28833 121.757 1.41306
-13.6189 116.763 -7.08514
-10.4257 126.875 -3.34964
-13.9506 88.8407 3.79828
-4.99673 142.814 3.41415
-14.2724 115.068 -7.88294
-9.46913 130.232 -2.23149
-16.0984 109.7 -9.88099
-14.7283 113.91 -8.25425
-6.42397 132.673 4.43355
-8.40993 125.261 2.6319
-7.53063 128.815 3.32565
-14.3113 85.9209 4.47983
-8.38742 142.18 -4.26041
-13.9571 87.3282 4.91736
-15.2238 112.491 -8.65182
-8.10039 126.981 2.89909
-9.99908 119.707 1.25977
-12.7414 94.766 4.94707
-16.9165 100.831 -7.86577
-11.8978 95.5696 6.69517
-12.1263 111.793 -0.614215
-11.3428 98.8716 6.78559
-14.1474 91.0664 3.1896
-14.1885 90.9274 3.14839
-8.32398 137.161 -1.62927
-6.1205 145.402 0.45895
-11.6226 96.3906 7.37866
-17.349 97.8105 -7.28843
-14.1911 91.4725 3.17706
-19.0826 90.1198 -8.23448
-11.8453 96.4755 7.09635
-10.3301 119.058 1.46018
-20.3718 85.6334 -9.34134
-15.6752 84.8432 2.57384
-8.63752 125.524 3.0625
-12.4748 103.735 2.73517
-14.4131 91.6058 3.00436
-14.9623 87.4295 3.42235
-8.91973 124.517 2.9118
-11.7617 97.0936 7.45375
-8.5352 148.695 -6.06039
-20.9041 83.4067 -9.36343
-11.5475 115.519 0.384066
-6.29563 137.624 4.14771
-15.2485 89.335 2.18059
-19.9112 86.4649 -8.05585
-17.6957 97.845 -7.23552
-15.018 90.3757 2.48462
-11.8446 114.426 0.30034
-10.1719 120.091 2.10806
-16.7903 83.396 1.11565
-17.9087 96.8462 -7.16592
-9.16645 137.37 -2.45383
-19.8811 86.6556 -7.76153
-14.4722 116.122 -6.68068
-15.4297 85.7039 3.63144
-6.46157 137.459 4.25609
-8.62152 126.672 3.44459
-11.8403 100.23 6.62888
-21.5719 81.4159 -9.48403
-15.7923 89.5461 1.38892
-11.9045 114.447 0.621903
-17.1132 108.604 -9.72915
-7.55735 130.881 4.57847
-15.648 90.4633 1.45152
-15.4077 90.6725 1.96925
-14.7102 100.427 -0.335432
-11.2566 104.209 6.60862
-15.5862 113.305 -7.79741
-15.9938 88.5902 1.49573
-17.0081 109.68 -9.76482
-15.4045 114.024 -7.47026
-6.46893 139.141 4.14477
-10.57 119.303 2.3651
-9.45974 142.024 -4.29232
-13.9543 96.1444 3.71962
-6.87986 135.144 4.98678
-13.0101 121.308 -4.34534
-13.6157 102.817 1.86471
-21.3943 82.3683 -8.79924
-14.0271 96.1384 3.63446
-18.8195 93.9772 -7.25307
-14.1439 117.913 -5.6529
-11.5953 116.401 1.29316
-14.5864 95.4175 2.6941
-13.0075 97.3642 5.81057
-12.4175 97.7136 7.12322
-11.7837 101.717 7.03717
-17.7003 83.3139 0.201637
-17.6234 88.8615 -1.88697
-14.9217 94.6552 2.37778
-11.9751 103.699 5.93834
-16.5143 89.3273 0.731671
-13.6793 96.9778 4.55587
-18.4502 96.7927 -7.07991
-16.5263 86.0408 2.1703
-16.6882 91.4618 -0.468405
-15.0614 103.099 -1.28383
-9.65992 134.988 -1.1109
-7.14872 135.017 5.12757
-6.19644 154.354 -0.543223
-7.20644 153.898 -2.71752
-9.46447 148.694 -6.11033
-16.6122 91.9813 -0.12785
-10.3525 139.806 -4.59049
-18.3802 98.468 -7.15737
-13.2501 110.147 0.66952
-15.0755 116.101 -6.21711
-15.6836 114.471 -6.96152
-13.6193 103.003 2.9018
-9.98375 142.617 -4.60098
-18.2262 101.959 -7.9997
-7.37782 143.992 1.29082
-13.1101 103.474 4.02403
-8.34583 129.952 4.76899
-16.5858 92.1358 0.200705
-6.6576 141.278 4.24394
-19.0068 95.4402 -7.05298
-15.963 94.2931 0.998019
-8.95238 151.323 -5.41856
-7.6374 133.239 5.39504
-7.8719 146.272 -0.583699
-13.381 97.9947 5.92582
-7.86315 131.878 5.43372
-18.4392 102.534 -8.37186
-12.4246 102.162 6.64853
-11.0396 118.924 3.11278
-6.69957 142.701 3.97256
-9.51178 125.333 4.28489
-7.78554 144.783 0.522487
-13.0935 122.937 -3.46701
-9.05534 127.901 4.53417
-18.0955 89.8673 -1.92126
-20.6904 87.2593 -7.19548
-13.7786 98.0293 5.38183
-13.0269 111.107 1.80873
-17.1969 89.3409 0.679446
-18.1599 108.612 -9.67497
-16.8588 92.2293 0.410979
-10.8208 120.235 3.6572
-18.9263 84.2373 -1.1923
-7.91157 143.841 1.17057
-11.1132 131.301 -1.46311
-16.4343 94.0507 0.923457
-17.8548 92.0771 -1.55478
-17.4379 92.6407 -0.738075
-7.67552 137.401 4.70468
-22.0788 85.6686 -9.23395
-19.2614 97.4338 -7.09249
-18.7078 101.431 -7.36464
-9.79278 125.319 4.68872
-8.89273 152.486 -4.37757
-16.4085 101.04 -1.46011
-16.6768 99.9658 -1.66008
-16.9102 112.478 -7.40591
-7.21484 142.892 4.00369
-9.99343 124.754 4.72262
-14.5786 102.213 2.81477
-19.907 94.593 -7.13728
-13.6884 122.582 -3.40996
-11.8392 117.562 3.25786
-11.0138 143.401 -5.39465
-10.7162 121.795 4.37434
-16.0083 115.408 -6.00283
-17.6055 90.4968 0.4719
-12.4629 115.662 2.71732
-8.43885 144.123 0.816437
-18.3807 87.1108 0.0497977
-11.5151 139.982 -4.98774
-18.3521 91.4799 -1.64528
-11.1805 132.692 -1.06909
-18.9612 107.248 -9.64485
-11.7838 137.784 -4.64019
-15.2845 117.966 -4.97788
-13.9694 108.785 2.12932
-22.7257 82.7308 -8.58087
-11.1091 135.546 -1.87754
-19.1283 100.959 -7.15405
-17.8612 92.4528 -0.40877
-19.1708 86.511 -1.12001
-17.0188 93.783 1.24583
-8.66557 131.59 6.11971
-15.7299 104.572 -0.0189985
-18.8904 87.0047 -0.440388
-19.1695 101.644 -7.21708
-7.73408 141.8 4.28507
-18.2116 89.9883 0.0575567
-16.6466 94.5101 2.05444
-17.75 93.7016 -0.291018
-18.4508 90.7358 -0.757778
-13.0759 113.71 2.94153
-14.8321 120.382 -4.06895
-15.6074 96.4784 4.00075
-7.96499 154.653 -1.32714
-12.998 114.387 3.06704
-19.8043 98.7285 -7.17362
-19.5 103.865 -8.55998
-9.05711 130.77 6.06666
-15.6201 117.99 -4.77521
-16.4519 103.337 -0.699824
-19.0387 87.3277 -0.405815
-13.7137 110.466 3.11616
-11.608 135.301 -1.92311
-11.6342 134.686 -1.69351
-17.2006 100.599 -1.1825
-13.1781 127.235 -2.25569
-18.3659 91.682 -0.243495
-17.021 98.9624 0.0958345
-8.55818 137.339 5.03268
-18.29 92.7551 -0.374996
-19.8405 99.9403 -7.1492
-12.3625 136.217 -3.72773
-17.7265 92.2207 1.35805
-13.3739 113.364 3.34032
-11.1573 122.189 5.13947
-13.389 113.279 3.36238
-18.3296 92.2767 0.0286693
-12.717 137.95 -5.03827
-18.2071 91.8742 0.640576
-8.48204 153.36 -0.961244
-19.7925 104.252 -8.38819
-19.5492 88.7825 -1.32897
-12.7271 138.425 -5.15523
-8.57334 153.219 -1.0463
-12.1196 135.41 -2.36736
-19.78 105.578 -8.79425
-19.579 88.4717 -1.16667
-9.91957 152.87 -4.1435
-19.0408 88.8151 0.0256
-19.3391 90.8951 -1.54213
-10.7015 124.757 5.66542
-17.1682 98.7857 0.535805
-15.727 97.5195 4.76491
-23.2684 86.134 -9.05583
-19.9466 102.37 -7.55801
-15.8643 107.114 0.557883
-15.0789 101.831 4.724
-18.7141 93.4536 -0.749259
-12.1945 143.921 -5.64228
-11.5407 121.39 5.34725
-15.2688 101.69 4.38414
-18.1803 92.3055 1.14076
-9.53207 144.128 0.903394
-15.6599 101.401 3.58866
-11.6051 121.196 5.35854
-9.36914 132.141 6.37099
-8.55325 140.155 5.06866
-8.88626 152.636 -0.945326
-16.1567 106.166 0.472059
-17.5434 98.5188 0.262631
-8.98843 137.638 5.10783
-15.1012 101.768 4.98829
-9.40147 154.132 -2.74165
-14.0655 125.756 -2.4246
-17.069 95.0676 2.95832
-20.8494 96.4953 -6.92529
-16.5631 99.9632 2.21325
-19.8348 88.359 -1.00219
-9.06754 154.887 -2.05086
-11.5314 122.012 5.5834
-15.6996 120.352 -3.9778
-9.96133 146.099 -0.494132
-12.8558 135.445 -3.19218
-23.4502 86.2158 -8.81285
-8.77189 154.613 -1.0752
-13.1943 136.544 -4.40725
-9.24506 152.238 -1.07994
-18.4414 92.7062 1.04467
-18.2891 98.0099 -0.713453
-9.39986 133.835 6.29429
-21.8008 92.2398 -6.96721
-18.8743 93.9573 -0.423796
-13.1868 135.573 -3.69185
-19.8017 89.6388 -0.870878
-12.3146 145.765 -5.75392
-18.31 95.6296 0.341623
-20.2636 106.07 -8.75076
-18.7449 92.0515 0.840968
-14.1365 126.638 -2.14921
-18.5385 93.6766 0.726252
-14.8588 124.304 -2.91926
-11.2447 124.141 6.10989
-13.3074 130.283 -1.3417
-19.8679 109.011 -8.60267
-16.2371 119.943 -4.16044
-13.0286 134.376 -2.16098
-19.8921 92.7491 -1.72775
-16.3035 106.922 1.26212
-17.8954 101.677 -0.473496
-13.008 134.076 -1.79661
-20.5201 106.247 -8.68245
-18.4142 98.1436 -0.111512
-11.4256 124.232 6.28138
-20.7811 88.9296 -2.07818
-17.0566 105.191 0.36282
-12.616 146.574 -5.88093
-24.2345 84.5061 -8.65951
-11.0764 146.755 -2.07878
-13.1137 141.982 -5.09641
-15.1233 124.649 -2.82356
-16.1065 98.5574 5.61511
-17.9225 94.9109 2.80108
-20.9035 89.2194 -2.17888
-13.1761 141.341 -4.77498
-19.3744 92.2431 0.391057
-14.0517 137.057 -5.12124
-18.7573 113.274 -6.69214
-12.736 119.123 5.79904
-11.2244 126.314 6.56365
-15.1395 108.596 4.30533
-12.4595 148.705 -5.66915
-14.0937 113.684 4.89328
-18.9493 96.3616 0.156419
-20.2423 93.144 -1.67103
-18.3121 101.27 -0.217503
-23.5038 87.1582 -7.13996
-18.9085 93.5937 1.59725
-9.72584 153.05 -0.478704
-17.7466 103.648 0.307633
-21.2704 89.0123 -2.23537
-17.3237 96.7974 4.2687
-15.9127 107.515 3.303
-11.1942 127.462 6.65237
-10.1655 154.988 -2.16503
-9.87419 153.918 -0.949596
-13.5488 143.578 -5.63141
-19.3127 96.0247 -0.0219365
-17.4072 99.8608 3.14156
-17.8675 103.538 0.523706
-13.78 133.27 -1.7174
-13.6616 116.415 5.64648
-11.0988 153.783 -3.50839
-10.3518 141.432 3.55829
-14.9442 127.194 -1.8299
-11.4787 127.33 6.73025
-17.8417 99.0124 2.88668
-18.736 115.937 -6.31252
-20.6739 109.522 -8.38964
-15.973 107.558 4.10075
-10.9694 143.739 1.38748
-14.6717 137.894 -5.27644
-17.4468 99.0261 4.07417
-11.6661 145.735 -1.05973
-19.5062 95.2595 0.63964
-17.8008 104.246 1.10957
-19.7962 96.523 -0.433215
-18.1005 98.6593 2.91977
-20.8943 92.0065 -1.18514
-25.1974 84.9061 -8.79981
-15.7589 108.156 4.81554
-25.2258 83.2958 -8.1362
-10.5456 140.769 4.26779
-14.7161 138.977 -5.26527
-22.3318 98.5831 -7.22142
-16.5693 107.012 3.50346
-10.3022 138.768 5.746
-20.0071 94.84 0.236742
-10.9739 141.181 3.24844
-22.16 99.6849 -7.03186
-21.3298 108.851 -8.77174
-23.7638 89.1438 -6.55902
-20.304 96.0867 -0.895496
-15.7157 126.288 -2.13347
-19.9998 96.4789 -0.277169
-17.8478 98.6929 4.10856
-11.0193 141.098 3.31431
-19.7596 94.4741 1.23932
-22.474 98.7988 -7.17007
-20.0642 96.3624 -0.136133
-22.9149 96.1726 -7.06104
-19.0353 101.13 0.50277
-22.0442 101.293 -6.98194
-12.1851 146.681 -1.3566
-15.75 127.17 -1.87811
-22.5906 88.1243 -2.41535
-11.9937 145.575 -0.160764
-20.405 94.5186 0.393241
-15.7159 135.651 -5.12698
-19.9697 98.7999 -0.133866
-13.4523 120.778 6.80259
-11.3084 133.353 6.89643
-21.8316 91.2096 -1.50259
-14.2263 145.174 -5.16445
-20.1562 97.2185 0.286596
-12.3228 152.692 -3.44355
-19.0202 118.658 -5.72083
-22.1608 90.6473 -1.73472
-12.2716 128.08 7.0979
-19.7254 99.5137 0.659184
-19.293 98.4561 2.22703
-12.163 145.512 0.267574
-22.7564 100.077 -6.91125
-14.3773 146.329 -5.46975
-21.7287 110.604 -8.66057
-11.9757 143.012 1.97247
-11.0945 138.966 5.87574
-22.7544 89.4273 -2.25478
-20.6001 96.1968 0.355698
-12.6121 148.392 -1.6213
-16.6328 108.517 5.13681
-20.4434 96.9142 0.58264
-15.4528 142.145 -5.86435
-20.0528 97.5248 1.39313
-21.0136 113.355 -7.55743
-24.245 92.7434 -6.92749
-15.4035 114.191 5.98216
-13.2822 123.792 7.21847
-11.2878 152.599 0.169502
-15.2512 142.918 -5.55445
-24.0421 94.5993 -7.11877
-20.2504 96.5228 1.44789
-14.6184 146.611 -5.48644
-22.5668 89.1649 -1.1506
-22.5803 89.4378 -1.21786
-21.6763 111.751 -8.24418
-15.7328 132.974 -2.40213
-16.9778 106.96 5.3535
-21.5602 94.482 -0.693166
-19.8514 100.583 0.98964
-21.3306 112.957 -7.80236
-22.2618 107.195 -7.69951
-13.1357 124.989 7.39829
-22.3297 108.056 -8.21791
-20.0163 97.2081 2.00156
-20.8832 114.771 -7.42744
-18.7289 120.449 -4.47598
-19.9586 96.6713 2.41886
-20.445 97.0942 1.05371
-20.7339 115.645 -7.33706
-20.4896 97.936 0.681214
-14.842 145.808 -5.27399
-16.2871 128.97 -1.81199
-19.6247 118.849 -5.81176
-26.3561 84.8202 -8.23032
-13.1693 151.471 -3.42997
-13.265 151.26 -3.52249
-20.0633 100.228 0.969766
-17.886 105.909 4.00746
-16.0014 137.404 -4.43766
-12.0546 132.909 7.18278
-20.0915 100.36 1.01578
-11.6049 139.761 5.58706
-20.824 97.4103 0.590587
-21.8874 112.329 -8.18526
-13.5143 145.962 -1.39663
-18.3717 105.018 3.71989
-23.7849 98.9105 -7.06604
-23.1533 86.3024 -0.195973
-20.4545 99.6501 0.998042
-22.3164 91.4283 0.0879519
-13.8445 150.422 -3.45075
-24.7919 94.9297 -7.24785
-18.1381 124.12 -2.95082
-17.5572 106.63 5.82004
-20.6007 94.7867 3.26453
-12.4013 133.72 7.28193
-13.49 149.402 -1.91718
-14.0508 123.363 7.55449
-16.3296 113.574 6.05648
-15.8638 115.862 6.4611
-19.3866 103.031 3.15665
-22.0728 93.6379 0.453777
-12.2695 139.398 5.72154
-13.0638 130.495 7.4714
-26.574 86.4164 -7.4613
-13.9215 147.365 -1.62817
-13.9709 150.547 -3.04717
-24.1017 87.7 -1.87023
-16.3875 142.687 -5.68509
-14.7945 120.9 7.37977
-25.2068 94.4774 -7.29254
-14.2274 123.542 7.68168
-12.547 134.494 7.29433
-13.1665 130.39 7.53269
-17.882 106.308 6.08577
-14.8392 148.198 -3.7906
-18.4617 104.78 5.34576
-14.922 120.843 7.42093
-13.5299 128.41 7.71101
-19.0587 103.895 4.35279
-20.5939 99.6257 2.36639
-26.7554 86.4417 -7.30066
-21.8458 95.544 1.02777
-13.7167 143.927 0.978199
-12.554 138.077 6.3149
-12.2466 153.543 0.642977
-24.0001 88.1272 -1.0878
-12.718 154.115 -0.694887
-20.2097 100.38 3.22512
-12.7282 135.253 7.18341
-17.3862 132.018 -2.94575
-14.2831 148.12 -1.91887
-13.6957 151.809 -1.99763
-25.499 94.8307 -7.33781
-21.4905 97.8779 1.28701
-13.4901 140.125 3.46183
-14.6579 122.945 7.74878
-21.4677 95.8314 2.30063
-16.1912 144.375 -4.87892
-17.9651 107.66 6.17182
-17.696 111.357 5.3983
-17.4692 131.562 -2.3708
-17.0617 137.9 -4.00149
-12.5396 153.637 0.605616
-14.5218 147.962 -1.85672
-13.004 135.612 7.11781
-24.4774 87.5488 -1.15409
-22.8522 113.811 -8.0282
-15.3966 147.664 -3.68584
-12.9504 137.601 6.54034
-20.2762 100.542 3.963
-26.339 91.4208 -7.15472
-16.8877 114.973 6.41194
-13.8617 140.447 3.28243
-13.2642 139.688 5.08702
-16.8235 143.799 -5.39799
-18.3729 132.951 -4.66696
-13.4189 132.842 7.65309
-21.5286 92.8721 4.29384
-19.7465 102.559 4.77434
-25.4626 97.7837 -7.32522
-14.1642 151.358 -1.69107
-22.1239 95.9961 1.7315
-24.4102 87.88 -0.513652
-21.85 96.0223 2.45726
-14.4727 144.596 0.455536
-18.0333 111.587 5.5565
-14.5269 142.471 1.46746
-12.7979 152.805 1.54914
-15.0003 125.069 7.7614
-14.223 139.989 3.53359
-25.1158 100.57 -6.91602
-27.2074 87.2205 -6.49498
-25.0282 101.364 -7.00371
-14.58 149.035 -1.01471
-14.7479 148.536 -1.19921
-21.6847 96.3673 3.43524
-18.49 109.984 5.72975
-18.6419 107.959 6.2356
-22.247 96.0803 2.34828
-18.4736 135.02 -4.49887
-23.9071 112.205 -8.39624
-17.6389 142.977 -5.74386
-17.6096 140.801 -4.68093
-17.1916 116.21 6.58818
-13.9721 131.613 8.12774
-25.2038 103.207 -7.73415
-26.6406 94.1904 -7.49811
-13.7735 139.392 5.51067
-15.1531 142.687 0.751402
-15.0712 144.137 0.355644
-13.6818 138.916 5.95818
-18.695 134.535 -4.56332
-25.9758 97.983 -7.28483
-18.7861 108.521 6.08658
-15.0698 148.096 -1.17079
-16.1964 147.456 -3.60687
-18.8424 134.204 -4.61504
-18.207 136.614 -3.99257
-27.1639 89.8539 -6.54991
-19.2007 127.28 -2.48443
-14.8922 141.897 2.08731
-19.0567 133.715 -4.69658
-14.4101 129.974 8.32596
-14.3684 130.337 8.32027
-26.4752 96.6306 -7.49609
-27.026 93.2272 -7.16899
-25.103 106.617 -7.99489
-27.0605 92.6384 -6.99651
-14.3092 131.489 8.35051
-22.7305 118.838 -7.13659
-14.0569 136.635 6.95851
-17.99 114.787 6.37668
-22.2972 120 -6.39788
-20.3545 101.28 6.28349
-20.7195 123.493 -3.85289
-20.2769 125.063 -3.39697
-17.0963 146.566 -4.43721
-14.9899 128.424 8.43758
-18.9674 130.103 -2.00312
-17.3843 145.713 -4.57537
-13.9008 153.867 0.65795
-14.9455 151.421 -0.890577
-24.2177 88.9098 2.29478
-17.0162 146.676 -3.98676
-14.5169 133.568 7.70128
-17.1093 145.989 -3.84532
-25.7095 86.588 -0.190214
-16.0299 148.512 -2.04801
-15.2645 127.859 8.47445
-22.6336 91.3983 5.57446
-14.5893 153.178 -0.1633
-24.8282 111.319 -7.97976
-29.1483 85.6348 -7.94152
-15.9871 145.616 -0.446882
-16.7761 147.49 -3.10538
-14.5157 137.572 6.60598
-26.0404 85.1421 0.0558193
-22.5205 97.6464 3.54856
-27.354 95.8902 -7.59522
-19.5808 106.197 7.29469
-21.4295 122.892 -4.14898
-14.776 132.295 8.3422
-19.4206 130.306 -2.21985
-18.4409 139.982 -3.81251
-16.9732 146.736 -2.96649
-19.571 133.452 -3.80791
-15.4879 139.319 3.82025
-26.296 101.785 -7.15767
-16.1665 145.922 -0.524576
-19.7341 129.472 -2.46
-23.7619 117.847 -7.33327
-17.3595 145.351 -2.98526
-21.7263 123.017 -4.32014
-21.0707 126.505 -4.08139
-26.1306 106.636 -8.24958
-29.6231 85.4285 -8.02286
-20.4952 128.682 -3.21925
-16.0068 147.545 0.0158653
-27.9585 94.3787 -7.21955
-22.1296 122.399 -4.46362
-15.2108 138.331 6.09223
-15.3383 138.661 5.6653
-15.2448 134.622 7.6073
-15.2719 134.241 7.70265
-15.9774 138.674 4.13316
-28.0445 93.1762 -6.67052
-22.2663 122.52 -4.44354
-28.1196 93.1066 -6.6176
-21.0836 100.867 7.55084
-18.6918 143.643 -4.16652
-19.223 141.058 -4.38992
-22.0441 100.076 5.79166
-19.6399 113.17 6.34257
-16.1352 150.388 -0.429251
-22.472 95.3908 6.91763
-17.2923 122.789 8.35001
-27.2409 102.919 -7.89583
-25.0086 114.516 -7.14545
-28.7379 90.5783 -6.35497
-20.3508 132.512 -3.09799
-29.9579 85.9045 -7.37425
-29.8981 86.1562 -7.18308
-24.6584 117.931 -7.47937
-17.7554 146.264 -2.04512
-19.5054 139.903 -3.68433
-21.0117 130.299 -3.37171
-23.241 93.8937 6.3726
-16.7751 140.029 3.13108
-18.1739 145.546 -2.49836
-19.5807 141.642 -4.28944
-18.9697 143.346 -3.42604
-19.264 116.986 6.94945
-27.2943 104.813 -7.76371
-20.0718 113.255 6.59532
-28.7997 94.0334 -6.87156
-22.7027 97.4242 6.79402
-19.0928 143.078 -3.27955
-26.6508 109.191 -7.78776
-16.999 144.384 1.36647
-28.8846 93.0321 -6.53605
-16.1757 137.79 6.20131
-22.5466 100.017 6.22529
-17.5304 124.273 8.51765
-17.6195 147.742 -1.4207
-23.3876 93.1703 7.07627
-17.3438 125.942 8.35965
-16.1244 152.808 0.244625
-20.2199 141.914 -5.31571
-22.9599 98.8632 5.88756
-30.5673 85.9305 -7.43244
-27.5543 104.535 -7.6827
-25.3795 88.5793 4.41706
-21.0556 132.87 -3.34454
-17.4301 140.036 2.62845
-18.1509 146.469 -1.71772
-18.7369 144.973 -2.49716
-17.0594 144.893 1.71079
-15.3215 153.223 2.56865
-28.9392 97.1574 -7.66913
-17.9779 123.085 8.58844
-28.6191 98.6333 -7.43832
-30.7533 85.9658 -7.40092
-25.5362 116.998 -7.43635
-18.4997 145.87 -2.10287
-21.0949 106.846 7.7506
-17.7644 140.722 2.04775
-20.3071 140.507 -4.08276
-16.0836 150.376 2.35997
-22.678 100.069 7.18644
-19.8127 142.534 -3.38943
-17.7547 139.26 3.06569
-21.4993 132.678 -3.32538
-17.9207 139.833 2.59897
-23.1567 96.366 7.781
-22.3658 130.081 -4.12991
-22.6307 128.475 -4.0072
-22.0639 131.393 -3.70954
-17.8282 141.953 2.34636
-25.3111 89.1277 5.94453
-24.384 122.191 -5.52108
-16.2654 150.625 2.69397
-27.7928 84.8787 1.67587
-30.7388 86.7113 -6.31333
-17.9929 126.939 8.46859
-16.0093 153.187 2.46532
-21.9144 131.432 -2.99867
-18.0186 138.688 3.63461
-17.8403 138.546 4.13429
-28.1615 83.9508 1.43651
-26.7874 113.148 -7.27299
-20.5824 141.488 -3.68069
-21.5776 136.058 -3.73886
-27.7632 109.597 -7.92328
-28.2051 107.388 -8.00206
-23.3013 96.864 8.49285
-17.8547 138.304 4.7413
-25.5185 121.008 -6.925
-17.9115 138.12 4.94312
-29.4985 99.8784 -7.53928
-17.4938 151.316 0.658241
-28.4182 106.417 -7.58228
-23.7748 95.6171 8.36224
-23.4348 96.8416 8.72668
-17.5086 135.377 7.43513
-25.1202 122.558 -5.99149
-26.3211 119.344 -7.54842
-30.3771 92.1395 -6.18322
-24.0002 94.932 8.39834
-22.6223 131.132 -3.22657
-17.6841 151.324 0.614224
-17.4979 148.451 2.26973
-17.5569 136.626 7.13662
-21.6124 137.786 -3.33209
-24.96 92.2469 7.42667
-27.6813 86.1579 3.25207
-22.9556 130.849 -3.58207
-21.4411 113.466 7.38514
-28.1987 111.057 -8.21863
-17.8346 137.335 6.41176
-17.9006 134.237 7.55481
-18.0086 145.945 2.42495
-18.926 138.643 3.26048
-20.7555 143.04 -3.0765
-28.7588 105.992 -7.3445
-18.1894 137.309 5.70344
-27.2386 115.316 -7.40371
-30.2143 98.7629 -7.60739
-19.9094 121.942 8.22521
-22.4192 108.347 7.76008
-18.3817 150.867 0.107157
-23.7043 128.731 -3.78141
-18.3524 136.099 6.4161
-17.0734 149.53 4.01143
-17.7046 148.339 2.97703
-22.2507 136.989 -3.47607
-18.7168 150.353 -0.286222
-18.3336 131.199 8.70735
-18.0612 147.779 2.48123
-17.1164 149.463 4.11624
-21.8699 140.878 -4.01066
-28.9569 83.5334 2.48167
-30.7032 97.5476 -7.53498
-28.8194 110.208 -8.13752
-20.7082 120.205 7.79106
-32.5235 86.9332 -7.46817
-24.4014 127.369 -4.20765
-31.6686 88.0285 -5.73821
-23.8163 98.0412 9.5251
-25.3199 93.1322 7.95046
-28.1633 85.9822 4.11473
-20.2032 122.773 8.55045
-21.7496 115.822 7.63323
-22.1233 139.431 -3.08181
-21.3034 144.311 -3.08945
-31.4083 91.4021 -5.93855
-22.9131 106.963 8.55581
-29.1075 110.671 -8.20434
-32.9198 86.738 -7.63311
-20.436 122.328 8.33831
-30.9202 99.0121 -7.74696
-19.3919 141.541 3.0294
-25.688 124.665 -5.4538
-18.6387 146.789 2.74664
-29.3233 109.592 -8.07178
-25.7697 124.61 -5.5444
-19.4453 141.417 3.2299
-23.1908 105.587 8.95253
-19.2632 150.791 -0.133289
-22.2078 114.341 7.78057
-26.1129 91.8187 7.5872
-22.4017 140.843 -3.66207
-19.4212 142.103 3.21468
-25.1999 95.9259 8.18765
-26.6086 123.122 -6.56475
-23.2468 134.219 -2.85987
-22.6801 140.881 -4.22213
-27.6054 119.261 -7.2957
-22.7553 112.027 7.71135
-26.0746 92.7096 7.63177
-22.4612 139.871 -3.06678
-17.9244 152.542 2.87193
-23.2357 107.895 8.37368
-29.9284 105.182 -6.95967
-26.6951 123.503 -6.54447
-25.3654 94.6364 8.75522
-29.616 109.441 -7.78698
-32.1045 89.7663 -5.69621
-19.2751 144.365 3.30371
-17.8608 149.885 4.50397
-24.7394 97.6863 9.29281
-26.5086 91.2692 7.66369
-22.0654 144.156 -3.201
-23.2161 110.743 7.89154
-28.8243 114.793 -7.55304
-23.3019 139.606 -4.08684
-31.6236 96.0886 -6.4058
-20.7805 148.109 -1.19775
-19.7416 129.314 9.19934
-20.0757 136.281 5.52684
-18.4024 152.539 2.89136
-21.5453 121.229 8.25833
-24.3803 130.813 -2.50702
-26.0102 95.3795 8.21868
-32.3045 92.5339 -6.11054
-20.1943 128.276 8.87699
-32.4188 91.2756 -5.85001
-23.3148 111.865 8.03974
-30.2731 107.955 -7.46486
-27.7803 121.078 -6.76511
-19.6865 142.929 4.18013
-23.7213 140.452 -4.72025
-20.0517 151.036 -0.0723571
-27.2067 90.2342 7.62699
-27.2191 123.868 -6.39081
-22.0873 118.618 8.51566
-22.9004 115.088 8.0776
-18.7243 152.456 2.86194
-32.895 90.0372 -6.0375
-23.9806 106.182 9.23665
-20.1746 129.215 9.15944
-30.0175 83.4552 3.93754
-24.3348 103.851 9.47246
-28.9042 116.736 -7.15235
-24.89 130.925 -2.96781
-20.045 141.603 4.63732
-24.2435 105.319 9.46941
-20.4503 133.006 7.30041
-27.9829 88.7363 7.28333
-23.4232 113.48 8.26795
-31.077 105.042 -6.76106
-20.2985 141.659 4.67834
-24.0638 137.615 -2.92045
-33.5935 88.6838 -5.9858
-30.9078 107.15 -7.02283
-30.6831 108.561 -7.02507
-25.4975 99.5546 9.51014
-24.8201 131.167 -1.94478
-34.4683 87.8423 -7.66472
-27.3944 92.3269 7.9112
-32.508 98.5722 -7.2233
-33.3831 90.8944 -6.10546
-28.9122 86.5912 6.8121
-26.365 98.5202 8.13771
-22.5554 119.159 8.94177
-21.0139 140.345 3.94647
-21.7823 123.525 9.07991
-27.7766 124.809 -6.21506
-19.5867 146.599 5.05601
-29.4317 116.508 -6.67775
-25.2808 101.847 9.65565
-28.0643 123.453 -6.12697
-24.7469 135.508 -2.92412
-25.4196 100.654 10.0368
-28.9008 87.3527 6.99446
-35.2265 86.5243 -8.18685
-23.6702 143.615 -3.41302
-23.4497 115.928 8.74184
-35.0202 87.8862 -8.03919
-30.3922 113.404 -7.21144
-20.486 142.627 5.05655
-25.8046 131.227 -3.18714
-27.4682 95.8726 7.47467
-23.4723 116.263 8.89031
-22.3742 122.837 8.89867
-22.6615 121.949 8.75596
-24.6729 137.022 -2.36598
-25.5946 136.273 -4.27421
-19.9764 151.927 3.06855
-31.0141 82.5453 4.76042
-25.2625 104.552 9.79583
-27.7267 98.5831 6.22893
-22.5895 122.713 8.86769
-26.1519 129.336 -2.65497
-27.2544 127.102 -4.35721
-27.2536 127.203 -4.26394
-25.6449 133.552 -2.91235
-35.5039 88.1695 -8.31691
-30.2041 115.175 -6.43049
-26.8687 99.791 8.35084
-20.6586 151.905 2.03182
-22.2183 137.788 4.10115
-30.525 84.5254 5.83698
-25.4925 134.933 -2.60456
-25.0403 136.212 -1.9642
-27.9945 126.322 -5.10188
-32.2102 105.885 -6.98123
-31.1024 82.9862 5.28632
-22.2065 134.223 5.92645
-20.8246 144.634 5.02663
-21.7181 134.632 7.06501
-25.4972 139.139 -4.0725
-20.5339 146.082 5.27674
-21.3503 142.014 4.98531
-26.6032 129.665 -2.77588
-25.0368 136.215 -1.63882
-31.452 110.04 -6.50832
-25.4647 134.958 -2.11407
-21.9161 127.9 9.5861
-23.885 116.89 9.36512
-25.5739 139.529 -4.17059
-27.5322 100.003 7.4487
-23.5881 145.23 -1.55713
-25.7167 135.079 -2.57332
-32.9653 103.616 -7.21139
-22.0534 140.221 4.51137
-22.8956 148.372 -0.895505
-35.0255 88.6027 -5.83419
-27.707 100.295 7.39579
-29.0695 92.0005 7.55821
-26.0172 138.048 -4.05919
-21.3303 151.607 1.86535
-25.4345 135.286 -1.33833
-31.916 82.4579 4.68694
-30.8019 85.0217 6.4233
-31.1285 113.652 -6.21885
-26.821 131.87 -3.15626
-25.8447 106.262 9.99701
-35.1667 90.3918 -6.28507
-26.2316 138.163 -4.11952
-20.6397 149.167 5.20748
-22.4994 127.4 9.68666
-31.7657 83.0486 5.38262
-21.3514 145.67 5.22954
-29.4584 97.536 5.30902
-35.3962 90.005 -6.17551
-22.4416 133.115 7.84595
-26.9958 103.017 9.18807
-29.4816 97.9684 5.16701
-30.0235 121.428 -5.7848
-30.9395 116.643 -6.05157
-35.2247 92.4368 -6.4049
-26.9666 103.405 9.42083
-22.7706 127.559 9.79169
-33.5653 104.835 -7.35283
-23.1545 138.871 4.15571
-26.7334 103.776 10.0497
-34.3228 100.777 -7.31729
-35.8464 88.3528 -5.80966
-32.8111 109.302 -7.03764
-26.3586 106.279 10.1557
-21.2717 150.137 4.54688
-36.8651 88.5897 -8.23212
-27.9841 102.845 7.83926
-22.7067 129.217 9.87714
-27.0435 133.326 -2.50639
-32.5751 82.6558 4.94381
-29.8244 98.9522 4.94723
-21.433 147.692 5.38503
-29.9786 93.2686 6.99384
-36.8822 88.713 -8.12275
-24.1152 121.782 9.61573
-33.7899 105.294 -7.32937
-34.287 102.37 -7.32217
-25.1803 114.832 9.9463
-32.2948 111.314 -6.09532
-34.854 95.464 -5.73677
-26.8083 135.029 -2.36212
-36.0879 89.2983 -6.03459
-27.1024 131.781 -1.4599
-30.291 94.9114 6.052
-23.7378 136.327 5.03371
-36.0705 90.827 -6.40796
-28.1935 103.185 7.95306
-30.6825 90.6557 7.04119
-34.8045 100.374 -7.04683
-27.3382 131.421 -1.55522
-23.6092 132.471 7.31545
-22.4352 144.541 5.18951
-27.6441 136.207 -4.17812
-23.0756 129.317 10.0201
-32.2374 112.714 -5.6306
-32.0636 85.0695 6.39242
-27.4075 104.915 9.62352
-34.9545 97.2398 -5.77969
-23.0371 130.3 9.89275
-27.7364 132.801 -2.70235
-31.7926 116.221 -5.79037
-31.9051 86.2646 6.43097
-23.6509 126.918 9.8689
-27.2251 139.688 -4.20901
-26.7367 107.769 10.3474
-32.1343 113.749 -5.41465
-30.8008 98.5065 4.23719
-24.4552 122.941 9.72137
-25.9242 113.472 10.051
-24.3323 135.504 4.81227
-26.3971 110.693 10.0821
-28.092 136.519 -4.80264
-28.7677 129.796 -3.66161
-27.5687 135.755 -2.98163
-27.6879 136.056 -3.33685
-26.3412 112.099 10.0262
-23.4126 150.283 1.39932
-35.1619 98.0914 -5.8038
-23.6127 150.079 1.07221
-22.4299 147.358 5.12846
-26.806 109.244 10.2153
-28.1697 132.075 -2.61312
-28.1094 131.924 -2.31493
-26.292 113.012 10.059
-29.7784 126.775 -4.17006
-36.8041 90.8403 -6.47232
-23.5533 129.868 9.98859
-23.8612 149.869 0.928939
-27.8152 139.692 -4.57563
-22.6817 150.591 3.59318
-32.3478 115.425 -5.57686
-35.0275 103.995 -7.37128
-24.1212 149.667 0.617949
-27.5831 106.416 10.0931
-31.4682 91.7917 6.65643
-37.075 89.4889 -6.14679
-28.4527 132.35 -2.68013
-26.2079 115.31 10.0927
-28.464 131.964 -2.38456
-25.21 135.052 4.43141
-28.0735 139.476 -4.46171
-28.5844 132.365 -2.75671
-28.5425 132.637 -2.74836
-22.9856 147.143 4.9585
-28.6802 132.32 -2.86459
-31.0708 123.776 -5.15724
-36.6536 93.4132 -6.28238
-28.529 105.391 8.78936
-31.7408 96.7681 4.54871
-28.1844 132.544 -1.54133
-29.6231 129.121 -3.64009
-28.9044 130.301 -2.33582
-23.2108 146.377 5.11619
-32.8658 114.368 -5.35021
-31.5174 99.386 4.2316
-25.1964 132.403 6.08233
-25.1548 123.3 10.0209
-31.8738 96.3843 4.66717
-34.99 106.643 -7.25477
-32.9446 114.142 -5.30787
-29.2894 129.057 -2.45168
-32.168 90.8718 6.36199
-28.9822 129.984 -1.93024
-26.8064 113.982 10.0957
-28.8809 135.074 -3.78757
-25.1356 124.107 10.0248
-28.7304 129.757 -1.17849
-25.0261 148.25 0.294042
-33.0911 114.037 -5.32222
-33.5895 112.416 -5.86677
-32.0913 96.3793 4.51549
-28.5551 138.737 -4.2907
-26.3758 117.503 10.013
-26.3191 145.075 -1.26716
-37.6937 89.8059 -6.29446
-25.3559 147.569 0.0863218
-30.821 124.78 -3.74258
-28.6894 138.663 -4.26309
-31.0882 124.102 -4.08161
-24.8178 140.545 4.57166
-28.1667 140.789 -3.67576
-24.8874 140.514 4.5384
-32.3824 95.1649 4.9884
-23.7858 145.322 5.43495
-30.3064 103.892 6.60465
-25.3753 131.775 7.1729
-29.5034 134.767 -4.11906
-32.5235 94.0115 5.39752
-29.1349 128.665 -0.621868
-29.2023 133.787 -2.90014
-32.5892 93.6508 5.45521
-33.5846 85.2727 6.52843
-29.5532 129.768 -2.01748
-30.8393 125.988 -3.5997
-28.6874 133.523 -1.41828
-36.6089 96.6176 -5.55857
-29.429 131.051 -2.16039
-30.5887 126.871 -3.26146
-28.5216 133.526 -0.901546
-27.3239 114.239 10.1216
-26.0027 135.612 4.50126
-33.6231 114.114 -5.3124
-28.3442 109.105 9.79542
-32.997 91.3909 5.70001
-29.7689 105.016 7.99675
-32.0629 122.726 -4.99948
-29.675 135.384 -4.27972
-26.0789 121.826 10.2607
-28.8394 133.426 -1.31198
-33.2364 116.735 -5.19088
-25.1251 141.608 4.49116
-30.0141 129.013 -2.24766
-29.1778 132.881 -1.74103
-26.8905 118.632 9.88383
-28.8131 139.677 -3.56887
-33.1212 95.0882 4.51938
-34.4315 112.689 -5.91938
-30.4621 104.806 7.15106
-29.1841 133.858 -1.74556
-25.7535 131.772 7.68984
-25.0806 142.448 4.9764
-38.356 88.8191 -5.36586
-33.5342 92.2174 5.21506
-38.3763 92.4573 -6.80068
-25.9641 136.7 5.39137
-33.5473 95.7114 3.79071
-26.1436 123.587 10.4737
-33.5251 92.9074 5.05848
-29.7648 134.206 -2.77004
-35.2154 110.272 -6.23849
-37.1492 97.9307 -5.82566
-29.7399 129.101 -0.527533
-29.6786 132.947 -1.91244
-33.6207 94.59 4.36632
-34.0239 88.5434 5.91353
-34.0271 88.3091 6.04482
-32.3965 122.94 -4.34207
-29.535 108.306 8.83445
-32.6062 122.689 -4.69858
-29.4104 133.942 -1.42536
-28.4396 113.529 9.64509
-34.0242 95.2223 3.58629
-31.5211 125.697 -2.9161
-27.6463 117.377 10.1308
-34.4888 86.9646 5.92099
-25.1217 144.461 5.11017
-33.2539 99.4742 3.87729
-38.4371 88.1474 -4.16527
-30.1561 131.229 -1.64694
-38.2145 94.9945 -6.43006
-38.6762 89.2837 -5.18165
-29.7242 109.194 8.71165
-30.5033 128.391 -1.14196
-34.3003 95.1665 3.33601
-28.9899 112.427 9.29328
-30.4012 132.435 -2.48226
-31.7106 104.501 5.95453
-26.536 136.616 5.36232
-33.6352 118.944 -4.72368
-38.876 87.7334 -4.57454
-39.0608 91.916 -6.75226
-30.6096 137.159 -4.59838
-37.502 100.92 -6.48337
-25.2259 148.994 3.8071
-31.2269 105.625 7.12931
-29.5046 111.521 8.97758
-38.6887 88.8212 -4.10406
-30.2656 129.225 -0.107555
-25.398 145.381 5.172
-30.6029 128.603 -0.671392
-30.5349 136.195 -3.64095
-26.8882 126.377 9.44535
-26.7762 129.119 8.61948
-33.1129 122.609 -4.27844
-27.0617 147.412 0.340604
-30.7225 128.381 -0.680069
-30.8001 128.044 -0.71727
-34.5281 115.229 -4.55808
-26.9329 129.03 8.47807
-34.7198 93.4154 4.11452
-35.1458 90.357 4.34116
-28.0618 118.556 10.0805
-35.8792 109.278 -5.27866
-37.4835 103.888 -6.91363
-29.3288 132.371 1.35462
-31.5041 126.034 -1.33259
-39.4495 91.6288 -6.59321
-28.4391 117.69 9.7103
-30.8114 133.024 -2.48856
-39.3487 92.1357 -6.44115
-27.5188 134.506 5.10615
-38.4432 96.1558 -5.78467
-39.8181 89.5554 -6.29503
-28.6277 124.133 6.99155
-29.7384 113.521 8.7163
-27.1564 137.755 4.99958
-30.8632 131.245 -1.41947
-27.8097 132.8 5.47146
-31.2058 129.586 -1.5612
-27.6844 133.996 5.29772
-39.334 87.7258 -4.16183
-28.0144 121.224 9.81955
-33.6526 100.894 4.41064
-30.4284 122.303 3.48511
-31.1838 132.624 -2.66618
-36.8537 106.937 -5.92848
-39.1213 88.0752 -3.66919
-28.0202 133.515 4.79302
-35.3466 94.0231 3.19671
-30.1816 132.134 0.0878678
-30.8449 131.534 -1.16623
-35.7322 90.0906 4.11517
-26.4756 144.203 4.42192
-29.4111 141.958 -1.84096
-26.5005 144.249 4.41787
-35.8631 111.347 -4.93037
-30.7855 110.539 7.94807
-27.5202 137.144 4.94429
-30.759 138.326 -3.47574
-34.166 100.792 3.77441
-29.1033 124.056 6.58574
-30.9346 131.511 -1.02879
-30.9326 131.507 -1.00332
-30.175 132.053 0.698232
-35.4936 112.603 -4.31182
-36.2552 85.2413 5.20548
-30.6016 121.629 4.00756
-27.9407 124.811 9.24368
-31.8998 129.221 -2.31169
-33.4625 102.943 4.77065
-28.4344 125.466 7.9496
-28.8178 120.688 9.00082
-34.7988 116.351 -3.91886
-27.9981 127.166 8.51826
-28.2588 134.229 4.96015
-30.6181 139.023 -2.83163
-35.3639 99.7082 1.87231
-34.1671 101.325 4.15544
-38.9751 84.5591 -0.615948
-35.2071 100.894 1.93249
-38.2247 103.422 -6.55408
-28.6699 132.83 4.77659
-28.2391 130.684 6.81413
-29.4677 142.766 -1.21506
-30.3205 121.501 5.54353
-33.6546 123.019 -3.29718
-28.2736 130.31 6.9526
-33.0697 124.27 -2.24493
-31.923 119.456 2.60658
-28.3193 134.29 5.33468
-28.1179 134.352 5.80853
-30.3743 114.761 8.41084
-33.1691 105.295 5.46225
-34.923 116.335 -3.45139
-30.2243 120.649 6.3386
-31.8076 127.81 -0.521576
-33.9074 122.24 -3.35173
-31.2042 111.77 7.67578
-36.4924 90.377 3.55862
-30.2935 120.604 6.2739
-31.3385 131.307 -0.735254
-39.7303 87.943 -3.3619
-33.1172 105.584 5.66941
-29.8722 117.1 8.88176
-31.8877 119.212 3.05197
-38.9265 100.691 -6.58478
-36.2379 93.9724 2.84792
-31.618 136.437 -3.36537
-31.86 121.431 2.38693
-28.6278 146.449 -0.0479583
-28.7465 146.084 -0.0567636
-29.3352 143.686 -0.447674
-30.6608 119.978 6.17079
-38.107 84.0276 2.79626
-34.9416 118.028 -3.52698
-37.125 86.4486 4.24367
-34.1652 121.901 -3.16652
-40.1435 89.3903 -4.37537
-34.6096 119.785 -3.37291
-32.559 118.168 2.35878
-36.4766 94.7473 2.50136
-32.3967 126.549 -0.66653
-33.3538 118.066 0.59585
-35.7537 112.649 -3.02896
-27.3286 148.057 3.01871
-29.2081 144.395 -0.0793683
-34.6805 102.522 3.9344
-29.0419 145.301 0.0526539
-28.9615 126.735 7.99664
-28.4797 134.096 6.1302
-30.2231 142.118 -1.50264
-33.5104 118.095 0.410354
-30.7089 118.625 7.11794
-33.5157 117.694 0.7868
-31.0817 118.821 6.34624
-31.5424 131.335 0.0275352
-30.7664 125.445 4.43101
-35.9405 112.272 -2.78157
-35.2577 116.286 -2.7461
-30.9822 118.012 7.08384
-38.9192 102.265 -5.92796
-28.1546 139.473 5.17404
-29.0403 132.252 5.99616
-30.6454 124.974 5.078
-37.0214 92.6305 2.84757
-32.2323 130.82 -1.23081
-37.1148 97.4092 0.695649
-31.3646 139.22 -2.50077
-37.1161 99.5562 -0.145294
-38.7408 84.4849 2.12877
-34.9738 119.325 -3.07722
-38.0294 104.094 -4.23179
-29.9501 133.071 3.66927
-31.5248 118.587 5.82959
-34.8524 120.108 -2.99422
-32.3295 130.952 -1.25824
-29.3092 127.354 7.70894
-35.1436 118.707 -3.07132
-30.1346 130.361 4.4535
-29.9233 126.263 6.6906
-40.2315 90.6008 -3.87673
-31.2493 140.011 -2.28661
-37.8211 104.223 -3.58746
-31.5849 118.328 5.99478
-29.1371 133.675 5.6591
-29.424 127.86 7.3781
-29.0978 134.175 5.57253
-28.355 143.316 3.60908
-29.8661 133.413 4.02472
-31.6216 115.099 7.35279
-38.026 84.7943 4.17864
-29.9119 129.381 5.69238
-30.9228 126.704 4.33217
-37.1979 100.359 -0.109046
-32.2684 136.21 -2.87063
-39.3768 101.065 -5.76353
-29.9898 129.231 5.67508
-29.9835 129.207 5.72623
-32.5252 128.8 -0.367876
-37.182 95.1593 2.16435
-31.8109 118.069 5.87613
-32.2758 130.872 -0.580748
-31.0368 141.23 -1.82808
-32.4539 129.351 -0.325286
-28.4992 139.097 5.38879
-30.0985 133.267 3.96293
-34.6194 121.604 -2.30701
-39.194 102.065 -5.39653
-33.9629 117.09 1.26929
-32.5641 123.986 1.85985
-37.9779 85.3265 4.63528
-41.2098 87.6811 -4.28609
-31.2466 126.905 3.98821
-33.3105 121.242 1.33107
-34.654 121.724 -2.14577
-33.3266 121.376 1.27288
-38.1522 103.229 -3.06667
-32.0463 116.903 6.33165
-37.4567 95.2489 2.01029
-33.1219 110.919 6.31814
-28.7487 139.367 5.29688
-38.9723 85.5613 2.52467
-32.1061 138.492 -2.57201
-31.8208 127.88 2.58392
-38.416 92.0315 1.29231
-31.9728 128.948 1.85358
-37.3369 109.02 -3.07272
-31.8524 128.145 2.55865
-32.316 126.668 2.06196
-33.0167 116.608 4.55199
-33.4882 123.13 0.707199
-31.0868 127.51 4.82986
-40.4103 85.7932 -0.792229
-32.3661 124.894 2.77072
-37.5106 108.63 -3.11995
-34.0702 116.725 2.00362
-37.1413 109.65 -2.495
-35.582 116.852 -1.63291
-40.7996 91.2302 -3.78929
-29.3354 135.476 6.08588
-35.0433 120.354 -1.64687
-36.07 115.039 -1.89862
-31.6506 130.566 2.54668
-30.669 132.227 4.31321
-38.1649 96.4156 0.86807
-41.4416 89.9194 -4.47639
-41.9197 86.9943 -4.40046
-28.6909 145.111 4.03715
-29.5326 141.806 3.46073
-39.0234 98.6198 -1.88172
-34.4551 122.286 -0.461073
-34.6311 109.539 4.41952
-33.0208 130.313 -0.171649
-39.1182 98.5319 -1.92045
-41.8996 86.9343 -3.93059
-40.2376 86.2625 0.461094
-39.2007 92.9355 0.294852
-38.577 97.2628 0.0698594
-33.3293 115.826 5.31606
-35.0534 108.382 4.22347
-34.2852 112.049 4.60234
-39.9657 89.2072 0.131598
-34.8293 109.939 4.1705
-29.3695 138.694 5.6886
-29.3251 143.691 3.75954
-40.2051 86.4842 0.768292
-38.4867 103.45 -1.99489
-29.8931 141.356 3.41774
-37.222 109.933 -1.55359
-32.247 132.134 1.49385
-37.4356 102.215 1.15325
-33.1833 136.219 -2.4943
-37.595 105.796 -0.707976
-38.8038 102.311 -2.23522
-33.1045 126.238 1.86025
-28.882 146.192 3.97965
-33.1964 133.192 -1.2063
-31.8534 131.337 2.90074
-41.1664 86.7276 -1.36545
-35.5171 106.925 4.18265
-35.6689 115.091 0.509445
-37.8779 102.676 0.255023
-39.7282 99.9182 -3.10088
-39.3085 97.6774 -1.11739
-31.3392 143.205 -0.333279
-33.2433 135.846 -1.96394
-33.4831 128.604 0.484039
-40.5558 88.9002 -0.361532
-37.2056 110.945 -1.15597
-40.6822 89.2271 -0.631221
-40.5421 90.3203 -0.701328
-41.807 91.1653 -4.16387
-33.3544 130.396 0.473824
-37.1955 111.336 -1.01136
-40.2008 87.3651 1.56917
-41.3304 96.3888 -4.94127
-35.6952 110.534 3.07044
-31.9953 141.95 -0.842195
-36.9003 112.444 -0.654657
-33.341 134.608 -1.02878
-41.3932 87.2886 -1.18374
-35.4778 113.245 2.6362
-32.685 140.427 -1.78848
-29.7862 144.811 3.55003
-29.5811 146.468 3.40096
-38.2738 104.269 -0.427753
-33.8191 130.13 -0.0951647
-33.391 132.038 0.229633
-42.1112 91.3005 -4.3129
-33.6058 135.9 -1.82332
-37.4331 106.296 1.09498
-40.8787 87.5618 0.408428
-37.4466 106.115 1.157
-36.3448 108.909 2.74342
-37.4365 104.64 1.83162
-42.0369 88.1559 -2.50952
-30.904 145.148 1.24932
-33.7663 137.531 -2.58352
-30.1839 138.264 5.95126
-31.1534 144.776 0.870903
-41.3951 89.3858 -1.27848
-36.9421 112.363 0.168078
-37.3608 107.743 1.06988
-42.1041 88.3134 -2.5346
-41.4451 96.8936 -4.33897
-37.3147 111.465 -0.176261
-33.5336 138.592 -2.13172
-42.2933 88.5542 -2.80505
-42.5543 90.4969 -4.23192
-30.7139 135.694 6.35327
-33.5933 130.743 1.50606
-30.8967 145.723 1.97887
-31.1294 141.844 3.11179
-30.6183 139.201 5.4729
-31.1463 142.044 3.01658
-30.7935 136.169 6.40537
-41.9378 89.8497 -1.6655
-41.4393 92.2632 -1.42177
-34.1336 132.073 0.171356
-41.9954 90.7204 -1.92347
-41.7876 91.1878 -1.58578
-41.6972 95.3553 -2.68572
-42.1061 92.3934 -2.41721
-31.0828 137.824 6.09263
-31.4014 145.747 2.1516
-34.0062 132.171 1.67888
-34.9537 137.359 -2.27061
-33.9235 140.619 -1.07839
-33.7612 141.252 -0.605993
-35.6521 129.932 0.04746
-32.3011 135.947 6.30744
-32.268 136.543 6.31233
-34.4327 132.309 3.11202
-32.6909 140.621 4.29946
-33.5428 144.031 0.861685
-35.6308 132.065 0.913552
-35.8084 132.865 0.384197
-32.8547 140.365 4.61374
-33.1185 141.173 3.67445
-36.6288 128.956 0.60721
-33.1931 136.972 6.09948
-34.5367 132.918 4.6145
-34.194 134.121 5.10639
-33.5689 141.244 3.74281
-35.7633 132.566 2.14579
-36.1372 132.406 1.36418
-33.7567 144.044 2.39555
-36.2425 131.761 1.58575
-35.2849 141.953 0.614989
-34.1705 141.911 3.4858
-36.7722 133.182 0.707894
-36.4241 133.232 2.20032
-34.6371 136.496 5.86978
-34.5775 139.972 4.95416
-37.0047 133.585 1.72139
-36.2187 141.29 0.491087
-37.3151 130.507 2.88481
-36.7694 140.674 0.210695
-35.1365 141.674 3.85953
-36.0472 142.342 1.65006
-36.1976 142.269 1.53456
-35.8341 141.86 2.73043
-37.0577 134.968 2.58361
-35.4247 141.04 4.31203
-35.8833 135.401 5.70902
-37.8883 134.794 1.21917
-37.0589 141.432 1.36775
-38.0803 133.218 3.04418
-38.3739 135.232 1.74589
-38.6283 137.421 0.277417
-36.8777 139.94 3.6242
-38.4897 134.164 2.52184
-38.7861 138.577 0.140651
-36.8433 139.619 4.54294
-38.4702 139.753 0.602948
-38.3492 134.804 3.33827
-37.7351 139.948 3.06939
-38.3654 140.202 1.47422
-38.746 132.901 3.85044
-38.7371 135.299 3.00407
-38.632 136.089 3.22219
-38.9176 135.287 3.37672
-39.5691 137.044 1.0543
-39.1571 135.599 3.06296
-37.9963 138.604 4.97768
-38.5572 139.634 3.38979
-39.518 135.763 2.88679
-39.0757 135.113 4.27671
-38.7557 135.246 5.08759
-39.8667 138.685 1.40501
-38.8635 139.127 4.04189
-39.0306 135.861 5.12415
-40.5606 137.45 1.15488
-39.2813 137.851 4.70571
-40.3182 138.569 2.05686
-40.4016 135.383 4.43095
-41.2577 135.301 3.12506
-41.8979 137.09 3.66619
