ply
format ascii 1.0
comment Created by Open3D
element vertex 1908
property double x
property double y
property double z
end_header
-21.2431 103.713 -11.8311
8.88099 111.273 4.43763
14.3605 120.092 -9.30932
-15.5335 101.103 0.488878
11.9449 116.089 -2.858
6.27163 118.424 -14.332
20.103 123.687 -10.8149
-26.7683 101.799 -13.2674
-17.2202 100.299 0.704482
-29.2419 100.987 -14.0385
-3.49201 114.035 -14.9408
14.1019 120.52 -10.1242
6.39828 118.017 -12.9609
-7.27078 106.23 -1.5335
9.03559 117.432 -8.69796
4.89694 118.29 -15.1771
8.95489 117.446 -8.68743
-25.1538 102.532 -12.7253
-38.1495 93.5132 -6.74733
-16.6351 107.572 -14.5119
-19.6324 105.264 -12.4793
2.72355 117.375 -14.9644
12.3112 117.457 -4.49332
-3.16459 114.515 -14.901
15.2362 123.348 -14.3787
11.6383 122.038 -15.3094
-30.1387 97.1244 -5.28414
-26.8156 102.373 -13.4049
-20.7325 98.9682 0.939778
-16.5683 107.959 -14.653
18.637 121.757 -6.84148
-38.8207 95.7119 -11.6251
-7.69508 106.208 -0.89906
-35.686 97.4026 -11.9445
12.8568 115.468 0.979102
19.8724 125.054 -12.8008
-21.0882 104.672 -12.1458
19.4018 121.782 -5.91136
-7.2884 106.673 -1.31855
-36.7512 95.0033 -7.42459
-38.7959 94.7311 -9.04349
19.7006 121.596 -4.90763
-6.85416 113.241 -15.3817
10.9369 121.963 -15.1764
-15.3543 109.492 -16.0989
-7.27491 113.257 -15.6051
-22.372 104.536 -12.6359
1.33681 111.816 -2.87399
-18.4819 106.74 -13.2666
-26.0512 98.3876 -2.7593
12.6389 120.953 -10.761
-11.3684 104.36 0.094743
-21.9155 99.1041 0.299729
-11.9872 104.02 0.214356
-16.4492 108.79 -15.2812
12.1774 117.762 -3.84469
-1.97229 111.026 -4.29192
11.903 120.986 -11.2583
10.3468 119.031 -8.57414
7.5957 111.972 4.3663
-7.63332 113.453 -15.718
13.5118 119.661 -6.3128
-30.2518 97.6354 -5.02262
13.2009 119.455 -6.11973
-15.3951 109.889 -16.0992
12.6334 123.165 -14.9596
12.5754 116.341 0.343652
-18.5921 100.817 0.976669
11.6379 114.649 3.2441
-14.6048 103.044 0.407762
17.7644 125.982 -15.3415
11.7823 121.299 -11.4025
18.7639 122.427 -6.17979
-2.72195 115.683 -14.6398
15.3518 120.321 -5.1488
19.8143 125.793 -12.503
6.03169 120.172 -15.0272
-6.97127 107.693 -1.32294
12.1463 121.016 -10.1414
11.9011 121.432 -11.3157
18.8515 122.709 -6.52424
13.1798 119.382 -5.21036
-6.34264 114.098 -14.7358
5.01254 119.616 -14.6099
12.3217 116.588 0.256361
-23.4054 105.132 -13.3485
-34.418 97.2379 -7.74194
9.78548 122.138 -14.8815
6.32423 112.435 3.12545
12.5473 116.506 0.885729
-12.6375 104.422 0.283634
-23.312 99.6106 -0.565542
-19.8026 106.711 -12.5532
6.19423 112.574 2.91707
-21.2805 99.7925 1.37676
-11.7417 111.988 -15.4827
18.6876 126.388 -14.2942
-38.2467 96.0218 -8.67013
18.8063 122.784 -5.8839
7.19516 118.532 -9.00034
11.0471 119.937 -7.91094
10.5735 121.133 -11.098
15.2259 124.665 -13.8821
14.2695 124.406 -14.2341
-37.5419 98.0474 -12.0956
-24.4551 99.6641 -1.27108
16.4968 126.296 -15.897
-34.5635 97.5411 -7.54297
-30.5851 102.318 -13.8645
7.55016 119.915 -11.3443
-25.7528 104.717 -13.8953
11.5369 122.004 -11.603
-19.1211 101.306 1.11902
6.00065 112.976 2.62435
13.7756 120.592 -5.81092
-34.9831 99.6897 -12.5695
2.66284 118.884 -14.1747
-7.65975 107.61 -0.204544
-36.1459 99.1392 -12.5475
-25.8832 104.792 -13.9243
13.8307 120.717 -5.93346
12.4301 118.991 -3.5979
-37.0792 96.5536 -7.64852
19.88 126.441 -11.851
7.66296 119.192 -9.0066
-20.5389 100.776 1.36346
15.3819 125.922 -15.5165
-30.3029 98.6661 -4.61675
8.73432 121.434 -12.7084
14.817 120.851 -4.70111
18.6756 123.104 -5.43489
9.94978 120.28 -8.67419
13.4779 120.521 -5.32536
5.91006 121.082 -14.7416
19.6574 123.035 -3.88894
-2.23285 112.393 -4.07255
-29.4356 98.9801 -3.86265
-13.4585 112.099 -15.6417
-35.4931 97.9765 -8.15251
18.9177 124.392 -7.47635
-3.67811 111.615 -3.62283
11.717 122.243 -10.5075
16.3266 121.897 -4.57184
20.9771 126.441 -9.64464
15.1422 125.098 -13.0377
12.4793 119.603 -3.6163
-6.93873 115.023 -14.7006
-3.63929 116.384 -14.1163
5.58973 121.112 -14.5612
1.43581 113.988 -3.12636
-8.04379 107.881 0.17978
20.7073 126.55 -10.0641
-20.5113 107.592 -12.7509
12.9363 124.791 -14.4488
-38.2401 97.023 -8.45306
-5.97299 115.435 -14.2347
13.5754 120.742 -4.58773
4.05182 114.441 -0.880994
12.5293 124.669 -14.4773
11.1167 115.894 3.72062
9.29872 121.916 -11.7498
6.68504 113.74 3.78145
-16.3459 111.049 -15.503
-35.4109 100.577 -12.9225
10.1366 115.309 4.17201
-0.749237 118.374 -14.6449
-1.91042 113.075 -4.0111
-37.4054 97.799 -8.7371
-17.3526 110.627 -15.4037
-14.1516 105.072 0.640517
13.4551 125.177 -14.0315
10.4573 123.936 -14.4826
11.4282 121.707 -8.32024
11.8757 118.993 -1.68203
5.12451 121.333 -14.3588
-20.9351 107.826 -12.7163
-10.3266 114.078 -15.006
19.3859 123.713 -3.90189
20.1008 126.116 -8.4922
13.9015 121.715 -5.42054
-14.7204 112.179 -15.4552
12.4371 125.059 -14.3172
-8.94101 107.972 0.566552
-29.3125 99.7831 -3.40407
-35.9087 100.732 -12.7517
-33.9242 102.04 -13.4174
-31.1663 99.55 -4.77938
11.4792 116.79 3.51261
19.7391 127.788 -12.0077
-33.7565 102.198 -13.4405
10.3471 123.151 -11.8987
11.1473 120.963 -6.10012
-2.66382 117.882 -14.348
-20.3752 108.9 -13.614
-39.0384 97.8699 -9.39707
8.97539 123.207 -13.3393
11.0461 121.025 -6.0738
17.9524 127.742 -13.5163
12.0314 121.048 -4.95832
-8.1423 108.704 0.543945
-7.35038 109.214 0.32941
20.2842 127.789 -10.907
-31.5872 99.7252 -4.97035
-26.3531 100.891 -1.78681
-13.4972 113.213 -15.2692
-35.0422 101.669 -13.0748
-30.8326 99.8478 -4.32869
10.908 123.121 -10.5913
4.06235 115.553 -1.07566
-17.755 103.913 1.05
-38.8448 98.59 -10.1744
-29.7236 100.135 -3.47005
19.8495 126.533 -8.03574
-36.8181 99.0688 -8.74603
-27.3663 100.818 -2.26181
-22.9173 107.817 -13.007
-9.13405 115.561 -15.1743
12.4121 120.176 -1.80509
20.0266 124.389 -2.85558
12.3934 122.496 -6.96727
12.7075 121.785 -5.01416
-21.4975 108.543 -12.9292
-30.506 104.439 -13.5995
-6.01325 110.742 -0.737271
-29.4316 100.379 -3.25363
2.68496 120.758 -13.5927
20.8659 127.596 -8.86408
0.567625 115.223 -3.42053
-30.1711 100.259 -3.62109
-16.0654 112.061 -14.5273
-15.7534 112.285 -14.5163
18.9799 128.489 -12.6201
10.5098 121.323 -5.85286
16.1295 127.579 -13.6394
12.8751 120.992 -2.36789
7.28448 122.363 -11.4709
-23.1204 101.86 1.12824
-5.69218 111.321 -0.893146
-0.475975 119.824 -14.2292
-24.001 101.713 0.578701
-35.9566 101.763 -12.6965
-35.5079 102.067 -12.8778
-34.2279 102.974 -13.376
5.98706 115.631 2.4951
-8.38406 116.44 -15.1211
-6.38391 116.953 -13.9922
-21.0468 109.856 -14.1698
-9.0449 116.206 -15.1106
10.6734 122.781 -8.11248
-18.7055 104.223 1.23177
10.1962 123.376 -9.76285
15.9341 127.503 -12.7039
17.6809 124.003 -2.9084
19.9111 127.352 -7.7979
-4.1938 118.286 -13.9653
-26.6897 107.372 -14.2296
-10.4255 115.589 -14.687
6.74957 115.819 3.76179
13.1412 121.717 -2.42965
-5.1604 112.203 -1.18566
13.9323 122.647 -3.55124
18.5588 128.719 -12.0835
-36.9814 99.6956 -7.97157
19.6738 124.983 -2.32307
-36.4966 101.956 -12.4714
-0.358609 115.792 -3.70204
9.85358 123.018 -8.66931
10.2414 125.39 -13.5318
9.8837 124.45 -11.8105
11.2423 121.77 -4.29246
4.71622 116.627 0.0723518
-34.2783 103.466 -13.3075
6.00077 123.374 -13.6341
8.57842 116.552 4.56533
-14.5671 113.577 -14.2323
-10.2584 115.913 -14.7089
10.0974 123.217 -8.53287
6.34038 116.26 2.98931
9.73271 122.2 -6.57345
6.08131 123.502 -13.4906
11.3613 122.565 -5.54863
-37.5685 99.8821 -8.49596
-27.3423 101.839 -1.59394
-25.5433 108.325 -14.1265
-9.63222 109.227 1.38563
10.8763 122.155 -5.01106
20.2954 128.044 -7.82486
-7.50504 110.522 0.904933
19.9903 129.553 -11.4833
-2.58101 114.797 -3.17289
12.2264 120.721 -0.101186
4.17765 117.321 -1.2096
-37.8334 101.119 -11.093
20.343 129.66 -11.0985
13.8602 126.577 -11.2586
16.583 127.459 -10.2132
-31.2195 105.577 -13.6836
-22.2988 102.916 2.12977
19.2986 129.33 -11.3533
-34.0822 104.053 -13.3155
11.103 118.573 3.85233
-13.0995 114.927 -14.5996
-7.84107 117.463 -14.476
-32.1372 101.133 -4.39309
-27.8731 102.065 -1.7072
10.4158 122.333 -4.9642
9.44759 125.524 -13.1438
9.70653 117.819 4.46328
20.0474 129.763 -10.9417
-0.355114 120.991 -13.6987
-6.12382 111.942 0.299044
14.5107 126.881 -10.5134
7.16594 123.781 -11.6124
-7.77058 117.712 -14.3869
11.9622 123.031 -4.50813
-27.5635 102.263 -1.388
15.0875 127.125 -10.1818
11.2803 124.25 -7.87825
-13.8586 114.8 -14.2469
-1.46133 116.105 -3.52686
17.8234 128.586 -10.2807
17.8954 128.604 -10.187
17.9845 128.622 -10.0582
-37.2185 101.805 -10.604
9.1128 122.271 -5.45259
1.76376 122.109 -13.1237
8.75449 123.882 -9.39134
11.4037 126.604 -12.5828
4.87292 117.696 0.224854
17.3547 128.168 -9.48344
20.1079 128.321 -6.76748
9.0776 123.329 -7.66981
14.7124 123.815 -2.49967
4.15494 118.174 -1.33329
2.68223 118.006 -2.5787
-30.5034 106.722 -13.764
18.8416 128.954 -9.29192
8.989 123.339 -7.52834
19.2024 125.829 -1.79107
13.1306 124.046 -4.3887
20.3053 128.646 -6.81337
-0.605168 121.302 -13.3255
11.8511 120.571 2.07611
9.20747 124.258 -9.09717
-29.595 107.391 -13.9499
-36.4481 101.26 -7.70579
14.4728 123.938 -2.54102
3.47315 118.349 -2.09383
20.624 129.028 -7.17456
-4.78984 113.672 -0.667827
3.95977 118.464 -1.76813
0.887712 122.034 -13.1118
20.7969 129.262 -7.37283
6.96244 123.8 -10.2582
-15.8725 113.798 -12.8456
4.70787 118.368 -0.408281
8.2066 124.205 -9.65309
-10.5423 117.211 -14.48
19.2726 127.116 -3.85814
4.90888 124.698 -14.2034
7.07135 125.473 -13.5532
-5.97538 112.843 0.522179
-28.5113 108.422 -14.3615
-16.0423 107.517 1.42215
9.96842 122.684 -3.97135
-8.09383 118.486 -14.409
7.71249 124.86 -11.3012
-29.1228 108.134 -14.2232
19.0265 127.641 -4.98293
-36.1712 101.322 -6.66734
-29.4924 102.546 -2.04592
-27.5135 108.993 -14.3364
-5.71654 113.164 0.391755
10.8639 123.338 -4.18131
18.0106 129.178 -9.38519
-20.5528 112.099 -13.4526
-19.8365 105.481 2.19055
-21.2727 104.566 2.67025
-18.0115 106.689 1.58187
10.6335 123.274 -4.06477
-1.57574 116.993 -3.31523
-18.5735 112.977 -12.9677
1.64757 122.75 -12.6364
12.0729 121.688 1.2566
-22.191 111.864 -14.3907
7.11344 125.394 -12.4826
12.4865 122.554 -0.124585
-28.2693 108.943 -14.4194
5.4312 118.669 0.907618
9.44076 126.483 -12.1923
2.16617 118.772 -2.82757
17.0486 125.527 -1.60016
-1.57398 117.152 -3.27777
-1.30688 121.539 -12.7924
7.03329 125.194 -11.8073
-35.8457 101.814 -6.53314
10.9372 123.898 -4.56721
-19.9227 105.706 2.31801
1.50567 122.845 -12.4942
-4.37542 114.772 -0.843957
19.4047 128.375 -5.11595
-7.70775 112.029 1.82843
-10.8125 110.354 2.19068
8.2741 124.016 -7.43603
-4.49537 120.508 -13.6121
11.6519 124.395 -4.46808
10.5451 123.806 -4.34175
-36.696 103.783 -11.373
-26.918 103.599 -0.024955
-15.4614 108.407 1.80011
8.8517 126.164 -11.2608
-34.4584 105.694 -12.9957
-10.888 117.784 -14.1734
7.479 124.921 -9.966
6.62182 118.634 3.20747
-21.904 112.411 -14.1613
12.5869 123.531 -1.14221
20.0816 130.746 -9.05978
19.9719 128.095 -3.20968
-35.5834 102.309 -6.43734
11.2684 121.228 2.71652
8.48909 125.521 -9.8489
-16.8276 114.13 -12.0765
4.75593 125.607 -13.974
-35.8355 102.695 -7.20778
19.7007 128.412 -3.71782
-3.35203 116.437 -2.10825
9.82595 123.647 -3.74843
-21.4341 112.687 -13.5594
17.1747 129.837 -9.54269
9.94628 125.825 -8.44803
-14.6345 115.616 -12.5505
-4.89184 114.714 0.202551
-9.59259 118.728 -13.9807
-36.083 103.784 -9.60244
3.61216 125.174 -13.8504
17.3986 126.347 -1.28633
7.85689 126.809 -12.8134
10.4026 125.628 -7.33625
-8.44185 112.073 2.39725
-4.80038 120.854 -13.298
19.2508 127.857 -2.52954
12.8179 128.107 -10.1722
15.7369 125.804 -1.65838
7.4925 119.257 4.04812
7.72991 126.788 -12.5507
-28.1741 109.991 -14.3556
-34.3032 106.393 -12.9522
-2.5588 121.858 -12.4443
-36.1388 104.202 -9.77167
-24.5471 111.587 -13.5178
-35.393 103.667 -7.61771
12.0415 123.712 -0.358275
-3.74105 121.609 -12.9759
-34.4163 102.924 -4.77674
19.4531 130.972 -8.40619
7.70317 124.281 -6.22805
7.99247 125.484 -8.58933
5.72571 120.342 0.463404
6.97447 119.53 3.68818
7.72101 125.871 -9.71817
-31.088 108.526 -13.4684
20.3181 130.311 -5.72824
1.59509 124.258 -12.6664
21.3843 131.271 -6.59652
8.27124 126.122 -9.38566
-0.102945 119.26 -3.20194
-15.1767 115.723 -11.8541
15.1448 126.308 -2.16917
2.77713 125.342 -13.5848
0.763252 119.717 -3.11913
-16.864 108.81 2.03805
2.57419 120.415 -2.6075
-32.7293 103.379 -3.2122
-22.4131 105.684 2.99409
-24.6168 112.031 -13.6518
-26.1014 104.692 1.22992
-7.06952 120.695 -13.5744
7.9732 124.217 -4.89669
0.738591 119.883 -3.12494
-17.0745 115.053 -11.8528
22.043 132.053 -6.86317
21.1408 131.931 -7.57515
11.4662 128.244 -9.88761
-14.404 110.076 2.47238
-12.3058 118.176 -13.3709
-21.0425 106.62 3.05795
7.12294 126.162 -9.77927
-19.1297 107.885 2.35904
10.283 125.567 -4.89796
-35.6897 105.851 -11.2541
-17.5865 115.113 -12.0785
-33.2868 107.849 -13.0581
8.30853 127.089 -10.4121
-16.9888 115.29 -11.7025
-31.1877 104.042 -2.07043
11.089 128.21 -9.76722
-33.1821 108.011 -13.0517
-27.0676 111.561 -14.2545
9.36981 126.298 -7.17007
-18.4885 108.452 2.25243
-13.1656 110.866 2.74192
-28.6578 110.826 -14.2036
-10.7901 112.036 2.75276
7.76972 124.615 -5.04077
10.2877 125.888 -5.10566
10.1919 125.936 -5.25527
20.6577 132.004 -7.34747
8.71258 127.46 -10.0955
-3.04371 117.964 -1.67903
17.7085 131.119 -8.32765
-4.34335 116.464 0.368543
16.9375 131.247 -9.28385
7.27837 125.491 -6.98863
-23.421 113.539 -13.8927
-32.2162 104.224 -2.61219
-34.3045 104.806 -6.16169
8.14192 127.429 -10.1516
-16.0887 109.929 2.45076
-9.25798 113.087 2.99367
10.0459 122.711 2.74317
-23.9895 113.421 -13.8286
-1.75109 119.224 -2.36831
-35.6564 106.434 -10.9511
7.36971 127.017 -9.72436
14.0629 130.227 -9.54805
10.0884 126.737 -6.05439
6.54109 128.27 -13.3444
-3.87872 122.79 -12.3158
8.76907 127.878 -9.8114
-35.461 106.791 -11.1746
6.25097 121.817 1.07618
6.54302 121.676 1.74839
5.28495 122.248 -0.904547
-22.3136 114.031 -12.8082
9.65265 125.63 -3.63721
-34.2697 105.209 -6.09163
-34.224 107.961 -12.1973
7.68444 127.283 -9.37587
7.91202 127.325 -9.19162
-23.4977 113.866 -13.5614
-25.5681 113.006 -13.8643
6.80059 121.608 2.51542
18.0039 129.165 -2.09054
18.2632 131.736 -7.4977
1.82555 126.033 -12.7895
-13.104 118.187 -11.6
9.5746 125.717 -3.4859
-11.3025 119.774 -13.0683
20.0318 130.86 -3.40384
-3.0978 123.273 -11.7679
-29.738 105.423 -1.00658
7.61057 127.319 -8.96453
3.74196 122.359 -2.02607
-15.1588 116.962 -10.6855
-15.9505 116.66 -10.8692
8.61525 126.832 -6.52842
-20.963 115.009 -12.5261
9.13824 125.264 -2.39881
8.48974 127.033 -7.04363
3.11727 127.154 -13.0543
8.20761 125.948 -4.70623
-35.2466 107.514 -11.1506
-7.02383 122.284 -13.2209
8.07934 127.114 -7.42419
16.229 128.318 -1.09383
-18.1454 116.247 -11.8096
-4.32411 117.356 0.949959
-25.971 106.37 1.84285
-30.3594 105.69 -1.4592
-22.705 107.241 3.55162
-16.8853 116.677 -11.1165
-18.5585 116.284 -12.0114
17.0751 129.254 -1.86054
9.51094 123.199 3.42506
-16.1672 116.951 -10.7855
-35.287 106.406 -8.14878
-19.6835 116.09 -12.6703
8.50716 128.656 -9.80864
8.77291 127.997 -8.00839
0.660343 121.77 -2.90439
15.8422 128.374 -1.01068
12.6722 127.835 -3.17725
-4.66951 117.317 1.35556
18.1274 129.959 -1.83007
-13.8683 112.109 3.01607
8.90105 127.332 -6.03914
-13.188 118.672 -10.8953
16.6544 129.149 -1.5548
3.76798 123.07 -2.03709
-3.21274 123.91 -11.5505
-33.5993 105.779 -4.30708
-0.450046 125.129 -11.1278
8.75631 126.896 -4.8242
14.7082 128.478 -1.78079
11.2054 125.668 0.681769
5.10363 123.548 -1.24826
18.0986 132.736 -7.55467
12.2496 130.613 -9.22001
-18.7075 116.673 -11.9586
21.574 133.333 -4.97695
19.6165 130.908 -1.68465
6.93736 123.111 1.88114
-35.2041 107.243 -8.87599
-7.07005 122.904 -13.0335
12.4206 126.684 -0.0502218
5.16949 123.683 -1.22705
7.04748 126.889 -6.3338
-19.4936 116.588 -12.4063
-3.41686 118.966 -0.0132466
-18.8462 110.031 3.09331
-26.6443 113.347 -12.9358
8.49442 129.318 -10.0725
10.6675 130.3 -9.82327
7.12324 123.081 2.49662
-31.8761 106.11 -2.31288
-35.0159 107.607 -9.09004
-13.5537 118.785 -10.5385
-27.4445 113.06 -12.9566
-7.62444 122.797 -12.9074
-22.2403 115.493 -12.6002
5.26874 123.908 -1.1805
6.36185 123.877 0.134862
4.11384 123.693 -1.88879
10.314 128.176 -5.00179
-10.0385 121.514 -12.4527
7.41676 128.29 -8.44011
-8.43602 115.216 3.5639
10.4759 128.24 -4.82429
-10.5605 121.234 -12.1949
-12.7638 119.467 -10.5924
10.3132 125.342 1.63303
-10.2108 114.397 3.6129
-1.87918 124.951 -10.7887
10.7376 128.486 -4.82445
-28.9434 106.912 0.0507501
-5.15097 124.104 -12.2819
7.35076 128.121 -7.38319
-29.0361 106.99 -0.00435822
-24.5896 114.744 -12.494
-9.95258 121.818 -12.2535
12.325 128.133 -1.84522
18.7073 133.646 -7.14925
-11.5116 120.766 -11.4903
6.99602 124.17 1.25172
-12.7029 119.732 -10.362
-34.2236 109.544 -11.1597
12.1191 127.171 0.302155
7.96497 128.899 -8.11554
11.2634 131.206 -9.58036
8.71264 129.974 -9.58641
7.98985 128.898 -7.93386
-34.9241 107.923 -8.09851
7.71497 123.489 3.93761
10.4881 128.675 -4.62897
-13.7659 119.197 -10.0378
2.67444 128.387 -12.5037
-18.2233 111.107 3.30687
-23.3018 108.448 3.77097
7.30656 124.165 2.20914
-33.8983 107.242 -5.14106
-7.96219 123.221 -12.4056
9.75425 128.799 -5.32206
-29.7731 107.275 -0.506305
-33.5243 107.266 -4.57533
-34.0335 107.413 -5.41746
-24.091 108.362 3.45263
-22.9471 108.698 3.9661
-12.5298 114.089 3.47586
-17.2065 111.928 3.20473
-24.3914 115.259 -12.1042
21.5655 133.988 -3.50385
12.3733 128.559 -1.41255
8.42802 129.983 -8.91972
-3.59209 125.147 -11.2147
18.2564 134.253 -7.58992
-4.68984 118.72 2.07757
-8.59991 115.984 3.9535
8.58553 129.8 -8.08796
-3.92112 125.157 -11.3731
-4.26827 119.124 1.80968
8.4355 130.338 -9.33748
-31.3611 111.839 -11.5711
10.9086 130.463 -6.66607
8.49301 129.706 -7.61961
21.7674 134.669 -4.12538
-27.7879 114.267 -12.871
10.1846 131.374 -9.45302
14.1378 133.054 -8.86751
7.22353 125.2 1.29912
13.0612 129.504 -1.76407
-22.306 117.105 -12.8585
-28.3137 114.169 -12.8744
-9.55943 122.889 -11.7975
6.64099 131.163 -12.5196
-8.66165 123.411 -11.9288
-13.2563 114.282 3.56991
-17.7279 118.517 -10.7453
8.80574 129.14 -5.34537
20.085 134.806 -5.62366
-7.67945 124.07 -12.0749
-20.3567 110.65 4.09924
7.80629 129.019 -6.00081
-0.695419 122.873 -1.54129
8.46347 130.867 -9.32142
-17.1992 118.741 -10.3286
8.51497 130.163 -7.61202
-2.50061 121.479 -0.23848
19.9663 134.89 -5.58409
7.95092 129.079 -5.7427
-21.1096 110.462 4.30606
-30.0524 113.645 -12.4799
-30.4891 108.591 -1.5458
11.2044 131.488 -7.01904
7.93001 129.4 -5.83413
10.9009 127.424 1.91865
9.28328 131.512 -8.99165
7.68357 125.636 2.49706
4.02275 125.923 -2.0995
3.07644 125.614 -2.34581
-15.5926 119.63 -9.43982
-11.1037 115.756 4.19949
3.48935 130.186 -12.1204
19.0823 135.418 -6.55445
-30.4314 113.498 -11.771
15.5841 131.293 -1.04268
8.5539 130.79 -7.54607
13.9535 134.02 -8.84247
8.60453 131.728 -9.4937
-33.0767 109.115 -4.56752
-6.46577 125.372 -11.7485
14.0007 134.164 -8.82336
-26.7866 115.857 -12.6346
-22.1132 118.078 -12.4401
16.6621 132.107 -1.22042
-5.9454 118.915 3.5696
8.23249 130.39 -6.36376
-4.62637 126.236 -11.1284
-20.61 111.442 4.52619
-33.512 109.656 -5.60429
-28.223 109.57 0.427954
-33.736 111.839 -10.6972
-11.6926 122.144 -9.53946
-25.6764 116.531 -12.2734
21.2981 135.47 -2.97514
9.64378 132.005 -7.99812
12.9716 130.417 -0.725921
-4.6783 120.242 2.81623
9.23191 130.819 -5.55366
10.8784 132.66 -7.85769
-20.5542 118.88 -11.4094
7.89006 130.003 -5.00419
-26.4535 110.15 1.74694
13.749 134.647 -8.87712
-15.9086 114.404 3.95622
-17.1964 113.761 4.16156
7.90194 126.103 4.1106
-0.360385 128.489 -10.3139
-8.04794 125.047 -11.0349
9.66211 132.924 -9.16169
17.5718 136.13 -7.59914
13.778 134.846 -8.869
-6.97069 125.821 -11.4505
-10.0999 123.727 -10.1237
-3.95102 126.924 -10.528
-32.6612 111.005 -6.39018
-9.77741 117.47 4.51753
-8.33563 118.398 4.04177
-23.9397 118.228 -12.7325
-8.97929 124.643 -10.4909
11.1996 133.166 -7.38069
16.8176 133.12 -1.08447
-29.9788 114.737 -11.3159
-13.6414 121.534 -8.47409
18.7885 136.602 -6.5105
-3.04017 122.264 1.66827
11.478 133.521 -7.57774
10.9053 132.411 -5.70881
10.0306 127.992 3.24595
9.34659 133.368 -9.53186
21.3292 136.298 -2.88845
-31.3591 113.898 -10.5948
11.6271 133.716 -7.68481
-15.269 121.079 -8.79752
8.58968 131.14 -5.10272
-31.5618 110.804 -3.58021
-32.701 112.004 -7.48441
11.9526 130.289 0.663485
11.3575 133.452 -7.04065
14.3029 135.63 -8.58624
3.75326 127.649 -2.27369
-20.2333 112.684 4.99283
-8.01528 119.16 3.96919
-0.0758238 129.318 -10.0843
-16.6932 120.887 -9.4283
-28.4906 110.82 0.196018
-25.7223 117.842 -12.4479
9.97641 133.995 -9.37503
18.0445 134.206 -0.880908
-27.0355 117.313 -12.4423
-7.5969 125.903 -10.2814
-1.60804 128.524 -9.50056
12.232 130.82 0.662387
20.2091 136.82 -3.93997
-19.7307 120.268 -10.7613
-11.3971 117.388 4.98728
-27.8495 111.192 0.815777
10.2807 129.185 2.42833
-27.2686 111.298 1.32889
-21.6076 120.049 -11.952
7.3997 128.266 1.54116
10.1509 133.119 -6.31711
-13.6819 122.197 -8.02003
-2.81739 123.174 1.77472
-20.8741 120.219 -11.405
13.2409 131.948 -0.0924261
9.35804 128.41 3.64272
-13.3254 122.438 -7.89505
-9.69268 124.861 -9.20072
10.9713 133.196 -5.00782
-7.44594 120.274 3.73924
10.4197 129.65 2.36743
-0.536205 125.504 -0.179824
-10.9922 124.093 -8.4466
-31.6141 113.6 -7.54779
12.3957 131.511 0.833338
-31.8879 112.421 -5.06376
-31.6956 113.657 -7.61298
7.62551 128.42 2.57744
-9.60456 125.111 -8.95353
-0.0508626 130.109 -9.57152
-13.1193 122.89 -7.74783
-2.50552 123.916 1.75424
-4.10461 122.579 3.03622
-0.994008 129.578 -9.22854
10.4046 133.43 -5.21752
12.9326 132.106 0.572504
9.01672 135.184 -10.6084
-32.6817 114.026 -8.89186
7.66541 129.166 1.5873
1.42226 131.641 -10.6708
10.0097 133.489 -5.35819
11.187 134.656 -6.66201
-2.79557 129.085 -9.52113
-17.9353 115.154 5.2006
20.7666 137.379 -2.06312
-11.5662 118.246 5.30514
20.5618 137.953 -3.51006
17.8967 137.99 -6.52087
7.77001 129.101 2.32829
-16.3138 122.439 -9.15841
6.03526 129.953 -1.27916
-31.2209 113.657 -5.70292
-18.8527 114.91 5.1039
-5.06396 128.587 -10.4046
20.4245 137.168 -1.59821
19.9645 138.244 -4.50977
-30.8439 113.719 -5.29262
14.2373 136.949 -7.78225
-30.2687 112.998 -2.96866
17.21 138.025 -6.82553
-20.2901 121.453 -10.8978
-27.5708 118.598 -12.4328
20.6546 137.553 -1.81769
10.5362 135.444 -8.19673
-25.6843 119.619 -12.5212
1.43562 127.976 -1.39185
-3.19885 129.391 -9.6163
-31.0939 114.426 -6.73847
5.57075 130.099 -1.53504
9.77567 133.825 -5.17313
-7.2113 121.542 3.77098
-8.86031 120.737 3.92137
-19.5294 115.022 5.06652
-12.7871 118.17 5.49507
-0.96478 125.987 1.06395
-16.9005 122.764 -9.16021
-17.9233 122.62 -9.84029
9.49821 130.127 3.50875
14.0318 137.314 -7.58107
3.78403 129.757 -1.89557
-27.7037 113.494 -0.0538168
-14.1818 123.56 -7.74171
11.2279 135.153 -5.77195
-0.33229 126.685 0.514182
7.99942 135.479 -10.0339
-10.5148 119.842 4.68743
-5.98349 128.483 -9.67431
-13.2231 118.214 5.53641
-28.3394 113.92 -1.34073
10.7432 135.748 -7.25284
-15.0081 117.674 5.10582
-28.7505 114.629 -3.02828
16.9887 138.571 -6.35165
8.04197 130.701 1.49229
-25.294 113.336 3.76871
-5.36785 129.131 -9.68389
-4.8572 129.503 -9.85242
-32.2719 115.161 -7.75491
-14.7525 118.017 5.21876
-22.1313 114.269 5.53473
-27.9963 115.087 -2.70368
-28.8192 115.421 -4.1372
-5.01617 123.528 3.87752
16.6632 136.082 -0.420781
-17.8329 116.598 5.37228
-25.7024 113.977 2.61687
-27.0159 115.062 -1.21024
9.06738 130.638 3.59725
9.12389 130.72 3.59467
-3.08043 124.975 3.09221
-4.09934 124.33 3.42697
8.31462 130.316 3.66064
-8.13414 122.293 3.58276
4.74507 134.43 -9.34702
10.8857 135.583 -5.16683
-24.302 114.074 4.68018
16.4181 136.29 -0.33933
-27.0267 120.164 -11.9494
-0.377499 131.866 -8.7846
0.49034 128.214 0.403683
-12.7501 125.03 -6.88553
14.5895 135.32 0.20521
-29.6925 115.862 -4.7125
20.2666 139.898 -3.53151
1.85878 129.835 -1.11103
11.65 136.315 -4.82392
11.959 136.705 -5.33209
6.14684 132.187 -1.48967
8.20582 131.943 1.34886
0.356971 132.885 -9.28482
-30.9895 117.916 -10.1371
12.2173 137.056 -5.5095
-1.50714 131.693 -8.49166
-1.8935 131.565 -8.54314
16.1433 139.2 -5.7653
3.35276 134.475 -9.14619
-25.8965 121.285 -11.7308
18.1096 137.716 -0.126374
-8.92772 127.751 -7.48249
-8.03713 123.264 3.5726
-6.82618 123.743 3.86881
-3.99555 130.945 -9.1569
-10.6168 126.673 -6.81417
-5.07748 130.273 -8.79338
-28.7035 119.842 -11.3566
-14.0335 125.046 -6.88413
17.4442 137.538 -0.120239
-17.0246 118.082 5.62335
17.9211 140.046 -5.1861
-18.5731 123.937 -9.1789
6.49323 136.199 -9.08508
-25.348 116.049 1.09487
1.64511 134.065 -9.5685
-22.6287 115.299 5.97395
3.15685 131.237 -1.36593
-31.8991 117.143 -8.27944
-23.5591 115.704 4.14919
-9.48032 127.62 -7.00625
-30.9933 118.323 -9.67845
-0.518749 132.766 -8.49031
-9.84842 127.464 -6.75899
20.6622 140.632 -2.68206
-15.9487 118.85 5.9189
-6.077 129.958 -8.03594
-4.74912 130.863 -8.53493
1.81145 134.573 -9.44465
18.9666 140.834 -4.53078
-14.5609 119.732 5.95598
6.06835 136.449 -8.84986
-15.1614 119.471 5.99703
11.8192 134.814 1.29419
-31.6864 117.881 -8.58025
8.27182 138.027 -9.79579
-7.04042 124.439 3.86147
-24.8337 122.472 -11.2768
-22.1641 116.105 6.08456
18.4605 140.794 -4.5499
8.50071 133.094 1.94856
0.702025 134.149 -8.98258
-26.7457 117.257 -1.24386
-0.507242 128.674 2.02733
-16.1256 119.264 5.96304
20.5251 140.986 -2.29023
19.3834 139.71 -0.631575
-30.3237 117.026 -4.42978
-14.0137 126.183 -7.02304
12.8994 138.409 -4.8293
-8.47385 128.83 -6.8461
1.50426 130.521 0.363308
-25.4754 122.484 -11.2978
13.3504 138.868 -5.27169
-24.1295 117.058 2.4873
-8.62606 123.941 4.1351
-2.79695 127.114 3.43732
-17.0024 125.139 -7.74385
-13.5037 120.798 5.91037
-28.3442 117.244 -2.41838
-2.14693 132.769 -8.36177
-3.64856 126.645 3.75435
-12.077 127.037 -6.31368
8.92934 138.199 -8.16027
1.19266 134.886 -9.19851
9.7385 133.46 3.47652
-29.9063 117.331 -3.79523
-17.5694 119.149 5.7236
-19.3684 124.895 -9.12393
-8.46198 129.169 -6.61964
-0.0139564 134.056 -8.24252
14.8149 137.285 0.9464
8.24893 134.38 0.357831
-12.2919 127.327 -6.38717
8.69238 138.455 -8.21963
18.6058 141.618 -4.24918
-23.3977 117.378 4.00857
-18.1413 119.224 5.65605
-15.0327 126.439 -7.07558
-17.5058 119.505 5.78852
18.6701 139.592 0.60698
17.4209 141.251 -4.4555
-24.7427 118.325 0.642435
4.73252 136.945 -8.61451
19.9142 141.863 -2.87381
-0.592624 134.14 -8.10113
14.5955 137.544 1.01155
-16.6428 120.057 5.87063
12.133 138.313 -3.41994
-23.5177 117.942 3.0674
-8.87801 124.492 4.48669
-24.7554 118.466 0.538458
8.09902 138.829 -8.98413
3.3348 136.646 -9.32267
-21.6223 117.485 6.20969
18.6139 141.81 -4.08223
0.928327 135.21 -8.64543
16.4903 141.035 -4.58069
-4.88744 126.59 4.31427
11.4487 135.695 1.95318
-25.9189 118.606 -0.824404
2.4902 132.223 -0.0223107
0.660366 130.568 1.68568
-7.8597 125.52 3.71746
-8.15505 125.439 3.62506
13.1409 137.151 0.875372
-18.4924 119.458 5.78406
8.25238 138.979 -8.45001
-19.4206 118.901 6.23139
-31.2412 119.078 -7.16268
-27.7161 118.457 -1.84169
-18.19 119.788 5.75773
-22.2828 124.948 -10.2973
19.4201 142.231 -3.12341
0.91462 135.539 -8.36108
-3.16196 128.094 3.88936
-30.3023 118.297 -4.00117
15.8231 138.679 1.04681
-10.975 123.331 6.01965
-3.24903 133.389 -7.99026
-23.1693 118.02 4.58251
-6.86278 126.296 4.06372
5.39603 137.787 -8.21245
-23.1647 124.606 -10.0682
-26.0482 123.545 -10.8481
-16.4603 126.683 -7.26032
-27.1586 118.952 -1.62254
-9.4812 129.495 -5.81892
-23.1672 118.772 3.18383
14.0728 140.59 -4.63928
-21.1949 118.307 6.55012
8.48033 139.524 -8.3992
-5.71889 132.002 -7.05716
18.3038 142.397 -3.82534
12.046 136.83 1.81971
16.7767 141.894 -4.32474
16.4935 139.363 1.13111
-7.29306 126.488 3.95244
9.31238 139.423 -6.78254
3.22605 137.543 -9.17514
11.9704 136.914 2.01532
-10.7768 129.198 -5.70463
12.1441 137.082 1.89375
-4.20033 127.957 4.45135
-5.98575 127.193 4.29043
-0.978913 130.417 2.59393
-25.131 124.342 -10.3467
-0.89821 135.178 -7.92353
-14.8801 128.151 -7.48018
-25.6526 124.276 -10.5316
-26.802 123.737 -10.543
11.0657 136.194 3.2924
-22.9368 118.82 4.92987
2.84327 133.741 -0.1551
-21.8611 126.015 -9.92531
15.363 141.869 -4.38157
-28.7385 119.421 -2.49513
-5.38528 127.843 4.41059
-18.8305 126.945 -8.31759
-13.3472 123.264 6.05538
13.0035 138.477 1.04986
-29.8102 119.442 -3.36135
17.2441 140.37 1.54851
2.5273 137.718 -8.67277
2.13666 133.609 0.155073
16.3098 142.481 -4.08169
9.87191 140.477 -6.61389
5.16072 138.949 -8.22754
-3.90838 133.876 -6.79378
-1.06469 135.701 -7.7395
14.8685 139.372 1.57523
-17.0081 127.688 -7.2856
-27.6369 123.795 -10.0522
2.33244 133.963 0.168732
16.8258 142.886 -3.81244
-25.3763 125 -10.0894
-15.1574 129.06 -7.83251
14.4352 139.451 1.51102
-13.6507 123.694 6.07615
-26.8607 120.364 -0.89525
3.75791 135 0.0136616
-7.98743 131.647 -5.35927
11.6511 140.167 -2.81442
-9.36722 126.348 5.11432
-23.7192 125.831 -9.49665
-30.4343 120.163 -4.09527
-16.8196 128.589 -8.01605
-22.4785 119.614 5.93439
-27.8462 120.561 -2.07615
-6.74468 132.566 -5.78109
-19.3436 127.751 -8.71198
-24.8183 125.515 -9.7065
-6.15443 128.507 4.24881
-8.21384 131.695 -5.16676
13.7622 139.574 1.41123
4.77055 139.569 -8.41503
2.81898 138.753 -8.71683
-28.9149 123.256 -8.86154
-21.762 126.979 -9.33119
-27.8459 124.121 -9.6078
-19.1149 127.888 -8.31927
15.1147 140.211 1.713
-26.762 120.631 -0.321849
-12.5141 130.368 -6.43245
8.11511 137.831 -0.286339
-15.5991 129.773 -8.29933
-19.8472 128.119 -9.25351
-17.9716 128.49 -7.84138
11.7308 140.688 -2.50756
-2.97141 135.072 -6.04762
-3.37509 130.333 4.22507
5.01628 140.05 -8.31569
-3.67071 134.712 -5.885
-26.49 125.378 -9.941
-29.0198 123.536 -8.49021
4.68354 136.702 -0.832821
-13.3078 130.536 -6.78985
-29.2083 123.338 -8.02318
5.19496 137.191 -1.07335
-22.0484 125.217 -4.14721
10.4714 141.241 -4.26774
6.82627 141.015 -7.75849
-29.0873 123.63 -8.25538
13.6467 140.26 1.50911
-28.9541 123.587 -7.9305
18.7749 144.308 -1.84815
13.8331 142.201 -2.53645
2.24891 135.152 0.597762
10.5293 141.015 -3.44167
-3.93755 134.919 -5.51256
-19.4514 128.651 -8.44665
-22.9418 121.076 4.73742
-29.9819 121.94 -4.90846
5.51037 140.792 -8.04635
16.8519 143.948 -2.60876
-22.1371 127.704 -9.02207
-15.3572 130.67 -8.20133
-18.0737 129.433 -8.38024
-21.825 127.924 -9.12071
17.3757 144.288 -2.62694
-27.6556 125.073 -9.04962
9.51132 139.09 0.543287
10.5471 141.94 -4.65707
-9.00597 132.606 -5.20343
-7.37043 133.213 -4.71414
-1.61373 136.669 -6.11232
11.4646 141.528 -2.61092
6.397 138.229 -0.75033
-0.643927 133.02 3.29878
-9.39243 128.013 4.9222
-8.46146 128.871 4.06513
12.1047 141.799 -2.23401
-22.8949 125.794 -4.84023
-0.207061 137.886 -6.99815
7.26621 138.709 -0.617563
-25.098 126.839 -9.57236
10.8817 141.547 -2.90864
17.6651 143.113 1.06748
-25.4136 125.864 -7.46633
4.39561 140.958 -8.48538
-27.9071 124.35 -6.74602
-19.1729 122.15 7.84762
12.8014 142.139 -1.78067
10.8956 139.564 2.10755
-10.5394 127.256 6.22675
-26.6672 125.652 -7.87071
-21.8127 121.735 6.31935
-13.0095 131.931 -6.87122
-14.7306 131.525 -7.82878
6.23446 141.781 -7.75442
-25.7209 126.878 -9.47508
-22.443 126.162 -4.18834
-23.0654 126.049 -4.60994
-1.65857 136.955 -5.44984
-25.9045 125.796 -7.04495
-18.8562 129.706 -8.00697
8.61819 139.675 -0.121062
-10.0216 132.965 -5.55896
-24.5199 124.411 -2.28739
-25.251 126.584 -7.96
2.59148 136.252 1.03398
0.669997 138.912 -7.00734
-0.257943 133.834 3.39907
-25.4418 127.091 -9.06749
-21.9737 122.004 6.18779
-20.3368 129.675 -9.21912
-27.4481 125.438 -7.40154
2.5413 136.338 1.19152
-7.65461 134.081 -4.85061
-16.3097 124.506 7.25786
-14.0442 125.616 7.32325
-27.8951 124.241 -4.81801
3.72762 141.087 -7.80971
10.7774 142.709 -3.63606
16.6147 144.901 -2.08519
-14.4011 125.517 7.30097
11.2315 140.124 2.7381
-6.70659 134.641 -4.63766
-3.3067 132.417 4.15759
-19.3816 130.129 -8.40136
-9.46174 133.663 -5.40454
10.3831 140.326 1.49041
-7.08047 130.381 4.64623
-15.8585 132.434 -9.59951
-22.2919 127.329 -5.17513
-26.906 124.835 -4.64622
-4.02453 132.103 4.28554
4.04438 138.027 -0.0997758
-26.8727 125.73 -6.50432
-15.9354 124.989 7.21311
-24.994 126.617 -6.35913
7.25449 139.816 -0.454552
-7.97556 134.367 -4.95606
-23.955 125.849 -3.38119
-22.9798 122.281 5.73262
-22.0663 126.471 -2.6303
-2.22655 137.25 -4.96275
2.50379 136.686 1.56292
-10.1269 133.781 -5.72668
-23.4385 126.577 -4.12396
-24.3756 122.411 4.20793
-24.3125 127.231 -6.53403
-23.6897 122.379 5.10234
-0.827527 138.391 -5.52267
6.50067 139.8 -0.568935
1.07941 139.784 -6.41775
-23.5554 127.757 -6.54205
-5.64322 131.681 4.44775
-23.3663 127.881 -6.50973
-23.983 125.957 -2.85526
-14.6303 133.457 -9.34011
4.57105 142.281 -7.98175
-24.3786 125.562 -2.31363
-2.51157 133.5 3.98154
-23.9318 127.663 -6.48846
-2.51728 133.546 3.97427
-28.9532 123.361 -2.24925
-12.2749 133.593 -6.82767
-24.5777 126.497 -4.32788
-14.6179 133.933 -9.92473
-22.3036 126.907 -2.61724
4.54335 139.035 -0.202354
-24.933 126.086 -3.54607
-4.84449 132.567 4.05435
8.71908 143.851 -6.2986
2.78524 137.514 1.45625
-22.3172 127.099 -2.76253
12.0943 143.592 -1.83143
-21.1251 130.553 -9.11043
-26.2208 124.093 -0.187562
-24.6949 126.059 -2.74304
-24.001 126.427 -2.74761
10.2519 141.343 1.4854
11.5091 141.569 2.40206
9.40478 141.386 0.567411
11.0623 141.287 2.67921
-28.1229 123.266 0.0261217
-23.357 126.563 -2.10191
-4.71149 136.663 -4.23767
13.5062 142.723 2.28304
-10.9533 129.575 4.95822
-23.008 129.06 -7.12423
-13.7408 134.695 -9.51474
-3.63088 133.735 3.7854
-18.4388 131.896 -8.36936
4.86406 143.111 -7.74706
-14.1129 134.941 -10.2721
-24.3075 123.4 4.41623
-13.2708 134.795 -8.99724
-14.7851 126.676 7.56339
-22.0769 128.161 -3.76926
-6.97894 131.985 4.31283
-24.6314 126.531 -2.81122
-22.9191 127.546 -3.18018
-14.3397 127.108 7.29319
6.39519 143.963 -7.65598
-24.9376 127.256 -4.61509
-24.1402 123.666 4.40587
-26.4823 124.858 -0.714658
-2.94271 134.378 3.8349
10.7745 144.457 -3.61709
-26.9446 124.057 0.686473
8.35447 144.593 -6.53621
10.3523 141.924 1.70781
-11.5699 135.076 -7.04597
-10.4712 130.441 4.5816
-24.263 127.83 -4.5967
-14.0654 127.679 7.04344
-28.483 123.654 0.26615
14.5189 143.775 2.45431
-21.7267 128.497 -3.15594
-22.9085 129.44 -6.57345
-23.4062 127.271 -2.24356
-21.639 124.453 6.06771
-16.9839 133.932 -10.0596
-24.6355 127.099 -3.12351
-12.6814 135.676 -9.09758
-25.2258 126.89 -3.1666
17.0869 146.199 0.163178
-0.288339 136.5 2.80942
-12.6547 135.77 -9.10466
-25.7496 126.2 -1.96278
-27.3908 125.498 -2.13989
-25.8053 126.813 -3.33183
-26.367 126.536 -3.29752
-28.5167 124.736 -1.56785
11.0113 142.318 2.52978
-24.5469 127.341 -2.99548
5.5031 144.06 -7.39348
-23.806 127.004 -1.35819
-23.8894 128.73 -5.29565
-15.3084 127.221 7.55015
-23.521 128.013 -3.25019
-23.9551 128.763 -5.39928
-27.0394 125.056 -0.326426
4.8555 143.745 -7.13462
-20.1813 131.952 -8.1648
-24.4795 128.003 -4.01485
-25.6301 126.446 -1.73533
-23.1708 127.954 -2.3719
-26.8302 125.765 -1.41246
-24.9168 128.042 -4.38625
-8.49233 132.273 4.22577
-0.729274 136.73 2.7912
-21.9849 131.1 -7.97129
13.1777 143.621 2.66807
-10.4504 136.263 -6.80623
-4.98957 137.804 -4.1827
14.8856 144.588 2.49721
-21.1814 129.751 -3.90919
-16.2996 126.944 7.84192
3.36502 142.712 -5.89701
1.89409 138.152 2.72185
2.68021 142.233 -5.51006
-6.9903 133.44 3.64917
-24.6208 124.941 3.36197
-23.4311 129.04 -4.5247
-25.3172 127.183 -2.4293
15.9739 146.975 -1.38219
-16.5863 134.635 -9.49093
4.4947 143.701 -6.61666
-25.1544 127.287 -2.3279
14.2047 144.389 2.63919
-24.1522 125.152 3.61406
10.9533 145.179 -2.63697
12.3277 143.519 2.60475
-21.7854 130.89 -6.59481
3.02207 139.409 1.60734
12.0742 143.433 2.55721
-19.0449 133.421 -9.18905
-21.1 130.218 -4.21929
-16.993 134.257 -8.69719
-19.5079 132.923 -8.44623
-28.2238 125.523 -1.37644
-28.7131 124.07 1.35393
-8.45842 132.863 3.94837
11.36 143.281 2.46905
8.96671 143.116 0.211615
-21.6267 129.491 -2.88912
15.355 146.959 -1.36939
-19.1286 130.907 -3.25213
-17.9261 133.452 -7.63023
-21.6698 130.695 -5.53373
-19.1382 130.891 -3.17172
-20.8581 130.564 -4.32373
-7.40984 133.682 3.55332
-1.80485 136.714 2.94954
-21.3623 130.331 -4.18133
-14.5931 135.824 -9.05256
-16.9531 134.057 -7.64463
-26.5365 127.02 -2.38163
-17.9313 133.548 -7.53098
-16.73 134.384 -8.08135
-24.496 127.796 -1.82095
-3.62695 135.616 3.66122
-28.3784 125.448 -0.690168
-24.0865 128.594 -3.01565
-21.498 129.81 -2.83279
-12.4891 137.24 -9.57905
10.8047 145.674 -2.86104
-12.2282 130.247 6.46798
-3.79064 139.119 -4.09852
4.99628 141.57 0.0911058
13.3224 145.865 -0.313809
4.76047 144.389 -6.36992
-21.3467 125.676 6.93919
-29.6989 124.705 -0.0689246
-19.2178 132.236 -5.40656
-22.7012 130.263 -4.76041
-21.0911 125.966 6.71043
-25.9019 125.695 2.08672
-20.0685 131.865 -5.31818
-2.96933 136.416 3.34078
7.36237 146.069 -6.9002
-20.0063 132.667 -6.91955
-19.9094 132.343 -6.06095
-1.4958 137.416 2.84265
-20.3983 131.315 -4.21859
-20.1641 130.415 -1.93554
-27.2879 126.69 -1.40234
-21.4321 131.254 -5.07174
-9.35857 133.228 3.79528
-24.782 129.288 -4.32615
-19.2237 132.962 -6.40887
-23.1112 131.09 -6.40933
11.7579 144.234 2.49907
0.0705667 141.485 -4.1461
-14.0264 136.278 -7.80421
-17.5634 127.736 7.57944
11.5869 146.55 -2.52907
-12.9077 130.649 6.23451
-23.9184 128.333 -0.675565
-11.2829 138.484 -9.53382
14.9645 145.971 2.5603
-24.8881 130.16 -5.81233
-14.5157 136.041 -7.50286
-20.4531 131.475 -3.76745
-21.4113 130.954 -3.61051
4.7739 144.844 -5.95534
-20.679 131.173 -3.2165
9.20781 144.246 0.408508
12.1922 146.821 -2.07681
13.4897 145.398 2.58319
-27.6128 126.129 0.719382
-24.1205 126.334 4.21399
-24.0613 130.115 -4.19138
-15.9899 135.134 -6.55742
-30.0549 124.928 0.871397
-20.9195 131.61 -3.97138
-9.26654 138.833 -7.31536
-4.94743 139.6 -4.21206
15.7786 147.443 1.01085
-18.1995 128.209 6.90965
-27.8997 127.986 -3.25443
-18.9102 132.935 -4.39979
10.3048 144.693 1.40372
-14.2729 130.446 6.32227
-5.91051 136.008 3.0549
14.0397 146.034 2.55084
14.1399 147.53 -0.668231
10.2867 146.906 -3.50081
-20.3757 131.428 -2.51357
-23.6832 131.32 -5.8993
-26.7645 127.144 0.106378
1.62937 142.939 -4.06728
-23.2353 131.287 -5.27758
-28.733 126.767 -1.04093
-23.4923 131.621 -6.15274
-13.5402 137.787 -9.00805
-25.5761 129.997 -4.76763
-23.5351 131.958 -6.91073
-21.6561 127.306 5.62148
-23.5023 128.831 0.256017
-13.9449 137.39 -8.40497
-26.5105 126.674 1.87582
-20.3986 131.509 -2.24665
-8.22507 139.559 -6.89189
6.88455 146.766 -6.41146
0.944433 139.798 2.76936
-26.2317 129.371 -3.73267
-25.2661 130.088 -4.26589
-27.1205 126.831 1.07536
-26.4553 126.945 1.60419
0.557414 142.701 -3.9983
-26.9073 126.799 1.46509
6.31193 146.504 -6.15141
-14.9157 136.054 -6.05207
-5.88103 140.147 -5.27161
-3.9239 137.351 3.17391
-28.4743 125.381 3.06661
12.6333 147.505 -1.32769
-26.4808 127.505 0.520488
-26.0629 126.915 2.31941
-23.1594 132.342 -6.60919
-20.5323 128.525 4.87601
-6.81438 140.172 -6.13882
-26.5874 126.888 1.92187
9.08976 147.829 -5.77538
1.24877 140.244 2.69518
-5.34908 140.375 -4.83847
-19.5426 132.837 -3.53337
9.45125 147.871 -5.32401
-18.4191 133.453 -3.62428
-1.33245 138.939 2.89319
-26.8047 126.783 2.1378
-28.0385 127.171 -0.0692459
-28.6266 125.477 3.08527
6.01799 146.472 -5.85192
-25.0682 128.54 0.243839
-28.5694 126.824 0.263828
13.4057 146.504 2.36662
-9.15104 139.961 -7.76907
-30.5259 125.412 1.44417
-29.1662 127.495 -1.64522
-26.0528 128.148 0.39298
-26.8991 126.962 2.13888
-14.3809 137.542 -7.78597
1.45601 140.706 2.62232
-12.1003 132.453 6.25841
-25.9836 130.619 -4.83599
-14.6967 131.116 6.50688
-30.4962 125.309 2.2169
-26.5294 128.419 -0.352927
-23.616 132.295 -5.81312
-30.6471 125.56 1.59184
-11.3245 133.818 4.36341
2.04789 141.185 2.67332
-24.3242 127.314 4.79879
11.3517 146.214 1.73103
-15.9041 135.849 -4.90584
-26.9774 127.961 0.638834
-18.2395 134.421 -4.15992
-19.729 133.869 -4.54785
-19.2641 133.138 -2.35666
-10.7687 134.357 4.34233
-4.95834 137.69 3.29641
-15.3881 136.368 -5.14797
-26.514 128.451 0.435206
-22.1414 128.678 4.74378
6.61956 144.804 0.445636
-24.8916 129.445 0.24262
-30.8236 127.115 -1.05134
-12.7264 132.783 6.25758
-26.8983 128.093 1.23067
-23.6336 132.538 -5.1048
-12.219 139.705 -8.60473
-2.28438 139.419 2.99986
-7.61539 136.956 2.70447
-30.886 126.082 1.49442
-19.2556 133.406 -2.03481
-29.1468 127.425 0.50201
-25.7671 128.17 2.59002
-12.4562 133.539 5.2191
-29.8157 128.314 -2.146
-1.5091 139.957 2.98993
-18.8711 133.946 -2.40996
-31.268 127.223 -0.90843
-7.43579 141.634 -6.86058
-6.1034 141.949 -6.0543
-12.5398 134.147 4.51806
-29.5992 127.992 -0.333287
-12.3341 134.362 4.46924
-12.7375 134.095 4.62596
-12.9037 139.707 -8.0421
-16.8879 131.417 6.29028
-28.9555 126.825 3.33314
12.3461 147.641 2.08672
3.47127 143.175 2.34136
-9.48489 141.78 -8.76257
-17.7509 134.829 -2.23665
-16.8463 135.823 -3.38436
-0.504254 143.901 -3.5019
-18.404 134.957 -3.12864
6.36845 145.412 0.681292
-26.6349 128.791 1.68923
-29.5188 129.213 -2.41281
-18.4452 135.504 -4.31802
-11.5812 140.782 -8.58803
12.0916 148.871 -0.660693
-17.7754 135.421 -3.32679
-29.4088 128.076 0.372048
-20.3304 130.691 4.50168
-26.7358 131.288 -3.84145
-14.7794 138.601 -7.04165
-27.265 128.079 2.89863
0.539347 144.613 -3.51938
-20.021 130.852 4.7551
-8.18743 137.66 2.51233
-12.8949 134.459 4.61077
-17.8103 135.925 -3.78914
-10.1559 136.512 3.33129
-25.5633 129.124 3.03001
13.7172 148.967 1.7381
-30.9839 128.025 -0.432397
13.9965 149.333 1.30876
-7.48719 142.636 -7.31229
-28.5015 127.794 3.01681
-23.6087 129.53 4.55823
-26.0018 128.934 3.41566
-23.672 129.578 4.62155
-14.0846 139.793 -7.72508
12.5612 149.438 0.0481464
-17.8006 135.52 -2.08684
-32.1949 127.61 -0.161436
-13.7833 133.964 5.8595
-7.26497 138.637 2.61629
-0.84206 144.848 -3.83477
-22.4287 134.939 -5.34743
-22.9051 134.463 -4.75543
-25.2104 129.068 4.81855
-28.3448 129.04 1.43499
-24.8539 133.128 -3.86816
0.794169 142.793 2.711
-13.8507 134.313 5.62078
-28.7016 127.919 3.89911
10.0983 150.103 -3.13462
-29.7778 129.057 0.260834
-17.6022 136.031 -1.92997
-7.8694 138.907 2.37178
-13.6709 134.66 5.52695
-17.0947 136.547 -2.46892
-19.6418 136.652 -5.46778
8.67075 150.296 -4.82243
-31.1139 127.699 2.21077
-31.7865 127.207 2.58856
-0.88746 145.288 -3.95142
-29.8439 128.56 1.72795
-29.2269 127.981 3.74687
-4.57745 140.487 2.85187
0.111534 142.813 2.87186
-9.82991 138.093 2.53686
-23.7605 134.359 -4.32527
1.38955 146.323 -3.47648
-24.7408 129.959 4.6447
-28.265 128.399 4.28106
-5.49599 140.29 2.69058
-1.32989 142.166 3.10845
-2.37147 141.719 3.06409
-6.04579 140.17 2.58889
-13.7097 135.311 5.11399
-17.1071 137.264 -2.95205
-28.2768 128.524 4.41506
-13.1612 141.417 -7.8806
6.77846 149.511 -4.07528
-28.751 128.74 3.43607
-25.6638 129.226 5.85193
5.71898 146.612 1.39222
10.5217 150.38 -1.57826
5.83508 146.787 1.34081
-7.37087 139.972 2.21001
-5.05436 140.95 2.58215
-3.51844 141.59 2.89113
-28.5073 128.353 5.0995
-20.211 132.285 5.47125
-6.00308 144.644 -6.59876
9.19112 148.716 1.09572
-29.3079 129.055 2.83865
4.08148 148.277 -3.48347
7.35397 150.216 -4.21372
-13.9228 135.726 5.02301
-29.3213 129.022 3.20023
-9.97841 143.723 -8.40879
-12.5883 142.346 -8.05055
11.7787 150.926 -0.409255
-1.65008 146.164 -4.43533
-29.2441 131.232 -1.2648
-30.9441 128.356 3.39464
-27.9513 129.722 3.65095
2.71649 145.064 3.05764
-30.8407 128.425 3.57482
-16.7724 138.266 -2.92135
-19.5183 137.72 -4.62244
-2.52084 142.73 2.87538
-9.43593 139.533 2.48111
5.54087 147.194 1.96314
9.12226 151.176 -2.88059
-22.275 131.85 5.97225
-8.92477 144.634 -8.02342
-28.0157 132.483 -1.62345
-16.7666 138.9 -3.58778
-1.81325 146.717 -4.57306
-19.9271 132.921 6.65062
-14.5294 136.173 5.35723
-10.1681 139.567 2.57537
-14.2067 136.784 4.38142
-22.8584 136.863 -5.22826
-17.3906 134.259 6.63984
-16.1768 139.407 -3.54003
-6.13684 141.895 2.05344
-2.99279 143.136 2.75208
-4.35518 146.258 -5.73771
-30.9505 128.322 5.26665
-15.9319 139.708 -3.71771
1.54834 145.175 3.3109
10.4043 151.37 -0.828631
-31.9593 128.304 4.30649
-0.379397 147.675 -4.38411
-28.6388 132.459 -1.23671
-4.00663 142.865 2.54756
0.369242 148.018 -4.16252
-30.6145 129.281 3.87158
-4.05259 142.934 2.52311
-8.59106 140.783 2.39518
-11.5463 139.321 2.42517
3.65574 146.109 3.93332
-26.6773 134.152 -2.51669
7.66051 151.685 -4.04534
-20.3406 133.499 6.03632
-10.6157 144.64 -8.16761
-32.0034 129.024 3.78785
0.180402 148.466 -4.40495
8.70693 150.202 1.08528
-11.8944 143.903 -7.42826
-26.5171 130.777 5.98182
6.46428 151.251 -3.60921
-23.0668 132.604 5.75141
-16.6961 140.618 -5.16613
-20.1934 133.94 5.98406
-29.4155 132.508 -0.832707
-25.8666 135.163 -2.78664
11.8945 152.274 0.50186
-3.00788 143.933 2.82091
5.06257 147.667 3.3849
4.29469 150.182 -3.06891
2.44716 149.544 -3.64297
-3.18692 147.541 -5.32475
-14.9392 142.249 -6.27613
-26.9783 131.009 5.755
-23.8323 136.734 -3.62956
-0.70497 145.052 3.25183
-24.0953 136.515 -3.29573
9.39207 152.101 -1.39442
1.67009 146.027 3.74382
-26.3721 131.231 6.08531
1.90056 146.111 3.83611
-30.4579 132.064 -0.227184
-16.3687 141.203 -5.16402
-14.7445 137.603 4.73688
-5.38582 147.267 -6.32156
-26.8485 131.373 5.81467
-16.4558 141.148 -4.68079
-10.0249 140.92 2.93135
-13.9423 143.128 -6.3159
-30.4138 132.36 -0.152093
-18.9706 139.915 -4.47596
-14.838 138.1 4.23283
-31.156 130.263 3.92957
-13.535 143.52 -6.3371
-28.7951 131.083 4.80485
-25.74 131.684 6.85639
8.78457 152.613 -1.96525
-16.6749 136.546 6.07355
-31.1789 130.63 3.3934
-18.2738 140.338 -4.16381
-6.01208 143.594 2.086
-22.9772 138.16 -4.35723
0.118773 145.901 3.76775
6.32646 152.183 -3.33601
10.2297 152.178 1.12181
0.819167 149.932 -4.1064
-4.84213 144.292 2.34324
10.5407 152.434 1.06142
1.98142 150.506 -3.8436
-13.2914 144.181 -6.36017
-26.2175 133.155 4.234
-15.7641 142.719 -5.5911
-26.1216 132.34 6.30315
-8.66668 147.224 -7.78134
-1.48715 145.705 3.90798
-24.3157 137.721 -3.22949
-23.022 134.462 5.56842
-25.7303 133.731 4.24473
-21.1652 135.608 5.18393
-0.487821 150.069 -4.469
-14.7381 139.204 4.37614
-20.0196 135.827 6.14286
-9.71064 147.125 -7.63918
-2.41173 149.596 -5.14738
-17.3898 141.543 -3.49721
-25.2693 133.826 5.26158
-19.1045 140.75 -3.48379
-7.75756 143.759 2.35758
-2.85712 149.71 -5.38311
-25.097 137.438 -2.0601
-11.2301 141.982 3.05617
9.08956 153.621 -0.679287
-10.0699 142.604 3.1816
-24.168 134.881 5.0054
-7.49845 144.34 2.17303
-26.3965 135.191 2.01289
-5.25255 145.33 2.5526
4.16471 152.515 -3.04727
-19.0796 141.301 -3.43066
-2.3128 150.333 -5.1673
-22.3032 136.467 4.00498
-29.1857 134.994 -0.107912
-22.106 136.585 4.20701
-26.868 135.432 1.6258
1.64206 151.721 -3.5419
-8.42996 144.128 2.60646
8.30928 153.896 -0.824855
9.9012 154.019 0.715156
0.167759 151.442 -3.75771
9.27214 153.862 1.20713
-26.8103 137.25 -1.22155
-7.02811 145.744 1.87128
-15.1059 144.226 -3.60762
-28.4832 136.37 -0.676196
-9.14563 148.775 -7.2048
-13.0727 146.374 -6.07924
2.00856 152.556 -3.30439
-21.4435 140.81 -2.72261
-13.2959 142.339 2.82486
-8.80159 144.584 2.79889
-4.98888 150.201 -5.5883
-21.9017 137.386 4.69616
-27.6056 137.102 -0.805506
-19.7307 141.989 -3.02885
-22.1987 137.48 4.47874
-15.3984 145.092 -5.07544
-20.4957 137.526 6.37386
-26.354 136.641 2.01263
-18.4221 138.372 6.9878
-20.9673 137.501 6.19912
-9.52179 149.055 -7.09729
-11.3776 143.427 3.53
7.60118 154.5 -0.243435
-20.8032 137.877 6.1408
-10.0376 144.7 2.71024
9.13412 154.699 1.41679
-9.65635 149.245 -7.02551
-0.408144 152.272 -3.57999
-13.4693 146.727 -5.39209
-21.3322 141.741 -2.48968
-23.1239 140.594 -1.78622
-18.7291 139 6.65884
-22.4214 138.057 4.73867
-21.9371 137.953 5.64145
-23.4322 138.115 3.70058
-8.67472 149.943 -6.56386
-16.8099 143.955 -2.00439
-14.8672 141.856 4.93299
-10.5397 145.012 2.72782
-0.926489 152.639 -3.55538
-25.002 140.102 -1.86888
-10.1894 145.416 2.68731
-15.851 141.674 4.8917
-13.779 143.672 2.76708
-8.7726 146.2 2.80817
-19.1656 139.547 6.3054
-9.24776 150.12 -6.43789
-27.8717 137.87 0.699632
-8.35899 150.508 -6.13579
0.470702 153.477 -3.04361
-10.0977 146.431 1.29609
0.219181 153.469 -3.05222
2.29729 154.085 -2.04432
-5.01648 151.616 -4.42725
-5.88331 151.534 -4.89784
5.37252 155.488 -1.21233
-0.0567799 153.593 -2.90861
-12.0052 149.117 -5.94341
-11.6581 145.806 1.88796
-12.7979 144.978 2.97854
-5.36607 151.895 -4.29966
-7.91444 151.218 -5.56237
-17.5684 145.07 -2.32103
-22.7765 142.171 -1.35817
-5.05979 152.105 -3.87921
0.691171 154.181 -2.09287
-5.57845 152.066 -4.21926
-22.549 142.584 -1.35977
-21.058 140.143 5.82899
-1.20893 153.714 -2.752
-0.24739 154.058 -2.35489
-5.60688 152.221 -4.04579
-10.884 146.666 2.63543
-24.6486 141.533 -0.903259
-19.8948 140.77 6.11491
-15.4399 146.539 -1.8709
-4.91982 152.401 -3.43709
-19.747 140.877 6.17018
-19.1006 141.105 6.42139
-27.0987 139.714 0.753122
-26.6592 140.161 0.324398
-22.2516 143.173 -1.4705
-9.00447 151.456 -5.38136
-27.03 139.754 1.33661
-14.2847 148.51 -4.26674
-10.895 147.297 2.56707
