ply
format ascii 1.0
comment Created by Open3D
element vertex 1946
property double x
property double y
property double z
end_header
-18.6937 131.286 -5.89611
-7.79365 91.4869 6.32594
-16.7944 111.133 8.75289
-24.8782 137.557 2.70561
-17.2966 113.555 7.73185
-22.3549 128.17 5.75564
-7.48547 91.0702 6.25845
-16.7485 111.442 8.62006
-18.636 119.109 5.8611
-3.11421 100.162 -12.2503
-25.2357 137.253 4.2754
-2.87373 99.2659 -11.8588
-10.7645 116.994 -10.1913
-1.25239 94.4107 -11.0064
-17.892 130.602 -6.35335
-25.5004 137.407 4.97557
-25.1929 137.56 4.24168
-7.98892 111.594 -11.202
0.501555 88.0743 -8.74624
-3.97368 103.792 -13.1093
-8.51077 94.0457 6.59042
-11.1107 118.022 -9.89969
-24.1827 134.644 4.82037
1.41853 76.3077 0.349933
-13.47 122.875 -8.75336
-19.5322 134.17 -5.31092
2.82198 79.4689 -5.72893
-5.38841 107.097 -12.6494
-3.99598 104.232 -13.1474
-15.5987 109.55 8.85053
-3.35136 102.523 -12.9126
-6.35346 89.6424 6.15046
-24.7898 135.68 5.71096
-15.9057 110.403 8.90244
-19.658 134.403 -4.89737
1.38198 85.6949 -7.81912
3.82173 76.8613 -5.15918
3.09014 79.2123 -5.65511
-23.6496 138.136 0.96371
-18.8723 121.49 5.71994
2.29279 82.8923 -7.00627
-18.79 132.289 -4.41771
-14.9775 126.86 -8.11317
-17.1 114.826 8.14564
4.09055 76.7164 -5.10524
-19.7017 125.651 4.18234
-1.96424 82.2169 3.87968
-14.9404 109.059 8.78181
-19.2495 122.863 5.82001
-14.1536 125.212 -8.18504
-18.9312 133.074 -4.48193
2.80385 74.6319 0.0837333
-18.7493 132.991 -4.78309
-1.40194 97.4054 -11.454
-6.21846 109.337 -11.4139
1.71233 86.1673 -8.0284
-24.6766 138.722 3.79134
-9.82049 98.0273 7.64554
-0.115749 93.5293 -10.5907
-16.8438 114.752 8.30944
-18.8896 133.434 -4.49246
-0.114614 93.7314 -10.6938
-3.9154 86.2765 5.12881
-9.19589 96.8715 7.43014
-0.497447 80.198 2.94167
-20.4881 127.687 4.79712
-17.2474 131.88 -6.59327
-18.71 121.873 6.27265
-22.0776 131.173 5.39643
-18.2934 133.096 -5.15832
0.506859 79.0591 2.09645
-2.88253 84.7331 4.70359
-13.6315 124.847 -8.04447
-4.77036 107.8 -12.4564
-17.452 132.354 -6.12534
-3.98013 106.676 -13.1122
-7.45717 93.9806 6.94957
-15.8563 130.038 -7.3725
-8.05592 95.3925 7.12665
-9.48731 98.1988 7.83937
-19.3991 126.438 4.42121
-20.9952 129.371 5.37499
-8.16609 95.7729 7.26614
-7.11321 112.413 -10.7497
-23.7202 139.106 2.66798
-0.355633 96.7228 -11.6224
-17.4803 118.554 7.56057
-4.30099 107.735 -12.6774
-2.91385 105.061 -13.2837
-17.2325 117.684 8.13841
-19.2394 126.709 4.42357
-6.51499 92.6954 6.92202
-15.4745 129.994 -7.27918
-10.1176 100.955 7.61283
3.63556 82.7264 -7.11832
-4.2224 88.1796 6.17189
-4.728 108.676 -11.9047
-19.8503 136.274 -2.75758
-14.2797 129.366 -9.15896
0.250167 80.5466 3.09563
-21.1532 130.94 5.39028
-15.5981 130.723 -7.10973
-6.56821 112.349 -10.6957
-11.0809 103.548 8.04446
-8.37216 97.17 7.80347
-23.2916 135.907 6.03616
3.9846 74.6334 0.389302
-23.0954 135.676 5.81369
-19.83 129.081 4.44391
0.36663 80.6391 3.14429
0.1656 81.0285 3.25626
-22.782 135.365 5.49249
-14.2038 129.762 -9.0947
-14.3206 111.08 8.73936
-10.706 103.055 7.90087
-20.3839 137.53 -2.01668
0.0254316 97.6404 -11.815
-8.88668 117.21 -9.53716
-19.0238 127.252 4.52329
5.56207 77.0256 -5.22059
-13.8671 127.816 -7.83155
-1.87694 84.7549 4.8323
-9.49756 100.695 7.60307
-0.779895 100.745 -12.5907
-0.928349 101.31 -12.7261
-13.762 129.465 -9.32684
-6.67637 113.292 -10.529
5.50177 77.8467 -5.44326
-13.7973 110.317 8.80357
-1.86067 104.382 -13.174
-6.80937 113.739 -10.3543
4.01941 83.8977 -7.37115
-6.38645 94.078 7.32821
-23.8284 138.901 5.69001
-10.695 104.06 8.00285
-17.7345 122.574 7.10143
-16.6661 118.837 8.15184
-21.3006 139.212 -0.236092
-9.43588 101.746 7.46611
-9.2128 118.54 -8.77532
-13.4935 110.458 8.8218
1.98095 92.9809 -10.5636
-3.95318 89.4153 6.59343
-16.0882 132.741 -5.9053
2.70758 90.8488 -10.008
-8.03804 98.3822 7.92135
5.3177 80.1615 -5.88943
-5.44046 111.838 -10.6356
-22.6184 136.467 6.09441
-3.0515 108.234 -12.6997
-17.1694 123.753 5.50984
-22.4042 140.36 2.11178
1.30942 96.6327 -11.624
6.93871 75.5469 -4.86151
2.7566 78.5658 2.02709
3.15942 90.2607 -9.85783
-18.7387 136.907 -2.86255
4.57414 75.4676 0.845258
-12.9851 129.149 -8.87895
-11.2466 106.343 8.59153
-22.1489 136.239 5.82109
3.91695 87.8585 -9.07021
1.8003 95.6158 -11.4423
-13.646 112.135 8.83229
-15.6365 132.687 -5.8298
-12.9168 129.415 -8.99646
4.33265 86.4973 -8.64283
-16.7619 124.656 4.40112
-17.7839 135.902 -3.76054
-10.9098 105.881 8.53786
-6.5795 114.763 -9.81003
-13.8236 131.401 -8.56174
-22.8234 137.614 6.67295
-9.5735 103.726 7.81176
-13.6582 131.323 -8.62625
-20.5245 139.601 -0.488065
-11.4665 124.579 -7.28801
5.49847 82.6533 -7.17831
2.20631 95.2445 -11.361
-17.1622 136.28 -4.93951
-18.6408 137.576 -2.70712
-14.5111 114.607 9.31493
-8.70667 102.197 7.523
-13.5748 131.467 -8.56196
-14.7331 115.329 9.30181
-16.6654 123.194 6.43142
4.85618 85.7845 -8.22044
-1.24533 86.0398 5.69861
4.90361 75.8398 1.06275
-7.49909 117.237 -9.05387
-17.2551 136.239 -4.19169
-15.2948 116.882 9.45265
-6.7627 116.014 -9.29187
-10.558 106.377 8.62077
-7.26978 117.067 -9.03502
-21.0284 141.023 0.40675
0.515072 83.4758 4.57622
-16.4991 122.615 7.28494
-11.4326 125.429 -7.09283
-11.3368 108.442 8.65809
-21.1572 141.259 0.596588
-15.7161 119.173 8.7459
-19.6244 139.499 -1.2584
-8.09044 101.713 7.54265
-17.0666 136.281 -4.10489
4.1641 77.6744 1.80232
-22.5332 141.232 3.98435
-2.59981 89.1424 6.77813
-9.09711 120.957 -7.89807
-18.6284 138.737 -2.44715
-14.8591 116.865 9.41109
-3.28724 110.979 -11.7257
-11.7913 109.977 8.94748
-16.7157 127.617 3.80876
-13.9164 115.131 9.07347
-16.5977 127.829 3.85434
-18.4781 131.567 4.72845
-10.6363 108.19 8.55255
-15.5937 123.904 5.30834
-5.60637 115.061 -9.48521
1.55014 100.015 -11.9365
-8.95973 104.719 8.03577
-15.6784 123.313 6.18503
-1.60401 108.49 -12.3563
-9.97818 123.641 -7.15168
-13.1337 114.258 8.98308
1.34518 101.02 -12.1024
4.81497 90.0724 -9.79685
6.56387 83.1736 -7.30576
-0.934555 87.0275 6.62474
-16.4928 136.985 -4.13732
-20.0611 135.437 5.73938
4.87746 90.6996 -10.0006
-7.89399 120.118 -7.97985
-11.5782 129.955 -8.66338
-12.4994 132.285 -8.70864
6.08615 75.8849 1.23943
-9.61618 106.876 8.57172
-11.4909 129.63 -8.38085
-18.7735 133.003 5.48086
-6.69888 118.103 -8.39503
-0.845726 107.747 -12.2257
-0.561899 107.211 -12.3569
-15.529 121.715 8.76067
-13.7824 133.737 -6.49713
-11.7555 131.548 -9.0439
7.12542 83.1815 -7.24855
-12.2442 113.856 8.85437
-15.3131 136.731 -5.45048
-18.4435 132.773 5.52046
-13.1428 116.485 8.61508
-15.6063 137.854 -5.56851
-3.13432 93.1748 7.58174
-15.5081 137.861 -5.56655
2.38479 100.302 -11.7287
4.17804 80.0219 3.17015
-15.1735 121.462 9.14276
-9.21466 107.559 8.50311
-15.0561 123.24 7.36689
-1.74295 110.805 -11.7295
6.08048 88.7723 -9.03787
-18.9597 141.477 -0.483944
-11.4604 132.24 -9.10716
-14.7436 120.776 9.29129
-10.895 129.618 -7.91865
-14.5992 120.302 9.4165
-0.157025 107.7 -12.188
-17.2669 139.576 -2.43896
6.82235 76.0169 1.501
6.97916 86.01 -8.20043
-3.67465 114.367 -10.1167
3.48588 98.095 -11.3807
-4.60358 115.733 -9.14227
-7.42528 104.679 7.91313
-18.9983 141.973 -0.282896
8.48591 80.0856 -5.79362
7.65145 75.3382 0.632192
-15.3816 127.856 4.73348
-12.3524 116.492 8.51466
-8.60629 107.141 8.6266
-19.8187 143.262 0.858405
-1.95643 112.279 -11.4101
-12.3518 116.767 8.50016
4.91847 95.2429 -11.2911
-3.66334 114.992 -9.88948
-4.7552 98.5769 8.11793
-15.1774 139.188 -5.8066
-16.8171 131.766 4.984
-1.83217 112.292 -11.3831
3.13453 82.8311 4.80271
-6.58969 120.487 -8.01902
-14.0539 120.446 9.31597
2.47608 102.341 -11.9745
-1.35859 90.8983 7.67845
-8.90842 108.759 8.46027
3.98178 98.0758 -11.3536
-10.2538 128.854 -7.14807
-20.6841 140.084 6.4758
-15.7946 130.033 4.70656
-19.5547 136.947 6.94863
-17.141 132.678 5.43806
-3.39858 95.899 8.14427
-6.99633 121.548 -7.57541
-12.575 135.088 -7.35102
-0.885093 90.4758 7.64045
1.20775 86.3164 6.77388
7.78714 85.7826 -7.92858
6.80469 77.6852 2.06477
-3.77925 97.3021 8.18031
-3.53187 96.7564 8.2018
1.00974 86.9096 6.96866
-13.0963 136.676 -6.9904
10.0656 78.1876 -5.70002
-14.1038 122.132 9.03608
-8.4586 108.782 8.51383
10.8265 76.1961 -5.52562
-11.1359 115.575 8.46955
-0.864168 111.402 -11.349
-11.0068 133.809 -8.87349
-8.48754 125.407 -6.73429
4.72389 97.8181 -11.3145
-9.14998 127.354 -6.86244
-3.2328 96.776 8.15588
-5.9083 120.671 -8.0351
-4.32952 117.45 -8.63506
-10.1132 131.239 -8.01328
-4.9813 118.905 -8.26732
7.31231 77.5487 2.17421
-11.7097 117.904 8.38256
9.57161 80.7035 -5.97131
5.02672 97.6472 -11.3198
4.50875 99.0304 -11.392
1.32396 87.1877 7.14807
-0.971651 112.599 -11.3357
-13.2113 137.996 -6.71219
6.63349 79.0777 2.64226
0.771351 88.3422 7.54405
-10.9251 134.421 -8.60539
0.99125 88.0681 7.46122
-13.9678 125.377 7.16019
9.50659 82.6412 -6.93308
5.20083 98.0822 -11.3333
6.43196 94.8743 -11.1708
2.43839 106.265 -12.5412
-5.51538 104.09 7.97169
2.78203 85.3086 6.47879
-16.7863 141.86 -1.22741
1.02956 109.352 -11.8505
2.09042 86.5934 7.07035
-19.5559 140.736 6.43854
-1.23648 114.436 -11.2449
10.2995 80.1839 -5.77948
5.43038 98.3114 -11.3882
-2.63162 97.519 8.03875
-6.31931 106.254 8.39625
0.62011 90.6903 7.13689
-7.46872 125.417 -6.7327
-19.5107 144.695 3.08166
7.49695 78.6183 2.56969
-19.0404 144.99 1.73702
-10.4792 134.815 -8.52279
-11.0405 135.819 -8.06766
-3.71502 100.764 7.92309
-10.051 133.924 -8.52345
-10.6037 135.243 -8.47497
-9.108 130.856 -7.77525
-18.7023 139.087 6.73856
2.71799 86.1084 6.98461
-6.04373 122.657 -7.03232
1.7752 108.982 -12.0871
-16.5368 135.123 5.79321
-19.7423 142.798 6.01768
-15.0852 132.972 4.53319
-10.8201 135.898 -8.09153
-7.52672 126.52 -6.88341
-2.32146 97.8556 7.97638
4.39763 84.1154 5.40878
8.16354 78.0322 2.42241
-2.35002 98.1237 7.99451
-13.3465 139.947 -5.77673
1.01502 110.797 -11.5736
-7.58501 127.041 -6.85313
-12.0654 138.02 -6.73041
12.1125 77.7592 -6.09139
-1.57742 116.452 -10.5847
11.0645 80.3587 -5.84385
-2.01586 97.9904 7.90678
-2.97088 100.147 8.09814
-4.43982 103.949 7.96135
-17.3752 144.472 -0.0523453
10.6949 82.4593 -6.68765
-17.6863 137.959 6.9671
-12.4559 139.503 -6.59439
-5.25063 105.887 8.31388
-18.9231 141.509 6.59941
-13.3822 130.502 4.11831
10.2913 84.0168 -6.95825
6.84661 97.1352 -11.2844
4.021 105.387 -12.4547
-19.0222 144.974 3.90031
-14.6628 133.725 4.43263
12.8008 77.244 -6.07193
-15.1372 143.16 -3.1965
8.20923 93.1443 -10.3134
-12.8825 129.209 4.70627
-2.23358 118.118 -9.4993
-0.711077 115.769 -10.8052
-16.5171 136.916 5.95953
11.5749 80.2826 -5.90946
-5.11666 122.673 -6.94749
-15.4281 142.828 -1.95795
-9.81054 118.112 8.28288
-6.3652 109.245 8.6895
12.1539 79.3574 -6.08257
-6.72373 126.696 -6.77015
-12.9103 130.684 4.02647
-15.135 143.288 -2.58923
-5.06199 106.707 8.43551
-4.46658 121.978 -7.2418
-11.1965 122.14 8.24626
-7.69236 113.745 8.07566
-13.0606 141.131 -5.18119
10.268 85.8458 -7.24703
-4.47013 105.794 8.18867
6.74758 99.2539 -11.6421
-3.31315 103.365 7.9817
-17.428 145.652 0.983074
11.9509 80.7583 -5.89526
5.34337 104.192 -12.5562
10.1703 76.8186 1.99136
11.0397 84.1994 -6.95347
7.85393 96.8719 -11.3672
9.33618 78.4242 2.58086
-13.6612 143.054 -4.74603
3.33536 109.034 -12.0925
-14.5541 143.71 -3.09075
4.62283 85.9514 6.73604
-2.70245 102.709 7.99868
10.6077 86.2466 -7.352
-2.13946 101.268 8.07871
-17.9347 141.698 6.78012
-17.9965 146.115 2.78524
5.6865 104.05 -12.5409
-1.72062 119.045 -9.41284
-12.5563 131.908 3.65941
-16.472 145.324 0.164618
5.66013 84.8016 5.8249
-8.85638 117.962 8.3303
10.6863 86.8071 -7.67628
1.60872 93.308 7.29306
8.45472 96.3551 -11.3628
-1.16676 99.7481 7.7538
-9.78184 137.392 -7.5493
-5.23195 109.275 8.55778
-9.67311 120.95 7.89756
12.4611 81.1962 -6.03489
-1.94621 101.76 8.05919
-9.49897 137.253 -7.7427
-7.37028 115.342 7.97734
-9.577 121.015 7.88958
10.8445 87.8056 -8.22732
11.1363 76.5982 1.69936
0.546455 96.6656 7.42847
-17.4796 141.867 6.78436
5.83916 85.2087 5.99547
-2.09176 120.581 -8.84726
-11.6217 141.125 -6.01263
-9.34845 137.358 -7.73515
-11.2079 140.719 -6.5595
3.21918 91.2567 6.6029
11.8243 84.4366 -6.83342
3.3287 91.1253 6.61215
-16.7631 146.49 1.19081
-9.23917 120.888 7.90063
1.53042 94.9838 7.32575
-8.75386 136.479 -7.79416
-17.0876 141.456 6.8758
-16.2515 139.649 6.66072
-2.96775 105.514 7.94266
-11.521 141.357 -5.8949
-13.1052 135.413 3.4408
7.91682 99.8764 -11.8611
-13.5373 135.362 4.56273
-11.4192 130.572 4.23543
12.5636 82.9005 -6.55528
7.66596 100.781 -11.9713
6.46897 84.7555 5.88496
5.69022 85.9697 6.61156
-6.8582 130.995 -6.56273
3.17217 92.2936 6.56781
-11.3289 129.581 5.16
-17.5501 143.929 6.12374
13.9069 79.7221 -6.38633
4.2316 89.4965 6.87817
-15.9781 139.692 6.57115
-14.3208 144.944 -2.06606
-12.7193 135.046 3.56432
1.37934 96.2462 7.40275
5.55216 106.603 -11.8449
-8.42653 136.67 -7.68191
-2.85179 106.104 8.11117
-9.19157 121.924 7.99922
-15.8931 139.973 6.58798
-16.4798 141.177 6.90909
-2.89024 106.341 8.18011
0.0575297 118.548 -10.0893
-17.006 143.038 6.47531
4.63597 88.8673 7.21597
4.61434 108.918 -11.5406
-5.31173 127.724 -6.17726
4.29469 109.558 -11.3495
-7.10128 116.785 8.38098
-6.60182 131.191 -6.26977
1.27383 115.773 -10.0193
-13.2649 144.898 -3.53271
5.5197 107.333 -11.6695
-11.1822 142.065 -5.55715
0.743596 98.6767 7.56342
3.85791 92.3478 6.33847
-14.4665 138.68 5.3193
8.842 81.9301 4.76013
-1.70501 104.807 7.78295
4.04774 110.512 -10.881
14.6617 79.2465 -6.10945
-10.8593 131.804 3.66448
-10.9311 133.139 2.59645
10.6189 93.3331 -9.93846
-12.9807 137.215 3.53312
4.00816 110.613 -10.8322
8.06598 83.1147 5.62961
11.3706 90.9122 -9.32809
-15.1243 139.694 6.26973
-3.99818 110.367 8.09195
11.6598 89.9547 -8.99502
-11.4436 134.097 3.11431
-10.706 132.81 2.61699
-6.57051 131.913 -6.06479
-11.9056 135.537 2.8961
-10.8135 131.083 4.54873
4.84465 90.0092 6.86093
-12.5178 136.68 3.32323
-16.0823 147.098 1.83429
-12.7003 145.314 -4.27356
6.79669 85.96 6.45805
-15.2515 140.407 6.43008
12.3633 86.5579 -6.94967
-11.5093 134.564 3.28057
-0.820103 121.437 -9.13804
-10.3878 132.357 2.86289
6.73467 86.1365 6.61426
-14.1315 139.557 4.8379
-12.9973 145.708 -3.55498
16.1228 76.5587 -5.97384
-1.8909 106.076 8.09003
2.97256 95.3893 6.95527
11.236 92.8412 -9.7914
7.47058 85.126 6.18869
4.83297 91.2416 6.58294
-9.54978 126.512 6.81306
-7.10844 119.235 8.10165
-6.67101 118.091 8.22522
-4.20582 127.28 -6.11558
5.9721 87.637 7.5636
11.8726 91.0433 -9.27051
11.6586 91.8195 -9.4993
15.203 79.3229 -5.94959
3.9691 111.531 -10.1625
11.5645 92.2146 -9.60727
-10.8734 134.423 2.7574
-6.48704 132.838 -5.9139
6.09569 107.53 -11.2678
-9.5099 126.916 6.7203
13.2095 85.1132 -6.58687
11.5444 78.8283 3.20553
-6.925 119.338 8.06396
14.0985 82.6551 -6.18937
-5.08393 129.578 -5.80404
9.54683 100.151 -11.9965
2.30804 97.3496 7.44765
4.36362 111.118 -10.1997
-12.3772 138.201 3.1595
4.44547 110.981 -10.2463
-3.7475 111.9 7.89523
12.9646 86.3613 -6.83853
12.3672 90.1217 -8.92835
-4.33244 113.527 7.81417
13.8488 83.822 -6.39108
16.4821 76.9285 -5.97243
-12.4809 138.839 3.00173
14.2663 82.6991 -6.24101
5.63569 108.896 -10.8415
2.47527 97.2812 7.40594
-13.2982 146.523 -2.23204
-14.1092 140.928 4.93258
-13.2442 140.077 3.74703
-9.7955 132.81 2.63088
-15.21 147.705 1.23118
-6.65126 134.494 -6.14259
-3.90498 112.909 7.82084
10.244 98.6221 -11.525
10.1112 99.264 -11.7514
13.8393 76.2175 1.63448
0.749722 101.94 7.81042
-1.75379 124.544 -7.53693
12.9159 89.0348 -8.10506
7.2531 86.9443 7.0156
-1.51305 107.263 8.33612
-13.9743 141.663 4.93208
-11.986 146.599 -4.27939
-15.7752 146.464 4.6594
13.0317 88.8543 -7.92586
-9.39086 131.865 3.64333
-13.5719 141.497 4.36655
17.0533 77.1659 -6.16566
-4.11236 114.519 7.87385
-6.27844 119.82 7.9805
-10.485 136.843 1.88232
-11.2804 146.155 -4.96618
-6.88919 121.369 8.22287
-15.43 144.99 5.8645
-10.0228 143.973 -5.62327
-9.26749 129.638 6.09392
-14.5801 148.018 1.15943
8.39434 105.545 -12.0979
7.01851 107.902 -11.0635
10.4625 82.3019 5.02748
-5.51667 118.506 8.08415
2.36344 100.086 7.18789
4.67317 112.373 -9.65834
-10.1223 144.436 -5.46294
-3.96111 129.483 -5.60909
13.4827 88.3586 -7.3675
8.85502 104.821 -12.1031
-1.83575 125.876 -7.0948
3.32639 115.091 -8.92366
-10.057 136.647 1.89506
-15.1877 148.025 3.15452
9.8748 102.108 -11.7439
11.2674 97.6728 -10.8017
-3.79642 114.929 7.9006
9.43189 103.417 -11.9172
1.64373 119.55 -8.99315
-9.91839 144.395 -5.52665
-14.8341 144.344 6.05291
9.64874 102.987 -11.8066
-9.34494 134.58 2.59423
10.1894 83.2941 5.61495
1.92091 101.806 7.43847
14.8188 76.2291 1.6101
8.36711 86.4442 7
2.16236 118.328 -8.56442
3.22874 99.1384 7.0038
13.7102 88.8213 -7.56603
1.68499 102.419 7.57887
-14.6988 148.515 2.39492
-5.92512 135.388 -5.57541
0.574437 105.103 7.82517
10.3052 83.4497 5.70522
10.7381 82.787 5.32754
-8.06682 128.065 6.42813
11.4352 98.7335 -11.1517
11.5183 81.6098 4.74082
-8.61678 134.209 2.08219
16.4664 80.5806 -5.58125
8.67023 86.4137 7.06739
-7.25387 140.17 -6.48432
-9.39652 136.33 2.11818
3.94436 98.1772 7.06554
-5.90681 136.073 -5.55523
-1.56581 110.68 8.25559
-5.98006 136.382 -5.59959
16.6208 80.4908 -5.43778
-6.74092 123.627 8.23206
3.6018 99.7917 6.69587
7.57428 109.115 -11.2374
2.27919 102.563 7.20823
-12.1712 142.587 3.21987
9.0787 86.124 7.03072
14.0918 90.5035 -8.63529
-7.44913 129.444 4.72668
9.61134 104.773 -11.5797
13.989 78.3398 3.19408
-11.4202 148.446 -3.7716
0.665531 123.179 -7.97751
2.36544 102.935 7.14936
4.06968 115.706 -8.76447
8.19527 108.527 -11.5371
-13.6843 143.755 6.08549
0.0770617 107.81 7.96268
6.17685 94.6761 6.16965
-9.18361 145.379 -5.75191
8.96381 86.7522 7.33863
-13.1653 143.801 5.17191
-5.9457 123.172 7.87069
-3.5718 116.972 8.27819
16.3742 83.3072 -6.27742
-13.9502 149.271 2.20846
-1.31494 127.573 -6.65259
-13.2284 144.936 4.75275
7.92671 110.055 -11.3327
6.63082 94.7246 6.09564
-7.29441 133.637 1.82658
4.49086 99.4457 6.66112
-6.40998 127.147 5.91106
-6.3818 125.306 7.58973
6.53575 112.347 -10.1519
5.45577 114.082 -9.24142
-5.23472 121.808 8.38301
-9.99188 147.954 -5.12932
6.88019 112.095 -10.504
-6.27487 139.292 -5.45287
18.9208 78.0799 -6.33031
-7.45952 134.832 1.49509
-9.94309 139.99 2.46877
2.53276 104.628 6.83573
-8.54109 145.576 -5.95141
0.886362 107.873 7.61876
-12.905 149.493 0.524428
-13.5326 146.603 4.7844
-6.23289 139.48 -5.42982
-7.05788 131.771 3.73838
-3.71658 132.894 -5.03651
7.93099 110.865 -11.2872
-7.16214 132.901 2.99186
-1.44679 128.907 -6.43411
-12.6563 149.73 -0.0134987
-3.67512 118.763 8.31242
-1.91316 114.532 8.22791
5.27236 98.6051 6.55752
-7.01511 132.019 3.65143
8.34727 110.097 -11.278
7.20091 94.5395 6.00644
-0.416459 126.641 -6.37346
-5.8545 126.865 6.04068
-13.03 149.807 1.15682
-1.76025 129.996 -6.2826
-12.4564 150.033 -0.303372
5.20836 116.104 -9.32092
-0.11207 126.236 -6.49158
16.2064 86.7787 -7.1986
7.48082 112.302 -10.9251
5.76459 98.1458 6.36088
9.97263 86.6608 7.41822
-4.09291 120.552 8.20652
-12.0362 150.252 -1.18654
8.51244 89.507 8.34589
-4.16507 134.544 -4.54075
9.87332 87.027 7.55928
-12.306 145.677 3.88144
-9.13222 139.771 2.19462
-0.809649 113.09 8.02139
14.2963 94.6311 -9.58044
3.90799 103.582 6.14384
16.3923 86.6999 -6.85603
-4.30775 122.284 7.70016
-10.449 143.602 1.98909
8.38934 91.5777 7.21844
-6.04003 130.764 3.8869
-12.7571 147.15 4.08827
-3.73189 134.139 -4.56917
14.1715 95.4666 -9.72899
1.93224 123.246 -7.3686
19.0311 79.9218 -6.26626
-5.62603 128.124 5.63007
8.55766 110.947 -11.029
3.31079 105.824 6.04256
-7.15995 144.257 -5.67083
-1.9583 131.531 -5.66576
8.56848 92.0555 7.0972
-0.339042 113.394 7.7455
-12.5634 147.818 3.76198
-3.9588 135.282 -4.39976
2.69921 107.506 6.28399
3.37189 106.245 5.91036
15.5325 91.6759 -8.5716
9.59794 108.681 -10.7722
17.4266 83.5456 -5.30246
-2.30655 117.944 8.14008
11.7558 103.598 -10.8833
11.3818 104.457 -10.7385
20.351 77.4755 -6.16748
-8.18636 139.368 1.84115
7.90986 113.235 -10.8836
10.5775 87.0842 7.65026
11.3073 104.839 -10.6634
12.5607 102.303 -11.1679
-6.93795 144.733 -5.51829
15.6779 79.0484 3.79448
4.62676 119.027 -8.12825
-6.49433 136.47 1.28265
15.6117 79.2149 3.88824
-5.69026 133.548 2.25627
-10.2245 150.485 -3.10503
6.34033 99.9029 6.12999
-1.69785 117.878 7.99688
8.47119 113.131 -11.0894
1.06895 126.385 -6.36446
8.85266 93.3144 6.75489
17.0884 86.9344 -6.25803
19.6142 80.6577 -6.1789
-5.35387 140.992 -4.90021
6.38633 100.599 5.97451
-7.91921 140.083 2.10297
-7.06544 146.151 -5.56353
10.8775 107.051 -10.3973
8.70409 113.309 -11.0962
15.3159 80.5395 4.37014
6.79352 99.9852 5.93911
-0.557551 116.603 7.38092
13.317 101.995 -10.9464
-7.72235 147.784 -5.18908
15.922 79.5882 4.08996
16.2577 92.0731 -8.34745
9.9084 110.011 -10.4784
16.7881 78.2771 3.45094
20.4575 79.6597 -6.2936
-7.81116 148.114 -5.06521
17.8285 77.0849 2.23661
0.379243 115.55 6.55573
6.08383 118.003 -8.91655
17.3855 86.9171 -5.85097
13.7587 100.857 -10.5294
3.43176 109.174 5.6014
-4.96308 135.635 0.217995
6.59563 101.336 5.65508
9.85318 90.94 7.95482
1.10297 114.264 6.37355
-8.93588 144.125 1.63025
-3.94934 138.675 -4.71261
21.2096 77.9324 -5.94174
-4.53327 131.303 3.60739
10.0555 90.2327 8.42159
16.534 91.9238 -8.15766
-2.13531 134.11 -4.46037
-4.74388 133.393 2.2572
12.8468 103.849 -10.7315
6.21567 103.408 5.11175
3.00761 110.683 5.75863
0.575262 115.95 6.45466
17.6589 87.7986 -6.63744
10.8662 108.436 -10.2733
-8.15144 149.394 -4.5847
-8.52565 149.982 -4.24397
11.3672 87.9416 7.97986
2.14329 125.996 -6.35937
17.3581 89.0953 -6.93904
-4.41539 132.599 2.67374
4.93867 107.437 4.70567
15.8512 95.2091 -8.98215
-5.01165 142.148 -4.65769
-2.84851 136.181 -4.02727
1.95766 113.989 5.76644
11.0364 88.9562 8.35453
3.96211 122.538 -6.7762
2.36544 113.192 5.70534
-5.77081 144.401 -4.75109
17.294 90.7529 -7.79795
-4.22387 140.399 -4.56379
15.1557 97.8893 -9.41468
3.67993 123.259 -6.60704
5.54803 106.766 4.65459
9.27726 114.294 -11.0359
1.55092 115.449 5.78873
-10.9561 150.645 1.72931
8.12304 116.389 -10.2489
-4.05056 140.379 -4.5029
-2.28296 135.619 -4.11258
9.46054 95.6132 6.34633
-8.38198 144.911 1.42903
-4.21825 136.284 -0.0978561
20.4568 81.8362 -6.11965
-6.41101 139.706 1.80126
-4.22814 141.049 -4.49361
-8.74285 145.856 1.46619
12.2008 106.854 -10.3155
9.02195 97.9667 5.49262
-3.72296 131.375 3.67348
11.9049 107.686 -10.2093
4.10185 123.125 -6.55927
-6.58943 140.824 1.63269
12.0877 107.379 -10.2138
20.1477 83.0819 -6.04053
-6.55308 140.972 1.55958
19.3171 84.3405 -5.10062
-2.50693 136.932 -3.87957
13.3748 105.019 -10.6871
4.41439 110.989 4.48125
3.91405 123.819 -6.37845
16.7737 94.6091 -8.70348
-9.05945 147.276 1.69403
-3.64098 134.675 1.02932
8.80697 99.6075 5.18469
-9.22218 151.708 -1.9586
1.1431 129.705 -5.29098
8.19974 117.296 -9.97516
17.8816 91.0546 -7.57522
3.89196 112.578 4.73861
4.00297 112.422 4.6612
20.8941 82.4313 -6.30286
4.93893 110.525 4.28079
2.10877 127.936 -5.4728
-2.48227 127.029 6.03242
-2.007 125.272 6.60723
-3.32953 129.904 5.43405
-9.50782 148.972 1.84947
-4.60088 143.518 -4.36724
1.22916 117.867 6.24618
11.4473 110.553 -10.5035
4.02616 124.379 -6.18234
-2.42768 127.422 5.97218
13.5308 105.77 -10.6629
18.674 78.2601 3.37724
-1.33533 135.582 -4.08637
14.4621 85.3574 6.48192
-0.824691 122.285 7.23811
-4.52788 140.238 -0.972264
-8.90541 148.287 1.61307
8.33856 117.9 -9.77419
18.6037 87.4317 -4.94099
3.58424 114.546 4.46477
-8.31888 151.526 -2.59852
8.61013 117.409 -9.77084
1.8101 129.331 -5.1806
11.7049 90.1763 8.74532
1.71488 118.007 5.7809
11.3958 91.0382 8.71092
9.40466 116.251 -10.1707
-5.14986 141.89 -0.502295
12.6005 108.484 -10.1645
11.6377 111.609 -10.8153
10.1447 97.1017 6.30441
-5.32409 146.686 -4.39724
3.38391 115.788 4.45865
13.2148 87.9398 7.86444
-4.38155 139.518 0.230699
-7.82966 146.982 1.21427
-5.00738 140.231 1.01999
-5.50117 141.823 0.761193
4.36336 114.107 4.03036
21.4468 82.9844 -6.2974
-2.69801 140.224 -4.04103
-3.7267 142.899 -4.10785
-4.8566 141.342 0.0262317
11.1007 93.5423 7.95117
-4.59795 141.874 -0.989256
10.1547 98.0342 6.01291
20.2041 85.6657 -5.63158
20.7636 84.5297 -5.71994
15.1585 85.5676 6.34002
5.3706 112.351 3.91721
8.61609 118.651 -9.47902
22.153 81.7738 -6.19776
15.9299 84.3369 5.85607
-4.90176 142.274 -0.207707
8.73404 103.578 4.56116
4.40102 115.071 3.87218
14.9985 86.0256 6.61361
2.93144 117.796 4.77079
18.4603 92.3715 -7.26023
9.05205 102.96 4.61077
6.54631 109.767 4.03025
-0.791113 125.047 6.70493
10.8726 95.9371 7.11504
18.9211 88.7082 -4.70366
0.574605 133.43 -4.19471
-4.98205 147.136 -4.15681
-9.03298 151.112 1.62336
18.2093 80.5678 4.769
-4.72558 146.537 -4.01226
10.9254 96.2162 7.07645
3.67732 117.308 4.17072
10.018 116.59 -9.80917
-6.17144 150.361 -3.95752
5.88191 123.146 -6.31976
18.5011 92.9799 -7.20501
-8.68802 150.887 1.49812
5.78428 112.828 3.80199
0.873692 133.401 -4.11664
-8.03265 149.67 1.24508
18.2345 94.818 -8.04615
1.23295 132.785 -4.27138
20.3048 77.9857 3.00732
-0.191335 125.188 6.26131
22.9641 81.4806 -6.1425
-4.78347 147.68 -4.00824
16.1836 102.336 -10.0013
1.22369 123.205 5.16391
-0.879449 127.033 6.45923
-8.75031 153.467 -0.118166
12.1596 92.5958 8.64609
0.894577 123.876 5.42379
-8.37385 151.876 0.639919
-6.99516 152.138 -2.78561
16.1726 85.371 6.27403
11.8185 113.868 -10.365
-0.381541 136.906 -3.71955
11.0658 97.7279 6.62677
18.2537 95.7657 -8.1694
7.23867 110.238 3.87447
-6.76722 152.124 -2.93142
8.44198 107.045 4.20587
-1.68717 135.204 1.30968
12.4775 92.3985 8.69351
9.68678 103.61 4.75203
-5.34165 149.837 -3.79984
8.24929 120.742 -7.89108
20.4591 88.0192 -5.44713
19.9219 79.3292 3.97902
5.14028 116.237 3.57032
-5.17056 149.508 -3.77639
19.0462 93.1053 -6.90239
12.0165 94.3152 8.26293
5.14111 126.094 -5.56543
22.8071 82.4184 -5.41395
21.6191 85.4647 -5.45925
10.0642 102.896 4.99396
12.6004 92.665 8.73501
19.3214 90.9392 -5.21407
13.1285 91.2388 8.86061
-2.00019 138.577 -0.460783
0.520015 125.783 5.74928
1.67494 133.72 -4.27073
15.9183 105.064 -10.3575
9.69589 104.417 4.6818
7.93126 121.308 -6.97174
0.289914 136.75 -3.71629
4.97844 127.051 -5.44903
19.695 80.5417 4.40864
11.7794 115.118 -9.65882
9.08365 107.146 4.21182
2.23726 133.457 -4.57623
11.5832 115.695 -9.48573
17.1931 85.0846 6.37229
-5.39354 151.064 -3.24371
11.6714 98.3018 6.81672
-5.4267 151.164 -3.20923
19.1469 94.8494 -7.22978
-3.999 148.033 -3.50718
17.5511 101.056 -9.30625
12.6142 93.9581 8.81129
10.8017 102.008 5.45195
18.5757 82.6929 5.5915
-7.77476 153.245 0.400221
10.4 118.523 -8.99472
17.7603 84.2959 6.10339
4.62858 119.454 3.51254
18.6331 97.2376 -8.06974
12.1316 114.954 -9.56176
7.18785 113.257 3.57374
-6.18496 152.657 -2.40661
2.06963 134.384 -4.35339
19.6289 93.529 -6.65678
3.79549 121.425 3.83904
-2.9853 142.589 -0.286228
19.893 81.2436 4.5284
-0.542724 131.733 4.49766
5.21304 118.732 3.37826
10.2834 119.444 -8.98859
10.4673 104.212 4.94363
22.3424 84.9353 -4.39526
16.0993 106.59 -10.1708
15.2017 89.3165 8.14081
-1.42032 139.331 -0.314197
18.1824 100.081 -8.83188
22.7147 77.1448 2.28666
12.3688 96.6761 7.91586
-0.404548 131.542 4.77642
6.35113 126.094 -5.75139
3.16473 133.209 -5.05128
-7.48557 154.147 -0.0366782
22.279 85.3514 -4.36003
14.8838 109.38 -9.7757
12.0631 98.6142 6.94048
14.1845 91.4092 8.86028
-4.91432 151.308 -2.96774
9.61417 107.916 4.22484
-0.977197 137.949 0.566315
18.0258 101.804 -9.48391
13.8531 92.5907 8.94258
19.1421 97.3177 -7.64251
17.435 86.2215 6.82248
19.5164 95.4394 -6.63818
18.5694 100.042 -8.75435
-3.24922 148.112 -3.32708
19.2254 97.171 -7.47376
25.1655 80.1731 -5.25058
9.28518 109.696 3.91511
13.7641 93.4476 8.96435
21.7608 88.7042 -5.07241
0.381538 139.981 -3.68374
12.3838 99.3254 6.87256
-0.524529 137.221 1.19669
1.62609 137.416 -3.86535
21.4868 89.755 -5.04245
14.0857 93.1265 8.98888
7.74162 114.917 3.33494
3.16805 125.166 4.4066
11.7939 118.022 -8.86436
17.1544 105.994 -9.98607
3.76581 133.951 -5.18062
11.3496 104.244 5.24198
5.84854 120.235 3.08698
4.61715 132.49 -5.55763
22.954 85.3749 -3.77387
23.7683 83.9737 -4.32522
-1.99223 143.051 -0.0644511
-0.177642 136.806 1.59774
5.45648 121.214 3.20934
14.4803 113.632 -10.5517
2.3552 127.536 4.57488
12.7048 117.251 -9.73522
18.2407 102.79 -8.97629
9.08994 111.909 3.68836
25.0161 82.1335 -5.22404
4.50257 123.379 3.57275
17.5898 105.5 -9.81886
13.9667 115.025 -10.3498
22.987 85.6986 -3.67199
14.2356 93.7845 9.03036
-4.54667 152.454 -2.52823
12.9636 98.5991 7.66531
11.0042 106.584 4.73684
-5.40628 153.766 -1.51733
2.93901 127.039 4.29077
2.79177 127.448 4.30072
20.0555 96.0884 -6.09493
9.47214 111.758 3.71984
20.0559 96.2124 -6.17189
11.0784 121.135 -8.77691
23.7881 84.4219 -3.66562
13.005 118.093 -10.2863
17.9896 104.85 -9.34864
22.6163 80.0067 3.33331
24.8749 83.2707 -4.93384
3.03947 136.938 -4.71608
26.2506 79.8315 -4.77313
4.96219 133.415 -5.70163
8.37927 127.013 -7.58291
0.9068 141.357 -3.63103
19.4001 100.745 -8.22602
12.2379 119.503 -9.20433
22.8615 88.2171 -4.34849
5.97888 132.013 -6.33732
1.62539 140.218 -3.92344
18.0851 105.312 -9.23279
13.0042 100.939 6.74605
1.04808 141.563 -3.61278
22.9024 88.5031 -4.41344
2.17927 130.192 4.60424
2.72681 129.197 4.28645
17.7026 107.161 -9.68811
6.31153 131.95 -6.54537
4.33937 135.948 -5.55013
12.302 104.567 5.49359
23.8864 85.4153 -3.23108
20.9062 93.9565 -4.31165
26.7304 79.9787 -4.6159
-3.25945 151.758 -2.53947
21.1711 92.828 -3.78494
1.47407 134.317 3.10162
10.9844 125.452 -10.6054
0.49527 139.508 0.706086
24.2075 79.0318 2.59249
24.4186 78.7132 2.45259
-3.23252 152.172 -2.43863
20.249 99.8119 -7.6225
11.8395 124.033 -10.7887
19.9782 100.746 -7.7299
11.1013 110.024 4.26374
3.37461 129.301 4.07616
15.3105 115.131 -10.2655
0.584142 144.179 -3.39186
-4.05904 154.116 -1.94258
0.952172 143.462 -3.43665
3.76039 138.398 -5.13492
21.2671 93.98 -3.96619
10.9598 110.834 4.11804
6.31349 123.89 2.69352
2.10384 132.13 4.81749
3.17634 130.314 4.09971
0.230553 142.217 -0.223882
22.6343 82.9132 3.672
1.08358 143.789 -3.46244
17.5074 90.8859 8.18458
12.1124 107.821 4.93354
23.9602 81.0547 2.66658
20.8894 98.7807 -6.74165
14.8611 117.463 -10.2954
14.0463 100.101 7.98655
-2.63052 152.319 -2.33225
-2.12973 151.295 -2.48132
8.49861 119.284 2.98477
13.0694 122.525 -10.6399
6.94925 133.777 -7.00774
23.8232 81.7759 2.76554
15.3345 116.818 -10.4062
25.8858 84.3283 -4.32175
-1.78047 150.797 -2.56776
7.20986 133.508 -7.01108
1.67367 137.679 1.92098
26.8233 82.4896 -4.50325
2.24314 142.573 -3.95148
14.1567 100.697 7.79237
1.09552 140.621 0.560692
7.02945 123.868 2.5571
4.45747 138.932 -5.39537
2.47285 142.44 -4.05659
21.5334 95.8622 -4.44188
1.35784 140.069 0.848235
14.527 119.123 -9.8407
7.92226 122.334 2.57268
19.3487 104.3 -6.89864
14.0913 102.498 6.98509
11.4524 127.961 -10.7931
22.6724 83.7235 4.79046
10.7629 114.327 3.75819
25.1094 85.6059 -2.50599
12.0743 127.042 -11.1857
20.861 100.845 -6.91045
10.8256 114.227 3.79489
14.6137 119.551 -9.9459
24.1245 89.5881 -3.83276
9.48305 130.407 -8.19899
2.92839 142.379 -4.25101
14.65 119.433 -9.72341
20.6043 101.515 -6.63585
19.3029 105.222 -7.09499
13.1532 124.746 -11.0879
2.85402 142.883 -4.18507
16.6856 94.8759 8.85887
-2.116 152.995 -2.15849
7.23356 125.104 2.43166
19.7799 103.714 -6.26366
13.4884 123.955 -10.6615
19.3205 105.895 -7.18315
-0.870575 150.939 -2.70175
3.69058 141.763 -4.60152
10.4149 116.829 3.30152
14.9116 99.9575 8.72847
14.8143 118.113 -8.06989
19.3069 106.424 -7.36424
22.0787 96.9829 -4.68936
22.7316 94.299 -3.67166
17.0983 114.558 -9.59095
15.1194 99.7978 8.89225
16.3706 116.407 -9.59602
12.0657 128.694 -11.1373
15.3091 117.44 -8.01217
25.4063 86.1017 -1.95097
4.95933 130.387 3.96038
14.912 120.591 -9.77974
16.1721 116.365 -8.67426
0.116309 149.95 -2.94914
10.2846 118.362 3.20457
17.4742 94.772 8.74479
6.15866 139.183 -6.64561
19.1898 107.555 -7.10728
6.77024 138.586 -7.42131
26.6831 79.1487 2.2666
16.5975 96.9661 8.98656
18.1418 111.412 -8.15012
10.535 131.836 -9.6075
23.0111 84.921 5.7511
8.631 134.445 -7.42664
16.7025 97.0393 9.01404
4.87097 131.606 4.05838
18.8092 109.248 -7.23198
27.5291 84.1383 -3.84595
12.4314 112.66 4.39059
13.7481 126.129 -11.2967
28.4273 81.5881 -3.43384
1.72834 143.368 0.499128
23.2964 94.6121 -3.57171
16.3321 98.1026 9.30459
9.12643 134.152 -7.79389
19.5923 107.11 -6.50307
10.3541 132.768 -9.12762
16.6367 116.051 -7.96711
17.6555 114.728 -9.06905
9.72631 121.725 2.76323
17.6304 114.85 -9.07058
17.6162 114.928 -9.06834
6.15028 140.523 -6.39757
15.0529 104.259 7.06991
18.4869 94.1855 8.70038
7.65245 127.822 2.23087
16.9411 116.029 -8.13792
7.79095 138.296 -7.80619
14.4304 124.498 -10.199
26.1987 81.6318 2.88829
6.65954 140.426 -7.02158
3.04548 146.185 -3.91994
29.2163 80.4184 -2.77464
28.1392 84.048 -3.66569
21.4784 102.031 -5.1103
12.9554 112.798 4.61539
29.3049 80.2502 -2.66788
2.78784 146.833 -3.73411
7.25787 129.586 2.11786
8.51144 126.521 2.20668
22.3928 87.2257 7.05883
22.1971 100.937 -5.24147
16.6539 99.2979 9.19039
25.3684 84.272 3.12198
15.0638 123.532 -9.87061
27.714 85.3581 -3.32165
15.0654 123.539 -9.86077
22.9943 98.3738 -4.59691
7.49912 129.47 2.10709
11.9287 132.237 -10.6472
12.7664 130.541 -10.9774
14.9493 123.885 -9.76763
8.49935 137.899 -7.93428
7.27702 130.304 2.08661
20.8557 90.5917 7.93094
6.56535 141.304 -6.56027
16.6846 99.628 9.18421
28.9951 81.7722 -2.5369
14.9159 107.053 6.34974
8.33423 127.87 2.14138
19.5697 108.309 -5.5181
26.9141 84.5232 -0.165857
13.3366 112.785 4.79846
10.3549 134.494 -8.67547
24.1864 85.5514 5.32322
3.40594 141.084 1.35198
14.6135 124.553 -9.07236
17.4526 115.553 -7.16743
10.5458 121.969 2.84522
11.015 133.724 -9.25711
2.86053 147.843 -3.59881
20.9193 90.9718 8.01243
8.53552 138.708 -8.03958
15.9175 118.481 -6.1204
28.0413 79.2966 2.60331
8.67574 138.416 -8.03175
14.4517 109.323 5.9242
2.24354 144.706 0.988494
14.4792 109.346 5.93891
22.6516 100.742 -4.87811
26.7607 87.2114 -1.66857
26.1253 88.0237 -0.924675
20.4575 92.2067 8.32133
26.1463 88.5299 -1.33268
14.5981 123.87 -7.75398
7.24538 141.496 -7.26463
1.4237 151.425 -2.97304
27.4773 80.7598 3.14897
27.9283 85.4971 -2.27449
21.4288 90.624 8.0048
26.9699 84.8945 0.619482
9.34579 137.771 -8.19691
26.7656 83.0227 2.87298
27.6195 80.7275 3.12965
8.33331 129.559 2.0058
11.3621 134.417 -9.57285
17.7136 115.117 -6.14209
16.4536 101.959 9.14465
18.348 115.083 -7.55262
28.5514 84.9028 -2.84256
26.2721 90.0032 -2.25032
22.3878 89.2118 7.51047
27.4901 86.3698 -1.61792
14.5527 128.151 -10.8272
12.686 116.891 4.07933
19.8512 109.243 -5.25747
25.3306 93.3715 -3.0268
5.7023 144.308 -5.31659
4.69349 145.881 -4.45035
13.8782 130.092 -10.8932
28.342 84.4905 -1.52562
9.38379 138.629 -8.36333
18.8854 96.9239 8.88314
10.2376 137.292 -8.94254
17.9038 99.2628 9.06687
9.96354 137.868 -8.76743
24.8723 86.3503 5.11073
29.1434 83.5565 -2.1454
19.3514 112.53 -6.61408
6.75054 143.323 -6.32445
13.7987 113.732 5.14859
11.7839 134.704 -9.87277
9.31942 139.31 -8.41492
24.6452 95.43 -2.70789
25.9889 91.9029 -2.44785
21.3169 92.0316 8.29845
11.089 136.366 -9.59423
15.3727 124.001 -7.87747
10.2683 125.723 2.34155
19.5173 112.382 -6.53052
6.35223 135.523 2.25069
7.16549 133.433 2.37841
17.6778 115.506 -5.09196
27.674 82.1165 3.20712
24.3992 96.2922 -2.5142
12.7269 118.04 4.11898
23.9884 98.9829 -4.06452
24.2469 97.2345 -3.01279
26.9561 85.7515 1.50919
20.932 93.4566 8.42385
25.8581 93.276 -2.78226
5.42113 138.249 2.39798
10.9417 137.397 -9.59216
27.1406 85.1177 1.98089
6.83297 144.04 -6.30095
1.29789 153.514 -2.37173
27.0173 84.5874 2.86665
23.4389 88.9156 7.31885
20.0635 111.314 -5.8555
5.39138 138.969 2.16742
5.85 137.811 2.19243
24.5035 97.1359 -2.81242
20.4964 95.2437 8.28506
22.4932 90.8189 7.85748
28.2454 83.4232 1.55479
4.01123 143.711 1.10799
23.4393 101.008 -3.79779
16.004 107.238 7.60713
14.6385 129.995 -10.5946
27.4483 85.0088 2.02749
3.38247 150.15 -3.37157
15.8164 123.437 -7.04908
19.7173 112.978 -6.24216
24.3597 87.4943 6.93662
15.1604 126.301 -8.18813
13.0892 118.136 4.35138
26.0399 93.5639 -2.48508
2.29886 152.642 -2.92503
15.1781 127.055 -8.72857
7.61689 133.788 2.48603
3.59564 144.888 1.42498
18.554 99.8634 9.05914
23.4905 89.4751 7.39638
15.8027 124.778 -7.88487
16.0817 123.021 -6.86351
29.2496 82.6462 0.652582
15.0326 129.499 -10.3806
29.1354 83.0471 0.671654
27.7662 84.209 2.77227
26.0968 93.867 -2.41128
4.3261 143.583 1.36018
28.3126 83.6322 2.09992
14.8991 112.089 6.53583
20.5515 96.3871 8.23427
28.5015 84.7785 0.761975
29.3173 82.6293 0.949401
26.176 93.8142 -2.25854
23.7017 89.664 7.38979
14.0687 132.412 -10.412
18.1574 115.614 -3.90082
29.7218 83.603 -0.574346
15.4618 127.132 -8.40516
18.6068 100.822 9.06145
9.01434 142.695 -8.03727
16.8723 120.889 -5.71277
28.7742 84.6019 0.8056
15.9878 108.881 7.64997
15.8963 109.291 7.48087
19.6919 120.714 -11.8741
8.1015 134.013 2.54069
6.57194 138.932 1.49169
6.55413 146.589 -5.58853
25.9079 95.3643 -2.18366
8.39613 133.697 2.39553
23.3112 91.2481 7.76724
11.6061 125.418 2.81004
28.4274 83.9409 2.79403
5.18562 142.387 1.75707
27.7106 86.0572 2.60495
10.7309 128.383 2.29384
26.2377 94.9235 -2.20891
11.5801 139.297 -9.82058
2.10913 154.201 -1.82822
15.7643 110.689 7.41681
18.1932 122.685 -9.37344
14.5973 115.21 6.07031
25.2529 98.6717 -2.97887
25.0405 88.7653 6.87716
2.22437 154.284 -1.76413
16.6438 123.859 -6.57351
8.53385 144.78 -7.39152
28.3393 87.6388 0.388637
18.485 123.189 -10.1644
18.184 123.115 -9.38961
18.059 117.344 -3.62596
11.6147 126.551 2.692
26.7243 93.5992 -1.36566
7.3062 138.425 1.57822
15.2477 113.019 7.05029
28.5826 87.4767 0.164096
21.9864 95.2811 8.12763
23.7816 102.487 -2.77397
27.8742 90.0652 -0.466084
21.1987 109.501 -3.24251
15.4831 112.316 7.42423
24.951 89.4387 7.10329
26.7574 86.8939 5.32916
19.1176 120.724 -8.62559
6.90002 147.588 -5.54313
16.7983 125.681 -7.86291
25.4245 99.2076 -2.93874
27.929 86.9681 2.77974
15.5739 127.951 -7.07811
15.6396 127.414 -6.6955
19.4973 114.57 -3.50796
16.7055 108.743 8.45287
29.4967 83.2623 2.75333
27.5366 91.7633 -0.629901
16.8648 125.041 -7.13198
2.73635 154.298 -1.83823
16.9998 124.953 -7.31955
16.7349 126.072 -7.74422
7.45023 138.953 1.67183
22.2094 95.7339 8.06797
18.9213 124.382 -11.1966
14.8069 132.836 -9.57045
10.3958 131.631 1.78484
6.01981 149.188 -4.50903
14.3701 134.749 -10.2182
21.5161 108.829 -2.41261
15.9066 127.346 -6.79723
5.81232 149.564 -4.26973
11.3537 141.222 -9.23623
2.69837 154.523 -1.63881
16.2949 129.232 -9.36478
17.0469 108.225 8.64443
17.7024 125.71 -9.19705
25.7921 98.6852 -2.52929
9.66266 133.744 1.94611
22.7319 94.9242 8.14684
20.378 123.771 -13.4373
15.0135 128.35 -5.24752
18.7959 121.905 -7.88524
15.6173 129.703 -7.72281
16.8505 124.915 -6.06412
19.7004 124.891 -12.5985
12.7113 125.274 3.36271
30.0109 82.7901 3.20076
27.9503 87.1791 3.88699
5.91438 144.364 1.25479
25.4542 90.1224 6.95239
3.86824 153.626 -2.60111
19.528 102.315 9.30527
24.4787 91.9642 7.56713
16.1917 111.982 8.07086
14.7299 130.021 -5.458
14.5219 135.697 -10.2668
18.4608 125.287 -9.60874
15.0472 116.109 6.9327
21.1125 113.386 -4.48646
31.2994 82.1395 1.258
23.9398 104.087 -2.29823
13.6374 121.635 5.168
27.5476 90.9602 1.80291
20.3703 114.106 -3.30006
18.5166 125.732 -9.89549
27.4531 91.2294 1.84949
16.1096 125.733 -4.24063
21.4529 122.093 -13.1842
16.3257 130.393 -9.07001
27.331 89.6 3.84734
9.31333 146.051 -7.41655
9.27638 146.185 -7.34799
14.9799 117.174 6.71827
15.3798 129.826 -6.07188
15.6042 127.243 -4.15806
18.2864 125.691 -8.88861
21.765 98.3724 8.7824
19.8316 114.911 -2.241
18.986 117.027 -2.19641
27.791 88.1417 4.58228
14.5279 136.664 -10.2353
16.109 131.097 -8.67001
17.1656 109.794 8.90424
27.2243 90.3954 3.83355
15.6196 131.36 -7.6852
15.6321 133.167 -9.27762
23.963 104.856 -1.99101
31.1615 82.2637 2.66753
15.0015 131.112 -5.76394
18.1902 128.035 -10.245
14.7774 118.621 6.55712
9.61508 136.824 1.43131
14.0912 121.097 5.88173
12.1065 141.832 -8.98928
13.7487 122.368 5.5842
26.1789 90.7554 6.53405
21.4076 123.469 -13.0907
15.3965 131.682 -6.76618
22.2319 109.478 -1.71266
15.8591 127.079 -3.41204
7.0687 143.897 1.2163
21.5101 123.531 -13.0488
24.3473 104.549 -1.71309
20.0653 120.645 -6.89215
21.9017 122.619 -12.9806
13.8621 122.481 5.7835
8.6944 148.212 -6.3646
20.7563 114.122 -2.27454
16.6489 130.092 -7.75207
17.9354 125.982 -6.85989
15.8944 133.617 -9.27711
19.5688 117.815 -2.81585
13.8209 123.601 5.25356
21.798 113.197 -3.44593
27.2886 96.9872 -0.88345
18.1594 123.585 -4.63107
20.2939 120.366 -6.55266
20.3972 114.665 -1.43016
16.0494 133.73 -9.22571
10.6951 145.147 -7.54089
17.9262 127.006 -7.21962
18.3844 129.657 -10.715
12.5477 142.027 -8.73963
12.5805 129.3 3.2355
18.0312 130.411 -10.4243
15.9134 126.879 -2.16814
14.4955 138.014 -9.33286
22.8269 108.11 -0.544652
17.2376 131.382 -9.43762
17.1262 128.921 -6.79377
5.90965 152.84 -3.26528
6.72425 151.594 -3.89315
16.515 132.868 -8.88647
22.8358 108.548 -0.63045
15.4358 132.411 -5.88081
27.0714 98.6201 -1.06432
26.8781 92.1412 5.49809
16.7406 113.7 8.75526
27.296 91.8903 4.79828
22.5432 99.5149 8.67189
23.3945 97.9115 8.2489
9.08772 140.007 1.8787
19.268 106.537 9.74287
15.8872 126.981 -1.62133
23.9377 106.386 -0.921108
14.9171 137.834 -9.5517
28.2212 94.5489 0.386531
6.81634 151.918 -3.82863
19.322 121.426 -4.14984
12.9476 142 -8.68257
5.80427 148.26 1.99431
19.0332 107.59 9.61692
8.45694 142.453 1.38689
18.9618 123.153 -4.75286
26.7011 94.5898 4.17285
20.0338 128.231 -11.9689
18.5026 126.285 -6.58023
16.0596 134.166 -8.23738
10.3047 137.926 1.65487
22.7213 110.683 -1.52419
21.0625 126.409 -12.4127
14.043 124.905 5.3792
17.628 112.017 9.23154
17.6569 128.007 -5.83767
19.4318 107.092 9.75336
16.8292 133.758 -9.23125
25.3506 103.653 -0.660015
20.055 105.908 9.53405
28.1281 95.4123 0.742839
17.4484 133.222 -9.94862
16.7086 126.314 -1.7218
21.9435 119.305 -7.14318
9.59104 140.181 1.8807
17.2231 113.639 9.14203
23.2875 99.9717 7.93314
13.7256 141.171 -8.42559
16.151 132.775 -6.12418
22.6376 101.155 8.58205
17.5177 126.187 -3.04341
22.7785 111.619 -1.54743
14.4616 139.413 -8.37344
23.009 110.491 -1.00008
26.2473 95.2654 5.79773
16.7583 115.379 8.95568
21.7832 125.573 -12.1326
20.2102 120.831 -3.98874
18.874 123.452 -3.31507
20.3646 118.867 -2.4515
28.4648 94.9706 1.2943
21.2723 120.05 -5.58449
27.3457 98.0605 1.01176
19.0892 125.666 -5.74285
17.4899 130.536 -6.61037
17.2902 130.192 -5.70889
17.697 129.386 -5.80395
19.2809 123.094 -3.53816
19.127 124.321 -4.323
14.8656 121.994 7.78469
19.8872 107.623 9.70962
24.9533 104.93 0.539425
25.0418 97.5183 7.34802
17.9213 125.138 -2.04701
26.4442 101.325 0.588035
15.25 120.929 8.18747
16.5793 132.561 -5.77951
25.6033 103.265 0.83821
6.96679 148.533 1.52975
9.67032 141.7 1.69528
17.013 129.814 -4.07474
16.2824 134.808 -7.06966
18.7035 126.334 -4.55872
28.287 95.7068 2.00659
22.3341 103.196 8.808
26.4346 101.446 1.02365
27.5339 97.7799 1.94934
27.8489 96.8379 2.12089
17.7055 130.902 -6.36175
5.93706 154.609 -1.35426
22.0852 119.688 -5.93619
26.8008 100.594 1.11214
23.543 109.35 0.446881
17.7543 127.764 -3.42623
25.2861 103.983 1.47941
7.97781 152.362 -3.85131
26.707 100.537 1.5451
13.7525 142.863 -8.14847
14.171 127.443 5.4065
21.9608 126.693 -11.9189
19.3432 123.206 -2.5263
17.5698 129.139 -3.93086
18.1758 132.089 -8.09226
14.5912 124.703 7.15388
12.5908 134.225 2.93205
27.085 96.2653 5.05079
19.3671 126.037 -5.02369
19.3267 123.306 -2.35841
19.6128 125.933 -5.44277
27.0761 96.9211 4.54576
8.61384 145.821 1.41332
26.932 97.3393 4.50812
23.7556 108.712 1.19072
18.3011 131.7 -7.73596
23.2876 111.872 -0.634133
5.73286 155.392 -0.829184
24.2168 101.112 7.35171
27.7953 96.384 3.51648
23.151 102.793 8.27588
22.8489 124.712 -11.5241
20.9458 117.657 -0.468617
21.3664 120.703 -4.2647
20.8719 119.378 -1.86947
16.2696 136.67 -7.44541
13.9996 128.391 5.59871
19.7126 123.653 -2.99643
8.43018 146.935 1.31306
7.71709 152.996 -2.67949
13.5173 131.159 4.41408
17.6496 131.632 -5.58345
22.5176 104.776 8.43924
17.9979 115.073 9.25238
10.5168 149.483 -5.63197
10.2059 142.474 1.68694
10.7621 149.099 -5.80974
18.3991 125.398 -1.19109
25.2766 100.172 6.57283
9.76331 143.957 1.47657
13.7974 130.121 5.16853
18.2396 134.195 -8.9475
21.2143 107.728 9.03755
10.9131 140.838 1.82892
13.8364 128.703 6.46263
26.3798 99.4559 4.99039
19.4737 124.644 -2.66165
12.5917 135.465 3.19968
14.8704 124.634 8.12526
24.9248 101.194 6.87728
17.0342 137.313 -8.74764
25.4763 100.31 6.46854
23.6014 103.523 7.87544
22.5459 124.88 -9.7004
24.9883 101.25 6.83979
26.4778 100.506 4.09247
24.5175 102.019 7.24955
9.66807 150.997 -4.19952
22.7788 126.168 -11.2102
20.0732 123.377 -2.31894
15.3927 140.729 -7.76773
11.7682 139.165 2.10629
14.0371 143.988 -7.64941
23.0392 125.219 -10.8488
22.4272 123.759 -8.0584
12.5306 136.691 2.72846
14.4831 142.993 -7.62509
13.8836 128.795 7.10846
21.9507 125.559 -8.45277
18.366 131.931 -6.12157
21.4777 116.361 1.32048
19.1456 113.552 9.36697
12.9369 134.524 4.05931
24.9776 101.845 6.91325
22.8742 125.898 -10.788
16.5483 138.854 -8.2373
24.1477 103.356 7.52645
20.9825 110.226 8.44724
21.1655 120.097 -1.23121
18.0318 134.392 -7.37782
26.1287 100.443 5.7505
20.2238 122.834 -1.55647
24.1897 109.278 1.99954
9.78404 151.111 -3.85833
25.9961 101.457 5.26609
25.9369 100.568 6.2407
18.3434 126.28 -0.27062
9.59582 151.486 -3.58541
20.8321 120.011 -0.0117611
26.0077 101.408 5.47982
21.0669 130.958 -10.8157
18.6047 126.226 -0.645594
14.701 143.102 -7.44946
21.7412 120.419 -2.4503
17.0836 137.429 -7.61502
21.1915 121.018 -1.71318
11.4603 141.237 1.86007
12.5511 137.816 2.55552
17.9372 130.905 -3.40103
13.6001 131.36 6.23781
17.4618 136.535 -7.42469
12.7294 136.842 3.28993
15.905 123.514 8.48974
21.3123 130.762 -10.8338
22.1081 126.139 -8.32565
24.5782 105.653 5.22392
22.1205 115.35 1.81225
18.9919 115.019 9.37929
18.5698 134.952 -8.24345
21.9505 127.992 -9.48324
25.5871 105.169 3.53524
20.1474 119.64 2.57767
12.2258 139.454 2.33518
14.3895 144.331 -7.21619
23.4463 107.235 6.65216
22.4567 119.891 -2.8906
9.52076 151.965 -3.03607
19.5139 134.827 -9.95744
21.2577 121.126 -1.07413
25.632 105.314 3.67045
25.9278 103.989 4.24851
22.6157 109.02 7.21788
25.4526 104.683 4.72377
25.7089 104.864 4.00798
18.3179 117.564 9.23153
25.0651 105.917 4.59703
18.5987 116.907 9.33114
18.9946 116.194 9.12592
21.1092 118.747 1.84146
12.2072 140.173 2.43503
13.0202 135.865 4.74316
19.2569 126.181 -0.585218
19.654 125.176 -0.547655
22.7932 119.686 -2.65721
9.87264 146.951 1.7078
12.661 139.044 2.73837
22.1583 129.151 -9.9461
25.4559 106.162 4.0225
19.6552 125.269 -0.423874
8.08371 154.067 -0.646951
21.2074 112.472 8.05834
17.4509 120.793 8.97988
19.4846 125.556 -0.199484
14.7904 129.268 7.28949
20.2889 120.906 2.45038
13.0393 136.807 4.31993
21.3427 121.611 -0.592772
15.781 126.702 7.53147
18.8911 126.821 0.227779
25.5813 106.963 3.4275
10.5004 146.047 1.75416
16.2688 124.66 8.47672
19.0358 117.286 9.01542
22.2144 111.526 7.07595
15.064 129.008 7.37144
21.3632 121.585 -0.220017
11.1296 144.782 1.82073
21.1159 118.997 2.95368
13.3066 135.753 5.3146
14.4838 145.157 -6.09831
19.7217 126.261 -0.4384
20.6954 133.375 -9.35261
25.0518 109.251 3.24592
18.847 136.284 -7.69696
10.6471 151.214 -2.67909
20.235 125.067 -0.255001
22.3779 127.779 -7.74587
20.0979 116.419 8.22248
10.0074 148.358 1.76374
14.8157 130.92 7.0065
9.14414 153.432 -0.966004
23.9237 113.728 2.08298
12.2628 141.959 2.63749
20.4246 125.165 -0.417341
17.4532 123.246 8.54679
24.6776 110.1 4.16295
10.5079 151.756 -2.12397
17.8309 125.178 6.04215
13.8837 134.304 6.62015
22.01 130.938 -9.03417
14.7348 132.015 6.89797
19.6736 126.874 0.327462
11.8404 150.159 -3.39111
24.1206 111.114 4.88764
17.913 138.624 -6.49938
20.0514 136.447 -9.3488
19.443 136.805 -8.23417
13.9029 147.389 -5.27327
21.0557 123.937 0.229216
15.5678 129.939 7.33365
22.7154 113.494 6.2439
14.9828 132.714 6.15248
22.5526 128.716 -7.56608
9.59983 153.416 -0.7137
23.0569 113.34 5.7985
8.96898 154.182 0.101705
9.1391 152.472 1.33048
23.4156 112.943 5.38517
18.3209 125.435 5.5182
22.32 129.923 -7.9472
14.9813 145.32 -5.33324
22.5312 114.26 6.36543
18.3821 125.77 5.19096
17.7752 127.507 5.07055
10.4312 149.157 1.83338
21.0837 134.169 -8.76096
20.4033 125.557 0.917625
16.3016 129.093 7.12248
16.3147 129.155 7.03839
22.7263 128.689 -7.32593
18.0849 127.454 4.76931
15.6069 131.955 6.34228
23.4296 114.689 4.62097
23.4331 114.184 5.13188
13.5245 139.999 3.92951
14.6692 146.333 -4.67101
18.9492 126.374 4.16348
23.4044 114.341 5.1443
17.1124 141.07 -5.32986
19.0911 126.743 3.56266
21.3785 123.676 1.18941
14.0684 136.155 6.41769
12.9514 142.004 3.52248
21.7934 123.198 0.717271
21.1309 118.173 6.99422
22.3605 116.062 6.1307
20.8115 118.521 7.49986
12.3904 150.281 -2.77883
22.1795 117.884 4.97931
