ply
format ascii 1.0
comment Created by Open3D
element vertex 1952
property double x
property double y
property double z
end_header
-23.3863 105.111 7.31894
-16.6773 102.009 15.4842
-10.4155 101.871 16.2885
-3.01546 102.395 15.4156
12.5275 106.097 7.02152
5.88214 104.099 11.9104
2.94982 102.252 16.4677
-20.1901 103.47 12.275
3.83483 98.8369 25.0792
-7.53067 102.177 16.1625
11.7503 103.019 15.1276
-10.7459 109.369 -1.8525
5.13389 104.56 11.063
7.2307 98.6156 26.1799
1.02809 109.969 -2.41059
-7.92147 109.406 -1.3335
-15.0106 109.702 -2.43048
5.20439 103.298 14.6466
7.64329 98.8628 25.9511
-2.27391 103.043 15.1053
11.3884 104.832 11.3799
-24.4212 108.399 0.783809
-20.4026 104.339 11.1392
2.41598 100.764 21.2416
-11.5031 102.373 16.5507
-7.57803 109.644 -1.39444
-23.1806 105.864 7.26718
11.6736 104 13.7217
-10.5159 109.77 -1.77038
12.0389 102.509 17.5302
1.7741 104.591 11.8111
-2.95665 110.273 -2.52027
8.29003 109.167 0.825038
-20.2971 110.065 -2.75923
4.33629 98.7172 26.9454
9.66679 108.75 2.33345
-13.3011 102.556 16.6597
2.04728 102.782 16.8761
3.72838 110.039 -1.16712
-23.43 106.499 6.32088
-6.22263 103.157 15.6215
1.49311 101.753 19.5468
-24.5185 108.456 1.47652
1.77108 101.622 20.1356
12.0605 102.94 17.4436
-8.0145 109.984 -1.17481
11.9028 102.46 18.7049
-4.86333 103.481 15.369
11.9963 103.24 16.8455
11.7761 106.217 9.54892
-23.302 107.571 4.42678
1.36648 102.069 19.432
4.61516 99.7351 25.4961
-23.4198 107.356 5.08614
-4.85206 110.808 -2.59741
-19.352 110.613 -2.83903
-15.6923 103.13 16.055
12.7722 108.166 4.92118
4.70707 99.2131 26.9055
-24.2124 109.126 0.676176
11.8231 104.717 13.5852
4.72689 99.9463 25.2346
-22.34 105.969 8.81259
-7.80865 103.476 15.8158
1.48708 102.148 19.8036
7.2222 99.7167 26.2021
-18.5685 103.841 14.5954
11.1972 108.851 3.59457
-23.2334 107.428 5.41354
-15.6434 103.409 16.1105
-2.38849 111.251 -2.60253
1.08119 103.14 18.0636
11.5149 102.701 19.8251
-19.8931 105.395 11.5779
7.61105 100.173 26.0251
11.4115 106.071 11.4798
-12.1849 111.175 -2.46449
4.46146 100.875 24.1816
9.31357 110.328 0.820085
4.54449 104.08 16.2521
4.39039 100.983 24.012
8.7454 100.846 24.6556
-11.1351 103.885 16.0581
-11.3724 111.126 -2.04635
0.822738 103.059 18.8741
-19.6153 105.093 12.8359
-3.71722 111.568 -2.47539
-19.7985 105.62 11.657
5.55221 111.388 -1.33921
-24.022 108.94 3.28767
-4.27957 104.538 15.3102
-22.7139 108.028 5.73815
3.1831 111.206 -0.77293
-24.4547 109.487 2.20864
-6.50559 111.393 -1.51321
-21.3271 106.416 10.1783
-19.2598 111.863 -3.31206
1.67906 103.86 17.8325
-24.1915 109.197 3.23139
7.82828 111.446 -0.580997
-2.85189 112.066 -2.65438
5.28887 100.737 26.0886
6.41255 106.419 12.008
-24.2911 110.33 0.909849
8.24982 101.341 25.0422
-22.1853 107.415 8.52608
11.809 107.519 10.0205
4.46379 101.824 23.9444
1.96074 111.778 -1.01394
4.12236 102.103 23.2971
-16.1407 104.618 15.9917
2.08276 104.392 17.4811
1.91794 111.833 -1.0284
-11.3157 111.944 -1.95689
-17.223 112.466 -3.53269
-16.4118 112.495 -3.53703
4.14497 107.699 9.65157
12.1168 108.631 7.73611
8.4518 111.91 -0.608104
12.0764 106.072 14.3257
6.15797 106.038 14.2554
-9.19508 111.767 -0.816043
-1.87975 112.785 -2.96065
-21.6529 112.165 -2.38347
-8.30983 105.374 15.3325
8.00585 112.272 -0.946322
-19.0771 112.7 -3.36854
9.03902 102.478 23.6733
5.90996 101.3 26.5141
-19.2283 106.28 12.7926
12.1894 105.868 15.4729
0.564253 112.554 -1.75208
-24.0269 111.2 0.486969
11.887 111.068 2.71778
6.68038 101.632 26.0538
-23.1291 111.933 -1.11588
8.60622 102.51 24.1123
-17.2604 113.085 -3.55775
11.9994 111.218 2.68606
-10.1679 105.68 15.5263
-9.96494 112.371 -1.13684
6.38428 106.707 13.9558
8.02866 102.339 24.9642
-8.26984 105.992 15.1563
12.8436 110.557 4.82834
-21.8945 108.853 7.359
1.82528 105.062 18.1081
-6.2204 106.015 15.3217
6.63972 107.26 12.8696
11.5325 107.895 11.5447
12.0151 109.431 7.73301
-4.30194 113.242 -2.58687
12.0877 106.731 14.6389
-19.1102 107.01 12.4677
-20.4549 107.535 11.1601
2.56442 103.625 22.1542
-11.3804 112.993 -1.92466
5.6099 102.185 26.2092
-14.6581 113.541 -3.06661
-21.6313 109.557 6.60786
-6.23076 106.403 15.336
6.7017 113.384 -1.4381
-8.22384 112.697 -0.417578
-4.28204 106.598 15.0773
-11.1456 113.189 -1.73482
8.42942 103.168 24.4074
1.21716 113.297 -1.09353
3.72366 103.425 23.8382
-17.2064 113.985 -3.59461
-2.39853 114.081 -2.91389
-4.85385 106.764 15.2616
5.82521 102.854 25.7907
9.61073 113.003 0.648842
1.53447 113.452 -0.857625
11.542 109.066 10.7119
12.2407 107.125 15.6737
6.86959 113.882 -1.26834
-12.7088 113.903 -2.2635
12.1896 106.771 16.9198
-7.19779 113.374 -0.558998
9.10953 113.179 0.827048
-18.5849 114.338 -3.45324
11.6693 108.504 12.7603
-14.3201 106.495 16.5126
1.58767 108.746 11.8085
-21.1427 109.735 8.23928
-15.5977 106.606 16.3498
7.44332 103.583 25.0804
4.83576 103.437 25.3197
5.19976 114.001 -1.04371
-20.7969 108.789 10.6693
-10.5724 113.79 -1.23488
6.6622 108.008 14.1044
-24.2574 112.262 2.00915
2.47307 106.279 18.3475
-7.01486 113.66 -0.568035
-10.3647 113.805 -1.09591
-20.1198 114.416 -3.07163
6.20447 107.521 15.4978
-12.0441 106.966 16.1337
-20.3511 108.637 11.567
12.298 107.377 16.4947
12.2969 112.749 3.14334
-10.889 107.261 15.7406
-24.1012 112.196 2.82605
-20.8569 109.994 8.57764
10.6546 105.965 20.3225
-6.07305 114.158 -0.968453
2.05051 109.5 11.0974
-19.8765 108.715 12.0053
2.71699 114.391 -0.756725
-23.087 111.502 5.292
-2.54503 108.094 14.8801
11.5276 109.409 12.4487
-10.2213 107.698 15.6291
6.21016 107.984 15.8752
-16.6425 107.481 15.9773
4.20355 114.657 -0.897013
12.6453 112.118 5.91283
6.6961 108.606 14.3923
-20.3731 109.615 10.8024
-14.3987 107.438 16.5583
-14.9605 115.423 -3.38917
11.8971 107.562 17.7192
11.6856 109.08 13.9178
-2.02776 108.436 14.8948
-11.5433 107.849 15.9673
-12.3751 107.796 16.1565
12.6591 112.192 6.49646
-21.6005 111.513 6.50034
12.933 111.809 7.65351
5.1239 111.294 8.69265
10.3051 106.09 22.0075
-6.49951 108.426 15.3341
-9.41355 114.754 -0.465536
-24.2773 113.618 1.64417
-20.1519 111.382 7.51616
7.18758 110.365 11.4754
-4.38736 108.584 15.3412
-2.77675 108.736 15.0707
-3.03895 115.782 -2.54206
-1.93513 115.964 -2.77427
-24.0211 114.129 0.768453
9.64847 106.017 22.9999
-17.6538 108.929 14.6327
1.69184 115.605 -1.04666
13.0904 113.687 4.38987
-19.6919 109.868 12.38
-18.1972 116.157 -3.22714
-23.0881 112.584 5.53755
-12.3775 108.557 16.2122
1.07171 115.663 -0.825594
11.4687 107.942 19.0148
-8.8463 109.027 15.3804
6.3946 109.123 15.9599
13.1457 113.727 4.9407
4.5268 108.479 17.6955
-2.95305 109.312 15.2373
-23.9981 114.681 0.779356
7.19392 111.63 10.0027
-18.314 109.56 13.912
-5.6064 109.229 15.5374
-7.18189 109.357 15.1803
-8.34443 109.347 15.2559
-5.16616 116.075 -1.39168
7.38874 111.391 10.9935
6.70552 109.828 14.9147
-11.2382 115.91 -1.09558
-13.4072 116.46 -2.56674
-17.5719 109.399 14.875
-24.0687 114.86 0.946318
2.28741 111.388 10.976
1.7957 110.969 12.0031
0.344726 116.29 -1.19773
13.1599 111.791 10.716
5.16907 116.498 -1.39089
-4.61103 109.549 15.4831
13.2532 113.145 7.48563
5.1279 106.361 24.0688
11.3249 115.345 1.934
-16.3872 116.822 -3.15978
-5.98265 116.028 -0.62289
13.1447 113.71 6.17505
-5.91864 109.636 15.4721
9.14811 115.608 1.34423
-2.65695 109.891 15.235
12.9081 114.662 4.17953
9.10654 115.493 1.92366
4.90431 112.743 8.58632
-1.14927 110.144 14.8962
3.83389 116.669 -1.08488
11.0625 116.045 0.882316
-9.53264 109.817 15.4331
8.31508 106.971 23.4515
4.35336 107.277 22.5757
11.3207 115.97 1.22119
12.8966 114.736 4.5378
-21.5857 113.032 7.16639
7.17944 112.815 9.3231
7.01665 107.009 23.8917
11.7662 115.98 1.77737
-11.9522 116.979 -1.88364
9.98113 116.57 0.270327
-0.340433 110.653 14.5555
-12.2792 117.083 -2.11641
-19.4413 112.76 8.41342
-18.9414 111.984 10.4465
8.2122 115.955 1.91969
6.99182 111.135 13.9297
0.917744 117.043 -1.05484
13.0777 114.626 5.96191
-1.32488 110.742 14.9819
-3.65761 117.499 -2.02091
-22.5737 116.915 -1.34358
13.5693 112.712 11.0104
-18.8306 112.249 10.5343
-0.261405 117.634 -1.96495
11.4625 116.113 2.45058
13.0084 114.503 6.59512
3.60544 108.168 21.9712
-15.706 117.928 -3.39603
-4.40888 117.418 -1.50306
3.87314 108.101 22.2582
11.1416 115.325 4.59337
2.08184 117.601 -1.3904
12.3181 111.186 15.304
6.13596 113.859 8.34911
3.38224 117.333 -0.456445
-9.36663 116.986 -0.0755383
-3.22421 117.952 -2.15261
5.37138 113.957 8.31234
-16.7909 110.63 15.62
0.778423 111.801 13.7783
8.18955 116.8 1.80333
-18.7649 113.105 10.0279
6.63373 111.505 15.3866
-21.1791 114.14 7.39894
9.53489 109.16 21.4339
-0.283574 118.37 -1.92403
-18.3511 112.383 12.1321
-3.66923 118.236 -1.73321
-9.52367 117.489 -0.161554
-7.69237 117.423 0.162611
7.98609 108.754 22.8624
9.84395 117.032 2.37959
9.87193 117.093 2.27093
5.95968 114.818 7.97606
-12.308 118.489 -2.07485
-19.9227 114.264 8.16363
10.8844 115.908 5.8724
11.7824 110.749 19.014
10.8487 119.057 -1.59567
-4.87549 118.425 -0.778408
6.80132 118.11 0.642026
12.0709 111.837 16.6725
7.14824 112.956 13.7491
9.90541 116.941 3.99633
3.44513 118.31 0.296499
-22.4024 117.421 1.25559
-15.2774 111.587 16.2556
-14.9117 111.58 16.4303
-9.63955 112.146 15.3482
-12.723 119.153 -2.1859
-2.00786 112.443 15.2285
9.11208 110.295 21.1781
12.6473 114.568 10.6834
8.00385 114.257 11.2515
-2.24129 119.384 -2.04997
5.30513 109.778 22.3826
-13.9904 111.808 16.4296
-11.4299 111.996 16.1048
-0.808557 112.692 14.907
-15.1117 119.747 -3.41103
13.3956 113.472 13.7873
9.04592 118.521 0.967086
-5.08971 112.489 15.3426
13.4636 114.108 12.2634
-7.8223 112.46 15.3229
12.0959 119.859 -2.10677
11.7411 119.806 -1.97183
-17.4621 112.442 15.089
4.27572 111.312 19.0473
10.1999 118.92 0.339112
-7.66436 118.595 0.384604
10.0829 116.174 7.6464
-18.5871 114.97 9.2329
-3.84721 119.555 -1.29763
8.96728 119.146 0.394852
-19.6169 115.491 8.15943
2.6435 119.292 -0.0882136
1.51162 119.657 -1.03049
6.8434 113.427 14.8961
10.9855 115.972 8.75817
-13.9279 112.492 16.2274
5.46885 110.753 21.5926
7.67702 114.363 12.7768
-16.0518 112.644 15.8893
-1.39021 113.234 15.1772
12.1827 120.46 -2.1749
10.7249 120.221 -1.61921
-9.02264 113.102 15.3712
13.9161 120.373 -1.62779
9.86271 118.024 4.04215
-20.6934 119.899 -2.08684
11.6072 115.491 10.6533
-0.136345 113.783 14.524
4.05267 116.211 8.68015
11.4567 115.667 10.4194
11.1825 119.62 0.569866
-17.0477 113.318 15.028
-13.9229 120.586 -2.89428
-2.4983 113.53 15.3297
-20.5993 120.16 -2.15262
7.16731 114.179 14.3224
11.379 120.754 -1.89393
10.4257 120.448 -1.05944
-4.51219 113.658 15.2266
8.17776 115.399 11.5318
-8.41101 113.585 15.3066
-13.3969 120.595 -2.38656
10.2417 119.767 1.00435
-9.49492 119.845 -0.182271
-20.2274 119.928 -0.710503
11.4711 117.225 7.65183
-22.6088 117.392 5.57882
15.6487 120.089 0.791831
-1.96561 120.755 -1.70624
12.2921 115.316 12.6121
-0.349718 114.235 14.6936
18.6298 119.95 1.39275
12.1852 112.972 18.6351
5.82273 113.839 16.1937
-18.2567 116.012 9.54466
-13.3766 120.86 -2.30132
-13.5515 113.63 15.8316
-16.2729 121.29 -3.44511
-20.0205 120.157 -0.596333
11.2295 119.914 1.74207
-21.8831 118.46 3.7142
1.85454 120.624 -0.478291
12.7934 121.382 -1.80843
6.21741 112.013 21.4027
-13.4512 121.123 -2.30731
7.44763 115.15 13.6827
9.00793 112.279 20.9799
-22.6935 118.337 4.32573
-4.15966 114.337 15.2667
2.83027 116.083 11.2734
7.61307 120.195 1.26228
4.62588 120.004 1.60535
5.20154 117.581 7.78598
-18.2758 116.355 9.6636
8.12298 112.184 21.4816
3.57282 113.013 19.1896
10.7126 119.689 2.91262
10.4957 119.948 2.32019
3.71289 120.163 1.50785
12.6951 121.626 -1.68235
-21.0166 117.172 7.80254
11.3058 117.241 9.5296
11.6875 117.323 9.3532
11.898 115.753 13.3014
-8.018 120.484 0.520932
-18.1511 116.646 9.94644
12.8564 114.397 17.1541
3.85562 120.464 1.6336
10.5611 121.028 0.5695
0.270458 121.603 -1.38665
-4.92204 114.834 15.2735
-8.03804 120.714 0.427407
-3.27692 121.43 -1.04251
-19.8046 120.696 -0.0365763
-16.8478 115.3 13.7235
9.96392 118.947 5.97474
9.60402 121.314 0.0765915
2.33704 121.024 0.522239
-21.2499 119.275 3.73895
14.3214 121.915 -1.03251
-19.7032 120.674 0.440522
9.59734 121.083 1.02821
2.42399 121.066 0.709492
10.5323 120.651 2.29823
12.3581 114.471 17.8556
-2.22152 115.23 15.2734
-2.06144 121.975 -1.41681
10.257 119.445 5.555
-19.8409 117.307 9.37276
13.0839 115.119 16.5451
9.2659 122.104 -1.06807
20.7674 121.19 1.80433
12.5277 117.631 10.2885
-21.8231 118.048 7.51484
14.574 119.385 6.05388
3.69976 113.844 19.354
8.67389 117.841 9.68636
12.5208 117.588 10.5371
6.50224 115.724 14.9821
15.8759 119.321 6.50197
-21.2095 119.578 4.01716
1.71829 116.45 13.0124
15.4447 121.592 0.886154
-4.24721 121.67 -0.303987
6.26294 115.642 15.335
-7.70627 121.299 0.496754
16.0328 118.263 9.3259
9.99871 122.243 -0.794921
9.64399 122.465 -1.33555
5.96436 121.97 -0.265723
6.23944 121.717 0.456116
9.60582 119.99 4.96158
0.63904 122.277 -1.07653
-18.1469 122.759 -3.21173
-1.36525 115.803 15.0729
12.2223 114.978 17.8609
-1.99567 122.355 -1.24408
12.8215 115.447 16.8104
10.7999 119.98 5.38985
-19.8532 122.304 -1.90898
-6.25506 115.731 15.2962
-10.033 122.408 -1.46347
8.57938 117.901 10.7486
8.08123 122.976 -1.852
6.73706 114.157 20.241
1.92361 117.033 12.8668
9.2639 114.376 19.963
2.41646 121.792 1.13691
-12.5713 122.727 -1.94073
10.8693 122.104 0.912592
6.27968 116.371 15.0109
13.9244 122.918 -0.953024
-5.12121 122.012 0.440973
-0.379166 122.793 -1.27
12.7578 120.115 6.13647
-20.4337 121.216 1.71311
-20.8141 121.637 0.82772
14.4807 120.048 6.66143
-7.78572 122.208 0.156223
2.27997 122.045 1.08387
8.03936 119.621 7.53933
-1.78039 116.378 15.199
14.0319 120.164 6.55985
-2.06161 122.847 -0.952857
-1.04036 123.06 -1.40431
-21.7002 121.919 0.44163
11.3338 120.637 5.32665
8.05407 117.899 12.112
6.19898 114.764 19.8666
-20.6964 121.307 2.15007
6.42123 116.944 14.4554
-11.7666 116.099 15.6496
-20.5147 121.385 2.03452
12.3745 120.356 6.40114
4.73212 122.343 1.2089
2.35146 122.302 1.20461
-20.6174 121.734 1.48418
16.1538 119.231 9.6449
16.6139 122.488 1.5357
2.70909 117.932 12.2362
-21.4318 122.396 -0.118314
11.0189 121.747 3.15899
-18.7661 122.879 -1.13769
5.15683 114.834 20.2019
13.7956 120.032 7.69851
20.738 122.581 1.71331
2.62765 118.005 12.3215
11.5895 115.718 18.505
6.074 115.121 19.7291
12.2023 116.821 15.7954
13.3248 119.019 10.3899
19.806 122.03 3.19231
11.8418 120.993 5.39171
3.02134 118.447 11.4375
-21.0304 122.445 0.249811
-18.7403 118.221 10.9246
18.3954 119.4 9.90762
-8.50837 123.039 -0.529785
12.6358 120.036 8.12812
-19.9918 122.772 -0.338812
1.01833 123.127 -0.126676
4.65152 119.933 8.06159
10.4672 121.586 4.24696
-16.7106 117.276 13.6484
12.6986 116.824 16.2759
11.2656 117.431 14.6916
-18.069 118.146 11.4699
13.3647 119.361 10.0353
-22.76 122.626 0.125737
3.5212 118.98 10.5901
20.0765 122.113 3.60865
-19.4748 123.635 -2.19017
12.4007 120.337 7.70635
-6.84793 122.702 0.843106
-18.7449 123.232 -1.07801
4.86461 123.058 0.682257
8.58128 118.98 11.0672
3.9359 116.179 17.8535
17.236 123 1.53616
-19.5725 123.66 -1.88473
10.5573 122.153 3.41504
-22.2217 120.845 5.0287
12.6464 120.142 8.59029
22.9441 122.418 3.55244
13.3808 119.745 9.78246
11.3097 117.707 14.8252
0.334575 123.635 -0.522366
19.7462 123.204 1.57589
14.2369 123.81 -0.218672
-5.96777 122.968 0.882033
-16.3594 124.647 -3.83641
9.00708 119.726 9.77399
-19.6819 122.287 1.92701
-22.139 122.759 0.637176
8.66814 119.344 10.7414
-21.5779 123.23 -0.423357
-20.9956 122.315 1.97195
-12.4447 124.252 -2.43563
3.78115 116.444 17.978
-20.8644 121.61 3.83184
11.7722 121.623 5.47039
3.87804 116.297 18.387
-19.0707 124.325 -2.74248
20.9087 123.055 2.53897
-21.6541 121.908 3.26336
-19.7673 123.3 -0.119373
3.97009 116.72 17.5396
-5.08786 123.331 0.577143
2.62714 118.759 12.4128
-2.15571 117.539 15.2611
4.10625 116.446 18.4121
-19.4725 119.488 9.61827
4.55853 116.228 19.0206
7.47827 121.117 7.03264
-8.23323 123.736 -0.292432
12.3458 120.811 8.06249
12.3118 120.826 8.06817
11.285 122.285 4.37601
16.742 123.501 1.69301
-21.4529 122.352 2.65716
-21.7906 122.124 3.2463
10.3028 123.006 2.6961
-5.07278 123.552 0.563291
11.142 122.474 4.14841
10.0279 125.046 -2.31327
-7.52979 117.628 15.3848
4.78923 117.721 15.7784
-2.63879 117.862 15.1836
-0.297381 124.297 -0.719587
-19.2392 119.503 10.3361
18.0075 123.724 1.76758
-13.483 117.583 15.5549
-19.8932 119.876 9.50888
10.7859 122.809 3.75837
-21.7284 121.022 6.58675
-11.4137 124.828 -2.38043
-16.5522 118.116 14.1364
-1.88299 118.061 15.0595
19.4897 123.878 1.63789
-13.5737 125.226 -3.30871
-20.1529 120.011 9.40097
-12.1803 125.101 -2.91632
10.3049 123.674 1.8145
21.4845 120.879 9.42602
-21.7435 122.753 2.58588
21.195 123.952 1.8013
12.428 118.078 16.0969
-3.82724 118.011 15.454
-21.1636 122.719 2.81285
-16.6679 118.801 12.9079
-20.8311 122.715 2.99057
-21.7963 122.667 3.15228
-24.2638 121.072 7.10137
9.56974 124.526 0.231414
23.4941 121.971 7.32739
0.742738 124.315 0.330757
-7.97373 124.308 -0.038676
21.115 123.163 4.29918
-25.6949 122.952 2.46592
21.0491 121.116 9.46478
-10.1509 125.154 -2.19642
-20.2213 123.144 2.32437
-24.3921 120.524 8.66204
11.8204 118.718 15.148
-20.2769 123.243 2.22665
-0.243502 124.776 -0.577542
-21.4992 122.881 3.13776
12.3765 121.305 8.81307
-17.513 125.566 -3.29985
-23.9571 123.984 0.337748
21.6391 123.854 2.98977
5.36433 124.951 -0.488811
8.29586 120.263 11.4843
-22.4998 122.719 3.85948
-14.9628 118.184 15.5939
-18.9859 125.063 -1.70804
-20.307 123.532 2.08271
12.2352 121.414 9.08386
12.7393 121.386 9.18838
7.81706 117.716 18.1458
11.6033 118.353 16.8866
4.27536 118.599 15.9296
-19.6748 124.237 0.686282
11.4468 118.385 17.0411
23.7372 123.226 5.59212
-9.54889 125.469 -1.61476
12.1282 118.981 15.7032
-19.8163 123.477 2.98489
5.6747 119.744 13.651
8.74926 126.208 -2.30595
18.4157 124.712 1.9254
-19.7919 123.916 2.04705
-7.88355 124.95 0.119874
-28.7565 122.214 5.90826
12.7967 121.538 9.74449
16.2413 124.643 2.16585
12.9883 121.687 9.39654
-14.3857 126.375 -3.54438
-17.0465 126.108 -3.01136
-19.9196 123.565 3.27956
-24.2524 123.785 2.53012
11.0448 120.606 12.3005
6.71146 120.439 12.5027
-19.0126 124.49 1.09149
-6.20518 124.805 0.99255
-22.8081 123.905 2.44049
12.191 121.631 9.91559
-22.2033 124.528 0.934423
6.93723 120.577 12.3133
22.4488 122.642 7.94412
-2.53336 125.461 -0.35221
-9.08224 119.002 15.5288
13.9256 125.476 0.521831
-11.2228 119.13 15.1348
-24.4009 121.902 7.54555
11.7518 122.646 7.52161
11.2937 125.574 0.202229
22.104 121.644 10.5781
17.4754 124.856 2.3185
15.8284 121.374 10.9965
13.6823 121.73 10.0022
5.95627 126.173 -1.3275
6.63269 126.297 -1.57274
-17.6085 120.091 12.7337
-5.69171 119.241 15.4839
21.3421 125.294 1.78409
5.01137 125.695 0.172382
7.752 123.229 6.5378
-9.69296 119.249 15.6045
10.8492 123.276 6.70159
-19.3804 124.892 1.19913
20.3053 125.465 1.8241
16.5404 125.202 2.34374
8.55019 126.805 -2.06682
7.22923 121.216 11.8642
12.1153 122.318 9.36575
-9.45951 126.212 -1.40137
-1.86505 120.197 14.0549
11.5214 122.54 8.96073
-26.1356 124.258 2.78484
5.92712 118.871 17.8808
13.2662 122.154 10.0914
-20.0052 125.308 0.529166
-23.2238 125.007 1.16737
-4.81541 119.928 14.8028
-20.853 124.137 3.48124
1.23332 120.57 13.5227
-13.3641 119.506 15.4617
2.80176 125.261 1.95127
14.9026 125.664 1.57402
9.98537 125.897 0.750345
-13.5978 127.566 -4.61454
23.2307 124.763 4.26111
-19.6895 125.725 -0.304307
-22.2992 124.459 2.74449
10.203 125.737 1.21672
-21.5395 124.067 3.79756
-16.3585 127.018 -3.27672
-22.3966 122.955 6.58034
-25.4137 124.89 1.59646
-28.1089 123.775 4.29422
-23.2818 124.572 2.59443
-16.7697 120.155 13.9709
-21.6835 124.095 3.96611
4.37824 122.18 10.0828
12.5154 122.336 10.143
10.0294 124.207 5.34131
-2.59999 126.194 -0.257137
-10.0651 119.784 15.3996
-21.4725 123.185 6.36468
-20.7568 124.261 3.71269
23.5566 124.915 4.36739
-15.8743 127.399 -3.75894
-29.6207 122.244 8.43002
-4.9852 125.838 0.840003
-6.37839 120.045 15.3581
10.5939 119.788 16.8691
7.34838 119.423 17.6587
-27.9837 124.316 3.65151
-20.8676 124.153 4.47007
23.0241 124.133 6.75517
5.89509 126.997 -1.22862
-6.82191 120.022 15.5713
-14.7128 119.874 15.5403
-21.9039 123.684 5.65521
-24.9698 125.475 1.06171
6.5084 127.086 -1.36219
12.381 123.96 6.75604
-15.0709 119.982 15.3321
3.75432 122.104 10.9898
5.14103 121.095 13.5897
10.241 119.723 17.3652
10.6577 125.978 1.76727
-26.3376 121.522 11.0415
-15.6808 127.817 -4.14893
-20.4983 124.086 4.93911
9.36028 124.853 4.6018
-21.0059 123.66 6.07172
9.27848 127.919 -3.00855
8.9088 127.781 -2.6376
-28.1903 121.386 11.5062
-21.9225 122.959 7.91075
-26.8128 124.561 3.66233
-22.2407 125.907 0.581798
4.67512 126.293 1.00308
-22.8638 123.628 6.26982
3.58718 125.81 2.16803
21.1554 126.328 1.78284
21.658 126.353 1.76253
-25.1768 124.968 2.85943
1.87101 126.009 1.66795
-22.1866 124.219 5.06891
8.23183 127.674 -2.02316
10.2083 121.617 13.3037
9.36736 128.156 -3.05919
-15.8749 120.63 14.5172
11.0977 126.812 0.450833
9.20175 125.904 2.68928
10.0289 121.441 13.9128
-26.1443 124.922 3.38926
13.1421 122.85 10.5796
-19.6079 125.867 1.38647
9.28505 123.822 7.97989
-25.4552 123.025 8.21822
-15.5796 127.963 -3.59621
4.77059 120.563 15.9773
15.4394 126.289 2.23826
-12.4244 128.45 -4.54395
3.20813 122.238 11.7788
-15.9257 128.465 -4.69138
14.7021 126.553 1.64599
19.9342 122.942 10.9933
10.8362 128.02 -2.12159
-20.8165 124.212 5.79321
2.26222 121.968 12.5996
-10.9207 120.745 14.9985
-9.11844 127.304 -1.23498
-9.09102 120.78 15.1093
10.9709 121.06 15.5171
-0.0594187 121.555 13.7683
-3.26073 126.876 0.330156
22.1943 126.281 3.11166
-6.10449 120.927 15.0613
-23.9757 122.999 9.03863
9.03784 125.336 4.87755
-22.1992 123.851 7.01646
-26.9246 125.221 3.3664
13.4447 126.974 1.05261
-19.6464 126.36 0.932475
-28.6955 123.674 7.19941
-6.52523 120.897 15.2652
-26.8415 122.145 11.1536
-21.7345 123.47 8.13066
-10.7125 128.01 -2.65571
-28.0195 121.815 12.0147
6.68741 124.778 6.44174
-1.69075 127.233 -0.115072
7.70324 128.091 -1.74261
-22.9728 126.356 1.0651
-18.9629 122.714 10.406
-25.6624 125.507 3.34013
-28.5482 124.738 5.11742
12.2912 124.316 8.27929
2.80876 126.588 2.12631
-22.5 124.916 5.02862
15.0564 123.228 11.186
-28.616 122.112 11.7733
22.9687 125.3 6.43103
23.0072 125.337 6.35521
-29.4359 123.07 9.44493
-13.4988 120.992 15.4635
-18.5792 122.719 10.905
-18.6804 127.154 -0.172479
3.99449 126.921 1.56848
11.0143 126.905 2.01111
4.83819 121.913 14.2239
2.6924 122.649 12.2961
20.6361 127.017 2.28937
13.0325 123.507 10.6844
-8.91347 121.397 14.8567
-24.1217 124.214 7.05576
23.2512 125.756 5.66476
12.2514 124.584 8.04661
-3.47877 122.083 13.5158
-11.6977 128.979 -4.10617
-22.2231 124.636 6.24849
4.07953 123.444 10.5771
10.4371 127.537 0.691771
23.8018 126.445 4.17445
-29.0698 122.412 11.6652
10.319 128.961 -2.60418
20.2284 123.628 11.251
17.1605 126.926 2.87901
-14.7691 129.469 -5.05386
4.96945 122.427 13.5526
2.35726 127.003 2.01255
-22.2307 124.707 6.50999
-25.7658 125.822 3.55058
-10.5662 121.644 14.776
-10.7291 121.645 14.7713
-26.2619 125.954 3.24023
-22.3164 124.842 6.23059
8.62472 125.493 6.2404
-15.847 128.762 -3.10381
9.32706 124.329 9.27536
-23.2884 127.097 0.707847
22.2969 125.571 6.85452
7.81043 125.822 5.60023
8.39686 129.173 -2.73998
2.09376 127.213 1.98042
12.2089 125.36 7.18804
15.1037 123.826 11.2465
8.38757 127.483 1.78667
-22.7874 124.691 7.33137
6.43792 128.585 -0.918764
-23.413 124.774 7.09765
20.6908 124.134 10.9563
-9.67296 128.817 -2.28291
-27.2491 122.955 11.5088
-24.2471 124.437 7.98843
12.0309 125.265 7.75638
14.829 123.947 11.2156
-23.9152 124.61 7.6233
10.6401 127.194 2.96192
4.93406 122.64 14.0579
10.7542 127.127 3.15491
18.5342 127.348 3.00451
-30.9879 123.205 10.8886
20.2385 124.107 11.2863
20.895 127.629 2.52075
11.3885 128.359 0.225138
9.88537 122.149 15.6792
-7.32279 128.155 -0.169899
10.9394 128.071 1.02402
9.99954 121.981 16.2059
8.95612 124.595 9.66483
22.078 125.958 6.92765
10.8107 127.777 1.84318
12.1146 125.729 7.03011
15.0518 127.78 2.07066
-8.88839 128.88 -1.81684
0.898203 127.839 1.31325
-23.5859 127.832 0.094637
-9.22971 122.371 14.4785
19.7286 127.595 2.98607
-4.37964 127.95 1.01683
18.7639 127.689 2.89763
-22.4051 128.048 -0.0454057
13.9306 124.565 10.5056
10.8031 129.814 -2.76809
16.7291 124.451 11.0428
10.1232 123.197 13.8486
11.3395 124.698 10.2109
-18.8861 127.908 0.687652
-23.1351 124.196 9.79992
-2.67896 128.369 0.433352
6.65642 121.97 16.9252
-24.3138 127.405 1.83651
9.52485 125.634 8.02063
-19.7632 124.519 9.34093
11.6621 125.598 8.27483
9.65191 122.395 16.2402
4.40344 128.828 -0.00290108
-23.8452 128.025 0.611985
6.19769 129.216 -0.820336
21.9181 126.653 6.44555
14.1067 124.64 11.1624
-9.74657 129.818 -2.94282
-29.1008 125.205 7.62729
-20.6437 124.649 9.44683
10.5779 127.714 3.40516
-20.0836 127.83 1.57365
4.32083 124.768 10.5022
6.21157 125.898 7.80177
-27.6025 123.405 12.4201
8.31108 126.927 5.45828
-26.7671 124.039 10.9439
-20.7221 124.944 9.01416
-25.2681 127.67 1.98346
12.9264 128.931 0.772057
-24.1308 124.83 9.16738
10.4006 123.781 13.6759
6.39186 129.6 -1.05502
-14.3365 130.522 -4.3715
18.4203 128.544 2.25084
-23.9862 124.934 9.16371
18.6803 128.517 2.37404
4.99819 123.5 14.2418
-18.8307 128.244 1.20176
6.59364 122.58 16.6468
10.7514 128.965 0.982133
8.93897 123.338 14.9713
-18.819 128.692 0.187745
7.77332 122.535 16.9326
6.88208 122.613 16.699
14.5412 125.658 9.4813
8.28917 127.91 3.54791
-29.0694 123.529 12.6117
8.46669 127.026 5.80129
22.3024 127.371 5.6412
6.60312 122.694 16.6032
6.90746 122.674 16.6803
-25.7308 127.895 1.99967
8.8743 123.404 14.9803
20.9124 126.203 8.60087
-24.1291 128.511 0.619351
11.6224 128.807 1.70389
-22.5729 129.083 -0.699899
-21.2464 128.607 0.643176
1.99974 124.318 12.5773
22.4089 127.605 5.41574
8.87991 129.074 1.1065
-28.8447 126.214 6.58072
-25.5785 124.851 10.2347
-27.458 127.553 3.44359
9.06685 126.814 7.15545
13.7327 125.757 10.0634
10.8489 130.336 -1.51866
7.7333 122.976 16.7466
-28.9803 126.169 6.9302
-20.398 125.443 9.18219
-15.7433 123.737 13.7034
-23.774 124.744 10.7852
-14.1332 123.294 14.9587
-19.6339 125.243 9.83305
-25.9233 124.847 10.5116
16.3355 129.377 1.33202
12.4011 125.977 9.71496
5.3071 124.619 12.7508
-23.4764 124.801 11.0118
-18.0566 124.726 11.54
-2.56234 129.469 0.474031
-2.65818 124.707 12.4037
-16.4361 130.42 -2.54378
-20.5441 128.836 1.38803
-12.4031 131.708 -5.32599
10.297 129.135 2.2608
6.91554 125.59 10.955
-19.9436 128.698 1.84903
-0.990433 124.814 12.5246
-8.13695 130.418 -1.83369
-20.0134 128.718 1.82865
-21.1869 129.233 0.484979
4.80036 130.137 -0.454349
18.6526 129.266 2.42664
13.7735 126.518 9.05744
20.8465 127.043 8.12311
13.0712 129.239 2.26689
22.2048 128.049 5.70488
-25.7224 125.025 10.8983
1.8895 125.039 12.3835
20.3844 126.475 9.74624
-8.72643 124.166 14.0631
9.03756 129.875 0.731942
11.0192 124.893 13.294
-23.3205 125.592 9.83415
10.7361 128.478 4.38593
9.11518 128.006 5.5331
9.83141 127.55 6.73229
11.5288 130.368 -0.18136
-11.0918 131.982 -5.3597
10.7196 126.432 9.62143
-19.4873 125.811 9.68639
-14.0386 131.461 -4.13668
-24.4422 125.197 10.9984
-25.8675 125.086 11.2137
8.28419 128.394 4.67971
13.8689 130.119 0.653891
-19.6597 125.91 9.47574
9.91014 127.403 7.24323
20.8136 127.314 8.06328
-27.9413 124.295 13.1672
12.2247 130.425 -0.0428671
11.5001 130.652 -0.635811
-1.51266 129.9 0.670359
6.79814 127.372 7.46366
-0.872713 125.221 12.4937
-13.6443 131.767 -4.50105
12.924 126.943 8.94183
22.6373 129.492 3.1103
20.9173 129.53 2.93622
5.62546 125.902 11.2575
2.8883 129.62 1.83309
5.50389 124.547 14.6458
-11.0011 124.281 14.5131
-13.3789 131.887 -4.57807
15.2805 126.062 11.5038
-21.2028 126.276 9.22141
-23.0553 125.576 10.9095
-4.78069 129.887 1.06244
14.1072 126.67 10.1049
9.27088 130.459 0.396961
-21.7242 126.033 9.89762
-10.6486 124.495 14.357
-20.7399 126.537 8.79498
13.9962 127.344 8.62129
6.52179 126.308 10.8715
-19.737 130.455 -0.809303
0.0999157 125.395 12.9226
-7.82898 124.783 14.0818
11.3563 129.575 3.10759
-28.25 128.02 5.03918
16.2062 130.562 1.09992
-19.4158 126.291 9.97127
-29.6405 125.989 10.2339
-20.9678 126.485 9.53872
12.3011 131.416 -1.08706
-16.2636 125.218 13.0396
-9.08931 124.915 14.1876
-13.3857 124.613 14.8075
-28.6305 127.841 6.07602
12.5688 127.658 8.62606
6.448 131.516 -1.29207
11.3689 128.618 6.29036
0.780086 130.161 1.93491
7.51844 128.613 6.1454
-21.9089 125.92 11.4246
-28.4189 128.086 5.74774
-26.2703 129.212 3.09581
-14.0018 125.552 12.8822
-5.56227 125.286 14.0103
5.45538 125.466 14.1361
9.59174 125.604 14.0158
12.6131 126.591 11.7199
19.5793 130.084 3.35357
0.780678 130.289 1.91461
-12.6904 132.565 -4.40948
8.363 129.262 4.935
0.548453 126.05 12.5676
7.62105 125.073 15.3781
-18.4168 130.805 -0.148093
-11.8034 132.836 -4.86858
18.6453 130.752 1.91242
8.49866 125.112 15.5006
-13.1237 124.995 14.7361
7.0366 125.279 15.0739
-20.6143 126.771 9.9498
-23.6203 126.003 11.7884
17.584 131.037 1.29541
7.81188 125.252 15.2699
-22.7031 126.574 10.4302
-1.86987 130.848 0.876358
14.4001 127.199 10.8294
-26.0436 129.465 3.14115
12.481 131.577 -0.156795
14.5531 127.668 9.74814
-10.8381 125.342 14.2811
8.45635 129.41 5.09795
-13.8803 125.863 12.8791
12.7495 132.112 -1.33345
8.07921 127.353 10.3292
14.7102 127.86 9.40703
9.62937 128.298 8.06486
12.7317 129.64 4.98885
13.6865 132.15 -1.19869
12.7159 129.652 5.009
-4.42055 126.069 13.1268
18.9763 130.824 2.44362
-3.30693 126.568 11.9688
9.2288 127.893 9.29733
-26.7016 129.306 3.95199
9.56349 131.549 0.280844
4.34241 131.77 -0.458208
7.92721 132.427 -1.91794
-21.9569 126.783 10.7019
2.2959 130.779 1.94434
8.13227 127.59 10.3136
-27.8084 125.68 13.3337
-18.69 130.601 1.49885
-6.05608 131.441 0.0647134
11.5603 128.415 8.53828
8.99727 126.936 12.1476
-15.6335 132.015 -1.7889
7.37396 129.326 6.16743
7.8611 126.51 13.2491
13.6167 132.299 -0.92659
9.04403 126.655 12.9722
-18.1162 131.378 -0.209168
11.8617 130.224 4.2014
4.86822 132.002 -0.584105
-27.9319 128.931 5.47469
10.005 129.013 7.24185
9.71775 127.347 11.3933
-18.5786 131.342 0.000850916
10.9121 126.924 12.5519
7.91506 132.659 -1.92344
5.60254 126.383 13.7282
9.9053 128.679 8.25185
9.54916 130.787 3.00739
-1.71476 131.353 1.13639
5.47696 127.146 12.059
14.1331 128.47 9.3026
14.7808 128.73 8.72391
22.127 130.347 5.05834
6.28411 128.65 8.65685
16.183 132.189 0.329074
-5.27462 131.468 1.05192
-13.8174 126.932 12.0094
-12.1576 125.974 14.4922
-0.583763 131.338 1.71493
-28.2274 128.687 6.96494
21.9467 130.409 5.21264
-18.511 127.798 9.69452
22.1468 131.225 3.39524
14.929 128.883 8.88573
-19.4974 127.656 10.2246
8.382 133.357 -2.60664
-20.3682 131.745 -0.0187812
-29.2148 127.704 9.64701
-3.28888 127.653 11.2796
11.1478 131.548 2.27758
-13.0058 133.259 -3.21778
9.48378 131.709 1.83026
11.2311 130.08 6.09839
9.54748 130.436 5.1787
-27.9807 129.088 6.69386
-6.1417 132.353 -0.36059
16.1365 127.977 11.7729
-13.5912 127.507 11.4859
12.115 131.043 3.96509
-20.2461 131.915 0.147382
-18.202 131.956 0.151126
11.5915 132.05 1.44234
10.4383 134.233 -4.07155
-9.54485 134.088 -4.67922
10.9028 131.403 3.08321
18.805 132.359 1.25209
11.4886 134.188 -3.66793
-15.8999 128.36 9.57947
10.7929 129.846 7.24038
-13.4781 128.098 10.522
21.5034 130.736 5.86617
-0.463404 127.858 11.9862
-27.2009 126.914 13.0058
-13.5838 128.345 10.2533
-13.3459 127.781 11.6751
11.6209 134.39 -3.56845
8.23091 128.932 9.94279
3.56006 132.667 0.391056
3.6439 128.418 11.0361
-9.55447 134.514 -4.82925
22.112 131.753 3.68492
-17.3346 128.547 9.70951
-17.5337 131.778 1.69709
-25.1286 127.24 12.6625
-14.5609 128.607 9.84698
8.57862 129.081 9.88945
-5.586 127.48 13.1937
3.87045 133.149 -0.484108
9.35823 129.536 8.91995
-7.7977 133.885 -2.81652
-18.5127 132.58 -0.0824134
-17.3469 128.239 10.8684
-13.625 133.69 -2.49915
-7.66552 127.832 12.5998
10.9667 130.291 7.40823
-18.643 132.761 -0.264691
-8.80724 127.778 12.7567
-17.4415 128.994 9.35871
-28.7989 128.94 8.9965
-0.710347 128.452 11.6802
-12.8307 134.381 -3.62027
8.14441 129.509 9.6607
-27.152 127.534 12.8102
21.6564 131.391 5.64944
-18.7353 132.962 -0.317521
-17.471 128.946 9.81849
13.2738 133.363 0.441611
-13.0004 128.036 12.453
-7.37968 134.053 -2.29985
16.638 128.987 11.5817
0.087563 128.545 12.0059
-6.04612 127.981 13.1102
-16.9561 128.648 10.8946
9.27437 129.2 10.8823
12.43 129.53 10.2573
16.8469 129.022 11.8162
5.59826 134.258 -1.81716
-16.1474 129.472 9.05604
-20.1352 133.019 0.0597573
3.41278 133.187 0.840342
-6.19643 128.102 13.1081
-23.5953 132.184 2.03388
-0.354093 128.789 11.7283
11.6152 133.712 0.175481
-23.5942 132.255 2.04977
-14.9856 129.414 9.67278
21.015 131.347 6.66462
9.14959 135.347 -3.93152
-17.5673 132.833 1.07598
-10.7572 128.67 11.8281
-26.0712 130.944 5.39779
20.0177 132.961 2.74167
-28.5529 129.148 9.89037
-12.4934 135.103 -4.12603
-4.7869 129.421 10.7527
-15.8947 129.832 9.21453
13.0616 134.887 -1.94369
9.90739 132.1 4.90608
-12.8502 135.215 -3.86309
13.6779 134.289 -0.180274
-5.49378 129.589 10.6045
21.6408 132.864 3.79569
9.86087 132.295 4.65966
-13.0951 135.148 -3.58885
-16.5351 129.584 10.1533
-18.7655 128.744 12.2364
-9.79712 129.219 11.5228
14.6913 130.455 9.67697
17.7531 134.399 0.00015061
18.0779 130.149 10.6935
6.9025 131.267 7.37287
-8.99808 129.396 11.2651
18.334 130.292 10.4296
-2.14508 129.63 11.1078
-7.73444 135.524 -3.80863
7.39727 132.104 5.58851
1.45732 129.444 11.9375
18.3851 134.506 0.386753
10.1556 132.461 5.12701
-1.08763 133.467 2.055
-18.2132 133.96 -0.0154683
-27.1049 130.838 7.37345
0.738662 133.686 1.75444
6.19522 135.398 -2.17494
-27.4388 129.225 11.6552
10.4884 132.115 6.37458
-8.66323 136.303 -5.03777
-2.00665 129.969 11.1343
15.5848 135.116 -0.789291
11.9817 134.659 0.224897
-9.55112 129.882 11.1012
-13.7366 135.433 -2.9655
18.7758 131.101 9.71738
17.7269 135.018 -0.0979637
0.541855 129.864 11.9286
13.5416 134.801 0.344325
-26.6263 131.371 6.88134
-7.26939 135.813 -3.21019
13.8353 131.173 9.47747
-17.4272 133.964 0.940025
-4.8797 130.411 10.5124
9.00016 131.303 9.01635
6.25653 131.318 8.90009
7.50162 136.044 -2.80985
-4.74647 130.469 10.5497
-10.1476 136.52 -4.83785
9.48001 136.808 -4.45537
-10.8227 136.474 -4.58122
-14.3615 130.764 9.5266
9.12297 136.826 -4.36706
1.23849 130.271 11.6451
13.5438 135.599 -1.04919
-16.6049 130.323 10.6215
-13.4817 130.468 10.4648
-7.55092 136.268 -3.71426
-13.5591 130.522 10.3548
-18.3076 130.087 11.2444
22.4833 133.497 4.81503
-0.442507 134.16 2.06609
13.0939 134.735 1.33977
-17.2983 134.277 1.00098
-21.1944 129.755 12.1177
14.3486 135.712 -0.873267
15.7045 135.716 -0.777179
-14.1012 131.104 9.41197
10.928 136.683 -3.23604
-6.2982 130.889 10.3774
-24.4878 130.256 11.056
20.4588 134.63 2.40271
-6.07855 135.829 -1.81462
14.6764 135.889 -0.890562
-11.765 130.568 11.085
4.11039 135.587 -0.655359
7.98854 130.965 11.1112
4.05249 131.332 9.99673
9.67332 133.749 4.27998
-1.37775 134.442 2.00581
-7.67558 136.73 -3.98788
-26.3784 130.144 11.6612
-13.6897 136.16 -2.72354
-17.7659 134.848 0.353986
6.83152 136.595 -2.68392
-19.9739 135.056 -0.139243
-21.3247 130.339 11.6269
2.8831 135.219 0.689085
21.5119 134.463 3.53564
-0.0720525 134.673 1.99549
0.554244 130.891 11.516
-20.7592 130.211 12.2014
18.7117 135.716 0.444825
2.09986 135.053 1.30155
-10.9428 137.025 -4.22165
-15.2922 135.695 -1.05263
18.3485 132.109 9.63407
-7.7921 131.045 11.0802
7.64387 131.41 10.9665
-1.15579 131.167 11.2322
6.62545 132.921 7.28564
-25.2679 133.224 4.93404
9.43648 131.89 10.0286
-5.23491 135.731 -0.271859
16.421 131.748 10.8586
9.53082 132.647 8.39502
1.00549 131.413 11.296
20.4616 133.118 8.06465
6.34502 137.191 -2.79641
-2.2777 131.63 10.699
-5.81368 132.144 9.2931
12.3322 132.052 10.5164
-15.6449 131.534 10.5357
-23.7277 131.63 10.1043
-11.2754 131.976 9.91646
-22.1068 135.536 0.591094
5.01184 137.314 -2.46431
18.484 136.496 0.31859
-7.68703 138.02 -4.65177
7.43025 137.821 -3.36634
4.13751 136.782 -0.926354
21.0414 134.117 6.71438
-15.5882 136.557 -1.19595
-27.2926 132.573 8.18886
4.68128 137.267 -1.9104
2.75916 136.338 0.696166
0.826299 132.196 11.1226
10.4868 134.26 6.55166
8.56726 134.786 5.23777
6.02848 133.849 7.46082
-1.63347 132.809 9.7006
-6.6237 133.125 8.87088
-15.3478 136.504 -0.00738882
-24.0496 134.632 4.29885
-14.5021 132.292 10.7003
-21.5624 132.279 10.4281
-9.6869 138.491 -4.43438
8.1864 133.016 10.1636
16.3105 133.4 9.64938
11.3867 133.176 9.9979
-8.48498 133.315 8.65738
16.0845 137.467 -0.46759
-23.3836 135.681 2.09662
-11.6301 138.376 -4.03353
-24.6982 132.565 9.84507
-7.46461 138.765 -4.77256
-1.76525 133.246 9.32631
-8.80274 133.416 8.60458
8.2972 133.24 9.9999
15.6622 133.303 10.2464
3.26021 137.148 0.0596202
-8.15251 138.814 -4.67151
0.758357 132.998 10.3371
12.2836 138.261 -2.20427
9.90266 133.491 9.59772
20.8295 135.969 3.96335
-22.8541 132.802 9.78789
0.526727 136.488 1.77905
-7.70945 133.735 8.28121
4.2987 133.319 9.95004
-0.719833 136.583 1.6326
-25.973 132.595 10.3406
17.4687 137.529 0.297874
20.1232 134.573 7.82501
-22.0391 132.913 9.84222
-18.2692 136.646 0.956712
-2.29881 133.853 8.76897
-22.6624 136.216 1.97899
19.5154 137.401 1.19809
18.0331 137.692 0.477289
17.004 134.19 9.19393
4.6593 138.501 -2.1767
9.94026 139.445 -4.23211
-18.0287 132.939 10.7535
10.462 135.261 6.45213
-6.70768 134.086 8.51827
18.7322 134.461 8.8864
-7.7622 134.336 7.92128
-26.4279 133.155 9.94618
5.20789 133.943 9.61005
-9.62696 134.134 8.53678
1.08865 137.249 1.38851
-7.24564 134.397 8.11081
-7.91696 134.552 7.71414
9.32688 134.368 9.06663
4.76652 138.87 -2.33522
-4.80564 134.256 8.74112
12.311 137.469 1.5782
-21.4185 136.779 1.69476
10.5368 135.725 6.09957
7.07351 136.037 5.25615
-2.32038 134.682 8.16994
-2.62044 134.75 8.16151
0.705581 134.401 9.22344
3.86472 138.606 -1.04751
13.4957 138.169 0.559617
19.1001 135.092 8.54669
4.87818 134.295 9.84252
21.6343 136.218 5.96566
4.42274 139.13 -2.03946
6.86287 136.294 5.17334
5.15577 134.472 9.64901
12.517 138.339 0.360551
2.92322 134.347 9.97897
20.8327 137.076 4.07425
12.8621 138.089 1.2566
-25.7317 134.901 7.30069
15.3868 138.824 -0.38491
-4.70326 138.775 -1.20653
-23.6522 134.205 9.25739
-17.6448 137.801 0.729895
-9.02525 135.082 7.97878
-12.1994 139.632 -3.41946
14.0122 135.011 9.59965
-5.9607 139.565 -2.74594
6.40663 135.953 6.91486
6.16491 135.693 7.60696
-11.0625 134.588 9.63474
-25.3678 135.301 7.13835
-12.5488 134.425 10.0023
2.71463 134.945 9.56225
4.03405 139.497 -1.6882
4.52502 135.134 9.25212
20.3404 136.385 6.95285
-21.7991 134.361 9.88021
-23.7705 134.579 9.26134
12.2563 139.567 -1.32352
3.85775 135.137 9.35177
-25.0124 134.681 9.08375
-8.66219 140.682 -4.93101
0.109222 138.378 1.37686
11.4871 140.397 -3.07475
-10.7722 134.96 9.4228
-4.52297 136.049 7.02878
-23.7264 136.705 4.54997
-20.4076 137.741 2.14263
2.50131 135.475 9.03778
6.84674 140.518 -3.2128
-7.07412 136.028 7.32247
-13.4068 134.703 10.3159
17.9762 139.159 0.786338
-25.509 134.987 9.01914
-17.1852 138.498 0.717181
10.7767 140.605 -3.11769
-0.683033 136.141 7.71919
10.7437 137.271 5.71538
5.20966 135.973 8.72898
-11.0086 140.647 -3.71146
6.15076 136.281 8.18612
-3.97952 136.825 6.33034
11.9171 140.32 -1.52177
-11.8179 135.467 9.45016
7.57913 137.796 4.61158
-8.25565 141.238 -4.72587
21.7023 137.919 5.16864
-23.6757 137.198 4.73795
0.293151 139.196 1.16877
-16.5604 135.006 10.7949
5.73919 140.818 -2.55702
-21.059 138.037 3.07952
-23.6706 137.223 5.00007
-4.56143 140.16 -1.36863
10.9807 137.762 5.53144
-5.39049 140.72 -2.56605
12.3639 136.526 8.85152
20.5904 137.745 6.26256
17.7662 137.012 7.959
-5.91022 137.01 6.80825
-8.74037 136.47 8.07298
-20.7107 138.259 3.0216
5.64318 136.71 8.26916
-1.5747 137.317 6.51727
-25.7827 135.854 9.03846
-15.4682 139.204 1.23254
11.6576 138.391 4.75138
-20.8728 135.744 9.76311
-12.5872 140.752 -2.29134
-4.89771 140.802 -1.94503
8.75995 137.032 8.21945
9.04638 141.921 -3.89456
-15.0405 139.496 1.04304
-16.4657 135.52 10.9419
-11.9395 136.177 9.63703
-11.171 141.255 -2.98445
-14.2232 135.696 10.8419
-7.87148 142.047 -4.66455
-22.8843 136.024 9.74237
6.52192 138.34 5.48146
15.8361 140.81 -0.042563
21.5398 138.889 5.0701
10.9239 139.348 3.65349
18.1723 137.945 7.61482
-23.7961 137.684 6.1858
10.6712 139.552 3.27348
-15.0723 136.01 10.942
21.4213 139.014 5.30007
-9.23507 137.378 7.83529
1.99633 138.764 4.94195
12.1493 141.423 -1.15252
-3.93481 141.042 -0.993102
10.7643 139.628 3.31766
8.69589 142.482 -3.89286
-12.1339 141.454 -2.38061
-23.3969 136.471 9.58358
-5.55147 141.939 -3.12458
-7.14305 142.48 -4.42381
11.9277 142.215 -2.75852
2.96078 138.181 6.87785
-6.48073 137.88 7.20435
9.81955 138.333 6.94002
-16.3193 140.082 1.30707
-17.2119 140.054 1.38794
7.13295 142.649 -3.52232
-11.3537 137.096 9.53512
-2.9738 141.157 -0.173714
-5.85707 142.488 -3.55865
9.6526 138.353 7.67822
12.3112 141.83 -0.782039
-9.3403 138.188 7.26638
-12.4706 141.899 -2.05899
-1.32102 141.085 0.567464
3.17124 138.799 6.5643
-2.84027 141.452 -0.12821
-13.9087 141.035 0.506662
-0.67551 139.855 4.20533
-13.8755 141.071 0.501898
9.6406 143.163 -3.4879
-13.8447 141.112 0.509771
12.0021 138.432 8.54654
21.1958 140.173 4.7999
-17.551 140.616 1.73999
-5.69302 142.95 -3.40951
-13.923 141.593 -0.391529
2.97815 139.372 6.15275
2.91442 139.411 6.0675
-15.8759 140.823 1.6806
12.9454 141.593 1.26018
6.01047 138.91 7.62613
12.7207 142.001 0.250699
6.5744 143.23 -3.10173
6.36054 139.619 5.96136
-16.6387 140.834 1.76368
10.7447 138.737 8.41101
-4.65194 139.259 6.37904
-1.91771 141.777 0.280792
-3.07418 142.058 -0.472179
-14.3576 141.265 0.970293
7.59581 143.659 -3.86923
11.4994 140.349 4.62716
-3.44577 139.758 5.36605
11.0505 143.447 -3.10455
20.6449 141.27 2.92564
11.666 138.909 8.39738
15.5353 139.016 8.37467
9.24087 143.73 -3.67245
16.1857 139.206 8.00782
-5.36402 139.345 6.68811
-4.3696 139.638 6.12467
16.5153 139.423 7.84322
-13.7399 137.715 10.6173
-0.409052 142.025 0.684929
-4.25086 139.858 6.01807
-1.00964 142.203 0.490942
-9.29577 139.375 7.25632
-9.60054 139.211 7.65878
13.1527 142.44 0.772417
6.23341 140.517 5.36177
-3.96742 140.208 5.76252
-3.76551 143.042 -1.27272
-1.52823 142.479 0.251404
18.3538 140.121 7.24107
19.3153 142.405 1.64247
-10.3366 139.166 8.24381
-23.0856 139.637 6.42206
-22.8019 139.775 6.19423
20.9272 141.749 3.47702
-5.73048 140.054 6.40398
-18.6262 138.235 10.3596
21.2035 141.655 3.89389
-9.16767 139.78 7.07776
10.1208 139.717 8.22848
-0.386111 142.562 0.619841
8.77677 141.374 4.0858
1.6995 142.774 0.247298
-13.4954 138.38 10.4896
20.825 141.605 4.27307
10.5361 141.832 3.18793
11.0056 144.429 -3.2776
-4.92096 140.192 6.52092
-1.67341 142.829 0.121316
-1.65343 141.16 4.37264
-20.1296 141.173 3.57687
3.88807 140.618 6.19564
-23.1185 139.924 6.56219
11.2301 141.628 4.13981
3.90633 141.725 3.56813
4.9142 140.607 6.58298
12.5375 143.986 -1.47498
-11.4397 139.527 8.49674
10.042 142.063 3.27599
-17.7149 141.935 2.20772
12.5634 140.068 8.53565
3.30783 143.805 -1.19091
17.0166 143.146 1.17047
14.7267 140.199 8.43609
13.0722 140.126 8.587
-12.9788 143.26 -0.505342
-20.5456 141.294 4.08535
12.2902 144.27 -1.64515
8.07809 141.903 4.09847
-18.2603 142.027 2.49744
12.1884 140.269 8.49455
-14.7119 139.086 10.1853
13.5882 143.057 1.70309
3.35052 141.267 5.70262
-18.5006 138.881 10.5886
11.6822 140.394 8.43551
-20.3432 138.92 10.5923
15.5486 140.731 8.11019
-2.92346 141.631 5.08409
-19.7991 141.931 3.57733
20.0813 143.116 2.6502
19.0657 143.547 1.67005
11.4687 140.768 8.25393
-12.3751 140.007 9.03761
-21.6683 139.464 9.95086
12.1612 144.669 -1.33895
-10.3355 144.698 -2.49057
-14.6605 142.821 2.02852
10.0399 145.608 -3.65851
9.47168 142.859 3.25147
-10.6907 144.515 -1.8641
11.046 141.636 6.49974
-9.641 145.34 -3.79854
11.1013 142.429 4.5326
-11.0743 144.519 -1.61633
17.497 141.574 7.32028
14.5966 141.189 8.24766
16.652 143.986 1.60116
-19.3105 142.547 3.47736
20.4158 143.314 3.57892
-8.97083 141.545 6.52564
19.3553 142.63 5.29584
-2.00686 142.424 4.74912
11.0259 141.502 7.74823
7.59954 143.017 3.78905
-6.04889 145.937 -3.94606
13.8283 143.973 2.01314
12.1598 141.918 7.4891
-7.21524 142.006 6.31137
18.1312 142.243 7.02711
13.6557 144.559 1.15686
8.04044 143.605 3.45612
-3.30321 142.643 5.34112
10.647 146.088 -2.52646
11.2947 143.618 3.76546
18.2905 142.602 6.72484
5.60759 142.98 5.3013
8.58497 146.733 -3.7506
3.8025 142.916 5.60144
1.72815 143.821 3.27208
-5.12557 142.601 6.04298
-1.03653 143.286 4.5459
18.4313 144.844 1.64686
6.14452 143.153 5.28215
-11.8516 145.038 -0.281496
-18.9084 143.391 3.5493
1.21707 143.826 3.53858
-10.9611 145.91 -2.06608
6.45373 143.268 5.61159
10.7173 144.542 2.64653
16.1208 142.709 7.64956
9.77938 144.573 2.68544
-8.07013 147.035 -4.18529
11.3129 144.345 3.66822
-10.4925 146.619 -3.1171
-18.782 143.774 3.65561
2.72624 146.058 -0.908106
-5.50338 147.025 -3.52771
-6.97648 147.309 -4.3008
-20.966 141.662 9.16644
-13.5095 141.532 9.92962
12.001 143.498 6.37105
15.3996 143.203 7.38698
-7.05818 147.429 -4.25589
4.66126 143.646 5.81717
4.57623 143.732 5.74983
-15.6868 144.587 2.72299
-19.5477 143.763 4.69404
-18.6744 141.899 9.40055
-5.30195 143.665 5.67735
-3.46604 146.704 -1.81114
4.99006 143.798 5.92692
4.97008 143.813 5.91272
-2.0978 144.078 4.94689
-17.587 141.939 9.66158
-10.369 142.833 7.80028
8.50473 145.313 2.93028
-12.4558 142.602 8.79963
6.53477 147.645 -2.77516
-7.09159 143.962 5.9092
-9.65757 143.432 7.22718
18.993 145.486 3.59357
6.17288 144.322 5.86502
12.1997 144.539 5.85275
-0.923229 146.796 -0.366653
17.1072 144.499 6.31917
0.638744 146.733 -0.0857556
6.31524 147.881 -2.66104
-6.81185 148.232 -4.04801
-8.38689 148.135 -3.84777
6.6286 145.038 4.76088
-6.23857 148.322 -4.05737
-10.4615 147.874 -3.06996
7.46622 148.347 -3.13903
1.11454 147.043 -0.184994
-2.72884 147.581 -1.63371
18.3401 145.609 4.38256
-19.9609 143.948 6.62625
18.4446 145.722 4.14311
18.7349 145.996 3.5248
7.62868 148.586 -3.19424
-13.9254 142.963 9.77175
-11.0665 147.846 -2.245
-15.6948 145.53 3.4282
11.3975 145.482 5.06233
-18.2911 145.193 4.32069
16.9245 147.1 1.40239
9.73027 146.627 2.34838
-13.7005 143.333 9.48548
-19.312 143.413 9.00088
-17.8159 143.207 9.68522
-7.3064 145.099 5.58591
-15.6498 143.25 9.96955
-11.5917 144.056 8.21105
13.334 147.469 1.03323
-15.899 143.355 9.94478
-12.0941 147.755 -0.774032
-13.7159 146.463 2.42301
-9.52916 144.737 7.03423
13.8711 147.328 1.84528
8.72602 147.061 2.44868
16.8487 146.243 4.9885
11.5649 146.271 4.84204
10.4641 148.926 -1.79802
-13.5106 144.04 9.23696
5.24202 148.967 -2.02697
14.5994 147.783 1.45987
9.95943 149.149 -2.16994
15.9072 148.017 1.32645
-5.88449 149.678 -3.66228
-5.36534 146.192 5.12755
-0.426838 148.588 -0.568691
9.20818 147.772 2.17574
16.8625 147.625 3.00104
17.1269 147.494 3.36577
3.24287 149.126 -1.20949
-10.2626 145.533 7.3734
11.7575 147.675 3.1631
6.59729 147.137 4.36419
-8.04122 146.363 5.70243
13.3155 148.471 1.63813
-4.88198 149.972 -2.94127
-17.9827 146.266 5.88684
-2.78241 149.725 -1.96907
-8.20675 150.143 -3.23915
12.7028 147.17 5.30292
7.68518 147.398 4.68
-16.5215 145.093 9.30111
6.77375 150.359 -2.64545
-14.6768 147.269 4.1233
-4.5228 150.236 -2.64781
-12.5831 148.839 0.540403
10.3061 149.961 -1.03828
-14.6547 145.129 9.81625
-13.9851 148.02 2.72521
7.29397 148.149 3.80196
-17.1598 145.819 8.68454
15.5419 148.922 2.66235
15.4019 148.078 4.78266
-2.58051 150.57 -2.04834
9.76979 150.461 -1.10577
-12.6408 146.035 8.97889
-5.79956 150.99 -3.05245
-12.1445 146.42 8.37711
14.4426 148.48 4.7721
-7.27352 147.81 5.36913
-16.917 146.66 7.83738
4.63013 150.893 -1.57732
13.895 148.677 4.43418
-16.8153 146.642 7.9692
13.2301 149.943 1.54763
-13.755 146.259 9.39249
-2.1474 151.155 -2.03782
-16.6265 147.196 7.30321
12.7802 150.273 1.15003
13.2783 149.24 3.96942
-15.2921 148.322 5.07598
7.85352 149.622 3.51107
-13.6089 147.192 8.52654
-10.2588 148.004 6.69578
6.10874 151.912 -2.20182
-10.1208 148.244 6.52986
-16.0343 148.215 6.34733
4.33796 151.739 -1.41275
7.8681 149.847 3.56819
8.603 150.504 2.06246
4.55531 151.886 -1.50211
-3.78411 152.094 -2.33699
-12.5987 148.017 7.45713
-10.0058 148.513 6.52109
-11.4121 150.589 1.25998
-0.226251 151.795 -1.16308
3.15536 151.912 -0.96866
8.66159 152.227 -1.39878
10.906 151.672 0.217735
-3.21308 152.542 -2.24809
13.5055 150.995 2.56069
11.581 151.831 0.388171
-10.8967 150.08 3.76662
-13.8148 149.278 5.90381
8.90033 151.594 1.44214
-11.6092 149.044 6.77792
11.9747 151.507 1.86315
-11.6638 149.588 5.63223
-12.8406 149.874 4.91107
-12.2521 149.651 5.62635
-13.1932 149.615 5.70985
8.45629 151.662 2.11868
2.50989 152.838 -1.05584
9.89624 151.993 1.6586
-8.11963 151.822 1.57738
-7.44108 153.131 -1.49319
3.85905 153.375 -1.00081
4.93855 153.475 -1.03399
8.22632 153.565 -0.963714
