ply
format ascii 1.0
comment Created by Open3D
element vertex 1936
property double x
property double y
property double z
end_header
-8.13186 96.6103 6.03939
17.2181 102.494 6.396
28.5869 107.428 1.02018
24.0118 102.048 11.4789
25.1175 107.619 -1.37387
19.7217 108.654 -6.98114
-6.18924 103.158 -8.39957
19.7831 102.368 8.5628
14.141 107.258 -6.53674
-17.0406 97.4272 -0.613396
6.77512 99.4899 8.16849
28.1317 103.218 11.4771
0.585568 97.9992 8.30158
16.7761 102.813 6.0142
-2.95194 97.2028 8.29114
-7.63766 102.603 -7.5065
4.81445 98.9102 8.67128
9.85587 100.794 7.08036
-6.38997 103.384 -8.56519
-5.84391 103.596 -8.68893
-18.2336 98.4255 -3.25629
1.60828 98.3495 8.39531
8.67798 107.108 -8.71445
29.6738 107.458 2.59326
20.4055 102.518 9.27564
-12.5554 96.9287 3.84848
2.71467 105.974 -9.21932
-7.19504 103.207 -8.1992
26.6943 108.03 -0.270896
26.3282 108.06 -0.530083
4.65513 106.648 -9.5522
17.1742 108.445 -6.62853
-13.1376 97.0841 3.50865
23.3184 102.492 11.5299
4.37288 99.1735 8.73972
-16.6136 97.7303 0.183548
-6.09187 103.991 -8.95997
28.3763 103.817 11.4087
22.0278 109.289 -5.50837
14.0623 107.789 -6.42497
-6.98296 103.765 -8.73872
-9.1101 102.974 -7.97114
25.0143 108.366 -1.37113
19.0696 103.327 7.53038
-7.17538 103.765 -8.67633
-4.15767 97.5325 8.26694
-18.3466 99.3325 -4.25562
-13.1434 102.708 -9.34854
-4.72896 104.759 -9.45453
-13.6033 97.4416 3.24856
9.30643 101.065 7.66842
11.4945 102.357 5.84442
-5.23962 104.648 -9.38256
23.1979 108.957 -3.32939
-7.29446 104.046 -8.86978
18.9846 109.419 -6.75026
-18.7224 100.303 -6.34819
30.3661 107.827 3.88348
7.12978 107.743 -9.31135
-3.84669 97.8336 8.46156
14.8316 108.422 -6.39742
28.0052 104.258 11.3513
6.28344 100.297 8.46134
23.9464 108.961 -2.30943
30.5632 105.663 9.63217
-17.5865 98.7908 -1.42281
3.72442 107.041 -9.1293
-14.3545 97.9475 2.75794
-12.64 103.382 -9.34412
5.82833 100.374 8.7028
-3.65172 105.5 -9.08941
7.21567 100.955 8.27723
23.3247 103.479 11.4503
27.2307 108.798 0.783573
-16.3321 98.7263 0.564748
-5.78376 98.251 7.83398
18.3788 104.507 6.65921
1.68541 99.961 8.1424
3.05096 100.228 8.33316
22.0249 110.233 -4.95363
-3.49275 105.825 -8.88042
21.787 110.441 -5.48267
-16.8458 101.739 -6.60529
17.5111 104.752 6.01621
-4.42529 105.663 -8.82286
-16.6077 101.943 -6.80638
-9.84805 104.223 -8.42878
12.5725 104.004 5.09854
-13.6991 98.5524 3.24471
24.395 109.683 -1.73795
24.6804 104.393 11.3393
24.27 109.799 -1.94867
30.6868 107.831 6.56929
15.7719 104.863 5.23885
-7.22054 105.26 -8.92474
1.10577 100.27 8.0351
20.5303 111.162 -7.21911
30.3076 106.658 9.4006
-4.59244 105.843 -8.63978
-14.2313 103.535 -8.56141
19.3809 111.008 -7.07207
4.68886 108.413 -9.21635
-15.6045 103.252 -8.3771
25.6827 109.774 -0.394465
11.4618 103.629 6.34475
-11.07 98.7378 5.32648
10.271 103.002 7.30309
-2.75032 99.5293 8.27445
-3.46283 106.277 -8.52954
-4.46181 99.1255 8.37133
25.6476 109.926 -0.512729
-17.4454 99.9741 -0.962881
13.7352 109.633 -6.44239
30.2007 107.411 8.55085
22.9408 110.838 -3.90148
8.82053 108.947 -7.39166
20.3976 111.624 -7.17027
21.2487 111.357 -5.99296
1.7276 100.986 7.96781
28.2766 105.984 11.2059
-6.7138 99.1327 7.69321
-7.13974 99.151 7.50707
20.1009 105.515 7.7962
22.4227 104.899 10.6526
8.35865 102.536 8.34383
17.6514 111.053 -6.96073
-2.47069 106.922 -8.46225
-14.1836 104.063 -8.25297
-9.36719 99.2004 6.3984
24.581 105.194 11.4327
-14.4191 104.114 -8.18314
19.374 105.878 7.04967
26.2572 110.497 -0.145417
-3.18272 100.019 8.37301
21.9469 105.459 9.8353
-12.8247 104.743 -8.46397
-14.0139 99.6972 3.24628
26.1338 110.756 -0.423609
27.8803 106.405 11.2098
29.0981 107.139 10.2491
21.8973 111.677 -4.79967
-1.43884 101.045 7.66111
-16.4467 103.478 -6.81667
-18.8559 102.556 -5.72767
23.9641 111.848 -3.43216
21.3584 106.222 8.75055
-16.5109 100.635 0.492999
-10.2271 106.132 -9.16034
20.313 106.51 7.63294
14.8377 106.38 4.80712
-6.44094 106.714 -8.18388
28.4874 110.666 2.43697
4.26141 102.467 8.4272
24.8623 111.857 -2.44722
-4.47809 107.237 -7.709
11.7029 105.615 5.60644
20.7283 112.863 -6.50794
21.7117 106.733 8.97209
-17.5454 102.133 -2.44597
12.8648 106.415 4.83746
23.2887 112.578 -4.08974
-14.1337 105.472 -8.4118
26.7024 107.109 11.4239
28.7808 108.205 9.96463
22.9447 106.699 10.3513
-11.782 100.597 5.18278
-17.0218 102.134 -1.45522
-17.8104 102.566 -2.88811
-18.431 102.782 -3.64199
10.0722 110.815 -6.59292
26.043 107.09 11.6966
28.2255 108.188 10.2967
20.4884 113.493 -7.01471
10.8515 110.974 -6.41023
17.253 107.675 5.44489
-15.3627 101.525 1.63087
12.209 106.705 5.00568
-13.9798 101.279 3.08983
0.0433078 102.711 7.70971
-16.0989 105.146 -7.49692
0.354781 102.895 7.73617
29.3684 111.519 3.53092
29.0388 111.719 3.12265
-16.7575 102.129 0.0859632
6.85833 110.966 -7.74865
13.4604 112.276 -7.12061
30.2765 111.385 4.79102
19.0914 108.196 6.50934
14.0044 107.916 4.42549
-17.0729 104.973 -6.20879
30.1412 111.658 5.02059
-15.0209 102.191 2.18041
30.0952 111.905 4.62289
-14.9446 102.258 2.29525
2.16688 103.909 8.20081
-13.31 101.941 4.12425
-7.50716 108.327 -8.05436
-9.37523 107.823 -7.84006
-15.173 102.46 1.97
-15.6247 102.647 1.35411
-14.1425 102.276 3.20307
9.966 106.401 7.15558
20.4071 114.727 -7.04404
-15.878 106.334 -7.53688
17.6636 114.014 -6.80242
16.4065 108.917 4.87466
5.96471 111.785 -7.99264
25.9132 113.921 -1.62164
21.7825 114.423 -5.20555
10.4966 106.935 6.52735
-15.1529 102.763 2.02385
14.413 113.498 -6.98787
-14.3375 107.38 -8.67565
-1.95627 109.852 -7.53732
16.8786 114.073 -6.80379
16.5214 109.237 4.86355
25.7289 108.624 11.6986
29.8242 112.406 5.00167
-11.8169 107.974 -7.95034
6.07014 105.463 8.51966
29.6886 112.774 4.39836
-14.9612 103.074 2.33861
2.77291 104.765 8.48733
-13.3923 107.855 -8.3447
-1.38377 104.087 7.78895
20.3434 109.326 7.6795
-5.63535 102.838 8.5972
-17.9732 105.922 -6.00983
0.601298 104.665 7.83462
21.4678 109.288 8.69523
10.3536 107.482 6.67875
-7.41925 109.399 -8.22031
-14.6751 103.16 2.77971
5.62396 112.407 -7.98589
-16.6642 106.687 -6.71537
-0.130881 111.412 -8.50812
5.70285 105.772 8.58757
17.5737 114.956 -6.77567
-8.59897 102.829 7.75962
-11.6636 108.651 -8.16393
16.0774 110.091 4.53053
-15.6133 103.863 1.43436
17.3628 110.263 5.03023
-11.1385 103.201 5.75992
24.8735 109.475 11.4112
-7.7013 109.951 -8.39652
28.9404 112.048 7.68942
-11.1219 103.33 5.76187
-0.464556 105.079 7.782
23.1382 115.259 -3.26318
-15.6262 108.113 -8.1414
-15.3607 104.091 1.81
10.7582 108.486 6.21225
13.9958 110.112 4.18313
26.3643 110.139 11.2793
-16.3978 107.561 -7.12204
9.65701 107.696 7.59674
28.6483 111.793 8.63559
8.80983 107.17 8.46584
9.96797 107.964 7.21887
-1.81123 104.914 7.84142
21.6984 110.047 9.11614
4.1904 106.112 8.64029
17.8809 110.86 5.32744
-2.82056 110.96 -6.85809
1.48186 112.677 -8.46677
24.4695 115.264 -1.43025
-18.5488 106.55 -5.07002
8.37605 107.269 8.78641
10.8945 109.009 6.02335
-16.3784 108.092 -7.45134
15.3741 115.169 -6.11273
25.9867 115.237 -0.130325
-3.9101 104.619 8.52086
15.2815 115.222 -6.08117
-5.54423 110.904 -7.53282
14.4553 115.072 -6.11067
20.9729 110.659 8.38886
3.71925 106.452 8.74909
18.9451 116.434 -6.70347
18.7679 111.113 6.15711
-14.5038 104.591 2.86228
-7.94995 110.76 -8.3368
29.3725 114.014 5.36207
4.28936 106.651 8.80478
11.1062 109.582 5.67687
-14.487 104.666 2.86624
10.6784 109.276 6.2487
27.6709 115.284 1.54588
11.0837 109.657 5.69321
-0.0944809 106.104 7.88817
9.4897 114.169 -6.18491
29.1493 113.611 6.53497
6.07599 107.144 8.99703
-12.1052 110.17 -8.85605
14.9723 115.426 -5.9676
11.0316 109.676 5.75436
-15.6518 109.284 -8.59755
22.8205 110.714 10.2137
6.40695 107.313 9.01724
21.2235 115.999 -3.47751
1.29306 113.354 -8.50543
12.2538 115.294 -6.87328
27.423 112.087 9.69485
4.34151 114.069 -8.43278
26.2831 115.585 0.562113
-2.61998 105.649 8.06328
6.68846 113.849 -6.48813
16.2053 116.064 -6.30948
18.2323 116.986 -7.34498
6.02978 113.92 -6.88662
27.5658 115.451 1.84508
4.46625 107.094 8.93902
-4.11283 105.233 8.59447
16.0001 116.095 -6.20584
-14.5522 109.92 -8.7809
17.099 117.186 -7.99836
-18.4789 107.83 -5.65987
-14.546 105.399 2.61494
-14.8465 110.054 -8.77357
-3.95849 111.732 -6.53844
28.8783 115.262 3.89677
-18.4418 106.721 -2.63758
-3.33226 111.867 -6.33053
-9.57505 104.817 7.32632
-1.30887 106.578 7.90318
9.99493 109.602 7.10479
25.3081 116.007 0.765549
22.1622 111.662 9.52898
25.0551 111.719 11.2351
-8.70416 105.03 8.09386
-4.74795 112.113 -6.80349
-5.12937 112.101 -6.98808
-18.254 108.599 -5.9793
0.977804 114.136 -8.24873
9.92366 115.619 -6.56236
15.7974 117.373 -7.36761
15.4516 116.908 -6.38246
15.8679 117.726 -8.06072
28.764 115.818 4.03182
26.6581 112.857 10.1106
15.0699 116.695 -5.8659
17.5814 112.972 4.85614
28.9836 115.379 5.59249
-17.598 107.301 -1.56351
-5.94538 105.768 8.90167
8.35198 109.369 8.67652
15.8342 118.184 -8.41605
21.8932 112.409 9.14895
19.0141 112.985 6.09203
0.491166 107.729 8.18213
24.7779 112.3 11.2629
-17.4128 109.997 -7.22942
-18.84 108.561 -4.54536
12.1325 116.79 -6.56646
-6.92706 112.752 -7.73371
25.127 116.504 1.81248
13.519 112.918 3.94704
-8.58706 112.56 -7.94
0.720491 108.093 8.32756
16.6541 118.179 -6.91907
12.9503 117.016 -6.17595
12.3508 112.565 4.52929
-18.6425 109.098 -4.91286
19.7855 117.603 -3.40584
21.6531 113.052 8.80811
22.473 112.851 9.80946
10.0297 110.915 7.35438
15.1976 118.22 -7.34038
-5.79187 113.156 -7.01519
-15.4736 107.96 0.0840028
-18.5672 108.529 -2.91103
-8.79716 112.942 -7.893
13.1271 113.233 4.11766
9.24584 110.634 8.20436
16.8265 118.628 -6.66435
15.8478 114.077 3.92367
19.1827 118.287 -4.18233
-18.0309 110.374 -6.41409
-12.6735 107.131 4.65988
12.5382 113.299 4.39684
15.3892 114.236 3.84741
8.87458 110.813 8.42381
3.40943 109.224 9.14732
-12.995 107.805 3.13686
-3.83724 113.704 -5.91046
-6.87492 113.599 -7.36352
-1.69285 108.6 7.88056
-9.75152 106.758 7.72531
16.918 114.509 4.29406
9.10296 117.171 -6.6784
21.4941 118.233 -2.09994
12.7069 113.538 4.30249
17.4552 118.762 -5.65258
-5.44775 107.331 8.93927
4.62682 109.616 9.30277
22.0544 118.015 -1.03822
14.5476 118.303 -6.01616
1.46292 116.004 -7.94634
4.66564 109.673 9.30937
-7.00458 113.762 -7.33264
15.9342 119.575 -8.1905
22.7412 118.355 -1.21356
25.029 118.317 0.229456
28.2031 117.503 4.14191
23.7529 118.713 -1.28255
21.6906 118.76 -2.54992
-1.69406 114.664 -6.0562
-10.993 113.55 -8.69696
-13.2803 108.439 2.43064
14.702 118.782 -6.5567
5.99704 110.152 9.41025
28.1702 116.549 6.66262
15.4154 114.745 3.80694
-4.34368 108.002 8.81029
6.5095 110.338 9.42185
-17.485 108.757 -0.53638
20.2166 114.518 7.2731
14.6782 118.924 -6.57158
-12.2384 107.636 5.46104
15.5404 120.064 -8.6782
-0.0195423 115.844 -7.37753
19.1029 114.961 5.93135
27.4961 116.129 8.02608
2.79245 116.874 -7.99747
10.6066 112.77 6.52542
-5.45582 114.277 -6.38983
19.0971 118.927 -3.47597
12.0035 113.968 4.59366
-0.306612 109.532 8.28687
11.4123 113.704 4.91524
0.411114 109.682 8.42468
14.5261 119.135 -6.34827
-18.2324 111.213 -5.98908
8.19527 111.446 8.79705
-12.2991 108.09 5.19992
17.9151 115.383 4.91606
18.6615 115.372 5.46571
7.81291 111.364 8.98206
14.4912 119.315 -6.35698
-16.3735 109.152 0.584949
28.5288 122.401 -5.68659
21.3118 119.58 -2.96915
2.72312 110.319 8.95599
-13.6836 109.327 1.91217
-16.9101 112.43 -7.49735
10.8145 113.446 6.05933
25.8237 118.878 1.68278
-12.6395 108.975 3.56423
17.9001 119.923 -5.39803
10.2113 118.573 -6.49177
26.2549 118.777 2.27794
-17.083 109.415 0.10042
0.78194 110.243 8.491
-14.7231 113.516 -8.39675
-13.8514 113.781 -8.53057
21.3154 119.884 -3.03784
15.1325 120.601 -8.22918
10.0837 118.692 -6.41307
24.5258 119.939 -1.08022
-11.6794 114.436 -8.57312
26.3753 118.938 2.49628
-18.2646 109.951 -1.32613
-6.27953 108.506 9.12408
24.8439 119.811 -0.361479
17.2178 116.14 4.29368
16.5343 116.17 3.86167
11.7875 114.817 4.48473
21.318 122.812 -9.3849
17.6323 116.199 4.58042
18.2084 120.245 -4.79041
23.9173 123.665 -9.76737
24.8341 120.064 -0.396706
23.9819 120.399 -1.69706
-4.69376 109.221 8.95385
2.35078 110.952 8.83437
23.6179 120.531 -2.05135
-9.28702 115.077 -7.77564
14.631 120.791 -7.64731
25.2581 124.076 -9.47145
-13.2433 114.482 -8.36739
21.0695 120.554 -3.28593
-5.7968 115.395 -6.13621
-10.5304 115.292 -8.474
10.5721 114.152 6.5024
8.48962 112.848 8.63874
-18.604 110.82 -2.01629
11.4756 115.152 4.86692
-6.14755 109.303 8.92131
0.0326257 117.287 -6.8141
-17.5961 113.125 -6.78344
3.27672 111.525 9.19182
17.9377 116.826 4.77329
-11.1301 109.087 6.81731
24.42 121.007 -1.49356
20.7963 123.298 -9.03413
5.04284 111.892 9.62086
22.9183 122.967 -6.94988
-6.83291 109.399 8.91317
22.625 115.932 10.15
6.75397 118.866 -6.0344
28.6432 123.481 -4.59209
-7.18011 115.903 -6.80943
24.8096 116.338 10.6288
24.7265 122.479 -4.31963
29.8141 124.169 -5.47941
-10.3173 115.812 -8.31237
1.36974 111.617 8.65507
-18.6402 111.202 -1.84175
-18.3453 110.977 -0.971178
6.2322 118.887 -6.01138
-9.69823 115.908 -7.94946
25.3911 122.855 -4.56549
11.0257 115.328 5.55551
22.6112 121.675 -3.05911
-12.0934 115.497 -8.0666
3.07482 118.857 -7.43895
-11.9818 110.209 4.924
21.1676 123.942 -9.25913
-18.1572 110.984 -0.396859
23.9884 122.658 -4.41071
12.9556 116.766 3.66544
25.4965 117.395 9.44683
15.1959 122.263 -8.32147
1.71852 112.054 8.89765
24.2169 123.483 -5.86741
-6.30693 110.261 8.6754
14.8905 117.478 3.37871
22.9253 116.501 10.4149
-1.58212 111.593 8.24511
-6.91927 110.174 8.80623
-18.1152 113.579 -5.88975
27.0444 118.877 7.31765
24.3475 123.391 -5.20926
14.1462 122.215 -8.23692
-12.0912 110.743 4.69687
-19.0399 112.273 -3.00924
5.70104 119.275 -5.70698
3.50763 119.413 -7.28983
24.8728 125.093 -8.7602
31.5117 124.927 -4.5127
-15.5582 115.225 -8.03612
-18.8076 112.96 -4.38904
-10.818 110.279 6.77891
11.9647 116.72 4.29307
2.81808 112.56 9.31254
-18.3289 113.647 -5.5063
20.2287 117.267 7.96444
-6.16071 110.828 8.56135
20.8283 117.194 8.68563
19.9495 117.457 7.63765
23.064 123.196 -4.4681
25.14 121.792 0.23822
27.6824 126.729 -10.2554
21.2301 123.826 -6.89516
25.9481 125.87 -9.13195
0.632733 112.53 8.699
4.04336 119.835 -7.03085
-18.7549 113.258 -4.19654
27.5171 127.077 -10.9903
31.4766 124.804 -3.16113
20.3239 124.45 -8.69885
17.1957 122.23 -4.9557
21.9138 117.324 9.77529
17.8493 118.48 4.61899
-18.6673 113.498 -4.32597
24.8359 122.947 -2.17266
21.6296 123.852 -6.21657
24.9176 122.688 -1.47993
11.5354 116.922 4.82345
20.5822 117.61 8.45207
-1.19047 118.216 -5.57553
25.1351 122.355 -0.43424
22.7648 125.474 -9.32536
-0.59238 118.504 -5.84931
-7.01794 110.991 8.80215
26.072 123.512 -2.52015
20.3831 124.815 -8.84455
14.6259 123.115 -7.92786
10.107 115.766 7.3496
-12.9842 112.092 3.02878
-0.881008 118.543 -5.64677
25.1571 118.522 9.45119
19.9015 122.865 -4.10178
8.70262 115.084 8.44647
0.964494 119.486 -6.72662
25.1936 126.132 -8.8975
21.1671 124.325 -6.79716
26.7326 119.998 6.97482
26.6282 119.792 7.42651
12.5826 122.001 -5.99775
28.0634 126.693 -8.25186
19.6385 123.034 -4.20154
-0.46604 113.075 8.53691
18.2141 118.898 5.23773
-0.0205112 113.189 8.70761
25.0222 123.236 -1.11273
26.6496 120.458 6.65285
-12.0024 112.073 4.77972
-16.8051 112.424 1.1914
27.0525 124.192 -2.10107
21.3085 124.453 -6.03551
13.0212 118.698 3.34283
22.371 123.434 -2.75527
25.908 127.145 -9.67876
28.0189 127.153 -8.38912
14.3764 123.861 -8.2586
-12.3054 112.569 3.85465
-2.40141 113.119 8.36272
23.4298 123.836 -2.72635
-18.4565 113.025 -0.467933
22.3945 126.232 -8.98331
19.59 125.462 -8.71691
26.4566 127.646 -10.0532
26.2234 120.293 7.75888
32.5589 126.552 -3.779
18.822 125.128 -8.2418
17.7184 119.628 4.51311
1.48513 120.369 -6.64613
11.3101 117.907 5.05931
11.8457 123.27 -7.61867
3.7812 114.223 9.75686
-15.6796 112.93 1.72731
21.5418 124.537 -4.97892
10.5837 117.286 6.34454
27.8247 124.934 -2.28672
28.1982 127.534 -8.38964
27.4833 127.526 -8.73477
20.1278 124.944 -6.68568
23.0538 124.053 -2.81996
13.588 124.165 -8.53653
11.1254 122.275 -5.26356
-18.2757 113.252 -0.236091
24.3835 119.199 10.0507
-2.99169 113.429 8.38955
24.5846 122.023 3.43472
-3.07362 118.804 -4.65285
24.7676 127.163 -8.89399
16.5235 120.101 3.61256
26.3113 128.139 -10.2807
0.546411 114.033 9.17655
32.1146 126.528 -2.97235
5.2323 121.442 -5.94334
19.9853 124.528 -4.90559
16.2461 124.752 -7.57359
-17.8402 114.07 -1.2464
24.6228 122.794 2.14203
19.4581 125.05 -6.20085
12.0413 119.245 3.93912
11.1356 123.404 -6.69798
27.178 129.003 -11.0362
-2.54919 113.984 8.3541
29.3102 126.4 -3.35695
27.1176 125.091 -1.37174
17.877 120.485 4.55856
-10.2048 112.495 7.8693
-8.62819 112.372 9.12911
22.9838 124.365 -1.60158
25.0953 122.029 5.41293
20.1429 126.758 -8.86603
-18.0115 114.326 -0.63329
25.2823 124.372 -0.0610775
19.8867 125.33 -5.35205
25.366 124.325 0.309543
18.6064 120.41 5.98427
0.988421 114.814 9.44957
0.726155 121.118 -6.01348
-3.5927 119.491 -4.42274
2.31393 121.773 -6.45281
18.6655 120.491 6.11678
18.3731 125.136 -5.25308
-10.8323 119.223 -7.72059
17.9246 125.53 -6.41283
-17.002 117.55 -7.05983
15.7648 121.135 3.15933
-2.25716 114.678 8.49795
17.9276 126.386 -8.1732
24.7636 122.792 4.57927
25.2734 124.768 0.0777859
-6.31784 113.722 8.73355
17.8575 125.947 -7.01702
8.55305 117.372 8.50801
9.96547 118.118 7.53099
6.62095 122.414 -4.8211
10.0901 123.756 -6.02346
20.0402 120.313 8.19371
12.3893 125.356 -8.4474
18.6941 125.487 -5.1106
21.0326 125.601 -4.02328
-11.5442 114.009 5.51858
2.2239 122.129 -6.24312
-2.47123 120.266 -4.42116
-17.0536 117.487 -6.03073
13.6863 121.128 2.86708
-10.0906 113.324 8.12013
25.0879 124.302 1.77566
4.79647 122.665 -5.90209
7.69983 117.3 8.84667
8.23172 117.538 8.61733
-4.13779 114.738 8.29577
25.5504 129.121 -9.53708
14.2042 126.235 -9.03537
27.073 125.936 -0.860285
-10.0963 113.424 8.12308
23.2743 125.587 -2.10297
-17.5786 116.952 -4.64379
-11.8539 114.188 5.42866
24.4672 125.427 -0.913229
10.5321 119.083 6.57485
6.14581 116.894 9.37982
30.6602 127.71 -2.75625
12.5751 125.874 -8.59968
15.6365 126.478 -8.29399
0.410875 121.698 -5.43417
-8.94938 113.556 8.98868
-17.7622 115.239 -0.16758
2.80296 122.647 -6.28031
29.1096 129.652 -8.12222
25.4746 122.055 8.27915
31.2866 127.392 -1.32094
-14.7579 118.942 -7.34473
17.5122 121.971 4.32907
29.6413 128.823 -5.30941
-14.8986 119.119 -7.3631
-4.32298 115.181 8.33148
23.0821 121.092 9.84202
20.982 120.797 9.37665
12.7835 126.282 -8.69899
-2.33983 120.925 -4.25793
-10.3942 114.322 7.18947
11.6878 126.012 -8.28784
31.0604 127.916 -1.70664
17.8051 126.583 -6.10598
-17.2412 117.17 -3.11252
22.1529 121.189 9.87466
-7.81682 114.271 9.51761
-11.2022 120.566 -7.74296
30.777 128.261 -2.21764
30.0287 128.689 -3.6752
18.8193 121.912 6.33617
0.944471 122.451 -5.29128
9.59039 124.412 -4.99592
-16.9125 117.134 -2.55193
10.5038 119.947 6.49483
-11.3783 114.759 6.48526
29.5302 128.985 -4.46551
-7.81757 114.391 9.52581
-12.9584 114.773 5.65383
-16.4685 117.839 -3.79794
17.2297 126.733 -5.83824
-17.9343 116.678 -1.66996
19.078 128.069 -7.99367
22.5963 126.137 -1.21599
27.7028 127.141 -0.670498
24.6498 122.548 8.75373
17.105 122.783 3.85053
-18.9315 116.321 -1.0626
16.132 126.99 -6.76068
6.56671 118.173 9.18221
24.5196 123.791 5.91412
-5.86034 115.54 8.45587
25.2031 123.344 7.58639
29.9918 128.352 -1.65817
-5.9248 121.472 -5.66219
13.4333 122.597 2.78927
21.5182 128.95 -7.97587
17.9918 127.161 -5.64869
-5.31491 121.551 -5.39425
-14.2961 115.42 4.33655
16.9478 123.158 3.6542
27.178 131.34 -10.3106
18.1457 128.06 -7.52823
16.2569 127.012 -6.04907
11.6509 121.652 4.38543
22.2302 126.479 -1.22496
-1.82031 116.49 9.18958
11.1992 121.288 5.05334
-11.3576 121.194 -7.72749
-16.3633 115.604 3.16965
-0.662756 122.471 -4.41704
29.5431 130.678 -6.93552
0.392439 117.055 9.43313
18.6624 126.5 -2.92007
-16.3293 115.765 3.09897
13.4941 123.009 2.70657
-2.87238 116.568 8.94552
2.90846 123.986 -5.74088
-2.48713 116.644 9.05864
25.0064 127.128 -0.454727
30.8644 128.986 -1.56314
-15.3675 115.703 4.08
14.0415 123.307 2.681
2.32253 118.059 8.7019
18.2385 123.268 5.22302
22.7463 129.53 -7.34429
25.9072 131.185 -9.48996
-3.47557 122.136 -4.40244
-16.5124 118.534 -3.16005
-16.4894 118.207 -2.1188
-16.3502 118.296 -2.24519
-15.9549 119.029 -3.77376
-5.13624 116.708 8.28376
29.3969 129.071 -1.72927
5.60303 119.208 8.52713
9.78204 120.645 7.49304
21.9891 126.58 0.109338
-18.7653 117.241 -0.692402
-17.8544 116.416 1.88341
-4.4163 116.932 8.39404
27.3663 131.596 -8.91486
-10.5874 121.758 -6.86491
-8.79061 115.528 9.39058
-16.043 120.147 -5.94664
-1.90372 122.665 -3.9058
29.0468 130.453 -4.913
-7.8841 122.125 -5.9453
16.4856 128.426 -7.16814
-5.08983 116.938 8.31775
29.138 130.694 -5.30591
-19.2105 118.092 -2.33785
-16.4738 119.763 -4.80492
-16.2211 116.783 2.59348
16.1169 128.282 -6.70301
29.3292 130.193 -3.716
22.6367 130.073 -7.22779
1.22868 118.371 8.8751
14.4225 128.911 -9.14366
18.578 128.249 -5.11282
-2.9501 117.474 8.68609
29.6978 129.969 -2.81005
-15.9519 118.803 -1.97171
-0.404651 123.559 -4.49212
1.37652 118.569 8.78509
0.0308719 123.843 -4.60932
16.4691 128.622 -6.73397
30.3996 129.628 -1.10681
13.1422 123.962 2.72719
-15.9911 120.263 -5.09144
16.8388 128.455 -6.03507
-5.78434 122.999 -5.73041
-15.4647 119.87 -3.69263
-12.1385 116.21 7.14451
20.6938 126.991 -0.10051
22.7913 127.548 -0.180193
16.4225 128.451 -5.97319
6.66628 120.09 8.75408
21.7771 126.93 0.851033
28.9011 130.642 -4.03519
17.6022 129.151 -6.93016
6.86122 120.225 8.69015
16.7983 127.932 -4.28054
16.9132 128.706 -6.08058
15.1174 129.362 -8.65291
-2.56485 118.065 8.63276
20.9527 123.42 9.19914
30.5114 129.862 -0.912148
16.6911 128.007 -4.34807
-15.8964 119.137 -1.54812
30.1116 130.167 -1.79355
-12.8491 122.382 -7.61843
24.6996 128.198 -0.0773378
22.7767 127.865 -0.317872
5.71976 125.432 -4.20033
-13.7013 116.749 5.75558
3.22992 119.843 8.01622
-13.8123 122.113 -7.33884
19.8481 130.155 -7.38517
-4.58506 123.396 -4.94985
14.0271 129.618 -9.26939
-12.3475 122.686 -7.60049
4.71205 125.575 -4.72036
16.5233 128.977 -6.10405
22.1243 127.822 -0.0419999
-6.24363 123.527 -5.75465
5.98416 125.728 -4.04816
-12.7898 116.829 6.91062
15.9138 128.601 -5.14705
-18.4952 119.589 -3.06604
28.0115 133.088 -9.04374
8.0216 121.223 8.27994
24.8161 128.62 0.0376717
28.6039 131.377 -4.42413
22.9867 124.492 9.08346
-10.3846 122.926 -6.29137
-11.3234 116.854 7.9664
-4.81725 123.78 -5.0709
-14.892 121.374 -4.93889
-0.125686 119.041 9.27005
26.0184 132.266 -7.77619
-15.8246 117.485 4.05512
-17.1702 120.281 -3.5204
-16.0957 119.743 -1.57606
-15.3528 120.164 -2.14224
17.1159 129.468 -5.99303
-9.85474 116.949 8.9073
21.105 127.933 0.133423
21.1963 127.692 0.821251
0.0992341 119.25 9.17875
17.2295 129.503 -5.86233
-16.5688 119.358 -0.64903
23.8932 126.014 6.52697
-8.76362 117.154 9.26028
30.2864 130.59 -0.866205
15.7326 125.744 2.58426
23.5282 125.499 7.69204
24.5528 129.346 -1.05795
-15.3951 120.238 -1.95979
-19.2219 119.63 -2.63401
11.9566 124.084 4.58292
-20.5661 118.275 -0.0393191
-15.9474 121.098 -4.23599
-8.90021 117.276 9.1693
24.1444 126.865 5.00674
-20.7948 118.354 -0.169606
24.0963 127.95 2.44917
10.4038 123.152 6.25689
23.5187 129.209 -0.886804
23.7548 129.295 -0.911109
24.8026 129.176 -0.00381947
-15.7607 119.909 -0.779703
-19.8351 118.113 1.24129
-14.9512 120.796 -2.42289
9.53217 122.544 7.47776
-17.4162 119.186 0.132667
19.0788 124.945 7.20406
-16.4353 120.562 -2.53062
-16.3374 121.114 -3.80597
27.2158 129.506 0.995538
-5.27797 118.665 8.60216
-17.7973 119.555 -0.783411
20.3789 124.651 8.86884
0.0238561 125.285 -4.35208
13.0246 125.309 3.16128
27.5442 133.792 -9.08411
16.1243 126.228 2.74676
16.8219 130.56 -7.34768
18.5596 128.388 -1.01716
-16.5538 120.313 -1.60506
17.9085 130.944 -7.56062
-15.805 121.021 -2.86265
-10.3069 117.631 8.56345
12.4551 124.889 4.08907
3.98083 126.568 -4.85794
6.89266 121.83 8.35134
7.10698 126.839 -3.63291
2.88025 126.351 -4.88283
22.3236 125.184 9.18985
-15.7735 121.612 -4.11105
-15.4893 120.499 -1.15
19.1832 129.904 -3.9968
-17.3994 119.693 -0.263974
15.5048 129.665 -5.48269
-20.4965 118.348 1.27165
-5.77455 118.774 8.82257
28.469 132.163 -3.9465
17.5193 129.793 -4.46647
14.2974 126.333 2.11253
18.0041 126.274 4.40028
-9.78665 117.935 8.65364
25.1409 129.664 0.354485
-17.7414 119.848 -0.421086
-16.3305 120.218 -0.501572
-17.5588 119.542 0.492534
-9.6204 118.067 8.67277
18.647 129.824 -3.60195
-16.6518 121.017 -2.55234
-15.1384 121.029 -1.6562
18.0126 129.61 -3.38549
8.92929 128.499 -5.90331
20.6105 129.36 -1.21585
-16.9266 120.508 -1.33008
-4.7045 124.805 -4.60481
-7.464 124.822 -6.23668
1.95629 121.05 8.38953
11.0566 129.847 -7.7358
18.8805 125.969 6.25164
20.3057 130.42 -3.74324
23.8727 130.022 -0.70095
4.14183 122.119 7.14533
7.14488 122.357 8.35012
27.4705 130.169 1.11289
-17.1583 121.53 -3.60314
-16.904 119.921 0.534057
13.0421 131.073 -9.25369
18.401 129.417 -2.11673
18.1121 130.144 -4.03287
1.66521 121.1 8.50078
13.3525 126.217 2.82228
-20.3023 118.288 2.70798
28.4146 132.534 -3.80482
24.7952 130.091 0.0937315
-15.7229 120.464 0.141683
-16.5765 120.397 -0.161708
22.4458 127.266 5.71531
1.08223 120.958 8.72634
18.9636 131.115 -5.64004
28.5402 133.43 -5.60014
3.07138 122.015 7.4977
8.56774 128.544 -5.17706
19.0535 130.161 -3.04357
-1.65984 125.538 -3.50868
-7.92162 118.754 9.4252
-22.0568 118.848 1.04028
-0.384678 126.019 -3.87147
-16.8212 120.92 -0.921561
15.6019 131.45 -7.80716
24.359 130.165 0.382967
-22.2242 118.227 2.52621
24.5417 130.028 0.893026
-15.9887 121.21 -1.01757
-14.543 123.87 -6.65278
5.58373 122.759 7.69811
15.9441 131.377 -7.25346
-15.3844 122.964 -4.86418
0.63567 121.11 8.89801
28.0494 134.606 -8.09374
-22.4517 118.278 2.53276
-15.7545 120.624 0.713738
-15.0984 122.233 -2.82022
20.2181 129.418 0.243093
-7.34982 118.94 9.81436
23.0221 133.528 -8.01168
6.19248 122.996 7.89922
-22.3813 118.574 2.19288
20.3811 131.387 -4.10998
9.15211 123.753 7.98586
-16.1383 121.003 0.131691
-15.7638 120.625 1.3523
7.54504 128.246 -3.71497
-16.6908 119.764 2.92318
-21.2068 119.86 0.101879
-14.2048 124.305 -6.6115
28.4431 133.89 -5.29521
-17.6458 120.219 1.37355
20.2788 130.074 -0.631733
18.4827 127.323 5.0614
-4.35564 120.543 8.45039
-21.3068 118.774 3.04125
-12.3567 125.107 -7.17778
-15.1596 122.527 -2.50401
18.4396 127.433 4.98114
0.690191 126.944 -4.05742
7.13257 123.559 7.90412
15.9097 131.644 -6.6843
12.9575 126.72 3.6303
-5.09836 125.845 -4.62197
-17.3112 119.849 2.97048
-17.8298 122.197 -3.03866
19.3502 126.654 7.59423
15.4322 131.053 -5.28362
15.2332 131.208 -5.77198
-15.8537 121.002 1.15455
-22.7245 118.481 3.33659
19.3403 130.603 -1.80197
-16.0421 119.796 4.05456
19.352 130.693 -1.92445
8.33382 129.643 -5.73121
19.5727 130.298 -0.811488
-7.42023 126.171 -6.34668
2.01737 122.551 7.96688
-16.6579 121.164 0.561231
-17.4427 122.621 -3.38856
-15.7419 121.652 -0.0472117
-16.6071 121.046 0.943375
6.93206 123.839 7.75528
-13.8364 124.761 -6.34116
1.78515 127.739 -4.44011
7.82026 129.137 -4.35402
23.4256 129.678 3.36183
-5.95972 126.227 -5.20178
28.9895 132.234 0.456419
-16.0127 120.922 2.0049
-16.8516 120.031 3.75077
-22.3023 118.195 5.11044
-20.1336 118.599 5.42867
-16.1271 120.11 4.12294
23.047 131 0.266432
22.8777 129.472 3.9436
-17.7668 120.363 2.65931
0.373551 122.142 8.84212
-9.43043 119.868 8.74496
9.16796 124.699 7.77737
-19.1149 119.101 5.07944
3.68465 128.378 -4.19745
19.2307 131.888 -3.74801
18.7172 128.048 5.40766
20.4047 126.995 8.97537
-15.3482 120.584 3.93331
-13.0598 120.249 6.09665
-15.6934 120.414 4.20668
17.987 131.719 -3.81169
28.8215 133.556 -1.95523
-18.3685 120.382 2.84684
28.2922 135.04 -5.85804
-17.6496 119.938 4.3674
-16.6844 120.56 3.41884
-20.805 120.974 0.150909
-1.82756 126.987 -3.39784
19.02 128.042 6.08218
-10.6511 126.61 -7.53088
20.337 131.084 -0.496447
-15.8183 120.374 4.6775
-23.3841 118.225 5.54691
-4.19221 121.563 8.52906
-13.9234 120.593 5.29168
13.0417 132.844 -8.9308
25.0217 131.831 0.466751
-0.447433 127.426 -3.44249
-14.0165 125.543 -6.67373
18.0101 128.626 4.36194
12.0792 132.503 -8.45582
23.5455 134.963 -7.78261
25.4786 131.917 0.765784
-18.8458 119.474 5.44412
-2.72828 122.061 8.64971
-8.18086 127.035 -6.5307
4.08083 124.533 6.64278
2.6818 128.682 -4.20843
19.694 132.368 -3.29984
-14.0898 120.883 5.20068
13.6985 128.752 2.14762
-8.85264 127.105 -6.8625
16.6342 131.344 -2.35909
20.2798 127.792 8.45972
11.2228 126.702 5.94434
18.8647 128.369 6.31615
-15.4748 120.784 4.96611
27.7436 136.152 -7.45843
-16.1661 120.711 4.75539
18.3263 132.242 -3.31121
19.1267 132.993 -4.64167
-18.0175 120.499 4.34155
-17.8215 120.858 3.59216
-15.8409 120.727 5.06279
-9.4674 127.407 -7.47908
27.8449 136.246 -7.35387
-15.2511 123.858 -2.10641
18.7879 128.646 5.90532
7.5723 130.395 -4.77865
-15.7278 120.91 4.85965
9.92859 126.158 6.91413
19.5814 132.795 -3.62952
-18.6036 122.824 -1.42218
-4.43741 127.45 -4.47819
13.1288 128.664 2.73349
-23.0473 118.762 5.96767
4.83162 129.28 -3.43943
-23.2592 118.613 6.30572
21.2601 129.366 5.90716
19.7076 127.95 8.46538
15.3677 132.51 -5.10038
-16.533 120.768 5.04227
-22.1285 119.314 5.47019
-7.94846 127.562 -6.33838
18.779 133.319 -4.85522
-6.37541 127.553 -5.34597
24.5811 135.498 -6.76181
27.3304 136.379 -7.24778
8.47302 131.574 -6.40326
-19.261 122.804 -0.982994
-7.64903 121.308 9.41143
19.3051 134.931 -8.15749
-5.54053 122.028 8.96892
-15.1475 124.148 -1.70183
24.1636 135.708 -7.11774
18.0506 132.914 -3.85103
-16.0654 121.015 5.41962
15.221 134.065 -8.25396
-23.2769 118.719 6.84856
20.4542 128.905 7.32696
-16.9548 120.508 6.15152
15.7898 132.547 -4.16827
18.0543 129.499 4.57494
-18.1853 123.649 -2.05984
12.1886 128.225 4.3647
-12.7536 127.1 -7.25189
15.0688 129.958 1.97918
15.214 133.133 -5.64307
-9.50348 128.204 -7.86262
-18.2633 121.134 4.29894
17.6396 134.592 -7.61938
-4.26362 128.129 -4.43953
7.23144 131.029 -4.85267
-22.426 119.996 4.87896
15.2632 133.396 -5.91969
-2.57413 123.035 8.98846
-12.6889 127.479 -7.65134
27.8174 136.801 -6.93385
-5.91594 122.212 9.09133
-9.6177 121.979 7.54128
-18.2831 121.096 4.7178
0.00694445 123.803 8.70844
-15.07 125.457 -4.00834
13.5648 134.374 -9.13808
-18.7186 120.919 4.97964
-10.8452 128.265 -8.32864
-9.40761 128.428 -7.86631
22.6172 135.94 -7.63663
-7.13078 128.18 -5.92463
11.9618 128.348 4.79006
-23.1637 118.331 8.89204
-5.30694 122.578 8.91959
19.1463 135.432 -8.19549
16.4563 132.768 -3.07091
28.376 135.057 -1.75608
11.9649 128.549 4.65049
14.4843 130.423 1.56248
-9.72007 122.528 6.80518
4.20704 125.91 6.64877
-9.20922 122.791 6.50158
22.5167 132.409 1.49235
27.8031 135.747 -3.57094
-14.1603 122.288 4.96774
22.6014 131.574 3.61259
-9.52512 122.719 6.60974
13.0461 129.727 2.61406
-9.83938 122.603 6.78664
-15.3191 125.264 -2.83543
-21.6716 118.475 10.033
-9.58097 128.866 -8.24455
11.598 133.777 -7.94922
-15.4186 124.764 -1.52125
-19.1604 123.895 -1.56036
-21.6014 118.422 10.4748
-10.3222 122.564 6.958
1.41956 125.203 7.31885
-0.847508 124.136 8.67467
7.95868 132.321 -6.14152
18.4123 129.379 7.12918
22.4939 132.577 1.77934
23.0817 132.895 1.38967
-8.04975 123.001 7.50827
-21.5363 122.091 1.97411
28.0053 135.538 -2.12197
-2.89943 128.767 -3.48407
15.9837 133.6 -4.29656
9.08558 127.139 7.44706
0.517729 129.601 -3.48431
-22.3636 119.562 7.78825
-20.3685 119.778 8.53794
-9.0568 123.621 5.72401
22.1376 136.599 -7.68755
11.17 128.422 5.89057
-16.8465 121.22 7.31956
-11.5284 122.554 7.15248
-20.7943 120.846 5.99367
-0.0949783 124.825 8.32826
-14.8216 122.257 6.11931
28.1515 135.668 -1.64992
17.5363 130.853 3.95105
-2.72614 129.094 -3.37866
27.3925 134.993 -0.314579
25.7977 133.878 1.48307
-7.14159 129.272 -6.25238
15.5262 134.335 -5.43064
17.9509 135.345 -6.41022
21.0479 130.838 6.37059
-16.27 125.13 -1.21872
-16.5736 121.407 7.67674
6.07967 126.777 7.70439
-13.7811 122.882 5.80052
-9.78118 123.865 5.73797
17.9461 135.681 -6.96776
28.3843 137.629 -5.66606
-5.40773 123.579 9.03271
-14.6996 125.817 -1.74631
18.2885 130.458 6.07786
-22.5454 120.052 7.82828
-16.2901 121.646 7.59812
-19.8302 124.28 -0.847756
21.0666 136.871 -7.80979
-15.6826 125.474 -1.15887
11.624 129.365 5.22123
-11.1529 123.461 6.54541
-22.5617 120.409 7.42045
21.1659 137.065 -7.7969
-15.2576 125.674 -1.09263
-1.08402 125.245 8.16036
11.7649 129.765 4.64369
-4.64876 124.19 8.74704
13.8781 136.117 -9.55112
-15.7538 122.087 7.48552
19.8419 130.553 7.4688
3.35149 130.985 -3.01371
6.74551 132.632 -5.01928
10.4751 134.493 -7.39028
16.7557 135.316 -5.72427
-11.7484 129.114 -7.07915
20.5485 131.178 6.58362
-15.1728 123.226 5.41564
-3.54604 129.899 -4.04034
-15.6511 125.777 -1.00111
-5.86139 124.16 8.59647
15.4745 136.446 -8.83788
-6.06962 124.277 8.34616
-17.1939 121.963 7.56496
-4.27677 130.023 -4.56053
-18.9803 120.365 10.5112
6.73411 132.881 -5.06111
24.6731 137.822 -6.66489
6.80034 133.018 -5.23146
-20.1501 124.785 -0.684087
10.5397 129.184 6.36493
12.416 131.192 2.61377
26.4691 135.52 0.233431
-8.51272 130.502 -7.64913
28.242 138.139 -4.95638
-17.8 121.233 9.62914
27.2813 136.084 -0.372609
21.9253 133.226 3.5344
-17.1661 122.373 7.42512
-14.3838 123.435 6.54629
5.71677 132.511 -3.8821
6.85133 133.461 -5.52577
24.1977 138.136 -6.86201
17.1626 136.704 -7.40976
0.845248 131.194 -3.40214
-15.3296 126.291 -0.817183
-15.2648 122.55 8.38398
-2.58444 130.399 -3.36011
0.609875 127.342 5.94329
-7.32146 124.95 7.21207
-14.5629 123.205 7.52271
-17.5152 121.697 9.5027
12.3025 131.654 2.51926
26.6723 136.103 0.0283865
27.0845 136.328 -0.271755
-11.507 129.991 -7.13106
20.391 132.532 5.1238
-22.1357 123.608 2.28344
21.1336 133.095 4.21943
-7.21617 125.187 7.13048
12.3941 131.811 2.39755
4.09604 128.047 6.77573
5.8611 132.929 -4.07153
-15.7953 122.841 7.99171
11.7184 136.144 -8.42495
-22.3045 120.146 10.8548
-11.9555 124.473 6.34152
9.1474 134.961 -6.96933
-9.62738 125.608 4.94488
-6.93279 125.212 7.46534
7.32576 134.338 -6.40026
17.1832 136.701 -6.43861
-3.05484 130.77 -3.69104
-22.7407 123.234 3.29822
-15.7798 122.61 8.87598
-15.456 127.022 -1.66354
17.9098 137.427 -7.63909
-9.0331 131.313 -8.27029
-22.968 122.905 4.16648
22.1575 134.12 3.04674
27.9782 138.677 -4.65711
24.6594 135.41 1.38344
-4.57925 130.962 -4.62418
7.69488 134.692 -6.58513
10.8483 130.365 5.91102
-22.4546 123.848 2.66083
-12.4012 124.963 5.78432
7.07074 128.792 7.7399
-10.0722 131.127 -7.82417
-17.6321 126.888 -1.83886
-18.019 126.742 -1.63431
-20.8526 120.646 11.5819
-0.490192 131.48 -2.85176
-12.7724 125.237 5.32193
-22.2238 120.891 10.4554
-14.9677 127.394 -1.17069
17.3689 137.453 -6.95071
3.73422 132.593 -2.987
-15.922 123.079 8.88253
-12.3189 125.417 5.32187
14.7611 133.491 1.36339
23.0272 135.159 2.21025
-2.04096 127.178 7.17021
-21.9802 120.822 11.1496
-2.00862 127.196 7.18687
9.43136 135.837 -7.20978
-6.48195 126.254 6.92073
-15.1176 127.607 -1.33578
-15.1685 128.216 -2.66804
-15.1962 128.068 -2.32205
23.9692 139.204 -6.72334
14.9344 137.844 -8.54366
1.59522 128.613 6.23477
15.4296 137.832 -8.18599
-14.2924 128.947 -3.71113
-1.75387 131.544 -2.77702
-16.6703 122.905 9.68617
-1.25823 131.613 -2.54476
5.20164 129.097 7.42656
-6.53345 126.557 6.82984
17.5257 133.346 4.23918
-4.87362 131.728 -4.66346
27.4427 138.409 -2.24675
17.7262 138.205 -7.29753
-21.4908 125.612 0.701878
-5.56994 131.827 -5.11261
-11.4611 130.893 -6.23252
4.3041 133.495 -3.41939
-12.3437 124.898 8.03244
8.84825 130.51 6.62404
-11.9194 125.615 6.54914
10.2225 136.663 -7.53123
-4.97138 131.954 -4.68176
-22.7263 122.094 9.10211
-5.30721 127.424 6.22459
9.82108 131.054 6.17543
15.6339 138.199 -7.49744
-12.4425 130.405 -4.7334
12.9549 133.553 2.28251
-14.5286 128.408 -1.00359
-8.3901 127.284 5.28175
14.1621 138.405 -8.70517
-12.9363 124.927 8.43583
1.76725 129.397 6.17522
11.3312 132.688 3.73977
1.65709 129.538 6.05993
-0.171513 129.49 5.13058
-11.0502 126.494 6.29537
-5.54364 127.951 6.04506
-1.5778 129.109 5.64629
19.2237 133.962 5.89963
17.2383 137.796 -4.55031
-12.5453 125.501 8.18039
16.9114 137.818 -4.731
15.8477 138.574 -7.07775
-14.7991 129.623 -2.79117
10.9181 132.646 4.86179
-8.72106 127.987 4.87436
11.0478 138.166 -8.44031
-9.58049 127.525 5.58041
-13.6478 130.544 -4.09549
-7.59325 133.218 -7.03034
-11.089 126.938 6.22577
-20.5166 127.457 -0.476436
9.89132 131.952 6.24618
21.7424 136.008 3.31181
-21.6457 125.549 3.72879
17.4072 138.744 -5.7835
18.3118 139.504 -7.09965
-16.0244 129.316 -2.10776
-19.4369 123.022 11.2487
-14.7751 129.93 -2.85489
24.464 140.416 -5.68108
27.1825 139.81 -2.61371
23.7454 140.615 -6.4089
-20.7027 126.968 1.12352
25.8723 140.392 -4.61479
17.2129 134.551 4.71517
-7.84838 133.649 -7.2275
-12.5278 126.61 7.49331
24.0736 140.847 -5.93141
-0.445311 133.519 -2.25749
-7.23998 128.952 4.93028
21.0307 135.975 4.21103
-15.9373 125.547 8.32721
5.71115 131.247 7.04288
17.2992 139.157 -5.50122
-19.8557 128.467 -0.944742
-20.9615 126.56 3.17079
19.8402 135.422 5.17833
24.6454 138.518 0.467594
-2.46251 130.254 4.93073
7.28428 137.469 -6.96025
6.74649 137.058 -6.23729
-4.92207 129.662 5.02298
-6.43712 134.051 -6.51651
-10.0164 127.986 6.3058
7.19299 131.669 7.31675
-16.656 125.642 8.21509
-21.0968 123.481 10.9128
-12.6178 126.56 8.36291
-19.4928 123.883 10.9537
10.4598 133.982 3.7054
-9.70596 133.464 -6.57005
-6.10904 129.526 5.12928
-4.93919 133.929 -4.846
14.1529 139.556 -7.4816
21.8369 137.266 2.6459
6.25229 131.752 7.06152
12.4268 139.739 -8.77683
-19.6996 128.94 -0.803602
-20.6074 127.458 2.44151
1.55078 131.74 4.92526
20.495 136.395 4.64689
-18.2413 125.136 9.68307
0.419171 134.562 -2.14467
-12.6713 127.163 8.30331
18.0719 140.506 -6.38244
-17.2785 125.989 8.52195
-12.1798 127.576 7.67607
13.582 140.039 -7.76079
6.32549 132.284 6.92521
25.6025 139.784 -0.174766
8.37096 138.684 -7.44773
6.8382 132.286 7.25331
6.2659 137.496 -5.73989
24.8924 139.499 0.156929
-3.95017 130.988 4.23296
-15.0401 130.822 -1.75454
-16.8551 126.335 8.11607
-21.8087 126.035 6.00805
21.2504 141.429 -6.52571
11.1183 135.27 2.6338
24.6464 141.658 -5.02643
-14.8395 131.001 -1.81559
21.8135 137.848 2.72828
0.502985 134.806 -2.12221
-17.6051 126.073 8.67201
-11.4943 128.501 6.38248
-5.65414 134.983 -6.00573
21.5971 141.659 -6.50675
-3.26849 134.561 -3.55889
-10.6381 133.744 -5.77257
-11.6685 128.417 6.60004
26.2192 140.704 -1.39764
9.68656 133.491 6.63186
6.8085 138.235 -6.50242
11.8439 136.045 1.87577
-16.8581 130.896 -2.14919
8.7205 139.216 -7.6057
-21.7651 125.817 7.39266
0.492258 135.046 -2.10324
21.885 138.234 2.57214
-2.85042 131.811 3.97076
14.5225 140.563 -7.25959
-18.5443 125.777 9.61479
-15.9669 131.123 -1.77128
10.7167 135.357 3.40744
14.5732 137.088 1.50767
6.14459 133.032 6.67588
10.6819 135.387 3.64786
4.32863 133.138 5.57686
15.0558 137.298 1.65536
2.00318 132.982 4.77535
-5.37768 131.38 4.42957
-14.3109 131.809 -1.73651
15.6849 140.553 -5.67202
15.4826 140.91 -6.60466
24.0828 142.514 -5.37568
-2.57474 132.372 3.98037
19.3044 141.814 -6.35166
1.15912 135.831 -2.11746
-2.43102 135.302 -2.85374
3.78187 137.057 -3.44138
25.5152 141.038 -0.394743
8.21384 134.068 6.69263
15.4965 141.096 -6.12219
16.784 140.681 -4.25839
24.7517 142.75 -4.66366
-6.58063 136.268 -6.91068
21.4183 138.798 3.1215
-8.10105 130.889 5.44271
-21.7947 126.413 8.44211
-18.3332 131.028 -0.63901
-19.5252 130.392 0.226836
24.2218 140.82 0.171065
18.4987 142.147 -6.35464
8.98463 134.856 5.90482
-20.3909 126.169 10.1367
2.14694 133.802 4.61898
-19.7757 126.245 10.3683
-9.26202 135.719 -6.55888
18.1888 137.186 5.81769
18.4228 142.235 -6.27365
-14.6569 128.407 8.26701
-1.39468 135.943 -2.36833
-13.5825 128.706 8.20091
4.22083 134.006 5.6081
14.9952 138.202 1.64518
9.54846 135.164 5.94621
16.924 141.105 -4.24264
9.11724 135.145 5.75906
14.1184 141.866 -7.65692
12.5615 141.844 -8.37978
13.8204 141.927 -7.82394
8.95973 135.262 5.60103
10.7886 136.443 3.83825
7.39143 134.817 5.89172
24.9999 141.545 -0.291686
-1.75802 133.51 3.85182
12.0199 141.874 -8.48705
19.1069 138.047 5.01857
16.3359 138.189 3.09147
21.0022 142.95 -5.75838
-14.8888 132.485 -1.01685
16.7684 141.17 -3.84307
25.4979 143.203 -3.73099
21.386 143.101 -5.77704
1.36245 134.208 4.41602
-0.358059 136.523 -2.10219
11.1641 137.56 2.06939
-9.12782 130.982 6.40188
-0.251083 134.092 4.05492
-5.91456 132.698 4.24784
25.5577 142.437 -1.25556
4.5652 138.812 -4.55512
-8.73962 131.367 5.87418
3.66923 138.298 -3.7556
-1.19254 136.547 -2.25964
7.40801 135.67 4.89854
-13.1791 129.745 7.47398
10.4992 141.814 -8.16607
-16.4526 132.641 -1.40823
18.7061 138.289 5.40971
8.23551 141.121 -7.4321
23.0181 141.278 0.873022
-19.5094 127.811 9.40492
-15.3955 129.491 7.75958
14.254 142.754 -7.28328
11.7654 138.443 1.87357
22.2087 140.963 1.8767
25.3907 143.068 -1.39388
-18.5393 132.383 -0.745045
-16.0165 133.146 -1.04851
-7.33686 137.603 -6.84365
13.014 139.016 1.58552
7.52909 136.21 5.25922
-10.795 130.929 7.53109
10.2648 142.344 -8.0614
-16.3223 129.463 7.92887
5.1898 135.661 5.28859
-14.5095 129.989 7.77768
16.9457 138.819 4.48854
-18.5035 128.819 8.36987
5.16142 135.765 5.17797
-12.3111 130.894 7.00494
16.4802 139.137 3.58863
14.4012 142.665 -6.18962
21.4888 140.669 2.76914
24.8915 144.238 -3.93864
15.3934 141.958 -3.85953
21.9062 140.995 2.347
17.8264 142.794 -4.34087
-1.53212 135.001 3.43526
15.7697 139.735 1.92655
17.1913 142.659 -4.22165
-20.0092 130.594 3.83267
10.1276 137.128 5.3828
-14.0186 134.452 -1.96067
22.7415 141.931 1.10503
-3.42765 137.862 -3.99508
-14.7768 130.479 7.56049
-7.66221 133.076 5.38048
4.2479 135.874 5.45171
12.8814 143.124 -7.18723
-1.68126 135.353 3.37838
4.32017 140.026 -4.45316
-7.80257 138.066 -6.64018
-4.38463 134.691 3.74353
24.8244 143.342 -0.418706
10.0795 142.933 -7.90936
11.4108 143.203 -7.756
21.1894 141.17 2.91616
-19.9028 131.486 2.84077
-6.45803 138.485 -6.4093
25.0006 144.531 -2.89106
1.65507 136.271 3.86971
-12.7547 135.956 -3.66097
15.0671 142.677 -3.88144
-15.5434 134.045 -0.548709
2.40222 136.312 4.34949
0.551007 136.325 3.32476
4.62 140.624 -4.77513
6.9188 141.911 -6.5041
-19.1372 133.047 0.0962452
21.4404 141.703 2.65291
23.4425 145.16 -4.51635
-4.80946 135.146 3.55211
-3.11248 135.627 3.52259
4.31658 136.907 4.78744
-4.30262 138.646 -4.31486
9.13065 137.78 5.60276
1.81628 136.715 4.00176
-21.2133 129.294 8.77384
18.4213 144.427 -5.14349
11.309 139.694 2.26367
-0.837635 136.438 3.19614
-18.2688 133.803 -0.311022
23.5357 145.402 -4.31104
15.4172 143.236 -3.72679
-12.9099 135.911 -2.17879
-20.1047 129.5 9.26867
13.7979 140.757 1.46533
17.2523 140.353 4.44679
-8.69428 138.696 -6.25171
-5.06683 135.718 3.13643
-7.77659 139.024 -6.46405
12.8082 140.521 1.82515
9.78443 138.698 4.55166
11.5611 140.078 2.2268
-2.94265 136.272 3.24502
16.6167 140.931 3.25771
20.36 145.225 -5.01625
14.6227 143.979 -5.27581
-8.78341 133.377 6.99936
17.8388 140.456 5.17333
-7.23272 134.266 5.97526
4.15233 137.513 4.79279
-10.7607 138.22 -5.35412
12.9685 144.51 -6.82334
-5.20979 139.507 -5.10459
-8.23125 134.052 6.44773
-11.3842 137.956 -4.85895
-2.81994 139.473 -3.20912
9.02008 143.988 -7.30346
23.9198 145.41 -2.08614
17.5659 144.774 -4.12891
1.97054 137.852 3.7473
8.02922 138.441 5.87092
14.3953 141.858 1.25336
-9.26053 139.22 -5.98166
-20.1484 130.488 8.9858
-13.4897 137.21 -3.50881
-17.491 131.23 8.78972
-11.6217 132.857 8.27514
6.73859 138.417 5.53715
13.5647 145.066 -6.60234
-4.8575 139.911 -4.65371
12.4259 144.928 -6.84772
5.09719 142.592 -5.39251
5.99608 143.112 -5.99824
-7.85545 134.822 6.38181
-6.60473 136.028 4.27352
23.9633 146.445 -3.33686
23.2008 146.492 -3.85965
14.7648 145.202 -5.46818
0.311036 140.459 -2.26333
-19.9547 131.917 6.81779
-0.713207 138 3.18261
4.6837 138.769 4.44286
-17.226 135.113 0.787987
6.51042 143.682 -6.18588
23.6167 146.665 -3.49261
13.9932 145.569 -6.37779
1.65081 138.772 3.15024
21.9958 144.202 1.73814
-9.77298 134.42 7.23339
-19.2301 131.508 8.971
7.30401 144.209 -6.50611
-4.33 137.821 2.44157
-10.4166 139.457 -5.04289
-8.0879 135.28 6.48077
-13.1779 138.268 -3.68061
-6.57626 136.574 4.30994
5.6525 139.405 4.58545
6.37069 139.103 5.7885
13.0818 142.562 1.30822
-5.19618 140.897 -5.03738
4.2492 142.979 -4.62047
-11.7289 138.984 -4.06515
10.5074 141.854 1.80328
-8.38203 140.608 -6.05369
14.3904 143.026 1.39375
-1.52951 140.87 -2.50754
-2.32063 140.824 -2.83968
-9.21445 140.328 -5.60393
5.81486 144.037 -5.8088
-2.99144 138.489 2.62798
-0.674788 138.93 3.00831
17.0195 142.563 4.39921
6.71533 139.284 6.44844
-13.2964 137.756 -1.37716
-19.4952 133.038 6.6039
-2.93192 141.05 -3.07945
21.1183 144.55 2.33706
-11.5214 134.424 8.13696
14.6488 143.287 1.74127
-3.29494 138.742 2.47565
-15.3984 133.394 8.56402
18.1984 146.321 -3.47422
10.1555 145.9 -7.08888
19.5945 146.814 -3.80034
-19.79 132.063 9.35931
-19.7527 132.087 9.35291
1.55785 139.761 3.06046
1.80769 139.814 3.09142
14.4754 146.233 -5.15112
17.3527 146.053 -3.02805
9.74523 145.994 -7.13362
20.4115 144.536 2.60326
-10.7528 135.236 7.48401
-1.24879 139.34 3.03871
-19.6327 134.141 5.16142
-0.12202 139.749 2.81575
0.615077 139.923 2.90276
16.2618 143.323 3.69875
-17.3783 133.002 9.40433
-14.419 133.953 8.83226
17.0133 143.419 4.03475
16.0514 146.038 -2.85876
-10.0775 140.662 -4.64896
-8.79041 136.126 7.2047
18.797 144.515 3.00246
15.7141 146.369 -3.26361
-6.03352 138.617 3.08626
-12.0005 135.136 8.59936
17.1505 146.502 -2.13114
-17.8952 133.384 9.56827
22.2337 147.594 -1.78503
-4.99535 139.425 2.47088
6.6293 140.805 5.87234
-8.65326 136.94 6.55488
-4.64174 142.374 -4.30683
17.3958 144.501 3.28375
-4.96345 142.44 -4.53582
5.41776 145.302 -5.48058
-12.9926 139.653 -2.25439
22.0916 147.769 -1.67699
-19.5671 134.606 6.44565
-1.35684 142.563 -2.33924
8.64661 142.653 3.22702
5.14919 141.132 5.23454
22.0977 148.279 -2.34545
13.3704 147.345 -4.97656
3.30986 144.623 -4.03886
-18.0889 136.019 4.62211
-7.30924 142.834 -5.71168
-12.1323 140.762 -3.30978
-16.3032 137.839 1.65715
-8.72354 137.95 6.09487
10.5525 147.733 -6.50588
-18.4593 135.792 5.79265
-12.4626 140.062 -1.04152
-13.0153 139.606 -0.24844
-16.6058 134.73 9.59728
7.28055 142.278 5.04106
2.79014 141.673 3.98608
7.04609 142.131 5.33254
-12.0852 141.246 -3.35065
-10.2887 142.147 -4.50021
-13.5951 139.347 0.451
21.5943 148.723 -2.01361
13.2509 147.796 -4.56468
-17.5474 134.746 9.40086
18.0027 148.108 -2.56319
21.5216 148.307 -0.884917
4.26465 141.762 5.15708
9.79989 144.599 1.58475
14.0847 145.636 1.58336
-13.736 139.44 0.739622
13.0867 145.734 1.23476
-9.49726 137.79 7.54018
9.02783 147.941 -6.38946
21.0704 148.211 -0.0861168
3.61124 141.772 5.65749
21.083 148.635 -0.807607
-13.1479 140.038 0.416915
-14.1229 136.281 9.08513
9.6966 145.23 1.62044
-12.0395 137.416 8.09879
2.90229 141.799 6.16131
13.6671 146.361 1.28785
-14.9269 139.531 1.41495
-12.5582 137.451 8.20115
-8.10607 139.947 5.12228
8.80533 145.251 2.12048
6.21447 143.519 4.91352
-8.85175 139.558 5.97968
-7.13202 144.623 -5.33809
2.79006 146.379 -3.87857
12.5562 148.949 -4.47575
1.96719 142.574 4.9371
16.6369 148.895 -1.84019
-3.43091 142.407 2.42208
-4.42486 142.246 2.31735
6.75882 148.144 -5.50201
4.92785 142.894 6.32741
5.51333 143.222 5.91681
16.6302 149.185 -1.88702
19.8328 149.598 -0.633326
15.6166 148.87 -1.28221
5.97106 148.183 -5.17307
-4.29621 142.797 2.25009
14.164 149.544 -3.49177
11.0715 146.821 1.35363
15.8953 149.078 -1.33956
17.3243 147.88 2.74375
5.32446 144.009 5.44001
-13.5209 141.287 1.2026
14.8886 147.682 2.11289
-10.4616 144.228 -4.00727
19.0882 149.548 0.131288
-15.1316 140.74 2.02219
-15.7935 137.667 9.21208
6.08731 148.759 -5.0966
0.518607 143.885 3.62903
-11.2052 143.987 -3.38091
13.6542 149.989 -3.52142
-12.5943 142.157 0.968524
7.64088 149.54 -5.25482
15.0876 149.688 -1.27879
-12.6582 142.893 -0.612193
10.1055 150.305 -5.39666
-14.326 141.586 1.77123
-5.78243 143.369 2.47354
-0.785461 146.502 -2.18526
14.7966 149.976 -1.55422
18.5508 150.188 0.214304
13.0282 150.405 -3.25339
15.9423 150.4 -1.54723
-12.233 139.642 8.62198
-4.46975 146.469 -3.45229
-13.6079 139.406 8.82036
0.879917 147.725 -2.95815
-10.3519 140.664 7.81454
-16.9699 140.031 5.61185
-5.41252 146.82 -4.15392
-3.15058 145.013 1.87444
9.27867 150.89 -5.22275
11.181 150.896 -4.00512
-15.8307 139.302 8.83227
-8.40766 146.63 -4.64011
7.05754 150.36 -4.75231
-8.14859 142.835 4.96595
-12.2365 144.159 -0.401479
10.1256 148.717 1.4752
-14.4607 139.896 8.74472
8.67678 148.247 2.16728
-11.2847 140.939 8.42711
-5.50157 147.536 -4.07722
-6.73269 147.434 -4.40903
11.822 151.179 -2.5206
-12.2522 144.579 -0.317778
1.11108 148.934 -3.11191
1.91682 149.257 -3.42562
12.5799 149.788 1.47993
-11.5543 145.589 -2.2261
-11.068 141.453 8.24137
-12.1955 144.577 0.262876
-15.233 140.578 8.36346
-15.7707 140.671 7.8296
-15.6691 142.191 4.24191
-7.39692 147.742 -4.29114
-8.21668 143.764 4.91466
