ply
format ascii 1.0
comment Created by Open3D
element vertex 1955
property double x
property double y
property double z
end_header
-2.01485 102.717 -12.7681
-0.798514 80.0712 1.58434
-4.42353 109.015 -11.7492
-18.2387 126.77 7.78049
-14.6284 117.647 6.13635
-0.522281 96.255 -11.1879
-20.2876 141.2 1.74029
2.27167 83.4046 -8.02612
-13.558 130.794 -6.31342
-1.22121 99.8677 -12.0312
-14.7359 119.516 5.23313
-21.1257 138.762 5.86103
-3.8971 108.532 -12.1746
-2.83738 106.532 -13.0779
-12.862 130.716 -7.48522
-8.7035 97.7969 7.68525
-6.75558 94.0399 5.95092
-16.4058 125.043 5.38026
-12.9829 113.629 5.92656
-12.9301 111.034 7.92325
-13.2495 131.594 -6.94425
-15.0964 134.463 -4.72089
4.12571 75.829 -5.83737
-12.1773 130.743 -8.72222
4.35618 75.0709 -5.70618
-5.78907 91.8253 5.77045
-17.6258 138.329 -1.38924
-17.3336 126.698 6.93559
2.00597 86.8756 -8.79835
3.29034 80.5891 -7.03759
0.400524 79.2483 0.881802
1.74299 75.137 0.849025
-0.0202343 96.5351 -11.1491
-16.6703 124.63 7.19197
-12.8831 109.973 9.3253
0.789184 78.7828 0.487155
-15.5401 136.794 -4.72431
-6.35983 93.7957 6.12247
0.725469 93.2356 -10.3068
-12.9797 132.021 -7.12635
-0.0390115 80.1332 1.57595
-12.8844 109.664 9.77501
1.92993 76.2341 0.21303
-16.8331 126.559 6.69129
-5.14122 112.901 -10.7038
-13.2955 112.506 9.18448
-15.4946 121.902 7.30659
-8.32652 98.7785 7.89922
-14.7749 119.007 7.91024
-0.164898 99.4374 -11.9882
-6.80133 117.006 -9.46246
-9.18756 124.51 -9.47004
2.16829 76.45 0.0587544
-15.6808 125.576 5.24736
-15.6087 136.09 -2.69029
3.30756 83.8329 -7.98205
-15.2811 136.325 -3.60601
4.44883 77.8934 -6.12871
-6.25234 94.6952 6.5978
-11.2676 131.089 -9.03729
-6.7381 96.1409 6.77985
-10.5542 128.463 -8.70786
-6.2565 116.223 -9.60672
-20.1694 140.293 5.34294
-12.5482 110.39 9.96195
-0.527534 81.9915 2.93497
-12.4961 110.583 9.75467
-6.74156 96.3833 6.98102
-6.29313 95.2948 6.78088
2.61177 75.793 0.42718
-2.20839 108.24 -12.7033
3.91266 81.8842 -7.23514
-14.9495 135.838 -3.17382
-0.0805939 81.5161 2.80022
0.728764 97.4326 -11.2273
4.55875 79.1748 -6.45637
-8.41277 100.545 8.20586
2.50409 77.5279 -0.232368
-11.1587 107.098 9.81985
-17.3817 140.484 -0.698874
-20.0184 139.451 6.49929
-19.6952 137.273 7.44607
-17.3003 130.057 7.27758
-15.5273 137.387 -2.48923
-14.9106 122.402 7.57272
-17.1496 129.845 7.32791
-14.3514 119.175 8.78176
-10.4902 130.962 -9.37371
-19.7264 138.217 7.14401
-19.2519 135.735 7.91594
3.32934 87.366 -9.06458
-18.3955 133.954 7.26492
-7.32116 98.296 8.03396
-16.815 140.231 -1.17011
-0.473892 82.9597 3.53691
-13.6418 116.42 9.46483
-19.405 136.999 7.56512
-17.8055 142.199 -0.182433
-14.7194 121.738 8.07526
-15.6467 138.248 -2.20982
-15.8593 127.115 6.78255
-14.6977 122.349 7.72153
1.95609 79.2162 0.872371
1.09564 80.5367 1.92359
-17.7553 142.353 -0.186307
-7.45241 99.4476 8.01683
-6.14441 96.5124 7.29707
-10.7283 107.394 10.0242
0.14173 82.318 3.27212
-13.8109 118.766 8.9521
-15.2081 138.528 -2.46843
-3.9729 113.871 -10.4187
-15.4541 127.334 6.82293
-15.3247 138.92 -2.29581
-6.33949 119.473 -8.69585
-5.53356 95.8932 7.42304
-2.30202 87.8879 5.85061
-15.7137 128.715 6.76827
-16.8839 131.959 7.08868
-7.64278 101.412 8.41329
-11.9764 113.414 9.8874
-11.4575 134.765 -7.5573
-5.30202 117.562 -9.11551
1.14765 81.6122 2.88224
-8.79433 104.41 9.25076
-14.0142 121.988 8.39042
-9.87748 132.203 -9.22172
-12.6528 137.197 -6.37744
-4.36269 115.617 -9.68387
-12.9134 137.481 -5.89814
-5.22901 95.7579 7.55782
4.83781 84.8914 -7.99255
-1.6544 87.4902 5.49304
-12.8999 137.797 -5.97114
0.717156 104.125 -12.7827
5.97247 79.2959 -6.36345
-18.9687 141.941 5.45215
5.26758 83.5409 -7.63791
3.96099 90.0842 -9.46712
-14.6093 141.44 -4.169
-3.59023 92.0677 7.17793
-11.3067 135.844 -7.59421
-4.96783 117.886 -9.02839
-15.1982 129.068 6.84937
-14.5132 141.657 -4.30591
-12.9495 118.796 9.40625
-7.25367 102.129 8.57946
-15.9945 142.783 -1.50978
3.2566 95.1086 -11.0124
-8.83888 128.927 -7.87357
-13.1552 123.349 6.83012
-18.5102 140.301 6.85692
-13.5196 140.255 -4.92821
-15.1918 142.08 -2.33176
6.55807 79.076 -6.20759
-17.9253 144.584 2.35555
-7.7781 103.863 9.2142
-15.0231 142.087 -2.47324
-13.1459 139.863 -5.22806
-18.4579 142.339 5.58498
0.855417 105.858 -12.6123
-18.0947 139.231 7.25894
-12.6394 139.302 -5.7693
6.82011 78.7814 -6.07976
-9.37217 133.395 -9.02062
-9.86313 109.75 10.1482
5.55207 86.4244 -8.7284
6.01587 83.6595 -7.62919
-6.87089 102.603 8.66293
-15.1944 130.624 7.20845
-8.30268 128.917 -7.87387
-2.73739 114.724 -10.2814
-0.274067 86.6612 5.20838
7.23886 77.4387 -5.64186
-6.89758 102.835 8.73429
-13.9881 142.417 -4.43203
-2.20606 90.6698 6.91369
-7.47869 127.42 -8.31357
7.21304 78.3337 -5.88788
-13.5233 141.667 -4.6518
-11.9984 117.29 10.3155
-17.0435 144.866 1.37573
6.58771 82.4084 -7.28808
-5.62143 100.525 8.13021
-2.94812 93.0087 7.50036
-3.47367 94.6434 7.57257
-18.0034 142.892 5.52427
-11.4668 138.437 -6.64827
-10.0176 111.774 10.2121
5.66413 88.1813 -9.19179
3.42667 98.1038 -11.212
-6.38386 102.798 8.65183
-7.95166 129.899 -8.22237
-17.7081 140.351 7.19742
-5.57163 122.142 -7.84399
6.77744 83.0921 -7.50629
-15.4467 143.892 -0.747445
-7.86958 130.649 -8.55954
-12.3975 121.198 9.43683
-12.495 125.722 6.2437
8.29358 75.5215 -5.08269
-7.79426 130.351 -8.41346
-13.8464 129.379 6.89073
3.53764 98.79 -11.236
-15.2534 132.951 7.67876
-8.36799 133.189 -8.84212
-0.418474 88.3783 6.39782
1.04954 86.1012 4.65234
-3.57269 118.517 -8.82928
-12.8758 142.56 -4.94778
-7.76705 106.847 10.1411
7.56119 80.7292 -6.4548
-14.9545 132.725 7.64812
0.166515 87.4353 6.09081
-14.3301 131.423 7.19988
-0.890968 114.076 -11.6016
6.29487 75.4507 0.705941
3.0255 102.321 -11.7396
8.38682 77.2594 -5.43675
-14.9578 133.32 7.53091
-10.0132 113.575 10.7757
0.0815669 87.8509 6.3022
-7.92477 107.595 10.4055
-15.2639 134.919 7.37436
-10.0775 114.457 10.5982
-11.932 120.837 10.2067
6.12661 77.199 0.491178
-16.6735 145.488 2.89399
8.30645 78.7195 -5.81912
4.46198 97.2795 -10.7733
-11.7599 124.057 7.5891
-10.6393 139.469 -6.7179
-7.76587 133.384 -8.65723
-16.4886 145.601 2.83586
-10.5855 116.953 10.6334
-5.1349 123.483 -7.29242
-0.842399 91.1784 7.13217
-13.0855 130.058 6.73147
8.88985 77.1429 -5.33878
3.82886 82.0493 2.98444
-13.1823 143.669 -3.35012
2.168 107.321 -12.2412
-11.9092 126.557 6.67318
3.99401 81.8175 2.85862
4.80897 97.1884 -10.7102
-12.9763 143.653 -3.58283
-16.8815 143.146 6.27532
-7.1107 132.039 -8.38907
5.49433 79.614 1.48509
-11.4524 124.484 7.73021
0.438115 112.544 -11.5032
-4.03781 100.734 8.30926
-15.6132 146.295 1.32943
-6.7967 131.488 -8.27101
8.36095 82.4978 -7.09395
-9.2012 114.299 10.6682
6.75442 77.8688 0.387668
-12.0132 143.708 -4.98629
3.44877 104.526 -11.9398
-2.94931 97.6321 8.65959
-11.0947 120.927 10.4266
4.35727 82.4936 2.87516
-12.5841 144.466 -3.88739
-8.66546 112.685 10.9835
-3.65121 100.355 8.41927
-4.49242 102.963 8.56931
-11.9173 129.182 6.37669
-0.511113 92.0812 7.4456
-11.5731 128.189 6.37027
-14.8062 146.176 0.40163
-7.90744 110.724 10.9511
-6.0697 130.156 -8.19242
8.67518 82.6383 -7.09704
6.37818 93.8404 -10.0964
-5.41495 127.89 -7.86113
9.53516 77.8739 -5.42009
6.9534 91.5247 -9.65152
-4.43014 123.966 -7.09234
-16.065 141.845 7.09572
-12.7759 145.017 -3.14728
-11.1197 124.921 8.24204
-7.13354 133.963 -8.09123
-1.8518 119.163 -9.37424
-7.75892 110.872 11.0238
6.48591 79.3642 1.07512
6.10285 96.2864 -10.8399
-15.6332 146.258 2.93917
-13.25 145.314 -1.91418
5.0257 99.9706 -10.9176
2.36088 109.376 -11.7138
-6.31971 107.549 10.3493
-12.374 131.885 6.26121
-7.79642 111.326 11.0348
-15.5204 139.953 7.67302
-7.97821 137.148 -8.1513
-11.7234 129.724 6.47201
-13.474 145.542 -1.35822
-15.4335 146.517 2.57524
9.62874 78.9458 -5.63166
-8.39405 113.796 10.8472
-10.9991 124.174 9.18253
-12.4361 145.482 -3.57778
-0.344411 92.7569 7.76225
-10.8777 123.315 9.68546
7.3174 91.7793 -9.62884
2.43409 86.9443 5.71707
-15.0112 139.192 7.63877
-6.94592 134.535 -7.98044
-13.5661 135.354 7.16589
6.2968 96.7774 -10.8011
-13.2231 134.44 7.1999
3.22665 108.376 -12.0694
8.13472 76.4731 0.528304
-15.7869 144.09 6.12549
4.71073 102.752 -11.2235
-14.126 146.702 0.234341
-1.52935 96.2648 8.67399
-11.3334 129.887 6.4726
-1.78379 96.9948 8.78328
-4.57452 126.713 -7.16984
-15.2655 146.728 3.08888
-11.5056 145.471 -4.7175
-5.47597 130.213 -7.38283
-1.05282 95.3968 8.56657
-8.70372 117.008 10.5001
-3.24853 123.632 -7.50375
1.28278 114.464 -11.2957
8.07682 90.8892 -9.48556
8.49362 76.4067 0.544299
4.69378 104.094 -11.4312
6.46292 80.7908 2.09153
-4.68945 105.871 9.73702
-10.693 144.215 -5.10262
-10.0978 142.903 -5.51771
10.3647 78.7015 -5.41475
-5.39269 130.341 -7.15521
-9.33413 141.709 -6.33347
-14.0038 147.115 0.748303
-10.4149 126.002 8.26601
-15.1092 146.669 3.7923
-11.6959 133.07 6.03425
-10.0573 124.659 8.57545
6.29257 98.8929 -10.7172
-4.12378 105.224 9.43532
-9.96388 124.777 8.51312
0.932411 116.078 -10.7948
8.36792 91.0923 -9.4792
1.93685 113.619 -11.2721
-14.9847 145.841 4.69205
9.1233 87.5756 -8.31669
-4.80901 107.129 9.99567
7.91823 79.139 1.01032
-2.47818 101.967 8.43165
3.768 109.274 -11.8894
-5.28501 130.768 -6.64964
-6.64728 111.808 11.0156
6.91297 97.9123 -10.6795
6.82379 98.1823 -10.6597
-12.9613 147.121 -0.741511
7.13923 80.6621 1.96395
-11.6855 147.024 -3.66551
-6.7462 112.303 11.0074
-11.4445 146.868 -3.99654
9.76707 84.8194 -7.22053
6.71339 81.8331 2.34229
5.39479 104.422 -11.6718
6.59197 82.3266 2.44473
11.5366 76.6234 -4.96462
-9.75489 143.999 -5.44332
-14.2298 141.332 7.24955
-14.624 143.177 6.80287
-12.7247 137.262 6.78429
-12.4878 136.839 6.61064
3.4275 110.882 -11.5112
-12.5225 137.158 6.49495
-11.6844 134.535 6.62082
-14.1727 147.893 2.43044
-12.6874 138.192 6.29028
-12.1215 136.894 5.95358
-0.676288 121.107 -9.23657
-10.6904 132.82 5.78975
8.24477 95.3892 -10.778
0.705593 93.8516 8.34725
-14.5299 144.553 6.11492
-7.40573 116.222 10.7487
-9.14939 125.048 8.20254
-8.83203 143.021 -6.19988
-9.46896 126.34 8.02619
-9.988 145.603 -5.34141
-14.2838 143.025 6.88691
-5.40657 132.539 -6.27822
-3.76419 127.401 -6.28109
-9.51837 126.851 7.91658
-9.30447 126.065 8.0489
10.8398 81.9728 -6.38076
-11.596 148.066 -3.18003
8.0666 80.2075 1.65513
-5.58932 110.911 10.859
-6.42276 113.507 10.891
-8.90551 124.959 8.17096
-3.66878 127.754 -6.28598
-12.054 148.277 -1.9221
-9.05102 122.838 10.2745
0.444873 95.2512 8.66831
0.394556 119.982 -9.96315
-11.1689 136.396 5.11703
-14.1705 146.891 4.32004
11.0406 82.369 -6.51354
7.54567 98.8932 -10.7171
-4.571 130.81 -6.08947
-8.76099 122.32 10.3561
-14.0466 146.191 4.81178
-12.7295 140.69 5.87029
-9.32856 129.292 6.48283
0.2142 120.833 -9.72458
10.5552 85.4004 -7.27514
-7.44806 118.548 10.6434
-13.8527 146.53 4.68292
6.4802 105.097 -12.1803
4.26834 110.862 -11.2049
6.64364 104.889 -12.1875
5.89123 85.2357 4.55954
-2.00767 104.039 9.23725
-8.02015 121.333 10.405
-12.2382 140.923 5.56297
-5.27579 134.416 -6.06808
-8.4546 124.522 9.08255
9.83764 90.6559 -8.68827
5.08618 86.3788 5.89819
9.08699 95.7889 -10.7014
7.64717 83.0186 2.50845
-9.99213 133.871 5.84669
-6.86205 117.716 10.6945
12.4597 77.8283 -4.96905
7.05708 104.072 -11.9211
-7.29935 119.683 10.4206
7.00798 104.643 -12.1724
-12.0733 141.297 5.41356
-11.078 139.2 4.65249
8.05561 82.3784 2.34776
-10.4483 136.973 4.93007
-3.23196 107.525 10.1999
-6.27413 116.139 10.8991
9.36505 95.6866 -10.7603
-6.26138 116.168 10.9033
-8.23117 123.204 10.2676
-12.6968 149.126 1.24365
2.61639 115.446 -9.5807
-6.26281 139.518 -6.6577
-8.76517 146.163 -5.74352
0.0269066 122.496 -8.64788
-10.4869 148.957 -3.69553
-9.00124 132.572 5.28736
-8.47154 128.916 7.09189
-2.13529 127.754 -7.05846
-12.2111 149.785 0.211499
7.83328 101.867 -11.0612
8.18158 83.067 2.47975
12.6074 79.3621 -5.23731
7.69784 84.1247 2.87729
-5.22349 136.304 -5.94905
-2.7878 107.469 10.1925
-10.4417 139.335 4.19174
-7.99606 145.164 -6.02194
7.69404 103.36 -11.5725
0.187382 99.9371 8.92332
-8.56834 132.031 5.37326
10.3033 91.5837 -8.80728
-8.27559 128.879 7.09604
-8.57762 146.542 -5.59181
-0.196481 123.416 -7.95795
-9.85793 137.043 4.72905
-6.81137 141.962 -6.19276
-5.88838 139.085 -6.20201
0.99234 121.411 -9.14249
7.69833 104.201 -11.9707
-9.73939 136.795 4.77108
11.4021 87.176 -7.83301
-8.88536 133.735 5.15969
-12.7769 145.984 5.12014
-5.41763 137.72 -6.01144
12.3133 83.5476 -6.61915
-4.90794 115.03 10.4576
4.53078 89.7729 7.21767
-7.97071 130.373 6.16651
10.2476 94.3052 -9.74046
-7.84188 128.879 7.05033
-11.9928 149.95 0.979391
-1.17849 126.898 -7.23352
-11.7 144.034 4.82982
2.87202 94.0519 8.27783
-12.296 148.826 2.76958
2.46498 118.257 -9.04197
2.83511 116.934 -8.91547
4.73013 89.9347 7.11738
4.74334 112.181 -9.6627
-5.2069 116.493 10.804
10.7422 92.3749 -8.82856
-11.6241 144.655 4.69511
1.34931 121.846 -8.84704
-7.83592 130.506 6.58442
12.5633 84.001 -6.6014
13.7492 78.1843 -4.94977
-12.0413 146.898 4.27201
-0.703633 126.486 -7.12296
13.9329 77.5861 -4.7176
11.6296 89.7549 -8.48178
8.54277 103.747 -11.69
-6.93594 123.328 10.3094
5.38311 111.348 -9.8269
9.89511 98.6771 -10.8841
-7.00333 126.984 7.91792
-11.5817 145.783 4.57494
-9.0781 149.325 -4.06502
11.1228 92.2631 -8.77404
-1.93432 130.352 -6.47306
-3.98295 135.003 -5.11254
11.6413 90.8942 -8.58927
-6.66903 125.656 8.58484
-1.53341 107.457 10.2771
-4.40003 116.08 10.5973
1.84753 121.898 -8.61686
-1.18204 106.886 10.1896
14.1403 79.0308 -5.10043
-7.70505 136.97 3.25186
-10.6769 145.326 4.01253
7.37775 108.122 -10.6353
7.68032 107.328 -10.7263
7.04576 108.857 -10.3744
0.306998 104.066 9.32507
14.8584 76.1087 -4.05033
6.29591 110.57 -9.72565
-0.239582 127.294 -6.86872
4.48048 93.1644 7.86094
-9.63979 143.135 3.50695
-11.1226 147.277 3.915
13.6264 83.197 -6.25122
-6.63135 131.949 4.94038
13.0405 85.8002 -6.73303
1.46677 123.487 -7.8266
5.37834 112.96 -9.11861
2.22555 99.0639 8.96116
-6.81634 130.59 6.53525
5.79069 90.9945 6.64397
-10.7845 150.896 0.598237
-9.89323 144.357 3.49373
12.665 88.9842 -8.07218
7.60625 108.069 -10.4887
-7.34429 136.609 3.42581
-9.24053 142.813 3.23314
-7.74407 138.054 3.30085
5.5398 91.6539 6.9692
-7.35734 137.104 3.14377
-0.175459 105.898 9.81908
-8.11181 139.062 3.59189
15.1176 76.6019 -4.19352
-9.72067 151.255 -1.61929
9.95216 103.059 -11.7533
-9.89038 145.444 3.38355
-4.29144 139.166 -5.10375
-7.07285 136.669 3.4276
-6.26206 131.899 5.13004
-6.78501 134.479 4.41909
12.878 77.6968 0.870154
-10.4888 150.964 0.807941
10.8932 82.4673 1.98262
3.89938 117.761 -7.78817
-0.821649 130.673 -6.33469
14.0655 83.9604 -6.25111
-9.99824 146.591 3.45641
-6.35936 134.309 4.22123
0.276203 106.278 9.83113
-9.57703 151.662 -1.15095
3.22308 120.757 -8.07268
15.52 77.6201 -4.48095
-6.73996 147.965 -4.94748
11.5362 98.8991 -11.1443
12.8003 78.9315 1.04879
-6.03151 133.981 4.08276
5.61105 114.271 -8.62964
1.10861 125.892 -6.70486
-6.33446 135.109 4.1455
-9.01485 145.255 2.82385
-3.76053 119.347 10.0872
10.0709 84.9029 3.47396
-6.42529 136.854 3.28897
-5.92293 134.361 4.00046
2.08555 102.513 9.27395
5.62087 93.8524 7.49887
15.6147 78.5405 -4.54083
7.65511 110.677 -9.99572
-0.363935 109.362 10.1668
-8.8716 145.735 2.77385
7.01855 111.985 -9.25202
5.75428 115.112 -8.6087
2.28124 102.533 9.23207
-5.49773 128.708 7.86611
9.37592 107.128 -11.1285
-4.70273 143.051 -4.90268
1.48439 125.978 -6.59612
-5.24992 129.633 6.7153
4.61648 97.2001 7.90956
12.4048 95.5165 -9.3503
-8.74548 145.913 2.73042
6.87487 92.1933 6.39551
-3.72591 139.874 -4.57299
1.68493 125.762 -6.68383
8.93232 86.5112 5.92752
13.4093 91.56 -8.5495
0.100313 130.085 -6.10959
4.82433 118.136 -8.22344
-4.1248 141.594 -4.70308
0.191268 108.667 10.1165
1.35384 105.916 9.48724
4.26059 98.6692 8.14554
13.1488 80.0437 1.1582
-2.10795 135.206 -4.3869
12.2034 99.1012 -10.8408
-5.06669 134.258 3.56239
-3.27852 120.511 10.0798
9.98362 86.2399 4.56634
-2.74748 119.037 9.99392
-4.70734 126.68 8.8665
-3.82824 141.468 -4.46307
7.19123 92.7297 6.36662
8.87714 86.9498 6.85489
8.6572 88.257 6.45134
7.48394 92.4231 6.11018
-4.39944 128.651 6.95378
12.3116 100.27 -11.2223
-4.20943 123.99 10.1436
-7.51367 143.969 2.81974
4.33283 120.328 -7.38345
16.2541 79.2487 -4.51517
7.08265 113.863 -8.98595
-4.36763 126.838 8.45054
-6.11495 149.167 -4.30704
-4.67602 134.737 3.27577
13.1564 94.8404 -8.82457
2.98611 103.29 8.97917
7.83789 92.2698 5.85018
-7.93293 151.886 -1.92516
3.06479 124.069 -6.88363
1.22385 128.357 -5.71124
16.986 76.3976 -3.71555
-4.14229 127.13 8.02705
-8.7256 149.154 2.24802
-0.554866 133.184 -5.03243
12.7337 98.5252 -10.2309
-2.27328 137.304 -3.94582
-3.92755 124.201 9.96861
13.2599 81.338 1.64872
-4.02508 124.994 9.67404
16.1747 81.2545 -5.157
5.53605 118.551 -8.15273
5.75667 97.0244 7.72024
-4.21313 144.082 -4.23703
14.6497 78.3727 0.816613
14.0359 79.9989 1.10189
7.05073 115.451 -9.06141
9.87027 109.126 -10.8664
1.10306 109.351 9.8524
-4.12455 133.809 3.79619
10.2303 86.748 5.45304
5.22114 119.359 -7.40511
-8.09249 148.393 2.24199
-3.80242 143.325 -4.07858
-0.0569397 132.911 -4.96211
16.799 78.9655 -4.07691
-8.47125 152.063 0.562031
7.1412 95.2026 6.74953
7.59732 114.988 -9.1405
13.4438 82.0157 2.09662
17.2435 77.6756 -3.64814
13.2113 99.0644 -10.2774
16.3703 82.6162 -5.28974
-3.38751 127.732 7.48079
-8.28776 151.415 1.27185
10.9357 86.6514 4.82764
7.09039 95.9485 6.94841
7.96247 114.613 -9.2778
1.93022 108.562 9.72057
-0.246385 134.035 -4.4614
-5.30501 149.232 -3.88528
14.0743 81.1577 1.80476
6.42095 97.4426 7.67114
-7.26198 152.559 -1.63093
-3.9506 136.365 2.8221
-7.19008 147.708 1.99145
10.4444 108.989 -10.5468
-6.21311 144.545 2.09325
13.3297 100.227 -10.7184
-7.20321 152.591 -1.61533
4.76144 121.76 -6.64946
-3.45122 134.406 3.30167
-3.05064 127.542 7.57411
9.21326 113.163 -10.6525
-0.875597 117.512 10.1242
-4.71875 139.074 2.97171
-3.23438 143.247 -3.71369
12.9942 83.4431 3.13217
-4.67629 147.957 -3.80772
-5.11834 149.278 -3.74162
13.5381 99.7403 -10.4821
-4.19405 137.902 2.76425
8.77189 114.163 -10.0405
-6.42461 146.075 1.95244
-5.91105 144.619 1.89788
-1.90618 139.426 -3.63724
1.38219 111.494 9.78959
2.75925 107.569 9.51904
15.9301 87.4489 -6.50584
-6.06487 145.345 1.8648
-4.86661 142.104 1.48593
7.12541 97.0095 7.27492
6.71649 97.9139 7.56714
13.4071 83.1908 2.88004
-2.55957 126.309 8.27303
-2.11271 123.702 9.19575
14.3597 95.788 -8.75116
-0.691799 118.489 9.94108
-2.72183 128.047 7.51524
-6.85491 152.858 -1.49592
13.5251 83.2592 2.93766
1.5536 131.296 -5.0011
-0.93255 137.183 -3.54481
11.5955 106.837 -10.2943
-5.29364 143.906 1.76176
15.7194 90.7087 -7.75358
4.96283 102.989 8.60716
-2.79565 130.148 6.45599
12.09 105.564 -10.2163
-2.67645 135.135 2.6262
16.0376 78.894 0.941983
10.8982 109.732 -10.167
-7.43557 152.904 0.792308
-4.53403 149.3 -3.33031
-0.445083 119.198 9.86143
15.8275 91.714 -7.92113
15.3797 93.5259 -8.18564
5.90762 101.791 8.13708
10.2191 89.8629 6.96559
7.14871 99.29 7.15838
-3.18461 140.547 0.468715
-0.130542 118.529 9.9596
13.8697 102.199 -10.9383
16.2364 89.3 -6.74014
-2.94972 139.354 0.978758
3.99098 126.297 -5.55274
14.6763 97.1872 -8.83233
-2.46532 132.513 5.15144
6.11445 101.964 7.95757
16.2202 79.4269 1.03848
8.12381 118.065 -8.99878
0.130505 136.16 -3.68275
11.9931 107.349 -9.91854
11.5134 108.923 -9.8899
10.4277 113.572 -10.8362
-2.97294 145.624 -3.22736
17.0526 87.1864 -6.42045
6.80942 101.323 7.27928
4.39729 125.732 -5.51677
5.46583 104.024 8.4922
5.19177 104.73 8.62994
-2.58884 140.265 0.243974
8.54384 117.928 -9.28165
16.2004 79.9287 1.40039
6.17414 121.526 -6.34712
-4.9983 151.808 -2.68565
0.205366 119.043 9.91756
19.2602 77.0221 -3.33204
4.01201 108.5 9.06634
3.36839 110.184 9.33212
6.28165 121.646 -6.30034
0.192479 136.868 -3.35516
-5.75544 153.254 -1.63203
2.30621 113.297 9.58732
8.46435 118.517 -8.95555
1.69649 115.199 9.75455
3.77777 109.504 9.13028
-2.10859 139.706 0.309132
7.1156 120.203 -6.74038
5.35846 124.462 -5.65977
15.7838 95.9727 -8.59239
10.0923 95.4044 5.40839
-0.432453 124.17 8.62553
14.8493 83.5092 3.19321
-1.38743 136.153 1.92569
5.98815 123.325 -5.87312
10.6503 93.9283 5.3868
18.6088 81.3934 -3.9615
1.04697 135.767 -3.44034
19.0249 79.9143 -3.6888
2.31286 114.891 9.61927
5.59737 124.701 -5.55457
9.24203 98.0661 6.05278
1.1987 135.829 -3.46137
16.4003 94.7766 -8.28361
7.32096 103.335 6.90644
6.44308 123.083 -5.87443
11.4188 90.9503 6.73198
14.9945 102.237 -10.3529
10.3255 116.301 -9.9274
5.53357 107.638 8.1256
18.0552 87.4844 -6.36453
17.0842 92.3528 -7.73206
8.69519 100.149 6.3292
3.99021 111.479 8.95675
-2.41855 147.242 -2.92828
11.3325 114.36 -10.663
15.1734 101.73 -10.0981
17.1943 92.2453 -7.69803
17.8782 78.8179 0.935832
7.5392 103.814 6.65226
17.5263 90.4979 -6.97881
-1.34515 141.098 -0.365261
3.56862 131.418 -4.62004
14.3306 105.306 -10.2721
2.5252 116.469 9.45034
15.4852 83.7259 3.5025
11.7572 90.3979 7.31336
-0.775739 132.38 5.29294
13.0591 108.98 -9.80869
11.6592 92.4324 6.16584
15.8957 98.796 -8.74284
17.6513 91.6883 -7.50676
18.0454 79.0622 1.16592
0.907305 121.845 9.44774
2.83328 116.053 9.30979
6.1549 125.145 -5.3435
18.4386 87.2631 -5.78098
17.6438 79.9346 1.73116
9.49222 119.511 -8.9517
18.6662 85.2983 -4.76054
10.4869 98.0326 5.13372
8.55466 103.556 5.71091
10.1833 98.8221 5.49517
14.2166 86.2555 5.48153
16.1048 83.3972 3.16144
16.758 96.7076 -8.35636
-4.3641 154.22 -1.74656
-0.30348 143.368 -3.09777
1.33066 121.954 9.2958
4.88213 129.214 -4.66524
-2.1899 148.913 -2.62966
20.3151 80.2618 -3.96004
10.1636 118.591 -8.90293
12.2761 91.4936 6.71608
1.08979 123.409 9.19108
4.66237 113.24 8.42942
14.3009 107.381 -9.93947
-0.122478 130.416 6.92286
14.0372 108.033 -9.7175
-0.00603145 134.007 4.05793
19.4154 83.87 -4.02935
16.0837 101.664 -9.48544
0.198732 136.226 2.13318
10.1372 100.563 5.66163
-0.0557934 138.517 1.14935
11.0628 98.8844 4.90333
19.7628 77.6139 0.444206
1.11283 141.144 -3.4154
0.156432 131.925 5.96234
16.1937 102.322 -9.65941
7.23805 109.467 6.48676
10.7225 100.272 5.28794
13.1097 89.515 7.8245
7.75285 124.156 -5.75431
17.8381 95.5656 -8.0236
14.3882 108.532 -9.63155
-0.378515 141.661 0.364351
11.891 97.2539 4.94764
5.21039 131.328 -5.05268
9.67948 121.078 -7.85977
18.2771 93.7121 -7.51734
0.0288831 144.9 -2.96436
10.2889 102.202 5.07369
2.29721 138.982 -3.82322
3.7976 118.041 8.53113
-0.305967 146.086 -2.87969
9.76339 121.175 -7.83892
4.64614 133.433 -4.92464
0.681021 136.225 2.44191
2.42891 122.324 8.92885
7.32879 125.887 -5.39357
5.39964 115 7.4899
14.0332 88.3823 7.26048
19.4002 87.516 -4.80694
3.51921 119.791 8.49281
19.3229 89.7467 -6.1772
0.956186 135.38 2.90919
0.991729 133.838 4.07369
14.0907 112.195 -10.582
4.01081 136.104 -4.69398
8.15125 124.591 -5.79221
16.9093 101.592 -9.14241
19.3618 90.4699 -6.50931
-0.23825 147.135 -2.85875
8.7907 108.698 4.90356
19.5873 87.9302 -5.00556
10.8453 102.498 4.75834
16.5502 104.597 -10.4134
4.05834 119.693 7.92512
7.68356 125.979 -5.43981
16.1852 105.759 -10.301
15.462 86.4824 6.11289
12.392 116.235 -9.11745
8.02848 125.809 -5.94334
9.22629 124.958 -8.07212
19.2921 79.9835 2.19842
2.26444 141.227 -3.80108
7.99931 126.067 -5.89105
14.3396 112.484 -10.6416
5.34363 117.117 7.2705
16.8744 84.6473 4.53297
9.92734 106.911 4.21008
17.1809 102.376 -9.44531
17.2658 101.717 -9.1462
4.95507 118.782 7.26836
20.1884 86.1198 -4.03251
1.17443 144.646 -3.25733
8.98411 109.851 4.63638
17.1901 84.5298 4.40208
6.789 115.006 6.01368
1.09743 137.917 2.15164
10.3824 121.863 -7.71287
8.44037 111.563 4.83938
4.35078 121.022 7.39436
7.15382 114.562 5.66669
6.41598 131.901 -5.7205
3.41295 123.662 7.73203
6.76919 130.649 -5.57267
0.441574 141.791 1.13955
10.8113 121.496 -8.11453
8.28965 126.942 -6.21711
16.8667 85.2699 5.13094
4.15572 122.407 7.1755
20.5816 78.6628 1.36747
20.5731 85.7226 -3.9643
7.33534 114.851 5.41121
10.5893 124.766 -9.81757
10.5808 106.94 3.86437
2.15285 128 7.92151
17.7792 101.037 -8.76879
18.5879 97.865 -8.24695
7.68451 114.514 5.06481
18.9037 96.4571 -7.91525
1.64388 131.807 6.31537
2.09779 128.438 7.85333
13.6522 94.4268 6.22976
19.3232 81.0119 2.94028
6.65473 117.008 5.83379
6.18513 118.306 5.9908
0.833501 141.511 1.14121
2.59861 142.65 -3.89659
4.53792 122.799 6.58795
1.89234 132.794 5.37252
3.53384 140.695 -4.42348
16.8308 106.616 -10.1052
15.9163 87.4802 6.7361
20.69 79.0616 1.79351
18.2411 83.9951 3.87533
1.10437 141.343 1.11684
19.9667 92.6229 -6.72135
7.92557 115.436 4.63243
15.4376 88.3673 7.34339
6.47946 119.109 5.35055
13.4779 97.1065 5.47428
15.4723 88.4484 7.38636
11.7958 104.595 3.8668
11.0637 122.249 -7.78916
2.00481 145.044 -3.49328
4.73458 123.664 6.36786
0.31238 149.617 -2.81451
7.12737 118.237 4.82436
16.525 108.238 -9.89058
11.1991 125.444 -10.2008
8.51334 115.329 3.95431
4.84456 138.671 -5.04644
1.69907 140.411 1.20522
20.5824 89.8878 -5.20163
12.5775 121.477 -10.1059
9.71666 112.404 3.6171
6.79908 120.058 4.77492
20.2238 80.5947 2.86951
13.699 97.797 5.38362
20.2204 93.2434 -6.55436
2.85658 144.239 -3.96888
0.666016 149.754 -2.88529
10.0542 112.166 3.37825
5.57421 123.338 5.64575
2.39765 145.573 -3.59693
6.87326 120.903 4.52964
5.68134 123.304 5.54853
23.6749 78.2313 -2.89147
2.91538 130.049 7.22449
6.29692 136.398 -5.62905
22.4436 84.1333 -4.30889
1.3527 143.14 1.09624
18.8574 101.317 -8.74326
10.3779 127.862 -8.70434
8.31136 117.974 3.77084
20.2824 94.1945 -6.63844
14.5518 93.9834 7.21787
17.637 106.869 -9.90759
22.9424 83.3162 -4.60489
10.3582 112.673 3.15231
10.81 127.83 -9.40366
0.239783 152.117 -2.69592
13.2425 120.717 -9.7737
14.3818 96.1311 6.30705
18.7332 85.0228 4.42069
2.76275 146.154 -3.73457
23.9127 80.1069 -3.8348
5.87411 124.322 5.52561
22.6322 77.8427 0.966018
3.2875 133.818 4.49419
7.79275 134.42 -6.53788
20.6718 94.0976 -6.40092
3.47822 132.699 5.44084
22.4986 85.8873 -4.25301
3.49568 130.562 7.04194
7.23068 122.894 4.05423
11.9561 109.165 3.24458
14.6928 96.2578 6.57168
3.5774 133.032 5.09122
2.01141 142.772 1.44271
21.1641 91.5104 -4.99777
3.35402 136.1 3.54107
5.29956 127.246 5.68864
15.658 90.9989 8.62551
2.38776 142.109 1.45342
20.4326 82.9533 3.53792
7.32997 123.384 3.99896
3.11921 138.436 2.59581
21.0022 94.0384 -6.20584
22.8839 78.1932 1.36573
10.7637 114.202 2.89476
21.8484 88.8581 -4.22382
10.5498 114.982 2.87136
17.9994 108.368 -9.82319
5.22519 142.21 -5.01098
2.93024 139.641 2.41699
3.87011 134.416 4.25258
13.3274 124.511 -10.7264
14.773 98.2266 5.94406
7.77153 137.476 -7.11448
15.0986 118.199 -9.83348
12.7818 127.39 -11.2508
5.45634 128.161 5.61207
18.6139 87.1053 5.55911
14.3531 101.345 4.89024
8.22318 135.631 -6.58565
7.86624 137.498 -7.15341
5.61956 128.047 5.41725
24.2429 82.7269 -4.46894
9.14773 133.238 -6.90311
13.5684 124.295 -10.6037
13.0994 126.842 -11.2328
7.98829 123.839 3.27177
15.5408 93.5979 8.33293
13.6172 105.591 3.94304
11.273 131.077 -9.75731
17.2146 113.152 -10.1912
20.7036 99.1454 -7.8396
18.74 87.5063 5.75957
2.422 150.529 -3.28893
19.3695 105.279 -9.22505
16.619 114.768 -9.83665
8.33283 137.39 -7.25849
23.9389 84.357 -4.06628
12.8037 109.696 3.28101
3.67889 139.327 2.49575
10.1191 133.371 -8.2683
18.3231 109.522 -9.64448
4.65409 131.437 6.26285
4.20807 137.015 3.08446
23.5894 78.3206 1.57746
20.5317 101.147 -8.48197
8.72503 136.058 -6.90647
23.0416 87.9224 -4.29536
7.39538 125.813 4.17546
21.7851 93.1959 -5.19616
6.46655 128.091 4.84278
18.8763 108.357 -9.69978
9.28566 135.122 -7.1786
11.4671 115.305 2.71405
5.01942 131.297 5.95795
14.916 101.296 5.21541
3.77921 140.042 2.39812
9.4852 122.121 2.44074
23.8877 78.2376 1.52171
5.53959 130.663 5.37673
6.83269 127.609 4.62351
12.2111 131.06 -10.7528
16.8226 91.259 8.55906
20.0641 103.284 -8.24513
21.925 93.7851 -5.40885
4.3814 138.097 2.67322
4.81467 133.565 5.12146
4.25663 147.671 -4.25842
4.61942 136.747 3.2017
8.63348 125.092 2.60257
15.6817 96.6045 7.51947
6.47231 143.07 -5.87387
10.0146 134.591 -7.81025
13.7089 127.679 -11.3492
23.9783 78.3858 1.68889
21.8397 94.6463 -5.45899
18.1743 89.5368 7.39121
16.306 93.9506 8.5623
18.5483 110.979 -9.66956
21.139 100.844 -8.10374
19.2273 108.468 -9.317
10.2597 134.837 -8.00548
25.9417 78.8847 -2.74438
6.36505 130.048 4.98612
5.34352 146.346 -4.94944
14.2018 106.899 3.95849
7.29834 127.938 4.4027
7.69484 127.068 4.13098
3.56246 150.144 -3.54999
14.2945 126.126 -10.7636
21.5568 97.9763 -6.55744
6.52526 144.12 -5.71731
20.2833 104.143 -8.07092
22.2691 93.3904 -4.57073
12.8049 113.598 2.79151
11.6879 117.602 2.43849
10.1836 136.169 -8.07959
13.655 129.262 -11.0526
26.2357 78.8514 -2.65617
11.0762 119.882 2.28143
14.7902 105.699 4.28193
18.7583 89.5245 7.1773
14.3596 107.611 3.8995
16.5652 117.486 -8.78408
23.8502 88.1541 -3.77302
7.33545 128.985 4.5622
16.5262 94.9732 8.67384
18.806 89.6805 7.29366
24.4847 85.843 -3.29463
12.0239 133.45 -9.71528
16.1405 98.7178 6.93222
4.87372 140.576 1.99292
6.73012 130.926 4.95941
16.0936 99.7352 6.43394
22.0667 96.6593 -5.40626
15.4463 123.304 -9.86408
14.5669 127.187 -10.6988
17.5825 92.1808 8.80067
10.8871 121.978 2.16126
12.7424 133.062 -10.6482
26.5093 80.3245 -3.32331
20.3831 87.7904 5.75519
11.3075 136.024 -9.27691
20.8472 103.305 -7.09761
7.8316 143.85 -6.92954
14.4246 126.47 -9.39967
13.5754 112.897 3.0638
9.81493 140.138 -8.68378
21.8988 100.808 -7.40306
20.2139 88.592 6.01191
8.59213 129.412 2.64967
12.5106 117.467 2.45162
10.0384 125.959 1.89276
20.4425 106.551 -8.04544
14.5273 125.899 -8.65262
20.4887 106.241 -7.89327
16.702 96.6445 8.42808
22.5481 95.1415 -4.33109
10.9001 138.21 -9.30316
8.375 143.6 -7.38579
14.6517 128.515 -10.8313
22.8564 93.6767 -3.87207
17.8204 92.8718 8.85222
19.0322 112.242 -8.75471
18.1819 116.162 -9.52775
8.705 143.343 -7.62411
15.1662 124.139 -8.36045
20.0492 89.3933 6.46368
11.0052 138.743 -9.52467
15.1147 124.013 -8.09581
6.46612 133.25 5.50762
16.2515 118.874 -6.85613
4.9818 143.968 1.10371
8.91229 143.326 -7.75778
16.103 122.217 -8.82311
5.22592 142.627 1.59856
15.006 124.128 -7.61808
7.64564 133.461 2.84269
20.8677 87.8816 6.02458
13.111 116.853 2.53528
11.2616 139.041 -9.8598
16.4324 102.09 5.94144
15.2312 123.684 -7.57968
7.31291 133.752 3.6234
18.8561 114.358 -9.08086
19.8306 110.316 -8.31938
20.9273 104.88 -6.77731
26.8241 82.52 -3.80492
21.4015 86.8591 5.81524
7.7318 131.405 4.52617
22.9035 95.1783 -4.05085
9.62297 129.099 1.84855
13.0931 117.367 2.51862
18.5482 115.656 -9.15178
4.2917 152.555 -3.2284
15.1042 127.729 -10.0871
6.07665 138.211 3.47204
8.32476 145.085 -7.08727
6.09907 149.167 -4.83141
12.9898 134.992 -10.389
23.2525 93.7279 -3.37309
18.1342 93.6356 8.95445
19.2361 112.877 -8.2987
8.2085 131.709 3.69523
23.0909 95.133 -3.88307
25.6637 85.3094 -2.44387
23.9745 81.8839 4.23199
20.688 107.65 -7.52397
13.0649 118.409 2.53011
12.156 138.182 -10.3302
14.0718 132.524 -10.5836
22.6 84.8842 5.33802
13.7478 116.088 2.71324
16.6988 102.544 6.02774
17.0913 118.145 -6.75267
12.7871 119.658 2.34877
8.76649 131.312 3.08105
13.6607 116.646 2.61535
22.9095 99.1975 -6.11001
10.9068 140.829 -9.17664
24.9986 89.4615 -3.5852
15.7881 123.483 -7.51055
16.3816 120.644 -6.68571
9.34063 131.999 1.66921
11.2996 126.037 1.55896
10.9032 127.452 1.51264
19.3266 91.994 8.44753
8.56612 133.631 2.55727
10.3589 129.405 1.5412
6.02683 150.51 -4.17802
10.9317 127.744 1.47502
12.4943 138.336 -10.2898
17.1598 100.5 7.42507
7.64152 135.317 3.61779
8.0154 147.447 -6.44605
26.3548 85.1289 -2.69767
28.0021 81.0284 -3.22824
17.071 102.915 6.21737
15.551 126.518 -8.09668
18.1067 123.05 -11.4632
28.2061 79.6936 -2.53143
24.6209 82.3343 4.0062
7.9732 135.762 3.03133
8.90535 146.438 -7.28262
18.2145 116.35 -6.43867
15.4907 127.151 -8.1405
16.001 125.466 -8.03169
17.8475 97.5666 8.92797
23.5601 98.201 -5.14969
23.5757 97.7661 -4.83045
14.7749 132.155 -10.004
6.28767 141.435 3.31361
17.8539 124.475 -11.2258
15.9296 110.175 4.23672
15.833 110.753 4.13596
21.0673 108.137 -6.33969
11.5138 127.968 1.3575
10.7545 143.295 -8.44817
7.12999 139.815 2.85556
15.553 130.147 -9.85098
22.3367 103.367 -5.55464
23.7688 97.1204 -4.19198
7.14533 138.731 3.77604
19.4795 121.609 -12.5562
19.3107 116.009 -7.67147
17.6466 122.931 -8.94456
23.3701 85.4131 5.99295
23.4308 85.3979 6.01283
26.1149 88.8375 -2.9179
22.3185 103.783 -5.23807
8.35697 148.727 -6.10143
20.6916 110.323 -6.25666
18.7622 122.566 -10.9682
13.0712 123.267 2.07649
20.0923 121.216 -13.0152
17.8541 125.762 -11.108
5.06517 153.991 -2.00244
14.3658 118.609 2.77876
9.47497 136.006 1.22886
14.1077 119.564 2.70033
17.2476 125.075 -8.92801
24.0733 97.2023 -3.9497
6.40609 143.856 2.72568
23.8445 100.35 -5.70289
23.0064 87.1747 6.51657
26.4025 80.6144 3.41963
27.2493 79.2363 2.49923
17.7932 103.6 6.49431
17.7169 126.216 -10.5025
23.8255 101.041 -5.89414
5.72226 146.055 2.99549
17.4054 106.255 5.45015
16.8945 125.02 -7.59191
18.5132 122.053 -9.18
18.2871 99.386 8.64246
16.8173 108.947 4.92177
25.5366 92.8259 -3.52655
11.0248 132.213 1.08051
14.1994 137.317 -10.3574
24.2284 97.9932 -4.31536
19.9842 114.884 -7.0512
8.13963 140.419 1.74215
9.29183 147.978 -6.74167
22.8649 103.349 -5.06173
16.1806 128.403 -8.18225
26.9767 79.9715 2.95219
16.0694 127.252 -6.92879
17.8932 126.925 -10.9609
17.9463 118.17 -4.42366
15.5371 126.84 -5.26885
25.435 83.5883 4.08942
18.5905 116.479 -4.54981
20.0034 115.229 -6.88205
17.2619 123.261 -6.4566
13.269 139.431 -9.18435
17.8761 123.55 -7.94261
24.5588 84.711 5.70577
10.9232 145.017 -7.66631
15.6258 130.877 -8.09101
15.4949 130.585 -7.51264
15.7529 131.299 -8.67008
16.5147 125.491 -6.00521
22.0006 106.696 -4.77605
8.51733 140.42 1.71544
16.6422 128.716 -8.71509
8.66079 140.036 1.75163
22.0683 90.844 7.30163
19.2348 122.699 -10.1751
10.4351 134.913 1.56915
15.1962 128.662 -4.98475
15.2479 117.517 3.37032
27.0344 87.6102 -1.91129
6.9596 145.209 2.10937
25.5603 83.9536 4.41917
10.1891 136.632 0.968079
16.9858 127.84 -8.47024
6.96292 145.422 2.05491
16.8813 110.594 4.93398
19.7943 122.761 -11.1811
17.3041 125.484 -7.25706
17.6689 128.696 -10.5353
18.4386 102.181 7.88642
20.4791 94.5875 8.89638
18.4896 101.927 8.0645
17.9017 122.528 -6.16494
12.3003 142.866 -8.11241
18.3908 120.011 -5.16323
10.7797 136.232 0.711595
15.1921 130.974 -5.78277
19.5927 122.472 -9.7352
25.6515 95.0997 -3.27134
12.7355 129.48 1.45983
23.9791 102.414 -4.62059
12.9761 142.153 -8.60692
17.8401 123.423 -5.88199
12.4362 130.987 1.3215
27.1861 89.9117 -2.5624
27.3216 89.336 -2.37423
29.6097 83.3031 -3.10243
23.505 89.0714 7.05087
21.6036 111.947 -5.75918
15.3506 119.624 3.34528
15.542 118.903 3.60192
7.53584 152.924 -3.17763
18.516 106.243 6.22809
9.51534 140.535 1.62102
17.4234 110.925 5.35209
16.1794 130.696 -6.70414
25.7372 84.8612 5.39983
21.818 93.4688 8.22955
27.3174 90.4933 -2.57717
15.5634 132.737 -6.65798
20.2944 97.6073 8.82176
19.7216 126.831 -12.0287
26.298 94.6003 -3.14712
19.3288 100.218 9.1876
6.35314 154.542 -1.21721
25.405 85.51 5.92376
13.2239 129.398 1.628
21.2018 94.8174 8.93748
8.61973 144.486 1.13616
19.5937 99.575 9.16713
19.8831 122.948 -9.2935
28.0412 80.7988 3.33681
13.8633 126.94 2.0425
16.7433 125.587 -3.75404
17.054 112.802 5.25851
16.5215 126.093 -3.5768
11.3116 147.323 -7.18414
23.7583 89.482 7.17644
12.412 144.495 -7.5852
16.0545 131.687 -6.51828
18.4462 123.813 -6.12549
19.3253 122.311 -7.02833
19.9607 123.089 -9.11609
9.8422 150.257 -5.65923
19.3716 101.062 9.12984
16.0729 135.95 -9.50441
19.9654 116.037 -3.50676
12.6069 132.968 1.14637
21.6546 94.5947 8.82095
11.6137 136.564 0.828616
28.0409 81.6425 3.60901
21.1199 114.83 -5.07592
26.4017 95.5143 -2.90819
18.9495 106.015 6.86584
17.3961 112.402 5.76358
19.0001 105.284 7.41944
29.154 86.6484 -2.57475
7.11532 154.089 -1.30003
28.7747 80.3048 3.23874
25.6736 99.3527 -3.79664
18.6417 130.714 -10.857
17.6087 132.786 -9.96114
20.328 121.714 -8.0113
11.888 147.111 -7.20235
12.6587 133.643 1.20645
23.7398 105.483 -3.73542
19.4849 102.05 9.03941
27.9296 90.4501 -2.24009
16.9802 125.77 -3.00955
21.7163 95.347 8.86178
20.6744 124.859 -11.071
19.6904 101.56 9.08843
24.1135 104.659 -3.71144
30.307 84.3177 -2.97314
30.5093 83.6667 -2.76827
20.5206 99.39 9.13413
16.2093 134.81 -7.53171
25.9297 99.0258 -3.46553
21.2956 97.4556 8.78631
28.1986 89.4195 -1.54042
28.1914 83.473 3.00822
13.1741 144.423 -7.5686
12.8681 133.679 1.38655
19.3258 104.327 8.3622
17.2636 128.997 -5.48613
13.5387 131.152 1.7579
21.2067 122.005 -9.47979
25.2368 102.031 -3.83014
24.6375 103.439 -3.46838
17.7359 133.453 -9.85144
18.7365 124.062 -5.02255
26.052 99.2111 -3.47161
20.6201 124.19 -9.49257
16.4783 126.86 -1.61933
26.226 97.9947 -2.87964
28.3254 84.0368 2.77878
22.6802 109.232 -2.93602
27.1047 85.3512 4.72202
17.2021 129.614 -5.16848
12.242 147.482 -6.90837
20.3813 122.044 -6.93775
13.6801 144.026 -7.66793
13.3444 145.091 -7.46242
25.2419 102.53 -3.41997
17.3103 130.21 -5.49387
21.5199 121.259 -8.68314
21.3719 115.048 -3.59616
30.9548 83.2166 -2.17159
16.8607 117.237 5.56457
24.5573 104.908 -3.38238
7.84188 150.711 1.60616
17.4411 134.033 -8.53023
14.5958 128.277 2.63175
14.7446 141.647 -7.77391
11.9447 139.023 0.896159
21.9166 97.4606 8.77147
7.20202 154.734 0.274363
18.5899 110.117 7.11436
9.1918 152.523 -2.7495
17.5954 130.593 -6.06095
16.7797 135.355 -7.71941
20.9097 115.755 -2.62648
17.4785 130.389 -5.53954
13.8357 132.097 2.02045
15.2793 125.589 3.59027
14.324 143.511 -7.61673
21.2296 100.191 8.97765
11.2244 141.982 1.04188
13.2412 135.39 1.29611
17.4306 129.857 -4.47236
16.8244 137.524 -8.80487
19.0191 108.913 7.72941
20.2761 123.857 -6.49883
18.368 134.214 -9.81116
30.5952 86.4083 -2.57449
12.1935 139.535 0.893625
23.8313 107.975 -2.7981
20.643 116.421 -1.61338
18.4681 128.303 -5.39337
28.4067 85.2138 3.71227
18.4617 130.749 -7.14893
17.3509 126.527 -1.2351
28.8514 84.7798 3.14507
30.4786 86.9653 -2.36951
21.285 126.393 -10.4049
15.8323 139.961 -7.6768
17.2713 136.73 -8.63051
17.1855 130.116 -3.38104
18.5335 126.085 -3.34195
19.8517 107.525 7.7186
26.3592 88.1602 6.95114
30.3749 86.5108 -1.34096
18.882 133.983 -10.0669
10.9317 150.519 -3.68588
17.5257 136.249 -8.53537
15.5214 125.807 4.1967
20.4019 124.411 -6.33267
29.1314 88.9308 -0.118094
14.8453 143.201 -7.34164
23.3014 111.143 -3.09273
29.7987 88.4631 -1.30854
30.0071 85.6953 0.384078
30.2853 81.7378 2.73823
17.5914 129.734 -3.4739
11.1803 144.067 0.916595
20.8957 118.159 -2.47814
14.0972 133.034 2.4169
16.9641 136.693 -7.19273
8.01266 154.686 0.442459
28.5474 93.3338 -1.75301
16.5992 137.514 -6.88579
18.1342 134.49 -8.17137
31.3133 85.8479 -2.55915
21.4335 127.24 -10.4647
21.9559 99.8706 9.1084
16.8135 138.517 -8.02252
29.1618 90.0893 -0.597594
17.4647 127.413 -1.09548
13.4892 136.542 1.43608
14.5841 144.388 -7.12575
24.7408 106.734 -2.65656
20.3537 106.03 8.35399
18.9522 127.221 -4.41054
23.1418 113.621 -4.02384
15.6774 124.251 5.67001
29.2219 91.1526 -1.41465
17.6396 129.824 -3.21536
17.2138 136.129 -6.94513
32.2573 81.2885 -1.06535
17.9072 135.722 -8.24099
31.7541 83.2586 -1.3022
20.3906 125.372 -6.26178
18.665 128.005 -4.0978
22.3652 99.1233 9.18629
17.306 128.945 -1.42261
28.4692 86.0076 4.65282
27.4295 98.4721 -2.31177
20.7165 121.691 -3.97222
17.5443 116.515 7.54616
29.9598 86.4507 0.862656
21.7961 101.512 8.86742
21.2599 118.68 -2.87542
15.2733 128.382 4.01394
16.7496 137.713 -6.58416
18.8146 128.352 -4.3526
18.9686 128.323 -4.69369
18.5292 128.796 -4.00098
18.4663 132.728 -6.8409
18.6362 128.645 -4.13471
30.2256 86.4957 0.318795
22.1584 121.31 -6.9439
15.735 125.496 5.31245
21.5209 121.926 -5.72531
32.427 81.5576 -0.963321
22.3836 99.8846 9.08755
18.6428 113.101 7.94669
27.036 88.2301 6.92222
18.9738 111.791 8.22985
30.9046 81.2333 3.10328
20.5952 128.086 -7.90931
13.9003 146.728 -6.1396
14.795 144.63 -6.59349
17.3229 137.01 -6.80195
11.1266 151.103 -2.73803
30.2527 86.0574 1.2082
15.7848 125.375 5.78468
8.53867 153.504 1.81751
24.6147 94.2237 8.65616
24.6928 94.018 8.63939
28.065 97.3733 -1.91327
14.8963 128.292 6.01458
27.0031 88.9029 7.16237
20.9412 122.258 -3.76076
15.6184 127.457 5.02409
25.9581 91.2817 7.9196
14.702 129.019 6.0508
31.801 85.7097 -1.72304
28.4214 87.1793 5.32759
14.6039 132.714 3.65522
21.1669 124.35 -5.61374
23.2258 98.8081 8.99992
14.7696 132.163 3.7968
14.6135 130.687 5.34463
14.8095 132.001 3.87911
24.5307 108.506 -1.39453
28.0853 98.0189 -1.87802
14.7159 131.172 4.8195
14.7603 131.901 4.26435
21.6773 117.343 -1.06194
20.4596 124.033 -3.24325
20.5241 123.997 -3.25
21.4383 130.228 -10.1156
13.8788 133.944 5.07702
21.2185 128.985 -8.57167
18.5584 131.819 -4.35383
29.9961 90.4179 -0.0121229
14.342 146.534 -5.40538
13.7205 136.232 3.91332
13.4861 139.836 1.77769
11.1481 151.86 -1.75234
16.9798 140.076 -6.60675
17.0011 120.903 7.95722
17.6321 118.506 8.27906
12.7655 149.921 -3.98484
29.7909 92.5546 -0.853625
20.3303 125.292 -3.20717
18.0608 117.025 8.49482
13.0181 141.896 1.63094
22.9883 115.019 -1.65117
10.3216 150.983 1.18525
30.3034 87.336 2.02629
21.5149 121.733 -3.16943
16.6922 141.001 -6.3363
28.9233 96.6935 -1.75311
23.3675 121.36 -7.16443
22.199 121.961 -4.81875
21.5327 122.102 -3.30904
33.2331 81.673 -0.386987
13.1899 149.594 -4.28863
25.4139 107.625 -1.47347
20.1386 110.529 9.00333
12.9568 142.831 1.55257
16.9173 140.522 -6.10559
15.5198 127.232 7.43762
18.8135 136.557 -7.49691
15.99 125.284 7.8062
33.157 82.8209 -0.75425
20.9162 125.556 -4.07269
20.1819 110.659 9.03062
30.3607 90.2788 0.327773
20.9271 125.478 -3.94442
25.6796 94.369 8.46143
24.2745 98.578 8.65234
15.665 144.518 -5.74938
13.9415 135.882 4.92522
31.0261 83.6412 3.99861
21.412 130.26 -8.48942
15.9323 126.577 7.36186
23.1793 121.751 -6.15581
21.4321 130.007 -8.20933
13.9869 135.887 5.08247
20.7565 133.291 -9.03044
11.7483 148.422 0.987316
18.376 117.72 8.57073
30.0705 89.6505 2.07638
31.124 84.3262 3.61899
22.2042 119.4 -1.73205
20.3827 125.419 -1.91816
12.8416 144.613 1.553
21.6688 122.619 -2.73288
13.0079 143.795 1.82884
13.9863 139.723 2.61294
21.2274 124.107 -2.70878
27.6254 102.68 -1.64218
31.5346 84.1678 3.23911
19.3142 137.143 -7.93316
31.0037 86.5766 2.69222
12.9774 144.277 1.83636
23.314 115.318 -0.687324
12.4326 146.977 1.152
31.6118 86.4887 1.48572
21.9138 122.652 -2.91116
18.9739 138.049 -7.58253
15.2475 131.468 6.30575
16.2613 125.998 8.09286
30.952 87.2203 2.62529
31.3717 85.9939 2.6166
11.9343 152.013 -1.24514
12.0532 151.795 -1.33142
16.2429 126.237 8.13788
26.5794 93.7115 8.2595
12.0249 151.883 -1.28791
32.3904 84.856 1.21121
21.7008 123.067 -2.3724
24.9219 110.942 -0.813136
18.4782 118.679 8.72742
20.1447 112.673 9.3466
33.772 83.1922 -0.603845
16.4297 143.856 -5.39718
23.0262 122.083 -4.50384
21.1805 124.513 -1.94101
19.3953 115.828 8.93134
21.9227 128.101 -6.39747
21.765 123.81 -2.73784
31.0127 90.5095 0.585102
22.2749 121.415 -2.02894
20.9683 125.131 -1.70077
29.4863 97.889 -1.24846
22.4957 122.053 -2.96596
31.0438 91.232 0.251286
25.5153 98.2829 8.13953
21.7326 129.491 -6.48789
22.6569 117.302 0.590369
16.4763 127.997 7.19019
14.7924 135.22 5.82493
19.0608 117.947 8.79842
21.6376 123.741 -1.71523
21.0225 125.474 -1.56033
11.1286 153.925 0.404638
24.5248 113.745 -0.886404
17.2294 125.846 7.30714
32.3619 85.6041 1.89806
17.5619 141.22 -5.14217
25.5434 109.057 0.358167
12.6009 148.045 1.53927
25.0299 112.18 -0.710603
15.4618 134.042 5.54001
22.3017 122.889 -2.22382
25.1714 111.391 -0.308648
23.6113 103.896 9.15065
18.0871 140.83 -5.7178
16.0106 132.933 5.25335
30.7851 91.1055 1.95445
29.3132 89.5828 6.69455
22.3144 122.925 -1.99333
32.2887 83.9543 3.89009
16.1207 131.692 6.09679
21.8618 124.613 -2.15035
19.229 139.657 -7.30187
32.1368 84.5346 3.94334
23.615 104.272 9.24441
19.7348 116.892 8.99291
32.5467 86.6531 1.51299
32.6481 86.5417 1.38568
22.3746 121.697 -0.880242
22.3695 121.956 -1.05232
21.4351 111.085 9.46094
16.6859 130.249 6.268
16.8269 130.525 5.72469
11.6869 153.527 0.537686
21.6346 110.668 9.4869
24.0271 103.778 9.05696
21.5048 120.374 2.44584
34.4069 82.7569 0.35358
25.5454 99.4484 8.78195
20.7788 126.779 -0.636705
32.1892 86.0607 3.17646
22.3774 122.454 -1.09624
30.4664 88.5498 5.46438
30.6487 93.2614 1.46811
20.752 126.998 -0.590023
22.3234 121.787 -0.345573
21.556 111.358 9.4303
30.5839 93.5195 1.49923
22.8097 107.391 9.48284
13.4638 150.832 -1.27009
12.0763 152.17 1.02783
23.0756 117.478 1.22601
34.4742 83.1746 0.198101
32.5948 84.3008 3.82655
22.3444 123.229 -1.36236
16.9282 132.047 4.8353
32.59 84.9629 3.3592
20.1034 128.436 0.0601022
31.669 87.0062 4.09957
22.4051 122.325 -0.671158
22.3925 122.555 -0.797887
14.0654 142.056 4.20462
27.0465 106.221 0.551226
18.0131 141.965 -5.112
13.0842 148.204 1.99851
23.7319 115.854 1.26985
20.4587 115.783 9.12999
21.53 122.609 1.60133
20.5725 115.801 9.1514
21.2258 126.78 -0.687331
17.632 130.807 4.81219
32.8297 84.6331 3.7816
19.8794 118.378 8.9627
17.3351 132.299 4.51185
23.381 122.37 -2.28869
25.5412 111.593 0.825545
19.0088 125.404 5.90994
16.5908 146.283 -4.19212
32.0798 87.7565 3.4447
16.847 145.449 -4.11897
17.9571 129.191 5.60527
19.2389 126.481 4.62335
14.0702 143.78 3.82855
16.4678 134.411 5.24923
30.004 95.5667 2.56206
12.7228 152.394 0.539997
34.0499 84.296 1.54355
13.1849 149.16 1.92962
23.8438 122.267 -2.91138
28.2974 103.629 0.701386
30.4612 89.7708 6.10896
17.2809 133.21 4.48601
30.5473 92.7859 3.65205
31.6827 88.7452 4.03799
13.2571 152.498 -0.391833
22.4171 110.92 9.4256
21.206 115.837 8.66004
28.2724 94.7013 7.91863
15.4727 138.687 4.96022
13.663 147.853 2.42713
29.7176 91.8225 6.81895
23.5326 117.587 1.96252
18.2431 131.008 4.3774
22.0059 125.961 -0.741702
25.9042 101.585 8.54526
21.1361 128.255 -0.361789
13.039 151.041 1.62701
22.4809 111.989 8.84184
13.4083 149.645 1.92105
25.5048 113.65 0.527612
27.2572 98.1468 8.22793
13.072 151.227 1.6722
15.0917 149.549 -1.79555
23.498 128.981 -6.15582
21.7878 116.018 7.84937
14.3963 144.802 3.63113
24.1247 116.645 1.89078
27.0082 99.2764 8.23882
30.2433 96.5711 2.63164
25.5956 103.184 8.71624
30.7358 93.3212 4.06283
19.595 123.073 7.98494
30.881 96.8251 1.09346
20.9289 129.285 0.134317
23.4824 110.687 8.20009
22.7742 112.988 8.13767
19.9697 125.425 5.36926
30.8272 91.0982 5.71135
21.3056 128.731 -0.214285
24.8135 105.756 8.91911
16.6051 147.68 -3.3982
29.5948 96.0466 4.93552
29.6456 96.0446 4.85336
33.8414 84.7844 3.45082
31.1117 91.0498 5.31767
30.1823 98.7627 1.66712
27.3504 99.873 7.60379
18.949 131.997 3.20508
19.8638 131.38 1.49958
29.4199 96.3764 5.37328
31.0201 91.6329 5.21169
21.7017 123.155 3.46922
27.4989 107.006 1.96607
22.6002 133.82 -6.70007
26.1025 103.277 8.19784
23.1338 132.424 -6.88174
15.306 140.893 5.36319
21.5496 128.362 0.0532775
20.2913 125.237 5.43289
22.954 130.786 -5.11967
21.2344 139.091 -7.31447
30.0671 99.4701 1.8068
21.5752 117.996 7.95266
16.3233 138.811 4.65124
15.9777 139.441 5.024
19.1981 132.699 2.50748
23.1843 114.699 6.76154
17.2485 147.311 -3.90087
20.5413 128.491 2.59712
21.0321 126.73 2.81066
30.2163 94.0776 5.85808
20.9453 123.013 5.9463
14.036 149.151 2.5321
30.6099 98.0722 1.96637
20.0555 131.493 1.71729
29.6582 97.0206 5.06984
21.7082 123.844 3.61959
34.4235 85.0089 2.88886
25.1975 107.017 8.16633
21.4071 128.511 0.918929
15.3309 143.081 4.31563
20.8699 140.615 -6.96921
20.87 125.533 4.54505
27.8822 100.321 7.05366
16.9945 137.95 4.41028
21.2337 125.856 3.54045
29.0304 96.2678 7.47603
18.6519 134.37 3.22773
14.224 152.329 0.128665
18.7725 144.529 -4.75614
18.0831 145.956 -4.19748
34.6343 84.5989 3.06004
23.2203 124.227 0.181013
23.1117 116.262 6.52995
29.3231 96.6494 6.676
14.2786 149.163 2.60254
25.0303 110.078 6.73212
20.7991 129.404 2.14446
28.2145 99.1793 7.49191
18.2791 136.036 3.13175
14.6275 147.25 3.34975
16.5343 148.4 -2.03812
25.4065 110.03 6.04057
25.9256 108.796 5.76885
20.9308 124.372 5.85672
26.5235 111.818 2.15227
26.5654 106.977 5.7381
29.2777 101.689 3.32339
28.7371 98.5046 7.11962
29.3409 99.2446 5.18552
21.6368 120.294 7.53691
29.9212 100.499 2.92248
19.2268 134.383 2.69464
23.5185 116.387 6.16286
15.9779 141.471 5.14908
28.9883 99.8319 5.84105
24.4895 129.482 -5.92193
22.4191 126.369 1.39792
22.8538 117.981 6.76125
20.5708 131.449 1.96968
28.5617 103.802 3.99223
29.6657 97.5374 6.22029
26.0431 113.746 2.60823
29.4366 101.542 3.87025
24.964 128.505 -5.94381
28.5395 104.544 3.77907
21.0378 130.93 1.5998
15.6097 144.755 4.05186
23.0107 118.364 6.54827
22.412 126.761 1.59475
28.3101 102.088 6.31727
25.1871 113.283 5.24473
23.719 117.038 5.90964
19.5234 134.243 2.87226
25.1406 116.191 3.28198
25.7645 112.012 5.00975
18.7431 136.365 3.21511
19.6492 144.611 -5.19576
15.2468 146.665 3.73839
28.7063 101.026 6.44493
27.7888 103.882 6.47485
28.1196 106.215 4.05787
18.8439 146.451 -4.43327
23.668 132.492 -5.2712
