ply
format ascii 1.0
comment Created by Open3D
element vertex 1909
property double x
property double y
property double z
end_header
9.6203 105.068 12.5449
2.80499 97.4359 8.65487
-5.66669 95.6289 -6.61248
12.7293 122.227 -3.97994
18.2799 130.756 -3.86057
-12.9974 75.045 5.91301
14.4582 111.286 14.5521
14.8425 122.04 0.873563
-13.6438 80.9198 -3.27126
-5.34514 84.355 9.54509
13.9003 121.871 -0.810302
12.4597 121.6 -3.449
3.04256 108.185 -5.04895
2.67988 96.6614 9.81178
13.9967 122.556 -1.44324
21.6055 130.091 4.36711
11.8992 118.292 -0.0418278
20.7895 126.33 7.7611
-13.3206 79.4258 -0.34344
14.9628 112.353 14.4961
18.4862 123.799 6.40098
-3.63998 99.2092 -6.7548
-11.3942 77.3964 6.51033
2.66774 96.6828 9.9762
13.5459 123.009 -2.77257
21.43 129.766 4.65506
11.0764 109.545 10.3444
9.27058 112.814 2.17667
13.4898 123.059 -2.8232
6.49571 106.044 5.64068
10.7929 106.844 13.601
16.1734 114.768 14.202
-9.12888 80.1772 7.93422
-5.83208 84.2156 9.41898
6.16143 104.365 7.32892
20.9435 127.145 7.62538
18.6826 124.826 6.09668
-8.64116 92.095 -6.84317
-5.84719 84.5329 9.44178
-12.1787 76.9908 6.35647
18.4794 124.221 6.85472
-2.23988 102.353 -7.05809
4.59949 102.04 7.74177
12.959 122.314 -2.12189
1.37232 94.4712 11.2489
-13.9954 79.2075 -0.325149
21.3534 133.635 0.2435
-8.00627 93.66 -7.28143
21.6346 132.73 2.12865
0.0296276 92.8266 10.7931
-2.50507 102.138 -7.12396
-2.93061 88.6201 10.3658
21.2388 133.312 0.63413
6.41864 106.712 5.53775
-10.7741 78.965 7.09051
6.4065 106.741 5.62854
11.2112 116.022 3.17408
20.5244 127.073 7.77792
17.5931 124.114 5.64798
12.2756 122.629 -3.42221
12.0267 116.81 3.99615
4.67696 111.218 -3.85868
15.8498 123.845 2.52464
-8.91909 81.4169 7.97972
20.5273 135.76 -3.75069
18.2699 125.228 5.79676
12.8991 122.883 -2.26056
16.2715 123.697 3.75105
19.8928 135.19 -4.11217
12.6867 123.036 -2.78962
-13.5582 76.3562 5.30146
-3.76931 88.2911 9.71
-7.36269 95.3417 -7.3486
18.4409 125.767 5.75189
15.0063 124.397 0.441185
8.72687 113.435 2.11804
17.4682 123.632 6.72268
11.9181 121.37 -1.86204
11.2751 111.988 9.53014
18.856 126.248 6.20507
-14.5452 78.445 0.782709
10.6781 110.044 11.0238
6.22415 106.098 7.05854
16.9099 119.211 11.7531
18.2109 125.127 6.51263
19.3271 127.295 5.95884
21.2714 130.601 5.58209
2.29505 109.161 -5.21644
16.7085 119.274 11.3997
17.7669 125.26 5.58689
2.40892 109.394 -5.12283
-13.9852 82.4762 -3.10661
4.83559 103.221 8.38233
6.27451 112.375 -0.972114
17.1584 124.503 5.53257
-10.7871 88.8783 -4.9148
13.4978 122.828 0.139382
4.8851 103.504 8.2251
17.1996 125.257 4.64648
17.0921 124.848 4.98293
10.4713 108.623 13.0494
21.0327 133.388 1.75107
17.0855 124.781 5.11728
10.8476 111.072 10.6808
12.6079 110.765 14.8114
-10.8371 89.1992 -5.13491
14.3994 113.875 14.4802
1.01546 95.6732 11.0369
13.6209 123.307 0.119513
15.7514 129.984 -4.42013
16.1472 130.453 -4.22134
17.2772 123.938 6.99216
-9.53617 81.6784 7.90544
4.58919 112.166 -3.68883
21.1514 130.326 6.54512
14.524 125.044 -0.211102
-9.16946 82.2353 8.0688
13.8423 125.81 -2.58502
11.5005 121.815 -2.08136
-0.535068 92.6262 12.1967
13.8748 127.437 -4.6575
13.5524 125.276 -2.40589
17.9057 133.396 -4.20432
7.67675 112.507 2.72465
15.36 124.297 2.95988
5.5226 113.562 -3.09776
2.24734 98.3846 10.6274
8.8719 114.657 2.57203
16.3055 131.051 -4.00486
-4.45916 100.725 -6.5456
4.19829 102.773 8.90445
10.7811 117.717 2.49938
15.5017 124.272 3.55336
20.2418 129.243 6.80549
-4.0829 101.462 -6.58462
-13.0346 85.2098 -3.32386
15.3524 126.455 0.475226
-0.623023 92.2914 13.2136
16.9511 125.656 4.99098
9.24699 115.287 2.88407
10.5639 108.988 14.2249
4.48568 112.737 -3.59925
-3.71889 102.748 -7.28955
19.8393 128.977 6.71183
-14.1481 83.8693 -3.57592
8.51163 114.616 2.39657
15.1535 116.197 14.2305
16.2792 119.056 12.7688
13.1626 124.619 -1.31529
11.8714 118.748 3.9475
13.4086 125.719 -2.21677
10.5071 109.346 13.8776
-8.43001 83.9099 8.54917
14.3507 126.87 -1.76802
17.7177 129.258 2.07713
12.2439 124.49 -2.9456
-8.96416 83.2841 8.33851
9.74542 116.894 2.17562
-4.14642 102.104 -6.90379
17.2234 125.16 6.77802
11.6776 119.067 3.53973
10.6387 121.098 -1.35598
3.47328 101.831 9.70827
10.4695 111.734 11.0405
14.0616 125.881 -0.406423
15.3563 126.845 1.0527
16.8178 128.425 2.00619
-1.00477 92.5312 13.1972
10.4653 109.895 13.7887
-0.109332 94.9541 11.8299
10.5832 118.5 2.44762
17.5231 134.499 -4.61274
-10.8391 91.485 -5.90988
-4.70753 101.436 -6.48327
-11.5526 90.2847 -5.66791
1.57388 110.126 -4.90009
16.8776 123.026 9.79563
13.6607 126.506 -1.62736
-0.553331 107.151 -5.23871
12.2616 119.345 5.19761
6.89441 112.613 3.05265
-2.25681 91.5647 12.3651
11.7758 124.592 -2.86332
11.5092 111.009 14.9764
17.0069 127.527 4.15652
14.3395 115.897 14.3448
10.6874 119.058 2.41556
1.45453 98.5476 10.9891
15.54 127.61 1.22472
18.4915 127.697 7.3779
18.8137 129.03 6.3488
-11.9942 89.6745 -5.01064
2.30956 111.33 -4.25298
3.56419 112.929 -3.77534
0.820963 109.376 -4.71366
16.1926 125.085 6.32481
2.55061 101.221 10.0217
20.0008 131.893 5.14997
-15.1589 81.5694 -0.562001
0.858581 109.509 -4.7157
6.35872 109.723 6.60419
12.3558 125.855 -2.5868
0.765323 109.456 -4.68951
16.7927 126.478 5.95573
-15.5856 80.6302 0.0330938
16.5507 125.399 6.96119
-4.37401 103.583 -7.3424
-10.6977 92.9321 -6.16403
15.9355 125.12 6.24
3.96339 113.878 -3.67455
17.3708 125.725 8.46313
14.1038 125.98 1.2617
14.0988 125.805 1.54662
-1.5046 93.0214 13.1921
20.6818 135.871 1.78692
5.76383 114.263 -0.291386
-8.37949 85.9097 8.48922
-5.5357 89.9643 8.9888
-0.470497 95.9865 11.5637
2.62697 112.333 -3.94671
17.0295 129.036 3.70804
16.6193 123.977 9.71944
19.5898 138.396 -3.55261
-14.5606 80.0825 3.67903
21.864 138.769 0.733016
-9.68626 95.398 -6.78469
6.25765 111.377 5.10234
9.67062 118.949 2.04808
7.17669 114.507 2.86458
16.2722 130.968 -0.285273
14.2355 117.141 14.2197
8.01205 116.123 2.53588
10.5307 123.774 -2.47054
10.339 120.121 2.08959
19.4573 132.161 4.94804
-5.66851 101.789 -6.70176
-11.3596 82.4214 7.59012
16.4378 127.011 5.61905
-3.59987 104.843 -6.43371
-7.03777 88.3493 8.71381
1.01512 110.75 -4.67141
15.2524 127.774 2.19545
-12.2896 81.9219 6.44364
13.473 129.166 -3.3719
-14.8674 84.6543 -2.62243
17.7704 128.661 6.35706
16.2536 126.309 6.38867
10.5385 114.791 9.98932
11.7279 113.24 14.5914
11.8675 127.072 -3.84673
10.0263 122.059 -0.842647
10.5486 114.931 9.92859
19.676 131.429 6.76197
11.2309 112.723 14.3965
-11.4688 82.5834 7.53168
6.64588 113.576 3.62975
11.7137 113.443 14.4946
-13.3422 88.2108 -3.95133
17.7429 128.885 6.37021
-1.17917 95.4949 11.8936
13.954 125.441 3.15829
-10.1512 84.7572 7.7369
9.93631 122.717 -1.42527
14.2567 129.036 -0.874774
-5.2169 103.466 -7.15512
-3.74124 92.0768 11.3868
14.3404 125.674 3.88216
16.4486 128.397 4.7216
-2.65869 92.8099 12.7784
18.0047 137.355 -4.13071
-1.59221 94.833 12.2949
21.0595 140.342 -1.68116
-13.3782 81.9664 5.04162
-10.2077 84.9778 7.70029
18.9833 133.24 3.6687
18.1803 137.67 -4.01015
16.5553 126.343 7.98515
5.52862 108.935 8.39675
6.09618 110.543 7.43939
10.082 121.578 0.925171
11.737 127.026 -2.96919
16.4138 131.301 1.093
-15.9916 81.4239 0.565941
15.4413 133.791 -4.3021
-15.1852 81.0338 2.811
17.4484 127.965 7.90492
-15.9153 81.4222 0.844723
17.9001 137.482 -4.019
15.9212 124.014 10.0743
13.4128 130.066 -3.37401
1.02819 111.678 -4.47587
13.0068 116.326 14.4425
11.7767 114.476 14.4104
0.556982 110.973 -4.35731
16.3587 131.461 1.12537
9.57921 120.861 1.26496
-1.22082 96.3549 11.9121
-11.6356 83.593 7.34202
14.1845 129.506 -0.590917
17.9954 129.919 6.86715
8.40206 118.435 2.32526
0.337839 99.6902 10.8231
12.2268 122.911 4.42699
11.4678 123.074 2.63908
21.642 141.262 -0.548754
16.1186 125.423 9.30811
15.148 131.307 -0.698417
13.0055 127.009 0.637334
12.7399 127.914 -1.1015
4.12285 115.902 -2.90965
11.7537 127.674 -2.80973
3.89037 115.726 -3.14228
13.7977 129.747 -1.29465
16.2374 133.027 -0.56422
12.104 128.019 -2.35056
12.7664 116.855 14.2576
12.1699 128.153 -2.28535
15.701 124.655 9.92225
16.5031 130.194 4.14002
-6.66854 90.8183 8.79089
-1.41144 108.703 -4.33209
10.126 115.059 11.3313
0.231448 111.131 -4.13291
1.737 113.482 -4.06928
12.7743 127.539 0.118952
-5.52525 104.721 -7.40713
15.7387 125.035 9.79667
8.24021 118.896 2.39961
10.8072 117.803 9.31376
-12.9235 91.9578 -5.52354
19.6188 136.279 2.8347
16.3222 131.028 3.16132
3.39979 106.72 8.93487
7.17795 117.283 2.63535
3.8484 107.335 9.11316
-1.90248 108.415 -4.35111
-16.0089 82.8221 0.765914
11.1911 119.311 8.51059
10.1361 114.62 12.7306
12.6931 128.804 -1.047
12.9222 118.007 14.0787
2.61997 115.109 -3.63109
11.5232 115.909 13.9928
8.11383 119.162 2.44528
20.7874 139.066 2.1351
-7.37072 102.192 -7.03898
13.6296 130.586 -1.36526
-9.43801 88.0202 7.82972
16.2886 128.3 7.34826
-14.7023 88.6118 -3.99394
10.4487 114.991 13.1327
-9.78139 98.8832 -7.54914
13.1246 118.475 14.0519
-8.97884 100.152 -7.56333
11.5614 116.12 13.9711
12.2974 124.59 4.16446
6.28775 114.088 5.7871
-1.23626 98.0678 11.6769
-1.30718 97.8975 11.7696
9.68303 125.534 -2.5397
-5.15374 92.8927 10.5044
11.4781 129.433 -4.01028
3.82464 116.211 -2.16328
18.7845 140.01 -2.93376
-16.2734 84.6766 -1.63108
-16.2191 85.1615 -2.17166
-4.63009 106.145 -6.211
-5.22364 105.735 -6.90172
-9.91158 87.744 7.64368
16.7757 130.133 6.36601
14.842 132.64 -1.07387
-0.0210962 111.674 -3.86923
14.0872 131.993 -1.70963
-16.2562 84.9523 -1.73108
21.3575 142.327 -0.393903
2.57172 115.504 -3.51471
-7.93432 101.903 -7.13217
10.1235 116.823 10.6251
10.3128 117.5 10.1397
18.3047 134.364 4.09474
12.9345 129.162 -0.135696
-0.141994 111.608 -3.81321
13.7469 133.725 -4.53099
0.451393 102.81 9.43033
-15.3126 87.9035 -3.47282
16.0425 128.646 7.23324
21.2572 141.81 0.364935
12.6168 129.462 -1.06422
-9.26365 88.9648 7.81475
-0.0509888 111.854 -3.81373
9.95737 116.034 11.5728
13.8296 128.948 2.28024
13.4013 133.241 -4.43088
18.1474 132.628 6.40096
-9.13977 100.548 -7.48342
6.61371 117.636 2.49732
17.2813 130.95 6.90674
-3.49632 107.656 -5.1747
5.55833 117.37 0.707163
-1.1525 110.351 -3.85795
13.7432 120.579 13.6005
10.8198 124.691 1.94216
13.8362 121.407 12.789
-10.114 88.1047 7.58254
-8.43098 90.2238 8.25451
0.306537 102.97 9.38665
20.035 142.01 -1.99901
11.5252 125.464 2.5537
9.40819 125.818 -2.36174
4.30848 116.67 -0.674857
6.10245 114.168 6.4915
14.003 132.744 -2.05951
13.2962 128.035 3.02786
6.56662 116.27 4.90631
13.189 128.198 2.69735
18.9398 136.865 3.04572
12.2043 124.535 5.61582
12.1254 124.304 5.76624
-16.2782 85.3838 -1.14563
14.7735 125.79 9.46183
13.3482 133.412 -3.85382
3.40256 117.072 -2.58918
9.92615 117.171 11.0361
13.6323 129.222 2.58003
-15.7943 84.5834 1.27218
8.87307 123.983 -0.236192
-1.17231 100.372 10.6408
20.819 141.414 1.27397
13.4661 133.754 -3.7626
14.6516 126.137 9.06622
13.6008 133.672 -3.34768
12.619 129.926 -0.253546
7.66318 119.931 2.892
12.3095 125.993 4.45011
-12.3659 85.8549 7.05037
-7.75032 103.86 -7.52823
-10.9545 87.8317 7.50452
12.6948 129.849 0.353512
14.6014 131.548 2.10539
4.86603 111.24 9.20388
7.39066 119.587 3.24705
6.55537 116.513 5.69118
9.86164 117.499 11.3326
12.3408 130.429 -0.777983
13.8137 123.437 11.8389
8.70049 122.508 2.36114
-13.0164 95.0968 -6.10626
-15.4839 89.4912 -3.6974
14.1011 124.716 10.7792
12.0008 131.252 -2.47865
14.567 136.543 -4.24356
11.0953 122.159 8.07879
12.3171 131.43 -1.8577
7.0066 119.065 3.73988
1.65384 116.018 -3.37242
-1.32525 101.289 10.3658
-12.5565 86.4023 6.99692
14.1609 135.316 -3.10877
6.65497 117.311 5.52102
-7.69926 104.975 -7.885
-11.494 87.7629 7.45961
4.88279 111.817 9.32278
12.7245 134.435 -4.79725
6.29495 115.81 6.95555
14.7474 135.803 -2.33695
-5.10906 94.9001 11.3567
9.51226 127.803 -2.47903
-5.43478 94.6864 10.9775
-12.1439 97.1599 -6.43806
-13.9953 93.574 -5.46707
1.11786 115.575 -3.50572
-12.6667 96.2707 -6.2905
7.32331 120.141 3.41537
9.40942 127.691 -2.40725
3.35446 117.722 -1.56696
17.1005 139.94 -2.75632
-6.57545 93.917 9.92296
9.80288 128.839 -2.84677
4.53318 118.574 0.162958
-14.0455 85.9509 5.3254
9.84988 119.216 10.4894
-0.112101 104.589 9.38728
13.7458 131.564 2.01657
6.14784 119.552 2.37703
13.6515 131.166 2.4185
-14.617 92.7548 -4.94647
-15.8709 86.7258 0.622956
8.50604 123.558 1.95808
-11.8991 98.5298 -6.96052
20.1519 141.353 2.40466
-13.742 86.3064 5.74892
2.64951 109.039 9.41693
2.56566 108.893 9.44604
17.7826 141.2 -2.33195
11.043 119.301 13.1715
-1.65876 101.713 10.3266
12.404 134.624 -4.69296
14.5301 134.519 -0.0319657
13.3831 124.366 11.3258
6.88835 119.7 4.01485
15.0804 136.869 -1.93598
-16.2505 88.6548 -2.45635
12.2839 128.679 3.34402
-12.251 98.0396 -6.69292
-0.427301 104.495 9.41763
3.82376 111.028 9.57525
-14.1647 94.1779 -5.38237
20.1563 141.752 2.34824
6.40274 120.171 2.68274
-7.94042 92.9554 9.41772
-16.1103 89.2736 -2.74701
7.68242 122.358 2.50989
15.165 137.221 -1.884
-11.2478 100.565 -7.70841
13.8692 136.339 -3.36216
3.87285 119.014 -0.822666
19.0365 143.325 -1.82905
16.6559 134.593 5.02545
10.7624 131.573 -3.26775
14.5484 134.762 0.381289
-3.45137 98.3467 11.9281
-1.14178 112.895 -2.89624
7.00216 121.265 2.88363
-6.34145 94.9247 10.6082
15.7488 139.563 -3.38962
-14.6717 87.0012 3.89418
6.02665 116 8.13802
-13.3525 96.4303 -6.07466
0.828407 116.329 -3.2123
-13.003 87.4979 6.83108
-16.1021 87.521 0.316006
1.73283 108.43 9.47787
-3.63059 110.331 -4.34649
-8.01653 106.237 -7.95566
6.04963 116.188 8.15586
11.6305 129.74 1.54999
12.868 131.878 1.2752
-3.70706 110.368 -4.37909
13.7869 134.733 -0.616684
7.58778 122.828 2.53518
-16.3115 88.7352 -1.50293
-9.82354 103.556 -7.90618
12.6025 131.68 1.12894
13.4559 136.488 -3.58605
12.1249 131.889 -0.109954
-2.80569 111.213 -3.46099
15.7314 139.881 -3.27678
5.76415 115.498 8.86424
-16.1169 90.3119 -2.99089
16.9035 136.24 4.18822
11.7818 126.752 6.31201
19.9023 144.6 -0.719623
11.8763 134.971 -4.53579
13.0487 133.421 0.0679845
-2.78011 100.873 10.8998
11.9984 135.476 -4.81668
14.5932 137.061 -1.49789
19.9398 144.645 -0.518541
12.0946 130.398 2.45619
-4.47547 110.172 -4.94335
19.3883 141.188 3.21718
4.29287 120.287 -0.105498
11.4435 134.286 -4.0408
12.0306 132.459 -0.326211
9.7366 130.833 -2.93836
-10.9554 102.439 -7.89162
-3.72186 110.899 -4.12337
-16.051 88.3915 0.493778
13.4681 136.822 -3.05261
-15.4454 88.4788 1.80532
11.9555 136.185 -5.21618
-14.8243 94.4634 -4.94267
-16.0938 90.4981 -2.22036
17.6538 138.612 3.64555
-1.38867 104.664 9.64575
-14.2126 87.9542 5.33925
-14.7276 88.2487 3.87535
17.3111 142.54 -2.31295
-15.1556 88.5517 2.62219
-8.34019 94.2082 9.40181
13.2285 134.922 -0.377451
15.8477 134.056 6.33741
8.37811 128.529 -1.8531
11.2958 122.324 12.7098
16.3763 135.978 4.90757
-12.9764 98.9689 -6.57309
-11.8183 90.3388 7.65703
-7.44628 108.131 -7.12739
18.9902 141.41 3.47024
-9.63762 105.226 -7.64723
10.0238 121.317 11.9678
7.87066 126.644 0.241409
-4.868 110.672 -4.8881
14.5099 131.517 7.60185
-5.44064 110.175 -5.41073
6.48945 119.309 7.31684
-13.4589 98.4814 -6.35196
13.6047 136.001 -0.285012
11.1745 130.869 1.57267
-2.14308 104.234 9.69435
-8.83767 94.2988 9.32601
-0.401076 116.105 -2.47993
-14.2216 97.0727 -5.73383
10.7075 122.418 12.3336
-16.0421 89.2594 1.04304
12.4036 127.097 9.59277
13.2373 128.616 9.31551
-1.08491 114.926 -2.20716
7.84294 128.213 -1.38008
-9.83749 93.1111 9.12142
8.36341 126.261 2.53168
7.71783 126.013 1.53988
-4.98951 111.098 -4.91776
-13.9203 89.2088 5.97802
9.75353 123.092 9.84833
14.1488 138.951 -2.31455
14.0556 131.431 7.70082
10.0219 122.382 11.557
17.885 144.11 -1.3232
8.97269 127.753 2.1482
8.72833 127.352 2.21558
18.1211 140.724 3.86942
11.0477 127.143 7.42481
12.3204 127.5 9.66658
-2.16018 104.995 9.76481
7.22215 123.747 4.08339
-10.4535 104.871 -7.46992
-16.0305 89.8636 1.18263
-0.826847 107.17 9.85274
14.0482 138.679 -1.56727
19.309 144.17 2.13288
-2.14397 114.398 -2.61582
-16.0816 93.1506 -2.87864
-11.0742 92.5158 8.55038
-9.09354 107.767 -7.92832
15.4625 135.558 6.07139
-7.16086 110.044 -6.81816
12.1996 132.115 4.01328
10.8375 136.621 -4.94702
-1.9175 114.905 -2.33434
9.90929 134.023 -3.37782
-6.20016 110.983 -5.99757
2.54446 113.118 9.52616
-15.9507 92.6819 -1.63209
10.2812 123.43 11.9788
6.71193 121.501 7.09926
11.2305 132.629 1.59569
14.4201 133.249 7.45965
16.3644 138.919 4.0375
9.79104 124.902 9.22402
9.8499 124.24 10.2559
12.4787 138.583 -3.57899
-12.907 91.7349 6.61271
-4.43489 100.945 11.9716
6.7901 122.675 6.12828
4.58926 122.662 1.61855
-15.4337 92.6285 0.248154
13.0755 139.085 -2.73809
-2.1144 115.192 -2.25917
9.97111 125.608 9.03667
5.35166 123.296 2.51547
8.1947 127.086 3.38101
-1.9591 106.517 9.91824
-7.65775 110.41 -7.31519
-7.1647 97.1973 11.6314
13.0668 138.454 -1.70937
6.99717 124.038 5.11462
11.983 132.499 4.17013
-2.28889 115.158 -2.3195
-7.7418 110.426 -7.34459
-10.1376 106.904 -7.58506
-15.56 93.0758 -0.244523
18.1393 145.848 -0.861407
-8.30718 109.812 -7.57228
8.8235 129.084 2.32418
-13.2323 91.9478 6.37893
-8.73914 109.348 -7.74777
3.00687 114.501 10.0631
0.811238 119.966 -1.83236
7.96029 126.903 3.83471
-0.434598 117.943 -1.64887
0.415486 111.26 9.20255
-2.2248 115.568 -2.12269
-15.7291 91.7282 1.79385
-4.30233 102.316 11.4855
-0.910044 109.111 9.5365
-12.3492 103.774 -7.22046
-14.6115 99.4099 -5.97871
7.2031 128.584 0.394756
-14.9986 90.8779 4.84005
10.9357 130.247 6.01985
16.8838 144.376 -0.58554
6.68187 122.73 7.41681
5.66593 124.77 2.61739
14.1105 140.85 -1.4003
2.87835 123.038 -0.781198
10.3029 137.781 -5.11861
-5.43893 113.731 -5.61506
7.15038 128.226 1.22061
10.3124 132.842 1.62491
-12.9572 92.7948 6.99955
-7.23312 97.9782 12.0186
-2.23747 116.12 -2.05452
-12.4097 104.154 -7.17337
14.3421 141.242 -1.15497
15.7945 139.162 4.77598
9.76228 125.428 10.7124
3.57495 116.348 10.094
13.7977 133.919 7.77555
18.6167 146.194 1.30415
9.45859 131.453 2.1137
6.56255 126.604 2.60672
8.10399 127.836 4.29284
-12.4968 93.2399 7.86877
11.5182 132.956 4.56545
8.22629 132.597 -1.86159
4.35046 123.97 1.76348
9.98689 127.757 8.50959
3.38278 116.374 10.0612
11.8591 135.75 1.6778
-6.85786 112.87 -6.63434
12.3407 135.85 2.59366
8.00266 132.321 -1.71827
9.9098 137.537 -4.74358
9.77994 137.188 -4.52658
6.57763 126.961 2.59935
-12.9579 103.883 -7.15853
14.0649 134.7 7.89669
12.7526 141.28 -3.75695
-14.8081 100.089 -5.81243
-2.55402 107.391 10.0539
5.56715 121.056 8.61155
3.6324 117.224 9.78528
10.2684 129.592 6.99123
-12.579 104.7 -7.26825
-3.13289 106.534 10.148
9.49302 136.701 -4.12923
-10.4282 95.9766 9.20723
-6.96455 113.108 -6.66053
12.0517 131.484 8.46557
12.6108 132.883 7.74879
9.01698 135.568 -3.38723
9.14681 130.985 3.19012
-4.64074 115.5 -4.78782
10.8077 139.755 -5.15764
-13.4908 93.3654 6.66892
-15.6221 92.8621 2.95723
-15.6743 93.6609 1.81445
9.75008 128.47 8.1737
-4.39015 115.748 -4.26969
9.59832 126.919 9.99738
-8.6838 97.7319 11.2178
6.70008 124.664 7.09485
16.2477 141.712 4.1522
-16.3082 95.9175 -2.09798
6.56161 130.285 -0.57644
4.72997 125.352 2.296
-7.25596 113.464 -6.77211
10.5397 131.546 6.18514
-16.2632 96.5822 -2.7759
10.3458 134.077 2.41117
2.34848 116.002 10.102
9.83851 133.489 2.16861
11.6589 131.432 8.78465
-15.4014 92.9795 4.06493
-14.889 101.086 -5.78365
14.0017 141.773 -0.156877
-4.20166 105.699 10.4746
11.7396 134.96 4.39606
-16.1554 97.5096 -3.4733
-1.06929 119.158 -1.06854
9.22374 132.799 2.08697
16.398 142.354 4.2645
-15.8055 95.2716 0.573016
-14.077 102.954 -6.19412
6.03438 123.695 7.97858
9.69331 138.932 -4.88983
-12.9375 94.5345 7.77524
6.09087 127.884 2.61168
1.7297 115.389 10.3821
-3.38385 107.736 10.0181
-7.56216 113.747 -6.87238
-2.63426 117.683 -1.7884
-11.8166 107.836 -7.73803
12.5655 134.113 7.91323
10.5791 130.284 8.93632
6.45957 129.149 1.83576
-14.0092 103.402 -6.26646
-5.99568 115.452 -5.73046
8.92518 137.296 -3.93199
7.34715 133.25 -1.73646
6.85541 131.963 -0.991829
-7.25462 114.268 -6.62898
5.21415 126.757 2.66388
6.60926 125.615 7.17945
8.05179 135.442 -3.01896
-13.4198 105.253 -7.16726
14.4837 138.537 6.40542
6.39129 129.476 1.68007
-13.9941 94.2102 6.62078
-12.8499 106.381 -7.45151
6.41852 130.481 0.397905
17.0826 147.421 -0.0964352
1.5798 123.305 0.0374762
-16.2928 96.8666 -1.67906
10.3993 136.017 1.41118
0.736675 122.384 -0.377531
-10.3377 97.4472 10.1782
-0.57288 113.088 9.518
17.6061 147.175 1.60673
10.9637 134.105 5.54044
5.07088 127.154 2.60316
11.4286 132.906 8.17149
17.5342 147.252 1.62171
10.9229 141.445 -4.38485
14.9541 144.344 0.191856
13.445 136.803 7.31442
10.6664 137.127 1.07587
11.8293 136.081 4.95164
12.5491 137.829 4.13267
12.4528 141.405 -0.86312
12.1244 141.76 -2.02987
3.51943 126.222 0.957422
-4.64646 117.523 -4.39493
11.6877 135.89 5.05491
6.29875 130.475 1.097
9.80224 130.907 7.95284
15.1785 141.697 4.65622
11.1395 142.053 -4.14621
0.806161 115.393 10.2937
12.1067 140.941 -0.486852
12.5402 141.781 -0.705518
17.3025 147.493 1.57282
0.598835 122.76 0.0273624
-16.3885 96.6613 -0.115702
-0.661928 113.82 9.69393
-2.12451 119.479 -1.02917
14.646 140.878 5.24693
-14.2113 104.225 -5.68803
3.91027 121.559 8.91301
12.1144 137.133 5.06474
-15.3089 102 -4.95559
13.9471 138.658 6.8978
-9.25988 99.3041 11.4405
-4.83124 118.215 -4.73899
-0.359486 114.367 9.90032
6.72884 127.252 7.37063
-16.3279 97.4368 -0.654343
11.9735 138.528 3.25269
-2.47872 111.545 9.5312
10.9795 142.75 -4.34959
13.6348 143.528 0.179338
-12.2584 109.138 -7.60557
12.4057 142.264 -0.627949
6.38143 133.701 -1.62617
-12.1805 97.0525 9.01349
10.8035 133.628 7.88961
-13.4656 96.0445 7.82137
8.29694 133.592 2.77539
10.2453 137.839 1.19054
-8.34168 115.125 -6.93146
4.62962 128.293 2.57333
-13.6892 96.3052 7.60393
0.867017 124.248 0.481592
-13.9948 105.845 -5.81781
12.2079 143.527 -1.75387
-13.8178 96.3803 7.46974
15.0264 146.39 0.372301
-15.8218 102.081 -4.39366
5.5326 130.472 2.13139
-13.4071 108.101 -7.26333
1.12109 118.271 9.49011
11.8287 136.086 7.87088
11.4734 136.815 6.14998
12.7796 137.741 7.68397
12.0143 139.581 3.65054
-7.38484 102.831 12.6732
2.34189 121.072 8.42692
5.78308 132.675 -0.0198731
11.1702 144.072 -4.10238
-5.26223 118.973 -4.56909
1.40451 119.2 9.13632
16.3519 148.271 1.19116
2.7585 122.135 8.05203
11.4606 144.344 -3.7184
10.0454 138.801 0.834886
-16.3306 98.2647 0.321683
11.3682 144.31 -3.83655
16.1279 145.773 4.30872
-16.1651 101.953 -4.09977
7.83822 132.174 5.42939
0.74811 118.083 9.64465
-8.03992 102.235 12.7348
-8.4142 101.9 12.4518
11.7474 142.961 -0.751823
6.48932 128.948 7.23146
12.6217 140.369 4.71126
13.7183 145.302 0.381219
9.59742 143.007 -5.14386
-5.43931 119.215 -4.49757
5.24252 126.101 8.63146
11.6515 137.084 7.25612
-13.7475 97.4961 7.55429
13.8661 141.74 5.64982
6.34362 136.237 -2.68986
11.6263 145.084 -3.45402
16.0502 148.548 1.16291
-15.8395 102.97 -4.07513
12.785 140.649 5.0469
-16.3897 101.815 -3.5274
-2.00433 121.871 -0.430039
-10.4782 113.866 -7.32022
8.46288 136.006 2.50476
-1.57052 122.392 -0.106274
7.52263 132.235 5.67717
-8.56428 102.319 12.4193
2.60666 122.991 7.898
7.54461 132.334 5.67268
5.81614 127.823 8.18968
3.71513 124.098 8.9102
14.1687 146.325 0.772368
13.7664 142.385 5.39779
5.04978 131.333 2.09465
5.03213 131.326 2.09966
-16.204 98.249 2.32168
11.7445 145.095 -2.37458
4.94276 131.218 2.15206
-12.3983 99.0958 9.22713
-14.9104 105.744 -5.0264
0.572512 119.177 9.39245
-6.01486 106.967 12.1532
8.28042 136.006 2.8588
-16.3008 100.72 -0.664873
-1.25631 123.588 0.0310622
0.585295 119.58 9.33931
-15.6175 104.562 -4.23812
6.72177 131.578 6.24542
10.2074 145.05 -4.63157
1.47458 121.562 8.83435
-13.9369 98.9326 7.12106
-14.8291 106.714 -5.26909
-16.325 101.228 -0.965697
12.1932 141.195 4.86562
11.8357 144.658 -0.549397
1.95904 123.052 7.97682
-15.8039 104.352 -3.99784
3.66384 125.039 8.93689
-4.27307 121.674 -3.18255
-16.1469 103.603 -3.61393
-9.31416 116.517 -6.74481
4.61569 131.604 2.10661
12.8052 145.99 -0.167637
11.4993 144.456 -0.81143
-16.1871 101.533 -0.82843
-0.212737 118.459 9.88508
-6.06165 119.927 -4.33295
-4.25937 111.996 10.2614
7.80784 135.628 3.66106
9.6672 144.86 -4.83395
12.7921 146.837 -0.830053
5.55952 135.699 -0.937119
10.5083 141.225 2.04875
7.04482 132.87 6.11933
-7.55753 118.865 -5.55062
7.6293 135.339 4.17161
0.160706 119.793 9.54355
-3.77455 113.573 9.71105
-16.1633 102.845 -1.7589
10.0642 141.436 1.08958
14.8757 146.334 4.58445
3.21822 125.34 8.52764
-14.4584 109.022 -6.48854
-15.791 99.6384 3.44038
-6.05162 120.496 -4.13472
8.20596 138.524 1.51269
14.1387 148.294 0.775753
13.1002 142.744 6.12747
4.02848 126.673 8.89788
8.5357 139.474 1.24854
15.2693 150.095 1.02411
-13.6354 111.234 -7.03628
-13.5502 111.414 -7.05895
9.1766 141.09 0.728511
-14.4387 109.879 -6.5964
15.3146 149.486 2.29019
-15.3944 100.51 4.14876
-15.2951 107.656 -5.26463
-4.11932 114.044 9.72244
-14.4904 100.466 6.34245
-3.16709 123.825 -1.44896
10.9606 141.85 3.82515
-2.24269 116.509 10.4414
8.37432 144.516 -5.04503
-12.9464 101.334 8.67853
-13.1862 101.193 8.39974
-3.05563 124.044 -1.22481
10.4486 147.035 -3.96261
-1.62783 125.244 0.201658
-4.27718 123.578 -3.10702
-4.75745 123.171 -3.5458
-12.9213 113.216 -7.19781
-2.99716 115.899 10.0945
9.19146 141.773 0.669138
12.649 148.391 -0.942519
-14.65 101.172 5.69202
2.69821 130.59 2.30178
14.9589 149.624 2.30491
7.91365 143.898 -4.73773
4.47927 133.947 1.55392
-11.3374 115.482 -6.63036
5.50286 131.161 7.57656
-10.5422 103.572 11.2376
-10.6295 103.737 11.1175
-5.33269 112.11 10.9424
-2.6796 124.585 -0.360999
0.531952 122.627 9.04952
7.56327 137.367 3.92
7.66849 139.09 1.88249
-10.7836 116.833 -6.62004
9.83294 143.057 1.35619
-8.26103 106.621 12.714
-5.06007 113.252 10.4745
9.19917 142.489 0.932708
-10.1954 104.46 11.6923
-9.81366 118.55 -6.52983
10.6905 147.268 -2.34234
-1.66594 118.621 10.5265
-8.6173 106.617 12.5493
-12.6874 103.181 8.7328
9.91393 148.029 -4.49797
9.12146 147.106 -4.79755
3.00359 132.492 2.25104
-15.7601 108.803 -5.05416
-15.3053 104.555 1.71287
-3.98426 115.891 10.1611
-15.221 104.704 1.78249
6.51747 136.153 4.86419
-7.1818 109.485 12.1997
1.38757 130.72 1.46528
-15.1656 105.988 0.192525
6.6684 142.899 -3.88656
5.53391 140.174 -2.53733
7.36522 139.528 2.19195
-6.58272 111.224 11.3895
-14.7541 105.803 1.56771
-15.2392 106.095 0.210443
-5.62075 113.41 10.6105
-15.2715 106.242 0.295289
12.2126 145.138 5.4174
2.91153 128.57 8.43938
0.73075 125.834 7.69763
10.6594 149.022 -2.79873
-11.7247 105.097 9.75498
-14.0644 107.285 1.9737
-12.7931 115.613 -6.63315
11.782 144.856 5.39698
-5.5521 114.445 10.1786
-13.3454 114.934 -6.8559
-14.2852 106.776 2.23112
13.3726 149.305 2.85463
-13.9198 103.88 7.05882
12.2292 146.538 4.24657
-7.06037 111.42 11.3494
11.9059 149.473 -0.324169
-0.223066 129.844 0.811604
9.03769 148.321 -4.70425
11.4765 149.608 -1.31853
-4.4041 125.534 -1.91489
-4.78808 116.012 10.3037
4.18515 131.606 8.16073
-4.75062 125.469 -2.26903
-12.5142 105.152 8.93732
6.88899 139.418 3.29552
9.39198 149.154 -4.5243
6.81549 139.317 3.42104
10.6815 149.892 -2.7069
-14.7574 104.869 4.82461
7.15729 141.226 1.69144
-2.28572 127.825 0.0512472
-5.81806 114.923 10.1653
-9.52388 107.701 12.1789
-15.705 111.071 -5.27483
-14.4309 106.252 3.94332
-7.91781 110.569 11.8106
10.6623 145.183 3.99295
-1.92628 128.478 0.194124
-1.31862 129.233 0.481018
12.2298 150.572 0.0838737
-2.70787 120.056 10.0368
-16.6286 106.611 -0.922772
1.73027 132.961 1.97784
-14.5812 105.611 4.76281
1.48768 128.307 7.83104
1.80896 133.193 2.06997
4.93751 141.082 -1.96051
8.87941 145.132 0.895599
-9.38069 121.536 -5.47981
-12.8655 105.691 8.70514
6.39594 144.941 -3.96458
-11.9843 118.185 -6.33769
7.17872 142.028 1.64942
4.82013 134.194 7.34987
-0.714507 124.213 9.50096
-13.8293 105.322 7.56014
3.29199 131.125 8.61593
-13.5408 105.537 7.94109
-13.2501 107.846 5.4959
4.90368 141.587 -2.02968
7.48784 143.573 0.853788
11.9541 151.147 -0.0144581
-5.79469 126.208 -3.42932
5.47474 143.384 -2.94881
5.69604 144.163 -3.23777
-6.80523 125.933 -4.74664
-13.5643 106.749 7.04846
6.72902 141.92 2.08097
-10.2946 108.301 11.8613
-13.0932 107.703 6.80558
-12.8792 108.507 6.1699
-0.766406 125.149 9.31119
7.06626 147.443 -4.3278
2.69536 131.214 8.55516
-9.29234 109.765 12.5419
-6.38951 126.597 -4.07643
1.75725 130.477 7.80468
-13.7561 109.23 3.98759
-13.0117 108.082 7.11568
-6.22444 116.257 10.3075
-0.651701 126.065 8.74055
-8.44552 124.534 -5.55192
-16.4935 111.048 -4.13186
7.24537 148.061 -4.23445
-12.4383 107.505 9.46947
-6.0099 116.85 10.4397
-12.8104 110.197 5.16782
-7.99187 125.491 -5.40598
11.0434 151.263 -0.269299
-6.58628 116.19 10.2734
-5.70392 127.532 -3.09269
9.57889 147.835 1.56169
-12.8636 107.766 8.72425
2.92136 132.639 8.26781
4.42996 138.847 3.22392
-6.78658 127.041 -4.28305
-1.19069 127.414 7.03853
-16.6719 111.564 -3.86704
10.9214 149.445 2.87953
11.8893 152.431 0.949767
-3.44135 122.089 9.89023
4.27175 139.143 3.06679
9.14384 151.007 -2.72253
-0.706542 128.448 7.16051
-14.9489 116.442 -6.42309
-6.82974 116.631 10.3828
-7.65618 126.759 -5.05998
-8.57889 126.124 -6.00358
-0.23817 134.099 0.783979
-16.8628 109.174 -0.38734
-3.02607 130.949 -0.804791
4.02849 139.052 3.11472
4.27455 139.694 2.77591
9.65051 148.733 2.0237
-2.45698 123.954 10.1951
-12.1607 120.953 -6.12354
9.89841 151.434 -0.866931
5.50837 146.548 -3.32703
-12.4458 109.35 9.37421
5.43443 146.402 -3.24094
-1.14017 128.888 6.69231
-2.53896 124.101 10.2506
-8.0391 127.106 -5.35027
5.95885 147.796 -3.92006
3.83513 141.93 -0.388451
-3.27714 131.41 -1.0556
-6.04239 129.526 -4.2448
-13.8582 118.907 -6.26313
-11.5435 109.946 10.7571
-2.22194 132.704 -0.444751
4.77515 145.112 -2.47438
7.75487 150.736 -3.79873
-12.6239 111.459 6.63249
7.58296 150.531 -3.80091
4.89809 141.807 2.4307
3.39011 136.687 6.2059
-1.97171 127.436 7.54533
-13.6426 119.541 -6.20688
3.35147 137.557 5.19429
-7.25394 128.669 -5.01224
11.2531 152.749 1.27842
3.30458 137.311 5.55057
-16.3875 109.609 1.69929
-10.7922 110.87 11.7492
-12.1203 110.424 9.58607
-8.30936 114.779 11.7227
-9.94153 125.063 -5.60989
10.1924 152.347 -0.231094
-12.8573 112.352 5.57963
9.16042 149.521 1.50716
-16.5798 113.938 -4.36536
6.70851 146.11 1.02345
9.74832 150.001 2.17829
-2.14636 127.59 7.66742
-4.58061 122.087 10.0174
1.52014 133.856 6.94461
7.67105 148.039 0.720157
-3.22753 124.998 9.12388
3.10476 137.744 5.21309
1.58417 138.365 1.20608
-8.94763 113.852 12.2952
-7.65028 129.621 -6.21696
-11.2128 111.791 10.489
6.29491 145.852 1.14208
-14.4821 111.323 4.3067
-7.5678 117.133 10.9811
5.74414 144.964 1.28646
6.24762 149.461 -3.73735
2.97731 139.331 3.15166
10.6007 152.325 1.58521
-11.5701 123.687 -6.16671
9.06429 152.302 -1.47887
4.9151 146.945 -2.89116
-2.54383 133.715 -0.627935
-17.1474 112.486 -2.46473
-17.0192 113.233 -3.18392
-16.9034 113.82 -3.6809
-13.1495 112.957 5.44285
-8.03427 130 -6.85924
-16.6403 113.488 -2.50911
-14.4942 119.355 -5.87267
-6.77244 131.247 -5.61862
-8.11751 130.266 -7.0449
4.54587 146.775 -2.55163
-1.72348 135.207 -0.00212757
-16.1985 114.19 -1.92773
1.53902 139.591 0.950895
-14.7862 117.859 -3.90671
-2.66319 127.428 8.63333
-14.3263 120.114 -5.95883
-15.6659 116.941 -4.41526
1.48225 135.264 6.81946
-16.5194 115.864 -4.69984
-2.63327 127.792 8.34764
4.9942 144.382 1.95013
-2.56507 129.393 6.39102
-2.59685 129.126 6.81094
-7.29183 118.848 10.8677
-12.0654 124.279 -6.44642
2.47727 138.655 4.71345
-8.23637 130.837 -7.15862
-16.3434 113.826 -1.1365
7.27317 149.131 0.682089
-7.80223 131.375 -6.92452
-11.2573 125.334 -5.9774
-4.06769 133.743 -2.18959
-9.61777 128.899 -7.11839
-8.60589 116.288 12.1001
-14.6176 119.856 -5.34311
4.60926 147.81 -2.78743
-4.37406 124.22 10.3215
8.68264 151.357 1.22686
3.24154 144.429 -0.73357
-1.03833 136.955 0.412105
-0.774456 137.3 0.579273
1.59757 140.913 0.687985
-13.8167 113.408 5.60195
-8.3465 131.24 -7.05315
-6.12585 133.513 -5.40285
-12.2125 114.425 7.67666
-14.8139 119.109 -4.12048
-9.85348 128.991 -7.03377
-10.039 128.778 -7.12561
-12.4939 114.427 7.32152
1.91148 140.007 3.02021
8.59717 153.425 -1.07595
5.35652 150.315 -3.45178
2.44091 141.046 3.14893
4.90891 149.754 -3.42113
-1.79076 132.816 5.47497
-15.2889 117.58 -2.18769
-12.2549 124.823 -5.52209
4.68652 149.378 -3.15964
-5.32368 135.266 -5.04746
-16.5127 115.5 -1.77076
1.71004 139.583 3.90501
-16.6105 113.968 0.113207
-9.89842 129.52 -6.73314
-11.0225 114.371 11.4541
-3.0152 131.265 5.45211
4.16817 145.148 1.7511
-0.497668 138.846 0.568026
-12.3622 124.887 -5.4162
3.50378 146.775 -1.6971
-17.3228 112.685 0.876055
8.25931 152.383 0.8678
-5.37259 135.628 -5.08181
-13.082 114.574 7.27294
-2.41047 137.318 -1.05401
-3.52219 129.178 7.67683
-4.18392 128.605 7.08039
-7.76629 133.349 -6.78994
0.421489 136.588 6.0503
3.58407 147.339 -1.85636
-15.9646 117.135 -2.00597
-16.023 117.108 -2.08536
-1.69021 134.319 4.75694
-6.00019 135.349 -5.69299
-5.40514 125.181 9.33705
4.27841 149.147 -2.7703
-1.37228 134.981 4.65284
-2.40093 132.901 5.33384
-15.0281 118.852 -2.10417
-13.3299 123.974 -5.33855
-14.752 120.019 -2.95524
-9.3994 131.029 -6.44585
-10.3757 116.12 11.8096
1.0486 137.082 7.43957
-4.97016 128.112 6.94837
7.30937 153.524 -1.58958
-14.53 122.292 -5.17284
-14.646 120.979 -3.48367
8.57042 153.854 0.86793
-11.2212 116.207 10.2866
-6.38097 135.941 -6.15636
-8.16296 133.216 -6.15955
-14.3576 122.519 -4.67028
-14.6118 114.341 5.9451
-1.55229 135.724 4.42824
-13.6834 123.727 -4.80659
6.74246 153.349 -2.00233
0.103329 137.222 5.96581
-9.08854 118.763 11.7226
-4.07533 130.105 6.89354
-14.1572 122.298 -3.70891
-3.65463 132.168 5.05438
4.68537 151.256 -3.1469
-11.0041 116.057 11.5694
4.03328 150.055 -2.80443
-0.00918194 137.382 5.92876
-11.72 127.402 -5.11538
6.71782 153.603 -1.78793
-8.22861 120.467 11.8588
-7.44784 122.202 11.2763
-13.585 115.353 7.78454
-15.4154 119.207 -1.20545
-5.34928 137.607 -4.93198
0.711702 139.341 5.49062
-11.4603 128.206 -4.83813
-10.8729 116.96 11.683
-12.9425 125.989 -4.83145
8.28175 154.506 1.19184
-1.37504 137.27 4.32235
-14.9179 120.468 -1.1161
-15.8185 119.637 -1.83111
-1.41654 137.489 4.33638
-15.7545 119.727 -1.72146
-16.3913 116.252 1.67739
6.56367 154.164 -1.28993
-5.09205 131.316 5.23468
-13.4957 116.038 8.29687
-0.406121 142.463 0.0480837
0.215983 138.657 6.57548
-4.79105 132.196 4.82541
-8.65727 121.291 11.6487
-16.637 116.15 1.96663
-1.63004 137.752 4.30701
-7.40014 124.4 10.4117
5.40046 153.483 -2.08235
-4.8548 132.607 4.67591
-16.5174 119.103 -1.43679
-11.3282 117.977 11.0066
-7.23802 126.166 8.57382
-8.65461 121.776 11.5546
7.9552 155.083 1.54852
-7.86371 123.799 10.7283
-3.85136 139.94 -2.70258
-15.6193 121.803 -2.86197
-15.141 120.182 0.45262
-7.6504 125.056 9.60174
-14.149 116.772 7.17271
-5.49321 131.799 5.0152
-4.65311 139.637 -3.82878
-16.5839 119.784 -2.00265
-9.17756 121.3 11.6413
-5.43167 139.42 -4.91997
-0.2061 141.191 3.66949
0.376137 144.977 -0.12097
-15.7 118.945 1.36071
-5.15797 132.919 4.67905
2.42682 149.413 -1.67582
-12.8952 127.72 -4.47923
-8.52422 123.748 10.1124
-15.4793 119.402 1.40523
-14.0036 116.902 7.94542
-16.0494 120.133 -0.727156
-15.4353 122.26 -2.24376
1.89299 148.545 -1.33852
-15.0625 122.638 -1.76902
-9.10946 124.721 7.987
-3.24444 141.233 -2.00277
-0.293132 142.017 3.14708
-14.83 116.995 6.49979
-16.3201 116.669 3.81357
-15.2097 120.957 0.373167
-7.63725 126.656 8.57209
-13.2153 127.152 -3.78438
-0.487083 140.834 4.50387
-9.54711 124.856 7.11894
-13.4908 126.717 -3.62738
6.41506 155.12 -0.213554
-15.5604 119.962 1.28497
-13.3603 127.015 -3.61994
-1.378 140.034 3.94692
-15.946 116.28 5.52963
4.8663 154.069 -1.8981
-15.0018 122.564 -0.959439
-15.5253 120.375 0.906676
-13.076 117.736 9.65685
-16.5991 119.75 -0.398552
-8.44619 125.291 9.2523
-4.52604 134.743 4.74622
-0.468065 141.943 3.59681
-15.4574 121.624 -0.375481
-0.476256 142.114 3.46682
-10.1685 123.842 7.85356
-15.0235 120.771 1.84761
-0.359414 145.067 -0.243523
1.4521 148.618 -1.15029
-8.06741 127.953 6.85899
-16.1435 122.124 -2.18544
1.85937 149.566 -1.52233
-16.4144 117.618 3.35775
-15.6612 119.304 2.68813
-15.0506 123.595 -1.6499
-1.24987 144.107 -0.42796
-1.32347 140.447 4.3752
-16.93 119.02 0.677321
-15.6 121.366 0.297737
-16.0215 119.857 1.46832
2.48542 151.298 -2.18885
-4.69127 135.055 4.76932
-14.9749 121.332 1.75694
-15.7946 123.117 -2.36073
-16.753 118.81 1.4762
-14.9903 121.183 2.00705
-14.3485 125.875 -2.93582
-12.8068 129.285 -4.2232
-15.0862 120.603 2.78445
-9.89358 125.728 6.76908
-8.8479 127.098 7.11854
3.32809 153.207 -2.61018
-2.46028 139.282 4.09715
4.38587 154.353 -1.93142
-3.43229 137.934 3.90878
-15.8063 122.086 -0.610767
-7.25182 139.126 -5.62367
-18.7779 117.33 -0.238479
-3.25271 138.306 4.01628
-13.9805 126.728 -2.77776
-15.9035 121.49 0.410685
-16.7008 118.967 2.22176
-10.5916 122.894 9.75618
-15.6591 121.81 0.840839
1.69228 150.79 -1.93674
-3.39544 143.028 -2.09421
-1.25257 141.029 5.14541
1.95894 151.417 -2.15009
-3.49225 143.034 -2.21985
-11.3681 121.385 10.5706
3.66875 154.046 -2.06277
-8.08258 129.512 6.54224
-9.49361 127.083 6.95294
-15.4892 118.084 6.56085
-15.2314 125.089 -2.34912
-14.8544 125.091 -1.52603
-16.3376 122.875 -1.63144
-9.87817 135.338 -4.88988
-15.3515 122.402 1.13455
-15.0674 118.65 6.86634
-16.1579 121.339 0.934941
-16.106 123.891 -2.38622
-11.0702 125.285 6.47387
-12.8395 120.663 9.0463
-14.2018 126.171 -1.27046
-13.8146 120.085 7.80935
-16.3405 121.998 -0.0733135
-15.5261 123.143 0.101603
-14.8815 119.204 6.82635
-17.8618 120.63 -1.3631
-7.46061 139.847 -5.49492
-15.5984 123.084 0.201819
-15.0437 125.232 -1.48674
-16.1609 118.127 5.82674
-16.5813 118.633 4.28628
-1.17154 142.387 4.73857
-7.75239 130.589 7.02629
-6.58734 141.323 -5.01808
-2.29063 145.058 -1.02483
-17.0344 118.719 3.67385
-15.5038 124.916 -1.45228
-16.1803 119.149 4.95484
-16.5666 118.211 5.42671
-4.01998 139.05 3.60523
-15.9401 124.7 -1.95299
-15.5281 119.497 5.96965
-1.91594 142.395 3.55762
-6.66664 134.077 4.88093
-15.8291 118.832 6.42569
3.59652 154.834 -1.50337
-6.11098 142.181 -4.71699
-5.64703 136.684 3.7163
3.66901 154.955 -1.42685
-17.0117 119.563 3.06965
-8.8854 138.228 -5.11271
0.775624 150.787 -1.80178
-10.5602 135.163 -4.43669
-9.32789 137.461 -4.95872
-2.89805 140.842 3.99326
-14.8137 126.845 -2.06729
-14.8556 126.777 -2.0582
-9.02085 138.073 -5.0728
-4.18001 139.275 3.52349
-18.8617 118.964 0.269695
-14.6554 126.237 -0.735547
-15.6695 125.189 -1.43798
-15.0546 119.734 7.26581
-15.0967 120.435 6.30604
-7.45603 132.524 6.04572
-5.59171 137.452 3.4181
-16.2806 119.556 5.30088
-16.9078 120.235 3.09525
-7.72037 132.236 6.28207
-17.5505 122.636 -1.36942
-3.78165 144.865 -2.49035
-7.96384 140.439 -5.2173
-15.5069 125.762 -1.09963
-18.8436 119.574 0.296519
-18.2438 121.873 -1.51714
-10.9982 127.512 6.10087
-17.1196 119.986 3.50405
-4.69666 144.407 -3.4196
-10.3798 128.096 6.73445
-17.9119 117.414 5.43087
-15.4281 126.183 -1.04265
-17.0853 120.032 3.81262
-12.2065 125.658 6.51108
-18.2544 122.241 -1.50055
-15.3489 120.647 6.78669
-12.2979 124.378 8.18791
-12.3323 124.6 7.82929
-15.276 126.699 -1.17909
-17.6923 118.723 4.62391
-5.81212 143.854 -4.43262
-17.9678 117.253 6.05754
-16.827 120.558 4.00465
-16.7951 121.209 3.30659
-8.63754 140.001 -4.97482
-17.3901 123.819 -1.41566
-10.9241 127.814 7.05862
-14.2893 129.307 -2.00042
-1.61334 148.087 -0.766556
-14.7646 127.584 -0.621464
-15.1031 120.637 8.1608
-14.5802 129.182 -2.24222
-2.44432 144.109 3.10534
-17.3259 121.093 3.09628
-15.9494 126.947 -1.81959
-15.9633 127.289 -2.30087
-15.8338 120.139 7.74174
-16.0665 127.308 -2.25338
-16.3861 120.808 5.89502
-11.609 134.811 -3.01283
-16.0546 120.323 7.28213
-16.2512 120.977 6.1726
-2.64884 144.426 3.0324
-21.3302 116.963 1.12439
-15.5795 121.833 6.66397
-17.332 120.335 5.04071
-11.1748 136.565 -3.96853
-16.438 120.995 6.06282
-15.6441 122.033 6.36019
-16.4158 120.382 6.99244
-9.22997 131.471 7.20061
-0.0274164 152.701 -2.16091
-9.40361 131.042 7.51829
-15.0877 121.393 8.69018
-13.3983 131.632 -1.54375
-15.0904 128.329 -0.611201
-8.0206 134.668 5.73683
-2.27047 148.793 -1.25018
-2.40231 148.691 -1.33117
-4.2182 142.445 3.33437
-16.9132 121.047 5.78998
-6.01222 139.782 3.32585
-0.234669 152.874 -2.10401
-16.9714 126.897 -2.05735
-17.4727 120.518 5.79462
-19.0788 122.959 -0.766688
-9.17759 140.877 -4.20767
-15.9854 120.717 8.92832
-3.96565 147.767 -2.36693
-13.2598 125.734 7.97517
-9.393 140.8 -4.07847
-15.307 121.803 9.22874
-11.9349 128.451 7.31712
-18.2925 119.697 5.87283
-3.7209 148.23 -2.06185
-16.9534 122.227 5.40459
-17.3245 121.329 5.89287
-14.9797 130.088 -0.960451
-6.222 140.692 3.24455
-13.0399 126.762 7.80467
-4.33758 143.828 2.99499
-11.7415 129.159 7.35622
-0.0611207 154.19 -1.998
-9.89625 140.398 -3.87056
-11.5029 129.595 7.41334
-14.0181 124.91 8.52167
-10.8334 138.934 -3.73163
-18.7401 125.193 -1.68509
-14.4013 131.173 -0.645103
-7.67073 137.373 5.1242
-1.94549 150.926 -1.1588
-17.7505 120.811 6.48745
-14.7311 124.685 7.65245
-9.50455 141.595 -4.17901
-16.4603 121.69 8.17037
-12.7665 128.11 7.31631
-12.7 128.349 7.37264
-21.4882 119.285 1.29309
-4.91582 148.317 -3.20657
-8.74231 134.955 6.94672
-14.553 131.512 -0.499467
-15.0748 124.159 8.48266
-8.82537 135.956 5.71007
-0.694409 154.315 -2.03801
-17.7729 128.372 -2.75417
-15.5366 124.489 7.27778
-18.1221 127.796 -2.62184
-17.0133 123.168 6.24765
-9.58322 133.737 7.6079
-13.7258 134.323 -1.88452
-3.92965 149.664 -2.05138
-12.5644 129.453 7.20021
-19.4285 123.845 0.395391
-1.0366 154.181 -2.00875
-13.0242 135.036 -1.16714
-22.6148 116.564 3.7289
-8.59597 136.988 5.60043
-11.1837 139.565 -3.31477
-5.51419 143.996 2.63916
-5.97678 143.269 2.68639
-12.3641 130.013 7.25541
-18.9114 119.317 8.0106
-6.42055 147.589 -4.00265
-16.5553 123.479 7.36318
-18.5692 127.591 -2.43642
-15.0847 132.174 -1.23942
-19.7861 118.524 7.41385
-19.429 125.005 -0.501952
-8.44996 137.744 5.41097
-19.5906 124.749 -0.27645
-13.0483 135.492 -1.02402
-21.6673 116.08 7.23164
-16.5872 130.676 -1.62942
-9.42981 134.951 7.72511
-9.5615 143.558 -4.20648
-13.7678 134.488 -0.639016
-1.60024 154.354 -1.9791
-8.49786 138.477 5.26909
-7.80096 140.287 4.32621
-7.59288 146.946 -4.24667
-16.6994 123.424 8.54204
-20.2578 123.993 0.368684
-22.7601 119.312 1.50058
-17.7192 121.264 9.46032
-11.5471 140.316 -3.11917
-2.7781 152.761 -1.52864
-13.038 137.351 -2.01794
-19.6672 119.516 8.48035
-16.0953 132.624 -1.67303
-5.79395 145.672 2.37756
-8.35847 139.785 4.99895
-20.8475 123.404 0.952368
-10.2684 134.569 8.1047
-2.54017 153.796 -1.66492
-9.53482 136.646 6.89221
-7.23069 148.193 -3.89779
-7.59253 141.98 3.81563
-13.7948 135.532 -0.354148
-14.1883 128.009 9.01398
-19.037 128.476 -1.66031
-4.84511 151.046 -2.33073
-21.5738 122.34 1.45668
-24.2193 116.196 4.27398
-10.8146 134.083 8.25157
-9.65897 137.093 6.74238
-17.6554 122.67 9.54839
-12.5571 138.513 -1.12977
-20.8867 118.739 8.19751
-12.8041 139.092 -2.35944
-22.7182 120.82 1.58514
-19.8551 127.36 -1.24849
-24.4307 116.127 4.3583
-23.2259 119.002 3.08883
-13.4971 136.536 -0.177821
-24.5455 115.805 4.8427
-20.9786 125.482 -0.554752
-19.2083 128.501 -0.825181
-8.67404 140.518 5.05993
-19.7602 127.666 -0.682136
-7.39524 144.056 3.29651
-19.5528 128.063 -0.559707
-13.0828 137.713 -0.0333839
-16.5139 125.732 9.11783
-21.6787 123.65 1.14164
-23.6388 118.847 3.69066
-21.5435 118.646 8.41875
-21.6582 124.356 0.466156
-6.01866 147.273 2.31397
-17.5662 132.37 -1.7571
-7.56676 144.234 3.35522
-21.133 125.435 0.317108
-17.6948 132.32 -1.64989
-21.9703 123.512 1.41852
-9.26305 140.148 5.60253
-19.9801 120.951 9.14756
-15.2778 135.509 -0.654767
-15.1237 128.941 8.73334
-12.7372 140.574 -1.94588
-14.7428 130.174 7.99045
-14.7676 130.32 7.89075
-12.8711 140.728 -2.20982
-17.7263 132.954 -1.70879
-23.4392 120.276 4.18123
-23.5477 117.824 7.33844
-15.7418 128.936 8.76183
-19.0537 131.004 -0.997725
-10.7606 137.274 8.0924
-24.5381 117.444 6.15059
-16.6908 128.058 8.43663
-23.5638 118.318 7.20825
-18.389 125.625 8.47859
-6.81607 148.013 2.51862
-24.0059 118.279 6.72239
-23.0649 119.01 7.80009
-22.2455 124.835 1.89572
-12.9137 141.628 -1.23956
-4.62789 154.616 -1.26187
-21.5077 125.888 2.22758
-16.1003 136.16 0.178289
-24.0835 119.031 6.68819
-12.7306 142.487 -0.926433
-12.4358 143.108 -1.10704
-18.8162 133.206 -0.861466
-13.5585 133.971 9.15919
-12.6128 142.921 -0.94702
-7.00006 152.159 -1.65383
-13.7883 139.805 0.913409
-21.525 122.224 8.56919
-12.5507 142.452 0.0552071
-15.7913 137.454 0.115155
-12.463 142.989 -0.334861
-9.50362 143.388 5.39575
-21.5752 122.468 8.51533
-8.68058 150.285 -2.03242
-19.7584 124.691 9.36529
-11.3407 138.553 8.28337
-23.2283 120.81 7.47296
-12.2709 143.324 0.0158636
-23.3547 123.194 4.06034
-14.1194 133.829 9.07269
-9.69975 143.225 5.7417
-16.1099 137.341 0.464647
-19.5449 132.54 -0.198336
-22.8676 124.601 3.65686
-20.1845 130.238 1.81957
-10.0374 142.673 6.30225
-10.2419 142.146 6.61679
-23.4487 123.019 4.85672
-24.0773 120.622 6.79438
-20.8664 128.771 2.61021
-18.6703 128.841 7.14644
-23.7315 122.166 5.56944
-24.0307 120.903 6.82505
-19.767 126.217 8.75922
-10.4344 142.193 6.98331
-22.7779 124.573 4.94342
-10.463 142.149 7.03118
-12.0976 138.517 8.53857
-21.2745 127.956 3.58802
-22.9058 122.554 7.729
-21.095 128.787 3.11685
-14.2139 140.934 1.20681
-21.0603 128.99 3.02209
-20.393 130.357 2.61323
-8.78351 147.617 3.70939
-20.0126 126.639 8.61296
-19.4546 128.439 7.35581
-12.2981 144.118 1.21418
-20.3792 130.488 2.71117
-16.0141 138.604 0.948882
-22.7312 123.166 7.77857
-20.3279 125.93 9.10153
-16.4523 137.852 1.09768
-17.5177 131.41 7.60542
-14.0024 141.584 1.24199
-12.2709 144.842 0.481785
-10.0919 149.824 -1.6812
-16.0249 133.405 8.21387
-18.776 130.085 7.04567
-8.58189 148.971 3.01902
-11.3709 141.233 7.71302
-22.5993 125.161 5.9398
-8.7484 148.76 3.16167
-22.3896 125.654 5.82622
-7.4804 152.5 0.925038
-17.2714 136.683 1.8663
-12.3808 139.276 8.661
-12.8769 138.484 8.80148
-21.5478 128.481 4.20607
-20.2549 127.505 8.26072
-12.6477 138.964 8.74055
-10.9523 142.499 7.7277
-17.2386 137.113 1.87686
-19.5643 133.562 1.96
-9.38488 147.786 4.08692
-16.1961 133.89 8.60323
-11.8455 147.225 -0.317063
-14.9152 141.317 1.40208
-21.8342 127.883 5.06764
-21.2499 129.6 4.05407
-10.0566 150.612 -0.886158
-18.3996 131.328 7.71492
-22.0923 125.499 8.09023
-7.87021 153.507 0.076204
-10.4697 150.079 -0.741221
-15.2442 141.03 1.49593
-11.1658 142.578 7.97655
-22.9561 125.142 6.92436
-22.2419 125.539 8.01152
-14.8336 141.795 1.56771
-13.5568 138.441 8.88389
-16.2974 139.569 1.62041
-22.4215 126.46 6.59147
-22.095 127.728 5.69067
-12.0688 141.267 8.44761
-20.2831 132.442 3.17273
-12.9014 139.782 8.79721
-8.25269 153.324 0.226031
-12.4864 146.331 0.825937
-10.7456 145.374 5.84487
-12.2356 147.167 0.636984
-9.42296 149.774 3.21266
-22.76 126.161 7.19822
-19.9037 133.868 2.85253
-12.739 145.943 1.56056
-15.9695 135.063 9.53843
-11.6876 148.442 0.422288
-20.2816 132.245 4.30996
-9.80528 151.413 0.502616
-11.2708 149.401 0.249035
-9.78515 149.863 2.98925
-22.7415 126.287 7.79445
-14.6616 137.995 9.02436
-11.5467 149.069 0.685056
-20.4385 130.447 7.29591
-12.7893 146.597 1.68666
-12.8693 146.334 1.94726
-16.2461 135.598 9.46883
-12.1502 143.531 7.65702
-15.046 138.029 9.06189
-18.9665 135.579 4.2663
-16.0502 136.842 9.16857
-13.4359 141.607 8.39216
-17.8954 138.734 3.09191
-18.1376 138.144 3.48142
-19.4777 132.721 8.21777
-18.2179 138.036 3.9301
-12.9786 143.36 7.7772
-21.7413 130.766 6.71695
-11.6339 147.783 4.97198
-22.2207 129.702 7.26764
-12.3374 148.096 3.2985
-13.4602 142.986 7.90275
-18.1386 134.967 9.04448
-20.9069 131.735 7.79002
-12.4105 146.51 5.71094
-13.079 144.585 7.00485
-19.2411 133.842 8.7665
-13.3654 144.086 7.402
-19.8289 135.683 5.38302
-20.8035 132.901 7.35382
-20.6757 132.674 8.04057
-19.7066 134.075 8.4526
-19.5998 136.628 5.28343
-20.2039 133.617 8.33614
-17.4998 140.709 4.58778
-20.6852 134.123 7.04005
-20.4569 134.174 7.64747
-18.5017 138.844 5.98973
-17.6466 140.613 5.50631
-16.815 142.073 5.39305
-19.0469 137.066 7.51873
-17.7654 139.277 7.31273
-18.5646 137.824 7.61967
-17.4172 139.615 7.6515
-18.9226 137.402 7.50923
-17.2025 141.31 5.99963
-17.1244 140.788 6.91073
