ply
format ascii 1.0
comment Created by Open3D
element vertex 1945
property double x
property double y
property double z
end_header
-11.7233 94.1684 8.27541
-1.95717 87.5297 -12.4802
-13.4153 133.385 -6.29605
-17.654 141.802 0.111414
-16.4552 120.01 7.67023
-13.7975 134.476 -5.75892
-19.613 135.223 8.1764
-0.271679 76.9913 -11.3538
-15.1426 133.374 -1.81452
-18.6088 129.377 8.60508
-14.0613 114.272 4.75756
-3.7734 100.163 -13.6941
-6.91991 111.182 -11.2044
-14.3004 105.577 9.62185
-4.73611 105.674 -13.8734
-11.4261 130.893 -9.51477
-8.3548 76.0988 9.32026
-10.2746 125.266 -9.44077
-12.9484 120.922 -0.798823
-4.41593 104.605 -13.9153
-17.2527 122.405 9.09271
-4.26491 104.029 -13.9191
-10.2954 86.6077 9.26266
-11.1913 129.359 -8.92741
-4.72746 106.652 -13.7931
-4.0703 103.581 -13.921
-15.8773 120.223 7.12161
-15.2578 136.034 -1.94663
-10.1631 85.7093 9.75609
-14.9085 138.014 -3.49476
-13.0838 117.793 1.71787
-17.9312 128.188 8.67857
-17.6942 126.804 8.77172
-15.3665 120.201 6.22059
-16.7857 141.415 -0.439057
-14.0259 105.442 10.1051
-10.9361 129.109 -8.74175
-10.0839 88.1623 8.79186
0.362893 76.611 -11.2049
-1.33079 88.2884 -12.5473
-8.17888 117.575 -9.68328
-1.51449 90.5262 -13.0405
-9.54662 125.229 -9.91025
-14.9876 137.2 -2.18549
-12.6103 136.083 -7.48206
-8.94285 81.2775 9.76546
-13.7801 115.686 5.17856
-12.0732 97.197 9.84758
-16.4671 121.529 8.98926
-16.4571 142.134 -0.867973
-3.61089 103.645 -13.9302
-14.5107 119.198 5.37724
-8.75307 80.3842 9.84633
-9.07961 81.8035 9.97051
-17.8977 129.313 8.92452
-19.0608 138.957 7.21516
0.440755 78.4945 -11.6739
-0.987335 87.1375 -12.2999
-18.0453 143.924 2.50275
-13.604 111.616 7.06686
-18.7707 135.041 8.58635
-14.8288 141.481 -4.15909
-12.1094 134.875 -7.65937
-1.99218 95.3121 -13.5537
-16.0251 141.208 -1.06042
-14.6094 137.295 -2.5848
-13.6415 115.64 5.40345
-14.1526 119.055 5.05537
-14.7372 141.411 -4.2044
-12.9482 112.576 5.2334
-2.22794 96.4699 -13.3464
-12.8383 117.852 2.47566
0.131115 81.2691 -11.8054
-14.0769 119.086 4.99132
-16.5416 123.028 9.18349
-9.49566 84.2167 10.4818
-16.6402 143.465 -0.322618
0.128228 81.5471 -11.838
-14.277 108.118 10.9104
-2.8999 101.768 -13.9223
-15.0864 140.018 -2.21116
-13.4369 120.791 2.95861
-9.50581 85.7479 10.086
-15.2244 139.53 -1.59196
-13.5019 112.213 7.42977
-16.1277 122.331 9.06812
-1.34014 92.9883 -13.1442
-12.7477 118.823 2.48978
-11.4171 96.5916 9.93225
-8.94689 82.7042 10.539
-15.5739 121.534 8.27681
-14.2707 109.047 11.0581
-13.5279 114.638 6.60023
-17.5645 130.614 8.88462
-9.3257 86.5512 9.77637
-8.00622 79.7086 9.8175
-18.6289 139.552 7.29422
-12.8786 118.847 3.26565
-9.12435 126.349 -9.51639
-16.9191 127.627 9.02335
-1.50455 95.688 -13.4889
0.4687 82.5217 -11.8731
-5.00089 111.299 -12.0875
-12.8216 102.522 11.3028
-0.294483 88.077 -12.5115
-8.55262 124.423 -9.63278
-12.9153 120.171 3.13645
-13.9379 121.29 5.15137
-1.80996 97.9077 -13.4088
-13.175 116.642 5.54749
-12.6211 119.594 2.83174
-13.876 116.325 7.50351
-14.0134 116.439 7.80843
-15.9358 143.727 -0.527065
-6.70552 76.4921 9.01315
-4.87115 111.35 -12.1349
-0.327824 89.2457 -12.7059
-4.70648 111.104 -12.3471
-14.0001 109.128 11.4179
-1.3528 96.3044 -13.3728
-13.0914 120.848 3.74126
0.757112 82.5041 -11.8612
-6.47854 116.076 -10.0981
-12.9529 121.17 3.36191
-13.9817 116.424 8.29476
-11.9849 100.088 11.2163
-8.39479 82.7987 10.735
-4.99062 112.254 -11.7013
-13.7667 108.526 11.627
-0.947105 95.4531 -13.5462
-9.7165 131.76 -9.29619
-9.89214 133.092 -9.41589
1.45505 79.2228 -11.4692
-18.0575 141.6 6.62883
-17.0212 131.533 8.9502
-16.975 145.075 2.38907
-8.53806 126.577 -9.40542
-2.08749 102.973 -13.9311
-13.4219 122.06 4.77989
-13.2441 121.436 4.71616
-13.1074 117.891 6.12932
-16.1361 144.812 0.683685
-2.76438 106.3 -13.5816
1.94655 77.6347 -11.4115
-16.7799 145.213 2.23554
1.68247 79.5158 -11.5327
-6.60437 78.4707 9.32296
-8.6624 127.514 -9.06149
-13.5513 122.928 5.14355
-8.74236 89.115 9.5359
-9.35753 92.8455 9.26654
-9.71483 133.593 -9.34835
-16.8237 145.217 2.63001
-17.6511 143.174 5.64739
-12.4254 103.515 11.8521
-13.8306 123.593 5.70217
-12.3538 103.271 11.8181
1.98606 78.6465 -11.5069
-12.756 113.928 7.91431
-17.6822 142.328 6.45241
-3.89756 111.499 -12.6209
-13.225 122.194 5.17803
-8.63135 89.5466 9.54613
-14.0887 143.85 -3.03134
-13.8552 122.474 6.79154
-16.8982 133.256 9.15847
-17.6596 141.844 6.94163
-11.9248 102.358 11.8275
-12.8053 113.445 8.74682
-14.5951 124.056 8.12753
-17.1675 144.427 4.72024
-13.6139 123.657 6.03012
-15.1368 124.788 9.23715
-12.8823 118.624 6.65497
-6.15514 78.4932 9.3599
-15.7918 127.708 9.53563
-9.00082 92.9248 9.51872
-9.11942 133.081 -9.32429
-11.9451 140.679 -5.97594
-12.4486 120.839 4.76331
-16.1079 129.642 9.5828
-12.4053 141.727 -5.11704
0.673411 90.8878 -12.7593
-4.22595 113.674 -11.5679
-2.45665 108.542 -13.4102
-13.9111 122.597 7.98119
-7.57581 126.166 -9.26682
-7.22357 82.6147 10.7873
-4.05789 113.559 -11.7446
2.3071 80.6712 -11.6264
-12.9809 113 10.43
-12.4724 119.838 5.9655
-17.2704 142.284 7.05698
-13.4365 122.845 7.0111
-12.9086 113.787 10.0642
-12.7635 108.216 12.3737
-8.50895 91.9737 9.70788
-9.15891 134.704 -9.05364
1.47747 86.409 -11.9933
-13.5801 123.852 7.0595
-11.4695 140.844 -6.24325
-12.5938 107.746 12.3636
-13.4817 121.583 7.93893
-0.41587 99.6209 -13.6132
-12.0034 141.552 -5.21851
-8.23513 129.382 -8.62159
-8.89643 134.004 -9.18636
-16.9712 143.555 6.16709
3.59689 74.8958 -11.386
-13.5375 123.192 7.56516
-13.5053 125.654 6.36488
-12.4697 143.922 -4.91131
-14.8149 145.338 0.171523
-11.9544 105.518 12.2512
-9.79649 96.8635 11.1153
-16.9504 139.141 8.46969
-8.102 90.9585 9.85812
-12.3833 114.877 8.94138
-12.5238 115.101 9.18707
-6.518 81.8499 10.4136
-14.2365 125.618 8.41768
-10.7477 140.026 -6.9485
-13.1865 117.037 10.0569
-13.4251 124.066 7.37561
2.7068 81.2659 -11.7035
-6.89813 124.45 -8.73553
-0.608438 102.699 -13.7446
-16.1266 133.814 9.45497
-10.4508 139.393 -7.08541
-13.6382 144.957 -1.91158
-13.1472 123.822 7.06059
3.55941 77.0368 -11.5269
-4.23509 115.586 -10.8403
-12.9734 124.617 6.32667
-1.82312 108.454 -13.2795
-6.37903 82.055 10.5469
-13.6007 120.407 9.95657
3.66945 76.6866 -11.4863
1.41913 90.826 -12.6694
-12.9104 114.017 11.422
-7.81646 130.776 -9.07685
-4.77367 76.115 9.62915
-10.2682 99.4011 12.0688
-15.3316 131.053 9.41105
-10.7292 141.144 -6.61596
-16.4707 138.295 8.8389
0.519092 97.6353 -13.3958
-12.7915 112.446 12.1966
-13.0736 126.575 6.14851
-13.4875 122.718 9.07683
-4.31541 76.7176 8.63461
3.4515 79.3299 -11.6359
-8.24262 133.405 -8.79166
-5.15118 79.1054 9.63126
-7.10338 85.4775 11.4298
2.15684 87.8587 -12.2962
-16.5122 140.759 8.30374
-6.09528 122.495 -8.51002
-12.5468 123.547 6.83247
-11.4438 106.245 12.4227
-7.34868 87.6906 11.2515
1.41216 93.8154 -13.123
0.444455 99.4012 -13.4131
-16.3952 143.189 7.07906
-15.7356 134.246 9.75403
-14.587 129.196 9.361
-14.7229 129.383 9.80087
-15.3904 146.346 3.36352
-7.8632 133.046 -8.56572
-10.366 102.05 12.4188
-13.3537 122.236 10.1106
-10.6563 103.274 12.6172
4.22398 77.3607 -11.4231
-15.503 134.26 9.84395
-7.74853 93.0039 10.607
-4.29329 75.7796 10.4522
-11.6681 108.444 12.9238
-10.2846 102.37 12.4568
-0.0165271 104.506 -13.7002
-7.48241 91.8381 10.7341
0.425769 102.25 -13.541
-7.83666 134.571 -8.63818
-12.3296 124.78 7.07143
1.6945 95.307 -13.1693
-4.56975 119.79 -9.49292
-4.51839 119.719 -9.50309
-11.3835 145.434 -4.88607
-15.3529 134.867 9.91771
-1.40069 110.935 -12.7285
-10.0564 102.631 12.5387
-14.3613 130.843 9.65858
3.98192 81.2905 -11.6064
1.12162 99.3496 -13.2209
-4.68544 80.3492 10.1376
-6.64832 130.121 -8.82568
1.22407 99.2285 -13.1988
-9.3795 100.471 12.228
-6.93203 131.222 -8.35895
-5.77936 84.3035 11.3444
-4.78135 81.2514 10.368
1.57942 97.844 -13.1314
-11.3396 146.601 -4.70264
-14.9971 134.848 9.90897
0.384671 105.286 -13.6857
-12.808 121.632 10.871
-11.3101 146.626 -4.7179
-3.93234 119.551 -9.84839
1.63003 97.9233 -13.1182
-6.93031 131.645 -8.19641
-6.09057 128.454 -8.67747
-15.5411 142.248 7.97442
-12.7052 121.501 10.9895
-12.596 122.963 10.0286
-7.72356 95.4301 11.3672
-3.83201 119.761 -9.80774
-13.7804 131.202 9.22372
-3.57939 78.1794 9.56845
-4.63437 122.18 -8.78489
-10.6759 107.565 13.0377
-11.7258 124.82 7.46391
-6.31494 88.0178 11.8346
1.70504 98.9788 -13.0866
4.92537 78.5738 -11.1736
3.48574 87.9714 -12.0835
-2.56509 117.701 -11.4202
1.47235 100.532 -13.1111
-5.23131 124.307 -7.99987
-8.77549 99.7484 12.4657
-3.287 119.344 -10.3345
2.88854 92.3027 -12.5364
-1.41294 114.41 -12.5262
-4.52108 82.0886 10.6129
-0.297018 109.365 -12.7751
-10.7359 147.065 -5.05969
-7.48189 95.5359 11.6264
3.9505 85.4023 -11.5069
-14.987 139.796 8.94188
-14.5004 136.263 9.43924
-11.2298 113.897 12.3151
-3.79476 121.12 -9.32997
3.2122 91.8939 -12.5191
-14.1519 134.562 9.73082
-7.11893 135.935 -8.15725
-11.7228 115.862 12.8065
-7.44187 137.504 -7.83298
1.16938 105.133 -13.4458
3.33778 92.0724 -12.5108
-11.0119 113.653 12.447
-12.8391 148.14 0.513957
3.92598 88.5332 -12.0527
-12.0833 120.942 11.7767
0.21169 109.267 -12.8005
-0.524646 112.488 -12.4745
-12.4153 148.531 -0.521188
4.701 83.2737 -11.2973
-11.1112 126.579 6.82518
5.51703 78.6205 -11.0302
-6.83467 93.9917 11.9359
-2.24042 76.9233 8.84423
-8.82294 143.331 -6.73492
-10.863 148.3 -4.05798
-9.33276 104.829 13.0258
-13.252 132.455 9.43448
-2.9399 120.359 -10.0783
-11.7431 123.074 10.2918
-9.25941 104.685 13.0119
-4.43198 83.6723 11.276
-12.289 148.828 -0.526232
-6.72228 94.0258 12.0833
-7.19706 96.7038 12.0368
5.03684 82.8011 -11.3313
-12.7729 148.501 0.959099
-6.47921 133.478 -7.29068
5.67691 79.0615 -11.0393
5.31857 81.5648 -11.3173
-11.6969 119.214 12.4628
-8.6838 103.418 12.8454
-13.4889 135.66 9.31059
-13.7193 137.185 9.20719
-1.77845 76.8494 8.81964
-14.3687 143.051 8.04989
-11.61 119.574 12.5439
-4.98275 128.126 -7.79411
-1.22263 117.267 -11.8215
-6.58861 94.4424 12.3194
2.0339 103.501 -13.13
-12.5012 149.087 0.773129
-4.81703 86.1013 12.0667
-5.38411 89.0352 12.2542
-14.1226 144.669 7.094
-9.73015 147.943 -5.18476
-3.98172 83.9948 11.3337
-3.21318 123.589 -9.48935
-13.7427 146.473 5.42559
-1.96606 120.061 -10.7987
-1.41431 118.463 -11.3833
2.77223 100.369 -12.8487
-3.08216 123.688 -9.55844
3.81877 95.6109 -12.955
6.25874 78.7816 -10.8702
-2.98796 123.678 -9.639
-14.0159 142.641 8.39254
-12.8718 149.082 2.50415
-10.1033 148.881 -4.18825
-11.9099 149.949 -0.199206
-8.00228 143.614 -6.6469
-11.3602 120.078 12.8935
-10.5116 149.615 -3.29877
-3.1854 124.391 -9.20611
-6.78929 97.6294 12.5184
2.03774 106.461 -13.359
-4.20721 126.965 -7.83079
-10.9394 150.294 -2.32034
-6.76468 139.16 -7.19451
-3.31285 125.063 -8.895
-13.5884 145.316 6.67302
5.61268 84.1296 -11.0986
-8.17255 145.171 -6.398
-11.9916 150.205 0.64747
5.53014 84.878 -11.0613
5.76393 84.0645 -11.0539
2.521 104.912 -13.0225
-0.513715 117.765 -11.6769
-3.23708 125.741 -8.80062
-12.9576 148.191 4.35575
5.15179 89.1336 -11.8216
-2.86703 82.1922 11.1776
3.6804 98.5836 -12.7219
-5.29766 91.3721 12.8643
-9.22979 109.226 13.9821
-3.91613 85.6084 12.2559
-2.3437 80.768 10.7502
-7.46234 102.936 12.7353
-10.3661 127.372 8.18189
3.25756 101.427 -12.7511
-0.348587 117.735 -11.6565
3.28794 101.444 -12.7454
-3.17091 83.817 11.5819
-2.36302 123.797 -9.50238
-7.3623 102.961 12.7392
-2.16375 80.6731 10.7137
-2.57697 81.8618 11.1839
-4.90419 90.2448 12.9133
-8.68681 147.771 -5.30709
-3.71346 127.684 -7.88704
-11.4344 150.656 0.0913633
6.90011 79.1717 -10.6809
2.07826 108.89 -13.0329
0.321165 115.405 -11.7452
2.71185 106.352 -13.2495
5.41858 89.8759 -11.9686
3.61412 100.742 -12.7097
-9.90603 150.159 -3.13039
0.0662376 116.908 -11.6738
-11.7502 149.977 1.52195
-4.94799 132.19 -6.62823
3.65982 100.778 -12.7009
1.74224 110.69 -12.6375
-5.07235 132.986 -6.49117
6.01239 85.7814 -11.0863
-1.02624 121.273 -10.7635
-4.80346 132.346 -6.60007
-4.1126 129.616 -6.98756
-3.49905 128.144 -7.78126
7.47461 77.1555 -10.2964
-1.36961 79.6468 10.2488
-2.4237 125.698 -9.14302
-1.01289 78.7933 9.83823
6.08876 86.1867 -11.1243
-5.95612 97.2898 13.1669
-4.38973 89.288 13.1773
4.53927 97.6353 -12.6627
-1.15155 79.4842 10.1699
-12.2745 140.879 8.19934
-9.97783 119.096 13.0077
-12.506 144.972 6.85021
3.8758 101.758 -12.6438
-0.682467 121.088 -10.6777
-4.24628 131.962 -6.94549
-10.4814 124.323 12.0493
-10.2518 151.238 -1.28606
2.67658 109.235 -12.913
-6.44609 102.695 12.648
-6.73783 103.739 12.8832
-11.4401 135.002 9.50466
-8.74186 111.2 14.3112
7.18574 82.2707 -10.9123
-9.29212 115.397 13.712
-9.67823 118.949 13.0399
-8.2558 149.01 -4.75269
6.63827 85.6887 -11.0036
5.66162 94.02 -12.5836
-4.44014 132.973 -6.42097
-2.21488 126.445 -8.75712
2.04921 111.998 -12.2636
-6.02789 99.889 13.3737
-11.8054 140.723 8.04319
-11.4085 149.398 2.97338
-2.75902 85.2068 12.4662
-10.6487 151.432 0.175449
-0.0328458 120.017 -10.8293
-3.26711 129.226 -7.29722
-11.9715 144.53 6.81569
-4.89813 135.821 -6.37018
-8.16679 109.521 14.3177
5.66625 95.3562 -12.7651
-9.72174 151.209 -1.68122
-9.06928 150.659 -2.90882
0.37118 119.117 -10.9715
-3.46579 131.524 -7.38368
-8.8885 150.571 -3.13967
-5.60145 140.229 -6.2462
-5.03576 96.5106 13.3369
-0.269562 79.1003 10.0451
-4.51526 134.623 -6.0605
-9.35753 127.644 9.16708
-11.4822 141.929 7.56624
-10.8794 137.506 8.22086
2.51095 111.449 -12.0682
-5.28117 97.9595 13.5915
-9.86898 125.383 11.8752
-2.14062 84.8533 12.3245
-7.48694 108.561 14.1683
6.02182 95.4651 -12.6945
-0.487448 122.705 -9.71463
-4.49995 95.3219 13.3255
8.815 75.6182 -9.90836
-1.45846 82.9243 11.82
-11.0202 147.4 4.52983
2.10563 113.402 -11.3045
4.77646 103.907 -13.1982
-10.9572 143.316 6.57773
-3.87717 133.684 -6.12381
-1.92375 128.311 -8.33476
-10.9455 143.912 6.37362
-7.81233 110.796 14.6018
-6.31488 145.793 -5.60534
-4.29355 136.184 -5.9361
7.60721 85.3328 -10.8031
-5.04005 140.043 -5.92655
-4.57322 96.8709 13.6016
-10.0978 139.242 6.95621
-8.13498 150.79 -3.38108
5.24575 101.545 -12.652
-7.51618 149.739 -4.38985
1.09906 77.0211 9.27078
-10.5667 143.296 6.2201
8.54055 79.1519 -9.96368
-9.34278 131.217 9.02431
7.70457 85.0891 -10.7373
-1.30713 83.7967 12.0762
-1.8968 129.31 -8.2422
-5.17728 101.718 13.0141
-10.0678 139.713 6.89566
-7.15485 149.092 -4.70952
-7.18644 149.181 -4.66436
5.25847 102.408 -12.7203
-7.05036 109.174 14.3708
-3.94441 134.974 -5.57929
-9.74686 135.7 8.51407
-1.38473 85.6623 12.1053
-4.29669 97.2508 13.8058
-9.12187 133.113 8.57985
-6.19712 147.155 -5.28027
4.15246 108.992 -12.3275
-7.07558 149.88 -4.28641
-8.97526 123.069 13.2207
-9.83052 143.09 5.74578
9.68293 74.7038 -9.36146
-3.46948 134.638 -5.70181
-6.09941 107.362 13.9454
8.02306 86.9525 -10.932
-9.35125 138.757 6.92559
-9.38493 151.778 0.800808
-2.72358 90.9293 13.6181
-8.37493 120.121 13.5725
-9.15963 135.296 8.46454
2.6228 114.258 -10.2944
-5.4054 145.166 -5.29982
7.66065 91.2677 -11.5067
6.63739 98.9045 -12.5797
-7.25097 151.326 -3.53307
2.2022 75.3573 9.63684
7.3728 95.6159 -12.5745
4.63244 108.83 -12.0744
-5.15065 144.769 -5.24563
-4.0393 99.1726 13.9112
-8.17123 130.356 9.16579
6.69607 99.7358 -12.6102
9.1247 82.6369 -10.3892
-6.75591 111.528 14.7624
8.22431 88.4885 -10.9583
1.72805 119.424 -9.79143
-2.39834 91.6935 13.629
-3.58386 137.891 -5.54406
-0.624771 85.8733 12.0883
-8.2141 127.358 10.8852
-8.21552 127.901 10.6784
-8.94113 142.772 5.38064
1.0571 80.3489 10.7723
-5.16013 145.521 -5.0812
-8.02546 121.372 13.61
8.9248 84.815 -10.4102
-8.00215 126.568 11.2195
2.14622 118.016 -9.33041
-2.14929 92.2477 13.6419
-8.83004 144.38 5.1244
-8.97952 148.243 3.7402
-7.872 130.42 9.56598
-4.34793 143.042 -5.0967
-3.699 101.13 13.619
-5.02835 107.355 13.969
9.82009 81.8434 -10.2032
0.68147 83.1273 11.7589
-4.39518 144.047 -4.89992
1.54599 122.319 -9.01734
-3.56598 101.278 13.6154
-7.7001 132.598 8.79033
8.52623 91.0552 -11.0496
-7.59941 129.773 10.1568
5.29883 108.933 -11.5227
1.30842 123.887 -8.77688
4.68671 110.802 -10.7547
-6.14742 113.423 14.6207
10.1397 81.2451 -9.94418
-8.46927 147.632 4.00232
7.7416 99.3367 -12.5802
-7.50741 126.731 11.85
8.06605 97.8771 -12.5348
-7.42349 135.219 7.62377
-7.39704 130.558 9.87174
1.68846 81.2435 11.1964
-4.04377 143.998 -4.70786
4.12621 113.507 -10.119
5.0689 110.251 -10.8682
-5.29578 149.263 -4.06739
-5.64818 112.079 14.7209
-7.85163 142.165 5.85684
9.91018 84.7989 -10.1563
-8.00379 150.752 2.31011
-2.21548 95.8997 14.3514
-5.17918 110.458 14.796
-1.18401 133.533 -6.02212
-7.17601 135.594 7.71889
-6.99793 122.681 13.5536
-0.933395 132.998 -6.23267
-6.54542 119.223 14.2549
3.38383 117.737 -9.39153
-6.97314 128.658 10.8448
-6.90415 122.985 13.6022
0.0987797 129.897 -6.83817
3.67701 117.252 -9.56432
11.0848 77.8784 -8.90292
4.4906 113.887 -9.94117
2.24443 81.3626 11.1805
7.31677 105.171 -12.5925
-5.19218 112.248 14.719
10.8155 81.0453 -9.62827
-6.70857 132.182 8.95054
-0.0747337 88.6663 13.508
-7.52145 151.742 1.69313
-6.83708 136.786 7.2806
-6.10541 118.069 14.508
-4.8347 149.644 -3.71269
8.96355 97.2113 -12.3929
5.24419 112.136 -10.3846
-7.32961 147.344 3.9289
9.06486 97.7248 -12.5103
-3.15813 143.41 -4.36768
11.5783 76.7956 -8.62522
-6.48725 137.801 6.56919
-2.12902 138.328 -4.34782
-6.55991 135.02 8.15801
9.39292 93.9122 -11.3144
-1.22146 135.823 -5.19156
-6.98264 143.514 5.32085
4.30345 76.4914 9.71761
-5.02848 114.357 14.5131
-6.74435 127.046 12.6986
5.16617 113.613 -10.0541
4.18124 77.7271 9.57822
0.597302 129.89 -6.56108
-1.99312 138.516 -4.31023
-1.17871 95.1796 14.473
-4.00259 147.989 -3.82791
3.28168 80.1674 10.7999
-6.19129 133.95 8.35982
-6.14204 133.472 8.51129
-0.658824 93.6673 14.0992
-5.93926 121.609 13.7324
8.70684 102.234 -12.8305
-1.22604 136.492 -4.81248
-2.64365 142.731 -4.30263
-4.96575 115.569 14.3993
-2.05505 139.955 -4.35865
6.12425 111.717 -10.917
-6.46547 125.322 13.4724
-6.77609 154.691 0.215156
-2.01612 139.806 -4.33532
-1.81113 138.738 -4.26983
-0.00173773 91.7232 13.8578
3.36886 80.8671 10.8727
-4.2344 111.736 14.7822
-2.7052 143.715 -4.15515
-3.55962 109.146 14.6109
11.675 80.975 -9.22403
5.34058 115.356 -10.1122
-6.14844 139.562 6.54416
-6.28774 140.387 6.5709
5.24419 116.316 -10.2001
2.83869 123.645 -7.64626
-5.52224 122.025 13.7756
0.17959 92.612 14.07
-5.7012 123.367 13.831
11.3127 85.9349 -9.93987
9.85632 98.3299 -12.2643
9.8839 98.3541 -12.2568
3.78294 81.4868 10.8049
-5.05747 119.259 14.4626
-5.81408 131.942 10.2949
2.13912 127.145 -6.88748
8.80046 104.672 -12.439
10.5417 92.6498 -10.9275
-0.283445 94.9944 14.5336
-5.69398 139.573 6.48955
4.34204 119.491 -8.51958
-5.72285 135.696 8.51125
9.31112 102.449 -12.3877
5.95477 115.153 -10.2261
0.612609 91.884 14.0772
-3.99798 114.466 14.6105
-4.44366 117.023 14.561
1.44022 88.5676 13.8203
12.1887 81.3517 -9.03756
-5.7941 131.216 11.2536
-5.36321 139.137 6.46772
4.62223 79.7776 10.3644
11.588 86.4875 -9.92744
5.19597 118.329 -9.4486
5.94273 116.456 -10.3292
12.5998 78.0887 -8.27981
-3.7535 114.108 14.6723
-5.54906 127.297 12.9149
4.91414 119.145 -8.84074
1.59333 130.223 -5.96162
4.35792 120.329 -7.96076
12.7146 77.9239 -8.1172
0.411449 134.174 -4.80348
-2.5993 147.052 -3.57597
5.65809 77.1297 9.62737
12.7499 78.116 -8.16922
-5.40832 136.57 8.43624
0.733217 133.372 -4.99967
9.20907 104.984 -12.0571
-4.58731 120.685 14.307
-5.1571 138.236 7.35234
5.11576 119.257 -8.76207
-4.48273 120.679 14.331
5.02141 119.635 -8.36412
3.28652 85.7144 12.1207
-4.85457 132.667 9.65892
6.94638 114.423 -10.5576
6.28953 117.149 -10.2247
2.52135 87.3818 13.279
12.9428 78.9268 -8.23951
13.2387 74.7701 -6.85098
-5.09275 144.535 4.87224
12.669 83.2768 -9.20434
4.34327 83.9476 10.9231
4.26528 84.2653 11.0424
12.2107 87.1757 -9.83649
-2.56781 149.159 -3.17622
12.9958 80.3903 -8.43074
-4.98126 130.444 11.7555
-4.84119 130.927 11.2053
8.26615 111.35 -11.5101
0.840612 94.9029 14.6009
10.9372 97.7679 -11.499
5.5497 119.376 -8.61084
-0.141899 139.08 -4.0637
0.673153 135.846 -4.42445
10.8616 100.197 -12.1353
0.595901 97.033 14.5774
1.04969 94.7418 14.5944
11.1507 96.8281 -11.1712
-2.61828 113.374 14.7115
-4.55163 138.715 7.39761
6.36271 118.492 -9.46737
-2.3129 149.521 -3.01418
-0.447849 141.863 -3.89664
0.0491393 100.48 14.6901
1.3202 134.626 -4.72651
13.5057 78.7907 -7.838
6.78753 76.8168 9.6887
6.94572 75.5734 9.97661
-4.19221 132.608 10.0679
8.72209 111.287 -11.3095
-1.04634 145.379 -3.60145
-2.73663 151.917 -2.51506
-4.23716 139.496 7.15717
10.2562 104.099 -11.4326
4.63951 123.562 -6.95928
9.06715 109.939 -11.2985
11.4665 97.8187 -11.2957
4.6674 123.709 -6.90688
2.7202 89.852 14.1861
7.53031 117.031 -10.6169
-2.90368 152.973 -2.19199
2.12033 92.9308 14.4167
1.15483 137.235 -4.34651
6.98519 118.53 -9.70164
-2.19481 114.543 14.7791
-3.83064 124.499 14.0441
-4.03155 138.807 7.76275
-2.087 150.787 -2.67815
-1.02447 108.631 14.9625
7.64793 117.613 -10.3965
13.9162 80.4991 -8.00446
3.10389 90.4119 13.9016
-0.782992 146.631 -3.39629
-2.66071 118.688 14.6288
2.92208 132.44 -5.63346
7.89642 117.292 -10.5741
-0.711236 146.48 -3.41162
11.6204 100.969 -11.8338
6.4807 80.7554 10.4615
6.45137 119.927 -8.19041
5.8172 83.7007 10.7039
6.81877 79.6896 10.1899
-3.66562 144.692 4.98989
11.2579 102.753 -11.478
3.7022 88.5303 13.8704
-0.819825 147.613 -3.2988
0.363953 142.649 -3.77197
5.77701 84.1278 10.9545
-3.51079 137.183 8.44508
-3.57776 135.21 9.6333
-2.11171 116.964 14.7695
-3.04988 123.036 14.2089
5.17258 85.3273 12.1421
4.26052 127.846 -5.86435
-0.786411 148.471 -3.14847
3.54272 91.7038 13.5212
3.62903 131.449 -5.64943
14.3504 81.439 -7.94046
-1.7554 116.624 14.7654
2.24987 136.735 -4.62409
3.82418 90.862 13.4601
3.54255 132.657 -5.64271
2.44022 136.551 -4.71786
-2.82163 130.92 10.9324
-1.08061 114.053 14.8445
3.667 92.3581 13.5992
3.09799 94.2013 14.1177
6.48475 121.76 -7.32619
5.56744 124.77 -6.40752
-0.554166 149.619 -3.01372
5.10259 126.924 -5.97755
14.7531 78.7542 -6.58464
12.521 100.21 -11.2897
2.95488 136.38 -5.05033
4.67169 129.142 -5.76872
0.058623 147.729 -3.29649
12.5579 100.357 -11.2756
2.93877 136.857 -4.99189
11.5987 104.872 -10.9392
4.57447 88.7899 14.023
-2.61723 140.338 7.07255
0.700475 145.605 -3.57671
-2.57674 138.594 7.83034
10.526 111.144 -11.1452
3.15145 136.617 -5.14651
4.29464 131.877 -5.65848
9.3791 116.3 -10.5586
2.24157 140.261 -4.44866
10.5233 113.05 -11.7339
0.845449 145.689 -3.578
3.90448 93.8397 13.7969
1.36692 143.539 -3.71422
-2.48889 135.479 9.62885
2.39376 140.052 -4.52256
14.8888 83.2185 -7.9736
8.75251 76.164 10.4722
-0.449329 151.288 -2.76256
-2.28722 141.417 6.49265
13.5017 95.0871 -10.0723
1.74717 104.463 14.2873
-0.115298 113.198 14.89
-0.0633235 113.559 14.9063
15.286 80.6814 -7.01437
2.88695 139.576 -4.73352
11.8169 106.352 -10.7243
5.22587 88.7966 13.877
12.9041 101.962 -11.2223
-0.765651 153.568 -2.29596
10.1335 115.343 -10.7287
4.42406 94.0266 13.5459
-1.85432 142.604 5.8249
8.49951 80.9942 9.9462
14.0021 94.0465 -9.67306
13.8324 95.344 -9.87465
7.56396 122.441 -7.41546
-0.377976 117.158 14.6456
12.7693 103.422 -11.0134
11.725 107.702 -10.4918
0.368314 150.535 -2.99506
8.48769 81.6636 10.0974
14.2457 92.8227 -9.2996
11.3238 112.687 -11.6034
1.78299 107.24 14.488
13.7068 97.3537 -10.0148
12.0015 107.212 -10.4873
13.8354 96.7108 -9.91946
3.92925 138.142 -5.27704
0.954021 111.467 14.8168
15.4068 84.7439 -7.74311
-0.877625 123.312 13.849
4.09828 98.1663 13.6734
9.19793 79.7061 9.99304
6.29872 87.4636 13.5037
-1.37952 142.367 6.13003
6.03904 90.0672 12.9607
-1.50608 135.067 9.96746
16.167 75.6873 -4.94857
2.86612 142.672 -4.31577
15.5756 83.6732 -7.24264
11.8733 110.638 -11.029
2.64214 143.663 -4.12307
4.62426 136.436 -5.51928
6.17448 88.8151 13.5316
16.1748 76.9561 -5.28343
6.76994 127.84 -6.52419
13.9175 98.6651 -10.0018
8.37264 83.8636 10.6906
0.586138 115.518 14.6618
0.138183 153.558 -2.4327
1.34645 111.435 14.7563
15.4521 87.2503 -8.22843
13.6391 101.55 -10.5941
9.61669 119.923 -9.46899
-1.04139 128.239 12.9015
13.9824 99.0602 -9.99124
6.33141 130.754 -6.36795
4.14382 139.403 -5.06223
1.07212 114.069 14.6611
0.346526 118.304 14.4759
13.0665 105.946 -10.7863
8.56654 125.439 -9.02497
2.47983 107.578 14.4979
-0.385474 124.371 13.5817
9.04443 124.827 -9.72885
5.08567 96.7885 13.4025
14.5617 95.9403 -9.43987
4.53066 138.706 -5.27505
16.2757 78.8419 -5.41374
1.04925 115.073 14.6309
-0.768433 128.036 12.9219
0.957972 115.758 14.5605
1.27654 114.151 14.5629
6.53053 131.523 -6.59656
12.2205 112.721 -11.4836
9.13587 122.093 -8.31236
6.41001 132.488 -6.54218
16.0109 83.611 -6.70685
6.21673 94.2344 12.2741
3.58777 104.011 14.0803
4.30789 140.237 -5.00067
2.21372 109.966 14.6499
-0.561691 133.182 10.4592
-0.559645 140.543 6.93481
12.7964 108.009 -10.2709
11.9788 113.552 -10.9084
7.52958 128.622 -7.15671
11.436 114.933 -10.1739
-0.563515 128.629 12.765
10.9643 116.413 -9.67358
6.16148 95.0723 12.3282
9.57399 123.117 -9.46038
14.0523 103.073 -10.8289
6.70451 132.255 -6.74929
6.79453 93.0608 11.8231
9.89265 120.819 -9.04711
10.4632 118.82 -9.42348
3.02678 107.601 14.2478
0.405675 121.675 13.9634
7.13154 88.7268 13.2406
-0.496697 130.058 12.2266
7.04764 91.4733 12.1927
10.4117 77.9299 10.4444
14.007 103.954 -10.7846
7.21995 89.0564 13.036
2.46044 110.409 14.6112
7.82678 129.078 -7.47535
9.01908 84.5213 11.0143
9.68166 125.688 -10.2212
2.99887 108.658 14.3507
2.81556 147.212 -3.62831
6.60273 95.3089 11.947
16.3473 84.1487 -6.51763
2.9401 109.181 14.4227
0.0304771 137.074 8.22795
9.13768 126.801 -9.18875
9.30549 83.8468 10.9792
3.51042 106.997 14.1654
14.6007 100.047 -9.67363
-0.109633 128.477 12.8216
1.8844 151.571 -3.00568
8.87432 85.7915 11.4939
7.35154 93.3884 11.6504
0.0532541 129.093 12.5893
1.68075 153.016 -2.82228
17.3164 75.6119 -4.14317
0.279958 127.404 12.9526
5.56163 100.29 13.0094
6.54841 135.455 -6.21191
14.6242 103.036 -10.4837
3.76477 107.688 13.972
2.89267 148.748 -3.49729
1.35859 120.529 13.89
6.27325 97.8553 12.7694
10.9809 121.32 -9.96537
1.50989 119.982 13.917
5.28083 102.405 13.2793
15.0667 99.568 -9.36711
2.27196 151.956 -2.98862
6.12362 99.7906 12.6738
15.8759 94.56 -8.73159
7.56314 133.697 -6.95906
6.35572 98.6622 12.7752
6.65688 137.721 -6.64851
9.75857 84.4263 11.24
6.91635 135.714 -6.29898
2.40555 152.011 -2.99311
11.0548 124.775 -11.186
4.72873 105.235 13.7037
4.00198 146.305 -4.09528
3.66499 111.077 13.6211
1.77658 153.797 -2.14293
15.6994 96.6185 -8.94296
6.13703 101.36 12.2688
4.0695 110.465 13.0848
10.2785 127.596 -10.2702
5.593 103.233 12.8992
0.950175 138.597 7.52755
4.6431 108.317 13.0512
4.6642 108.18 13.0884
5.41087 104.576 13.0383
12.3125 116.895 -9.7876
2.69609 117.101 13.7175
17.4423 80.1316 -4.72968
0.825335 132.446 11.0593
4.48654 145.82 -4.30874
11.8308 118.505 -9.25658
3.19761 115.583 13.364
3.43501 114.427 13.3517
11.2241 125.85 -11.1748
11.0228 81.8682 10.3606
17.1295 84.5452 -5.86507
11.6501 123.75 -11.1247
6.83147 100.038 12.1099
3.89296 112.492 13.4408
16.5413 92.7105 -8.12252
8.38215 132.908 -7.28103
15.9862 97.3581 -8.84416
13.6283 114.096 -10.8789
14.1333 110.522 -10.4039
9.27793 131.48 -8.50841
6.95572 100.949 11.8187
5.22721 110.225 11.6284
9.49305 131.107 -8.79844
4.26479 147.932 -4.00124
12.8976 116.805 -10.2277
8.28402 95.7751 11.171
7.02256 101.458 11.5717
11.6645 80.5188 10.276
1.1532 130.809 12.0672
1.29613 128.575 12.8009
15.6282 102.998 -10.1276
14.4274 108.885 -9.98031
17.3398 85.5827 -5.94843
2.64128 153.594 -2.41333
1.23429 133.463 10.74
8.44572 95.7528 11.1007
8.73248 94.0416 11.2178
5.88764 107.689 11.6865
10.285 129.753 -9.59021
6.50388 141.566 -5.94719
18.2647 75.6331 -3.26065
2.45458 154.075 -1.96782
4.1149 114.249 13.0252
7.71484 138.959 -7.59369
1.27707 134.943 10.1755
4.86958 112.978 12.0771
14.6547 108.883 -9.96628
6.98009 103.939 11.2652
10.0078 131.801 -9.42292
7.83631 139.386 -7.71154
6.24965 143.289 -5.60606
8.23396 98.1608 11.1439
13.6025 118.317 -11.6429
8.51335 97.5799 10.824
1.80579 135.047 9.41217
5.32756 112.892 11.4166
16.8258 95.3982 -8.38799
10.7961 130.221 -10.2194
4.51036 114.79 12.5903
6.0234 111.2 10.633
18.4683 76.4916 -3.26946
8.56815 135.779 -7.33679
13.7749 117.624 -11.3704
6.56135 109.553 10.2493
16.1339 102.387 -9.76502
9.076 95.6734 10.8517
6.75274 109.348 10.0908
5.96011 112.379 10.5864
7.28897 142.179 -6.79278
4.6505 116.204 12.1919
3.46544 120.513 13.0633
10.2735 87.4488 12.2072
15.2799 108.231 -10.0054
9.75533 133.715 -8.61176
3.53516 153.518 -2.6024
3.83334 120.261 12.6644
6.16563 113.356 10.2501
2.11694 134.408 10.1357
10.9432 85.7938 11.8558
7.59729 107.538 9.68515
5.02161 116.274 11.8861
1.04064 142.889 8.94193
13.0305 78.623 10.2853
2.09316 130.777 12.1767
14.2336 117.315 -11.1502
8.55641 140.325 -8.17994
9.71837 91.8969 12.1449
5.21862 115.871 11.7505
12.758 126.12 -11.6508
14.6649 113.848 -10.4516
10.8404 86.6985 11.9955
13.6497 121.466 -11.3449
17.6763 92.4386 -7.32937
9.464 97.6532 10.3541
12.6694 80.7035 10.6083
8.60309 102.5 10.2354
7.02046 112.897 9.15465
6.45538 114.153 9.95113
17.4861 94.871 -7.86741
12.6147 128.141 -11.7648
17.4383 95.7598 -8.02599
4.5679 151.865 -3.25862
4.23313 121.416 12.1607
11.0265 132.732 -9.85695
4.96193 118.594 11.8214
11.8696 131.242 -11.0294
11.0312 133.104 -9.65716
11.6968 132.149 -10.7987
9.88203 97.5143 10.2699
14.7826 117.19 -11.1153
4.26291 123.749 11.5762
3.22798 126.584 12.8572
17.9407 93.4047 -7.28926
10.2335 136.343 -8.88848
4.79503 122.166 11.2894
18.9914 80.6857 -3.65158
14.1517 120.33 -10.7156
10.8927 134.476 -9.35427
14.8688 116.722 -10.5877
7.86695 144.833 -6.75093
7.72268 114.977 7.92294
10.2406 97.3337 10.2154
5.16604 123.03 10.4629
13.2894 80.7939 10.8051
9.21235 141.852 -8.2782
15.3345 115.465 -10.6084
3.51578 127.492 12.6811
16.7121 106.951 -9.83863
19.2712 81.4914 -3.75985
9.03494 108.747 8.41947
10.6969 89.5205 13.617
5.53184 151.623 -3.3987
6.72828 120.625 8.55595
6.66653 121.275 8.50968
15.6379 114.317 -10.1625
6.97196 120.386 8.2455
3.93995 127.582 12.2453
6.63707 149.44 -4.73295
11.8977 86.8702 12.3175
14.6672 117.835 -9.28137
10.893 95.9922 10.4332
4.95398 125.502 10.9001
19.7115 77.1917 -2.19941
5.63254 151.855 -3.37098
3.77863 128.273 12.4731
18.2661 95.1209 -7.19425
19.4586 81.2174 -3.46512
9.95377 104.51 8.75426
6.87322 121.616 8.131
13.6648 81.2877 10.8242
6.09067 123.483 9.25359
8.86368 112.666 7.6507
3.50223 132.201 11.4709
9.94619 105.311 8.55103
14.2563 123.429 -10.5904
13.6799 81.7978 10.791
4.58057 127.025 11.4906
18.8182 90.3405 -5.88054
6.6214 122.959 8.50737
14.9148 76.0217 10.6733
10.2393 140.918 -8.86488
9.41919 143.623 -8.09388
19.9765 76.2935 -1.76627
5.37923 125.758 10.4618
8.4779 117.393 6.92187
7.72752 121.22 7.10298
3.75964 136.903 9.36945
6.43394 151.084 -3.9064
20.034 77.1517 -1.87281
11.9081 136.497 -10.3214
19.8019 81.4641 -3.28817
15.7854 116.732 -10.2528
5.56843 153.354 -2.66805
16.7698 111.782 -10.2156
15.0495 77.5029 10.5055
7.70962 122.467 7.01063
11.4553 93.5142 11.7525
5.53623 126.906 10.3061
14.1125 125.341 -9.88445
19.2897 88.3429 -4.75262
16.3281 114.595 -10.0253
5.95655 126.238 9.85583
10.6647 141.31 -8.88803
18.6597 96.4117 -7.01387
11.1435 140.305 -9.54069
9.57092 114.145 6.8891
3.72219 139.271 9.22852
11.4882 91.2914 13.2251
9.27641 116.521 6.59473
10.0324 111.419 7.19394
14.9798 119.353 -8.73295
5.15333 128.485 11.0594
6.03659 126.817 9.71498
10.0758 111.479 7.16051
4.72178 130.037 11.4567
7.88424 124.196 6.50045
20.3018 78.1789 -1.92479
11.9978 88.7725 13.3967
10.9055 106.53 7.75809
9.80155 114.492 6.71421
17.9007 104.896 -8.50263
11.0182 105.983 7.86741
14.0502 125.86 -8.97533
6.63028 126.265 9.04842
18.9477 95.433 -6.40766
3.72224 141.499 8.9843
18.9512 97.3313 -7.04615
12.309 138.193 -10.2926
9.18337 120.675 5.76578
20.0131 83.8886 -3.20371
11.8001 139.39 -9.56932
15.3098 117.932 -7.83157
8.6281 123.836 5.74116
14.3473 122.747 -7.70448
8.66597 124.087 5.67274
13.6203 132.876 -10.6886
14.7112 122.252 -8.23663
15.0682 122.18 -9.02782
17.7337 108.358 -8.91071
18.0714 105.479 -8.34677
9.01749 148.1 -6.49885
4.20025 141.057 8.6984
20.2568 82.493 -2.64231
8.8891 123.951 5.44801
14.5752 127.383 -10.1268
12.1843 93.0261 12.1919
14.4341 124.148 -8.20749
14.0637 131.334 -10.7115
13.5362 134.071 -10.6804
11.1869 108.866 7.2689
15.9722 116.412 -7.99381
5.33679 137.295 8.14635
17.9958 107.45 -8.57009
13.8576 85.2258 12.2383
9.92149 119.016 5.73423
12.8365 137.85 -10.3615
4.15188 142.788 8.65632
6.06743 130.744 9.71826
4.32865 142.218 8.53544
15.6134 117.865 -7.49212
21.1383 76.928 -1.38988
12.9918 137.687 -10.4409
10.1569 145.879 -7.36076
8.97104 125.663 5.22596
11.8194 141.122 -9.15322
12.2513 100.412 9.2748
12.5935 89.5877 13.6483
13.6239 135.47 -10.7424
9.72069 121.771 5.43874
10.764 114.902 6.22774
10.2456 145.972 -7.33712
11.2309 112.109 6.53933
12.4696 99.2728 9.67006
5.21772 140.136 7.92338
14.8757 124.84 -8.39479
7.47835 128.241 8.13189
12.1806 103.378 8.50088
5.61405 138.206 8.01072
12.6023 96.7346 10.7292
19.5314 97.5113 -6.5839
14.9884 121.898 -7.04979
5.71402 138.203 7.99911
19.7938 93.4831 -5.01441
16.8148 115.908 -8.36322
19.3826 99.9366 -7.02045
19.2634 100.449 -6.94571
4.57027 144.753 7.92528
14.4646 131.689 -10.0697
15.4733 120.297 -7.05547
10.5828 145.933 -7.31469
18.2455 108.545 -8.23106
15.0963 121.259 -6.52993
13.1036 89.5493 13.6826
5.01024 143.105 7.9483
10.6834 146.237 -7.2533
15.2317 83.7973 11.464
12.3259 141.233 -8.86318
12.9491 98.522 10.0984
12.9826 91.8636 13.2173
5.96753 139.485 7.65845
19.6827 98.9571 -6.59238
14.5715 132.053 -9.86925
20.4873 89.2048 -3.8371
20.0528 93.1583 -4.6197
13.0752 96.2055 11.1471
7.76496 133.812 6.27286
6.34662 155.102 -0.361625
13.6448 138.003 -9.98269
18.4525 108.254 -7.54608
12.3127 108.703 7.31609
6.77321 132.62 9.48376
18.5758 107.489 -7.37922
8.96807 151.264 -4.61811
12.4972 108.009 7.47198
8.74217 132.072 5.20743
12.6496 141.195 -8.71623
16.8964 77.9868 11.1151
13.5634 89.8613 13.7218
21.5677 80.7608 -1.55412
18.9928 103.685 -6.16336
15.5448 129.35 -9.96362
10.7791 147.532 -6.9446
6.86444 136.125 8.12083
7.75615 134.221 6.84397
10.5873 124.747 4.45119
8.68932 131.435 5.9721
18.3678 109.599 -7.25272
6.62937 138.663 7.71941
10.8696 123.661 4.5575
15.5378 128.161 -9.04426
7.49066 133.966 8.00853
8.89958 133.132 5.01341
21.1073 85.9423 -2.33742
8.22287 135.675 5.49043
15.8139 125.057 -8.02839
14.1599 137.627 -9.97503
10.2355 129.149 3.73111
15.3638 85.1339 12.2075
16.9683 115.902 -6.35724
18.9499 106.773 -6.84499
6.63229 140.478 7.26247
11.8416 117.602 5.47791
22.4729 76.3108 -0.83529
12.5954 111.288 6.70597
18.3614 110.786 -7.14993
11.0514 124.22 4.40511
11.4183 121.325 4.89566
8.49405 137.225 4.53769
11.7805 145.249 -7.34232
16.0474 122.174 -6.71931
16.4426 117.906 -5.61885
7.25428 133.718 9.44426
8.819 136.625 4.22074
13.3755 104.544 8.38879
13.299 105.933 8.01349
11.2603 147.542 -6.88877
13.7407 97.2664 11.0833
18.2703 112.568 -7.32613
8.37818 138.394 4.65665
16.4005 83.4176 11.2905
8.18512 135.895 6.36488
6.40422 143.78 6.96548
13.427 139.974 -8.44229
16.9403 116.031 -5.5639
10.0116 150.211 -4.90639
13.1695 108.171 7.47016
13.3382 140.63 -8.43654
17.9302 123.059 -11.2893
7.27743 137.891 7.76235
14.963 129.245 -6.92882
9.37783 135.857 3.671
14.4229 129.614 -5.70578
16.1831 125.851 -8.15076
18.4652 112.03 -7.12852
12.2024 144.769 -7.39029
9.27587 136.56 3.71844
7.77683 141.299 5.15635
16.1899 125.956 -8.12747
16.3651 83.8953 11.5691
16.4259 118.206 -4.97914
22.687 77.5058 -0.867945
18.3409 122.206 -11.509
22.8182 76.538 -0.627976
18.3516 76.2919 10.4701
20.0825 101.125 -5.65069
17.055 122.95 -8.63861
18.2419 122.773 -11.4405
8.08268 137.786 6.37752
9.19222 137.5 3.83622
14.614 128.69 -5.24348
13.3604 109.263 7.25175
14.0571 96.2877 11.7889
8.28927 136.617 6.69105
12.8371 114.846 5.98231
14.0631 93.469 13.2189
16.0001 127.575 -7.82755
17.5245 122.134 -8.965
15.2211 130.793 -7.35932
13.9027 104.418 8.49958
15.5744 130.933 -8.23396
22.1527 82.6722 -1.27382
16.1465 128.376 -8.38379
16.4533 125.56 -7.7697
17.6962 121.871 -9.01974
20.1096 101.737 -5.23732
21.2572 92.4076 -3.50473
17.3672 123.865 -9.00587
16.0019 86.3986 12.2886
14.9817 89.284 13.4185
10.2048 134.879 3.35096
14.2325 93.5624 13.2378
18.7056 121.621 -11.0964
10.4831 134.631 2.86799
7.97386 137.408 7.72542
17.6364 122.402 -8.78407
20.9416 98.0814 -5.22448
21.853 86.3371 -1.83266
16.8056 119.171 -5.09206
14.2982 96.5924 11.8656
7.97661 143.507 4.93575
15.3904 136.367 -9.7702
8.14039 144.687 4.0467
21.6494 90.3702 -3.1036
18.3897 121.815 -10.1309
21.2016 95.1263 -4.18889
16.363 128.624 -8.3263
20.9662 98.6067 -5.23583
7.80978 140.719 6.93134
15.7902 128.747 -6.88147
17.2996 126.322 -9.41286
14.3729 102.663 9.08859
11.7567 127.013 3.86694
17.7688 122.636 -8.69242
18.0199 78.9975 11.577
14.4653 93.8547 13.2041
16.9936 123.697 -7.26546
18.3928 77.9449 11.2493
12.6664 120.35 5.08285
8.4545 153.879 -0.594228
15.2322 132.201 -6.84873
21.3492 94.6491 -3.89075
14.1004 140.674 -8.102
17.6171 124.711 -9.08406
9.27457 139.993 4.07993
7.64037 143.283 6.53341
8.94246 143.792 3.12592
17.1112 120.757 -5.86181
17.6101 122.851 -7.97937
21.3895 95.4807 -4.14505
15.3329 137.725 -9.46453
19.3554 108.908 -5.46789
8.58313 153.872 -0.517244
14.6793 101.706 9.50289
17.7716 127.044 -10.1979
23.0816 80.2553 -0.768463
10.8915 135.524 2.71843
19.6802 106.891 -5.14797
16.5883 128.604 -7.93972
17.2897 118.041 -4.59002
8.43212 147.199 3.21202
9.80262 139.421 3.57408
22.35 84.205 -0.783948
17.2375 127.652 -8.99608
8.46067 147.506 3.05358
18.1449 126.909 -10.8388
21.4233 96.6958 -4.41604
16.659 130.702 -8.9606
7.92653 145.691 5.38672
20.2302 103.051 -4.40059
16.6959 130.364 -8.79055
11.9924 128.699 3.56516
17.6237 128.869 -10.3069
17.0951 85.6463 11.7047
7.77215 145.287 6.05592
17.4424 120.328 -5.65724
8.84624 147.385 2.52635
16.3943 124.635 -5.01648
8.40971 149.48 2.73497
8.45169 147.811 3.46253
14.867 97.2447 11.9464
23.1707 82.0393 -1.14104
8.62763 149.118 2.46302
18.8588 122.026 -9.58134
19.1974 122.046 -10.3946
14.7233 106.58 8.046
21.749 94.9219 -3.58848
14.516 108.962 7.46955
16.183 124.965 -4.24129
15.8601 133.676 -7.61
17.8746 84.212 11.1221
8.66808 154.352 0.205534
16.6886 131.684 -8.52057
13.2282 121.548 4.83938
10.1062 142.02 2.83876
12.6159 127.396 3.7552
16.3525 124.863 -4.18909
13.4122 120.48 5.13823
19.7412 108.714 -4.74267
8.02718 153.533 2.56344
23.5558 80.5524 -0.597932
15.1964 98.9091 11.148
10.2912 140.73 3.18564
20.0079 106.576 -4.30103
18.5053 127.922 -10.7477
11.4011 136.591 2.55231
21.3184 100.37 -4.45209
9.37781 153.531 -0.569938
15.201 94.9861 13.159
10.9823 150.528 -3.01697
19.1108 122.458 -9.48129
22.57 89.9452 -2.36782
22.5399 90.4573 -2.49679
16.8011 124.452 -4.65419
8.25309 152.845 2.76444
16.0725 125.466 -3.28134
21.0161 101.665 -4.00583
16.9645 88.3436 12.3622
13.8492 118.965 5.40615
9.36228 149.001 2.07428
17.5024 131.591 -9.54041
19.7259 112.921 -6.03424
8.57457 154.897 1.25191
14.0836 117.411 5.71099
14.5216 142.606 -7.38145
11.3628 138.746 2.23145
15.5155 139.115 -8.11976
11.1381 150.566 -2.8309
21.0825 101.799 -3.87227
15.6277 93.7711 13.3548
10.7767 140.717 2.7998
18.9136 80.4186 11.7506
16.9904 133.04 -8.69159
12.7031 129.589 3.48204
13.6271 123.105 4.38339
11.3869 139.219 2.20031
23.9953 79.9872 -0.332357
19.3886 121.742 -8.98302
24.2807 78.3718 -0.194297
18.7647 128.618 -10.6866
18.3483 130.147 -10.326
17.7663 127.008 -7.37074
16.3073 133.123 -6.69267
18.7132 129.049 -10.5886
23.9017 81.8819 -0.716279
10.1217 152.888 -0.815177
17.6957 123.75 -5.45922
22.7861 91.338 -2.40175
13.6623 124.284 4.31571
18.5597 129.948 -10.4112
15.0772 111.428 7.06522
9.3969 152.319 1.49706
17.8371 123.614 -5.41663
12.0071 137.182 2.41334
23.6063 83.7178 -0.439453
16.5541 133.278 -6.80319
15.7987 103.183 9.48023
19.2021 121.375 -7.55729
19.7322 121.833 -9.03425
11.5851 140.229 2.16366
11.7798 139.408 2.09976
13.8838 123.128 4.79498
12.7999 148.754 -4.68576
13.169 129.171 3.81293
22.8863 92.4209 -2.43556
18.7763 84.5729 11.4323
17.5577 129.034 -6.76865
22.3951 97.1127 -3.34311
12.3386 136.739 2.42989
13.6353 147.132 -5.68432
21.3715 102.57 -3.33277
20.0692 120.623 -8.7057
24.7203 78.0172 0.287244
16.1217 139.185 -7.84769
9.81217 154.148 0.539118
16.1315 95.2418 13.2387
18.8486 122.661 -6.54306
17.3321 128.266 -5.49023
13.0791 131.575 3.38455
19.1903 83.344 11.468
23.2232 90.9268 -2.03547
11.9372 150.274 -2.73144
9.98272 151.261 1.66354
16.3976 126.867 -2.3947
21.1571 122.284 -11.7543
16.6043 135.932 -7.10037
23.0778 92.8685 -2.31689
20.2933 120.58 -8.70923
15.5454 112 7.09171
19.2017 115.015 -3.31733
10.3022 153.667 0.0584579
12.8414 135.091 2.73037
16.9918 137.008 -8.36344
11.7684 150.724 -2.07118
17.606 124.345 -3.71489
21.3382 121.612 -11.5293
20.6321 110.314 -4.37374
17.2636 90.9371 13.1679
17.2993 130.477 -5.80995
21.6063 102.952 -3.14769
16.228 98.8597 12.0362
16.5915 127.844 -2.71212
17.1163 126.509 -3.29592
10.2044 152.715 1.15934
15.7867 110.817 7.52826
11.8083 143.577 1.77914
18.7054 87.6389 11.6236
13.4001 148.727 -4.58166
16.4199 96.3343 13.0927
16.0712 108.924 7.93374
17.8116 90.0894 12.7059
16.8412 136.549 -7.1024
15.8136 111.859 7.25458
13.764 129.043 4.0774
18.4694 124.397 -5.22197
16.4777 101.879 10.467
13.9941 127.782 4.22284
17.1586 136.759 -7.79852
20.8962 107.632 -3.01708
17.0667 125.11 -1.95116
18.8624 121.72 -4.69003
22.8624 98.4898 -3.22166
14.1483 146.874 -4.95785
17.9536 133.505 -7.89587
17.9939 131.884 -7.13738
17.5992 131.004 -5.68874
23.9791 87.2768 -0.413904
11.551 146.798 1.65774
24.3833 84.3272 0.0767743
20.8724 113.075 -5.04351
17.4173 130.679 -4.97384
11.66 146.351 1.67973
18.1036 127.849 -5.25383
16.5744 139.086 -6.82946
17.2015 136.391 -7.06825
17.2088 93.4702 13.4749
11.0108 149.998 1.64511
16.8838 137.295 -6.6482
12.6665 140.155 2.3692
16.5967 127.202 -1.006
13.0941 137.834 2.52087
21.0346 110.464 -3.82639
17.5717 124.968 -2.25733
18.8803 122.809 -4.31199
18.1519 125.578 -3.68677
19.7899 121.131 -5.55576
15.6662 117.004 6.53884
17.889 133.66 -6.85786
13.3132 135.259 3.61986
18.4222 125.888 -4.39606
13.9157 131.084 4.22952
23.3389 96.2556 -2.22474
20.102 83.5172 11.8156
25.612 78.7716 0.567714
15.8112 143.173 -6.17174
12.4871 150.637 -1.5558
17.8689 134.866 -7.20328
21.1514 108.87 -2.71159
17.6336 131.926 -5.01501
15.1209 121.231 6.34279
25.5005 81.2966 0.00658816
14.6668 126.612 4.94533
19.0542 124.747 -4.92172
17.1304 105.409 9.07102
19.972 85.0539 11.8707
16.7614 138.89 -5.97531
19.2391 122.309 -4.11917
19.6421 121.955 -4.90986
14.8604 123.314 6.20068
16.6364 140.411 -6.3172
19.6004 132.698 -9.8871
19.5792 121.01 -4.23321
15.5281 119.322 6.58733
18.3308 130.596 -5.67825
16.6975 140.219 -6.25406
19.3348 116.204 -1.19824
18.0031 131.981 -5.45747
15.3531 144.844 -5.08509
18.2396 130.917 -5.45005
25.787 80.0729 0.35744
13.9688 149.237 -3.7167
17.6674 130.948 -3.94584
23.4599 98.5292 -2.59871
16.3457 113.767 7.57028
17.6678 137.323 -6.93446
18.1764 130.751 -4.92119
19.512 121.958 -3.96327
15.2498 145.546 -4.70488
24.5893 88.9545 -0.426769
24.8319 85.5435 0.625567
17.4102 126.493 -0.74739
19.0555 134.466 -8.57186
17.6434 126.354 -0.931316
21.9817 78.3325 11.3975
21.1927 113.467 -3.43533
22.4153 123.235 -11.0609
14.976 146.741 -3.99651
15.4856 121.218 6.98964
19.6526 122.291 -3.71274
12.2088 149.444 1.62444
13.6018 150.104 -2.10808
14.4692 131.764 4.67019
21.6613 109.461 -2.30188
18.0662 95.5758 13.1849
21.6858 110.338 -2.73894
16.679 113.56 8.04755
17.8852 126.213 -0.949041
18.7238 92.9387 12.9333
19.5245 123.284 -3.51197
19.9668 115.584 -0.906596
19.848 116.3 -0.956927
21.7456 127.412 -10.9179
14.9071 147.23 -3.53465
19.8052 123.067 -3.92422
17.8667 126.5 -0.781121
13.051 143.239 3.07153
12.4852 152.697 -0.0364315
16.3702 143.674 -5.15971
17.0005 112.164 8.42334
13.341 141.867 3.40539
14.6165 131.62 5.21629
20.2436 88.3696 12.12
15.7258 146.091 -4.37672
22.9754 103.794 -1.88623
16.6666 142.945 -5.12041
21.8618 111.784 -2.89056
19.4613 124.752 -3.18602
19.5557 124.888 -3.48171
15.9814 120.163 7.55646
16.6122 143.192 -4.91953
12.6891 152.787 0.12025
13.7404 134.238 6.43198
18.9579 94.1269 12.8579
18.5839 96.5406 12.6241
20.3752 119.503 -2.75458
16.0116 145.214 -4.32297
20.3222 121.713 -3.62522
25.167 89.1712 0.0662515
23.3405 101.956 -1.55395
14.2642 132.375 6.1707
14.4969 131.236 6.18376
15.3831 127.559 5.80367
20.3718 121.662 -3.54879
13.0055 152.397 -0.171768
13.7624 137.401 5.21979
25.1905 90.0953 -0.17225
23.8787 99.8548 -1.60912
20.3738 121.311 -3.26967
14.4527 149.58 -2.23427
16.3508 144.555 -4.37133
15.5176 127.173 6.07986
13.9924 150.21 -1.17406
18.5108 98.9265 12.5819
13.8509 140.717 4.03743
17.0574 114.567 8.68103
13.951 135.332 6.38664
14.5333 130.574 7.29148
22.1641 81.3728 12.12
18.1543 139.73 -5.94454
25.4341 87.0309 1.44495
18.5361 99.159 12.6087
14.7001 129.908 7.39952
13.3316 146.889 2.66768
14.5513 131.113 7.22842
20.4379 122.954 -3.26859
22.3809 80.5991 12.2695
21.3692 85.3956 12.4686
18.585 99.554 12.5397
20.696 120.2 -2.49307
22.4087 80.6115 12.2437
13.9338 140.79 4.29668
20.588 134.063 -8.78191
19.9586 92.6827 12.5641
16.6269 118.833 8.2363
20.3761 123.141 -3.00279
23.4273 124.932 -11.3405
18.5868 100.21 12.4364
20.9289 89.4651 11.8614
20.2515 123.663 -2.74807
15.8018 124.026 8.03139
25.2172 93.5076 -0.295799
22.3688 111.849 -2.04962
21.9571 83.0969 12.7498
22.3714 111.978 -2.06901
14.6095 132.932 7.01356
17.8369 111.701 9.28379
23.6764 103.607 -1.10788
18.9212 99.6429 12.479
13.9664 141.491 4.63605
27.1213 81.1151 1.32318
24.5474 99.4352 -1.08929
21.8011 84.9013 12.6705
24.2436 100.797 -0.884233
13.6442 147.106 2.97185
14.2013 139.388 5.32142
22.481 112.032 -1.90154
27.0613 82.611 0.973253
21.9291 113.97 -1.3679
20.8018 122.853 -2.85115
19.9011 125 -1.6305
23.1061 106.544 -0.657974
14.9047 132.771 6.93737
15.9749 125.18 7.97227
27.3544 77.6559 2.85927
19.8813 96.212 12.3956
26.6798 84.5994 1.26938
15.6311 127.483 7.90671
18.9971 127.301 -0.238914
15.2203 131.181 7.19366
21.2586 132.827 -8.39575
14.4962 150.843 -0.356439
26.7719 84.0163 1.49209
21.1639 117.47 -0.689052
15.6777 148.351 -1.96592
20.9043 119.966 -1.14265
19.3622 100.037 12.2016
20.5536 119.558 0.217397
15.0754 134.586 6.54965
22.7723 111.721 -1.37272
19.31 101.511 12.0106
27.5121 81.7831 1.36089
20.6575 123.059 -1.52783
20.2026 138.464 -7.70139
21.3541 133.396 -8.10213
19.0689 104.382 11.4038
15.7974 133.026 5.7459
20.7987 123.914 -2.11776
17.0156 146.487 -3.61617
17.4326 117.554 9.23933
26.5435 86.5116 1.74141
18.3341 130.517 0.923657
27.7367 78.6932 2.65404
25.7066 94.9599 -0.114318
20.4406 124.826 -1.47391
19.8317 98.9877 12.4025
14.1912 151.421 1.22196
23.3238 83.2219 11.636
17.9121 144.091 -4.18591
22.7639 84.7436 12.4172
17.8353 144.545 -4.03617
22.4253 86.4647 12.507
17.813 144.684 -3.98739
26.737 83.535 3.41944
14.2697 148.567 2.95974
19.8827 127.152 -0.540344
24.0314 82.1862 10.8548
16.3556 132.319 5.81263
18.545 143.093 -4.66805
15.8874 134.385 6.02564
22.253 131.584 -8.2205
21.4303 117.911 0.358822
16.7937 130.935 5.60117
23.9593 83.3268 10.8372
26.6202 89.0704 1.56376
22.6651 86.7307 12.4519
18.3811 114.172 9.90595
24.2682 82.2085 10.765
23.6228 127.315 -9.09764
15.9239 149.752 -0.92882
16.1015 134.517 5.92998
24.6943 124.661 -10.3788
15.8825 136.728 5.4814
20.9668 121.255 0.422356
19.7949 107.116 10.0952
26.9154 84.3542 3.52062
16.1273 136.562 5.09768
17.1402 127.636 6.90362
28.1185 80.9293 2.34069
19.7182 129.027 0.0355559
26.0369 95.6214 0.517238
20.1114 128.081 -0.40982
17.9543 127.343 5.28542
16.5798 126.764 8.98426
24.9258 124.345 -10.3156
19.0965 142.97 -4.91356
19.6098 129.039 0.524113
23.5028 108.479 0.860757
20.1046 127.598 0.0855534
17.0433 128.688 7.09278
24.0454 83.9524 11.3319
17.0444 124.769 9.01602
20.8045 119.809 2.20551
20.0025 105.453 11.0858
25.2415 78.6356 11.1811
20.7623 119.933 2.44118
24.6783 125.124 -9.64789
23.4018 111.205 0.249098
19.4431 129.447 1.27486
16.1617 150.2 -0.569162
16.9783 125.828 9.10069
22.1413 122.718 -1.98631
26.0314 97.1016 0.759545
15.4176 141.099 5.76548
25.9197 97.9684 0.651329
20.6085 126.881 -0.136398
19.5178 130.034 1.05023
18.2027 128.421 5.2231
21.2141 124.697 -0.368902
17.2822 125.934 8.76785
18.8435 130.21 2.90516
21.1143 139.125 -6.92719
27.0876 86.0196 3.88121
19.0192 126.882 4.13945
16.9576 135.245 5.25117
15.6429 142.452 5.05622
25.7426 99.5381 0.819829
19.1834 127.726 3.43716
18.4841 125.813 6.13146
24.7394 125.44 -9.03039
22.081 116.523 1.78567
18.31 128.761 5.21516
23.9998 85.2798 12.0566
17.0686 148.902 -1.31775
24.1718 84.8031 11.9177
23.8188 109.158 1.2225
27.1979 90.6063 1.87942
21.0564 102.473 11.2768
18.4158 146.584 -3.33285
17.2623 136.744 4.29717
