ply
format ascii 1.0
comment Created by Open3D
element vertex 1939
property double x
property double y
property double z
end_header
-32.6732 130.473 4.01451
-3.33872 106.876 -6.51006
-26.7698 123.623 5.66644
8.74111 80.4759 18.4763
-13.6523 114.571 -1.69515
-31.4086 128.697 5.18447
-26.4231 118.599 14.1281
-8.94763 98.543 18.4762
-9.10645 111.328 -3.69931
-30.9358 131.643 -0.624663
-12.4581 113.569 -1.58429
8.79731 81.1075 17.8819
-7.92211 96.1462 21.2264
8.87668 85.216 10.6433
-22.3957 122.5 0.6954
0.487645 87.9122 20.8906
3.29189 99.8295 -5.02011
7.08781 93.5573 -0.719419
-25.0712 119.756 10.3553
8.96871 85.3766 10.4383
-21.7956 123.507 -1.90532
-4.6175 93.1666 20.9972
-26.0757 125.073 3.1742
-32.4406 131.104 3.87768
9.41864 82.7199 14.7548
-26.4479 123.774 6.28072
-1.51413 90.5967 20.4174
-25.0201 120.045 10.425
-8.94618 111.863 -3.72273
-26.6129 124.479 5.52356
-26.3656 121.921 9.65933
2.19187 101.878 -5.81606
-26.3411 118.839 15.0816
-6.14829 94.5486 21.9305
-25.7126 127.472 -1.20027
-2.37335 106.91 -6.49458
-27.8008 130.698 -3.1528
5.02292 98.0233 -3.83702
-16.2945 104.831 22.1002
9.23243 85.7995 10.268
-26.2823 118.933 15.1066
-26.7357 124.907 5.45045
-26.2328 125.479 3.60801
2.96564 101.084 -5.33987
-21.984 122.806 0.790581
-6.70909 110.666 -4.91121
-25.5993 127.251 -0.452958
-25.404 128.414 -2.83823
-23.1063 112.179 21.713
9.12054 89.8821 3.6885
-7.28303 97.1321 20.0894
-26.401 130.148 -3.99495
-32.143 131.106 4.52892
-32.0363 130.622 5.21331
-26.5481 124.182 6.789
8.54631 82.6819 17.4388
9.04598 84.6773 13.1034
-1.01537 105.905 -6.29742
-25.0348 115.257 19.9625
-5.99828 110.325 -5.15903
-8.99067 112.305 -3.30105
1.4091 103.36 -6.04499
-1.99404 107.081 -6.48919
-25.6365 116.573 18.8953
-32.144 131.764 3.84031
-26.3634 123.137 8.75859
-31.9145 130.822 5.27906
-27.5998 131.061 -2.78764
-23.2596 112.914 21.4341
9.51337 86.406 9.84229
-26.5409 123.65 8.45827
-18.91 121.655 -1.53519
4.73913 99.257 -4.14824
-21.8094 123.814 -0.0472523
-13.3409 116.086 -1.45403
5.86685 97.5182 -2.7578
-25.1105 125.554 2.97224
-9.38686 101.7 17.0161
-9.58873 101.94 16.9802
-25.4078 116.787 19.0139
-6.87268 97.4117 20.1616
-3.98366 109.54 -6.29585
-7.16234 98.2931 19.1636
-24.6273 125.278 2.73714
-5.40729 110.57 -5.51538
-25.5064 121.735 10.6255
-24.9376 127.291 -0.125731
-24.1883 124.602 3.29263
-28.5877 131.918 -1.62293
-7.05809 98.3793 19.1226
-20.6609 111.041 21.0261
4.8505 86.0765 19.6155
-11.1855 103.869 16.8407
-26.7108 125.725 5.99139
-21.9522 124.667 -0.575401
-23.8631 125.005 2.25134
1.81443 88.4774 20.9424
-11.1899 114.417 -1.54445
-26.7584 124.942 7.61945
-30.0435 128.668 6.93216
-18.6876 108.946 21.4491
-23.4437 127.036 -1.84316
-16.0472 106.08 21.9178
-25.3578 117.209 18.8895
-25.1102 120.989 11.8023
-15.0214 105.588 20.9913
-7.57941 99.92 17.7531
-4.98798 94.921 21.9689
-25.7696 126.611 3.16953
-6.71779 97.9371 19.8349
-22.3784 112.953 21.2493
-25.8805 130.589 -3.53085
-28.7188 129.164 4.06288
-26.9613 131.216 -2.66866
8.88907 92.4335 1.84879
-30.088 128.997 6.85863
-25.3733 126.548 2.8324
-26.9668 126.646 5.51534
-23.2343 124.807 2.12214
-24.8516 116.531 19.5734
-1.26693 92.2965 20.3041
-11.6575 104.591 17.1412
-28.7488 128.938 4.74826
-24.5217 116.094 19.8381
-30.1953 130.01 5.46483
-4.91273 95.0708 22.0224
-0.525001 106.542 -5.92044
-26.7547 125.597 7.26619
-25.9417 118.927 17.5864
9.15397 91.521 3.48747
-23.4876 126.863 -0.652904
9.46909 85.3665 13.7922
-24.9295 127.701 0.481763
-23.437 126.863 -0.548019
-28.4261 129.104 4.37731
1.78777 89.0834 21.1035
-9.67329 103.102 16.8288
-26.4113 126.55 5.35817
-24.1553 127.003 0.6649
-6.46106 112.579 -5.31665
-24.2125 126.488 1.76515
-21.6135 125.376 -0.807775
-26.2882 126.459 5.59608
-29.9669 129.664 6.50394
-26.5872 126.046 6.86675
-28.305 128.117 6.29202
-22.4147 125.2 0.962021
-6.50372 98.7885 19.1459
-26.0683 124.344 9.03036
9.79371 86.8183 11.372
-16.67 107.658 21.8635
-13.4396 106.004 19.0366
-16.748 107.789 21.7902
-21.811 113.432 20.9182
-23.9527 128.932 -2.52116
-26.7347 126.808 6.16004
-23.9518 128.965 -2.56045
-21.5123 125.593 -0.937498
-25.7762 124.018 9.52451
-16.3472 120.28 -0.632914
-28.1065 128.636 5.57405
-5.76788 96.9425 21.8014
1.38399 105.492 -5.76387
-20.8266 125.31 -1.1455
-25.1869 126.685 4.21494
9.45334 90.6621 6.04328
-15.7763 119.945 -0.623415
-29.7149 130.016 6.47941
-22.684 125.861 1.32618
-24.6722 126.629 3.5085
-27.241 127.978 5.77796
-25.2517 118.807 18.3849
-2.1272 94.1533 20.677
9.38407 91.1605 5.50232
9.5457 90.5784 6.29752
-10.5519 115.238 -1.36649
-6.43669 99.8742 18.425
6.82185 97.9091 -1.65722
-25.5654 126.866 4.9909
-23.1005 126.193 1.84278
-23.5816 127.436 0.521337
9.96719 87.3178 11.4804
-28.4617 129.299 5.97339
-9.33753 114.533 -1.92454
-24.8255 127.353 3.04971
-28.9205 130.482 4.8765
8.66378 95.163 0.22259
-19.3741 124.868 -2.19884
-26.063 126.864 6.17544
-25.2767 122.888 11.7905
-13.9835 106.839 19.9641
-24.5438 127.898 1.69154
-23.3454 116.175 20.1987
-26.1187 126.604 6.87761
-27.725 129.232 5.12907
-28.4648 129.23 6.44971
-26.7642 132.364 -2.07814
-27.462 128.162 6.64151
-28.5255 129.488 6.29543
-25.4667 121.182 15.5958
-29.7512 134.866 -0.846594
-22.6366 126.834 0.662041
-19.5519 112.382 20.6075
-23.098 126.595 1.92532
-26.9366 127.758 6.75533
-23.5281 127.986 0.362301
-9.87101 104.973 16.6093
8.46575 95.9046 0.0702709
-29.0081 129.79 7.06669
-26.3343 127.567 6.25336
-8.43282 114.643 -2.78504
-19.8296 125.826 -2.18938
-6.06223 100.2 18.4304
-22.567 126.67 1.38368
9.12778 94.6767 1.35931
-22.4251 115.647 20.6089
-24.5133 128.206 2.24163
9.38716 93.2034 3.61081
-16.1574 121.388 -0.536992
7.85983 97.0991 -0.399684
-15.5273 108.58 21.0609
9.56641 92.5147 4.78072
-27.5888 130.166 4.57613
10.3877 85.3267 16.0187
-20.9503 114.263 20.8057
-25.304 128.339 3.83558
-21.1991 114.524 20.8501
-25.9366 127.06 7.22454
-22.3097 129.201 -2.95774
6.51929 100.087 -2.9185
-11.7836 117.485 -0.944488
-27.7677 130.969 3.75471
-5.13966 113.628 -5.7229
-25.4191 128.595 4.03071
-15.8509 109.413 20.7799
0.511314 92.8076 20.9547
-28.0414 131.017 4.49815
-22.2624 128.183 -0.784883
-22.3242 116.262 20.3835
-16.4714 110.162 20.8039
-12.7138 107.416 18.96
-28.6566 129.917 7.74641
-29.3973 133.296 3.12969
3.86765 89.7883 20.6861
-12.946 107.551 19.3456
-22.3953 129.134 -1.82593
5.99153 101.403 -3.36794
-25.7467 125.05 11.4317
10.9171 85.7663 15.4114
-14.0186 107.939 20.8141
10.3661 87.0324 14.3062
10.2618 86.0075 16.2975
-5.13985 99.7621 19.5102
-25.906 125.724 10.7485
3.74633 104.392 -4.3356
-9.15369 115.918 -1.60326
4.04798 103.991 -4.08042
-1.46364 95.3322 21.0002
9.06894 85.9124 18.8581
9.5162 95.2766 1.60689
-26.9359 128.141 8.57315
-5.0315 99.6998 19.681
-27.8892 134.875 -1.52821
0.457229 93.4607 20.9588
3.36095 105.189 -4.71713
-26.8613 129.563 6.11615
9.44592 86.1987 17.8969
10.0897 92.2313 6.17016
-7.72602 104.533 16.1942
-29.2164 132.075 5.94213
-14.057 120.26 -0.136833
-26.391 128.01 8.16566
-21.7484 130.038 -3.57348
-26.5693 128.822 7.29569
9.71407 86.4415 17.3738
-28.9896 132.671 4.84395
-15.8981 110.433 20.7381
-25.3044 133.384 -2.91066
11.0986 86.1339 15.5242
-26.8247 129.172 7.22589
-28.8118 135.794 -0.814483
-7.2111 104.416 16.0561
3.50069 105.358 -4.57781
-4.881 100.191 19.425
-25.6607 126.39 10.3369
-25.5371 125.277 12.1444
-20.4264 127.621 -1.05001
-25.087 129.477 3.96765
-24.4512 132.789 -2.95717
-24.588 132.987 -2.94563
8.61265 86.6411 19.7616
-4.88456 101.051 18.4996
-17.7609 112.996 20.4456
-18.4791 126.731 -2.4231
-26.682 134.801 -1.98883
-20.4913 115.832 20.4279
-4.24933 99.1292 20.9949
4.00626 105.126 -4.1223
9.67023 96.5043 0.978214
8.03717 99.5639 -1.49391
8.41197 98.8795 -0.907236
-25.0374 129.893 3.98486
-16.3806 111.68 20.6929
-9.46873 117.156 -1.21385
10.4344 89.1467 12.7559
1.9454 92.7731 21.4712
10.0814 94.8707 3.38909
-21.402 129.132 -0.928873
-25.4978 128.434 7.64369
-14.6538 121.879 -0.0728621
-19.8494 115.365 20.6195
-28.3174 133.501 3.82354
-28.4379 134.35 2.55255
10.5431 89.4391 12.3964
-25.5145 127.823 8.95493
-26.8866 131.547 4.86429
-25.1982 127.032 9.82629
6.9703 88.335 20.7354
-5.21361 102.935 16.7418
6.1717 102.884 -3.37829
-28.1178 131.352 7.51933
-14.9217 110.609 20.5809
-4.87509 115.442 -5.72407
3.96018 91.2915 21.0625
-17.0519 112.851 20.5037
-24.5025 133.86 -3.07229
2.16526 108.549 -5.88482
-22.1405 130.207 -0.749718
-7.27928 116.826 -3.61101
-9.94651 108.009 16.6983
-21.9725 118.487 19.7058
-18.0025 114.104 20.4577
-21.7815 129.695 -0.220315
11.2065 87.7424 15.0188
5.21839 104.395 -3.62178
-28.028 134.326 2.80581
11.1283 90.4326 10.4572
-18.74 127.92 -2.34393
-25.1141 127.075 10.4774
-28.7023 135.971 1.20647
-15.027 122.937 -0.142572
4.57141 105.257 -3.84449
-13.4043 109.808 20.1334
-27.9207 134.278 2.9044
-24.7154 124.46 14.5437
-25.2587 128.822 7.87437
-25.4269 131.001 4.36991
-9.39394 108.019 16.3159
8.82995 99.4481 -0.953836
-2.10157 113.12 -5.53011
-19.1176 127.832 -1.10746
-17.124 113.569 20.4466
-22.3693 130.488 0.0274423
11.2872 87.9677 15.0227
-22.2619 130.164 0.43669
-10.9797 119.285 -0.455621
-24.8104 125.318 13.5203
-25.4866 131.073 4.60467
-3.46122 114.806 -5.90783
11.2001 87.7043 15.7163
-21.7633 118.832 19.602
-19.171 127.986 -1.0537
-27.8878 134.745 2.55737
-18.796 127.813 -1.2987
-19.0606 115.81 20.3128
-5.42055 104.757 15.5596
11.0317 91.8814 9.00105
6.02277 104.023 -3.42329
-22.7587 133.049 -3.30755
-22.1105 119.723 19.0418
-18.8262 115.73 20.3572
-24.7177 124.586 15.5134
11.0613 89.3434 13.9435
-15.494 112.642 20.294
-3.80178 101.759 18.7007
-15.4264 124.423 -0.473407
-20.0693 129.612 -1.33485
-23.8852 128.36 7.68105
-11.7457 120.534 -0.0893229
-15.2756 124.296 -0.403061
6.54747 103.936 -3.23878
3.14588 108.475 -5.15541
-20.6395 130.333 -1.19713
-24.165 123.288 17.4756
-21.9888 133.128 -3.69726
10.2215 97.5611 1.6589
-24.6485 128.61 9.08352
-23.5194 128.548 7.21072
-26.5803 131.028 8.38614
-24.5307 128.722 8.82226
8.5331 89.0618 19.8663
-22.6816 133.892 -3.51279
-20.6123 130.045 -0.422331
-20.3504 131.068 -2.68381
-7.31318 117.908 -2.65791
-24.7363 125.684 14.6348
-28.1625 136.616 1.66327
-21.7674 120.435 18.773
-21.7434 133.306 -3.83731
-18.8836 129.524 -2.23147
2.247 110.295 -5.88179
-27.8181 136.166 2.10164
5.33751 91.8331 21.1962
10.4722 97.0594 3.02999
-8.82195 109.247 15.942
-23.3448 128.954 7.1127
-19.1203 117.616 19.5572
-17.0248 127.668 -1.70908
-23.3698 123.05 17.7535
-18.3855 129.273 -1.96096
-21.1218 132.716 -3.07127
-17.5334 128.707 -2.2634
-20.1532 130.434 -0.644531
10.9775 95.495 5.50936
-8.03032 109.459 14.7256
-16.4166 114.835 20.3564
-21.8188 121.453 18.4264
9.53597 89.6711 18.6913
-11.7166 121.722 0.105569
-28.6756 138.323 1.06237
-7.11727 108.978 14.3953
3.95602 93.5736 21.8224
-17.11 115.719 20.3202
-19.4021 130.271 -1.1131
-14.2059 113.191 19.7501
-26.0133 131.574 8.48913
-16.5477 127.629 -1.38652
-20.1002 131.4 -1.6415
-26.4974 133.971 5.20513
-19.9064 130.63 -0.604052
-24.2496 126.729 13.9977
-20.372 130.534 0.428038
-5.21447 118.47 -5.16701
-24.2693 128.926 10.2984
9.7837 90.1451 18.0347
-6.81101 118.861 -2.97725
-21.4308 131.691 0.435801
5.73867 92.408 21.3084
-11.258 121.733 0.0181717
-5.96637 118.94 -4.29817
-28.2952 138.28 1.43743
3.06578 110.667 -5.62484
-7.23369 119.177 -2.16093
-5.04768 107.551 14.4654
-6.96253 119.18 -2.55995
-18.7693 130.506 -1.47536
-20.2165 130.841 0.549984
-23.658 124.876 17.1587
-27.3927 136.931 2.59499
-3.89379 117.957 -5.71987
-19.3658 130.752 -0.689188
9.78316 101.242 -0.554621
2.92487 95.4453 21.8496
9.7387 101.627 -0.968911
-8.04182 110.503 15.014
-23.2487 136.481 -3.63423
-28.0495 138.8 0.870907
5.32284 93.3624 21.5138
-16.0719 129.06 -3.1763
-26.2118 138.006 -0.753879
-20.2906 132.283 -1.20796
-25.8672 134.632 4.59796
-24.1587 130.038 9.76159
11.9643 92.5524 11.5214
1.28773 97.6708 21.4971
11.4307 95.3736 7.5409
10.4773 98.7379 3.37001
11.5005 95.1496 8.03092
9.41891 91.112 18.877
-0.923086 100.237 21.2653
-5.49158 108.997 14.0106
11.6658 94.0707 9.82224
11.1952 91.1738 15.8856
-22.5453 128.714 9.86507
-10.7746 111.898 18.6687
11.4861 96.0046 7.11037
-0.933274 115.639 -5.31984
-19.9875 132.183 -0.50276
-1.97487 116.655 -5.11738
-23.4975 126.744 15.3992
7.0518 106.199 -2.73205
-12.1332 113.141 19.1588
6.26339 107.545 -3.66972
-12.5256 113.495 19.3034
10.6273 98.7786 4.06492
-22.2547 136.415 -3.6839
-23.5217 130.579 8.84831
6.30324 107.556 -3.64869
-18.97 120.237 18.9685
8.34399 104.852 -2.37428
-16.6523 117.738 19.4158
3.91659 111.2 -5.61089
-25.4581 134.685 5.31468
11.7716 94.7321 9.51908
-8.47826 111.497 16.0608
11.1472 91.6953 16.0228
-27.5823 139.636 0.65602
-6.206 120.313 -3.32481
10.9592 91.8459 16.2637
-8.07516 111.62 15.3606
-22.2257 129.559 8.98305
6.83142 107.152 -3.15622
-21.817 124.86 16.6135
-5.44693 120.216 -4.27635
2.95742 97.2374 21.2088
-1.8841 117.185 -5.19883
-23.7635 132.414 7.03247
-14.2604 127.197 -0.531448
9.9606 103.127 -1.2201
-7.27917 120.708 -1.47236
-13.2834 114.872 19.6037
10.1635 100.44 3.39511
-23.7125 137.84 -2.16123
-22.9505 126.356 16.7074
-23.3766 128.789 13.2064
7.05511 107.316 -3.07621
-9.45696 112.355 17.4333
11.7328 92.1251 15.3996
-23.6249 129.909 11.777
-23.2912 132.207 7.14993
-18.3255 120.561 18.8254
-18.5326 120.819 18.7841
-19.662 132.262 0.677901
-1.24695 102.613 20.2154
-21.1045 124.919 16.3772
-13.1971 126.399 -0.20115
-3.84347 108.828 14.1294
-3.57635 108.464 14.393
9.41426 92.9686 18.5789
-4.2482 120.222 -5.0681
8.04555 93.4062 20.2554
-22.911 129.915 11.0815
-23.3983 129.447 12.9382
-17.8809 120.578 18.7761
-21.4438 130.303 8.01812
-23.4897 130.01 12.1971
-21.4928 129.481 9.60318
8.51176 93.61 19.3972
9.62862 104.468 -1.67272
-3.91071 109.32 13.8903
-4.37653 120.519 -4.93406
-24.0804 134.226 6.00606
-24.0007 133.936 6.37595
-7.6905 112.574 14.9812
-1.87159 118.208 -5.22024
-20.3495 124.576 16.617
6.19058 95.5009 20.7106
12.2958 94.6209 11.5014
10.276 103.476 -0.422304
-10.0686 113.456 18.2279
-1.91072 106.562 15.9212
11.574 93.0369 15.8149
-8.36416 112.892 16.3443
10.3241 103.586 -0.339597
-6.05983 121.537 -2.75872
6.60339 95.4584 20.6705
-25.0783 137.225 3.50853
-0.985302 117.983 -5.43095
-19.2723 133.799 -0.734361
-21.0197 126.073 16.0199
-23.0596 129.46 13.6913
-17.547 121.231 18.4298
3.71601 98.4921 20.6453
-18.517 133.049 -0.614689
-23.0522 130.043 12.8963
-18.7837 123.211 17.3933
-19.3806 134.128 -0.685516
10.3732 102.473 2.1794
4.62616 112.537 -5.2897
-19.0622 134.305 -1.46043
-26.7467 139.492 3.1092
11.9354 93.4791 15.3162
8.94429 94.3403 19.1222
-14.5437 118.173 18.9842
-17.1307 132.432 -1.40227
7.53246 108.709 -3.46841
-9.50434 124.006 0.0796094
-20.7949 130.934 8.02713
1.2313 101.151 21.294
3.44827 99.187 20.877
-11.2033 125.667 0.365139
5.38399 111.877 -4.84148
10.6406 103.276 0.965149
0.701431 116.895 -5.32468
-15.4581 131.536 -2.34382
0.714459 101.843 21.149
-13.8125 130.491 -3.35269
-8.3071 123.293 -0.421131
-20.2661 130.073 8.9779
6.40564 111.019 -4.77016
7.30055 109.715 -4.04905
-0.668637 105.715 17.188
12.0049 94.7679 13.951
-19.0445 134.484 -0.73343
-22.2361 129.794 13.2919
-1.84316 108.199 15.0522
-6.42113 113.629 13.6923
2.20778 115.874 -5.55715
-19.5474 134.018 1.33399
11.2673 99.3848 7.52611
-20.5694 131.054 8.4062
11.2887 94.3058 16.5789
9.20806 94.9988 19.152
-17.1285 122.569 17.5184
-15.5639 132.045 -1.9221
-13.0585 130.363 -3.36457
-24.852 140.711 -0.553677
-14.0252 118.817 18.7382
9.47264 106.746 -1.76278
8.98952 95.1816 19.4775
-1.3557 108.019 15.3069
-0.394812 118.783 -5.30381
-20.3978 137.519 -2.70521
2.41573 100.934 21.1173
10.4786 103.003 3.18275
9.34259 107.023 -1.81995
2.48235 100.926 21.1166
-20.3198 137.523 -2.72961
9.93098 106.35 -1.58381
12.4575 96.7127 10.9212
-20.1013 137.454 -2.86217
-10.2915 115.558 18.2246
-18.7129 134.41 0.09712
11.1372 100.362 6.98505
-6.13819 122.866 -1.88685
0.107248 105.299 18.0216
8.74527 95.6223 19.7483
-3.35607 111.71 12.9874
-18.7198 134.46 0.279571
-0.733278 107.469 15.8335
10.1407 106.347 -1.50879
-23.3893 139.894 -0.934564
2.41266 101.395 20.9436
11.8121 94.9166 15.7086
-3.48918 111.969 12.9251
-18.4707 125.258 16.2687
-19.6045 136.367 -1.18013
-25.3115 139.308 3.80632
5.02443 99.1218 20.5989
-3.60106 112.258 12.8512
-12.6083 129.691 -1.66997
5.68311 98.6877 20.3686
9.06559 108.428 -2.53892
3.73911 115.332 -5.16473
-9.52125 115.812 17.7015
-7.6376 115.015 15.7829
-10.7533 126.927 0.376726
-9.26453 125.463 0.369267
-10.9556 127.27 0.254329
10.6021 103.309 4.14191
-1.11983 109.059 14.8596
-8.65565 115.458 17.0418
-24.2517 141.231 -0.553613
-23.8258 137.867 4.63404
-2.16062 110.808 13.7816
-8.06708 115.314 16.4252
-15.5414 122.09 17.8067
-3.02702 122.56 -5.12475
1.42456 117.953 -4.83876
-23.1152 140.585 -1.03945
0.840314 104.924 19.1821
-2.80908 112.175 12.927
-14.8148 132.977 -2.29472
-19.2382 130.107 10.7122
11.8396 95.9517 15.6
11.1474 96.027 16.7633
-8.19939 115.764 16.6428
-20.8769 130.542 13.1949
10.3259 107.415 -1.54784
-22.3932 140.42 -1.4088
-18.0382 134.922 0.558073
-20.7961 129.353 15.3305
3.74992 101.49 20.7408
-8.54367 116.159 16.9276
2.56999 102.962 20.521
-22.0648 140.24 -1.23653
-22.2639 136.315 6.03348
-3.36952 113.608 12.4734
-1.17736 110.369 14.2819
11.5999 101.408 7.34899
0.315443 107.894 16.0083
-7.336 125.011 -0.41609
10.9416 105.996 0.580962
-15.7254 123.536 17.1801
11.918 100.519 8.5934
-20.5026 129.493 15.2399
-9.792 117.186 17.8781
-19.6462 133.009 7.66008
0.90759 106.978 16.954
0.26805 119.883 -4.53217
-1.19648 110.819 14.0844
-19.9151 138.746 -1.77068
1.86113 118.374 -4.55859
-9.471 126.83 0.732041
-18.9096 136.984 -0.2871
11.8286 101.303 7.88788
-1.81361 112.018 13.3063
-7.00233 116.271 15.0457
-17.6701 135.472 0.252985
12.5364 98.4964 11.6659
-16.908 126.087 15.4904
-3.0285 123.74 -5.01395
-22.5154 137.196 5.96505
-7.78298 116.522 16.2686
1.14625 107.218 16.8723
-11.9059 131.955 -3.37225
-18.5488 136.569 0.381193
4.74669 115.766 -4.28838
-12.3213 120.169 18.3287
-16.2519 134.87 -0.494874
-11.4501 119.399 18.312
10.9494 107.633 -0.706438
11.5386 102.711 6.92275
-20.7765 135.71 6.32838
-4.97697 116.138 12.6878
1.42448 106.971 17.4481
11.5366 102.761 6.9143
2.69963 104.14 20.214
4.7868 115.937 -4.23006
-19.7255 134.655 6.41861
-6.77349 125.569 -0.538431
-6.80555 116.835 14.9118
-13.3643 133.537 -2.69063
-20.6204 139.792 -0.694664
8.92082 111.387 -3.2126
12.1839 98.4305 13.7974
2.23012 104.918 20.0756
12.0273 98.3986 14.1723
9.86265 98.2214 18.3488
-9.6182 128.065 0.631886
-24.7917 141.586 3.82032
12.5055 99.3054 11.9714
-4.7132 125.057 -2.67288
-18.7352 131.701 10.5845
7.7956 99.9243 19.4066
-19.6198 139.311 -1.08851
10.9007 108.328 -0.770122
-2.15148 114.163 12.182
-18.5876 133.693 7.04942
-17.0627 136.379 -0.334662
10.9991 98.2935 16.8254
-14.8065 134.87 -1.60976
-22.7735 138.735 5.75913
-18.6085 134.058 6.6345
-0.638289 122.359 -4.70996
-19.4098 132.464 10.9881
-15.3949 125.632 15.8826
0.448768 110.206 14.9042
-18.7562 130.056 14.209
10.8983 108.525 -0.537572
-2.86206 124.901 -4.86848
9.59851 98.9287 18.6776
-21.2997 137.297 6.24057
-13.9574 123.634 17.239
-19.7418 131.782 13.2047
-18.0045 129.41 14.3386
-24.7413 142.799 2.82313
-19.8196 135.778 6.58801
-3.12072 125.171 -4.42199
7.503 100.732 19.7263
6.83284 114.357 -3.00302
-21.2932 137.566 6.1537
-22.1389 138.558 5.97171
-9.57212 129.198 0.125856
3.3251 104.918 19.9254
-8.29186 118.451 16.7932
-6.82933 126.725 -0.329141
-19.0733 130.854 14.1752
-5.1917 117.674 12.7026
0.276999 121.775 -4.19283
-15.0562 126.12 15.4075
2.23082 119.6 -3.7914
-17.3792 138.065 -1.2963
3.50389 118.829 -4.48304
-21.316 137.944 6.02615
12.6544 101.177 10.4004
10.3779 110.627 -2.13715
9.41657 112.155 -2.99718
-22.8056 143.392 -0.647732
-12.7966 134.823 -3.27833
-21.932 138.83 5.91689
-15.6711 136.663 -1.38511
-0.183705 112.503 13.627
10.0588 99.4763 18.3409
-15.3592 127.241 14.6697
-12.0897 134.374 -3.60732
-17.1794 137.9 -0.764223
-17.0901 138.509 -1.99175
-18.0369 131.577 11.9161
-9.49276 119.686 17.6603
7.42907 114.61 -3.45969
5.56898 116.746 -3.89776
-0.711505 123.684 -4.68983
-21.599 138.801 5.89483
10.1238 99.7471 18.2403
-17.763 131.648 11.7021
11.6964 100.512 14.1671
-16.9421 137.517 0.11433
-12.6844 135.399 -3.59756
6.6878 115.63 -3.18542
7.33704 101.836 19.9514
0.329085 112.393 13.8733
-17.2062 138.012 -0.0294592
-23.6317 144.083 0.79903
-16.5609 138.648 -2.16503
9.66746 112.749 -3.20657
-4.11096 118.143 11.8014
-15.3187 127.921 14.6925
-16.9219 138.891 -1.73689
-14.9526 127.584 14.7654
11.1101 109.654 0.0454129
-15.4473 128.191 14.67
10.1692 112.206 -2.70799
-21.3515 139.196 5.85382
-5.25037 127.003 -1.29983
-17.587 138.73 0.1076
3.12427 107.866 17.6537
-13.3787 136.347 -3.09258
-20.7824 138.759 5.84657
3.63552 106.16 19.8559
-14.6054 137.34 -2.44218
-11.029 134.521 -3.7605
-15.7558 138.326 -1.97321
-19.1365 136.972 6.45495
2.11638 110.336 15.64
-20.7179 142.765 -0.803004
-11.8781 123.72 17.0075
11.6266 108.025 2.89128
-21.5159 143.876 -1.22966
-4.96237 127.357 -1.5315
-16.6433 138.439 -0.16064
-17.7733 136.266 5.67719
11.3642 109.401 1.3165
-0.0752525 114.571 12.6207
10.2232 113.16 -3.18924
10.3593 112.947 -3.0205
-22.5488 141.6 5.08921
-7.08189 128.726 0.254042
-15.1206 138.215 -2.1268
-6.25706 128.192 -0.232532
-13.4317 137.119 -3.14134
-23.6246 143.967 2.98384
1.41285 112.161 14.4489
-16.8892 138.867 0.0170525
3.04739 120.727 -3.4443
-17.3073 133.953 9.49842
8.486 102.439 19.132
-17.1461 134.277 8.69257
-17.056 130.776 14.7027
-2.82402 127.069 -4.0122
12.5214 102.989 11.1704
-6.88341 120.056 15.6434
12.3712 102.848 11.7298
-17.2941 131.776 13.7119
3.13034 121.027 -3.54504
-22.4684 144.946 -0.105063
-22.5862 142.387 4.62164
-11.8893 136.258 -3.57449
-5.68311 120.066 14.0542
-3.95914 119.65 11.7362
-9.13417 131.958 -0.617415
10.0405 114.235 -3.49749
-10.435 123.179 17.1909
-9.26621 132.329 -0.909222
2.61071 110.83 15.8207
0.125641 115.32 12.3523
11.9383 108.922 2.67837
8.48818 116.51 -4.51185
-5.61162 128.546 -0.626182
11.1361 101.791 16.7009
-23.2516 144.925 1.93911
-6.07647 120.319 14.7012
-18.4727 137.657 6.36165
-5.14387 128.395 -1.00567
-1.60618 126.846 -4.56664
11.8218 107.058 6.44498
-22.9064 145.092 1.28596
2.79091 110.745 16.0953
-15.6855 140.098 -2.67532
-16.3851 131.82 13.1816
-6.58508 120.708 15.4438
2.15667 112.346 14.7082
-0.418825 125.731 -4.24181
1.13309 114.246 13.239
8.14957 103.638 19.4467
-0.847835 126.232 -4.30146
-15.8684 132.034 12.3021
-23.0517 145.215 2.00917
-4.62164 120.544 12.6573
-19.0359 138.872 6.40588
-16.5113 135.186 8.45946
-9.08517 122.863 16.9923
-2.29086 119.463 10.9066
-6.42658 121.12 15.3412
7.07331 118.621 -4.2279
-15.1545 140.208 -2.6988
-16.0989 136.313 5.84694
12.1128 109.839 2.30208
-3.85491 128.65 -2.36942
10.2336 114.605 -2.66991
-8.77611 132.565 -0.478271
3.70806 122.081 -4.21574
-1.27166 118.478 10.9899
8.74309 117.38 -4.82397
-19.1391 143.03 -0.377279
12.0085 102.632 15.3433
9.59436 103.293 18.4984
-9.00279 133.384 -1.21595
6.48623 119.379 -4.081
-16.8873 140.692 0.00664483
9.945 114.259 -1.16245
-10.0403 124.37 16.5762
-13.0656 128.328 15.0519
-4.0335 120.95 12.0281
-14.4155 139.932 -2.8706
7.63535 104.983 19.4553
9.78308 114.542 -0.995204
7.37953 105.36 19.485
-20.7911 145.396 -0.790157
-5.52871 121.507 14.1462
12.1656 103.44 14.5789
7.49823 119.35 -5.10934
1.14199 115.824 12.5236
0.253943 117.508 11.3068
7.31734 105.788 19.398
-4.4186 121.438 12.7427
1.27606 115.776 12.5966
10.9622 113.168 0.0476377
12.2669 106.547 9.39977
-17.0696 138.286 5.76246
-21.6643 146.014 0.407635
0.523322 117.277 11.54
-16.263 137.83 5.27448
1.0852 116.37 12.2619
-20.6863 142.055 5.77315
12.3689 110.427 2.70158
-7.44348 122.848 16.0575
11.4716 103.865 15.8653
-16.8104 141.276 0.353753
2.82456 113.44 14.4671
9.33513 115.913 -1.44181
9.60807 117.296 -4.29212
-9.84734 125.841 15.2497
10.0051 114.688 -0.390136
-12.5039 139.339 -3.61617
0.737912 117.312 11.6035
-8.37391 123.691 16.6271
-22.3011 145.228 3.52668
-15.1906 135.826 7.49338
-2.4542 121.149 10.6885
-14.9552 136.684 5.59422
-20.9864 142.72 5.70468
6.9465 106.778 19.3399
3.764 111.687 16.3598
12.7096 105.483 11.4082
-11.3898 128.179 14.4486
-15.5448 137.324 5.87503
11.2748 112.455 2.0826
5.52758 122.688 -5.54797
-19.1672 141.025 6.0781
-3.9427 122.097 12.3541
12.7232 108.411 6.86181
-10.7185 127.878 14.3141
12.1599 111.435 2.60258
-14.5793 136.697 5.72231
-14.3441 136.008 6.55369
0.625387 126.658 -3.56417
-16.1963 141.393 0.411593
-1.67735 129.304 -4.1127
11.7845 104.632 15.3747
-5.11692 122.487 14.0255
12.8707 109.26 5.33471
9.54133 105.428 18.1125
-8.08412 124.25 16.3712
-2.42732 121.789 10.6677
-10.1118 137.712 -3.59211
-14.7175 137.524 4.92669
-0.861574 128.759 -4.1919
-9.22553 136.956 -3.69607
-14.1217 141.232 -2.50314
12.8338 108.687 6.86435
-18.1347 144.218 -0.593295
-4.39367 130.681 -1.09987
-8.16245 134.388 -0.923574
-14.3512 136.77 5.89914
-14.649 137.594 5.03303
-19.9702 146.307 -0.805385
-16.2429 141.963 0.224224
-3.85858 130.661 -1.7764
-15.9438 139.196 4.76313
-1.16001 129.421 -4.30827
9.12195 106.334 18.1294
2.31838 125.354 -3.20728
-1.12977 121.234 10.2369
-20.0001 142.791 5.85391
-8.5409 125.534 15.8943
-21.3005 144.706 4.88817
-15.5448 142.909 -2.15321
9.71224 114.686 2.61737
-14.8136 142.292 -2.35606
10.2125 105.903 17.1991
-21.7752 146.045 3.43646
12.7262 104.998 14.3436
8.81849 120.024 -5.13007
7.89054 121.304 -5.69327
1.83644 125.998 -3.17508
-7.70377 124.744 16.0078
12.7621 106.339 12.0731
-15.0365 134.367 12.2434
-14.8173 142.51 -2.3892
12.1038 105.559 14.7721
4.11396 113.236 15.599
-17.2199 143.575 0.166226
-7.45421 124.818 15.8249
-7.8489 134.581 -0.621954
9.92839 118.846 -4.43582
-1.95682 122.423 10.417
12.8391 106.198 12.6969
-18.3203 141.603 5.84912
10.0299 118.595 -4.02045
-17.133 141.263 4.47607
-14.0973 133.572 12.6318
13.0465 110.781 4.50882
-2.92089 123.231 11.1754
4.52936 124.89 -4.97
10.0782 106.596 17.362
11.9823 112.269 4.01713
5.13768 124.46 -5.21062
-8.65746 136.994 -2.73256
-17.6394 141.793 4.96693
1.23959 119.424 10.8487
-13.206 141.801 -2.81946
0.521581 128.351 -3.39002
-21.1254 146.157 3.90073
-20.0386 147.307 0.00610968
13.2914 110.18 6.16868
1.00199 128.007 -3.31531
11.5295 113.005 4.43234
-13.8044 136.513 8.20367
2.01342 127.088 -3.30075
-2.25152 131.252 -2.99141
-21.0936 146.553 3.60424
-14.149 135 11.6645
-2.67112 131.52 -2.48113
10.147 115.693 2.66223
7.90466 122.914 -6.0119
-20.9073 146.42 3.86128
-19.9307 144.415 5.76438
9.89133 116.584 1.76896
-11.0411 131.407 12.903
-2.21602 123.854 10.5788
-16.794 144.737 -0.0924898
-4.32533 132.295 -0.341604
-14.8931 143.899 -1.93871
-13.6953 143.335 -3.0337
0.0929189 129.789 -3.64952
-13.3378 138.405 5.07216
-3.81046 132.251 -1.02751
2.98083 117.809 12.3316
-13.1916 142.948 -3.08496
-7.64607 126.916 15.2723
-20.4186 145.803 4.75221
-16.7429 142.478 4.10298
9.88094 116.71 2.127
13.2055 110.903 6.46328
-17.9284 146.413 -0.642805
9.63582 108.332 17.3868
-7.54317 136.188 -1.01939
3.3627 126.972 -4.1754
-19.1685 147.593 -0.391973
3.19258 127.091 -4.05687
-6.11658 125.85 14.6681
-8.2886 138.089 -2.91372
-16.5003 142.54 3.96732
1.95907 119.988 10.8347
4.35049 126.512 -4.83464
12.8648 107.251 14.0499
-14.2734 143.952 -2.26144
-7.20374 135.961 -0.766441
-15.7432 144.323 -0.264284
-9.44214 139.876 -3.63737
-8.2465 138.41 -3.14927
9.79166 118.072 0.57473
-0.111357 130.612 -3.83582
-17.2703 143.283 4.37851
-14.0077 143.892 -2.48149
-13.1764 139.63 3.74419
11.0201 108.503 15.6891
9.96803 119.015 -0.87159
-17.1295 146.246 -0.587005
4.56233 126.866 -4.97245
12.7675 111.796 6.96825
-6.16332 134.881 0.0302681
9.96119 119.304 -1.19459
11.9502 120.301 -6.44937
-13.5262 136.562 10.2192
10.7104 116.459 2.5705
-12.6443 137.038 7.9192
2.21727 128.51 -3.45657
3.85214 117.65 12.7635
-14.5109 144.47 -1.7066
9.60366 122.283 -5.46954
-2.57404 124.983 11.4247
-7.90903 138.282 -2.37978
11.0416 114.095 6.53365
-13.3928 137.427 8.91852
13.1853 117.935 -3.9425
-20.1473 147.332 3.68608
13.3093 111.264 7.70804
-3.10713 132.935 -1.19176
11.631 120.385 -5.25423
1.88223 129.253 -3.52622
10.6534 117.404 1.7322
-12.4594 139.404 4.13254
13.3668 108.813 12.0565
-6.28274 127.286 14.5071
12.585 119.711 -5.67183
-19.4327 145.772 5.42401
10.1 118.456 1.01244
-11.0664 142.37 -3.43628
12.9628 118.696 -4.46398
2.47497 120.653 10.7306
-17.3359 144.276 4.43987
10.0695 120.134 -1.76977
-12.3939 139.105 4.83708
-12.6104 144.044 -3.28514
9.79491 122.741 -5.58813
11.5681 115.565 3.97744
10.2636 118.608 0.955115
4.69254 127.715 -5.11742
0.05251 124.175 9.42093
-19.6689 146.939 4.42726
8.45088 110.716 18.2258
5.71483 114.4 16.653
-9.88431 141.901 -3.98595
11.1313 121.801 -5.86178
13.5579 109.787 10.9695
-16.8617 147.063 -0.540733
-15.7067 145.245 0.604834
-1.28604 132.616 -2.79356
8.32138 110.959 18.3546
-10.1713 142.297 -3.85606
-0.0229556 124.58 9.29517
11.9186 113.225 8.29018
12.0156 115.764 3.72822
-12.6529 137.019 10.1773
12.1815 109.413 14.7379
-11.8818 139.868 3.94132
-7.51139 139.046 -2.37114
-10.8285 134.237 12.0008
-16.1324 146.361 0.124744
-7.4236 138.698 -1.86043
11.5644 113.696 8.37666
0.178793 132.389 -4.25733
7.3549 112.279 18.3873
-4.4882 127.143 13.3111
-11.1013 143.386 -3.43277
10.536 122.116 -4.43411
-9.87785 142.523 -3.94965
7.82105 111.919 18.4328
-15.5049 145.751 0.379513
-14.1332 142.749 3.24987
-13.3585 145.343 -2.56887
13.7514 109.961 11.4949
10.5155 110.58 16.2052
11.5983 121.626 -5.09694
-10.1445 133.807 12.12
-11.0548 137.555 7.34461
12.3568 121.197 -5.3838
4.07427 119.838 11.7748
-7.19152 130.071 13.8154
3.51753 129.62 -4.38963
13.1293 112.127 9.30544
11.9767 120.912 -4.09406
-11.1063 139.267 4.68754
-11.9843 136.758 10.7208
3.57118 129.698 -4.44026
12.2499 110.064 14.6937
13.0602 109.897 13.5504
4.55288 118.97 12.7687
11.7579 117.96 1.75492
12.536 121.125 -5.17422
-9.61417 142.939 -3.98879
-0.977772 126.395 9.77742
7.01469 113.639 18.0208
13.687 110.302 12.1033
-11.1707 135.807 11.4105
12.9883 119.055 -2.04913
13.4853 118.372 -1.70678
-12.7945 141.891 3.70216
-10.4037 138.365 5.70343
10.3369 123.902 -5.70366
-8.44304 141.787 -3.63365
-11.1727 136.107 11.2061
-11.0114 139.834 4.38025
-6.59259 130.195 13.5682
-18.419 147.233 4.65122
-10.4031 138.702 5.42616
13.6388 110.585 12.2332
-12.606 145.903 -3.2545
-6.09366 138.194 -1.20268
11.1188 123.5 -5.89351
-15.9152 145.338 3.74444
13.4367 118.75 -1.44637
13.6057 110.756 12.3241
-3.38222 127.84 12.5091
12.716 110.648 14.1988
13.5398 118.679 -1.30945
-11.7756 141.461 3.65535
-16.2303 145.755 4.1784
-10.8175 144.819 -3.76595
-10.114 135.305 11.7236
-15.4143 145.395 3.46124
8.38846 113.232 17.7782
-12.5467 142.405 3.73711
14.2327 118.193 -1.22562
11.0514 111.748 15.7791
-10.0508 144.241 -3.8203
11.7422 123.011 -5.18883
12.7854 117.006 3.55669
4.1422 121.553 10.923
-15.682 147.955 -0.196674
0.469109 133.988 -4.29566
-15.8338 148.254 -0.388418
-13.5364 146.891 -2.04125
13.4745 121.458 -5.29964
-13.7802 144.619 2.41048
5.76537 117.384 15.638
12.8329 117.155 3.50853
10.3515 125.102 -5.98702
6.0603 116.853 16.1874
14.0596 118.558 -0.985429
12.6049 118.122 2.3661
-0.723594 134.328 -2.433
0.308736 127.002 8.63175
5.50226 118.628 14.179
-4.75269 129.645 13.0365
14.4709 119.819 -3.82392
8.4096 113.792 17.5865
-17.6112 147.397 4.804
-4.43939 129.516 12.8847
1.61542 125.823 8.6782
-4.38678 129.547 12.8422
-10.4085 145.206 -3.9849
-10.6631 145.46 -3.97075
-10.0547 136.406 10.8755
-17.019 149.393 0.414639
-7.98551 142.612 -3.67455
-9.43303 135.632 11.3802
8.67936 113.865 17.5083
-17.8532 149.154 2.66704
-2.30008 128.356 11.6173
-14.9803 147.675 0.203047
-9.33383 135.657 11.3536
-16.8228 149.525 0.330178
12.7203 111.832 14.1449
4.61475 130.741 -4.70691
15.0508 118.066 -0.916187
10.5206 123.853 -3.04294
7.68151 115.101 17.5313
11.4806 121.814 -1.01879
11.9582 112.301 14.8734
5.66059 119.087 14.165
14.7789 119.955 -3.53695
-17.7003 148.763 3.61731
-9.24123 136.122 10.8792
-7.55497 142.725 -3.50799
12.8507 114.21 10.4409
8.35818 114.757 17.5137
11.2088 112.984 15.5808
8.03838 115.089 17.5689
-12.9969 147.782 -2.47522
-2.94413 136.449 -0.377634
-9.64409 140.143 5.09895
13.4439 120.842 -1.91238
-9.19099 139.851 4.95251
5.01348 121.783 11.5417
5.19031 121.477 11.8863
-7.68469 143.432 -3.78742
10.944 123.639 -2.07094
-15.4815 149.185 -0.0354937
2.80245 133.059 -4.07906
-8.61091 139.827 4.31353
4.09653 123.849 9.87502
-10.1649 138.965 8.6978
-11.4367 143.481 3.02149
-1.72801 129.136 11.0866
-15.9665 147.715 3.74846
-13.7438 146.16 2.57817
12.9784 115.774 8.55275
-14.3032 148.036 0.309949
13.4946 118.275 3.31178
12.6551 112.981 14.1618
11.7284 113.414 15.0538
-0.376584 135.584 -2.41218
13.9781 120.842 -1.97336
-11.4266 144.04 2.50023
11.3171 124.916 -4.27286
-7.71471 135.05 11.9462
12.2206 125.089 -5.76469
12.4752 120.688 1.53425
14.9115 119.029 0.242073
2.77346 133.71 -3.98875
13.0895 115.02 10.5654
-6.07745 141.664 -2.22926
10.1867 127.5 -6.20356
3.09113 126.305 8.52029
0.0459047 135.773 -2.68412
12.2848 122.196 -0.546987
-4.10218 131.634 12.0017
12.8533 123.482 -3.75089
8.40811 129.356 -6.17866
13.134 115.895 9.10711
-8.34533 145.21 -4.27076
5.95745 120.578 13.6483
3.60436 133.273 -4.47745
-15.699 150.061 0.305306
-10.883 143.659 3.06712
13.4078 122.117 -2.11827
-5.37175 140.606 -1.26668
-11.6901 145.418 1.53563
5.41768 122.502 11.4457
3.71414 125.652 8.95929
15.2764 120.729 -2.90049
5.72108 131.418 -4.71441
-6.96799 134.699 12.0728
13.2905 122.863 -3.05288
-16.0571 148.609 3.83708
7.91305 129.943 -5.88865
0.842765 136.131 -4.11457
-11.7305 148.385 -3.31731
13.2914 124.39 -5.56644
13.164 122.339 -1.73339
5.98871 121.019 13.3417
13.568 122.177 -2.09828
14.7708 119.408 0.690174
7.75867 117.427 16.6614
-6.17318 142.433 -2.46229
9.77755 115.792 16.1301
11.7884 123.696 -1.26353
-9.3387 142.868 2.58407
-9.58736 147.084 -4.38244
5.44757 123.068 11.1762
12.3852 114.248 14.3762
-12.335 149.049 -2.74246
12.8859 120.946 1.94329
2.60179 127.947 7.92748
12.059 126.171 -5.74412
12.4078 124.623 -3.61917
11.9849 123.158 -0.287742
-12.9535 146.937 2.23232
13.2997 120.095 2.83564
13.4146 115.822 10.1526
13.4675 123.033 -2.61359
13.5142 115.33 10.9082
13.1299 114.542 13.1734
-13.2378 149.11 -0.762805
12.264 124.273 -2.38084
6.20262 121.18 13.8286
1.65411 136.155 -4.17803
9.65617 129.388 -6.44881
12.1489 124.613 -2.43079
-15.3275 148.898 3.70979
11.845 123.006 0.972434
-5.13645 141.44 -1.27427
14.9719 119.334 1.88652
12.0061 126.69 -5.71415
14.4904 123.422 -4.34934
8.27004 130.528 -5.75464
6.15095 122.469 12.4199
12.8583 118.185 8.16356
-14.0193 148.2 3.13806
8.92252 130.231 -5.98979
11.9829 125.544 -3.16719
11.2728 125.063 -1.01939
11.7541 126.806 -4.9243
6.08913 123.109 11.6518
15.9266 121.158 -2.35968
7.29323 119.532 15.8514
10.4364 128.792 -6.00429
14.5781 123.67 -4.16371
13.4034 121.268 2.18625
13.5375 118.152 7.54248
-0.314335 130.925 9.71274
11.7481 126.234 -3.41464
-2.96821 139.332 -0.296021
14.4325 120.272 2.34435
8.55128 118.115 16.6251
-8.00346 139.026 9.29102
-11.8111 147.109 1.91412
15.1454 118.837 3.75738
14.6271 118.854 4.69572
3.79517 128.001 8.061
16.2847 121.351 -2.37348
10.8688 128.812 -5.86221
10.7731 124.264 2.31036
10.365 125.329 1.17225
12.6663 125.415 -3.05146
-5.60482 143.326 -2.08608
16.9757 120.483 -1.98749
13.583 120.916 3.28445
11.1558 123.4 3.26404
3.21956 128.984 7.65294
13.2941 121.145 3.54365
13.708 121.514 2.17905
-5.55697 136.136 10.7931
6.65609 121.698 14.5459
14.3225 120.154 3.67891
-7.777 139.402 9.1247
6.47534 122.605 13.3742
12.5994 125.727 -2.95383
-8.9843 145.32 0.934433
-11.8654 147.591 2.0706
12.7805 117.662 10.9216
2.81047 129.802 7.30377
-1.39347 132.211 10.5534
7.85782 119.761 16.0177
-2.72133 133.598 10.4999
3.36125 135.894 -4.14581
11.0008 129.275 -5.96095
13.9669 121.403 2.66573
14.6705 118.777 6.06852
12.1274 127.976 -5.56202
-6.18395 138.004 9.41927
-6.9304 146.315 -3.82461
-12.977 150.776 -0.895848
-10.997 147.268 1.75681
-0.527522 138.765 -1.87954
-11.7378 150.584 -2.71247
-5.34469 136.828 10.154
11.9527 127.69 -4.46813
11.0623 128.641 -4.47513
5.54651 134.241 -4.4383
3.95409 128.932 7.74711
14.2232 120.75 3.92042
-2.9645 134.451 10.4207
5.7905 134.115 -4.50933
-5.89015 138.064 9.35224
-5.04604 136.857 10.1261
5.38879 134.631 -4.48662
-12.1587 148.457 2.46741
-5.34797 144.1 -1.96942
4.12155 136.048 -4.60412
-6.94931 146.891 -3.94311
12.8599 127.604 -5.2056
10.7077 127.988 -2.04339
-4.82577 136.674 10.2835
11.6391 128.926 -5.26343
-5.78693 140.741 4.938
11.1716 128.167 -3.04406
11.2144 123.707 4.83968
13.7519 126.751 -5.02099
-6.40552 139.027 9.23739
12.4605 125.976 -1.31727
12.816 126.309 -2.52051
12.6178 119.696 9.47225
12.2499 127.539 -3.66087
12.834 126.651 -3.10572
10.277 127.737 -0.435833
7.2304 133.369 -4.92855
0.0862922 132.509 9.28795
12.6131 119.737 9.56024
17.2034 118.857 3.11887
-14.2329 150.936 2.5655
15.5114 123.973 -2.74285
-12.5685 149.143 2.88366
-11.8007 151.323 -2.22851
12.1246 118.006 13.8668
10.8198 124.985 3.95468
4.36665 136.467 -4.76815
-5.72022 145.403 -2.54086
11.5678 118.237 14.5781
10.3659 119 15.4417
0.853242 132.589 8.45088
-3.92295 136.15 10.7013
-4.17572 143.096 -0.967144
14.4656 120.961 4.84967
-11.2937 148.462 2.25746
-12.5195 149.401 2.78442
12.9889 120.194 8.89143
14.6909 121.891 2.88854
11.3561 128.319 -2.46375
6.79426 124.572 12.2439
-4.42218 137.488 9.56454
3.64975 137.279 -4.3784
17.4618 118.734 3.70078
-4.83733 142.436 1.64358
11.1629 118.722 15.0084
0.223898 139.687 -2.41028
11.9585 119.624 12.2399
12.2241 123.663 4.69031
15.0744 120.076 5.94211
10.6959 126.375 2.6747
14.6264 121.097 5.01307
12.5847 118.518 13.184
12.7979 125.792 0.0377803
3.6335 131.256 6.86229
10.8757 129.028 -2.01814
-6.01698 140.404 8.14536
-6.00513 140.459 8.08102
14.583 123.269 1.85409
16.8186 119.539 4.52031
14.9843 122.979 1.90514
14.4817 121.54 5.39293
-7.31653 148.796 -3.80965
11.1883 126.764 2.17837
8.14777 134.165 -5.41387
11.0924 129.975 -3.23539
6.7759 126.727 10.1517
10.9998 129.796 -2.73802
-11.064 149.211 2.34683
-2.95785 142.805 -0.78121
-5.97347 141.571 6.79944
13.2751 123.002 5.31992
8.2221 134.322 -5.46136
12.4875 127.884 -1.53449
-6.7871 148.613 -3.69862
17.7923 123.091 -2.37319
5.42401 137.334 -5.37935
-12.892 151.656 2.13203
13.6321 126.883 -1.40649
-5.02665 141.816 5.71403
13.5898 127.432 -2.0573
8.8262 122.547 15.1095
12.4853 124.226 5.70808
13.3634 123.435 5.54543
18.4811 122.914 -2.4117
18.8175 122.6 -2.40607
10.4677 121.199 14.9043
1.59557 140.648 -3.50602
-1.85828 142.592 -0.769028
10.2438 133.418 -6.08909
9.10654 122.569 15.0244
-6.53267 148.986 -3.583
11.9978 125.965 4.02214
12.2325 130.43 -4.24419
-4.86315 140.546 8.34205
20.6998 120.349 -1.43144
7.56897 135.803 -5.20446
15.1311 121.884 5.94681
13.5103 125.779 1.98368
10.616 131.284 -2.53526
19.1611 119.045 3.82597
6.74272 136.791 -5.29387
14.8317 122.4 5.66185
2.40999 134.119 7.13822
-2.38339 137.767 9.29768
0.53563 141.415 -2.16072
18.4358 123.435 -2.32335
-10.5634 150.116 2.29252
10.5629 131.522 -2.50468
-5.84595 148.5 -3.18792
11.7098 121.326 13.4132
-5.85394 148.562 -3.19859
14.5398 128.756 -4.45731
15.0011 122.432 5.87578
13.6829 121.812 9.42315
11.0949 121.733 14.2426
-2.312 143.873 -0.857713
0.291631 141.879 -1.76057
-3.33767 142.818 3.11899
-4.83838 147.382 -2.22075
12.718 127.315 2.07362
-4.47973 141.933 6.92119
12.7365 127.981 0.914709
10.5597 122.649 14.23
17.0002 120.9 5.88098
18.2646 119.996 5.22675
11.473 133.504 -6.31628
12.87 128.164 0.599647
12.877 124.902 6.43633
10.7558 122.772 14.0225
12.1065 122.54 12.0919
13.1317 124.832 6.24448
-0.107689 136.872 8.6348
19.3974 123.386 -2.26602
-3.34181 140.49 8.0955
13.1438 128.628 -0.150065
-3.26965 140.577 8.05013
-10.4397 151.394 1.99089
14.7713 122.674 7.71341
4.21902 134.216 6.27861
-2.37717 139.898 8.05734
15.4032 123.193 5.95501
-9.03129 152.424 -1.93525
-2.85824 142.932 3.79383
11.4041 123.381 12.8755
-1.77131 139.343 8.30441
15.3977 123.41 5.85024
11.7168 123.184 12.836
-3.22699 141.115 7.86508
16.2854 127.533 -2.88058
9.36444 136.461 -6.23584
12.4128 127.774 3.66191
3.86926 134.734 6.67892
16.2293 122.541 6.18175
9.77333 125.665 12.1665
12.4682 123.463 11.3384
6.6691 131.372 7.76605
12.0914 123.456 12.1869
-0.75963 138.273 9.08458
19.5422 119.856 5.40809
14.8237 123.56 7.29885
2.47195 135.931 7.50199
-3.22547 141.987 7.01586
15.4106 123.833 5.84585
4.21876 141.1 -4.57048
5.36057 133.842 6.17374
14.9067 127.189 0.928636
9.74888 126.148 11.9792
9.62212 136.728 -6.39914
-9.73493 153.185 -0.865879
12.869 127.661 3.86739
11.3415 125.347 10.6937
13.4172 131.185 -3.19613
7.45435 130.403 8.82969
-9.92002 152.911 0.14363
14.635 129.193 -1.76948
0.63358 143.289 -1.6297
11.6836 125.186 10.5778
-9.87984 152.917 0.135786
-0.947313 144.593 -1.09276
20.0007 119.708 5.48204
12.5441 133.489 -5.34873
14.0392 125.828 5.48493
-2.34407 146.206 -1.18698
-2.91641 146.938 -1.39982
9.12694 137.507 -6.19591
-2.59351 143.372 4.32452
-8.19791 152.622 -1.92817
-4.66977 149.32 -2.29758
-1.82694 140.754 7.72323
-7.48037 152.352 -2.40846
4.44839 141.534 -4.50535
17.4843 126.88 -1.5481
-4.39581 149.359 -2.11058
2.45532 143.137 -3.30927
-8.59995 153.138 -1.21593
14.9282 125.08 6.43224
13.5261 132.429 -3.92286
13.0955 131.037 -0.685766
20.749 124.134 -2.03857
13.6489 132.234 -3.62995
10.1809 127.415 11.0511
22.1053 122.696 -1.78667
3.13877 142.941 -3.68983
3.47319 136.719 6.6805
7.74833 129.695 11.4807
3.5646 136.714 6.58254
16.9335 128.412 -2.56644
-6.51422 152.25 -2.80636
7.57431 139.607 -5.57796
14.5088 130.694 -2.17912
13.4523 130.412 0.197952
7.77702 129.735 11.4716
3.14907 137.077 6.83593
14.3217 132.459 -4.67354
7.3499 132.761 7.38572
14.7793 126.336 5.49186
-8.95942 153.003 0.822618
-6.38938 152.427 -2.66295
-1.58311 142.063 7.06539
4.26629 142.656 -4.20159
13.5245 131.71 -1.34901
9.55038 128.237 11.8663
7.8507 131.154 9.82097
19.5591 120.998 6.91261
14.9644 125.281 7.61394
8.22316 129.945 11.4835
-1.84706 147.407 -1.30305
21.2591 124.49 -1.92744
7.66023 132.875 7.53127
13.6353 126.43 8.33649
-0.872418 144.38 2.57644
10.7074 137.526 -5.88533
-1.70489 143.444 5.78835
-1.13728 142.284 6.82993
0.113856 140.479 7.91502
17.6753 128.324 -1.84536
13.2207 132.758 -1.69705
22.5826 123.273 -1.54388
11.4708 127.923 10.1923
14.1437 127.589 6.05559
18.1525 127.788 -1.38995
-4.59955 151.332 -2.28136
14.3297 127.239 6.64959
-8.32563 153.331 1.02788
13.4385 132.931 -1.72254
22.0125 120.461 5.12875
-0.174371 146.529 -1.27696
8.00602 131.791 10.1746
-1.70446 148.206 -1.4279
-0.367167 142.027 7.12518
7.71148 133.922 7.13574
14.1485 126.924 8.12449
12.6228 127.724 9.47785
14.4324 132.941 -2.86151
8.02697 131.679 10.8269
-6.91136 153.574 -1.13386
3.19174 139.325 5.98627
12.9633 135.419 -4.46815
13.2139 135.251 -4.46338
12.137 128.272 9.87081
7.86811 141.339 -5.46824
6.60575 142.279 -4.83652
7.9053 133.694 7.98038
23.6787 121.777 0.925423
14.5799 127.896 6.40506
13.647 133.829 -2.24623
11.1623 138.16 -5.40662
1.12777 141.041 7.36204
2.0813 145.572 -2.2981
18.2469 123.903 7.0934
15.9035 126.416 6.89323
20.09 126.791 -1.20206
20.1575 122.07 7.03546
-5.79862 153.369 -1.78609
12.2778 136.44 -4.10314
11.6949 137.462 -4.81375
12.5861 135.037 -1.99068
21.1234 121.325 7.13448
14.7972 134.395 -4.4684
9.57875 140.544 -6.00866
9.40937 130.898 11.2851
0.648795 142.447 6.68249
15.0066 128.066 6.55843
1.85104 141.369 6.55446
13.117 134.74 -1.70272
14.247 129.099 6.23624
2.53299 141.1 5.95193
10.9571 139.364 -5.88338
12.8077 136.363 -3.80912
10.2668 130.795 10.5026
14.1374 134.903 -3.48776
13.9984 134.431 -2.37056
4.3168 139.821 5.47936
23.2629 120.681 5.66167
13.6748 129.645 6.96366
0.106589 144.263 5.36664
13.7109 134.955 -2.33867
6.75165 143.356 -4.7397
9.05576 132.34 10.7182
22.4452 122.388 4.44314
1.39508 147.291 -1.80979
11.0282 131.128 9.58012
14.8294 129.033 6.51426
3.78212 145.768 -3.28719
16.0036 133.931 -4.02663
0.596603 143.967 5.70444
13.2508 129.978 7.94201
3.26734 141.393 5.63262
13.7176 129.94 7.24841
-1.16898 150.072 -1.64555
14.381 135.256 -3.08048
22.7119 122.074 5.52519
-4.42951 153.985 -2.00515
12.7894 136.281 -1.43851
11.232 140.1 -5.37072
7.87382 143.463 -5.31261
22.4677 123.869 3.27697
8.32428 135.343 8.24235
3.42944 146.656 -2.91173
18.3953 130.583 -1.09955
22.3509 123.596 4.2891
6.09622 139.668 4.94644
9.99639 132.921 9.89323
1.62497 143.468 6.25734
22.5839 126.295 -0.738346
9.9828 133.053 9.7949
20.3763 128.467 -0.585754
20.1831 124.136 7.38619
8.17094 137.233 5.72315
18.9874 125.336 7.47624
20.6789 123.738 7.39304
11.711 139.992 -5.19959
0.446981 149.31 -1.52052
-3.12314 153.201 -1.98596
12.1921 139.587 -4.99492
19.7261 129.302 -0.27279
0.829044 145.588 4.80908
22.4254 123.539 5.23563
1.24899 144.94 5.37257
21.7558 125.265 3.61125
22.8266 122.733 6.16927
8.83423 135.141 9.25219
17.742 132.606 -2.11212
16.1834 128.867 7.24389
2.1161 143.937 5.75573
19.1344 125.742 7.58485
0.837588 149.497 -1.61096
19.2128 125.756 7.58251
1.08731 145.847 4.44987
13.1167 136.764 -0.633905
24.8449 123.855 1.30155
8.84829 136.328 7.85259
23.6098 124.604 2.31713
4.13305 142.803 5.07989
22.889 127.184 -0.750112
8.02321 139.048 4.86132
13.3275 137.301 -1.46472
8.91959 136.701 7.46567
9.45881 134.845 9.77733
3.37189 148.013 -2.54698
22.217 126.29 2.36318
1.25024 149.807 -1.71672
23.8947 125.586 0.651651
2.34471 144.602 5.52684
8.84665 137.708 6.26655
21.4988 126.39 3.73688
16.717 135.308 -3.41561
0.914924 150.336 -1.70201
24.4729 124.87 1.38707
3.8109 148.079 -2.707
12.5316 139.811 -3.63627
17.1063 134.999 -3.27687
5.91414 146.621 -3.81628
21.2739 124.641 7.70758
19.6618 130.621 0.176523
21.5629 125.213 6.3464
12.9593 138.512 -1.52815
3.57899 144.241 5.07787
8.42587 145.149 -5.0812
24.0427 125.695 1.44985
14.3199 132.022 7.68997
9.92444 135.505 9.49056
9.55736 136.047 9.24262
3.23579 149.032 -2.33718
-0.420442 152.591 -2.0293
21.2547 129.771 -0.392771
24.3794 125.792 1.07317
6.47853 141.989 4.53133
18.2731 133.774 -1.96457
-0.436805 152.716 -2.03151
8.15654 140.344 4.46875
14.9439 131.669 7.69304
17.578 135.058 -2.93175
5.40268 143.156 4.62992
9.02669 139.053 5.49706
5.39452 143.236 4.60636
14.4373 132.454 7.6679
9.83463 144.363 -4.95972
5.25542 143.691 4.50988
5.6347 147.873 -3.47694
18.5542 133.826 -1.70939
16.3535 136.877 -3.0577
17.7175 129.335 7.7913
-1.34341 154.244 -2.03144
15.6373 131.454 7.89331
12.6609 141.312 -4.04917
22.0468 127.937 2.82613
11.4959 142.724 -4.33886
0.636183 152.369 -1.9416
21.1025 127.99 4.76314
11.1611 143.34 -4.49665
14.4823 133.057 7.74455
18.5604 134.738 -1.95801
12.2036 142.434 -4.05331
8.77906 141.13 4.66893
12.2717 142.55 -4.0327
3.50097 150.413 -2.24566
20.706 127.706 7.34853
12.7974 140.363 -0.858476
-0.105123 154.108 -1.96097
14.0046 134.429 7.67785
16.3469 137.974 -2.63152
19.4568 133.708 -0.359557
7.48201 143.426 3.85583
12.4179 141.524 -1.55757
14.917 138.844 -1.22516
3.69011 150.842 -2.27432
8.02821 147.61 -4.29051
12.7329 142.608 -3.6088
0.389538 154.107 -1.88487
14.7641 134.196 7.60283
19.9111 133.117 0.379785
14.8945 134.216 7.51967
8.83631 142.254 4.14997
18.4826 136.088 -2.14282
19.5711 133.955 -0.294765
21.0827 129.773 4.38956
22.4005 130.183 1.52118
19.8697 133.48 0.359513
7.46167 148.454 -3.89177
12.6737 143.118 -3.51925
2.37272 152.705 -2.01982
8.93416 142.737 3.9772
13.8696 140.405 -0.600934
13.0856 141.088 -0.075849
21.132 129.446 6.14825
11.2881 138.298 8.2065
12.5766 142.571 -1.58954
14.4718 140.163 -0.720481
21.1382 129.944 5.42198
10.2728 146.641 -4.49389
21.3497 130.97 3.45269
19.7556 134.677 -0.101612
6.55343 149.847 -3.28347
18.8916 131.686 6.74116
6.07302 146.442 3.62014
15.131 135.285 7.33157
6.74081 149.901 -3.33036
11.6869 138.501 7.96857
12.1901 138.097 7.82006
13.6126 141.159 0.101251
5.86037 147.148 3.52965
11.4954 138.896 8.04111
2.85673 153.337 -1.86967
20.834 130.663 6.16242
14.5335 140.864 -0.294183
22.1513 131.582 2.62061
5.83725 151.377 -2.71596
17.7277 138.704 -1.43164
6.83862 147.382 3.21183
13.2868 138.388 7.59425
18.6934 133.637 6.47509
6.39224 148.091 3.12235
10.9733 147.042 -3.02537
9.55977 148.892 -3.45135
16.8064 136.045 6.49652
16.523 136.319 6.55376
20.4205 132.778 6.15108
19.3344 138.003 -0.876997
10.2349 144.319 4.53221
18.3031 139.321 -0.984028
21.6341 133.258 3.85486
12.0234 146.786 -2.42689
22.523 133.131 2.98952
18.333 139.645 -0.830067
9.42542 149.692 -2.58918
13.7212 143.444 0.781529
5.63575 153.287 -1.79202
10.4007 145.096 4.1784
8.33631 151.276 -2.84871
14.7635 139.117 7.24233
19.652 134.92 6.02437
12.7526 146.395 -1.89266
4.4568 154.6 -1.48456
16.7079 142.24 -0.873369
13.9504 140.67 6.79449
