ply
format ascii 1.0
comment Created by Open3D
element vertex 1901
property double x
property double y
property double z
end_header
10.6014 114.078 4.73172
9.61441 108.623 9.57178
-13.5833 81.2318 -5.64126
17.3382 124.858 5.65925
2.85025 101.475 4.10799
15.6835 126.102 0.577521
17.8074 123.828 8.08835
17.3474 122.801 8.41512
-7.31392 93.8475 -7.9811
-2.95167 87.1371 9.92822
-1.40062 104.278 -8.44244
14.7433 129.119 -5.14148
-13.7688 77.4711 -1.05723
6.80086 112.296 -0.815232
19.3101 126.833 7.72105
-14.8457 76.3965 -1.89883
-1.26855 92.7263 6.66012
20.818 130.752 6.02917
8.56916 104.643 12.8362
-6.90182 94.6407 -7.79832
14.2879 126.425 -2.43021
12.9978 124.738 -3.03701
18.0981 126.451 5.78659
-1.22026 104.8 -8.3524
21.3316 135.583 1.25328
19.4397 127.276 7.7164
0.534974 96.0738 6.58438
12.9356 124.056 -2.18719
-6.50609 95.4796 -7.8292
-14.9546 75.2372 -0.330447
-14.4784 77.2582 -1.85346
9.7892 115.003 2.58515
-13.9537 77.7881 -1.36598
18.9219 126.939 7.12861
9.15493 105.557 13.2292
-11.4149 86.5512 -6.972
-13.6329 78.5044 -1.52524
17.3522 128.726 1.56958
20.6677 130.877 5.99244
5.17731 112.19 -3.63861
10.7567 121.528 -3.43527
14.0796 126.907 -3.02883
-4.52603 86.1562 8.58368
10.4982 115.685 3.50482
14.492 126.177 -1.1404
15.4797 123.996 3.75576
7.28122 113.042 0.0631275
15.8029 118.298 11.7628
-1.43245 104.95 -8.42719
4.23837 103.474 5.6938
-1.64104 104.645 -8.45413
16.4878 121.847 8.80995
-1.72709 90.1995 9.7197
0.539779 96.4326 6.70011
13.4293 125.646 -2.57741
-14.3821 77.8875 -1.90875
-14.069 78.9389 -2.49247
1.57588 99.432 5.22944
3.42659 102.524 5.302
0.781443 97.5621 5.9279
-14.5094 80.4664 -5.32374
8.94714 105.318 13.7099
0.241741 95.0577 7.97496
1.75082 99.8714 5.12337
-7.96339 81.7144 7.28724
4.78676 106.364 3.5787
15.2252 126.563 0.575892
-9.92668 79.0559 6.65966
-15.3968 75.612 -0.73878
15.2753 127.269 -0.151816
-14.9551 79.9265 -5.20212
4.4556 104.019 6.07663
5.78871 112.535 -1.82911
-3.91564 101.231 -8.38623
13.3082 125.055 -1.47148
-13.247 74.8891 4.96248
-2.21939 89.5844 10.1019
14.335 126.37 -0.885038
15.0347 124.344 3.20069
0.893298 98.0102 6.14167
16.5095 125.608 4.79283
16.3372 125.941 4.07546
-14.4846 79.6243 -3.54605
10.4597 116.655 3.23544
-10.2723 90.5149 -8.25341
0.432902 96.2966 7.49481
16.377 132.563 -4.13725
14.2823 127.389 -2.08388
12.3392 125.099 -3.3118
15.8594 128.247 0.297293
-15.5763 75.9132 -0.966153
-6.38097 97.9123 -9.02879
-5.08909 99.7204 -8.50247
10.5495 108.395 14.2699
13.291 128.334 -5.09302
10.2794 120.101 -1.11021
-0.805865 93.9886 8.23543
-6.35595 85.0192 7.72106
5.53284 109.563 2.21811
4.60867 113.472 -4.70844
14.2561 127.122 -1.21483
14.9468 130.958 -4.58236
9.69726 111.136 9.26142
9.33398 109.735 10.2646
-8.37911 82.1251 7.15631
7.73941 114.562 0.759288
7.64536 114.479 0.698083
4.99489 108.559 2.50132
18.6587 136.954 -4.04532
16.6437 123.183 9.08034
9.58095 116.411 2.47262
16.1887 122.279 9.2865
11.0331 109.714 14.141
-15.413 77.8798 -2.45848
15.8271 129.013 0.0067304
0.86635 97.9224 7.21607
-2.85807 103.891 -8.37166
10.0728 120.871 -1.96116
1.01098 98.3629 7.06681
12.0637 126.106 -4.30338
-8.02148 95.3841 -8.60535
12.2735 126.858 -4.74738
-6.80066 97.887 -9.08843
-15.8582 76.504 -1.4795
-0.343113 94.5652 9.0634
6.06396 113.363 -0.949801
-0.730359 107.116 -7.64329
10.5323 115.019 6.61235
1.12086 98.8796 6.82599
-10.8609 90.2571 -8.04788
9.2366 109.801 10.4752
17.8971 126.791 7.59772
9.63967 116.848 2.42724
19.7254 132.836 3.88157
4.79147 112.964 -3.05251
-8.89588 81.8121 6.99717
4.3779 105.309 5.86024
9.89014 121.365 -2.57225
-7.22569 97.4787 -9.10702
16.3136 130.511 -0.206193
9.98785 108.678 13.9253
2.65988 101.897 6.73907
1.28521 99.6051 6.74401
15.9631 125.13 5.99974
15.6472 124.816 5.73849
4.61526 107.023 4.5711
-11.149 90.1202 -7.94467
19.5784 131.917 5.28708
11.75 111.914 13.8288
4.75719 107.808 4.00018
1.19323 99.0977 7.3876
10.6887 118.123 3.72672
15.8539 126.077 4.79834
7.71861 115.328 0.91715
-8.39661 95.7421 -8.96134
10.4746 115.343 6.93461
4.99052 109.483 2.70175
13.9251 125.155 2.08066
13.1722 127.242 -2.16699
8.2857 116.96 0.357503
-7.61792 97.4817 -9.16567
-4.93326 101.441 -8.32144
17.7847 136.807 -4.1976
13.2815 129.248 -4.23163
20.7649 136.84 2.26699
1.1109 98.8437 8.11782
16.6433 129.719 2.47977
-15.5483 74.8322 2.75269
8.37468 117.926 -0.33428
-16.2751 76.8061 -1.28566
19.8572 139.203 -2.50131
-5.76238 100.438 -8.48199
16.0938 130.922 -0.00580777
15.3009 128.019 2.11388
15.0493 121.306 10.0872
16.9 136.017 -4.56658
14.766 119.208 12.1642
12.8862 129.179 -4.41648
0.474253 109.986 -6.80444
4.70997 108.24 4.56511
10.0872 123.957 -3.77924
-16.23 78.0087 -2.20401
15.7551 126.147 5.67404
9.55287 121.803 -2.08208
13.0339 115.262 13.7408
4.82705 108.947 4.06961
-15.3731 74.2834 4.52307
-15.5347 74.2681 4.24842
10.551 116.545 6.84154
-15.5589 74.2119 4.30833
-4.75252 88.9499 8.89986
19.101 132.122 5.54406
15.4629 126.072 5.39997
14.2853 125.459 3.65262
9.54977 122.543 -2.84065
6.27125 114.671 0.105779
9.78235 114.025 8.54144
19.9232 139.857 -2.3074
11.067 126.637 -4.6047
-1.98905 106.643 -7.3424
20.1953 135.968 3.27515
-12.0345 79.2068 5.83402
-15.7951 74.4232 3.80603
-5.0543 102.723 -8.93555
-7.40348 85.8864 7.36611
11.9966 127.971 -4.19263
0.025207 97.1281 9.16356
15.6486 131.923 -1.29246
19.1599 130.891 7.61947
19.2772 133.869 4.09887
-15.391 80.1778 -2.45084
16.0375 131.08 0.748954
-0.637582 96.1064 9.27718
12.5436 127.726 -2.40625
13.1547 116.106 13.6702
-12.9804 87.54 -6.37933
-16.3789 76.9285 -0.137362
12.7667 115.476 13.7797
12.8694 130.288 -4.77212
14.4379 119.566 12.2112
14.5303 130.532 -1.48783
-6.81166 87.5061 7.10725
11.8655 128.667 -4.80889
13.1217 126.674 0.439718
13.112 128.241 -1.52926
13.2631 130.238 -3.73416
-15.652 82.5731 -5.56419
11.3761 128.047 -4.92046
15.5524 127.282 5.0852
18.8008 133.037 4.81363
12.9149 130.509 -4.58564
17.1106 128.786 6.65763
15.7176 129.899 2.32194
15.8968 125.014 8.91566
4.61735 108.685 5.34054
10.917 119.314 5.43826
15.5282 127.064 5.57245
-8.60621 97.8144 -9.325
10.8345 112.537 13.9238
-15.6601 82.0161 -4.40666
17.4731 129.2 7.13879
15.1614 126.403 5.72334
4.47296 108.127 5.8965
-0.924861 96.2972 9.348
15.2314 130.089 1.30682
-15.7641 82.9784 -5.71934
15.5601 132.096 -0.43282
14.8199 125.911 5.82486
-15.652 80.7538 -2.5444
12.8986 130.807 -4.49286
12.2036 115.135 13.8857
-8.99521 84.3959 7.23221
10.9593 119.695 5.48551
10.7373 118.606 6.41004
16.0637 130.154 3.247
13.9081 128.193 1.0938
-16.7409 77.9368 -1.14083
10.3624 112.3 13.6712
14.9569 128.573 3.0185
15.363 132.822 -1.4579
9.05807 122.98 -2.53865
6.72404 115.646 1.76941
4.64748 109.349 5.32046
-10.691 94.5117 -8.87403
12.0986 129.885 -4.63085
10.2326 121.009 2.61025
16.8888 137.371 -3.7692
-16.7659 79.1172 -2.35208
-12.0876 91.4288 -7.8827
12.5177 131.124 -5.18976
-2.10354 107.585 -6.80672
11.3209 114.124 13.8455
12.7055 128.107 -0.883505
9.40351 124.565 -3.48723
13.9988 129.486 0.253042
19.8796 141.133 -1.83847
7.79493 117.899 1.61178
-6.20767 102.017 -8.35594
-6.96398 88.3547 7.34271
-12.7829 89.9984 -7.26446
19.3779 135.768 4.00128
15.8813 126.558 8.14922
-3.70525 91.0285 11.0211
3.70018 115.009 -3.38225
0.890135 100.554 8.91683
12.7372 128.732 -1.29241
19.546 136.582 3.45157
14.0872 134.243 -5.3296
21.0408 141.996 -0.13936
-6.29151 102.054 -8.35527
-11.2425 93.7855 -8.53301
2.27071 114.477 -5.62864
10.4916 118.418 7.0859
12.0301 130.75 -5.20116
12.9928 131.47 -4.00045
-2.09982 94.771 10.0403
19.1784 135.426 4.33002
3.1808 115.536 -4.90095
-4.49403 105.075 -8.02971
10.6097 119.066 6.77519
14.2363 132.072 -1.90326
9.19094 124.547 -3.22004
14.1504 126.888 4.51362
-15.0282 77.8929 3.79421
7.29002 118.687 0.312203
-8.23236 99.9031 -9.25954
18.311 139.808 -2.67061
20.8717 140.779 1.64105
12.6804 128.163 0.0883705
15.3734 134.248 -1.82053
-6.28389 102.968 -8.80241
14.7934 133.421 -1.99992
-16.9515 80.0381 -2.59985
12.2428 129.798 -2.67085
-3.03821 92.974 11.1442
15.0282 134.058 -2.03662
-9.00734 99.0613 -9.43353
-0.926446 110.295 -6.20434
8.44166 121.123 0.29036
8.88485 122.539 -0.481483
13.3831 119.489 13.0973
-6.61105 102.612 -8.55594
15.8169 127.318 8.60739
-17.156 78.6704 -0.69577
5.74358 116.67 0.538117
-8.92984 99.6104 -9.40965
0.70354 101.93 8.45036
0.136597 100.651 8.87293
14.6844 132.024 0.441142
-9.50602 98.7526 -9.43787
20.9859 142.941 0.252055
-17.2924 78.9656 -1.06746
10.4546 119.716 7.05821
12.7709 132.7 -4.38544
-16.8485 77.714 1.5394
20.4457 140.357 2.47646
12.1764 130.118 -2.30957
-14.1779 79.6739 4.90719
9.2684 115.857 9.55366
9.064 113.526 12.1099
3.27147 107.175 7.69647
10.4625 119.917 7.03129
10.2751 119.293 7.46088
-11.6927 83.0513 6.12566
-6.71953 90.1881 7.82079
11.428 116.572 13.4702
-2.13822 96.4471 9.77474
6.7089 117.626 1.99822
9.55357 122.375 2.11104
-1.49245 110.035 -5.99267
12.7108 129.191 0.368429
4.44106 111.526 4.99485
18.8888 137.207 3.62109
-7.49395 102.033 -8.5965
18.0589 140.463 -2.28029
10.6471 123.859 2.86053
-12.0528 93.9623 -8.12189
10.0758 123.497 2.13517
14.7019 133.572 -0.670469
8.05942 121.424 0.498213
7.68691 119.758 1.81081
-17.297 78.7611 -0.00652145
9.44951 116.902 9.24666
14.4702 126.178 8.31416
12.3698 133.092 -4.97731
1.92354 115.618 -5.27508
4.38158 111.541 5.29573
12.7578 134.289 -5.43135
8.66858 121.68 1.76264
14.0088 134.687 -3.22768
7.25563 119.225 1.85285
6.82335 118.328 2.09614
-15.782 85.6611 -5.12097
7.88172 121.353 0.649529
4.47394 112.264 4.84698
8.9739 114.819 11.4548
16.4937 139.191 -3.22735
16.0462 138.719 -3.55367
6.45557 118.771 1.11396
-7.8796 102.185 -8.72599
-0.17518 113.075 -5.88861
-10.4694 85.7105 6.6682
-1.17119 99.4116 9.44207
8.24615 123.97 -1.38317
18.0635 135.819 4.78635
15.6909 138.558 -3.66363
-7.47368 103.151 -8.62674
16.4871 131.091 7.61868
3.29894 108.314 8.11746
11.1445 124.954 3.94097
5.06186 118.115 -0.474131
-1.60758 110.914 -5.69007
13.9752 125.807 9.04491
-17.3468 78.7749 1.22604
13.6208 133.776 -1.77096
5.32813 115.817 3.1428
11.2401 131.827 -4.40093
-4.19349 107.585 -6.81295
-5.61778 106.124 -8.02819
18.0155 141.611 -2.10446
-16.8608 78.322 3.09881
15.3832 128.828 8.53239
15.3769 129.458 7.73627
11.277 124.778 4.86898
-1.20342 100.299 9.04701
-14.6311 89.8725 -6.57899
-15.5325 79.9288 4.17552
-3.70329 108.355 -6.38187
12.7913 129.72 2.15078
12.1849 131.191 -1.00901
12.9248 121.756 12.5823
12.7782 129.719 2.17694
4.20288 112.29 5.87016
-10.5472 99.3205 -9.3799
11.1578 126.151 3.46157
9.59876 124.853 1.81945
13.5572 125.947 8.98917
9.26495 116.592 11.6284
0.3459 104.487 7.76795
13.8675 135.44 -2.33111
-16.8548 78.9754 3.1779
1.26798 116.279 -5.08192
12.9742 122.772 11.9176
-17.8848 79.6992 0.0655943
8.95571 128.143 -3.54066
-4.80786 93.0331 11.3886
-16.7638 85.5994 -4.92441
5.95499 118.137 2.78798
-2.38827 110.618 -5.64817
15.2655 129.66 8.24408
-16.4732 79.5996 3.37194
13.7923 136.467 -3.54411
12.6395 132.911 -1.46215
14.8667 137.378 -2.31077
18.9593 139.377 4.01194
-16.5494 79.7498 3.16065
-1.24772 112.469 -5.36024
-16.9601 79.3761 2.7646
-16.5094 79.8121 3.18288
6.55778 120.449 1.34489
13.8 134.479 -0.75154
19.3592 140.376 3.7795
-14.05 92.5336 -7.50728
12.2988 131.336 0.0831199
11.1734 125.244 5.39179
6.33507 120.156 1.42018
-12.8402 94.9394 -7.90513
6.67073 120.157 2.17301
12.5208 121.872 12.6032
10.7089 126.791 2.46229
6.94412 121.648 1.00408
-17.7787 84.144 -4.68458
5.81161 118.148 3.02449
17.7603 137.568 4.14186
13.2878 136.474 -4.10134
0.948973 106.032 7.94475
-15.3999 81.1899 4.24543
-18.0805 82.2964 -2.86785
8.39294 123.858 1.5332
-16.7139 80.5321 2.41665
17.485 136.98 4.54845
16.5671 140.991 -2.44384
-16.3121 81.175 2.65403
-16.9718 80.7036 1.83089
3.77945 118.649 -1.5582
-5.83479 107.272 -7.79651
8.96116 117.695 10.8728
11.2931 127.169 3.92342
13.3719 134.319 -0.653655
7.63473 123.432 0.809048
10.7495 119.152 12.9505
3.90875 118.807 -1.33568
19.3421 141.098 3.65366
-9.97281 89.1221 6.44552
12.9138 126.064 8.91522
2.23815 117.989 -3.8282
13.2272 136.659 -3.81894
-16.709 86.9599 -5.28144
12.3004 122.326 12.3796
13.694 136.887 -3.06136
7.59395 123.978 0.246987
11.8017 121.191 12.8904
-8.39624 104.177 -9.01303
-14.2198 93.135 -7.54782
14.4203 137.649 -2.28763
5.97793 120.404 1.47671
8.91902 118.324 10.4629
13.7181 136.326 -2.00309
18.8847 140.326 4.05927
-17.0458 86.4965 -5.08127
10.9998 133.734 -4.49567
-16.8891 87.0735 -5.29686
5.89227 119.109 3.17286
3.47596 119.322 -2.08207
13.722 136.604 -1.92394
8.73483 129.463 -3.54279
-6.28371 92.9515 10.4584
7.65008 123.382 1.93016
14.0095 128.387 9.3499
-7.93798 92.2152 7.95385
7.16277 122.268 2.44388
-7.90085 92.301 8.07635
4.13171 113.674 6.9059
17.0749 137.619 4.50761
13.5608 135.731 -0.627412
9.11194 126.406 1.65843
7.52552 126.027 -1.21239
-1.909 102.535 8.26842
11.9185 123.777 11.1625
-6.04385 93.3849 11.0318
9.05068 119.382 10.6123
16.8682 137.268 4.77902
-14.3885 83.8696 5.20768
-12.7974 97.2729 -8.2333
16.2559 134.698 6.92639
10.788 129.21 2.18932
7.56864 127.434 -2.47983
7.23811 123.11 2.31892
-10.2953 90.2206 6.38291
3.565 120.233 -1.81363
-7.76196 92.8002 8.61697
3.84822 120.322 -1.20541
11.6695 123.417 11.7293
13.8631 138.243 -2.32919
11.6428 123.392 11.7691
-14.118 84.8538 5.15052
16.3422 135.987 5.99811
13.5968 138.89 -3.50738
5.1625 117.366 5.64201
-18.1924 82.2438 -0.117573
14.0371 139.013 -2.65954
-15.7424 83.3361 3.97604
-15.2455 93.185 -7.42972
2.03886 109.835 8.76239
-3.36167 100.375 9.18043
7.39274 126.97 -1.32789
-15.8765 83.3862 3.81766
0.731582 107.675 8.80891
13.3413 137.397 -1.71657
-6.69387 93.7943 10.4709
13.1399 138.635 -3.62376
-0.631854 105.845 8.36687
13.6559 138.607 -2.38425
18.8716 142.888 3.48789
3.64522 113.28 8.35448
6.63935 124.002 1.2496
-14.6458 95.101 -7.86964
-16.9126 83.1629 2.38723
1.53276 109.623 8.67161
-6.76807 94.1182 10.4898
-15.8964 92.5519 -7.08115
9.57139 133.448 -3.99383
-7.45532 107.879 -8.18348
9.01348 121.739 9.80194
-10.5661 91.0734 6.63852
-17.9414 87.9318 -5.20776
9.4227 133.431 -3.94778
-10.3875 91.2955 6.81137
6.56424 123.05 3.0908
4.9648 122.053 0.933387
5.09188 122.151 1.09228
13.0518 138.284 -2.12704
-4.74905 111.067 -5.88129
-18.1029 83.9062 -0.189643
6.17305 122.207 3.57626
-16.1613 92.5108 -6.86466
15.4564 135.254 7.12409
-18.4744 84.6423 -1.69447
6.15931 124.081 1.36872
9.42281 123.83 8.72114
7.86656 126.387 2.14473
11.3101 132.59 1.74465
3.44967 113.561 8.97015
11.4878 138.393 -5.20297
13.9224 131.688 8.60441
-18.3676 84.7146 -1.38298
-8.78567 107.104 -9.12941
8.85336 132.593 -3.41291
7.06568 127.761 -1.12823
1.38203 120.1 -3.56099
11.3562 130.88 4.27878
15.8773 136.97 6.32879
-13.1329 99.6834 -8.86781
12.357 128.345 9.74718
1.28068 110.376 8.85713
1.65362 120.504 -3.09435
-3.84219 101.662 8.97318
11.0526 126.222 9.95921
10.0781 126.41 7.74483
5.30888 119.979 5.65663
-13.1976 100.119 -8.90326
12.3618 128.915 9.65122
-2.93176 104.016 8.30275
8.90917 133.76 -3.87639
11.5681 139.548 -5.334
-18.0215 85.5035 -0.512518
4.52275 117.433 7.64058
5.56501 121.41 4.8815
-13.4323 88.5643 5.61159
2.87082 113.374 9.29112
-1.46749 106.42 8.82012
10.2787 132.111 1.73229
12.8022 140.365 -3.29236
-1.45389 116.602 -3.83199
18.3952 145.962 1.74094
15.2235 142.99 -1.24374
9.52086 135.816 -4.40662
-0.537829 118.208 -3.62891
18.1541 144.897 2.96101
17.6839 143.094 4.31265
0.903561 111.045 8.84304
11.6881 134.384 2.48924
17.8371 143.657 3.98997
9.44317 123.859 11.0351
15.1187 143.043 -1.0601
-13.1084 89.5466 5.97613
10.8192 130.946 5.09603
-1.47965 107.298 8.71915
6.34692 126.551 1.17593
5.42168 121.208 6.01932
-10.2177 106.804 -9.39369
17.9106 144.297 3.67258
2.35371 122.587 -2.29225
-4.22529 113.623 -5.05911
-17.4929 86.4713 0.93439
-1.82461 116.672 -3.52885
5.32113 120.818 6.62243
6.56238 127.993 0.21177
-14.7582 98.4247 -8.05931
-0.884416 108.906 8.61743
-18.3462 89.0082 -3.72535
13.315 133.065 8.70265
-9.8409 94.4459 7.80931
11.0591 132.963 3.99945
4.86993 119.662 7.53477
10.7305 127.678 10.0053
-16.419 94.9055 -6.8911
0.390243 120.759 -3.45099
-4.1536 103.531 8.62254
8.04186 133.901 -3.58618
17.8708 145.902 2.39027
-5.85114 99.6069 10.0103
-10.199 107.624 -9.43512
10.5256 131.085 5.48648
11.0951 128.756 9.89242
14.3813 136.446 7.21977
15.6011 140.283 5.04269
-16.4384 86.9423 3.68144
-1.1977 118.35 -3.28874
6.3316 129.807 -1.5458
12.3692 140.243 -1.77145
17.014 143.129 4.62248
-18.1648 89.9192 -3.65465
-17.9295 91.6039 -5.21762
15.1345 138.557 6.63399
-18.4345 88.4324 -2.07586
-8.61814 110.395 -8.75854
15.4204 140.169 5.30334
-14.9626 88.4963 5.38837
-15.605 87.9323 4.82994
3.62497 124.321 0.140085
6.31626 129.622 -0.782713
-17.0167 94.4987 -6.50254
2.49071 115.02 9.53304
15.7488 145.11 -0.0447279
12.1363 141.878 -3.7249
4.64834 120.103 7.82089
14.6602 137.851 6.96468
13.1059 133.869 8.77617
7.59877 129.044 3.04531
2.79412 124.273 -1.24287
9.86854 129.902 6.86036
7.57579 128.996 3.10693
0.191375 121.312 -3.05108
-5.92013 114.14 -6.92565
15.0587 144.206 0.168018
-16.0904 87.9573 4.39969
-17.1002 94.8216 -6.46848
13.9045 136.646 7.29112
-17.7184 91.8773 -4.03268
-16.071 88.0464 4.41524
-17.3369 88.7039 1.03395
11.6732 131.616 9.12435
-4.13393 105.089 8.71179
5.79048 127.752 1.36118
-17.3337 94.3426 -6.03444
10.1818 128.619 9.83636
6.04988 128.888 0.594641
10.282 129.051 9.55142
7.55756 134.854 -3.62815
10.2708 135.074 1.94
7.20907 128.238 4.10339
-15.3088 89.3331 4.96743
5.98063 125.415 5.08867
9.65844 129.828 7.43136
6.13817 125.827 4.97376
12.3673 142.885 -3.22778
11.1153 134.672 4.53443
3.9331 125.474 0.770819
-16.3296 97.5303 -7.37389
-13.6205 103.463 -9.04575
6.45269 132.086 -2.04038
-15.8053 89.0308 4.62459
4.3295 126.046 1.06853
13.3857 142.415 -0.15417
10.522 130.002 9.44338
-8.86943 111.575 -8.83989
2.79576 116.91 9.54276
-10.2693 95.6232 8.44288
-16.5662 88.583 3.8535
-15.3119 90.0468 4.77141
7.63519 129.788 3.95883
-2.1571 109.479 8.63046
-15.4296 90.1828 4.63385
-1.02759 111.537 8.62421
1.2589 123.454 -1.55308
-1.88106 110.136 8.57407
-6.62883 114.593 -7.28698
11.4645 132.826 8.57661
9.19759 139.967 -5.34908
12.4068 143.564 -2.95749
1.84307 115.603 9.75078
7.92524 136.985 -4.17375
5.80076 130.782 -0.844124
-10.8031 109.374 -9.44694
-8.00437 97.8154 11.2717
-3.35677 107.532 8.99216
9.32578 133.991 2.77812
16.268 147.819 0.197333
10.468 133.587 5.77791
10.541 131.3 8.97189
10.4316 133.519 5.9337
-10.8919 95.6862 8.00572
-6.76457 100.761 10.4757
-16.6914 97.7389 -7.05703
1.68687 124.51 -1.34425
-11.2711 95.5204 7.61949
15.5784 147.356 -0.165025
6.75451 128.027 5.33977
5.90316 132.356 -1.97521
-17.0928 96.7826 -6.40232
-18.0268 93.7741 -4.58194
10.4649 133.817 6.07152
4.19608 121.339 8.42298
-1.00495 112.221 8.83083
8.06711 132.417 2.88062
4.26186 121.625 8.41046
1.04416 115.074 9.8243
10.1084 132.645 7.07014
9.41003 135.338 2.1708
-16.4046 90.1239 3.91761
12.8764 143.159 -0.25206
7.76491 130.752 4.47353
2.66025 126.265 -0.831881
-7.58671 114.381 -7.83231
-10.9606 96.0787 8.31807
2.24909 117.877 9.18624
13.0767 137.548 7.59286
7.10525 129.161 5.39243
11.0245 133.532 8.30498
10.0479 132.702 7.39381
-7.19158 100.72 10.869
11.0419 135.698 5.80557
10.0127 131.924 8.38459
-10.6292 110.873 -9.36802
9.90048 132.357 7.73003
0.475021 114.722 9.80294
-16.8753 90.1742 3.59455
-5.54322 105.151 9.01668
-7.53348 100.019 11.3018
6.71524 128.504 5.88978
-12.8278 107.236 -9.16585
-13.4751 106.098 -9.11481
-7.05381 101.529 10.645
-13.8009 105.552 -8.95898
-16.7818 90.618 3.59496
-1.25566 121.432 -2.02279
6.63989 136.12 -3.63834
0.731031 115.638 9.65734
15.5179 144.551 4.89043
13.8004 145.198 0.463845
-11.3607 110.25 -9.39169
2.34318 119.239 8.76551
0.801252 124.368 -1.0378
-17.8559 92.4084 -0.62425
10.1117 133.397 7.73468
-17.9107 90.8016 1.38775
-16.3661 100.426 -7.4906
11.5984 142.958 -1.14036
15.7614 148.419 0.968567
4.75424 129.47 1.30552
-13.9059 93.8173 6.33588
-1.58364 112.685 8.96874
2.06401 119.131 8.68026
15.0622 147.944 0.156645
10.5879 134.106 8.16481
-13.5781 106.801 -9.22441
11.7983 143.688 -1.31891
-8.16505 115.069 -8.02611
-16.9688 99.266 -6.92196
11.6843 143.195 -0.853562
5.77003 126.909 7.07066
1.36284 117.919 8.99668
8.16645 140.524 -4.93815
9.13277 142.722 -5.61937
-8.73109 99.1977 11.1999
10.2178 138.795 1.84174
6.81708 130.184 5.48044
0.847539 125.042 -0.851881
-17.9307 96.5222 -5.13649
6.54782 129.503 5.81884
10.7347 134.807 8.11756
12.247 139.877 5.01105
2.10178 119.819 8.67791
-17.7204 93.8221 -1.03806
11.3671 137.246 6.57687
-3.27047 119.791 -2.80739
-0.680833 123.151 -1.3755
-15.3706 93.0975 5.19503
12.1752 139.686 5.52093
13.1273 139.542 7.80856
11.2534 145.628 -3.91289
11.2002 136.264 7.87627
11.826 137.03 8.2568
-17.7882 91.9905 1.72877
-15.5398 103.35 -7.79684
11.9496 138.495 6.92619
-9.70215 98.7679 10.7223
3.47888 122.489 9.04335
15.0538 145.355 5.02642
11.871 137.69 7.89481
-1.30608 122.654 -1.42029
5.52145 127.332 7.3799
13.3158 146.147 0.334305
12.3402 144.983 -0.281723
5.98006 136.674 -3.43592
10.1047 139.471 1.93975
-17.3285 91.9016 3.17705
-12.4308 96.5717 7.86422
13.262 146.319 0.136574
-2.66308 112.479 8.78562
6.04546 129.222 6.32435
11.8059 144.512 -0.643522
-10.8043 97.9952 9.70882
0.301785 117.332 9.11987
13.7612 143.115 5.44752
-7.51882 102.623 11.0242
10.8285 146.083 -4.54729
-3.45633 111.383 8.69385
-17.6074 92.0003 2.82623
6.59454 130.955 5.71976
6.39286 130.608 5.83257
1.60313 120.501 8.37026
14.2508 148.07 0.670365
14.2031 147.964 0.717884
12.9159 147.091 -0.882127
-6.46208 118.563 -6.42638
13.1597 147.449 -0.777754
12.7037 139.867 7.89699
-17.7764 92.825 1.92076
12.6842 139.936 7.81593
12.758 147.112 -1.09803
4.03576 130.488 1.22493
-5.14839 120.285 -5.4906
-17.763 98.7664 -5.36954
7.7481 141.79 -4.8864
-6.08137 107.215 9.18011
10.6442 146.517 -4.54976
-4.00357 120.461 -3.04429
5.49822 136.09 -2.38273
15.2468 148.073 3.47859
5.2305 135.112 -1.57195
-17.4045 100.574 -6.51447
-16.7204 93.6002 3.8221
-14.751 106.482 -8.26333
5.09704 127.505 7.83556
15.1341 149.94 1.01152
13.1828 147.794 -0.445373
15.2996 148.906 2.74129
12.5273 140.6 7.34072
-12.578 97.2369 8.31952
-17.962 97.9575 -4.19347
-4.22923 121.142 -3.99935
-12.3052 97.5104 8.58551
9.72585 145.613 -4.93508
11.635 141.119 4.90328
7.74983 136.508 2.48953
-9.85287 115.324 -8.56216
4.98749 134.285 -0.624172
-2.86682 122.041 -1.98313
5.05118 127.835 7.85019
11.5853 141.261 4.91071
10.6636 146.581 -3.76788
-12.3927 97.6788 8.59319
-15.6907 94.4336 5.66044
-17.8944 98.4335 -4.10708
-9.93655 100.208 10.9175
-17.3604 93.5791 3.33793
-6.5189 107.249 9.51668
-6.9135 106.337 9.82237
14.4454 146.844 4.47155
6.30256 139.784 -4.03409
-15.3894 95.1825 5.85128
3.26941 124.523 8.87456
13.7292 148.554 0.939508
-16.5273 94.3724 4.5049
3.97742 125.902 8.7443
-18.0569 96.3175 -1.16938
-17.0632 102.318 -6.59887
-7.66943 104.648 10.8543
-17.7779 95.4331 0.766132
0.00475718 126.532 -0.273697
4.83849 128.193 8.04826
-18.1259 98.0824 -3.14792
-5.53408 109.837 9.08813
1.64218 122.754 8.20686
-0.971316 125.526 -0.871502
5.79829 139.112 -3.51168
10.2204 141.908 2.47712
7.45512 136.603 3.3269
-17.9398 100.651 -5.72618
7.47706 136.895 3.10016
-17.7843 94.8849 1.96549
1.55979 128.895 0.615347
-7.07678 119.487 -6.0585
-14.113 97.1078 7.34889
10.7971 142.039 4.08055
-3.03665 123.125 -1.7079
-8.68535 118.223 -7.59145
-15.384 106.762 -7.28478
-6.44855 108.672 9.59622
-8.30054 104.486 10.9786
4.28258 134.309 0.302028
1.56083 123.494 8.20639
-0.833178 126.38 -0.517586
-3.86837 123.35 -3.21205
10.0477 142.758 2.21159
13.5175 149.617 1.01086
-10.2955 116.421 -8.18136
13.6289 147.388 4.15024
2.5984 124.69 9.19148
1.39016 129.38 0.654948
7.77225 139.149 2.06445
9.52898 142.474 1.69686
10.8049 142.727 4.28607
7.82977 139.528 1.95419
-8.66974 118.94 -7.29348
-4.86297 123.33 -4.63443
2.39843 131.218 1.23639
-14.0904 98.1974 7.60963
-10.7178 101.519 10.6935
5.27665 139.388 -2.87493
6.5077 134.848 5.5755
-14.734 109.99 -8.65781
-7.80513 106.587 10.667
-0.981092 119.472 9.03794
5.86124 133.015 6.68296
10.5582 143.216 3.99327
-17.8261 96.3138 2.43535
-2.52776 116.333 10.0459
-17.834 102.823 -5.79599
-18.1631 101.702 -5.08237
4.80992 130.955 7.31316
1.82433 125.038 8.48422
1.59179 130.857 0.641027
10.8969 149.377 -2.59623
-16.3885 106.239 -6.66765
-1.34426 126.907 -0.449761
2.71112 126.398 8.95357
-0.996223 127.452 -0.31217
13.5198 151.246 0.819063
-13.3892 113.119 -8.78424
-17.0654 96.5622 4.46326
7.19556 139.444 2.37766
2.94513 133.27 1.06012
-1.20621 127.375 -0.402159
12.68 147.45 4.05739
-6.70769 110.239 9.65958
-1.66161 119.066 9.35007
5.52679 141.306 -3.28952
-15.1783 98.2504 6.73329
-0.203309 129.091 -0.114813
6.97076 144.815 -4.59468
2.565 126.783 8.79024
-12.0104 101.312 9.75846
-18.3331 100.708 -3.07854
2.30323 132.478 1.11991
11.4889 144.652 5.50209
0.903702 130.897 0.187787
13.1373 151.529 0.491989
6.44015 136.525 5.21319
10.055 144.618 2.77175
-0.238813 122.749 8.34943
0.820586 131.094 0.153792
0.39628 124.771 7.27552
-18.3072 100.961 -2.78743
-6.53785 122.783 -5.03901
-18.3205 101.6 -3.44108
-17.4904 104.855 -5.69594
7.01883 145.722 -4.61665
6.78897 138.468 4.09318
6.34136 136.958 5.04678
-17.9559 98.0529 2.12701
12.9275 150.508 2.17303
-9.2147 105.951 11.0569
-2.63648 126.773 -1.11719
-0.329176 123.345 8.20103
-13.582 114.06 -8.5591
6.73988 138.574 4.1571
6.75273 138.694 4.04409
-6.20105 123.999 -5.20157
10.8105 150.128 -1.6859
12.8312 150.386 2.39394
-17.1006 98.0624 4.3278
-18.0061 104.121 -5.26654
-18.3148 99.344 0.308664
-17.7729 98.4546 2.65815
-18.203 103.596 -4.72186
-17.6768 103.126 -2.9845
10.9671 146.328 3.97478
-3.34966 126.386 -1.56527
-17.1146 98.4756 4.2779
-11.728 117.219 -7.88441
-18.3066 100.199 -0.389722
-0.341046 124.229 7.92083
5.71758 136.58 5.34634
-9.25128 106.688 11.0409
-16.4896 108.744 -7.11936
-14.2386 113.596 -8.41909
10.5233 145.717 4.24648
-3.78614 126.235 -1.83274
-13.7907 101.195 8.40862
2.83674 135.488 0.743887
-18.0839 101.147 -0.772417
-7.07968 123.334 -5.18706
3.82935 137.914 -0.173804
-17.3273 98.9145 3.76999
-2.10574 128.45 -0.885876
-9.42157 106.661 11.0649
-1.11015 122.525 8.91752
-6.82253 112.153 9.78087
-0.935581 123.092 8.61531
2.06832 128.066 8.78151
-14.0402 101.232 8.14356
-16.3137 99.6851 5.21522
6.44423 138.95 4.53533
-15.1441 112.34 -8.21551
7.2776 142.565 1.8221
-11.0976 104.358 10.7321
-3.16177 118.452 9.96343
4.2617 139.959 -1.25913
11.4395 148.378 3.53102
5.04787 135.779 5.85966
-5.22385 125.665 -3.43055
-17.5967 99.7356 2.824
-3.21424 127.667 -1.46433
4.61481 134.393 6.89276
-9.33233 107.437 11.0354
-4.85297 126.033 -2.88695
-16.8319 109.008 -6.99209
-4.64171 116.54 9.85309
9.45612 147.009 1.61242
-16.2071 100.399 5.48643
-1.12974 123.562 8.61992
5.34539 137.43 5.03326
8.34467 149.84 -4.22736
2.32288 135.627 0.824641
-0.964101 124.092 8.41148
6.74587 141.82 2.75701
10.6094 150.874 -0.354348
-4.31956 127.278 -2.5508
-16.3614 100.77 5.21806
-2.54861 129.263 -1.14232
6.26895 140 4.28712
-7.03764 113.259 9.60458
2.51181 136.518 0.715951
11.7567 151.552 1.5821
6.87746 147.928 -4.33124
-17.1472 100.872 3.76276
-8.28368 123.281 -5.47324
4.24361 141.682 -1.77078
-3.83062 118.873 9.81315
9.56072 147.764 2.03436
11.7651 152.632 0.621548
-16.6476 101.303 4.5193
-17.7619 105.431 -3.102
-10.4251 121.268 -7.35642
-10.1928 107.117 11.1608
4.58534 143.043 -2.55254
1.09513 134.424 0.89032
-7.62396 112.545 9.95844
-7.95015 124.55 -5.93002
-17.8134 101.79 1.69259
-16.0903 112.066 -7.62508
7.89461 150.007 -4.05757
4.10227 135.227 6.58004
11.7194 152.712 0.893281
-0.821413 126.288 7.50763
3.89337 134.334 7.48721
-10.9673 121.102 -7.68079
-17.6655 101.981 2.16413
-17.7634 102.671 1.12236
-12.8595 104.488 9.38462
-2.49098 130.405 -1.141
-14.9372 114.71 -8.01727
-3.03313 121.075 9.68011
3.75957 134.137 7.75358
3.69857 133.961 7.85696
0.756949 128.612 8.33691
-0.575629 127.347 7.166
-1.74491 123.953 8.96843
-14.7779 103.322 7.13641
11.2002 151.479 2.07337
-16.4473 102.438 4.82787
6.11289 141.416 4.0275
-16.447 102.471 4.83736
4.97117 145.092 -3.05658
-2.65513 122.216 9.60457
-16.8196 102.526 4.08819
-17.0973 104.948 0.44578
4.71161 144.687 -2.81067
-6.55295 126.984 -4.62457
-14.9264 103.752 6.81954
-6.89868 126.886 -5.143
4.7018 138.812 4.73162
3.6814 141.551 -0.902943
1.64538 136.884 0.639743
3.89722 142.438 -1.43367
6.91207 144.832 2.05947
-17.3205 103.48 2.32975
-5.36449 118.024 9.66674
3.91441 142.606 -1.50019
-17.3008 103.69 2.22799
-6.38335 127.411 -4.31836
6.84312 149.587 -3.92708
-13.9712 117.222 -7.50171
-5.53111 118.129 9.61314
-8.326 113.204 9.84915
3.84874 137.396 5.45817
-2.29177 124 9.32794
10.0371 152.484 -0.229404
-16.5164 107.536 -0.310331
10.3896 152.882 0.174743
-1.88717 125.184 8.86018
-17.9557 109.053 -5.2451
-12.1121 120.671 -7.37522
-3.04095 131.59 -1.6507
0.225408 135.61 0.304882
-6.60326 127.963 -4.6395
6.47758 144.506 2.587
-11.575 121.894 -7.62465
4.63894 145.721 -2.81301
0.0701972 129.359 8.19664
-12.6245 106.37 10.0164
8.27789 149.081 0.909723
-1.21971 127.925 7.31698
-16.9393 112.385 -6.79629
3.32628 136.297 6.58953
-16.888 104.012 3.9994
5.27332 147.595 -3.52493
4.15362 139.494 4.40405
-6.2865 117.75 9.60758
5.07232 147.277 -3.33042
-11.677 122.257 -7.67297
-10.1558 110.523 10.4903
-9.88129 124.572 -6.63484
-9.91271 111.37 10.1495
-18.371 108.379 -4.27441
-9.38736 126.063 -7.23131
-6.89129 128.685 -5.16603
-12.1193 121.716 -7.46923
2.94089 135.473 7.5353
-16.5463 105.786 3.20981
-5.4864 130.368 -4.12615
3.9311 144.743 -2.02959
-8.6174 126.874 -6.37816
-15.2461 108.106 3.16011
-18.4446 108.214 -3.85785
-17.5229 111.669 -6.18466
6.83203 146.715 1.86255
5.83704 143.733 3.54272
6.23175 145.014 2.83434
0.477821 131.625 7.4995
-0.846174 129.387 7.59599
3.4534 138.967 4.74892
-16.0065 106.894 3.50309
2.60192 134.892 8.11725
3.05539 137.136 6.3434
-7.07206 117.416 9.57679
0.723914 132.003 7.8748
-6.70662 118.264 9.45251
0.902294 132.224 8.14743
-2.4864 126.045 8.68926
9.67792 152.312 1.58846
-1.9342 128.302 7.05802
-5.9095 130.865 -4.67087
3.57615 139.921 4.31893
-4.42271 132.022 -2.8834
-18.1901 107.712 -1.65452
2.48181 135.239 7.99796
5.05847 143.102 3.70265
-16.1279 105.875 5.30583
8.0722 150.418 0.960996
8.58242 150.989 1.42694
-14.04 119.43 -7.24676
5.33456 143.893 3.51756
-6.70338 118.799 9.42704
-6.45502 119.236 9.44339
-15.2871 107.497 5.31976
-9.50235 127.531 -7.62229
6.25671 146.527 2.26752
9.70741 153.107 1.3871
-15.5443 107.021 5.52915
-6.44495 131.33 -5.67348
3.68532 140.93 3.99391
-5.58833 121.055 9.22212
-2.92406 126.688 7.88898
2.56939 136.872 6.94773
-9.04515 115.046 9.62476
-13.9613 107.549 8.61485
-10.4461 112.124 10.4889
-15.2846 106.723 6.9504
-15.5182 107.12 5.97757
4.738 148.812 -3.25673
-7.22446 131.02 -6.41137
-1.45701 136.339 -0.686865
-3.94883 133.691 -2.69356
-12.1645 123.446 -7.31632
-2.38278 129.456 6.28893
-14.0909 107.873 8.54213
0.455533 133.644 7.33249
-8.32174 117.112 9.43293
3.2989 145.769 -1.7897
-14.4518 120.051 -7.29498
-5.9175 132.631 -4.80994
-10.4667 127.075 -7.54806
-3.82276 125.345 8.97549
-10.1757 113.544 10.3915
-10.0415 128.469 -8.15887
-7.8776 131.462 -7.23214
-5.80422 133.471 -5.21823
-17.6858 113.84 -5.91665
-13.3427 108.854 9.78663
-3.43177 127.751 7.2928
0.409512 140.182 -0.180746
-18.6159 110.071 -2.956
-3.3833 135.285 -2.09156
5.31622 146.52 2.46423
8.08158 153.856 -0.778109
-7.09912 120.026 9.43472
-18.7177 111.004 -4.00065
-8.86528 117.065 9.57627
-0.881064 138.483 -0.353137
-14.5233 110.549 5.78871
-9.773 115.15 10.1901
2.02778 138.77 5.69308
-5.40882 134.904 -5.40156
-4.8658 124.071 9.54267
-14.5321 111.017 5.32852
6.16178 152.646 -2.88336
-1.2924 138.186 -0.521214
-4.62835 135.264 -3.84658
-14.5137 110.547 6.27151
-3.56388 128.849 6.69899
-14.6657 109.354 7.51095
-17.3189 109.799 1.29153
-4.9605 125.061 8.61961
-3.15755 136.991 -2.57226
-13.2816 110.269 9.54751
-17.7661 109.708 0.627878
-12.4441 110.775 10.7681
-18.0319 114.142 -5.46134
-6.42605 134.573 -6.34551
0.455926 141.548 -0.347824
-5.48537 135.499 -5.44003
1.5126 143.503 -0.415707
-7.10196 121.092 9.46705
-16.634 117.962 -6.92203
-5.10533 125.931 7.90978
-11.0815 113.398 10.9749
-17.0446 110.379 1.96116
-2.45066 138.073 -1.65451
-18.6398 110.099 -1.00957
-10.4667 114.76 10.7125
-9.37626 131.228 -7.81072
0.465308 135.706 7.75449
4.15187 150.525 -3.06743
-7.30291 134.139 -6.90582
-18.6886 110.451 -1.31407
-4.52906 127.271 7.97877
-5.16317 136.22 -4.69455
1.24746 143.828 -0.483542
-18.0857 113.43 -3.45899
0.895396 136.732 7.9054
-3.39442 138.048 -2.97571
-11.8583 126.744 -6.8353
-12.5866 111.833 10.5679
3.91977 150.521 -2.9082
-13.9781 123.473 -7.11747
0.431359 142.774 -0.460603
1.03571 138.274 6.66192
-6.83923 122.591 9.66732
-9.07227 132.174 -7.29603
3.6561 150.182 -2.6921
-4.21108 129.948 6.02186
1.27925 144.588 -0.687011
-17.5241 115.727 -4.57854
-5.73056 125.541 8.3848
-15.6572 118.926 -4.60377
-6.00775 123.971 9.84247
-14.2064 123.503 -6.90309
-7.78745 121.273 9.80553
-5.87816 136.992 -5.95324
4.73456 152.698 -2.88182
-10.3388 116.366 10.743
-6.09103 125.701 8.07488
-11.3467 114.697 10.7977
-13.8363 112.725 7.95353
-17.0737 117.487 -4.94804
-13.8943 112.803 7.86151
-5.72867 127.813 6.6019
-14.6527 123.199 -6.6491
-17.7095 115.468 -3.34578
-13.1779 113.03 9.54569
0.72697 139.617 5.80492
-15.0375 121.086 -4.65081
-11.2526 115.339 10.8466
-15.6527 119.877 -4.1958
6.5024 154.776 -0.717188
-10.9264 115.944 10.9883
-6.71054 125.853 7.5315
-1.3323 136.863 5.24297
0.335649 138.322 7.0169
-15.6807 121.206 -5.76135
-4.6093 138.697 -4.00845
-16.0844 119.741 -4.60811
-7.01067 125.585 7.59765
-4.9432 130.375 6.07227
-9.08348 120.019 10.3064
1.32257 142.012 4.96247
-6.78297 124.901 9.20351
-9.28355 132.817 -6.21961
-6.80091 126.335 7.36228
-11.5918 128.611 -5.79522
-11.2214 129.643 -6.27103
-10.9316 130.71 -6.9121
-11.0049 116.539 10.9348
-14.3113 124.309 -5.98829
-11.4465 129.033 -5.80508
-3.67012 140.251 -3.07751
-13.9708 125.123 -5.94117
-16.1176 120.504 -4.6585
-15.883 121.321 -5.15026
-14.9742 123.663 -6.15367
-8.87106 121.057 10.4114
-17.6628 112.837 1.97792
-2.86138 141.334 -2.12385
0.699402 141.791 4.97169
-15.6407 121.268 -4.14819
-9.34329 133.734 -6.36391
-4.65883 139.978 -4.16743
-17.9939 116.322 -2.87591
2.07481 149.567 -1.7877
-15.6266 121.677 -4.54439
-16.1048 113.962 4.30062
-7.13172 126.984 7.11709
-17.498 116.255 -1.59902
-4.37341 140.382 -3.89367
-0.439591 137.922 7.76667
-7.78479 125.543 7.65443
-7.55067 124.766 9.14925
-17.3313 116.09 -0.898292
-7.45849 126.421 7.33028
-15.6982 122.056 -4.87143
-14.5185 124.607 -5.54603
-15.2654 123.191 -5.2234
-0.929554 144.269 -0.940656
-0.283771 139.402 6.65293
3.48872 153.165 -2.67181
-14.4685 124.38 -4.70379
-1.15639 144.175 -1.02445
-18.7817 113.019 0.521785
-1.03635 144.391 -1.00057
-4.68993 140.895 -4.32914
-16.5121 114.277 4.08458
-18.5389 114.146 -0.0690037
-2.73243 142.515 -1.96591
-16.1693 120.263 -2.63279
-15.8934 120.908 -2.64587
-12.926 116.265 9.71178
-5.74375 132.884 4.11112
-18.3657 113.365 1.69208
-0.589602 139.761 6.53983
-6.57539 130.877 4.9127
-0.851088 138.53 7.60009
-8.03852 126.605 7.4124
-6.36327 131.596 4.79131
-13.3343 116.693 8.84548
-16.1134 120.36 -1.70534
-16.8997 118.641 -1.13232
-14.8067 122.63 -1.67828
-17.6938 117.838 -1.80799
-0.777972 140.27 6.21995
-16.4508 120.842 -2.89855
-2.20733 143.998 -1.553
-18.535 114.29 0.98325
-16.8802 120.892 -3.78524
-17.0837 119.527 -2.48901
-3.22916 142.996 -2.40376
2.3754 152.72 -2.63763
-12.5569 117.18 10.2682
-15.2484 124.46 -4.71445
1.07409 143.49 6.34279
-15.4774 115.771 6.08864
-16.638 119.084 -0.581395
-14.7409 123.349 -1.90266
-9.07803 123.731 9.8543
-1.9981 139.157 5.64284
-16.1721 122.74 -4.04146
-14.8137 123.385 -1.92373
-14.967 115.96 7.16657
-6.86838 131.542 4.90685
-16.8253 119.718 -1.52729
-9.80348 125.38 6.42929
-9.5937 123.021 9.95024
-17.3379 120.388 -3.38663
-15.9224 120.461 -0.424111
-5.29353 141.979 -4.7594
-13.7936 127.299 -4.43261
-5.59105 134.212 4.53121
-6.2891 133.181 4.34992
-11.2172 120.254 10.1447
-15.7514 122.347 -2.25397
-17.4233 120.564 -3.57332
-7.57394 139.494 -6.29282
-8.52912 137.618 -5.9472
-16.4764 120.523 -1.33216
-8.61932 127.682 6.52704
-10.7146 124.339 6.29967
-13.7789 127.469 -4.23105
-16.1017 116.374 4.84449
-11.0875 132.141 -4.30985
-5.99847 141.551 -5.15653
-9.40252 126.061 7.25578
-10.6611 122.16 9.56354
-10.8267 121.143 10.5499
-10.5476 123.35 8.41252
-12.0511 119.996 9.48571
-9.21502 127.335 6.30421
-6.75536 132.902 4.57049
-16.0392 123.917 -3.96971
-16.9901 120.465 -1.53468
-5.78034 142.257 -5.01017
-11.2884 123.694 6.66746
-16.3411 120.782 -0.518003
-15.232 123.615 -1.64657
-5.21885 143.003 -4.58334
-5.54794 142.724 -4.86593
-18.3048 118.649 -1.81387
2.6654 154.264 -1.79688
-11.0276 121.787 9.90807
-16.6335 122.595 -3.18999
-14.2185 126.381 -2.75985
-7.68564 130.97 5.53743
-18.2477 118.814 -1.79744
-9.79469 124.851 8.77639
-4.36879 143.98 -3.74514
-1.62621 140.432 6.72053
-17.5122 120.076 -1.6536
-14.6718 117.31 8.08334
-7.76635 131.03 5.56772
-15.2553 124.116 -1.67835
-11.6471 124.234 6.07482
-17.7833 115.766 3.76818
-7.67521 140.723 -6.0896
1.58595 153.42 -2.23803
-14.9547 125.215 -2.04503
-17.3782 120.337 -1.07786
-16.3124 122.116 -0.874935
-17.1918 116.493 4.37879
-10.6961 135.354 -5.48887
-11.8733 131.947 -3.69213
-15.8788 117.227 6.36183
-1.3918 142.313 5.88264
-18.5025 117.504 0.497897
-2.23518 141.392 5.4945
-16.6456 121.021 0.287146
-7.49239 133.468 4.25965
-14.7667 125.873 -1.77051
-17.5216 119.72 0.138412
-15.8883 124.901 -2.84867
-13.976 119.045 8.71536
-16.4095 120.814 1.31336
-17.6061 119.721 0.165385
-17.5151 119.2 1.05279
-12.177 124.546 5.81227
-17.0544 119.577 1.62785
-4.95847 138.696 3.52601
-19.9297 116.616 -0.638806
-7.09402 142.436 -5.71034
1.30559 153.801 -1.98261
-13.9208 129.339 -3.75938
-11.4912 126.434 5.26319
-1.75495 148.189 -1.25006
-7.65372 133.919 4.22029
-7.62711 134.021 4.23318
-8.45007 140.584 -5.7734
-7.33498 134.346 4.57297
-12.0359 126.093 4.93534
-13.5086 130.43 -3.72153
-16.6266 124.148 -2.46457
-14.957 127.732 -3.31907
-15.03 119.16 7.45136
-7.69966 134.219 4.16224
-16.6312 120.767 2.00793
-17.2522 121.289 0.0314833
-17.377 120.942 0.210343
-13.9344 120.639 8.09276
-13.3823 121.099 8.72208
0.222436 152.966 -2.3699
-9.08494 139.826 -5.72246
-17.1171 120.152 2.00569
-14.1855 129.145 -3.04736
-6.70578 143.771 -5.44669
-14.0858 129.704 -3.41054
-6.47948 137.376 3.24795
-14.1608 128.672 -2.25075
-5.27836 145.457 -4.28881
-4.57325 146.149 -3.61546
-17.1153 123.399 -1.75341
-2.59734 141.211 6.96536
-4.72738 146.073 -3.7691
-1.069 150.539 -1.50936
-16.6097 123.422 -0.590177
-18.4899 119.588 0.221369
-16.9611 124.527 -2.70058
-4.45107 140.33 4.23698
-17.1654 121.929 0.206446
-12.7955 131.871 -2.98357
-12.1701 126.824 4.88733
-14.6019 128.649 -2.66262
-17.684 120.577 0.997525
-17.179 123.625 -1.76418
-18.0793 120.12 0.806013
-9.35264 139.907 -5.48414
-18.2961 118.526 2.37117
-8.21373 142.025 -5.69747
-19.9627 117.877 -0.329983
-17.9149 119.769 1.76386
-19.5672 118.824 -0.589543
-17.7647 119.749 2.12667
-17.6286 119.743 2.45725
-15.7789 127.52 -3.39819
-1.30215 150.585 -1.4481
-16.9944 119.043 4.80807
-18.2243 118.681 2.62876
-2.96676 148.318 -2.0677
-17.6277 119.836 2.47479
-14.1962 121.464 7.8379
-1.27823 150.764 -1.47357
-18.0908 120.004 1.37432
-10.2721 138.589 -5.34031
-6.74212 137.8 3.29854
-1.84284 149.747 -1.29349
-1.14006 151.424 -1.58149
-18.1364 118.274 3.8519
-16.6949 120.087 4.67353
-15.7957 128.225 -3.67911
-17.5647 121.746 0.73538
-15.3204 127.729 -1.78331
-9.77978 130.71 6.39316
-3.72536 148.046 -2.50973
-6.42719 139.141 3.00897
-20.2024 118.133 0.00540823
-17.6535 124.693 -2.76948
-19.7491 119.197 -0.296669
-0.0675355 154.048 -2.06781
-11.9501 135.063 -3.56121
-6.02774 146.11 -4.81156
-13.3226 126.497 4.38666
-12.5987 127.31 4.99658
-8.45542 142.624 -5.48863
-10.5662 138.697 -5.02918
-13.028 132.674 -2.6571
-3.34629 148.947 -2.15424
-3.15807 142.932 5.95777
-19.3901 121.358 -1.63787
-17.9276 124.763 -2.80188
-15.7002 127.716 -1.73882
-0.805969 153.229 -1.99735
-10.5158 130.032 6.51348
-16.4455 128.038 -3.70921
-9.49429 140.849 -4.87174
-12.8543 127.12 5.30157
-14.4073 123.173 7.01154
-19.1842 122.435 -2.33192
-14.6947 123.633 5.82863
-14.9605 129.866 -2.60448
-16.8355 121.085 4.51083
-13.1568 126.8 5.22243
-7.65329 137.112 4.07813
-3.62605 148.999 -2.28856
-14.9193 123.504 5.71509
-14.1349 125.281 5.18276
-14.4837 129.598 -0.997299
-18.5835 120.717 1.47706
-18.7631 120.828 1.09612
-16.9713 126.572 -2.25992
-14.295 130.61 -1.58993
-12.6033 134.747 -3.07495
-17.5286 120.551 4.37225
-17.3771 120.433 4.85208
-14.4659 129.987 -0.887209
-16.1529 121.929 5.73832
-17.621 119.858 5.22608
-7.14225 139.466 2.94874
-14.4294 130.056 -0.815463
-14.5511 129.913 -0.880973
-6.33164 146.888 -4.63352
-10.8856 130.253 6.674
-13.5188 126.423 5.87518
-15.2818 129.307 -1.37984
-15.3925 128.967 -1.16127
-19.0628 118.062 4.81045
-17.995 121.294 3.01304
-18.9942 118.75 4.10046
-14.7275 125.368 4.94322
-14.667 125.278 5.21566
-19.3111 118.372 3.97568
-15.291 129.434 -1.3677
-17.8101 126.384 -2.92276
-11.7463 138.088 -4.52676
-21.1062 118.468 0.196392
-17.7525 120.065 5.53655
-18.6625 120.853 2.81869
-13.9976 132.321 -1.66794
-19.4385 118.569 4.07137
-17.3159 121.31 5.24083
-6.49794 141.462 3.10232
-19.0054 120.927 2.20479
-15.7943 124.175 5.13734
-18.3185 119.606 5.51526
-13.9323 126.397 6.35397
-17.4733 121.622 4.80798
-14.452 125.337 6.69924
-7.08547 140.88 2.85836
-4.63893 144.838 3.22872
-19.2986 118.396 5.2595
-2.79648 152.01 -1.72433
-16.9249 121.707 6.40164
-11.1068 139.853 -4.02076
-12.7745 135.625 -2.24905
-15.3724 131.045 -2.00005
-17.9313 122.55 3.3262
-19.4482 119.622 3.80926
-19.0053 125.397 -2.49842
-12.3638 129.759 6.32757
-18.4274 121.235 4.13461
-1.86795 154.181 -1.90616
-6.49403 148.214 -4.20128
-6.60075 148.118 -4.24788
-19.5897 119.636 4.04435
-9.53428 143.788 -4.87629
-18.4839 121.342 4.31116
-9.03339 136.988 4.9241
-16.9739 122.747 5.87935
-19.5117 120.047 3.87399
-12.7279 136.375 -2.17342
-14.4328 132.771 -1.1681
-11.0385 132.251 6.95142
-6.7738 143.064 2.49217
-15.8918 124.972 5.8677
-20.9362 120.85 0.30361
-9.82574 135.092 6.17999
-17.1226 123.634 5.10493
-15.8884 124.988 6.13026
-6.0029 144.607 2.56019
-16.9536 123.422 5.87239
-3.90054 151.879 -2.06283
-18.1336 121.126 6.2769
-16.5849 123.147 7.08209
-18.3722 122.087 4.59385
-8.75063 138.443 4.60373
-16.5859 124.759 5.38141
-12.909 136.494 -1.5009
-18.3705 121.517 5.78874
-17.4472 124.14 4.48034
-16.5486 124.094 6.50265
-3.27598 153.154 -1.74167
-16.0255 132.363 -2.80862
-7.10559 148.65 -4.09508
-19.3587 121.073 4.53522
-21.5384 120.902 0.344511
-16.9324 123.31 7.21392
-16.5316 132.075 -2.96694
-5.24264 151.075 -2.71553
-20.8195 118.383 5.2556
-18.596 128.923 -3.28275
-11.3974 141.708 -3.97181
-19.6161 121.211 4.38914
-21.3624 121.508 0.391118
-13.0453 137.501 -1.8171
-16.5056 132.515 -2.86412
-22.1069 117.12 4.6825
-19.2173 122.256 4.39642
-4.62175 152.294 -2.24166
-7.38495 149.091 -3.96305
-14.1826 135.209 -0.971331
-18.6595 122.201 5.88125
-13.1066 137.798 -1.55691
-10.1487 144.972 -4.25963
-4.58883 152.803 -2.18874
-6.5633 150.574 -3.43771
-5.79568 151.48 -2.91319
-12.3856 140.621 -3.19405
-7.76442 149.162 -3.95484
-18.041 130.361 -2.21049
-12.5456 140.533 -3.0717
-21.655 122.274 0.480717
-18.5389 122.987 6.68705
-21.7576 118.699 5.32727
-14.7565 129.481 6.84609
-22.2873 121.804 0.474301
-8.90795 148.151 -4.01233
-18.8809 123.513 5.75672
-11.7362 142.613 -2.93632
-7.28777 145.808 2.66693
-9.62367 140.186 4.85088
-18.3055 124.22 6.45175
-10.7591 136.787 6.78089
-21.1747 126.017 -1.83261
-15.1394 129.492 6.9428
-23.282 120.771 0.484614
-21.5651 119.38 6.17182
-15.1925 129.856 6.73712
-22.3352 118.608 5.73902
-8.77324 143.38 3.6674
-23.6624 116.686 5.45114
-12.9874 140.899 -2.25324
-19.1991 130.21 -2.0664
-18.1813 125.307 6.55177
-10.7871 138.709 5.8577
-19.1702 130.756 -2.07977
-9.10807 143.041 4.04145
-19.9714 128.384 -0.766669
-8.82878 143.89 3.60014
-15.4627 136.578 -1.37654
-9.15889 149.003 -3.33802
-8.21699 145.739 2.93089
-8.5567 149.855 -2.94421
-20.6159 127.397 -0.429573
-12.4922 142.506 -1.88786
-15.7006 130.768 6.33993
-19.9696 129.006 -0.610746
-15.1635 137.419 -0.90244
-18.2543 126.887 5.83298
-23.6936 117.497 6.08755
-24.4973 116.51 5.72237
-11.1305 146.095 -2.99533
-8.51667 145.799 3.01416
-22.5835 124.746 -0.543952
-7.31981 151.942 -1.83389
-11.3148 146.099 -2.7998
-11.9746 137.055 7.40887
-9.4096 149.558 -2.80254
-15.958 131.624 5.91801
-6.76797 153.348 -0.8912
-19.51 125.525 6.95774
-17.6189 128.932 6.76319
-10.8952 141.177 5.72112
-10.9005 141.183 5.73121
-19.8535 131.268 -0.971833
-18.5222 128.44 5.50598
-11.8879 145.804 -2.02715
-12.7229 143.101 -0.361522
-13.2687 141.58 0.43918
-12.5254 143.853 -0.80688
-21.38 122.16 7.64029
-16.204 137.4 -0.519017
-24.6897 117.438 6.52731
-7.15872 150.981 1.85597
-18.3327 128.974 5.74707
-18.0626 129.209 6.13606
-18.4348 134.363 -0.729335
-10.6449 149.038 -2.47268
-25.1147 117.301 6.62956
-11.3714 141.111 6.28257
-23.6459 124.457 0.999345
-13.071 142.717 0.624517
-15.2094 139.415 0.360457
-7.40866 151.77 1.50803
-21.6093 123.015 7.55294
-25.0245 118.159 6.36612
-18.0991 130.584 5.61736
-8.91766 148.541 2.89943
-20.9855 129.907 0.817658
-14.4719 141.186 0.639159
-12.5611 144.861 0.172604
-8.43362 150.151 2.4398
-16.5392 138.421 0.114094
-15.9801 133.462 7.72631
-13.1071 138.367 7.80952
-23.7091 121.014 7.07585
-24.2708 123.712 2.5105
-19.2406 129.921 5.49743
-22.9865 126.183 2.26535
-24.4875 120.483 6.47524
-20.3984 127.856 5.98363
-23.6835 125.185 2.34857
-21.2463 130.042 1.48498
-25.3703 119.887 5.49132
-22.8372 123.065 7.11379
-11.265 143.105 6.74547
-20.7431 131.199 1.43762
-9.74351 148.26 3.54908
-11.2067 144.219 5.73675
-22.7712 126.746 3.02769
-18.4855 131.563 6.21713
-17.5216 137.379 0.929917
-20.7638 127.765 6.27639
-9.40495 152.143 -0.134284
-14.0948 143.081 1.30778
-23.1275 123.35 6.92757
-20.0781 133.587 0.566621
-23.9997 124.581 3.56968
-10.4967 150.71 -0.412446
-16.9198 138.999 0.684274
-10.6807 150.498 -0.359346
-21.5871 125.836 7.49163
-19.5156 134.367 1.14787
-10.8636 146.303 4.93606
-22.9352 124.481 6.73422
-25.193 121.62 5.62772
-10.0608 151.014 1.03518
-23.2798 126.193 4.05508
-9.86552 150.482 2.26709
-23.6207 125.584 4.40472
-11.0813 146.477 4.93418
-15.2001 137.156 8.22531
-16.3891 135.11 8.35643
-11.7435 145.153 5.70422
-16.0701 141.339 1.28564
-19.014 132.15 6.6811
-23.2011 125.079 6.6615
-11.7083 145.413 5.65183
-16.103 135.767 8.52305
-16.535 140.785 1.35018
-15.6039 136.906 8.3079
-21.2013 129.145 6.11554
-15.9204 141.817 1.43727
-19.2863 135.541 2.25516
-17.1898 139.842 1.38423
-11.5372 146.835 4.9344
-11.2781 149.569 2.18271
-20.8434 130.587 5.72902
-24.6756 123.869 6.02815
-18.4911 137.703 1.8323
-20.131 134.731 2.22302
-23.3678 127.374 4.93678
-24.414 125.108 5.67943
-13.2725 142.793 7.44163
-17.4073 135.025 8.5173
-18.2422 138.803 1.96926
-24.2963 125.559 5.7645
-23.5278 127.389 5.19542
-24.5315 125.057 6.10883
-23.6254 126.298 6.57328
-16.037 138.038 8.22309
-14.971 144.185 2.94227
-12.6702 145.93 5.73704
-17.7266 140.217 2.11632
-22.1946 128.928 6.83921
-17.3807 140.911 2.11878
-17.4722 140.81 2.15984
-22.2312 129.304 6.76672
-20.8377 131.966 6.44726
-24.1736 126.604 6.27692
-20.8332 134.84 3.12279
-18.4302 139.45 2.51985
-21.3184 133.271 4.54298
-15.6012 140.312 8.01536
-17.1577 142.035 2.67374
-18.1138 140.497 2.93254
-16.9749 142.748 3.37821
-15.7132 144.566 3.80485
-18.7696 139.646 3.67584
-18.1059 138.296 7.64185
-17.4224 142.227 4.21668
-16.6239 143.509 4.45905
-21.6069 134.199 5.69
-18.4576 138.218 7.48931
-22.8792 131.57 6.57093
-20.7798 136.473 4.90269
-17.7695 141.817 4.69865
-15.9513 144.482 5.37862
-22.2523 132.825 6.78219
-20.558 135.609 7.08173
-17.5825 141.898 5.58665
-17.6743 141.785 5.58841
-17.779 141.639 5.57363
-19.023 138.757 6.63208
