ply
format ascii 1.0
comment Created by Open3D
element vertex 1926
property double x
property double y
property double z
end_header
11.5529 119.348 -4.2671
-21.5292 95.1878 1.75531
-2.38007 107.413 2.02196
-9.40092 108.935 -10.6232
7.2036 118.12 -7.4212
20.9264 122.226 2.54279
-3.47035 101.877 12.2782
0.195109 105.064 10.7265
19.8021 120.533 4.90774
-23.4371 100.553 -11.6433
-9.33919 99.2877 10.1328
-26.0648 98.5889 -10.9842
-5.71233 104.626 3.93191
-8.16343 104.04 1.90881
13.651 120.7 -3.53877
20.8752 122.754 1.9627
-15.0685 97.5553 6.23349
8.75158 117.627 -3.58835
5.71485 117.48 -7.38253
1.85286 107.205 8.98823
-7.88632 104.732 0.994105
-6.35212 110.819 -9.67292
-32.6374 92.1756 -5.99752
6.5918 115.002 -0.764132
-15.3781 106.035 -11.6771
-3.57034 102.182 12.4263
8.08158 119.297 -7.70282
2.57828 108.102 8.37153
-5.61606 105.264 3.23885
-8.25567 110.021 -10.3283
10.1122 118.909 -4.08498
4.53894 116.843 -7.28908
19.7391 123.001 0.409312
-7.43237 103.984 3.57573
8.91371 117.937 -3.59276
5.60908 111.184 6.15303
-9.10763 98.963 12.0723
14.765 121.216 -2.30145
13.5402 121.025 -3.55135
-32.3112 93.3679 -7.54086
-10.3912 108.926 -10.4159
5.62569 113.76 1.1886
-6.87954 104.413 3.91336
9.68955 119.388 -5.05429
-27.3955 93.8746 -1.61007
-23.0187 101.615 -11.8331
13.4529 121.198 -3.56207
4.67344 110.319 7.41296
-1.42527 113.354 -7.19275
-7.09973 110.951 -9.78508
-11.948 100.197 6.29335
19.1657 123.129 0.288117
-5.31458 105.997 3.13338
20.6167 123.163 2.20234
20.5823 122.996 2.55657
2.78981 116.309 -7.47114
-23.9878 95.0111 1.02914
13.9475 121.511 -3.25051
-4.39596 112.572 -9.31302
-32.1442 93.9844 -7.79904
-4.67909 108.442 -0.922218
2.22063 108.23 8.89207
-7.08873 100.495 12.5845
-3.02441 103.226 12.4078
-10.2238 101.151 7.01609
-31.6994 94.7588 -8.63164
-5.9039 105.703 3.40244
-11.8604 100.66 5.93251
13.5179 121.513 -3.47928
20.4363 123.768 1.18471
-20.8493 96.3869 2.8572
20.5149 123.385 2.20903
-4.77582 101.992 12.9642
8.5688 120.358 -7.5485
-27.8907 94.1221 -1.79218
-16.1836 97.673 6.71883
-11.2564 102.827 2.59885
1.40913 107.471 10.0068
-11.077 102.194 4.20972
-7.48546 100.648 12.381
-25.8838 99.9046 -10.9487
1.32997 107.435 10.1295
-32.3837 93.6923 -6.65888
-7.03107 105.016 3.92481
-7.3451 100.816 12.3319
20.3408 122.961 3.38831
-28.662 94.1329 -2.30922
-18.3156 105.298 -11.6304
-24.6067 101.026 -11.1697
-15.4494 98.5767 6.45735
17.8002 120.01 6.46811
-10.5802 102.223 5.43293
5.20121 114.114 1.88932
-14.8747 107.25 -10.8795
-18.816 97.4044 4.50537
4.37751 118.01 -7.34602
-32.2597 94.2596 -7.00881
-1.01272 110.926 0.368831
-29.5617 94.2052 -2.96861
12.7241 118.712 2.85532
9.20724 119.419 -3.38822
-1.57013 114.221 -6.98508
10.761 119.11 -0.555081
-19.021 97.514 4.48696
13.5199 117.598 6.4225
0.351431 115.664 -7.23782
-7.01528 105.684 3.76527
12.8465 118.705 3.3171
-10.6619 102.805 4.90341
-4.36296 109.571 -0.768287
10.5956 118.256 1.25098
-4.44625 109.532 -0.747638
-28.6145 98.5488 -10.3477
17.6536 120.354 6.52614
5.52225 115.345 0.642831
-16.1156 98.6258 6.59355
6.09692 115.438 1.40067
-15.1173 99.3374 6.5111
9.4309 120.702 -5.02592
-23.7175 102.506 -11.6771
-3.13069 110.716 -0.984514
9.30361 120.873 -5.45391
-5.37489 113.259 -9.30625
4.71273 112.849 5.22022
7.04727 117.724 -1.85018
-6.16271 105.863 5.18238
18.3332 121.131 6.29009
6.27924 116.983 -1.31324
8.43129 118.984 -2.6009
10.505 118.59 1.04675
18.0787 120.934 6.40445
-31.7115 94.3579 -5.13842
-10.4972 103.842 3.69116
18.2303 123.889 0.506617
10.4811 119.067 0.193939
-5.28756 108.941 0.131831
-7.09457 102.196 11.8672
11.248 118.735 1.98149
20.0732 124.629 1.57671
16.9854 120.265 6.58219
6.91887 120.106 -6.71705
-4.29447 114.018 -9.05344
12.8922 117.996 5.89771
-5.33209 106.5 5.37089
9.62065 119.56 -1.79426
-16.7905 98.2855 7.18895
19.8248 122.871 5.15793
-8.52177 105.044 4.23236
2.33423 117.327 -6.85439
-20.7403 97.7423 3.42147
4.56466 113.886 3.78209
9.62073 120.922 -4.15173
-31.8599 95.4846 -6.85957
9.83103 119.907 -1.67541
6.30831 116.465 0.786486
6.35005 116.519 0.755871
18.0381 124.123 0.730476
9.40387 121.678 -5.79918
10.9755 119.188 1.59286
5.94025 115.506 2.5108
-10.5811 102.916 6.71691
-17.0288 107.503 -11.6342
13.1808 122.943 -3.09277
-14.4369 108.523 -10.1795
17.876 124.157 0.790371
-9.48148 104.789 4.51829
-26.8359 100.897 -10.7772
7.39736 121.31 -7.25496
-19.6328 106.021 -11.6454
2.14888 117.69 -6.62361
-30.6602 97.7018 -9.05427
-3.71859 108.107 5.73899
14.5621 119.115 7.40854
-1.76343 106.526 11.7621
-17.9944 98.579 6.47715
-19.2873 98.3377 5.24393
-24.0595 103.363 -11.7505
-10.6297 103.483 6.25601
-6.77624 103.181 12.1232
18.4277 122.323 6.08617
-27.0211 101.017 -10.702
8.17919 119.834 -2.55531
11.5545 119.049 3.68959
-3.67234 115.063 -8.53145
7.54635 117.239 2.17237
10.1785 122.546 -5.40799
0.28612 116.898 -6.92934
4.05708 113.481 5.42183
6.42483 115.663 4.12164
-5.03591 110.386 -0.276546
0.248884 108.194 11.4994
-0.501832 113.254 0.0144479
-30.9248 95.7066 -4.31437
-7.1946 103.273 11.9693
18.665 122.828 5.95324
-30.8505 95.6029 -3.86661
-0.47289 112.761 1.26673
-2.3678 115.517 -7.06494
-0.183729 113.51 0.227682
10.3844 123.031 -5.45724
8.08602 117.968 2.10054
14.8435 123.484 -0.312032
-22.641 104.847 -11.9149
-11.1362 104.211 5.02788
-9.25015 105.483 4.9254
-27.9082 96.2113 -0.840386
15.8321 120.719 6.9684
7.39532 116.85 3.68237
-15.8555 100.545 6.4592
-1.49723 116.011 -6.48195
-21.1762 98.4974 3.70204
-5.01195 109.799 1.88108
9.98598 121.585 -2.47972
-17.4994 108.213 -11.5693
9.47677 118.041 4.35929
5.23431 115.115 4.81861
20.0679 125.006 4.17405
-4.92001 110.812 0.180666
-4.63122 108.056 6.36554
-8.96404 104.518 8.01812
-8.73194 104.428 8.72102
10.0101 122.576 -4.01316
6.39314 119.027 -1.45566
19.8956 124.688 4.95867
-0.261935 108.586 11.5534
-9.60665 105.77 4.83927
-8.06995 106.842 4.68166
-9.78103 105.665 4.89392
8.17419 123.017 -7.20137
-29.3068 100.084 -9.75077
-1.99101 116.265 -6.73088
-4.90416 110.282 1.91809
-7.12918 114.136 -9.18387
10.2414 118.346 5.50508
19.111 125.715 2.12804
-1.16262 112.323 2.97834
7.31135 120.71 -3.13474
-1.7835 116.454 -6.49634
-17.5086 108.626 -11.3385
7.40395 120.125 -1.66515
8.21228 121.529 -3.49083
-4.84325 110.58 1.85045
5.73544 121.16 -6.02385
7.69462 120.447 -1.80046
9.21584 118.524 4.32703
-0.228433 114.487 0.0436209
-7.9872 106.678 5.94289
-16.4036 109.109 -10.5317
8.16564 119.275 1.39319
15.2778 121.19 7.04732
8.54774 118.255 4.16707
-2.94916 116.421 -7.54849
13.9661 124.361 -1.3079
-13.4601 110.419 -9.15212
3.67944 114.383 5.74412
7.12449 116.87 5.21142
-5.13147 109.39 4.34305
4.58689 114.905 5.92005
-15.2008 109.745 -10.0209
6.46147 116.403 5.37725
-3.74007 106.566 12.2379
14.901 124.385 0.144793
-9.62493 112.827 -8.7621
-20.0668 107.5 -11.71
-11.6836 111.437 -8.59587
-3.19977 110.132 5.71134
-30.9943 98.5497 -7.56992
-31.0373 98.5918 -7.68483
9.36107 121.132 -0.322919
6.62189 122.562 -7.00551
-5.88533 115.382 -8.85494
-4.69767 110.567 2.88155
-12.6052 104.397 5.15734
9.34936 121.407 -0.825682
14.1771 120.744 7.14464
9.07565 118.837 4.30479
17.5562 123.398 6.21155
3.07684 112.195 10.1756
-4.70167 111.385 1.49395
-12.9839 110.996 -8.81993
-21.3563 107.057 -11.7998
-25.3535 98.1185 1.57128
-7.34033 104.789 11.963
20.2559 125.97 4.86041
0.443356 114.966 1.1936
-30.0642 98.5081 -5.49513
-7.59048 107.381 6.3128
-13.075 104.358 5.2626
-16.0455 101.968 6.31503
-4.61516 111.086 2.66598
0.701383 115.391 0.825271
-4.39222 109.336 6.73227
-30.2669 98.6503 -5.86236
11.3676 124.253 -3.24754
3.7764 113.305 9.536
7.08012 123.4 -7.10848
2.87204 119.854 -5.27697
-3.27456 110.535 5.99699
-5.70301 108.47 7.05071
-8.01464 105.288 10.6357
-7.24301 105.165 11.9953
-9.93371 106.619 5.39133
5.25633 121.77 -5.8229
15.677 125.207 1.0759
-18.7756 108.993 -11.5051
-3.96082 113.171 -0.21067
-25.6197 104.166 -10.6045
-6.15966 115.839 -8.71186
-4.31442 109.722 6.6896
1.54334 119.238 -5.35952
-29.936 98.5625 -4.53063
3.51671 113.74 8.90996
-7.05849 108.015 6.62682
-19.9373 99.9983 6.10951
-29.5638 97.7429 -2.15215
-3.87957 110.316 6.41871
-30.1187 98.1638 -3.47746
16.2561 125.581 1.77172
14.1722 121.582 7.35821
-2.13678 108.941 11.8596
-7.22038 115.496 -8.77488
-25.52 104.575 -10.5551
9.70372 124.43 -4.56049
-6.39622 116.034 -8.64618
9.93044 119.428 6.39087
8.60723 122.517 -1.87832
-6.08393 106.343 12.2847
-6.64415 115.964 -8.65681
-7.60549 108.038 6.70475
-29.9066 98.0969 -2.6021
15.0003 125.497 0.670242
0.165878 115.482 1.63344
-17.7318 101.017 7.79346
12.86 125.378 -1.92617
-9.83338 113.735 -8.19874
-7.61047 108.1 6.7421
10.8373 124.778 -3.17166
9.81742 119.567 6.4142
8.66618 122.166 -0.520179
3.32936 113.675 10.1317
-7.65674 108.188 6.81799
8.74008 124.01 -4.1321
-4.29698 113.551 0.219945
-1.67306 118.444 -6.38614
10.578 125.762 -5.0961
4.81988 116.74 6.09475
3.45629 114.594 8.76193
-29.0518 98.326 -1.05603
5.70602 123.312 -6.45208
-0.889807 118.897 -6.07972
-30.4738 100.571 -7.56726
-27.6855 98.6314 0.285727
-20.3586 108.939 -11.3633
1.62844 112.414 11.1478
11.2915 125.269 -2.71802
-18.9876 109.823 -11.27
-8.36596 106.816 9.45464
8.75401 119.759 5.49043
-4.14345 108.171 12.3785
8.98719 121.36 2.47733
11.6878 125.448 -2.42089
2.19318 120.54 -4.96475
5.13406 122.902 -5.91452
-12.7984 105.844 5.65671
-12.3811 112.622 -7.98256
-3.45265 118.236 -7.65471
-6.20537 108.983 8.07598
18.3283 127.092 3.28863
9.15318 124.102 -2.75903
-7.21272 108.597 7.66017
-6.70428 106.97 11.7852
12.9841 125.966 -1.39569
-23.7746 99.9384 3.50916
9.00666 122.839 -0.206235
-4.161 113.376 1.85923
-28.8871 98.6612 -0.647016
7.9214 120.367 3.61571
9.10398 122.567 0.614586
-20.9497 100.671 5.95611
-2.37851 118.828 -6.99803
7.87888 120.429 3.55272
-4.6269 117.965 -8.17807
-4.09014 114.238 0.490237
-6.01884 110.492 5.79144
-6.25716 110.317 5.88664
-1.65937 113.985 4.47188
15.3981 123.292 8.03333
10.4611 126.524 -5.34724
8.87247 120.576 5.01268
9.15858 123.181 0.0115666
5.66666 118.109 5.97093
-0.28916 115.978 2.39137
8.80619 120.643 4.98718
-8.89134 108.645 6.27041
4.47025 116.715 7.48585
1.10791 117.787 0.792909
7.51529 120.806 3.34026
-23.1759 107.88 -11.0597
5.55345 124.207 -6.42095
-0.921774 119.955 -6.15502
-7.54855 107.58 10.8846
-15.6418 104.638 6.22722
14.6386 122.728 9.27991
8.76623 125.304 -3.94301
-2.56838 116.338 -0.447777
9.61813 122.521 3.10995
7.33237 121.184 2.82563
9.73755 125.644 -3.28444
-4.13455 111.894 6.86782
4.87349 123.823 -5.93681
2.93914 114.875 10.3015
9.69486 123.337 1.69354
8.38833 120.427 6.04617
5.13958 118.344 6.05491
3.03843 122.169 -4.80865
8.39699 126.589 -6.82392
7.21727 121.849 1.57233
-3.88701 115.216 0.480455
-8.46223 109.44 6.46737
-29.2702 100.609 -3.11586
10.2258 126.256 -3.49388
-10.9487 107.898 6.45832
-2.65535 110.598 12.0468
-4.87626 111.477 7.23497
-29.9497 101.063 -4.82722
10.7982 121.488 7.46603
14.8579 123.441 8.93355
-7.27794 117.164 -7.85167
-30.2193 101.826 -6.68776
-0.638816 116.35 3.00269
-4.00693 114.387 2.57874
9.71576 125.98 -3.1929
-26.1146 100.359 2.30803
3.98413 116.693 8.80924
-28.5119 100.032 -0.0495243
13.6446 123.165 8.54876
8.63872 125.87 -3.91455
-4.16538 119.355 -7.56133
8.84739 121.42 5.74496
-15.1253 112.904 -8.71397
11.1625 127.051 -2.76338
-9.29802 116.015 -7.21897
-11.1693 114.777 -7.09288
18.8353 128.899 3.88379
-30.2071 101.639 -5.24674
0.338837 113.448 11.3579
8.85424 121.606 5.77629
8.21657 125.007 -2.22654
17.0645 128.212 3.0354
14.7798 124.198 8.41498
-22.6668 109.194 -10.7631
7.01316 121.281 4.05359
-7.28771 110.888 6.53021
6.68212 121.94 2.27087
8.22992 121.271 5.81006
-4.18702 114.013 4.32148
12.9383 123.259 8.14213
-2.69575 114.196 6.01447
4.09144 117.52 8.22897
-3.18576 111.174 11.7148
12.5287 123.11 7.93401
-6.12349 111.842 6.38012
14.6946 124.229 8.6081
-29.3249 104.061 -8.58459
-28.6481 100.574 -0.320491
-21.8433 109.928 -10.7445
-4.69505 110.347 11.6007
6.27057 126.115 -6.65884
-21.3682 102.114 6.35211
5.40157 125.445 -6.3414
8.65551 123.077 3.08017
6.5608 121.537 3.53951
14.6086 124.267 8.7967
4.30198 124.508 -5.66133
6.41885 121.889 2.8214
12.5292 128.099 -1.83968
10.0114 128.676 -6.42535
9.09205 128.144 -6.54437
-3.85736 113.362 7.02478
-2.10168 117.997 -0.284571
-2.60605 120.798 -6.83985
10.1377 127.392 -3.38799
12.9191 123.536 8.5055
1.21533 118.808 2.63292
-26.2743 101.268 2.36024
-15.6336 106.144 6.53179
5.69213 126.083 -6.47477
-21.0841 110.903 -10.832
2.67313 116.276 10.1385
-29.1889 101.705 -2.33488
2.6583 123.227 -4.31928
-4.09743 114.876 4.11372
6.06407 120.488 6.20458
7.25369 125.062 -1.79121
4.32803 119.206 6.56685
12.3076 128.552 -2.24632
-2.41653 115.363 5.52927
7.98734 122.2 5.27357
7.94617 121.846 6.0195
-3.61586 116.667 1.29776
-26.5346 106.921 -9.22892
-26.4766 106.999 -9.28167
12.8261 123.727 8.85228
-10.194 109.824 6.92799
8.55522 126.767 -3.26234
-23.4744 109.789 -10.942
-18.3298 112.69 -9.99651
-18.0789 104.318 8.00458
5.9107 126.723 -6.56753
8.79376 126.567 -2.21734
0.433185 118.568 3.2763
-2.77429 112.738 11.2597
8.37036 122.228 6.46297
-19.6174 103.602 7.69789
1.87689 120.959 0.383302
19.2613 129.95 5.14629
4.71771 125.861 -5.93724
9.69905 129.356 -6.45605
-5.99075 112.203 8.34695
8.37976 126.839 -2.8155
-4.17739 113.972 7.32759
6.14541 127.243 -6.55709
-23.9352 102.595 4.54293
10.7384 128.622 -3.10359
-4.24562 114.953 5.35998
-14.8646 107.642 6.40839
14.248 125.35 8.69197
-10.9802 109.871 7.04691
6.10356 124.57 -0.697354
-0.949997 117.695 4.33115
-22.1677 103.216 6.03232
-3.46743 117.377 1.62731
2.27738 121.111 1.57429
-7.96996 111.879 7.12606
6.06422 127.425 -6.5034
-28.7685 102.3 -0.85179
7.04995 122.64 4.97779
7.95935 123.199 5.07646
8.14124 126.182 -0.920499
13.2688 129.845 -1.61239
-13.8431 115.257 -7.67312
9.08895 127.888 -3.14147
1.95024 123.722 -4.03523
14.8279 130.082 0.0561775
-26.3582 107.825 -8.95952
-0.00951505 115.211 11.2584
4.52172 126.261 -5.80818
-3.46975 114.975 7.09978
-23.1016 103.164 5.33072
8.99084 129.424 -6.3754
12.0488 129.687 -2.75164
-29.3836 104.664 -6.27709
5.03808 120.654 6.7495
-26.6903 102.492 1.95338
14.4307 125.869 8.58708
-1.28914 117.612 4.66798
-20.1582 104.113 7.58654
-2.52255 116.523 5.49246
-2.27333 116.855 5.14689
9.22364 124.388 4.9443
8.14369 127.392 -2.80003
6.74807 121.933 6.79286
-29.4175 103.058 -2.51415
1.7297 123.897 -4.05759
17.194 128.703 6.80462
17.4539 129.995 4.45169
-3.49419 117.371 2.64419
-24.2074 110.369 -10.6956
9.65781 123.535 7.52899
3.11791 119.172 7.87566
-4.08316 116.009 4.78925
-14.9586 108.153 6.58308
-9.02061 118.15 -6.32881
5.50511 123.121 2.9748
-0.984437 120.506 -0.289128
2.41255 124.599 -4.27419
10.9356 130.201 -4.44945
12.4807 130.298 -2.53997
12.3013 124.34 9.74825
5.93452 125.123 -0.488391
6.93991 128.565 -6.33943
8.82453 123.844 6.15317
-9.24857 111.776 7.06748
12.5209 130.395 -2.5248
6.78899 128.532 -6.32695
9.43557 128.698 -3.08932
-0.343314 115.593 11.2237
6.87556 123.392 4.65355
7.90025 126.282 0.00539431
-9.38472 118.115 -6.22492
-3.66694 121.938 -6.50917
-26.1426 108.588 -8.86798
3.44237 119.887 7.51081
-29.3514 103.804 -3.08601
-5.90289 112.26 10.9506
16.0072 128.125 7.37501
8.19294 124.462 4.49231
-11.5405 110.508 7.10562
-0.894511 118.508 4.71643
8.90533 127.735 -1.3862
16.9419 131.011 2.62273
8.79594 123.708 6.97472
1.86379 121.099 3.07001
7.8105 126.366 0.0699932
-17.2883 114.565 -9.09553
-17.4691 114.53 -9.23749
-25.7264 109.233 -9.2855
9.48659 124.753 5.8155
2.0691 121.514 2.58895
13.4464 130.914 -1.73749
-28.9194 103.55 -1.60327
-0.419777 115.84 11.1874
-28.1953 107.316 -8.51184
1.67824 124.401 -3.94113
1.2412 122.292 -0.0694434
5.87806 125.478 -0.432475
10.5189 130.122 -3.76961
-10.8432 111.175 7.11993
-29.2924 106.225 -7.45053
-1.50519 118.181 5.08497
9.71165 125.29 5.38915
0.315034 122.057 -0.535706
-19.1646 114.234 -10.4792
10.7524 130.507 -4.11134
-14.195 109.234 6.82944
5.49279 123.072 4.46786
-2.59834 117.348 5.59619
5.15768 123.57 3.06187
6.81098 124.253 3.87218
-6.13297 113.17 9.63782
17.1118 131.416 2.82197
-21.6176 104.624 6.66346
9.06617 123.973 7.58736
-17.74 106.423 8.15771
-19.7982 105.243 7.87792
7.81927 124.913 3.97468
5.02381 127.943 -6.1522
18.0633 130.987 5.17168
16.8428 131.836 1.74672
9.72308 128.762 -1.39325
-29.1474 104.152 -2.25303
-5.52634 115.039 6.91115
-28.5863 107.442 -8.35761
17.105 131.394 3.20505
5.43368 124.886 1.14312
-2.2921 117.828 5.54276
9.57146 128.969 -1.77918
15.3502 127.886 8.41375
-13.005 110.287 7.00379
17.01 131.156 3.8251
-21.0253 105.063 7.17079
-21.7737 113.155 -10.8006
-0.524955 116.443 11.0937
7.31342 125.313 3.07283
8.91146 130.553 -5.72815
8.0551 127.754 -0.95064
2.9076 123.068 1.92463
-10.6789 111.84 7.11781
16.5676 129.343 7.2481
9.73374 125.543 5.98508
4.97481 121.681 7.68103
-20.8229 113.856 -10.8104
0.374172 124.442 -4.33182
4.35239 127.687 -5.75758
-25.5928 109.947 -9.02926
-4.66501 122.064 -6.09538
9.55517 124.53 8.0211
-5.75799 114.049 9.33862
9.6849 131.018 -5.37862
15.3538 128.054 8.53683
-1.05134 119.112 5.12808
11.4593 132.095 -5.17463
-20.8167 105.342 7.38643
17.8768 130.417 7.14949
0.896754 124.837 -4.06603
-12.906 110.659 7.04788
-7.28615 120.49 -5.99636
1.34179 123.342 -0.255863
-10.8069 118.213 -5.84456
-24.1293 104.617 4.68671
-24.1075 104.622 4.70673
5.78613 124.192 4.0762
9.18844 127.319 2.23736
16.5473 132.533 1.29539
-28.7915 105.852 -3.97471
-2.87582 115.372 11.1589
4.40029 121.703 7.88775
2.35787 125.977 -3.83777
-6.85576 114.686 7.45027
-28.4564 106.391 -4.35674
9.7783 126.351 5.53658
12.3801 131.638 -1.97674
6.72822 123.545 7.38867
-0.31209 120.228 4.90019
6.5122 127.553 -1.23655
-0.170567 120.374 4.82455
5.55841 124.382 4.16478
-18.135 107.193 8.23693
8.24627 128.222 -0.200011
17.3546 132.593 3.11211
1.37382 123.991 -0.416156
-3.52322 115.384 11.0573
-10.5482 118.842 -5.64007
7.07097 128.311 -1.66519
6.26331 125.217 3.75632
1.13419 118.715 10.5001
18.4247 132.25 5.52259
-6.58596 115.233 7.47885
-4.39206 116.372 8.13744
11.1259 130.282 -0.048379
0.418174 118.204 10.8316
7.43551 124.652 6.81134
5.19069 125.662 1.70718
3.47214 124.793 1.33282
0.849752 125.592 -3.87823
4.92112 124.89 3.12378
9.41396 126.528 5.8978
11.7025 132.535 -3.61706
8.18447 131.099 -5.36005
-1.30505 122.128 0.698654
3.21296 127.496 -4.44578
9.31938 131.707 -5.00616
-28.111 106.961 -3.66859
8.22143 127.335 2.77446
-2.38583 120.919 1.94842
13.4752 127.586 9.4842
11.1579 130.639 -0.0403295
7.52067 129.19 -1.88281
5.38532 126.656 0.582566
-20.9382 115.026 -10.6279
-14.3861 117.705 -7.35696
-6.54786 115.698 7.56101
-4.38474 115.937 10.0307
11.2064 126.284 9.40895
9.09482 126.563 6.08844
1.89622 126.617 -3.76291
6.45733 128.195 -0.872485
10.6827 126.198 9.10902
11.8777 132.381 -2.22042
-3.41708 116.436 10.6167
11.0429 130.875 -0.0599782
9.11639 132.02 -5.01906
-26.7688 110.548 -8.48551
-14.3981 111.222 6.95625
-27.9816 107.471 -3.50955
-8.60251 114.679 7.59842
-4.09877 116.366 10.1558
-18.2101 116.728 -9.70494
2.21945 121.179 8.61944
-7.43629 115.369 7.76303
-14.5944 111.144 6.9774
-2.29081 121.4 2.12983
6.44017 128.195 -0.313717
16.9312 134.038 1.66657
10.2235 130.471 0.0913265
7.0913 125.503 6.31063
-2.04288 117.494 10.8046
11.7861 127.016 9.60051
13.2476 128.231 9.0683
17.511 133.775 3.22355
-2.8721 119.054 6.55172
-5.22132 123.116 -5.10232
-11.5466 119.261 -5.51346
3.61041 125.263 2.40576
5.9418 126.021 4.07924
8.29365 130.574 -2.29674
-1.77212 122.223 1.64686
8.54038 130.883 -2.49087
-25.9627 106.096 2.88181
-12.8175 118.986 -6.39444
-27.1692 106.318 0.923993
2.3853 126.018 -0.403073
-3.75621 118.945 6.1468
-17.0288 117.508 -8.80147
15.0386 129.583 9.26394
-0.418771 121.477 5.48865
-5.80129 123.041 -5.02824
8.7658 129.045 2.11544
-28.0239 106.842 -1.04656
-22.4281 107.005 6.34237
-9.50968 120.724 -4.98316
3.24003 128.672 -4.38782
-0.107087 121.88 5.36084
9.61477 133.196 -5.24548
-0.904473 126.143 -4.63122
9.47845 130.413 0.51685
-28.132 107.194 -1.62771
-2.67163 117.906 10.3666
-10.4354 120.238 -5.03922
-1.73323 122.582 1.84027
-18.1394 117.478 -9.603
-20.7366 107.582 7.70097
-8.93118 115.221 7.69121
7.49754 129.176 0.623622
8.30599 130.97 -2.02226
-1.33705 118.866 10.5147
-4.30367 124.293 -4.8567
11.9207 133.683 -2.59215
-2.37942 125.579 -4.88549
10.9894 132.314 -0.90884
12.63 133.624 -1.41215
8.24446 129.832 0.653243
12.2367 133.397 -1.30274
-1.02855 121.517 5.83626
-18.0401 117.871 -9.53413
15.6253 134.831 0.537944
5.71813 131.287 -5.40594
7.31491 126.643 6.59828
4.32926 126.909 2.007
-19.539 117.236 -9.89093
6.50622 129.494 -0.349369
-21.3019 107.963 7.44333
13.8055 129.937 8.88933
-4.62103 118.804 7.34943
7.21253 130.298 -0.763552
5.1193 125.294 6.98306
9.3872 128.771 5.50741
11.8268 133.537 -1.1905
0.149777 127.288 -3.85295
14.6439 135.052 -0.492951
-23.7812 114.917 -10.2148
1.69395 121.997 9.43084
12.2518 133.957 -1.30957
-19.9309 117.316 -9.92353
-22.7092 107.965 6.07891
8.04056 133.084 -5.00298
-22.3945 108.02 6.46115
-7.3054 117.149 7.77523
-8.02655 122.602 -4.62083
4.41869 128.004 0.914445
-4.4897 119.263 7.25772
-27.3738 111.904 -8.18436
-28.2017 110.271 -5.75212
-11.7495 114.731 7.30808
3.70105 130.769 -5.4082
0.296394 127.772 -3.70749
-27.6057 110.362 -4.86225
11.6347 129.28 8.54003
4.60809 127.831 2.08362
-13.0191 120.354 -6.04465
17.7718 135.558 3.86272
4.30469 128.544 0.364619
-10.1155 121.651 -4.67339
11.2901 129.132 8.62908
17.7048 135.688 3.57953
2.62616 125.705 4.18679
-0.128581 123.284 5.55387
14.0905 135.502 -0.858126
-15.1876 119.799 -7.50261
1.13087 121.92 10.1501
-6.55219 124.019 -4.61311
11.8227 134.709 -2.16736
7.56291 128.173 5.86333
18.1021 134.481 7.0236
4.22049 127.468 2.98753
-21.3823 117.192 -10.0789
3.4369 124.537 8.15268
-5.6033 119.225 7.22839
-16.0968 119.79 -8.09072
9.53932 129.098 7.12794
9.76345 132.91 -0.470261
11.2081 135.904 -4.78773
-15.1461 120.112 -7.26941
-26.8873 109.333 -0.441844
-25.5449 108.494 3.19345
-2.79826 120.503 8.78762
3.51704 125.316 7.28266
14.5984 136.09 -0.269358
11.4126 130.004 8.22508
-10.9811 115.836 7.74618
2.99689 124.696 8.07712
-17.0492 119.761 -8.67852
-13.2585 120.87 -5.84917
-1.42913 124.283 3.05361
2.76025 124.445 8.41717
-14.8391 120.385 -6.85617
6.35132 127.596 6.7232
0.847791 128.779 -3.20921
4.18483 131.953 -5.32127
-20.451 109.693 8.0918
-4.77693 120.305 7.06181
-12.996 114.948 7.23296
4.80111 126.93 6.18764
-23.5667 116.32 -9.91784
6.16902 133.288 -5.20505
-27.7354 112.427 -7.26269
-26.5782 113.737 -8.43873
-26.5108 111.269 -3.13361
-18.7362 110.761 8.65484
15.2727 136.531 0.746553
16.8963 136.88 2.21784
-22.5301 109.463 6.52852
13.8283 136.268 -0.514084
3.90076 126.701 6.19575
-15.2891 120.647 -7.03902
-26.0109 109.508 1.85144
-7.91258 118.462 7.56378
4.89428 132.839 -5.25709
-13.7582 114.747 7.51918
0.195741 122.763 9.7169
-0.707732 122.29 9.64226
-26.0606 110.403 0.397822
16.5678 134.216 8.1677
-8.70277 123.798 -4.16805
-9.70842 123.231 -4.31627
-1.15934 122.278 9.30841
-7.70891 119.009 7.35284
-17.1599 112.396 8.49235
-13.0526 115.58 7.37679
17.7969 135.703 6.89916
0.0244184 122.965 9.61457
12.2193 131.512 8.19296
-8.34684 118.515 7.69433
-15.1714 120.997 -6.72294
-19.0008 119.53 -8.80421
10.8876 136.665 -4.32206
1.68934 126.273 5.07119
-2.40316 123.25 5.89619
5.3242 127.983 6.56981
15.3004 133.442 8.70675
2.2545 128.988 0.471463
10.5946 130.803 8.01634
2.08278 126.825 4.86087
-22.686 110.097 6.47897
2.27267 127.049 4.75147
14.1848 137.08 -0.146765
10.4111 134.981 -0.754937
9.69565 130.572 7.61385
-28.2083 112.241 -5.1581
-24.9098 112.134 -0.33413
5.39519 131.112 0.872358
10.8032 136.127 -2.2411
-14.5087 121.676 -6.0852
0.866877 128.015 1.42462
10.5847 137.155 -4.53676
-1.68931 123.304 8.07942
-7.705 125.212 -3.85038
-1.01409 125.875 3.8466
9.45159 134.694 -0.492209
12.7801 132.717 8.1929
13.4795 133.033 8.49961
-1.41427 123.8 7.76874
5.66667 131.024 2.257
-13.9521 115.945 7.49868
-23.916 110.615 5.25163
-27.2348 112.468 -3.04775
-16.1718 114.221 8.30651
-11.2441 117.442 8.24807
-1.24576 129.482 -3.3944
9.24527 137.311 -5.62392
7.73474 136.173 -5.2592
-24.251 112.156 1.88442
0.00766407 127.385 2.76678
-12.2038 123.19 -4.94722
-12.8877 116.765 7.63822
-1.25402 125.782 4.49195
18.0347 137.993 4.97591
-6.10835 121.661 6.59213
-0.221586 124.379 8.906
0.47048 130.607 -3.24091
5.94048 129.599 6.37889
-0.905715 124.755 7.30083
-4.22017 122.644 7.26841
-11.1378 124.005 -4.88006
-12.2573 123.353 -5.00741
9.14088 131.602 6.66643
8.75196 131.429 6.51889
2.41608 130.153 0.653983
14.373 134.036 8.74003
-27.913 113.857 -5.94322
1.33632 126.601 6.9009
-14.2743 122.706 -5.79071
-0.475482 125.939 6.1322
-6.06109 122.163 6.5183
8.54044 131.594 6.56116
-1.98178 125.079 5.99869
-18.6235 121.411 -8.82056
4.15422 130.338 3.28744
-24.0178 118.151 -9.2443
-14.3184 116.419 7.62124
-11.1636 118.079 8.42404
0.360953 128.154 3.03134
1.05156 129.059 2.29981
-16.5864 122.347 -7.48548
0.703966 127.127 5.89961
6.87441 136.501 -5.34077
5.55471 133.081 0.0757398
-10.231 125.077 -4.38998
-14.7415 122.945 -5.95658
-4.07916 123.573 7.1711
7.84962 137.239 -5.37556
-18.591 113.834 8.15898
-23.9629 112.429 3.9599
6.41703 131.081 5.92742
10.6766 139.028 -4.89481
10.6374 138.687 -4.19698
0.593562 128.683 3.22596
13.7394 138.552 0.296599
-0.553177 125.669 8.01087
12.9402 134.54 7.79228
-23.9167 112.317 4.61307
-7.16172 127 -3.50984
-2.44136 125.403 6.25657
6.01404 132.793 2.30101
-21.3844 120.43 -8.75832
-21.3848 112.457 8.08046
-27.9551 113.672 -3.26482
-20.5863 120.92 -8.5015
-17.8899 114.788 8.12568
10.4454 136.815 0.256584
0.693307 127.533 6.70406
-23.5163 119.529 -9.2508
1.04116 132.552 -3.32419
-21.057 112.753 8.35376
16.8635 137.391 7.9711
6.07734 133.506 1.55419
16.0882 139.522 2.58117
-23.8748 119.368 -9.14508
-1.41376 130.899 -2.94775
-27.812 114.986 -5.24588
11.6719 134.491 7.3284
-27.8617 114.518 -4.15649
18.1586 138.944 6.89104
-23.4349 112.91 5.27771
-20.3328 113.315 8.68969
1.02059 128.219 6.42687
-21.9555 112.948 7.5615
15.2476 139.687 1.80904
15.1812 136.396 8.63962
-0.0903748 127.315 7.13707
3.3643 132.691 0.527084
1.2318 129.959 3.48624
-20.9465 113.253 8.56079
-4.86593 124.425 6.93439
-8.87161 126.866 -3.61666
6.55754 134.288 1.73328
0.995528 129.034 5.30473
4.10576 132.04 3.20904
-22.2584 113.546 6.54125
-20.6786 113.509 8.76281
-11.6276 119.49 8.5483
-0.185511 127.904 6.4923
2.74441 130.96 4.03988
2.40027 131.708 2.12943
12.899 135.874 7.60794
-8.09654 127.562 -3.30921
6.87462 132.665 6.27949
-12.5531 125.903 -5.70595
6.31543 135.104 0.525752
-20.0827 114.291 8.6516
-27.8709 114.876 -3.09215
14.0983 136.705 7.94557
-17.1533 116.624 8.05557
1.56487 129.984 5.35211
-23.2261 115.211 2.94421
6.61401 135.427 0.885219
-21.2458 121.889 -8.36658
1.05277 129.389 6.12237
6.42519 132.876 6.07511
-16.892 124.319 -7.46725
1.73405 130.649 4.58059
-24.0819 115.54 1.38553
1.97936 130.113 6.14757
-17.9955 116.239 8.34501
16.9288 141.275 3.09251
4.34034 134.063 1.20127
-17.1335 116.974 8.07164
-19.3321 115.198 8.8406
2.44993 132.341 2.44934
-15.7822 117.978 7.97337
12.7727 136.635 7.46649
-25.9634 115.186 0.0844962
1.36575 131.04 3.79881
-8.17073 128.352 -3.39281
14.4383 140.828 1.087
-7.67062 128.638 -3.18902
-24.1123 120.639 -8.62515
-7.17937 124.454 6.48394
-12.9986 119.844 8.34257
4.65311 134.538 1.46911
17.8895 141.182 5.48498
13.5002 140.556 1.09032
-8.8398 128.507 -3.69985
-17.9379 116.874 8.45404
-11.1411 127.681 -4.89201
-14.1966 126.534 -6.62004
-8.27358 123.686 7.38803
-0.257367 130.063 4.95637
-18.1109 116.899 8.56525
3.56932 133.088 3.92489
-6.32418 129.956 -2.87113
-27.6097 115.816 -1.97005
-23.5811 116.595 1.87333
10.3085 139.485 -0.313548
-21.762 115.804 6.07943
-0.736319 129.682 5.45605
15.639 139.103 7.88852
-22.5767 122.332 -8.52455
-27.0348 117.784 -4.9988
-14.8588 119.32 8.31058
-22.0448 116.061 5.45569
-10.036 128.433 -4.26513
-26.0069 119.184 -6.36769
5.31947 138.851 -5.2246
14.6179 138.483 8.17793
-25.8541 116.255 0.110848
10.4269 140.306 -1.08354
13.5395 141.13 1.40132
2.35203 133.671 1.92318
6.12063 139.654 -5.50243
7.80366 140.689 -5.37807
7.79239 137.235 1.86868
-21.3173 123.354 -8.39095
-9.81923 128.771 -4.18014
-25.4596 120.325 -7.53661
-16.3396 118.784 8.13134
-10.9645 122.211 8.27383
14.4715 138.688 8.12778
9.18308 141.727 -5.37742
-24.7357 116.865 0.927172
15.7515 139.821 7.60883
-12.386 128.184 -5.99744
6.17772 135.896 2.94365
-16.2831 126.087 -6.67765
1.08871 132.128 4.24837
-8.78016 124.167 7.68087
8.14477 135.903 6.01675
4.45312 136.002 0.939578
14.2659 138.946 8.05366
-25.9868 119.084 -4.69035
-6.60789 130.734 -2.86175
-7.05257 130.58 -3.0259
5.21385 135.373 3.5895
10.1981 140.607 -0.649973
8.09262 141.507 -5.30695
4.2694 136.04 1.06208
12.1006 138.092 7.46432
-27.2015 116.805 -0.985158
10.5189 142.104 -3.01853
-18.0852 126.122 -8.102
9.13474 142.327 -5.26828
14.0445 139.227 7.97429
14.876 142.389 2.58381
13.6155 139.129 7.74771
7.4691 136.163 5.69349
-10.2089 123.576 8.21532
-1.00221 130.85 5.6304
2.10198 134.46 2.30425
-17.6301 118.766 8.65649
-15.5688 127.647 -7.19805
7.71846 136.566 5.67996
-10.9988 129.725 -5.20842
-25.4759 117.607 0.724751
-21.4198 117.731 5.96672
-8.51776 125.462 7.39216
-13.6874 128.935 -6.89718
4.58914 135.507 4.05623
6.6416 137.17 3.36911
7.4628 136.731 5.5095
0.304388 132.453 4.9167
-19.0718 126.237 -8.24673
-15.2005 120.879 8.32769
1.61098 134.181 3.17597
-26.2338 119.265 -3.11663
-0.216879 132.132 5.14941
-25.4263 117.851 1.0173
13.3633 139.65 7.75363
10.6996 142.89 -2.64452
10.8787 142.823 -2.16858
-26.0024 119.878 -3.88292
-16.9344 127.198 -6.97601
3.07725 136.001 1.65495
1.40501 133.966 3.74594
6.83967 136.511 5.78171
-22.8714 122.773 -5.49186
10.8415 141.379 1.13963
6.61983 136.528 5.86692
-2.75922 134.351 -2.07548
-20.8266 125.501 -7.91872
-16.8477 127.681 -7.048
-24.3473 122.058 -5.24048
-25.7162 120.215 -3.19707
-27.3473 118.478 -1.75419
-2.08749 134.892 -2.02884
6.20895 136.402 6.06384
15.7069 143.755 3.51314
-11.096 124.242 8.22577
8.31544 139.92 1.60864
6.50572 136.736 5.86412
-13.223 130.502 -7.59773
-26.3864 118.302 0.23817
-27.2589 118.724 -1.66199
5.42231 141.186 -4.55553
-15.1328 121.816 8.53728
8.32527 140.165 1.75773
11.5645 139.63 7.27747
4.69521 136.159 5.27058
-24.9412 121.64 -4.34352
-4.46476 129.588 6.71047
-10.9059 131.489 -5.94664
-12.5135 130.976 -7.03593
-22.703 123.481 -5.05467
10.8319 143.871 -2.18527
-24.4461 118.749 2.99446
10.1368 144.303 -3.73567
8.35108 140.428 2.02516
-9.72232 125.885 8.11555
1.7456 135.327 3.81568
-1.69941 135.876 -1.9941
-1.78859 131.845 6.3627
10.5167 144.266 -3.02343
-23.3345 123.771 -5.68805
3.68765 140.309 -3.70377
4.72056 141.172 -4.11645
-26.28 120.233 -2.09222
15.0404 142.418 7.28439
-6.27678 129.24 6.10234
1.45207 135.086 4.29371
-19.9667 126.991 -7.70554
-6.35602 133.551 -2.93818
6.30229 142.696 -4.83565
-12.8847 132.013 -8.3641
9.82662 144.578 -3.96118
10.2539 142.671 0.650104
-9.16846 126.918 7.57375
8.41955 141.365 1.11889
8.43675 141.109 1.68672
-11.0853 132.432 -6.50372
7.63962 141.006 0.913421
-13.3627 123.849 8.54084
-11.2112 132.464 -6.63786
-12.9311 132.302 -8.5997
15.9552 145.193 3.56076
4.4891 141.373 -3.93599
3.12917 137.442 2.60087
-24.2921 122.512 -3.10868
-26.3738 120.505 -1.681
-11.7247 132.665 -7.2902
5.43971 142.361 -4.36591
3.02349 137.396 2.83306
-4.38891 135.068 -2.21741
7.17818 143.783 -4.82645
-23.6949 123.768 -4.57518
-5.28989 130.443 6.48615
7.27803 139.258 5.02729
-7.112 134 -3.39678
4.18682 141.464 -3.73012
-17.4995 129.189 -7.23639
6.92725 138.984 5.31641
-20.8018 119.653 8.39097
-3.22604 131.942 6.46041
9.29024 140.558 5.33268
-23.0084 124.881 -5.46728
-12.1264 133.245 -8.15021
12.1309 141.463 7.5264
-8.7305 128.943 5.62086
10.1749 141.073 5.79342
-24.8494 119.956 2.7311
-20.9878 119.845 8.22702
-18.4978 120.87 9.50544
-10.899 126.465 8.10553
8.31892 141 3.67796
10.4358 143.72 0.856345
7.0327 141.602 0.741136
-24.2666 123.455 -3.42668
7.51893 139.743 5.40343
14.2808 143.302 7.19395
14.2677 145.434 2.86119
10.2185 144.722 -1.08488
-23.8567 120.367 4.05518
15.6811 145.417 4.97437
-7.60814 134.631 -3.85698
15.4907 145.761 4.10055
3.5536 141.668 -3.40043
4.61654 142.552 -3.81432
-20.5614 127.671 -6.64032
-22.9824 123.826 -1.59138
-22.6921 124.979 -3.59247
-21.6103 120.385 7.53046
4.36001 140.083 1.46099
-19.0617 128.922 -6.73426
7.29441 142.381 0.774845
-26.5814 120.527 0.828278
11.0897 142.16 6.51676
2.00964 140.795 -2.8501
-25.7712 120.561 2.13709
-18.574 121.88 9.24363
12.7033 142.968 7.3235
-4.66303 136.301 -2.17778
-21.9549 126.438 -4.87255
8.43735 145.847 -4.45193
-22.6385 125.515 -3.80306
-27.0034 120.751 0.300176
3.62677 139.589 2.20646
5.12487 141.281 0.778212
-21.9073 126.541 -4.78559
-10.7849 127.698 7.8833
-10.3285 128.019 7.85092
-4.14248 133.307 5.2199
-22.1823 127.092 -6.12086
-10.9146 134.998 -7.33015
-10.9207 135.027 -7.34579
-24.7189 123.75 -2.24957
-21.1348 121.309 7.73906
-5.55855 132.505 5.33244
9.35255 142.371 4.81128
-3.06094 134.131 5.44042
10.3588 145.419 -0.0605485
14.9171 146.395 4.07336
-22.4214 125.46 -2.49442
-5.76641 136.431 -2.98542
-24.5513 123.738 -1.69739
14.8873 146.432 4.0519
6.0485 142.333 0.79505
-25.6937 120.935 2.77793
-22.4184 127.128 -5.79896
4.7556 143.691 -3.75091
-22.5375 125.628 -2.70484
-0.795785 136.2 4.68726
-23.1173 126.548 -5.25389
-21.5921 126.669 -3.43802
3.33023 139.82 2.71942
-6.52586 132.298 5.18542
-21.8173 126.605 -3.55459
-7.98755 131.206 5.54039
-15.049 132.791 -7.35184
-20.4777 128.557 -5.80607
-20.6034 128.498 -5.72616
13.9652 145.123 6.1707
-22.7515 126.109 -3.59442
6.0654 142.57 0.869425
-5.35856 137.049 -2.91028
-25.5009 121.777 1.92713
-13.5969 126.147 8.94151
-19.8094 122.603 8.07895
-21.7919 126.803 -3.18844
-5.84402 137.229 -3.48776
-21.7462 127.365 -4.25159
-21.5562 127.966 -5.25599
10.4981 143.323 5.91104
-23.0565 125.905 -2.92575
-23.4307 126.435 -4.4961
-22.6493 126.337 -3.19158
4.99553 144.455 -3.79831
-26.4238 122.97 -1.19947
14.3747 147.157 3.24179
-25.2081 124.308 -2.34327
2.31242 138.953 4.17511
-22.7677 125.715 -1.97102
-16.7526 124.165 9.43334
-12.8679 127.368 7.96947
-8.58168 131.587 4.99489
5.31209 142.453 0.988961
-14.4211 133.564 -6.9567
-25.6387 123.979 -2.00145
-14.032 126.228 9.00498
-10.3676 130.181 5.71146
-23.0361 126.185 -2.98483
-22.9625 126.468 -3.36381
-9.84543 131.073 4.73303
-21.7567 126.743 -2.18669
-22.3014 126.594 -2.59626
-25.5007 124.027 -1.51833
2.67959 142.861 -2.83533
-18.8826 130.195 -5.37024
-22.1652 127.102 -3.26668
-23.1218 126.16 -2.57885
-9.14608 131.748 4.6157
-10.1446 136.9 -7.55719
-26.641 122.741 -0.115598
-22.9678 127.192 -4.45502
11.3435 144.223 6.28811
-24.5726 122.067 4.19619
-24.436 124.917 -1.58508
-9.20676 137.37 -7.10044
-13.6791 134.193 -6.42468
-25.7093 124.117 -1.49986
-25.7957 123.936 -1.16691
-4.69786 134.808 4.57423
-6.80114 133.629 4.26766
-25.4962 124.717 -2.3179
11.9842 146.866 1.95693
5.57094 143.132 1.15759
-24.3539 125.373 -2.0335
-0.346022 137.862 4.28975
9.92473 147.306 -1.6009
2.56247 139.883 4.04868
-10.6738 130.231 6.41831
-14.3781 133.887 -6.24884
-24.964 122.439 3.47097
6.45882 146.291 -4.08391
-23.2877 125.765 -1.24133
-14.31 126.811 8.76234
5.48887 145.567 -3.81169
-11.6257 129.343 7.12649
-7.89152 133.074 4.34887
-21.5472 123.062 6.96198
-24.7348 124.653 -0.692647
-23.5627 127.379 -4.81301
9.53072 147.973 -3.2573
-4.73535 135.067 4.54029
-18.0257 131.426 -5.80159
-23.7769 126.064 -2.32435
-25.7357 122.337 2.87376
-23.6857 125.869 -1.76828
-8.11807 137.6 -5.31743
11.6044 144.812 6.32815
-1.16175 140.529 -1.93147
-26.0706 124.602 -2.16041
-24.4897 125.271 -1.41613
-23.8661 127.283 -4.77962
-26.2146 123.763 -0.516076
-14.7659 133.731 -5.7842
-25.2501 123.838 0.809465
5.36056 145.73 -3.70228
-23.9819 125.905 -1.76664
10.3593 147.827 -1.30287
-4.27743 135.434 4.91654
-19.0822 130.406 -4.5528
6.75567 144.468 0.900123
-27.6693 122.694 0.149495
-23.4041 123.257 4.79081
-18.602 124.615 8.44764
-17.9137 131.835 -5.70391
13.8608 148.158 3.08063
-18.9409 130.604 -4.41083
8.56058 144.394 3.87471
-14.9655 127.268 7.99553
-25.2365 124.843 -0.795969
-22.2774 128.386 -4.2287
-23.222 127.654 -3.93499
-23.615 127.7 -4.52586
-22.2128 128.253 -3.7569
-11.9927 136.598 -7.44552
-22.3185 128.291 -3.92931
-16.1441 126.102 9.0803
-23.5988 127.615 -4.16044
-15.2355 126.857 8.78061
-21.9243 127.803 -2.22186
-25.1914 125.015 -0.765918
11.6993 147.875 1.18186
-23.769 127.421 -3.87184
-25.9298 125.362 -2.46629
-22.4527 128.237 -3.79032
-16.1781 126.187 9.03444
-23.2708 123.727 4.63901
-26.1892 123.785 0.578489
-20.8144 123.988 7.53084
-3.96833 136.038 5.03253
-11.5555 130.409 6.73665
-22.6847 128.041 -3.34741
-23.5069 127.751 -3.75617
2.95013 141.37 3.47892
-23.2822 127.226 -2.28869
3.36381 141.958 2.85015
4.85995 145.89 -3.38668
12.9541 146.799 5.67425
-17.841 126.043 7.63917
-23.3791 127.302 -2.47807
-22.302 124.049 5.82715
12.4391 148.033 2.5645
4.15881 142.924 2.10783
-20.6835 130.644 -5.69968
-20.0269 130.842 -5.22176
10.1876 145.245 5.47233
-2.90616 140.305 -1.8691
-15.0397 128.178 7.20618
-26.6144 124.089 0.123206
-19.1685 125.499 7.30701
9.38047 145.286 4.4478
-22.1549 129.351 -4.74014
-8.69539 139.072 -6.91742
-24.366 126.989 -2.60072
12.2143 146.441 6.08962
-21.7216 130.269 -5.89234
8.49389 148.763 -3.8188
-24.8573 126.862 -2.92731
-26.5916 124.646 -0.580908
-18.8309 126.351 6.36542
-3.30649 140.411 -2.13834
-20.7179 130.965 -5.81099
-21.0097 130.875 -5.94087
-7.47293 139.376 -5.37225
-21.2105 128.933 -2.02466
12.7649 147.247 5.53262
-26.0416 125.164 -0.607502
0.654114 143.09 -1.98847
7.46134 148.308 -3.71573
-7.14645 139.488 -4.91663
-26.1675 125.149 -0.544654
-25.2679 125.333 0.3756
-17.4413 126.773 8.03358
10.2726 146.018 5.13352
-17.6333 127.448 6.40107
-11.346 132.584 4.18799
-21.1622 124.806 7.24001
-20.3909 125.069 7.75364
-25.8813 125.105 0.338469
9.68822 147.283 2.00649
-2.64048 141.204 -1.86947
-18.6056 127.514 5.27351
-11.0116 132.934 4.21961
-19.401 131.269 -3.62268
-10.1646 133.51 4.31936
-9.23459 134.16 4.21673
-17.8257 132.835 -4.62067
-25.5116 125.591 0.259167
-23.6758 124.854 4.35551
-20.9249 130.161 -3.00985
-20.4281 125.89 6.64397
1.48697 144.206 -2.15549
-20.3921 125.964 6.56169
-26.7289 125.435 -0.862027
-17.3961 128.379 5.6045
-11.5084 132.071 5.83659
-24.9542 125.2 2.10628
-25.9186 125.119 0.983635
7.18306 146.43 1.06429
10.5874 149.016 0.364535
-25.2274 125.861 0.591302
-23.147 129.718 -4.6374
-25.1952 124.682 3.22827
-20.1405 131.083 -3.33892
-2.66677 141.674 -1.89068
-8.91658 139.87 -6.55013
-23.5201 130.206 -6.00864
-16.7394 128.756 6.37459
-11.7987 132.718 4.802
-26.4715 124.233 2.85385
-25.9132 127.604 -3.42095
-25.9578 125.457 1.1412
-14.723 130.053 6.79068
-18.5269 128.559 4.92765
-4.1222 138.197 4.20928
-20.0771 131.088 -2.42988
-27.2635 123.913 2.9402
-15.093 135.294 -4.38382
-10.6676 134.194 3.9428
-21.2117 126.718 5.43653
10.5893 147.773 4.27497
-26.8155 125.542 0.445126
9.80326 148.258 2.33279
-1.57292 140.096 4.20424
-5.64728 141.567 -4.35372
-12.0672 133.621 3.68846
-11.8831 133.787 3.64166
-26.2183 125.778 1.07944
6.11603 146.468 1.42012
-28.8771 122.981 3.39608
-5.06106 137.875 4.36519
8.68561 148.259 1.20796
-25.9755 129.016 -5.30023
-24.3557 130.305 -5.77973
-23.3369 125.749 5.18901
-28.1715 124.133 2.05962
-15.9473 134.75 -3.66668
-21.1671 130.835 -2.50096
7.65453 149.876 -3.46976
-27.1681 124.001 3.79361
-28.2986 125.587 -1.05378
-23.4865 130.225 -4.27454
-14.3631 136.718 -5.52363
10.6976 149.76 1.05492
-23.7187 130.691 -5.43992
-28.4922 123.112 4.11654
-24.7878 125.61 3.90911
-1.10738 140.727 4.22523
-25.8038 125.667 2.49126
-4.52522 141.97 -2.9263
10.4138 148.676 3.23331
-26.6035 125.135 2.58105
-27.828 122.947 5.59052
-8.78686 136.587 2.74764
5.60832 148.678 -3.15203
-6.42358 142.058 -5.49327
10.4102 149.005 2.77266
-24.6918 129.46 -3.61596
7.40467 147.892 1.1283
-28.706 122.976 4.61316
-29.2363 125.272 -0.925944
9.76163 149.227 1.65704
9.56097 150.34 -0.913348
-20.8546 132.715 -5.05689
-14.8988 131.497 5.59471
-28.2643 123.07 5.27151
-13.7666 137.907 -6.21484
-23.4306 126.267 5.24445
-15.3536 131.157 5.93646
4.95407 148.499 -2.95558
-23.2481 126.714 4.62032
-19.4524 132.352 -2.07291
-12.3597 134.421 3.21171
4.71119 145.9 2.24338
-16.8557 130.005 6.43194
-11.4204 135.165 2.99258
-7.25927 138.016 2.63867
9.03947 149.262 1.12617
-28.1399 127.091 -2.612
-15.9325 130.856 6.20643
-17.8687 133.904 -2.79574
8.43707 148.994 1.19172
9.6695 150.522 -0.332149
-25.9782 129.604 -4.62285
-15.5417 131.502 5.54233
6.73294 147.939 1.19362
4.64752 148.545 -2.81287
12.0331 151.306 1.41479
-25.4478 126.001 3.95805
-25.6579 129.375 -3.4125
-17.2085 134.513 -2.74829
-25.9959 125.884 3.50646
-20.4445 131.941 -1.68832
-22.6838 132.234 -5.33212
-26.5169 125.027 4.62788
-30.1866 124.443 0.88985
-4.51212 139.511 4.07295
11.0246 149.984 3.13875
-13.0677 133.84 4.47076
-23.6337 126.967 4.60154
-5.54722 138.972 3.87973
-21.6806 133.285 -6.02374
-28.8146 126.81 -2.04226
-16.6761 135.169 -3.16212
4.73921 148.871 -2.78103
-20.3751 129.247 4.49489
4.17527 145.903 2.77911
-19.7622 133.866 -4.32572
-30.2788 124.071 2.0244
-28.3466 123.88 5.12763
-17.0916 130.658 6.14544
-4.42355 139.869 3.98161
-12.6727 134.898 3.26512
-28.3227 128.276 -3.99664
-21.5657 128.204 5.33821
2.55875 147.366 -2.22849
-18.5695 134.383 -3.56016
-28.6763 123.821 4.94696
-25.8855 125.386 5.44939
-18.7987 133.374 -1.71896
-29.0461 123.968 4.24137
-25.5554 126.458 3.73988
-27.3011 129.315 -4.59545
4.78596 149.137 -2.74272
-24.8672 127.3 3.06669
-25.6223 126.238 4.28325
-24.9441 127.255 3.06879
-27.8859 124.608 4.65495
-18.8158 133.356 -1.38883
6.54595 148.469 1.22624
-9.33614 141.523 -5.61791
-4.7379 143.431 -3.30817
-3.03916 141.076 4.01589
-27.7617 129.098 -4.30012
-21.7002 133.661 -5.66338
-6.58369 139.3 2.96597
8.23034 149.809 0.982903
-13.1541 134.922 3.33111
-13.7563 134.028 4.39736
-11.8752 140.218 -6.04643
-19.0196 134.15 -2.92998
1.19128 146.702 -1.90442
-17.7561 134.676 -2.18819
-30.2986 124.382 2.45906
-29.1907 124.236 4.63056
10.1163 151.544 0.572931
-20.4013 134.341 -4.61193
-19.5791 130.306 4.98333
-29.3958 125.024 2.801
-25.4553 126.474 5.09122
-28.7509 124.675 4.48
5.26855 147.636 2.32342
-16.7363 131.96 5.49092
-9.08497 138.358 2.47397
-20.2182 130.185 4.65387
5.07298 147.574 2.54263
-21.3951 128.831 6.19672
-21.3454 128.89 6.20098
-8.2555 138.895 2.97426
-28.803 124.914 4.53293
4.44772 147.034 3.1537
-14.1003 134.371 4.65308
-5.65296 144.323 -4.80964
-1.53438 145.65 -1.91876
-25.1735 127.398 4.42894
9.47214 151.812 0.0772714
-24.7133 127.747 4.4116
-14.0741 134.991 3.62698
8.94802 151.928 -0.716209
7.23772 151.783 -2.61455
-24.1754 127.724 5.45401
-2.70425 145.259 -2.25203
-23.6962 128.211 5.16297
8.80381 150.935 1.44468
-1.42517 143.105 4.08006
10.9165 152.495 1.10336
-10.1293 142.066 -5.23762
10.0362 151.599 2.0712
6.65089 151.751 -2.73227
-23.797 132.74 -4.02333
-7.04776 140.253 2.90826
-26.0357 126.742 5.66765
-5.4179 141.235 3.16937
9.13705 152.33 -0.351626
-25.0115 127.792 5.0422
5.15529 148.351 2.80766
6.87955 152.076 -2.42917
-5.19072 141.687 3.06675
-26.4125 130.765 -2.70333
-24.8173 128.219 4.83533
-18.0604 135.757 -1.79629
-3.37951 142.942 3.17141
-12.9498 136.719 3.38452
-13.0233 136.701 3.38427
-13.1375 140.818 -5.37686
-29.0095 128.793 -1.47461
3.52213 150.087 -2.13946
-6.29305 145.113 -4.94253
-26.1658 127.247 5.69157
5.70271 149.307 2.54881
9.00636 152.09 1.21647
-22.1333 129.341 6.89519
-0.0860678 144.928 4.0658
-17.1253 132.865 6.3555
7.70661 151.278 1.34667
-15.3233 134.565 5.3333
-30.185 126.155 2.92996
-10.1272 143.032 -5.35398
-6.09553 141.587 3.1649
7.38534 151.044 1.62666
10.2648 153.339 0.748177
-14.4502 140.301 -5.29152
-18.1423 132.285 6.57005
-15.6966 134.331 5.58234
-26.3183 127.602 5.67501
-20.6145 131.422 5.52499
1.6749 146.453 4.28511
-17.3845 137.309 -2.13763
-8.79274 144.595 -5.66716
0.0673863 145.648 4.13524
-1.35713 147.686 -2.04599
-15.8247 138.91 -3.17261
-0.419301 145.442 4.04921
-1.65092 144.714 3.96614
-18.3245 132.917 6.24064
-20.5386 136.987 -5.2415
-25.9515 128.457 5.46229
-29.743 126.682 4.06255
7.80145 151.997 1.80855
-11.638 139.263 2.37168
4.61792 151.876 -2.10503
-18.2071 133.237 6.21649
-25.0756 128.76 6.36623
8.22816 152.473 1.67789
-0.729741 145.501 4.28503
-19.8342 136.986 -3.6995
-28.1821 127.604 4.80066
-3.16784 147.277 -2.61549
-29.7747 127.335 3.24844
-14.4313 137.122 3.57352
-27.971 130.547 -0.883644
-24.3119 129.818 5.66277
-25.7262 129.533 4.50942
-14.6736 136.631 4.59277
-11.3869 139.934 2.15451
-2.45393 147.86 -2.39403
7.42174 151.88 2.618
-23.4992 135.315 -4.41898
-26.4355 129.166 4.61166
-8.09282 141.053 4.53594
-25.2199 129.17 6.42605
-22.5195 130.991 6.28758
-18.697 137.962 -3.15333
-16.8223 135 5.69525
8.80874 153.593 1.34702
-18.6347 138.198 -3.36182
-13.4691 138.631 2.73936
-14.2241 141.646 -4.53992
-7.17947 141.932 4.4873
-4.48353 147.403 -3.18711
-30.0945 129.351 0.187444
-7.9169 146.432 -5.51376
-17.4608 134.728 6.37724
-25.59 130.928 3.4414
-17.4128 134.852 6.29774
-15.5605 136.478 5.4047
-15.2796 136.684 5.35952
-21.1121 132.898 5.51551
-28.497 128.738 4.3463
-1.00397 149.517 -2.06668
-28.0215 129.101 4.35066
-4.15404 148.086 -3.11766
-4.38483 148.062 -3.17788
7.78352 154.511 -0.142281
-16.3518 136.202 5.64677
-26.185 131.141 3.16105
-16.9006 139.683 -2.09298
-18.0012 139.585 -3.3271
-24.8667 131.59 4.19056
-21.919 132.601 6.09134
-7.90144 142.053 5.26925
-21.8337 132.738 5.97809
-20.9695 133.969 4.61462
-27.671 132.265 -0.876803
-9.81103 146.081 -5.63148
-7.16332 147.669 -5.22285
-18.2061 134.862 6.73058
-12.8252 140.322 2.56449
-10.987 145.318 -5.41161
-8.02612 147.3 -5.40105
-6.19426 148.14 -4.62075
-22.7996 132.267 6.24151
-16.6101 136.456 5.8555
-24.5831 131.123 6.27599
-11.4832 145.095 -5.24075
-10.0702 146.196 -5.60805
-11.3329 145.31 -5.29127
-17.5416 140.167 -2.85316
-25.1646 135.043 -2.34611
-28.6255 131.838 -0.223484
-23.425 132.32 5.89031
-11.8568 141.239 2.82815
-22.5688 132.874 5.91545
-9.96715 141.759 4.35189
-19.6608 139.128 -2.86274
-22.8357 137.401 -3.3502
4.83495 154.295 -1.3454
-29.0503 131.824 0.0111075
-23.8029 137.02 -3.58183
-7.33638 148.331 -5.03753
-24.3415 136.457 -3.08925
-21.5749 138.177 -2.90223
0.38801 151.819 -1.68765
-20.8366 135.041 4.82844
-25.5948 133.125 2.43828
-7.4871 143.177 5.88492
-29.4666 131.271 1.26968
-25.1061 135.785 -1.88008
-11.2632 142.091 3.86044
-8.65079 143.284 5.0245
-8.36233 148.351 -5.17205
-10.0111 147.513 -5.6346
-28.2963 131.813 2.63142
-21.944 135.385 3.80414
5.73369 155.458 -0.703906
-15.1456 143.674 -4.21759
-10.7807 147.118 -5.46836
1.54759 153.299 -1.64883
-27.2515 133.018 2.08777
-11.7246 142.311 3.64213
-26.679 133.468 1.97982
-16.2216 138.669 5.2425
-7.30816 149.197 -4.73771
-12.8262 142.028 3.0329
-12.3514 146.125 -4.92987
-21.4354 135.783 4.59501
-11.9752 142.626 3.22353
-28.979 132.406 1.73843
-2.05944 151.764 -2.47205
-22.4317 135.752 3.61465
-5.11894 150.305 -3.48384
-12.2614 142.615 3.00448
-13.674 145.154 -4.16897
2.16037 154.189 -1.59871
-21.1195 135.974 5.40897
-28.0481 134.297 -0.286657
-11.8782 143.339 2.74016
-10.8918 147.779 -5.24397
-13.7651 141.388 4.30692
-5.82255 150.45 -3.85054
-21.8266 136.128 4.61412
-17.5876 138.113 6.33454
-28.6728 133.255 1.58554
-10.6858 144.384 2.77032
1.02769 154.118 -1.73123
-22.3074 139.309 -2.00125
-15.4302 144.382 -3.28402
-13.2447 142.598 3.44705
-5.60596 150.885 -3.4943
-25.167 137.332 -1.20155
-15.3084 141.132 4.62222
-3.13582 152.549 -2.50792
-11.1012 144.998 2.72049
-16.021 143.752 -1.26213
-19.5709 137.981 6.0591
-28.3425 134.632 1.32033
-17.2578 143.124 -1.46147
-19.3152 138.229 6.06042
-27.0964 135.578 1.64403
-21.8679 140.575 -1.72082
-13.5894 146.991 -3.8732
-26.4628 135.849 2.11473
-17.8373 143.363 -1.75468
-19.4 138.845 6.12759
-15.1125 145.098 -1.18558
-17.1294 140.215 6.42392
-23.0018 140.029 -0.914217
-24.8115 138.964 -0.864914
-13.3975 147.723 -3.74299
-19.2162 143.128 -1.9638
-10.8095 146.394 2.58501
-10.5025 146.657 2.56408
-16.195 141.836 5.0066
-19.9859 138.97 6.1687
-19.5027 143.132 -1.86455
-4.27638 153.238 -2.40533
-26.0921 137.833 0.427303
-12.7662 144.988 4.13811
-25.428 139.004 -0.433031
-25.8565 137.121 3.02767
-23.5732 137.986 4.32482
-13.3559 144.537 4.51297
-6.66235 152.422 -2.9655
-18.75 140.432 6.22826
-22.8891 140.953 -0.361391
-7.26082 152.279 -2.83994
-7.00548 152.475 -2.72062
-18.816 144.297 -1.50425
-26.1624 137.491 2.88395
-21.0636 139.549 6.14758
-16.0972 146.028 -0.662629
-19.658 144.063 -1.33699
-7.28114 152.588 -2.39778
-9.51389 148.801 2.67906
-21.8739 142.651 -0.879675
-5.81697 153.54 -1.71148
-25.6406 138.262 3.56282
