ply
format ascii 1.0
comment Created by Open3D
element vertex 1918
property double x
property double y
property double z
end_header
-14.9657 103.409 6.69152
18.641 98.5887 -5.22867
-21.9771 113.544 -12.5478
-3.33039 102.389 1.18763
-0.141209 110.494 -20.4894
-24.1203 108.568 0.920341
-18.3185 104.157 7.46537
14.8754 98.173 -1.32209
-24.1037 108.653 0.834427
3.35307 109.609 -20.6701
19.3639 100.454 -9.89168
16.9292 98.0492 -2.41399
-0.838182 102.168 0.152884
0.540926 110.44 -20.5635
12.0365 106.874 -19.8794
15.5114 104.538 -16.6937
3.00489 109.844 -20.5753
-11.2017 102.68 6.56761
-17.3013 104.216 7.17938
8.10703 99.0734 1.7908
-8.99875 102.009 6.81043
2.78055 110.078 -20.5407
-23.6283 108.465 1.92825
-0.533691 111.014 -20.2533
19.6355 100.572 -9.27642
15.1956 105.559 -18.0221
9.87107 99.2144 1.05496
-0.555576 111.175 -20.1767
-13.6476 113.069 -15.4599
-0.398567 102.839 -0.143269
-23.6593 109.866 -0.697223
18.6023 99.698 -5.86001
-7.30249 102.348 5.93317
18.8647 99.8716 -6.36439
0.43194 102.861 -0.560882
-10.1739 102.987 6.57389
-23.8678 113.952 -10.1419
-23.4434 108.553 2.57849
5.08932 110.009 -20.8044
8.51293 108.643 -19.8626
-17.8818 114.199 -14.63
-17.0119 104.938 6.98967
-12.862 104.035 6.36797
12.8679 99.1003 0.259962
-23.5377 114.244 -10.5701
14.6582 106.595 -18.8944
13.4648 107.18 -19.3517
1.35453 111.15 -20.3721
-22.5127 107.703 4.60469
17.8765 102.855 -11.7138
-22.2629 114.7 -12.0181
1.56267 111.277 -20.2694
1.58664 103.179 -0.624851
11.2189 108.307 -19.6052
7.99296 109.352 -19.8245
0.298937 103.552 -0.499223
-22.1481 114.943 -12.0901
-20.7734 115.024 -13.2245
-24.0996 114.595 -9.83108
14.875 106.833 -18.4052
-1.16935 103.801 0.139308
-23.1703 111.632 -3.17194
-24.677 112.767 -4.71267
-0.789402 103.977 -0.0256692
6.8103 110.215 -20.2826
2.39119 103.45 -0.650431
-24.8113 114.914 -9.00054
-9.67571 112.987 -14.9369
-22.5415 108.475 4.91221
1.87474 103.683 -0.66273
-10.6732 113.323 -15.0005
7.9029 109.91 -19.7024
-10.713 113.456 -14.9278
-3.05268 104.43 1.59425
-24.2522 115.303 -9.64362
9.08239 100.945 1.52378
-22.996 109.324 3.88031
18.2297 100.484 -3.60746
-23.0851 110.737 0.742287
-9.20674 113.157 -14.7777
-22.656 111.848 -2.13345
-17.6065 115.473 -14.3057
18.4249 101.394 -5.63038
-19.6387 107.126 7.41042
9.71583 109.693 -19.2237
16.156 100.313 -1.21275
-20.5722 115.983 -13.0764
7.31072 102.084 0.777026
-25.164 114.99 -7.33233
-25.2699 114.7 -6.39657
-12.8851 105.797 6.3784
-23.4443 110.293 2.99566
-16.5101 115.604 -14.4875
-15.9534 115.483 -14.5742
-4.25365 104.45 3.84237
-15.1853 115.31 -14.4458
-3.90297 104.62 3.37287
6.7476 102.94 0.0215349
10.4955 109.81 -19.0224
-8.68537 104.811 6.40261
7.51958 102.464 0.767172
7.25444 102.654 0.500081
-6.1195 104.476 5.52221
-4.1854 113.658 -17.7318
-24.7944 115.896 -8.60175
5.97361 111.864 -20.3107
-5.58319 104.559 5.33117
1.23586 112.937 -19.3617
-11.2181 114.563 -14.5175
-2.89406 105.347 1.78493
-25.2071 114.705 -5.01161
3.54986 112.406 -19.5334
13.0698 101.144 0.897211
8.4624 102.258 1.52209
-24.5195 113.965 -3.48584
-3.23394 113.77 -17.9095
-11.7275 105.995 6.73004
-19.6894 108.05 7.4677
-6.4413 105.049 5.52035
-13.8032 106.883 6.31647
15.8872 106.941 -14.5528
-22.8178 112.854 -1.59824
11.915 101.474 1.42415
-7.50294 105.322 5.84445
-19.094 116.881 -13.5212
15.1633 101.452 -0.270764
11.188 101.822 1.70059
-25.3953 115.543 -5.61234
16.326 106.239 -12.4725
-18.7429 108.318 7.27202
2.29359 113.192 -19.0751
7.71439 103.46 0.491509
-6.55452 105.502 5.62625
-3.94746 105.438 3.95725
-12.5835 106.886 6.52992
-13.2477 115.722 -14.0375
7.07807 112.132 -19.6276
9.05922 102.723 1.57476
-4.60192 105.423 4.87186
2.61494 105.675 -0.738177
-18.691 117.248 -13.4703
2.58304 113.396 -18.9255
-6.77682 114.579 -15.172
-13.468 107.582 6.33133
3.99369 113.327 -19.4873
-22.4888 112.67 0.709422
6.2859 112.924 -19.9411
-4.1317 114.919 -17.4027
6.23809 104.909 -0.548127
-13.4211 107.79 6.3444
3.59519 113.515 -19.245
6.10568 113.089 -19.9764
15.324 109.21 -17.0913
-21.5118 117.922 -12.068
-23.0313 111.741 3.84176
-15.4898 108.368 6.7031
-20.5436 109.58 7.40506
17.6641 105.877 -10.3789
-13.6341 108.036 6.40418
1.42136 114.119 -18.7102
-22.8274 112.431 2.32226
18.7428 104.071 -6.68597
-17.3446 117.448 -13.4674
4.18688 113.696 -19.4873
-8.6087 106.694 6.29211
0.194672 114.582 -18.6779
-2.38635 106.878 1.64384
6.16194 113.358 -19.8727
-1.42425 107.023 0.707353
15.4896 109.37 -16.7171
17.901 103.032 -3.19136
-17.6188 109.106 7.10544
9.25107 103.821 1.02005
-7.02343 115.092 -14.5505
8.69003 104.276 0.512718
17.9407 105.881 -9.70391
-6.03268 115.358 -15.6447
16.2964 107.356 -12.0315
-19.4185 118.149 -12.9223
-20.749 118.353 -12.4638
-3.22122 106.625 3.45233
-3.05733 106.803 3.20486
-12.4293 108.143 6.59644
17.2453 106.616 -10.5
-23.5256 114.965 -1.89671
18.0522 103.45 -3.30384
2.1279 114.458 -18.5142
-22.1671 118.627 -11.4911
18.612 105.319 -7.91873
4.46892 114.267 -19.4791
-4.57016 106.746 5.03582
15.7072 108.668 -13.7182
-5.47431 115.91 -16.2247
-9.29023 107.49 6.70895
6.45439 113.871 -19.5896
-22.222 113.895 0.445641
13.8894 111.072 -18.015
-1.34216 107.67 0.855584
-17.4894 109.804 7.12844
-1.61957 107.685 1.16155
-6.79642 107.131 6.14612
-3.63655 116.018 -17.3936
5.4694 106.453 -0.738935
6.39286 114.07 -19.5603
0.719571 107.826 -0.427405
18.8991 104.58 -5.02627
4.68873 107.043 -0.808699
17.2246 107.096 -9.68573
-19.4391 119.081 -12.446
1.29341 115.429 -18.1253
15.7277 104 -0.670488
1.03555 115.572 -18.1261
-6.16209 116.208 -14.6153
-9.30444 108.151 6.94981
-21.133 111.588 7.03342
4.39749 107.492 -0.831612
16.0873 108.83 -12.1386
2.12057 115.417 -18.1668
4.75254 115.173 -19.2611
-3.65113 107.759 4.42865
-17.712 118.923 -12.5145
1.20318 115.764 -18.0472
-11.6958 109.22 6.88731
-6.56947 108.029 6.21266
-22.2897 112.837 5.79316
-1.01489 108.771 0.731856
-7.52544 108.247 6.5557
0.780625 116.103 -18.0196
10.0831 113.902 -19.1749
16.4835 108.71 -11.0709
8.97774 106.012 0.715907
13.1124 112.637 -18.0771
-23.6948 119.043 -7.68494
0.57061 116.293 -18.0001
-5.4325 117.01 -15.391
-22.3084 120.172 -10.9929
-11.7706 109.669 6.88149
-3.52807 117.241 -16.8587
-10.7341 117.594 -12.617
16.0308 110.202 -13.4965
-21.7597 112.755 6.83263
-12.2904 110.059 6.74247
10.5731 105.619 1.47691
5.26229 108.136 -0.839571
-15.7288 119.222 -12.7528
-29.8615 121.543 -8.41524
-22.3847 114.937 2.23063
-6.9078 108.702 6.38432
17.655 107.673 -8.10897
-4.29678 117.5 -16.3189
-16.1206 111.254 6.96621
-13.1529 118.664 -12.7634
17.8017 107.561 -7.71058
-22.0371 115.534 1.03795
7.09931 107.753 -0.543999
10.1172 114.664 -19.1948
-22.0046 115.712 1.05456
7.69136 115.678 -19.6213
-23.678 117.078 -0.874773
-16.8412 119.923 -12.3904
14.5384 113.063 -17.8161
12.6021 113.904 -18.4478
-21.8542 113.922 5.71966
-23.3648 116.889 -0.314409
-12.5771 110.824 6.71163
9.54477 106.676 1.22681
-15.6397 111.682 6.87474
-20.635 112.928 7.3856
10.7245 106.207 1.77763
14.2021 113.398 -17.8997
5.6879 108.777 -0.848296
17.1091 106.077 -2.29415
-20.1037 112.938 7.35963
-5.84708 117.706 -13.9929
-22.978 116.796 0.194086
7.11191 116.289 -19.4716
-24.099 117.69 -0.955245
-22.8377 116.79 0.39218
-13.0819 111.349 6.64323
-23.2856 120.193 -7.3694
9.92464 115.46 -19.2518
17.9808 108.164 -7.32693
0.384382 110.28 -0.0351461
-22.141 115.217 3.88306
-4.06944 109.349 5.40391
-21.6482 113.821 7.03582
-21.636 113.901 6.92397
8.47812 107.864 0.342383
-19.5358 120.992 -11.5468
-26.7398 121.245 -7.1106
-16.344 112.259 7.2391
-28.1404 121.916 -7.65989
-24.2484 120.762 -7.57129
8.68946 107.83 0.523867
-5.95714 117.969 -13.5572
-18.7719 120.896 -11.6087
14.486 106.136 0.622013
0.0564087 110.577 0.170542
-18.4694 113.024 7.31731
-21.2698 113.852 7.29148
0.445509 110.569 -0.0245227
-11.329 119.135 -12.2541
17.8675 108.887 -8.06093
-21.2762 121.246 -10.2614
7.66257 108.735 -0.432833
15.9013 106.616 -1.02029
-32.9171 123.525 -7.42573
-21.2279 114.025 7.33485
14.0594 114.233 -17.7319
18.0515 106.943 -2.97986
-22.7313 117.185 1.06087
-26.2985 121.591 -6.99365
0.340755 118.155 -17.2742
-22.2371 117.028 1.32273
-0.140906 111.006 0.387523
-1.9692 110.454 3.02513
-21.9415 115.432 5.06332
4.22091 117.442 -18.058
5.60376 109.902 -0.907595
14.6263 114.174 -17.3997
-23.9338 120.969 -6.66183
3.1264 110.697 -0.902626
-19.6155 121.746 -11.4371
-25.3295 119.861 -2.89411
-23.0476 120.775 -6.60271
-21.8359 115.281 5.79888
-34.1526 123.453 -5.10088
6.16125 117.44 -18.885
-8.12398 118.674 -11.8325
15.0005 113.73 -16.1403
-21.9142 115.578 5.32271
13.8473 114.689 -17.5381
-15.9122 121.144 -12.1845
13.9319 106.82 1.52797
-5.82162 118.713 -13.1389
14.5365 107.027 0.6746
12.9719 115.166 -17.722
-33.1654 123.977 -6.55379
0.803601 111.384 -0.0974118
-20.861 121.573 -9.343
-24.1638 120.448 -4.32478
8.62703 109.075 0.214241
18.625 108.157 -4.52715
-1.11011 119.105 -16.9102
-25.0739 120.396 -3.07357
18.8184 107.936 -3.87366
1.0261 111.605 -0.185927
-23.7958 121.254 -5.92926
-36.3205 123.435 -2.1754
7.2119 110.137 -0.616769
15.8136 113.254 -14.0776
-28.6889 123.387 -7.24237
0.0516086 111.809 0.430101
-24.4299 119.858 -1.64347
-32.041 124.46 -7.35918
5.28514 110.914 -0.965103
-7.41098 119.176 -11.8898
-0.626548 119.329 -16.8812
17.4999 111.336 -10.3242
-25.1463 121.041 -3.74611
-31.1786 124.301 -7.3192
7.34193 110.329 -0.611023
0.0702811 119.21 -16.8264
-34.7344 123.844 -3.52288
15.6938 113.578 -14.0879
-33.8514 122.163 0.113323
-24.8387 120.998 -3.31171
7.90384 117.742 -18.3708
16.3995 113.195 -13.3848
17.4687 111.828 -10.8492
-8.2534 119.543 -11.3425
-27.9139 122.724 -5.07447
0.129498 112.221 0.522902
-29.6125 124.108 -7.17406
12.1854 107.961 2.36005
-31.8343 122.175 -0.928564
9.14078 109.627 0.524929
-24.7865 121.119 -3.29034
10.8779 108.547 2.0274
18.4803 108.607 -3.39802
-9.94099 112.583 7.06218
-33.0631 124.584 -5.45453
-3.91736 120.043 -14.9235
18.8065 109.009 -4.3097
-33.6483 122.425 0.264207
10.898 116.91 -17.6763
-23.3732 121.976 -5.84389
16.738 113.204 -12.8459
0.359676 119.579 -16.6662
-23.0514 118.762 1.77012
-30.4944 124.636 -7.08223
18.3337 110.547 -7.39782
-20.0426 123.091 -10.5648
-18.2457 115.075 7.46066
-22.9504 118.533 2.49213
-20.0676 123.117 -10.5001
-22.9026 121.867 -5.45261
-22.8737 122.705 -7.45199
-11.9865 113.627 6.84233
-29.5947 123.164 -3.6994
-21.5919 117.168 5.12174
-27.852 122.993 -4.34187
-16.8074 114.878 7.53544
-22.6654 122.86 -7.51084
-22.0349 118.08 3.52617
-17.0294 114.954 7.5672
-21.6485 122.329 -6.89616
11.3552 108.885 2.28077
9.78563 117.422 -17.0436
-3.84094 120.44 -14.6416
-23.0934 119.271 1.69275
-21.648 122.675 -7.43731
-20.5463 123.071 -9.14465
-33.2961 124.769 -4.29036
-23.0432 119.116 2.19782
14.0742 108.798 1.11085
2.79411 119.887 -17.592
-3.00905 112.12 5.14195
-27.8901 124.607 -7.32309
-24.8727 122.876 -5.26474
-22.9703 122.403 -5.11716
-21.6385 117.525 5.65723
-24.6369 120.73 0.201322
0.262379 120.428 -16.4397
8.40215 111.238 -0.0791986
-23.2891 119.84 1.48717
-22.7588 123.48 -7.53668
-12.061 114.37 6.95893
-33.56 124.971 -3.4156
-30.8627 123.433 -1.58029
-24.6461 120.868 0.254283
-29.1753 125.158 -6.87159
-6.32352 120.48 -11.6106
-25.919 124.535 -7.59628
-30.1644 125.487 -6.90565
-13.5666 114.946 6.85717
-8.32525 113.163 7.4696
-11.3547 114.235 7.05768
-23.8154 123.779 -6.93674
-18.0607 123.698 -10.751
-24.2358 123.024 -4.80797
15.8628 114.782 -13.0455
15.8791 109.641 -0.659507
-29.8371 124.059 -3.25399
-25.1644 124.328 -7.14003
-21.4903 123.225 -7.04319
16.9662 113.691 -11.0479
-20.2468 123.944 -9.60522
-23.3104 119.887 2.29251
-35.4663 124.4 -0.00974118
-20.7128 123.645 -8.4983
-33.6885 125.193 -3.08536
18.6259 111.251 -6.17273
-23.0489 119.604 3.04356
-20.266 123.171 -7.45543
-22.4046 123.643 -7.07654
-27.5685 123.206 -2.39199
-24.9921 123.594 -5.09018
-7.08141 113.223 7.26492
-21.6013 117.834 6.39246
-2.48446 121.348 -15.419
3.05011 120.552 -17.3336
-23.4933 120.427 1.64084
1.56897 120.864 -16.8569
15.2538 116.098 -14.857
-11.8668 122.282 -10.4945
-30.8214 126.291 -6.84289
13.9034 109.739 1.72039
-30.9112 123.994 -1.09673
13.517 109.715 2.12374
-33.9554 125.51 -2.52003
-22.6969 123.342 -5.16034
-14.2143 123.272 -10.8776
15.6883 114.989 -11.8665
-33.1693 125.862 -3.74898
-34.4309 124.447 0.613996
-23.4592 123.042 -3.64284
-2.57674 121.705 -15.0369
-19.4603 117.089 7.86256
-15.4971 123.921 -11.3071
-21.8199 124.217 -7.57111
-20.3739 124.077 -8.15371
12.1185 110.139 2.61126
-21.856 119.27 4.49309
14.0627 116.731 -14.4748
-18.2473 124.569 -10.651
-33.2262 126.045 -3.58906
1.64132 114.451 -0.158614
14.1945 115.951 -12.4798
12.8917 110.202 2.31344
14.8794 117.094 -15.6079
-23.8961 124.04 -5.12345
-16.6189 116.773 7.31178
-24.5767 123.079 -2.24407
-26.7866 123.752 -2.20103
15.9421 114.435 -9.65495
-22.3791 123.707 -5.06097
14.2208 115.948 -11.9999
-5.93836 121.526 -11.2765
-23.2641 124.979 -7.34162
-2.89637 113.74 5.37798
-23.7761 123.329 -2.95413
13.472 117.796 -15.72
18.6936 111.641 -4.5696
7.24684 120.225 -17.1182
-28.5357 126.341 -6.72131
-10.5296 115.214 7.38219
-8.53433 122.109 -10.5265
15.272 115.312 -10.8088
18.6638 111.979 -5.1551
-24.3623 123.558 -2.82797
18.1816 112.451 -5.93346
-24.9191 123.559 -2.41125
-0.140807 121.958 -15.9084
16.2554 114.022 -8.33411
7.63643 120.104 -16.8906
-25.0769 123.158 -1.17341
13.7641 116.866 -13.2571
-34.5116 125.128 0.741623
-21.8732 123.854 -4.99137
-22.6063 124.943 -7.06968
-25.4283 123.909 -2.57569
18.7199 111.95 -4.73969
3.19385 114.843 -0.789142
16.736 111.074 -1.11613
-24.4387 124.382 -4.23774
-23.5704 121.425 2.25651
-16.4538 117.319 7.22632
18.6806 112.16 -4.93378
16.0266 111.126 -0.580721
-31.513 127.436 -6.35967
-16.0587 117.321 7.18602
-26.2167 124.547 -3.02269
-29.1656 125.395 -2.86808
-24.772 123.747 -1.96758
-23.8284 122.562 0.362072
-22.8968 124.137 -4.04149
-13.1795 116.621 7.20159
15.6521 114.485 -7.8086
-21.8044 119.855 5.58691
-3.19899 122.528 -13.8316
12.6713 119.117 -16.7094
-20.8572 124.57 -6.32794
-21.0765 124.929 -7.03412
-32.532 124.84 1.21427
-32.4146 124.882 1.05815
-29.2002 127.14 -6.57796
12.1796 119.668 -17.5488
16.9921 111.455 -1.19693
-34.1872 126.565 -1.61248
11.4158 111.514 2.59854
-31.8764 127.564 -5.47122
1.80512 122.241 -16.2646
-25.4074 124.196 -1.88924
-25.7278 124.943 -3.3705
0.277336 122.565 -15.8605
12.4207 119.188 -16.2493
-25.0725 124.192 -1.98137
12.1038 119.55 -16.8205
-24.4994 123.931 -1.7116
16.3333 111.61 -0.667968
-25.7614 123.887 -0.643781
-23.3593 122.229 1.68307
-0.130729 115.303 2.06299
5.22667 121.684 -17.0003
-25.6029 124.421 -1.98624
13.2869 117.501 -12.5369
-17.2813 125.707 -10.7682
-25.0577 124.525 -2.47693
12.429 118.725 -14.7918
-20.7289 124.73 -5.99619
-22.09 125.227 -6.17402
-13.4163 124.325 -9.99086
-24.5658 123.881 -1.04699
15.1874 114.889 -7.27209
-20.513 124.766 -5.9271
-20.6986 124.75 -5.67521
-24.2511 123.853 -1.03312
9.32626 120.36 -16.149
10.3713 120.283 -16.6653
-30.0491 125.672 -1.27696
-1.81391 114.996 4.58611
-20.6611 125.298 -6.88098
-23.2925 122.697 1.22006
-21.4708 124.833 -5.17516
14.9198 115.229 -7.59468
-20.0537 124.912 -6.32945
13.3518 117.993 -13.0696
-21.6974 125.284 -6.01164
-1.66889 115.106 4.43564
-29.1676 125.881 -2.17784
-19.1137 125.819 -9.05305
-3.41018 115.013 5.91043
-7.99213 123.163 -10.4057
-26.6539 125.131 -1.96941
11.4806 112.133 2.58269
-25.6591 127.096 -7.27777
-28.5962 125.348 -1.01937
9.31724 120.59 -16.1049
-24.1523 124.762 -2.50219
-22.3848 124.83 -3.89506
-32.5493 125.579 1.47188
14.2491 111.914 1.53309
8.44225 121.062 -16.3459
7.4518 121.484 -16.6453
15.9366 112.177 -0.215419
-0.826353 115.527 3.47628
12.0981 119.404 -14.8737
-31.3376 128.314 -5.84901
13.6424 117.393 -11.0596
18.2773 112.846 -3.16343
6.69161 121.963 -16.8998
17.4309 112.323 -1.26674
4.22615 122.217 -15.7665
-21.0824 125.138 -5.02524
1.48486 116.32 0.348601
-14.2115 125.161 -9.79263
12.9596 112.072 2.66514
-20.1278 119.721 7.56927
5.84767 122.203 -16.4998
-2.30306 123.477 -13.834
-17.1605 126.537 -10.7276
18.0787 112.918 -2.65024
-22.4535 122.04 3.85386
-29.9511 128.52 -6.43533
2.76327 116.479 -0.423337
4.94682 116.138 -1.10027
-2.24464 115.595 5.27986
-23.6804 127.007 -7.09563
-13.0404 125.049 -9.76306
18.3025 113.247 -3.34836
-20.2343 126.515 -8.12638
-18.5664 126.668 -9.64899
13.6478 112.379 2.1169
-6.52327 123.431 -10.1099
-18.2114 126.409 -9.04613
-16.0897 126.353 -10.351
7.60647 115.483 -0.790415
-26.2297 127.92 -6.952
-30.5539 126.191 0.277917
-26.8174 124.992 0.550471
-14.4799 125.705 -9.75861
-14.8395 118.589 7.6721
12.287 119.833 -14.2472
-30.4037 129.034 -6.39682
17.1132 114.34 -4.3597
16.5078 114.729 -4.86735
14.5725 117.442 -10.0172
1.77687 123.498 -15.5938
-21.1518 126.648 -6.98461
-4.92263 116.147 6.8575
-31.6023 128.893 -4.95319
1.9356 123.553 -15.4917
10.2852 121.483 -16.3118
-17.2637 127.052 -10.2772
9.4171 121.601 -15.8594
-16.1316 119.369 7.3898
-24.8209 125.101 -0.21871
-27.3684 125.6 0.447727
-13.896 118.607 7.80459
-20.9456 126.852 -6.93787
9.67497 121.621 -15.7329
4.50045 122.8 -14.8686
-9.42671 117.431 7.82727
-18.5041 120.07 7.8534
-8.96656 117.335 7.7515
0.325423 116.993 2.08484
15.0902 117.698 -9.85504
-11.0881 117.928 7.9605
14.6828 113.313 1.00799
10.7581 113.889 2.38934
0.0392859 116.93 2.65262
-33.4525 127.297 1.28541
-13.8201 126.336 -10.1372
-24.2195 125.116 0.274253
-17.9744 127.155 -8.96349
0.910797 117.477 1.22201
12.3614 121.067 -15.3857
18.0218 114.369 -3.18149
-30.2118 126.321 1.90755
-32.9166 128.993 -2.55617
5.64865 117.155 -1.09613
8.23798 122.562 -15.846
-32.2906 126.869 2.21254
-0.0715461 117.161 2.99618
12.3564 121.283 -15.5863
-24.1166 125.506 -0.0747588
-18.7432 127.587 -8.79718
-29.1634 126.372 1.47917
5.09675 123.097 -14.5746
-29.538 126.399 1.76367
17.8134 114.517 -2.72957
2.20752 124.148 -14.8968
12.595 120.913 -14.3944
-14.3629 119.628 7.5973
12.2947 121.725 -16.0853
-18.5484 127.605 -8.57567
-18.2768 127.607 -8.75633
1.18541 117.913 1.02916
11.7645 114.164 2.68575
-9.96721 125.847 -10.0974
0.105098 117.535 2.8089
-16.8232 127.452 -9.07779
-25.9702 129.311 -7.1263
0.453592 117.739 2.18574
9.08564 122.592 -15.4845
7.36005 117.063 -0.933624
16.4269 114.043 -0.0160497
12.9867 119.819 -11.4099
17.6469 114.735 -2.4379
-18.9122 127.997 -8.61399
-13.7959 119.729 7.65716
12.4507 121.94 -15.7313
-0.541556 117.593 3.81361
-2.23782 117.354 5.57342
-10.4514 126.287 -10.031
-3.7109 117.472 6.42315
-19.8558 127.935 -7.36595
-1.80996 124.921 -12.7468
9.43339 115.895 1.05385
-9.44825 118.727 7.51505
13.0275 114.132 2.91469
16.3399 117.077 -6.32943
-21.1272 123.13 5.37638
-31.5008 130.02 -3.58348
-21.4189 128.03 -5.84032
11.8624 123.158 -17.3299
11.8363 123.255 -17.4107
-20.4677 127.776 -5.63993
-17.1336 128.16 -8.83583
-9.22028 119.109 7.37219
-21.5539 123.795 4.77654
-32.442 129.927 -2.29265
16.5693 116.842 -5.15012
-27.0008 126.889 1.26815
15.2359 119.854 -11.3622
16.9259 114.802 -0.41055
13.1684 114.594 2.79042
0.739445 125.387 -14.4058
15.7629 114.71 0.756598
0.233913 118.347 2.91143
-31.9232 128.002 2.28598
17.6252 115.837 -3.15421
-2.05416 117.963 5.56821
-20.1691 128.164 -6.2246
-26.2444 126.596 1.85655
-17.5854 128.545 -8.87335
-4.3817 125.27 -10.2278
-27.28 130.6 -6.9575
13.8816 120.497 -11.489
7.76964 117.924 -0.929317
-21.8087 124.433 4.17407
16.8436 119.597 -11.2028
16.5443 117.04 -4.85205
-31.9337 130.239 -2.45184
10.1216 116.144 1.95243
8.79365 124.1 -16.1905
15.8341 119.781 -10.7306
-24.6177 130.499 -8.0446
-17.0555 121.764 7.72204
10.3327 116.118 2.23509
-4.05966 125.593 -10.4214
-18.0142 122.048 7.9917
-29.5368 127.744 2.4889
0.957796 119.169 1.81897
14.8188 120.771 -11.6703
12.4474 123.386 -16.0899
-30.4599 130.969 -4.24184
14.4186 120.799 -11.1019
-20.3147 128.747 -5.77045
5.78894 124.7 -14.298
-24.3156 130.9 -8.08223
-4.02974 125.935 -10.259
-20.6087 128.666 -5.2054
6.22447 125.017 -15.2195
-30.3481 128.348 2.52551
-25.9218 127.081 2.4819
4.06016 119.653 -0.65128
-29.0017 131.13 -5.00768
-0.387288 119.003 4.15
-24.1205 131.026 -8.07632
-32.7712 130.505 -0.73782
-25.6211 131.341 -7.726
-19.4814 129.135 -6.72356
1.16167 126.153 -13.798
17.6677 120.026 -10.6165
-13.9487 121.759 7.45603
-21.906 129.759 -6.15081
14.6976 121.403 -11.6933
-31.3243 129.045 2.26458
-27.1638 131.25 -5.8794
6.24027 119.501 -1.04794
15.2589 120.989 -10.903
-9.88918 127.777 -9.59292
-20.9062 129.782 -6.6393
-19.6051 129.078 -5.77746
-24.8911 131.51 -7.86794
16.916 116.978 -2.24607
-24.3838 127.224 2.13682
-0.878956 119.342 4.67171
4.79129 119.995 -0.823091
16.0533 117.857 -3.55636
16.8586 117.033 -2.1307
12.9457 123.527 -14.921
-21.8465 130.028 -6.16873
2.53241 120.29 0.251154
-20.8121 130.209 -7.06639
-19.7422 124.109 6.92398
-22.0798 130.947 -7.84798
-18.2111 123.282 7.85183
-30.9301 131.271 -2.30545
13.702 122.222 -11.8034
13.2935 122.759 -12.7547
9.0419 118.354 0.821254
16.9898 119.42 -7.28904
-2.93841 119.602 6.22818
-10.075 121.17 7.45909
-13.0197 129.679 -10.7132
13.5115 122.925 -13.0627
12.9207 123.172 -13.1938
-19.9613 124.849 5.84504
-22.834 131.499 -8.02858
10.8357 125.098 -16.2153
15.659 116.51 1.07229
-28.6592 128.771 2.69619
13.8425 122.608 -12.1911
17.0418 120.338 -8.97088
-17.1949 130.282 -8.76233
-30.4676 131.642 -2.64059
14.0755 123.101 -13.2642
15.7322 118.171 -2.58529
17.3224 120.705 -9.64291
-13.2222 130.211 -11.0577
-19.7441 125.262 5.38693
14.2426 116.631 2.31973
-23.2689 127.817 1.7693
13.425 122.918 -12.0943
-29.451 129.345 2.49508
-11.182 129.109 -9.66598
15.6996 118.196 -2.26249
16.1423 120.124 -7.09767
-18.0099 130.257 -7.48254
-13.1298 122.63 7.43238
-3.75815 127.025 -9.65092
-15.1986 130.19 -9.20783
-2.23624 120.125 5.88151
16.7626 119.395 -5.63182
-27.5259 131.915 -4.66609
16.6105 122.717 -13.4765
-9.89406 128.663 -9.1954
-3.79412 120.305 6.71313
15.5611 121.381 -9.28296
15.0195 122.624 -11.863
-28.0413 132.005 -4.23411
-22.4416 131.937 -7.9169
15.0731 123.277 -13.3825
14.7289 123.694 -14.1366
-30.9476 130.341 1.93774
5.50778 126.095 -13.3833
-26.4813 128.529 3.30037
15.7537 117.164 1.02496
-25.1148 128.559 2.48454
2.91606 121.328 0.277354
-15.1672 131.214 -10.7607
14.2182 123.329 -12.3557
2.59965 121.412 0.456875
-9.09605 122.013 7.2265
-29.721 130.14 2.16039
-13.0165 130.803 -11.0809
-13.3578 130.932 -11.1472
6.83634 126.893 -15.5685
6.61663 126.892 -15.367
-1.00106 127.588 -11.6891
1.86413 121.386 1.21971
-10.8065 122.346 7.84264
3.36851 121.476 0.0781026
-15.1402 131.136 -10.1084
-26.5659 132.449 -5.21115
16.7681 119.801 -5.09696
1.75839 121.454 1.44603
-30.1384 130.502 2.07166
-19.0134 130.77 -6.32638
8.92793 119.81 0.431875
-24.8274 128.764 2.58715
12.9974 124.529 -13.6637
-30.1815 132.35 -2.10523
14.4246 123.443 -11.9092
15.695 121.484 -8.05468
14.339 123.433 -11.7759
2.17706 127.437 -12.8157
17.051 120.839 -7.36455
14.9233 122.257 -9.19018
9.37044 119.548 1.22571
-3.85414 121.129 6.72537
18.3256 120.319 -6.77406
-30.8089 131.094 1.78548
-3.75684 127.766 -9.11645
16.6074 123.918 -14.1002
-18.6503 126.705 3.97403
-9.46153 122.598 7.42185
-27.2964 132.773 -4.43726
11.649 126.334 -16.2013
-12.76 131.356 -11.0485
17.1244 120.992 -7.09006
16.6596 120.84 -6.37836
14.3375 122.726 -9.26079
-28.5697 130.641 1.77997
-19.5255 127.522 2.96258
16.7526 120.183 -4.76128
-7.14285 128.693 -8.38613
5.5003 127.118 -13.3403
-15.5264 131.266 -8.56741
10.7041 126.979 -16.6002
-23.5239 128.492 3.75246
15.4629 118.844 -0.325329
-14.556 124.259 7.71963
-23.1672 128.485 3.71137
6.01661 127.563 -14.4718
1.04094 128.139 -12.3688
13.7437 124.163 -11.6805
14.9361 121.687 -6.52513
-22.2763 128.532 3.19777
1.471 121.999 2.27127
-22.4104 128.475 3.46184
0.570646 121.691 3.781
-19.1807 131.034 -4.79211
7.07322 127.789 -15.3704
15.2192 119.379 -0.862944
19.8831 121.315 -8.74721
15.2479 119.142 -0.26978
13.4039 124.239 -11.0381
13.6717 123.455 -9.28633
1.60431 128.224 -12.281
1.54905 122.206 2.25453
7.46631 127.929 -15.5779
-23.4866 128.826 3.94307
12.046 126.423 -15.1227
-23.9306 128.928 4.04878
9.89081 119.921 2.01711
15.2219 119.089 0.310534
-7.57561 129.443 -8.35195
13.3681 124.85 -11.9833
11.1514 119.298 2.92893
9.75485 127.792 -16.4584
-19.5412 131.559 -4.99172
-6.6959 129.152 -8.20079
11.9435 126.602 -15.1055
-14.7072 132.333 -10.1978
-12.6053 132.095 -11.0773
13.6967 123.183 -8.09771
-11.303 123.885 7.7396
2.22612 122.635 1.28035
-30.6167 132.125 1.57028
12.1943 127.004 -16.0146
-1.34537 128.817 -10.7438
15.7392 120.002 -1.48056
13.1126 123.903 -8.91225
-25.8243 129.928 3.88283
12.218 127.11 -15.9629
14.8096 122.201 -5.98682
7.90232 122.005 -0.650619
-18.0921 132.244 -7.01916
-19.7774 132.477 -6.38119
-15.046 125.184 7.81138
-20.0403 129.014 2.15842
0.49695 122.321 3.94833
-9.87248 130.772 -9.0576
3.76039 127.995 -11.931
13.6475 124.66 -10.8094
-18.2282 132.344 -6.85246
-25.7303 133.773 -4.99385
-30.4225 132.544 1.39616
4.98808 123.097 -0.683367
13.0336 123.74 -7.7765
12.8087 125.493 -11.8248
-26.4429 131.02 2.38761
-2.21354 128.989 -9.67322
-29.4663 132.515 1.19857
-3.03926 129.053 -8.96129
-9.46065 130.94 -8.93632
12.9489 123.691 -7.1638
21.1496 121.462 -7.4969
1.06656 122.78 3.39785
12.523 125.627 -11.4304
-3.58992 129.158 -8.62295
12.2494 125.063 -9.73529
-18.6175 132.192 -5.2188
-29.0766 132.648 1.06626
15.8816 120.617 -1.52487
12.6156 125.798 -11.6671
1.15502 122.909 3.30583
-22.7566 129.639 3.89726
15.1365 119.929 0.686316
-31.0549 133.596 0.234393
14.9502 123.91 -8.67712
20.326 121.416 -6.39428
14.3749 126.195 -13.6916
15.1126 122.818 -6.08749
18.7783 124.984 -13.8498
-22.6118 129.764 3.72409
-17.0936 126.707 7.21732
3.1934 128.711 -11.7057
13.7728 126.265 -13.1267
15.3028 119.677 1.66717
6.19681 129.042 -14.3617
18.9094 121.577 -5.30452
12.0392 120.001 3.29298
-21.2861 133.682 -6.15939
-3.05685 129.461 -8.75185
4.21997 128.544 -11.637
-18.6387 132.953 -6.18202
-14.4992 125.879 7.92233
12.1444 124.463 -7.23067
21.1807 121.64 -6.72978
9.27015 122.254 0.201859
-2.28837 129.617 -9.36515
-21.1973 133.808 -6.18147
-16.4134 126.808 7.37987
-30.6518 134.344 -0.703411
23.6734 122.483 -10.2069
3.58653 124.073 0.103402
-18.9412 133.15 -5.90535
16.178 122.93 -5.86755
14.0829 123.564 -5.91728
-30.3618 133.69 0.972955
15.0648 120.127 1.77103
19.8734 121.797 -5.56102
16.6359 121.681 -2.87122
-17.7089 128.9 3.86133
3.84073 128.99 -11.3912
16.8558 122.626 -5.22147
-24.6447 130.93 3.96724
4.92607 124.265 -0.60323
6.3948 124.02 -1.03337
-24.4428 134.822 -5.34934
5.21698 129.436 -13.1473
5.86789 129.56 -13.8433
-25.4053 134.879 -4.66936
-7.81316 125.162 6.43391
-23.0221 130.819 3.54723
12.8467 124.455 -6.18625
17.1773 126.347 -13.7141
13.0323 120.527 3.16243
22.4719 121.054 -4.69976
12.293 128.389 -15.173
8.74551 123.246 -0.317127
-15.3044 127.401 6.62553
-18.6692 133.454 -5.43471
-18.1845 133.082 -4.83328
13.1506 127.63 -13.6295
-17.2742 129.109 4.28624
18.63 122.269 -4.41192
3.54137 129.47 -11.035
-0.386725 130.362 -10.4065
17.6071 122.697 -4.54369
23.3042 121.883 -6.52852
-6.85108 125.462 5.99837
17.7976 126.48 -13.6018
22.5159 121.758 -5.55877
21.8979 124.055 -10.5992
9.94953 122.474 1.59417
16.4216 123.6 -5.63034
-5.84159 125.125 6.32041
-14.3487 127.334 7.03258
15.8214 123.533 -4.92011
16.4092 123.615 -5.48039
4.75033 129.802 -12.0231
9.27282 130.075 -15.711
22.3564 121.547 -4.39874
7.78486 124.388 -1.01612
1.55325 124.492 3.16011
-28.2881 134.285 0.575093
-17.0198 128.706 6.14461
-9.20536 132.654 -8.79496
22.207 124.239 -10.5566
23.1674 122.096 -6.01676
14.5958 126.145 -9.71654
-21.2971 135.267 -6.35994
-16.8824 128.92 5.78588
13.1398 127.227 -11.1456
-30.3283 135.086 0.432526
5.03221 125.191 -0.55852
21.7475 122.504 -5.80223
13.4164 125.01 -5.92646
24.298 121.391 -4.81563
10.6387 122.213 2.81791
-26.6748 135.619 -3.21428
-18.2453 130.245 3.82143
20.1144 122.574 -4.57181
3.3584 125.31 0.596558
-19.3044 130.915 3.0542
-9.75761 133.214 -9.10975
-11.6707 126.933 7.46112
18.0021 123.059 -3.99142
-24.649 132.43 3.43217
16.8125 127.333 -13.3425
11.2928 122.1 3.08799
-16.3348 134.076 -6.26504
-18.2075 134.173 -5.1624
19.0225 125.923 -11.3951
12.4993 121.821 3.09745
13.5819 124.823 -4.78796
15.3861 124.325 -4.83572
-10.3868 133.797 -9.49144
-14.4691 128.514 6.08021
12.956 127.783 -11.236
12.43 129.27 -14.3888
-18.3267 134.299 -4.86258
-9.66258 126.739 7.33752
15.6479 122.66 -0.534041
-7.49931 126.795 5.802
2.77362 130.587 -10.4741
2.69335 125.505 1.82262
12.9078 125.544 -5.42011
22.0972 122.574 -4.72111
20.3076 125.631 -10.8045
-20.8446 131.762 3.32972
-7.32306 132.467 -7.74106
-14.7379 134.366 -7.07122
-9.50905 133.615 -8.90325
-19.2876 135.323 -6.0251
-12.4546 127.96 6.87212
-1.33279 131.489 -9.28277
13.8648 126.121 -7.01302
-30.2099 136.116 -0.147738
16.0565 124.73 -5.19808
16.7617 124.266 -4.57616
18.1978 127.124 -12.3292
-28.9655 135.666 0.268855
-4.31883 131.63 -7.23044
17.2881 123.841 -3.59322
-11.6682 127.722 7.36747
-5.30197 131.98 -7.30494
9.69382 124.451 0.335354
15.2038 122.799 0.470191
-16.4701 129.793 5.90242
12.4232 128.808 -11.9383
13.1107 127.869 -10.1291
-4.74456 126.149 6.55009
15.7493 123.158 -0.565653
12.4411 129.646 -13.8198
3.98593 126.364 0.216669
12.4209 129.752 -13.7307
-12.1187 135.189 -9.55769
22.5224 123.109 -4.79868
10.8941 128.602 -9.67997
23.0996 123.236 -5.34266
-18.4061 135.304 -5.24099
15.3654 125.41 -5.10824
1.24616 131.578 -9.9705
18.8775 123.643 -3.24333
24.4898 124.222 -8.51765
24.0079 124.892 -9.74284
12.8464 123.446 1.56476
11.1419 127.218 -6.259
9.29121 125.189 -0.042466
0.672906 131.756 -9.75006
-24.7938 137.182 -4.91619
-18.5878 135.139 -4.23704
-25.3951 137.191 -4.35934
4.4857 131.34 -11.2243
-25.159 134.646 1.65173
21.9335 123.656 -4.90975
5.19883 131.753 -12.3953
-20.3901 136.389 -5.59301
13.8235 127.546 -8.26696
13.4018 126.427 -5.23356
-4.84532 132.592 -7.12888
1.12236 131.991 -9.7073
10.1453 124.97 0.845877
17.1656 128.578 -12.6496
-9.00315 128.402 6.10086
11.4174 128.112 -7.46164
-10.5675 135.426 -9.62084
-2.94958 132.337 -7.45368
7.92488 126.427 -0.815993
-22.2033 133.474 3.38947
-3.2854 132.365 -7.12586
24.1116 125.401 -9.58012
14.0466 124.267 0.192624
17.4214 128.585 -12.4751
17.5284 124.542 -2.74783
15.6166 129.327 -12.8433
24.2568 125.456 -9.49866
-18.1651 135.869 -4.788
-19.5167 132.634 3.95964
16.7393 125.9 -5.24177
5.99063 132.313 -13.0938
9.42443 125.854 0.0212306
10.5219 124.667 2.17032
-27.4314 136.196 1.07776
5.19146 132.328 -12.4579
-15.8712 131.082 5.28659
16.9987 125.344 -3.77925
12.5037 130.142 -12.1391
-10.6429 135.892 -9.72478
11.6964 130.107 -11.4264
-2.54292 132.66 -7.57772
-28.2186 136.713 0.679103
-1.78495 126.793 5.99811
11.7491 124.33 2.60721
13.7139 128.77 -9.40355
11.7997 127.503 -5.00959
-11.4101 129.167 7.27908
-3.52149 132.795 -6.91892
-18.7536 136.372 -4.81273
-25.3335 137.891 -3.84936
23.9111 125.168 -7.76888
12.4979 124.656 1.60977
24.298 125.834 -9.37424
-0.609093 126.981 5.3152
8.57655 132.561 -14.3971
12.4213 130.25 -11.5205
17.1558 125.282 -2.69202
23.9013 124.648 -5.87395
-0.903252 132.897 -8.30502
-6.3416 134.066 -7.24522
11.816 129.871 -9.87519
-0.412488 127.164 5.20488
-13.3971 130.801 5.67439
8.1799 127.187 -0.713057
15.5606 126.951 -5.2928
21.5214 127.014 -9.59189
-14.727 136.535 -7.0595
11.7505 128.308 -5.81594
10.6617 125.007 2.87598
11.9417 127.82 -4.74915
-11.1053 129.763 6.80682
24.1062 125.135 -6.72054
-26.2218 136.249 1.85668
11.9703 130.891 -11.6806
-23.9384 135.671 2.03275
-25.4633 138.401 -3.35348
-4.20032 133.688 -6.84993
-1.02911 127.588 5.58632
12.3195 131.005 -11.8396
19.6554 124.726 -1.88699
-19.3251 137.194 -4.34895
19.9621 127.935 -9.51723
-25.3256 136.396 1.97747
12.7506 125.718 0.980412
17.2664 125.873 -2.27445
23.2794 125.482 -5.47181
-14.5773 131.919 5.60785
-1.05131 133.505 -7.65332
6.2839 128.462 -0.683796
-0.111745 133.418 -8.09869
13.1284 130.592 -10.5672
19.9988 128.098 -9.38554
11.2561 125.398 3.26873
-16.829 133.094 4.47156
11.4841 131.005 -10.3135
12.642 128.797 -5.82049
-26.0217 136.852 1.97335
-26.9763 137.26 1.6941
3.80132 128.577 1.12117
-5.51381 134.718 -6.93652
15.4139 126.313 -1.37329
8.8947 133.486 -14.0213
17.3159 126.48 -3.06437
-10.6436 137.384 -9.63472
-28.1777 138.082 1.10054
11.0885 125.77 3.17917
-26.4487 137.223 2.03244
-8.29586 130.348 5.91186
-26.9948 137.545 1.75088
-12.1025 137.571 -8.63059
-26.4638 137.331 2.04857
20.6493 128.134 -8.75939
9.91173 127.439 0.424611
14.7178 129.941 -8.92189
15.8965 130.892 -12.0247
24.72 126.692 -8.01949
22.8021 124.782 -2.01722
-14.2451 137.661 -6.97309
12.7417 131.492 -10.9225
10.737 126.343 2.87358
-28.5182 138.591 0.960193
0.817259 133.864 -8.18902
19.0606 129.229 -9.78806
-19.3361 138.151 -4.30749
24.6701 126.794 -7.80138
-17.1 133.846 4.51381
-12.4867 131.809 6.20352
22.99 125.798 -4.16572
4.15851 133.962 -10.5658
14.7255 131.64 -12.3239
23.0556 125.699 -3.83938
-1.63643 134.168 -6.81244
1.66784 128.638 4.15075
-6.31281 130.207 6.05406
13.251 130.658 -8.68602
22.9287 125.575 -3.2342
12.5977 129.531 -5.45613
11.7785 131.846 -10.4351
21.1647 128.408 -8.63156
21.9495 125.043 -1.08145
-10.0982 131.889 4.9381
13.2081 126.732 1.03229
17.3118 126.82 -2.02661
2.98585 129.109 2.53106
-2.33772 129.118 6.2461
17.0289 127.616 -3.65531
11.0251 131.322 -8.34028
22.3897 125.01 -1.07021
7.80271 134.202 -12.8793
13.5492 129.794 -6.31774
16.9625 127.711 -3.69252
22.3783 125.231 -1.41036
18.6851 129.937 -10.0516
5.91097 134.404 -11.781
-6.44641 130.588 6.06521
11.8355 133.8 -14.4062
-3.92076 129.734 6.42586
12.2934 132.978 -12.7043
9.95269 127.356 2.47257
12.0533 126.772 2.4366
-12.2325 132.249 6.34152
-10.1173 132.225 4.96375
-4.78705 130.172 6.19239
15.3854 128.27 -3.22387
15.1452 132.066 -12.1163
-13.7665 138.502 -7.3084
-5.03856 130.338 6.17947
15.6763 128.401 -3.62583
4.65641 129.929 0.418422
-20.7041 139.153 -3.88387
22.3258 126.995 -4.80894
12.155 132.796 -11.5788
17.4634 130.915 -10.7698
-24.8835 137.88 2.17344
12.2584 132.476 -10.8202
14.6266 131.232 -9.48668
-21.7914 136.419 3.64774
22.8085 126.914 -4.75552
-16.6998 138.145 -4.0587
24.7549 127.868 -8.34769
15.4493 127.516 -0.884306
21.9571 126.448 -2.8325
-16.8738 134.799 4.39104
24.6616 127.868 -7.91295
-23.4671 137.436 2.83902
13.6468 132.379 -10.979
-17.9985 135.248 4.33204
-3.17878 135.341 -6.25396
14.425 131.224 -8.6097
14.7376 132.555 -11.9088
-26.9378 140.171 -0.942784
12.053 131.764 -8.02924
10.0363 128.433 1.48889
3.88682 130.29 1.35371
11.0344 134.572 -13.8836
9.87755 128.095 2.51235
5.03075 130.568 0.0595873
-25.4888 138.536 2.34839
19.3931 130.314 -9.31298
-3.16636 130.464 6.17513
15.0921 128.816 -2.61331
15.1841 128.122 -0.976158
14.4403 131.913 -9.45577
-11.9073 133.58 4.98957
-17.69 138.8 -3.43652
-20.9463 136.494 4.37803
14.5824 132.878 -11.7755
-18.2018 139.142 -3.78573
-24.6085 140.173 -1.69079
12.4418 133.631 -11.9116
-27.0993 140.266 -0.0832996
-8.87851 138.76 -9.1976
4.36068 135.433 -10.4593
-18.9991 139.608 -4.12171
14.911 128.664 -1.52652
-26.5461 139.126 2.42916
-12.9374 134.377 4.3782
-6.50382 132.055 5.48825
3.55062 130.541 2.09237
13.5644 133.22 -11.3196
-24.8339 140.384 -1.54456
20.4814 126.696 -0.388344
14.3851 132.457 -9.87275
13.0762 132.254 -8.43587
-16.1137 139.208 -4.65177
11.9882 127.978 2.78032
-12.6126 139.548 -7.626
13.8227 133.259 -10.8884
25.0507 127.577 -5.03202
20.1178 127.078 -0.261252
22.0968 129.489 -7.39049
-16.1039 139.482 -4.6066
6.7292 131.171 -0.594409
23.2218 129.366 -7.71466
11.1258 128.564 2.70822
-22.3024 137.808 3.95864
-19.23 136.638 4.70249
-0.568597 130.954 5.31632
15.7324 133.317 -11.5699
21.831 129.847 -7.50086
13.2118 134.163 -11.8093
17.9782 132.041 -10.0461
4.04311 136.081 -9.98205
-26.0289 141.134 -1.02444
6.12791 136.023 -11.2371
-6.53782 132.951 5.02568
10.0777 129.906 0.769482
-2.91946 131.523 6.09027
21.6657 127.66 -1.79971
-8.21136 133.64 4.76771
-9.96733 139.772 -8.70527
-21.5407 137.7 4.3788
-4.50712 132.277 5.57302
-10.9727 139.915 -8.18599
25.1207 129.071 -7.35726
14.3507 133.39 -10.137
12.058 128.898 2.2777
25.2467 128.851 -6.77319
25.2424 128.922 -6.88668
3.4585 136.296 -9.26293
-16.0876 140.051 -4.52032
17.7308 128.769 -0.986816
-21.7907 140.958 -2.56172
-8.4194 133.987 4.84846
-7.28273 133.779 4.55878
-12.5272 135.679 3.76815
7.7719 131.606 -0.647257
1.93337 136.217 -7.5314
3.02856 136.399 -8.71563
-23.9921 139.174 3.60324
-13.4117 140.46 -6.82562
-16.7844 139.948 -3.22626
-16.2437 140.019 -3.74378
14.4782 133.936 -10.549
3.52462 136.681 -9.35167
-14.2539 136.242 4.17906
-12.4129 140.593 -7.52547
19.3397 128.442 -0.527492
-10.0234 140.384 -8.59373
14.985 133.607 -9.82558
-0.050212 131.771 5.16098
22.8507 130.265 -6.96877
17.7224 129.113 -0.572175
-16.3084 140.37 -3.63517
18.958 128.825 -0.559235
-5.73056 133.87 4.64042
11.1577 129.776 2.66345
-10.5336 135.185 4.97776
-8.25855 140.164 -8.47542
-24.9704 140.144 3.28186
0.151328 132.065 5.17037
3.45718 132.152 2.72554
13.4595 135.4 -11.8933
-12.11 141.045 -7.48898
-24.1541 139.857 3.80593
22.1069 128.572 -1.48046
14.8594 134.236 -9.99958
3.13846 132.14 3.24493
21.946 128.978 -2.26667
-14.286 141.14 -6.08495
3.80792 132.616 1.85648
23.5597 130.555 -7.00773
-16.3037 140.754 -3.5807
-13.5017 141.112 -6.36232
-20.0772 138.604 4.29258
20.8941 131.403 -7.0485
4.34171 137.552 -10.1819
-6.69424 139.545 -7.06391
2.89391 132.424 3.4947
-9.01616 135.275 5.04054
14.7804 134.726 -10.2324
10.7389 130.508 2.76616
-7.6296 135.067 4.68996
1.98382 137.308 -7.34373
14.8641 130.828 -0.791709
21.8786 128.973 -1.13139
-0.223772 137.545 -6.19636
20.5302 131.993 -7.3474
25.8523 129.778 -5.74212
22.0305 129.032 -1.20195
2.85314 132.7 3.47312
15.1318 134.453 -9.20168
-23.719 142.441 -1.17912
3.48054 133.072 2.34781
-0.599736 132.881 5.67459
-15.1255 137.685 4.40428
-5.66148 139.623 -6.73383
-8.58661 141.149 -8.19103
-13.8071 137.475 4.33653
-13.8917 137.717 3.93718
-22.0643 139.922 4.44873
20.1896 132.642 -7.46075
21.2394 131.866 -6.14138
21.28 129.696 -0.943367
5.53046 138.352 -10.6921
10.0317 131.48 2.78004
16.0527 131.214 -0.770707
-18.2346 141.91 -2.43559
-13.6137 137.892 3.99143
8.4023 133.334 -0.442006
-5.2845 139.882 -6.53063
-2.81477 138.823 -5.59538
-6.14283 135.755 4.19021
17.513 134.683 -9.78098
24.2636 131.371 -6.536
18.1075 130.677 -0.540206
-13.8368 138.254 3.69054
13.3899 135.329 -8.28587
12.9763 137.276 -12.5926
12.2779 137.747 -13.0793
-12.7702 137.676 4.62883
-0.192968 138.405 -5.9178
10.2079 131.745 2.93761
-16.5221 138.934 4.394
-5.66415 140.332 -6.54701
18.4747 134.208 -8.74288
21.045 130.161 -0.735018
-15.9673 139.08 3.87555
-4.00273 135.373 4.43693
22.0531 130.299 -1.59828
6.51336 138.718 -10.8695
16.3403 131.5 -0.421343
-10.2046 142.352 -7.86496
-19.9256 140.045 4.50237
-9.30138 142.238 -8.04403
14.8348 131.936 -0.12803
14.0423 136.746 -11.1118
-0.368106 134.225 5.13395
-2.41343 135.085 4.65589
-6.29861 140.999 -6.79626
-18.7365 139.786 4.89255
-21.441 143.475 -2.00677
13.9723 135.749 -8.17965
-0.72317 138.964 -5.60698
2.05897 134.12 4.23668
14.5486 136.077 -9.09303
2.0989 134.176 4.22048
-11.9211 142.703 -6.4202
-3.97406 140.177 -5.90844
17.5675 135.477 -9.66231
-18.0489 142.794 -2.19485
5.6688 134.518 1.1458
-19.4639 143.271 -2.14632
-12.3225 138.574 4.18352
-23.818 143.875 -0.420877
-12.4328 138.721 3.98131
18.6756 134.87 -8.54329
13.5789 132.337 1.1232
-0.206972 139.205 -5.65394
0.277534 134.632 4.99982
-15.2527 143.16 -4.50581
11.4092 132.462 2.51026
-12.3888 138.831 3.89821
21.7984 130.704 -0.451454
7.33863 134.964 -0.490431
20.8922 133.253 -5.81218
9.72355 133.552 1.31337
14.7033 136.493 -9.17489
9.67193 133.738 1.01414
9.94022 139.092 -11.9614
12.4838 132.565 1.9915
8.06197 139.275 -10.9115
-20.6491 143.911 -1.92285
24.9085 131.712 -4.5034
-14.8768 143.522 -4.98144
14.9965 132.742 0.0310645
-14.084 143.495 -5.38526
-23.1202 144.276 -0.884238
22.3524 131.639 -2.38295
-12.6786 139.499 3.32056
-2.9991 140.403 -5.59536
11.406 132.763 2.68421
21.8209 133.044 -5.04926
-1.47175 135.929 4.35678
16.8768 132.542 -0.313795
-24.4827 143.83 1.70548
-3.45276 140.824 -5.71287
13.9361 137.849 -10.7065
8.60414 135.355 -0.731121
-12.626 139.924 3.23647
-8.04846 138.175 4.29518
-11.8911 139.622 3.62918
2.0056 139.891 -6.68261
-4.7986 137.568 3.69093
6.98673 135.819 -0.265657
9.1898 135.191 -0.0303476
-23.0422 144.78 -0.445697
-11.176 139.315 4.41793
1.06606 135.644 4.71039
18.9611 135.863 -8.25577
1.96745 135.294 5.02625
15.4457 133.588 -0.301568
-15.6769 143.703 -2.79205
20.8078 134.362 -5.86876
-22.577 144.903 -0.671613
22.1055 131.854 -0.596058
-22.1265 142.982 3.83498
14.6272 133.843 0.266172
1.94455 135.619 4.90069
-21.4672 142.762 4.16715
-21.417 145.09 -1.3527
-3.85604 141.75 -5.60936
14.648 136.819 -6.66057
18.3358 133.066 -0.214007
10.9819 140.181 -12.132
-21.4159 145.205 -1.24564
-15.4332 141.342 3.87935
-3.10552 137.888 3.61615
1.18037 136.303 4.48839
-20.9995 142.833 4.40465
22.1242 132.247 -0.353723
-18.8883 144.904 -1.91614
-11.8951 140.755 3.32976
-13.7517 144.635 -4.64193
8.99439 140.669 -11.0401
22.584 134.006 -4.43678
-10.2164 139.821 4.65967
4.73509 140.908 -8.40487
-4.75152 138.933 3.47706
-14.3783 141.566 3.91245
12.6771 139.303 -9.43072
9.2191 136.636 -0.546663
17.3794 137.557 -8.29841
11.7551 140.178 -10.6201
9.32718 141.116 -11.1387
4.15534 136.895 2.61238
-1.80117 141.837 -5.04308
6.28822 141.572 -10.0171
-21.7984 145.784 -0.400596
5.53941 137.256 0.939226
-5.75768 143.592 -6.24662
-12.8942 141.795 3.07501
-16.2154 144.81 -1.80095
3.75152 136.849 3.35428
21.9002 134.819 -4.39672
24.3222 133.449 -2.75395
5.10972 137.425 1.43477
20.9709 135.821 -5.79499
12.1118 134.85 2.73718
-22.5294 145.947 0.378996
2.30564 141.52 -6.05554
-13.9124 142.254 3.57877
24.1397 134.229 -3.55832
-5.57607 139.99 3.51773
0.982875 137.797 4.20082
-4.60591 143.528 -5.61271
14.1347 138.732 -7.17523
14.22 138.62 -6.95258
18.8698 134.248 0.320905
9.61199 137.224 -0.194064
4.07037 141.788 -7.22416
10.0491 136.675 0.940579
-15.9428 145.361 -1.649
-17.8402 143.335 4.54288
23.332 133.807 -1.39841
19.3774 134.204 0.464509
14.8929 138.268 -5.95931
21.5732 133.772 0.187197
-13.0631 145.886 -4.54113
-3.73915 139.931 3.24731
11.3496 141.329 -10.6229
-3.58357 139.94 3.22847
1.57985 138.011 4.27203
2.34659 137.785 4.42887
15.694 138.405 -6.39327
-9.89908 141.426 4.27157
3.42737 142.038 -6.43027
7.72677 142.34 -10.1522
22.9936 135.223 -3.6816
0.926754 138.472 4.10404
-8.80316 140.972 5.01745
-18.4179 146.433 -1.05214
4.00216 138.22 2.9721
13.7733 138.959 -5.63602
-6.22278 140.973 3.68762
-10.3322 146.499 -6.63522
-14.5825 146.211 -2.88736
-13.3908 143.428 3.22453
7.07129 138.705 0.372142
-9.58006 141.869 4.53455
1.76266 138.748 4.20792
-15.0588 143.951 3.67348
12.6608 136.556 2.05589
8.43347 138.87 -0.286038
-6.36618 145.641 -6.12249
23.9982 135.123 -2.06101
-10.306 142.634 3.95545
23.122 134.889 -0.80015
19.5368 138.318 -6.50935
15.7965 136.254 1.11767
-13.2662 143.89 3.15419
18.9751 135.536 0.664343
-13.5956 146.872 -3.73069
5.75888 143.135 -8.296
14.6385 136.449 1.60691
6.70053 139.138 0.775824
13.2574 140.538 -7.16805
-14.2702 146.846 -3.03583
-2.5083 140.959 2.93806
13.2075 140.702 -7.20901
22.418 136.203 -2.836
2.9858 143.165 -5.76147
5.53506 139.324 1.71134
20.6626 138.022 -5.51987
2.40757 139.311 4.24369
1.50727 143.675 -5.36612
14.5246 139.757 -5.00556
13.2287 140.755 -6.44506
-8.29934 147.125 -6.57462
-6.82614 142.175 4.29902
6.77858 143.796 -9.05877
7.33232 143.852 -9.26952
-3.82778 142.113 2.87875
-7.26903 147.024 -6.45857
-16.8787 147.322 -0.443918
-5.26936 142.302 3.51427
-2.62025 144.952 -4.60104
-9.26889 147.8 -6.40251
17.7225 139.99 -6.53297
3.42553 139.669 4.36833
0.726188 140.8 3.72101
-13.4504 147.994 -3.61237
-4.85355 142.566 3.43863
3.30687 139.822 4.32881
10.9202 138.92 1.26651
20.8869 138.547 -4.80439
-8.59394 143.284 4.61269
17.0623 137.315 1.00169
-19.3079 146.519 4.38642
11.2665 138.619 2.00243
3.94805 144.112 -6.04884
17.4994 140.347 -6.44219
-0.730985 144.866 -4.51515
-18.9696 146.479 4.54516
-8.49582 143.403 4.61792
21.2389 138.424 -4.19133
21.6248 136.394 0.430971
-10.0456 144.289 3.67472
-16.4892 146.057 4.15438
-19.8017 147.197 3.86499
7.40097 140.591 0.717578
-13.3204 145.675 3.16774
-18.8271 146.746 4.47928
10.7407 139.591 0.971801
4.0232 144.437 -5.95435
4.9026 144.543 -6.69787
-16.6784 146.264 4.31093
-10.1981 144.777 3.36689
4.331 140.877 2.59101
-6.10471 147.442 -5.71363
-12.3275 148.739 -4.32922
-2.82328 143.058 2.69356
-19.209 147.278 4.0727
1.822 144.887 -4.89415
-19.9952 148.2 2.55674
-3.91258 146.539 -4.66997
-10.0951 148.862 -5.86255
-6.64993 147.948 -5.97806
-9.85849 148.863 -5.90952
0.521453 142.006 3.57951
-2.21791 143.264 2.51925
3.22421 141.02 4.12668
-3.8831 146.824 -4.58466
-14.3203 149.037 -2.53896
-0.641508 142.872 2.74713
-4.84273 147.315 -4.93316
16.1666 138.277 2.05514
6.70128 145.322 -8.2287
13.9389 141.6 -4.33809
22.033 138.444 -2.38037
7.84261 145.236 -8.7378
6.19617 145.334 -7.8196
22.324 138.078 -1.68216
-4.37996 143.659 3.66212
1.90623 141.839 3.63509
23.432 137.492 -0.997634
12.9092 143.084 -7.03844
20.2638 137.555 1.10714
-19.5558 148.976 1.74072
6.13688 145.557 -7.66806
-5.51535 148.051 -5.24147
10.9753 140.503 1.40457
7.73178 141.849 0.467559
-8.3289 149.085 -5.65883
18.4671 140.963 -4.90236
14.8346 141.653 -4.01409
-17.6233 149.349 0.361961
-17.1783 147.693 4.18546
2.78384 142.014 3.87669
22.286 138.757 -1.87629
7.08496 142.074 0.880428
22.3793 138.034 -0.0615055
-12.3309 147.032 2.71311
7.99793 145.797 -8.47868
-5.814 148.521 -5.26578
5.19468 145.834 -6.496
1.41924 142.772 3.63191
10.2685 141.471 0.599786
-18.6162 149.703 1.06062
19.0857 141.038 -4.45092
19.3468 138.613 1.3435
-12.3769 147.328 2.70435
-8.24107 146.072 2.88398
-2.91321 144.346 3.34835
14.9133 142.059 -3.49453
-3.60427 147.844 -4.30068
-17.9357 149.918 0.855336
-3.55541 147.92 -4.27109
10.7955 141.484 1.16559
-14.9923 148.065 3.5232
13.4791 143.096 -4.38517
14.458 142.294 -3.13017
-6.19297 145.208 4.40165
-7.61642 149.653 -5.26735
-3.84573 144.758 3.89058
5.65494 146.423 -6.71169
7.37741 146.398 -7.84295
-5.9729 145.132 4.59023
-11.1441 150.388 -4.36775
4.037 142.499 3.97468
10.0588 142.307 0.315262
20.7812 138.696 1.48369
4.58385 146.366 -5.55018
22.7931 139.104 -0.768823
-17.8881 149.751 2.25226
-3.35571 148.368 -4.10048
-16.0671 148.927 3.58755
14.0603 140.457 2.99515
-5.75204 145.729 4.27143
-15.6693 148.904 3.59128
-9.52535 150.562 -4.56941
-9.81334 147.879 2.82584
5.81801 143.81 1.69896
1.65323 147.483 -4.15712
-15.2001 149.217 3.62055
-0.253901 145.247 2.72297
5.06859 143.757 2.72301
-8.01582 150.701 -4.72292
0.690418 147.944 -4.03942
16.5799 140.483 2.85975
12.9989 144.965 -5.38835
-7.30834 150.595 -4.67965
13.07 144.794 -4.99543
-7.16791 150.613 -4.6489
-16.3815 150.21 2.8004
-15.9764 149.973 3.08847
13.1201 144.726 -4.63724
-13.0837 151.16 -1.69644
2.7063 147.683 -4.18815
20.164 142.26 -3.26159
17.2834 140.614 2.79119
-6.50649 150.662 -4.52396
-10.5412 148.716 3.17752
12.5222 146.122 -6.68035
-5.83599 150.611 -4.35358
-14.6126 150.013 3.40211
4.55846 144.979 2.26481
4.44968 144.965 2.48788
16.6718 143.899 -3.36456
3.87743 144.808 3.49403
2.31569 148.461 -4.04578
-14.1069 150.239 3.31066
7.55276 145.023 0.806235
18.5505 141.027 2.69935
-14.6582 151.331 1.60964
12.3485 146.568 -5.81771
15.8134 142.12 2.73152
-13.0934 150.374 3.32644
12.5989 143.353 2.33532
11.4523 147.404 -6.57144
10.9615 144.335 1.24614
12.1906 146.82 -5.49419
16.5764 144.347 -2.58129
5.51749 145.461 2.49558
6.10322 145.627 1.73284
19.5117 141.589 2.15229
-7.24715 151.86 -3.71691
4.21999 148.771 -4.29755
5.10931 145.463 3.32504
-10.9809 152.24 -1.61907
22.02 142.255 -0.748065
19.0282 144.016 -2.8523
20.2257 142.143 1.17016
-13.3412 151.356 2.60731
12.1334 147.134 -4.97502
17.5226 142.36 2.92791
15.8523 142.954 2.71306
10.8027 145.343 0.823312
12.257 144.556 2.12974
3.57774 149.577 -3.8367
13.0314 146.804 -3.72326
-3.79545 151.443 -3.02091
9.0237 149.253 -6.35416
-3.09268 151.49 -2.93082
11.4252 145.52 1.28069
2.40537 150.37 -3.57064
-8.53655 152.915 -1.45357
10.2626 149.427 -6.21239
18.8994 143.459 2.14075
-11.0576 152.871 0.53603
13.4631 147.267 -3.06488
-5.86053 152.796 -2.74753
19.3716 143.691 1.47527
15.5387 146.019 -1.40272
-1.75317 151.661 -2.75497
18.0326 143.747 2.40295
18.5863 145.519 -1.60664
8.96877 150.136 -5.93171
-11.4803 152.881 1.87442
11.3401 149.185 -5.14054
15.5958 144.647 2.89229
19.0133 144.145 1.73914
20.0852 144.495 0.320062
-7.41751 153.259 -1.45537
20.3694 144.712 0.0529899
13.4387 148.016 -2.98158
7.58962 148.091 1.0463
10.9464 149.661 -4.83432
-1.53803 152.574 -2.52808
2.86556 151.654 -3.29916
15.9699 146.993 -1.26316
