ply
format ascii 1.0
comment Created by Open3D
element vertex 1929
property double x
property double y
property double z
end_header
-29.0638 106.942 8.9586
-15.0148 103.651 12.8553
-4.58598 101.81 14.1987
9.53267 103.682 5.04354
-19.4424 112.796 -8.02654
-2.91924 101.307 15.1672
3.03013 100.457 15.3337
-28.7822 106.364 11.1452
-20.5745 113.019 -7.86757
-4.61428 102.543 12.9262
-27.2478 105.317 13.4941
-13.8247 104.159 11.9786
9.05432 104.659 3.23175
-4.23368 102.932 11.9835
9.1594 108.142 -5.32297
-8.46535 112.393 -10.0571
-17.8942 112.939 -8.18701
6.71644 109.377 -7.29737
-24.649 113.562 -7.34142
0.734196 111.593 -10.5922
-27.4163 113.178 -5.25203
8.50459 101.879 11.0022
-6.33142 105.109 7.89246
-3.57424 101.959 14.8682
-10.0148 105.486 8.28855
-25.24 113.789 -7.20878
7.17145 109.455 -7.03312
-28.8035 108.037 8.30785
-5.79352 104.947 8.42785
-3.85084 102.314 14.3637
-3.76899 103.306 11.8986
-29.456 110.613 2.27057
8.6947 102.359 10.2863
8.73333 102.441 10.1169
-17.5975 113.324 -8.1643
-29.1401 111.128 1.08697
9.30033 103.06 8.51414
8.54405 102.137 11.1029
-12.4195 112.48 -7.59749
6.84439 101.705 12.8043
8.70025 102.452 10.3907
-28.7066 113.273 -4.09117
8.54257 102.206 11.2224
9.19303 108.967 -5.65692
-28.6008 107.099 11.4139
-6.00553 105.662 7.87098
-25.8268 114.209 -6.76179
-27.5081 106.414 13.1293
-28.782 111.772 0.370953
-9.32131 113.313 -9.82585
-15.3253 104.091 15.0031
9.18728 107.254 -0.804714
-8.62832 113.301 -9.87117
-2.44049 102.555 14.9028
8.95757 109.478 -5.98779
-21.391 114.336 -8.05925
-23.3835 104.688 16.5631
9.11828 105.297 4.47474
-12.7801 105.222 11.9388
8.78893 109.693 -6.21034
-29.2476 113.401 -2.907
9.09011 108.1 -2.12874
-23.5457 104.918 16.4957
-17.3205 114.002 -7.8788
9.23923 106.924 1.42666
-17.8759 104.433 16.5055
6.87886 102.724 12.6275
-14.7095 104.8 14.6249
-28.2514 109.404 7.69212
9.11952 105.641 5.01945
9.60614 107.88 -0.660113
-3.61311 105.553 9.49844
-18.8142 114.576 -7.83082
-20.0896 104.95 16.5009
9.84277 104.468 7.90922
-5.00555 106.24 8.40223
-23.8297 115.223 -7.64184
-27.2325 107.17 13.4403
-6.17806 114.114 -10.5772
-26.8718 114.99 -5.93665
-2.45673 104.067 13.1901
-16.2898 104.835 15.9349
-16.0961 104.878 15.7713
-10.8902 106.656 9.68816
-28.7189 108.984 9.78257
-2.35303 104.875 11.3738
-27.6635 107.687 12.8568
-27.1877 115.174 -5.62809
2.18249 113.22 -10.3563
-27.5159 107.717 13.0502
-24.3192 106.076 16.1881
6.62326 111.83 -8.21755
-23.1762 105.957 16.2125
-19.7279 105.516 16.2605
6.53211 103.318 13.1476
-28.5915 109.282 9.93013
-9.92339 107.51 8.27573
-16.2769 105.278 15.9272
-5.53008 107.264 7.57237
-2.27732 105.601 10.6275
-12.0862 113.999 -6.91945
-21.2156 115.709 -8.06414
-21.4465 115.752 -8.04325
-3.31369 114.249 -10.2367
-7.48273 114.776 -10.1717
0.593317 103.603 14.994
-26.7454 115.671 -5.91481
9.41547 105.914 6.48269
-1.75249 105.453 11.3065
10.0477 108.642 -0.449229
5.1385 112.538 -8.48935
2.1872 103.417 15.1946
-4.09209 107.006 8.55361
0.530904 103.81 14.964
-0.810411 104.227 14.414
-15.0105 105.702 15.4296
0.473105 113.819 -9.74542
-28.9131 111.087 6.69889
-15.4439 105.77 15.4896
-22.7303 106.531 16.1048
2.16739 103.593 15.2338
-27.5558 115.765 -5.12008
9.5185 110.278 -3.69348
-28.3402 112.855 2.3826
-28.1082 108.946 12.039
-25.4323 107.331 15.1709
4.05466 113.374 -9.38893
-28.5438 111.004 7.20465
-1.72005 104.633 14.2967
-12.1422 106.62 12.7975
7.81648 104.561 11.5113
0.24065 104.246 14.814
0.600302 114.116 -9.67615
-24.3652 107.165 15.7755
9.55584 110.05 -2.49924
-25.2345 116.489 -7.01342
-16.6881 106.412 15.2356
-14.7954 106.231 15.0966
-12.4867 106.676 13.339
-15.2646 106.415 15.0211
-29.5815 114.545 -0.326384
-0.838514 104.862 14.2723
-12.2415 106.838 13.1769
-29.4062 114.542 -0.0869012
10.1186 107.712 3.96383
-27.1267 116.491 -5.42734
-3.85142 115.349 -10.2354
-20.0427 116.578 -7.91335
-28.8692 112.125 6.19795
10.2694 108.062 3.41905
3.5899 114.187 -9.5553
-9.62322 108.539 8.79234
4.5164 113.673 -8.54518
3.50655 104.292 15.0714
-29.2063 114.627 0.265556
-17.4954 116.153 -7.1681
-0.87986 106.461 11.4131
-22.6433 107.695 15.5225
-5.52339 115.779 -10.1066
-8.86268 115.86 -9.20813
-3.09843 107.928 8.58813
9.80178 111.618 -4.78219
0.186845 105.002 14.7994
-28.7432 116.364 -3.81005
-4.58434 115.738 -10.1636
-6.41992 115.968 -10.115
-28.674 114.477 0.902074
-27.061 109.216 13.4513
5.07027 104.746 14.199
-11.9409 115.354 -6.45308
-27.8451 114.157 1.82546
4.50171 114.034 -8.40992
5.35883 104.888 14.0142
8.91546 112.609 -6.23201
-24.6482 117.414 -7.09692
-1.17749 107.369 10.1156
-0.339328 105.518 14.4672
-9.8655 108.471 10.3183
-10.5331 108.019 11.6718
10.7177 109.392 1.28829
10.4953 108.711 3.0821
-20.1272 107.984 14.9763
-20.1243 117.191 -7.7943
-20.9028 108.193 14.7845
1.73364 115.122 -9.74059
-29.5628 115.574 -0.494201
-28.9242 116.803 -3.65183
9.88623 112.23 -5.01711
-0.309215 105.986 13.9181
-16.486 107.855 14.7184
9.31214 112.914 -6.12709
-2.96641 116.015 -9.7664
-16.7057 107.988 14.6745
4.44458 105.294 14.4116
9.78674 112.667 -5.52721
0.34497 105.929 14.2829
-29.3931 116.388 -1.76115
0.0427495 106.269 13.6635
2.19888 115.461 -9.81824
-18.0934 117.106 -7.21236
6.24345 105.581 13.4362
-0.414146 107.609 10.6752
-21.4773 108.777 14.6998
1.44488 105.539 15.2497
6.01912 105.652 13.5357
-27.7223 114.159 3.56466
-10.9456 116.09 -6.68224
-6.33641 116.773 -9.87958
-23.57 118.086 -7.4057
-29.3893 116.614 -1.7908
9.98324 112.394 -4.18606
10.5121 111.015 -0.790613
-27.2068 117.8 -5.20742
-27.6403 111.381 10.8556
-10.4252 116.284 -6.83486
-27.6624 111.091 11.7094
-27.9925 112.334 8.74232
-25.2007 109.461 14.9808
-3.00541 109.315 8.06687
-27.0416 117.921 -5.34393
1.02898 115.991 -9.76807
-20.4898 109.209 14.3527
1.09225 106.572 13.8467
10.1492 107.972 7.4891
-17.4861 108.814 14.4864
10.1848 108.156 7.10433
-9.98386 109.171 11.3092
6.7895 106.38 12.7829
2.42999 105.968 15.237
-5.29798 117.16 -9.95635
-28.2111 117.942 -4.31447
10.0966 107.263 9.68933
-10.072 109.224 11.465
-24.1149 118.595 -7.11698
1.10295 116.374 -9.81804
4.94332 114.966 -7.52014
1.04221 107.244 12.9053
2.10261 116.25 -9.7402
-24.5267 118.707 -6.93748
-26.4233 110.433 14.2135
-25.5055 110.159 14.721
3.25076 106.321 14.85
-27.827 115.315 2.78994
-27.412 112.026 10.841
-27.6724 114.485 4.94706
-16.2102 109.044 14.7494
-29.083 116.188 1.34076
-16.3072 117.666 -6.49531
-12.6557 109.318 13.0837
-14.0739 109.142 14.0096
7.28037 106.994 12.3255
-0.504633 117.131 -9.93949
-6.23699 117.795 -9.65092
-25.3591 119.099 -6.55317
-27.3446 112.383 10.8483
0.410392 108.26 11.9671
6.06275 115.328 -7.19348
-23.7423 110.362 14.9495
4.42922 115.854 -7.90381
-8.72315 117.682 -8.05359
-9.08644 110.602 9.67725
-21.0993 118.983 -7.14533
-25.9127 119.276 -6.26373
-19.4441 118.901 -7.28424
8.69005 115.218 -7.33551
-28.2567 118.881 -4.27153
-14.6881 109.671 14.0985
-29.6066 117.715 -0.860938
-18.6816 118.885 -7.29615
-16.1705 109.705 14.6471
3.64529 107.049 14.7634
-17.2537 118.497 -6.73062
-20.1278 119.106 -7.08928
-27.5698 119.223 -4.89052
-28.051 119.122 -4.45664
4.38442 116.258 -7.79876
-14.2017 110.072 13.7072
-28.1894 119.169 -4.24071
-21.43 110.892 14.1031
-8.09945 111.735 7.66098
9.78267 108.451 10.0548
-0.270389 109.974 9.60707
10.4628 111.257 2.92705
1.34139 108.334 13.3132
-8.9498 118.066 -7.39999
-8.95877 111.08 9.93378
-26.9146 115.725 4.41931
-27.5365 113.477 10.2334
-26.6265 112.107 13.5762
7.14176 108.094 12.4488
-15.5478 118.706 -6.27184
6.48811 108.047 12.9363
7.39894 108.267 12.1201
-29.096 118.967 -2.35965
-16.8826 110.561 14.4993
0.690007 117.95 -9.46507
-25.0321 111.649 14.6266
-23.3404 120.192 -7.07674
-1.82706 111.3 7.9073
1.95886 108.262 14.3599
-22.3751 111.578 14.1663
-8.85079 111.466 10.0742
3.46601 117.375 -8.60114
-7.328 112.422 7.23975
10.3911 109.302 9.33809
-21.6675 111.622 14.1308
8.18239 108.801 11.4152
6.33666 108.436 12.9856
-27.1722 116.501 4.10252
-8.53993 112.135 8.80544
-23.1383 120.434 -6.96389
-25.8118 112.278 14.2395
-9.73065 118.431 -6.21396
8.16198 115.71 -5.26282
-2.68916 112.209 7.01169
0.847536 109.729 12.0474
-5.98625 119.273 -9.31181
5.30131 108.355 14.081
7.84378 108.999 11.6554
-15.2335 111.126 14.124
-10.3146 118.578 -5.88478
6.99192 108.898 12.4567
7.17861 108.982 12.3262
3.88895 117.682 -8.11875
9.09819 113.441 0.683815
0.959805 110.223 11.5736
1.61568 118.648 -9.11507
7.50229 117.382 -7.83384
6.39559 117.274 -7.16988
-26.9487 113.673 12.8075
1.41533 118.78 -9.08331
-29.4383 119.081 0.346996
-17.5896 120.36 -6.6975
8.14656 114.238 0.0800537
-17.5477 112.06 14.05
-27.394 114.525 11.2329
7.59313 117.617 -7.88833
5.7304 109.351 13.3687
6.31408 109.564 12.7785
-27.0975 114.167 12.3584
-29.5864 119.69 -0.428489
7.75595 115.022 -1.00866
-27.6302 115.142 10.3279
-1.50357 112.881 7.35719
0.233065 111.976 9.03788
8.32133 117.162 -6.43057
-12.3898 111.899 13.5402
-8.14517 113.273 8.76086
-16.2109 112.047 14.5905
-23.4537 121.605 -6.68963
-20.9391 112.897 14.1225
10.4548 111.675 6.87543
-13.3502 119.83 -5.46932
-27.7092 120.402 -1.88654
-27.5502 115.952 9.09893
9.79422 112.491 5.45984
10.9424 111.586 7.47329
-11.922 112.256 13.419
-18.9511 113.082 13.8152
11.1544 111.587 7.83985
-1.12155 113.466 7.31738
8.7936 116.987 -4.62709
9.73337 112.56 6.13097
-26.3603 121.859 -4.91875
7.94021 115.768 -0.811862
0.736985 112.816 9.00056
-5.52685 120.83 -8.71788
9.54567 112.915 5.95856
-17.0393 121.381 -6.18884
-6.92807 114.585 7.35521
10.2353 117.743 -6.10914
-8.13384 113.775 10.0637
-21.2802 122.22 -6.5021
3.20857 119.724 -8.26622
11.257 116.228 -2.14461
-5.64924 121.054 -8.53344
5.92394 118.983 -7.0267
-1.23015 114.316 6.90493
-2.15987 114.722 6.2734
7.74935 119.188 -8.03767
-10.1889 120.514 -5.02022
-1.66151 114.738 6.50592
-18.3412 122.198 -6.4375
9.61742 114.073 4.52852
4.00815 110.801 14.4864
-0.286247 114.196 7.53785
-3.69977 115.342 5.92565
-27.0873 122.074 -3.04396
-5.6005 121.413 -8.34628
2.24642 111.696 13.2808
-25.9342 115.497 13.1766
-17.4804 122.198 -6.12918
-15.9272 121.75 -5.45487
-16.551 113.955 14.1045
1.08789 120.385 -7.59572
-26.1149 115.788 12.901
0.360779 120.656 -7.82133
12.5239 116.468 -1.42663
-26.6255 118.202 7.18905
9.85255 113.539 6.79807
-29.0846 121.58 -0.282292
12.3962 118.558 -6.3702
-7.87787 121.302 -6.50638
-4.22009 115.836 5.86599
-16.6127 122.188 -5.66792
12.2073 118.707 -6.46131
-26.8533 122.559 -3.10835
10.8983 112.834 8.64404
-27.2215 122.308 -2.29523
10.1693 116.15 0.749071
10.4619 115.655 1.89175
-26.1053 116.115 12.7953
-27.26 122.324 -2.09995
-0.207996 121.252 -8.29401
10.014 116.552 0.0915122
-15.1442 121.988 -5.09999
-26.9665 117.356 10.3189
13.2654 116.633 -1.07101
-5.47992 116.075 6.56069
-23.7686 115.483 14.0572
2.05727 113.517 10.4873
-6.3634 115.99 7.20384
3.14363 120.607 -7.34493
9.88583 117.668 -2.2136
2.44665 112.955 11.9665
7.78075 117.806 -1.72175
9.37609 119.192 -5.52539
-14.5241 122.144 -4.96648
-7.51405 115.423 9.39451
-9.1484 114.667 11.9121
4.65355 112.028 14.0889
7.7702 118.091 -1.89673
-17.311 115.083 13.8447
1.57416 121.013 -7.05053
-19.6928 123.608 -6.42877
-26.9939 120.185 4.52261
-20.5688 115.658 13.635
-9.60632 121.663 -4.83239
9.24052 119.402 -5.39811
-16.5362 122.86 -5.45298
-13.568 114.586 14.0996
-15.8083 114.85 14.191
-24.7862 123.028 -3.11022
-1.35984 116.244 6.03895
14.0032 116.62 0.0816546
9.02375 119.27 -4.77634
-10.7477 114.688 13.137
8.1624 119.015 -3.78884
10.7056 116.639 1.28761
10.871 118.077 -2.23258
4.55978 112.39 13.9672
2.75525 113.204 12.5431
-26.5594 122.81 -1.56043
10.8267 115.815 3.53791
10.3684 115.491 4.54033
-26.5706 118.025 10.4055
-31.0376 122.938 -0.259821
-9.36868 115.052 12.1716
-23.5447 116.214 14.009
9.47451 119.764 -5.49409
-23.8516 123.726 -4.29713
7.83473 118.692 -2.22753
-27.3257 122.707 -0.601315
-13.7178 122.589 -4.77435
-26.1985 120.13 5.46813
5.54771 112.634 13.6554
-5.23479 117.022 6.32673
-24.3143 123.386 -3.02936
4.86977 112.757 13.7547
-11.5695 122.393 -4.71568
7.17015 121.427 -8.43362
-3.18778 117.121 5.64252
7.99283 119.635 -4.22599
-5.94925 122.754 -7.33748
10.9879 116.825 1.83692
-26.2128 119.741 6.94509
9.93887 113.627 10.252
-7.75645 122.452 -5.75996
-28.7452 123.037 -0.243737
-25.6696 123.377 -2.09004
14.8445 119.045 -4.65051
-8.69677 122.336 -5.05597
9.29347 113.598 10.9463
-28.4603 122.9 0.362067
-25.4093 117.291 13.3016
-27.4825 123.215 -0.585689
12.1302 118.098 -0.88916
-28.6966 123.288 -0.270874
8.51789 113.672 11.3579
11.3117 116.798 2.81992
7.70723 119.978 -3.86372
-27.8675 121.459 4.28954
6.55471 113.54 12.6228
-17.1103 124.103 -5.6152
13.2027 117.83 0.0249484
10.5424 119.306 -2.75696
-20.8719 116.837 13.7463
4.90398 122.246 -8.11847
-17.1394 116.404 13.607
-21.7284 116.84 14.0346
-18.2914 124.638 -6.34735
13.6761 117.313 1.3124
-25.3699 123.754 -1.8075
-30.9575 124.156 -0.871821
-22.8047 117.179 13.7715
9.89271 114.276 10.2382
11.6135 120.959 -6.73226
-8.64229 122.873 -4.79959
-29.4053 123.158 1.37709
-18.4066 124.845 -6.37601
-0.735249 117.669 5.77585
15.9986 119.004 -2.96266
15.4242 119.468 -3.852
-1.61523 123.526 -8.27867
-18.6514 125.163 -6.4706
14.5119 120.292 -5.2152
-4.10618 123.919 -8.08303
10.6371 119.51 -1.96667
11.1836 118.443 0.563571
2.76543 114.977 11.9233
-20.8121 125.442 -6.1663
9.58956 121.431 -6.19618
-0.306668 123.43 -7.75485
10.4706 119.021 -0.33885
-3.51133 118.486 5.6094
-23.3696 124.887 -3.72347
8.2592 114.544 11.5237
-23.5081 124.789 -3.3516
-27.2074 121.64 5.71155
10.7381 117.219 4.23167
3.95736 114.343 13.5972
2.37425 122.712 -6.61553
12.0501 117.977 1.95481
-13.807 116.67 13.7338
-14.4646 124.252 -4.79511
-0.404441 123.593 -7.74771
10.9687 119.533 -1.40795
-25.4761 125.094 -3.1915
-28.0001 124.548 -0.988086
13.5572 120.971 -5.74671
9.46655 121.648 -6.05814
-19.8007 125.658 -6.34835
9.21233 121.61 -5.82096
10.383 116.437 6.65795
-7.16344 117.301 10.3367
9.03852 114.829 11.1832
-32.6244 125.149 -0.708668
-17.0951 117.398 13.405
8.65634 120.972 -3.89684
10.6224 119.097 0.141303
1.76905 117.235 7.68943
9.81627 121.692 -5.9934
10.8427 120.039 -2.23345
10.6803 120.431 -3.11327
-25.9605 119.34 11.654
-11.4249 116.665 13.5784
-2.12792 124.2 -8.12956
14.4431 117.905 2.04017
-15.1066 117.213 13.4851
-25.7662 120.6 8.743
-7.01859 117.613 10.0268
8.14347 114.955 11.6426
-16.8092 125.045 -5.12397
-24.7731 124.723 -1.65829
7.29312 114.94 12.0587
-30.0995 125.237 -1.16483
14.1478 117.993 2.27393
12.2559 121.756 -6.40068
13.214 118.156 2.32124
-19.8152 118.061 13.4903
-28.2521 123.852 2.00666
14.6565 118.115 2.2699
-22.2449 125.502 -3.86659
5.64878 114.941 13.1883
13.3113 118.186 2.63396
9.72897 115.558 10.3339
5.29876 123.93 -8.94785
11.7773 118.013 3.61243
-25.6781 125.439 -2.37695
-17.3075 118.051 13.2733
-26.3565 124.938 -0.812147
-3.49373 124.782 -7.92811
-0.176144 118.849 5.73652
10.6705 119.508 0.588335
-21.5747 126.549 -6.21164
10.6999 119.507 0.669564
-24.5994 125.371 -2.25803
2.91003 123.811 -7.28406
-2.03509 124.713 -7.85997
-11.0168 117.375 13.3856
-26.2413 125.255 -1.12812
5.72715 124.219 -9.04709
-3.08823 119.561 5.44123
-17.6193 118.354 13.2128
-23.5538 125.97 -3.68651
7.76914 123.925 -8.89464
-6.90168 118.198 10.2464
8.31082 123.821 -8.68455
10.1707 121.55 -3.60678
-6.85797 118.277 10.1917
-13.0413 125.242 -4.97173
10.6286 119.838 0.723783
7.33525 115.691 12.1513
18.1577 120.358 -2.90149
9.91587 121.899 -3.99549
-33.7986 125.563 1.37873
11.7216 118.295 4.49513
6.23613 124.497 -9.03938
6.26998 115.731 12.6957
-13.9547 118.121 13.5428
19.1877 120.803 -3.92945
-9.49741 124.715 -4.13875
19.9971 121.103 -4.84708
-10.0172 117.854 13.0637
-28.6035 125.238 0.918924
-25.9069 120.75 11.2479
-26.5808 125.622 -0.56776
-26.0174 125.595 -0.629633
-29.0637 126.521 -1.90526
10.5105 120.445 0.180975
-29.2277 126.546 -1.87798
-5.16358 125.121 -6.21901
-9.55488 118.042 12.7798
-5.61814 119.58 7.71391
-25.6434 126.509 -2.87729
-2.85272 120.15 5.40327
-31.1735 125.662 1.04962
-27.8263 125.814 -0.390695
-7.35086 118.532 11.0136
8.91637 122.463 -4.05745
-15.2525 118.64 13.3634
-11.6315 118.103 13.5314
-24.0474 125.913 -1.68634
3.30377 116.599 12.4292
-25.7375 120.921 11.4686
-14.2919 126.078 -5.04447
14.771 118.978 3.03376
-16.6481 119.076 13.1897
9.64028 124.041 -7.73471
-27.6745 125.743 0.308861
-4.1928 125.578 -6.98307
-3.0539 120.445 5.38756
-22.3347 120.057 12.7649
9.36745 116.715 10.6606
-0.308256 125.148 -7.05861
-27.4147 126.042 -0.314781
9.22974 116.701 10.805
-25.6401 121.125 11.4063
9.40519 118.251 7.09564
11.7059 119.588 3.0403
-26.042 125.902 -0.193669
-24.5217 126.212 -1.43375
-27.0218 123.786 5.40509
-25.3637 122.255 8.67382
-32.6587 127.234 -1.20641
3.26725 125.123 -7.75809
-27.8047 126.084 0.0854809
6.61888 125.225 -9.03771
-27.423 126.107 -0.0290381
-28.2346 125.973 0.576341
-4.04194 120.544 6.09249
-9.23249 125.351 -4.0673
-33.1174 127.029 -0.371655
-32.1719 127.396 -1.51063
9.88977 117.275 9.7885
7.99196 116.656 11.9738
9.33306 118.145 7.92174
-12.3427 118.725 13.6512
-19.2455 119.779 13.3542
-9.02158 118.773 12.4936
-23.6775 126.896 -2.73233
10.3106 118.937 5.86714
-26.6419 126.414 -0.495064
9.69016 124.473 -7.6067
-18.0528 119.795 13.1132
-27.0418 126.358 -0.157751
-20.6496 127.829 -5.8958
21.4287 120.84 -2.38865
5.20172 116.641 13.3667
-1.53642 120.889 5.0731
13.9837 119.458 3.55188
-26.9165 126.228 0.212822
-24.7435 126.691 -1.57088
-25.2427 121.506 11.6029
-24.2286 126.426 -0.920896
-26.0836 126.472 -0.408846
-2.92701 121.106 5.34141
20.8215 121.907 -4.39533
-28.6178 125.946 1.8396
-27.5692 126.559 0.00570929
-14.7773 127.197 -5.7745
-27.9739 126.296 0.885164
-27.2385 124.317 5.5473
-33.3237 127.471 -0.231179
11.4153 119.991 3.6778
6.74888 125.799 -9.02215
6.88405 125.78 -9.01718
2.53902 125.409 -6.64982
21.4038 121.05 -1.99037
18.4737 119.987 1.66199
-0.504033 121.12 5.09229
-4.27376 126.293 -6.48405
-22.0773 120.98 12.5421
10.6399 121.797 -0.146749
5.51107 117.065 13.2647
15.4887 119.782 3.29693
-8.85779 119.316 12.4567
-11.6144 119.267 13.4955
-8.27427 125.882 -3.98698
-32.0141 126.781 1.6372
6.88923 125.926 -9.0054
9.2279 124.753 -6.75009
-20.8971 128.226 -5.44984
-27.0735 126.738 0.275158
19.1709 122.379 -4.07076
-23.7219 127.146 -1.74208
20.6865 122.339 -4.33027
8.47838 124.457 -5.50561
-1.06642 121.473 5.03946
-34.1776 127.928 -0.0461031
-14.323 127.682 -5.93569
-32.7914 128.321 -1.44262
-6.21277 126.292 -5.10803
-27.8333 126.513 1.46669
-32.0335 128.321 -1.60638
-27.137 124.481 6.31842
9.55629 121.694 1.18166
-32.9302 128.377 -1.41808
-15.6342 120.136 13.3349
-19.9303 128.171 -5.15431
18.7579 120.113 2.11471
-23.5928 127.26 -1.65188
-0.980376 121.57 5.03415
-36.9665 127.765 1.51537
-20.9653 128.32 -5.09664
-27.8281 126.592 1.47234
20.8135 122.469 -4.26018
-20.8248 128.356 -5.16142
8.78179 123.372 -2.51719
-5.69699 120.654 9.05667
-34.4255 128.056 0.247061
-6.84724 120.102 10.9596
1.87909 120.942 6.03481
2.5473 126.025 -6.77205
-21.0264 128.231 -4.36776
-25.5214 123.485 8.90144
-24.6632 122.219 11.9246
15.3269 122.875 -2.83429
-20.3041 121.177 13.0894
9.9143 124.289 -4.54255
2.78519 120.669 6.82017
-20.0952 128.75 -5.66962
-28.5564 127.487 0.270228
-29.8472 127.61 0.39091
-36.0473 128.017 1.44257
9.51718 119.36 7.99597
-34.0725 128.315 0.159226
7.0749 117.918 12.417
-23.0811 128.059 -2.75002
18.3832 120.544 2.29725
3.96576 118.446 12.2354
12.1406 120.701 3.97876
-25.1071 122.653 11.4284
3.60058 126.705 -7.93619
-3.61963 122.046 6.00573
17.3888 120.953 1.85081
19.3886 120.281 2.9952
-26.2747 127.462 0.308599
-25.9031 127.505 0.0884532
1.84787 121.538 5.8272
10.1006 119.815 7.45808
3.83114 126.912 -8.05611
8.3257 123.9 -2.05093
-28.4611 127.45 1.33116
8.73193 122.954 0.273773
21.3468 122.742 -3.32491
-32.5607 127.997 1.38119
11.2124 121.927 2.07521
-18.4222 129.133 -6.03073
18.4471 120.791 2.68565
12.8132 120.987 4.1074
-9.55735 127.156 -3.80954
9.13674 118.768 10.8693
-28.3579 127.346 1.94747
-27.4472 126.361 4.09632
-16.9162 129.087 -6.07626
8.61989 123.096 0.440979
3.10426 120.397 8.9591
9.5912 125.329 -5.38526
7.42874 118.526 12.2044
15.4977 120.827 3.90166
-28.3693 127.159 2.65478
-9.84652 120.565 12.918
10.1607 124.313 -2.90789
-4.36274 122.037 7.53023
3.86597 119.223 11.8229
-25.8961 129.195 -3.06199
9.40966 126.625 -8.28022
-19.1209 129.047 -4.90514
-22.874 128.543 -2.4125
17.9861 121.104 2.62565
9.86218 125.267 -4.96418
18.9886 120.673 3.45111
-19.5632 129.636 -6.05866
8.04018 124.143 -1.50849
-17.6588 121.741 12.9607
8.74053 122.794 1.7094
-3.82592 122.519 6.53464
11.2263 121.721 3.57423
-28.1318 129.441 -2.6078
16.7273 121.291 2.87646
9.59544 125.772 -5.87301
11.9043 121.727 3.40226
10.6739 124.109 -2.07636
-25.2797 124.019 9.97092
-4.24312 122.256 7.43736
5.47405 118.9 12.6277
-15.8932 121.457 13.3625
-17.754 129.463 -5.85433
-28.1882 127.713 1.97887
-11.8667 128.264 -4.70718
-10.9997 127.987 -4.26574
21.3285 121.899 0.244375
-24.1956 123.121 12.1808
8.67198 124.868 -2.9357
6.01231 127.583 -8.74702
-26.9517 125.987 6.08193
-23.3007 122.909 12.5355
-10.417 127.91 -4.07974
-19.8652 129.586 -5.1055
-17.1567 129.723 -6.32625
-0.498363 123.005 4.9131
12.0449 121.951 3.48594
-27.3966 127.689 2.2825
-1.77522 127.955 -6.75517
-20.5273 129.62 -4.65832
13.5043 121.427 4.51485
-34.3644 129.568 0.110664
3.39855 120.639 10.0012
8.7385 119.877 10.2063
9.92022 125.329 -3.63759
11.8656 121.938 4.27816
21.241 123.817 -3.40316
-28.5854 127.895 2.87511
-10.7091 128.435 -4.21865
-18.0021 130.293 -6.40149
-15.0141 129.986 -6.61685
11.4873 122.393 3.52551
-28.0272 127.847 3.11044
-29.5613 128.128 2.9385
-2.2845 128.401 -6.63717
10.5871 122.731 3.21022
-17.5601 122.483 13.0764
2.32419 122.919 5.46849
1.9786 123.077 5.27883
-30.2559 128.996 1.21721
-14.0623 121.991 13.3118
20.4316 121.786 2.54585
10.3512 125.197 -2.52193
1.72799 123.248 5.16014
-33.0516 129.339 1.53516
9.63717 126.526 -5.44159
22.1554 123.011 -0.763636
-15.7138 122.336 13.3613
0.749774 123.632 4.76653
11.5129 125.977 -4.5792
-29.9678 130.589 -2.38469
11.0045 122.729 3.64583
-19.0812 130.663 -6.13596
-6.66039 122.096 11.0653
-14.7818 130.302 -6.6047
-31.4772 130.677 -2.01761
-17.582 130.784 -6.80445
11.7412 122.726 3.55594
9.35203 126.136 -4.06596
21.9482 123.366 -1.31291
-19.8542 130.62 -5.52627
-11.713 129.169 -4.59318
22.3299 122.839 -0.00860874
-32.7533 130.04 0.3751
-14.5711 122.491 13.2398
9.64922 126.64 -4.98338
-2.74672 128.835 -6.24514
16.165 122.165 4.07747
-34.2068 129.995 1.24779
12.8503 122.464 4.45768
-35.6328 130.209 1.19978
10.2815 123.886 1.80727
3.42016 122.809 6.79519
11.2933 121.655 7.09372
4.91769 120.476 12.1948
-26.0151 126.427 7.62263
9.47229 123.341 3.61582
-30.8921 131.19 -2.4693
-30.1582 129.129 2.40215
-26.4124 127.615 4.95662
9.71584 123.674 2.91837
11.7283 121.91 6.62964
-27.6181 128.251 3.83852
-17.4706 131.441 -7.34132
22.357 122.853 0.867369
-23.7022 124.453 12.1063
-22.7205 129.84 -1.54398
10.2736 121.627 8.01551
-5.69887 122.853 10.2423
11.4741 126.454 -4.30538
-20.0522 130.953 -5.09259
-26.0939 131.26 -3.84813
-6.12145 122.75 10.7451
8.99205 128.617 -8.75252
-25.3187 125.805 9.4878
3.04162 123.643 5.59333
8.41783 126.852 -4.057
-12.5065 130.061 -5.13027
19.9137 122.608 2.72622
10.5504 123.493 3.69103
-28.8496 131.453 -3.09525
-8.31845 128.875 -3.44714
-28.1291 128.695 3.54624
7.31208 128.979 -8.76863
-4.9649 123.329 9.34754
10.2213 123.646 3.5959
-1.2104 124.745 4.636
12.4957 122.953 4.65536
19.23 122.661 3.19699
-36.2713 130.468 2.2369
-29.8193 129.205 3.32975
7.49156 126.24 -1.54215
-24.8654 125.988 9.72325
-19.0147 124.02 12.6942
-24.9388 131.166 -3.05828
17.8772 122.597 4.20414
9.94124 126.11 -1.83463
-32.5391 131.893 -2.20107
-12.5138 130.507 -5.28643
3.87245 122.013 10.4266
10.0826 127.505 -5.204
3.14594 129.287 -7.31492
-35.5295 130.366 2.72868
-10.2791 123.201 12.2363
-13.5919 123.561 12.5041
-25.4721 126.864 8.26812
9.47433 127.635 -5.10498
22.3887 123.465 1.03137
10.0302 122.184 8.29716
16.7422 122.977 4.1319
-38.2681 130.738 3.01266
-23.3311 125.104 12.0769
15.4525 125.635 -1.97272
10.2187 124.165 3.4184
8.1125 127.143 -3.26606
-21.9767 130.738 -2.13695
4.13832 123.009 8.50992
4.19908 122.026 10.9526
-22.5952 130.698 -1.73599
3.78488 129.649 -7.79695
12.6195 123.142 5.44863
-9.26587 129.799 -3.84794
10.3091 128.404 -6.77115
10.8089 124.273 3.34687
9.20314 124.521 3.26341
-0.320006 129.347 -5.53289
9.3174 126.844 -2.42823
-36.3733 130.594 3.28385
-25.6993 132.199 -4.19743
-2.93177 129.811 -5.71919
9.12679 124.615 3.19751
-35.2466 130.676 2.74967
-8.75675 123.343 12.2489
-7.43387 129.48 -3.37856
21.7839 124.448 -0.445182
-36.711 130.684 3.31498
-13.0997 131.28 -5.91565
9.08695 129.402 -8.52769
9.98405 126.788 -2.3114
-20.3275 131.563 -4.08007
20.279 123.706 2.08604
14.9182 123.053 5.47468
19.5172 123.376 3.17762
-29.7268 129.836 3.45073
-4.62448 124.173 9.24725
-23.0885 131.432 -2.58382
-31.0726 132.687 -3.02056
21.0415 123.65 2.33849
8.41441 121.856 11.0003
15.1422 123.164 5.56409
9.61596 122.469 9.15603
-36.5091 131.502 1.91929
-19.9005 131.867 -4.40534
-3.84457 130.105 -5.2822
18.2448 123.144 4.79717
22.0234 124.481 0.293986
-8.75657 130.189 -3.67616
-11.817 124.342 11.8542
13.1345 127.147 -3.25285
11.8323 123.301 6.75287
-2.96179 125.131 7.10428
-19.6025 132.2 -4.89208
9.78946 127.788 -3.60426
-1.64166 125.75 5.24096
-19.7138 125.434 11.9957
14.3439 126.806 -2.56977
-4.63793 130.146 -4.59942
-11.5885 124.507 11.7609
-28.6096 133.135 -4.02559
-31.8023 130.902 2.61505
5.51693 130.23 -7.91807
9.16729 127.69 -2.79475
-23.9931 131.879 -2.28022
20.9769 125.984 -2.43248
17.8043 125.815 -0.901334
-6.40889 124.249 10.9475
5.64425 122.256 11.9309
-28.4071 130.289 3.22261
12.624 123.9 5.6535
10.3579 127.057 -1.41222
9.54646 128.459 -4.51625
-13.3563 124.791 12.0996
11.33 125.178 3.04715
-28.7145 130.379 3.31787
15.2275 126.676 -1.88392
9.47249 127.139 -1.08553
10.3049 127.116 -1.29569
-33.8775 133.185 -1.75491
10.8187 127.049 -1.15134
-36.5612 132.522 0.848686
4.18252 123.442 9.98629
-22.6316 126.11 12.2291
8.60893 128.448 -3.76878
8.36129 127.664 -1.69533
18.1602 123.604 5.1842
7.95879 127.122 -0.163646
-14.8441 133.169 -7.65821
-24.3517 127.602 9.26269
8.71522 127.26 -0.705874
14.5439 127.236 -2.44078
9.51602 128.258 -3.21662
-15.6295 133.227 -7.2612
-13.0936 132.667 -6.66653
13.0996 124.982 3.77933
12.7374 124.359 5.45072
10.4923 123.663 8.04025
2.11446 130.503 -6.16056
-25.8703 129.155 6.39162
12.0605 125.499 2.99803
-28.078 130.598 3.55566
7.64248 122.891 10.9374
-12.5426 132.51 -6.2506
11.2307 125.729 2.84467
-27.5345 130.592 3.53019
-17.592 132.78 -5.12182
-25.9344 129.303 6.28516
-7.0386 130.6 -3.12753
10.3647 129.958 -7.20184
8.72814 123.431 9.51184
11.9982 125.698 2.96004
-20.4924 126.469 11.7394
-5.97282 124.963 10.7246
-6.99956 130.683 -3.11151
15.8686 127.179 -1.93124
-22.5822 126.681 11.9459
-9.92936 131.622 -4.38716
9.34259 127.542 -0.583134
10.4353 124.18 7.51344
-28.1651 133.797 -3.62542
12.913 125.047 4.65156
-35.9325 133.37 0.0744017
-31.3783 131.174 4.02976
4.7895 124.577 8.52184
9.64086 126.136 3.06988
8.36624 130.892 -8.22986
9.87531 126.202 2.93852
-26.6923 130.354 4.67059
10.9996 124.759 6.18241
11.8592 127.938 -1.95741
22.1254 125.939 -0.373289
12.9817 125.115 4.71296
-20.5639 126.747 11.7677
17.5732 124.053 5.93381
14.968 124.363 6.03929
-30.5035 131.313 3.79229
10.5351 129.093 -4.14424
-5.03336 125.476 9.95365
-36.1784 131.924 4.38342
-12.6935 133.29 -6.6186
-21.6166 126.988 11.9646
21.1772 125.44 1.75933
13.093 125.297 4.77993
-5.1657 131.22 -3.89521
-18.1329 133.428 -5.0497
-17.8109 133.371 -4.97722
4.57667 124.537 9.68389
-37.2878 132.548 3.58793
-15.6209 126.25 12.1657
10.3365 130.922 -7.93408
-13.031 133.681 -7.09211
-24.299 134.083 -4.29067
11.9925 128.194 -1.50881
-3.18982 126.299 8.20377
8.83336 124.698 8.29256
18.3494 127.099 -0.761513
18.572 124.542 5.53104
-10.0936 132.425 -4.58985
7.48552 131.446 -7.87748
-1.41414 127.248 5.46354
-29.4595 131.373 4.45488
9.96209 128.212 -0.652976
-24.9247 129.543 7.56378
-22.0909 127.446 11.8501
-32.277 131.742 4.56763
-27.4502 131.234 4.26054
-27.473 134.359 -3.42559
-27.5209 131.254 4.30745
-18.9668 133.884 -5.01545
-36.7216 133.103 2.843
-26.3569 134.514 -3.96988
-35.2307 134.16 -0.165089
-25.1319 134.486 -4.27571
-32.8795 134.361 -1.39567
0.0689162 127.692 4.35206
-36.4882 132.627 4.15281
-26.3504 131.364 3.95923
5.81636 124.127 11.4032
-24.5057 129.942 7.08223
-23.6191 128.658 9.99065
-36.6479 133.32 2.73989
-35.6664 134.216 0.249183
5.21886 125.881 7.60594
-14.4271 134.515 -7.25873
-33.0592 134.573 -1.21206
-10.286 126.771 10.694
-3.75918 126.64 8.89137
-24.2321 130.374 6.37807
10.2121 129.07 -1.68313
4.71059 126.769 5.84482
-35.789 134.317 0.502757
-36.7647 133.214 3.56977
-21.7348 133.56 -2.20272
-23.6346 129.469 8.67343
-9.53964 132.853 -4.31396
8.84527 129.585 -2.19898
22.3678 127.232 -0.803458
-26.1085 131.662 4.16021
-17.6519 134.118 -4.60736
8.76878 127.687 2.66566
9.02657 127.65 2.69296
1.84345 132.047 -5.81671
8.95799 129.61 -2.06807
5.1587 132.172 -7.1494
-12.2843 134.329 -6.7432
13.0851 126.741 3.76377
9.10065 127.827 2.38936
9.53131 128.293 1.17864
14.6264 125.55 6.36226
-20.3413 134.279 -3.75413
11.6889 128.955 -0.959537
4.03617 132.43 -6.95421
10.6101 128.393 0.943215
-9.16206 126.966 10.9725
-5.62732 132.221 -3.20285
11.1273 128.633 0.259203
7.01098 125.501 9.42801
4.93712 125.352 10.5162
-23.1963 130.885 6.06549
-29.2823 132.258 4.72012
-25.9979 131.886 4.61245
-30.8068 134.883 -1.19531
-7.39145 132.666 -3.38215
6.66696 125.557 9.73381
13.6974 126.52 5.0605
-22.1297 134.728 -3.51318
11.2435 131.169 -5.62208
9.11354 129.849 -1.61707
18.6654 128.291 -0.879024
-10.176 133.729 -4.82066
-26.4604 131.849 5.31333
8.88103 130.441 -2.7609
5.46374 126.506 8.14618
11.0643 129.319 -0.610969
2.75298 128.558 4.02034
16.9307 125.703 6.45628
0.420987 128.739 4.369
-5.17461 132.607 -3.30189
11.6842 127.087 4.90779
-15.4438 127.965 11.6748
-30.9009 135.134 -0.989358
20.1165 128.096 -0.205091
-34.5495 133.384 4.70959
10.7481 131.958 -6.58368
-14.8386 127.934 11.8011
2.05643 128.97 3.74899
-27.9607 135.403 -2.24035
-9.54736 133.863 -4.46099
14.9432 126.168 6.58997
-36.0643 134.535 2.63129
-1.242 132.892 -4.66502
-14.8595 128.076 11.7515
-28.1847 132.68 4.821
-19.3879 128.918 11.4314
-28.3747 133.105 4.01515
18.5429 126.705 4.51477
-25.9627 135.783 -3.31435
-21.3361 135.102 -3.14008
17.0591 129.574 -2.03294
-28.4983 132.861 4.80031
9.62328 130.435 -1.70108
5.39738 126.779 8.80048
12.1275 131.475 -5.03201
8.56897 130.597 -1.68698
8.86375 130.838 -2.31012
18.5328 127.055 3.90259
8.81237 130.8 -2.15547
10.9823 130.201 -1.37028
2.63032 133.352 -6.36832
-27.4395 135.728 -2.33195
-35.8087 135.262 1.60576
17.4506 129.601 -1.84788
-21.3476 130.488 8.72024
5.49003 127.812 6.57891
-0.601076 129.204 5.1507
-1.20383 133.178 -4.49919
-25.2187 132.366 5.4055
5.2888 126.381 10.2651
11.7995 130.932 -3.02443
3.27104 133.716 -7.11716
2.96185 133.69 -6.80064
11.0734 127.831 5.14227
-27.7919 133.106 4.8348
5.11834 128.543 5.37283
13.4606 131.505 -4.61703
-8.22682 128.097 10.9795
15.1806 130.663 -3.02747
16.0845 130.312 -2.40587
17.6033 129.85 -1.74949
-8.12762 128.121 11.009
11.0223 131.56 -3.75287
-21.2388 131.926 5.93663
-16.2936 128.994 11.6543
5.00407 133.622 -6.75098
-28.2545 133.291 5.10018
-9.6885 128.802 10.1956
-10.4199 129.063 9.86848
-28.7241 133.242 5.58968
8.43717 133.639 -7.58995
-9.19539 134.763 -4.55961
6.4881 133.688 -6.94629
8.78902 133.696 -7.69545
-29.3526 133.737 4.79047
9.56221 131.337 -2.00705
2.35334 133.885 -5.92525
12.2337 131.528 -3.31593
14.0101 131.856 -4.69615
12.697 131.712 -3.88601
8.77662 127.393 8.12623
-11.3554 129.115 10.4782
16.4235 130.576 -2.22979
2.26197 130.162 3.4654
-8.13344 128.59 10.8653
10.7432 127.625 7.0835
-35.2008 135.958 1.57451
10.4387 132.13 -3.875
-27.4873 136.516 -2.13728
12.1837 128.638 4.38466
8.38636 127.556 8.4158
-12.7191 136.872 -7.61874
5.1759 127.656 9.44265
-7.00158 128.781 10.6666
-12.4232 136.892 -7.60653
-9.4626 129.394 10.091
-25.3426 133.001 6.43174
12.675 132.383 -4.50252
-9.32257 135.647 -5.25152
-27.394 136.782 -2.10667
5.44422 129.411 5.45427
-34.793 136.339 1.51423
-29.1896 136.799 -1.41897
5.38647 128.412 8.03959
10.7576 134.172 -7.95108
-24.5839 133.142 6.26577
17.5781 127.697 5.91818
-22.4089 137.161 -4.36698
5.64983 129.311 5.91552
-23.2551 133.533 4.95239
-24.3822 137.141 -3.59308
-11.7146 137.003 -7.32707
12.5808 132.845 -4.9797
-0.302321 130.54 5.13248
-15.422 130.029 11.4789
-13.5501 129.83 11.4153
-19.5291 131.003 10.6542
-14.744 130.042 11.504
-18.3218 130.669 11.1556
-17.074 136.825 -4.48705
-5.69558 129.378 10.2339
-17.7534 130.761 11.0343
11.3781 129.165 5.48018
-18.7563 131.657 9.28354
22.511 129.428 1.28606
14.8023 132.693 -4.2664
-4.53967 134.682 -2.77564
-4.53677 129.63 9.75092
6.30228 128.19 9.78045
-19.9082 132.839 7.08027
-19.2381 136.885 -3.09642
-23.8648 137.915 -4.02322
-19.3244 136.932 -3.04809
19.3035 129.304 3.17463
14.8387 128.52 6.6572
21.3049 130.288 0.16337
-5.20316 129.836 10.0655
10.8789 129.075 6.70562
-3.46547 134.927 -2.97159
0.537871 131.375 4.53665
2.16369 135.379 -5.91625
11.1999 133.116 -3.26128
20.6668 130.421 0.38896
-2.87029 130.247 8.68798
15.7969 132.642 -3.32923
-28.0331 137.72 -1.5118
-3.135 135.047 -3.03255
5.55355 129.463 8.02003
-22.1658 134.303 5.16198
-15.7576 131.552 9.98562
15.5804 132.909 -3.63972
12.7451 133.771 -4.83157
1.05227 135.246 -4.60634
22.0711 130.324 0.731719
-16.1564 137.835 -5.31968
-29.3417 136.019 3.52735
-29.0768 135.8 3.99458
-12.4094 138.052 -7.01484
-3.96817 135.242 -2.81676
-7.43794 130.369 10.4256
-24.6205 134.548 5.71881
-2.1286 135.218 -3.23514
-33.8474 136.965 2.87402
-7.22872 136.274 -3.93773
11.1785 133.389 -2.79798
-14.2519 138.181 -6.2959
-18.1074 137.645 -3.69491
-14.379 131.275 10.9122
-5.85544 130.425 10.2578
5.4521 131.222 4.58703
5.97024 130.108 7.26008
0.924522 135.515 -4.47817
12.3674 133.444 -3.05182
-29.1943 138.087 -0.886484
-24.9751 135.006 5.43864
10.3169 129.768 6.84128
1.15926 132.095 4.12393
-0.125769 131.643 5.70117
-15.4333 138.341 -5.82608
-12.3279 138.354 -6.86109
-16.8813 132.603 8.9503
-18.8734 137.895 -3.50763
12.0715 134.975 -6.37532
19.276 129.986 3.67035
15.8854 129.611 5.87086
10.8487 135.741 -7.63929
3.85987 136.325 -6.7909
-32.9018 136.946 3.77421
-20.6101 134.337 6.24291
-26.7922 138.719 -2.54121
7.26291 136.032 -7.02719
-18.695 133.13 8.71866
6.20469 136.133 -6.77122
-8.4883 137.422 -5.13487
-15.8331 138.52 -5.33139
12.2797 135.048 -5.92783
-10.3178 131.982 9.12076
-1.33304 135.79 -3.26395
7.54543 136.199 -7.12845
-10.5806 132.08 9.05349
6.16666 129.981 8.7917
1.16139 132.533 4.11352
8.79244 130.185 7.49026
-4.19598 136.096 -2.80011
-0.757799 135.86 -3.31851
13.5595 133.862 -3.06303
5.58935 130.374 8.24851
4.03889 136.731 -6.92317
15.6695 133.868 -3.61138
-7.18701 131.362 10.1174
-28.1521 136.296 4.89005
-32.9785 138.615 0.818146
14.4298 134.262 -3.81726
-19.1192 134.058 7.77879
-30.0866 137.483 2.92361
-31.9946 137.627 3.19877
-14.3062 139.052 -6.12426
19.846 130.709 3.39032
-22.4324 138.976 -3.09766
-25.3312 135.757 5.85849
12.4074 134.106 -2.35788
16.5123 130.277 5.82125
4.2872 132.969 3.18265
-15.052 139.274 -6.02542
0.97389 132.937 4.48316
5.94728 136.914 -6.93021
-16.9576 138.899 -4.26598
-32.003 139.044 0.365153
19.1644 130.451 4.89863
0.812797 132.918 4.86129
-27.2682 136.388 5.51936
-25.1838 139.605 -3.08173
0.648129 132.88 5.22805
7.84127 130.681 8.3792
-20.5623 135.39 6.09694
2.36663 133.379 3.57124
3.99997 133.443 2.9297
-25.4148 136.107 6.02634
7.29895 130.614 8.91364
-22.2438 135.664 6.11087
13.0989 135.117 -4.08369
6.27598 130.967 8.45405
-30.8457 138.287 2.60795
-2.55379 132.356 8.18823
-1.99523 136.828 -3.03873
-16.6866 134.286 8.12199
11.7054 134.857 -2.60907
20.5641 131.302 3.3211
-13.1613 139.615 -6.18708
-13.2147 133.701 8.65124
8.72243 137.332 -7.52942
-0.307858 136.86 -3.28978
11.7846 134.996 -2.5814
8.92742 137.403 -7.60657
-18.3396 135.222 6.81684
-27.2914 137.186 4.9172
13.5749 134.889 -2.69507
-13.1266 133.961 8.39016
-3.75699 137.228 -2.78161
20.3391 132.318 1.48218
-15.5028 134.306 8.32966
18.9292 133.387 -0.6187
4.89877 137.921 -7.07459
-27.2059 137.428 4.76219
-26.3854 140.206 -2.23874
12.0961 131.741 6.14506
-8.56232 139.273 -5.66996
-1.34129 137.335 -3.09434
-12.5642 134.404 7.85717
-1.91238 133.059 7.76068
6.65989 133.202 4.7075
14.8108 135.37 -3.2901
21.234 131.82 3.43129
15.5164 131.629 5.87356
7.27888 131.631 8.5907
-3.19833 133.084 8.46541
10.1168 137.601 -7.08563
17.9506 131.386 5.90124
-21.6562 136.559 6.0885
12.9676 131.984 6.12668
-0.715232 137.553 -3.1759
-16.8862 135.334 7.693
11.8818 136.475 -4.5516
12.5058 136.237 -4.12371
-14.154 134.426 9.19662
7.85149 132.01 7.98113
4.26596 134.563 2.8606
-6.21441 138.916 -4.36978
-18.1855 139.999 -2.68622
-28.8325 140.333 0.0194274
10.9909 132.302 6.95756
-3.55563 138.172 -2.79407
4.71119 138.716 -6.82652
21.2285 133.085 1.73207
-2.04177 133.699 7.86153
6.59341 133.485 5.70765
-11.0935 140.741 -6.38788
-5.43777 133.65 9.34071
-21.2454 137.09 6.07819
10.2623 138.115 -6.7626
18.076 131.969 5.92759
6.34618 138.782 -7.03781
19.151 134.383 -0.275066
19.2233 134.181 0.205755
12.7272 136.408 -3.10863
-30.6046 140.087 2.03919
-26.8278 138.995 3.51518
4.08514 135.199 2.82552
-15.5469 141.144 -5.44938
17.6468 135.353 -1.9886
-13.493 135.865 6.97207
-2.18308 133.967 7.97188
-4.05839 138.563 -2.72952
-14.3731 141.201 -5.76416
14.0424 136.075 -2.3355
15.0217 132.769 5.72457
-0.343568 134.419 6.8725
-7.81669 134.705 8.68968
-9.56153 141.124 -6.64516
-20.9603 141.12 -2.89002
-15.7893 136.346 7.27128
-3.35289 134.239 8.4487
-6.64468 134.437 9.06513
1.4713 135.177 4.80061
20.5418 132.8 4.45732
-0.50019 134.527 7.11882
20.4485 133.864 1.93505
-26.3665 141.44 -1.4598
-27.2101 141.507 -1.34
-17.5655 140.993 -3.08295
19.4413 134.124 1.84486
-19.9955 137.591 6.24353
-25.8844 139.234 4.10798
-27.9348 141.387 -0.531517
10.1022 133.176 7.34649
-5.88493 134.665 8.97267
-4.54333 139.496 -3.15768
6.41953 133.745 7.49998
16.7701 136.259 -2.11389
-9.61361 135.804 7.6916
-17.12 137.323 6.47262
-5.28922 139.891 -3.73782
-9.70086 141.7 -6.6764
-22.0729 138.305 5.88021
-23.5424 138.736 5.30732
-5.0235 139.859 -3.53682
-4.10245 139.498 -2.90526
11.7473 138.134 -4.6583
-14.3609 137.301 6.04494
-14.8607 137.479 6.04575
8.98154 139.576 -6.98096
-5.09076 140.101 -3.64461
-4.62093 135.063 8.80414
19.1352 133.25 5.49902
-25.5634 139.851 3.82596
4.55422 136.278 2.82632
3.78579 136.301 3.07909
-12.5977 136.97 6.82493
11.3895 138.739 -5.29793
19.329 135.574 0.00204433
12.3094 137.849 -3.30904
2.36403 136.108 4.30863
13.7535 133.962 5.91548
-8.10387 136.233 7.46863
11.8145 138.523 -4.73483
-15.6014 142.215 -4.87907
15.777 137.22 -2.59846
-21.2257 138.665 6.22698
0.195962 136.015 5.78534
-30.104 141.419 2.38715
-28.0144 142.284 -0.343739
-4.53223 140.422 -3.41537
11.4515 134.439 6.22813
12.9665 137.245 -1.07692
21.2527 134.495 3.05177
-19.5421 138.782 5.8907
-5.24639 136.076 7.99942
16.731 137.154 -1.78545
-13.8821 142.633 -5.16445
5.30299 140.674 -6.42542
-30.3268 142.083 1.81859
-29.3502 142.18 1.35585
16.5884 137.409 -1.81146
9.0941 134.584 7.74289
3.62619 140.64 -5.40428
-5.54395 136.759 7.49644
7.14882 136.268 4.56472
-29.3519 142.403 1.36168
-21.3841 142.813 -2.2565
-22.3386 142.769 -1.82399
16.1378 134.639 5.72167
-14.7914 142.941 -4.65988
21.5737 134.824 3.66047
-28.8963 142.669 0.927422
-11.4315 143.189 -6.00555
-28.6343 142.817 0.677617
17.5303 137.433 -1.13369
12.581 137.951 -0.768447
-16.5667 139.081 6.01527
-1.10569 140.68 -2.9933
16.3439 137.943 -1.81808
11.7342 139.974 -5.27709
18.8075 134.641 5.73423
-10.603 138.572 5.94677
1.23118 137.305 5.22728
20.0147 135.004 4.79437
-0.386744 136.768 7.20526
-3.28709 137.017 7.60013
-11.0956 138.926 5.46893
-19.4063 139.845 5.9281
15.5291 135.318 5.76783
-11.598 143.568 -5.70677
16.8216 138.057 -1.31663
1.08641 137.395 5.53199
-9.20493 143.585 -6.41214
-7.88972 138.395 6.05642
19.8777 136.332 2.05531
-4.74878 142.008 -3.83579
-15.5466 143.672 -4.29471
20.4925 135.827 3.37558
-21.2379 143.584 -2.14494
17.3284 135.285 5.76227
11.8993 140.293 -4.82741
-1.93066 137.295 7.16826
18.6121 137.7 -0.543643
20.8537 135.485 4.2677
21.1823 135.532 4.10672
14.2634 138.56 -0.951257
-0.314715 141.537 -3.13115
-21.4825 140.605 6.16026
11.8023 140.058 -3.3909
-2.66252 141.873 -2.88711
-23.4461 144.043 -1.40553
-12.4484 144.077 -5.08897
-24.5939 141.693 4.81578
6.62156 138.342 2.87611
16.4006 135.917 5.68824
-24.7322 144.02 -0.804444
4.79369 142.045 -5.60618
-14.2755 140.142 5.56211
20.7758 136.014 4.30613
-16.9571 143.649 -2.21001
19.3156 137.844 0.298249
-7.94797 144.068 -6.13466
5.9909 138.73 2.56793
8.20842 142.178 -6.56836
1.15226 142.014 -3.50099
-23.4005 141.515 5.80714
5.30785 142.401 -5.78985
10.3077 141.617 -5.34136
-17.7928 144.004 -1.84854
0.692426 138.115 6.73368
-4.66003 139.268 5.8584
20.2719 137.452 2.29438
-8.89339 144.88 -6.52759
-2.37702 138.953 6.06322
7.49855 138.92 2.90391
-28.8181 144.108 2.10208
2.32355 139.222 4.01734
-26.4417 144.68 -0.0494243
21.0584 136.782 4.16807
-8.77165 145.097 -6.52741
-1.78082 139.074 6.14391
14.2717 139.668 -0.572164
-15.3536 144.99 -3.93908
13.5968 139.888 -0.678538
6.2665 143.075 -6.0552
-15.602 141.585 4.82529
14.6714 139.829 -0.754954
1.57206 142.674 -3.4342
-6.13391 140.09 5.57466
11.8096 140.989 -2.48678
-6.84937 140.364 5.19582
-3.92554 143.529 -3.56229
1.49593 139.195 5.5747
-1.27034 139.346 6.13958
-27.9892 144.83 1.3558
20.4055 138.054 2.26594
-18.7505 144.772 -1.51148
8.39057 138.697 4.69178
11.8933 140.886 -1.87455
-19.1018 144.914 -1.56386
-27.3305 145.08 0.768068
1.74347 143.015 -3.39463
-14.499 142.021 4.45454
17.967 139.522 0.00877321
18.7679 137.124 5.74189
-8.82631 141.562 3.93316
-22.127 142.736 5.50556
2.58653 143.293 -3.77022
-16.3335 145.272 -2.42329
9.08447 143.343 -5.91528
2.67895 143.356 -3.81443
-22.5069 145.746 -1.35962
-24.8152 145.571 -0.0875178
-18.1655 142.505 5.39753
-16.0228 145.667 -3.12856
17.1759 137.704 5.73157
-23.5862 143.153 5.61918
-1.07868 140.136 5.90537
20.4503 137.873 4.5144
-0.85425 140.13 5.94578
-1.07569 140.273 5.85969
3.10449 140.519 3.87802
-24.5825 145.855 -0.160144
-3.71294 144.565 -3.64794
-14.4682 142.742 4.40349
14.194 138.208 6.45214
7.13098 144.138 -5.92025
-1.29216 140.635 5.70005
-11.236 142.122 5.46194
-18.0177 145.775 -1.36446
-3.64144 141.653 4.32818
-13.249 142.992 4.2148
2.52171 140.989 4.01674
-19.3258 142.894 6.51683
-17.2324 145.781 -1.22827
-2.33697 144.505 -2.95455
11.5762 138.799 6.62375
-26.6812 144.917 4.02862
-17.3056 143.296 4.99853
19.0449 140.21 0.783519
12.385 142.643 -3.05191
-21.4239 143.752 5.43973
-0.142515 140.768 5.87245
12.73 141.537 -0.253801
-5.93447 146.006 -5.04831
-7.18997 142.665 3.65153
-14.346 146.367 -3.00498
-1.48733 141.406 5.33928
-12.3668 146.714 -4.16213
-26.7568 145.763 2.93495
-5.65678 146.155 -4.91535
-18.5754 143.68 5.52803
-3.8675 142.392 3.90304
16.9291 141.388 -0.311423
17.2573 138.885 5.87446
-13.037 143.554 4.28895
-6.02155 142.929 3.59439
-2.20519 145.121 -3.05821
9.2811 140.177 5.53887
-13.7577 143.7 4.42614
-11.9632 143.457 4.47184
12.4401 142.748 -1.65429
-26.7152 146.46 2.17621
-3.1323 142.571 4.08765
12.2037 143.68 -3.6911
10.6885 144.426 -4.92571
12.4523 142.972 -1.7555
0.302049 141.668 5.56484
-25.5579 145.851 3.8607
-5.83079 143.488 3.25818
10.644 139.949 6.7385
15.7333 142.129 -0.273906
9.50034 145.114 -5.49759
12.2386 143.918 -3.41917
-21.3455 147.462 -1.1073
13.1641 142.188 0.725058
-0.680506 142.306 5.0499
-7.10309 143.781 3.50635
9.16274 141.18 4.62542
-15.2371 144.437 4.76317
15.601 142.381 -0.123278
18.7301 141.673 0.804534
-4.76581 146.945 -4.50207
-21.4117 147.788 -0.986611
-18.6355 144.904 5.2641
12.6692 143.487 -1.43731
-8.81228 143.91 4.57071
17.914 142.165 0.260688
-24.4742 146.399 3.71335
-2.46207 146.424 -3.49436
19.796 140.515 3.88938
-3.25054 146.718 -3.90407
-0.685046 145.972 -2.88384
11.3366 140.725 6.3652
-21.7391 145.735 4.90713
-9.46238 144.18 4.91173
-25.0339 146.869 3.40333
1.81594 142.431 5.74431
11.8758 144.827 -3.4634
-23.7614 146.513 4.10286
-9.54163 148.623 -5.78506
-16.7066 145.421 4.77921
4.65869 143.338 2.97029
17.3563 142.686 0.588604
-13.2858 145.33 4.21111
2.77466 146.252 -3.32638
-11.0045 148.958 -5.4998
-18.8221 148.104 -0.814569
13.9598 143.186 0.675618
-16.028 145.534 4.79481
-25.4106 147.57 2.98692
-15.4349 148.066 -1.49467
1.1252 143.28 5.13043
13.2151 143.595 0.414213
1.29583 146.519 -2.8727
-6.8455 144.992 3.61145
-6.72566 148.689 -5.58626
-9.2819 149.054 -5.55143
-18.4656 148.383 -0.580945
-24.6427 147.708 3.15705
-18.6142 148.468 -0.571291
14.8572 141.269 6.42599
-19.7938 148.761 -0.696303
-21.344 148.905 -0.394197
-0.186508 147.138 -2.84718
10.0858 146.638 -4.96764
4.57419 146.99 -3.93152
18.0788 141.528 5.19941
19.544 142.048 3.47206
11.0073 146.194 -3.93208
4.56295 147.045 -3.91447
0.0932268 147.215 -2.84513
-10.1012 145.362 5.22287
1.46456 147.173 -2.88734
-0.612881 145.18 2.79929
-10.2462 149.706 -5.165
15.4328 141.689 6.41051
-9.8965 149.732 -5.16797
-15.7467 146.638 4.57074
-19.2139 146.816 5.31641
11.3484 146.214 -3.16931
-5.29376 149.065 -4.73086
13.5988 144.16 1.2271
5.19759 147.45 -4.1385
-6.72211 145.883 3.73079
-7.10305 145.872 3.89016
-12.3093 146.182 4.85103
-7.75505 149.731 -5.21308
1.95304 147.549 -2.91995
8.46535 144.65 2.17445
3.29211 147.506 -3.19835
-12.9972 146.822 3.93885
-14.4784 146.927 4.19945
-9.72068 150.04 -4.9946
17.9633 142.455 4.7457
-11.3817 150.236 -4.70601
-5.44707 149.476 -4.74148
-6.04436 149.693 -5.02486
19.5471 143.025 3.12477
-22.7356 148.068 4.57254
0.777538 147.96 -2.84994
-22.221 147.984 4.9486
3.32463 147.907 -3.12981
-0.00856872 146.11 2.72045
12.9975 145.536 -0.0905547
12.0752 143.424 5.48988
9.83605 144.387 3.86881
3.20985 148.102 -3.00375
10.2429 147.672 -4.2263
-2.49833 146.554 2.92726
2.21466 148.286 -2.90992
-3.90972 149.656 -4.26503
5.59638 148.303 -4.03024
18.5471 144.173 2.00172
-1.88799 149.218 -3.75128
11.883 143.746 5.41117
-3.4801 149.682 -4.19452
1.78412 148.45 -2.8692
8.44157 148.363 -4.62698
-0.0833697 148.906 -2.986
-8.47952 150.728 -4.64749
-7.99536 150.747 -4.69561
3.80507 148.556 -3.10526
-19.8472 148.324 5.29017
13.9208 145.54 1.34546
-10.5447 147.542 4.67018
4.916 146.303 2.80284
-14.5714 150.903 -2.13425
-20.6719 150.549 0.836334
9.38899 146.203 2.1303
17.8274 145.113 2.09028
-10.1325 151.361 -4.19184
-14.907 148.679 4.06782
-12.6968 148.529 3.87857
15.1768 144.198 5.49201
3.04315 146.224 4.50644
11.2001 145.194 4.53815
3.90593 146.474 3.8883
-17.9161 148.972 4.90127
9.35577 149.046 -4.13892
11.7795 145.153 4.90831
-15.2713 151.214 -1.18619
-21.2203 150.816 1.76019
17.0957 145.882 1.46816
-18.457 150.886 0.795933
15.5863 144.668 5.04007
-12.4939 151.774 -3.13956
4.17762 146.805 3.91733
12.427 147.841 -1.30947
10.2607 146.488 2.83234
-12.6165 151.863 -2.87107
-8.79642 151.78 -3.91802
0.969438 150.257 -3.03524
-7.26241 151.875 -4.19846
-19.9053 151.385 1.18328
8.44481 149.826 -4.14938
3.7143 147.151 4.03195
5.71161 147.616 2.25971
13.564 146.982 1.36625
5.25144 149.935 -3.18329
-13.9657 151.811 -1.45512
5.47365 149.97 -3.24425
-20.7798 150.468 4.22302
-15.4242 151.748 -0.585989
3.66832 150.156 -2.78504
-17.0214 151.756 0.0639967
-19.4019 151.657 1.09224
-13.8082 151.973 -1.38839
-19.7815 151.672 1.44048
-11.3695 152.265 -2.60096
-19.9519 150.831 4.36284
-17.1237 150.518 4.26162
7.52061 148.216 1.88295
-2.71656 151.813 -3.56579
-12.4816 152.518 -1.909
-19.7035 151.666 2.6513
-19.0515 152.06 1.50472
-18.1531 150.594 4.92198
-3.98798 152.108 -3.47568
5.9018 150.7 -3.12675
10.705 149.41 -1.20136
-12.8986 150.531 4.03639
-13.9335 152.574 -0.602097
-9.86733 149.812 5.22052
-9.61028 152.728 -2.05558
10.7833 149.524 -0.795522
-14.7496 152.587 0.0470914
10.6582 148.193 2.69236
-12.6484 152.77 -0.976071
8.15252 148.915 1.77559
10.3507 148.444 2.37567
-18.7205 151.546 4.3094
-18.9311 151.645 4.14641
-12.4988 152.756 -0.636285
12.7658 148.578 1.4405
-10.1656 152.659 -1.12912
-16.4437 152.649 1.25564
-11.8775 150.611 4.94523
-18.3476 152.264 3.0839
-17.7768 151.877 3.99566
-9.50143 152.871 -1.09306
-14.4829 152.756 0.926828
-14.9858 151.524 4.19029
10.6531 149.98 -0.354868
-11.5717 152.725 0.141279
-16.3838 151.733 4.20351
-11.5453 152.721 0.218959
14.2716 148.767 1.54174
12.0151 149.335 0.908806
-14.636 152.747 1.25176
6.72591 151.718 -3.14832
14.2453 148.919 1.61576
-16.9775 152.8 2.57451
3.91727 152.189 -2.75353
