ply
format ascii 1.0
comment Created by Open3D
element vertex 1883
property double x
property double y
property double z
end_header
15.0316 132.673 -2.38992
-8.12718 90.4317 -10.2864
5.97309 114.634 -3.85454
12.0801 124.496 -0.385195
1.69274 96.224 5.96444
7.65594 106.964 8.19198
1.07438 96.6553 4.18753
-11.1254 76.2473 -1.85927
14.7532 124.691 5.69953
14.7241 135.969 -6.13944
1.9318 96.865 6.1359
3.48137 100.124 6.21324
-8.61954 90.1006 -10.6251
13.5704 133.469 -6.08533
11.9639 124.931 -0.711869
-3.03212 89.8766 2.36295
3.66811 99.2337 7.6888
14.0506 133.963 -5.42455
2.47446 99.0497 5.21478
12.5424 115.404 10.8727
12.2284 128.891 -4.07079
1.79377 98.0414 4.85793
13.9192 127.668 1.10105
14.581 124.361 6.18028
14.0452 129.255 -0.164298
18.3416 135.941 2.51891
-7.79363 92.5935 -10.9643
-3.44586 103.452 -12.556
3.22277 99.5071 6.7597
7.405 114.56 0.415573
15.2414 128.098 3.91481
14.1469 132.446 -3.15136
6.20928 103.584 9.35285
6.63227 113.411 -0.0503201
14.033 134.368 -5.30854
4.44324 101.716 7.46127
-11.1969 85.2934 -10.6496
12.4453 115.651 10.9039
-9.06161 90.2139 -10.983
3.94157 100.998 7.1268
14.3936 128.022 2.32154
-5.9241 84.0459 2.7195
10.0994 127.895 -7.19815
9.53923 108.961 11.5806
13.2366 132.216 -4.57867
14.11 127.67 2.20543
4.5326 109.777 -0.600961
13.5532 127.351 1.30205
9.97513 127.705 -7.1633
13.6237 125.615 3.31587
6.79631 104.225 10.4253
15.0231 126.233 5.84899
12.9736 126.574 0.921377
-5.52811 84.7299 3.16009
11.7667 126.811 -2.01124
-11.9203 75.8937 -1.89735
14.3244 133.67 -3.36393
-8.47457 92.5837 -11.6741
12.9597 126.549 1.08421
12.6157 126.417 0.495342
12.4344 127.423 -0.938778
17.913 135.733 2.76957
8.7221 116.214 2.53838
11.6923 128.339 -3.48781
13.2599 125.056 3.57411
15.0655 126.857 5.77673
14.7341 127.469 4.38249
14.5518 136.66 -5.63176
7.62162 109.237 7.60719
-1.01118 108.659 -11.3136
15.1521 137.373 -4.97925
-5.07145 86.3959 3.0081
-3.78704 90.9083 1.16806
1.78915 103.362 0.725239
11.7518 126.089 -0.6569
-6.55255 97.0179 -11.4541
-13.5121 81.5477 -10.8839
11.7158 126.649 -1.25888
12.7049 125.071 2.65339
16.4297 130.814 5.04509
14.3139 136.541 -5.75994
8.82961 116.494 3.02011
14.8063 127.98 4.4516
7.31775 115.74 0.399503
11.9282 129.325 -3.47616
14.47 133.598 -2.19815
12.365 126.501 0.582929
-12.1608 83.4132 -9.48486
6.14783 114.103 -0.27755
13.5135 126.359 3.48775
13.8308 134.96 -4.8183
12.792 126.273 2.01138
8.63907 114.861 4.65017
14.6889 127.459 5.07473
16.7379 133.216 3.66311
-7.10183 96.7758 -11.9076
6.36136 118.685 -4.50445
-0.131749 110.519 -10.5876
17.1519 140.589 -3.11284
9.98715 111.336 11.521
12.1854 125.835 1.31405
8.24506 124.73 -6.43826
11.6065 128.01 -2.24727
6.85398 119.736 -4.25785
12.6887 119.438 9.29116
7.49854 116.613 0.5414
-6.49405 99.1852 -12.7751
-2.84244 106.566 -12.1701
-14.0857 82.3048 -11.9946
13.5063 134.396 -4.36321
7.82787 107.508 11.1761
7.60992 121.636 -4.22201
3.22951 113.935 -5.92912
14.2772 134.165 -2.19497
-14.0155 82.2862 -11.5249
13.8353 135.631 -4.66596
10.806 131.194 -6.84645
8.81646 118.363 2.18977
18.7361 143.671 -1.99338
7.21649 107.43 10.1861
-14.8431 81.0669 -11.9737
-0.698016 99.4219 0.729656
13.6558 125.237 6.03507
7.61518 123.085 -5.35747
-3.77252 92.2326 1.42553
11.0289 114.698 11.2765
16.8975 140.941 -3.03166
-12.2054 86.7122 -11.7623
17.3961 136.531 2.78726
11.4641 115.899 11.1445
7.55438 108.077 10.5973
-4.56481 90.0785 2.14214
-10.1912 92.3959 -13.0063
-13.4913 82.6155 -10.1134
16.2904 132.762 4.473
13.9107 126.01 6.22023
11.5375 127.03 -0.218456
-0.248169 100.773 0.779787
-5.97691 85.7021 3.73147
12.5019 119.462 9.98798
-13.4823 82.7314 -10.0964
13.6379 125.637 6.11693
-12.334 86.9298 -11.8741
-6.37998 100.823 -13.0116
7.58914 111.427 7.5016
-7.88676 97.1891 -12.5361
-4.54643 104.586 -12.7406
7.81928 112.618 6.81207
14.4471 136.43 -3.23658
17.7196 137.851 2.77312
11.5776 128.428 -1.12202
16.4502 134.526 3.50088
11.6104 128.742 -1.34936
-3.34911 106.959 -12.2622
-0.429729 100.655 1.01001
-2.68533 94.7207 2.21986
8.4691 110.034 11.3641
19.4818 143.505 1.04221
-4.39566 105.27 -12.718
13.2749 124.918 6.67762
4.01658 111.673 -0.308838
13.5949 136.214 -4.49629
-2.9138 107.876 -11.9827
12.4802 135.948 -6.68758
6.18309 119.775 -3.8519
18.1856 143.73 -1.91243
13.5536 136.125 -4.30103
11.1031 116.295 11.0727
-6.71093 100.852 -12.9813
-1.93246 109.678 -11.4239
11.658 129.217 -1.14141
6.49866 120.523 -3.65555
12.3695 136.071 -6.72488
-12.6632 88.5372 -13.2464
18.2383 139.456 3.06653
1.2299 114.315 -8.91921
9.8202 113.626 11.2857
-3.44228 93.4902 2.51725
8.84923 120.045 2.35455
12.1224 136.054 -7.02314
-10.9569 92.392 -13.2076
14.3577 128.823 5.72358
-0.256754 101.583 1.38174
7.99364 119.95 0.73555
11.6279 118.154 10.8889
-12.9255 88.5614 -13.5133
12.9837 136.416 -5.2722
15.1746 131.111 5.32383
19.488 144.989 0.466543
-4.60577 105.78 -12.7508
10.9421 133.147 -6.37055
-14.8985 82.2897 -11.2547
7.41256 110.844 9.29471
13.5045 137.069 -4.5068
8.34202 127.945 -6.55048
13.5142 137.239 -4.61457
-2.71471 95.9118 2.21712
-3.22158 108.358 -12.0272
9.2078 130.072 -6.75649
-10.4881 93.4445 -12.6912
19.0883 145.218 -0.293767
7.59621 112.58 8.10885
7.075 123.365 -4.44577
9.32891 130.437 -6.70868
-15.4105 82.6361 -12.2701
-5.03425 89.8488 3.69469
6.73459 118.616 0.0184193
14.1347 137.708 -3.27701
12.1597 132.335 -2.07326
12.0493 131.304 -1.22296
-13.4945 88.095 -13.5096
18.4045 140.847 3.15456
11.586 131.222 -2.1331
6.10215 117.695 -0.230666
9.01005 121.168 2.69991
-11.4792 92.3759 -13.3499
3.11048 111.218 -0.0811121
2.72903 115.571 -5.53713
-8.84187 83.4736 2.11115
-14.4312 83.2034 -10.27
-13.5953 76.3479 -1.1311
-1.53444 99.5197 1.77162
11.5096 135.65 -6.78521
-8.38208 98.789 -12.9308
1.0262 114.993 -8.7022
-13.8185 87.5612 -13.3976
8.74195 118.249 5.36507
-8.98001 83.31 2.0799
3.00845 111.105 -0.0609529
12.2711 121.63 9.82532
-11.9439 91.9099 -13.6588
15.6853 134.152 4.42238
-6.90817 86.1352 3.92254
11.3587 135.456 -6.70278
6.51475 118.795 -0.0821208
-6.69119 86.3495 4.23956
12.4658 134.287 -2.90765
7.85153 115.068 7.02665
-7.38694 101.31 -12.9611
-4.29877 107.487 -12.4559
-4.33689 107.432 -12.4711
15.5722 133.983 4.63241
5.00902 118.919 -3.411
-0.441164 102.029 2.11254
0.758708 104.238 2.52187
12.602 136.914 -5.10936
-16.0718 82.2031 -12.3575
6.55383 122.44 -3.53243
-15.0289 83.0255 -10.8087
8.95979 119.684 4.94555
-10.2813 81.7914 1.35315
-1.33435 100.372 2.02815
-8.72637 84.3734 2.1961
1.90924 115.525 -6.55423
6.77694 124.064 -4.52188
2.53324 115.943 -5.55202
-16.005 82.7921 -12.5311
13.9015 139.074 -4.11166
12.0553 122.303 9.42165
-16.1307 82.3411 -12.2591
12.0362 123.03 8.64614
-5.23608 90.1198 4.31189
8.03674 112.697 10.5699
-16.3204 82.6364 -12.727
17.8387 144.846 -0.948663
-9.86973 96.2043 -12.4108
9.2442 115.025 11.0871
-15.905 81.7996 -10.7964
-5.49698 106.149 -12.8751
7.05125 126.3 -5.68722
2.72903 116.907 -5.48984
-11.9614 79.6863 0.512678
-8.11474 100.616 -12.8294
12.9577 137.69 -4.14494
17.4372 140.203 3.42601
18.6721 144.09 2.15627
-14.1486 76.8293 -1.2016
11.5635 137.268 -6.68828
5.98168 121.918 -3.0978
-14.7006 76.1295 -1.61129
7.8568 113.536 10.0831
-18.2743 77.6607 -11.2717
17.7813 145.246 -0.870091
13.4856 129.288 6.30033
-9.6737 83.7195 1.92647
8.11977 114.337 10.1104
0.0186911 115.484 -9.32868
-18.8143 76.6452 -10.9307
-14.5778 88.3081 -13.6317
-15.2024 85.253 -11.8223
6.46294 124.866 -4.51051
2.72788 117.779 -5.38979
17.9789 142.434 3.19349
-10.9296 82.1303 1.43232
10.4074 119.088 10.8213
-16.2056 83.9491 -12.4065
-4.44689 93.8198 3.83236
-17.2413 81.9704 -12.6499
2.05941 117.079 -5.92037
-10.8047 95.715 -12.5148
4.23403 119.177 -3.18079
10.0692 118.419 10.8725
-3.78247 109.783 -11.3624
7.70656 114.72 9.55455
-16.1108 83.3811 -11.3153
10.9154 120.707 10.5519
16.1591 143.511 -1.60265
9.05592 132.314 -5.82507
16.2784 139.175 3.32339
18.2831 144.536 2.22492
-5.69479 106.933 -12.4255
-15.9631 83.2796 -10.7274
14.7153 134.18 5.09037
0.680312 106.346 2.65526
2.35249 117.803 -5.61548
-17.5147 81.5797 -12.3944
-1.49714 113.877 -10.1204
16.8047 140.303 3.48173
15.0246 142.009 -2.2442
-6.88991 88.3433 4.75008
9.36347 123.86 4.14763
-15.812 75.3441 -1.69756
-9.5843 99.6756 -13.2215
9.20955 125.693 1.91801
5.16543 119.088 -0.172086
9.30499 123.702 4.3791
-17.0016 83.5999 -12.9086
11.0907 138.105 -6.71897
7.87983 130.634 -6.08179
-6.23003 106.49 -12.5537
-3.09126 97.8011 3.82782
8.98416 122.394 5.27029
-13.0745 93.0455 -13.7424
-15.596 76.3266 -1.8112
12.5725 128.282 7.22936
-17.1789 83.2797 -12.6855
1.89047 111.287 1.00454
0.333169 105.952 3.1052
12.3311 139.525 -5.09992
9.51009 124.887 4.03
-7.68959 87.3885 4.62148
-14.4266 90.4556 -13.8599
15.8964 139.242 3.38412
2.36457 118.458 -5.34693
-8.18694 86.8334 4.1582
-17.0678 82.1064 -10.9196
-16.2567 86.3943 -13.6039
-14.0622 91.4991 -14.0167
4.73523 121.59 -3.12075
-1.91952 113.997 -10.1681
13.2531 139.907 -3.01268
-11.0141 97.0921 -12.7972
1.90355 111.706 1.06338
8.79572 126.516 1.14342
9.34386 134.644 -6.148
16.2303 144.204 -0.623136
-17.5388 82.8192 -12.3584
12.8594 130.28 6.48838
14.0348 133.058 6.25052
9.16394 118.7 10.4182
0.605142 107.43 2.95414
-0.464383 116.599 -9.13944
7.29987 124.561 0.0574057
1.37982 117.917 -6.32979
9.46627 126.997 2.46984
12.3418 128.992 6.93732
-17.9569 82.1611 -12.2871
-9.81735 85.7732 2.39122
13.1257 131.167 6.49229
1.37337 118.074 -6.30895
3.74818 116.987 0.247345
16.8792 141.971 3.81397
8.53441 121.375 6.66607
2.53538 114.101 0.776969
-14.6214 91.2469 -13.907
-12.4149 81.9045 0.980738
-17.1592 83.7765 -11.7048
1.21937 110.04 2.25324
7.99339 119.289 7.86712
10.3729 122.631 9.81665
5.94039 126.04 -3.63177
7.70671 126.327 0.0839566
-17.6802 84.7222 -13.5337
9.03816 127.904 1.45457
10.7702 125.278 8.17295
6.23479 127.921 -4.8804
14.8447 136.962 5.12002
-19.9564 77.0854 -10.5093
-20.5664 75.6906 -10.3863
14.0941 135.27 5.37613
2.16653 113.653 1.17866
-2.30375 114.674 -9.98662
8.28739 118.867 9.59196
-6.67139 107.24 -11.9642
-9.52955 102.06 -12.9137
17.1008 147.045 -0.012181
9.0689 124.125 5.97582
3.30348 116.995 0.530136
-11.7291 97.8826 -13.2372
-9.10537 103.686 -13.3514
-9.21557 87.4046 3.58239
8.93625 128.694 1.15302
-18.4074 74.417 -3.47732
-17.0702 86.756 -13.4346
9.56284 128.481 2.89826
-18.0912 84.4678 -13.2608
-18.7979 82.4757 -12.7341
9.6127 127.622 4.01459
17.1965 145.143 2.74981
10.663 125.87 8.29792
15.2966 140.29 3.61352
-19.8001 81.3086 -13.6375
-17.6391 84.0177 -11.5856
-21.2816 74.6023 -9.83608
-1.85119 103.365 3.85801
8.40306 120.034 9.52092
-11.8157 84.0596 1.67086
14.8101 138.49 4.67019
12.1638 140.784 -3.72517
2.58236 120.822 -4.3204
4.17883 122.863 -2.85364
11.6514 129.717 6.90367
2.3462 115.168 1.20597
8.01125 120.881 8.09378
12.8163 140.687 -1.7765
-11.5574 99.6706 -13.7054
16.4714 147.356 -0.498315
-18.3111 83.3301 -11.7424
8.05097 120.857 8.49739
-9.73444 87.639 3.32289
6.25891 125.098 0.0494986
11.4291 129.493 7.14664
11.482 141.321 -5.212
8.80893 124.139 6.87554
-8.11622 89.403 5.24263
-7.48231 90.3514 5.69931
-15.9648 78.691 -1.18963
-18.6166 84.1646 -12.9318
-4.08773 112.879 -10.2899
5.79514 128.39 -4.23619
12.1223 139.67 -1.7975
5.64817 124.01 0.126982
-7.61233 89.9716 6.00705
2.77072 117.123 0.90101
-6.23131 109.155 -11.0717
-12.5906 83.7088 1.37498
6.25737 125.484 0.0654911
4.88661 125.145 -2.63587
-1.35815 117.705 -8.93562
8.9758 125.377 6.44354
-14.7413 93.757 -13.8927
-5.74088 94.9698 5.22732
-9.07546 105.17 -12.9094
9.28683 130.833 1.63459
-3.78641 99.5946 4.97234
9.81763 125.478 8.50496
0.0678944 119.725 -7.49677
-20.5707 80.9766 -13.362
-9.68439 104.342 -13.3178
-0.496904 119.175 -8.11823
-6.29399 109.417 -10.9393
10.714 141.38 -6.08411
-20.5581 81.0691 -13.2847
-4.48937 112.669 -10.2029
-3.33169 101.001 4.79051
9.15073 122.92 10.0011
3.58808 123.267 -2.95401
9.13615 127.466 5.23718
-14.9277 93.9266 -13.877
8.86241 125.238 6.99821
14.6662 140.572 4.07266
6.20593 131.192 -5.15842
6.384 131.565 -5.14161
12.5291 141.316 -1.49547
8.56737 123.169 8.87132
-10.1078 88.4173 3.2483
-7.89017 90.508 6.09031
-14.2516 95.4753 -13.5124
9.28596 129.105 4.39174
15.4524 146.827 -0.331261
-10.85 87.6648 2.51592
-6.47243 109.697 -10.7892
-1.45676 118.538 -8.64522
-5.44446 111.585 -10.2724
5.47546 129.22 -4.01573
-4.34088 99.3808 5.24801
-9.78174 105.12 -13.1157
9.12025 124.53 9.25852
11.5582 143.024 -4.60652
11.6863 140.93 -1.97277
13.5184 143.374 -0.372528
5.39714 129.323 -3.89877
5.6927 130.981 -4.93072
11.9263 142.149 -2.5879
-13.4798 98.2266 -13.8109
12.0727 143.635 -3.81178
16.2815 146.077 3.19721
-11.3744 102.071 -13.0211
-13.5311 84.1091 1.17264
-9.43171 89.7645 4.53708
-17.458 88.8204 -12.629
-20.95 79.1048 -10.2782
-22.1549 75.4481 -8.97917
7.06008 135.196 -5.74705
-5.55583 112.154 -10.0236
11.241 143.47 -4.93295
2.98554 124.156 -3.20373
13.3747 143.814 -0.344192
1.31717 115.05 2.75299
10.0816 128.61 8.32205
1.65676 122.73 -4.56312
8.32467 138.68 -6.24354
10.9465 143.406 -5.2755
0.490559 122 -6.31637
-19.8353 84.7184 -13.0309
-10.5742 104.859 -13.2648
8.65098 126.38 7.64553
0.721755 122.193 -5.88565
-11.4721 88.2986 2.27855
-12.3526 87.1785 1.51371
-20.7539 80.5425 -10.5228
11.6696 141.929 -1.78407
-22.3225 75.7059 -8.90891
15.6959 145.103 4.02807
-21.6252 80.4173 -12.2848
-13.6266 99.0557 -13.818
-15.1166 82.6621 0.256775
-21.5163 78.7134 -10.0649
11.9192 144.586 -3.71168
-14.3584 97.7748 -13.8327
15.8077 148.203 1.32065
-5.41838 98.6294 5.53307
13.8689 140.934 4.63524
-2.2276 106.502 4.49107
12.2829 142.967 -1.07861
-19.3294 85.9858 -12.5693
-21.5194 78.9653 -10.0873
8.05041 132.539 0.403769
3.1055 121.154 1.24871
7.32104 131.176 0.228307
13.5755 139.904 5.22883
14.7139 143.334 4.26117
-15.0846 96.4409 -13.7686
-16.9747 80.477 -1.0704
-13.0481 86.6841 1.39724
-16.4272 93.6613 -13.614
12.6031 137.134 6.30407
-3.68087 104.061 4.31364
-4.45913 102.087 4.6377
-20.7921 83.7777 -13.0449
8.96377 127.387 8.37437
13.274 138.726 6.19063
5.81451 128.226 0.38816
9.42972 133.537 2.99333
3.38344 125.9 -2.6354
13.4247 139.836 5.41881
8.71309 126.488 8.83164
5.55991 132.703 -4.82344
-11.5584 89.1051 2.42766
8.81367 134.673 0.669124
10.2403 135.443 3.10641
14.9537 148.592 -0.0292713
-13.9795 99.5985 -13.8197
8.67821 141.258 -6.35416
-15.9811 95.3852 -13.8304
13.7923 142.055 4.44547
-18.5355 79.1294 -2.40574
-15.1039 97.4088 -13.8624
-21.4835 80.8432 -10.814
-5.86199 113.077 -9.41927
10.443 136.676 2.66145
-22.4843 75.9184 -7.76338
8.88222 142.01 -6.40087
14.514 147.766 0.291025
-18.6236 79.2252 -2.35776
3.55382 127.036 -2.53667
-18.1929 89.4261 -12.1307
-2.80499 106.643 4.61937
-7.0747 111.354 -10.0063
7.21023 138.349 -6.07826
-6.75102 111.901 -9.80779
3.02074 126.313 -2.74331
-5.98727 99.0844 5.58266
-16.5951 94.5147 -13.5768
10.3476 137.143 2.54971
-15.58 83.6711 0.226077
13.9139 143.009 4.45551
-21.5065 75.8829 -4.96419
10.885 134.064 7.11312
-5.44636 101.078 4.93342
4.24297 125.653 1.11134
-16.0641 96.2032 -13.8146
-4.05143 104.883 4.294
10.1154 137.226 2.31328
-11.7057 104.956 -13.0089
5.02827 133.143 -4.81667
8.57247 129.448 7.14351
-12.6313 103.07 -13.0216
12.771 139.225 6.42358
8.91844 130.087 7.36099
-21.2311 84.4549 -12.8052
-14.787 85.3794 0.854857
-7.50636 111.499 -9.95313
1.71102 119.209 2.82844
6.1317 136.859 -5.71907
-19.9294 78.4915 -3.18901
-22.1594 76.2863 -5.8942
-15.0281 99.0969 -13.8028
12.6147 146.325 -0.977418
4.39864 130.839 -3.12028
11.1485 138.787 3.80228
-6.2905 99.7012 5.53533
-14.8697 85.7316 0.86015
11.726 137.04 7.07402
14.9549 147.417 3.4552
8.31385 136.06 0.43071
8.1432 135.413 0.733151
-6.26158 113.689 -8.95572
10.7038 137.142 4.76518
2.03341 126.461 -3.54934
11.0547 138.416 4.29753
9.25292 137.417 1.31373
11.7339 138.044 6.35635
-17.9636 81.4268 -1.15152
9.65819 133.986 6.0722
10.0665 133.9 7.09565
-8.11172 111.374 -10.2947
11.3741 138.041 5.77472
1.98611 120.804 2.70053
10.4246 136.286 5.49478
10.5266 135.153 6.92548
-10.6761 91.5275 4.92403
11.2417 138.593 4.93048
14.4855 146.386 4.07282
4.38813 127.205 1.43521
12.6372 141.03 5.56817
-0.732776 112.944 4.91183
2.31946 121.878 2.40447
9.74531 133.376 7.12134
13.1053 142.924 4.67749
-2.23924 109.504 5.17347
12.6118 140.988 5.61715
-9.34637 110.107 -11.4893
-9.26868 93.2629 6.46378
3.91696 130.001 -2.40274
-0.537725 123.562 -5.67053
-6.97543 113.087 -9.10579
4.56337 132.988 -3.91329
10.692 139.599 3.07257
-9.19459 110.508 -11.2652
10.9422 145.859 -2.89979
14.4335 147.234 3.58693
-14.105 102.224 -13.5922
9.49052 138.454 1.67329
14.7549 150.139 1.3671
13.3929 148.158 0.414185
-1.2205 122.916 -5.90121
14.6764 150.156 1.38138
11.529 146.864 -2.15957
2.83629 128.312 -2.2727
-23.0705 77.7272 -7.56245
-16.7476 96.8867 -13.2683
-22.4763 83.561 -12.0791
1.93325 121.789 2.95405
12.8628 148.478 -0.422502
10.7638 140.391 3.3772
-3.98923 119.009 -7.4736
-18.951 81.2269 -1.49131
-8.74889 111.669 -10.4409
-16.887 96.8309 -13.1954
-16.2949 85.4967 0.179554
-22.1687 77.6316 -4.81178
-6.66825 114.629 -8.6679
-21.3891 78.2412 -3.53111
-1.15655 113.101 5.54764
-10.4309 92.781 6.11035
-22.3335 77.9176 -5.1605
-7.62062 113.498 -9.30575
3.07406 129.742 -2.16995
-1.76265 111.966 5.63446
12.3373 142.97 4.96673
1.39278 121.019 3.65479
2.5059 124.581 2.63937
11.643 148.939 -2.34551
-17.7029 84.322 -0.6285
13.6606 150.469 0.796389
9.318 140.298 1.72035
-7.60451 100.211 5.68552
-13.1093 91.4996 2.43268
-21.8216 78.6195 -3.70197
9.18626 140.223 1.58962
1.4875 128.421 -3.39472
-16.2055 86.8888 0.345984
10.453 147.4 -3.08005
10.4573 147.382 -3.04916
12.4918 148.99 -0.0732108
-19.9905 81.1481 -2.08786
-20.7389 88.201 -11.2173
-0.523105 125.591 -4.85031
6.41489 141.198 -5.55115
-5.75331 105.165 4.90359
-8.56375 113.066 -9.76732
-13.5125 105.443 -12.898
-16.3156 86.984 0.301511
2.52064 129.803 -2.19162
-13.6025 91.1702 2.0908
-5.4185 117.732 -7.35974
5.3828 133.34 0.649306
-22.8269 82.4163 -9.49907
-6.58472 116.037 -8.14134
-6.16132 104.531 4.96692
13.6257 150.177 1.7633
10.8916 142.04 4.26871
12.3015 144.507 4.91124
9.69966 141.463 2.2327
1.16102 128.501 -3.29677
10.2967 148.41 -3.53657
2.25301 129.93 -2.21237
-8.1229 100.017 5.85065
-9.29925 96.9867 6.39171
-7.1185 102.996 5.06978
-17.5888 97.3711 -12.6665
2.79401 126.543 2.77649
2.56452 130.869 -2.3026
-5.89908 117.667 -7.5191
-5.84279 117.781 -7.45213
-20.3374 81.8017 -2.31809
3.92606 134.816 -3.25522
7.7596 145.357 -5.65995
1.41208 122.758 3.81111
-16.5566 87.5462 0.266483
-14.1553 105.199 -12.9197
-19.061 83.4138 -1.04057
-14.9176 103.725 -13.0798
-10.5329 94.5466 6.61646
6.62501 137.286 0.459666
-2.37064 112.893 5.86276
11.7764 149.319 -0.500548
-11.0965 110.654 -11.5137
-12.7152 108.316 -12.6478
-14.6234 90.752 1.61887
3.01214 127.445 2.89499
-21.5966 80.7271 -3.53296
-23.0118 84.9741 -11.2065
-0.003066 119.136 4.94936
-2.78022 112.353 5.89241
-16.4196 88.245 0.432902
3.29493 133.411 -2.50706
-13.1013 92.8719 3.21177
3.71147 134.967 -3.09649
-10.0394 96.4105 6.50456
-19.8373 83.191 -1.73344
11.6734 144.575 4.91033
-0.0996112 119.17 5.05152
6.62005 138.031 0.473794
7.18867 139.269 0.457332
0.303272 120.631 4.63801
-16.1531 102.249 -13.2296
-20.8618 82.352 -2.90359
-4.10558 110.379 5.51939
6.97281 139.064 0.484358
-19.992 93.3384 -12.3749
-6.25857 106.236 5.14045
8.02776 141.171 0.662077
-4.74941 109.293 5.34759
-18.3498 96.9807 -12.478
7.86897 141.09 0.581463
6.3163 137.815 0.542219
-8.89095 115.199 -9.90174
1.21506 130.042 -2.5975
4.66453 138.95 -4.14841
-13.8775 107.652 -12.9841
-11.4059 94.7757 6.24783
-5.47918 108.466 5.26458
2.9075 128.444 3.31511
-24.0449 81.3365 -8.02721
-6.51595 106.429 5.22963
-4.58666 110.299 5.52804
-5.17358 120.368 -6.35968
-14.1763 107.353 -13.0003
-14.6514 106.435 -13.0235
-3.20618 112.936 6.09038
-21.4996 82.8784 -3.58171
-23.0015 81.2338 -5.2067
-24.1334 81.574 -8.08296
3.63636 131.254 2.43869
-16.5417 89.6338 0.63625
-5.87371 119.538 -6.6814
8.23903 142.547 1.1077
8.93494 143.781 1.5208
-18.4276 98.254 -12.4295
-17.0597 101.942 -13.1265
-3.75788 112.37 6.03576
-23.2211 81.5412 -5.51453
12.197 151.426 1.08013
11.5645 148.226 3.19463
-5.80787 120.13 -6.48557
-1.99538 126.279 -4.28528
-18.7005 98.1101 -12.4064
2.25837 133.342 -2.0494
9.40242 144.408 2.49579
3.76805 137.687 -3.1103
-12.4798 95.1051 5.11124
6.22482 144.932 -5.03799
-17.9832 88.3003 -0.0770562
-9.92522 115.406 -10.3945
4.51141 140.465 -4.1134
-5.70512 120.653 -6.29024
-9.47553 101.182 5.90446
-5.22049 121.49 -5.84137
10.9837 147.567 3.38311
-12.2847 95.5278 5.66537
-9.94904 100.111 6.21657
-0.465208 129.41 -3.14254
-14.9293 92.914 2.76498
8.35727 144.357 1.27584
-10.8676 97.8296 6.80713
-6.59214 119.899 -6.67527
11.1934 149.201 2.7226
4.76704 136.707 1.35008
-14.6799 108.137 -12.5671
2.19749 129.628 3.1686
-1.04048 128.827 -3.29092
8.24264 149.87 -4.4471
-8.39533 118.119 -8.60121
9.18781 150.881 -3.32051
-0.95063 120.612 5.69782
-13.1363 111.323 -12.1136
-10.2742 116.032 -10.2985
-23.9006 82.9603 -6.25313
-9.04102 117.932 -9.38256
-4.96473 122.805 -5.2274
-24.5733 84.0884 -8.6954
6.74735 142.653 0.587415
-21.6612 84.7848 -2.71995
-9.90657 116.913 -9.97517
-0.248689 131.131 -3.0398
-9.05409 103.984 5.66175
-20.3548 86.1766 -1.10467
1.10249 127.088 4.41875
-14.1464 94.8493 3.9336
-8.09624 119.279 -8.11196
6.26743 141.938 0.586929
-8.17974 119.251 -8.20314
-24.349 83.6576 -7.21086
-8.16485 106.311 5.63976
-14.6834 109.48 -12.3219
2.89512 133.757 1.94773
3.63083 135.538 1.7944
-12.3109 96.7455 6.68975
-3.47834 115.75 6.67609
-21.375 95.0275 -11.9327
9.5715 147.728 2.59523
-22.4279 85.0304 -3.73743
-6.14843 122.154 -5.99524
-24.5531 85.1095 -8.54409
-16.8913 91.8785 1.67981
-15.6688 107.687 -12.2031
-20.8712 86.434 -1.51704
-0.941826 122.518 5.57278
3.6019 140.424 -3.02332
9.872 148.243 2.95141
-1.1137 130.805 -3.5272
2.2514 132.206 2.67402
-0.624895 123.596 5.24998
-22.7318 85.1863 -4.25905
-12.0925 114.646 -11.1818
6.43194 148.171 -4.57582
-15.1873 94.5457 3.03545
-24.5441 86.0629 -9.14777
-5.76947 122.941 -5.49444
-12.9283 113.42 -11.668
10.7215 152.759 0.482071
7.35357 149.969 -4.20428
-24.446 87.1046 -9.84919
-14.4366 110.868 -12.1606
0.741402 134.205 -2.23882
-2.67889 128.199 -3.59719
4.60523 139.467 1.07333
5.81255 147.384 -4.40724
-1.62209 130.813 -3.66117
5.83666 147.602 -4.42399
6.98375 144.881 1.06962
-7.57419 109.272 5.80899
8.8919 152.079 -2.01574
-24.0236 85.7898 -6.62144
-9.28399 105.585 5.90284
-21.8709 86.6822 -2.66433
-18.1038 91.0196 1.30721
-20.7986 97.896 -11.9292
-22.8756 86.4075 -4.48075
-0.0907657 126.241 5.13091
-15.6122 94.9736 2.97168
-15.1284 95.4148 3.67373
-16.7666 106.864 -12.1128
-2.578 120.407 5.78103
-24.4342 86.5441 -8.00646
-3.12391 119.169 5.90617
5.11949 141.724 0.798153
-19.1643 102.067 -12.3567
-6.83536 123.321 -6.83232
-3.04638 119.491 5.82038
-24.4017 86.5044 -7.63177
-4.45594 126.039 -4.11956
-4.38017 126.196 -4.08228
-4.74088 114.956 6.98779
-7.92419 109.164 5.89943
0.236076 127.704 4.8485
-13.2776 114.194 -11.5192
-22.0165 95.4462 -11.4185
3.79499 138.644 1.62296
-2.2481 130.939 -3.72245
-3.8314 118.178 6.22821
1.68238 133.37 2.73851
4.16333 144.619 -3.39903
10.2169 153.334 1.22867
-12.2767 99.2472 7.40625
7.32303 147.296 1.2303
-5.73251 125.258 -5.00523
-3.11399 120.794 5.70215
-16.6868 94.6432 2.54657
3.44301 138.798 1.76528
-1.21367 133.446 -3.03234
-19.2096 91.477 0.504576
1.90146 139.633 -2.44843
-24.2656 89.5789 -8.88771
-5.72104 114.488 6.93318
8.86046 150.587 1.97686
3.60165 139.742 1.52502
-17.5093 107.208 -11.9248
-16.2629 95.6743 3.10861
-8.03341 123.128 -7.21072
-3.33893 129.932 -3.74137
-5.29755 126.301 -4.34902
-3.93919 128.88 -3.87672
3.32213 139.192 1.72722
7.87913 149.327 1.46357
-2.2056 132.647 -3.77762
7.18958 148.147 1.17892
-5.0876 116.126 7.14878
-23.8505 92.0432 -9.94456
-22.3475 89.0447 -3.2942
-1.55342 125.214 5.68337
-0.229253 136.044 -2.62711
-0.907741 134.829 -2.84898
6.20459 146.461 1.2179
-21.8739 89.5067 -2.28983
-21.9496 89.5029 -2.446
-22.5905 89.7624 -4.15153
2.5098 137.591 2.26341
-7.42377 112.425 6.36148
-3.20604 131.228 -3.82
-8.43687 123.306 -7.20306
-17.3899 95.118 2.27581
8.48047 151.156 1.80328
-15.8857 96.5915 4.18383
-22.4713 89.9291 -3.69599
-22.1026 89.8748 -2.78128
-24.2298 89.8545 -7.57924
4.63669 143.912 0.79946
-6.76531 113.807 6.79593
1.46783 140.343 -2.54193
-1.98452 125.252 5.64707
-21.931 98.4175 -11.1662
-14.4329 98.158 6.11264
-2.45014 133.279 -3.77389
-15.6108 112.876 -11.7473
-20.7321 91.6079 -0.879659
-18.0549 107.911 -11.9404
-4.26703 120.401 6.12956
-1.18548 135.859 -3.11635
-24.0408 91.1165 -7.69617
-17.6506 95.4371 2.29081
8.24845 151.91 1.47822
-16.3836 111.589 -11.7708
5.11605 150.225 -3.72143
4.56825 144.81 0.828533
3.19147 145.534 -3.02264
-19.2123 105.813 -11.8493
-15.1083 114.226 -11.4078
6.85954 152.933 -2.45069
-23.3299 93.8711 -8.38822
-23.2911 93.8446 -8.25434
-19.8149 92.9676 0.554287
-0.965105 129.01 5.24441
-0.253435 131.602 4.20201
-21.4398 100.837 -11.3451
-15.0104 114.641 -11.2617
-19.9434 104.89 -11.808
-22.6797 90.996 -3.28976
4.49612 146.122 0.150613
-2.06014 127.009 5.51359
-13.7318 117.23 -10.5518
7.22692 151.142 1.1932
1.27506 137.116 2.50908
-1.39651 128.526 5.56805
7.55428 152.593 0.514364
-22.1618 99.4764 -10.7603
-10.2444 122.002 -7.51854
-20.3537 93.217 -0.0122344
-23.2462 92.5278 -5.77339
-22.0653 99.9226 -10.8953
4.21786 149.286 -3.35187
-16.3124 97.6943 4.65251
8.26573 154.02 0.928705
-21.4398 92.3304 -1.19691
1.17132 137.398 2.51559
3.89536 144.902 0.796219
-6.67028 127.798 -5.06364
-11.9115 104.845 7.33634
1.19959 137.585 2.5034
-23.5001 94.8042 -8.31314
-20.5252 104.085 -11.2281
-5.69191 129.537 -4.46591
-2.07895 127.925 5.53554
-3.95881 124.102 5.31195
-23.2362 94.761 -7.40071
0.527407 136.24 2.69442
-15.6283 114.712 -11.1138
-20.2689 104.856 -11.2262
0.466639 141.327 -2.63614
-9.62969 123.911 -7.04573
0.216102 135.614 3.01529
3.43508 144.912 0.563697
-23.2932 91.9151 -3.99858
-23.619 95.8328 -8.79343
-0.73198 132.73 4.17019
-0.156481 140.657 -2.87967
-22.9682 94.6273 -5.97015
8.02851 154.461 1.19408
-7.14463 128.144 -5.40493
3.80153 149.57 -3.17338
-12.825 119.809 -9.42717
0.475487 141.939 -2.61738
-18.9639 108.562 -11.3314
4.08387 150.494 -3.29986
-1.68825 129.884 5.38822
-9.9637 123.915 -6.98743
6.60633 154.141 -1.32153
-16.7538 113.523 -11.3917
2.24585 142.37 1.24615
-18.0397 110.903 -11.4356
-8.28421 126.654 -5.82699
-16.1956 99.2226 5.48057
0.686415 143.104 -2.55582
-7.73476 115.519 7.52931
-6.11886 130.723 -4.71781
-20.7712 94.6114 0.417815
-17.7509 112.29 -11.3768
-19.3415 108.538 -10.8476
2.51323 147.974 -2.88571
-23.1638 94.5346 -4.61503
-17.3043 98.5602 4.42339
-11.1295 122.914 -7.26859
-8.42411 114.955 7.27131
0.987715 144.614 -2.65064
3.21346 149.656 -2.92026
1.38168 145.491 -2.64094
-9.73903 126.161 -7.35768
-5.03088 133.469 -4.37744
-18.2944 97.6246 3.3912
2.801 148.917 -2.83848
-9.66111 112.933 6.90763
-14.6083 118.201 -9.8411
-20.5927 105.771 -10.0771
0.8096 144.878 -2.72206
-2.62569 138.131 -3.29598
-6.30735 131.841 -4.89049
-1.06635 134.892 3.90073
1.25987 142.423 1.27539
-22.8604 101.389 -10.0253
-0.731502 136.218 3.41678
-23.5701 97.9463 -7.94809
-10.3818 125.656 -7.28585
-2.16074 139.628 -3.39662
1.76197 145.336 -0.502354
-3.53614 137.322 -3.86933
-23.3105 99.1977 -8.39534
-22.8995 101.206 -9.5493
-6.26314 132.73 -4.96241
-18.3673 112.549 -11.0825
-23.4508 98.7699 -7.9714
-7.04606 131.521 -5.33362
-11.4681 109.86 7.5102
-23.2468 99.4873 -8.17703
-16.1989 101.109 6.13556
2.6533 149.968 -2.69217
-20.0885 96.6878 2.01146
-16.1773 101.166 6.16911
-15.2378 118.276 -9.65697
-7.95236 130.49 -5.97041
-21.0408 105.905 -9.52982
-14.3954 120.125 -9.37221
-19.0772 111.643 -11.0157
-0.343629 139.111 2.52661
0.95486 144.052 0.314702
-6.34799 121.877 7.24145
-8.6585 129.787 -6.29823
-11.9052 109.537 7.72358
-1.02415 143.321 -3.2317
-15.5793 102.389 6.98124
-22.154 95.6266 -0.677566
0.243731 145.869 -2.90633
-20.4266 108.01 -9.78009
-7.73946 118.531 7.96636
-5.38151 125.966 5.47234
-0.841242 137.973 3.10651
-6.8388 133.12 -5.34411
0.696759 143.98 0.282799
-11.3848 111.084 7.64405
-18.5043 113.298 -10.8201
-9.91977 127.867 -6.70395
-22.0856 104.452 -9.55977
0.698525 144.42 -0.0902683
-18.3215 113.784 -10.7571
-23.0573 100.635 -7.52557
-22.3528 95.8455 -0.862698
-16.6039 101.768 6.08439
-18.7364 99.3609 3.83442
-21.3033 106.36 -9.36494
-20.2025 109.413 -9.96259
-5.62392 136.526 -5.51916
-8.18343 131.659 -6.17135
-0.569782 140.116 2.2221
-8.24547 118.224 8.03754
-23.5041 98.532 -5.57638
-2.63098 133.97 4.40483
-23.2622 100.324 -6.81282
-5.68162 126.437 5.54403
-7.81608 132.882 -5.97506
-19.8874 98.9133 2.57361
-18.0884 100.727 4.75482
-0.227927 143.949 -0.283802
-22.8762 103.901 -9.32776
-3.45523 132.582 4.45543
-21.205 107.599 -9.38436
-22.3601 97.0529 -0.85102
-9.87682 129.364 -6.65477
-13.0711 108.6 8.03846
-12.7069 109.403 8.0554
-22.7492 97.848 -2.46434
-19.053 99.8389 3.83502
-18.221 115.214 -10.3736
-16.6457 117.77 -9.46322
-4.10263 140.127 -4.6175
-9.50171 116.572 8.03332
-19.6848 99.5658 2.93629
-14.1305 122.51 -8.67844
-7.0463 135.634 -6.47058
-8.82313 118.12 8.11296
-21.6381 107.014 -9.1559
-4.75847 129.346 5.56122
-23.3258 98.9338 -4.2321
-4.82897 129.402 5.56877
-10.7877 128.548 -6.92705
-23.3966 99.0975 -4.39513
-23.4395 102.496 -8.05323
-23.3942 99.8383 -5.10945
-0.911424 143.396 -0.0566451
-4.60771 140.079 -4.91508
-19.1372 100.614 3.84281
-2.04572 138.301 2.96181
-8.41462 134.563 -7.3337
-5.43857 139.243 -5.44668
-14.3304 107.352 8.07407
-3.19572 135.423 3.78163
-16.3327 119.452 -9.10901
-6.34115 127.359 5.26521
-1.40171 143.237 -0.293421
-1.2731 143.258 -0.0182311
-21.8212 98.8624 0.267475
-18.3325 116.136 -10.0385
-21.7726 98.9685 0.371474
-9.22464 118.55 8.15353
-10.7765 130.083 -7.37591
-22.1459 99.1108 -0.368865
-0.129004 148.712 -2.807
-9.84374 132.508 -7.69962
-0.0613286 148.9 -2.80893
-4.01959 134.722 3.36777
-4.31808 134.452 3.23516
-3.68806 142.959 -4.2825
-12.9068 126.445 -7.74753
-19.6204 101.581 3.44315
-23.0864 105.307 -8.32847
-21.2213 110.945 -9.49345
-1.0148 148.304 -3.03879
-18.9217 103.021 4.23299
-22.3518 104.298 -4.79527
-7.36982 125.063 7.33924
-17.7234 104.503 5.59335
-2.38848 141.496 1.3166
-19.2501 115.863 -9.69086
-10.1912 118.362 8.24626
-22.9242 101.431 -2.6357
-22.5702 106.113 -6.73243
-10.951 116.953 8.23659
-11.9519 115.241 7.79836
-17.2587 119.516 -8.68488
-21.4292 101.977 0.498215
-14.3923 109.888 8.14757
-5.16322 142.443 -5.25095
-7.52625 138.888 -6.83302
-11.6552 131.77 -8.51461
1.06222 153.343 -2.43292
-20.3311 102.498 2.74391
-8.1785 123.778 7.90924
-6.1446 141.22 -5.87303
-22.3809 106.457 -5.89974
-23.1158 102.343 -3.15905
-17.1467 105.814 6.74566
-18.8246 117.606 -9.47522
-8.64819 137.744 -7.62811
-13.7458 126.433 -7.23127
-3.29038 140.244 1.92221
-3.56894 139.308 2.33569
-21.6516 102.827 -0.133875
1.02087 153.568 -2.28321
-8.35039 138.412 -7.44612
-17.3172 120.053 -8.3812
-23.0369 102.787 -3.11288
-3.17464 141.214 1.36914
1.55026 154.34 -1.7287
-7.78169 139.482 -7.08212
-8.03375 139.175 -7.25679
-21.0684 112.972 -9.14163
-7.53145 128.447 5.29877
-1.82988 148.778 -3.19321
-7.00361 140.933 -6.53461
-19.5498 104.586 3.43097
-11.6203 117.067 8.25801
-22.2125 103.672 -1.54444
-12.9582 130.392 -8.72609
-6.56132 133.116 2.89915
-14.9456 110.213 8.1853
-7.11345 130.781 4.27589
-4.27076 142.522 -1.61082
-22.6707 108.905 -7.82181
-4.59657 138.071 2.58462
-7.01843 141.406 -6.36124
-21.6523 107.326 -3.55144
-4.14628 142.279 -0.706565
-11.2273 118.561 8.39777
-17.321 107.006 6.90842
-6.21354 135.949 1.55145
-19.9641 104.956 3.1464
-9.45691 137.717 -7.48452
0.675383 154.214 -1.92477
-20.3705 104.773 2.61752
-1.52472 150.535 -2.95816
-3.60557 146.927 -3.82585
-21.3407 107.668 -2.57681
-11.4785 134.222 -8.22577
-13.8396 113.386 8.42918
-22.6802 109.827 -7.78684
-17.495 107.173 6.77436
-4.242 146.155 -4.22922
-9.78717 137.38 -7.51612
-16.8684 108.098 7.37524
-5.35999 144.649 -5.07255
-7.52749 131.193 4.23157
-17.6047 121.19 -7.96157
-13.321 115.174 8.24353
-7.39775 131.885 4.04517
-21.7523 106.42 -1.32481
-7.27228 133.249 3.19186
-21.1345 107.971 -1.54041
-12.6017 132.583 -8.15889
-16.744 123.252 -7.69933
-16.7742 123.197 -7.68394
-3.7157 147.626 -3.79875
-5.17148 142.414 -1.58952
-15.8262 125.332 -7.69385
-6.04246 144.255 -5.45185
-7.10998 135.074 1.86886
-11.7473 118.863 8.49301
-19.5044 106.404 4.13149
-18.137 120.943 -8.00563
-10.5279 136.873 -7.39228
-16.1325 109.989 8.33702
-13.3275 116.202 8.18046
-20.3973 108.524 0.268804
-13.464 131.248 -7.95577
-21.1781 106.336 0.892253
-7.3641 142.66 -6.0981
-13.3013 131.64 -7.90436
-20.5322 108.175 0.479963
-17.5807 108.358 7.06054
-13.3104 131.755 -7.86415
-20.7928 107.561 0.77867
-6.89193 136.948 1.33983
-4.03293 148.044 -3.84136
-5.41991 141.647 -0.198547
-14.2477 114.436 8.58904
-5.35877 140.7 1.04082
-20.4921 107.299 2.02357
-20.6764 106.91 2.09449
-14.5572 113.958 8.64297
-20.4625 106.58 3.2153
-14.9134 129.621 -8.47398
-11.7485 120.291 8.55336
-9.44362 139.961 -6.9043
-16.1054 126.272 -7.44712
-22.0104 114.269 -7.90915
-3.8519 149.152 -3.53127
-7.14969 137.436 1.49788
-6.23729 142.222 -1.40554
-8.56273 141.975 -6.35994
-8.23625 133.124 3.72299
-15.5838 127.159 -6.61862
-16.1657 111.66 8.44743
-6.17958 141.392 -0.290792
-17.7563 109.411 7.23864
-10.3238 125.366 7.27847
-20.0792 110.719 0.64284
-8.66558 131.645 4.43275
-16.5277 111.057 8.349
-14.2662 130.775 -6.98008
-14.3359 130.442 -6.76925
-1.97755 152.95 -2.41617
-7.38376 137.87 1.31541
-22.7761 112.865 -7.03392
-6.41216 146.342 -5.23362
-20.7933 110.553 0.0407969
-12.8106 133.575 -6.07191
-10.669 125.519 7.28463
-20.8689 118.311 -8.21304
-19.6503 111.616 1.63405
-10.6212 126.017 6.98551
-21.9759 109.887 -1.68739
-15.8868 128.426 -7.1526
-9.71168 141.208 -6.59202
-13.1222 133.34 -5.98428
-14.3684 130.75 -6.06709
-3.98229 150.426 -3.22395
-17.8027 124.384 -6.98145
-10.8037 138.955 -6.44194
-17.098 125.696 -6.63427
-21.713 110.436 -0.818222
-9.59876 141.872 -6.47346
-7.14407 141.424 -0.283826
-16.2913 127.918 -6.62898
-8.68039 135.578 2.6198
-17.0396 126.141 -6.16989
-16.6601 127.409 -6.54185
-12.1153 137.071 -6.02552
-19.3287 111.448 4.73669
-15.7175 115.263 8.95669
-5.27095 149.89 -3.81716
-4.10587 151.559 -2.91817
-22.1659 116.274 -6.56648
-23.496 111.172 -4.16734
-8.02337 139.508 1.01604
-22.5899 110.689 -1.51749
-17.0326 126.852 -5.96735
-15.3 130.356 -5.72692
-13.2574 134.566 -5.49057
-21.6064 118.098 -6.95439
-16.0946 115.136 8.79186
-23.4292 112.566 -5.09576
-22.0957 116.154 -5.84548
-15.3913 130.419 -5.69358
-22.1258 115.857 -5.50804
-22.0801 115.9 -5.26412
-14.3705 119.004 9.05408
-23.0967 114.218 -5.62597
-7.3139 147.759 -5.15576
-23.5644 111.852 -3.96498
-18.9109 123.805 -5.99336
-12.6109 123.536 8.60302
-21.5835 118.807 -6.6028
-18.8926 124.128 -6.11212
-8.1283 141.009 0.475698
-18.0667 124.863 -4.88396
-8.11732 141.016 0.652275
-8.55246 138.54 2.32903
-18.5782 124.762 -5.81303
-23.3357 111.358 -2.36142
-22.6912 115.038 -4.77597
-12.4284 138.046 -5.74633
-6.67172 149.241 -4.48066
-20.7095 113.651 1.30357
-14.7992 118.844 9.2227
-4.81901 151.789 -2.90739
-14.004 133.693 -4.61749
-18.1963 124.735 -4.65415
-9.3753 136.402 3.11764
-18.1174 125.971 -5.63737
-19.9484 122.103 -5.65984
-19.8495 122.395 -5.71429
-9.99441 135.085 3.26831
-15.1257 118.495 9.32087
-19.7865 122.525 -5.40431
-15.6636 117.662 9.07424
-23.2172 114.456 -4.63599
-20.9775 113.729 1.20965
-18.2936 125.89 -5.52956
-22.4907 112.114 -0.45346
-9.38408 137.431 2.54461
-21.9864 118.044 -5.52121
-7.66715 148.272 -4.92681
-19.9379 121.872 -4.77722
-19.1846 124.125 -5.38683
-8.30173 141.878 0.57471
-9.57617 145.044 -5.65378
-20.4496 121.889 -5.65859
-5.66986 151.414 -3.27692
-11.6285 130.218 5.60811
-7.76495 148.46 -4.84517
-11.4681 131.69 4.51528
-21.8178 119.124 -5.66701
-13.2509 137.307 -5.40559
-10.1617 135.606 3.48869
-11.7427 131.792 4.17685
-9.72556 138.032 2.22217
-11.2665 141.773 -5.16238
-5.33144 152.482 -2.77604
-13.0172 138.54 -5.45459
-14.524 134.102 -4.15733
-11.4144 141.724 -5.07297
-11.865 132.04 4.14503
-19.6638 124.23 -5.27796
-16.5885 117.637 8.68209
-21.123 121.503 -5.59364
-16.4762 118.006 8.63305
-14.175 135.348 -4.32807
-23.2586 115.031 -3.4258
-21.8095 119.218 -4.36783
-10.1932 138.247 2.02566
-14.9062 121.829 9.03086
-19.1 115.89 5.81449
-8.80793 141.046 2.64571
-5.24377 153.323 -2.13262
-22.6601 116.581 -2.4677
-13.1331 128.504 6.54712
-23.6005 114.869 -2.68045
-15.7931 132.774 -3.8377
-8.66438 142.18 2.41898
-11.461 143.249 -4.98664
-13.4881 127.607 6.95598
-16.7448 131.491 -4.51192
-21.3132 114.935 2.63153
-12.1996 133.05 4.20551
-12.2406 133.152 4.01489
-8.11119 149.907 -4.22001
-19.2002 126.472 -4.57769
-8.47732 149.401 -4.42068
-11.365 135.823 3.39984
-18.6076 127.798 -4.37633
-18.7727 116.927 6.77337
-4.91202 154.418 -1.28877
-21.2943 115.373 2.89117
-17.3253 130.7 -4.24689
-9.11837 141.779 2.8091
-17.3731 130.743 -4.17293
-23.7477 114.493 -1.37019
-17.1259 119.802 8.07679
-15.6365 123.751 7.32438
-6.23438 152.902 -2.02028
-12.5476 133.583 4.1939
-16.4824 132.531 -3.61042
-20.2907 116.231 4.96677
-21.6177 115.554 2.67586
-14.8477 125.101 7.96516
-15.0484 125.524 7.10714
-15.5759 125.809 5.64898
-14.4253 127.507 6.55207
-14.1511 128.587 6.14837
-23.3396 116.049 -1.38099
-6.57906 152.796 -1.97696
-22.1515 120.702 -3.24124
-15.6608 134.806 -3.34978
-16.0067 125.86 5.32261
-9.73563 142.072 2.65526
-17.0914 120.969 8.36536
-18.9215 117.874 7.52315
-12.4866 142.972 -4.36745
-22.0297 122.129 -3.9425
-12.947 133.632 4.52018
-8.22265 146.704 1.43316
-22.0851 121.341 -3.14264
-13.6218 140.408 -4.03649
-20.2986 125.267 -3.11708
-9.06181 145.079 1.46109
-19.2292 127.383 -2.81801
-16.942 121.713 8.46552
-20.5528 117.115 5.2407
-19.167 118.123 7.33444
-22.7129 115.896 1.65203
-23.1156 115.677 1.02067
-12.7768 142.933 -4.20891
-23.1519 115.737 1.00353
-14.1087 130.957 5.44491
-23.4287 117.165 -1.11416
-17.7979 120.705 7.93408
-19.728 117.771 6.68448
-8.71022 146.22 1.63347
-16.1935 134.689 -3.06504
-22.1134 116.702 2.52793
-20.3003 125.443 -2.48997
-18.3348 120.168 7.53235
-8.51803 151.22 -2.91736
-20.5477 124.896 -2.37907
-12.8437 135.511 3.90198
-17.3567 132.374 -2.99307
-11.8166 145.47 -4.08005
-21.074 117.692 4.36482
-19.454 128.686 -3.52765
-17.5459 132.265 -2.94082
-6.68239 153.717 -0.883418
-23.1376 116.348 1.28144
-20.7175 124.773 -2.05528
-20.7092 124.799 -1.98418
-9.59209 145.127 1.82383
-13.0323 143.307 -4.01214
-18.4709 120.692 7.56106
-19.618 128.259 -2.96698
-22.8566 121.069 -2.67452
-19.4045 119.444 6.86935
-22.7641 120.565 -1.76671
-19.1747 129.412 -2.81459
-17.6053 132.537 -2.53118
-16.1102 136.718 -3.50157
-20.8215 125.23 -2.05041
-17.6347 123.378 7.20908
-17.8338 131.763 -2.07135
-18.3046 121.493 7.71766
-19.3606 129.244 -2.8343
-13.5359 142.559 -3.68055
-18.4665 130.482 -2.07035
-22.6422 117.668 2.00486
-16.2923 136.251 -3.19485
-20.3995 119.089 5.82132
-9.43762 146.208 2.09612
-11.399 147.556 -3.74597
-16.5564 134.882 -2.04097
-14.7996 140.187 -3.65352
-19.9076 129.921 -4.28227
-21.6241 124.831 -2.70104
-23.2611 119.854 -1.10605
-21.5963 124.292 -1.95823
-12.4234 138.246 4.10608
-15.692 137.014 -1.89317
-17.5559 133.21 -1.95562
-21.3431 125.301 -2.09935
-17.4759 126.996 4.8939
-21.6028 125.548 -2.83529
-21.6436 124.036 -1.17862
-18.2028 124.286 6.42341
-15.3474 138.521 -1.96434
-20.5678 120.745 5.13158
-9.06857 148.189 2.2665
-16.9472 135.744 -2.41611
-15.5962 137.841 -1.51769
-19.4092 131.334 -3.27463
-22.2987 123.429 -1.48069
-15.5444 138.972 -2.5467
-19.1413 131.564 -2.87505
-14.6687 140.663 -2.31942
-14.7009 140.658 -2.38122
-11.2789 142.544 3.40511
-20.2362 130.571 -4.21423
-15.2121 140.011 -2.75688
-18.5169 132.802 -2.51671
-13.8911 135.416 5.28092
-17.8291 133.441 -1.47762
-21.7917 126.327 -2.9017
-23.2657 120.99 -0.517014
-19.6803 122.21 6.53111
-9.73123 147.307 2.60542
-22.4381 125.051 -2.65413
-13.8661 136.799 4.40091
-9.68187 151.639 -1.76106
-16.5465 136.606 -1.44466
-12.1077 140.918 4.12095
-12.8249 145.536 -2.37689
-12.507 146.522 -2.66457
-20.6296 129.22 -2.72909
-15.1824 133.529 5.12897
-18.851 125.055 5.76914
-21.9892 124.372 -0.574516
-22.4228 122.998 -0.106521
-23.795 119.674 0.342856
-22.1496 125.144 -1.63222
-14.3824 141.793 -1.59587
-20.2618 131.203 -3.62515
-20.6665 121.835 5.549
-23.3542 120.863 0.489329
-11.6724 149.004 -2.7244
-19.1181 133.599 -3.25692
-13.6446 137.973 4.54166
-22.5626 123.313 -0.168906
-8.74318 151.162 1.93352
-19.2038 125.215 5.64367
-23.2129 123.067 -1.10639
-24.4958 120.244 -1.01073
-17.8893 135.168 -1.76992
-22.7445 123.472 -0.421257
-22.669 120.723 2.84648
-22.9552 123.56 -0.666081
-23.2151 122.201 0.180958
-22.6555 125.916 -2.42601
-21.9995 125.922 -0.931817
-20.0702 124.035 5.44889
-13.0507 145.933 -1.68903
-13.2409 145.374 -1.50349
-22.044 124.951 0.0989298
-23.3017 122.25 0.209698
-14.1153 137.809 4.67967
-23.7403 121.905 -0.242911
-20.4315 123.247 5.88122
-23.6464 122.068 -0.0403768
-24.8938 119.823 -0.475986
-9.21767 151.519 1.67493
-22.2928 125.624 -0.58214
-10.6586 147.046 3.21691
-13.7005 139.101 4.71531
-23.074 124.377 -0.916963
-19.7734 125.677 5.30404
-22.3883 124.85 0.29971
-23.648 122.606 -0.124288
-11.7259 149.896 -1.86239
-22.4501 124.442 0.721206
-24.306 121.74 -0.633842
-17.6191 129.832 5.98351
-16.707 138.412 -0.98524
-24.3117 122.068 -0.946698
-14.8316 141.738 -0.215982
-11.5856 150.413 -1.98903
-22.978 125.137 -1.09794
-22.6382 124.273 0.69634
-13.0617 146.409 -0.955597
-21.6985 123.242 4.18716
-20.4153 132.097 -2.20936
-22.2296 129.299 -3.16908
-23.4037 123.959 -0.155977
-20.1904 126.348 4.77681
-22.5378 122.251 3.7982
-19.0112 134.991 -1.58958
-24.7341 121.549 -0.221979
-10.6495 148.564 3.24717
-9.99657 150.732 2.45577
-20.1507 134.035 -2.88052
-25.5283 120.608 -0.786901
-12.5244 148.337 -0.551645
-24.8725 121.304 0.0146353
-23.5555 121.387 2.91159
-25.2336 121.777 -0.905547
-24.3515 124.983 -2.2079
-23.3326 121.964 3.29844
-21.0215 132.214 -2.0837
-26.5691 120.495 -2.05884
-23.2779 122.279 3.55555
-12.1068 145.591 4.42628
-23.5651 127.627 -2.56558
-14.3383 140.022 5.30912
-24.6893 121.952 0.9577
-24.4845 122.433 0.976274
-22.2306 131.084 -3.03017
-22.1916 124.53 4.01746
-19.5993 135.298 -1.42391
-11.8485 146.562 4.26801
-20.0407 127.629 5.87176
-21.7656 131.926 -2.54742
-25.5046 121.284 0.273394
-16.3011 135.068 6.61338
-22.9479 130.118 -3.20029
-12.7229 148.779 0.341649
-22.1411 131.604 -2.87222
-21.019 132.7 -1.4091
-12.7506 144.369 5.02609
-10.8435 150.531 2.89317
-20.8022 134.107 -2.1746
-23.4677 123.076 3.45849
-25.5954 122.069 0.0196878
-25.4648 122.834 -0.477832
-21.383 125.936 5.5268
-22.5142 131.454 -2.76281
-22.6585 124.538 4.22
-22.0337 125.317 5.10822
-20.2031 128.421 5.99342
-18.0287 132.877 6.25698
-18.4071 138.753 -0.741146
-12.0567 147.554 4.50007
-24.0007 123.929 2.38455
-15.1364 139.304 6.37838
-11.897 148.383 4.22943
-18.7899 132.11 5.97473
-11.8439 148.946 4.06409
-27.3471 120.36 -0.860989
-23.2728 131.021 -2.80096
-19.552 137.296 -0.950542
-21.8634 126.067 5.71621
-17.3961 140.95 0.311551
-26.0001 122.689 0.136528
-19.3209 137.756 -0.557086
-25.8354 122.242 1.06805
-12.0048 150.235 2.87659
-21.1714 135.339 -1.91313
-17.1544 135.903 6.62768
-26.2114 122.74 0.131498
-21.0784 128.243 6.03765
-16.8428 136.869 6.64845
-20.8866 128.987 5.83434
-15.405 144.866 1.51358
-23.6202 124.379 4.55928
-19.7462 131.567 5.7938
-18.2264 134.13 6.77063
-15.1391 145.433 1.93654
-12.9297 150.46 1.83961
-24.276 124.302 3.84851
-19.8566 131.972 5.82813
-13.7385 144.882 6.15025
-14.0888 148.288 1.76779
-15.2948 141.197 6.62155
-27.876 120.91 -0.440819
-23.915 124.388 5.27943
-25.7395 122.792 2.94937
-16.8796 138.205 6.79117
-23.46 131.677 -1.10085
-13.6811 146.587 5.47626
-26.96 122.425 1.09245
-19.8517 138.399 0.431948
-17.2233 143.718 1.03451
-20.555 137.487 0.135156
-13.4775 149.776 3.29651
-26.0583 127.096 -1.20649
-18.0049 142.737 0.914396
-13.7666 149.48 3.44299
-26.1246 122.547 3.88177
-23.4684 132.144 -0.195031
-18.5171 136.053 6.91646
-17.1688 144.291 1.36187
-22.7438 134.54 -0.539171
-22.2338 128.846 6.67142
-21.7302 136.494 -0.238621
-27.6623 122.1 1.57969
-13.977 149.02 4.18843
-21.8824 136.377 -0.290967
-14.4112 146.672 5.92423
-23.99 125.934 6.12004
-16.5571 140.878 7.35177
-25.5811 124.026 5.12285
-16.3392 146.359 2.93451
-25.5879 130.601 -1.29415
-15.3666 145.144 6.74798
-17.1499 145.596 2.3555
-19.4771 141.853 1.15915
-21.4015 133.547 5.689
-28.6272 122.277 1.26859
-15.5913 145.475 6.6135
-17.077 141.417 7.55116
-22.2635 131.235 6.62835
-25.7882 130.74 -0.718269
-15.3746 147.69 5.00435
-17.8045 145.229 2.1749
-20.3101 136.011 6.86987
-17.7181 141.167 7.49667
-21.9029 134.255 5.56997
-26.0084 125.356 5.73643
-29.5642 123.243 0.0683771
-19.3737 138.097 7.56215
-28.7365 122.712 2.86729
-16.3857 147.302 5.15951
-23.8099 135.083 1.29234
-18.5558 140.719 7.35027
-19.0095 139.963 7.2898
-22.5659 137.71 1.6812
-21.8772 135.283 5.92176
-17.6583 143.194 7.2646
-22.3916 134.755 5.61049
-26.9408 130.636 -0.342688
-27.9924 123.882 4.74306
-23.344 133.276 5.62501
-21.3528 141.005 2.09462
-27.2027 125.16 5.58269
-18.9929 145.245 3.24613
-24.4342 130.23 6.85915
-19.554 144.498 3.10161
-24.3929 134.665 2.52985
-21.9358 140.079 2.39359
-24.482 131.142 6.37481
-23.6228 134.208 5.56121
-21.3409 142.047 2.59043
-18.666 143.771 6.90592
-27.694 131.035 0.327959
-27.054 131.829 1.06474
-22.8202 136.331 5.96843
-22.6043 139.754 2.94875
-30.3749 126.079 0.203913
-30.8404 123.906 1.44861
-24.4228 136.911 2.35954
-31.5109 122.074 2.07557
-23.8875 135.079 5.8451
-31.3927 124.841 0.281386
-31.2918 124.491 0.955987
-29.8984 124.233 4.51525
-25.845 131.343 6.22584
-31.8892 123.082 1.29394
-26.8516 128.602 6.90274
-22.2895 141.83 3.41291
-31.9516 123.254 1.29432
-20.7818 142.484 6.55399
-22.6374 141.772 3.60005
-21.6042 140.89 6.88197
-23.7729 136.796 6.31821
-31.6375 125.058 0.920192
-25.9063 135.32 3.10864
-31.985 124.352 1.12232
-24.764 135.363 5.91584
-30.1013 129.555 0.104336
-32.5236 122.701 2.04902
-26.1956 134.049 4.88511
-21.8725 142.498 5.98576
-23.8877 140.425 3.62547
-26.6511 133.137 5.1624
-28.0403 132.566 2.68252
-22.4619 140.786 6.66067
-31.5636 126.513 1.1005
-25.3974 137.028 4.29119
-28.9865 127.169 6.58145
-22.9771 140.122 6.61568
-24.1958 140.255 3.91596
-24.4743 137.192 6.53389
-25.9928 136.508 3.90852
-31.6883 124.697 3.88749
-25.7219 137.049 4.48393
-28.0168 133.704 2.85718
-26.9996 134.201 4.82306
-29.6957 131.349 1.9025
-32.3728 126.03 1.60909
-28.8331 132.548 2.81411
-29.0054 132.445 2.87213
-24.8138 137.929 6.61562
-24.4557 138.95 6.43988
-24.6569 139.97 5.28716
-29.0975 129.27 6.7074
-29.4884 128.494 6.73095
-32.7067 126.396 1.82785
-27.2654 136.324 4.05059
-29.9292 128.323 6.69512
-32.5964 127.429 1.63053
-33.3929 125.514 2.07825
-25.798 138.12 6.19738
-26.6767 137.208 5.17786
-27.9459 134.866 4.87841
-30.8683 130.987 2.36418
-32.1091 129.543 1.17417
-32.0721 129.821 1.33937
-29.5906 133.498 3.18366
-29.7716 133.071 3.22503
-33.437 126.611 1.97744
-28.8715 134.708 3.84679
-29.8002 133.324 3.25498
-27.9147 136.199 4.55402
-31.2107 127.229 6.5894
-27.8813 136.288 4.61736
-32.9393 126.409 3.79108
-31.523 130.848 2.33637
-33.7485 126.635 2.04032
-31.708 126.856 6.4768
-28.3563 136.42 4.33503
-28.5306 136.109 4.46403
-31.5108 131.341 2.75663
-32.0389 130.79 2.36992
-30.6748 130.629 5.87686
-32.2804 126.84 6.27392
-30.7273 130.451 5.98608
-29.993 132.009 6.00944
-31.8389 127.722 6.47886
-32.7606 126.908 5.87219
-31.5594 129.939 5.65864
-32.9463 130.282 2.31862
-32.2424 127.982 6.39484
-33.2099 127.018 5.36336
-31.9254 131.785 3.72769
-35.5733 125.35 2.48719
-32.3849 130.763 4.10774
-32.4204 129.569 5.69175
-35.1826 126.138 4.6718
-33.6985 129.032 5.35828
-33.8709 129.5 4.63757
-36.9589 125.276 3.94639
