ply
format ascii 1.0
comment Created by Open3D
element vertex 1933
property double x
property double y
property double z
end_header
14.116 114.458 1.80185
19.1801 117.257 7.00641
18.1434 109.92 16.8704
18.5699 117.313 5.79838
12.1456 108.326 7.97731
-3.10606 89.5256 9.12886
14.6764 117.908 -2.44794
22.8294 130.684 -7.38565
16.8962 116.112 4.72525
3.43303 105.48 -3.92501
10.7382 105.955 9.29018
17.9298 117.868 3.88104
24.1288 127.277 0.663728
15.9176 107.332 17.0779
-7.50816 93.0628 -4.75977
13.3753 112.093 4.58149
15.0908 120.442 -5.56678
12.4851 110.009 6.31533
25.0192 130.509 -2.6301
15.4106 122.169 -7.54962
13.9113 112.867 4.56346
14.4943 117.603 -1.93314
22.1309 121.696 6.11625
17.0355 108.847 17.0778
16.5172 111.263 12.2018
18.1347 121.02 -0.387597
19.5028 112.185 16.4885
7.28232 109.836 -3.06469
15.3075 107.31 16.4035
23.1213 125.252 2.53404
24.5504 131.451 -4.70115
17.5396 124.257 -6.5231
20.6127 128.627 -7.66455
22.7502 123.565 4.59712
17.4747 109.726 16.8038
-6.19605 94.6694 -4.23138
8.70576 102.987 10.9133
15.0029 119.413 -3.46826
21.4231 118.758 9.90697
12.0194 108.689 8.13264
17.5432 109.885 16.7976
21.3135 118.497 10.1775
12.036 108.799 8.09003
24.2736 126.536 2.97138
17.5028 115.234 8.26739
24.465 126.555 3.39549
-4.24808 97.6103 -4.94767
25.4277 128.653 1.89928
15.3831 119.741 -2.95426
22.6593 123.429 5.05735
11.9073 108.679 8.3175
14.0219 113.586 4.49465
10.4377 111.101 1.65747
24.6406 126.993 3.33897
16.131 110.918 12.9693
11.9832 109.008 8.14694
15.8442 123.259 -7.30993
22.3992 123.077 5.55545
13.6937 116.595 -0.660927
24.9097 130.36 -1.33951
23.4266 124.527 5.26764
24.4315 132.238 -5.20336
21.52 124.642 1.46379
12.8939 113.388 3.07245
16.9024 120.271 -0.263507
17.1877 119.825 1.07364
21.8838 123.539 4.17681
14.7917 121.981 -6.8327
15.3336 120.203 -2.87479
22.753 131.615 -7.03195
14.0129 114.169 4.32691
-13.7402 82.8832 1.61829
13.2896 116.07 -0.0548296
6.09549 109.407 -3.0037
17.5457 116.384 7.72029
15.5849 108.839 16.1684
-0.770023 92.7916 10.7274
20.8219 119.751 8.78734
14.3164 119.033 -2.43172
6.75516 101.381 11.6058
16.0166 111.73 12.6926
19.4788 122.158 2.57682
-10.7851 89.5076 -2.74592
25.1841 128.878 2.73138
-12.4779 85.6275 0.302859
20.7016 123.343 3.09979
24.6601 129.571 0.681555
12.0933 110.646 7.17056
21.1653 117.255 13.9222
14.9183 123.293 -7.73063
21.6302 118.487 12.9207
17.5565 118.039 5.86991
-13.8004 84.2155 0.320536
-8.01372 86.4836 7.74931
17.5549 117.936 6.06334
14.6877 115.957 3.76658
12.9197 115.477 1.17799
15.5447 109.296 16.2183
12.2008 111.927 5.61672
16.9661 114.891 9.96829
-12.8665 83.0181 4.26534
18.572 121.863 1.92558
18.0157 123.333 -1.45532
19.5788 123.314 1.59175
-7.38411 95.4605 -5.09748
16.3413 121.533 -1.6005
2.27391 95.1745 13.9404
-6.9311 96.1023 -5.13085
-7.78952 95.0397 -5.06127
12.6645 113.557 4.34357
17.3816 116.847 8.10771
21.33 122.212 7.12182
16.513 118.237 4.3099
24.7943 129.246 2.53715
21.4759 119.474 11.9199
-13.7978 84.4787 0.75802
18.131 127.735 -7.75295
15.6228 111.026 14.3475
19.9311 115.671 15.1438
-9.57135 85.7259 6.91375
-9.88722 85.4912 6.71962
-0.118217 93.9223 11.8573
-10.8247 84.926 5.91829
17.3861 123.307 -1.85172
-6.71253 96.7571 -5.18104
21.4126 120.49 10.5056
20.3514 120.999 7.65976
15.5277 111.282 14.0798
-13.499 84.9484 0.940351
12.1171 114.141 3.06045
16.4848 118.658 4.15667
22.5991 125.03 5.60784
2.82407 96.608 13.5486
4.47553 108.94 -3.10657
17.3534 121.524 1.30706
-7.10172 96.475 -5.17368
7.1912 111.331 -1.63129
12.0223 114.186 3.0774
9.77476 112.407 1.84156
-0.804704 93.9491 11.3194
16.1908 120.966 0.364571
23.8547 132.032 -2.75998
1.51877 95.245 13.7119
24.401 133.935 -4.76275
19.0149 123.586 1.61206
17.4712 123.808 -1.63091
0.519335 94.8475 12.5884
20.7964 120.596 9.97913
16.1196 121.512 -0.433075
6.60738 103.173 10.8823
16.5588 119.254 4.06384
15.3742 109.966 16.7476
18.6014 114.581 15.5188
20.008 125.407 0.867842
8.11171 105.637 10.0361
17.3784 127.663 -7.62924
19.4292 115.926 15.1821
15.9222 122.442 -2.00632
15.2403 109.986 16.7438
24.307 130.749 0.689245
5.04102 100.847 11.9721
-9.40342 94.0435 -4.67446
12.358 116.729 0.471228
17.2053 123.989 -1.87089
-9.27862 94.317 -4.78705
13.6143 119.477 -1.38538
24.2501 130.532 1.1825
1.7288 107.062 -4.13578
-14.3912 83.7203 2.66875
1.08491 106.516 -4.39842
1.45747 95.631 13.8865
23.3163 134.084 -6.12047
6.07171 111.453 -2.69585
-5.20237 99.3802 -4.80556
12.2987 115.913 2.11517
-1.59807 103.601 -4.65361
20.558 124.419 4.28649
20.3394 125.803 1.65175
-10.5626 92.2526 -3.47963
19.5255 123.966 3.16037
21.527 125.064 5.32493
2.73649 97.6495 13.4943
18.445 115.156 15.4514
22.0726 126.341 4.4444
17.9554 128.719 -7.17631
24.4278 134.426 -3.96043
21.5747 125.291 5.29427
-11.688 85.8335 5.1795
10.8547 110.086 9.35209
16.96 117.762 8.7045
23.5967 132.567 -2.31419
22.5211 127.036 4.53485
17.3245 123.467 0.421264
15.5345 119.481 3.41803
-14.4123 84.325 2.74665
-9.08175 95.46 -4.92514
18.697 125.267 0.318678
21.7011 126.03 4.88659
18.4665 124.112 1.81079
-11.2157 86.4885 5.58005
21.674 125.989 5.04928
21.7509 126.42 4.54467
-11.3567 86.4996 5.43688
15.7644 121.916 0.354547
20.6163 123.256 7.55538
16.9677 118.365 8.47746
-2.27653 103.605 -4.49651
-6.96473 98.5276 -5.25961
-12.4594 90.2328 -2.34855
-5.32017 91.1878 9.77742
15.2029 113.6 13.0079
-14.8038 84.6318 2.21173
18.8844 124.271 2.8924
16.7595 124.969 -2.21992
17.5978 114.834 15.7126
20.4615 120.062 12.8426
-13.163 88.544 -0.717711
12.1705 115.111 5.0046
17.386 120.625 6.11658
1.31077 96.5935 14.1485
-0.508363 105.835 -4.16358
4.28194 101.619 11.8172
2.73572 98.7829 13.4462
23.8026 135.029 -4.54308
11.299 112.683 7.52509
-11.4047 87.0851 5.32184
-7.03415 98.8471 -5.21057
24.2314 135.151 -3.79171
10.5519 110.61 9.54388
21.0312 126.634 3.81115
20.3351 132.014 -6.10797
7.16497 112.606 -0.0570461
11.523 116.548 1.93988
-14.8705 85.13 1.99821
5.37455 103.762 10.8318
14.5863 125.815 -6.98192
15.1207 126.477 -7.02253
18.7792 124.488 3.27239
19.3051 118.156 14.5001
21.5273 125.871 6.4458
-14.6796 86.3076 0.902236
21.7648 126.66 5.75726
-2.95341 103.633 -4.46338
15.4204 123.649 -1.49054
-11.0431 93.2718 -3.1899
15.1143 123.879 -2.35575
15.5609 121.063 3.04299
13.6081 123.585 -4.6896
16.4078 125.162 -1.84813
17.9113 124.581 1.96733
20.6316 125.582 5.57482
19.9337 132.083 -6.17214
23.2337 135.43 -5.23309
14.3768 123.71 -3.29544
15.0051 114.089 13.4335
-12.6167 91.1242 -2.4035
-5.62042 91.7713 9.94953
-8.63037 97.7109 -5.28009
15.0707 113.067 15.375
16.406 125.835 -2.5905
5.89521 113.188 -2.34167
12.6398 121.071 -2.07622
13.9282 125.102 -6.0656
19.1945 121.828 9.35673
14.8114 124.07 -2.63285
14.935 114.041 13.7447
19.0183 121.502 9.61703
0.891695 97.1005 14.21
-7.87652 90.3759 8.27483
19.7987 126.819 2.70653
0.296079 96.8891 13.5715
-3.97547 103.357 -4.92443
16.7762 124.885 0.193841
-9.90119 88.95 7.05697
-9.70392 89.0623 7.26095
10.9277 116.972 1.8431
-13.412 90.2914 -1.77833
15.6871 125.574 -2.86479
-7.13722 99.8434 -5.069
11.4374 114.527 6.84522
16.8983 120.376 7.88517
14.0572 124.145 -3.57471
12.2987 120.762 -1.48056
-4.76056 93.0741 10.4693
14.9485 114.6 13.6716
-12.6953 91.7289 -2.39795
17.1937 121.78 6.47724
13.2281 122.51 -2.24739
14.853 124.429 -2.17395
4.79565 104.418 10.8315
16.944 122.545 4.97679
14.9194 121.501 2.80475
15.0328 124.321 -1.51227
15.7777 122.263 3.24756
12.0118 116.923 4.64198
15.0489 113.909 15.325
0.212706 97.2385 13.7651
13.7241 124.282 -3.80724
13.9487 125.952 -6.05839
16.897 122.715 4.8197
9.56288 115.377 2.69967
14.5113 125.146 -3.54135
12.0015 117.19 4.5408
19.8967 123.963 8.82394
6.88968 113.797 0.299066
-15.1656 87.2851 0.8001
15.9807 128.956 -6.63797
20.4879 127.843 3.96012
19.4661 120.953 13.1515
18.109 125.148 3.84041
-14.3474 87.1113 3.07741
14.5113 125.111 -2.84992
4.35592 104.491 10.9101
11.9665 121.325 -1.59998
22.8375 134.586 -2.13914
-14.547 88.9826 -0.279607
21.9113 129.668 4.05916
23.2905 135.731 -2.99747
-9.66327 97.6112 -4.64229
21.0672 128.544 4.443
19.0049 122.148 10.8521
11.8637 120.102 0.543302
16.7025 116.517 15.6249
13.8791 126.685 -6.03618
19.2511 126.37 4.76296
22.9088 134.607 -1.48428
5.71848 106.626 10.7622
14.8078 115.024 14.7011
-5.78986 102.643 -4.75792
3.89173 104.356 11.0307
15.7896 115.959 15.1785
-3.22143 95.769 11.3511
23.7562 137.211 -3.6982
16.432 116.615 15.468
14.8091 116.241 13.0499
11.1463 115.333 7.52724
12.713 123.734 -2.98652
18.8899 122.384 11.0073
-5.32817 103.573 -5.00303
18.1818 127.765 1.07488
11.9517 120.99 0.112224
21.4933 136.14 -5.99453
-6.53817 101.89 -4.49708
1.78512 100.95 12.9503
22.533 135.234 -2.51907
23.1235 136.983 -4.18555
-8.08115 100.431 -5.06056
16.8686 117.494 15.2718
3.0057 112.222 -2.74932
11.5282 116.479 6.72096
14.716 125.465 -1.59458
-10.0976 97.6979 -4.375
14.2733 122.322 2.64795
-1.53369 107.147 -3.16021
7.15134 108.973 10.5889
13.3535 125.686 -4.4364
9.66911 112.284 10.171
16.6701 124.404 4.07089
18.8878 121.344 13.2813
11.6946 117.408 5.87597
15.7329 124.029 2.97022
15.8256 130.013 -6.3687
21.9803 136.592 -5.17482
7.45701 109.584 10.5236
18.877 129.378 0.523174
20.5961 128.299 5.56716
22.4585 135.453 -2.32875
11.8702 118.572 4.59261
-3.71611 105.429 -3.99403
21.1611 130.103 3.90497
1.32154 110.981 -3.27759
19.2469 129.69 0.9176
15.9737 126.223 0.296215
-14.2965 91.1283 -1.12127
16.2606 121.515 8.4521
11.2871 120.36 0.811905
-10.9591 90.1904 6.82246
5.68827 107.521 10.7876
5.63859 114.575 -0.616052
4.6067 106.17 10.9488
5.41989 114.703 -1.22206
11.3058 116.394 7.44286
-8.18291 100.884 -4.87997
16.9301 123.556 6.74397
2.31413 112.167 -2.83231
-6.52948 102.718 -4.54118
18.9003 126.833 5.33269
15.6999 127.119 -1.20538
15.0084 116.466 14.6348
5.4001 107.461 10.8056
2.69627 103.784 11.5499
23.3349 137.796 -3.62667
2.41751 103.37 11.7542
2.36306 103.283 11.7962
-13.7468 88.9603 4.05547
-0.41465 98.6561 13.9887
19.397 128.299 4.24753
8.77229 111.847 10.4676
16.988 118.96 14.7615
4.55389 106.54 10.9573
2.51706 103.714 11.6404
19.1508 127.906 4.5911
-10.6479 98.0415 -4.34872
-9.82607 91.4772 7.7965
10.0641 113.794 10.0307
-8.38479 92.7298 8.68614
17.0083 128.153 0.278682
19.5402 128.782 4.13499
11.4518 117.278 7.1961
17.9359 133.147 -5.90599
19.086 127.961 4.71103
10.0255 119.249 1.40938
10.8091 115.922 8.27931
14.5484 117.081 13.6254
16.9502 125.025 5.50231
18.0842 126.717 5.01384
-12.3515 90.0593 5.82642
18.4974 123.043 11.7922
0.421814 100.17 14.0322
13.5435 126.899 -3.83667
19.4437 129.114 3.93602
5.75097 108.713 10.5952
15.0346 128.448 -3.31697
-13.8461 93.3755 -2.05675
15.0665 127.704 -1.97231
15.7652 126.388 1.5439
15.0458 117.737 14.1027
6.24763 109.584 10.4784
19.4517 128.033 6.09084
16.8335 125.661 4.89991
-13.2458 90.2869 4.30293
3.36502 105.863 11.0708
-2.54627 107.563 -2.96016
-0.924946 98.9818 13.9668
17.3365 126.962 3.92238
0.816575 101.464 13.3501
-8.24505 93.3604 9.10871
21.1996 131.616 3.90749
21.4077 133.623 1.08237
12.0311 120.404 4.41357
15.945 126.4 2.25639
14.7529 128.577 -3.50747
18.5137 128.017 4.62874
14.9633 128.861 -3.46776
-0.96728 99.0781 14.0072
6.18427 109.824 10.4459
13.6722 123.498 2.78309
15.8837 126.196 2.72892
13.1301 122.654 3.26696
13.377 127.453 -3.8835
13.2729 127.792 -4.61714
16.4846 124.568 6.76323
-14.6687 92.2527 -0.806498
21.2546 134.103 0.587349
19.0784 129.266 4.24047
-12.3086 90.896 5.95039
19.1014 126.937 8.07365
-11.5326 98.0206 -4.00199
15.6168 118.771 14.5745
16.5127 124.797 6.59437
11.2299 117.835 7.69953
16.9984 132.96 -5.58276
19.0835 130.514 2.36601
17.9936 129.201 2.40621
11.6163 124.85 -2.78615
16.5102 129.09 -0.225311
-15.0593 91.3617 0.107211
19.6973 130.38 3.84211
18.0187 122.455 13.4566
7.61448 117.031 2.29776
20.3355 130.857 4.39822
-13.0782 91.3066 4.16002
18.7516 129.82 3.11032
7.36085 116.994 1.9615
18.1397 123.386 12.3013
0.360454 101.398 13.6982
-11.5218 91.6693 6.66192
18.4751 129.629 3.02569
-12.605 96.526 -3.15862
5.22985 115.943 -0.27854
17.2044 129.486 0.866662
14.6464 118.721 13.2958
4.85329 108.708 10.6737
-1.55213 109.294 -2.49764
-9.99617 100.649 -4.70333
-1.02387 109.924 -2.42629
14.6574 127.978 -1.46728
17.4047 129.929 0.65162
16.0056 123.863 7.77606
6.43169 110.903 10.3492
11.2108 124.447 -2.297
1.00522 102.999 12.7253
-15.2543 91.3001 0.447543
6.56654 111.103 10.3371
7.95293 117.492 2.76195
9.34998 119.546 2.16852
13.3656 128.56 -4.64958
7.85492 117.46 2.6851
14.9111 121.275 10.122
17.6217 129.727 1.75046
16.8666 130.844 -1.46871
17.3933 129.319 1.99988
-12.9223 91.5536 4.77705
14.7938 121.088 10.3214
16.5606 125.82 6.15965
16.4002 127.636 2.97931
0.389461 102.072 13.5022
15.5895 127.306 1.98958
-12.8728 91.6329 4.97325
2.84256 106.464 11.1831
18.5864 126.967 8.55869
13.0531 128.423 -4.36271
0.901458 103.428 12.6536
17.9287 124.76 10.9083
-12.497 91.7961 5.77158
16.798 130.243 -0.0248886
14.5261 120.854 10.7408
4.12551 108.424 10.8606
16.5112 121.273 13.89
7.97093 117.954 2.89539
15.1854 127.203 1.82702
15.9525 124.648 7.43292
18.2171 130.012 3.17124
-10.8924 92.6418 7.66016
-3.78196 98.1434 12.5366
16.7521 128.189 3.48229
1.89125 114.325 -2.59821
-13.3179 92.4907 3.45422
16.6503 127.405 4.61368
16.5343 128.475 2.67964
20.8932 133.278 3.41051
14.4827 126.558 1.9774
14.4905 121.25 10.5529
14.1902 120.378 11.3916
10.735 122.94 0.689314
-1.14113 110.631 -2.21229
22.259 137.973 -1.36299
1.84282 114.449 -2.56756
4.12406 108.901 10.7775
-4.5338 97.7866 12.1106
17.7992 124.165 12.4086
14.119 128.81 -2.09087
11.1745 125.73 -2.76379
-11.3884 92.7642 7.11613
1.00445 113.503 -2.50757
-14.3107 94.8272 -1.72426
4.09348 108.964 10.7745
-12.9226 92.4403 4.84036
16.2083 128.766 2.14108
15.8677 128.057 2.76172
-9.41098 94.2392 8.86497
20.3303 134.236 1.54853
19.2876 131.438 4.13179
15.3878 120.816 13.868
-8.18937 95.2747 9.86406
-14.1888 95.5461 -2.04741
-9.40668 94.4064 8.96181
22.6076 140.301 -3.60442
20.6844 139.245 -5.57195
-7.51588 95.9215 10.2244
16.3297 134.269 -5.84366
-12.9762 92.8534 4.74137
22.924 139.914 -2.27516
-15.2025 92.8156 0.599178
-2.39086 99.9025 13.7168
15.8029 128.896 1.89141
13.6132 129.449 -3.1492
4.46981 117.013 -0.628449
-14.2851 95.5407 -1.94864
22.3855 140.384 -3.85751
16.1152 126.368 6.73868
10.2437 123.998 -0.674405
16.4852 132.139 -1.82729
22.0624 138.1 -0.526219
-8.32418 105.185 -5.60293
8.92846 115.662 10.5591
-6.29057 97.2836 11.2603
14.3783 131.293 -3.85941
13.4135 129.982 -3.51264
15.848 126.267 7.13904
14.0204 121.456 11.3869
-15.0846 93.8929 0.130681
-12.431 93.429 5.98115
14.3583 122.785 10.0117
13.3445 130.07 -3.64434
22.932 141.023 -2.91241
16.4562 132.783 -1.9127
1.47475 106.639 11.5074
14.1233 122.372 10.4216
14.3544 122.969 9.93764
19.8696 134.381 2.15924
-4.10622 109.235 -3.24572
15.313 125.385 7.9951
10.2033 118.751 9.03788
15.835 130.737 0.596626
10.0331 124.224 0.159638
22.7275 140.749 -2.08233
16.9548 126.497 9.90152
17.0167 127.94 7.72249
16.9603 127.768 7.9323
-3.97915 109.695 -3.04118
10.1541 125.529 -1.38445
20.7901 136.787 0.917641
15.8986 123.37 13.1869
12.649 130.481 -4.4668
-12.0589 101.134 -4.51247
16.207 128.204 6.07223
-8.48874 96.3557 10.1
4.80332 112.007 10.3607
-11.5915 94.5594 7.20316
14.5517 132.284 -3.44278
19.6808 134.18 3.32786
-9.57561 95.6929 9.3007
13.8899 132.629 -5.09604
9.77671 124.746 -0.241886
16.9438 133.555 -0.677596
-13.367 94.6486 4.01941
10.8135 120.885 8.06833
15.8808 127.779 6.68717
12.2782 125.432 3.6127
19.2743 139.66 -5.86405
11.3189 122.577 6.44625
-6.25794 108.209 -4.05434
14.6159 129.414 1.82476
2.56084 109.418 10.9559
-12.8977 100.07 -3.56089
7.07049 114.951 10.7007
11.3667 123.049 5.90029
13.8071 132.385 -4.41184
13.3235 127.695 2.23795
15.4365 126.979 7.4465
-12.8515 100.238 -3.63774
10.2684 120.044 8.75721
15.201 126.524 7.7843
-2.79488 111.162 -1.92286
-5.09534 109.439 -3.50134
12.6013 126.436 3.05555
16.8904 134.213 -1.24477
0.269271 106.012 12.3908
14.4548 125.034 8.94278
13.3628 130.834 -2.47499
13.2275 132.33 -5.02885
5.14653 113.136 10.4505
19.3539 134.216 3.71431
11.5369 129.809 -4.00346
-13.0086 95.1562 4.82536
21.9311 139.923 -0.308236
14.0601 133.627 -5.18415
15.3773 124.116 12.6778
16.225 133.132 -0.179857
-5.80319 99.3758 12.033
1.32084 108.359 11.2436
9.71081 125.908 -0.936534
14.9841 130.64 1.58463
18.211 132.402 4.97037
17.3492 138.094 -5.7202
14.9729 130.743 1.57193
11.2206 123.198 6.60426
0.755359 107.621 11.6715
1.10863 116.494 -1.8128
13.2385 128.527 2.16322
16.3235 131.321 3.57528
15.8074 126.325 10.7147
15.7306 128.919 6.45875
14.2688 131.213 0.164233
15.3805 124.856 12.5295
-10.4947 96.385 8.84681
2.13566 110.102 10.9574
21.0649 142.198 -4.45057
15.2328 131.676 1.36684
9.32895 124.657 1.3975
22.2895 142.41 -2.35785
10.5316 128.829 -2.9566
12.5298 127.428 3.12349
15.38 126.819 9.59972
15.6966 133.142 0.0458238
6.01717 120.683 1.69144
19.2494 136.274 1.93458
9.29184 119.479 9.9128
11.2723 124.322 5.91119
21.4492 140.076 0.113661
-10.6221 104.885 -4.56235
-10.6028 104.948 -4.55916
10.0459 121.26 8.73369
2.02224 118.174 -1.62057
-8.9477 107.429 -5.28046
-15.2154 96.7452 -0.0809239
18.5304 134.069 4.42773
-6.08677 109.849 -3.69604
15.7729 133.902 -0.573434
9.59575 127.363 -1.86236
3.52533 112.464 10.5079
1.79634 117.933 -1.5892
-0.391949 106.4 12.8231
-3.16914 112.443 -2.03864
5.22443 114.555 10.6837
9.17467 125.262 1.04634
-12.7374 96.2503 5.80579
-8.54503 108.067 -5.1393
3.87766 113.132 10.5065
4.16533 113.473 10.5565
-13.3454 101.599 -3.82155
16.9854 131.604 5.9521
17.3672 132.457 5.34278
-8.72032 107.995 -5.20208
-13.3819 96.1848 4.90886
21.8118 143.241 -3.46748
21.4519 143.037 -3.82004
1.06161 109.445 11.2746
-15.2844 97.2557 -0.204628
14.4964 135.413 -4.5848
13.9674 126.407 8.91916
15.0961 133.083 0.356637
2.36524 111.481 10.8022
21.862 141.856 -0.728623
11.4877 126.093 4.8458
9.26816 127.432 -1.54118
-14.6861 99.2936 -2.06385
15.4142 130.091 5.99202
-13.2309 102.346 -4.0488
12.5973 128.305 3.5996
14.3965 134.044 -2.18403
14.7682 135.541 -3.86623
3.50964 113.222 10.533
-8.16066 109.153 -5.09204
2.91438 112.607 10.5822
-8.79929 108.521 -5.24619
9.05715 126.203 0.466198
18.7088 136.592 2.25556
14.7606 127.353 9.61085
-1.85488 105.068 13.7933
-14.7702 96.63 2.67097
14.6039 132.478 1.234
-15.0905 97.2063 1.18058
15.9491 132.304 4.13878
13.5405 126.2 9.36107
7.66362 123.293 2.86552
18.0127 134.187 5.19692
21.6914 143.897 -3.26408
10.639 130.853 -3.35167
6.83219 122.549 2.7466
-1.4073 106.1 13.4568
12.0372 127.716 4.4063
13.4603 131.092 1.74923
8.96257 126.539 0.494656
-9.17618 108.575 -5.28023
-14.6161 100.248 -2.2571
-13.104 103.104 -3.89834
16.1069 136.922 -2.40735
14.1217 125.989 11.4053
15.6053 134.102 1.22088
8.09194 120.101 9.43525
15.3313 135.411 -1.25774
-13.3815 102.887 -3.8525
7.21048 123.157 3.00249
8.07979 120.27 9.34741
21.4802 142.08 -0.0947898
15.7752 129.875 8.64724
11.2543 126.403 5.62586
-8.44462 99.8718 10.6302
-4.30247 103.027 13.4824
-14.2071 97.0601 4.16096
8.16014 120.447 9.33299
-3.87749 113.613 -2.66999
8.91431 127.205 -0.0490012
14.4647 134.5 -1.15728
8.55767 121.047 9.41065
14.9013 130.882 5.7414
-3.08575 114.072 -1.62253
-5.70145 102.123 12.6271
-5.02297 102.709 13.071
13.4171 126.884 9.45712
0.215636 117.589 -0.725389
13.6543 127.462 9.15765
13.3261 136.149 -5.39538
19.0104 138.704 1.38683
18.0287 141.234 -4.53396
2.67521 120.576 -0.646712
13.3911 126.915 9.69066
21.2113 141.986 0.424243
-8.21047 110.456 -5.06283
21.4611 143.45 -1.2452
-5.50966 102.746 12.8434
-10.8109 107.536 -4.90224
6.72242 123.65 2.82434
15.3366 138.714 -4.92065
13.7951 136.864 -4.86186
0.336376 110.607 11.639
11.5911 133.737 -4.00411
7.84348 125.086 2.8035
-13.4059 103.921 -3.72072
7.4468 124.608 2.96728
13.0598 131.244 3.18342
8.33104 121.919 9.23956
16.3317 140.235 -4.83225
20.5292 144.482 -3.55726
15.4146 130.949 8.5361
12.4679 136.297 -5.69772
0.21923 111.014 11.6644
15.7953 135.987 1.31379
-7.82414 101.76 11.3301
15.3143 131.731 7.37603
14.2548 137.338 -3.60506
-13.9304 103.31 -2.75888
-10.2141 100.213 9.40583
7.79229 125.849 2.66144
-1.98576 107.56 13.4623
14.569 137.154 -2.3943
-15.5232 100.191 -0.467519
-11.4478 99.6898 8.18736
-12.5691 106.307 -4.565
-14.0925 99.0405 4.22533
18.5704 139.37 1.828
10.5894 126.349 7.53859
18.4724 139.291 1.86059
8.00055 126.512 2.465
2.9668 122.287 -0.334259
-14.1373 102.962 -1.9225
5.33484 123.737 1.9468
14.5562 137.853 -2.93121
-4.10181 105.322 13.738
-4.3475 105.109 13.6513
-2.28153 116.617 -0.896327
-13.5172 99.1905 5.64941
8.818 123.689 8.96462
15.1404 134.816 3.1653
-1.40687 117.345 -0.250475
14.0668 134.525 1.72474
-13.0656 99.4799 6.30687
14.5888 137.694 -2.20839
13.0843 137.611 -4.81554
13.8064 131.7 6.36154
10.2049 126.481 7.89805
11.8951 129.918 5.61056
9.32515 125.279 8.19027
7.22463 126.206 2.79558
5.14323 124.392 1.86709
14.7238 138.637 -2.68485
14.5218 138.449 -2.74317
9.45608 125.711 8.14216
-8.36862 102.848 10.9626
14.4293 138.97 -3.42854
14.3278 138.319 -2.57256
7.67337 127.216 2.56148
11.3056 136.484 -5.14818
5.99581 121.329 9.10854
5.06877 119.766 9.88286
-13.8366 100.867 4.18004
13.6772 138.856 -4.16721
13.489 134.767 2.10111
-3.96512 116.69 -2.14292
16.0257 137.411 2.77235
5.99881 125.684 2.53591
14.4972 132.281 8.24593
-11.2188 101.708 8.33922
7.34399 127.317 2.67847
7.97337 129.231 0.83332
-12.0576 108.868 -4.61716
14.4043 139.412 -3.00274
14.5204 139.623 -3.04548
0.861971 121.56 -0.00140957
10.8238 136.395 -4.73665
15.9839 137.708 3.05865
-7.65392 104.422 11.3962
9.34998 126.693 8.15683
-4.39815 106.92 13.7193
-10.9718 102.23 8.70997
13.7704 132.331 7.72878
-5.98527 116.057 -3.87333
-0.695291 119.756 0.29879
-15.2352 101.512 1.86529
16.6975 137.298 5.3941
7.78778 129.756 0.536673
17.9234 140.706 2.36168
6.07352 122.968 8.26499
-2.19985 118.497 -0.306995
-2.98064 117.964 -0.871204
11.7234 131.775 5.17163
16.6645 137.534 5.37004
14.6305 134.601 6.28499
3.85832 125.36 0.572051
11.4294 131.395 5.35352
13.9262 140.238 -4.08349
14.5547 134.503 6.41569
0.327641 121.425 0.2651
17.1406 138.615 4.86071
-13.5745 102.749 3.82078
8.63842 132.65 -1.77813
20.3331 145.272 0.302849
1.70431 122.95 0.699944
-5.80834 116.834 -3.78566
10.4747 129.521 7.00122
-2.79055 118.514 -0.627485
5.73423 123 8.51224
-13.9788 103.176 2.72137
11.2927 138.647 -5.77349
-13.7491 103.41 3.02705
-10.6188 103.228 9.31163
12.4146 135.27 1.87625
-11.226 111.339 -4.84454
13.8247 134.704 5.49262
7.2362 128.913 2.25182
14.3372 136.071 4.36365
-1.34627 112.596 12.2353
12.4117 135.602 1.53868
13.527 137.64 0.407385
15.8169 138.513 3.4144
7.39467 131.014 -0.617428
5.21111 122.308 9.26539
-0.672345 120.729 0.584184
-14.7091 105.096 -1.06926
17.7328 141.346 2.70664
7.35674 131.097 -0.606709
-0.464359 114.37 11.4329
-13.7608 103.657 3.24494
11.579 132.521 5.29944
0.396519 115.632 11.1184
-14.8977 103.275 1.78167
3.14893 118.989 11.0452
-13.8377 107.517 -2.95631
-1.36515 112.986 12.1601
11.9679 133.783 4.36052
-5.24498 107.691 13.5092
3.96719 126.458 0.942223
16.3443 138.11 5.93132
14.9105 138.521 2.54765
-9.36783 114.369 -4.87377
4.14027 126.724 1.13901
4.6599 127.028 1.67515
11.6173 133.047 5.35524
-8.33703 105.672 11.2526
-15.2309 103.761 1.27023
-0.686259 114.795 11.3777
-15.4941 103.969 0.468446
10.1353 137.853 -5.01825
8.79287 128.008 8.29761
-12.9481 109.993 -4.19396
-12.9818 103.656 5.95838
16.1315 137.917 6.55418
12.3663 136.589 1.52442
-14.6346 104.193 2.06844
15.2534 142.504 -2.34273
-14.2876 107.384 -2.20605
-13.7238 104.109 4.20444
13.5496 140.699 -2.44607
18.0281 146.202 -2.66795
6.20013 125.61 7.85701
-15.288 104.074 1.42524
-0.804554 121.758 0.723213
13.0325 141.597 -4.68919
7.00867 131.284 0.405622
-7.57017 106.849 11.8631
14.8503 138.048 4.58244
12.9507 141.615 -4.68019
-12.4758 104.531 6.348
-12.6763 104.715 5.6868
15.0747 142.419 -1.75197
7.05129 132.22 -0.683151
12.0759 137.297 0.798269
4.06488 122.046 10.0632
-9.13907 115.568 -4.66045
14.2619 139.144 2.23602
-2.81377 112.458 12.5269
15.7514 143.901 -2.52868
15.5974 140.296 2.99909
5.3768 125.381 7.4486
3.65692 127.194 1.27337
11.7171 135.322 3.67704
2.37032 119.684 11.162
19.3027 146.724 0.0695964
-14.1482 109.052 -3.25338
-9.03863 115.963 -4.59239
-2.45917 120.952 0.0855812
-12.1533 105.665 6.21354
-11.869 105.502 7.03284
11.8721 137.63 0.82197
-15.5514 105.181 0.690152
11.4627 134.414 5.36992
10.1709 132.352 6.21768
14.1894 136.775 6.80118
14.7998 142.506 -1.11991
15.8342 140.905 3.50084
19.1212 147.606 -0.964688
7.87089 135.35 -2.72182
-2.73118 121.517 -0.662147
9.88186 139.37 -5.22166
-8.65171 116.89 -4.45039
-12.6198 106.644 4.45652
-9.58484 106.648 10.2644
16.9475 142.403 3.5044
-11.5882 106.279 7.056
-8.65532 116.986 -4.43135
14.5366 140.132 2.72589
-3.03422 113.231 12.4258
1.21481 119.075 11.1725
6.10421 130.349 2.41865
-11.7338 107.127 5.68761
7.49544 135.043 -2.43057
6.58908 132.06 0.658544
18.9261 146.181 1.60699
11.699 135.81 4.49924
-15.4748 105.565 1.29552
15.048 139.75 4.72
15.7137 144.639 -1.84054
-7.22255 118.49 -3.57259
5.90844 127.232 7.50724
17.6664 144.266 2.59606
13.5925 141.812 -1.22085
16.0398 140.268 5.95313
10.5291 133.6 6.16815
0.0533052 117.912 11.4372
18.7951 147.224 0.281584
-4.36432 121.161 -2.05949
-2.36445 114.987 11.8696
16.4071 141.437 5.34162
3.08205 122.389 10.5757
3.17666 122.573 10.541
12.9525 143.124 -3.64091
11.6634 136.632 4.41231
-0.255374 118.175 11.3528
-11.7192 114.147 -4.09678
11.3057 135.995 4.86369
-11.3933 108.229 6.18537
12.3397 140.045 0.526365
-14.783 106.202 3.1628
2.43795 122.073 10.6122
6.47278 133.933 -0.633674
-4.89591 121.336 -2.04772
-1.01992 117.587 11.5066
10.167 141.596 -5.71105
11.7271 137.693 3.56953
-4.02689 112.853 13.41
2.25626 122.076 10.6028
6.87403 135.157 -1.58728
12.0525 139.937 0.645813
-0.46142 118.482 11.2557
-8.44738 118.565 -4.07432
3.92455 125.299 8.78257
16.3066 146.509 -1.63788
-14.2534 111.225 -3.22688
-8.97518 108.973 10.5452
6.40454 134.143 -0.482391
-8.99921 109.173 10.3171
9.76544 133.894 6.49002
-11.1758 115.376 -3.75501
6.33581 134.171 -0.167975
-4.48597 112.703 13.6766
-3.74352 113.961 13.0948
-0.752041 118.72 11.1799
6.72966 129.745 7.79424
-6.46374 110.77 13.1094
10.2823 135.863 4.79797
18.1481 148.351 -0.191923
-15.6188 108.088 -0.00492631
-13.4786 112.892 -3.63244
-8.77861 109.808 10.37
16.8262 148.014 -2.08509
10.0631 135.671 5.00295
10.053 135.7 4.966
15.442 145.643 -0.635155
-1.56341 118.004 11.3693
10.891 143.012 -5.03704
13.9308 144.117 -0.946292
4.41383 130.651 2.58246
-7.91988 110.248 11.8548
-12.2612 108.628 6.19907
-13.6549 107.816 4.89523
-11.8563 115.293 -3.64966
3.66224 130.181 2.24703
-14.961 110.798 -2.13474
16.9959 145.35 3.44704
10.789 139.453 1.22172
-14.8397 111.278 -2.41352
-2.86347 124.277 -0.413035
13.7175 141.615 3.41808
2.66889 124.225 10.397
-10.1177 110.631 7.90859
15.886 147.305 -1.28958
17.589 146.715 2.9557
13.2794 144.089 -1.06262
10.2698 138.165 2.84296
-15.27 107.656 3.1236
-15.3968 110.337 -1.32178
4.69746 132.003 2.2706
3.47255 126.654 8.55506
-15.5214 107.846 2.48641
15.9412 143.487 5.35424
5.95984 130.24 7.6795
7.14055 138.715 -3.69499
6.96669 131.513 7.59524
9.05482 134.867 6.21767
10.7648 139.076 2.7426
-13.7489 113.763 -3.31036
-11.1075 117.288 -3.82799
-11.2059 117.191 -3.76661
-8.60438 120.104 -3.42754
15.1762 146.544 -0.345006
6.43037 137.276 -2.08707
-3.71227 115.879 12.9468
-6.83102 112.387 12.6619
8.82332 135.086 6.16981
-15.7017 109.992 -0.333391
-11.6014 116.863 -3.52714
-4.52911 124.28 -1.85032
1.14102 128.77 1.77525
-14.4783 108.308 4.83089
10.6334 140.65 0.853374
-13.2579 108.984 6.10389
-1.15306 120.324 11.0617
9.57692 143.332 -5.37968
12.4766 144.725 -2.02116
5.58412 134.862 0.838129
-13.2146 109.217 6.24442
5.62378 135.18 0.538995
2.78265 127.196 7.99026
6.59416 138.414 -2.75758
15.4947 144.116 5.14497
-10.0589 119.475 -4.08882
-6.74467 122.256 -2.19164
-9.81271 119.799 -4.08205
-9.66612 112.288 8.3627
12.4101 142.926 1.32728
15.3526 147.631 -0.550275
10.7021 141.409 0.71236
12.417 143.039 1.37641
15.1286 147.255 -0.215554
-9.62376 120.256 -4.03439
5.14964 130.763 7.39008
2.97097 128.272 7.23983
8.99563 138.26 2.69468
-14.5855 113.579 -2.66553
17.2687 148.344 2.43028
16.1929 146.067 4.16948
-8.72929 120.964 -3.03355
-12.1851 110.495 7.30223
-3.16098 118.207 12.244
10.5061 141.697 0.701521
-5.57856 114.738 13.4406
-3.5265 117.649 12.7303
-5.50898 124.838 -2.61001
-16.0613 109.844 1.35801
15.3788 148.722 -0.990953
-4.36829 125.276 -0.988959
-9.43793 113.132 8.86337
13.1803 146.203 -1.01023
-12.1961 117.457 -3.29218
16.9069 149.321 1.52502
15.287 148.962 -0.982281
-0.598878 128.645 1.32041
-7.4198 114.141 11.6293
-14.0601 109.839 5.92472
12.875 146.395 -1.27234
-6.94357 123.706 -2.62626
10.3197 142.126 0.936975
12.7858 143.902 2.87714
-14.9124 109.624 5.06144
12.8192 146.818 -1.59171
-11.9749 118.406 -3.30363
1.69221 131.659 1.63428
-16.1744 110.557 1.57894
-4.92422 125.741 -1.29933
14.4384 148.377 -0.553706
-2.14688 121.108 11.6432
3.48081 130.895 6.79171
1.60522 131.877 1.6325
-3.65569 118.712 12.9008
-4.28453 117.624 13.5339
-10.655 120.903 -3.89373
-1.2837 128.975 1.07426
4.56633 132.678 6.33479
3.85922 131.83 6.39709
6.70049 135.451 6.09177
12.377 144.766 2.01858
-8.78776 114.56 10.1596
16.1355 150.421 0.334146
5.54254 138.643 -0.845295
4.72605 136.411 1.22377
10.4595 147.097 -4.96993
-1.55865 129.116 0.976621
-8.27773 123.911 -3.30783
8.83878 141.747 0.760591
-8.80541 114.792 10.4715
-9.89021 122.023 -3.14785
14.7484 149.746 -0.610104
-9.49746 122.253 -2.75044
5.50472 134.563 6.20186
1.17885 127.666 9.14115
-16.2705 111.671 1.53957
-4.07234 118.816 13.4468
4.47339 136.533 1.3053
12.7886 144.934 3.73675
6.77921 142.096 -3.18221
15.8833 150.656 0.511946
9.4133 141.999 2.08127
7.46079 139.936 1.76087
6.1934 135.851 5.93279
-8.89804 123.68 -3.26423
-2.82416 121.259 12.2815
1.029 128.236 8.4332
-11.135 121.433 -3.85049
-6.44193 116.307 13.4255
2.42714 131.513 6.09664
7.85136 144.309 -4.11588
-9.86256 122.464 -2.84714
-2.62071 121.824 12.0414
4.42585 134.107 5.8949
-14.1222 117.469 -2.61391
5.33202 139.958 -1.35934
10.1658 144.363 0.820139
4.1815 134.174 5.77563
-6.12284 117.128 13.4931
-16.0471 111.998 2.79307
14.3325 147.722 3.43693
-15.9123 113.427 0.840278
-16.0055 111.944 3.11881
-15.646 115.316 -1.46475
-16.0735 113.648 0.408587
-16.0626 113.667 0.416271
-0.525062 126.953 8.78885
6.6334 138.828 3.42993
-5.67162 118.18 13.1868
14.6745 148.798 2.85206
-2.10857 123.567 11.3799
-4.52379 119.78 13.1312
-1.0999 125.524 10.4571
11.6065 146.205 1.52062
-8.56089 125.618 -3.93173
-3.72882 129.323 -0.4806
4.542 138.687 0.430388
3.15523 133.93 5.48404
-4.13236 120.452 13.2528
1.8677 134.546 2.11681
-15.1514 114.69 1.59911
-1.59506 131.32 0.787422
5.66955 137.239 5.23342
9.40537 143.229 2.80952
6.38457 139.84 2.49269
7.3539 144.787 -3.56128
10.3481 148.447 -3.72294
0.56331 130.71 6.15639
11.5381 146.635 1.5712
11.7488 146.706 1.92303
-5.6358 119.41 12.6535
-15.8332 115.372 -0.281266
13.5424 148.121 3.30619
-1.77575 126.43 8.94193
9.32747 143.606 2.55277
-7.03419 127.436 -2.69881
2.62045 133.981 5.30057
-15.5327 116.785 -1.71782
-14.7436 117.31 -1.04452
1.81746 135.133 2.05932
8.25016 147.042 -4.64503
5.62172 138.476 4.17903
-2.32143 125.359 10.4091
-15.0487 113.639 4.97803
10.702 149.586 -3.58558
11.8875 150.039 -1.87853
3.82646 138.812 0.781937
10.5046 149.682 -3.91201
5.78291 143.276 -2.62005
10.1577 146.292 0.901859
-2.45645 125.239 10.7053
-14.5237 117.457 0.192552
2.50967 134.773 5.05283
-13.6469 118.25 0.730013
7.13932 142.785 1.13109
-7.11316 128.583 -3.26107
-9.66191 126.325 -4.43852
6.92182 145.237 -3.12398
1.53892 133.443 5.56884
-7.71255 128.19 -3.63291
1.74878 133.931 5.32404
-0.849907 129.224 7.94453
-14.5138 113.573 7.06008
3.97129 136.869 4.97496
-15.3136 115.876 1.86028
-4.66476 121.701 12.9387
13.1163 149.118 2.99803
5.43821 140.1 2.82414
-13.9887 115.997 4.58145
-8.47661 128.521 -4.94936
3.72634 136.977 4.87102
-0.556066 134.367 0.894612
13.2765 151.591 -0.342723
-13.7542 120.845 -2.5758
-8.73128 128.566 -5.34647
-4.36709 122.763 12.3439
2.69294 137.872 1.55707
-2.31355 127.679 8.45344
-13.7482 120.928 -2.5571
-4.92566 122.038 12.6451
-14.6807 114.23 6.5764
-10.5512 125.201 -3.1599
-9.29961 117.373 11.846
-10.026 126.832 -4.74894
-9.06781 128.462 -5.36552
-13.9436 117.45 3.0347
-0.0721115 135.225 1.10597
10.9881 150.61 -2.47204
9.01907 149.732 -4.77129
-12.534 115.537 9.01838
5.49276 142.709 -0.153186
-2.85918 127.195 8.85464
-13.8798 118.393 2.03019
0.702072 133.566 5.59754
5.40686 142.959 -0.451333
-5.07634 123.315 11.1311
-11.242 125.197 -3.40829
-13.967 119.86 0.0479121
4.29369 141.877 -0.440487
4.43788 139.235 4.1364
-1.00884 131.697 5.89765
13.1944 151.304 1.54923
-14.1935 119.625 0.264771
-0.00684863 133.107 5.74547
0.368943 133.826 5.47139
0.806699 134.67 4.96478
-0.103929 133.175 5.69067
-0.724774 132.405 5.77666
-6.66634 131.218 -3.6586
-14.3685 116.43 5.42286
-9.97388 117.861 11.5992
-9.49301 128.809 -5.05149
-7.80693 130.917 -5.02716
-2.06023 134.408 0.39151
-13.6182 121.346 -0.632641
-0.548588 135.909 0.963267
-4.79772 132.471 -1.44014
-12.8229 120.336 2.74248
-2.69249 129.384 7.63933
9.58763 148.021 1.14984
9.03832 146.918 1.88872
-2.76659 134.102 -0.0310509
-5.3921 132.378 -2.16543
-12.4362 120.741 3.10929
-13.9589 119.656 2.18012
-14.9194 119.61 0.463866
-7.27364 131.818 -4.52866
-11.1129 117.781 10.7191
-3.12614 128.992 8.01447
-8.87296 119.926 11.6565
-5.52265 126.043 8.28578
-13.461 122.982 -1.76623
9.91264 151.257 -2.54012
2.01656 139.586 1.1411
-5.62302 133.204 -3.20177
3.40455 139.494 3.98336
-7.66988 121.339 12.1296
-14.1191 122.368 -1.75089
-12.8358 124.405 -2.56862
-13.7221 120.287 2.40638
-13.5096 123.296 -2.027
-5.70601 126.172 8.28434
-13.3398 123.658 -2.26234
-13.4492 123.424 -2.06012
8.91308 147.667 1.73363
-4.15966 127.99 8.39516
-14.8218 116.813 6.02579
5.76878 146.68 -2.60247
-12.5662 124.662 -2.2261
-14.0802 118.806 4.3526
9.25746 151.318 -3.31013
9.17787 148.421 1.30583
-4.11087 134.29 -1.29955
-2.26644 132.147 5.72716
-13.2492 123.102 -0.674489
0.687669 138.479 1.2918
4.09344 142.65 1.10809
0.153025 137.935 1.19391
-3.53457 129.436 7.8567
-12.3548 125.804 -3.13961
-10.8398 127.856 -3.46772
-6.60332 133.415 -4.25003
3.04424 139.97 3.71247
-4.09243 129.236 7.37518
-13.1164 123.489 -0.620187
-10.0623 120.065 10.7389
-2.6744 135.73 -0.279138
-13.7672 120.926 2.33602
-10.7811 128.533 -4.101
-7.23281 125.259 7.97553
-13.5755 120.372 3.75145
-2.07734 133.075 5.3478
-12.2313 126.519 -3.49553
-14.193 119.153 4.6628
-12.9725 120.695 4.57291
-7.78812 124.275 8.78396
-3.38711 135.65 -1.02574
-7.89293 123.377 10.1074
-10.595 120.041 10.348
4.35176 145.443 -1.92501
11.9662 152.834 0.774335
-5.10158 128.027 8.04888
10.9887 152.449 -0.398082
-12.1347 118.606 9.86577
2.42792 139.775 3.67131
-2.97605 136.186 -0.827081
-3.68631 135.677 -1.35481
-13.7272 117.985 7.93695
-7.12308 133.744 -4.77228
-13.0812 120.412 5.33449
-5.90388 134.948 -4.2996
10.5302 150.477 2.20367
-3.40974 136.051 -1.24046
-14.6377 117.71 6.82844
-2.89893 132.294 5.889
-4.26698 129.676 7.49478
-12.4121 120.817 6.18148
3.22085 141.481 2.84972
-4.65724 135.419 -2.39236
-13.1561 121.5 3.79536
-1.6401 134.309 5.21766
-14.9003 120.482 2.11418
-5.94442 135.237 -4.45007
-1.66688 137.403 0.270372
-15.2515 118.001 5.53536
-8.17791 124.774 8.18993
-5.92738 135.341 -4.47958
-12.8332 126.329 -3.13149
-1.89283 137.429 -0.0275252
-3.0429 136.895 -1.23671
-8.02284 125.276 7.98191
-12.8761 120.284 6.7848
-13.1507 122.68 2.40552
-7.97769 133.43 -4.9614
-3.91151 136.289 -1.75056
-12.6886 121.049 6.00872
-15.762 118.618 4.05156
-7.10181 126.424 8.11037
-7.43512 134.365 -5.25557
-10.606 128.813 -2.3474
8.56807 152.178 -3.07645
-13.4277 124.745 -1.01235
-13.4402 118.409 9.28211
0.0508502 139.656 0.919506
-2.67896 133.628 5.44437
10.4014 152.849 -0.447265
-7.39447 126.413 8.05662
-14.1799 121.828 2.45915
7.4146 151.354 -3.72382
-6.40675 127.521 8.21141
-13.0292 123.272 2.38915
-10.1547 121.454 10.8153
-3.46066 137.346 -1.64831
7.28884 151.403 -3.66058
-13.1047 123.596 2.22761
-1.91105 138.363 -0.066548
-5.43181 136.657 -3.86902
-14.9006 118.985 6.53806
11.1091 153.456 0.875091
1.40839 140.296 3.49345
-3.44958 137.751 -1.64308
-15.5217 118.086 7.04713
-11.6428 128.321 -2.0011
-12.4475 126.854 -1.05869
-6.24154 128.706 7.85708
11.1182 153.825 0.659373
-2.22781 138.635 -0.401589
0.181276 138.684 4.13313
-14.8102 119.161 6.87967
-9.76224 124.045 8.82189
-13.5231 117.06 12.9029
4.86645 148.34 -2.23412
-13.9054 119.239 8.70624
-15.4456 120.67 3.47023
-14.7933 119.635 6.40925
-2.53818 134.953 5.39933
-13.275 124.444 1.78014
-13.3778 119.407 9.76518
-14.4551 122.287 3.13489
-3.34434 133.99 5.56611
-14.3015 120.76 5.89647
-14.0122 123.065 2.74585
-14.8771 120.169 5.78022
-2.20055 135.665 5.21536
2.53073 144.63 -0.133566
-4.67295 137.608 -2.58459
-13.3789 120.067 8.98763
-13.8778 118.848 10.0623
-14.1958 121.198 5.67619
-14.0062 117.919 11.4018
9.17543 151.603 1.58158
-13.8904 117.782 11.8753
-12.6056 120.62 9.79791
-14.045 120.572 7.17849
-13.8959 118.591 10.747
6.92347 152.188 -3.47849
-12.795 125.298 2.08089
-15.7864 119.269 6.0755
9.89002 153.77 -0.302739
-12.2241 120.73 10.6252
-0.333349 138.84 4.25197
5.04017 149.406 -2.41891
-2.59649 135.645 5.24403
-14.3854 119.525 8.63734
-13.3087 120.375 9.33917
-1.33819 137.84 4.17246
-2.19486 136.506 4.74391
10.424 153.825 1.02303
0.484787 140.572 3.3557
-6.26862 137.508 -4.5926
-14.3323 119.59 8.81526
-16.1989 119.171 5.95782
-14.1012 124.497 1.46403
-14.3365 122.981 3.55205
-2.96004 135.39 5.39148
-15.5294 121.367 3.90929
-13.9469 120.972 7.61724
-15.1205 120.726 5.79174
4.31019 148.702 -2.02895
-11.3418 122.606 10.1903
-14.114 123.037 4.278
-15.9486 115.97 12.1916
-13.6491 119.407 11.0905
-12.1157 121.846 10.1528
0.751892 141.566 3.07424
-13.6986 120.731 9.01747
-15.111 121.209 5.56203
-14.7571 119.545 8.96207
-14.0994 120.355 8.9622
4.07973 148.802 -1.96707
-8.8654 134.65 -3.95935
-14.4619 120.271 8.4784
9.43458 154.04 -0.0585892
-4.07608 139.305 -2.18773
-9.59049 125.95 8.84479
-14.4457 119.924 9.28998
-2.52374 140.37 -0.786388
1.33387 143.246 1.99066
0.696469 141.917 2.9694
3.08709 147.403 -1.15439
-12.476 128.121 0.113626
-13.5248 125.389 2.53751
-2.24018 137.985 3.86077
-13.458 125.493 2.52875
-14.6302 120.669 8.15689
-9.90561 132.415 -1.7032
-12.6406 122 9.97845
-4.20743 134.829 5.47721
-14.2204 120.678 9.16986
-14.3405 120.542 9.19124
-15.3063 119.199 9.68174
-3.80959 140.248 -2.16113
2.2254 146.444 -0.561205
-10.2434 125.03 10.0681
-14.0001 120.856 9.66317
6.71263 153.192 -2.7131
-11.6406 122.57 11.4807
-15.3841 123.922 2.17604
-12.2196 123.035 9.7438
-13.6653 121.005 10.2935
-10.3505 131.991 -0.985179
-17.0949 119.794 5.80193
-14.3679 120.8 9.48346
-1.22492 142.396 -0.0411995
-16.1609 122.784 2.96654
6.72516 153.38 -2.4454
-10.1049 132.935 -1.73981
-2.20026 138.978 3.69135
-14.0056 125.775 2.35613
-10.9074 124.649 10.1201
-12.7225 128.26 0.857938
-15.076 120.689 8.55449
-15.7089 124.359 1.52166
-5.09693 133.469 7.23642
4.6645 151.289 -2.66292
-11.5588 123.144 11.6087
-3.26625 141.251 -1.62191
-14.4813 119.215 12.4063
-10.0095 125.488 10.8741
-13.0834 121.701 11.0889
-3.97848 136.815 4.23874
-16.4099 122.071 4.23475
7.3716 153.903 -1.43284
-11.6338 123.582 11.122
-14.6521 119.847 11.3926
-11.5928 124.356 10.0807
-14.5331 119.778 11.8561
-6.55544 131.091 8.96038
-3.54227 141.482 -1.97983
-12.2755 124.212 9.12115
-13.0416 122.153 10.9692
-12.1326 123.667 10.3577
-14.0695 126.587 2.08617
-15.5644 118.635 12.0413
-14.7466 119.869 11.6623
-9.77462 126.861 9.9885
-14.0578 126.849 1.87627
-16.7438 118.087 10.9113
-13.1801 123.462 9.1916
-11.2746 124.442 11.3364
-3.03701 142.241 -1.3664
-3.7208 141.959 -2.20453
-7.86163 130.088 9.058
-14.3332 127.872 0.246765
-3.46047 138.706 3.72372
-17.1996 118.792 9.48464
-11.2256 131.766 0.118695
-12.0018 124.075 11.0586
4.90374 152.99 -3.01418
-17.5662 120.817 5.79287
-9.38654 136.396 -3.39008
-11.5125 131.601 0.385368
-5.49665 134.267 7.70972
-12.8976 129.525 1.29165
-5.50979 134.74 7.03887
-17.1899 118.117 11.4896
-17.7511 121.062 5.79663
-12.7678 124.031 10.6988
-13.354 128.591 2.24224
-11.8063 131.396 0.717944
-13.2095 129.653 0.919405
4.36034 152.949 -2.94498
-4.70831 142.304 -3.14989
-11.7172 125.142 11.1446
-18.7796 118.226 8.78211
-6.77254 132.652 8.70633
-13.4186 128.613 2.53171
-11.8656 125.12 11.2925
-2.24131 141.302 3.71276
-7.37373 140.275 -4.44381
-3.28471 143.373 -1.59238
-9.22821 129.703 9.0941
-16.8437 124.185 3.42966
-15.2818 128.011 0.319162
-18.7828 118.409 9.14601
-4.72517 137.96 4.68122
-6.03031 135.197 6.69626
4.9548 153.751 -2.02035
-5.05417 142.727 -3.32953
-16.6189 118.899 12.8929
-13.9937 129.325 1.34071
-10.6562 127.35 10.9205
5.77796 154.558 -1.41361
-16.1473 127.245 0.592393
-2.21685 142.119 3.42883
-10.5522 135.976 -2.62673
-16.6948 124.801 3.61174
-17.6456 118.173 12.5471
-5.82057 136.135 6.39551
-10.6733 127.356 11.4985
-14.6493 121.647 13.1236
-13.2552 124.721 10.9506
-2.92005 144.651 -1.30764
-13.0587 124.2 12.3158
-12.7604 125.423 10.9499
-16.1635 120.038 13.2386
-16.9309 125.081 3.66575
5.01942 154.533 -1.70103
-9.55755 130.514 9.14966
-3.15638 144.784 -1.5562
5.83451 155.187 -1.04774
-13.0228 130.509 2.65235
-10.1973 137.505 -3.08947
-13.013 130.957 2.12839
-13.3789 124.172 12.4019
-13.5302 130.211 2.43511
-6.19508 142.961 -3.98909
-9.22544 139.055 -3.49977
-17.2939 126.659 1.2076
-14.8751 122.16 13.1187
-16.5655 128.051 0.599322
-5.42685 138.129 5.70925
-15.5827 121.393 13.2432
-11.2997 135.632 -1.25315
-17.5628 126.578 1.34952
-12.6775 132.11 1.84241
-10.7948 137.295 -2.6251
-18.2835 124.686 3.58814
1.59838 151.999 -2.27521
-19.2792 121.712 6.67115
-7.09931 142.937 -4.1283
-8.9765 131.953 10.0819
-7.55021 142.455 -4.06748
-11.3948 128.383 11.2569
-16.7713 120.887 13.0718
-15.7067 129.37 1.5055
-12.9331 132.784 1.36214
-19.1927 119.207 11.2722
3.04118 154.034 -2.03103
-17.6185 127.519 1.16575
-4.50246 145.625 -2.74733
-4.33054 142.114 3.26478
-13.7301 126.689 10.2326
-7.56995 134.498 9.45353
-12.455 127.281 11.8099
-12.5623 134.826 -0.476578
-17.5494 127.973 1.11535
-7.11053 135.417 9.1267
-18.7949 125.276 3.1303
-18.9586 123.572 5.84801
-13.2113 132.956 1.74996
-14.5319 131.814 1.0719
-12.9284 133.808 0.958062
-18.5399 125.692 3.48872
-9.96514 131.857 9.98191
-7.7394 135.095 9.36436
-12.3777 135.604 -0.290979
-11.0691 138.342 -1.95032
-17.3613 128.289 2.22175
-4.15014 146.904 -2.34658
-7.07306 136.42 9.04355
-17.6583 121.465 12.8846
-12.3709 136.833 -1.6201
-11.1281 131.52 9.33266
-14.6796 126.526 10.6125
-17.7718 127.614 3.04957
-17.405 128.579 2.29852
-11.2077 138.588 -1.74117
-3.6025 147.684 -1.82417
-5.61694 141.539 4.27234
-5.44288 142.113 3.83263
-16.5307 123.328 12.9484
-4.31917 147.579 -2.40486
-9.48087 141.894 -3.07159
-9.16937 134.177 10.0011
-14.7965 132.616 1.74816
-14.9088 127.355 10.1158
-17.4635 128.708 3.07871
-4.88276 147.403 -2.8873
-4.12165 145.013 2.48778
-9.22903 142.603 -3.39503
-12.1718 130.896 9.88383
-16.531 130.751 1.8346
-4.99877 143.675 3.11596
-11.9324 138.3 -1.42207
-17.5805 129.503 1.94046
-4.17922 145.176 2.45677
-9.2984 142.692 -3.31794
-17.8486 127.811 4.29043
-16.2657 131.402 1.55197
-19.6873 121.565 10.8947
-0.0836775 153.075 -2.21139
0.345468 153.599 -2.18807
-9.78805 142.017 -2.92862
-5.58614 147.332 -3.4415
-6.64252 140.26 5.98652
-18.135 127.423 4.91624
0.986432 154.372 -1.77643
-13.0147 130.707 9.63728
-4.56618 145.184 2.54634
-17.3567 123.624 12.7808
-9.66935 142.655 -3.00852
-5.48184 143.61 3.52412
-0.098621 153.668 -2.22225
-17.6716 129.127 3.65924
-14.7039 128.867 9.76397
-13.3614 130.698 9.39243
-6.12785 142.479 4.50157
-11.7836 138.38 0.281073
-13.8295 134.996 1.88194
-19.66 122.552 10.8313
-19.7377 122.712 10.429
-9.01736 135.899 9.72901
-8.42036 145.068 -3.74086
-6.14663 142.853 4.36202
-18.261 127.634 5.71246
-10.8934 141.275 -2.10383
-17.7991 130.196 2.72259
-3.25029 150.182 -1.58108
-7.66785 139.288 7.57344
-13.2848 136.386 1.62081
-18.3078 128.248 5.37961
-18.848 125.993 8.01578
-7.8558 138.736 8.55418
-10.5095 134.087 10.982
-5.70988 144.655 3.31522
-0.652197 154.076 -2.13165
-18.3228 128.433 5.35033
-8.71862 137.388 9.54844
-10.8615 133.947 10.9984
-7.77885 139.77 7.54374
-5.59945 145.172 3.14678
-13.0984 137.241 1.73389
-5.53925 149.158 -2.96982
-13.1575 132.272 9.72937
-6.07291 148.68 -3.11692
-11.6095 139.583 1.28629
-1.43773 153.614 -1.76352
-17.7234 131.817 2.22861
-17.9653 130.282 4.26172
-4.05124 150.693 -1.89903
-18.0181 125.434 12.2475
-12.6475 133.034 10.3115
-3.38238 151.515 -1.69455
-9.73611 144.735 -2.92119
-10.6281 143.169 -2.08617
-18.6155 127.685 7.58806
-5.79979 146.013 3.13121
-9.02368 146.31 -3.46362
-15.9388 129.767 10.0296
-11.4558 140.317 1.65067
-12.1758 140.898 -0.534682
-18.7213 127.903 7.93463
-4.82656 150.728 -2.19117
-17.0207 127.471 11.9614
-12.706 138.573 2.39393
-13.3675 137.876 2.27702
-10.3948 136.152 10.8347
-18.5337 129.081 6.74565
-19.2405 125.479 11.3563
-12.7543 133.562 10.7617
-6.5148 149.572 -2.96722
-18.7412 128.715 7.33541
-18.9237 126.911 9.97065
-2.30966 153.975 -1.74953
-9.59145 138.007 10.0154
-18.8467 127.987 8.48459
-8.6235 139.621 9.40826
-14.7281 136.707 2.54863
-14.9937 131.403 10.5937
-6.07893 146.637 3.18718
-14.5164 137.18 2.40843
-10.3402 144.986 -2.14843
-7.48011 143.478 5.84484
-6.09968 146.883 3.15813
-19.0101 127.419 9.84659
-7.9815 142.049 7.44311
-10.313 145.312 -2.11346
-14.5879 137.346 2.55026
-5.5517 151.392 -2.43776
-12.4526 134.537 11.5107
-6.54234 146.676 3.44532
-18.9261 128.906 8.54432
-11.5493 136.018 11.338
-6.50404 150.805 -2.79567
-6.21798 151.147 -2.70038
-11.1617 136.775 10.9943
-4.6557 152.696 -2.05571
-7.82081 143.413 6.82567
-4.0275 153.379 -1.83912
-19.1959 128.331 9.58539
-9.74619 147.121 -2.45434
-7.20597 150.407 -2.43642
-19.0636 129.042 9.37681
-13.3851 139.726 3.07997
-16.3481 135.206 4.94021
-14.1547 133.998 11.1639
-13.2116 140.17 3.08378
-18.2581 131.067 8.26217
-16.0281 132.04 10.9928
-18.1119 131.411 8.05107
-17.2291 134.047 5.78118
-6.88892 151.261 -2.05738
-6.12166 152.068 -1.85502
-7.42489 150.787 -1.96236
-7.42417 146.935 4.32712
-17.9228 130.633 11.0009
-9.49054 141.417 9.78819
-11.5212 143.348 3.08792
-17.8365 132.495 8.70086
-6.19687 150.684 1.72591
-11.752 138.508 10.8622
-17.9605 133.134 7.74669
-18.0635 133.34 7.30894
-6.18895 151.017 1.5845
-8.58745 145.201 6.40625
-9.2296 149.56 -1.47516
-14.8668 134.696 11.7726
-13.0142 142.22 3.40899
-15.0256 134.69 11.7458
-7.0989 149.965 2.59656
-18.0128 132.089 10.5543
-8.34318 150.867 -1.05622
-17.8295 133.507 8.77003
-12.2711 138.892 10.8674
-17.5285 132.427 11.3087
-10.3676 148.743 -1.22847
-7.32228 152.261 -0.739815
-7.92376 148.782 3.72991
-18.1255 131.942 11.3097
-17.3892 132.843 11.4628
-16.589 133.76 11.5379
-13.6266 142.073 3.89244
-8.88739 146.432 6.03866
-13.1759 142.587 4.02195
-8.31338 148.037 4.67283
-10.0686 143.284 9.08427
-8.08254 148.95 3.80588
-13.3838 138.278 10.9148
-8.95129 146.717 5.85844
-8.15511 151.732 -0.463672
-10.9802 148.03 0.235392
-14.5764 137.056 11.2305
-16.5246 137.036 7.58725
-6.79297 152.75 0.96473
-9.43364 146.086 6.76028
-14.5478 137.455 11.1027
-11.3383 147.497 1.16278
-17.0565 134.741 10.7934
-10.1467 144.629 8.202
-16.7523 137.008 7.93806
-13.7411 142.638 4.6648
-16.8245 136.922 7.97934
-16.2711 135.877 10.8781
-8.18404 150.912 2.17762
-11.4838 147.346 1.64002
-12.7716 140.364 10.4218
-16.1493 138.309 7.30811
-7.73992 152.899 -0.0402148
-14.1183 142.267 4.8768
-14.3005 142.047 4.98336
-9.86677 150.488 -0.0283623
-8.78172 149.298 3.9698
-11.5484 147.345 1.95197
-17.2869 136.298 8.84251
-6.83491 153.825 0.647025
-11.4818 143.032 9.40731
-15.4447 140.636 5.77857
-16.1264 138.744 7.57716
-14.6168 138.811 10.588
-11.782 146.831 3.10834
-11.3187 147.719 2.7045
-9.60948 150.1 2.24895
-12.4279 142.048 9.85051
-13.9881 139.984 10.3369
-15.5125 138.303 10.1437
-8.1262 153.064 0.567528
-11.4705 143.945 8.88752
-10.0708 147.324 6.26738
-9.88904 149.259 3.51171
-9.83297 151.027 0.981075
-10.061 149.053 3.80118
-10.32 150.301 1.45922
-10.284 148.112 5.09847
-12.3021 145.137 6.19695
-12.7861 142.632 9.39731
-14.1255 141.107 9.4516
-10.7293 148.552 4.13554
-14.2711 141.652 8.85781
-14.6656 141.981 8.19528
-12.3855 145.272 7.69644
