ply
format ascii 1.0
comment Created by Open3D
element vertex 1912
property double x
property double y
property double z
end_header
-3.22001 113.88 -11.2942
-19.6474 105.714 -14.2758
-2.21328 110.217 -2.0615
6.93954 119.62 -10.7993
-16.9218 107.544 -14.7042
-2.22692 110.575 -2.74335
-38.0207 91.8799 -7.34744
10.1129 119.931 -7.43319
7.6261 118.469 -7.39232
12.6022 118.397 -0.968988
-37.1571 91.5099 -5.40249
-38.0687 92.087 -7.68738
3.89597 109.11 8.31346
15.3496 122.1 -5.26711
-27.3047 95.5005 -1.39298
9.04571 118.944 -6.31522
15.4835 120.65 -1.87236
9.68021 119.26 -6.14585
9.3256 119.095 -6.23127
-26.7552 95.758 -1.16314
-2.68389 105.315 8.46574
5.77953 112.374 3.92383
6.3541 114.729 -0.395098
-5.95979 105.356 4.46087
-14.0629 109.422 -14.5117
18.8991 124.852 -6.25153
-35.552 92.2421 -4.13393
-32.3377 94.2809 -4.4823
-5.46566 105.602 4.88123
-29.0091 95.127 -2.08281
-13.2725 102.285 2.26944
17.1163 122.158 -2.44468
7.37468 120.243 -10.5475
6.93111 114.198 1.97825
-30.6197 98.9188 -12.2029
-3.79818 106.835 4.54625
9.8839 118.67 -3.8069
5.84125 112.487 4.48961
-36.5299 92.2165 -4.89127
10.0967 118.207 -2.41342
18.5238 123.672 -3.59407
-13.7714 109.888 -14.3835
5.39086 114.251 0.358894
-16.727 99.946 3.52535
-29.7884 95.1589 -2.54232
10.7929 118.185 -1.2649
-12.8547 103.025 1.91382
-29.4661 100.087 -12.621
-7.84379 106.937 -0.194646
-2.91788 107.965 3.81639
-35.3791 92.8343 -4.22641
6.74162 112.601 6.05429
-36.7003 94.4882 -9.40355
-33.3078 94.4964 -5.12653
9.90257 120.714 -7.4033
3.27117 109.526 8.47709
-8.85668 106.376 0.0403671
-12.1782 103.843 1.53385
-5.12829 105.806 6.15703
-2.44258 108.942 2.77846
-4.67747 106.22 5.92511
14.5858 119.472 1.55717
9.06168 117.287 -0.645529
4.08681 110.308 8.21264
-15.9588 101.076 3.07277
-17.6584 108.292 -14.5672
-7.63233 107.842 -0.968451
11.899 118.349 0.902093
-3.41566 115.019 -11.1113
-6.93764 109.476 -3.53029
10.7104 118.692 -1.25206
-1.60447 111.773 -1.77632
-4.82172 105.733 7.32131
10.6886 118.706 -1.18412
-26.203 103.11 -13.84
10.7585 120.041 -3.94202
-30.9823 95.4216 -3.16586
-2.39853 115.89 -11.4535
-27.5627 102.036 -13.1364
5.766 113.286 4.54173
10.2186 120.374 -5.17126
8.84722 117.872 -1.47197
6.09322 114.007 3.44249
10.1566 119.894 -4.12727
-3.80186 111.921 -4.44655
8.61667 117.98 -1.89991
-15.2584 109.691 -13.9404
9.63674 120.04 -4.93581
-9.43502 106.536 0.273532
17.622 124.972 -5.54226
7.8147 121.096 -9.37891
14.2478 119.643 1.87454
-4.64766 106.038 7.53926
-2.04748 112.791 -3.76468
5.72336 113.503 4.50615
-9.7297 106.461 0.362029
-30.088 96.0458 -2.55714
-26.6043 97.0342 -0.281337
-34.7264 94.6193 -5.27445
-37.5847 94.5614 -8.67446
-1.93227 110.377 2.00078
13.0481 123.233 -6.92961
-17.9055 100.332 3.67796
10.8207 120.786 -4.39565
-12.4672 111.604 -13.8321
-22.5292 98.3789 2.1028
19.2401 126.688 -6.51832
-1.93067 113.09 -3.71503
-25.2206 104.309 -13.9939
-7.19536 109.234 -1.96399
17.3987 124.989 -4.99391
18.7107 125.29 -3.91567
5.76004 117.946 -4.30999
-15.7522 109.813 -13.7777
-25.2023 104.414 -13.9912
0.487432 118.188 -11.3812
2.40067 110.036 8.66642
7.99718 116.518 1.73261
13.7631 120.657 0.0426193
11.4319 118.749 1.25847
-31.6211 95.8464 -3.37918
14.4014 120.174 1.91838
4.3049 120.177 -10.7542
-10.4096 112.861 -13.4416
13.5516 123.661 -6.53824
-33.4588 98.6133 -11.3626
-15.1119 102.96 2.34563
-1.59098 111.692 0.508164
9.28406 117.598 1.50104
-1.44686 112.02 0.0645638
-7.17386 109.331 -1.31568
8.67954 121.102 -6.79835
6.73052 121.905 -10.9532
-1.30367 108.185 8.70237
8.27515 121.78 -8.5892
18.9325 125.462 -3.10704
-34.8326 97.6595 -10.6258
-1.31882 113.855 -3.43655
-37.0699 95.7608 -9.27029
-14.4762 110.955 -13.6693
-0.540557 108.675 8.84702
5.88814 118.635 -4.57903
-20.1715 99.2182 4.6305
-11.9289 105.605 1.22388
-29.9554 101.328 -12.1952
-34.5002 95.7771 -5.88829
-1.06103 113.052 -1.1078
-23.4984 105.987 -14.0111
-35.5869 97.2053 -10.1532
-12.1041 112.517 -13.6896
-31.3308 96.4217 -3.02469
-0.951153 113.99 -2.78557
-5.36044 115.718 -11.9677
-1.68104 111.811 1.21024
-15.3454 110.632 -13.3932
6.55564 116.153 2.2756
-31.9 96.3536 -3.254
10.8237 123.189 -7.52048
-25.5616 98.1969 0.736109
-33.6518 96.0238 -4.71871
7.39175 119.857 -4.56721
17.4066 125.567 -4.29844
-32.0643 96.3656 -3.35482
19.1777 127.111 -5.36017
-28.4231 97.3416 -0.866692
-28.3229 102.815 -12.5592
5.08631 121.479 -10.8565
8.87359 117.803 1.91785
-1.6377 114.282 -3.64407
0.622575 119.105 -11.1308
-15.0006 111.046 -13.348
-37.0202 96.2306 -8.98125
-12.2931 112.785 -13.571
-35.4587 95.9366 -6.25627
7.42118 121.255 -6.97577
-1.36694 114.524 -3.46325
8.44439 119.927 -2.77668
-2.10873 108.517 8.6296
-27.9596 103.359 -12.699
-1.4594 118.107 -11.2243
-3.77046 116.709 -11.0921
3.1614 111.727 8.39815
-20.593 99.712 4.51635
15.5167 123.047 -0.477362
7.80454 123.01 -10.0199
-7.21249 109.642 0.100648
11.5507 119.614 2.20611
0.699161 119.39 -10.9537
-1.00778 114.83 -3.22351
-10.5916 113.954 -13.2821
4.88986 121.817 -10.774
-21.7008 99.7511 3.50333
-36.5135 95.844 -6.52206
-16.7727 102.979 2.9583
9.66669 121.689 -4.2246
-12.7383 105.913 1.76785
-22.9786 107.2 -13.8265
-1.82232 111.998 2.42824
8.34437 122.748 -7.9983
16.0067 122.981 1.14717
-6.61159 116.253 -12.7441
6.4959 116.244 3.76347
-8.86246 108.448 1.3081
-14.9714 104.539 2.11216
7.99786 117.789 2.43361
9.79275 122.863 -6.24948
-17.9019 110.244 -13.71
-4.36997 116.909 -11.06
-11.0028 114.111 -13.3249
-6.45857 116.459 -12.6284
-6.82932 110.611 -0.433281
4.60662 113.363 8.02497
-37.0475 96.6427 -8.21554
7.95813 120.918 -4.05074
-4.67962 113.508 -3.91078
3.8431 121.447 -10.3265
-3.4038 109.66 6.03464
-22.1279 107.952 -13.7862
9.86367 120.361 -0.366772
18.6141 127.028 -3.74242
-0.974805 115.429 -3.22598
10.0108 119.366 2.1008
-0.267608 115.585 -2.62225
16.5958 125.554 -2.95778
9.46181 123.106 -6.60646
9.25547 122.601 -5.75665
10.8014 120.27 1.399
-36.5077 97.7231 -9.35803
-2.54236 118.416 -11.3497
-5.94038 116.894 -12.3323
9.58635 123.13 -6.2729
18.4039 126.877 -3.2303
-19.4971 109.816 -14.0122
6.11257 116.892 2.90755
-6.36055 112.068 -2.25958
-1.91128 115.39 -3.82792
-0.85292 114.554 -0.668807
-30.0607 98.1541 -1.89762
-3.78104 117.71 -11.0681
6.02527 115.359 6.35291
15.8257 124.054 -0.0284032
-26.3285 105.83 -13.5965
-27.1375 98.9215 0.344931
-37.0911 96.3795 -6.62781
-15.6953 104.653 2.41286
-0.127867 116.009 -2.54676
-22.1994 108.353 -13.7513
16.8209 125.035 -0.737636
-0.741542 114.946 -0.995937
-29.4168 98.3774 -1.21205
-32.9586 97.3215 -3.36132
-27.5822 104.937 -13.0226
-0.868227 110.57 8.48963
8.33108 121.745 -4.06814
-6.97027 110.761 0.451648
-32.0678 101.858 -11.8279
15.8496 124.314 -0.0470346
8.34712 124.584 -10.0048
-35.551 97.1538 -5.92364
16.3035 124.817 -0.431967
-7.06869 110.755 0.576511
0.275482 111.414 8.43174
7.14797 122.203 -6.17449
-36.8905 97.2803 -7.68365
-4.3786 117.76 -11.0213
9.81904 120.112 1.81667
7.55575 122.272 -5.61091
-19.0106 110.548 -13.666
14.4052 122.996 1.49258
13.2502 121.814 2.60795
-28.4236 98.9054 -0.275578
-8.96576 116.079 -12.8841
-23.8417 100.199 2.73425
-33.1187 101.331 -11.3652
7.19587 122.384 -6.16354
8.99944 120.034 1.20624
15.9718 124.501 0.326397
-25.1429 99.9946 1.59057
-24.9169 100.05 1.77962
4.35169 114.174 8.0917
16.2143 123.39 3.13057
-0.382271 111.29 8.42824
10.0733 121.823 -1.16394
7.24009 124.536 -10.5587
-28.4624 104.769 -12.6559
20.1011 127.741 -1.23165
14.1625 125.678 -4.23621
-22.7622 108.57 -13.6627
-26.0426 106.618 -13.5632
-11.0735 115.132 -13.0305
-12.8189 107.068 2.22451
-25.3359 100.1 1.56844
-33.8361 100.965 -10.9692
-1.58233 113.361 2.85215
-24.5893 107.644 -13.609
-24.3948 100.36 2.42798
8.52273 125.236 -9.90708
-23.8175 100.477 2.98699
5.10445 115.297 7.36869
10.2376 122.098 -0.70758
-27.6358 99.6034 0.289506
-1.90914 112.771 4.28763
-16.5295 112.096 -12.6335
2.79519 113.66 8.43529
1.71398 112.986 8.61565
19.7364 128.719 -2.71938
18.0353 126.738 -0.491711
15.752 124.382 1.73148
-11.4016 108.386 2.19421
-1.56508 113.558 3.39385
5.25054 124.054 -10.7145
-11.3432 115.411 -12.7493
-14.2153 106.665 2.54408
-32.3595 98.4305 -2.45702
-29.6874 99.2677 -0.888983
20.0198 128.746 -2.043
-24.4887 100.686 2.65367
-27.824 106.083 -13.1687
-11.1935 115.569 -12.7524
2.37667 113.661 8.51571
-19.2565 102.961 4.53395
-1.54029 113.793 3.45483
-30.9266 99.121 -1.78875
-14.187 113.726 -12.2002
-5.43381 114.701 -3.25842
-35.657 98.1174 -5.35562
-33.7337 101.806 -10.9002
-32.1951 103.01 -11.5297
7.02866 125.333 -10.4045
-31.9135 103.263 -11.6501
-35.2351 99.6731 -8.03537
-18.8496 103.583 4.12563
-34.8181 99.5386 -7.16401
-22.3481 109.871 -13.7749
5.02908 116.028 7.4033
-22.4204 101.504 4.29097
-27.9906 100.106 0.3322
-1.18053 120.441 -9.87773
0.432383 117.833 -2.20854
8.0413 120.967 0.592192
8.70033 121.07 1.2133
-1.00588 117.648 -3.58497
16.8632 126.267 0.266703
9.0844 124.633 -5.97322
11.1812 125.83 -5.84401
-25.7012 107.919 -13.5057
7.09403 123.606 -6.10948
9.40663 122.216 -0.186033
-35.4874 100.547 -9.80441
0.0354322 121.131 -9.49416
-13.488 107.622 2.78705
6.90968 119.338 3.15263
-10.7856 109.303 2.59233
-3.61748 119.597 -10.6048
-14.0864 114.136 -11.9438
-31.2679 104.064 -11.7725
19.9324 128.44 -0.0405807
-3.07304 119.905 -10.5079
10.4236 121.667 2.66695
-34.5095 100.051 -7.06322
-25.9086 100.919 1.90752
-16.4516 105.961 2.90771
8.75061 121.658 0.711999
8.44791 124.085 -4.90933
-6.41199 118.773 -12.0803
12.4261 126.453 -4.97728
-9.54583 117.185 -12.5514
8.96171 124.089 -4.17272
-33.7763 102.309 -10.7826
14.2851 127.066 -3.73563
11.4524 126.235 -5.43181
15.7176 125.479 1.59651
-29.1528 100.14 -0.0340806
9.78624 121.471 2.86994
-35.079 101.251 -9.76767
-23.0836 110.068 -13.6704
-1.4605 114.794 3.32078
15.9205 125.935 1.13298
7.85066 121.514 0.566374
10.6247 126.077 -5.79579
-35.0096 100.669 -8.24084
8.54576 121.634 1.2246
-2.12162 113.205 6.0378
5.7305 125.419 -10.4722
0.666722 118.201 -1.06384
9.18521 122.921 -0.549023
-34.927 101.551 -9.68583
-29.1074 100.424 0.094057
7.99906 120.5 3.38062
15.6965 125.678 1.8859
-13.5212 114.979 -11.7237
-32.9691 103.354 -11.0478
-4.52114 116.352 -3.35446
7.17847 121.692 -0.177907
15.2492 128.184 -4.03213
10.0777 126.066 -5.93913
2.18495 123.164 -9.56678
-33.3241 99.6778 -3.33292
-34.8294 101.744 -9.63093
17.6374 128.732 -1.93071
-17.0661 113.421 -12.4588
1.18312 114.284 8.6331
-27.6033 101.07 1.02877
-14.3252 107.89 2.99159
-2.50237 120.917 -10.2345
9.18687 122.189 1.76835
10.9786 122.587 3.17788
12.3183 126.973 -4.57606
-34.1446 100.543 -5.84993
-27.3636 101.197 1.27339
-10.5003 110.309 2.87998
10.5226 126.509 -5.66819
8.08573 120.817 3.60582
-3.90511 120.543 -10.8739
-28.3845 107.033 -12.4352
1.20927 122.769 -9.22213
7.09743 123.505 -3.35774
7.08565 123.454 -3.2138
-14.2901 108.117 3.06575
-1.44336 118.745 -3.73852
-10.033 117.763 -12.3304
10.5385 122.458 3.43407
19.8455 129.252 0.528869
0.835629 119.198 -1.58947
7.27865 122.117 0.212229
20.588 129.735 0.509624
-5.35695 115.798 -1.98639
15.9343 126.512 1.63388
0.95746 118.951 -0.772982
-32.7171 104.156 -11.0719
9.1516 127.402 -8.6326
-14.8135 114.644 -11.1941
-12.1503 109.603 3.11035
10.1787 122.714 2.96988
-15.8979 114.364 -11.6442
-24.7812 102.269 3.44023
18.7095 128.868 0.690451
-4.08607 121.012 -10.9862
-6.95588 113.3 2.0966
13.1497 123.895 4.48742
6.72298 123.53 -2.78851
-23.916 110.681 -13.5426
9.4423 124.562 -1.519
0.971687 119.737 -1.71386
7.16107 124.387 -3.96515
-1.10478 114.131 7.87727
7.92348 122.369 1.44756
-1.52582 121.943 -9.49362
-20.8784 112.402 -13.1884
-33.0513 100.525 -2.74721
17.3573 129.939 -2.92559
-27.2743 101.802 1.78085
-26.7315 101.923 2.21051
-4.9618 116.83 -2.62697
-29.3019 101.238 0.468995
6.42638 122.808 -1.10259
16.0864 126.161 3.86774
4.93085 119.072 5.17305
-28.8266 101.49 0.793988
9.36041 128.051 -8.49171
6.91646 120.563 4.62043
18.7406 129.188 0.882366
17.5194 129.504 -1.27695
7.28645 125.002 -4.38817
-1.03424 114.487 7.87735
-1.27379 116.495 3.24511
-1.73831 114.504 7.04529
10.4746 124.339 1.1909
-27.2788 102.036 1.95234
17.4212 130.362 -3.03807
11.9587 128.146 -5.10681
-21.2911 112.583 -13.1482
-32.7356 100.862 -2.20657
-26.4276 102.359 2.51879
0.753047 120.634 -2.71885
-30.5415 101.33 -0.315965
-15.3968 108.465 3.32587
0.501376 123.389 -8.93083
10.7742 124.011 2.69047
13.9795 129.151 -4.32307
8.2373 125.908 -4.47369
8.88079 125.182 -2.07666
-0.422952 122.948 -8.92892
13.3933 124.657 4.75148
-33.7759 102.336 -6.31334
-19.699 105.068 5.49858
-1.741 115.33 5.92955
16.7216 127.431 2.99578
15.4656 129.822 -3.74073
6.3664 124.426 -3.28735
-1.40455 115.164 7.01632
-32.3271 101.14 -1.54333
-17.6676 114.543 -12.0635
-24.8111 103.089 3.74253
-6.73048 120.713 -11.5861
-22.3968 112.398 -13.2685
16.5923 128.004 2.2838
-16.7131 115.072 -11.643
-23.5344 103.583 4.6277
-7.08723 114.062 2.7058
3.26809 117.595 8.15857
-2.42292 119.688 -3.43974
-10.7449 118.498 -11.2216
8.04695 124.164 0.221199
17.63 130.916 -2.28829
-33.5422 102.771 -5.78211
7.96768 126.933 -5.79347
7.23856 121.719 4.578
8.51098 124.282 0.665258
1.28904 121.48 -2.34882
-0.578368 118.187 2.46591
16.8377 127.839 3.60485
-14.6767 109.577 3.61269
-29.2342 108.138 -11.516
3.69798 118.28 7.98057
10.0986 124.206 3.29798
-31.8212 101.816 -1.01485
6.15975 123.505 -0.0866557
16.0053 127.488 3.71448
7.32257 126.762 -5.6111
0.549195 116.506 8.11258
10.527 124.692 2.97126
0.551201 119.702 1.22653
9.30418 126.718 -2.89995
-11.2005 111.852 3.44337
-0.417234 121.33 -3.47346
18.0091 130.706 -0.537588
-7.96228 113.888 3.19197
7.1068 126.518 -5.12588
0.981604 120.178 0.891063
4.72647 120.121 5.80235
9.8161 126.649 -1.80979
0.234433 124.168 -8.49139
8.41665 125.099 -0.189918
-2.58119 123.192 -9.84668
-11.149 118.688 -10.7647
-15.5281 116.174 -10.8036
-3.18414 119.746 -2.99772
20.2377 131.462 1.19019
1.38189 125.205 -8.97278
9.03894 123.902 3.49184
7.94265 126.217 -2.85318
-14.216 110.287 3.72746
6.46073 123.434 1.46439
-32.3829 102.585 -2.30091
-1.4098 116.806 5.96634
8.75653 127.69 -4.75341
7.17877 123.99 1.28614
-26.6074 103.625 2.81523
-13.0125 111.148 3.67878
9.98309 127.522 -2.73099
8.50381 123.762 3.54357
-31.3522 102.489 -0.581092
-11.8124 111.969 3.5133
-31.5945 107.117 -10.8543
3.63428 127.053 -9.63493
2.9903 126.63 -9.4897
8.59381 127.096 -3.37997
-4.8874 117.98 -0.630716
7.53699 124.538 0.875542
-3.65304 119.661 -2.56124
14.9497 127.337 4.24914
-0.0155803 122.063 -3.15206
-12.3574 118.226 -10.2743
6.02933 124.366 -0.415058
-19.2115 115.054 -12.0195
-32.3501 102.968 -2.33472
-30.7893 107.78 -10.7492
18.6925 130.494 2.40741
-11.2982 118.998 -10.4219
-31.1014 102.814 -0.345035
7.95508 125.314 0.211599
-1.28888 117.413 5.73738
8.08326 127.936 -5.21236
0.671278 117.546 7.93875
-0.0498872 119.642 2.51412
-24.809 112.161 -12.3489
-23.1076 113.455 -12.9566
-33.9898 104.696 -7.70748
-9.37727 113.934 3.36346
-14.6954 117.119 -10.1678
-13.1598 111.612 3.68118
19.2004 130.899 2.69715
1.40905 121.26 1.18363
11.0495 126.15 2.78659
-31.6034 103.138 -0.975553
-14.4013 110.969 3.77063
7.48543 127.001 -3.34876
-23.5774 105.087 4.97954
8.877 127.756 -3.18289
19.5924 132.172 0.762006
6.89427 126.054 -1.94661
-24.3723 112.744 -12.4905
7.58413 126.531 -2.08574
11.5816 126.433 3.29524
-33.8711 104.902 -7.32637
-12.5529 112.253 3.59374
10.54 128.571 -2.59845
8.2904 127.087 -2.20302
13.653 131.362 -4.68703
6.81716 126.314 -2.18325
-8.16157 121.604 -10.8341
2.0673 118.834 8.04386
2.13696 122.451 0.396721
16.8049 129.144 4.40382
-27.5864 110.907 -11.9508
-25.8477 104.727 3.60078
9.34932 129.849 -6.42556
-29.9462 109.063 -10.8446
-9.10654 114.601 3.40002
16.73 132.727 -3.26321
0.363823 120.608 2.43933
1.84971 118.925 7.99979
10.7345 126.949 1.85761
9.5955 127.493 -0.726198
-25.0194 105.09 4.17839
11.6215 126.83 3.27667
4.06449 120.541 7.42549
6.62543 125.958 -1.03798
19.8087 132.014 2.48979
-22.8178 105.804 5.56425
-24.1326 113.45 -12.5759
5.98751 125.5 -0.71211
8.59323 128.044 -2.93113
7.48549 126.757 -1.52328
15.6278 132.519 -3.71349
-28.7036 110.498 -11.7914
7.25838 124.05 4.16661
-32.7873 107.323 -10.0071
17.5335 133.204 -2.60251
8.81346 126.992 -0.0269767
17.0157 129.847 4.13453
-15.5145 111.07 3.85186
-4.01592 124.21 -10.0819
-5.75882 123.405 -10.5232
-1.73154 122.356 -3.13693
8.25531 128.193 -3.11746
-23.6771 105.815 5.09032
7.45702 126.01 0.607339
1.60797 124.096 -2.60525
9.59394 130.228 -5.79346
-24.2883 105.686 4.72197
10.0257 126.907 2.04623
0.308316 123.618 -3.05333
1.21412 119.126 7.84927
-5.89485 117.341 2.80984
10.2889 129.152 -2.33296
17.5183 133.482 -2.57674
9.53394 130.127 -5.36322
9.38424 130.465 -6.28096
-13.0026 112.877 3.62547
-25.3211 105.509 4.09903
9.7178 130.411 -5.52557
9.54894 130.382 -5.61188
-30.0825 104.538 0.40507
14.6237 132.812 -4.38575
13.8757 132.628 -4.92844
19.9242 132.925 2.06578
7.39164 126.893 -0.645047
10.8491 130.807 -4.71812
-10.3325 114.67 3.58139
6.2175 125.818 0.323218
9.76388 130.694 -5.75396
-19.0597 108.71 5.54386
8.04487 129.548 -5.39181
-8.31621 122.329 -10.3318
-32.9074 107.422 -9.01508
2.38175 120.144 7.86805
-28.1227 111.468 -11.6965
8.76401 128.372 -1.83013
-4.78423 124.35 -10.1508
-19.1945 116.552 -11.377
-4.99179 118.783 1.67288
7.84487 128.473 -3.09647
-6.69405 117.005 3.40973
10.8696 131.151 -5.05838
-14.4204 118.495 -9.47111
10.0405 131.106 -5.94638
-28.4943 105.157 1.68324
-31.7352 104.694 -1.37435
15.867 129.691 4.51399
0.122594 119.364 7.04149
2.38983 123.642 0.677749
8.00191 128.541 -2.66783
17.5843 134.04 -2.44577
-27.0313 105.642 2.97691
0.198672 126.523 -7.90157
17.0266 130.53 4.60383
2.79694 128.603 -9.06878
18.422 131.829 3.7539
7.4238 129.166 -4.30879
2.49194 125.238 -2.0103
17.8804 131.531 3.80819
9.62226 129.074 -1.15894
6.35813 124.695 4.22385
2.32414 125.294 -2.14088
-8.05988 122.957 -10.0869
8.70697 126.341 3.74992
1.6192 123.029 2.01962
-5.29295 118.89 2.28248
-5.21238 124.612 -9.96083
-8.56878 122.709 -9.94107
6.63999 126.187 1.72445
4.70805 122.969 6.26148
7.19706 127.004 0.702411
-33.058 106.395 -5.35746
-29.3599 105.621 0.997957
-4.66147 125.047 -9.91494
8.16411 130.29 -5.11459
-26.5383 106.183 3.38527
19.238 133.683 1.54749
-21.4025 116.264 -11.8978
-5.90375 124.327 -9.79152
-31.8849 109.118 -9.58833
-31.7253 105.562 -1.68834
-5.28662 119.082 2.34581
19.8957 133.509 2.8377
19.7397 133.242 3.25075
-13.42 119.638 -8.99698
-6.51427 117.858 3.6058
-21.0835 116.471 -11.7138
17.9985 134.655 -1.76827
-9.61091 122.237 -9.54189
-3.34936 125.771 -9.25254
-20.005 116.978 -11.1699
9.65968 130.006 -1.9531
4.38132 123.158 6.21351
-31.0283 105.827 -0.733049
13.3369 129.412 4.09372
15.4162 134.317 -3.86795
-12.9848 120.136 -8.92811
8.36847 128.997 -1.19933
-12.9356 114.314 3.80621
6.7797 128.981 -3.05903
-14.4511 119.428 -9.07199
6.95268 128.96 -2.72795
7.37293 126.12 3.95308
-0.098715 121.066 5.51709
14.8757 134.233 -4.09303
-21.7623 116.605 -12.0454
15.495 134.455 -3.7709
15.5567 130.611 4.64173
-22.7039 116.246 -12.3977
-32.5863 106.332 -3.39951
-7.00299 124.067 -9.52422
-11.7778 115.077 3.95584
-4.14023 120.835 1.13252
-32.6163 106.601 -3.8909
-28.0285 112.752 -11.4111
-4.19842 120.697 1.5212
15.5664 134.61 -3.63701
-8.21987 117.088 4.33629
3.84195 130.261 -8.91649
-24.4474 107.35 5.07355
-22.0798 116.73 -12.1746
-19.4145 117.718 -10.9441
14.2178 130.217 4.36904
-18.1738 110.964 5.28138
-22.793 116.449 -12.3646
-32.9689 108.345 -7.63384
18.8693 134.211 1.67919
-27.4609 113.4 -11.5704
-24.4443 115.502 -12.3103
-6.65608 124.47 -9.31507
-13.8862 114.161 3.92465
0.00768857 121.845 4.81339
0.213125 125.586 -2.98228
-3.82115 121.695 0.400842
-30.7886 106.462 -0.577025
9.83328 131.206 -2.94509
9.4852 128.369 2.77672
1.30319 128.532 -7.80714
10.5967 132.039 -3.69285
3.08662 130.076 -8.89432
-4.43316 125.994 -9.44236
8.26243 132.713 -7.96153
10.3796 132.021 -3.76976
-32.5343 107.976 -5.7525
2.57791 122.407 7.26651
4.32263 124.466 5.02485
-32.5433 107.735 -5.15086
-27.3158 113.824 -11.7085
17.8092 132.623 4.41362
4.02827 124.219 5.34418
-32.7789 108.895 -7.79514
-4.18493 126.3 -9.33576
-26.2243 114.718 -12.0137
18.5032 134.717 1.09433
-31.2173 110.57 -9.22748
-26.9784 114.338 -11.9648
8.2176 127.448 3.98755
-32.7115 108.777 -7.09924
-18.6471 118.6 -10.599
-4.39217 126.282 -9.27362
17.9785 135.668 -1.41206
8.96735 128.367 3.04975
-27.3149 114.093 -11.653
11.2877 132.849 -3.61663
-19.6953 110.314 6.2258
-18.9016 110.902 5.95413
7.72312 127.255 4.15509
-4.4155 121.093 2.22517
4.20766 131.16 -8.63483
-5.8321 125.567 -9.0825
-31.8889 108.727 -5.44206
-12.391 121.383 -8.26201
3.44236 127.235 -0.894001
-10.3748 116.659 4.60774
17.4361 135.926 -2.05478
-13.087 115.311 4.15184
-0.694787 125.546 -2.37816
-23.3766 108.561 5.83512
3.54604 127.167 -0.518347
8.41648 131.022 -2.68894
18.6669 135.692 0.195152
4.50418 131.496 -8.48727
-13.3062 115.318 4.1697
-25.935 108.246 3.81228
3.24993 126.253 1.63428
1.10652 127.072 -2.80129
-3.08802 123.507 -0.35083
7.13236 127.344 4.32929
3.48215 126.586 1.40211
-5.05269 126.417 -8.95396
9.30982 131.954 -2.81589
0.806402 122.993 5.91675
-20.4687 118.597 -11.3286
19.5418 135.068 3.41368
-3.48882 122.85 0.876019
-4.23487 126.967 -8.89366
-32.2385 109.6 -6.53214
7.20997 127.546 4.28901
-3.73435 122.423 1.59818
-18.8488 119.181 -10.3691
7.02739 127.437 4.35395
11.2279 134.483 -5.51609
2.03615 125.162 3.0915
15.6634 135.9 -2.91037
-0.863644 128.487 -7.41256
11.433 133.843 -3.51004
14.4961 131.968 4.47706
1.9922 130.465 -7.98349
-17.107 120.291 -9.9309
4.55839 132.087 -8.14139
11.6941 130.294 4.70781
-31.4623 108.56 -2.51585
-16.93 120.454 -9.86295
4.04468 127.623 1.07388
-1.30509 125.788 -1.68113
-18.2894 112.434 5.84961
18.3507 134.748 3.86055
3.11618 125.236 5.2837
18.1699 134.638 3.93783
-8.73052 118.894 4.14838
9.07639 132.786 -3.43428
1.08275 123.863 5.85405
3.94703 128.799 -1.19746
-0.517463 129.024 -7.23276
5.22068 132.641 -7.8162
-11.323 117.161 4.86146
-30.1899 108.673 -0.386161
-30.6296 108.878 -1.25486
-22.8241 109.96 6.23489
9.60168 129.984 3.80161
11.4436 134.401 -3.38082
2.05077 124.477 6.2896
-21.3066 110.662 6.79672
-30.8304 111.27 -6.47663
-24.5276 117.509 -12.009
-26.4423 116.269 -11.6981
-3.96898 122.823 2.42773
15.8433 133.258 4.79832
-30.1805 108.913 -0.363612
7.23093 134.099 -7.73732
-27.2932 109.281 2.52317
15.1951 136.558 -2.94604
-22.8788 110.178 6.25234
1.09036 130.408 -7.28997
8.18522 134.908 -7.90844
11.5809 134.939 -3.66123
-11.5087 123.346 -7.63343
-26.2462 116.648 -11.6529
-9.28811 119.214 4.13899
11.6651 135.067 -3.62368
0.0891957 130.024 -7.08768
3.39353 132.468 -7.89811
-4.34283 122.995 2.86622
-15.3182 115.833 4.60474
-26.4022 109.946 3.4392
-18.7212 120.822 -10.394
-2.78737 124.991 0.633499
-2.56884 125.328 0.20752
1.87167 131.669 -7.85822
-30.6921 111.196 -4.5474
1.04865 125.215 5.10094
-30.2741 112.024 -5.66219
-25.5261 110.218 4.29248
2.32033 132.17 -8.07347
-24.0222 110.461 5.79999
17.7663 137.873 -0.884771
10.9337 135.444 -4.20242
-16.1068 115.435 5.08099
16.9003 134.783 4.78963
4.46091 130.394 -1.29058
1.96713 131.96 -7.79835
14.1338 136.949 -3.27158
-16.3755 115.269 5.227
-27.2249 110.106 2.75319
-26.152 110.298 3.73838
-28.4611 115.453 -10.2972
4.05629 128.993 1.34603
-6.37219 121.763 3.9894
-11.9549 123.782 -7.39244
4.50449 133.524 -7.72757
1.3757 125.407 5.90088
-30.2768 111.327 -3.41993
15.2597 137.42 -2.50448
15.5717 137.475 -2.21236
-1.52113 126.772 -0.5373
-3.0435 124.907 1.65831
10.5391 131.726 4.00259
-7.03392 121.618 3.80849
-6.22117 127.559 -7.82605
9.29502 134.228 -2.7234
10.3748 134.987 -2.77316
-19.5425 113.395 6.41067
4.82238 131.104 -1.12748
-12.2767 118.129 5.44277
-0.402669 128.125 -1.15911
-6.53573 127.644 -7.68259
3.5792 127.691 5.03363
10.4009 136.155 -4.50659
-12.5968 124.01 -7.1698
-3.19919 125.1 2.342
6.39656 135.237 -7.4819
-0.0966849 128.641 -1.27804
9.04977 131.401 4.33642
4.05978 134.164 -7.8622
-29.7284 113.046 -4.66226
-29.0206 111.471 -0.350974
-2.25115 130.405 -7.50906
-7.72716 127.262 -7.59661
1.23858 129.866 -1.9223
-16.6665 116.08 5.4219
-6.85749 122.504 3.88731
2.94764 128.758 2.74355
18.1104 138.9 -0.0503722
10.6017 135.831 -2.84967
18.8447 138.755 1.28706
-29.614 113.234 -4.45203
5.9185 135.369 -7.54534
-25.7667 118.636 -11.1821
-7.98204 122.174 3.54457
-5.30257 123.589 3.87816
-20.8014 113.23 6.77436
-13.7413 123.918 -7.43959
-2.94976 125.802 2.06111
12.1203 136.782 -2.69335
-11.5249 119.4 5.23451
3.54001 134.242 -7.88472
-4.20441 129.601 -7.57582
9.80601 135.406 -2.47461
3.8198 134.465 -7.91451
5.00091 131.361 0.389159
-18.7296 114.905 6.14669
9.58704 132.216 4.4425
10.9343 136.52 -3.15442
15.1309 138.478 -2.07805
-17.0996 122.816 -8.71057
3.07613 131.586 -2.19455
-31.232 113.609 -6.4711
5.19742 129.771 4.43447
-31.2144 113.643 -6.46703
8.70001 137.514 -7.84909
-10.3394 125.991 -6.85784
-28.0914 113.113 -1.2564
15.1821 135.631 4.50332
-20.7364 121.755 -10.5982
10.2042 137.094 -4.75928
-24.1364 120.086 -11.1525
6.54335 130.942 3.98169
-27.6998 113.685 -1.77236
-13.9662 118.347 5.50517
15.584 138.794 -1.50531
-27.7368 113.123 -0.482721
17.9426 137.597 4.11357
-25.0793 119.627 -11.1181
-27.594 113.477 -0.960763
-7.50322 128.067 -7.13696
-11.7106 119.904 5.23617
-27.0223 112.358 2.29103
19.1274 139.151 2.43988
11.1561 136.594 -2.00957
5.4963 135.925 -7.62819
-31.1548 114.02 -6.31559
-20.25 114.506 6.40563
7.5062 131.732 4.13938
19.0513 138.883 3.25274
-21.7809 113.258 7.30383
2.99708 134.59 -7.51666
8.90933 138.159 -7.78889
-17.9809 116.155 6.03359
13.0505 135.009 4.32444
-14.5755 124.398 -7.4379
4.62524 133.09 -2.02491
-2.87279 126.727 2.31157
-17.2046 123.423 -8.49284
-5.70176 124.273 4.14605
5.00759 130.306 4.59464
-26.7933 112.555 3.03331
3.54684 130.516 2.40046
-0.912401 132.217 -6.85878
2.16571 131.708 -1.86364
9.65722 138.165 -6.21669
-26.1284 112.782 3.68791
-20.2296 114.967 6.4007
-12.7161 125.62 -7.1452
11.1764 137.06 -1.7018
16.0369 139.572 -0.802393
-6.28322 129.362 -6.78824
-11.9729 120.384 5.49278
0.119423 133.134 -6.6584
-27.8769 118.391 -9.98315
-25.523 113.161 4.34521
-26.3706 114.651 0.0713969
-13.3476 125.718 -7.4116
-15.7625 124.454 -7.68619
-24.7671 113.154 5.46988
1.89799 134.232 -6.54775
5.77611 133.698 -0.494234
-28.8446 114.63 -2.79167
-8.5777 123.466 3.68127
9.19606 133.685 4.00786
-18.585 116.547 6.21218
9.93918 138.562 -5.48878
-30.3361 114.611 -4.36186
-10.6983 126.924 -6.21861
-17.2931 117.587 5.71272
-10.6 127.014 -6.20288
-25.5185 113.546 4.19099
12.8329 135.768 4.39986
-3.01254 127.179 3.06367
10.6261 138.568 -4.39816
-23.9465 121.293 -10.4925
-22.7166 113.897 7.19586
1.34137 131.695 -0.758797
4.92017 134.189 -1.63737
-13.3821 126.274 -7.47299
-28.2179 115.016 -1.77273
-27.0876 119.612 -10.2388
3.21854 130.986 3.31801
10.4436 137.451 -1.49445
-7.74503 124.584 3.4801
-23.6332 113.833 6.75069
-25.1111 113.99 4.60044
10.4797 137.519 -1.43647
17.0157 140.749 -0.171524
0.630506 134.101 -6.39343
-1.64424 132.836 -6.51854
-22.7066 122.223 -9.99205
-10.4097 122.485 4.9442
-12.6992 126.798 -7.02232
-12.722 120.8 5.98881
15.8753 140.622 -0.766516
-16.9142 118.456 5.91921
10.0427 139.627 -5.89995
4.689 131.677 4.62736
-30.4667 115.471 -4.51379
10.7704 139.571 -4.54024
-16.9927 118.618 5.99516
-20.4455 124.04 -10.0061
-17.6674 124.806 -8.15485
-30.5368 116.599 -6.53021
5.52668 133.822 1.83019
-9.99951 128.367 -5.85529
-6.12187 125.975 4.25692
1.19701 132.089 0.277534
-16.9687 125.295 -7.87649
-3.43474 132.421 -6.18737
6.89517 135.67 -0.20407
4.00852 131.978 4.1897
6.59476 133.358 4.46191
13.3314 140.086 -1.42125
-18.6377 124.959 -8.90898
-4.98322 131.735 -6.3612
-5.55446 126.529 4.26873
6.83357 135.582 0.329674
-26.4346 121.012 -10.0121
-13.411 127.452 -7.37748
10.0566 140.318 -5.58419
17.8034 140.603 3.55451
-13.5228 127.571 -7.44777
-22.9724 115.642 6.45723
7.12071 136.062 0.237329
-23.011 115.72 6.35243
13.9831 140.804 -1.31602
12.335 136.953 4.9701
10.3649 136.097 4.35799
5.45249 136.01 -1.45955
-19.9759 117.253 7.26271
16.1834 141.738 -0.162368
9.6969 140.631 -5.80217
6.13381 136.331 -0.882761
3.72007 134.805 -0.602097
-26.9951 116.674 -0.00833426
18.133 142.104 1.80852
3.99924 133.048 3.62278
5.19963 138.88 -7.40928
-21.1644 116.612 7.66646
-12.9483 128.199 -6.97718
-12.4021 128.39 -6.57609
-24.6312 116.774 3.17214
-9.88336 129.503 -5.75803
-29.7431 116.588 -2.78982
-24.9785 117.417 1.44678
11.8812 137.362 4.79299
-7.86409 126.479 3.55321
0.810262 136.106 -6.066
5.77323 136.77 -1.2508
16.1854 142.179 0.225018
8.52354 141.142 -6.96254
-27.5904 121.155 -9.17033
5.2424 136.797 -1.68051
7.18138 136.751 0.924076
-5.39046 127.881 4.35885
6.31557 140.071 -7.21567
6.42061 137.167 -0.804467
-27.8313 121.007 -8.92928
10.2634 140.44 -2.99295
18.2834 142.528 2.59002
-2.68962 130.03 3.38868
-26.5481 117.623 0.212985
-24.3931 117.567 3.10818
-29.6071 119.338 -7.19542
4.95383 134.594 3.52375
-8.36072 131.047 -5.27774
-23.4622 117.895 4.16447
-4.95141 133.111 -5.43895
-0.381078 135.866 -5.64337
-28.2801 117.453 -0.839127
-18.5649 119.645 6.82083
14.69 139.733 5.31709
7.73774 141.465 -6.9963
-22.9738 117.542 6.16632
10.6246 138.141 3.93457
-23.6791 118.322 3.64057
-23.2283 118.361 4.15925
-18.129 126.908 -7.88394
-0.943429 135.764 -5.26487
14.2261 142.369 -0.369418
3.12967 138.378 -5.67987
15.3282 142.673 0.462485
-24.216 124.24 -9.34739
5.79221 135.65 3.77027
-13.8663 123.11 6.17112
-24.1014 124.361 -9.34948
5.85701 135.553 4.21384
7.14432 141.502 -6.91579
-2.98447 134.698 -4.909
-5.37108 129.035 4.3586
-9.73092 131.109 -5.59755
8.68857 142.325 -6.59568
-30.0485 119.307 -5.55103
-19.4684 127.053 -8.92806
0.106519 133.447 1.93477
11.2505 138.82 4.34804
-11.6107 130.484 -6.34513
-13.0626 129.893 -6.87374
-24.132 118.983 2.83786
7.58942 138.8 -0.0698695
6.33355 138.53 -1.05749
-29.6035 119.838 -5.83318
-1.65048 132.195 2.67865
10.4358 138.776 3.70866
11.3294 141.229 -0.387886
-21.6592 118.416 7.51157
-17.1293 128.602 -8.67835
4.77975 138 -1.37749
-7.51179 128.545 3.63434
-6.54014 129.038 3.95072
7.34972 139.157 -0.407168
-10.5114 131.319 -5.80181
-22.7754 119.185 5.0546
-4.97258 129.868 4.40435
-25.7155 124.21 -9.44375
2.66594 136.682 -0.674984
10.6468 142.453 -3.04611
-29.8161 119.815 -4.98379
-29.6922 118.881 -2.7443
10.0102 138.935 3.84429
7.96851 138.693 2.01204
1.41637 135.677 0.307588
-28.9908 118.74 -1.28467
-18.3139 128.14 -8.15949
9.29096 143.091 -5.62885
-16.8267 129.541 -9.04124
8.10529 138.914 2.10157
7.94895 138.719 2.36658
-9.29339 128.008 3.91799
-3.65978 131.312 4.03133
10.5025 143.156 -3.65484
3.72959 140.118 -5.57498
-11.514 131.751 -6.55638
0.726725 138.301 -5.29215
-27.631 122.613 -6.96517
-19.0881 128.225 -8.27464
-24.7983 119.618 3.16424
11.5574 142.272 -0.0320707
-27.1884 119.575 0.323088
-15.7152 130.279 -8.35567
-9.50548 128.068 4.28793
8.34163 139.831 1.36621
-1.51472 133.313 3.13286
-15.8071 123.228 6.96091
14.8691 143.919 0.920153
-23.0522 119.917 5.19599
10.5017 142.304 -0.923785
-17.0309 122.483 7.29803
12.508 140.806 4.8674
4.85427 139.183 -1.20831
8.12151 138.798 3.79584
10.6013 143.599 -3.44195
-27.0959 123.68 -7.68488
-9.14274 128.969 3.47562
-9.58128 132.875 -5.47574
-16.0236 130.769 -8.84189
-6.5041 130.324 4.17004
-11.0949 132.579 -6.39851
5.21591 142.038 -6.27927
-12.4662 125.738 6.75609
10.9696 140.723 3.87305
2.15859 139.736 -4.99349
-2.81158 132.783 3.84008
-6.80041 134.504 -4.72727
-27.0552 120.108 1.0201
4.217 141.396 -5.50761
-22.5638 127.375 -8.80399
-21.7686 127.964 -9.06405
-0.780589 134.673 2.86409
2.00908 137.252 0.80418
-23.4279 126.916 -8.79925
-25.6595 124.236 -5.80928
-4.56735 135.838 -4.34391
-23.5234 126.912 -8.81739
8.24719 139.401 4.18677
-19.3953 121.287 8.70078
3.15218 140.734 -4.96032
10.2395 143.09 -1.12948
-24.3947 126.197 -8.16087
-3.48489 136.603 -4.33935
-12.1279 132.94 -7.23909
-19.5974 129.253 -8.65353
-24.9889 120.448 3.67384
8.55813 139.756 4.14677
0.234571 135.674 2.56297
-12.8022 126.007 7.06601
-24.8435 125.183 -6.25005
8.58457 141.026 1.58485
-14.8898 132.167 -8.77572
-24.8321 124.997 -5.7819
3.09194 138.723 -0.306935
-25.0759 120.578 3.50701
-11.1238 133.334 -6.50797
8.95625 140.279 3.84477
-21.0766 120.917 7.95693
-24.9121 122.584 -0.448019
5.54451 140.59 -0.99619
14.9612 143.522 4.54032
11.0244 143.5 -0.329741
-25.4586 122.234 -0.215263
-5.92094 131.492 4.36518
8.5614 141.315 1.3826
-28.8944 121.422 -2.68754
-1.33414 138.239 -4.34947
1.99512 140.384 -4.72437
-15.0637 132.675 -9.35249
5.307 143.002 -6.01653
-25.2601 124.725 -4.90642
-4.76376 132.592 3.88434
-19.5767 129.828 -8.76672
-28.1717 122.028 -2.67985
-20.8489 121.444 7.85407
-18.7476 130.168 -8.32717
-17.5905 131.293 -9.30101
10.22 141.618 3.38573
12.7183 144.164 1.0394
-28.4616 120.924 -0.318525
-1.28329 135.333 2.77858
-12.9428 133.594 -8.1222
-2.16343 138.068 -4.21057
-4.9129 136.5 -4.21358
0.748008 139.961 -4.54578
-12.2314 133.898 -7.68754
-1.95 134.883 3.16459
14.5086 143.885 4.50979
-9.55567 134.637 -5.75508
-24.4644 123.981 -1.22694
-0.0291923 139.789 -4.3834
0.512031 137.046 2.22568
-25.3876 125.5 -5.32021
-24.4977 126.239 -5.78949
11.214 142.458 4.10044
-11.4624 134.443 -7.08693
-22.3088 121.489 7.28123
-12.9935 127.528 6.29681
-5.29383 133.332 3.43733
-2.54695 135.045 3.28964
-23.0638 121.657 6.56156
-6.44832 136.395 -4.32188
-19.7008 130.601 -8.43105
-23.6597 128.01 -7.7439
-9.40724 130.788 4.25037
-3.18424 138.249 -4.00002
6.51943 142.333 -0.622056
-27.5302 122.029 0.482676
1.73625 138.502 1.68763
-18.7339 131.402 -8.68852
-16.0874 125.218 8.01164
-17.0796 124.507 8.35458
-15.7351 125.527 7.90163
-23.6284 127.702 -6.68051
-25.3584 126.558 -6.16866
-25.5692 125.549 -4.08285
8.75682 142.991 1.41548
-24.0314 121.946 5.70797
-28.7209 122.42 -1.14439
-23.4414 127.996 -6.54748
-7.11265 132.892 3.48741
-22.8255 128.861 -7.50771
-18.1429 132.747 -9.89469
-3.95847 138.301 -3.9315
-27.4476 123.602 -1.68211
-26.3215 125.236 -3.67837
4.7269 141.89 -0.623714
-24.4319 127.493 -6.16991
-21.434 129.948 -7.69383
-21.4628 129.962 -7.66195
-25.6561 123.96 0.0563584
-23.716 126.523 -2.99791
14.0874 145.183 4.21441
-22.7048 129.318 -7.75781
-24.5436 127.187 -5.41434
-24.0721 128.15 -6.75486
-4.03105 135.179 3.2667
-23.5999 127.283 -4.22793
12.6695 145.878 1.27687
-23.7215 128.393 -6.6895
9.59726 146.224 -3.31487
-6.9668 133.617 3.14086
-24.4667 127.424 -5.34924
-12.1997 129.27 6.11163
3.84438 143.503 -4.4207
9.29841 146.83 -4.73547
-23.279 122.658 6.5469
-15.5102 126.552 7.90949
-9.14848 136.915 -6.42066
-27.1438 123.282 0.464844
11.707 146.301 -0.4209
-20.603 131.199 -8.35655
-26.4245 125.797 -3.98652
9.00217 143.312 2.86103
-11.6995 130.194 5.26238
-25.8011 126.562 -4.61491
-22.7541 128.233 -4.25125
3.85766 141.801 -0.0914968
-19.7799 124.148 8.37701
-7.96008 133.438 3.1771
5.25209 144.999 -5.1791
-20.3229 131.624 -8.34924
-23.9621 127.772 -4.59088
-24.6322 127.635 -5.13559
8.91624 143.934 1.91808
11.0767 146.769 -1.48707
12.248 146.569 0.418317
-24.6651 127.525 -4.7738
4.14936 142.196 -0.174973
-10.9638 131.592 3.74019
-13.485 129.111 5.93276
-26.9468 122.794 2.70516
8.18373 146.902 -5.14077
4.47871 144.542 -4.68736
11.559 147.104 -1.26062
-24.9294 126.405 -2.32474
14.274 147.698 0.985729
2.12764 140.437 1.40861
-14.7453 135.429 -8.93659
6.73505 143.996 -0.361531
6.18896 143.657 -0.315374
7.91303 146.94 -5.23735
-8.79735 133.312 3.20444
-25.5532 127.068 -4.21299
-19.7971 124.533 8.52522
-20.5978 131.316 -7.13859
-23.6108 128.168 -4.03357
-25.0071 127.483 -4.28088
-24.6122 127.48 -3.77113
-24.9298 128.293 -5.91554
-25.6978 126.479 -2.90013
-23.7069 123.711 5.6205
-1.89528 137.957 2.26759
-24.421 126.249 -0.724823
-24.948 127.451 -3.92035
-2.78773 137.447 2.39415
-13.212 136.899 -9.361
-26.646 125.995 -2.68301
-25.4596 123.448 4.31855
-25.4287 126.787 -2.79575
-2.38288 140.636 -3.73329
9.82289 144.523 3.2224
10.9298 144.808 4.00477
-13.3128 136.946 -9.45996
-25.4839 126.893 -3.01431
-25.1314 127.877 -4.6785
-25.0008 127.233 -3.11101
-24.0852 128.204 -4.04394
-9.4671 133.431 3.12393
-16.3652 127.2 7.99391
-26.5378 126.207 -2.63948
-22.485 130.057 -5.82403
-12.7308 137.256 -9.11149
-8.14832 138.61 -6.2435
-10.1341 138.262 -7.83992
-18.4112 133.136 -7.02808
-24.0974 128.493 -4.1165
-8.64964 138.604 -6.49605
-22.2223 130.412 -5.83748
-25.7531 127.316 -3.584
0.102053 139.739 2.10322
14.1891 148.081 1.85061
-24.4931 127.859 -3.04355
-24.5009 127.524 -2.25513
-27.9871 123.707 1.6209
13.5032 148.062 1.18669
-26.4921 126.447 -2.37141
-24.4624 128.634 -4.52917
9.69479 145.297 2.4646
-23.2053 129.775 -5.35917
-26.2748 126.591 -2.31375
-24.7813 127.682 -2.77048
5.50892 146.256 -4.75766
-21.8578 130.869 -5.90852
-26.6593 124.453 1.93668
-22.9968 129.319 -3.87384
-0.123789 142.429 -3.4436
-17.0374 134.352 -7.24622
-24.6426 128.25 -3.61829
-17.6056 126.883 8.1895
-13.098 137.674 -9.38102
-22.6352 129.98 -4.71141
-25.2675 126.935 -1.42872
11.5976 147.918 -0.413245
9.83578 145.391 2.84363
-24.9884 129.129 -5.74175
6.61582 144.943 -0.149351
-17.0754 134.354 -7.03906
-27.1689 124.246 2.1228
-19.4565 126.737 6.43669
6.76825 147.247 -4.88393
-14.5945 136.173 -7.77474
-24.8395 126.843 -0.488263
-6.58184 139.749 -5.39689
-15.3496 129.354 6.07024
-3.68882 137.835 2.48471
-5.98994 136.381 2.74142
-24.4855 128.41 -3.2732
-20.9586 131.611 -5.75188
-1.86248 139.05 2.23359
4.10269 145.429 -4.00338
7.97956 145.789 0.121372
10.0922 146.136 2.05582
12.1066 146.391 4.06689
-24.5491 129.328 -5.07439
9.41443 148.217 -3.13248
-25.8229 127.44 -2.51659
-27.1578 125.786 -0.616961
-26.4992 124.861 2.22415
-12.2729 131.574 5.62023
-25.5057 126.974 -0.987486
-12.9844 131.284 5.53242
-25.4892 129.123 -5.50662
-27.1174 126.017 -0.685941
5.97087 147.098 -4.63564
-23.4446 129.628 -3.832
3.13641 142.881 1.0241
10.8716 148.51 -1.30933
-7.93325 135.869 2.49352
-25.6803 127.918 -2.59642
-8.16659 135.719 2.5829
-24.2243 128.614 -2.23465
-25.8822 126.513 0.273693
-0.941244 140.197 2.0864
-19.1957 133.593 -6.56211
-24.6923 129.214 -4.00811
-28.4439 124.533 1.3956
10.4712 146.6 2.72084
13.7927 149.032 1.72081
-28.0757 124.513 2.16254
-15.6099 129.961 6.1061
-26.998 127.697 -3.30092
4.87568 144.65 0.163262
-8.13056 140.13 -6.42186
-23.4339 130.015 -3.77774
-13.8105 137.89 -8.64506
-26.0944 125.357 2.99554
-15.9967 135.555 -6.2293
-16.5069 129.333 6.68374
-26.1386 125.647 2.59756
-8.68711 140.223 -6.94993
-27.2512 126.078 0.302038
-27.3523 126.023 0.304964
-25.8359 127.468 -0.901663
-24.7521 129.142 -3.08255
9.80129 147.234 1.27435
-26.7107 126.405 0.378057
-25.1765 129.035 -3.27646
-12.5511 132.508 5.10362
-19.6011 128.329 5.29612
-23.0131 131.811 -6.49913
-25.1417 128.058 -1.03618
0.0399413 143.665 -3.0636
-1.65528 140.255 2.20414
11.0108 148.795 -0.284558
-18.3894 128.443 6.77458
-25.5001 127.582 -0.293563
-27.3058 127.996 -3.34298
-25.6226 128.135 -1.50735
-27.2724 126.425 0.235558
-23.4563 131.985 -6.9045
-5.46483 141.527 -4.76783
8.76509 149.417 -3.90113
-26.8972 126.398 1.01759
-13.9675 138.207 -8.19263
3.91864 144.487 0.747996
-8.37138 136.595 2.38034
-16.9091 135.298 -5.49824
-6.65359 141.406 -5.73683
-20.4766 132.818 -4.52012
-27.3487 126.406 0.697163
-6.54526 141.472 -5.68751
-2.58679 142.747 -3.45677
-20.6829 132.463 -3.96606
-15.848 136.17 -5.8744
-10.4207 135.148 3.28227
-27.1067 127.898 -1.94826
-27.4081 127.045 -0.413343
-5.99239 138.024 2.81674
-8.40472 136.9 2.2286
-7.79002 137.418 1.90144
-27.8171 125.133 3.27312
-27.2218 126.327 1.4531
-18.3287 134.785 -5.54084
-24.9477 129.547 -2.43831
-26.1223 127.54 0.425097
-18.8497 134.607 -5.69245
3.52736 144.52 1.06464
-25.5712 129.335 -2.63081
-27.1265 127.173 0.111808
8.29753 147.655 0.396604
10.2666 149.579 -1.28544
0.289309 142.367 1.8426
-6.66335 141.988 -6.03918
0.224317 144.566 -2.88814
-22.5028 127.174 6.19053
-22.3353 131.913 -3.82019
-29.0047 126.49 -0.452351
-27.3321 128.396 -2.433
-22.3529 132.406 -4.83181
-27.4901 126.723 1.0364
-27.3713 126.764 1.10738
-11.7977 140.025 -7.87187
1.0828 142.964 1.9883
-25.4545 126.455 4.46704
-24.3446 131.748 -5.57256
10.3296 148.714 1.49639
-26.2486 129.099 -2.06161
-7.14166 138.251 2.26618
-22.429 132.104 -3.64742
-27.3149 126.052 3.28996
-27.7462 127.003 0.709757
6.43811 147.07 0.363605
-5.10804 139.364 2.58222
-6.37942 142.548 -5.8944
-17.2218 130.521 6.47863
12.3467 149.375 2.92121
-28.0567 125.862 2.93319
-4.02743 143.145 -4.05723
-8.62095 137.763 1.82297
2.34049 146.334 -2.77543
-15.3941 132.036 5.88638
-10.4175 136.469 2.60443
-25.5383 130.125 -2.70014
12.7227 150.452 1.48645
-28.1894 129.802 -5.30688
-13.393 133.854 4.59265
-26.4417 129.379 -2.0768
4.34533 147.854 -3.24176
-16.5875 131.082 6.68267
-22.8495 132.618 -4.50304
6.40593 147.387 0.402021
-27.521 126.602 2.68556
-19.6182 134.479 -4.39818
-28.1878 126.928 1.16826
-27.6089 126.644 2.52651
-25.0577 132.43 -6.73522
-18.0017 130.661 5.96733
-28.3646 126.225 2.55399
-21.3743 133.918 -5.17395
-27.8744 126.423 2.85426
-23.0885 132.144 -3.48976
-21.7198 134.037 -5.8022
-20.4622 133.836 -3.7549
-15.9456 131.846 6.23437
-16.9924 131.206 6.31765
-28.6141 126.852 1.12532
-25.9425 130.604 -3.61166
-19.9783 134.006 -3.40559
10.2157 150.21 -0.329699
-28.7883 129.759 -5.07535
-22.6231 132.447 -3.07508
-16.8045 131.562 6.15552
-26.9937 129.215 -1.51249
12.0106 150.419 1.84446
-25.1042 132.517 -6.12838
6.81191 148.072 0.40424
2.29989 146.84 -2.57501
-14.7826 139.112 -7.2016
-26.3 130.978 -4.05041
8.28512 150.639 -3.02568
-28.4009 130.581 -5.80311
-27.7303 129.505 -2.62447
9.17534 150.633 -1.84373
-24.6394 133.278 -6.85436
9.97014 150.527 -0.589026
-10.5772 137.303 2.15913
-29.2342 128.749 -2.79909
-22.4654 134.605 -6.92654
-20.2049 134.813 -4.39087
-26.0295 130.828 -3.09026
-8.40378 138.858 1.72096
-28.2075 126.231 4.21476
-11.6442 136.678 2.49571
-25.1939 127.759 4.77109
-21.0109 134.433 -4.38331
11.4723 150.301 2.18808
-9.03592 138.726 1.4156
-6.56404 143.783 -6.38987
-28.5645 126.465 3.37755
-27.6858 131.507 -6.34319
-28.5875 126.693 2.93316
-29.8904 125.765 3.40909
-21.9647 129.787 4.71499
-13.1419 135.65 3.16032
-23.4035 128.918 4.84438
-25.5609 127.873 4.40481
11.882 151.404 0.644433
-28.2187 129.621 -2.69478
-26.8365 131.091 -4.11112
-18.042 136.02 -3.62082
-22.6448 129.391 4.93702
-28.6639 126.519 3.74288
-13.4559 140.441 -7.17573
-1.41304 143.113 2.20113
-28.8404 129.925 -3.69529
-18.7028 131.348 6.04451
-28.1618 126.476 4.89713
-26.2287 128.404 3.23615
-2.00099 145.576 -3.37496
-26.0563 128.517 3.25742
-28.3723 127.149 3.31501
-22.3887 135.1 -6.20875
-2.00708 145.663 -3.38591
10.8321 150.874 1.64635
7.27816 149.33 0.51805
-28.6478 127.542 2.43011
-18.5568 131.817 5.91622
5.23026 149.64 -2.68279
-3.88635 145.027 -4.16963
-4.82679 144.767 -4.74875
-14.4109 135.093 4.23689
-27.264 127.759 4.07078
-20.1308 135.267 -3.16409
-25.3325 128.32 5.4263
-6.91923 144.657 -6.62542
-30.0839 126.735 2.98245
-28.8923 126.773 4.4091
-22.9601 129.732 5.57685
9.16981 151.543 -1.0412
-13.2868 141.283 -6.9954
-9.62071 139.328 1.84771
6.83229 151.138 -2.88532
-27.0666 128.118 4.35329
-28.4866 127.111 4.97321
-26.8965 132.515 -4.69048
-10.874 138.938 1.655
-8.32078 144.435 -6.84677
9.31368 151.923 -0.775499
-28.6417 131.894 -5.2106
-30.1887 127.163 3.10071
8.38831 150.784 0.592038
-7.60493 140.83 2.02229
-11.3374 142.71 -6.59004
7.91651 150.531 0.74951
8.90108 151.04 0.985636
-11.1838 139.057 1.68675
-18.5719 136.833 -2.58211
-15.3884 140.446 -6.3637
-30.9921 129.716 -2.75545
-8.20947 140.778 2.00108
-24.4948 134.591 -5.01703
-31.2846 129.104 -1.67152
-4.28994 143.086 2.0961
-21.9835 131.281 5.37397
-27.5969 128.147 5.1608
8.49476 152.41 -1.85414
9.70017 151.66 1.3632
-10.9915 143.157 -6.2651
-30.8127 130.259 -3.23992
-6.59153 141.888 2.1801
8.3949 152.557 -1.9713
-25.9261 129.123 5.58237
7.25874 150.496 1.17251
-14.6551 136.549 3.76258
0.665967 146.052 2.49411
1.34369 148.783 -2.50228
-2.74347 147.037 -3.86181
-27.101 128.715 5.18726
-25.0407 129.586 5.93386
-24.4656 129.973 5.86847
-19.0039 133.062 6.06529
-28.0733 127.929 5.81942
0.756758 146.294 2.54172
-21.7207 131.597 6.14572
-31.3537 129.833 -2.10756
-14.1647 141.936 -6.33129
-18.9432 137.348 -2.3952
-15.3635 136.113 4.7924
-13.8721 142.153 -6.29676
-10.6874 143.99 -6.24199
-30.5037 130.792 -2.57853
-17.1977 139.687 -5.04026
-9.74546 140.324 3.11061
-26.3614 129.637 5.32472
-12.1224 143.193 -6.00041
-10.6349 140.017 2.87144
-19.5744 133.226 6.46026
-6.22459 146.818 -6.02533
-9.15208 145.456 -6.71734
-27.0989 129.156 5.95844
-17.9684 138.87 -3.46759
-16.4095 140.869 -5.8134
-18.6711 138.354 -3.06431
10.6473 153.494 1.08822
-22.7736 131.5 6.60271
-25.8325 130.101 5.86688
-2.53138 145.166 2.67237
-24.0516 136.567 -5.79643
-18.5757 138.475 -2.98285
-6.24187 142.81 3.29232
7.55282 152.98 -1.32895
-17.4599 135.069 5.9283
-3.8394 144.504 2.77403
-7.00009 146.856 -6.2561
-13.9537 138.375 3.48119
-28.3314 129.056 5.58424
-16.8969 135.748 5.51719
-2.84034 145.189 2.81063
-22.568 132.215 6.04659
-15.5569 141.82 -5.87947
-24.1711 136.757 -5.67326
-4.18094 147.933 -4.64268
-15.3881 137.438 4.04983
-6.46476 147.307 -6.03282
8.81097 153.007 0.861604
-15.2819 137.686 3.88329
-18.0724 139.46 -3.07152
-21.425 138.74 -5.72419
-27.6545 129.756 5.92725
-27.9284 129.696 5.76632
-18.9461 138.995 -2.9666
-28.6028 133.063 -2.17769
-17.4571 140.65 -4.44349
-28.3447 129.856 5.19881
-24.3572 131.283 7.15699
6.08456 152.997 -1.42591
-29.156 129.842 4.49818
-27.8151 130.147 5.53676
-15.6496 137.52 4.90532
-24.9879 131.081 7.26396
-7.05013 142.734 4.69916
-25.3631 136.28 -4.28158
-21.597 134.131 5.34111
-20.7153 134.517 5.66544
-18.8069 140.04 -3.64752
-5.36186 148.685 -5.22205
-16.9358 141.34 -3.8465
-28.4723 131.124 3.76922
7.63323 154.222 -0.724158
-10.9807 145.914 -6.07828
-19.0692 135.431 6.58197
-10.8078 141.458 3.95798
-8.32793 142.442 4.97036
-30.8451 132.354 -1.52548
-6.25418 148.582 -5.66362
-27.146 135.404 -3.43548
2.57219 152.245 -2.40195
-28.3592 134.292 -2.4628
-27.6523 135.15 -3.20338
-21.6372 134.832 5.05709
9.03061 154.65 0.841734
-24.0063 138.299 -5.3642
-27.8615 132.014 3.39067
-15.1067 139.307 3.68305
-22.508 138.941 -4.68532
-27.323 131.454 5.45185
-16.1591 138.416 4.47714
-1.09643 150.944 -3.44259
-12.2021 141.661 2.6811
-16.9674 142.275 -4.45051
-26.1051 131.8 6.73357
-29.2073 133.959 -1.7854
-14.0675 144.478 -5.45609
-14.3852 140.354 3.05898
8.78376 154.532 1.57474
-19.2386 140.894 -3.90496
-27.2546 135.889 -3.07709
-5.5842 149.485 -5.10369
-7.5895 148.794 -6.1096
-15.4266 143.744 -5.01831
-2.91548 150.553 -3.99933
-16.9055 141.814 -2.38651
-15.4712 143.937 -5.00245
-28.7874 134.983 -2.33429
-26.4437 133.165 4.63573
-22.8994 135.814 4.03408
-25.5365 133.711 5.29539
-30.4916 132.701 1.46368
-12.4467 142.383 3.29331
-21.9844 135.953 5.20879
-24.7677 134.304 5.28219
-24.2439 134.672 5.16875
-1.5305 151.837 -3.31258
-21.5497 140.335 -3.35772
-25.0826 134.948 3.89049
-27.8193 136.275 -2.34503
0.16137 152.79 -2.52124
-20.6606 141.115 -3.20611
-1.96973 152.086 -3.34369
-16.8214 143.081 -2.38533
-25.6248 138.408 -3.23389
-26.894 137.326 -2.3689
-11.3502 143.298 4.41936
-8.24214 149.799 -5.70274
-25.3417 135.917 2.86825
-2.15608 152.424 -3.30307
-7.77552 150.223 -5.48112
-5.87304 151.058 -4.77145
-14.1631 142.566 3.18995
-14.2185 142.589 3.22418
-26.2521 135.91 2.55408
-18.3778 143.013 -2.58071
-11.6565 148.558 -5.86787
-12.611 143.606 3.83601
-16.0628 141.239 4.65019
-0.453338 153.633 -2.27522
-16.6687 144.16 -2.07782
-13.2015 143.588 3.53742
0.964288 154.348 -1.78658
-23.3646 137.471 4.09803
-3.25317 152.571 -3.23855
-28.8733 136.013 0.533812
-6.24028 151.589 -4.47054
-25.4114 139.785 -2.92244
-21.6876 137.908 5.93096
-18.8847 139.412 6.30439
-16.8239 144.367 -1.74841
-14.3768 143.172 3.93325
-16.5882 144.551 -1.76129
-22.3506 141.647 -2.59911
-18.5304 143.914 -2.32968
-15.705 142.218 4.88745
-26.1892 139.302 -1.85412
-14.4655 147.353 -4.40554
-16.1915 145.211 -1.795
-27.692 138.112 -0.850909
-23.3498 138.28 4.63749
-16.3305 145.859 -2.88752
-27.9176 138.117 -0.557893
-4.87702 152.719 -3.11267
-14.8745 147.328 -4.01666
-20.7052 139.449 5.79169
-23.3583 138.418 4.82123
-26.5213 137.638 2.59738
-15.9454 146.127 -2.02267
-14.4128 143.78 5.00517
-13.4942 148.811 -4.53952
-13.9936 144.3 4.58496
-27.8079 138.533 -0.204176
-6.17192 152.678 -3.56105
-19.8633 144.379 -2.65445
-20.4687 140.061 5.92861
-20.6817 143.916 -2.62505
-8.78246 151.555 -4.11268
-15.5281 147.301 -3.05644
-18.6473 145.277 -2.39119
-22.6059 139.29 5.60408
-26.8623 139.719 -0.663179
-8.32293 151.963 -3.55559
-20.4049 140.515 6.00851
-12.1943 150.149 -4.4678
-13.3479 149.458 -4.28279
-24.4727 139.235 3.9056
-15.961 146.739 -1.54411
