ply
format ascii 1.0
comment Created by Open3D
element vertex 1923
property double x
property double y
property double z
end_header
29.3541 98.1469 -13.8717
32.997 91.7566 -3.6917
9.69996 102.02 -0.387801
24.5551 101.847 -16.599
40.3997 90.7958 -9.7033
6.14126 103.61 0.192787
0.461779 112.493 -13.2548
21.5657 103.532 -16.8079
8.81859 110.267 -17.4119
38.1994 93.2684 -12.3764
-12.2361 113.2 -0.200416
28.9868 98.828 -14.4107
34.0122 91.5624 -3.82357
-14.1564 117.389 -7.34436
26.6473 100.955 -16.4919
-12.3761 113.298 -0.166614
36.8708 90.696 -5.02112
-13.285 113.904 -0.375763
-2.21864 113.654 -12.1888
-0.980719 113.067 -12.1881
-7.87459 110.568 1.24777
28.8446 99.2199 -14.638
-13.8266 116.137 -4.39052
32.2593 96.7688 -12.9111
39.6552 90.2386 -6.62036
34.6049 95.737 -13.185
1.44389 112.87 -14.1335
-10.2271 112.372 0.129787
15.3126 107.625 -17.9114
42.1097 89.3095 -7.10223
33.1721 92.22 -3.46744
-14.6617 115.683 -2.04276
-13.4244 115.871 -3.762
28.5193 99.8253 -15.0426
-4.31029 107.72 4.27171
-4.86431 108.013 4.26783
-14.3055 115.038 -0.768488
21.4658 98.1567 -3.20982
12.9447 108.777 -17.3366
-11.8924 113.387 0.278157
6.20543 111.69 -16.1611
-9.59228 112.318 0.264973
-11.4307 118.13 -10.6433
21.3891 104.521 -16.9898
33.4177 96.7866 -13.2269
-9.43911 117.622 -11.463
38.6636 93.5317 -11.5565
-13.2492 118.98 -9.97716
-5.01666 108.446 4.31026
18.8334 106.383 -17.8696
25.801 102.441 -16.7817
20.2749 99.5709 -4.1394
-13.5301 117.169 -5.434
-2.78734 107.344 4.47575
4.98876 112.41 -15.5059
-13.6311 116.944 -4.667
36.5004 95.3419 -12.6382
14.475 102.771 -4.43403
21.968 104.599 -16.9046
12.8214 102.728 -2.3963
-6.67267 110.39 2.58342
41.043 91.0304 -7.73533
-15.6276 115.725 0.799936
-9.73124 118.191 -11.329
19.4221 100.454 -4.34605
1.92794 113.83 -14.5148
37.9614 91.5638 -5.25231
3.71717 105.994 1.10314
28.3391 101.27 -15.9789
-3.08818 107.859 4.62453
-18.4498 115.887 3.97012
11.7503 102.957 -1.02203
31.21 98.7458 -13.3768
12.6669 103.022 -2.03779
31.1498 94.1698 -3.02215
15.3956 102.956 -4.90368
-12.9248 117.871 -6.37023
-14.424 116.946 -2.51252
5.0901 112.947 -15.5076
-13.1185 117.831 -5.88062
-13.6657 119.695 -9.39438
-13.1748 119.692 -9.88313
1.88694 114.131 -14.3699
11.6367 103.304 -1.0364
28.1194 95.5115 -2.01273
24.0886 104.202 -16.8238
-2.81978 108.192 4.50307
9.33164 111.664 -16.8706
-17.1207 114.665 6.15455
26.4446 95.8669 -0.752032
-14.2689 118.135 -4.72539
19.8287 106.914 -17.9377
9.91969 104.194 -0.677406
-1.72822 114.925 -11.5355
18.5541 101.639 -4.51528
-14.669 119.279 -6.49132
-14.3697 118.249 -4.45229
21.7954 99.4592 -3.11475
-6.61458 111.046 2.93539
0.0808792 114.42 -12.1083
4.98521 113.439 -15.4182
-17.4122 114.863 6.62513
-5.34171 116.895 -11.4674
38.6317 94.5361 -10.9215
-6.93443 117.766 -11.5978
-17.7113 115.014 6.72213
-16.4019 117.464 -0.210853
-14.258 118.85 -5.70967
28.0922 102.385 -16.4959
40.649 92.3352 -8.10931
-14.609 118.543 -4.50344
-1.92699 108.266 4.1978
1.65421 114.524 -13.7669
-13.7554 119.191 -6.86446
9.52361 111.873 -16.6608
22.4657 105.624 -17.2418
29.8618 100.697 -14.5426
-14.2094 117.199 -1.86008
38.433 92.0605 -4.86076
1.32814 107.449 2.47221
-9.84655 113.589 1.42148
-17.8354 115.238 6.73054
-14.1858 117.868 -3.23839
41.3878 91.5648 -6.87157
28.7627 95.8213 -2.12526
9.22415 104.921 -0.486344
-13.5082 119.338 -7.13778
-7.67431 118.345 -11.4281
38.7249 94.6807 -10.6841
-12.653 115.813 -0.0298006
19.0016 101.91 -4.52733
19.2257 101.801 -4.531
-11.0584 114.538 1.10458
-18.2813 117.265 3.15259
-16.992 118.297 -0.514899
12.9634 103.884 -1.88507
-4.62126 109.73 4.84465
-13.5868 120.555 -9.23011
-17.4673 118.545 -0.366651
1.58819 107.807 2.29296
11.0322 111.399 -16.3368
-14.683 118.419 -3.11349
-14.313 117.077 -0.501994
29.0296 102.279 -16.1515
-12.3829 120.272 -9.75002
-18.3787 115.789 7.00827
-17.6901 117.09 3.45173
-13.7773 119.307 -5.89139
5.73953 113.911 -15.7488
-9.24189 113.481 2.04583
-15.7179 119.033 -3.0313
27.4998 103.471 -16.8401
32.0093 99.9023 -13.8829
-14.8302 118.63 -3.05991
16.7908 103.611 -5.02471
12.5094 104.126 -1.35987
-7.62996 112.891 1.76982
-17.631 119.126 -0.861222
16.003 109.471 -17.0852
20.7569 107.439 -17.8698
22.3326 106.529 -17.5674
41.1612 92.3131 -6.96184
34.2212 93.9637 -2.84447
-16.5517 118.878 -1.40296
-13.8012 119.206 -5.14529
37.1258 92.9269 -3.65424
21.8925 100.421 -3.26797
-15.6032 118.448 -1.35883
-14.0223 120.452 -7.60376
-9.81743 114.198 1.66337
-17.6555 118.839 0.116683
-17.3403 119.179 -0.987539
8.21775 113.193 -16.3388
2.18518 108.097 1.84375
35.3532 97.9807 -12.788
-13.834 119.418 -5.37046
7.72451 113.506 -16.3732
20.8719 101.405 -4.04801
18.3843 102.868 -4.51809
-15.2558 119.145 -3.01936
-14.2072 117.409 -0.269054
0.0543366 108.486 3.66733
-13.1492 119.564 -6.19896
-12.3845 115.979 0.971276
-15.6848 119.448 -3.01791
-6.04752 118.278 -11.226
-15.1292 118.965 -2.51791
30.4352 101.539 -14.7712
-14.2846 117.743 -0.590527
13.9133 111.023 -17.2177
-18.4005 117.628 4.39647
-14.0101 118.366 -2.10593
-14.001 118.368 -2.10928
-13.7431 118.62 -2.9529
-2.2915 109.652 4.22237
23.7334 106.35 -17.6217
-14.4299 118.358 -1.48025
10.873 105.361 -0.884148
8.36765 106.202 0.0728871
5.98149 114.539 -15.8182
-12.9994 121.163 -9.27559
-7.87966 113.342 2.44563
-14.7458 118.668 -1.72185
-18.4041 118.419 2.97451
28.3648 96.8086 -1.2861
3.46802 115.49 -15.0275
19.5225 102.735 -4.53727
11.1744 105.343 -0.976073
-16.7797 117.759 2.79292
10.7581 105.54 -0.783115
-14.6878 118.982 -2.20158
23.3311 106.874 -17.7886
-6.07633 111.95 3.98493
-17.4944 117.972 3.43787
12.5826 111.827 -16.5507
37.6809 93.5014 -3.73688
28.6119 103.682 -16.2192
38.8571 95.843 -10.1549
19.0315 103.331 -4.58645
-14.1059 118.42 -0.909349
-13.8295 117.551 0.804731
5.66868 107.702 0.953503
0.922175 109.194 2.98304
-18.1655 116.807 7.51496
-0.0158689 109.406 3.67944
-8.22566 113.898 2.90238
24.4979 106.646 -17.602
4.77233 115.605 -15.4402
39.5119 95.1848 -8.86194
-13.9613 118.229 -0.232796
13.5776 111.934 -17.0434
27.9333 104.401 -16.3456
17.9403 104.327 -4.93038
-18.21 118.061 5.05831
1.31732 109.319 2.65118
38.6473 93.5259 -4.01552
-15.8222 118.462 1.54167
24.5038 106.724 -17.5399
4.99801 108.213 1.07141
-15.4533 118.825 0.372739
28.39 97.3267 -0.856428
-13.994 118.913 -1.43483
21.3408 102.263 -3.8836
-7.5398 119.812 -10.6092
-16.6867 120.984 -2.93293
28.872 97.2372 -1.03245
-13.9305 118.945 -1.39371
-14.0874 121.565 -7.0464
15.4681 105.648 -4.69095
-14.2321 119.721 -2.7162
-17.5559 117.584 5.79154
16.7089 110.461 -16.7491
-10.6831 121.259 -10.0673
39.4893 93.4426 -4.30272
-7.11232 119.682 -10.5148
-15.7221 121.44 -4.71195
39.4529 93.484 -4.26206
-3.84954 118.195 -10.74
4.31385 108.753 1.18665
-5.07775 118.784 -10.643
-13.634 117.771 1.26337
13.3894 105.58 -1.86477
21.9153 102.088 -3.54637
-17.4906 117.024 7.38708
-14.1777 118.704 -0.0667846
-13.1262 119.805 -3.6985
19.2341 103.977 -4.70823
-15.9805 118.872 1.61062
24.9919 106.661 -17.1256
-13.6792 120.776 -5.19263
-13.3229 121.379 -6.9286
-16.7242 117.247 6.15092
-12.6706 117.287 1.63056
-13.5789 118.364 0.266938
-7.38853 120.031 -10.4077
-19.1587 119.577 3.90281
36.7885 94.5888 -3.09919
25.4023 99.0959 -0.306965
-18.6137 119.743 3.12005
31.5199 96.6657 -1.6762
-13.5707 118.602 0.0183285
-4.13424 111.608 5.04736
-13.6156 119.851 -2.70451
4.45777 108.998 1.23193
-14.2103 118.791 0.351096
15.5092 106.17 -4.84847
27.9787 105.005 -16.1677
32.8285 96.1775 -1.8603
-12.3144 117.311 1.7327
14.8104 106.12 -3.67534
7.49783 115.123 -15.5641
-14.0129 118.969 0.0449078
24.1662 107.684 -17.6101
25.5046 106.604 -16.6845
32.5777 101.974 -14.2397
24.3703 107.588 -17.4755
-12.9823 120.37 -3.99504
-18.9576 121.222 0.818115
4.1272 109.423 1.27797
37.818 94.6219 -3.50669
13.1617 112.985 -16.7823
-18.0056 119.275 4.27396
-16.8894 117.705 6.54391
-13.6725 120.489 -3.16709
30.2635 103.842 -15.356
-13.0783 120.899 -4.738
38.8425 96.8858 -9.42595
19.8399 104.405 -4.82624
34.1881 101.265 -13.7925
29.6775 104.346 -15.4928
12.3084 113.441 -16.2778
39.4983 95.9291 -7.55508
4.33821 109.706 1.26564
-11.2541 122.587 -9.93133
29.1359 104.834 -15.6121
2.52988 117.458 -13.8529
-14.4095 118.786 2.26612
19.7432 110.371 -17.3029
31.3071 103.544 -15.0419
-16.2175 119.308 3.17599
2.98785 110.319 1.73664
-13.2838 119.546 -0.587103
-19.6187 122.048 1.04206
-17.825 119.903 3.96563
-7.58818 120.976 -9.91953
-16.5226 118.541 5.56054
29.5306 98.1746 -0.698941
-20.63 121.175 4.31504
12.7784 106.852 -1.21285
-2.25762 111.868 4.77198
-20.3327 122.357 1.66633
-16.6261 117.712 7.89287
29.9749 104.638 -15.2523
-15.7082 119.665 2.54058
33.8927 96.6456 -1.77906
11.8257 114.117 -15.9799
-17.5542 119.835 4.36033
-13.1299 121.287 -3.82325
5.64016 109.614 1.16615
11.8693 107.275 -0.575344
15.9063 107.32 -5.17561
-17.337 119.61 4.82106
-21.6689 121.661 5.12985
-19.1344 119.335 7.51146
12.6217 114.105 -16.4382
-14.3996 122.102 -3.77431
13.0323 107.277 -1.46981
-13.2679 120.165 -0.686535
0.853601 117.833 -11.2153
-16.6242 120.048 3.49065
-17.1496 119.334 5.78769
-13.182 120.54 -1.36315
-11.4716 118.246 1.87246
-19.7305 123.054 0.415889
23.7631 109.258 -17.6199
26.4002 100.226 -0.306426
-13.1958 123.43 -7.61869
2.16532 118.19 -13.0962
-12.8448 123.176 -7.34521
-20.4974 123.132 1.37515
-13.0152 121.368 -3.06751
7.76042 116.343 -15.156
-7.24872 121.369 -9.50672
-15.9275 119.698 4.01005
-18.4014 119.093 8.15799
-17.6899 120.11 5.08841
15.6422 107.905 -5.04908
-16.9562 123.645 -3.55341
-14.5848 120.369 1.12618
-16.5195 119.091 6.18884
-12.7212 123.52 -7.95103
35.0481 96.8473 -2.03832
9.74015 115.357 -14.9093
-1.07089 118.674 -10.0907
33.9832 102.585 -13.5428
38.912 96.1258 -4.62909
-10.0081 117.321 3.09703
34.8879 97.0289 -2.00351
39.149 96.4361 -5.38259
-18.1428 123.601 -1.57403
-19.1033 119.911 7.78333
-0.967117 112.422 4.16571
8.30096 109.352 0.792889
38.1059 99.0689 -9.62605
20.3475 105.823 -4.73395
-11.2357 118.727 1.98872
8.80698 116.147 -14.7402
8.36482 116.429 -14.8673
-13.0858 122.611 -4.46186
31.0458 98.9596 -1.14656
-10.0402 123.376 -9.4997
-13.9604 119.593 3.51308
-3.05776 113.251 5.42948
-8.96735 116.912 3.92069
-13.2183 122.784 -4.40338
24.9768 101.989 -0.787473
-12.429 119.776 1.59028
-16.071 120.228 4.70131
-1.38296 119.312 -9.7002
-5.94552 121.505 -9.47027
-18.4956 119.905 8.21418
-19.9582 123.76 1.26685
-2.09437 113.215 4.75592
37.9136 98.5968 -7.5495
-10.7273 118.671 2.302
-8.99952 117.12 3.845
32.8049 98.4874 -1.47259
28.8724 100.156 -0.727205
-18.5134 124.62 -2.10426
3.9444 111.679 1.59034
38.0128 98.4543 -7.14695
12.7895 108.446 -1.0816
-17.5764 119.528 8.29694
23.5583 103.819 -2.70051
20.8729 111.631 -17.1238
34.397 98.0338 -1.94886
-20.5441 123.382 3.22449
-12.6787 120.041 1.8541
-18.5903 124.872 -2.28067
29.4057 100.096 -0.837381
-13.154 123.256 -4.66381
-9.29199 117.656 3.51373
34.399 103.045 -12.8507
-12.3478 119.752 2.40076
10.7377 109.062 0.385893
-3.66898 120.715 -9.4308
-20.0291 121.386 7.53474
-16.8959 124.677 -3.18407
5.18582 111.526 1.37763
-10.8046 119.108 2.50763
-12.6182 119.907 2.90184
-11.2231 124.765 -9.50263
13.3196 108.906 -1.62612
28.9109 106.715 -14.1865
6.93348 110.983 1.08717
-7.1129 116.331 4.93827
-6.24248 122.267 -9.24933
-5.30712 115.194 5.55708
8.96914 110.153 0.814649
25.4842 109.389 -16.0323
7.12569 111.014 1.08349
-20.1972 123.81 3.31781
-15.2184 120.831 4.381
-8.09105 117.233 4.44949
10.2055 109.81 0.630495
-13.9624 124.384 -4.73751
-17.7142 125.685 -3.37726
-13.3946 124.877 -6.394
28.4679 101.079 -0.267018
-11.9438 119.98 2.975
12.5352 116.278 -16.1003
30.8316 105.985 -13.6066
7.90701 117.849 -14.3269
6.97162 111.435 1.17212
0.951279 119.881 -10.7406
12.7825 109.553 -0.942183
10.5462 116.814 -14.6275
17.2624 109.281 -5.32644
-18.6347 125.981 -2.25092
37.4778 100.227 -7.76373
37.6559 99.3529 -6.0092
-2.21631 114.732 4.46227
-12.6758 120.714 2.91308
-2.16718 114.768 4.41124
-10.0338 124.755 -9.01968
37.6217 98.3159 -3.51711
27.1836 108.446 -14.3408
15.0399 115.745 -16.8925
27.5032 101.961 0.0281491
-14.5637 121.431 3.85479
-13.8259 120.745 4.58163
18.2947 108.981 -5.19934
13.9268 110.379 -3.34184
9.82415 110.551 0.888445
-19.792 124.297 3.47967
-11.0546 125.568 -9.17519
31.5642 105.921 -13.1613
0.232885 114.303 3.3417
36.4902 98.6357 -2.37762
3.03983 113.379 2.35368
8.51993 111.264 1.08466
-18.8387 125.216 0.80889
36.1583 102.717 -10.7315
-17.0448 126.208 -3.38372
7.65476 111.736 1.1958
3.25425 120.397 -13.201
-12.5457 121.377 2.56663
26.1452 103.16 -0.213641
37.0371 99.8336 -4.77677
-1.23229 115.21 3.92018
-6.6694 123.746 -9.02129
25.4148 104.054 -1.03246
21.5353 107.514 -4.25849
-18.7066 126.01 -0.28187
36.8911 99.4994 -3.51191
37.0975 102.075 -9.42289
-9.22714 125.291 -9.14985
6.2981 119.758 -14.198
-3.74033 115.84 5.84125
23.678 112.361 -17.1062
10.7654 117.844 -14.7803
-13.9261 121.833 4.12731
12.3065 117.489 -15.6055
36.9299 99.784 -3.72682
15.4107 111.13 -4.86564
28.8661 108.163 -13.2964
31.0775 101.451 -0.781556
-18.7569 122.529 8.14856
36.2869 103.098 -10.2519
-15.2582 125.989 -3.44025
-12.8726 121.035 5.13962
-15.8379 126.357 -3.29598
-19.5624 123.499 7.34119
-5.05112 123.551 -9.06534
26.1038 110.513 -14.8974
-1.73519 122.016 -9.28742
-15.1089 126.564 -4.38762
7.6031 112.577 1.38704
9.49936 118.729 -14.4724
1.61778 114.82 3.12705
-5.02944 123.644 -9.07405
4.08705 121.041 -13.4953
-11.0795 121.415 2.73518
16.661 111.064 -5.30706
28.8927 108.483 -13.1886
18.8565 109.918 -5.10892
5.32957 120.717 -13.9861
0.970804 121.22 -10.1477
-2.06078 116.23 4.46089
-10.0924 120.61 3.89748
7.48088 119.592 -13.5651
34.9222 104.77 -11.256
14.3827 112.101 -4.49057
-10.7896 126.688 -8.76197
8.34461 119.463 -13.9548
17.3713 111.113 -5.27123
31.1687 107.373 -12.4146
20.0697 115.15 -17.148
-4.17742 117.185 5.57217
18.1134 110.797 -5.19776
19.7039 115.407 -17.218
34.9174 100.922 -1.81824
-10.273 126.983 -9.22773
-10.7948 121.867 2.7871
21.0747 109.049 -4.39646
-0.425881 121.955 -9.05312
-1.6975 122.667 -9.19821
9.00025 119.611 -14.3043
-9.76195 120.933 3.82597
25.8355 105.175 -0.959833
9.0774 119.632 -14.3454
12.8153 111.935 -1.28863
25.3062 105.833 -1.63907
-19.2857 124.222 7.43789
34.7385 105.391 -11.0348
8.03988 113.181 1.5839
-11.226 121.975 3.60772
-0.315825 116.427 3.79798
-13.8434 127.005 -4.44037
-10.6382 122.129 2.84656
-5.88211 125.143 -9.21931
12.1479 118.876 -15.4059
-6.18487 118.895 5.22323
33.7611 101.876 -1.57842
35.3919 101.195 -1.86167
36.3905 103.868 -8.90699
-10.4924 122.024 3.23959
12.8354 112.378 -1.4045
-13.8395 122.212 6.63831
-17.2136 123.091 8.47082
-8.99498 120.938 4.04796
12.1676 119.081 -15.4196
27.5327 110.31 -13.0729
-12.2524 127.495 -6.72651
-9.2039 121.346 3.68512
-5.93018 125.549 -9.31305
-18.0644 127.147 0.818048
28.7468 109.691 -12.7683
-2.4264 123.724 -9.07381
-18.9319 125.038 6.6799
-18.6513 124.211 8.23808
-18.6767 125.586 5.27151
23.0105 108.611 -3.63505
9.28424 120.331 -14.3393
-9.73354 122.189 2.91787
20.0405 116.348 -17.4849
33.3299 102.364 -1.17331
-17.3887 128.376 -2.23922
25.0383 107.065 -2.27935
-0.642304 122.969 -8.92229
0.936491 122.516 -9.65144
30.3021 108.995 -12.4021
-3.09712 117.668 5.80005
34.8393 105.83 -10.3768
23.2363 108.608 -3.52743
4.67121 115.041 2.97505
-17.6073 128.498 -2.01552
-17.7754 128.167 -1.06386
22.9378 114.962 -17.2916
-11.6784 122.406 5.02593
-2.26286 123.931 -8.95797
31.9817 107.959 -11.7408
26.0074 112.166 -14.3915
-16.0172 128.35 -3.2268
19.6015 111.168 -4.86864
0.987603 116.753 3.64674
-18.6283 126.391 4.19639
2.2868 116.107 3.73778
35.1107 105.706 -9.90807
27.2298 111.154 -13.1339
-9.13543 122.238 3.01836
-12.475 122.614 5.96154
36.4167 102.755 -4.56826
-17.7694 128.656 -1.50314
13.7753 113.824 -3.80542
18.2723 117.6 -17.1421
-18.4379 127.119 2.91095
15.8902 118.462 -16.1113
-18.9866 125.812 6.70022
-10.0665 128.928 -10.2415
17.9669 117.857 -16.993
22.8069 115.481 -17.1257
-8.67031 122.245 3.15355
22.802 109.498 -3.73261
-18.9595 125.943 6.5557
-4.48397 125.685 -9.13035
-12.3484 128.493 -6.53708
-18.9397 125.316 7.96636
36.3725 104.378 -7.37492
-3.1258 124.951 -8.88596
-9.65666 122.864 3.19878
-0.898058 123.788 -8.67189
26.1138 106.714 -0.872055
36.2836 103 -3.99171
-17.4767 124.683 8.39081
2.50699 123.281 -10.8937
16.0035 113.89 -5.07323
26.5045 106.501 -0.363695
12.2609 113.786 -0.625338
10.3526 120.88 -14.2299
35.3472 103.07 -2.48102
-13.2627 128.185 -3.92553
13.6101 119.969 -15.662
10.6592 120.887 -14.3818
6.40626 115.342 2.86321
-18.9753 125.969 7.65554
36.0348 103.554 -4.04813
35.0604 106.375 -9.17871
-13.7452 128.673 -4.07496
26.3396 106.99 -0.665072
-5.84873 126.989 -9.1538
-5.83795 120.815 4.69127
10.0086 121.264 -14.0284
12.9252 114.618 -2.42224
28.2412 105.904 -0.161702
-12.539 129.023 -5.92376
3.55954 123.637 -11.8005
26.0261 113.138 -13.5481
-9.41553 123.517 3.12793
13.3027 120.401 -15.4212
6.56496 122.813 -13.1969
-13.3795 127.96 -2.2198
-8.87999 123.544 2.58866
-16.4318 129.304 -1.75217
29.8799 110.589 -11.9499
29.1992 105.714 -0.0930563
16.8705 118.912 -15.6022
34.6583 104.163 -2.64328
24.4474 114.909 -15.077
7.94177 122.323 -12.9667
25.0781 114.453 -14.5955
18.3211 113.676 -5.1668
7.46396 122.69 -13.0177
13.4638 115.589 -3.81417
12.3604 115.211 -1.65024
-5.04478 127.171 -8.78189
-2.80908 119.646 5.56318
-9.26738 129.906 -10.0907
4.79343 117.004 2.9272
-17.0186 125.497 8.4818
6.93388 116.172 2.3925
-17.7949 129.283 0.966014
7.75076 115.859 2.33592
-8.58965 124.087 2.45847
3.85668 117.439 3.33088
32.2652 109.548 -10.9554
-10.3369 123.444 5.90864
11.2531 114.949 0.715429
-6.20748 128.033 -8.85202
22.683 111.194 -3.69634
-4.73614 121.388 4.37818
22.936 116.824 -16.4416
-12.7723 124.651 6.26485
26.676 113.385 -12.8935
34.5109 104.864 -2.64012
32.6123 104.856 -0.485792
-3.96963 120.613 5.43347
-14.8982 130.062 -3.32847
-6.55556 123.279 2.45379
-18.2163 128.391 4.18134
-10.4707 123.428 6.62164
25.2045 114.996 -14.528
19.0644 119.124 -16.8399
-11.0278 129.777 -6.72142
-6.1859 123.259 2.43942
30.9774 110.672 -11.2088
6.39082 117.032 2.27072
9.5159 115.597 1.9812
27.8496 112.614 -11.9259
26.5279 113.888 -13.2093
-6.21943 123.394 2.36648
25.9041 109.19 -2.00355
-3.94698 121.033 5.11367
17.9715 119.462 -16.0024
-6.55608 123.663 2.19522
-0.627471 125.381 -8.27505
-1.92133 125.989 -8.14008
18.9827 114.132 -5.04576
11.4724 122.061 -14.3126
3.86315 124.565 -11.3517
35.8225 105.228 -4.05437
23.3215 116.869 -15.9844
-16.1548 130.446 -1.87984
-3.66995 120.914 5.45556
10.4994 115.722 1.33751
33.5898 108.767 -8.93784
28.9532 112.197 -11.3746
-4.79482 122.244 4.16103
-15.7247 130.827 -2.61302
26.0602 109.465 -1.79029
1.30156 125.261 -9.18844
-13.8318 126.064 6.04422
23.9238 116.628 -15.2939
32.1943 110.402 -10.6094
22.0261 118.241 -16.6011
2.17614 119.276 3.45889
-10.7736 130.262 -6.46112
-18.5655 128.172 6.96632
-18.0925 128.866 4.96815
35.2488 105.894 -3.52402
-17.8367 127.321 8.3713
6.2507 118.061 2.04435
17.0668 120.554 -15.6289
-9.70253 124.149 6.4251
18.0465 120.14 -15.7245
34.0361 108.368 -7.38544
35.2771 106.798 -5.26283
-13.9419 130.532 -2.90806
3.10863 125.26 -10.285
29.7959 112.11 -10.8952
26.6592 114.919 -13.3834
31.8384 111.003 -10.4385
-9.51926 131.332 -9.30712
2.21727 125.613 -9.71829
-16.0339 127.316 6.99938
17.9961 120.32 -15.6065
29.9755 112.109 -10.68
-17.8077 131.275 0.244208
1.65991 120.058 3.44837
3.91698 125.371 -10.9481
34.9498 107.634 -6.12301
-7.68786 125.307 2.41736
11.7319 117.283 -1.42254
-9.78041 125.123 5.38142
10.4208 123.012 -12.5555
-17.7398 130.377 2.7435
17.0328 121.176 -15.7637
3.52734 119.378 3.45506
-14.0253 127.006 6.18386
-14.3111 127.122 6.32899
33.4064 106.626 -1.35207
30.2445 112.18 -10.1864
20.2144 120.322 -17.0336
-18.2199 131.276 1.70586
-3.07449 122.007 5.43311
28.9952 108.102 0.58803
12.8902 118.044 -3.4924
-7.29776 125.524 2.54075
18.3536 121.185 -16.5865
-9.85188 131.713 -8.38502
23.4927 112.655 -3.21588
-13.0024 130.714 -2.49965
34.7901 108.329 -6.19442
-17.2396 128.233 7.87039
4.15066 119.623 3.06755
-18.2021 131.339 2.04128
11.6097 123.262 -13.2437
-17.7229 131.686 0.905317
-13.0361 131.066 -2.9744
34.9617 108.253 -5.94558
30.1257 112.47 -9.84913
13.1594 118.278 -3.74746
20.1353 120.639 -16.8286
34.933 107.94 -4.89256
-13.1626 131.355 -3.1119
-17.1532 132.236 -0.490801
-18.096 131.282 2.71288
-2.17086 122.123 5.2834
14.0379 118.322 -4.35925
21.9555 119.819 -16.5577
33.4657 107.296 -1.49093
21.8853 119.89 -16.5969
24.6776 117.578 -14.5165
18.6745 121.744 -17.0591
6.50851 125.623 -12.0152
-4.6556 129.616 -8.3823
-18.0376 131.519 2.44619
10.835 117.939 0.343986
-12.6558 127.071 6.39725
20.4592 120.9 -16.9916
12.5527 123.566 -13.9862
-4.52715 124.457 3.23508
-18.105 131.509 2.7842
2.99432 126.592 -9.7845
-13.1679 131.269 -1.91543
-2.47227 122.716 5.19045
33.6249 107.652 -1.7166
-14.9229 132.139 -1.83253
0.132396 127.314 -7.96243
25.1498 117.59 -14.3229
-9.14739 126.347 4.69962
33.4953 110.419 -7.54767
10.5507 124.06 -12.1885
34.1218 108.242 -3.32549
-12.957 131.547 -2.39796
-9.22951 132.398 -8.46086
20.8693 120.431 -15.525
21.2062 120.278 -15.5529
26.4927 116.813 -13.6785
-15.4667 132.404 -1.24831
33.9949 108.163 -2.65057
33.9889 108.24 -2.80115
24.262 118.439 -14.5915
-1.81397 122.725 5.15153
27.412 116.085 -12.7991
16.294 122.624 -14.8844
17.284 117.76 -5.11383
-14.435 132.221 -1.73733
14.4973 118.993 -4.65432
3.3905 126.999 -9.87295
-5.69708 125.874 2.86351
27.9244 115.761 -12.2502
10.8366 119.018 -0.225121
33.2586 111.15 -7.81921
-4.14406 124.906 3.67634
11.3464 119.391 -1.41371
10.6508 119.015 0.253856
17.9644 123.039 -16.9439
28.3627 115.494 -11.7699
-4.6774 125.617 2.79416
6.95029 120.47 1.26595
22.4153 119.674 -14.3245
-7.86455 132.866 -9.76037
-16.8282 129.418 8.02564
22.3681 119.562 -13.8822
16.41 123.186 -15.2696
23.9149 118.992 -14.2573
0.353706 127.991 -7.82572
28.7268 115.294 -11.3379
18.7491 122.32 -15.7183
-10.2121 127.045 6.33833
24.9089 118.528 -14.0823
-16.4484 132.835 0.475666
-5.41004 126.159 2.98297
19.9755 121.383 -14.5375
34.0646 110.614 -6.28698
4.66341 127.447 -10.8389
12.1732 124.487 -12.6317
-6.36562 132.203 -8.89529
31.7856 109.112 -0.165313
-6.37326 132.274 -8.88883
18.2387 118.178 -4.99991
15.71 123.968 -14.9438
-0.831075 123.589 4.4929
-16.6045 132.549 2.23062
6.77773 121.339 1.12047
-12.308 128.693 6.21652
-14.4215 133.018 -0.993825
11.2637 120.342 -1.47619
-17.6207 132.126 4.68618
33.0783 109.548 -1.83718
5.07843 121.94 2.23736
0.271136 123.54 4.07983
27.4887 111.599 0.509919
13.1293 120.784 -3.76582
13.1169 125.047 -13.1995
4.54125 122.291 2.60571
-9.65987 133.834 -7.14906
20.2448 117.613 -4.48764
25.5292 118.76 -12.9374
-15.5811 133.874 -0.415395
19.2449 122.804 -14.7889
21.0701 121.376 -13.6444
0.460942 123.99 3.70176
-8.52732 134 -8.51147
32.9056 110.867 -3.4043
33.8174 111.463 -5.74144
-3.96407 126.544 3.05492
-5.02937 127.308 2.70654
-17.1711 132.777 4.14755
-12.7022 133.353 -2.10233
28.0439 111.566 0.782843
26.9935 118.138 -12.7071
7.76221 121.564 1.38457
13.2916 121.165 -3.9111
23.232 115.855 -3.21961
33.433 111.745 -5.43207
31.4921 110.47 -0.378823
-10.6466 128.895 5.82783
11.8804 126.158 -13.3359
22.2629 120.169 -11.621
16.1219 120.385 -5.07061
13.2726 125.766 -13.6863
11.5979 126.109 -12.4727
18.4999 124.114 -15.7355
12.818 121.51 -3.52421
4.60424 128.688 -10.2674
-5.64082 133.012 -8.36992
13.9308 126.097 -14.902
-0.132919 129.754 -7.15926
-1.21057 125.859 2.91794
21.8344 117.293 -3.8096
-13.9194 134.044 -1.01974
29.5946 111.331 0.830836
8.22848 127.356 -10.9301
33.5511 112.408 -5.96371
-15.7558 130.77 8.44371
25.6586 119.014 -11.8051
-4.69479 132.574 -7.87705
32.4865 111.931 -3.46404
5.29506 128.84 -10.6369
-3.80339 127.465 2.69308
30.3022 115.785 -9.5091
10.1088 121.563 0.489008
2.68378 123.863 3.7066
-9.0791 129.034 5.40853
-6.17127 133.915 -8.72889
25.7836 119.034 -11.3829
-7.05876 128.508 4.40901
-15.527 133.784 2.14398
-16.9338 131.803 8.16387
-8.23249 128.74 5.24899
9.52167 121.503 1.60785
10.1862 121.734 0.451623
-1.72541 126.742 2.7497
9.41736 121.585 1.79587
17.0289 120.863 -5.09326
26.5701 118.71 -10.9573
-14.938 130.972 8.3728
-12.8158 135.479 -3.95626
12.3103 127.635 -14.6471
1.39197 125.203 3.37
32.2782 114.232 -6.8301
16.4031 126.472 -16.0377
-16.9073 133.443 5.83855
-12.3821 134.59 -1.79731
-6.23307 129.064 3.6509
13.6986 122.562 -4.19062
5.78996 129.479 -10.3375
-3.34163 132.677 -7.20015
11.0968 122.575 -0.829588
27.6631 113.433 1.01543
2.72968 130.36 -8.62879
8.92616 128.156 -10.6194
-1.97858 127.772 2.53141
23.7584 120.508 -10.1474
26.5469 114.331 0.591981
21.3008 122.362 -11.4168
16.5878 121.898 -5.05705
3.35778 130.441 -9.11346
23.8444 117.114 -2.37085
11.7807 123.098 -2.15091
15.2545 122.621 -4.98239
10.6136 122.628 0.218522
21.9329 122.096 -11.2589
23.6727 117.382 -2.43818
9.59897 128.283 -10.928
16.9605 126.801 -15.7543
11.2668 128.755 -13.7019
-12.1669 135.18 -1.71393
-15.737 132.328 8.6711
-7.58343 136.107 -8.88252
31.571 115.764 -7.3885
-1.56588 132.223 -6.88343
2.06296 125.921 3.19597
1.98667 126.033 3.06639
23.79 121.389 -10.9324
5.94543 129.997 -10.0832
18.0269 126.511 -15.7918
19.4844 124.611 -13.0938
32.2628 115.332 -6.71745
-16.0404 134.905 3.8922
2.01555 126.8 1.78856
-3.95614 133.927 -7.3359
31.5354 116.105 -7.38742
20.0262 124.125 -12.2797
28.9082 118.379 -9.41963
11.0382 123.288 -0.262322
10.481 128.595 -11.4841
25.6782 119.743 -8.77932
1.72603 126.783 2.45761
29.5865 113.53 0.752452
-10.5686 136.707 -5.85194
27.2906 119.043 -8.89822
23.9437 117.542 -1.73321
10.723 129.248 -12.9292
-2.21522 133.128 -6.87043
0.356647 127.471 2.93508
15.601 128.343 -16.1068
5.46687 125.882 0.850734
17.7662 126.988 -15.4288
19.2549 124.922 -12.4022
-9.79926 136.949 -6.60803
23.495 118.191 -2.12566
-14.2403 135.764 1.08488
-0.212792 128.062 2.62136
23.7339 122.376 -11.5831
-13.4754 132.237 8.45772
1.94721 131.754 -7.78962
-14.1475 135.941 0.96344
-0.767365 128.581 2.43768
0.248177 127.938 2.8353
11.6742 124.039 -1.29016
-4.14597 134.826 -7.58699
2.16878 131.885 -7.91342
13.598 124.492 -4.24054
7.03243 130.311 -9.78606
-11.6641 132.062 7.40473
19.6081 121.648 -4.3673
23.7072 122.884 -11.5739
22.5808 119.754 -3.26795
28.701 114.823 0.977732
13.8128 129.761 -15.6431
19.3958 121.939 -4.42752
10.0566 130.065 -12.0526
2.80093 127.735 1.4415
-3.86988 135.081 -7.3823
11.6241 124.399 -0.931509
6.49872 126.002 1.24977
23.192 119.141 -2.14077
23.9981 118.219 -0.975338
31.0816 115.332 -2.3657
-16.228 134.861 7.35026
18.1983 126.662 -13.0079
21.2916 126.072 -15.0271
13.3513 130.261 -15.4474
-9.04235 137.711 -6.90715
9.79657 124.683 1.04039
27.806 119.398 -7.35864
28.1989 119.205 -7.31875
-14.0898 136.398 1.87602
9.56042 130.423 -11.2951
28.5855 119.07 -7.30538
12.0738 124.862 -1.68665
7.17315 130.856 -9.5267
15.6502 124.617 -4.98657
3.82011 127.771 1.27472
-13.6723 136.729 0.956254
27.5381 116.002 0.945999
-12.122 138.049 -3.72121
29.2733 118.868 -7.29199
-14.3351 133.655 8.71068
27.6608 116.027 0.908582
22.2382 125.018 -13.0092
17.816 127.545 -13.5589
9.27652 130.55 -10.6635
6.83126 131.199 -9.35208
23.0119 124.472 -12.4645
20.6877 125.624 -12.4232
-15.7109 136.179 4.93529
-4.63935 136.285 -7.70836
21.1949 126.845 -15.631
-12.1636 138.315 -3.71124
-11.7866 136.93 -1.03487
-4.43682 131.634 2.62879
-4.46992 136.234 -7.60026
-6.51672 131.815 4.57831
24.4657 123.384 -11.2543
-1.90016 131.049 1.27362
21.9992 126.612 -15.6641
22.9813 126.044 -15.474
-15.6822 136.33 5.12393
7.77531 131.13 -9.56899
-6.19263 137.771 -8.62734
-0.747306 130.685 1.08541
-15.7077 137.081 3.7365
-12.054 133.055 8.64732
4.07245 128.211 1.36943
23.0049 126.39 -15.7624
20.2514 122.626 -4.26003
-7.31852 138.191 -8.03374
23.901 124.03 -11.4586
-0.340358 134 -6.46411
-13.2629 137.195 0.926495
30.9515 116.6 -2.64773
24.7157 124.241 -12.7001
31.2122 116.75 -3.2306
23.2696 119.886 -1.29939
27.2179 121.152 -8.53399
-13.5278 137.196 1.50036
22.4419 120.936 -2.5687
9.21653 131.512 -11.1541
26.6144 122.102 -9.61078
2.57065 129.403 1.11449
-14.9247 135.046 8.21273
-5.52698 132.458 3.47726
29.6325 116.684 -0.779377
27.6528 120.791 -7.5759
-0.932201 134.613 -6.27795
-12.0774 137.608 -0.424749
3.06176 129.258 1.29728
17.4993 128.306 -12.7844
24.0084 126.892 -16.9169
13.3266 131.476 -15.1272
25.1139 123.659 -10.8805
2.25194 129.925 0.826998
24.6873 124.011 -11.1611
23.7373 124.727 -11.655
-15.566 136.055 7.31266
21.6419 122.137 -3.40465
-12.5125 137.742 0.242842
30.5863 117.222 -2.33839
-4.92539 137.415 -7.50471
-9.13548 139.214 -6.75016
22.8654 127.789 -17.1865
23.1255 120.491 -1.17718
23.8722 127.396 -17.3877
-15.8351 136.912 6.00527
28.3835 120.242 -6.44383
-7.49574 132.858 5.74207
31.4041 118.086 -4.94304
24.1326 119.417 0.261813
-0.286424 131.342 1.07065
-15.7013 136.547 6.82895
26.7011 117.91 1.04362
23.6299 120.058 -0.303026
-8.20343 139.268 -7.40118
11.9514 126.293 -1.04883
-4.67612 137.448 -7.25145
20.097 123.752 -4.34304
25.5276 124.603 -12.2759
24.0172 127.736 -17.5699
21.4644 126.338 -11.5404
15.6816 131.244 -15.9088
-4.10278 137.215 -6.97717
30.3625 117.74 -2.20255
-8.8736 139.576 -6.87994
-7.95287 139.405 -7.52692
18.168 128.815 -12.9459
9.00629 132.813 -11.5648
24.4954 125.234 -12.0317
19.7442 128.893 -14.8244
22.3689 126.928 -13.3723
22.5161 121.55 -1.48025
28.4568 120.694 -6.23825
18.229 125.19 -4.76121
-10.872 133.936 8.4236
5.61112 133.316 -8.70371
-12.0139 134.446 8.60446
-11.0779 139.588 -3.92314
9.61774 133.157 -12.8123
17.0329 130.432 -15.0472
23.2127 126.296 -12.6765
12.867 127.257 -2.90788
13.3584 132.404 -14.8999
20.5906 128.332 -13.9304
-12.5948 134.963 8.64431
14.8762 127.225 -4.85635
21.5516 127.751 -13.3766
5.51395 129.098 1.76314
30.8569 119.133 -4.41178
26.6726 123.478 -9.39436
-13.8223 138.672 2.17979
22.2239 127.396 -13.0578
9.2051 127.357 1.72613
27.6278 118.649 0.47376
-11.4606 134.717 8.51866
17.1156 131.028 -15.3453
17.1317 130.906 -15.0854
4.77689 133.857 -7.78076
24.595 125.284 -10.8859
30.8881 118.969 -3.83907
24.0121 128.477 -17.326
24.6442 125.304 -10.887
7.69051 128.095 1.93166
-4.51474 134.067 2.32902
23.9251 120.572 0.52967
1.31081 134.993 -6.24016
8.89466 133.869 -12.2249
16.6125 131.503 -15.538
-15.1604 137.591 6.58555
18.1498 125.971 -4.7901
-11.0325 140.274 -3.90911
20.8997 128.365 -13.1775
25.7199 125.225 -11.5509
27.9304 122.055 -6.89455
-5.63671 134.025 4.23522
-14.856 139.033 3.46053
17.2444 130.936 -14.5216
-4.14837 134.504 1.60508
9.48852 127.68 1.54636
25.8545 127.909 -17.3541
2.23438 131.708 0.727835
11.4048 127.71 -0.62805
15.246 132.575 -15.8094
24.9191 125.455 -10.726
-5.10446 134.666 2.44458
-11.9149 135.379 8.53376
19.8301 129.937 -14.9817
25.2611 125.401 -10.9368
12.6879 133.287 -14.4019
19.9683 128.644 -12.1761
-5.32033 139.285 -7.51269
13.162 128.205 -3.52548
-14.7414 139.255 3.37514
25.0926 125.471 -10.5976
23.2811 126.931 -11.7655
26.259 127.87 -17.1465
-8.56197 140.677 -6.61549
26.1501 125.091 -10.8068
26.6207 123.765 -8.35292
-5.8973 134.992 3.124
5.30959 134.567 -8.50494
20.6623 129.178 -13.6754
21.0483 128.052 -11.5569
6.06984 134.586 -9.22289
17.771 130.178 -12.4788
-8.04801 134.794 6.23385
23.449 126.873 -11.4606
25.0534 125.79 -10.6971
27.5118 119.693 0.177848
30.2737 119.735 -3.00216
7.03428 134.549 -9.94079
-11.1838 140.977 -3.70967
-3.13411 138.241 -6.6294
-9.38697 135.071 7.61754
20.46 128.444 -11.0978
24.8213 125.727 -9.84543
26.427 124.984 -9.86739
26.5642 124.977 -9.99975
16.3381 127.898 -4.97561
-6.34666 140.445 -7.43582
-11.521 139.619 0.245108
19.3986 129.701 -12.2475
-1.42253 134.192 1.16328
20.9819 130.525 -15.7923
-11.5271 141.23 -3.12155
-14.937 139.672 4.23483
24.9828 125.881 -9.58869
21.7583 130.436 -16.1268
23.9018 121.832 0.74416
-13.6867 140.108 2.19891
19.5831 129.76 -11.9539
-10.4318 141.507 -4.45297
19.6402 129.888 -12.2946
17.6383 131.342 -13.2746
20.9104 130.782 -15.6681
-8.97502 141.354 -5.64014
-3.88076 139.152 -6.44544
26.9336 125.54 -10.6682
-14.5946 138.721 6.56915
21.4135 128.015 -9.95643
23.6475 122.141 0.661107
-11.7891 141.174 -2.01327
-10.2489 141.552 -4.58237
12.6989 134.443 -14.3455
10.2579 134.873 -12.5606
13.5935 134.237 -14.8856
29.8397 120.61 -2.66401
19.3492 129.617 -10.964
19.7071 126.512 -4.40643
20.7943 125.423 -3.13789
17.7319 131.369 -12.9502
3.31985 132.679 0.42456
26.1674 125.403 -8.91952
20.9651 125.349 -2.93109
-0.0711355 134.284 0.776734
26.3103 124.278 -6.51881
-3.86465 139.4 -6.36052
18.9496 131.173 -13.5548
19.0313 129.325 -9.51565
22.9095 130.508 -16.5144
25.4838 125.967 -9.26434
-2.06151 138.509 -6.31961
2.00716 133.279 0.810502
24.9406 121.61 1.12371
-9.9949 136.2 7.87224
29.2105 120.887 -1.88673
15.5428 133.741 -15.191
17.744 131.789 -13.3008
-0.105617 137.32 -5.58632
24.8693 126.372 -8.9818
21.3265 128.143 -8.90268
20.9609 128.331 -8.88882
24.0118 127.056 -9.44884
20.4921 128.579 -8.76847
-10.0002 136.475 7.86756
20.5366 128.558 -8.74717
19.7094 127.057 -4.3304
27.0872 128.734 -16.3572
22.016 124.057 -0.185314
28.0713 125.839 -10.8758
-11.7748 141.522 -1.00743
25.4188 126.492 -9.21002
6.67745 136.254 -9.89757
-5.29277 140.999 -6.93852
20.5038 128.613 -8.26337
7.49146 130.697 1.80907
27.5119 123.325 -4.221
9.04335 136.038 -11.8081
21.9821 124.345 -0.193021
26.2987 129.482 -16.4997
28.3078 123.04 -4.28433
22.541 127.623 -7.86183
21.7216 124.94 -0.858969
-8.49812 142.619 -6.25531
-3.34488 139.992 -6.06634
21.9272 129.527 -11.0597
13.8827 130.57 -4.24402
3.79567 136.993 -6.93628
27.8292 123.403 -3.45313
4.37748 136.975 -7.36808
23.2754 128.691 -10.073
-7.28605 136.939 5.91074
22.5063 124.407 0.452707
-1.78978 139.492 -5.82118
18.625 132.197 -12.4624
27.0724 125.659 -7.31473
18.0093 131.158 -9.35502
-11.494 142.117 -0.650729
20.2037 129.321 -7.60432
21.8437 130.05 -11.0274
28.6117 122.983 -2.82914
24.2338 123.413 1.18912
-9.68205 137.524 7.79077
-10.3522 143.213 -4.12958
-7.2037 137.394 5.39542
24.7331 123.291 1.08832
-11.4598 142.44 -0.9949
21.0156 128.829 -7.08839
21.5936 125.378 -0.0297496
4.61609 133.858 0.114398
-4.17333 141.135 -6.22292
2.01673 135.01 0.532251
27.1706 129.718 -15.9082
21.6794 130.309 -11.0566
16.4846 130.146 -4.84521
20.6042 132.715 -15.0749
26.4532 124.359 -2.98292
26.6467 125.8 -6.38513
-13.6291 141.733 3.29848
11.5691 136.369 -13.0235
15.678 130.688 -4.9499
23.7154 128.575 -9.10937
23.4884 128.968 -9.6994
-8.18759 137.52 6.84096
-10.9507 142.814 -1.85582
13.1119 131.243 -3.03187
29.1004 127.382 -12.3675
19.5382 128.549 -4.19071
-12.1286 141.954 1.46894
-3.90345 141.221 -6.11569
2.09745 135.243 0.496811
-3.22579 137.937 0.698792
19.9888 133.203 -14.7698
11.203 136.695 -12.641
-6.99771 143.198 -6.66652
19.6655 128.66 -4.10203
23.1628 129.175 -9.16038
28.1618 126.604 -9.02928
-8.42053 137.817 7.05596
10.0921 131.348 0.794756
5.14457 138.062 -8.631
29.1201 126.593 -9.92105
17.3842 133.046 -11.1331
5.80341 133.802 0.2066
19.5394 131.645 -10.4003
25.6386 123.553 0.818076
15.5048 131.226 -4.89551
27.8795 123.801 -2.17742
-9.18079 143.925 -5.46934
26.4908 130.665 -15.9078
17.6939 130.105 -4.70736
27.6466 123.955 -2.11565
26.4087 124.687 -2.28758
18.2857 133.019 -11.7635
26.5438 127.059 -7.64357
-13.6998 142.216 3.77738
-10.8725 143.404 -2.02428
17.3123 134.052 -12.772
22.9705 129.086 -8.01888
24.1868 124.387 1.13297
21.0657 127.134 -1.45894
17.2408 133.688 -11.6544
26.1047 131.015 -15.6296
19.0954 132.047 -9.95397
18.9765 130.971 -7.3191
19.727 130.473 -6.91702
18.9979 131.961 -9.3955
0.821408 136.713 0.491563
29.806 127.338 -11.0911
19.1473 130.949 -7.17673
19.228 131.054 -7.48139
-11.0874 143.329 -0.78104
21.0012 127.563 -1.62669
18.0212 133.615 -11.7397
-0.338989 137.251 0.809151
-5.31925 139.056 2.4086
20.5711 128.448 -2.96948
-11.2863 139.64 7.91009
26.2357 125.618 -2.89659
20.9859 127.795 -1.85583
15.4841 136.32 -14.6687
8.67495 132.715 1.03728
18.0915 132.979 -10.1207
16.9377 134.786 -12.7992
21.0338 131.321 -9.65615
21.1532 127.062 -0.231878
29.5555 127.226 -9.82088
14.0842 132.61 -4.40134
0.341346 140.004 -5.31101
18.5468 134.609 -13.6974
-13.4818 142.774 4.12451
-10.9504 143.407 -0.131287
19.341 132.018 -8.62802
23.4072 125.686 1.0403
-11.7811 143.109 1.70547
-11.5787 140.318 7.77023
21.8436 131.125 -9.18986
21.9392 133.627 -14.8321
24.0932 132.662 -14.9456
20.5146 129.04 -2.80575
0.394791 137.6 0.726401
19.7118 131.209 -6.66561
16.4414 135.855 -13.2818
21.9052 130.489 -7.31801
-10.8453 143.406 0.646378
-11.6153 140.643 7.70005
21.6122 130.061 -5.91238
-11.1371 143.351 1.22776
4.0822 136.234 0.0228353
-6.62298 139.923 3.81566
22.9447 129.493 -6.1041
-6.51961 144.41 -6.28973
9.50042 138.64 -11.395
9.64941 132.927 1.20072
9.74154 132.875 1.26208
-3.4073 139.659 0.900617
12.1413 132.406 -0.365499
7.73649 139.454 -11.0773
-13.2625 142.926 4.79595
5.42187 135.696 -0.0150177
10.8501 132.617 0.76905
-8.86914 139.509 7.56261
26.1229 126.509 -2.69182
23.0276 126.443 1.01448
-3.18081 139.696 0.878153
-7.19467 140.128 4.53833
13.7541 133.567 -4.32494
21.5002 131.554 -8.47155
-5.02498 140.358 1.67265
17.0843 134.928 -10.9949
20.6141 134.56 -14.1385
-1.0105 138.812 0.77124
17.2694 135.386 -12.11
11.2465 132.763 0.524243
20.0078 132.66 -8.97438
17.6993 133.993 -9.26252
19.7948 135.14 -14.1562
3.91538 140.206 -7.61654
9.30536 139.213 -11.4337
4.44245 136.572 -0.0440773
-5.5297 144.232 -5.88567
19.6535 133.992 -11.2844
23.5821 126.848 0.382749
-9.81093 140.45 7.53645
26.6363 132.221 -15.0404
27.1638 128.405 -7.08727
-9.14489 140.187 7.49833
21.0472 132.841 -10.0021
27.9703 132.184 -16.2871
25.5973 129.146 -6.80471
2.71216 140.572 -6.58033
26.1965 128.855 -6.72661
-12.6329 142.696 6.02077
-0.149911 141.49 -5.24067
5.42635 136.38 -0.0846012
18.0188 131.983 -4.3846
4.01149 137.087 -0.00625749
20.3424 132.802 -8.75756
12.5407 134.166 -2.9833
29.3832 128.534 -9.29327
15.2981 137.919 -14.396
24.1737 130.408 -7.42253
12.2096 134.041 -2.07446
7.05101 135.817 -0.107874
23.0336 127.982 -0.568788
30.5081 129.708 -12.7388
19.2448 134.09 -9.84555
-10.6636 144.443 0.64255
-5.22322 144.518 -5.62715
2.87652 141.006 -6.80632
12.2043 133.446 -0.402865
4.56561 140.885 -8.41943
26.7031 129.037 -6.76683
19.6278 131.023 -3.24936
22.6603 128.279 -0.491216
23.6705 128.286 -1.55595
26.4197 129.598 -7.53942
-9.96321 141.255 7.36957
24.0915 128.122 -1.52998
-11.5393 142.338 6.77984
15.0359 138.39 -14.2533
26.6523 129.373 -7.06323
20.399 130.436 -2.31571
23.4237 128.753 -1.93609
20.7617 131.778 -5.59367
-4.78709 141.558 1.31506
10.5653 139.69 -11.7063
25.9322 129.687 -6.58467
28.4584 129.184 -8.29435
-10.4128 141.829 7.28977
29.127 133.037 -17.4596
3.96939 141.404 -7.85945
-11.1424 142.419 6.86656
11.8228 133.798 0.38112
24.8665 128.345 -2.06202
27.6415 129.409 -7.50481
19.1425 131.94 -3.58982
29.3667 130.256 -11.2908
-2.04875 143.176 -4.76657
-5.5317 141.849 2.17305
-9.42695 146.816 -4.48319
4.50754 137.885 -0.132232
2.21681 141.865 -6.4286
-0.839349 140.105 0.938711
4.08057 141.619 -7.91374
4.19198 138.074 -0.101581
17.8832 136.871 -12.72
24.8576 128.865 -2.6219
20.509 134.862 -11.1301
20.3734 135.06 -11.2696
2.40477 138.997 0.137339
8.74075 136.031 -0.287758
4.32475 141.764 -8.08921
21.6185 129.592 -0.280118
7.48407 141.392 -10.7082
5.98035 137.503 -0.261311
20.3277 133.967 -8.45572
20.5304 133.401 -7.4133
5.31134 141.723 -8.87989
19.8748 134.581 -9.12018
-5.61031 142.352 2.17155
25.1798 129.413 -3.5039
12.0083 135.538 -2.28387
-10.5349 146.039 -0.293489
12.7204 135.388 -2.63307
26.0716 129.686 -4.85958
18.8228 135.184 -8.95696
29.1331 130.719 -10.5425
-8.11643 146.964 -4.95418
21.0562 136.275 -13.7432
29.2041 133.208 -15.9191
19.8535 135.779 -11.1446
23.5452 130.478 -3.36906
5.89023 142.067 -9.3635
21.784 130.229 -0.770095
-8.85322 142.392 6.70415
-10.5694 146.781 -1.11111
12.1911 135.536 -1.51503
-5.48828 142.926 1.94038
1.33638 143.016 -5.84364
19.1383 135.726 -9.5051
27.8076 134.257 -15.9462
26.0131 131.02 -6.69546
-11.8295 145.579 3.33889
16.9762 138.446 -13.0721
-5.48283 143.036 1.92203
0.409579 140.723 0.538062
20.8737 134.194 -7.85717
10.4 136.062 -0.259156
25.7081 131.469 -7.13265
26.408 134.096 -13.7627
25.3172 131.955 -7.75195
19.237 132.868 -2.95672
-9.4893 143.066 6.55863
12.5239 140.628 -12.6796
17.0551 138.53 -13.0524
-9.82844 147.752 -3.39545
11.8701 140.835 -12.3225
-9.86347 143.42 6.3903
-1.11854 143.988 -4.68689
23.8496 130.984 -3.65859
-9.71136 147.799 -3.48259
-10.3082 144.013 5.90092
7.44915 142.478 -10.6079
18.8893 136.937 -11.0829
-9.0941 143.217 6.37987
-6.66528 143.384 3.35549
14.2226 135.931 -3.37128
20.6581 135.086 -8.70339
12.2071 135.499 -0.12566
28.003 134.654 -15.8931
5.9027 142.991 -9.28987
18.8354 133.727 -3.01777
-9.18488 148.122 -3.646
5.13417 143.137 -8.57437
30.6894 133.338 -15.4055
6.85416 138.602 -0.366294
5.62831 143.122 -9.02641
25.8471 132.267 -7.39908
7.8161 138.235 -0.448893
24.0742 131.589 -3.83168
11.2624 136.404 -0.17195
8.96314 142.606 -11.4346
13.4959 136.756 -3.43088
-10.4072 147.576 -0.621958
0.388057 141.659 0.487605
-6.56571 147.599 -4.95821
14.4308 140.947 -13.6765
6.55333 138.953 -0.347561
-2.55144 143.118 0.832068
-11.2251 146.153 3.86995
29.8977 134.838 -17.0645
11.9489 136.28 0.0892396
19.1603 138.319 -12.4474
18.3181 137.786 -10.2371
15.2658 136.841 -4.66767
22.3341 131.919 -1.54078
25.4624 135.448 -12.9141
17.7991 137.764 -9.45697
25.6268 132.851 -7.13037
28.339 135.366 -15.7874
19.1216 134.079 -2.55555
19.1513 137.976 -11.2494
-6.6049 148.065 -4.71945
29.8898 131.988 -9.67988
24.2509 136.42 -13.1646
2.91995 144.369 -6.94532
17.9619 135.348 -3.67864
6.30864 139.741 -0.358374
23.6532 133.048 -4.77953
30.5657 133.102 -12.5854
21.5489 132.894 -1.93309
30.4861 133.108 -12.4536
-9.04466 145.137 5.31394
1.21606 142.195 0.433719
24.2287 133.804 -6.66482
-9.59403 145.468 5.38154
-1.70695 145.801 -4.18317
31.0648 133.382 -13.2448
3.17752 144.727 -7.02423
7.90085 139.447 -0.483239
17.5305 136.094 -3.79223
13.9309 138.066 -4.14763
14.1537 141.849 -12.8087
24.8868 133.502 -6.20473
-7.29185 148.813 -4.2091
-10.1748 146.297 4.76983
-0.922546 143.679 0.476919
16.1297 137.335 -4.49475
29.9893 134.737 -14.2522
-0.874377 143.701 0.485574
-6.20137 145.613 2.20069
0.10293 143.213 0.489847
4.6834 140.996 0.320652
6.30835 140.337 -0.0170184
30.7645 134.471 -14.3098
1.45159 142.556 0.60123
13.7134 142.319 -12.4329
-6.89169 145.74 3.09634
30.4838 133.911 -12.482
23.7115 134.508 -6.17486
27.5538 136.448 -14.8195
4.4699 141.251 0.399207
1.60368 142.624 0.64217
30.6686 133.668 -11.9582
13.2738 142.6 -12.3566
10.7632 143.558 -11.6703
9.0001 139.417 -0.398664
14.1917 142.194 -12.2255
-3.30021 145.201 0.75378
6.7203 144.769 -9.47268
-1.60402 144.603 0.565117
18.1484 140.058 -11.4183
-7.98038 149.679 -3.32986
31.3693 133.983 -12.3398
17.774 139.541 -9.44309
20.1006 139.861 -12.7654
24.2371 134.622 -5.56295
-0.659951 146.728 -4.57651
10.1804 144.244 -11.1803
-1.6748 144.945 0.616022
31.1409 133.782 -11.2707
14.8485 142.047 -11.4198
27.2583 136.561 -13.077
18.9642 135.296 -0.896162
12.3037 143.624 -11.9236
-6.35592 146.681 2.31378
7.13293 145.239 -9.54406
23.3318 138.377 -12.3038
29.8936 135.79 -13.8451
-8.78891 147.247 4.05046
0.81728 146.684 -5.40364
17.0458 141.12 -11.1484
-2.59861 147.747 -3.86801
7.06065 140.971 0.452189
15.5778 141.723 -10.7387
19.6045 135.462 -1.26743
19.1977 139.64 -10.1377
-3.61783 146.252 0.762673
21.2831 135.204 -2.51255
-5.346 146.761 1.67927
26.772 133.9 -5.59407
5.41993 141.798 0.773875
31.1743 135.316 -13.499
18.917 139.578 -9.04884
31.2663 133.629 -9.62116
3.3891 142.94 0.968298
2.22271 146.773 -6.25113
24.8261 134.832 -4.98013
-6.16642 149.909 -3.80665
23.5345 138.654 -11.9952
24.7199 138.223 -12.3518
22.4367 135.349 -3.17767
7.04179 145.9 -9.28472
16.7187 141.573 -10.4938
29.1304 135.38 -10.6016
11.528 144.562 -11.2548
30.5709 134.055 -9.12881
26.0662 137.849 -12.5324
27.9122 137.652 -14.1355
30.6367 133.79 -8.53586
-9.33595 149.158 2.12442
31.2355 134.124 -9.85572
19.1124 140.432 -10.3089
31.6869 135.059 -12.3228
19.189 140.713 -10.9055
14.8285 142.752 -10.5299
30.3596 134.659 -9.85499
-9.68732 149.814 1.30706
-7.5432 150.655 -2.86034
12.6762 139.161 0.127953
6.91145 141.744 0.952638
-4.59548 149.611 -3.64999
-8.95831 150.778 -1.35211
-6.18165 147.987 1.86657
4.853 142.865 0.979007
30.1911 134.281 -8.30644
17.073 138.859 -3.7149
31.9933 135.474 -12.7848
7.89235 141.46 0.958935
23.593 135.903 -4.27098
6.95432 141.966 0.896484
27.695 137.538 -12.4905
30.7259 136.394 -13.2979
29.6622 136.106 -11.4356
16.9083 141.924 -10.0258
19.8521 136.441 -0.926343
21.6932 136.212 -2.39683
7.61316 141.924 0.804222
6.34353 142.733 0.518913
31.9318 135.954 -13.0397
-8.27332 151.168 -1.76167
23.8279 139.298 -11.2226
29.0498 136.748 -10.9752
8.84443 146.387 -9.75198
29.5081 134.61 -6.5549
1.86316 148.265 -5.97711
29.5354 135.206 -7.89073
31.7575 136.41 -13.0156
-8.86297 150.46 1.38695
21.0555 136.793 -1.65875
11.5521 140.98 0.0525153
-4.16272 150.329 -3.1165
15.5824 140.734 -3.8655
17.7615 141.493 -7.96342
19.4099 137.295 -0.374257
15.9084 140.601 -3.79161
-9.21145 151.388 0.539705
-5.76818 149.379 1.22329
20.1492 137.245 -0.715094
28.924 136.525 -8.86969
17.0009 139.873 -2.93721
31.4444 137.141 -12.9859
-8.23212 151.77 -0.980679
16.9642 140.053 -3.07176
7.49481 147.475 -8.94759
17.12 139.599 -2.01302
30.6999 137.813 -13.1876
-5.0652 151.2 -2.8927
19.9769 137.581 -0.510725
11.3287 146.324 -10.3196
11.2278 141.783 -0.008955
29.9371 138.149 -12.8435
28.3551 137.278 -9.09106
29.0502 139.229 -14.1168
21.739 141.836 -11.6529
30.2235 138.402 -13.4415
27.7996 139.133 -12.2978
27.065 136.514 -5.59154
13.6617 141.956 -2.61697
22.2008 141.628 -11.4306
27.3918 136.602 -6.02324
27.5802 139.173 -11.9282
21.759 137.879 -2.38788
-6.43637 152.053 -2.30947
25.5267 136.932 -4.42763
29.6933 138.411 -12.3946
-4.68384 151.42 -2.68236
25.2078 136.963 -3.97912
22.8034 137.866 -3.27424
17.8815 138.972 -0.203784
-2.24047 150.564 -3.47882
31.2806 137.893 -12.8338
29.3799 136.557 -7.5352
17.5916 139.524 -0.710252
7.787 148.05 -8.63278
26.8701 139.318 -10.3441
31.0552 138.457 -13.1081
15.3875 144.386 -8.73986
10.7092 143.964 -2.23591
22.569 138.425 -3.07129
12.4761 146.348 -9.39097
30.1397 139.241 -13.1222
24.9375 137.901 -4.16878
22.2152 138.703 -2.78721
8.87183 143.872 0.685038
30.2715 139.503 -13.5585
15.0624 145.019 -8.75506
20.3678 143.254 -10.6733
28.0656 137.58 -6.63524
6.62168 148.93 -7.81225
23.1715 138.685 -3.43215
13.5508 143.409 -3.16871
10.6997 144.44 -2.23491
17.2261 143.206 -6.71057
20.2651 143.403 -10.5576
30.0559 139.458 -12.6125
19.2104 143.118 -8.54702
-3.1612 151.878 -2.92775
26.9337 139.93 -9.99453
29.8558 139.913 -13.2126
20.9151 143.26 -10.5898
23.3808 142.121 -10.5674
-2.28151 151.84 -3.33934
8.52121 148.682 -8.23401
18.3684 143.247 -7.1519
27.4022 140.517 -10.6749
15.3789 143.35 -3.46403
11.4876 144.273 -1.00782
22.8251 139.493 -3.03029
3.17061 150.704 -5.86435
13.6917 146.704 -8.71378
27.52 138.54 -5.85456
28.8967 140.151 -10.9079
24.5321 139.366 -4.2397
2.39542 151.06 -5.41484
10.0641 144.245 1.30888
21.1084 140.014 -1.54248
20.1106 144.247 -9.83723
20.1781 144.233 -9.84034
26.8595 140.769 -9.52954
11.1561 145.517 -2.37865
25.241 139.39 -4.41821
1.98628 151.46 -5.17423
12.1133 143.946 0.257482
-0.691699 152.299 -4.00081
24.0841 142.528 -10.0169
18.4571 140.917 0.013968
6.00131 150.327 -6.86196
1.16826 151.877 -4.79635
-4.1364 153.367 -2.14107
15.2361 146.037 -7.44519
27.2735 141.073 -9.64863
10.6084 145.779 -1.39903
12.5052 148.007 -8.49604
1.93176 151.824 -4.9619
26.4901 141.4 -9.06409
23.7328 143.176 -9.9216
6.98965 150.383 -7.09929
0.694731 152.295 -4.24718
9.7303 149.407 -7.8726
21.9306 140.562 -1.79512
29.0302 141.082 -10.8912
11.6373 144.774 0.415766
17.074 142.776 -1.11534
1.33999 152.171 -4.38942
25.4351 142.037 -8.72088
23.8087 140.548 -3.48086
11.2941 146.342 -2.28623
22.864 140.866 -2.7931
-5.52778 154.273 -0.828017
24.6644 140.616 -3.94339
25.2676 140.515 -4.19068
22.2503 144.481 -9.63141
17.4342 142.667 0.0851074
10.0175 147.28 -1.68926
11.2936 145.882 0.0987528
24.367 143.368 -8.97176
-4.82603 154.56 -1.15338
8.15322 150.697 -7.08815
11.267 145.952 0.0594771
26.9013 142.207 -9.03042
10.0966 150.068 -7.5894
19.1491 145.792 -8.19663
11.8881 146.829 -2.26903
13.3886 146.376 -2.82101
27.6438 140.486 -5.67299
11.8473 149.579 -8.03944
23.2024 144.583 -9.54936
23.8084 141.515 -3.24279
0.514282 153.248 -3.26872
7.22851 151.28 -6.23772
13.5584 148.964 -7.83174
28.7158 141.898 -9.05842
16.2596 146.66 -5.67812
23.3863 141.877 -2.94798
21.8671 145.322 -8.8939
9.66151 147.61 -0.28675
19.8792 142.501 -0.355397
27.2001 141.133 -5.52217
15.7002 145.129 -1.51136
