ply
format ascii 1.0
comment Created by Open3D
element vertex 1919
property double x
property double y
property double z
end_header
14.8475 121.799 -3.16005
-6.86478 83.8508 8.14857
4.84036 97.6898 11.8004
12.5831 114.506 2.99438
13.7319 111.373 9.94919
15.4069 109.778 15.737
8.9242 106.502 7.37565
13.1589 109.934 11.0222
11.7738 106.654 12.9995
-5.84499 94.5999 -5.06899
15.6948 121.501 -0.559743
-7.60864 83.1527 8.10254
-12.8513 80.6635 1.13695
3.27655 94.9732 12.9955
16.6448 125.978 -5.08292
15.676 119.672 2.24336
16.1573 120.013 2.73201
16.0964 119.864 2.90925
1.50931 105.006 -5.00732
3.65364 96.1922 12.2238
14.2883 115.76 5.2777
5.09655 98.6801 11.6209
14.3033 115.701 5.49768
-10.5942 80.405 6.47073
-12.8074 82.0266 -0.387448
22.8366 127.045 6.29232
-12.516 78.7211 5.08622
15.7066 119.585 2.77131
20.3316 123.547 6.38746
18.3714 122.76 3.5846
14.4244 115.382 6.34644
-0.00480807 103.349 -5.37597
5.10755 109.05 -3.26154
-3.04444 99.0663 -5.19794
13.3289 116.01 3.32496
15.4752 119.773 2.24623
15.3683 121.166 0.0498117
9.1609 108.526 5.90431
18.9444 123.853 3.42294
12.1294 106.21 15.3776
19.7755 123.865 5.16421
16.2745 122.477 0.171182
3.55156 107.658 -4.00372
-9.47504 89.4983 -3.91489
-1.51697 101.734 -5.60318
9.89989 112.129 2.41533
20.4989 124.036 6.5586
8.78191 106.976 7.67665
-5.42415 86.2984 9.05281
20.5918 124.178 6.62863
12.1482 106.386 15.4975
13.1887 116.311 3.1654
8.63523 106.256 8.63133
-12.0687 79.7164 5.45675
14.1004 114.089 8.44208
-0.0087351 103.87 -5.26277
15.566 111.291 15.5432
10.6086 112.935 3.09691
-11.9999 84.6004 -1.43443
20.8172 125.117 6.10234
11.1192 113.452 3.47067
14.3056 122.165 -2.75376
16.2944 126.412 -4.86097
-7.04545 94.4347 -5.56733
-13.5129 80.4822 1.67624
2.23642 106.706 -4.58979
16.9805 122.339 2.53923
-10.4582 81.4938 6.44801
20.3718 131.681 -4.17405
17.7589 122.457 4.01973
3.74702 108.459 -3.89551
16.5837 124.004 -0.401893
11.7167 116.054 1.35116
6.198 101.91 10.7959
18.0353 124.168 2.35292
11.5363 114.869 2.78445
-13.3424 82.2503 -0.042912
1.38469 92.9937 14.1845
16.3754 126.86 -4.77422
9.822 112.658 2.66355
8.58796 106.918 8.53713
16.5481 122.452 2.04611
22.9433 131.139 2.37575
22.4664 129.904 3.35156
22.0928 127.113 6.67112
16.4757 113.639 14.9452
12.5811 118.147 0.548866
9.18337 109.973 5.61234
22.6159 133.118 -0.812354
14.3912 116.54 6.68988
2.25804 107.346 -4.50669
23.7191 134.752 -0.925361
11.9387 117.146 0.949373
11.8866 115.918 2.67554
-2.50221 101.363 -5.2788
15.7288 112.834 15.0138
-11.9819 85.3879 -1.16656
9.02584 109.342 6.53191
16.2778 124.226 -0.465894
18.6466 121.437 8.44176
-12.5957 84.6524 -1.27938
17.3354 128.617 -4.65018
19.0885 124.36 5.16907
12.4405 108.095 15.4828
17.1915 124.268 1.54097
15.9326 123.808 -0.294857
-6.25057 96.7585 -5.8185
19.1454 123.852 6.235
14.5248 121.324 0.562483
5.82112 102.226 10.7712
18.4228 123.133 5.90138
12.6096 120.085 -1.40798
15.4836 123.173 -0.0393017
18.8596 124.868 4.38385
8.53007 107.561 8.68905
-8.03575 85.1298 7.82576
13.2509 118.048 3.00689
-7.46716 95.2538 -5.78836
20.3775 125.1 7.22632
14.4411 118.453 4.90917
1.92743 95.5757 12.9599
18.3522 125.896 2.10713
15.9156 123.219 1.11394
0.419754 92.8929 13.9129
11.9236 117.807 0.930147
12.477 119.028 0.293033
14.3859 122.402 -0.721907
18.6842 130.812 -4.25102
17.9507 119.949 10.171
17.2702 124.992 1.46699
-11.205 82.1575 6.17272
-11.5547 87.0455 -1.63661
14.0546 123.864 -3.35228
14.695 123.152 -0.994016
22.506 129.544 5.58978
12.9017 112.862 10.5097
12.165 118.511 0.773581
1.79704 107.65 -4.408
14.3391 121.75 0.536274
19.6521 124.853 6.86559
14.5573 122.666 -0.283562
9.28846 112.418 4.11755
4.89789 111.108 -2.86475
22.2475 130.745 3.72053
15.4706 124.145 -0.39239
10.1414 114.109 3.46681
13.1427 114.154 9.56451
-7.93033 86.046 7.84594
17.3486 120.223 9.30096
-12.9697 84.953 -0.733167
17.0687 125.368 1.2895
17.506 130.058 -4.62803
14.4406 118.983 5.31621
11.3964 117.615 1.2034
22.5678 135.864 -2.70799
14.9734 123.546 -0.147386
18.5337 126.2 3.24076
8.06634 107.696 9.00811
17.866 130.559 -4.44569
14.5738 125.925 -4.33174
15.2139 126.93 -4.49362
-14.4077 81.5289 1.63926
10.9426 115.618 3.37188
14.438 119.083 5.44553
20.4233 127.281 5.66824
22.3547 136.004 -3.09222
19.6429 126.532 5.23229
13.5836 110.912 15.8416
-10.2894 91.2797 -3.9564
14.1871 119.574 4.45487
10.036 114.521 3.43526
18.2578 125.286 4.42224
-11.4605 88.3971 -2.0736
-3.7107 101.296 -5.07632
20.6258 127.629 5.90206
19.453 124.578 7.98583
14.5016 123.386 -0.309864
11.2343 116.787 2.69417
3.90373 110.708 -3.23471
14.4678 119.623 5.21058
15.0292 124.553 -0.814373
-13.6679 81.3293 4.01189
6.18525 105.544 9.14886
14.2064 125.706 -3.93051
15.3465 125.695 -1.58178
13.6994 124.463 -3.12535
19.8694 125.859 7.41586
16.3674 129.149 -4.47218
-14.1113 83.9941 -0.412278
14.2002 124.762 -2.38068
10.806 116.21 3.23376
18.8495 125.644 5.81626
18.3501 124.594 6.34369
-5.80343 89.3505 8.84607
16.5094 123.557 4.24079
13.6129 111.828 15.5277
6.07636 105.669 9.21821
5.61364 104.794 9.70998
16.9683 130.365 -4.50118
4.59157 102.819 10.5693
14.2868 123.309 0.401213
12.4191 113.652 10.703
15.392 125.016 0.203045
13.6577 116.957 8.50142
2.73488 99.2604 12.2137
22.477 135.604 -0.710011
2.75679 110.231 -3.71517
10.3743 115.765 3.69785
16.7117 130.198 -4.47359
14.2121 125.445 -2.51238
15.11 127.902 -4.20525
-10.0465 84.9148 7.47248
10.4604 116.613 2.8721
6.3047 113.5 -1.02012
5.47429 113.43 -2.59194
11.7942 110.919 13.9401
17.9359 124.632 6.44911
1.2872 96.9164 13.1145
12.2031 122.313 -1.7771
19.3844 134.29 -4.60737
17.7226 122.538 9.1845
18.9637 124.872 8.3348
-10.9558 91.6051 -3.83551
12.0093 122.107 -1.71365
12.0088 112.868 11.8231
13.6631 117.555 8.34174
3.8371 102.245 10.7753
6.92 107.291 9.67792
22.8044 136.475 -0.65477
4.25937 112.262 -2.82354
8.50157 114.427 2.64118
-9.59464 85.9413 7.54305
15.282 125.546 0.266639
1.52667 109.103 -3.63171
11.4231 120.861 -0.696853
17.9701 126.57 4.2876
5.60344 105.88 9.39014
19.64 128.153 5.42147
11.9607 111.448 14.2755
-1.53971 105.441 -4.35004
-12.4043 89.0379 -2.45183
-14.5663 82.863 2.24266
18.8042 125.049 8.43016
9.69269 115.762 3.6023
-1.50888 105.598 -4.30369
-1.93303 93.5441 12.4513
16.9931 126.908 2.19104
2.09116 110.27 -3.76456
21.5601 133.942 1.24515
-12.1848 83.7917 5.93607
6.67178 113.874 0.317951
21.4383 130.608 5.90146
21.6818 132.131 4.21556
-5.33613 90.9729 9.44697
2.43134 110.716 -3.59339
5.4263 114.143 -2.49654
-11.3738 91.6872 -3.75866
21.5603 130.994 5.74874
20.693 130.034 5.57266
-7.72163 88.6054 8.47166
2.9325 101.64 11.1454
17.8702 126.227 5.62959
15.0507 125.335 1.21205
7.15973 108.506 9.7667
23.153 137.932 -0.640561
-14.3526 83.3633 2.91723
-4.54375 102.992 -5.68055
13.8817 125.424 -1.00602
11.852 123.6 -2.42175
8.36223 111.575 8.04622
22.0908 136.487 -0.434237
14.7935 128.927 -4.19832
18.92 128.17 5.37609
-8.67658 97.2113 -5.46263
12.021 114.105 11.9072
14.1615 122.651 3.85393
-5.91921 101.21 -5.55584
-1.90558 105.898 -4.22963
13.9368 125.389 -0.484292
16.4519 121.504 10.2949
14.2155 121.091 6.3663
12.0775 112.572 14.4751
11.0485 121.493 -0.616217
8.98149 114.519 5.36493
14.2612 126.041 -0.697005
14.8422 126.5 -0.174339
18.3237 134.483 -4.74062
13.0154 121.994 2.70972
-12.6051 90.4245 -3.22809
11.8777 112.569 14.2312
22.7654 138.278 -1.16562
-11.8258 91.9043 -3.68836
13.7238 122.881 2.97626
10.929 120.186 1.28925
3.89134 113.29 -2.89114
1.85059 110.967 -3.6398
-11.7412 92.1461 -3.73546
-13.5825 88.515 -2.15382
14.8903 126.741 -0.114246
17.3427 125.185 7.16483
10.7301 119.974 1.36767
21.7594 136.437 -0.109672
-10.7918 93.9825 -4.23231
-9.14519 96.8924 -5.12512
-1.01082 94.9938 14.1857
11.7152 113.394 13.2016
18.7362 127.43 6.99744
-14.7655 84.3781 1.83865
6.71469 114.831 1.02897
-10.6837 94.2671 -4.27908
14.222 122.943 4.45259
-14.9932 84.7789 0.851715
3.38373 112.972 -2.9752
19.6148 129.882 5.39882
20.8285 134.81 0.674531
17.3835 126.8 5.43706
18.7675 135.901 -5.0159
14.2389 127.742 -2.30257
18.4205 127.003 7.29472
14.743 125.024 2.77149
18.6469 128.389 5.88291
16.3673 128.566 1.07241
-10.3149 87.1117 7.4399
-0.994064 95.345 14.3738
15.5522 118.486 14.2768
-14.8676 84.8942 1.59076
-2.11466 94.978 12.7897
0.745251 109.947 -3.23605
15.8359 125.066 5.35104
22.1547 139.003 -2.15015
20.4043 131.283 5.59736
-6.8279 90.9094 9.28602
14.6339 126.974 0.283603
6.23073 115.107 0.589583
14.0978 123.796 3.90417
17.34 134.203 -4.68298
-8.82695 98.7089 -5.98624
5.62466 114.934 -0.323834
17.0678 123.773 10.0143
-15.0094 86.2224 -0.29761
10.7011 122.046 -0.371742
-11.5373 86.2562 6.71139
-11.5402 93.7035 -4.14225
-14.8255 85.0497 1.8328
13.6767 127.427 -2.02954
-7.28155 100.881 -5.78563
22.7859 139.106 -0.462503
17.9361 127.192 7.08436
18.8884 136.742 -4.9047
16.5493 128.473 2.46817
-0.524707 97.1515 13.5208
-1.86662 107.14 -3.76935
-10.6436 95.3995 -4.4498
-2.64989 106.401 -4.22287
14.3529 126.723 0.659188
16.5746 128.002 3.31508
-6.33652 102.14 -5.45262
16.2589 121.593 12.0622
14.3094 123.855 4.82782
22.5877 138.905 -0.310263
-12.6696 85.7151 5.754
10.736 123.226 -1.4108
21.8374 139.683 -2.83946
-11.3947 86.7787 6.90197
15.328 131.695 -4.18081
1.2577 111.489 -3.21969
12.0558 126.616 -3.34946
-9.10857 89.1124 8.41401
10.8155 121.899 1.04753
14.9175 128.636 -0.437477
7.23388 115.987 2.43344
-10.0281 88.2577 7.90785
15.8928 128.169 2.34436
-2.19592 107.228 -3.77511
13.7583 129.002 -3.10762
14.0996 117.372 14.5586
17.4964 130.53 2.28919
11.5575 114.859 13.1441
17.5417 129.419 4.04748
20.1631 134.535 1.95047
8.64888 115.176 6.83447
-10.6438 96.1693 -4.58929
19.7026 133.401 2.68498
17.5226 135.744 -5.11035
15.7532 129.635 0.226331
15.2005 131.893 -4.19027
-14.8942 86.0187 1.74438
12.5713 115.726 14.281
-9.81002 98.2606 -5.57541
14.5155 125.74 3.73891
-12.7535 92.9525 -3.7566
-6.02748 103.733 -5.83076
10.0236 119.913 3.17183
16.1009 128.833 2.51348
7.31998 111.723 9.74184
21.3427 137.02 1.30555
13.591 129.415 -3.32749
14.6869 118.872 14.2857
-13.4397 86.9875 3.72903
14.9744 132.012 -4.18291
13.8115 126.992 0.783172
8.49387 115.213 7.21414
12.6287 116.119 14.3127
17.629 129.482 4.96876
18.2787 137.083 -4.77773
-15.0158 86.8074 1.01407
10.5918 124.59 -2.11033
-14.8312 88.7532 -1.36115
15.5216 133.019 -4.33434
-1.14579 97.372 13.8499
12.1754 124.185 1.78656
-15.0992 87.9672 -0.727363
16.8449 135.435 -5.13214
5.96094 109.822 10.1671
-1.96817 96.325 13.8124
16.365 134.765 -5.04905
15.2176 120.336 13.7151
4.14215 107.18 10.4482
9.72691 119.674 3.63821
-14.6158 86.7502 2.29991
-12.2526 87.2539 6.36358
16.8236 126.763 7.73842
16.4027 126.953 6.61372
5.43606 109.182 10.3331
0.197067 110.863 -2.75084
3.44376 106.368 10.435
-14.9355 86.8092 1.67464
13.3617 122.302 7.36028
15.4212 128.002 3.26827
16.1067 126.858 6.36046
15.9378 128.439 3.76707
7.25217 117.033 2.79983
-11.7419 95.5698 -4.41185
12.4228 125 1.69964
13.798 127.432 0.950246
11.7686 124.048 1.79022
-2.96619 96.0894 12.7501
-15.0957 88.7244 -1.10331
17.293 131.041 2.93497
5.22548 109.193 10.3626
9.65771 120.949 2.2385
12.6778 125.485 1.77555
14.9902 128.699 1.78565
13.4522 130.322 -3.67662
16.9485 130.359 3.37101
15.6705 127.996 4.23018
-15.0733 88.9824 -1.18161
7.14693 117.287 2.62824
20.4642 136.244 2.0028
12.0011 116.672 13.3842
16.9309 128.413 6.296
-15.1581 87.8833 0.350792
12.4324 129.001 -3.63457
-8.86785 90.9149 8.71195
9.41525 120.766 2.3802
12.2794 120.066 9.28707
17.073 130.386 3.96987
-6.27243 105.058 -6.40418
12.4254 120.522 8.99438
11.6229 118.362 10.5218
20.935 137.491 1.52379
13.5909 129.501 -1.70935
4.71193 108.834 10.4586
15.4378 131.331 -0.593022
14.0714 127.307 2.6357
15.9639 128.315 5.04192
12.6307 121.293 8.5396
-10.7559 98.3312 -5.42417
-11.2852 88.7368 7.50404
5.19862 116.673 0.228013
15.9116 128.153 5.28048
-0.632052 100.169 12.6084
14.0208 125.331 5.64175
-3.50673 107.872 -4.35776
17.012 131.725 2.57742
-12.1514 88.6165 6.33735
16.0259 125.276 10.0447
13.1604 127.082 1.71226
14.9227 128.16 3.718
13.2583 130.265 -2.66676
9.98458 121.629 3.32577
-10.5557 90.1039 7.6338
16.8301 131.506 2.8264
16.7536 129.557 5.55775
10.0728 125.496 -2.05924
-12.7799 95.08 -4.04806
20.5538 137.578 1.61881
-10.8533 98.8691 -5.48728
-14.6096 88.2296 2.42501
12.0918 120.726 9.2514
-14.2097 88.4623 3.06597
7.47445 114.128 9.67401
-14.5334 88.4262 2.52623
16.7006 136.708 -4.51885
16.5098 131.644 2.54355
13.6067 131.427 -2.89272
14.6784 127.967 4.35207
-1.95435 98.1685 14.0848
-9.03325 91.8978 8.87238
15.7643 126.218 9.15721
-2.07206 97.9399 14.2389
12.0718 121.175 9.12214
14.9221 123.559 11.4385
14.417 131.374 -0.977529
-12.2791 89.2167 6.46121
14.3731 133.159 -3.55478
-10.9107 99.3676 -5.56342
8.28896 116.568 8.32991
16.2912 134.207 -1.09424
14.1525 131.482 -1.44724
-3.17216 109.038 -3.8432
14.5201 132.808 -2.60505
13.9914 121.008 13.5668
9.79134 125.688 -1.74531
-8.71157 103.248 -6.41827
-14.7627 88.9494 2.2435
9.56242 123.912 0.640691
13.8366 126.303 5.85118
4.73386 110.656 10.2248
-0.53902 102.225 11.8458
-14.9015 91.4414 -1.56826
13.5641 131.949 -2.818
15.0167 124.302 11.3535
-11.9363 89.6766 7.18259
15.2753 130.788 2.44378
14.7042 133.292 -2.36876
2.60172 107.483 10.7253
-12.108 97.5337 -4.60663
15.3795 126.887 8.40473
13.8401 128.776 2.5305
13.4675 130.277 -0.371293
14.1894 128.462 3.74849
13.4716 129.614 0.615509
11.2826 119.859 10.4264
-14.4487 90.0757 1.657
13.6047 129.049 1.82268
3.94294 117.711 -1.21747
6.26941 118.889 1.847
13.1801 130.067 -0.401129
-6.60853 106.406 -5.93819
-5.97668 107.006 -5.45257
0.0477485 104.005 11.1733
14.2378 129.431 2.879
-14.9422 91.275 -0.671748
14.1614 122.224 13.2561
0.206962 104.347 11.0392
12.419 119.753 13.3632
-14.9932 91.9622 -1.52529
18.641 135.647 3.04724
16.0078 128.843 7.66495
14.1489 128.782 4.03784
-6.82422 95.3148 10.3185
1.84501 106.963 10.9606
-10.2866 92.124 7.99203
9.90857 123.221 3.61185
9.95387 123.373 3.52838
15.2503 132.373 1.2118
13.8287 129.705 2.23745
-3.10962 98.1745 13.879
14.8666 127.26 7.96059
14.8778 127.399 7.81183
3.28674 109.527 10.3641
-8.70113 104.296 -6.30165
5.81268 113.144 10.3131
11.3105 119.822 11.7711
-9.20615 93.1974 9.00898
14.6814 125.397 10.6032
7.27156 119.992 3.45976
2.29747 117.075 -2.35716
18.9445 140.832 -3.21154
14.5617 133.864 -1.9087
-12.4824 90.3089 6.80039
-7.80645 105.992 -6.55233
11.7687 122.625 8.95009
-9.76498 92.8891 8.6318
-6.49253 107.222 -5.625
14.3183 133.855 -2.2165
2.96972 109.477 10.3695
19.2474 137.717 2.22572
13.9058 134.27 -3.5679
9.15037 121.875 4.884
14.6085 135.624 -3.96662
-0.915639 112.723 -1.95782
15.1488 136.731 -4.37713
-9.80121 103.235 -6.11038
-6.32838 96.2123 11.1972
13.7443 130.57 1.81384
16.2247 131.241 5.88284
-11.747 91.4709 7.20754
14.7803 134.936 -2.31891
13.4068 127.223 6.21669
-14.8558 93.265 -1.5667
14.2279 130.971 2.49133
-9.32529 93.7138 9.05864
17.3989 134.109 4.55945
-13.2003 90.6519 6.0034
13.6309 123.437 12.6305
17.6307 135.264 3.52837
13.9672 125.442 10.4333
21.5269 143.305 -0.261792
12.5365 121.855 12.8652
13.0799 130.457 1.43224
13.9623 125.225 10.9163
11.1207 122.112 9.7437
-14.8519 93.635 -1.42542
14.387 134.156 -1.14448
6.0948 114.656 10.4996
15.2298 136.101 -2.23467
13.9623 129.986 4.15475
1.4749 108.001 10.898
-1.05813 113.219 -1.82133
3.25772 110.964 10.2616
8.88583 120.958 7.11739
13.6162 125.762 9.71733
3.89334 111.922 10.2482
4.98556 120.168 0.493093
17.8185 140.518 -3.05671
9.14979 122.887 5.14388
-2.54195 111.838 -2.44234
-12.1765 100.284 -5.13757
-4.5243 110.208 -4.08151
14.3733 136.69 -4.363
1.46011 117.094 -1.96565
11.0839 122.534 9.64229
6.42875 115.531 10.4565
12.0579 122.009 12.4661
5.21963 113.939 10.3985
15.1587 129.486 7.91836
13.8369 130.003 4.51999
15.2747 135.285 -0.240917
15.6535 136.737 -1.55783
11.2453 123.18 9.28061
7.79467 118.555 9.05318
17.6823 136.332 3.23062
6.19403 120.85 2.5434
14.7802 134.814 -0.295181
-8.05478 107.269 -6.44414
10.289 126.359 2.98757
13.1584 128.118 6.30242
-11.402 93.148 7.60115
12.915 127.588 6.72937
10.806 127.72 2.26525
10.6355 127.414 2.38094
3.75379 112.505 10.268
-4.79333 110.58 -4.20705
12.3401 126.466 7.45532
9.7564 125.318 3.97897
5.51379 120.907 1.83769
6.59385 116.653 10.2428
13.8631 132.917 1.31649
8.99789 122.803 6.20949
-1.50389 104.274 11.94
19.9713 143.793 -2.1211
13.9944 132.381 2.42185
-14.5915 96.041 -2.5163
11.5476 124.935 8.41565
-1.08733 114.329 -1.65921
2.13668 118.85 -1.66282
20.6329 144.385 -1.36899
11.1425 122.924 10.6836
-1.48749 104.54 11.8816
7.92934 123.65 3.14358
-2.3594 102.361 13.3859
14.191 137.315 -4.00422
-2.17769 102.844 13.0862
-14.0012 97.9867 -3.79559
16.5599 134.169 5.45092
-14.0595 92.7961 3.68289
18.5601 142.613 -2.74
14.7495 130.6 7.07506
14.5885 135.11 0.181393
7.39456 118.586 9.73764
14.3172 133.795 1.62884
11.6066 122.987 11.9113
-6.16067 110.13 -5.29026
8.4568 126.397 0.716511
14.1414 133.004 2.61899
6.52099 122.036 3.16015
7.64666 119.435 9.25733
17.1812 136.608 3.60872
12.5817 124.676 11.7464
15.8369 139.723 -3.5957
-14.0659 94.0192 2.46748
11.2308 124.998 8.67036
20.1357 141.642 2.49168
-9.32192 95.7943 9.63361
13.9844 132.336 3.63233
11.9649 126.716 7.75915
-9.04841 107.171 -6.3291
-13.7769 92.8595 4.97267
14.2424 137.067 -2.61864
14.8525 137.294 -1.60464
11.9108 135.072 -4.30992
-6.80944 110.098 -5.85337
-13.9251 98.936 -3.98329
14.5906 136.149 -0.390093
-14.0409 93.91 3.12474
-13.5537 99.6686 -4.28745
18.338 139.17 2.82894
-1.80918 104.912 11.9683
10.8542 132.859 -3.07062
11.2254 123.549 11.2682
14.7982 132.14 6.14209
5.2762 121.773 1.95495
-2.68904 113.681 -2.39409
15.6375 139.894 -3.43595
15.1158 138.311 -2.1606
-13.9661 93.4129 4.35421
18.0358 139.02 2.88315
14.5458 131.811 6.33483
11.9884 127.324 7.70132
9.89992 126.922 4.09082
11.8048 135.447 -4.43697
-12.6467 102.215 -5.54151
-3.16121 113.721 -3.02487
14.1801 137.593 -2.54068
-0.943209 107.019 11.4327
15.2312 133.219 6.17358
-3.67403 101.595 13.9938
-1.69286 105.929 11.693
13.9422 130.077 8.2263
9.99242 131.96 -2.35354
13.8733 130.261 8.00553
-3.05145 114.107 -2.76647
20.1697 143.056 2.1362
11.4744 126.756 8.28898
13.9909 138.11 -3.10357
4.74192 115.623 10.9474
-12.6097 102.774 -5.47455
16.3913 136.021 4.97449
-14.8035 98.0165 -2.84909
-0.270783 108.856 11.0239
14.4258 138.577 -2.46553
14.7589 138.973 -2.33459
-12.8771 102.707 -5.44559
-12.1346 103.785 -5.44578
-4.50317 101.247 13.9076
13.4777 130.217 8.34324
7.94062 122.458 8.46359
0.192584 118.132 -0.864356
0.190954 110.122 10.8479
13.3615 133.362 3.68724
12.9738 137.858 -3.60821
10.5562 129.137 4.3104
13.6578 134.666 2.62048
13.7316 138.569 -2.90747
-13.773 95.228 4.73471
-10.5404 96.4582 9.52847
7.08921 125.25 3.35945
20.1071 145.344 0.508459
6.51607 120.17 9.65911
-15.0876 97.4946 -1.06314
-0.866906 109.035 11.0115
14.3616 139.264 -2.16308
12.661 129.379 8.93424
11.4227 132.094 2.46896
12.541 132.089 4.8176
-10.3046 107.945 -6.32476
-0.679261 117.661 -0.757701
-1.48489 116.753 -1.06785
14.1208 139.07 -1.8871
8.22154 124.02 8.12878
-15.0495 97.1145 0.20486
19.1606 142.814 2.98492
3.34849 123.001 -0.146799
-4.1197 115.363 -4.06569
11.0238 127.735 8.72553
-6.56976 113.117 -5.61611
9.70884 134.005 -3.03303
5.15775 118.825 9.89942
-1.36895 117.186 -0.820962
5.40453 119.438 9.66383
12.8901 135.307 1.73775
-7.75536 112.023 -6.15534
-15.0505 98.4559 -1.14934
-10.74 97.2341 9.48348
10.8464 127.094 9.76738
-8.60713 99.0134 11.2619
-9.62757 109.788 -6.50271
14.0396 139.982 -2.50468
15.5508 141.993 -2.3614
13.7402 139.657 -2.60992
9.47679 127.861 6.02078
3.28724 123.37 0.052257
-2.09446 116.909 -1.41826
16.5211 139.046 4.18072
2.19143 122.168 -0.275797
10.7831 130.735 4.74477
19.6702 145.579 1.20204
3.79528 117.022 10.7254
3.04094 123.243 0.126474
0.574683 112.747 10.4588
15.2197 141.714 -2.01179
-1.76415 108.895 11.4824
12.4882 135.146 2.13769
13.0065 136.712 0.937773
13.748 133.886 6.59472
6.15408 121.398 9.48678
0.417161 120.29 -0.489919
11.792 129.634 9.00666
0.979109 113.556 10.6241
11.8267 139.287 -4.84463
15.0922 136.735 5.61376
-12.3663 106.334 -5.6959
10.9947 129.352 8.25626
11.0661 129.356 8.40461
14.8601 141.475 -1.55325
-8.33957 112.558 -6.26812
18.0512 142.585 3.57416
-14.9241 101.137 -2.81949
-1.32393 118.483 -0.483007
3.21743 117.012 10.9296
-8.52486 100.277 11.5473
12.921 135.345 3.91628
-3.98013 105.221 13.5709
8.65909 133.89 -2.51984
11.4933 132.119 5.86729
16.39 139.982 4.3417
10.7678 130.344 7.0928
-10.706 98.827 9.5417
-6.60904 114.791 -5.40792
15.0288 142.024 -1.21916
10.787 132.117 4.72206
16.3927 140.359 4.1644
-5.55195 115.983 -4.79095
-7.01003 114.518 -5.56556
0.398953 113.703 10.675
12.6289 137.292 1.1502
12.6779 133.534 6.77451
-14.9275 101.573 -2.62236
6.34389 127.251 3.11529
13.7324 137.039 3.90529
6.74745 123.687 9.2124
11.5058 132.625 5.89701
8.73927 127.75 7.4715
2.49373 116.483 11.2725
-5.14968 116.764 -4.5521
11.9328 136.916 0.724929
13.3043 134.616 6.87975
16.2804 140.999 3.72147
6.47705 123.471 9.45936
12.8852 141.116 -3.15861
13.0998 137.635 2.39422
3.0189 118.065 10.5343
-15.5726 100.257 -1.14901
16.1121 140.777 4.1363
-5.23948 117.089 -4.59082
15.6698 139.271 5.5546
-15.1696 101.912 -2.22848
13.4933 141.08 -1.11294
12.6942 136.176 4.52328
-11.9046 109.239 -6.01453
-11.4417 110.049 -6.19435
3.25072 119.413 9.98861
-15.5089 100.931 -1.08352
-15.5267 100.337 -0.228412
14.8097 142.531 -0.192695
12.2675 141.58 -3.86401
-15.5001 100.985 -0.969233
13.242 138.393 2.81247
9.25502 137.551 -3.9151
-12.2646 99.3223 8.19948
6.30286 124.409 9.28456
3.97261 126.62 1.32925
-3.92575 107.417 13.3182
1.75616 123.816 0.945082
6.71342 129.98 2.04822
-6.4838 116.59 -5.16733
11.2609 132.851 7.16535
14.9018 138.687 6.05235
9.19146 137.566 -3.87201
-14.6944 99.1518 3.79315
-13.2631 106.823 -4.46431
-5.98703 117.22 -4.85967
-4.37805 106.928 13.485
8.94648 130.267 6.48233
10.0782 139.684 -4.81795
3.20436 126.088 1.10688
-1.86342 112.027 11.3666
-8.4251 102.713 11.7565
18.0738 147.548 0.131837
-14.6154 100.921 1.81405
3.56111 120.892 9.58164
0.71827 122.99 0.755418
7.86498 127.827 8.23062
4.63419 123.104 8.64717
-11.1961 100.506 9.52111
5.32434 123.899 8.94899
6.44202 125.481 8.94988
13.4167 141.76 -0.558159
16.0187 145.178 -0.208348
13.8745 137.183 7.15657
-7.945 115.652 -5.7144
5.16118 127.948 2.96565
11.6198 134.976 5.83561
4.12015 122.609 8.68363
11.7268 135.306 5.73584
11.4741 138.5 0.658048
11.7797 138.498 1.29238
6.92225 133.707 -1.45801
8.60796 137.534 -3.61717
12.865 141.453 -0.688625
1.31857 124.289 0.983701
7.43787 135.271 -2.50663
-14.9215 101.977 0.791006
12.6279 136.045 7.07868
13.8031 140.053 3.67553
9.87737 140.565 -5.03553
-11.4864 101.047 9.29481
12.017 142.642 -3.67558
13.7428 139.772 4.0767
-14.8681 102.452 0.473529
12.6292 139.25 2.66281
-4.056 120.131 -3.26171
-4.54567 119.611 -3.48886
-14.3086 105.98 -3.24454
11.454 142.416 -4.11038
1.12869 117.409 11.48
17.3573 145.372 3.67185
1.48776 118.325 10.9627
-12.5216 101.147 7.61075
-12.2494 101.331 7.96647
1.19944 124.763 1.07769
13.1993 138.942 4.77452
5.93486 125.853 9.14399
3.55773 122.6 9.0964
0.121216 123.648 0.661552
12.8413 142.371 -0.779385
-11.9252 101.574 8.53562
-12.8451 101.344 7.06071
1.9103 119.501 10.5502
-14.4566 103.715 0.419726
17.6999 147.728 1.48783
4.88738 124.975 8.72317
7.07319 128.095 8.67596
9.68641 134.017 5.3533
17.5404 146.956 2.44237
7.66005 129.315 8.138
-2.82978 121.628 -1.90515
11.8705 136.014 6.96524
14.8572 141.154 5.55225
13.5159 143.368 -0.271093
-13.698 101.541 5.61204
13.628 140.067 4.87011
13.6246 140.076 4.89427
5.53695 130.135 3.00327
-13.6598 101.636 5.65504
12.1629 142.204 -1.09299
10.0981 136.896 2.52385
-13.4602 101.758 5.99332
13.3647 138.599 6.73241
8.1594 138.696 -3.96378
10.1153 136.69 3.09876
-14.1565 104.165 1.33251
15.6444 143.757 4.08622
-8.91656 104.581 11.4331
15.6557 146.689 -0.122515
-14.4042 102.404 3.54472
15.7687 144.001 4.10538
2.37459 127.109 1.64446
12.1837 142.574 -0.988356
-13.2829 110.185 -5.39117
9.75193 135.611 4.29007
1.8375 126.486 1.57217
-10.3124 103.781 10.1068
-11.4439 102.902 9.22124
-14.3167 108.052 -4.09351
-3.39367 122.135 -2.46201
-13.8508 102.535 5.1178
7.5913 130.452 7.91451
-5.35594 108.614 13.591
5.99272 133.185 0.786822
4.43888 129.74 2.66217
-14.295 104.154 1.99632
-2.80793 122.751 -1.70931
5.87077 127.663 8.78409
1.29679 119.961 10.8359
7.39721 130.438 7.97535
7.02443 137.61 -3.20137
9.75745 138.637 1.13765
8.42271 132.876 6.86869
15.6613 144.705 4.37193
-7.60776 118.726 -4.88472
14.3585 141.746 6.15682
15.6661 148.085 -0.416101
4.92628 131.027 2.70907
-13.5924 103.374 5.58368
11.5741 141.041 1.75122
9.54446 138.146 1.86337
14.2753 141.567 6.51984
11.8437 140.763 2.78043
-13.9984 103.775 4.30019
-2.06157 123.484 -0.108674
4.83912 127.347 8.44848
-4.84599 111.025 12.6926
13.6594 141.903 5.24098
-13.4854 105.343 3.48694
-0.0823792 118.518 11.499
-9.29174 117.477 -5.57093
15.5925 148.599 -0.448114
9.70405 137.515 3.81561
9.49838 138.067 2.71667
-7.66443 119.251 -4.6348
-0.406433 118.303 11.5104
-13.6657 104.262 5.08727
12.1497 144.56 -1.2867
12.1501 144.489 -1.13655
9.61981 137.688 3.65474
-3.21265 114.545 11.4029
-14.0427 105.899 2.05342
-13.4938 104.189 5.73371
6.2819 137.359 -2.44484
16.1971 146.686 4.09068
2.0591 128.415 2.0981
12.228 144.438 -0.60741
-1.95937 116.475 11.3989
-8.33831 106.818 12.5874
-13.4951 104.47 5.62096
-0.871314 117.981 11.5549
2.23883 123.697 9.54683
2.35911 124.023 9.32091
8.36491 135.217 5.24106
11.6421 141.92 2.1291
7.22202 139.814 -3.73843
5.62043 129.087 8.71302
13.7851 142.357 5.9843
-6.42786 120.74 -3.45796
-13.2486 105.418 5.07469
-6.89366 120.335 -3.71684
6.25493 130.397 8.32689
-3.70407 114.332 11.6041
-13.1965 105.398 5.39024
-4.8846 122.719 -2.96023
10.3123 141.644 0.298061
-2.13958 124.513 0.0468271
2.72467 125.57 8.39539
14.3109 144.17 4.77719
5.47642 134.598 0.842869
15.3338 149.191 -0.34942
-13.202 112.968 -5.28802
-12.9587 105.849 5.66693
-5.36572 111.754 12.4977
-5.66591 122 -3.00691
8.00639 135.72 4.77545
14.9736 148.637 0.0848826
13.4864 142.631 6.00294
5.39527 135.256 0.397254
3.4484 131.056 2.76735
4.3582 132.521 2.52647
0.108474 127.363 1.47904
11.5437 145.776 -2.15208
-15.7001 106.246 0.332159
-7.51131 120.525 -3.86424
-12.4321 106.331 6.94645
8.81335 138.292 3.49741
-4.90246 123.863 -3.23827
7.79816 137.268 3.10659
-12.105 106.368 7.79961
1.06651 122.667 10.8052
-11.5278 108.111 6.48969
-13.1897 113.901 -5.31679
7.6196 142.012 -4.04228
13.4497 143.256 6.06788
1.01523 122.725 10.7958
-1.29004 119.244 11.2002
7.68569 134.771 6.7732
8.58386 138.373 3.36367
11.1452 146.152 -2.75014
-7.52449 109.347 13.3334
-9.17396 119.861 -5.35057
13.3956 143.455 6.0365
-7.76373 109.189 13.1892
3.82448 128.725 8.2093
-5.58007 112.801 12.379
-12.6208 108.226 4.78296
6.57902 133.118 7.5867
4.90297 130.155 8.5398
-8.49664 120.521 -4.60194
-9.52357 107.923 11.7462
2.64276 127.578 7.79158
-14.5977 112.112 -4.45731
0.712915 129.35 1.51543
8.48037 144.608 -4.97533
-10.6557 118.29 -5.34878
-0.800056 120.931 10.9524
8.59988 139.666 2.70099
6.60424 133.702 7.43666
12.5604 148.443 -1.96139
-10.1162 108.017 11.0325
-5.61254 124.264 -3.49361
-10.8794 118.182 -5.27253
-13.5762 114.404 -5.23045
4.82253 135.838 1.0353
2.12611 131.461 1.99487
8.70668 141.317 0.973524
-4.03252 116.394 11.517
5.42015 131.9 8.14297
-5.86308 113.155 12.5955
-8.5237 109.279 12.8802
-10.5513 108.131 10.4608
14.7363 148.601 2.76877
1.81059 126.414 8.91788
-13.3296 108.471 4.5466
-3.07142 118.005 11.4639
8.63871 141.461 1.02589
-12.7792 108.877 5.17147
10.2868 144.002 0.864143
-10.1014 108.615 11.1143
12.0701 144.054 4.46561
-15.9759 108.336 -0.267078
-15.5729 107.713 1.55152
-11.2286 118.374 -5.11004
4.46646 131.137 8.1923
6.0212 134.024 7.42041
2.61812 132.825 2.55806
2.44525 132.681 2.42298
7.656 144.716 -4.51452
7.71303 140.074 2.40206
-15.6594 111.092 -2.74284
14.6187 149.901 2.15734
7.77944 140.223 2.49299
6.38856 136.373 5.35097
-1.53308 121.624 10.797
1.37926 131.967 1.62145
4.91741 132.512 8.01024
3.55245 130.463 8.24304
10.8237 148.15 -2.66553
2.38819 129.102 8.0648
-13.7241 115.73 -5.00071
7.45954 144.813 -4.40861
5.45958 133.875 7.52045
-13.433 109.291 5.07354
-12.4772 117.385 -4.74061
12.7129 146.773 3.7591
10.0969 145.104 0.919903
-5.6189 126.087 -3.22546
5.33835 140.892 -2.33588
-7.8687 123.986 -4.4363
5.90047 137.833 3.34315
5.8276 138.073 2.90937
3.73707 131.997 7.66306
2.5721 130.148 8.12795
-2.52571 121.161 10.9587
0.288851 131.994 0.92375
-6.79198 125.797 -4.20594
5.73076 137.797 3.79098
13.4855 149.447 2.53722
10.9663 145.623 3.02053
1.00201 132.8 1.51025
9.67171 145.477 0.737584
11.2551 149.852 -2.38214
-4.33124 118.734 11.5984
-8.87422 123.374 -4.32714
-9.0014 123.14 -4.20882
10.9817 145.614 3.56461
-5.52353 126.929 -2.66094
13.1443 150.914 0.250682
-11.7651 111.956 6.6716
0.203764 127.703 8.01411
10.8945 150.003 -2.7663
-13.6467 117.211 -4.6631
4.52644 134.272 7.51077
-3.75311 129.055 -1.50401
-6.44799 115.353 13.0545
11.135 150.15 -1.92142
12.0985 150.289 -0.147142
8.64787 148.52 -4.56618
-10.8726 121.985 -5.46502
-15.214 114.933 -3.98411
1.66876 130.584 7.60014
-3.57135 129.459 -1.2573
-11.6372 112.69 6.85732
-2.8191 130.039 -0.501551
-1.06582 131.856 0.501221
-13.3345 118.483 -4.86222
-14.3129 110.398 4.99091
-13.0971 118.847 -4.8298
-15.0127 115.852 -4.28386
4.41243 140.193 -0.261429
10.7958 146.885 2.96125
2.6338 136.2 2.0793
-3.88311 120.732 11.4257
7.02798 146.741 -4.363
11.6 147.892 3.28695
-16.1512 110.688 1.31459
-2.11625 123.423 11.3281
-2.38918 131.055 -0.267624
-10.0035 113.648 9.67702
-9.27232 124.512 -4.65598
-13.7312 118.433 -4.83176
-0.29451 128.49 7.78513
9.38699 150.049 -3.92463
0.484752 129.901 7.49307
2.25495 136.106 2.04
-15.2762 115.828 -3.93923
-1.50456 125.233 10.3455
10.7684 147.556 2.70625
2.597 133.405 6.81738
-1.67208 124.751 10.8186
-8.78021 126.228 -5.75865
-16.1624 113.332 -1.90793
8.23032 148.944 -4.34542
-9.66984 124.122 -4.44534
10.5816 150.623 -1.90966
12.0304 149.576 2.64729
12.72 151.186 1.72303
10.3916 147.904 1.79465
-8.51249 126.686 -5.58997
3.74354 135.169 6.93052
-15.7467 112.783 0.0560232
-9.55701 113.389 11.7433
12.603 152.249 0.0733319
-15.3972 113.336 0.0842302
-8.08703 114.779 12.9489
-15.4715 113.946 -0.785328
-8.40321 127.066 -5.57879
3.65119 139.562 0.660271
-4.46874 130.324 -2.33362
-14.3629 111.546 5.08414
-7.42386 115.644 13.2225
-10.1906 123.884 -4.40614
9.66129 150.679 -3.02939
-8.67653 114.385 12.7316
-15.735 114.63 -1.86879
-11.3003 123.036 -5.13098
-14.0987 112.059 5.28712
-3.59551 131.206 -1.32634
2.75616 138.101 1.52982
-10.6229 123.771 -4.67152
-3.45543 122.747 11.3766
4.36249 137.118 6.29425
-2.04677 132.721 -0.271142
-15.8488 115.27 -2.81306
4.27106 136.803 6.62367
11.4506 149.474 2.77799
-0.340605 130.164 7.05486
7.41399 145.208 0.887704
-0.377251 130.158 7.04384
-15.5434 115.229 -1.87308
-12.2407 113.505 7.38659
-0.719861 134.272 0.512633
-1.43441 133.597 0.0680579
2.46938 134.652 6.48768
-6.475 129.847 -4.61777
4.29073 142.442 -1.10193
-10.1899 124.62 -4.46391
11.6583 150.411 2.4125
-0.567611 130.378 6.86594
-7.48975 129.235 -5.50294
6.34706 144.028 1.06465
-7.87916 129.071 -5.97186
7.04038 148.592 -4.06763
-7.66432 116.351 13.167
-0.880237 129.768 7.37178
4.38318 143.296 -1.62285
-6.58221 130.329 -4.85606
1.43437 133.952 6.16703
-1.02422 129.076 8.32736
-5.34427 131.229 -3.58068
-6.56757 118.039 13.2505
4.92848 144.953 -2.67447
9.22382 148.677 0.680375
-15.5514 114.858 -0.224863
6.94765 145.347 1.00021
-1.26463 128.056 9.57807
2.99125 140.063 0.752011
-14.7948 112.419 5.01892
5.97302 147.436 -3.83882
-2.88897 124.903 11.0854
-12.1599 114.089 8.04676
-10.0746 126.069 -5.16214
-5.76265 131.526 -4.30078
-0.186781 135.789 0.883691
-16.1539 112.668 2.24252
-7.10371 117.752 13.2359
11.0228 150.364 2.47599
-1.40788 128.321 9.46527
-0.780813 135.303 0.565545
-9.33382 115.828 11.7023
-0.00603895 132.254 6.69944
-5.48441 131.897 -3.8406
-1.31809 129.08 8.7894
-3.2936 124.444 11.5703
6.63902 148.949 -3.90941
-14.0267 118.872 -1.9639
6.26717 145.679 0.178941
-5.57146 132.377 -4.20661
-6.97395 118.652 13.0282
-15.1244 115.387 1.31862
10.8027 150.97 2.05321
-15.0592 117.036 -0.921297
-4.15534 133.092 -2.17789
-15.4397 114.14 2.62431
9.76095 149.841 1.90904
9.64257 151.854 -1.22074
-14.2877 120.134 -3.4902
-14.6765 116.047 1.71131
4.77028 143.953 0.47455
4.38136 143.245 0.77353
-2.91734 134.398 -1.06837
-14.592 116.815 0.945663
9.81001 150.026 2.02328
1.38592 135.779 5.71682
-10.0409 116.34 10.8884
-15.4684 114.201 3.03039
-14.5348 117.16 0.693039
1.75872 139.507 1.20325
-9.09543 129.34 -5.95515
3.32381 142.731 -0.245815
0.76329 138.124 1.3979
-14.5127 117.349 0.795293
-4.78575 123.378 11.8075
-14.133 119.466 -1.4516
10.7497 151.834 1.84717
9.72541 152.232 -0.800608
-4.06627 125.878 9.67188
-6.73354 119.878 13.0467
-3.30898 127.569 8.81099
-14.1542 120.124 -2.30651
-14.0016 119.906 -1.66899
3.14193 138.676 5.74769
-13.4016 122.611 -4.39191
-5.79583 121.621 12.4971
-2.93787 134.987 -1.15056
3.02221 142.529 -0.0245312
-7.64486 119.125 12.4974
2.31459 141.816 -0.351192
-14.9242 119.06 -2.13528
-7.38562 132.249 -6.00322
10.549 151.997 1.73445
-14.1201 120.393 -2.16835
-13.9886 114.47 6.75932
-3.95039 126.751 9.21807
8.64199 152.228 -2.38566
2.19762 141.96 -0.343788
10.4174 151.973 1.73822
1.23053 139.606 1.14978
8.64472 150.303 0.798127
-14.4579 118.001 1.05186
-2.15766 130.118 8.35792
-11.2839 126.315 -4.55322
-6.00004 121.992 12.4858
-7.02684 120.303 12.8753
-14.5203 120.606 -2.72497
-13.7648 114.834 7.3082
-13.9676 121.251 -2.45363
-14.1127 121.074 -2.35619
-12.0171 125.648 -4.76812
8.58121 150.483 0.811785
-13.8321 122.236 -3.46774
10.158 152.174 1.59834
-3.9441 135.43 -2.53485
-3.79975 135.568 -2.42108
-5.12677 124.086 11.9641
-8.97441 118.65 12.0863
-14.8705 114.541 6.15745
9.28253 151.303 1.58295
-10.6627 127.959 -4.63655
8.47785 152.778 -1.95985
2.67653 140.241 4.60955
-2.64255 131.513 6.80943
2.25136 141.762 1.92675
0.319401 139.775 0.941907
-3.06236 130.148 8.1909
-0.40965 135.81 5.33753
-4.03562 136.354 -2.7981
-10.7934 127.807 -4.00459
-9.94442 118.11 11.8882
-14.5844 119.954 -0.218824
4.57294 148.562 -2.95345
-12.9473 120.942 1.79424
1.82345 139.161 5.23942
-5.8815 135.716 -5.36556
-5.71927 135.92 -5.30904
-14.3302 120.224 0.174064
-5.50753 124.771 11.4552
-0.488878 136.057 5.26028
9.51394 153.766 -0.170111
-0.133712 139.906 0.744377
-7.02726 134.843 -5.85719
-15.6833 115.254 5.17157
-9.47833 119.562 11.6178
-7.58972 122.58 11.0764
-2.24472 133.468 6.09517
-15.238 120.009 -0.562572
7.00631 152.485 -2.79438
-5.97256 125.372 10.4779
-12.6515 125.78 -3.60528
-13.9179 119.607 2.8918
-9.92172 130.649 -5.00993
-15.2735 119.264 0.753565
-13.9558 120.881 1.19796
-14.4757 120.732 0.383644
1.52301 142.503 1.11327
-14.3084 120.206 1.53291
-7.91712 123.098 10.3143
-14.5214 117.105 5.65285
-10.5354 129.42 -4.08474
1.52112 140.06 4.92235
-3.54157 131.365 7.34285
-13.5829 120.62 2.70163
-14.0736 120.257 2.24851
-8.736 132.378 -4.57696
-14.6481 122.456 -2.03646
-12.2138 127.055 -3.79154
-7.12863 125.768 8.54162
-13.7884 122.302 0.0961672
-7.59375 124.913 8.87232
-13.6528 121.951 0.972794
-3.9441 131.456 6.82145
-3.31257 138.518 -2.15442
-14.2224 122.219 -0.513798
-2.36525 134.456 5.73965
-9.24679 120.797 11.7492
-4.79391 129.341 8.32376
-9.41104 131.656 -4.33189
-13.651 122.237 0.824228
-15.6616 116.91 4.52863
-15.9296 117.026 3.91329
-15.0474 120.464 0.718568
3.47948 148.224 -2.09842
9.04901 153.686 1.25027
-13.5862 122.766 0.46865
-7.87467 134.779 -5.45225
-2.44376 139.376 -1.10269
-14.5625 119.707 3.12379
9.0193 153.849 1.2088
-14.3597 121.54 0.904464
1.63327 141.327 4.6176
-5.67419 127.995 9.24986
9.46908 154.64 1.11264
-15.8061 119.158 1.59907
-13.2513 121.714 3.13772
1.65324 142.248 3.47053
0.28332 139.7 4.47028
-6.36048 126.685 10.0212
-5.23579 138.393 -4.70517
-14.0857 124.345 -2.10201
-2.7286 139.74 -1.42818
-4.5675 138.693 -3.60291
-4.18579 132.272 6.55646
-14.5295 117.564 7.06903
-10.8417 120.302 10.5753
-4.8648 138.691 -4.10025
-6.00068 128.85 8.05852
-15.1937 119.254 3.45099
-14.2956 122.398 0.689541
-1.64763 136.912 5.19891
3.44618 149.141 -2.23179
-14.8127 120.627 2.44559
1.23071 141.684 4.30313
-6.67566 127.795 8.5665
-14.6169 121.549 1.60662
-12.098 119.825 9.36774
-15.8227 119.085 2.9382
7.48019 154.176 -0.858309
1.39093 143.316 2.63468
-1.19107 141.615 -0.0948468
-14.4926 121.912 1.65975
-5.62291 138.659 -4.74713
-14.1659 120.863 4.0749
-2.72192 135.702 5.70041
-6.72585 137.668 -5.28528
-15.9364 119.169 3.01813
-13.3571 119.222 8.18923
-0.276532 143.038 0.14819
-5.18677 131.245 7.40711
-15.2108 123.217 -1.12044
-11.6332 129.544 -3.06468
-8.76869 134.789 -4.78693
-13.5919 124.996 -0.27775
-11.6078 129.664 -2.99708
-12.8488 120.194 8.35011
-13.2014 125.584 -0.177342
-15.8327 119.315 3.65911
-14.9381 121.656 2.0684
-1.15005 142.354 -0.134266
-13.4958 125.234 -0.177251
4.84966 152.659 -2.89744
-15.0877 119.771 4.62369
-15.0081 118.329 6.88956
-0.0867625 143.777 0.096182
-14.8231 122.598 1.23776
-14.5734 124.526 -1.05052
-14.3554 120.248 5.71634
-14.9264 123.63 -0.358223
5.51655 153.397 -2.18481
-15.2041 118.271 7.04909
-14.6515 119.404 6.60882
-0.964839 140.249 4.13911
1.64425 147.258 -0.785072
-15.6053 122.578 0.291372
-15.8508 119.47 4.37681
-12.2773 129.506 -2.91055
-15.1978 119.995 5.06096
-0.599197 141.262 3.70956
-11.2646 121.915 10.3511
0.788773 143.702 3.10399
-14.5462 123.595 1.3558
-2.56583 137.927 4.93243
-15.5211 120.131 4.64017
-15.2383 119.442 6.26925
-15.1496 124.011 -0.0521148
-14.5398 119.944 7.16608
-3.37767 141.943 -2.1825
-15.2333 122.333 2.44697
-15.4113 121.906 2.71635
-15.5884 120.517 4.42394
-0.460405 144.69 -0.101542
-13.3255 120.814 8.6381
-13.8974 119.834 8.95128
-16.203 118.051 6.98092
-14.6165 120.332 6.91801
-3.35607 142.245 -2.13307
-5.17962 134.064 6.15048
-12.9866 121.486 8.67311
-15.2879 119.055 7.69127
-14.8378 124.867 0.215665
-14.3252 119.691 8.85793
-13.7101 120.595 8.93731
-5.07815 134.572 6.15017
-16.5479 119.65 4.67427
2.2338 150.371 -1.93589
-13.9199 127.21 -0.864982
-13.4789 120.951 9.178
-16.4291 121.463 2.47961
-17.5871 118.357 4.73252
-17.7445 118.227 4.6385
-15.8527 120.151 5.71367
-7.62695 138.965 -4.97561
-15.6492 120.462 5.74586
-14.8377 120.558 7.32048
-15.482 120.029 6.82213
-9.69691 135.634 -4.15203
-15.8549 119.664 6.71257
-5.71923 134.149 6.18662
-14.1963 126.482 0.176109
-6.29709 132.455 7.55216
-16.9484 118.079 6.91335
-17.2676 120.569 2.76138
-6.37177 132.425 7.59219
-14.0458 120.547 9.37864
-13.4802 128.419 -0.918335
-2.50841 143.831 -1.10398
-13.7834 127.133 0.423698
-10.4568 134.5 -3.43547
-16.7425 118.799 6.76893
-16.3344 120.303 5.41462
-15.4034 120.779 6.73125
-3.52007 139.036 4.26607
-13.0288 122.927 8.49462
-16.2388 120.679 5.29776
-13.4692 129.264 -1.56384
-15.5046 119.533 8.58882
-19.874 116.422 4.30206
-6.91557 131.933 8.01358
-10.9875 133.393 -2.36757
1.3477 150.063 -1.61673
-17.7019 121.004 2.17701
-19.7218 116.877 4.19622
-11.5181 125.907 7.76388
-13.8681 128.579 -0.870232
-10.1 127.703 8.06502
0.391379 148.398 -0.814201
-14.8903 121.549 7.43592
-3.37457 144.087 -2.0175
-15.7494 120.173 7.82978
-17.8475 121.071 2.26342
-13.536 122.468 8.98669
-14.7187 120.147 10.0161
-16.1322 120.53 6.59452
-3.18721 140.099 4.33353
-15.6053 120.375 7.92062
-15.2481 121.342 7.27267
-15.406 121.323 7.40256
-3.74202 144.361 -2.40546
-11.6952 125.532 8.94442
-15.7598 120.686 7.77467
-16.7986 118.716 8.63564
-7.54732 131.867 8.23942
-11.0819 126.515 8.94892
-13.8995 129.294 -0.715967
-15.1465 121.623 7.95453
-7.93819 140.387 -4.60418
-9.02306 138.834 -4.50326
-13.3839 123.909 8.51323
-7.48434 141.276 -4.81433
-14.0487 122.822 8.82697
-15.4592 128.055 -1.61466
-2.60399 142.285 3.82187
-9.34731 138.612 -4.29319
-12.9815 124.928 8.35828
3.22605 154.426 -1.75626
-14.1861 129.793 -1.14192
-17.8432 118.988 7.43672
-15.1578 128.644 -1.16655
-15.6701 121.027 9.00913
-8.91859 130.51 8.93762
-16.3752 120.702 8.1392
-18.485 118.646 6.94669
-13.7252 130.444 -0.433868
-16.9248 119.206 9.51549
-5.63811 144.183 -3.96948
-9.44783 130.142 8.88614
-13.3587 124.718 8.88041
-20.104 118.66 4.06399
-14.6356 129.849 -1.01252
-18.6113 120.283 5.07726
1.28235 153.131 -2.36625
-8.94517 131.087 9.08762
-12.5112 133.277 -1.28958
-13.6088 124.675 9.22477
-13.8525 124.523 8.96205
-12.3284 125.863 10.1282
-13.884 124.219 9.40473
-3.30059 146.661 -1.77776
-2.93685 143.715 3.27994
-14.57 129.4 0.604049
-8.8456 131.463 9.22489
-17.6748 119.866 8.26184
-3.45651 142.669 3.91529
-10.0303 130.211 8.80296
1.44411 153.639 -2.0457
-18.1925 123.6 1.94344
2.22715 154.463 -1.60502
-3.19222 143.46 3.45512
-9.66619 130.736 8.9018
-18.6009 121.482 4.32983
-20.4652 116.445 7.99675
-14.2694 124.361 9.06693
-12.9903 133.153 -1.00131
-13.9307 130.575 0.862934
-7.52799 135.269 7.13737
-13.3846 132.204 -0.209105
0.605292 153.126 -2.34003
-3.41581 143.564 3.52594
-0.195812 151.661 -1.72083
-19.6504 118.866 6.67419
-18.8109 122.005 3.85658
-15.2332 121.841 11.4345
-12.6685 126.197 10.3584
-18.3673 123.827 2.25562
-3.8221 143.085 3.82317
-0.381494 151.73 -1.66787
-6.22334 145.353 -4.21825
-15.4877 121.75 11.534
-8.51267 142.382 -4.36281
-15.5063 130.18 -0.671658
-11.5889 137.425 -3.16184
-0.677759 151.468 -1.47649
-19.8099 118.426 7.91449
-5.96305 140.247 4.19673
-20.9651 118.792 5.14914
-19.162 121.65 4.68998
-22.1687 116.21 6.64022
-18.2339 120.084 9.10467
-10.5853 130.858 8.97008
-17.0215 128.656 -0.760817
-12.5849 134.957 -0.870499
-5.85649 140.981 4.01614
-17.0715 128.677 -0.730303
-9.28093 141.604 -3.72615
-11.3603 138.18 -2.90635
-18.3802 119.843 9.68195
-14.5425 131.986 -0.151742
-11.1746 130.618 8.68431
-11.8374 129.638 8.78533
-15.9999 123.396 9.65561
-8.64111 134.21 8.87652
-12.8057 134.628 -0.184831
-19.0576 123.509 3.36873
-10.862 131.03 9.09113
-15.4098 124.27 9.75025
-4.32673 144.001 3.46496
-13.1062 134.196 0.0417411
-13.8916 133.324 -0.276147
-18.4402 127.172 -0.463857
-12.1596 129.312 9.28136
-5.12444 143.069 3.61663
-11.562 138.463 -2.67133
-19.297 123.342 3.74919
-5.59194 147.509 -3.66844
-6.65355 140.221 4.92515
-22.4967 116.76 7.02341
-19.4874 122.829 4.34271
-7.86785 137.348 6.77922
-18.8745 126.891 -0.235992
-12.8518 128.097 10.2299
-12.3504 129.351 9.50853
-18.6673 127.509 -0.401266
-21.1889 117.825 8.80562
-20.6676 121.833 4.07106
-15.7722 123.652 11.4
-15.3753 124.908 10.4226
-6.24062 147.378 -3.75726
-11.6279 138.954 -2.37875
-9.49153 134.004 9.48743
-15.196 125.819 10.1039
-17.5059 121.807 11.2981
-19.6497 126.471 0.215743
-14.2164 126.681 10.9557
-8.70739 135.645 9.07675
-21.5083 121.396 3.9014
-16.4093 131.899 -0.981607
-4.28996 149.707 -2.32372
-18.1712 129.034 -0.25647
-4.33653 146.228 2.77518
-15.5057 132.559 0.121332
-22.1504 117.746 8.28025
-8.53731 137.424 7.2243
-11.1902 140.479 -2.61302
-15.872 125.488 9.89178
-3.23396 151.007 -1.66096
-12.1289 131.426 8.87613
-12.6555 130.998 8.56682
-13.9815 134.62 0.724713
-14.256 127.495 10.7008
-12.1206 131.651 9.05505
-11.1741 132.413 9.88803
-12.4874 137.317 0.160252
-11.1679 132.478 9.91765
-17.4989 122.842 11.3569
-16.0528 126.373 9.14557
-7.03869 141.814 4.92091
-17.2663 130.966 0.0969242
-10.7716 142.216 -2.96937
-18.7717 128.121 1.55025
-8.917 137.028 8.6227
-7.94097 140.038 6.26279
-16.5296 124.951 10.8842
-21.8281 121.418 5.42106
-15.0295 127.264 10.7585
-11.7588 139.448 -0.292072
-18.6879 128.464 1.68964
-9.59891 144.78 -3.58647
-15.8854 127.3 9.17144
-20.4485 125.369 2.96019
-16.2195 127.387 8.67168
-7.19924 142.56 4.85473
-20.2854 120.876 9.94707
-12.6281 132.211 8.97143
-17.3572 131.916 -0.189782
-19.5075 126.834 2.87106
-16.8207 125.533 10.3408
-9.27671 136.98 9.08657
-14.4209 129.239 10.0731
-14.9908 128.439 10.3465
-3.44839 152.834 -1.70662
-12.048 140.038 -0.465356
-4.03168 152.188 -1.90273
-18.1016 131.155 0.367945
-5.76896 146.642 3.00782
-12.2859 140.865 -1.7622
-19.5974 127.385 3.11683
-7.21434 143.762 4.46892
-20.496 121.586 9.93706
-14.4084 130.537 9.37511
-14.829 130.118 9.22829
-14.8887 130.163 9.14829
-7.46736 149.084 -3.39619
-16.7163 127.986 8.63476
-18.7204 130.411 1.17304
-22.1836 122.017 6.42165
-11.3464 142.515 -1.4594
-12.2224 141.285 -1.3252
-14.8637 136.492 0.554774
-12.9679 132.931 9.60701
-17.3715 127.296 9.12026
-17.3141 127.649 8.86333
-6.94448 145.72 3.70406
-19.0195 130.039 2.09453
-18.2134 124.983 11.2431
-12.0425 141.973 -0.804209
-9.47291 139.719 7.75526
-10.9327 136.724 9.40314
-8.10165 143.608 5.35623
-7.31952 145.881 3.87177
-7.75352 144.98 4.45968
-22.1257 123.154 7.18032
-20.0504 127.649 4.86493
-17.5701 128.503 8.8259
-21.16 125.688 5.6638
-15.6932 136.296 1.3811
-17.6358 133.792 1.10447
-9.93665 147.325 -2.68514
-22.1781 122.602 8.62127
-11.989 143.103 -0.56456
-8.33506 144.272 5.30109
-21.4906 125.452 6.1107
-18.4778 132.972 1.28826
-22.1155 123.105 8.54544
-20.4012 126.731 6.77232
-15.2826 137.55 1.397
-11.1916 137.781 9.5063
-20.2858 128.136 5.30153
-6.60767 148.923 2.78366
-19.2926 132.04 1.78022
-18.7836 126.904 10.4446
-15.6629 132.309 8.95236
-21.822 123.608 9.16292
-18.1732 128.869 8.89658
-19.4486 131.776 2.10487
-9.8408 148.245 -2.42071
-11.9051 143.834 0.00339562
-11.6949 144.697 -0.763482
-21.9173 123.528 9.57654
-14.9778 133.321 9.38149
-18.7633 127.925 9.63097
-21.348 124.208 9.8311
-13.4491 140.781 1.92115
-11.2606 146.042 -1.2802
-16.414 136.186 2.64659
-18.5217 128.915 8.99136
-11.8545 143.524 1.25666
-17.0901 130.987 9.0066
-14.2564 139.894 2.0348
-6.75291 150.061 2.43775
-10.836 139.742 9.3786
-20.2437 126.014 10.3813
-15.0211 139.156 2.10623
-16.4964 132.307 9.32945
-17.5955 131.032 9.06849
-8.57369 146.496 4.86318
-16.4194 137.094 2.74258
-10.6188 148.185 -1.65604
-8.82798 145.963 5.25098
-14.1978 134.919 10.5086
-8.56497 146.659 4.82495
-15.6963 138.719 2.20931
-6.96005 152.978 -0.801946
-11.6495 146.315 -0.102502
-8.37758 148.117 4.01906
-19.5045 131.97 5.00051
-14.6089 135.06 10.6729
-14.2797 141.348 2.31112
-10.1337 142.988 8.38926
-14.6108 141.287 2.43996
-9.23754 146.775 5.401
-19.5882 129.697 9.44401
-19.6796 132.73 4.93905
-15 135.228 10.8365
-18.095 135.174 4.71274
-19.7284 132.897 4.78862
-18.7364 134.46 4.83973
-19.5799 133.459 4.59974
-10.9514 142.615 9.00006
-8.58356 149.93 3.23679
-17.8249 136.335 4.38638
-19.691 133.214 5.16046
-9.13841 148.412 4.42371
-8.29412 151.068 2.36779
-19.8043 130.451 9.16683
-18.4759 132.138 9.5251
-17.0557 138.165 3.75227
-12.3023 140.719 9.74469
-14.3078 137.534 10.3785
-8.56345 150.75 2.78742
-19.9326 131.956 7.16234
-17.1365 138.153 3.8623
-9.1218 149.294 3.9013
-17.3358 137.887 4.05893
-13.6066 143.499 3.53757
-14.9862 141.887 3.22916
-10.9279 144.393 7.98177
-9.27381 151.597 0.915092
-11.7352 147.841 1.40674
-17.8802 133.353 10.0783
-18.725 132.506 9.66048
-17.6506 137.472 4.69518
-19.8555 132.417 7.64808
-9.38443 150.533 2.49724
-21.0183 130.061 8.75796
-10.9243 145.506 6.99094
-18.7645 135.254 6.1761
-11.205 144.652 7.82919
-14.7982 138.121 10.1533
-17.8169 137.149 5.76895
-9.99295 149.571 3.54774
-19.4247 132.357 9.5843
-12.7328 146.183 3.23406
-12.5938 142.346 9.12437
-10.8954 149.507 2.14286
-12.3745 147.189 2.9681
-18.6978 133.528 10.1161
-10.7242 149.018 3.70503
-13.7019 144.449 4.55271
-10.7832 148.141 5.21396
-18.2664 134.432 10.1224
-10.8929 148.188 5.03969
-18.0105 134.832 10.1096
-15.3706 138.751 9.78705
-12.2721 144.117 8.28455
-12.1498 146.106 6.62098
-15.961 138.868 9.61851
-19.4682 133.95 9.68421
-19.5134 134.199 9.26385
-12.4476 147.295 4.55171
-13.4603 143.05 8.72556
-12.3428 147.283 4.90928
-12.3487 146.356 6.41774
-17.5227 137.193 9.43465
-18.0345 138.692 6.8253
-16.1986 139.612 9.27667
-16.757 138.777 9.3639
-18.059 138.527 7.09033
-16.0762 142.298 5.62169
-18.6578 137.086 8.02145
-13.5129 146.224 5.29848
-13.5922 146.045 5.4927
-18.3206 137.213 8.79477
-14.662 142.343 8.7779
-13.9497 145.43 5.80147
-16.9807 139.575 8.19476
-16.9739 140.443 6.98094
-15.2478 143.735 5.68253
-15.2367 143.677 6.1167
-16.5716 140.373 8.23527
-13.9877 145.231 6.8124
-15.4214 142.91 7.4891
