ply
format ascii 1.0
comment Created by Open3D
element vertex 1934
property double x
property double y
property double z
end_header
-18.3224 101.886 -3.43304
-10.9344 106.076 -9.03118
-16.419 103.908 -6.97868
-1.81651 101.43 7.66621
-12.7709 105.385 -8.3648
24.0699 112.557 -4.04845
26.4553 112.005 -1.28279
12.2215 110.825 -6.72373
2.27871 102.356 8.05579
22.6625 112.756 -5.08246
-7.28336 100.253 7.6489
28.2164 111.56 1.14295
9.44633 110.434 -7.12522
-16.7153 101.185 0.0613602
-16.3405 101.148 0.453883
-6.71539 107.185 -8.38751
21.1292 113.2 -6.54617
5.19053 110.585 -9.42414
4.74148 103.063 8.61676
15.6111 107.295 4.78395
26.2718 112.558 -1.56205
-17.8411 102.48 -3.09305
-15.9458 101.358 0.84109
22.8748 107.327 9.269
23.5984 107.232 10.0206
26.6604 112.664 -1.12362
29.2354 111.737 2.69661
16.6124 113.013 -7.83337
-8.02196 107.266 -8.23507
25.7419 113.066 -2.37242
-13.1062 106.116 -8.3479
-15.4607 101.575 1.31999
3.15433 103.171 8.43075
11.1055 111.33 -6.69828
-4.64826 101.331 8.45108
15.262 112.878 -7.70721
1.32723 110.068 -9.03017
-9.45266 107.296 -8.4994
18.501 108.243 5.68863
17.7945 113.544 -7.51958
14.1248 107.758 4.41414
-9.46337 101.148 6.57294
-16.164 105.289 -7.4362
7.85139 111.063 -7.26408
9.56894 111.423 -6.89773
20.9682 114.294 -7.0046
19.4168 108.375 6.49557
30.1912 111.881 4.34049
13.4806 107.927 4.44423
30.0512 112.247 3.72581
-18.2838 103.816 -4.16334
11.9043 107.375 5.01801
-3.34119 102.356 8.24779
19.1129 114.223 -7.21592
2.1195 103.757 8.23672
-14.2707 102.029 2.81275
-4.03364 102.193 8.49531
17.6398 108.846 5.15661
2.56187 103.866 8.39852
14.1545 113.283 -7.64036
28.3634 113.046 1.48465
10.6438 106.833 6.24372
5.39992 111.834 -8.85942
28.9648 113.031 2.25241
1.94672 111.001 -8.67436
13.0935 108.45 4.48967
6.88322 105.374 8.54953
3.83319 104.802 8.43527
-16.3475 106.283 -6.98366
-15.6587 106.771 -7.76017
1.89308 104.466 8.27482
6.68464 105.515 8.58646
26.6873 109.54 10.6404
-17.1755 104.037 -1.80067
-7.02798 109.323 -8.50193
-17.2109 104.45 -2.62154
-2.74725 109.961 -7.41876
13.7935 109.229 4.20916
-1.39216 104.158 7.70723
1.88183 111.723 -8.63542
2.71041 111.987 -8.75097
14.3734 114.071 -6.89066
-4.53635 103.151 8.4962
-16.2645 103.615 0.503963
-17.7738 106.087 -6.35089
25.5109 109.377 11.1876
-10.9075 108.595 -8.2957
27.6202 110.502 9.82216
21.5327 115.462 -5.78319
28.6139 114.146 1.65649
-0.0846962 111.465 -8.74002
-11.3976 102.912 5.37788
-18.7986 105.519 -5.23296
27.0441 114.501 0.00966531
10.3147 113.179 -6.58954
9.39953 107.134 7.61498
-11.8365 103.075 5.00596
18.5687 110.166 5.72801
-18.0152 105.111 -3.50339
-16.5956 104.28 -0.63324
15.743 114.658 -6.76482
-15.507 107.699 -8.28258
-11.8518 103.123 4.98956
-7.10212 109.931 -8.56749
-4.91955 110.108 -7.70763
26.7367 114.77 -0.356225
11.2254 108.595 5.51866
16.9573 115.198 -7.07502
-14.9151 108.225 -8.88672
6.65126 112.775 -7.21183
9.37119 107.314 7.67149
-11.4425 103.303 5.30929
17.8423 115.808 -7.71265
9.66416 107.608 7.40242
28.6481 111.974 8.06753
-13.3581 108.645 -8.51048
-9.00109 109.86 -8.84643
6.69715 112.969 -7.11117
25.9839 110.32 10.9318
-7.63634 110.309 -8.6611
20.9754 110.458 7.91014
-14.8511 104.083 2.44553
22.5426 115.719 -3.71236
5.32511 106.407 8.78528
29.1478 114.567 3.06595
7.35285 113.301 -6.68557
-18.6605 106.193 -4.65371
11.9072 114.754 -7.41537
22.5745 110.391 9.47524
26.4406 110.785 10.8228
23.7207 110.351 10.3176
-0.565882 112.077 -8.1857
20.2705 116.185 -5.69512
10.0432 114.117 -6.67551
29.1502 113.343 6.48508
-10.3926 103.926 6.12503
16.6981 111.283 4.42257
-11.0047 110.184 -9.04357
29.3516 114.555 4.2476
-1.20673 112.046 -7.56231
15.3585 115.665 -6.38345
-17.6762 106.174 -2.64581
-12.7011 109.994 -8.92684
15.8535 111.596 4.09299
8.19116 114.092 -6.46338
13.1766 110.946 4.15813
8.49522 107.997 8.64101
-6.9317 111.243 -8.29432
12.3245 110.683 4.58909
12.1751 115.513 -7.21771
-16.1849 109.185 -8.38419
-15.2704 105.5 1.30458
27.6911 115.699 1.91932
16.9474 117.358 -8.44331
8.94189 108.521 8.30505
27.0422 115.77 1.4084
-10.3686 111.055 -9.06257
-10.6258 104.744 6.12471
16.9155 117.497 -8.60357
-11.2497 104.766 5.72732
-13.3169 110.309 -8.94165
-13.3668 110.33 -8.9416
9.11487 108.806 8.16247
16.6663 117.376 -8.1393
14.5797 111.939 3.94
3.01898 114.365 -8.75681
-0.771559 112.983 -7.61436
13.836 116.192 -6.54013
-6.41656 104.97 8.78605
19.2933 112.324 6.09028
-10.8471 111.295 -9.13842
-17.1457 106.766 -1.799
3.21845 114.604 -8.71617
-9.03057 111.521 -8.44137
-0.319459 106.951 7.92022
25.9409 112.208 10.6623
-15.2975 106.338 0.61219
-9.17547 104.992 7.58665
28.2369 114.118 7.5758
-9.05184 111.652 -8.40405
8.26208 108.843 8.64473
9.98409 109.959 6.97092
-16.1509 107 -1.186
-18.7756 107.684 -4.30124
26.1945 112.524 10.5813
-4.98318 105.829 8.61378
16.9242 112.906 4.35485
16.8647 117.884 -7.76867
19.4545 112.792 6.14647
-18.0527 107.137 -2.19578
24.6536 116.372 0.603305
3.16775 114.99 -8.646
-18.4408 108.587 -5.74106
28.3 114.645 7.3352
15.9897 118.236 -8.58991
17.5459 117.89 -6.81037
-0.760949 113.759 -7.36027
5.31417 115.12 -7.05343
22.4304 112.651 9.17338
19.7554 113.165 6.36064
-11.4449 112.005 -9.14984
9.56649 110.182 7.691
7.85055 109.374 8.76832
23.0538 112.637 9.8685
18.9774 117.829 -5.1471
14.6709 117.306 -6.07602
-5.5722 112.862 -7.18693
20.7938 117.197 -2.09932
-15.4885 107.667 -0.292243
-2.89253 107.329 8.04241
-3.69042 107.052 8.29803
15.6098 118.798 -8.74548
-18.838 108.473 -3.85148
-16.9722 107.821 -1.04648
2.40847 108.451 8.98159
-15.9816 107.858 -0.410155
13.2426 113.162 3.95269
-10.9117 112.696 -9.01736
7.78832 116.469 -6.94752
24.0442 113.244 10.5025
11.7874 112.669 4.70185
22.9775 117.387 -0.147806
22.9221 113.389 9.61867
-11.5424 106.541 5.9681
-17.9592 110.235 -6.73937
21.2799 118.088 -2.65581
-10.2157 106.474 7.02037
-18.8638 109.175 -4.59876
-9.1573 113.019 -8.18302
12.0189 112.966 4.56839
3.90668 116.204 -8.05271
8.49588 116.898 -6.97013
28.3275 117.399 3.59994
-14.1597 112.252 -8.9062
15.2906 119.17 -8.23439
23.1414 118.203 -1.21718
18.4668 118.621 -4.92297
24.0502 118.443 -1.14555
-6.61699 106.877 8.94469
27.2172 115.343 8.45841
-10.227 106.801 7.14683
21.2384 114.206 7.7526
-2.5214 114.245 -6.19527
12.0755 117.934 -6.50656
10.2159 111.909 7.05122
12.8666 118.073 -6.3002
26.6204 114.997 9.28369
4.19757 109.651 9.29247
7.57204 117.263 -6.80191
3.90992 116.902 -7.91153
13.3132 118.634 -6.32801
25.4229 114.835 10.0553
22.1945 119.455 -3.04747
21.8128 114.688 8.4427
-0.174108 115.868 -7.36223
-15.8841 112.486 -8.29158
-2.88965 114.699 -5.96428
9.43657 112.041 7.80889
25.9708 115.247 9.80407
28.911 122.515 -6.00914
28.8296 122.538 -6.08298
20.0375 119.058 -2.78157
27.8042 118.416 3.41694
-4.91117 108.264 8.79494
16.6186 120.276 -7.64499
-18.1993 109.231 -1.33324
14.9762 115.328 3.5552
-12.4292 108.161 4.96833
10.4189 113.049 6.60452
28.1014 117.834 5.58681
16.8645 120.428 -7.34098
-13.0683 113.774 -8.80001
-2.43532 109.461 7.95745
-14.827 109.274 1.35637
14.6953 120.024 -7.34877
18.9986 119.528 -3.56997
13.4011 115.264 3.58141
-9.68463 107.884 8.05575
-1.49943 115.734 -6.03452
-18.1324 109.62 -0.968783
2.01235 110.535 8.76676
14.7044 120.391 -7.52103
-16.3645 109.483 0.657586
7.49459 111.86 8.98713
19.375 119.701 -3.05158
24.7744 119.891 -0.167488
21.4463 122.033 -7.32038
24.6904 119.701 0.305505
21.8485 115.632 8.75781
28.1987 122.971 -5.32108
26.2858 116.846 8.55889
7.40125 112.082 9.02152
29.7182 123.575 -5.70976
25.3455 116.038 10.0334
21.2398 122.132 -7.16553
27.6482 118.197 6.34104
-18.4369 111.978 -5.64852
20.7643 122.924 -9.05275
20.9088 122.617 -8.21374
26.6049 123.008 -5.7876
27.986 123.124 -5.12856
29.8888 123.852 -5.69456
12.5532 115.82 3.69757
-17.1036 110.046 0.258002
9.66643 119.305 -6.36575
24.0742 115.979 10.2498
-16.1878 113.711 -7.91645
19.5188 120.671 -3.7435
6.53728 118.658 -6.39397
-6.75903 109.198 8.78633
-8.13167 115.542 -7.41788
19.4217 120.731 -3.74814
23.7537 116.049 10.1812
20.3465 116.353 7.45141
25.7813 123.389 -6.41647
23.9569 121.317 -2.44769
22.807 122.981 -7.13962
23.6122 121.397 -2.76857
-3.76684 115.91 -5.54678
-14.6436 110.176 1.97564
24.6212 122.671 -5.20266
-1.30536 116.667 -5.88886
24.9914 123.148 -6.01603
11.7154 115.617 4.46208
-6.16619 115.784 -6.4308
6.6672 112.472 9.28487
-7.88756 109.032 9.11795
21.3355 122.359 -5.97702
16.9627 122.072 -7.758
-11.8882 109.604 5.53128
25.685 122.662 -3.97434
24.8123 124.705 -9.37648
15.4031 122.15 -8.7155
17.7544 121.399 -5.48897
22.971 116.305 9.99432
-15.712 110.413 1.52179
-13.6066 110.529 2.48351
-13.5916 110.53 2.48992
23.8187 116.527 10.0808
25.1405 122.546 -3.66899
10.1158 114.495 7.10132
25.4487 117.36 9.19176
20.2942 122.863 -7.16877
24.0546 123.382 -6.13177
23.6488 124.823 -9.86462
20.3651 116.85 7.57791
2.52108 118.807 -7.66658
9.0973 119.622 -5.74498
15.0531 122.311 -8.67877
26.639 123.287 -4.19938
-15.4521 114.754 -8.17469
18.2657 117.633 4.76912
15.5542 122.456 -8.52415
25.0455 121.346 -0.19873
17.973 121.484 -4.46075
13.3641 121.147 -6.3161
23.9666 122.333 -2.92315
1.3792 118.706 -7.37305
24.907 121.23 0.372723
-18.1011 111.144 -0.402145
20.8803 122.158 -4.15651
-17.9187 113.69 -6.37046
-17.6936 113.915 -6.71197
-5.70686 110.577 8.49635
6.81475 119.531 -5.86637
-16.5021 110.996 1.13009
-17.0003 111.031 0.755413
17.3019 118.069 3.91165
-1.35324 111.89 8.09727
-18.485 113.309 -5.43497
10.9439 120.77 -6.18505
17.3863 122.201 -5.79411
15.4343 118.01 3.26785
11.3507 121.03 -6.34092
26.9695 126.209 -9.6956
24.0195 125.305 -9.23712
2.75441 119.434 -7.42527
15.5032 118.139 3.25733
22.7002 123.194 -4.77738
9.78886 114.94 7.68342
25.1812 121.822 0.0430775
21.5898 123.019 -4.93575
27.0858 120.08 5.53317
25.475 125.601 -8.78751
22.7779 123.193 -4.52595
-12.4182 116.089 -7.98257
25.1272 121.795 0.304435
17.2465 122.449 -5.76173
-0.171908 112.424 8.35179
24.5539 120.933 2.31625
-1.18577 118.022 -5.73747
10.6756 116.082 5.9985
4.49558 119.857 -6.80913
-5.57246 111.141 8.45094
-18.7581 113.186 -4.28078
31.1448 125.845 -5.29676
13.1439 122.866 -8.60543
21.0017 124.24 -7.27766
27.3455 123.974 -2.82419
-3.73335 117.439 -5.18352
30.6859 125.851 -5.29142
17.4854 118.865 3.9644
-8.99622 110.325 9.10413
20.693 117.936 8.14182
18.075 122.662 -4.88317
31.3035 126.658 -6.76605
-18.5579 113.604 -4.41441
-16.8016 111.813 1.03965
-11.8185 111.18 5.6348
2.00257 113.07 9.24037
-18.5911 112.279 -0.831164
20.981 124.45 -7.05068
9.91631 121.009 -5.17763
11.6435 117.509 4.43235
22.623 125.911 -9.50164
3.70244 120.362 -7.15739
22.2246 117.97 9.5845
18.2215 123.048 -5.08488
1.06246 119.666 -6.87179
-12.6731 112.175 3.24701
9.4716 120.943 -4.99245
-3.53447 112.262 8.4608
-0.740774 112.991 8.35002
-17.3788 115.286 -7.02068
10.9339 117.004 5.5042
26.604 120.38 6.5489
10.3925 116.469 6.50177
12.4545 122.233 -6.2314
15.2992 123.823 -8.40769
19.8314 125.133 -8.91684
23.1857 126.046 -9.10116
19.6266 125.061 -8.80355
31.2853 126.359 -5.07899
-11.739 111.515 5.65912
22.9306 126.06 -9.22889
13.0254 118.542 3.22585
16.8991 123.432 -6.34287
17.9188 123.24 -5.25291
25.4028 121.22 4.11041
25.0671 123.49 -1.59777
18.4808 119.173 5.43444
1.67214 113.543 9.29692
31.0962 126.603 -5.02356
9.91569 121.425 -4.86144
24.4105 123.848 -2.09277
6.61728 120.863 -5.31295
8.00275 121.008 -4.80422
27.6612 128.366 -11.0789
26.3135 120.702 6.85425
25.1054 123.783 -1.2889
32.5533 126.939 -4.54459
29.275 125.87 -3.87413
10.6031 117.251 6.09283
-18.6886 112.996 -0.845307
19.0697 119.217 6.31953
2.78677 120.713 -6.89009
-12.9289 117.315 -7.89793
25.651 121.441 4.84061
-18.4114 112.946 -0.494463
19.0823 123.792 -4.71436
19.9628 119.027 7.43222
22.9879 124.126 -3.12937
0.108853 113.662 8.84943
19.2525 119.258 6.55788
13.3301 124.198 -8.89468
21.1729 124.765 -5.60077
5.40543 114.687 9.59164
19.9615 125.215 -7.36037
29.8308 126.413 -4.3938
13.1128 124.169 -8.79782
23.3035 126.59 -8.64881
25.5211 124.253 -1.60091
16.6744 120.02 3.48741
27.0571 128.42 -10.7957
28.1936 127.882 -8.7894
-16.5511 112.864 1.30674
-12.0774 112.52 4.7968
-9.6872 111.613 8.49637
20.5101 126.302 -9.37704
24.9417 127.279 -9.13476
11.2454 122.621 -5.84355
-18.4362 113.292 -0.498548
18.6408 119.733 5.73826
20.9213 124.941 -5.51629
-1.00129 113.901 8.46853
22.3998 119.16 9.51883
8.53882 116.254 8.41445
15.0442 125.029 -9.03545
30.1295 126.871 -4.53328
6.38919 115.425 9.27597
9.67337 116.838 7.79576
-5.47367 118.697 -5.54636
11.3096 118.483 4.90185
-9.37266 118.604 -7.56758
4.55615 121.596 -6.52886
19.9859 125.203 -6.15116
26.5346 128.369 -9.97153
19.007 124.801 -5.69873
21.6306 126.922 -9.2863
19.1925 125.542 -7.35034
11.6231 118.947 4.29982
-10.2387 112.246 7.88013
18.7216 120.111 5.85648
-11.9519 113.072 4.871
23.2441 119.625 9.74818
-12.5797 118.249 -8.0288
30.9416 128.304 -6.77117
9.88311 117.426 7.37333
10.6629 123.242 -6.25154
-17.6163 115.583 -4.25547
-13.7576 113.353 3.61317
24.9209 124.992 -1.64522
-9.88225 119.025 -7.66412
5.60917 115.77 9.46324
-14.8317 113.5 2.92677
-15.2947 117.69 -7.4972
23.8289 125.12 -2.4278
24.2523 124.81 -1.40281
6.11409 116.019 9.30547
0.555872 120.994 -6.03897
21.5598 125.273 -3.98444
5.92547 115.993 9.35921
22.7734 124.579 -1.56046
21.194 127.349 -9.20143
28.6194 126.34 -2.36361
23.6045 125.377 -2.86602
26.0328 122.064 6.65629
22.5318 125.414 -3.52769
23.365 127.471 -7.98542
20.9058 125.392 -4.38075
-1.80499 114.636 8.3862
11.4882 119.444 4.55145
20.9018 125.274 -3.93118
25.248 124.397 0.764727
-17.7406 114.09 0.456967
18.2375 126.543 -8.53869
16.398 121.227 3.30573
9.78785 122.938 -4.73264
1.97413 121.768 -6.44272
17.3533 121.272 3.98606
18.7379 120.886 5.76652
11.1086 119.258 5.30702
7.80182 117.075 8.68643
21.7232 125.715 -4.08125
0.14587 121.132 -5.61767
-17.467 117.115 -6.234
5.05163 116.111 9.53645
27.027 129.352 -9.60299
-17.1733 114.128 1.42414
9.00155 117.734 8.16258
-17.2605 117.301 -6.20058
23.4957 125.315 -1.5178
17.122 121.6 3.85803
24.6467 122.893 5.16324
28.8623 127.082 -2.47916
-12.9932 119.084 -7.72453
19.9742 120.749 7.75809
-17.1774 117.71 -6.74966
28.625 126.961 -2.13866
19.0415 125.867 -5.12624
21.0219 125.434 -2.76996
25.0264 125.859 -1.37057
1.83313 115.77 9.55965
12.5888 125.988 -8.88434
-10.6799 113.993 6.54429
17.0149 126.013 -6.09306
23.9734 121.417 9.18438
-3.08054 115.165 8.43671
7.55711 117.648 8.72049
29.8407 128.801 -5.08523
21.6485 128.223 -8.40616
-7.33941 120.284 -6.13255
25.3475 126.289 -1.39143
-10.2374 120.165 -7.46304
30.7491 127.737 -1.602
16.5116 126.005 -5.75353
20.3809 125.802 -2.83208
16.3536 122.356 3.17375
5.62202 117.256 9.25562
-7.52596 120.443 -6.22687
-17.4113 116.325 -2.05092
-16.4524 117.853 -5.17541
10.3003 119.493 6.63224
25.4231 125.701 0.494674
15.7099 127.242 -8.96829
9.53401 124.033 -4.68086
-16.3507 117.939 -5.11316
20.0988 125.917 -2.90996
19.6866 128.144 -8.52283
31.1343 128.018 -1.45528
24.838 129.235 -8.10433
15.8146 127.059 -8.11826
29.7434 128.054 -2.2974
-1.13755 121.541 -4.5777
27.3422 131.17 -11.0976
19.3358 126.139 -3.51448
24.819 126.463 -1.04925
-16.6159 116.78 -1.95243
22.9694 121.74 9.40853
-11.0219 114.661 6.55949
17.9421 126.61 -5.36358
27.5223 130.687 -9.56502
-16.177 119.179 -7.29916
28.8836 130.609 -8.48025
29.5417 130.763 -8.31012
15.9237 127.47 -8.33517
3.63225 117.54 8.5472
-14.5815 119.688 -7.40832
-8.1884 120.789 -6.28416
14.1845 127.556 -9.48585
5.45155 123.694 -5.24494
18.2596 127.901 -7.90068
-16.7103 116.933 -1.806
9.57877 119.4 7.70786
29.1536 128.436 -2.65262
-16.8513 117.481 -3.11074
24.9577 129.692 -8.0557
-5.69676 121.301 -5.67102
-3.76639 121.404 -4.77664
22.2131 129.012 -7.92584
24.9594 126.479 -0.0655626
18.1271 126.516 -4.11084
25.3559 126.547 0.0826266
10.8956 126.284 -7.75654
-16.1938 118.965 -5.93811
-16.6316 116.676 -0.590984
10.94 120.934 5.35402
20.6686 129.099 -8.35476
28.7142 131.114 -8.44746
-11.946 120.932 -7.67992
3.80066 124.048 -5.9581
-1.02222 116.64 9.26656
-11.4977 121.144 -7.82296
21.3339 127.73 -4.45902
-13.384 115.322 5.25101
25.3063 127.029 -0.371904
24.3329 123.205 8.40667
25.3805 126.647 0.661229
23.3246 126.558 -0.322951
4.70385 118.41 8.49569
24.4508 123.372 8.21895
24.9364 127.048 -0.422101
9.24684 124.96 -4.59987
21.4986 126.376 -0.763867
24.0057 129.822 -7.6391
25.3852 126.692 0.799884
-10.9696 121.303 -7.53237
16.1649 127.658 -6.94888
12.3714 127.568 -8.93664
0.421104 117.252 9.13332
17.8534 123.525 4.19281
24.7994 127.005 -0.164125
24.6033 124.495 5.87552
1.3741 123.4 -5.11713
1.87789 123.609 -5.31426
21.8431 122.472 9.25399
6.13215 124.328 -4.51858
17.7543 127.072 -4.33122
5.61002 118.856 8.59389
17.527 127.855 -6.22385
10.9098 121.521 5.29549
-17.7672 117.599 -1.99262
-5.93646 116.246 8.2996
-13.0723 120.992 -7.42632
-17.4103 116.508 0.92275
-11.3071 121.536 -7.66695
2.17456 118.164 8.49723
17.5962 127.967 -6.21914
24.859 127.611 -0.959182
24.5551 125.232 4.65125
-15.1593 120.517 -7.31287
24.6655 127.557 -0.923296
17.7384 127.139 -3.91899
-16.1994 118.831 -3.74422
26.1348 127.532 0.15497
16.0173 128.026 -6.91313
8.55847 125.139 -4.27883
24.6091 124.802 6.02122
28.5712 131.75 -8.51654
-12.3189 121.495 -7.69273
21.5697 126.779 -0.403599
9.55792 126.295 -6.31112
9.63713 120.678 7.4342
3.82426 124.659 -5.65793
24.0955 123.893 8.19022
-10.3636 121.731 -6.85053
19.2148 123.25 6.90768
-15.5574 119.081 -3.42322
25.3244 127.324 0.78924
14.5308 124.076 2.43014
30.0907 129.953 -2.66578
-1.2367 122.977 -4.15308
22.1611 126.841 0.325023
27.2478 132.139 -9.50891
-16.1397 119.306 -3.90646
16.9577 128.144 -5.83414
15.9878 128.937 -8.26841
11.7048 122.77 4.33158
-19.8046 117.872 -2.33241
-16.3313 119.673 -4.60744
9.27482 120.742 7.97213
-1.23023 117.747 9.057
26.8723 132.538 -10.2949
25.2879 128.247 -0.795529
17.8483 124.376 4.22114
19.9674 127.026 -0.875074
-0.346117 123.638 -4.58263
-2.65384 122.878 -4.09533
21.8683 127.039 0.395602
19.6324 129.808 -7.64708
2.51404 119.188 8.10124
29.6978 129.539 -0.869377
21.4599 127.225 -0.0335779
-11.7275 116.195 7.28177
-16.8029 119.587 -3.93948
-8.27441 122.536 -6.04692
22.3603 130.507 -7.28498
-12.0544 116.248 7.1936
-16.52 120.05 -4.6598
-9.19233 116.135 9.21625
-1.14773 123.604 -4.16732
-2.23837 118.123 8.56381
24.5327 125.525 6.383
20.2592 128.737 -3.84175
-15.6092 120.188 -4.22054
-15.9924 117.105 3.11007
-15.694 120.286 -4.44095
21.3192 127.297 0.360384
23.166 124.342 8.70564
-15.8223 116.747 4.18031
24.5898 128.718 -1.023
-17.8081 119.451 -3.46876
21.1569 128.103 -1.50693
17.6919 127.682 -2.49617
27.2021 133.13 -10.083
-17.8104 119.47 -3.4369
-19.2158 117.705 0.024891
26.8539 128.707 0.525952
-7.75672 116.592 9.55096
-3.97656 123.355 -4.61103
23.0546 131.046 -7.34654
4.83789 120.377 7.84643
20.2901 128.887 -3.63308
16.8248 129.536 -7.24892
0.288138 118.888 8.93553
-18.0327 119.553 -3.47097
28.8522 131.311 -4.38248
-16.9121 118.35 0.119436
-15.3176 120.916 -5.14941
23.4234 128.71 -1.21293
11.2141 128.636 -8.21052
-15.6504 119.561 -1.98115
8.30356 126.333 -4.1976
-16.5774 119.105 -1.2923
9.32152 121.721 7.68788
27.4218 133.34 -9.82972
-20.5787 118.525 -2.07303
18.9713 127.823 -1.3178
-15.8749 120.8 -4.77595
6.57546 120.837 8.42304
-0.601502 118.85 9.03752
-16.498 120.486 -4.30919
16.1021 128.678 -4.87254
6.77657 126.046 -3.96697
28.8141 132.104 -5.61211
15.7349 129.466 -6.90426
28.781 132.369 -6.24842
-9.42203 116.82 8.99883
20.3351 127.776 -0.00691496
16.1085 128.751 -4.78942
5.22836 120.872 7.94686
-8.24042 117.03 9.36957
-3.78689 118.599 8.18937
-7.99552 117.063 9.44969
-7.08695 117.335 9.34182
18.1747 128.087 -1.85848
-9.53471 116.921 8.92808
-16.7094 119.258 -0.974649
-16.0742 120.225 -2.93699
23.8127 126.482 5.41974
15.1798 125.646 2.366
29.0717 131.109 -2.63493
28.8129 132.158 -5.32691
0.260265 119.375 8.89951
16.0316 125.82 2.55284
8.82288 127.21 -5.00996
-7.87674 117.244 9.43963
-15.3763 120.393 -2.62726
18.9827 130.729 -7.42333
28.7154 129.834 0.509666
23.3388 126.234 6.15671
17.249 129.935 -6.40162
24.8345 129.385 -0.551279
21.5925 131.549 -7.68537
17.327 129.834 -6.03175
-16.9527 119.253 -0.364813
-16.2597 117.894 3.43106
-1.25192 124.611 -4.01665
12.4943 124.791 3.73272
-20.3811 118.234 0.295821
22.1583 131.954 -7.91603
15.0061 130.683 -9.04166
19.9593 130.244 -4.91508
16.7194 128.85 -3.38627
24.3141 128.719 1.52931
-16.8732 120.438 -2.58643
-17.3693 119.748 -1.10467
-15.1471 120.88 -2.49077
16.0189 129.283 -4.47163
16.4474 126.39 2.82838
8.84331 128.013 -5.5159
15.9396 129.391 -4.64831
-15.2438 117.957 4.74282
-7.51132 117.851 9.6099
-16.5957 120.38 -1.88486
18.4763 129.743 -3.87284
1.46594 126.019 -4.8365
24.1422 128.92 1.53551
21.1891 128.814 0.0972928
22.5948 126.796 5.83053
-20.9718 119.15 -1.27237
14.2925 130.978 -9.20017
-10.6802 123.894 -6.69362
-21.1788 118.533 0.248034
22.2329 126.373 6.82078
26.3117 133.265 -7.50261
17.4805 126.588 3.51089
8.38794 127.795 -4.76144
-1.08868 125.161 -3.89755
10.4887 123.867 6.09992
29.0249 131.783 -2.11399
11.8423 124.825 4.68172
16.0568 130.584 -6.81832
-2.17619 119.963 8.26855
11.6172 124.724 4.93222
-16.3656 120.11 -0.322868
-21.6058 118.685 0.0861463
23.6164 128.757 2.30062
-16.3102 119.794 0.556435
-16.5309 120.981 -2.39401
-15.3765 121.254 -2.37564
4.21112 122.124 7.08643
-15.312 118.429 4.55463
21.9811 132.756 -8.21975
20.9397 129.164 -0.0890747
19.0532 130.108 -3.40627
28.5263 130.76 0.608837
21.8905 126.427 7.2497
22.7608 128.251 3.37056
1.64822 121.101 8.29624
28.8807 132.117 -2.38851
17.1959 130.362 -4.96657
18.4108 131.933 -8.03146
7.97428 127.83 -4.21534
-15.4546 122.679 -5.45624
-21.147 118.692 0.874872
-16.5653 120.329 -0.398449
-16.9928 119.429 1.57089
24.1427 130.419 -0.761199
8.22846 128.237 -4.75113
28.3702 134.591 -8.2708
-7.57986 118.533 9.55583
-14.6004 118.75 4.8902
20.1591 130.568 -3.31307
-20.6808 118.681 1.49731
5.71397 127.298 -3.86734
-15.5789 121.562 -2.36835
20.3879 132.681 -8.14866
20.1404 129.343 -0.155175
-17.1526 119.559 1.63586
2.1824 121.689 7.90386
12.2891 131.158 -9.10211
19.7865 129.387 -0.374749
29.2802 131.783 -0.521593
-17.1099 120.78 -1.1076
-15.5689 121.053 -0.856708
1.38293 121.365 8.3984
19.8803 132.626 -8.03912
28.6881 133.631 -5.27216
-16.4514 120.767 -0.635225
-15.8663 120.511 0.343188
-15.1211 122.913 -5.00284
-4.94912 119.858 8.48041
-10.8672 124.75 -6.89532
20.4035 129.932 -0.945453
9.5161 123.893 7.30997
-22.092 118.351 2.13787
28.5513 131.322 0.588042
-22.1276 118.217 2.55776
-9.14597 125.364 -7.12573
-15.0101 123.118 -5.048
21.0163 129.919 -0.205344
-7.79385 125.587 -6.64496
27.0606 130.845 1.20054
-19.6503 118.992 2.50609
1.03166 121.571 8.53364
-16.3844 121.177 -0.746938
20.5493 131.261 -3.3725
20.4498 130.959 -2.65474
20.3196 130.067 -0.531398
10.9236 125.171 5.86744
-16.3126 121.89 -2.22172
19.3605 126.773 6.97253
-16.875 120.159 1.69085
15.2348 132.186 -8.58582
-3.64547 120.717 8.16463
16.9802 130.588 -3.61708
8.34891 129.338 -5.64639
-11.1382 119.027 8.02219
23.6206 130.217 1.3443
-16.2207 120.966 0.378671
-20.8044 118.717 3.20887
23.3983 130.929 -0.332537
21.3279 127.551 6.69041
-2.7245 121.118 8.13701
-15.2299 122.553 -2.7209
-13.199 119.511 5.87788
-15.7669 122.462 -2.79223
-16.3984 122.071 -2.17595
-21.8714 117.978 4.55828
-15.6191 121.852 -1.14475
20.9132 133.61 -8.15693
5.57967 123.511 7.36935
-15.4942 122.036 -1.45549
-13.73 124.867 -7.29092
7.57451 128.764 -4.14707
-15.7624 121.655 -0.609747
-16.744 122.301 -2.73296
-15.2133 122.845 -3.12413
-2.44077 126.173 -3.64209
-16.1508 121.323 0.074937
29.1362 132.968 -1.49567
-11.2948 119.281 7.92665
18.0163 133.053 -8.21902
19.8696 130.763 -1.52393
19.6067 131.11 -2.46532
-16.5996 119.899 3.44289
21.5509 128.486 5.14511
-15.1957 122.868 -2.86406
-0.702424 126.681 -3.55216
-4.14358 126.131 -4.2418
-13.7567 125.073 -7.25188
21.9718 128.923 4.49754
19.9351 126.798 8.48537
-17.6785 119.98 2.91782
-15.3364 122.302 -1.30064
0.528881 127.234 -3.92037
22.8858 130.427 1.53201
27.7216 131.799 1.05509
-12.7582 125.424 -7.31786
-18.0365 120.829 0.742145
17.1435 132.69 -7.20825
7.32536 129.033 -4.10926
-17.5747 120.987 0.757431
-8.85511 126.285 -6.94291
-16.5044 120.644 2.25211
-18.0226 120.161 2.56035
19.4793 127.365 7.21277
-18.4198 120.554 1.52843
-16.916 120.605 2.30522
15.5422 128.503 2.28944
-11.4086 125.777 -6.96889
28.8108 132.758 -0.204371
25.7461 131.689 0.629138
6.51397 124.243 7.39699
6.98526 129.004 -3.88672
8.78618 130.662 -6.81432
25.3499 134.632 -6.68955
11.638 126.458 5.14768
-11.0684 126.031 -7.15216
-19.6776 121.664 -1.59151
-14.6032 124.712 -5.98554
8.51125 124.547 8.07696
-16.0841 121.153 1.84236
15.2422 131.98 -5.93805
-1.45615 126.948 -3.49571
-10.4192 126.489 -7.64428
8.80325 130.813 -6.81253
-20.5389 121.196 -0.711611
27.0307 135.796 -8.1238
-17.821 120.498 2.61782
12.0501 126.908 4.67187
14.2857 133.281 -9.46258
-3.21981 126.687 -3.73929
-0.671717 127.225 -3.49645
-4.11682 121.535 8.3136
20.5138 127.675 7.92775
21.8709 129.316 4.74937
20.0801 131.345 -1.23336
20.231 131.791 -2.22196
11.8185 132.373 -8.56399
-12.026 120.132 7.11911
20.8939 128.33 6.62005
24.9334 134.882 -6.80287
0.0767944 122.492 8.64161
-9.07676 120.168 8.9146
16.6567 133.269 -7.72725
26.8264 135.793 -7.86039
-21.8439 120.392 0.920267
28.2039 134.874 -4.70618
-18.1953 122.629 -2.31365
-17.4386 123.216 -3.28381
-7.29676 126.885 -6.20557
-16.929 123.165 -2.84655
-17.4572 119.929 4.71231
-11.2883 120.148 7.86368
6.37918 129.149 -3.57464
-20.5852 118.825 5.63701
15.801 131.911 -4.68787
15.7129 132.75 -6.77729
-7.60788 120.438 9.41893
10.042 131.727 -7.50586
-9.15634 126.967 -7.23906
-15.4455 120.563 4.6434
27.0951 132.482 0.876455
-18.357 122.687 -2.04011
-9.03918 127.051 -7.14605
-14.4007 120.811 4.85872
-15.8651 120.523 4.69417
24.4157 132.097 0.394014
2.2849 124.076 6.83196
-15.3206 123.541 -2.24941
-6.38516 121.007 9.19202
11.3561 132.531 -8.28295
1.67923 128.521 -4.2183
-13.9888 125.463 -5.90554
27.6335 133.032 0.269372
-20.7909 119.162 5.52746
7.70746 130.6 -5.4506
-14.0846 125.805 -6.59891
12.1591 127.647 4.42743
28.4311 136.007 -6.2812
22.7304 130.416 3.98436
-12.1901 126.518 -7.12013
14.6124 129.409 1.68686
17.6266 129.328 3.66319
4.55265 129.232 -3.74927
2.58848 128.949 -4.19161
26.7116 136.109 -7.33971
-20.3583 121.888 -0.547968
-21.1893 118.146 8.07408
12.0717 127.649 4.61791
28.6316 134.12 -1.31998
28.1924 135.825 -5.72039
-13.7355 126.024 -6.63408
-20.176 119.644 5.08691
23.3067 132.11 0.48334
-20.923 119.422 5.28283
15.5359 129.574 2.19147
0.335991 128.294 -3.64571
-10.9512 120.719 8.12093
-22.8976 119.616 3.76245
28.0294 134.85 -3.18899
-10.6698 120.778 8.3031
18.0803 132.675 -3.61441
18.6315 133.469 -5.10579
-15.873 124.056 -2.57932
-12.8113 121.023 6.6231
16.0668 134.154 -8.21113
-17.9165 123.623 -2.64964
23.5181 135.827 -7.77075
-20.9506 119.841 4.86548
24.5015 135.763 -6.99185
5.18134 125.363 6.89028
1.49646 128.986 -4.07282
19.5063 128.361 8.11452
17.7451 133.159 -4.51487
-12.5854 121.189 6.86225
21.1196 129.756 5.93429
-20.5488 118.478 8.82027
-10.2854 121.076 8.56678
-3.04642 127.874 -3.6665
-20.9248 118.753 7.9598
-9.31577 121.381 8.4361
-6.05574 121.974 8.95719
3.49995 125.394 6.30641
17.3727 133.403 -4.96557
-13.155 126.877 -7.10251
2.95374 125.346 6.11861
13.9362 129.847 1.68733
-6.40806 121.865 9.11277
-21.1064 119.418 6.39542
-20.068 119.84 6.00795
-6.76869 128.01 -5.79683
-15.7766 124.767 -3.19725
26.1719 136.305 -6.29944
-8.05538 128.087 -6.51989
-10.9522 121.348 8.16347
11.8513 133.667 -8.27044
7.32293 131.497 -5.60732
-4.98079 122.67 8.6112
12.2113 129.033 3.43546
-14.448 126.177 -5.33178
-22.7298 118.856 7.57937
-22.9844 118.75 7.73391
-6.46015 128.303 -5.70193
-12.9606 127.064 -6.50962
11.292 133.617 -8.05772
-4.91966 128.441 -5.00647
0.388544 124.375 8.03538
23.259 132.818 1.05643
-18.4031 121.081 5.05556
-15.7851 121.479 5.6508
18.1409 134.943 -7.04341
28.5247 135.113 -1.33007
9.2698 132.732 -6.88817
-20.5572 118.38 10.6249
22.1774 131.554 3.84098
-20.7183 119.322 8.34615
1.03428 129.599 -3.77932
-14.8701 125.868 -3.99916
-24.0465 118.448 8.62407
17.9049 135.179 -7.27604
-22.8223 119.29 7.30538
18.3669 130.271 4.92369
-1.55708 123.99 8.4568
-18.7283 120.516 6.79053
-1.50625 124.045 8.41608
-19.1501 124.071 -2.04142
-21.3801 120.244 5.96825
-21.9674 121.702 2.08383
-10.3944 122.586 6.78027
23.1839 133.024 1.23383
-6.28211 128.731 -5.71258
-10.2095 128.937 -8.50418
-6.02205 128.757 -5.58857
21.4101 136.379 -7.92221
-11.9106 127.754 -6.57849
22.8576 136.673 -7.73841
22.5364 132.822 1.43388
-18.8581 121.429 4.78044
-1.38547 128.975 -3.21135
6.8357 126.484 7.73811
-9.78698 129.2 -8.52704
-13.8949 127.044 -5.67752
-11.9129 128.101 -6.96073
14.0897 135.562 -9.72271
17.3569 134.732 -5.73257
8.18472 132.792 -6.4192
16.3634 134.461 -5.61212
15.6158 134.32 -5.70293
-6.71691 129.063 -6.03424
-8.20639 129.099 -6.99444
20.7206 130.586 6.5851
-23.5811 118.504 9.85883
10.5806 134.038 -7.70553
27.8693 136.269 -2.88567
2.73833 126.515 6.03521
-13.3991 122.679 5.83967
-2.87681 124.327 8.04676
-15.9187 125.054 -1.40677
-7.82258 123.251 7.79295
7.88638 127.035 7.87767
7.18375 132.591 -6.02388
17.9965 135.699 -7.19725
-20.1982 121.082 5.90034
-8.40151 123.807 6.24578
21.2805 131.741 4.50435
11.2471 128.904 5.64805
-20.4661 120.04 8.60572
-12.3242 128.1 -6.13321
-21.0316 123.151 0.859755
-22.8234 118.602 10.8934
18.1727 136.198 -7.66373
-14.7748 125.915 -2.01365
-16.3684 121.881 6.88156
-1.96863 125.075 7.63546
-10.0738 129.648 -8.22255
18.2185 130.375 6.70074
-16.7832 121.408 7.86363
-18.2518 121.183 7.59948
25.6335 137.547 -6.26471
-9.93795 124.224 5.24342
-15.3001 126.043 -2.31274
0.495338 130.347 -3.44293
20.058 130.753 7.12221
-20.2999 123.868 0.083192
-9.04232 124.578 4.9999
-18.7774 121.27 7.29536
-9.71778 129.916 -8.33421
-19.9327 124.213 -0.489932
-1.60155 129.711 -3.01678
-1.2352 129.815 -3.02801
-20.2195 120.573 8.25586
-19.1415 121.356 7.00256
-6.67336 123.818 8.38742
-19.9164 124.457 -0.962282
-4.97435 124.629 7.44344
-4.17106 124.728 7.68335
-1.99738 125.325 7.54412
-15.4422 122.59 6.26642
11.9912 130.343 3.62256
15.6939 131.881 2.10323
-13.6441 128.02 -5.80429
2.41116 130.912 -3.35513
-0.298034 125.708 7.70777
-14.8076 126.005 -1.5648
20.6562 132.017 4.77143
-17.5971 125.567 -1.91817
17.8383 131.633 4.25273
-15.5802 125.759 -1.15611
-19.7264 121.172 7.54473
-11.2886 129.605 -7.95733
22.1907 133.304 2.80343
9.19977 134.157 -6.89075
21.389 132.744 3.7662
16.6668 135.604 -5.94467
18.6862 137.126 -8.33569
-19.4422 120.694 9.10438
12.6326 136.005 -9.06017
20.2937 131.794 5.69738
-22.9757 122.337 3.16886
-10.0655 130.123 -8.06758
-15.4404 126.253 -1.83458
-15.9857 122.166 7.7805
4.57465 127.527 6.90813
-15.639 125.961 -1.08785
-19.5417 120.264 10.4603
-19.3432 120.324 10.4375
-17.8055 122.191 6.81904
-21.4045 119.38 11.5363
12.0053 130.809 3.4803
-16.1555 125.854 -1.04905
-20.4456 124.388 -0.0134198
25.1655 135.129 0.802003
21.292 133.003 3.7747
-15.5794 126.387 -1.85953
-15.8872 126.737 -2.88504
-16.2904 126.285 -1.86696
-19.8419 125.552 -2.12327
-0.237871 130.802 -3.18526
-0.516742 130.734 -3.10602
8.14297 134.333 -6.73616
-15.4319 126.764 -2.23466
8.80897 134.6 -6.94721
18.0438 137.235 -7.88927
2.54358 127.685 6.17478
23.3146 134.531 1.91433
-9.00432 125.405 5.0527
-8.30099 125.508 5.21966
14.4345 137.062 -9.42592
-13.7275 123.42 7.12514
-9.45516 130.848 -8.34527
10.9144 135.614 -7.90434
-23.1186 120.752 8.13043
-15.1748 122.874 7.67498
16.7726 136.149 -5.66871
6.37639 133.26 -4.76942
5.241 132.67 -3.9119
0.697035 127.569 5.85465
-15.4744 122.581 8.45752
26.3704 136.233 0.0172199
-13.6454 123.806 6.62304
-10.6935 125.324 4.68472
13.8705 132.654 1.50033
16.4263 137.239 -8.12464
-15.2768 122.819 8.25592
4.65813 128.18 7.02074
-23.0853 121.975 5.73434
11.5966 130.85 4.67269
-19.4003 126.251 -2.35623
-14.4814 124.088 5.93698
-12.8096 124.288 6.46089
-14.047 123.953 6.54655
11.3419 136.248 -8.33473
-16.7852 122.326 8.93293
17.172 137.416 -7.39172
-21.5081 120.354 11.3052
-14.1575 124.371 5.92002
-11.3669 130.346 -6.94153
25.2706 136.165 0.556261
-15.1894 123.188 8.22627
-23.1859 121.979 6.50516
11.8047 136.771 -8.76259
-15.1366 123.519 7.55037
-12.6925 124.221 7.3207
16.3656 136.696 -5.84198
4.32298 132.857 -3.56088
2.29687 128.331 6.24945
-19.5302 120.994 11.2021
26.5516 139.221 -5.86814
-3.4052 127.089 5.99893
22.0457 134.572 2.84155
-16.9998 123.391 7.01647
23.2832 135.244 1.9844
16.7848 137.058 -6.23344
-12.0624 129.688 -5.33419
-17.9021 126.893 -1.90515
22.4386 139.006 -7.53709
-12.4105 125.383 5.27079
-16.3806 123.645 7.15278
26.7778 137.225 -0.368309
-23.259 122.63 5.62315
-17.5168 127.544 -2.88678
-23.2488 122.271 6.54706
19.0089 138.379 -7.65248
10.3627 130.741 5.90344
20.6699 138.852 -7.69458
27.4543 138.037 -1.64801
-15.1348 127.352 -0.805165
-12.4174 125.668 4.89872
-15.0639 128.041 -2.42507
-20.2404 126.475 -1.6671
21.9483 134.798 3.00471
7.24148 129.351 7.60166
-22.4468 124.173 2.6868
24.6704 136.448 0.701978
-13.9384 129.357 -4.74792
24.1656 136.246 1.06356
-14.9424 128.258 -2.581
12.2901 137.606 -9.21364
-5.84146 126.806 6.42002
27.0335 137.695 -0.59049
-15.171 128.04 -1.66982
-0.325569 132.124 -2.79573
11.3776 137.414 -8.62378
-0.252856 128.909 5.20366
1.1105 128.975 5.93798
-4.12325 127.844 5.64158
-11.7341 130.64 -5.52353
-14.8777 124.544 7.4332
15.3189 134.246 1.74372
17.7096 133.39 5.24227
-9.65927 132.025 -7.52399
25.9838 139.809 -5.34833
-6.60037 127.315 5.82296
17.5935 138.121 -6.08715
7.95962 136.268 -7.17947
23.5492 136.645 1.20054
13.2358 133.796 2.07163
16.2316 138.387 -7.23469
22.4874 139.973 -7.27905
6.04319 129.961 7.35091
9.67691 131.381 6.08765
-22.948 123.586 5.81462
4.21145 129.686 7.01609
11.1456 132.944 3.27803
-1.0622 132.406 -2.58574
-2.65027 128.346 6.35178
27.0202 138.838 -1.63227
-23.0166 122.858 7.69901
27.1912 139.254 -2.39664
-10.3957 126.629 6.13648
16.9206 138.656 -6.95345
8.24447 136.691 -7.28292
25.1188 140.025 -5.37947
18.306 139.188 -7.35627
-1.46912 129.312 5.00183
-3.22079 128.549 5.82818
-5.33411 132.482 -4.94531
-10.4141 126.838 5.79378
17.1239 134.417 3.80003
-10.8245 131.795 -6.26074
3.97364 130.055 6.69831
-22.9231 122.943 8.25015
2.67032 130.057 6.09596
-16.8337 124.237 8.7783
16.912 134.751 3.16432
26.7023 138.823 -0.895966
-14.2314 130.03 -3.67398
-19.3674 128.129 -2.04451
25.9787 140.316 -4.86567
17.4462 138.44 -5.33651
15.7422 135.023 1.9794
-5.03233 128.524 5.53564
24.1108 140.499 -6.31961
18.6362 134.145 5.92655
-15.7293 124.779 8.46051
17.3131 134.344 4.7743
-0.278306 130.129 4.67939
-9.39464 127.679 5.31087
-2.36331 132.948 -3.25921
-12.662 125.76 8.18519
-22.6093 124.234 6.13292
24.7082 138.122 0.334642
-7.03643 133.374 -6.84193
-22.6229 124.628 5.3832
16.5087 139.199 -6.92107
-14.7755 129.914 -2.79545
21.3043 140.522 -7.10289
-7.52818 128.665 4.74736
13.8583 135.365 1.13772
-17.8181 124.201 9.60212
-17.6704 124.349 9.3583
10.4153 133.409 3.95645
10.4137 132.749 5.58624
21.8405 136.873 2.32952
7.58132 137.362 -7.25812
6.14167 136.356 -5.64736
-8.38585 133.701 -7.76301
1.21728 133.784 -2.29911
-21.7794 125.655 3.89971
10.5368 133.673 3.53991
20.6927 140.497 -6.94349
8.95838 132.103 6.54215
-7.42281 133.748 -7.09758
16.5627 135.542 2.69052
-15.6843 129.965 -2.67582
-4.16623 129.694 4.83897
-0.32451 133.596 -2.34657
-22.4199 123.44 9.32182
-16.7596 125.3 8.17189
6.96009 131.473 7.28493
-5.81201 133.848 -5.99366
25.0304 140.89 -4.9119
-12.647 126.583 7.63033
26.6215 140.039 -1.8221
-18.3196 124.243 10.1102
-2.99696 129.973 5.46376
-15.1517 129.796 -1.27173
16.9072 135.367 4.10774
6.54466 131.576 7.2317
0.90503 131.213 4.78835
19.005 140.51 -7.06723
15.9553 139.07 -5.19957
-1.89856 133.786 -2.87423
2.80425 131.599 5.37045
15.7238 136.235 1.76288
14.6409 139.734 -7.37475
-11.512 132.186 -4.45048
-11.7679 132.066 -4.25227
-15.8556 125.951 8.30791
-4.58698 133.99 -4.55402
19.17 135.679 5.44529
-5.48725 134.403 -5.82688
-14.5615 130.438 -1.51566
-12.6234 131.748 -3.54665
22.6973 138.348 1.42888
-14.0544 126.488 8.57641
-21.9771 125.912 5.54887
20.1769 141.173 -6.61296
6.69409 132.264 7.1268
-11.4942 128.261 6.24553
10.1803 134.313 4.47631
25.6233 141.654 -4.07308
3.49483 132.472 5.27618
16.7292 136.113 4.28305
-8.94211 129.416 5.48686
0.601718 132.092 4.62238
19.4758 141.328 -6.66217
7.63196 132.862 6.97204
-9.43287 134.484 -7.01063
7.1154 132.744 6.9907
7.55054 132.932 6.94685
16.5528 136.418 3.88612
6.84942 132.856 6.94562
6.88098 132.902 6.93216
6.45735 138.263 -6.28921
21.9224 138.629 2.23292
23.2455 139.502 0.898717
-22.4213 125.103 8.96924
2.68114 132.917 4.81799
-5.08273 131.317 4.14789
13.7183 137.1 1.21757
-17.6897 130.431 -1.08529
-0.26596 135.171 -2.25652
-20.0411 128.854 1.55221
3.28682 136.331 -2.80023
1.38689 135.656 -2.23036
19.8391 137.611 3.96828
0.779077 132.769 4.52965
-2.24289 135.075 -2.78558
-14.2419 131.753 -1.78599
24.0107 140.201 0.287556
-4.08939 135.312 -4.35534
-2.99537 135.215 -3.42081
20.8109 138.299 3.17432
16.7679 140.471 -4.45487
-3.32744 132.289 3.57482
7.93916 133.792 6.68944
-19.5608 129.986 -0.277658
-11.0661 134.186 -5.46346
16.2477 140.192 -3.90324
-9.46967 135.135 -6.77891
-20.9223 127.944 3.97238
-5.03431 131.817 3.95019
-19.3819 125.736 10.2684
-14.4096 127.795 8.42796
15.6435 141.009 -5.93193
23.7542 142.812 -5.521
3.81654 137.239 -3.73371
-6.17297 136.044 -6.59728
25.7796 142.615 -3.67132
-5.78771 136.005 -6.07198
-20.1917 125.769 10.3044
12.0804 141.431 -8.70332
15.5776 141.12 -5.67167
21.9649 139.467 2.13027
-21.3366 127.483 5.8339
17.1359 141.158 -4.69398
-14.8921 131.872 -1.00078
-4.94449 135.97 -5.04074
11.3102 137.048 1.94473
25.8188 142.165 -1.86356
17.1359 137.281 4.91914
-5.1953 132.397 3.68744
13.9084 138.037 1.28626
10.6504 136.572 2.928
7.13973 139.899 -7.21999
-21.0672 128.2 4.61793
-21.0006 128.326 4.39341
-21.4417 126.135 9.54186
19.2358 138.069 4.59605
-14.7141 132.165 -1.01198
21.1391 139.184 3.14935
16.2718 138.133 2.87325
-15.9092 132.258 -1.82673
17.0533 137.562 4.76674
-5.4447 136.392 -5.51833
-13.5624 129.033 7.8361
24.2864 143.521 -4.93896
11.5873 141.917 -8.50972
-7.55161 131.682 5.07494
-4.91273 136.51 -4.92993
18.5366 137.946 5.41114
15.202 141.756 -5.79259
10.438 137.055 2.86999
-19.144 127.415 8.89214
-4.78756 133.202 3.406
-20.2487 129.834 2.50976
-8.68806 136.408 -6.58265
24.7017 141.98 -0.373989
12.5825 138.289 1.54377
-8.41365 131.697 5.24342
5.90613 134.98 5.76561
10.7472 137.666 2.15645
14.4371 142.344 -6.93411
13.5836 138.745 1.33286
3.20016 134.788 4.82658
9.63326 136.205 5.18772
-6.00988 132.858 4.12894
8.89237 141.363 -7.73891
22.5776 143.922 -5.65202
-14.2497 133.608 -2.22463
-2.68946 134.059 3.4988
25.5563 143.459 -2.53997
-5.4758 133.313 3.82849
25.662 143.742 -3.13486
19.2917 143.27 -5.72095
-21.9741 127.539 8.31573
-5.99758 133.4 3.54429
6.67711 140.728 -6.78322
-13.7965 133.669 -1.62812
-11.5371 135.544 -4.78496
6.32539 140.668 -6.56936
-5.97268 133.563 3.53167
-21.4939 128.588 6.46592
0.397544 135.068 3.71842
5.80648 136.038 4.57644
12.1471 142.733 -7.90652
-21.9453 127.752 8.39561
0.551271 135.14 3.72419
-16.5198 129.428 7.8143
-5.49023 133.846 3.67582
1.20287 137.955 -2.23963
-4.23901 134.215 3.63929
-19.9614 128.055 9.3716
10.2836 137.263 4.87782
-4.22779 137.619 -4.53419
21.3208 144.164 -5.29844
-15.1071 130.074 7.52259
0.616633 137.915 -2.2212
-6.41951 133.343 4.77176
6.8759 136.466 5.10117
-13.3498 130.789 7.02508
5.23705 140.57 -5.5489
-21.0856 128.174 9.14131
20.9479 140.903 3.02103
2.6996 135.921 4.4434
15.1842 140.209 1.61173
-8.446 132.815 5.64181
22.1353 141.818 1.81448
8.1211 142.17 -7.27556
14.3403 143.581 -6.81502
-19.9098 128.698 9.14532
-1.17204 137.977 -2.28114
-7.62073 138.315 -6.73714
18.2942 139.767 5.12693
-6.73412 133.657 5.21339
6.7009 141.755 -6.52792
14.418 140.419 1.33084
15.8876 142.88 -3.76204
22.7595 145.117 -5.0744
9.1706 142.867 -7.60978
1.5237 136.358 3.73092
-9.00759 132.639 6.56744
9.50177 137.659 5.30256
-16.0785 133.794 -0.388861
-16.0291 133.832 -0.395212
-12.0132 136.364 -4.17592
-21.7093 129.085 7.79218
24.9406 144.973 -3.26282
14.3259 143.907 -6.92024
-6.85369 134.075 4.86062
-0.606495 138.512 -2.16713
-10.6429 137.49 -5.51045
9.69148 138.1 5.01802
18.2914 140.238 4.97487
3.41577 140.328 -3.98691
9.77649 138.468 4.42042
9.82515 139.297 2.45222
-0.598202 136.528 3.04085
15.019 143.379 -4.38907
-4.53087 135.675 3.13249
9.65631 138.77 4.04083
6.53208 142.328 -6.41764
3.6213 137.073 4.7134
23.4457 143.701 0.386559
24.5996 145.53 -3.32256
22.4008 145.636 -4.8471
1.59947 137.062 3.7347
15.1837 141.164 1.78927
14.8641 143.737 -4.60499
-16.5452 130.843 8.27042
15.832 143.594 -3.46969
-2.65771 139.03 -3.23365
6.41385 137.819 5.1756
15.8757 143.673 -3.4272
-4.78731 139.183 -4.664
1.97768 137.348 3.8806
-19.117 133.323 1.23455
-18.662 133.661 0.787279
1.469 137.446 3.47009
19.546 141.8 3.62457
-1.27534 136.98 3.07841
-7.54457 134.529 5.36966
-15.3232 135.073 -0.527399
-9.16759 138.882 -6.07283
14.3906 141.585 1.26198
14.5751 144.596 -5.93359
-20.1742 132.677 2.59133
-12.6226 137.319 -4.23
20.45 142.343 3.12838
23.8075 144.7 -0.412135
3.6957 137.787 4.5715
7.89208 138.308 5.79389
-1.89189 139.49 -2.7525
4.0401 141.722 -4.52931
-15.6199 135.392 -0.521607
22.1029 143.693 1.57542
-19.8518 132.285 4.5883
-7.75314 135.238 4.68899
4.55216 138.34 4.44472
-5.7994 136.314 3.26606
-11.006 133.299 7.53314
19.5463 145.84 -4.71517
1.60587 138.217 3.2262
-7.8749 135.064 5.3303
4.60971 138.559 4.32859
-6.52591 140.144 -5.97498
-20.9973 130.492 9.02707
3.98265 138.559 4.18072
6.57933 138.626 5.62578
7.28429 138.702 5.88075
23.6685 146.177 -2.57713
-8.10078 134.713 6.61264
-16.6457 131.865 8.57058
13.8836 142.309 1.30321
9.35982 144.814 -7.42747
-20.9832 130.693 9.08705
-17.3672 134.998 0.840934
-19.8439 132.805 4.76369
-20.0924 133.154 3.77819
-7.59835 140.325 -6.24682
-8.47864 134.716 6.9121
-17.9692 134.555 1.80401
12.2781 142.024 1.58732
23.5558 146.653 -2.90911
-9.62591 134.545 7.1003
6.91017 144.159 -6.40453
-19.9275 131.356 8.92569
-11.204 134.023 7.60237
11.809 145.603 -6.93197
16.3459 142.47 3.36789
7.22005 139.505 5.51188
15.5223 142.762 2.56511
4.82895 143.478 -5.33965
8.41296 145.042 -6.96598
20.6569 144.114 2.55668
3.27829 139.628 3.37921
-5.03432 137.988 2.55808
-11.1637 139.349 -4.33696
6.51287 139.311 6.24435
-10.7735 134.706 7.28749
-1.53629 138.713 3.09368
14.4956 143.245 1.63042
20.7149 147.264 -4.41923
-17.3853 132.498 9.07117
-0.408925 141.253 -2.14338
-4.32253 141.186 -4.27872
18.0883 143.527 3.43449
23.0464 147.321 -2.83238
-13.2684 137.604 -0.514263
19.4541 146.881 -3.70807
5.49155 144.436 -5.72553
-18.0276 132.623 9.14595
22.3732 145.984 0.641976
-6.89162 137.408 4.23975
-19.8504 133.912 5.13448
4.56969 144.07 -5.11733
12.3208 143.432 1.29718
16.325 143.487 3.78505
-0.758775 139.845 2.7398
-12.6217 134.488 8.75919
10.8847 146.665 -6.9079
9.90114 142.991 1.47174
-12.3055 134.727 8.61418
-2.80503 139.576 2.69162
17.1652 146.488 -2.24211
-2.06168 139.867 2.96169
-17.9031 133.398 9.39915
20.0493 145.59 2.24697
-17.243 136.37 2.66005
22.0396 146.879 0.299314
5.32501 140.679 5.57134
-19.0718 134.902 5.45964
19.6632 147.953 -3.37938
6.50863 141.305 5.61132
-18.9635 133.694 9.22333
-13.0244 139.129 -0.390329
16.9099 144.947 3.13879
-3.92233 140.134 2.62887
-8.49869 142.436 -5.61329
-11.6813 136.013 8.12169
9.22956 147.188 -6.69285
-19.5601 134.122 8.11033
-12.7314 139.447 -0.767451
16.7561 147.07 -1.87786
-17.0616 134.213 9.44414
14.3167 147.411 -4.08185
-3.84862 140.261 2.66764
-13.1984 140.138 -2.47433
2.56084 144.55 -3.70885
16.4875 145.103 3.17819
21.7528 148.677 -2.34264
-18.8723 134.135 9.1532
-0.120081 143.444 -2.35033
-8.70508 138.103 5.61031
8.12469 143.359 2.84261
-15.0472 135.032 9.42927
16.2135 147.263 -1.83135
-9.09209 137.619 6.71244
20.7478 147.321 0.748322
10.2037 144.519 1.43173
4.79491 141.791 4.8716
-14.9865 138.662 0.956578
-0.150421 143.621 -2.33967
4.96305 146.094 -5.21505
-8.81128 138.235 5.82942
20.5767 148.998 -2.80604
13.9214 147.943 -4.16004
-8.99095 138.101 6.29726
4.20125 141.75 5.21412
12.3117 148.091 -5.3153
-17.8306 137.085 3.80133
9.01328 147.846 -6.47146
-18.853 135.09 8.27038
3.41672 141.963 4.71935
-2.27185 143.669 -2.5172
-8.64283 138.889 5.385
-11.9673 136.971 8.08535
-12.2727 136.922 8.1626
-3.49159 143.795 -3.17352
2.26533 141.844 4.98871
18.6582 146.93 2.39796
-10.1631 137.837 7.55377
1.90955 141.784 5.08862
-5.45402 143.985 -4.56092
15.3946 148.212 -2.51528
-2.08635 141.999 2.31911
-12.5763 140.594 -0.374745
-13.097 140.152 0.483116
-7.36109 144.006 -5.45893
-5.85252 144.142 -4.79025
2.54889 145.883 -3.86604
-2.7142 142.08 2.35573
-0.410408 144.623 -2.33656
5.79712 142.801 5.78004
-2.68623 142.223 2.29721
-12.8662 140.505 0.477514
10.8115 148.95 -6.06339
0.715099 145.167 -2.72062
-0.177081 142.674 2.85135
-13.851 137.08 8.49778
10.1653 145.814 1.47997
7.90292 144.902 2.59692
-14.9527 136.786 8.92962
-12.8696 140.719 0.632394
2.26261 146.224 -3.70616
18.641 147.924 2.05702
-13.6335 140.568 1.01131
-15.436 139.89 1.70695
-7.98984 140.692 4.67199
-12.834 141.517 -0.133833
7.323 148.676 -5.55542
-7.93159 140.793 4.61001
14.9298 147.318 2.35711
-10.4102 143.838 -4.11685
-13.3562 141.076 1.00896
5.97406 144.232 4.80765
-8.05316 140.904 4.72591
8.3971 145.597 3.38495
-12.9568 142.12 -0.732379
5.6826 148.481 -5.04649
-17.4083 139.031 4.53929
-17.4765 138.703 5.30575
-3.09565 145.511 -2.68896
7.83307 149.354 -5.44578
-4.89199 145.675 -3.93128
-3.00769 145.674 -2.5989
-3.31473 145.703 -2.79451
-12.0488 143.163 -1.75756
18.5283 149.396 1.29469
3.57554 148.125 -4.30677
8.72552 146.858 1.86048
-10.2961 139.95 7.64158
18.6338 150.113 0.0802587
6.41884 149.259 -5.04623
-0.824617 146.417 -2.20769
7.9322 149.817 -5.27158
-5.16 146.25 -4.06048
15.6938 150.209 -1.35665
7.17071 149.664 -5.05633
-7.31043 146.16 -4.8468
-10.4463 145.029 -3.91759
11.4754 150.607 -4.04648
16.7016 150.934 -1.67216
8.13164 146.894 3.12542
15.8973 150.744 -1.58483
-10.0092 140.933 7.29469
-7.96611 146.423 -4.74413
-9.08646 141.698 6.27104
15.5595 150.814 -1.27868
-10.4219 145.562 -3.79184
-12.321 144.049 -1.17418
-2.42868 146.981 -2.37695
16.8089 150.098 1.50949
-3.19259 145.219 1.81809
0.580783 148.104 -2.93272
-16.3797 141.132 4.10774
-3.37874 147.066 -2.625
-11.2865 145.257 -2.79762
-12.0975 143.439 1.14691
-12.9875 140.193 8.58046
16.6513 151.296 -0.787394
-6.36222 144.287 2.67921
16.0621 150.309 1.49542
-12.1798 144.092 0.0330906
-16.0131 139.72 8.47441
-15.2384 139.847 8.64241
15.2538 150.028 1.90567
-15.4056 141.976 3.43346
-12.0771 143.822 0.923728
-5.04367 147.535 -3.73808
-11.5616 141.052 8.33038
-4.53809 147.6 -3.32248
11.0095 151.386 -3.19235
-16.4437 140.982 6.00333
-13.0305 143.379 2.40594
-7.09736 147.672 -4.33966
9.98415 151.619 -3.74938
11.8083 151.36 -2.0285
-2.33418 148.103 -2.30363
-14.3988 142.918 3.20382
11.5363 149.872 1.83665
-10.9692 141.884 7.99221
-5.61933 145.688 2.143
12.9294 151.696 -1.1939
-9.41618 142.902 7.02272
-15.7107 142.397 4.6429
12.0853 150.347 1.73636
4.98181 151.053 -4.0494
11.7713 150.515 1.68203
-13.8439 143.581 3.5117
-12.1698 145.107 0.872315
-12.5624 144.343 2.56992
-13.8403 141.666 8.34414
8.64398 152.203 -3.92788
12.4145 152.063 -1.17478
-8.87836 144.415 5.17123
14.5036 152.06 0.478677
-0.556829 149.78 -2.44643
10.7811 152.165 -1.42372
14.1035 152.341 0.280739
1.16549 150.656 -3.19439
1.97087 150.954 -3.36602
13.2575 152.951 -0.770334
12.5112 152.923 -0.827381
10.213 152.644 -1.40898
12.6347 152.435 0.631954
-4.63684 149.716 -2.94457
-11.4766 143.896 7.25799
10.8302 152.839 -0.858994
7.13496 152.992 -3.13219
-7.91916 149.513 -3.52322
-10.7506 148.345 -2.25585
-2.53551 150.279 -2.08757
2.35484 152.01 -3.11169
-8.92745 146.16 4.89311
-5.77652 150.306 -3.3128
-8.93909 146.157 4.90466
9.80486 152.132 1.55505
-9.40551 145.963 5.23356
-7.96697 147.064 3.66994
-10.0205 149.192 -2.43864
-10.218 145.827 5.67124
-7.96053 149.998 -3.06581
9.24889 152.234 1.69058
-5.18522 150.598 -2.83835
-3.31531 150.779 -2.1638
-8.84504 149.732 -2.73458
0.612098 152.527 -2.84645
11.0039 153.668 0.721695
-12.8205 146.706 3.617
8.55093 153.924 -1.12749
-11.7602 148.161 0.895071
-11.2065 146.475 5.51263
-7.68545 150.854 -2.55667
2.58077 153.479 -2.59293
-5.43892 151.571 -2.68505
10.3553 153.931 0.971384
-8.31759 150.963 -1.97866
-9.7212 148.571 3.18109
-5.10104 152.046 -2.4634
-1.82228 152.602 -1.86824
-5.60768 152.11 -2.65651
-6.44782 151.894 -2.45438
-10.5831 148.614 3.16012
-8.63962 149.429 2.70468
3.93261 154.603 -1.79849
7.30978 154.711 0.249122
5.90188 154.983 -1.21221
-6.02501 152.55 -1.89291
4.7145 155.037 -1.55181
