ply
format ascii 1.0
comment Created by Open3D
element vertex 1946
property double x
property double y
property double z
end_header
9.24055 106.346 -5.37879
28.1857 104.652 7.86517
12.9661 102.539 5.83727
1.1941 98.9563 9.04895
22.0183 100.289 15.7954
-17.8806 98.8093 0.34618
-18.6865 99.6903 -2.14261
3.9934 99.4227 9.39989
-17.2368 98.5288 1.44623
28.8083 103.756 10.6564
-17.4568 98.6479 1.06812
25.7685 105.752 4.38586
23.9659 100.68 16.0929
28.1955 101.539 16.0851
29.4916 103.071 12.9569
-2.13331 105.14 -7.21476
-6.32138 104.201 -6.84296
-17.0391 98.6405 1.82746
-18.1295 100.91 -4.23026
25.7351 105.989 4.38987
-7.5607 98.0227 8.1608
1.90112 105.908 -6.54798
17.94 102.378 9.80196
-5.76638 98.0944 8.99569
-12.124 98.2047 5.82505
1.4904 99.6079 8.91532
28.7147 104.198 10.6902
-0.15574 105.733 -6.87816
-6.97623 98.1436 8.48716
9.35245 101.43 8.25576
26.981 105.916 5.71822
21.2827 108.008 -1.83325
13.9418 103.533 5.7914
24.6326 101.335 16.3945
20.0876 108.557 -3.44538
6.33751 100.793 9.29789
-8.10824 104.627 -6.76387
28.9372 104.409 11.5927
-18.3894 101.562 -4.01002
29.0083 104.267 12.0295
-10.1245 104.007 -5.98862
22.3441 101.391 16.0768
19.205 101.402 14.6269
2.17096 106.661 -6.39315
26.1167 101.893 16.8014
28.5535 105.029 10.3149
-1.75394 99.6064 9.16886
18.4477 102.192 12.5856
6.88051 107.793 -6.60196
15.3197 108.437 -4.00092
-13.1276 99.0784 5.38687
29.1782 104.312 12.8004
13.64 104.204 5.66321
-11.3282 99.0134 6.55034
-18.3899 100.616 -0.724594
-18.9454 101.013 -1.91933
14.1947 104.371 5.76011
-15.3576 103.472 -6.09707
27.9615 105.947 8.60547
25.1317 107.287 4.0567
4.52517 107.715 -6.84902
-8.88169 99.0753 7.94177
25.758 102.243 16.757
17.266 104.367 7.54745
-17.4009 100.258 1.26311
-1.18003 100.398 8.73626
-10.223 104.783 -6.3202
11.7209 108.454 -4.82954
26.8744 107.119 5.72421
16.1116 104.78 6.34833
-18.5798 101.072 -1.10404
28.3915 103.909 14.48
-12.9839 99.4705 5.60181
11.2228 103.494 7.32087
-15.1015 103.809 -6.02294
-3.1744 99.748 9.83325
-18.3017 101.05 -0.591307
18.7328 103.772 10.672
-16.5545 103.32 -5.08451
-7.75422 99.4711 8.62664
25.034 102.624 16.6228
16.6527 105.057 6.64468
-10.4136 99.5349 7.32624
7.35667 102.371 9.20298
-17.0125 100.601 2.06648
-14.3818 104.373 -5.92547
-16.4062 100.517 2.64607
15.6858 109.578 -4.15636
-8.29742 105.902 -6.49489
-7.25875 105.9 -5.89052
3.25184 102.054 8.59016
21.1882 109.793 -1.46862
21.3937 109.57 -0.790494
27.5877 104.338 15.0618
13.0756 109.456 -4.40061
-6.90046 106.293 -5.83596
-7.63278 106.218 -5.87487
-2.7072 100.947 9.47534
13.3417 109.774 -4.46853
11.6609 104.925 6.90331
15.3461 110.292 -4.42137
-11.3957 105.946 -6.53477
11.856 109.758 -4.72768
18.9833 104.984 10.4105
-14.0366 105.265 -6.03154
-16.2512 104.82 -5.93539
25.328 103.806 16.4927
-18.9274 102.785 -2.12799
-16.5928 104.355 -4.85139
27.3358 104.769 15.208
24.8613 103.874 16.2923
14.7716 110.433 -4.61682
-18.1067 102.476 -0.784516
19.5282 103.538 14.6224
6.62613 103.38 8.90673
23.6321 109.115 3.05229
13.8834 110.339 -4.59153
20.0254 103.581 14.9346
26.6976 104.644 15.7178
5.67908 109.685 -6.56123
26.9359 104.853 15.4894
7.53426 103.792 8.87269
-3.0926 101.478 9.62582
14.2752 110.697 -4.67983
6.74891 103.744 8.82643
14.7389 106.75 5.34631
18.8239 105.926 9.33438
20.7869 111.008 -2.14295
-3.28134 101.549 9.6839
-4.66173 101.213 9.87318
-2.45636 101.943 9.2162
19.1231 111.662 -4.27152
5.27283 103.688 8.75219
4.83018 109.922 -6.71267
-17.6477 104.278 -3.57382
19.3316 105.81 10.6168
-17.9697 103.356 -1.13268
-0.339395 108.98 -6.45647
22.2333 110.755 0.02632
5.19093 110.212 -6.69624
10.9338 110.739 -5.11375
28.0495 106.813 12.7184
8.86837 104.678 8.80919
-0.21832 109.184 -6.51632
-1.82212 102.643 8.76828
25.5026 109.249 5.64545
25.0354 109.411 5.0278
-14.6532 101.994 4.27077
26.7466 105.533 15.475
16.6066 111.869 -4.84457
23.3433 110.398 2.07009
13.3803 107.162 5.29242
1.7843 109.629 -6.24806
17.0199 107.318 6.71835
19.7554 112.247 -3.8548
10.6568 105.813 7.64768
22.2802 104.964 15.2946
19.5118 112.445 -4.23085
13.7433 111.711 -5.15149
-5.91746 101.752 9.92148
10.898 111.195 -5.09261
27.6291 106.45 14.6999
-11.1124 107.432 -6.03673
19.7045 112.664 -4.04573
-17.0151 103.63 0.597692
18.212 107.511 7.98036
-16.4536 103.084 2.28207
15.0378 108.023 5.28619
-1.10739 103.617 8.45628
-15.4035 106.84 -6.19579
-4.04589 108.546 -4.89567
4.51765 104.768 8.51192
20.7529 112.198 -1.92217
22.0902 111.889 -0.516839
11.1496 106.772 6.81078
-8.5488 108.06 -5.74162
17.4539 107.961 7.04804
27.9432 109.454 8.42351
19.9485 106.716 11.3251
14.693 112.468 -5.29017
15.7734 108.267 5.55911
25.8368 110.128 5.85353
16.7756 112.765 -4.93607
19.9673 106.49 12.0802
28.0352 108.35 11.5548
12.3694 112.211 -5.36635
28.1133 108.556 11.2332
12.4746 107.936 5.40918
20.0287 106.73 11.9895
-17.0414 104.169 0.703627
27.7018 108.293 12.0646
-17.1775 106.286 -4.40783
23.7659 106.019 15.8553
19.6434 113.296 -3.96009
16.4609 108.646 5.95822
-4.89956 102.928 9.7775
-18.936 105.01 -2.00458
-12.1846 107.88 -5.80544
-17.1597 104.572 -0.00392914
23.5568 112.112 1.11275
22.0724 105.998 15.4245
-15.7612 103.68 3.04304
27.5206 108.221 12.629
16.9873 113.281 -4.75485
-7.78841 108.993 -6.03863
2.99609 105.192 8.45817
-4.02612 103.343 9.63578
24.1815 111.877 2.21133
-8.33831 102.747 9.07544
0.916998 104.927 8.21093
-7.42185 102.8 9.5043
-11.2573 103.02 7.13103
18.0064 108.574 7.52669
18.5897 108.378 8.29398
-5.91197 102.939 10.018
-4.12491 109.294 -4.70402
-17.3036 105.151 -0.694542
18.827 108.405 8.63814
10.1418 112.418 -5.31264
-6.01669 109.483 -5.76245
18.5174 113.638 -4.17159
-11.0243 108.664 -6.07759
-5.0172 103.372 9.81891
-14.9292 103.812 4.04815
28.0212 110.239 8.92284
-12.2841 108.537 -6.098
20.2691 107.517 12.0366
-7.40521 103.121 9.593
-16.2734 107.602 -5.47314
17.6453 113.785 -4.4127
-16.9289 107.269 -4.80987
-8.71151 103.295 8.88151
9.13612 112.389 -4.80157
1.19299 111.342 -6.01805
-13.5708 108.567 -6.23679
1.38209 111.425 -6.03999
-11.4619 109.059 -6.37821
-10.2897 109.369 -6.55231
5.43856 112.007 -5.35978
3.69331 112.1 -6.39924
-8.24119 109.801 -6.40355
17.3479 114.007 -4.46958
11.7448 108.687 5.98589
10.7396 108.073 7.2358
-0.916259 105.331 8.42639
18.7558 109.173 8.46317
27.7138 109.926 10.913
-0.549848 105.471 8.37566
16.2442 109.911 5.52156
9.89947 112.997 -5.07689
-17.5313 107.464 -4.62011
-9.3033 103.749 8.43312
15.4852 114.02 -4.88038
20.6877 107.681 13.3689
18.735 114.494 -4.24973
20.4049 108.523 11.3243
-5.93039 103.926 10.0799
20.7421 114.225 -2.40948
-13.8682 104.337 5.31285
23.4524 107.225 16.089
1.30877 111.95 -6.09919
-13.7689 104.31 5.46496
-7.45658 103.844 9.65351
27.076 109.289 12.9233
26.6971 111.587 7.24424
-16.609 108.469 -5.78603
27.1855 109.753 12.0212
21.5865 114.016 -1.09053
10.9004 108.626 7.04651
10.9476 113.759 -5.39468
5.21002 112.599 -5.27235
-18.1675 106.26 -0.735468
11.9723 109.597 5.51237
7.34547 112.733 -4.24232
26.9964 109.862 12.4139
3.47391 106.848 8.64843
16.1975 110.714 5.33062
-14.308 109.931 -6.85798
16.7919 115.179 -4.8051
5.10831 107.286 9.00894
23.181 108.085 15.7583
6.82765 107.635 9.32788
13.5263 114.691 -4.557
10.3051 114.259 -5.01401
22.4907 114.655 -0.0706524
22.3602 108.171 15.8435
-15.6393 106.817 1.06888
-13.9808 110.427 -6.97767
-8.92458 111.136 -6.27767
26.7704 110.343 12.75
24.1272 114.441 1.91219
15.9908 111.683 5.08609
-0.795591 107.076 8.37979
10.5416 114.798 -5.08727
-18.8247 107.653 -1.60367
23.1601 108.846 15.5817
11.8437 115.102 -5.06745
25.7125 113.886 4.66759
-4.95838 105.804 9.85838
20.8588 109.641 12.7967
17.8257 111.503 6.92784
20.1604 110.127 11.6259
21.5797 115.24 -0.226945
23.4651 114.816 1.84039
8.7643 108.952 9.30784
-17.2606 107.461 0.55759
19.0388 111.145 8.96842
-15.6727 107.546 1.26248
-10.2523 111.836 -6.62125
4.41041 108.28 9.13132
-8.83645 105.699 9.17762
10.1149 109.774 8.41491
12.8812 111.739 4.96664
10.8587 115.511 -5.20009
23.7655 109.735 15.1693
19.4623 111.16 9.72412
23.8404 114.928 2.65727
18.91 116.223 -2.82237
-1.34935 107.722 8.42079
-5.75469 106.238 10.1745
-2.3261 112.794 -4.23897
-3.26542 107.204 9.18372
-10.52 106.303 7.93354
-12.9647 106.824 5.53716
5.24645 114.502 -4.51959
-0.105089 113.989 -5.7793
-17.4021 110.572 -5.49684
6.42002 114.679 -4.00741
14.8886 112.919 4.55399
12.9875 112.417 4.88788
12.3022 116.176 -4.58366
-9.10579 106.457 9.10769
17.9935 112.717 6.97826
-18.4446 110.076 -3.82936
11.5721 111.985 6.0641
1.24919 114.868 -5.91562
1.62168 109.028 8.65098
-9.94258 112.981 -6.49242
4.88947 115.144 -4.50886
26.8913 113.213 10.9026
20.5254 111.024 13.2506
-17.4015 108.624 1.20168
27.1154 114.651 7.88515
15.5643 113.721 4.64304
6.96589 115.72 -4.35296
-12.0922 107.422 6.93018
-4.60937 107.731 9.75184
-16.9582 111.695 -5.84814
-12.3799 108.103 5.23636
-18.7548 109.559 -1.29054
19.5764 116.415 0.265199
0.211746 109.353 8.40636
26.04 112.656 12.7223
16.4961 113.959 5.01194
13.7886 116.936 -3.58864
15.5065 118.217 -5.89246
1.77813 109.592 8.73611
-9.50153 113.481 -6.13342
-12.2781 113.346 -7.0538
8.11587 116.386 -4.68827
21.4599 110.999 14.9842
-6.96995 113.707 -5.24397
-0.272417 115.071 -5.38616
25.6746 115.6 5.75619
26.513 113.605 11.364
-12.595 108.74 4.68935
5.59831 110.423 9.46208
22.8773 111.545 15.3382
19.5403 113.183 9.79597
21.7824 116.495 2.75235
26.2848 113.791 11.6418
-2.66227 114.44 -3.79461
11.1284 117.397 -4.41281
-0.478911 115.428 -5.10753
-12.3542 109.005 5.03259
16.6826 118.105 -3.31925
-8.27937 107.937 9.85664
-14.1765 113.599 -6.82853
9.55294 117.34 -4.62664
-8.31335 107.972 9.8522
25.5518 115.977 6.45628
0.697642 110.321 8.52918
-7.72908 108.091 10.0211
25.2793 113.479 12.6693
6.61726 111.025 9.82982
20.2776 112.448 12.9378
14.9967 114.946 4.28906
10.5405 112.52 8.13483
22.561 116.51 4.27404
-6.71803 108.38 10.3239
19.6838 113.606 10.3697
11.3673 113.604 6.41912
18.8514 117.594 0.27428
-7.59972 114.671 -5.09711
22.8211 112.422 15.152
14.2929 115.336 4.09072
-17.9245 110.316 1.10471
18.2545 114.955 7.04172
-10.0908 114.92 -6.40557
-1.1967 115.872 -4.28544
-2.57368 115.326 -3.54766
22.1176 112.615 14.9852
-10.1866 108.891 8.69771
22.0289 116.963 4.30257
-3.72416 109.775 9.62513
15.4252 115.756 4.33749
-15.5359 110.254 3.06874
18.9183 114.788 8.43335
15.3605 120.171 -6.4339
16.4295 119.473 -4.1162
-10.6506 109.214 8.2267
-11.8424 115.059 -6.63893
-12.4816 114.902 -6.54368
-12.1687 110.266 5.05678
22.6868 113.018 15.0304
18.627 118.446 -0.167052
-16.8727 110.565 2.23123
22.912 113.134 15.0251
13.915 115.869 4.09647
23.1506 117.102 5.49397
25.8719 115.485 10.8233
26.6033 116.026 9.88166
9.69853 118.521 -4.31854
17.9474 115.734 6.51739
18.5617 118.606 -0.16918
7.13935 112.334 9.87679
18.6393 118.535 0.232124
19.9262 114.23 11.4234
-1.55512 111.159 8.69616
-13.5354 110.757 4.06265
17.2316 119.563 -2.82375
-10.014 109.53 8.84441
-18.3083 111.308 0.532232
18.5547 115.667 7.59276
25.0214 115.194 11.8545
16.7419 119.995 -3.79368
-12.0621 110.712 5.24077
25.5923 120.916 -1.71589
-11.0399 110.055 7.60906
-18.9576 112.113 -1.19819
22.8691 118.79 2.46187
7.94544 118.452 -3.81881
16.4902 120.383 -4.38994
14.7514 116.677 3.92822
21.0928 119.297 0.601018
26.2836 117.581 7.413
-14.1987 111.171 3.80407
23.8789 114.812 13.2235
22.0002 123.324 -8.479
22.6008 119.196 1.93929
14.2871 120.714 -5.66761
21.1933 123.194 -8.42344
-12.1106 115.956 -6.32461
-16.964 114.797 -5.80381
26.3263 117.042 9.40344
12.1718 116.072 5.01476
6.86296 113.055 9.88821
2.25915 118.401 -5.39241
24.0338 118.148 5.64657
25.6441 121.208 -1.0587
-16.0866 115.215 -6.28014
13.8633 116.856 4.03914
20.507 114.26 13.6349
19.4906 122.277 -6.51747
26.1834 117.655 8.21736
-1.09455 112.162 8.71471
4.39903 118.508 -4.19927
-10.7971 116.514 -6.55219
19.2732 115.577 10.1915
26.6305 121.814 -1.48742
14.0762 117.135 3.99597
14.3504 117.22 3.92444
20.607 119.989 0.141096
26.0844 116.987 10.1292
20.0432 121.918 -4.85952
24.2549 118.546 5.46685
18.1519 116.877 6.73127
17.2587 117.344 5.19771
14.4372 121.453 -6.22574
23.2767 119.177 3.64077
22.7679 114.645 14.5351
-18.623 112.894 -0.910538
17.4147 120.591 -2.51931
23.5179 118.985 4.40487
19.1189 120.147 -0.520649
11.438 115.991 6.09106
19.0674 122.481 -6.17631
23.3705 119.46 3.32658
5.87419 118.905 -3.66364
13.3259 121.166 -5.58215
15.5475 117.665 4.10929
23.4192 119.688 3.14671
-1.79092 112.471 8.96906
17.8294 120.072 -0.288206
9.41372 114.673 8.98212
-13.0158 112.235 4.26851
13.1396 120.851 -4.35877
-6.73975 111.132 9.98868
-0.201194 113.005 8.60484
18.2327 117.047 7.53195
-8.66023 117.254 -5.77654
-18.3625 112.611 1.14258
23.3963 122.268 -2.52132
18.0897 120.375 -0.386835
0.519335 113.194 8.88193
-13.3793 112.445 4.09187
-6.5932 111.372 9.97188
26.8379 122.239 -0.694296
-14.9812 116.303 -6.12968
22.6484 122.384 -2.858
22.2892 122.51 -3.2438
16.966 121.274 -2.72828
-8.60929 117.49 -5.66224
-6.88113 117.483 -4.81094
19.9528 120.989 -0.573189
20.038 122.273 -3.59915
22.6381 122.758 -3.53459
26.3087 122.251 -0.503852
23.0726 121.821 -0.919303
-13.48 112.701 4.05908
16.863 121.298 -2.50285
-6.02485 111.887 9.77445
-3.45223 117.649 -3.05571
23.2543 125.524 -9.58376
19.0026 122.588 -4.40133
-6.64554 111.688 10.0984
22.7724 125.007 -8.50824
18.0695 117.938 6.67816
23.5016 116.454 12.939
2.89874 113.745 9.74889
13.1093 122.267 -6.06278
18.4943 117.153 9.08114
12.596 121.577 -4.50581
16.8949 122.564 -4.86755
-10.3716 112.046 7.91035
23.6371 120.809 2.85782
22.5092 121.287 1.14824
26.5215 123.206 -1.52537
25.2884 125.889 -8.68655
-1.7517 118.405 -3.25709
22.1509 116.037 14.0213
17.8239 123.01 -5.13444
9.77988 120.623 -3.03946
7.80569 120.109 -2.70507
-18.2074 115.36 -3.45925
5.81372 114.536 10.0826
8.44958 120.274 -2.64861
24.5424 117.756 11.2642
12.4713 122.456 -6.01587
-9.19648 111.976 9.34725
2.78308 114.145 9.81475
26.9201 122.955 -0.230051
-11.4065 112.894 6.17937
25.3683 125.105 -6.09273
23.8126 122.167 0.414722
23.0792 125.947 -9.19645
2.78504 120.187 -4.764
18.6646 122.935 -3.90399
-13.8923 117.472 -6.04126
11.0488 117.028 7.00568
24.9478 125.813 -7.82929
-9.7477 112.316 8.6981
16.7986 121.727 -1.69123
25.4258 118.899 9.39828
25.8345 124.438 -3.87136
25.461 125.232 -5.9924
12.7102 122.868 -6.19539
-3.37015 113.502 9.09582
5.5989 120.387 -3.5006
25.7679 124.69 -4.33445
22.4386 121.92 0.883494
-6.50169 118.408 -4.27702
16.4796 122.502 -3.31362
16.388 122.34 -2.9091
16.6018 122.054 -2.06943
22.6984 116.935 13.484
24.1458 126.695 -9.68468
-12.0024 113.515 5.38939
12.7399 118.798 4.27704
10.0287 116.528 8.64463
16.9356 119.42 4.87787
-13.3356 118.058 -6.23238
26.794 124.066 -1.76983
27.1983 123.992 -1.29586
6.91554 115.502 9.90135
20.1626 122.315 -0.381797
-17.597 114.018 1.92884
-10.1133 112.968 8.15061
16.7059 119.644 4.67313
26.6909 124.143 -1.57525
20.6803 123.165 -2.03878
11.6579 122.933 -5.74966
18.1365 118.469 8.32439
23.8423 126.89 -9.56833
24.9415 120.23 7.43224
25.0428 118.984 10.6055
14.0161 119.78 3.50552
22.9011 122.596 0.85809
23.6964 126.832 -9.11967
11.3878 122.099 -3.3831
9.90133 121.475 -2.48043
17.7109 119.552 6.01516
-3.66673 118.948 -2.72727
-1.67302 114.612 8.88351
-1.46684 119.508 -3.03007
23.946 121.843 3.45172
20.3609 122.593 -0.0903152
-9.96411 119.098 -5.90163
-1.15226 114.826 8.9439
9.09356 121.436 -2.36154
3.97657 121.29 -4.37691
28.439 124.6 -0.691473
26.8899 124.185 -0.400475
-0.700207 114.988 8.99826
-17.7624 116.852 -3.63773
24.7758 123.167 1.22374
26.8011 124.726 -1.59316
23.63 120.75 6.70763
22.6942 121.038 5.56036
7.61707 116.449 9.65989
-9.048 113.1 9.91397
9.89772 122.055 -2.96204
-12.8559 118.968 -6.26953
11.263 118.421 6.62554
-17.0712 114.629 2.44451
28.4851 124.796 -0.706128
21.6298 123.239 -0.0359952
19.596 123.51 -1.5845
20.4628 125.929 -7.08782
-11.2131 119.46 -6.34937
-3.9775 114.623 9.01836
16.8487 124.32 -4.73106
4.05544 115.78 10.1281
29.3236 125.475 -1.55651
-10.0186 119.533 -5.77064
19.5604 123.646 -1.68291
21.3058 123.447 -0.345406
-1.40883 115.242 9.02891
25.3899 127.108 -7.18089
23.2144 121.011 6.75296
5.90331 121.685 -3.16296
6.25641 116.401 9.98197
-8.50841 113.488 10.0683
-3.72487 114.89 8.96531
15.9928 124.012 -3.92316
15.9632 120.879 3.83923
18.0931 119.423 8.46395
13.3071 120.393 3.80146
2.30838 121.627 -4.47844
-17.3431 116.902 -2.25463
25.7219 128.425 -9.78051
21.1935 117.963 13.7571
-5.9917 119.785 -3.67322
25.1574 123.736 1.57441
24.6015 120.903 8.26876
16.695 124.459 -4.22351
25.4207 128.257 -9.29317
-6.24654 119.937 -3.84307
-2.16993 115.498 9.12063
3.78333 116.348 9.88401
-7.21037 119.984 -4.27812
24.1662 122.884 3.76756
17.2726 124.209 -2.67072
21.7683 123.481 1.27787
23.4687 119.521 11.8453
18.91 118.719 11.6984
18.5468 124.447 -2.53047
23.8781 121.206 8.00966
22.6254 127.409 -7.80554
-11.9873 120.096 -6.38992
28.0038 125.808 -1.271
-16.3689 115.116 3.78962
21.7895 123.493 1.50095
13.4493 125.301 -6.85949
-5.0916 120.248 -3.32417
-14.8318 114.93 5.08362
-16.4093 118.613 -4.66972
-5.66793 120.309 -3.61891
1.3093 121.846 -3.94392
20.0667 124.337 -1.00415
-13.9332 114.996 5.67047
-16.8381 117.725 -2.38725
-17.0773 116.052 1.60435
11.1423 124.625 -5.85614
23.005 123.736 2.2172
-6.48214 120.605 -4.11342
-0.484698 121.376 -3.13422
18.9398 124.46 -1.36655
9.45204 123.12 -2.60784
-16.2312 116.699 0.876201
25.1928 128.101 -7.27293
15.0646 125.943 -6.73914
22.5678 121.668 7.34673
27.8917 126.095 -0.933026
16.2849 125.566 -5.18529
-15.0254 119.775 -5.95383
12.5601 125.446 -6.66299
22.0009 119.299 12.9393
-5.27748 120.68 -3.49628
24.3911 128.733 -8.97073
22.5696 121.714 7.39032
-8.42779 120.601 -4.70821
12.5217 121.089 4.12168
11.092 124.885 -5.83316
-12.418 115.11 6.90706
23.865 123.196 4.4346
10.8583 124.759 -5.58676
26.6345 126.414 -2.00693
5.07087 122.811 -3.44271
6.12453 122.77 -2.77166
23.3757 120.197 11.8605
7.24251 117.98 9.63506
-12.7714 115.37 6.46973
27.3089 126.304 -1.06149
3.23099 117.319 9.49371
-16.5219 119.329 -4.88631
15.0834 122.07 3.56978
15.4261 122.146 3.66131
23.0519 124.148 2.40448
16.96 121.939 4.91269
-15.7247 119.979 -5.89872
10.9111 125.108 -5.67595
23.8069 121.668 8.9466
26.4761 126.701 -2.10396
-11.4045 115.343 7.67872
24.0944 124.144 3.1884
22.0714 119.874 12.8312
11.999 121.158 4.91232
-12.4442 115.593 6.90015
25.7596 125.152 1.73731
-15.7981 117.716 0.13063
26.156 125.418 1.4712
16.5586 125.543 -3.42521
-15.9923 117.966 -0.320955
24.3241 124.083 3.96659
-7.0567 121.42 -4.46173
-3.59739 116.527 9.2584
26.5969 125.771 1.05098
21.7084 119.931 13.0832
-15.8151 119.039 -2.66397
25.8204 129.47 -8.29104
17.894 121.618 7.18656
-1.19492 121.885 -2.57829
18.3438 125.4 -1.81778
-15.906 118.016 -0.0823157
26.0862 129.963 -9.25211
3.28802 118.016 9.16604
10.4336 125.277 -5.21699
-12.4594 115.917 6.89848
17.5992 125.743 -2.82879
20.9281 119.835 13.4124
15.5987 125.793 -3.57464
10.4953 120.064 8.07256
1.1775 122.873 -3.27441
0.417733 117.302 10.0515
-5.74271 116.185 9.87948
19.5807 127.763 -6.37956
18.048 125.946 -2.59899
23.0314 121.02 11.9306
15.5698 125.685 -3.06724
-0.351727 122.524 -2.75338
-16.0661 120.24 -4.65321
-16.1083 119.492 -2.81672
-16.8008 117.78 1.06589
-16.8932 117.29 2.24286
21.5184 120.402 13.051
-16.0566 118.195 0.531219
15.3428 126.463 -4.66986
11.9647 126.635 -6.66577
15.2997 126.04 -3.49033
-16.0591 120.112 -3.93153
28.1551 127.213 -0.136937
-16.2421 118.444 0.259175
9.38586 125.046 -3.63623
5.45991 119.219 8.7866
16.3582 123.335 3.92208
22.9393 125.152 2.76305
21.4132 120.684 13.02
21.5954 125.591 1.12713
10.2689 120.417 8.42996
-8.15359 122.132 -4.55343
14.8469 127.592 -6.93066
-5.01283 117.13 9.25991
-3.43835 122.249 -2.5283
5.71868 119.433 8.77338
22.644 125.19 2.75509
23.0389 123.44 7.39067
-4.94611 117.246 9.23314
-12.0234 116.435 7.87792
10.6531 120.98 7.62177
-12.1305 116.464 7.80508
-0.266938 123.095 -2.77754
24.3959 125.695 2.64996
21.6569 125.452 1.99496
6.19853 124.198 -2.32158
18.4505 128.17 -6.16113
-10.5946 116.503 8.62664
10.105 126.17 -5.15273
23.0399 125.432 2.85064
25.9317 130.678 -8.49902
-9.92269 122.223 -4.90085
19.8196 120.814 12.7888
24.008 125.754 2.69082
-5.28668 122.751 -3.86464
-16.9746 117.934 2.46177
-17.1778 118.417 1.19019
-16.7932 120.055 -2.60562
-13.0228 116.941 6.85868
-7.23153 122.658 -4.3995
-14.572 121.853 -5.89314
-8.96016 116.443 10.0702
-15.3678 119.262 0.171723
14.951 126.902 -4.04452
23.2978 124.161 6.70362
-12.2751 116.775 7.81974
11.0408 127.074 -6.19034
5.83305 120.025 8.62835
5.85746 120.13 8.62125
-8.37579 116.606 10.469
9.02819 125.55 -3.14892
23.399 125.991 2.70947
-14.2024 117.265 6.27484
16.0771 127.436 -4.11834
6.97445 120.269 9.13554
27.042 130.304 -5.87725
23.7091 126.164 2.70793
21.9019 125.662 3.1378
14.3295 124.274 2.93021
-12.6286 122.809 -6.32899
-20.0098 117.102 4.14596
9.64753 120.998 8.78081
23.11 125.964 3.09424
11.2498 122.379 6.25229
10.3977 127.151 -5.8216
13.2752 128.288 -7.19405
21.7569 125.754 3.21255
17.9083 122.173 10.1929
-1.9687 118.74 9.13388
15.827 127.379 -3.54412
25.8455 131.109 -7.8687
15.2235 127.571 -4.23001
-15.58 119.855 -0.0100294
-15.9194 120.996 -2.91191
-4.68341 118.207 9.36047
24.3949 130.65 -7.16156
10.5344 121.965 7.63112
16.0119 127.147 -2.46343
17.6208 122.935 8.6447
7.922 120.9 9.00233
18.3311 121.94 11.4337
22.7103 124.212 7.95634
-5.77773 123.652 -4.22815
-15.8904 118.301 4.20613
-10.1523 117.256 9.57303
22.7096 126.484 2.71945
27.2488 130.892 -5.91899
16.0703 127.111 -1.95029
23.4726 125.118 6.55432
22.5355 124.273 8.27717
19.5962 121.973 12.5663
16.5597 124.871 4.00397
13.3106 128.895 -7.36914
-15.8595 120.839 -1.5083
17.5725 123.393 8.28842
-15.3247 120.926 -1.35617
-4.76763 118.574 9.46954
22.3375 123.809 9.63608
-6.77152 123.916 -4.5393
-2.4292 123.769 -2.10012
26.5234 131.459 -7.11677
17.9083 122.574 10.5783
-3.96517 118.889 9.1858
-15.1334 122.751 -5.60572
-1.60284 119.394 9.11213
22.4344 123.064 11.642
21.6041 129.987 -5.69435
27.041 128.284 1.3396
17.4329 129.049 -5.11978
-16.5948 119.95 1.0045
14.4214 125.292 2.73408
20.8197 126.491 2.85823
17.655 123.225 9.40733
25.3366 131.57 -7.33273
2.59812 120.527 8.91219
25.6054 131.77 -7.59021
17.4536 124.714 5.85348
16.1621 127.146 -0.710924
-21.6404 116.943 6.28958
-18.4228 120.312 -0.424663
15.4668 128.063 -3.21549
-20.1107 118.864 2.38209
24.5662 131.098 -6.22249
-21.5862 117.296 5.77439
-16.9229 120.382 0.439034
25.5159 127.665 2.88779
5.37184 121.646 8.0789
-10.8625 124.017 -5.47105
-16.4312 120.624 0.274394
11.5732 128.73 -6.21176
-15.3865 121.165 -0.41995
-14.1455 123.705 -6.04713
21.1271 126.901 2.99285
-5.70754 118.742 10.2142
27.4231 129.552 -0.445069
22.5146 127.413 2.4745
26.167 130.614 -3.61493
19.6647 130.069 -5.38552
-16.5255 120.72 0.262278
-16.4144 121.062 -0.474457
26.3344 129.833 -1.50858
-16.7918 119.738 2.67591
-16.7386 119.709 2.7852
26.1357 130.683 -3.5641
-9.97022 118.328 9.49091
-15.6916 121.803 -1.76776
15.0015 129.824 -6.74757
-10.078 118.333 9.46165
-16.3905 119.125 4.55906
16.4545 129.446 -4.96776
-8.69816 124.771 -5.46546
-14.8791 122.814 -3.61355
20.0991 128.053 0.32093
22.5129 127.7 2.39683
22.7453 131.233 -6.14294
-16.328 120.431 1.7382
25.4709 128.094 3.02739
-19.4863 118.943 4.0635
-16.1891 120.774 1.23492
-2.55413 124.755 -2.00014
16.6863 129.395 -4.09289
16.8929 126.048 4.24725
20.5362 131.072 -6.27195
-2.93746 120.274 9.04569
14.517 128.957 -3.88761
23.1311 126.293 6.77356
-16.0754 121.662 -0.596688
26.0758 130.857 -2.98214
15.1282 128.998 -3.6268
26.1844 131.022 -3.30163
23.8292 127.922 3.20358
-16.3015 119.95 3.56908
-8.11325 119.007 9.82649
21.9718 127.901 2.42274
12.5885 130.03 -7.22528
14.9256 129.08 -3.67012
-2.30707 120.575 8.9903
15.0727 129.086 -3.54171
-17.6695 119.468 4.39961
16.586 127.677 0.749865
-15.9861 120.742 2.18634
7.22499 122.641 8.69105
0.9478 121.05 9.6071
19.9121 128.446 0.541616
-6.05824 125.243 -4.00813
0.409522 121.011 9.49088
7.88404 122.761 8.80372
8.80853 128.242 -4.1649
17.4097 124.827 8.36642
-16.6713 121.181 1.02549
-16.8723 121.005 1.36677
-19.7789 119.084 4.70486
-18.6336 121.433 -0.453044
24.894 128.37 3.35286
12.7928 130.463 -7.51753
27.2532 129.222 2.44459
-15.7303 121.198 1.61681
-15.8233 122.668 -2.02437
-15.8313 120.827 2.49086
-20.0392 117.766 8.00848
-16.1216 120.803 2.48089
23.9739 128.17 3.60985
17.6128 125.799 6.41073
17.8859 129.375 -2.06209
-6.24856 125.503 -4.10543
8.72015 128.472 -4.22105
10.3172 123.869 7.87121
19.3317 131.319 -6.08473
-14.6356 124.291 -5.0744
19.3386 131.368 -6.11721
-22.15 119.188 3.92741
17.5581 125.476 7.51514
15.2638 130.702 -6.31819
-15.1358 122.316 -0.277233
15.5385 130.562 -5.77681
-15.2689 122.027 0.537649
14.37 130.929 -7.12156
-15.5237 122.786 -1.42654
-19.8715 119.33 5.03171
-14.7694 124.244 -4.52567
26.9091 133.034 -6.15126
-5.14168 120.161 10.1095
16.5774 127 3.71989
-14.6786 123.944 -3.72472
-6.52593 125.811 -4.31044
23.1748 127.22 6.47777
-14.882 120.181 5.57658
23.4001 129.141 1.93009
8.70815 123.501 8.75827
-15.442 121.629 1.82968
17.7624 131.239 -5.84382
19.7078 128.806 1.09739
20.9177 128.471 2.54271
23.0293 127.371 6.25538
-14.2465 124.761 -5.05782
-12.5798 120.218 6.8921
-8.6569 126.061 -5.53486
19.728 128.592 1.84347
-15.4089 121.241 3.16269
26.0192 129.344 3.1129
-20.471 119.231 5.69589
19.7061 124.523 11.9575
8.44774 128.843 -4.02283
-15.3644 122.938 -0.914603
26.9035 130.812 0.0250255
11.4909 125.139 6.59331
16.1786 127.417 3.26462
17.4574 124.841 10.2146
19.835 130.225 -1.80658
-22.5132 119.518 4.25401
23.6164 132.68 -5.86558
14.8188 130.646 -5.06924
-23.8812 118.811 5.49152
14.4863 130.16 -3.96419
-20.4982 119.346 5.90852
20.079 124.855 11.8243
18.0969 129.826 -1.2656
17.2897 127.184 4.86777
14.9489 127.815 2.20707
-17.6722 119.871 6.12427
26.3052 131.964 -2.49619
26.3877 132.092 -2.73092
-11.4476 120.382 7.97832
-14.3858 125.174 -5.0977
-15.553 120.419 6.13301
-13.1228 125.671 -5.55192
-17.5391 120.093 6.03098
19.9631 130.44 -1.40771
7.69289 124.103 8.33563
18.4918 131.037 -3.50616
-16.1257 123.075 -0.473341
-12.5668 125.972 -5.843
-15.2824 120.72 5.82027
-8.10736 126.664 -5.30031
-20.5974 119.19 7.07693
-15.0153 124.915 -4.23581
-2.11979 121.964 9.20747
-9.99137 126.951 -6.72869
17.5492 132.163 -6.30218
20.0026 130.655 -1.39322
-3.44932 126.409 -2.15449
-16.0937 121.424 4.02872
14.7294 129.744 -1.60413
-22.9159 119.919 4.61596
14.1574 130.425 -3.34597
-14.5418 125.419 -4.78847
15.1768 129.559 -0.716454
-24.1112 119.293 5.69725
23.0776 129.852 2.38522
9.47007 130.279 -5.1333
19.9808 132.854 -6.39237
-16.3104 123.84 -1.63204
22.8838 129.007 4.45842
27.6473 131.186 1.39787
-14.0252 125.605 -4.83397
-15.8249 121.293 4.89164
-14.3955 125.675 -5.14726
17.8736 125.555 10.6719
16.9935 127.958 4.39202
16.3501 131.391 -4.33411
23.1616 129.248 4.18715
14.6953 131.169 -4.56866
-23.5874 118.941 7.16024
14.4569 130.26 -2.36943
0.556944 127.497 -2.23618
26.5481 132.98 -3.23108
27.246 131.778 0.0768883
-23.4025 119.133 6.91539
3.05261 123.835 8.04147
20.363 126.524 9.72712
-0.960971 122.546 9.30688
-15.4799 124.017 -1.20294
19.6879 129.23 2.83784
-18.1371 123.335 -0.788112
-22.333 120.499 4.17134
-14.3705 125.886 -5.23253
-12.9424 126.341 -5.58783
-14.7839 121.15 6.28086
-20.3595 119.312 8.33651
18.0719 130.301 -0.235222
25.5189 130.202 3.5736
11.1142 131.487 -6.39039
23.5457 130.261 2.57797
-18.3126 123.326 -0.377234
-7.2181 127.223 -4.59665
-23.1461 119.177 7.53214
19.8504 129.536 2.70261
-18.6211 122.972 0.404921
-12.1739 126.805 -5.90398
21.0788 128.302 6.34098
-12.8228 126.585 -5.6319
-13.7553 126.174 -5.05506
-22.1489 118.882 8.89532
-20.3461 122.187 1.65205
-9.0273 127.48 -5.90141
-3.25509 127.061 -2.07315
-1.61542 127.291 -1.84147
-22.2855 118.443 9.99078
26.7503 132.275 -0.481095
14.5686 132.554 -6.95832
-0.523822 127.587 -1.89178
-21.9742 118.635 9.81435
-22.7256 119.558 7.21926
17.5122 126.966 8.29322
25.2269 130.452 3.44241
12.2993 126.964 5.86645
26.7931 134.509 -5.70678
13.8157 132.82 -7.74903
20.2046 127.696 7.92481
2.38062 124 8.4935
20.008 127.547 8.22559
-13.0321 121.654 6.95923
-3.0015 122.575 9.51599
-21.7446 119.085 9.14299
-17.4435 121.559 5.13937
-12.0761 127.576 -6.98177
3.55 128.725 -2.31087
27.073 134.582 -5.42121
20.5502 128.296 6.92376
19.5279 127.139 9.30384
15.134 129.175 2.24817
-13.8012 121.965 6.11601
2.95334 128.721 -2.40379
22.7771 130.097 3.71688
2.29403 128.66 -2.52926
17.9971 131.161 -1.12118
27.2035 134.674 -5.27766
-19.4205 118.991 10.9663
7.52624 130.015 -3.09229
-14.9908 125.588 -2.99202
17.3198 126.742 9.64856
-3.73659 122.708 9.53286
-14.3897 121.73 6.89003
19.3928 129.982 2.82335
-12.2166 121.816 7.74663
-19.1275 123.394 0.662837
-3.53839 127.721 -2.37285
-19.8535 119.435 10.2907
-14.7107 121.771 7.03586
0.216658 128.402 -2.04986
-18.5034 120.673 7.98238
-23.617 120.813 5.24534
7.1296 125.662 8.07661
25.0746 134.624 -5.21753
18.7581 126.788 11.0086
26.4928 134.123 -3.27714
2.89075 129.127 -2.25135
-12.0583 122.092 7.94156
8.13838 131.154 -4.61647
-14.1811 122.047 7.05437
2.51384 124.951 7.99903
14.7164 133.34 -6.69589
-22.7578 120.465 7.02241
19.4631 130.406 2.84151
6.80483 130.076 -2.37555
-18.8475 124.418 -0.661914
18.5529 130.985 1.19834
18.6104 131.437 0.13331
17.8812 134.077 -6.65292
-14.4007 126.648 -3.85987
17.2579 127.11 10.2286
16.8026 133.679 -5.99746
-13.1752 122.627 6.7909
-14.9386 122.458 6.36443
-17.9838 124.741 -0.662121
-17.2747 121.493 7.69186
27.0417 133.42 -0.365306
-23.4156 120.949 6.12226
-2.57685 128.288 -1.81333
21.6646 130.929 3.36225
-19.3867 119.246 12.5924
-6.27219 122.991 9.83852
3.45027 126.129 6.81439
24.705 134.894 -4.50114
-22.0018 119.726 10.5448
17.4534 129.249 6.0768
-5.53876 123.037 10.3259
23.5234 134.958 -5.01413
19.0275 131.68 0.885553
15.3021 133.17 -4.54154
-7.83404 123.892 7.26217
25.7861 132.014 3.43179
13.7347 129.895 2.88985
-12.3461 123.052 7.23272
-19.4755 121.142 8.60875
0.722368 129.477 -2.15888
-9.33539 123.539 7.60308
23.3376 135.136 -5.18473
18.7258 132.578 -1.0944
0.464627 124.761 9.38335
18.5698 132.542 -1.03316
-20.0579 123.97 1.53191
-16.4624 121.574 9.13291
-15.1823 126.045 -1.18516
17.3476 129.609 5.64779
18.0557 133.044 -2.2629
-12.8479 123.286 6.91647
18.0369 132.545 -1.00534
-18.9844 121.385 8.72394
-0.445682 129.287 -1.77605
17.8277 132.767 -1.47124
-12.9745 123.309 7.02786
27.2396 133.976 0.0963339
27.2563 133.895 0.324929
15.7289 134.539 -6.74753
-6.03729 123.517 9.95212
17.2015 133.451 -3.24168
-23.2744 121.514 6.71472
-16.3509 121.944 9.10951
-5.47808 129.446 -4.06303
-22.6255 121.164 8.07985
15.6729 130.85 2.64678
-16.1947 121.978 9.21553
17.3249 128.248 9.95567
16.6642 134.352 -5.27315
-22.2444 120.256 10.7735
5.38976 130.849 -1.87551
-4.65569 129.547 -3.47014
-5.44462 129.671 -4.06402
-20.203 119.768 13.1816
17.9861 128.676 9.60757
15.0745 132.715 -1.69152
24.2134 132.496 3.23491
-22.1669 123.016 4.31818
-8.70798 130.162 -6.74273
-8.38732 124.968 6.2022
15.1961 133.755 -4.046
9.4502 127.645 8.22558
2.88026 130.435 -1.76162
17.909 134.61 -4.78656
-14.9419 122.485 9.26109
19.2905 135.623 -6.56981
-5.31611 129.778 -3.98172
17.4512 129.715 7.07636
26.4348 133.917 1.08937
-18.757 125.604 -0.0759713
-9.44818 130.411 -7.38063
-21.6454 119.927 12.5188
6.71902 127.176 8.31442
4.57569 127.247 7.2066
-15.0956 122.42 9.65165
2.23868 126.972 6.80225
4.29671 130.833 -1.64078
21.3397 131.684 4.44467
-16.4534 126.321 -0.438316
-21.3822 124.001 2.90626
15.7386 132.991 -1.35306
-20.2662 125.333 0.226053
-13.544 123.45 8.12052
8.99563 133.177 -4.93764
9.16645 133.27 -5.06814
26.5237 134.169 1.03146
15.7892 133.127 -1.52693
21.3723 131.01 6.34445
-8.95095 125.25 6.03849
-18.8564 125.842 -0.142806
-17.1112 126.13 0.146281
16.8062 134.412 -3.94977
3.38351 130.833 -1.51484
26.4886 134.99 -0.646002
6.02157 127.497 7.98929
5.69734 127.515 7.81107
-16.7742 122.977 8.20077
22.9615 136.398 -5.61562
-16.744 126.272 0.251568
-10.6492 124.784 6.81851
-14.7639 127.489 -1.76912
-18.7649 120.661 13.0823
-8.67207 125.497 6.09463
-4.77082 130.248 -3.59225
21.3995 131.715 5.33591
14.0628 131.627 2.11066
-13.4438 124.098 7.46204
15.1293 131.906 1.9979
-14.3298 123.267 9.1486
16.9994 131.159 4.79029
17.7864 135.272 -4.90399
-15.5457 127.092 -0.658698
2.21496 127.56 6.69439
-11.7994 124.42 7.69957
2.9705 127.709 6.83376
-11.8113 124.524 7.59826
14.2148 131.864 2.03934
21.2906 131.947 5.24397
-15.1539 123.217 9.27763
-21.3257 120.658 12.6499
25.9258 136.8 -4.34581
7.98625 133.492 -4.79459
-20.1951 120.759 13.017
11.8293 129.681 6.44427
-12.6051 124.034 8.66006
25.5486 134.317 1.78309
15.3805 134.227 -2.82565
22.4025 136.886 -5.96749
-12.4539 124.902 6.77464
5.21848 131.965 -2.07377
-0.428042 126.483 8.72313
-11.4014 124.881 7.40983
11.5576 135.152 -6.76865
-6.52896 125.584 8.05922
-12.9758 124.746 7.03499
16.3941 134.94 -3.74455
0.687513 131.178 -1.96997
17.0718 135.548 -4.73027
-15.0197 123.145 10.3805
-5.09003 126.057 8.03067
-19.1898 126.847 -0.617566
-22.5582 121.77 10.233
-11.6626 125.216 7.02769
-14.6719 123.498 9.83804
-11.216 125.309 7.1581
-6.15252 131.075 -4.56293
-11.5794 125.424 6.88133
10.5663 129.646 7.1206
15.4119 135.006 -3.7115
-14.2799 128.973 -3.03373
20.6947 131.958 6.48987
-15.0343 124.024 8.88817
-9.6509 131.538 -6.97198
-17.5608 127.835 -1.66791
-16.6532 128.039 -1.72696
17.0148 135.889 -4.83874
12.7408 136.276 -7.76813
-23.0586 122.784 8.22173
-5.92924 126.066 8.39587
-15.2992 127.663 -0.00165954
-9.17349 131.786 -7.18662
16.3347 135.741 -4.62152
-2.31337 127.25 7.46666
-14.0721 124.395 8.86192
-23.211 123.833 5.87754
-20.2483 126.769 0.152509
11.7276 135.987 -7.1684
5.82832 132.978 -2.60481
8.76211 129.13 8.29449
15.3337 136.775 -7.29151
19.7193 131.839 7.02912
21.7758 137.577 -6.05773
21.1793 132.674 5.69734
-22.8698 124.475 4.76386
13.9674 136.857 -7.98232
-14.4601 129.177 -2.69357
-19.1554 121.895 12.9391
-14.2864 129.506 -3.34415
-23.1678 123.83 6.33931
16.4211 136.079 -4.76374
-11.0841 131.171 -5.83502
-0.354934 127.839 7.6624
19.686 137.53 -6.47508
-12.801 124.882 9.12053
17.0227 132.212 5.41271
11.1299 136.075 -6.76385
5.91252 129.007 8.08919
-10.7457 126.476 6.53348
-14.6796 129.273 -2.18632
16.8874 136.365 -4.41331
9.55151 130.081 7.52774
-3.84777 127.579 7.3208
12.9029 137.135 -8.09901
0.353806 128.833 6.27216
16.8535 132.584 4.96183
26.7893 137.887 -3.28908
11.0177 130.774 6.6279
-10.6059 126.97 5.6308
16.7655 131.743 7.03643
-18.0289 122.761 12.5498
1.41405 132.301 -1.49598
13.5008 137.327 -7.97327
18.7913 132.134 7.41337
-13.1716 125.141 9.29291
20.9718 133.24 5.75593
17.0326 136.732 -4.51253
-15.2511 129.243 -1.4705
-14.3326 130.012 -2.85664
-22.714 123.595 8.89753
-13.6649 124.865 10.1139
-14.5128 128.833 -0.0129831
27.2228 138.044 -2.60613
16.6403 133.278 4.03053
-1.97559 131.996 -1.62389
-11.5998 125.873 8.86293
16.0827 133.645 3.03849
-20.3735 127.563 0.568272
27.0833 138.222 -2.83786
17.469 131.655 8.7166
-13.8869 124.854 10.5008
18.7413 132.582 7.19758
15.9062 133.832 2.78957
23.0861 134.64 4.25029
-15.5499 124.807 9.94382
-20.1186 122.826 12.6224
20.7938 138.473 -6.1788
18.5171 132.369 7.71512
-22.5523 123.656 9.46217
-22.461 124.023 8.68331
-6.24938 128 6.72697
12.6099 133.184 3.04487
-16.0592 124.618 10.4772
12.1179 132.785 3.98542
16.1517 133.904 3.196
-21.4756 125.992 4.62611
-10.8667 126.778 7.7793
17.7441 131.974 8.71891
-9.42034 127.71 6.32676
-0.412597 129.633 6.17633
-15.2387 129.613 -0.850131
-20.8254 126.679 3.68379
-14.5715 129.379 0.0730897
20.8529 133.992 5.72048
-3.02488 129.007 6.57054
-4.11734 132.692 -2.97773
11.7631 132.069 6.30804
-3.51885 132.745 -2.60473
-8.44085 128.259 6.07349
9.32429 131.22 7.35489
-7.97969 128.432 5.91969
-2.05886 132.726 -1.75705
17.3264 132.402 8.37703
-0.409338 130.059 5.68423
16.8948 133.672 5.15057
-21.4297 123.58 11.5978
-12.5463 125.993 9.97944
-15.4637 129.955 -1.10294
-0.697455 132.895 -1.23949
-11.7967 126.712 8.67192
-4.22765 128.915 6.90638
-0.260828 133.01 -1.20112
-21.9837 124.557 9.17881
-7.03168 128.743 6.08852
7.84144 136.454 -5.7174
11.6997 132.896 4.90987
6.7295 135.795 -4.45712
-7.54932 133.732 -6.18837
-21.8444 124.753 9.19095
-3.89036 133.188 -2.90214
-3.80576 129.428 6.6078
-22.0686 125.409 7.75
9.05908 137.154 -6.0397
20.886 134.707 5.62663
24.1871 139.195 -3.69184
-21.8472 124.565 10.1926
-4.28671 129.406 6.73385
-8.51987 134.146 -6.86721
-20.2813 124.093 12.3086
7.81981 131.244 8.24147
-21.866 125.624 7.9202
-5.22368 133.802 -4.14213
-14.0826 126.259 10.1647
-5.41251 133.934 -4.45722
16.6865 138.481 -5.04301
-4.14068 133.656 -3.12697
16.7046 134.569 4.62809
17.2378 133.279 8.07168
-14.9039 130.672 -0.784128
-8.37154 134.415 -6.79024
13.4292 138.847 -7.15381
11.1467 133.491 4.95574
18.406 134.029 7.11295
-15.6466 126.394 9.57876
14.1218 135.429 1.73522
6.18715 136.281 -4.08824
-3.84269 130.113 6.25785
-16.2358 130.726 -1.15026
-4.30978 129.996 6.36801
-21.5807 126.236 7.33331
20.6961 135.249 5.644
0.110155 133.983 -1.03532
-10.1707 133.8 -5.46844
17.945 134.077 7.32985
15.9223 135.65 2.52498
-9.15132 134.466 -6.44758
-1.87761 133.914 -1.56944
-18.3626 129.857 0.515511
-15.6713 130.825 -0.524153
-17.932 129.998 0.446994
18.7779 134.666 6.55559
-16.4925 126.423 9.93878
2.66496 131.68 6.21728
20.6609 140.061 -5.65636
8.17146 137.8 -6.06185
5.63318 131.875 7.28767
-5.6226 134.728 -5.04751
5.32499 131.906 7.13894
23.4624 137.421 2.30028
-15.7738 130.958 -0.509604
16.0368 133.935 7.44001
-21.2081 126.602 7.65508
-1.8179 131.313 5.39094
21.9983 136.608 3.85179
7.24297 137.649 -5.7468
11.3543 134.676 3.6908
23.3691 140.38 -4.49494
16.1085 136.047 2.73012
11.7682 135.114 3.33086
-21.0054 126.597 8.57259
16.8745 139.592 -5.02576
3.34211 135.516 -1.47783
-17.0668 126.853 10.0631
13.9212 136.388 1.51719
-16.683 131.452 -0.927534
-18.6949 130.288 1.0049
16.3356 135.662 4.64543
10.3832 139.327 -7.16737
6.4623 132.671 7.32356
-9.98207 129.277 7.8309
-15.0423 131.699 -0.420435
13.2113 139.832 -6.85758
10.8545 134.402 5.45191
24.4255 140.564 -3.13763
-19.5757 125.831 11.9758
-16.3966 127.443 9.55661
-18.5013 130.513 1.0237
11.3301 135.539 3.12285
6.13204 137.606 -4.37638
25.5118 140.667 -2.56725
12.8462 136.405 1.87859
1.08091 135.289 -0.986862
-14.2148 132.333 -0.989506
4.66785 136.762 -2.81479
16.1674 139.352 -3.59879
-15.4035 132.111 -0.914844
-16.3382 132.022 -0.95872
23.2499 138.466 2.27094
-14.6463 132.168 -0.39237
-15.4475 128.007 9.48101
-12.1201 134.029 -3.51714
15.888 139.368 -3.13381
8.79279 139.416 -6.60519
13.4364 137.014 1.55438
15.611 139.191 -2.71455
-6.14465 136.138 -5.54689
16.0342 139.644 -3.53012
0.562479 135.61 -1.02535
25.4955 140.344 -0.607365
11.4055 136.022 3.25738
-19.0758 130.829 1.46239
-19.5632 130.206 2.77264
18.0407 135.927 6.86166
9.99594 140.071 -7.06735
-11.5713 134.717 -4.1433
-6.32264 136.463 -5.75693
-19.8007 126.799 11.5801
13.9415 137.542 1.4786
23.2895 141.718 -4.24419
7.9878 139.643 -6.45893
0.184783 133.142 5.76974
-12.6219 134.177 -2.87835
-4.83027 136.122 -3.91161
24.6441 141.456 -2.89665
18.9033 141.322 -5.24175
-20.8068 128.134 8.21361
-20.5444 129.01 6.27965
13.282 137.479 1.68079
15.9117 136.623 5.08992
24.8534 140.035 0.99625
13.1983 141.086 -7.13884
-10.4311 135.62 -5.01181
-19.9633 129.981 4.27857
15.9497 136.975 4.38923
-6.79138 136.912 -6.30456
16.9284 136.071 7.11445
6.57611 134.028 7.19945
-14.6747 132.975 -0.343166
15.9489 136.378 6.27384
15.3063 140.628 -4.43257
25.0611 140.448 0.796464
15.2776 140.069 -2.93417
17.2085 141.143 -4.61442
-13.1058 134.302 -2.32603
11.4273 136.305 4.49856
-5.75697 132.398 5.9875
-4.27723 136.681 -3.67357
-7.92545 131.694 6.84106
14.9631 141.219 -5.33339
1.20896 134.122 5.60801
-2.85842 136.794 -2.63447
16.7254 136.711 7.01009
7.86053 135.012 6.9911
-17.9946 132.777 0.237493
15.9653 137.722 4.57073
-10.8567 130.94 8.4096
-17.9677 132.879 0.361303
-19.8368 130.473 5.40746
-3.16972 137.232 -3.08056
-20.4712 129.644 7.29357
6.85447 140.311 -5.70186
8.24961 140.86 -6.37914
22.0335 142.873 -4.63765
11.7135 137.952 2.52892
12.2888 141.978 -7.05029
-5.3544 133.386 5.70652
-5.10111 133.577 5.4378
19.9219 142.533 -4.53297
-1.28081 134.589 4.82084
10.9919 137.474 3.66112
-19.9084 130.46 6.09503
-17.0145 133.264 0.651802
-7.72047 132.608 6.71682
14.9734 141.481 -4.18086
10.8026 137.737 3.10407
17.5591 142.056 -4.12289
7.42957 135.842 6.31402
-12.6799 131.09 8.42101
-7.69669 137.956 -6.01347
-13.9594 134.462 -0.428949
-5.37202 137.8 -4.45624
-12.0114 136.039 -3.30845
16.0744 138.683 3.66145
21.8969 140.006 3.20643
-15.1633 134.052 0.113245
9.59753 136.514 5.9916
-7.59972 132.927 6.59155
2.00583 138.133 -1.43288
-13.556 130.88 8.96533
1.42728 135.332 5.22449
3.05732 138.643 -2.03778
-5.7685 138.226 -5.01524
13.4774 142.58 -6.4858
5.81417 135.718 6.73936
19.1705 138.963 5.17373
-18.9902 129.236 10.8078
-19.2632 129.069 11.1037
-4.90699 134.393 4.99747
-20.8818 129.52 9.31369
-5.80348 133.77 6.19373
7.44813 136.579 5.83975
17.4912 142.49 -3.81688
-2.58921 138.015 -2.42966
-6.55438 138.588 -5.63783
-18.0176 130.068 9.81524
11.7124 138.82 2.61493
12.0281 138.958 2.46845
16.0302 138.667 5.10959
-19.479 129.303 11.1349
-6.99191 133.596 6.5859
5.86144 140.88 -4.96673
19.0296 143.203 -4.36209
14.227 142.55 -5.05552
20.2418 139.715 4.84154
14.1897 143.078 -6.30384
-14.9272 131.065 9.26069
-20.8423 129.659 9.90323
-12.3069 131.948 8.46655
20.6431 140.014 4.49881
18.0072 139.034 5.67734
5.63004 136.403 6.28332
-2.37936 135.413 4.93864
-13.6343 131.68 8.71688
16.01 139.084 4.77932
17.8313 143.326 -4.5887
13.1025 143.101 -6.24437
13.6272 139.92 1.8316
11.3635 139.079 2.83766
-12.5664 136.971 -3.36912
24.3303 142.974 -0.227489
-18.5257 130.455 10.0166
10.3382 143.1 -7.17311
15.776 140.358 2.29182
-20.6396 130.039 10.294
9.84504 137.581 6.49071
-4.30273 135.537 4.87715
-17.1839 134.594 1.0997
-7.88963 139.22 -5.78777
-19.5693 130.196 10.77
4.80699 136.767 6.40957
2.28512 136.824 5.08098
1.53875 136.832 4.71383
-12.7545 137.416 -3.46561
-19.5152 131.747 7.21763
14.4362 142.819 -3.70486
14.3012 142.997 -4.13263
-5.90233 135.154 5.47532
18.7761 143.941 -4.26929
24.0167 143.343 -0.135601
8.20974 137.531 6.56518
-17.6275 131.083 10.0675
-11.4181 138.085 -3.96906
10.7414 138.473 5.71374
-14.9678 131.947 9.48837
4.15663 137.02 6.23063
8.34745 137.687 6.68778
2.76938 137.164 5.39725
-11.8405 132.824 9.05865
12.9158 140.476 2.24706
-19.2499 130.877 10.4539
17.0775 143.732 -3.40899
7.11605 137.924 6.13574
-5.91553 139.948 -5.05001
-16.0473 135.617 0.73261
0.953688 137.403 4.50731
-17.2823 134.886 2.02763
16.9721 139.713 6.5721
21.4851 144.993 -4.05442
-18.6141 131.409 10.3138
-11.6578 138.477 -3.61632
-19.6343 131.835 8.95242
5.57514 142.395 -4.85414
-3.0036 139.794 -2.52701
-17.6701 131.765 10.3039
-19.4341 131.381 10.6724
7.08174 138.452 6.14178
-9.44437 139.835 -5.02647
10.4593 139.704 4.84487
18.442 141.052 5.42561
15.6586 143.7 -2.36662
0.362301 140.346 -1.44093
-18.4421 134.244 4.60495
19.3521 141.53 4.85734
-19.3323 133.307 6.53258
-13.321 137.791 -1.56135
-8.4097 140.352 -5.49159
22.032 143.143 2.35358
10.7787 140.725 2.9109
-13.9841 133.275 9.3615
23.3859 144.789 -1.01376
-0.0877521 140.411 -1.35018
18.9274 141.507 5.05881
7.24628 138.778 6.26583
1.54658 138.392 4.50305
8.10597 143.98 -6.05468
-3.40241 140.443 -2.82502
-6.90517 140.763 -5.21145
20.8583 142.564 3.72948
-16.1526 136.14 1.82304
21.9683 143.369 2.38706
-17.9861 134.763 4.43978
-19.279 132.396 9.92193
12.4369 145.125 -6.08967
-0.983465 140.659 -1.53909
-6.98115 136.43 6.02398
2.73749 138.745 4.99432
20.2823 142.573 4.12789
10.0697 140.015 5.53974
-12.9679 138.858 -2.61967
23.028 145.142 -0.642159
16.735 144.611 -2.27935
16.5804 141.708 4.89053
21.462 146.073 -3.47588
-10.8945 134.552 9.32258
15.7811 142.257 3.22238
7.57628 144.406 -5.77091
8.58811 144.84 -6.2492
-13.5154 137.807 0.447414
21.7048 143.803 2.59196
2.48905 142.064 -2.30072
-19.27 134.065 7.00274
-13.1684 138.048 0.255966
-12.0643 139.51 -2.77987
-13.5225 137.916 0.452635
-12.9846 138.397 -0.412853
-19.2531 134.122 7.0831
-2.33872 138.724 3.88992
-12.5709 134.38 9.69062
-7.3717 141.552 -5.2769
16.2055 142.292 4.23455
-9.16653 140.953 -4.60439
6.94995 144.5 -5.45842
7.50666 139.597 6.8752
-1.53138 138.885 4.30972
18.3207 145.771 -3.08404
18.4828 142.706 4.5158
11.9019 142.575 1.72658
12.9327 145.889 -5.91258
10.226 140.84 5.19175
14.1476 145.823 -5.08776
20.6621 143.559 3.66247
4.49503 143.563 -3.99447
-7.47163 136.953 6.64292
-2.40983 141.519 -2.11474
16.017 142.602 4.06467
-4.28381 141.739 -3.5187
22.9506 146.556 -2.30176
-0.538478 139.196 4.54305
2.6755 139.817 4.60209
-16.4326 136.7 3.17418
-0.13614 139.377 4.45727
22.6117 145.145 1.20687
14.2005 145.973 -4.84328
-15.7432 133.923 10.4646
13.6469 146.194 -5.47943
20.9654 146.766 -3.37729
-11.3277 140.42 -3.2526
-12.5561 139.3 -1.01608
18.0844 143.016 4.53186
-5.09731 138.676 4.16318
10.029 141.452 4.70003
-5.23637 138.637 4.35837
-15.6616 134.137 10.5474
-14.1623 134.574 10.3015
-14.583 138.177 1.3153
-14.302 138.297 1.17442
-1.95715 141.976 -1.8925
21.9738 147.024 -2.80634
-15.3446 137.901 1.7428
7.62435 140.096 7.42188
-1.56044 142.045 -1.74946
-6.95281 137.857 6.04292
21.6318 144.913 2.54151
21.8656 145.16 2.14693
-10.795 135.947 9.19167
2.97428 143.527 -2.78235
8.53909 140.968 6.34848
-7.8245 137.44 7.19731
-7.17707 142.667 -5.16306
3.58113 143.987 -3.24969
8.1708 140.786 6.81546
-7.65529 137.877 6.47821
-10.1303 141.668 -3.97112
-11.9619 135.63 10.0499
-12.5575 140.089 -0.980439
14.4197 144.36 1.47328
17.4274 143.896 4.16385
-7.04057 142.941 -5.09313
-0.589124 142.74 -1.50903
15.2127 143.89 3.26182
-17.222 136.975 4.7268
2.2994 140.9 4.49604
-18.8666 135.237 8.32765
16.3118 145.949 -1.12035
21.9664 146.841 -0.581713
13.3903 144.45 1.25025
8.73892 146.638 -6.09281
21.0869 145.57 2.63902
15.6398 143.847 4.263
20.4534 147.813 -3.15436
-17.408 137.078 5.10905
-2.44615 140.51 4.02113
-12.4933 136.015 10.2686
16.7489 144.286 4.13794
18.25 147.154 -2.13867
12.5638 144.741 1.21148
9.65473 143.714 2.41483
3.08323 144.734 -3.05355
1.65282 141.444 4.37044
17.888 144.929 3.65466
13.5813 145.097 1.21294
17.9541 144.973 3.63559
12.3844 147.418 -4.94609
13.0007 147.312 -4.37104
18.0175 147.348 -2.00619
-6.54418 143.716 -4.81627
-12.9537 140.987 -1.16366
15.5007 144.388 4.20878
-17.7854 135.468 10.2124
11.6722 145.012 1.2882
11.0137 144.825 1.47786
1.10247 141.764 4.27257
-10.2658 137.734 8.74906
8.95802 142.525 6.22696
6.07283 146.546 -4.8674
-6.042 144.022 -4.4368
-12.5222 140.863 0.294207
-17.2079 137.495 6.37889
15.5706 147.262 -1.8543
9.7025 147.851 -5.91586
-15.6596 139.363 3.08781
14.8874 145.283 3.18206
19.955 148.601 -2.40864
-13.2309 140.535 1.65725
18.6522 148.374 -2.28698
-3.49266 144.208 -2.62885
3.51748 146.013 -3.58337
18.8818 148.573 -2.39753
-17.5774 136.446 9.93104
11.5025 145.63 1.32372
5.74749 142.242 7.02415
10.8335 145.501 1.48657
19.597 146.848 2.49443
14.4975 145.883 2.49583
-0.711992 144.675 -1.72408
3.36274 146.217 -3.4872
3.72386 146.44 -3.73042
19.4897 148.933 -2.28786
2.36945 145.889 -2.78687
16.4324 146.029 3.60408
0.0855123 142.676 4.01492
20.354 147.944 0.879208
18.2587 148.804 -2.10184
15.2084 145.936 3.51228
-9.76244 138.875 8.9189
-8.45277 139.628 7.75198
-12.2165 138.25 9.34607
1.27985 142.81 4.67497
6.3001 147.68 -4.86353
-1.72107 144.928 -1.84687
19.5934 149.09 -1.77137
15.3215 146.172 3.47772
-4.19848 145.035 -3.0644
-16.8829 137.3 9.90199
16.7801 146.455 3.6037
17.6769 146.709 3.57241
-11.3737 143.526 -2.50323
16.0732 148.307 -0.926568
-0.996368 143.194 3.64702
-10.6187 144.169 -3.31518
-9.15358 144.952 -4.48294
0.328023 145.763 -1.90228
10.5949 146.389 1.52362
9.25637 145.263 3.8367
8.31097 145.314 3.34171
15.7563 146.756 3.41981
-16.667 139.679 5.28888
-0.956183 143.541 3.69401
-15.0089 140.969 3.35726
5.23037 148.16 -4.39532
2.9708 143.617 5.98539
-16.4786 138.326 9.78647
8.05308 144.579 6.27636
17.7787 149.847 -1.89856
-7.10342 141.857 5.82603
-7.80196 145.932 -4.49324
14.3694 149.517 -2.44228
9.47935 146.064 3.7135
14.7013 147.672 2.34479
-3.30797 146.07 -2.32268
-10.0408 145.376 -3.79294
-11.1828 139.809 9.41975
15.1358 147.509 3.13251
-16.7756 139.644 7.26068
4.66741 148.484 -4.12808
15.7072 147.666 3.19875
-9.82889 140.258 9.16248
-6.14894 146.618 -4.36217
-5.00743 146.762 -3.51977
-11.3103 140.215 9.57063
-4.60284 144.099 3.31803
-4.30452 146.738 -2.95766
2.85307 148.342 -3.37004
-12.3603 139.998 9.83631
-11.2789 145.131 -2.15573
17.4729 150.291 -0.951149
7.77124 145.252 6.77228
12.9665 150.243 -2.76368
-9.16737 146.553 -4.26243
-5.98726 147.167 -4.19884
12.5468 148.673 1.07155
-10.1799 146.084 -3.3756
