ply
format ascii 1.0
comment Created by Open3D
element vertex 1928
property double x
property double y
property double z
end_header
-5.14021 112.723 -8.13471
-10.9723 102.844 4.25633
-10.3072 99.4895 12.1755
8.89881 119.349 -2.1466
-10.0297 103.311 4.68675
-11.4851 101.154 7.16016
-10.048 102.88 5.59296
-6.0424 101.717 13.7566
-9.7896 101.156 9.69516
4.24683 110.896 9.11832
-7.77339 100.542 13.8127
-3.21953 103.9 13.2697
8.72402 118.907 -1.03931
20.1665 121.856 8.88185
3.75585 117.69 -5.32819
2.64294 116.978 -5.25185
9.51732 120.539 -2.97491
-0.95127 106.043 12.4669
3.28076 110.219 9.73594
-28.4377 97.5991 -8.36565
6.53083 116.645 0.998063
19.6194 120.46 11.3798
18.471 123.303 3.91732
-18.3675 105.567 -10.7552
-28.494 96.5434 -6.14241
-3.53229 108.877 3.16333
-3.50045 109.432 2.07956
-25.9515 100.034 -9.7852
-5.07025 106.446 6.14885
-28.0967 98.1114 -8.70718
-9.08383 100.182 13.582
5.71928 115.368 2.77626
2.67872 109.86 9.9804
-22.0918 103.273 -10.942
-10.5728 109.626 -8.0029
5.50899 115.28 2.77238
-22.1861 96.8464 2.39912
-28.0602 96.5529 -5.12848
1.23681 116.508 -5.57336
-28.0186 96.3593 -4.61822
-9.46002 110.417 -7.84005
-24.1959 96.3401 0.774033
-1.27276 114.958 -5.78282
-10.8071 102.613 6.52577
-3.92222 103.889 13.5198
5.03298 118.917 -5.11052
8.20283 121.278 -5.53014
14.2436 118.358 8.97765
-1.72635 109.01 6.06381
-7.25674 105.523 5.66564
-26.4072 100.023 -9.58206
13.6369 122.94 -1.15499
9.40979 118.541 2.06517
9.77714 120.459 -1.36553
13.9085 123 -0.863896
6.19241 116.753 1.325
-10.5784 102.98 6.46515
-24.9701 96.261 0.319567
-25.9394 95.8455 -0.155522
-1.65947 111.58 1.31122
-20.938 97.6436 3.34202
-3.21177 107.669 7.32302
18.0953 123.824 3.64562
-2.43899 105.424 13.2095
10.6612 122.949 -4.71141
12.997 123.085 -1.67923
-23.6034 96.8153 1.67097
8.23081 121.834 -5.72503
9.87863 120.017 0.348002
6.55228 115.989 4.06839
0.528925 112.306 3.39894
18.2275 120.003 12.282
18.5782 124.132 4.24122
-18.2769 98.4426 6.08351
1.30216 109.243 11.051
-21.0499 104.863 -11.063
-6.12483 113.51 -8.09046
14.9457 123.511 0.613723
9.25425 121.351 -2.84478
-2.23812 109.031 6.67867
-3.52742 108.362 6.3372
-22.2827 97.5339 2.59822
10.8926 123.239 -4.34591
5.36099 119.633 -4.58386
-0.0500934 113.015 1.62082
-9.62618 104.813 5.25506
-4.81861 103.995 13.7001
-10.3272 103.688 6.65797
-13.1792 101.613 7.07189
-21.9156 97.7675 2.86268
-25.1514 101.688 -9.78046
10.947 123.37 -4.30317
6.97764 116.508 4.39863
-9.34406 111.325 -7.51292
-1.5554 106.736 13.0007
-10.042 102.418 10.1084
-20.4174 98.3508 4.12194
-18.0045 107.336 -11.0295
4.46101 114.725 5.03406
1.14306 109.425 11.4294
-17.787 98.9579 6.71634
10.7266 122.808 -2.89668
-11.2951 103.431 6.57675
19.3026 123.814 7.09363
-27.9108 97.7808 -4.83026
-10.187 111.043 -7.54083
3.83274 112.051 9.96698
6.77325 121.043 -4.53222
-15.6187 99.7626 8.33293
-8.15269 105.989 5.90439
4.25903 114.583 5.50635
11.2345 123.664 -3.55825
-16.1533 108.529 -10.4261
7.29455 121.768 -5.11141
-21.1921 98.3469 3.66192
9.87914 122.469 -2.90524
-18.1772 107.55 -11.1017
-7.68133 112.846 -7.36961
-13.5304 109.756 -9.10379
7.61142 117.383 4.64624
2.64029 118.434 -4.46674
-6.11445 103.746 13.8808
-28.341 99.0792 -7.47122
7.7407 117.661 4.45668
11.9581 118.804 8.00034
-25.1939 97.2889 0.771724
0.588919 114.12 1.89747
-18.4482 99.0775 6.4953
-15.1857 100.592 7.96064
-3.21975 106.152 13.2006
9.76253 121.672 -0.825404
1.07555 109.746 11.7948
-16.0822 99.6852 8.69606
-1.66604 107.384 12.8884
-6.65311 106.821 7.15635
14.8079 118.64 12.7133
-6.33713 107.006 7.31217
-10.1099 101.877 12.7331
8.68755 121.9 -2.46279
9.73084 120.908 1.06322
7.83389 119.274 1.81788
-11.3121 104.099 6.59698
-18.4576 107.754 -10.9404
-3.22741 116.323 -7.42176
15.8475 124.467 2.35326
10.0855 124.285 -5.3113
13.1435 119.288 9.35284
8.09963 119.816 1.22483
18.5613 122.688 9.88689
7.81006 122.942 -5.63876
-8.89201 105.614 6.97444
10.1481 123.078 -2.61159
9.67283 118.529 6.16717
-11.8357 110.942 -8.06944
0.290653 113.092 4.41412
6.94261 122.113 -4.95215
-13.7866 102.331 7.16193
-21.8103 105.684 -10.9519
6.94617 122.175 -4.97477
4.27019 115.346 5.46828
-3.11893 111.281 3.5842
-3.10989 111.203 3.79345
-10.7546 104.657 6.74084
-16.8272 108.889 -10.5111
-10.3112 103.097 10.63
9.35151 121.841 -0.761277
7.74211 117.774 5.4371
9.42208 121.725 -0.398527
-11.8268 104.016 6.70071
-2.48929 107.306 12.9793
4.63116 120.25 -3.91306
-2.96899 110.597 5.51953
-18.992 107.702 -10.7968
-18.674 99.4808 6.69356
-27.8018 97.7877 -2.53676
1.97639 111.031 11.7294
8.90021 122.271 -1.89425
-2.21569 110.578 6.87084
-15.3806 101.072 8.19698
8.31413 120.298 1.44199
-3.08583 112.2 2.32863
-2.98434 111.086 4.7843
9.4087 122.553 -1.62929
-8.60148 106.234 7.06647
-10.7924 104.885 6.80965
10.9021 123.921 -2.34553
-3.0649 112.186 2.53756
13.2354 124.693 -0.61731
14.3269 119.045 12.6872
8.06421 121.642 -1.43852
0.724621 109.993 12.4658
11.444 124.191 -1.98353
-12.2545 103.993 6.79403
19.6986 125.159 7.55967
-8.75026 112.979 -6.85868
4.42658 115.175 7.06351
-3.60326 110.108 6.35865
15.5246 120.5 11.5391
11.9021 119.372 8.83927
-1.26532 111.866 6.03592
12.137 124.566 -1.5045
13.7771 119.008 12.4428
16.0073 121.239 10.9752
19.6954 124.59 9.23067
6.48783 116.77 7.05742
-28.4305 100.031 -6.97068
-3.91804 109.033 8.60488
9.0802 121.986 -0.049056
-28.0866 100.708 -7.76477
19.6013 126.067 6.28087
4.09982 115.116 7.34028
-0.923715 117.796 -5.17445
13.9259 119.238 12.6031
-1.12566 114.476 1.45885
1.85385 119.174 -4.10939
19.4971 126.168 6.10467
-27.2617 101.763 -8.60042
5.18537 115.93 7.37489
19.844 125.934 7.1502
-28.3109 100.448 -7.26295
-8.74726 105.944 8.81885
-21.4853 99.3984 4.60364
-27.5735 101.494 -8.23364
5.27013 121.607 -4.00526
-5.42643 108.506 8.22505
12.7164 125.194 -0.930438
-24.8256 98.5653 1.89921
13.357 125.279 -0.0950662
0.625403 118.84 -4.48987
14.3745 125.341 1.29494
4.44755 115.53 7.80161
-18.3262 109.101 -10.6373
-27.2074 98.9387 -1.91976
-5.95144 108.718 7.61108
-0.891129 118.367 -5.32512
-0.249703 115.686 1.16483
19.3803 125.257 8.85918
19.0916 126.647 5.59963
-7.3822 107.9 7.51571
11.3373 125.8 -3.3357
-28.1701 101.036 -7.14474
3.09388 114.91 7.81081
8.78543 123.016 -0.94238
-3.02685 108.359 12.9877
-24.2529 104.788 -9.20058
-11.3543 112.524 -7.22242
-7.41997 108.046 7.62148
-24.6961 104.469 -9.04924
8.36268 123.703 -2.68081
9.97807 126.096 -5.276
16.4563 126.118 3.79206
-3.97501 110.777 7.1296
-15.7022 110.883 -9.41215
-7.9853 107.965 7.43918
-18.0857 109.878 -10.6299
11.1314 120.153 8.96016
-17.3462 110.295 -10.3477
17.5296 124.29 9.47507
5.25884 122.541 -3.96713
-13.3997 104.61 7.15582
-18.4851 109.706 -10.4914
9.25013 122.845 1.10133
-25.3429 99.2318 1.77105
9.15568 122.383 1.97525
-5.39475 116.919 -7.01604
-14.106 111.785 -8.52251
2.96877 114.2 10.3261
8.63485 119.955 6.32086
-7.22417 108.538 7.88055
13.0957 119.967 12.5709
0.127136 114.953 4.85985
-10.5263 113.375 -6.70078
-27.6734 100.177 -3.28679
0.0295875 111.169 12.6519
-12.1767 105.67 7.02743
-21.2946 100.402 5.3635
-4.48917 107.853 13.4279
-27.1954 99.9963 -1.9905
19.9285 127.058 7.79821
-25.9227 104.158 -8.76502
-21.4913 107.828 -10.1646
4.76 117.116 7.45559
0.655643 117.368 1.33823
9.41349 123.371 1.19762
-3.39568 111.402 8.19468
13.896 120.648 13.1968
9.16385 124.132 -0.61244
-8.35636 107.622 9.15879
-2.66453 113.601 4.72836
19.7208 127.362 7.50696
16.7723 127.019 4.13693
10.2646 127.089 -5.066
8.83413 120.143 7.34743
8.99124 120.275 7.34004
-28.238 100.898 -4.47065
-21.5008 100.741 5.32279
-11.8582 106.348 7.20784
-9.25977 107.768 7.89658
-27.4494 102.982 -7.55892
-2.66122 113.982 4.45734
7.88642 121.642 3.35456
5.45065 123.859 -4.51733
-21.563 108.434 -10.2607
2.93953 115.128 10.099
-0.169335 115.525 5.10093
-15.5397 103.504 8.59172
-24.4485 100.245 2.94147
8.41147 125.121 -2.72111
-27.3672 100.725 -2.0995
-2.66793 114.194 4.48416
8.99669 125.017 -1.66057
-3.005 113.169 6.25144
3.96196 122.568 -3.45338
-25.7548 100.075 1.68672
-8.53486 106.922 11.6208
-11.8188 106.779 7.36833
-7.00282 107.121 13.4329
-2.36198 113.106 7.51926
-8.87329 107.508 10.0404
11.9969 126.765 -0.707938
7.42522 126.043 -5.54505
-12.8338 113.467 -7.7619
-22.3925 100.997 4.74316
9.00267 125.607 -2.39752
2.235 118.893 2.11346
-17.7548 111.43 -10.3214
15.5027 123.639 10.8614
8.99576 125.185 -1.42704
-6.76232 116.846 -6.12947
2.89468 122.018 -3.32774
3.60582 122.546 -3.36461
13.5857 122.272 11.168
-21.5284 108.991 -10.3363
-11.4603 107.17 7.54275
6.4753 125.437 -5.27283
-6.59028 107.607 13.461
-1.1856 117.058 1.50775
14.5531 122.457 12.3024
-10.3588 107.851 7.88979
7.47073 121.73 4.06419
-8.89617 107.7 10.2995
-13.4314 106.068 7.40347
-26.9254 100.842 -0.579644
8.53504 125.759 -2.66898
2.32983 119.293 2.08612
-26.3046 100.646 0.765162
-7.41503 107.452 13.1691
-6.12438 109.829 10.0504
-15.2776 104.468 8.45948
7.31739 122.691 2.25789
-22.1685 101.482 5.04787
-13.1814 113.812 -7.91137
-0.362074 116.165 5.19915
9.44203 121.403 8.17792
8.2812 125.081 -1.02606
9.3543 126.443 -2.31541
8.56382 125.956 -2.36231
7.93949 121.179 6.6761
-1.98638 114.288 7.21697
7.37227 124.074 0.0219204
15.9116 128.289 3.22848
13.4047 122.425 12.0133
8.70852 122.205 5.92613
0.830709 119.201 1.16349
8.34484 125.526 -1.40645
8.88175 125.7 -0.981077
5.98186 119.494 7.83885
5.30111 119.094 7.72029
17.0219 128.25 5.13784
18.6268 128.882 6.12324
-22.54 109.026 -10.2079
9.91347 124.739 2.56327
8.9679 121.813 7.35833
3.92241 117.334 9.64559
14.3232 128.792 0.465021
-1.75219 111.914 13.0286
1.27808 119.623 1.28275
8.51569 121.527 7.44918
-19.0739 102.771 7.84053
13.463 122.474 12.4886
15.3822 128.722 2.21572
-20.8118 110.433 -10.3997
14.6849 123.589 11.9248
8.45686 121.464 7.712
13.3734 128.868 -0.736445
11.1986 129.059 -4.13918
-22.3862 109.419 -10.267
6.90925 124.018 0.462458
-26.6314 101.651 0.136637
-26.7066 101.706 -0.0328406
6.82806 122.274 4.16918
13.6187 129.187 -0.616309
7.46238 124.856 -0.221436
7.69538 121.803 6.44262
10.7531 122.362 9.57834
0.0942781 113.69 12.6844
-26.7138 101.793 -0.068405
9.90143 122.178 8.81515
13.1045 123.289 11.0258
-26.979 101.982 -0.692221
-3.40668 113.997 7.36236
3.27441 123.57 -3.11449
6.41959 126.747 -5.30509
18.3575 129.27 6.14697
-7.33609 109.892 10.5133
6.67052 123.364 2.22026
-2.8386 114.816 6.68202
-2.40081 116.794 3.22272
2.33136 120.649 1.86896
-17.2632 113.141 -9.90979
-16.7324 113.334 -9.54507
16.9584 127.003 9.18028
10.3178 122.479 9.28669
-8.51219 110.217 8.47054
-26.6059 106.01 -8.07197
8.7483 123.692 4.68911
16.3494 126.507 9.47499
-1.84649 115.552 6.80102
-9.02202 109.937 8.44385
6.57945 124.059 1.06475
-3.05165 114.153 8.15852
-4.83351 119.778 -5.97238
11.791 129.951 -3.83602
9.65925 129.163 -5.15682
-7.18114 110.22 10.601
-23.0123 109.353 -9.6886
9.92622 128.113 -2.5351
1.75429 119.096 4.77209
9.31209 125.599 1.89195
13.2838 123.454 11.9444
-7.77733 109.536 11.3962
-23.6421 108.785 -9.18877
8.33283 122.366 7.31965
-17.4977 113.374 -10.0524
-25.5718 102.232 1.88113
14.0353 129.822 0.0495926
-14.7793 106.572 8.0627
2.53839 121.139 2.05209
-14.4331 114.728 -8.25955
14.9946 125.613 10.2973
-13.1148 115.301 -7.56548
-20.3142 103.462 7.04572
1.2858 120.818 1.24847
3.27789 124.345 -3.25161
8.66446 122.609 7.87454
-22.1212 102.998 5.5339
13.2817 123.714 12.0558
-0.602143 119.447 1.56693
12.4216 123.688 10.9798
6.69345 124.929 0.421119
-2.41247 116.955 4.2543
-27.3886 104.274 -4.30224
-27.4653 103.627 -3.02023
2.4481 120.268 4.32833
0.922149 118.8 5.25968
-2.34254 117.172 4.07818
-7.52539 110.08 11.5739
18.495 129.988 6.68516
-0.915496 122.651 -5.172
10.2471 130.031 -4.79711
5.00594 120.402 7.86017
-15.7582 114.491 -8.79501
3.38135 118.414 9.81515
-1.62286 116.744 6.30677
-4.94799 111.252 13.0948
8.98008 123.318 7.55454
9.13533 123.4 7.60485
-9.58919 110.424 8.43019
-2.3642 115.864 7.26334
-13.2707 108.263 7.79231
-14.0038 107.851 7.67504
-20.6754 103.785 6.82806
13.4054 123.857 12.8205
-27.4226 104.131 -3.25151
4.34298 120.132 7.99228
3.02659 121.446 3.46878
-22.6238 110.525 -9.68615
-16.9125 105.427 8.8882
16.7573 129.738 5.57164
3.22723 118.273 10.4429
9.15566 129.76 -5.03979
8.30691 123.326 7.13931
9.34462 127.394 0.181657
1.76574 119.959 5.02751
13.5633 130.813 -0.90464
2.86215 124.6 -2.96206
-2.69644 115.72 7.70302
-2.32017 116.301 7.03377
9.60334 130.066 -4.84416
-22.5599 103.572 5.18779
-13.1569 108.644 7.84833
-5.64458 111.339 12.7716
-4.34729 114.143 8.78531
8.0068 123.227 7.22674
8.44375 123.696 6.87832
-2.15438 117.689 4.54603
6.8127 128.472 -5.2531
-15.0552 107.14 8.47225
-19.8273 104.423 7.57705
14.2187 131.171 -0.294207
12.1005 124.202 11.2317
-7.11028 111.76 10.2009
-5.73405 120.19 -5.2313
-8.62166 111.683 8.42573
-26.3978 107.453 -7.5848
-26.672 103.869 -0.464313
-19.3235 104.79 8.0468
-27.0502 105.766 -4.72196
-27.2136 106.634 -6.74551
-26.9894 105.823 -4.65063
8.73147 125.921 3.58914
8.47894 123.645 8.03597
-8.36898 118.555 -4.93963
16.3873 128.476 9.13217
8.1062 124.348 6.18847
9.24179 124.646 7.17356
2.82408 121.846 4.06408
11.253 130.68 -2.46558
5.6517 123.986 3.59992
7.67776 127.901 -1.63053
8.3588 127.199 0.834731
-26.5222 105.77 -3.44901
7.47737 124.665 4.90177
0.359339 119.431 5.81152
7.34081 127.525 -1.21587
3.51858 123.021 2.81309
1.97521 122.73 1.31833
13.8279 125.966 11.2412
8.63074 124.137 7.79683
-2.65284 116.849 7.15186
-10.1617 111.21 8.36337
11.6151 131.828 -3.93657
-18.3442 114.617 -10.0524
-3.94785 121.96 -5.11295
8.56038 126.007 4.13474
6.27821 123.752 5.62365
10.4852 128.182 2.32073
2.01062 125.051 -2.99488
2.23899 125.161 -2.87902
11.0302 129.41 0.631386
3.70522 126.387 -3.31046
-17.0731 106.465 8.97373
-5.92213 112.185 12.6978
-24.2851 104.267 3.48421
13.6464 125.924 11.6016
14.8639 131.966 0.809847
-26.047 104.446 0.731998
9.36414 125.352 6.85358
6.50422 126.646 0.18206
-23.3107 104.478 4.52146
-3.39442 114.08 12.4701
8.96492 124.826 7.45461
10.8882 129.802 -0.121165
10.9661 129.826 -0.0538128
-17.2387 106.498 8.96778
9.29954 125.125 7.43855
-12.43 110.289 7.90653
10.0562 127.47 3.69423
-0.233678 124.43 -4.37393
13.2614 125.157 12.9789
-7.70203 111.709 11.6205
-0.240757 121.512 1.72722
6.65468 124.051 6.10476
16.1558 131.426 4.09519
11.1209 129.086 1.94922
3.34084 122.891 3.94582
-8.77141 118.988 -4.80089
15.5177 128.451 9.50736
-6.37665 113.984 8.96684
11.4503 130.916 -1.17678
16.1838 131.71 3.84399
-6.58365 120.435 -4.57147
6.69106 124.131 6.32044
3.63398 124.174 1.9752
-6.9727 113.718 8.83766
15.0265 127.924 10.1764
11.7743 131.114 -0.859492
-20.5405 113.868 -10.2384
18.5743 131.301 8.33319
3.93776 124.334 2.33511
11.9202 125.062 12.0645
-2.41552 123.524 -4.75118
0.14684 124.919 -4.04979
-4.79974 113.753 12.2428
9.94362 126.289 6.90461
-6.50806 114.203 8.98624
-27.1704 107.849 -6.6956
5.34741 124.289 4.67554
-26.1941 107.023 -3.56953
-6.82997 113.256 10.5567
11.734 131.592 -1.47038
-6.67825 112.693 12.0406
1.11557 123.168 1.28717
0.102972 117.189 12.2865
3.51377 121.075 9.08902
-23.4084 105.18 4.44783
4.47943 121.818 8.93795
14.8943 128.124 10.4678
9.58595 131.529 -3.98589
-4.76362 115.468 9.32886
6.28584 124.823 5.40185
6.10425 124.691 5.50074
12.5305 125.688 12.4215
8.41275 129.763 -1.69183
9.63975 126.289 7.23269
8.55189 130.06 -2.09163
-24.1271 105.293 3.6608
-15.0192 117.151 -8.18677
-3.34589 123.249 -4.47651
-4.30454 122.602 -4.46207
-24.2824 111.112 -8.52445
14.1617 127.518 11.2553
-14.7955 117.346 -8.07023
9.32162 131.624 -3.97987
10.9351 129.996 1.66987
2.7906 126.713 -2.89958
-25.9955 105.665 0.563858
-7.96179 120.233 -4.44463
-21.3646 105.971 6.41484
16.8201 132.165 5.44855
-0.183848 122.309 2.16811
-19.3049 115.312 -10.0018
0.197474 125.529 -3.91417
-4.18548 122.87 -4.36383
11.1749 131.401 -0.591992
-6.33832 113.5 12.0947
-15.5966 108.747 9.0255
14.5784 128.123 11.043
-20.0945 114.975 -10.1094
-4.39581 116.268 9.13873
-0.608287 120.078 6.58351
12.6384 132.517 -0.6517
16.7354 130.748 8.80621
10.7417 125.588 11.1697
-0.815466 117.265 12.2908
10.7662 125.598 11.192
-8.15781 114.046 8.73727
9.08929 127.899 4.12599
-14.1274 110.179 8.45675
-1.87476 119.106 7.06534
-17.1771 107.823 9.11
5.69339 126.431 2.52994
-2.26349 118.835 7.18433
0.0894652 118.065 12.1752
-2.83853 115.975 12.472
-7.95883 114.347 8.82372
-0.39501 117.81 12.2145
-24.5648 111.536 -8.48259
9.69615 127.065 7.23313
9.70515 132.509 -4.03059
-14.3751 118.137 -7.86416
-5.49288 115.969 9.06084
3.96328 124.89 3.81409
3.67848 128.171 -3.36875
-12.7239 111.566 8.14915
-3.12805 117.974 8.30117
15.0618 133.764 0.975489
-19.9633 106.864 7.93427
8.53953 128.475 2.97205
3.36599 121.905 9.39336
-18.8371 116.228 -9.74949
3.75759 126.021 1.51706
-22.7661 106.523 4.91886
14.9235 129.252 10.4795
-25.1651 106.353 2.06712
2.85511 123.764 5.10741
-17.7134 116.968 -9.40163
4.12508 129.007 -3.85683
17.3732 133.056 6.27849
7.1627 126.99 4.70334
-25.664 106.855 0.608297
2.93294 123.975 5.06644
-1.44613 120.785 5.58178
-5.67621 114.929 11.8191
9.30184 127.271 7.17557
12.8088 127.294 12.0874
-19.171 107.526 8.44735
-24.9237 106.527 2.49262
-3.44158 116.276 12.3287
-23.8056 112.92 -9.1286
-18.655 107.79 8.76887
9.38694 127.507 7.07235
-0.538578 118.379 12.1444
5.70855 125.662 5.80099
0.720372 124.198 1.87489
8.67653 128.906 3.2633
7.61813 127.846 4.04479
-22.6131 107.03 5.00774
-4.72076 117.057 9.23961
7.4107 129.702 -0.0298076
-0.480459 121.123 6.73554
13.2182 133.995 -0.814163
3.28112 124.542 4.93454
-17.4254 117.429 -9.18315
-10.9036 113.456 8.22089
-8.5766 114.763 8.81936
-22.6022 107.154 5.00613
14.8076 129.639 10.6629
3.49779 122.58 9.5103
-25.8246 107.847 -0.879942
-22.904 113.989 -9.50439
16.8766 131.829 9.12482
9.64443 127.376 8.28757
8.64199 126.838 8.02624
16.9657 131.918 9.14093
5.84294 124.53 8.93054
16.3038 134.709 2.45522
2.05951 121.695 9.57028
15.1865 134.475 1.44312
-4.65553 117.408 9.1324
9.02595 131.762 -1.48127
-20.5618 115.894 -9.80702
-4.45448 124.145 -4.18702
-25.6075 108.053 -0.304891
-14.1534 111.517 8.52736
9.24504 130.649 1.54821
-3.14659 117.198 12.1588
2.42388 128.151 -2.76836
3.37024 125.057 5.0045
-15.2708 118.983 -8.37273
16.0161 131.656 9.06855
-20.917 107.747 7.08618
1.82865 123.698 5.85197
9.00813 129.739 3.40618
9.05352 131.947 -1.06655
-23.1301 114.264 -9.32879
-25.8293 109.866 -3.96938
9.62558 132.299 -0.942933
-25.0131 109.727 -2.47626
16.4136 135.199 2.57849
15.616 131.37 9.58023
7.97925 130.282 1.21135
7.3517 128.332 4.38335
7.86941 128.751 4.24601
-1.04983 122.432 4.929
9.81841 127.997 8.60245
-1.84157 126.324 -4.10253
-3.95758 124.927 -4.14534
-2.85246 119.925 7.77123
9.13645 128.163 7.44143
-14.272 119.618 -7.52584
8.85831 131.865 -0.592891
1.34895 127.914 -2.86045
10.3191 132.651 -0.0867131
-5.01476 117.354 10.2138
-3.61715 117.592 11.7117
11.7745 133.688 -0.123782
-7.30407 116.318 9.24945
8.99185 132.041 -0.585162
-19.6177 117.127 -9.49774
-4.29813 118.682 8.70434
7.03435 132.565 -4.23964
14.0706 130.039 10.8465
7.8955 130.959 0.352954
1.77018 126.241 1.58449
4.5235 131.219 -4.82041
6.82159 128.144 5.09713
-0.620536 124.01 3.61915
9.20399 129.023 6.99594
-2.02566 119.226 11.7377
8.80112 128.929 6.81159
8.76869 134.284 -4.31887
-3.61437 118.439 11.3527
1.59516 124.508 6.11342
-1.13955 122.548 6.36917
-24.4602 108.822 2.25943
-10.9811 121.427 -5.04209
-3.40575 119.998 8.50133
4.56876 127.419 4.26412
17.0003 134.909 6.11948
-24.7693 113.756 -8.22963
11.915 134.148 0.79011
9.91912 135.402 -4.56301
3.57711 126.419 5.21165
7.2066 133.553 -4.47656
-16.9924 119.274 -8.65332
5.14575 129.438 1.30757
-3.19319 126.324 -3.8782
8.5391 129.06 6.87294
-4.71738 119.415 8.36461
-9.00291 122.551 -4.04754
2.85405 125.95 5.62814
-23.2167 108.809 4.76178
-3.71096 119.897 9.15289
-24.1369 110.236 0.65702
9.19371 128.984 8.37711
-20.4742 117.604 -9.38964
-3.762 120.321 8.33046
10.7402 133.863 0.671038
1.30926 122.732 10.5915
-26.4735 112.122 -6.17094
-24.1339 109.675 2.17326
-11.9819 121.517 -5.39786
-5.13 119.582 8.22764
-1.75597 127.688 -3.83513
-5.60451 119.269 8.28688
-25.6367 113.262 -7.18451
17.5191 136.321 5.34919
13.1905 130.955 10.4627
16.3448 136.663 3.10521
3.25719 128.636 1.52921
10.1119 129.097 10.1976
8.82188 129.741 7.09194
-21.8557 116.941 -9.21373
16.3952 133.846 9.22014
14.085 136.136 1.25422
-0.497361 124.792 4.4079
-23.7124 110.258 2.12301
-22.2983 109.407 5.87564
2.14763 127.864 1.75621
17.1146 135.236 7.39429
13.8166 136.129 0.979116
-1.67221 127.999 -3.76643
12.2795 130.692 10.2309
2.65453 126.34 5.82079
8.90964 135.549 -4.50437
4.03412 127.699 5.04064
-2.12776 122.398 7.46784
-4.0825 120.757 8.1735
-26.5587 112.422 -5.90706
0.955657 126.841 2.70058
5.30324 129.307 3.68452
-23.4238 109.933 3.73507
3.82953 126.156 8.19223
-4.64658 120.591 7.91808
-11.2477 122.318 -4.86417
-20.8258 118.059 -9.28766
11.4836 137.01 -3.20978
-0.967055 123.917 6.55023
-0.569707 124.841 5.21606
2.42689 128.555 1.74937
6.72448 128.512 7.86241
5.89546 130.417 2.91747
-3.81432 127.004 -3.44261
-2.52515 122.455 7.83151
-3.23493 121.341 9.16492
-20.493 118.523 -9.03649
9.25752 129.933 8.88525
-12.5329 115.536 8.31148
17.6813 135.661 8.82517
10.7834 135.054 0.513572
15.5304 133.964 9.47971
2.07516 124.631 10.0819
4.99277 129.422 4.22581
-2.30813 121.322 10.8246
-15.6204 121.297 -7.71366
-22.4667 110.281 5.69992
-1.34448 123.796 7.18267
-0.14705 126.002 4.2923
6.00774 130.783 3.00048
0.0726025 125.021 6.73292
0.310445 123.176 10.9465
-5.20859 121.085 7.64885
3.1453 127.716 5.57779
5.38477 128.152 7.87399
17.2006 136.25 7.62346
-8.35155 118.33 9.08921
17.607 137.492 5.66408
11.2969 136.82 -1.71583
-0.0418982 126.298 4.27192
13.9903 137.278 1.16394
-1.67706 123.774 7.29188
11.6 136.722 -0.98277
2.0635 128.889 2.00495
3.50056 128.215 5.42066
7.95715 136.037 -4.57105
-0.793609 124.902 6.47884
12.0263 136.752 -0.138675
-10.9243 116.932 8.90187
1.8529 126.841 6.31124
-2.02435 123.458 7.92299
-5.6036 126.426 -3.22163
-3.82319 122.106 8.26255
2.9688 132.251 -3.28498
-1.80523 122.373 10.5328
14.4065 137.6 1.61158
-0.971138 124.674 7.00528
-14.9083 121.953 -6.81819
3.48406 132.789 -3.59056
16.6816 138.142 3.78753
1.76083 131.3 -2.85056
16.7183 138.264 3.85549
4.40934 131.186 1.35666
-15.281 122.136 -7.2213
-19.702 119.75 -8.40331
-2.14207 123.855 7.63697
11.0999 131.982 9.45156
1.65014 128.666 3.15792
-13.8052 115.641 8.57568
11.2379 138.606 -4.03712
-0.0169078 130.329 -2.59429
7.0575 130.365 7.42628
-23.3134 117.64 -8.58028
-6.68204 120.901 7.94064
8.47246 131.165 7.88602
15.1281 138.127 2.75807
-18.5693 112.355 9.14201
-17.0308 113.614 8.71168
5.92187 131.579 3.6347
3.03405 130.561 1.7446
-16.0563 114.343 8.811
-2.28031 123.44 9.19431
-16.4531 122.321 -8.1549
17.8125 138.363 6.4873
11.2728 138.436 -2.73239
8.65278 137.698 -4.79307
-4.2154 122.967 7.83467
-26.5146 113.231 -3.07691
4.18338 130.181 4.68367
14.3845 134.411 10.1924
3.51455 133.842 -3.74323
1.17524 128.449 4.24939
15.5058 135.619 9.41075
-15.0813 122.845 -6.81737
-13.9758 123.172 -5.90935
-11.7594 124.313 -5.17758
3.83416 134.285 -4.05285
-18.1577 113.26 8.92336
-26.487 113.681 -3.52917
-0.0805786 127.114 5.50419
-2.33443 129.837 -3.28217
-10.5651 125.227 -5.11795
9.43047 138.659 -4.95586
-9.69423 118.936 9.22609
-10.1229 118.536 9.485
1.41527 128.858 4.22859
-16.5189 122.796 -8.13361
11.4923 139.388 -3.31649
-23.877 113.604 0.861778
11.9823 133.709 9.33571
9.11764 132.085 8.71436
-15.5915 115.428 8.73683
3.00371 129.676 5.17409
11.8104 139.142 -1.97341
4.73112 131.45 4.26839
-21.8647 119.886 -8.81927
11.7769 139.458 -2.40535
-23.4185 113.983 1.28333
10.9992 137.576 0.547551
-11.7228 125.238 -5.46783
2.26015 129.321 5.61106
-6.45225 127.635 -3.02961
-2.41764 125.238 7.63175
-9.47414 119.783 9.09901
3.24569 134.575 -3.66534
-18.103 114.067 9.04808
1.56872 128.676 6.30345
-22.0417 114.241 3.28902
-24.0036 114.227 0.873887
-19.1633 121.811 -7.94464
4.80866 132.166 4.1241
8.85264 139.273 -4.92453
3.94975 135.648 -4.23198
-17.0054 115.263 8.82992
17.7178 139.933 6.2017
2.38073 130.656 4.02156
14.8556 139.738 2.64002
14.9607 139.762 2.74033
5.07449 131.086 7.02572
-0.234794 126.747 8.62414
-16.6668 123.715 -7.99549
6.8859 138.289 -5.19765
-21.8512 114.099 4.89873
2.40061 130.379 5.16368
-9.50578 120.463 9.10454
17.1143 140.609 4.54743
9.9499 140.289 -4.74292
11.5366 140.281 -2.50912
-15.8871 124.103 -7.24907
-22.0748 120.654 -8.63158
6.09778 134.75 1.50688
-24.5112 118.402 -7.2147
7.83474 132.855 8.09225
5.0263 137.193 -4.80738
2.49199 129.638 7.50255
13.6976 136.327 9.31917
-15.8286 124.344 -7.04997
17.6464 140.602 6.03771
6.20824 138.363 -5.19512
-16.7053 116.176 8.83116
2.07547 129.533 7.46331
-12.7765 126.167 -6.27117
-19.2553 122.572 -7.84437
4.42512 131.485 6.82363
3.47834 136.014 -3.85746
7.64895 135.555 2.99654
7.46807 135.393 3.19278
-7.18345 128.629 -3.21933
13.4509 140.22 1.57686
17.6254 140.922 6.02811
-3.51436 125.721 8.09141
-19.9473 122.453 -8.06508
-20.7376 122.016 -8.23777
2.66792 135.446 -3.23912
-16.5286 124.673 -7.69236
-15.0203 125.068 -6.27195
-21.5359 121.656 -8.28071
-11.8919 127.143 -6.1615
0.609047 129.536 6.35814
-13.8721 126.099 -6.71199
3.09536 132.949 2.81368
-25.4794 117.188 -4.41723
-24.931 117.624 -4.49994
-19.2485 114.872 9.18152
-24.4305 118.976 -6.524
7.94992 139.925 -4.68104
-9.42206 121.635 9.05963
-8.59311 122.334 8.78806
-19.166 123.291 -7.72404
-21.015 115.299 6.29504
5.42161 135.308 1.86981
-18.0745 115.821 9.47329
1.60343 130.821 6.09431
-23.3058 120.505 -7.16528
10.4426 141.516 -3.58227
-26.4972 116.628 -3.57384
-18.2703 115.878 9.58579
-24.6591 118.471 -4.7106
-15.3244 125.646 -6.5483
-0.0396537 129.692 6.43833
7.45654 136.741 2.37655
4.82828 133.884 4.65328
8.88593 134.951 8.1406
-23.9252 120.01 -6.60262
-24.7833 118.234 -4.09059
-19.4364 115.605 8.88491
2.98579 132.585 5.01706
1.32702 131.393 5.22809
-16.2064 125.466 -6.91811
-7.64697 129.621 -3.56121
-15.5876 125.693 -6.50595
15.3774 139.082 9.01381
14.8614 138.578 9.38981
-26.3092 116.3 -1.90173
5.09139 135.668 1.81726
-10.9254 128.465 -5.39599
11.1933 136.744 8.33647
5.07873 133.511 6.5544
-8.06807 123.694 8.6184
-8.23957 129.637 -3.93934
-15.7446 118.578 8.63344
6.07348 135.442 4.15876
-19.3417 116.048 8.87916
-3.50943 127.18 7.93393
-24.819 118.722 -4.25459
4.9359 133.613 6.46758
5.24377 136.328 1.31808
4.55037 135.41 2.30675
-0.645544 133.871 -1.74161
2.41179 133.235 3.90901
2.76396 132.003 7.18626
9.78365 136.253 8.18803
5.70191 135.417 4.33982
12.3557 141.014 2.19007
-2.33682 133.141 -1.99145
-10.6805 122.284 8.89116
-19.8985 124.137 -7.68557
10.4561 141.09 -0.403095
-16.589 118.396 9.1055
-4.3439 127.496 7.34384
3.81021 135.361 2.45578
-11.8825 121.838 8.72678
-13.2113 128.713 -7.32181
-20.3242 116.841 7.36346
6.5951 134.818 7.70366
-23.286 121.167 -5.65992
-26.2433 117.3 -1.72247
-24.2164 117.183 1.38893
10.8341 142.899 -2.91958
15.7003 142.939 3.87546
11.3216 142.465 -1.20367
-25.6013 117.092 -0.148791
4.51209 135.047 4.84731
3.68169 134.399 5.09266
-12.8476 129.302 -7.28351
-15.9723 126.996 -6.84741
-19.1195 125.384 -7.87258
2.74486 133.595 5.68326
-21.6067 123.193 -6.73565
7.11127 137.368 4.08817
-7.5782 131.274 -3.63304
1.01036 136.347 -2.12912
-12.2134 129.744 -6.88204
-10.5274 130.406 -5.87116
15.666 143.299 3.99972
-21.616 123.001 -5.93405
3.99353 139.399 -4.14852
0.544305 132.205 5.97233
-15.9727 127.306 -6.92669
16.1348 143.616 4.21674
-6.84063 131.806 -3.30009
-23.766 120.912 -4.31544
1.35267 136.929 -2.38979
-10.1808 123.812 8.82519
-6.71472 127.452 6.20564
8.46545 138.971 3.52776
-2.54984 134.165 -1.88723
-25.8126 117.701 -0.243105
6.41499 135.811 7.23716
-4.90987 132.924 -2.50865
3.85837 136.715 2.02299
7.35175 139.385 1.50363
-3.51957 129.105 7.65966
-18.418 126.495 -7.71299
5.90667 135.644 7.38728
0.955394 136.942 -2.16468
-25.0952 119.323 -1.94365
10.2953 141.719 1.07659
8.13465 137.338 7.1665
-21.5685 123.285 -5.14496
-21.5347 123.482 -5.47078
-4.00734 133.683 -2.1141
-7.83758 131.997 -3.95651
15.361 143.817 3.97079
-10.2486 131.547 -6.21185
-21.6354 123.676 -5.78841
15.1416 141.654 8.30744
5.11168 138.326 1.20548
-20.3837 125.22 -7.20025
12.0979 142.368 2.63814
-20.1326 118.547 7.02781
11.7259 139.328 8.45638
5.6177 136.991 4.80438
-22.3186 118.183 4.82501
-15.889 128.245 -7.05399
-22.3998 122.917 -5.08855
6.03585 141.644 -4.14775
16.4711 143.551 6.53041
3.75935 136.987 2.39248
13.6655 140.528 8.92395
-20.9502 124.766 -6.70972
-7.04828 127.834 6.36339
6.60907 136.867 6.78837
0.151656 132.71 6.40879
2.32824 138.755 -3.02951
-8.36631 132.23 -4.43339
9.78969 144.196 -3.88057
13.2053 143.176 3.02296
-5.02796 129.096 6.90178
1.04009 137.672 -2.27142
-6.2077 133.219 -3.13554
-8.25627 132.455 -4.36245
-11.072 131.922 -7.08291
-14.524 121.776 9.14067
16.3037 144.497 5.13416
5.57594 136.333 7.10575
15.906 144.776 4.08983
-4.83444 133.975 -2.45494
9.79864 142.421 0.502358
15.2852 142.805 7.58177
10.2692 139.291 7.91771
16.0813 144.808 4.60579
8.64907 140.97 2.182
-8.88945 132.657 -4.99003
-13.6948 131.075 -8.36044
7.23928 137.995 6.54528
-13.2489 131.337 -8.25432
10.9649 142.692 2.10402
10.1276 142.624 1.09362
3.50266 140.484 -3.7085
-6.94871 133.438 -3.66814
-23.2655 123.344 -5.26603
16.1576 144.79 5.42654
-12.259 123.893 9.10442
-13.7444 122.9 9.22346
7.62858 141.126 1.53495
4.44345 141.738 -4.14272
-25.6153 119.88 -0.773369
10.4921 145.405 -3.24947
8.18521 144.397 -4.34427
-21.0434 125.548 -6.08935
6.53055 138.654 5.2913
-19.6854 126.789 -6.71537
2.37801 139.847 -2.96535
10.6038 140.048 8.12371
5.08875 137.42 5.91302
-22.9743 119.678 3.5727
-20.7557 125.727 -5.82441
-23.922 121.436 -1.3402
-10.4714 133.288 -7.10386
-15.7654 121.711 9.54355
-3.23896 135.71 -1.9467
-16.8966 128.888 -6.83376
-10.3882 133.374 -7.03172
-17.5571 128.668 -7.27374
6.68288 140.898 1.22817
-23.7795 121.834 -1.55938
2.44965 136.226 5.26246
-10.8976 133.44 -7.59099
-6.85668 129.432 6.37843
-21.8045 124.575 -4.35198
-22.1967 123.393 -2.43515
3.5199 137.901 3.43847
-16.7413 129.721 -7.85732
-4.86991 135.081 -2.3778
-24.9712 120.892 -1.02038
9.81613 143.525 0.653942
2.83601 136.817 4.88007
-19.5102 126.656 -5.26588
-5.96157 134.845 -3.19766
-8.39661 134.213 -5.27923
-17.869 128.654 -6.98354
2.11942 136.166 5.38424
7.70937 139.995 5.36149
-12.8707 124.198 9.38116
-23.374 122.579 -1.91908
4.00462 141.968 -3.86205
-22.7784 119.897 4.49667
-22.2384 124.649 -4.58307
-7.39706 134.521 -4.29827
-18.6422 127.91 -6.19916
-8.84083 134.468 -6.05453
-6.27584 135.011 -3.54951
-25.3926 120.778 -0.72896
-11.1124 133.853 -7.88874
3.14567 137.505 4.47504
-8.92511 128.274 6.81589
-22.2702 124.724 -4.45343
-15.7413 130.098 -6.43794
-6.66662 135.012 -3.94266
5.87903 138.356 6.65614
-9.8424 134.324 -6.8688
15.3093 145.867 4.35714
-23.1457 123.124 -2.18435
-5.00764 130.895 7.04356
10.1008 143.957 1.07827
-23.4216 123.402 -3.02128
-22.6778 124.18 -3.53187
-12.3789 133.261 -7.97195
-17.1229 129.401 -6.51241
-1.77728 133.349 6.77515
-24.3743 121.983 -1.21188
-7.28622 135.056 -4.42448
-22.4845 120.056 5.49658
15.5606 145.571 5.80793
-0.789652 138.251 -1.82769
-1.85453 133.427 6.70566
-3.19489 132.648 6.45484
-18.5356 128.472 -6.28018
14.2356 145.882 3.42763
-24.383 120.068 3.05387
-22.6205 123.652 -1.88529
2.54892 137.297 4.98288
-25.4451 120.697 0.307688
-20.2828 127.031 -5.58535
-23.1582 124.229 -3.76816
-5.1029 135.882 -2.69211
11.4378 144.534 2.48665
7.54081 140.315 5.84219
-21.2021 125.712 -3.87868
10.0511 145.721 -1.7055
-22.2109 124.318 -2.3771
-22.9358 123.733 -2.11328
-24.2264 122.761 -1.85736
-21.8776 125.188 -3.50168
-22.4888 124.356 -2.61076
-22.838 123.476 -1.21747
-11.8681 125.85 9.20581
12.427 142.639 8.35203
-22.7568 124.213 -2.56086
14.7413 146.544 3.67461
3.1238 138.315 4.56821
11.8588 144.946 3.0285
-22.7819 124.61 -3.14018
-21.2159 125.968 -3.74603
-19.6843 121.325 8.0218
9.86487 145.073 0.0744354
7.91495 143.148 1.41001
0.129612 136.007 5.37081
-20.9846 126.089 -3.55199
2.20409 141.409 -2.78094
-6.22133 131.423 6.19985
-22.7868 123.893 -1.327
-8.91818 129.926 5.5424
3.05279 138.372 4.75479
-7.27411 130.771 6.15568
4.40773 143.443 -3.79507
3.12463 142.32 -3.25182
-4.19998 136.907 -2.25761
-25.2085 122.121 -0.832456
14.9573 146.269 5.20974
-21.7952 120.799 6.69939
-21.7525 124.898 -1.7404
-20.8813 125.919 -2.60399
-0.17197 135.985 5.4559
-23.1269 120.859 4.77117
-22.0856 120.821 6.32473
-0.874769 139.061 -1.85615
-21.6942 126.352 -4.5621
9.33566 144.12 1.96811
-20.875 126.33 -3.32284
-22.1912 125.12 -2.6094
10.054 145.746 -0.328826
7.47378 141.05 5.80367
-21.2343 125.817 -2.64417
-23.132 124.448 -2.44629
-22.7261 124.39 -1.73072
9.22879 144.031 2.2375
-22.7068 125.458 -3.84289
-26.3421 121.576 -0.87027
-20.9821 127.108 -4.8396
1.06651 137.244 4.9786
-5.26441 132.648 5.69708
-10.5882 127.938 8.02963
-22.584 124.408 -1.40166
14.893 146.342 5.51222
-12.4756 126.145 9.16808
8.67379 146.823 -4.1126
-21.3886 126.793 -4.54768
-1.00098 135.488 5.95431
-2.08002 138.517 -1.82044
-9.3973 136.181 -7.19088
-2.12234 134.643 6.18622
10.6887 146.26 0.0177452
-22.057 125.848 -3.39185
-23.4113 123.829 -1.0833
-3.66651 137.627 -2.06515
-4.54879 133.47 5.33383
-4.06329 137.577 -2.47985
-20.7903 126.563 -2.99235
-4.8069 137.49 -3.261
-22.4887 126.238 -4.62813
-18.3578 129.258 -5.09857
9.92056 147.379 -3.14286
-22.9164 126.097 -4.8556
14.659 146.614 5.17443
-7.04258 131.927 5.4238
-18.2517 122.707 8.89763
-2.74833 138.34 -1.85539
9.66807 143.045 5.76826
1.24231 141.299 -2.37404
-17.355 130.411 -5.76803
-22.7281 126.385 -4.92322
-22.4784 126.36 -4.51177
-25.6309 122.917 -1.76619
-21.4908 125.848 -2.03079
-6.36467 132.535 5.28853
-25.0746 122.703 -0.414929
-11.4849 128.032 7.62706
-0.220709 136.921 4.99953
3.58818 140.27 3.38925
8.22397 142.364 5.54065
-22.5674 125.55 -2.5886
-22.5693 125.045 -1.52241
6.64626 145.704 -3.53576
11.6362 146.78 1.22359
-9.65235 130.068 6.16669
-21.7463 125.769 -1.79801
7.5902 144.114 1.1753
-4.64008 137.987 -3.18967
-15.1186 131.994 -5.38319
-25.0312 124.029 -2.70864
8.21848 142.468 5.50563
-18.7314 122.89 8.53796
-21.7477 126.087 -2.27568
-11.7571 128.075 7.58514
-25.0039 123.205 -0.71941
-23.4498 124.47 -1.15649
-21.4525 126.391 -2.34569
-6.6194 137.564 -4.77339
-10.0671 136.685 -7.72181
-6.56018 137.617 -4.7523
-20.6659 126.78 -1.97059
-6.98731 137.471 -4.98452
-5.02725 138.14 -3.61422
-19.4592 128.796 -4.3766
-24.6682 124.457 -2.6551
-9.22665 137.151 -7.3927
-25.1325 122.989 -0.239069
-24.9212 123.208 -0.369702
-26.254 122.829 -1.34529
-1.08747 140.074 -1.91421
9.59315 145.414 1.96344
-1.84122 135.824 5.88512
-23.5232 122.467 3.607
13.4151 147.762 2.76142
-17.4777 130.759 -5.13281
-9.72205 131.075 5.05114
-5.7608 138.247 -4.27898
9.72262 147.66 -2.14446
13.8741 146.57 5.93857
-2.32109 135.655 5.95803
2.90676 139.828 4.62744
9.78452 148.078 -2.85097
10.0247 147.526 -1.33166
-11.5759 128.824 7.29882
-17.1882 124.696 8.02658
-20.4356 127.715 -2.74657
3.59056 140.938 3.41839
0.0711682 141.162 -1.94477
12.7218 147.354 2.8922
-24.3341 123.873 -0.169755
-7.9516 137.786 -6.10805
-22.6388 122.798 4.47436
-23.138 126.201 -3.24813
-3.85674 135.031 5.37734
-24.8728 123.404 0.162675
-11.7788 135.891 -7.40251
-24.9515 123.227 0.473862
-23.1283 126.195 -3.12457
-4.67061 138.697 -3.25151
-7.05799 133.294 4.70858
-24.989 123.333 0.325478
-13.8836 133.642 -5.52228
13.2953 146.275 6.30601
-24.8564 122.338 2.66928
-6.22302 134.035 4.61533
-0.690407 140.942 -1.91462
-24.138 122.749 3.05407
-10.6336 136.91 -7.31449
-10.023 130.999 5.80241
-24.3517 125.305 -2.37516
-21.0235 128.313 -3.93261
-22.9099 126.954 -3.68082
8.761 144.246 4.7127
-24.5536 123.966 0.23431
-18.132 124.366 8.40715
-11.5232 129.55 6.9299
13.7539 147.189 5.67072
-25.4655 123.935 -0.847059
-7.50976 133.371 4.67135
1.01219 139.143 4.71584
13.218 148.267 2.85618
4.00115 145.164 -3.43552
-5.9615 138.984 -4.44454
-16.4625 125.608 8.64946
-22.3312 127.948 -4.31837
-19.5435 130.213 -5.11627
-3.97228 135.706 5.26757
-28.5922 120.836 1.71974
-15.9716 125.716 9.31283
-25.1952 125.399 -2.90398
-24.6081 124.544 -0.305809
-28.0426 120.93 2.42073
-8.13692 133.251 4.69846
-2.64598 140.162 -1.94475
-21.7994 128.478 -4.41965
-25.6698 123.728 0.148973
-23.8139 125.35 -0.428525
-1.35801 137.979 4.79195
10.2288 148.788 -1.42843
-15.0097 127.227 8.04341
-9.53822 132.579 4.64644
-25.953 124.01 -0.507308
-27.7274 122.766 -0.384854
-18.1921 126.035 6.17043
-21.6158 129.184 -5.09996
-10.3946 131.59 5.67036
-20.0098 129.519 -3.42375
-21.2519 124.132 6.08419
-9.08852 133.008 4.67774
-18.8394 125.445 6.83767
-21.7046 129.535 -5.64379
-23.9525 125.625 -0.662294
8.05193 146.266 1.28664
-16.3264 126.31 8.64844
-17.6752 131.539 -4.01838
-0.187703 139.116 4.6982
6.81734 145.487 1.36248
-11.2241 137.281 -6.74512
10.2757 145.536 6.22413
-23.264 124.067 3.95632
-21.5326 129.134 -4.08708
-11.8334 136.92 -6.64666
-24.8578 123.079 3.91977
-26.5598 123.712 0.27028
-11.6869 130.866 6.25532
7.70861 146.384 1.18061
-25.9918 123.466 1.65121
-16.1299 128.038 5.97217
-10.2103 132.759 4.48255
-5.70404 136.14 3.77854
-23.7567 126.972 -2.41193
7.0052 145.895 1.3403
-20.1663 129.146 -1.88469
-6.16245 140.011 -4.78979
-28.9666 121.548 1.70063
9.89389 145.832 5.63942
-24.9235 126.36 -2.52886
9.12587 149.641 -3.2327
-21.1078 129.236 -3.1385
-22.8686 128.191 -3.38602
1.0234 143.724 -2.11787
-27.5439 122.156 2.81166
-14.9023 133.976 -3.97123
-19.1599 126.887 4.79796
8.70215 149.692 -3.56646
-20.4156 129.078 -1.49791
-25.3391 124.169 1.85392
-25.956 122.208 5.0593
-20.409 129.319 -1.92169
-24.5107 123.639 4.24157
-8.65941 139.535 -6.56657
-24.2942 124.669 2.4227
4.13532 146.534 -3.17564
-22.8076 129.039 -4.47181
-5.32425 140.745 -4.29121
-25.258 124.673 1.25625
-19.6045 126.995 4.34702
-17.6834 132.116 -3.58628
11.2524 146.988 6.13683
11.1464 147.013 6.03082
-18.0341 131.555 -2.63931
2.98139 142.534 4.25997
-20.9453 125.791 5.63566
-12.9409 130.83 6.37164
-24.322 125.349 1.84477
-25.255 125.642 0.136752
9.85305 147.791 3.26279
-22.8558 129.25 -3.95247
-8.65927 135.216 3.5582
-21.3575 125.938 5.14006
-20.0431 130.303 -2.07251
-24.8348 124.429 3.42952
-26.8982 122.226 5.15152
-25.86 125.002 0.848398
-0.967686 143.125 -1.91435
-23.2949 129.771 -5.40705
-19.9921 130.474 -2.24656
-8.52181 140.141 -6.26408
-21.5407 126.346 4.16685
-23.0945 129.554 -4.65255
-22.2605 126.113 3.66049
-2.3076 139.072 4.68596
-21.4377 125.913 5.26383
-27.423 122.219 4.65024
-27.4628 122.113 4.86426
-28.6504 122.28 2.86238
-11.0685 133.77 3.64231
-13.8973 130.374 6.79972
11.2688 149.821 1.63801
-11.5254 133.356 3.94889
-21.7593 131.27 -6.01108
-19.6276 131.722 -3.94309
10.3433 147.694 4.82374
8.05191 150.15 -3.37754
-29.4261 122.468 1.66875
-18.2455 132.04 -2.55155
-3.06122 138.861 4.68526
-24.869 124.8 3.38567
-18.2222 132.564 -3.37509
12.3981 149.333 4.62986
-8.51811 136.022 3.06056
-27.4676 123.673 2.21096
10.0748 149.1 2.02465
-12.8023 131.788 5.99671
1.89173 142.673 4.05056
9.99666 149.958 0.277967
10.1619 149.184 2.13618
-29.6238 122.064 2.80226
-0.86422 143.721 -1.89849
-12.0062 132.584 5.6958
-12.9412 132.362 4.91833
-8.02254 136.705 2.81848
-11.853 133.514 4.10995
-13.3509 131.781 5.6737
-21.6694 131.612 -5.58434
-25.7905 123.958 4.62179
7.97019 148.285 1.34533
-20.9391 132.04 -5.35255
-24.4869 128.429 -2.76185
-18.3728 132.229 -2.08823
-29.4052 123.283 1.08821
-16.8707 133.556 -2.67152
-0.23834 144.47 -1.95732
-25.9649 124.895 2.72966
-15.1636 130.103 7.06417
-27.3623 126.573 -2.63165
-5.39048 138.18 4.09663
-15.5164 130.239 6.45146
-10.5196 135.179 3.2036
0.339042 142.015 4.20169
-23.484 125.946 4.32528
-9.92481 135.7 3.0917
-17.8867 132.936 -2.28559
-24.6025 125.687 3.41132
-10.1627 140.054 -6.1771
-21.0329 132.308 -5.2387
-27.2774 123.321 4.756
5.76516 146.981 1.859
3.20704 147.601 -2.89036
-19.6971 131.553 -1.5318
-24.1334 125.333 5.18207
-3.54879 139.531 4.55274
3.92566 145 3.65756
9.34847 149.659 1.57403
-6.20515 138.339 3.33598
-15.9123 134.919 -3.1123
-2.36002 143.534 -2.03916
-19.2864 133.062 -3.86448
-29.3607 124.252 0.366693
5.46264 146.848 2.28171
-28.6517 123.434 3.17987
-3.52565 139.757 4.47552
5.77764 149.588 -2.90063
-17.1613 133.803 -2.21179
9.63553 150.596 0.43446
-26.9545 128.051 -3.90117
-21.2005 127.365 5.57626
-2.68859 143.631 -2.19455
-18.0022 133.651 -2.84927
-27.7005 123.485 4.69251
-26.9831 123.947 4.80522
-28.8656 123.821 2.49317
-18.6567 132.645 -1.53154
-18.2428 129.622 5.39589
-7.10296 138.361 2.84037
-17.9001 129.816 5.47735
-17.6796 129.965 5.49997
-18.3815 133.684 -3.13377
-19.0394 129.383 4.86679
-19.4367 129.288 4.60206
-14.4277 136.986 -4.32714
-13.5659 132.901 5.35203
-23.2525 127 4.0638
3.79298 145.296 3.90758
-23.6173 126.816 3.98774
-12.9141 133.755 4.59666
-9.22222 141.195 -5.63775
-3.72889 143.571 -2.76393
-19.8185 128.923 5.16515
-22.732 127.263 4.5429
-30.0679 123.026 3.10336
10.8374 151.083 2.23821
-22.4039 131.762 -4.09357
-18.6263 129.901 5.09644
-20.8173 132.985 -4.29471
-28.8972 123.28 4.56361
-6.69354 143.118 -5.54567
-12.553 134.762 3.63377
-18.0242 133.331 -1.01745
-17.0982 130.742 5.65867
-25.2063 129.54 -3.04921
-21.5505 127.628 6.0409
-18.0837 134.397 -3.09826
-27.2368 128.445 -3.51978
9.38186 151.288 0.26817
9.54835 151.369 0.413426
2.7033 148.261 -2.68176
-29.1393 125.743 -0.468941
-24.4371 130.099 -2.83334
-21.6371 127.737 6.03109
10.5334 151.038 2.65752
2.30926 144.795 4.11913
4.04758 145.933 4.22787
-24.7541 129.951 -2.80185
-9.56735 141.511 -5.43786
2.66857 145.124 4.19482
4.62237 146.749 3.64423
-4.83314 144.077 -3.96882
-29.8257 124.191 2.39136
-21.8944 133.178 -5.12184
-15.2324 132.26 6.13944
-20.2884 128.604 6.65695
-4.55633 140.548 3.87435
-28.7583 123.812 4.77122
7.3494 151.786 -2.74954
5.53646 150.586 -2.73066
-16.7532 135.554 -2.66667
2.22831 148.276 -2.52273
4.94278 150.196 -2.64683
-20.199 134.076 -4.30481
3.21863 149.075 -2.66632
-1.50581 142.725 4.12977
8.77695 151.007 1.43226
-9.45184 141.954 -5.2352
-28.2348 127.607 -1.65511
-2.58874 142.144 4.05773
-12.3632 140.227 -5.55784
-3.95879 144.747 -3.02378
-18.4166 135.063 -3.01273
3.57695 146.197 4.635
-5.35667 140.823 3.53323
-8.66231 138.689 3.41435
-19.6906 135.163 -4.65735
-19.0137 135.233 -3.74743
9.93403 152.164 1.74186
-19.9918 129.897 6.1695
-2.23028 143.032 3.92167
-12.6538 136.306 3.46692
-13.6599 135.097 4.72811
3.1421 146.374 4.87058
-13.1322 136.094 3.46627
-23.6463 128.383 4.79107
-11.9604 137.056 3.13641
-15.7359 138.134 -4.37046
-23.234 128.288 5.72028
-6.31578 140.753 3.59726
8.73221 153.173 -0.915239
9.34536 153.305 -0.213973
-24.2154 127.945 5.50194
6.61804 150.414 2.05936
4.68926 151.362 -2.52106
-15.7815 133.334 6.27634
-24.6047 127.915 5.37121
-9.4726 143.297 -5.37906
-7.62468 139.991 4.20446
1.14797 148.983 -2.14141
-24.6912 131.687 -2.30862
-26.4719 126.849 5.26447
-18.09 132.11 6.10841
-14.1287 140.117 -4.91011
-25.048 131.397 -1.91029
6.44294 150.541 2.4454
-2.38314 146.911 -2.18822
-15.6621 134.171 5.82424
-15.0822 139.757 -4.94112
-27.3314 129.597 -0.914557
-5.49064 141.82 4.26084
-26.259 127.339 5.29064
-2.68182 146.985 -2.33832
-22.0316 129.432 7.06085
-14.2866 135.539 5.24794
-27.2029 129.836 -0.849031
-6.71424 141.199 4.26473
1.28804 149.704 -2.18853
-25.6312 131.165 -1.34931
-14.3771 135.646 5.29874
-23.0856 129.345 6.26653
-4.86092 146.539 -3.89265
-0.544803 145.356 4.59138
-27.8076 126.883 4.84359
-20.3871 131.415 5.94186
-19.8414 132.113 5.46978
-3.02734 143.662 5.09425
7.55817 153.834 -1.0792
-25.2664 129.224 4.10929
-6.34994 146.381 -4.9709
-14.4553 135.983 5.40365
-1.54886 148.299 -2.08819
-4.80719 142.705 5.02087
-15.5683 139.294 -2.84575
-10.0594 139.981 3.52075
-0.0652024 149.374 -1.98091
-9.82464 140.018 3.85055
8.27304 153.001 2.2825
-17.7131 137.798 -2.47486
-10.2084 144.269 -5.37094
9.2352 154.229 1.19702
-12.956 142.095 -4.58045
-16.2261 138.606 -1.88743
-27.0382 128.051 4.91434
-8.06316 140.788 5.0478
-25.6195 132.134 -1.52063
-29.0495 127.633 3.06781
-17.4601 133.693 6.70334
-4.60163 147.284 -3.50378
-15.4766 139.383 -2.2481
8.99937 154.116 1.46245
-27.3736 130.197 0.27706
-5.13211 142.819 5.49031
-24.3674 131.159 3.11069
4.22353 152.955 -2.05793
-23.8393 130.534 5.67834
-15.5176 139.843 -1.88239
-25.9584 130.278 3.53114
-16.6501 139.356 -2.27792
-6.86634 147.325 -5.11825
1.68049 151.639 -2.10296
-17.4433 139.11 -2.81405
-12.5429 139.781 2.69447
-26.37 132.165 -0.803405
-20.7278 137.217 -3.22073
-26.7081 129.706 4.03703
-7.22712 147.312 -5.15934
-15.623 140.229 -1.95259
-23.4847 131.654 4.92383
-15.2818 137.19 4.92956
-14.3311 142.28 -4.19952
-5.68477 148.118 -4.19138
7.49261 154.766 0.474699
-24.566 132.046 2.91356
-16.1454 140.097 -1.83943
-13.1559 139.532 3.51217
-9.74509 141.536 4.23197
-23.3397 132.933 3.0944
-8.43669 142.098 4.93823
-10.2401 141.308 4.18676
-7.96741 142.402 5.24428
-22.7414 133.134 3.89681
-8.05415 147.441 -5.22642
-22.6557 132.887 4.60702
-8.15957 147.501 -5.22208
-20.2858 134.503 4.92632
-22.2789 133.415 4.63189
7.14173 155.065 0.885521
-10.8806 145.892 -5.18808
-18.8688 134.774 6.74322
-6.54081 143.257 6.46191
2.77781 153.61 -1.90617
-14.2731 139.074 4.43933
-15.1957 142.493 -3.89784
-13.3259 144.13 -4.37478
-26.0666 133.913 -0.386628
-0.754436 151.845 -2.16178
-27.7559 130.905 3.54997
-3.87497 150.045 -2.64686
-10.3196 143.033 2.92928
-28.4616 131.172 2.36931
-11.8163 142.137 2.91999
-11.7243 142.244 2.91264
-28.2001 132.315 0.792048
-11.9333 142.425 2.58289
-24.458 135.633 -0.814654
-21.1888 135.257 4.54634
-17.2247 140.96 -1.66783
-16.9212 141.083 -1.49587
-16.2331 141.384 -1.1126
-28.3884 131.528 2.37058
-14.4623 139.863 4.61587
-15.0127 142.976 -2.54872
-18.8388 135.964 6.65933
-28.1382 132.337 1.22001
-12.8006 145.446 -4.43556
-21.5042 138.269 -1.69625
-16.4498 141.43 -1.12563
-16.5473 141.422 -1.16601
-24.3692 134.12 3.16599
-16.3398 141.745 -1.13419
-13.8399 144.545 -3.41401
-14.7497 143.878 -3.28261
-26.0289 133.599 2.30474
-8.36375 144.801 3.76159
-12.6739 142.199 3.3542
-25.4838 134.028 2.49669
-9.22469 144.788 2.9619
-2.91361 151.71 -2.43092
-27.916 132.637 2.20477
-15.1634 143.191 -1.78655
-26.4088 134.705 0.382451
-21.981 135.806 4.29128
-22.3005 138.238 -1.09437
-27.173 133.333 2.46677
-5.76568 150.808 -3.48464
-23.3848 137.793 -1.07595
-15.9384 139.556 5.74489
-26.7334 134.198 2.1054
-17.0248 142.379 -1.12208
-19.8394 136.734 6.65307
-4.91488 151.424 -2.80589
-8.30259 149.951 -4.44251
-10.5563 145.216 2.29297
-8.61053 149.849 -4.41532
-11.9903 143.696 3.72139
-10.9492 144.86 2.79395
-8.39624 150.062 -4.34648
-16.3106 139.502 6.57454
-16.9916 139.026 6.62148
-20.853 140.329 -1.31089
-15.6863 140.66 5.24764
-5.61211 151.519 -3.11232
-23.0833 136.416 4.16856
-22.8279 136.572 4.22129
-14.3819 145.732 -2.92634
-14.2204 146.047 -3.03087
-22.0891 139.832 -0.673077
-17.9587 139.191 6.52256
-9.01268 147.27 2.39425
-16.2374 140.722 6.00166
-13.5641 143.251 4.57836
-20.4627 137.607 6.71109
-14.5102 145.614 -1.5435
-9.60443 150.159 -3.93211
-4.42304 152.993 -2.43533
-22.3545 139.95 -0.167877
-9.87224 150.293 -3.77072
-14.5365 145.924 -0.70637
-12.4852 148.614 -3.3722
-14.6507 145.93 -0.569017
-17.2128 140.774 6.68614
-14.5859 143.441 4.88911
-14.5295 146.355 -0.960754
-5.77076 153.012 -2.26648
-11.3024 149.901 -3.52264
-17.7581 144.357 -0.964705
-11.857 146.421 3.20649
-10.112 147.789 2.87622
-26.3236 137.273 2.29936
-20.4275 142.699 -0.673458
-14.5033 147.336 -1.94886
-7.66575 152.171 -2.40293
-16.7615 141.939 6.33617
-16.3424 142.501 5.83025
-15.0588 146.304 -0.15465
-5.57038 153.542 -1.72505
-14.2776 147.896 -2.02512
-4.17186 154.549 -1.65428
-8.4835 151.986 -2.09821
-23.4134 140.578 0.768129
-5.38686 153.857 -1.53427
-23.9567 138.939 4.80784
-21.187 143.119 0.21042
-13.9946 146.153 4.76743
-5.36138 154.655 -0.761058
-9.61533 150.335 2.287
-9.92637 152.021 -1.60316
-9.88378 152.098 -1.51254
-22.9639 140.34 5.01901
-18.8753 145.443 0.250463
-6.53287 154.278 -0.371528
-6.29298 154.477 -0.319185
-23.0711 141.918 2.45368
-19.5352 142.433 6.35115
-23.3853 141.539 2.85707
-14.4914 149.174 -0.502866
-8.74628 152.079 1.70103
-23.0893 141.903 2.81782
-22.6959 142.371 2.83149
-9.96698 152.702 -0.712203
-14.3935 149.481 -0.0300839
-9.68796 152.916 -0.396055
-22.3942 142.236 4.37032
-12.061 151.486 -0.196533
-12.6813 151.168 -0.353537
-19.0758 146.324 1.16868
-14.8717 149.602 0.720249
-21.954 143.321 3.93639
-14.8002 147.95 4.54962
-21.4795 143.895 3.75402
-20.9082 144.65 3.33822
-12.9566 150.77 1.77746
-13.295 150.266 2.44541
-20.2874 144.334 5.10043
-13.8525 149.467 3.57566
-13.5227 149.937 3.10757
-15.2406 149.607 2.27955
-18.5525 146.001 5.15852
-16.4913 147.988 4.08403
