ply
format ascii 1.0
comment Created by Open3D
element vertex 1959
property double x
property double y
property double z
end_header
-3.89271 111.406 -12.5169
-0.853626 99.1427 -13.3456
-6.61487 82.72 9.41894
-12.405 105.905 11.3909
-17.8284 142.635 5.31411
-8.43418 126.836 -9.28182
-5.73987 116.091 -10.151
1.99174 82.0596 -11.0561
-4.80517 113.81 -11.1716
-7.16678 85.655 9.49377
-15.0695 123.094 9.04624
-14.7911 122.418 8.73527
-11.3047 101.913 11.0476
-6.94399 119.976 -9.14161
-13.5729 117.906 8.17156
-9.31264 130.409 -8.80786
-11.5916 137.625 -7.02927
-17.9464 140.288 7.12272
-12.7691 108.35 11.4334
-14.305 122.173 7.94356
-11.322 137.244 -7.27636
-12.0656 114.307 6.72877
-9.35555 131.963 -9.19656
-5.67586 116.6 -10.0281
-12.7265 121.91 4.40174
-12.6317 111.259 9.81
-12.0514 114.344 6.77839
-13.4938 121.862 6.33804
-12.582 117.849 6.25045
-11.6327 103.747 11.4114
1.12532 89.4669 -12.1342
-11.6607 103.955 11.4649
-14.7614 143.837 -1.99801
-17.6778 141.616 6.36146
3.10434 77.5344 -10.56
-15.8816 144.377 0.661539
-12.4918 121.311 4.59874
-5.35304 116.299 -10.1712
-5.14627 115.791 -10.386
-12.876 121.279 5.60963
-5.68583 81.8947 8.89524
-13.2639 121.575 6.48318
-7.3467 122.838 -8.58428
-12.4412 121.447 4.63685
-9.62266 134.41 -9.09494
0.729113 92.6701 -12.3275
-2.3056 108.64 -13.2953
-16.6716 133.372 8.81851
-12.3563 111.52 9.8543
-13.2078 123.905 5.43473
-11.2603 138.452 -6.94076
-4.15129 78.2773 7.55407
-5.79314 82.5543 9.33985
-11.0272 137.913 -7.07714
-12.8144 121.05 6.20751
-17.2534 137.014 8.62767
3.02996 79.8895 -10.7712
-10.7788 101.938 11.3553
-2.42503 109.896 -13.1587
-17.2811 138.141 8.23763
-8.38758 94.8772 9.37071
-3.28941 112.717 -12.4735
-17.2146 137.501 8.49944
-13.3434 123.588 6.41182
-13.3255 123.359 6.52022
-12.1361 119.502 5.68807
1.03749 92.8061 -12.3277
-10.883 138.142 -7.07665
-12.641 120.771 6.50922
-12.9964 123.284 6.14769
-13.2819 118.031 9.64673
-9.83735 136.72 -8.59178
-6.42362 85.4799 10.1398
-15.0408 127.298 9.30833
-9.547 136.21 -8.75213
-12.2116 120.152 6.3168
-9.91493 100.043 11.3559
-10.9426 139.46 -6.8958
-8.01859 128.722 -8.34658
1.40903 92.6796 -12.2652
-12.2389 112.333 10.7911
-13.1394 123.654 7.03191
-10.4157 138.155 -7.20574
-15.7971 145.56 2.03692
-1.73623 109.222 -13.1293
-13.1015 121.672 8.10711
-15.7814 132.386 9.06147
-12.7696 120.709 7.8829
-12.4471 113.123 11.1073
-4.0795 80.038 8.14163
-12.4333 123.031 5.93084
3.29492 82.2078 -10.9139
-16.863 140.004 7.89662
-9.40784 137.03 -8.64313
-10.7005 139.723 -6.89722
-6.21474 86.3123 10.3683
3.60158 80.9597 -10.7925
-12.7802 117.19 10.1264
-12.8896 117.359 10.3179
-13.9658 125.002 8.92697
0.799814 98.6015 -13.1251
-4.12465 80.6205 8.43166
-6.22073 122.327 -8.45941
-13.0695 124.751 7.09146
2.88313 86.5929 -11.5993
-0.929643 107.18 -13.1195
-12.9896 125.291 6.79338
-9.11602 136.632 -8.65429
-3.47343 79.1866 7.9152
-15.5087 132.614 9.11655
-14.5808 145.092 0.288926
-14.1145 127.621 8.37901
4.84162 74.691 -9.97137
0.310792 102.21 -13.3943
-16.3773 137.14 8.9644
-14.2518 126.514 9.4102
0.278429 102.663 -13.3962
-11.1366 107.413 12.0152
-8.42715 134.584 -8.86981
-11.6842 109.812 12.1779
1.32716 97.1985 -12.9547
-15.1494 145.997 1.54817
-4.18198 81.6923 8.73973
-13.4317 125.877 8.03077
-1.20492 109.142 -13
3.02927 87.1663 -11.6926
-4.21972 117.721 -10.079
-3.89101 80.9134 8.65294
-14.3173 127.499 9.61882
-12.7203 125.231 6.9327
-5.45284 85.5308 10.1542
-16.2168 138.319 8.66943
-8.86712 137.076 -8.58451
-10.248 104.79 11.873
-12.341 124.518 6.64738
-5.88795 87.0864 10.6834
-14.8464 131.608 9.11139
0.863526 101.1 -13.1089
-6.22027 124.653 -8.20555
1.8191 96.4437 -12.8001
-10.1529 105.117 11.9051
-9.81753 139.587 -7.0551
-11.2976 109.621 12.4002
2.34455 94.2063 -12.7829
-14.2583 128.819 9.65535
-10.6077 141.658 -6.00899
2.19334 95.3815 -12.7406
-2.81247 116.376 -11.568
3.64549 86.6838 -11.559
-5.6505 87.8896 10.5796
-6.30982 91.8407 10.2954
-3.66908 118.932 -10.1636
2.16627 96.8903 -12.717
-10.4545 107.88 12.3992
-4.80482 85.881 10.3029
-6.06952 91.5634 10.483
-12.4821 146.479 -2.79842
-7.97895 136.432 -8.4837
-10.0989 141.98 -6.16971
-7.571 97.6579 11.0667
4.15466 85.5944 -11.139
-0.535831 110.124 -12.6207
-15.6201 144.175 6.29493
-6.73287 94.984 10.5947
-2.84111 80.5146 8.75957
-5.08722 86.9985 10.9083
-10.9835 111.69 12.3233
-15.6675 143.006 7.24658
-14.7184 146.739 3.02927
-15.104 136.253 9.51121
3.67293 89.9772 -11.9308
-10.6513 143.787 -5.28557
-13.7102 130.355 9.49487
0.551748 107.427 -13.1023
-11.7715 127.841 6.24636
-11.744 119.303 10.8494
-5.92939 129.088 -8.49458
4.54489 85.3333 -10.9492
-14.0309 147.153 1.96566
-8.54153 103.02 11.9711
3.10389 95.7158 -12.62
-13.4671 130.527 9.49307
-10.9591 146.268 -4.93151
-5.1362 124.761 -7.80314
-12.7181 146.979 -0.999166
-0.4535 111.905 -12.3694
-11.0821 124.8 6.82403
-0.0862694 110.593 -12.4924
6.42945 75.0864 -9.60615
5.13582 83.1993 -10.615
-3.15684 83.3364 9.61942
-8.89252 105.118 12.2653
-2.65811 119.563 -10.5415
0.0262741 110.899 -12.4546
-10.8415 146.887 -4.83831
-11.4154 118.584 11.6151
-8.9022 105.668 12.305
-1.3964 116.816 -11.8588
-0.119743 111.945 -12.3042
-6.26173 95.9318 11.2009
3.57905 95.6735 -12.6067
-2.32062 81.5158 9.29011
2.69278 99.7096 -12.5554
-0.380605 75.2721 8.0267
-6.87138 98.438 11.6755
-14.7495 144.474 6.71926
-4.58477 89.2344 11.1598
-2.30822 82.0549 9.4289
-3.54162 85.5113 10.6181
-14.7046 141.816 8.16546
-14.3993 145.833 5.34062
-13.3668 147.731 1.8586
-13.3625 147.777 1.92075
-13.519 133.836 9.81129
-2.93551 121.97 -9.67686
-4.26314 125.416 -8.1488
0.112785 75.6431 7.55754
-12.2744 148.363 -0.494809
-11.7696 130.211 8.00853
-6.41203 134.272 -7.20515
-13.2465 134.083 9.63924
-11.7337 148.916 -1.88804
4.76209 91.5894 -11.8972
-2.64235 121.964 -9.83853
-2.49227 83.8052 9.98964
-7.99709 141.496 -7.0203
6.56743 79.4215 -9.81431
-4.86249 128.521 -7.77171
-13.7954 147.307 4.16773
-10.0435 147.636 -5.14565
-5.1494 129.715 -7.57876
2.52637 104.079 -12.7829
2.29757 105.586 -12.9813
5.00567 91.3937 -11.8378
4.52202 94.9951 -12.5185
5.34927 88.9904 -11.3528
-9.96915 114.569 12.6118
-6.83744 101.854 11.6767
2.86594 103.057 -12.6055
-1.57184 120.322 -10.792
-4.50431 91.2719 11.7645
0.269591 114.393 -12.0481
-11.492 149.55 -1.79998
7.66355 74.7428 -9.07206
-6.23882 135.941 -7.22123
-11.5195 149.71 -1.46294
0.145373 78.8297 7.46633
-13.8786 142.487 8.15686
-8.48529 144.754 -6.17736
-9.7444 125.682 7.14135
-12.1284 149.44 0.499708
-10.2638 123.526 9.62736
-4.90229 130.191 -6.96657
-2.79232 85.9849 11.231
-10.5342 129.093 7.45656
-12.4207 149.078 1.5207
1.14213 75.7616 7.13534
-1.31004 82.3338 9.70796
-13.5857 141.084 8.72644
-7.84047 143.524 -6.56461
-13.6197 141.402 8.68804
-9.202 113.384 12.8973
-6.26525 137.297 -6.86543
-5.88335 135.742 -6.95648
2.33978 108.932 -12.8877
-4.1585 91.7218 12.081
-4.79281 130.604 -6.88645
1.82903 110.654 -12.5233
-8.34417 145.701 -6.12324
0.586022 114.818 -11.5732
6.25079 87.4382 -10.8176
-6.24178 137.726 -6.83151
-9.1701 113.732 13.0031
-1.05808 121.267 -10.7397
-7.00784 104.996 12.4899
8.02837 76.042 -8.92554
3.13493 106.876 -13.1728
3.78969 102.271 -12.3371
-10.0122 119.277 12.4153
2.62177 108.905 -12.9068
7.51918 80.0986 -9.56129
-8.95934 113.473 13.0924
0.702993 115.231 -11.4219
6.29217 88.7079 -10.9663
-3.1891 89.3526 11.8628
6.99121 84.0032 -10.1386
-10.3457 150.155 -2.67331
-2.45756 126.058 -8.98883
7.53468 82.1175 -10.0152
-13.0206 143.337 7.89229
-12.9024 145.073 6.72297
6.65848 87.7281 -10.7604
-5.94534 103.086 11.968
-7.37109 107.531 13.1199
-0.746707 82.8948 10.1111
-12.5691 140.648 8.52708
-9.32301 118.137 12.4889
8.27943 77.0777 -8.81303
-2.09294 87.4165 11.075
-6.42729 141.291 -6.78053
3.83437 105.697 -12.9961
-6.45205 141.676 -6.65373
-2.68608 89.4458 11.8403
-11.397 150.098 1.29699
2.77138 110.504 -12.3938
2.54904 111.274 -12.1784
8.80624 75.4645 -8.55986
7.71498 83.3258 -9.93722
-7.29998 108.554 13.4494
2.00195 113.189 -11.6613
-12.1251 141.696 7.92713
-2.50384 89.6419 11.9728
-5.34595 137.73 -6.47386
3.19886 109.759 -12.5453
1.61899 78.8796 7.64321
-3.77017 131.684 -7.05058
-5.06203 101.743 11.9691
4.69102 102.991 -12.5156
2.6233 76.1595 6.85876
-11.2745 136.192 9.13479
-11.7845 139.956 8.43097
1.79768 114.096 -11.0456
4.66516 104.632 -13.0396
-11.6335 140.989 7.80918
7.5457 87.0997 -10.5693
1.31938 116.158 -10.5746
7.62829 86.9254 -10.548
-11.6556 145.13 5.84103
-3.97117 96.8343 12.5709
7.74704 86.2152 -10.4512
-3.72356 96.1044 12.4296
-9.71114 131.179 8.57603
-12.0293 143.165 7.92116
1.61317 79.6406 8.17668
-9.12552 121.678 12.248
-9.80207 132.659 8.12959
0.0343791 121.784 -10.1593
0.476621 82.195 9.78649
-8.85799 128.66 8.16829
0.967942 118.455 -10.4361
2.14672 78.7898 7.63264
-7.49777 111.625 13.9614
-4.64464 102.472 11.8836
-4.89521 103.422 12.047
-8.42568 118.667 12.6261
-9.35892 130.91 8.48496
-11.4944 142.453 7.64382
7.53634 89.3295 -10.7182
-10.9503 140.006 7.76192
0.954109 81.6917 9.47327
-8.40171 119.3 12.6119
7.51618 90.3294 -10.9728
-8.26795 150.14 -3.98258
-11.2863 142.476 7.52031
-6.20287 107.865 13.4008
-3.17089 95.7173 12.5383
-0.987759 125.45 -8.44909
9.46135 76.7129 -8.23477
-6.13301 108.013 13.4461
3.40489 75.9518 7.073
7.52514 92.2755 -11.5522
9.82823 74.6872 -7.80594
-8.80302 125.579 10.8584
-10.858 148.858 3.66832
9.81032 75.0469 -7.85551
-2.02722 129.956 -7.89868
-7.26887 112.681 14.038
3.40948 111.302 -11.3036
-1.66272 128.912 -8.14636
7.8002 90.5074 -10.8862
1.34336 81.8056 9.49657
-5.03785 105.43 12.6535
-4.03507 102.55 12.0389
-9.8969 139.792 6.72966
-5.61658 143.691 -5.73351
-7.30651 149.308 -4.53343
-9.27435 136.301 7.1845
9.901 76.1753 -7.90551
-8.22249 121.25 12.6398
-4.55861 139.124 -5.74471
-10.159 143.8 5.47513
-9.75192 139.759 6.61385
-3.67388 134.601 -5.5107
1.43161 119.715 -10.0917
-8.89432 151.533 -1.58221
-8.73783 132.127 8.37957
-2.75365 96.0666 12.8141
1.53541 119.463 -9.98619
-1.89757 130.819 -7.52227
-8.3701 128.139 9.72174
3.98943 110.79 -11.2293
2.9855 113.65 -10.2475
-9.75107 142.481 5.71555
-6.83007 113.373 14.0069
1.98918 117.461 -9.58446
0.312204 86.6506 10.7923
-8.24463 130.776 8.49391
-1.89612 93.3273 12.7625
-6.80739 149.062 -4.63569
8.2108 91.7612 -11.0483
2.70823 80.1506 8.67261
8.35038 91.4631 -10.9019
8.19198 93.1813 -11.3777
-3.72945 103.759 12.2642
-0.689725 127.668 -7.78792
-6.69269 114.401 13.9404
8.17899 94.0486 -11.5781
-7.395 151.104 -3.58376
-6.83951 115.869 13.7184
-8.72159 152.188 -0.833354
-7.38778 119.651 13.1012
4.17661 77.6964 6.99599
-8.96496 142.347 5.15869
6.11228 105.796 -12.3306
6.18349 105.588 -12.3877
-9.22456 143.884 5.0813
-7.72497 127.242 10.2084
3.45338 79.4273 8.17037
0.88481 86.5813 10.6794
10.3443 78.5476 -8.10405
-6.66009 149.942 -4.17139
9.33094 87.5287 -10.288
8.42462 94.2538 -11.5484
-0.145116 89.0062 12.191
1.74301 84.2803 10.1917
-3.44038 104.157 12.388
-9.27879 146.102 4.5408
2.59652 81.7989 9.50585
0.112304 126.36 -7.80043
-6.82875 150.895 -3.77756
-7.35596 151.67 -2.85813
-3.10649 135.994 -4.9179
8.0995 97.8515 -12.1461
-8.3372 140.567 5.53123
2.2572 119.748 -9.34904
-8.48652 152.718 -0.425844
-5.16297 110.127 13.9487
2.133 120.559 -9.30826
9.11216 90.6457 -10.5195
9.75919 87.143 -10.0826
-5.96779 114.423 13.9674
-3.60664 105.783 12.8001
-7.55821 133.637 7.78492
6.99439 104.97 -12.5671
-0.684364 130.464 -7.25053
0.983156 124.978 -8.38927
10.6839 80.3469 -8.42869
-8.55192 152.533 0.508647
-8.25323 143.16 4.74155
-7.86149 138.244 6.40929
-1.76534 96.9912 13.3339
4.24951 79.2068 8.02807
-8.50835 152.173 0.702896
-7.13178 130.259 8.95885
3.36231 116.716 -9.31243
-6.68656 120.916 13.0504
2.58373 84.0432 9.8741
3.44364 116.551 -9.35865
-0.564111 130.857 -7.1042
5.88378 108.838 -11.0544
-1.88254 98.7017 13.3346
1.75834 123.32 -8.54015
-7.56723 137.634 6.69546
-3.23453 139.559 -4.77543
5.30586 110.891 -10.4548
7.844 103.28 -12.6071
-4.96354 111.927 14.1315
-2.86133 104.927 12.7348
-5.13263 112.943 14.0955
4.65191 79.3066 7.98857
-0.315009 93.3389 12.8612
9.08007 97.1957 -12.0997
-4.7576 111.622 14.1453
4.06477 115.806 -9.56904
-4.81481 147.183 -4.38373
4.82725 113.214 -9.97918
-6.64209 130.805 8.76174
-8.16679 151.538 1.54242
1.87654 123.815 -8.31427
-0.313335 93.6839 12.9779
5.45577 78.0347 7.21966
-4.63716 111.794 14.1434
4.05452 81.5707 8.94823
2.01194 86.9852 11.0956
-1.29963 97.882 13.4755
-3.81443 143.562 -4.49044
-7.52239 143.146 4.95134
5.70751 77.737 7.19168
0.940917 127.437 -7.21882
-6.78703 125.516 12.706
10.1769 90.9272 -10.4368
-4.93611 148.725 -3.98145
-5.29117 116.85 13.8227
6.32005 75.516 7.32552
-4.30531 111.793 14.1517
-6.68341 126.208 12.3714
6.62529 109.45 -11.2409
5.85963 111.668 -10.5044
-7.1077 140.7 5.89537
6.24092 110.974 -10.9474
7.23683 107.681 -11.6377
1.68669 88.0928 12.2763
1.3847 126.821 -7.36268
5.93054 111.902 -10.4881
8.60609 103.708 -12.6484
-7.59692 151.628 1.65019
-7.52658 147.639 3.59781
0.682445 129.03 -6.60877
5.51713 113.072 -9.98422
-6.16334 134.169 7.51965
-3.8502 111.19 14.1801
9.47309 100.187 -12.4176
-7.36232 149.864 2.55635
6.54268 76.639 7.25372
6.48064 111.483 -10.9925
-0.7536 98.4521 13.576
2.12814 125.456 -7.63616
-6.08643 137.033 6.3351
7.38184 108.78 -11.6565
8.39337 105.821 -12.3915
-6.71003 141.029 5.93418
11.0639 89.0298 -9.93274
-4.32363 148.491 -3.72257
1.19073 128.441 -6.55084
-5.91711 134.756 7.54669
-6.72682 143.04 5.1647
7.88476 107.722 -11.8719
9.35142 101.959 -12.2645
-7.15299 154.002 0.593664
-3.97961 147.745 -3.79223
-6.79613 154.159 -0.267364
-5.76138 134.618 7.61957
-5.51583 133.857 7.42532
12.7603 75.5576 -6.43057
12.5429 77.7879 -7.07654
0.151738 96.1054 13.5968
2.26558 125.993 -7.31342
0.974722 130.215 -6.28755
0.379211 95.7839 13.5658
10.1825 99.2694 -12.1769
-3.13388 111.693 14.1253
-2.94642 144.903 -3.84841
-5.52216 124.531 13.2739
-0.174609 99.2846 13.6567
0.615249 95.9209 13.6012
3.53091 122.572 -7.59009
3.08514 124.361 -7.32378
-0.155506 99.6486 13.6575
-5.5463 136.292 7.51904
1.37602 93.6286 13.2108
12.9492 78.9294 -7.21871
4.47785 85.2646 10.145
-6.19121 146.81 3.73631
0.989195 131.703 -5.83028
2.67532 126.193 -6.99352
7.82161 75.2696 7.32284
-1.61172 140.731 -4.10258
-0.980631 137.942 -4.16982
1.56251 129.781 -6.05276
-2.36268 109.663 14.2317
12.4896 84.0389 -8.49082
4.0223 121.615 -7.63947
-5.41768 136.032 7.82657
-0.210922 135.663 -4.69387
11.7533 90.0713 -9.8275
1.21003 94.7769 13.4764
0.0369461 100.673 13.4861
5.86146 82.7158 8.84868
1.32887 131.491 -5.72041
-5.17754 128.343 11.9117
6.82813 79.9195 8.19609
2.50088 127.673 -6.36024
11.0829 96.7657 -10.8312
1.52207 94.9692 13.5248
-4.95632 135.576 8.02591
-5.36258 143.411 4.91638
-2.04042 111.227 14.1056
-4.7962 138.27 6.59138
-4.45182 123.873 13.4031
-1.85151 110.419 14.214
8.26226 111.972 -11.3005
11.5384 94.8644 -10.2598
-3.2267 149.726 -3.07617
-4.82405 130.631 10.9198
6.46604 82.6991 8.77367
12.033 92.3464 -9.87254
12.667 88.0636 -9.0903
-2.49242 114.452 14.079
11.3357 98.653 -11.3478
-4.70768 130.195 11.3496
-4.63355 136.007 8.13978
-3.42506 119.555 13.9325
-0.266872 105.746 13.6608
13.0714 86.124 -8.55643
-4.29157 154.107 -1.94571
13.7233 81.2639 -7.35753
7.50432 116.157 -10.4596
8.95361 110.849 -11.1786
13.9564 80.1834 -7.07432
4.37757 124.085 -6.79605
8.5972 113.506 -11.4614
0.601239 137.022 -4.25652
-4.49972 143.168 5.0537
-0.0894921 106.394 13.7183
1.82982 133.262 -5.10566
9.66314 108.212 -11.009
-4.54456 144.855 4.36573
-2.07794 147.852 -3.2017
0.434709 104.456 13.6056
-0.347606 141.348 -3.95804
11.7844 99.2101 -11.3402
-3.60271 153.151 -2.19973
1.24504 135.197 -4.5297
2.39208 131.755 -5.49923
-3.93342 134.334 8.61571
-3.6996 131.545 9.54276
-0.592972 108.61 14.2261
13.2215 88.4116 -8.8381
-1.92375 115.158 14.0543
-4.04914 129.671 11.625
8.9082 113.535 -11.4879
-3.63958 132.169 9.43633
-4.0493 139.911 6.35945
-4.24096 141.015 6.32993
13.7022 85.5831 -8.20976
4.27682 89.7819 12.6587
1.66983 100.082 13.7398
2.10471 133.825 -5.12159
14.5321 78.4155 -6.17327
9.791 109.124 -10.7577
13.2283 90.3354 -9.19123
14.242 82.237 -7.36569
2.01882 99.0748 13.6275
5.69997 86.3684 11.4547
4.56073 89.2342 12.7802
-2.73752 121.163 13.7786
3.42402 93.9919 13.1146
2.1398 134.368 -5.06658
9.76536 75.6759 7.32402
-3.95916 144.678 4.4859
13.9985 85.5818 -8.09783
4.29817 91.7794 12.3533
14.99 75.9136 -5.38146
-2.36219 119.906 13.8858
0.531871 140.897 -4.08153
6.48884 120.253 -7.6805
9.76822 111.479 -11.0531
-3.10214 130.661 10.281
-1.73947 149.32 -2.88677
4.69392 91.2364 12.081
13.6938 88.9464 -8.6659
-3.02407 131.165 9.90296
9.26689 79.0179 7.41062
9.82852 112.141 -11.3269
9.66617 77.6088 7.308
12.6337 97.5008 -10.4162
12.9249 95.2006 -9.89425
14.0987 86.7295 -8.2745
0.16787 142.796 -3.8139
-1.13164 147.84 -3.20162
6.45897 85.9555 10.936
3.21354 97.1736 12.9493
-0.982832 147.376 -3.28378
-1.86043 118.788 13.9844
10.0479 76.431 7.38283
-3.55111 141.125 6.49013
4.61896 92.3386 12.3273
7.08018 85.415 10.077
-2.9236 129.28 11.3787
-3.51693 141.967 6.14343
9.446 114.779 -11.1662
-3.40137 140.167 6.83417
14.8333 82.6482 -7.25877
6.97997 120.283 -7.91017
-3.45089 141.152 6.56654
1.35265 139.554 -4.26495
3.18365 133.504 -5.51113
-2.16702 152.275 -2.29836
-0.608852 147.195 -3.3306
3.66635 131.829 -5.51456
15.2262 78.7403 -5.71242
-2.82502 126.73 13.1313
-0.960878 148.997 -3.03258
10.1203 77.9765 7.40707
5.08742 92.5183 12.1217
11.2357 107.101 -10.5024
13.9297 91.718 -8.95533
10.652 111.06 -10.9336
2.52293 102.111 13.7328
15.3528 81.8735 -6.88978
2.19256 104.597 13.4879
-1.25992 120.214 13.73
6.55425 87.2961 12.0325
9.141 117.204 -10.0519
13.1215 100.141 -10.6834
-2.25722 132.415 9.93976
-2.68395 142.173 5.87981
-1.80003 123.716 13.4799
8.62919 119.376 -9.61097
-0.675532 117.633 14.0811
-2.63305 144.582 4.6671
14.4912 90.7713 -8.68016
2.85088 137.482 -4.88713
0.996704 144.158 -3.7944
4.00285 133.455 -5.47387
15.8049 78.681 -5.35895
-2.04643 126.091 13.2695
8.21121 85.3982 9.69871
10.0731 115.373 -10.6711
-2.40058 143.58 4.94207
-2.43796 140 6.9419
1.18176 109.846 14.128
13.5955 97.9851 -9.91831
2.97542 102.544 13.6601
2.38007 105.859 13.4208
15.9756 78.4384 -5.28991
-1.17693 121.898 13.6821
0.187589 147.906 -3.33922
15.7723 82.3785 -6.71736
7.26198 86.8989 11.8383
14.2521 94.9246 -9.3212
15.9735 81.2158 -6.20907
6.79446 88.7701 12.2414
-0.514798 151.062 -2.78434
6.88037 88.0586 12.486
1.13148 145.804 -3.73265
6.24179 93.2817 11.5997
4.08107 100.679 13.039
15.8134 84.0395 -6.77765
-0.679483 121.8 13.6546
11.029 78.9518 7.67826
0.782388 147.527 -3.45442
8.1027 122.291 -7.93103
-1.3994 129.41 11.5478
4.5932 133.832 -5.3977
-1.29927 126.028 13.1436
-1.52538 138.966 6.97941
-0.173421 120.02 13.7201
6.28213 127.513 -5.9556
15.3744 89.3807 -8.02188
12.1906 108.815 -10.4384
10.5543 115.89 -10.1702
-1.21003 126.345 13.1058
15.316 90.697 -8.31167
16.3743 80.7833 -5.53137
-0.0441794 120.552 13.6377
2.67617 107.773 13.8835
10.8423 81.2523 7.94697
5.66813 131.378 -5.85447
14.1709 99.7667 -9.82249
12.2999 110.893 -10.9195
0.551849 118.099 13.9966
-1.2045 141.797 5.77801
3.27771 106.388 13.553
9.25839 85.7767 9.83839
2.58402 143.541 -4.24849
15.3922 92.3421 -8.45602
9.24582 85.9817 9.95447
4.0243 138.746 -5.09742
2.50349 109.654 14.034
0.261569 120.953 13.6188
15.1202 94.7659 -8.82053
16.0869 88.0655 -7.541
-0.921036 134.407 9.56522
17.3766 76.2482 -4.43487
4.73857 136.663 -5.35732
-0.876813 135.512 9.00204
2.79073 143.738 -4.30181
14.1826 103.385 -10.8118
0.97535 117.614 13.9852
1.33273 115.964 14.0315
4.49892 102.802 13.2861
7.23417 94.762 10.895
9.22381 124.926 -9.80546
4.28907 104.036 13.2858
16.031 89.7958 -7.88025
2.22285 112.077 14.1471
11.1713 82.0034 8.16754
3.21575 108.104 13.8533
15.4824 94.0652 -8.60196
13.1923 107.753 -10.1888
-0.579649 133.902 9.69573
3.50163 142.348 -4.61723
-0.463794 130.961 11.0865
15.0356 97.4575 -9.02918
9.53679 125.081 -10.1455
2.08815 113.894 13.9915
8.31391 89.3502 11.8241
9.29657 86.8523 10.7809
17.1961 80.041 -4.91303
2.60325 111.638 14.1354
10.7339 83.588 9.108
0.142937 125.544 12.8584
7.60118 128.345 -6.82394
14.6148 102.038 -10.0399
1.69844 149.211 -3.3067
4.81153 103.549 13.2244
10.0364 124.427 -10.5478
0.0475756 126.712 12.6841
11.3069 82.5019 8.52721
9.79986 121.796 -8.51716
10.8975 83.4465 9.05525
1.59634 149.765 -3.22572
5.34334 136.737 -5.3643
12.6836 113.64 -11.0436
4.05469 141.762 -4.71207
12.6657 113.819 -10.896
0.52197 124.686 13.0889
9.69595 86.9377 10.691
-0.0382087 130.924 11.2509
10.1574 122.13 -8.9889
7.98568 94.9741 10.6596
4.75465 139.69 -5.0302
13.4391 76.6051 7.07484
10.6434 120.341 -8.99927
17.5802 80.4896 -4.79363
1.07989 122.487 13.4627
7.9495 96.2472 10.5343
10.6329 124.535 -10.911
4.6789 140.777 -4.92133
1.09028 153.133 -2.67296
0.300616 128.113 12.5047
8.84853 90.5282 11.5037
1.56755 120.274 13.6181
1.24372 153.034 -2.77885
16.6099 91.7047 -7.83086
18.4309 75.6881 -3.81115
10.3462 86.6548 10.2291
8.26227 95.8907 10.4518
16.3725 93.6241 -8.13975
17.0735 88.4233 -7.02974
0.484277 128.743 12.2847
8.94647 93.088 10.46
12.5833 80.8627 8.10616
9.67453 127.505 -9.37102
11.0302 124.616 -11.1521
7.13304 99.8307 11.5228
0.5358 131.781 10.7734
10.5627 126.108 -10.6958
14.0107 108.786 -9.96509
0.529516 140.045 6.47778
5.3376 139.729 -5.10083
6.65009 101.84 11.705
3.26348 113.492 13.8376
17.4601 84.2019 -5.38323
0.479292 134.488 9.55938
1.70097 152.502 -2.8925
15.957 97.5531 -8.69221
9.4045 88.47 12.1949
0.592067 140.623 6.25092
9.26032 92.0343 10.7353
2.89993 115.842 13.7551
12.2727 116.314 -9.31333
7.35224 100.181 11.2966
13.9047 111.96 -10.9197
8.03467 97.9341 10.9375
0.64941 135.932 8.92284
7.31228 100.811 11.188
11.9525 117.987 -9.20249
10.4103 87.2815 10.7927
15.8914 99.1962 -8.83205
14.0743 110.371 -10.2562
4.44307 110.914 13.019
0.527763 142.667 5.83051
11.6076 122.904 -10.7879
14.4105 108.487 -10.0114
5.12305 108.445 12.7941
7.45437 101.259 10.9886
0.505718 143.516 5.68125
14.0721 112.288 -10.9757
11.8543 119.14 -9.14584
15.7633 102.398 -9.83664
7.5907 100.79 11.0454
1.05326 136.734 8.04754
15.6213 104.136 -10.2797
5.07075 110.134 12.3646
9.40557 129.4 -8.3552
7.13311 102.982 11.1978
3.25527 148.775 -3.47798
9.78756 88.8502 12.2065
5.7179 140.456 -5.09592
1.11689 136.589 8.20639
9.2143 95.6156 10.0636
3.73382 147.246 -3.78941
8.33456 132.29 -7.0801
9.51016 94.433 10.1289
12.2514 120.504 -10.3166
17.6945 88.3349 -6.62525
7.84546 100.706 10.9285
17.9431 84.2838 -5.06772
12.4444 119.264 -10.0511
12.9884 117.985 -10.6934
1.29623 139.158 6.73833
18.7579 79.149 -4.2398
2.61141 120.447 13.4136
1.95252 123.946 13.2138
8.00615 133.779 -6.75549
13.6808 114.839 -10.6062
11.5513 126.111 -11.3118
4.87894 144.11 -4.48876
14.0365 113.714 -10.8065
2.11689 153.396 -2.54798
12.6769 121.389 -11.449
15.3792 106.58 -10.2161
15.9184 104.056 -10.1424
11.4594 86.0048 10.2894
13.9515 79.2419 7.78633
10.2342 129.059 -9.4093
16.1929 102.588 -9.77945
14.8938 109.062 -9.88625
9.43319 131.734 -8.42196
6.98443 140.099 -6.80743
7.6845 137.649 -7.17357
3.01766 120.42 13.348
7.59945 104.591 10.5259
14.4674 78.2512 7.68995
17.1747 95.8128 -8.19209
14.2294 79.1867 7.81018
9.03164 132.618 -7.67828
8.04813 135.336 -6.63234
4.49925 146.991 -4.04867
9.50729 97.9061 9.64193
14.8711 110.521 -10.107
8.87607 133.219 -7.39852
5.33575 144.357 -4.57262
5.46439 112.456 12.01
16.2171 104.49 -10.0483
7.93056 104.811 10.0675
10.9048 129.345 -10.153
10.1924 90.6045 12.047
2.05248 137.653 7.18436
1.80863 131.998 10.9022
5.99456 142.977 -5.11883
7.5564 106.365 10.4262
10.7259 130.539 -10.0583
2.38187 153.99 -2.04174
15.9564 106.393 -10.0555
3.45189 151.31 -3.18812
3.23591 152.154 -3.05479
1.89906 131.504 11.1907
3.51854 151.288 -3.19794
15.1065 111.222 -10.3361
9.32576 99.4261 10.0352
4.25712 148.861 -3.63291
6.49286 142.361 -5.65075
4.78882 115.837 12.5424
11.2563 88.156 11.3668
13.568 120.295 -11.2364
18.1717 91.2841 -7.13462
8.41359 136.114 -6.94374
19.7142 77.6207 -3.61553
15.4451 109.132 -9.80912
12.0807 128.27 -11.6715
9.10324 100.83 10.1517
7.42238 108.973 10.0847
9.80028 99.0485 9.51695
2.96475 123.949 13.0825
3.72195 120.273 13.2423
4.04314 119.461 12.9147
6.8942 142.299 -6.09036
4.74562 117.116 12.4582
11.7684 129.716 -11.3387
6.64554 142.985 -5.82213
7.67875 108.162 10.0611
8.34976 138.645 -7.60169
5.53426 115.258 11.6728
19.5597 79.8726 -3.90556
5.88256 114.283 11.3793
18.9646 83.7414 -4.37779
7.22858 142.156 -6.49946
8.527 106.417 9.22314
7.13508 111.219 10.0952
18.4928 87.9886 -5.29039
2.31279 131.827 11.1373
10.2702 98.7157 9.18586
13.0611 123.268 -10.5574
17.2877 100.212 -8.59791
6.45242 113.897 10.7439
9.51601 102.106 9.49338
19.6369 81.105 -4.14589
6.63589 144.206 -5.54142
6.92335 112.88 10.3011
20.2614 76.9054 -3.24959
6.07994 145.969 -5.03522
8.23698 108.95 9.25523
10.7036 132.781 -9.34894
2.45814 139.1 7.48637
6.63037 114.361 10.4447
4.4021 150.936 -3.33507
2.58356 132.304 11.0105
9.22622 106.51 8.4531
7.38296 143.379 -6.50233
8.95568 138.784 -7.91338
9.77266 103.085 8.97882
20.1501 78.9573 -3.57133
8.36682 110.234 8.72111
7.89542 111.731 9.1043
2.9668 136.901 7.87598
10.0528 135.029 -8.31273
6.02216 117.625 10.8433
7.71621 112.879 9.25139
13.6021 124.61 -11.3254
16.3604 76.6722 7.24771
4.90121 121.722 11.5192
12.5442 129.755 -11.3936
17.7089 100.728 -8.66891
10.0674 102.695 8.97378
2.76915 133.665 10.4639
8.0616 112.311 8.84364
14.9018 80.841 8.78855
15.2461 115.85 -10.5246
3.40937 126.607 12.7256
4.06992 124.506 12.2227
8.86846 140.906 -8.1391
8.53308 111.435 8.32579
18.9529 91.1385 -6.40288
20.3741 79.0977 -3.47302
10.8503 100.009 8.76485
20.3699 79.1708 -3.47941
11.1436 98.4698 8.95238
20.3351 79.782 -3.53237
11.1158 98.962 8.87669
6.36042 119.22 9.80607
7.16789 116.348 9.39738
19.0302 89.9276 -5.58004
8.78193 111.708 7.99257
5.60073 121.819 10.45
8.30051 113.055 8.4845
6.50759 119.603 9.42385
3.41515 135.813 8.43587
6.48765 147.519 -5.18694
4.5084 124.883 11.632
5.99953 121.351 9.88514
6.76762 119.632 8.95791
16.3497 111.668 -10.2517
15.6535 79.6739 8.3513
4.11721 125.816 12.1814
17.7172 103.125 -8.94886
12.1273 88.9733 12.1896
10.6363 136.531 -9.21604
4.52254 125.268 11.6714
11.4166 133.856 -9.6163
10.55 104.142 8.20177
19.2359 91.1714 -5.85707
9.26532 112.329 7.33539
10.6601 137.646 -9.3942
17.8017 103.734 -8.87666
8.02222 145.003 -6.76257
10.0036 140.25 -9.00131
4.02649 134.378 8.7833
4.59516 126.232 11.7303
20.4015 82.7628 -3.94042
14.5358 122.439 -10.5289
3.54762 132.516 11.006
7.75036 119.646 7.55433
15.4093 117.225 -9.87698
3.60489 131.492 11.4935
8.4127 117.283 7.31281
17.2867 76.3887 7.25623
7.9649 119.255 7.40199
17.2591 76.4791 7.28211
15.8825 116.435 -10.396
12.3535 133.559 -10.7079
14.3668 84.6598 10.2264
15.5404 81.6998 8.9517
13.5613 86.8789 11.127
8.72214 117.408 6.85226
20.953 80.0013 -3.25117
14.826 119.981 -9.38919
8.52112 118.04 7.04863
7.37346 122.337 7.62799
17.4333 108.565 -9.62564
19.3902 93.0436 -6.18776
18.999 96.7688 -6.99656
4.40455 134.042 9.04768
7.92226 146.938 -6.32828
19.5829 90.0851 -4.79629
14.9258 121.21 -9.74582
5.02297 153.416 -2.54466
17.5709 108.696 -9.45077
8.83451 145.5 -7.45322
14.1174 124.837 -9.44546
18.1331 104.599 -8.51715
10.6896 110.265 6.73056
8.76093 120.186 6.26403
16.5528 115.245 -10.1134
7.61888 148.324 -5.74502
14.7743 84.853 10.3447
19.7224 91.7485 -5.32362
14.8964 84.657 10.2244
7.58336 123.75 7.45411
17.995 106.389 -8.8132
8.00935 147.763 -6.24477
13.0451 133.479 -10.9101
14.0777 128.926 -11.0032
15.3684 83.9099 9.64594
8.34128 147.348 -6.63763
13.9249 124.302 -8.10371
8.91596 120.777 5.99973
11.7303 105.607 7.21285
14.4463 127.748 -11.094
12.0395 137.785 -10.4846
18.202 105.727 -8.52205
8.94088 121.364 5.85652
5.63765 127.578 10.7905
19.8495 92.8577 -5.56096
12.3849 137.272 -10.6517
16.4495 116.262 -9.39433
8.17243 148.37 -6.01461
11.9677 105.874 7.16467
17.3755 112.116 -9.32977
4.62715 136.907 8.73836
6.20098 127.42 9.93485
4.80443 132.952 10.4553
20.5514 87.772 -4.1653
16.0336 83.3614 9.22634
8.20854 125.004 6.42855
5.1599 133.523 9.39835
16.4234 116.226 -8.8994
3.92406 141.357 8.52602
18.598 104.568 -7.85866
4.21564 140.036 8.66047
9.38313 122.672 5.23398
21.2018 84.3484 -3.38043
16.6878 81.5852 9.11616
6.8674 127.188 9.1423
13.385 92.7779 11.5182
11.407 112.315 6.04446
12.3974 105.642 7.21975
18.3041 77.2178 7.81624
17.5321 113.33 -9.17756
11.1545 114.436 5.87329
5.37047 155.093 -1.37621
7.7773 150.513 -4.77656
5.25909 137.626 8.32435
5.85902 130.291 10.7784
20.1952 93.9962 -5.05699
11.2348 142.374 -8.63397
5.86946 134.772 8.53488
6.38379 129.702 9.98046
18.7804 105.91 -7.72878
13.6023 94.0193 11.2383
5.40928 137.581 8.25848
11.7949 112.497 5.90733
10.1111 121.929 5.0835
21.4514 85.1159 -3.11603
21.3963 85.473 -3.16341
15.3641 86.4845 11.2332
13.2654 102.331 8.05953
10.9658 143.444 -8.00762
7.42104 128.582 8.58919
19.0576 103.644 -6.6763
18.5009 108.805 -8.03338
12.7046 107.733 6.83574
10.6183 120.821 5.04662
14.4115 131.682 -9.95395
17.7665 113.963 -8.79268
8.16492 127.23 7.67896
20.4387 94.332 -4.8544
22.5223 80.1591 -2.45293
13.0097 105.961 7.16888
11.8048 141.864 -8.82776
22.8222 77.841 -1.92899
13.0486 105.908 7.18031
19.1132 103.886 -6.54863
7.79128 152.088 -4.13436
16.01 118.385 -6.34814
9.40927 127.833 4.85044
6.27781 132.175 10.2675
19.9528 101.03 -6.62359
15.4409 121.378 -6.32611
13.705 101.814 8.2745
14.3468 133.483 -10.0001
6.81492 153.621 -2.13795
13.7305 102.433 8.10914
14.725 131.299 -9.52607
18.779 108.205 -7.23705
17.2084 83.7107 9.53666
11.2272 120.154 4.92115
13.9093 100.619 8.70515
21.1653 90.8135 -3.81535
10.891 122.216 4.71841
13.1964 107.488 6.86923
6.57657 135.127 8.47452
18.0889 113.224 -8.03993
6.5101 136.863 7.88226
4.86679 143.871 8.42918
16.0684 118.749 -5.63091
10.1006 127.757 4.21144
7.37609 153.134 -2.51771
7.35953 153.163 -2.46725
10.873 124.171 4.27873
19.2751 105.665 -6.43071
11.2914 144.83 -7.45763
22.8476 81.5529 -2.26835
23.1966 79.845 -2.15777
16.72 85.812 10.5275
12.9756 111.648 6.05603
23.456 77.3018 -1.39123
18.095 82.1044 9.19081
5.08798 144.227 8.17812
20.4579 100.62 -6.3456
6.68276 137.888 7.73366
10.6005 147.596 -6.92483
8.78024 130.175 6.87115
10.4432 128.387 3.80598
8.32097 130.144 8.07722
14.43 99.2128 9.49128
15.9462 124.049 -7.31457
14.6754 127.286 -5.86553
14.8142 134.463 -9.92755
10.1347 149.198 -6.2493
7.81724 152.972 -2.57716
13.9387 106.029 7.26193
9.24418 150.875 -4.91983
17.2696 123.085 -9.85585
15.4357 128.059 -7.96922
9.78078 149.978 -5.69091
8.87224 132.65 5.71646
12.216 118.578 4.98399
15.2591 127.038 -6.86621
17.4477 124.012 -10.6013
13.3252 139.335 -8.58908
8.47379 134.611 5.78111
7.45421 153.612 -1.70679
11.205 146.635 -7.1552
10.5996 129.221 3.54254
16.9115 116.453 -5.06196
9.03968 132.223 5.86125
16.6891 117.207 -4.87632
16.0945 125.842 -7.93457
21.403 93.7475 -3.94165
16.4565 125.139 -8.41957
16.2918 126.036 -8.42814
8.78305 135.301 5.07838
16.7298 125.643 -9.16645
21.3175 96.9874 -5.18277
16.3958 124.763 -7.81592
10.2602 149.443 -5.82738
17.5209 115.591 -5.6778
8.48235 134.49 6.50144
7.35087 133.575 9.75288
17.3394 123.24 -9.19448
16.0591 126.753 -7.89099
16.0787 129.313 -9.28971
11.0424 128.694 3.4298
11.6082 125.295 3.88489
12.9692 116.84 5.04254
14.9078 96.3006 11.171
15.2325 134.287 -9.68014
19.0755 110.571 -6.54455
12.8677 117.609 5.00425
22.8927 83.8509 -1.65549
8.79145 137.015 4.76172
16.3937 88.5782 11.7642
11.3348 147.463 -6.95263
16.6461 121.305 -6.09667
9.35827 151.248 -4.08978
8.43837 132.914 7.87398
20.6606 101.72 -5.4205
16.7773 88.0238 11.3211
17.5757 123.195 -9.12785
15.2937 131.173 -7.73471
9.32664 134.527 5.13524
11.7271 126.198 3.69083
21.275 99.6946 -5.63127
7.30522 139.838 7.32324
24.0873 79.1316 -1.62538
8.52017 134.72 7.06955
14.6456 128.7 -4.71467
15.8686 130.821 -8.82244
15.291 93.3126 12.4358
21.6559 96.0777 -4.53074
15.0579 100.837 9.11373
17.4069 123.19 -8.35094
22.902 85.6862 -1.89313
17.1741 126.557 -9.4516
19.6818 121.85 -13.056
11.1952 130.665 3.08058
18.7496 114.431 -6.76282
15.0892 127.153 -4.50684
21.7647 96.4163 -4.55776
15.2055 130.423 -6.47913
24.1479 80.1154 -1.70823
16.5038 129.531 -9.08016
18.6994 84.3086 9.44281
23.4505 83.3735 -1.66675
12.0656 125.94 3.6801
8.14178 134.258 8.88052
12.4949 144.892 -7.37124
13.1417 118.765 4.89343
17.7576 125.635 -9.97528
8.73381 137.784 5.68296
15.0679 127.419 -4.29404
16.563 127.607 -7.9918
17.5902 125.742 -9.42733
18.4285 121.186 -9.01286
8.37843 140.277 5.48923
16.9833 88.9078 11.6007
20.9527 101.949 -4.89785
17.2501 129.36 -10.2741
17.1504 128.757 -9.71188
10.9719 133.251 3.05191
10.5849 135.344 2.97286
17.4188 127.001 -9.31956
18.7958 125.389 -11.8134
22.6546 90.9815 -3.05172
15.4657 101.501 9.04022
13.7893 116.455 5.28024
16.9377 126.14 -7.49429
19.7226 109.641 -5.55936
14.3064 139.597 -8.06937
13.6664 117.761 5.02948
8.79176 142.95 3.83888
15.3559 132.959 -6.90921
8.74324 135.541 7.89421
10.2424 150.688 -3.75057
10.345 150.523 -3.87464
10.7482 136.469 2.58517
10.0475 151.151 -3.37928
8.61612 136.317 7.97212
15.6666 126.069 -3.84069
15.824 94.7183 12.3843
16.1926 92.2761 12.7814
20.8344 78.1879 8.98103
17.1765 126.133 -7.34287
12.4137 127.695 3.49033
15.6726 133.507 -7.54209
22.7097 92.5458 -3.09136
8.95711 153.092 -1.43861
13.0651 123.794 4.01976
15.3046 132.095 -5.83515
7.38028 143.887 7.5544
16.1448 129.23 -6.12155
9.06247 143.913 3.46246
18.8117 127.081 -11.4666
19.9765 108.943 -4.72911
20.1841 80.717 9.6697
16.0877 125.183 -3.75062
16.7637 131.117 -8.53406
25.1124 77.4092 -0.544873
12.9416 125.691 3.76905
8.73924 140.304 6.41496
20.4534 106.066 -4.11216
15.6499 131.853 -5.91642
15.9912 98.7147 10.7789
8.75813 146.537 3.20509
17.4309 123.177 -5.64697
17.6806 130.795 -10.2457
17.3983 124.459 -6.20765
16.665 128.925 -6.77011
20.2454 124.036 -12.9233
8.88671 137.693 7.62872
8.66649 146.087 3.73803
18.1479 88.6442 10.9363
15.8009 133.931 -7.18293
9.66558 141.641 3.74248
18.0784 119.179 -4.90825
9.69802 141.737 3.67204
16.125 96.1919 12.0751
15.4046 127.925 -2.87819
23.8948 85.3684 -1.12726
8.72186 147.388 3.21902
15.4974 126.686 -2.38694
9.6898 143.26 3.09261
17.5831 124.871 -6.35902
14.5203 116.787 5.40428
10.7157 138.911 3.05792
12.7419 147.359 -6.33656
12.8077 128.914 3.27453
16.1821 97.3615 11.6961
13.8088 122.326 4.33733
8.84446 139.769 7.2997
16.8104 133.181 -8.67927
8.90382 144.233 4.84171
9.95455 142.869 3.00123
15.946 134.31 -7.08063
17.5733 90.5452 12.1666
17.6562 132.121 -9.98132
23.3742 91.9523 -2.73342
18.5581 88.7348 10.8007
19.1654 121.677 -8.05875
13.1268 146.973 -6.53261
9.68989 152.808 -1.20682
8.31512 147.951 4.72404
21.0856 121.728 -12.5776
10.7599 139.735 3.20745
10.5123 140.205 3.56452
17.3947 130.556 -8.08936
24.9897 82.9927 -1.50207
17.8617 132.119 -10.0191
20.3588 83.0542 9.80217
19.4457 121.312 -8.12444
13.0004 129.652 3.22599
24.9634 83.1392 -1.43765
8.68606 142.602 6.94473
15.6937 128.732 -2.80642
17.8723 126.85 -7.11874
18.7456 88.9969 10.8155
20.0576 121.55 -9.52927
22.549 100.113 -4.27468
15.1416 115.592 5.81707
17.3338 129.039 -6.60061
16.505 103.741 8.809
16.1776 134.94 -6.84309
13.285 147.185 -6.23564
8.00675 144.672 8.00764
8.92767 145.468 5.3698
18.5715 130.897 -10.4643
11.8453 149.701 -3.93819
15.5502 139.673 -7.65502
13.677 126.781 3.76725
16.0924 109.159 7.20382
8.58201 154.942 1.38287
12.5592 148.579 -4.97381
14.5283 143.532 -7.11673
18.6138 120.91 -5.12302
24.1829 88.4907 -1.58975
9.13244 150.808 2.35675
19.7573 121.172 -7.83114
12.5345 148.859 -4.71853
17.6761 130.862 -7.76266
16.1308 109.852 7.12506
16.4885 129.414 -4.07717
16.785 98.3771 11.5922
16.7478 129.056 -4.5091
16.5494 126.591 -2.63838
21.0601 81.5062 10.1758
10.8165 151.634 -1.81458
9.26098 151.838 1.89202
11.3618 140.523 2.73674
24.1539 90.4583 -2.05876
19.3345 129.587 -10.9257
20.8897 108.085 -3.36307
16.4738 129.678 -3.87756
9.49129 151.215 1.83179
16.6802 132.337 -5.71044
9.81832 150.166 1.8211
17.7366 93.1421 12.6297
11.9277 140.086 2.05177
22.008 103.832 -3.39507
18.7268 121.919 -4.84439
16.6363 129.845 -3.91678
14.6748 122.534 4.83812
19.2563 121.522 -5.75811
19.1502 89.9916 11.1579
13.6561 129.828 3.54829
16.9526 130.139 -4.65557
9.20346 154.52 1.49074
18.8149 132.127 -10.1494
17.1161 127.327 -3.46257
8.68605 145.626 7.52258
17.1853 127.3 -3.55299
16.5827 109.323 7.4173
16.8113 135.58 -6.97824
20.0405 114.5 -3.67928
23.1346 100.189 -3.57647
14.4224 145.025 -5.92151
19.6356 89.5226 10.6513
17.1978 101.726 10.2403
17.4096 131.199 -5.81492
11.6719 142.991 2.03264
18.0432 130.062 -6.69953
17.0524 107.147 7.84672
15.574 117.91 5.78083
17.3062 135.924 -7.96147
16.9937 130.207 -4.12495
17.4977 125.299 -2.70648
9.99961 151.824 1.66697
20.6228 86.0336 10.4639
17.4352 128.128 -3.96042
13.9559 129.78 3.73565
20.1988 128.785 -10.9334
26.632 78.3013 0.0132982
22.5117 103.034 -2.96855
15.9914 115.577 6.39113
16.4058 112.896 6.81371
21.6612 124.263 -11.9917
18.0376 94.461 12.6008
16.879 109.589 7.52283
16.329 113.738 6.70895
9.82844 154.424 1.13285
19.5586 131.341 -10.3866
14.7459 125.58 4.47065
18.3383 126.06 -4.54023
19.352 117.572 -2.51354
12.5956 140.666 1.88501
17.8395 96.7369 12.3686
18.1798 130.656 -6.33825
26.0358 83.9177 -0.845621
12.8078 149.96 -3.33814
19.1997 133.002 -9.9573
18.2566 125.604 -3.71504
19.4378 116.139 -1.6007
17.0272 126.269 -1.02627
18.8208 134.068 -9.5046
19.8129 115.506 -2.12311
18.0503 125.212 -2.91911
15.1447 122.347 5.71124
16.9688 137.026 -6.49667
15.8228 119.128 5.92196
17.7049 102.896 9.92458
10.4434 153.499 0.986733
18.3214 134.28 -8.07802
17.2384 109.47 7.71445
19.3532 122.213 -4.15478
17.455 130.146 -3.70298
23.4091 100.915 -2.75665
16.2879 140.77 -6.32211
11.3084 152.796 -0.392166
21.2367 127.287 -11.146
17.4264 130.855 -3.67607
17.5891 130.724 -3.92608
15.1546 124.191 5.48545
21.0721 113.92 -3.5379
21.9202 107.699 -2.2828
19.1786 124.404 -4.39844
24.0081 78.0568 8.28679
26.5355 83.7421 -0.844952
13.4969 136.513 3.19586
19.8216 120.974 -4.03443
25.4792 88.1466 -0.492653
22.7498 104.994 -2.60477
25.2522 91.2603 -1.46532
22.1795 107.19 -2.31658
22.4792 106.123 -2.48449
21.2237 86.6766 10.871
15.2538 123.703 5.91493
13.3116 139.488 2.41417
19.1919 123.668 -3.57863
16.1607 118.739 6.44026
24.0296 99.7546 -2.71997
20.8371 88.7972 10.886
22.2015 124.965 -11.5239
23.4381 79.327 9.59036
23.3694 102.275 -2.35269
15.3262 124.124 5.82872
12.4558 145.646 1.63497
13.485 149.952 -3.07535
17.824 108.564 8.33946
15.2055 145.578 -4.74656
22.3291 82.8505 10.991
20.0224 91.9553 11.9111
11.4392 150.924 1.76927
22.791 106.152 -2.14399
20.146 91.9244 11.8727
20.1324 116.793 -1.18223
18.1349 137.027 -6.97703
24.5825 98.5883 -2.4191
22.2872 84.0774 10.9473
12.8776 150.87 -1.27599
12.9537 143.46 2.4786
27.5879 80.309 0.173038
20.4296 119.236 -2.74035
18.1883 107.871 8.77379
25.1019 95.6514 -1.56475
13.3877 141.394 2.99247
15.0999 129.634 5.02524
23.3607 104.893 -2.05568
17.9286 126.812 -0.279591
26.2144 86.8463 0.658311
18.0205 109.943 8.5069
20.4003 121.555 -3.42624
18.9631 125.233 -1.81199
19.8187 94.8634 12.1859
20.4291 121.444 -3.32409
20.2478 93.6299 11.8222
13.8084 138.623 3.85287
14.9838 131.197 4.90394
15.6681 126.773 5.58856
22.6017 84.2188 11.1453
13.8136 138.551 3.94998
23.765 103.532 -1.87185
26.1112 90.0678 -0.488977
17.7566 112.01 8.41245
18.2922 108.607 8.9093
12.0029 151.857 1.45272
15.7589 126.109 5.90564
12.5665 148.255 2.03249
20.5338 122.839 -4.00137
14.6094 132.348 5.55497
13.2695 143.352 3.05975
26.2328 90.0226 -0.369718
18.8197 102.961 10.9464
16.0841 122.13 7.52746
14.6618 148.924 -3.08017
20.6315 121.038 -2.93726
13.0558 145.515 2.72105
15.5237 128.819 5.60011
15.8733 126.012 6.28024
16.9327 118.37 7.73366
25.2795 97.0301 -1.37875
13.9516 140.224 3.51524
22.6455 108.692 -1.01128
15.9237 126.686 6.03576
23.7412 83.1807 9.9255
19.0319 106.769 8.97956
19.9706 97.5815 11.6033
24.169 82.1837 9.53865
12.7878 149.722 1.78196
20.9847 118.579 -1.76646
20.2281 124.404 -2.96363
21.7965 90.8443 10.9455
28.1241 82.5394 -0.0853072
17.8384 113.342 8.91109
14.0921 139.176 4.61342
16.7385 143.942 -4.36633
21.0849 117.523 -1.00486
12.6627 151.197 1.87343
20.5151 95.3632 12.1722
22.0864 114.198 -1.60435
21.0693 119.458 -1.88879
14.0743 140.776 3.9685
14.0685 140.883 4.01508
22.1893 90.4945 10.8126
14.6752 133.284 6.65408
21.2457 132.386 -8.83036
17.4496 116.933 8.64653
14.0952 140.999 4.15072
14.7625 132.595 7.00902
21.7511 114.894 -0.670131
19.3575 103.329 11.3054
28.0531 84.5673 -0.020953
26.3326 92.683 0.0252701
22.6331 88.6655 11.213
23.4898 85.2072 10.9631
14.8628 132.734 6.99493
18.7138 128.192 0.00284674
28.5594 80.5506 1.10885
28.2251 83.633 0.309831
19.4634 107.149 9.30893
13.8833 151.439 -0.441072
21.1804 122.004 -2.62256
16.383 123.249 8.5389
16.0668 127.141 7.28071
17.6127 116.909 8.91814
13.6066 147.215 2.73877
14.8916 134.221 6.56336
23.1422 110.364 -0.984694
15.1006 133.923 6.34084
17.0593 120.317 8.80095
19.9895 101.668 11.5011
15.4869 148.521 -2.22449
19.8487 125.745 -0.831939
19.1216 139.905 -6.4952
25.0919 83.4905 8.70827
16.6645 146.47 -3.91173
14.3282 140.686 4.85771
25.0286 83.7599 8.8025
19.9045 102.694 11.3396
23.1756 111.694 -1.26353
13.7207 147.767 2.79973
19.0996 140.169 -6.27145
24.3734 84.2067 10.4192
21.2677 134.332 -8.41048
14.9351 135.419 6.51012
20.3334 125.709 -1.53085
28.958 80.2001 1.44352
19.1888 140.198 -6.29095
14.3147 141.241 5.09884
23.3655 110.396 -0.686225
24.2606 84.9232 10.7609
19.9317 104.507 11.0022
24.0001 124.277 -9.30604
23.0946 89.9109 11.0605
26.2272 97.7822 -0.687709
22.9474 128.169 -8.71695
23.6186 87.4378 11.1634
20.5742 101.237 11.3424
21.6794 133.143 -8.18751
19.8762 139.482 -7.07048
21.5771 116.365 1.02197
26.5544 78.7515 8.74542
28.1919 86.0837 0.939285
16.4307 126.351 8.46578
23.7264 87.5593 11.154
23.5506 109.971 -0.227267
17.0341 122.749 8.96398
14.9402 150.497 -0.496584
19.6004 128.222 -0.0876127
21.3305 98.2152 11.5697
14.4729 143.535 4.40386
14.8829 137.559 6.55937
28.0894 86.5644 1.22088
17.0007 123.342 8.90308
20.9225 121.236 0.493503
21.1206 121.22 0.0356878
19.6299 128.328 -0.0690345
22.0041 122.157 -2.54856
18.183 131.337 1.95377
14.5418 141.167 5.6724
19.1875 129.906 0.267202
17.577 145.508 -3.95774
14.0952 148.219 3.12373
16.2858 148.046 -2.12453
21.2638 98.7888 11.7228
27.9691 84.9791 2.65651
24.6179 106.096 -0.263543
21.5701 122.703 -1.58479
18.1063 117.51 9.63718
15.054 138.254 6.14673
20.8727 121.567 0.773919
15.0207 138.456 6.17337
25.2063 103.391 -0.0949798
19.4797 110.629 10.1619
14.443 146.013 3.81602
21.3285 121.723 -0.180605
27.0937 93.4451 0.730581
20.227 125.983 0.330619
14.678 151.868 0.292035
19.4887 110.959 10.2084
24.7753 122.769 -8.94225
14.252 149.575 2.61826
22.6152 131.263 -8.00291
22.0088 117.44 0.778295
23.9891 125.281 -8.16545
17.6237 127.496 6.23756
20.7146 120.657 2.31236
17.016 147.505 -2.74728
26.157 82.0709 9.49073
20.5661 106.544 10.232
28.3135 83.9732 3.22129
18.3453 117.742 9.81522
16.7686 127.698 8.48736
17.0829 128.485 7.31932
17.2516 128.667 6.83507
19.0043 130.999 1.37602
16.5322 136.461 4.56083
24.9956 85.898 10.6611
25.1311 104.517 0.567078
17.3991 147.217 -3.0835
21.3952 137.43 -7.65471
19.8818 129.096 0.45907
21.3959 123.529 -0.29459
15.1319 142.594 4.9599
17.5419 124.064 8.92592
21.5268 137.249 -7.73843
18.9574 115.469 10.0417
23.4144 121.782 -4.17066
24.4417 124.384 -7.98568
19.5892 142.229 -5.5488
22.1502 133.849 -7.32933
20.8233 126.768 -0.331024
21.2663 103.536 10.9849
26.4781 99.6743 0.296185
26.8286 80.433 9.66281
23.4523 122.032 -4.00001
17.1253 147.804 -2.14534
26.6427 81.3202 9.70958
27.081 96.5899 0.644491
19.903 129.601 0.755151
28.8493 82.9457 3.56185
21.2903 123.768 0.494319
17.2516 134.158 4.90556
23.8981 112.125 0.393757
15.454 143.042 4.71849
19.1718 126.842 4.24637
17.2757 134.433 4.96906
18.5211 128.762 4.93623
22.8351 123.116 -2.61997
17.2162 135.619 4.51407
25.4093 86.3163 10.5368
15.0712 149.999 2.2589
27.0115 80.9778 9.55743
23.4059 129.653 -7.32068
21.1534 106.669 10.3522
18.5854 131.846 3.41843
23.5195 93.8707 11.4721
26.0904 102.087 0.854613
30.2535 79.8383 2.4716
29.8863 81.9675 2.25309
18.2837 133.973 3.19428
21.0475 122.636 2.52313
18.3374 129.891 5.36895
24.0324 113.12 0.316322
28.0273 87.3484 4.21022
17.8664 134.024 4.39676
15.7576 141.802 5.46269
19.3751 116.422 10.0833
15.3723 148.797 2.88856
28.1687 88.3096 3.59061
19.85 114.01 10.3942
17.05 149.206 -1.32395
23.2726 131.536 -7.18796
25.1918 123.253 -7.47491
20.1341 126.592 3.14721
23.4656 96.307 11.0121
19.1814 130.49 3.44073
17.8127 135.062 4.44301
28.0278 84.7222 6.17331
27.5727 84.3098 7.50667
26.2422 85.6384 10.063
20.438 129.108 1.41994
27.9699 94.2385 1.42763
27.9737 88.7201 4.35602
22.6284 123.425 -0.886098
20.7091 128.298 1.25369
20.3962 129.253 1.54239
23.8357 94.6019 11.5083
20.8765 121.864 4.36869
19.4689 130.056 3.53088
15.7453 149.892 2.16307
19.1941 145.933 -4.09623
23.3466 132.205 -6.9466
25.0734 108.041 1.60183
21.3732 124.062 2.19876
18.7124 122.934 9.31054
25.501 88.5917 10.8604
20.9326 121.398 4.72422
24.3681 122.481 -4.21303
20.9501 126.442 2.11384
28.284 83.5283 6.93647
20.9616 121.441 4.8355
28.6222 86.1912 4.74451
17.6942 148.59 -1.49526
25.2917 124.82 -7.47055
16.1967 144.607 4.37375
21.2469 126.436 1.64417
20.9755 124.76 3.19762
17.7413 148.584 -1.4779
30.1534 81.455 3.6507
16.591 150.377 0.407727
20.0363 116.122 10.1045
18.9879 122.287 9.41195
24.0857 122.788 -3.30279
28.1922 92.4746 2.77861
25.868 103.789 2.50795
29.3569 84.6958 4.10077
20.0583 144.322 -4.65506
24.7293 110.336 1.88018
17.3813 138.888 4.81277
27.5503 97.3686 1.90592
28.7177 86.6393 4.74623
21.676 107.833 10.7831
16.2759 144.968 4.37755
27.9236 91.258 4.28239
26.355 102.196 2.37398
23.4828 99.0853 11.0565
23.4906 132.497 -6.58007
24.5444 93.5092 11.4509
20.801 124.661 4.17995
20.7846 122.347 5.44555
20.7568 129.751 1.77051
19.2236 123.179 9.05175
24.9043 92.6784 11.3683
21.0401 123.369 4.65345
27.8284 92.7655 4.23802
23.7887 98.9106 10.8826
26.9339 86.4655 9.78445
24.4366 95.6471 11.0649
24.1446 114.888 1.67621
23.8653 123.747 -2.1624
21.7589 108.786 10.9891
23.6847 99.8932 11.0168
28.7777 82.5829 7.71269
19.8567 121.218 9.16167
21.0178 123.602 5.08741
24.0699 131.065 -6.21803
24.1943 114.899 2.04534
29.1844 85.9831 5.20404
29.7729 83.3673 5.37557
24.8137 128.458 -6.30068
23.124 104.032 10.8525
18.4404 148.543 -1.18915
29.9124 83.293 5.24189
20.2499 123.766 7.54637
25.8877 107.459 2.46228
26.7519 101.641 3.42687
29.1083 83.1835 7.46782
20.054 133.498 3.08546
21.9974 140.211 -5.16921
30.1623 83.884 4.70056
26.7806 101.687 3.60081
21.5034 121.372 6.11412
22.867 105.731 11.099
29.1927 79.7624 9.36051
22.2519 109.513 10.7287
17.0618 146.123 4.09183
21.6236 116.538 8.57825
21.57 116.405 8.81774
22.7938 124.856 1.41031
26.2828 124.257 -6.76164
24.4909 99.4099 10.7638
16.9221 148.442 3.39408
23.424 135.373 -5.54396
22.3522 115.388 7.63898
25.9465 107.965 2.80007
21.0237 118.904 9.0872
29.3725 82.399 7.96878
21.0186 119.03 9.04562
22.0848 111.09 10.6343
28.1477 94.0096 4.92421
22.5773 114.923 7.5125
30.6409 83.8933 4.21382
20.8692 121.75 8.1218
27.7635 87.9931 9.10685
29.4259 82.5086 7.94428
20.253 135.214 2.54099
26.4103 124.34 -6.71955
23.6996 134.506 -5.45721
23.2887 105.445 10.9328
29.6931 86.2249 5.49406
23.0957 113.164 7.39377
22.0102 112.522 10.3876
21.6676 128.748 2.66517
23.5203 135.495 -5.42126
22.2889 110.961 10.5972
22.2125 120.474 5.78237
24.6834 113.659 3.37823
21.4498 119.19 8.36826
19.421 147.699 -1.67088
25.978 107.574 3.56244
23.6294 113.842 5.99713
24.604 110.435 5.42217
19.2241 148.052 -1.28343
22.797 108.563 10.8397
22.9055 113.18 8.14827
20.4403 145.71 -2.93041
21.8364 118.414 8.07396
23.8376 113.864 5.6411
23.8961 113.828 5.55057
25.6908 109.609 3.39766
23.6716 111.23 7.55295
24.4563 114.565 3.87516
28.5217 92.9286 5.3757
22.3647 117.855 7.2596
22.4257 111.6 10.4256
25.0281 110.457 4.83067
25.5586 106.544 5.61629
21.4608 142.957 -3.58535
26.1328 94.5184 10.5851
24.2441 112.975 5.49862
28.3894 97.4057 3.61849
19.4414 148.043 -1.25271
23.5009 110.615 8.63417
31.7869 80.0151 4.54739
24.1015 111.447 6.733
27.6645 100.214 3.97319
18.4025 141.32 4.90199
17.9556 148.583 2.24236
21.5125 143.027 -3.50194
24.9059 109.298 6.01882
25.9035 106.208 5.22309
31.4468 80.9299 5.05085
25.3362 122.299 -1.68836
28.7749 92.5669 5.61935
31.8674 80.3267 4.54254
20.9921 134.268 2.64574
21.3038 144.017 -3.26229
29.9481 85.3564 6.62075
26.8565 92.5995 10.4151
18.7374 148.781 0.656209
18.1998 144.427 4.31583
17.8895 147.073 3.6932
24.1182 105.53 10.4811
27.0007 103.559 4.47846
27.7419 98.9731 5.10168
23.0742 110.609 10.3734
27.8335 98.6965 5.05919
