ply
format ascii 1.0
comment Created by Open3D
element vertex 1843
property double x
property double y
property double z
end_header
5.95469 153.74 -1.96132
-6.25094 90.8086 3.87915
6.51776 151.98 0.616019
-1.37881 113.558 3.13434
2.65548 136.031 0.265383
-2.01933 112.158 2.42638
-0.0425598 114.92 5.81321
1.93003 141.111 -4.08227
4.47461 150.095 -2.93533
-10.0579 102.372 -11.2889
-1.27108 106.319 7.88077
-7.9952 86.3409 2.81649
-1.44818 118.892 0.365185
-0.167012 132.084 -3.85818
-2.05049 116.308 0.505257
-10.0603 102.655 -11.2705
-2.42978 114.248 0.79646
-0.258684 111.381 7.70722
-4.58325 97.078 5.33262
-2.29751 115.514 0.513653
-1.10063 108.175 7.66148
-7.26916 89.4321 3.26527
-0.848601 109.171 7.75749
-12.7407 93.7264 -12.4737
0.315251 127.934 0.0534503
-1.20016 121.401 0.229181
-1.10213 112.336 5.60149
-3.38549 108.161 2.41566
-3.30736 109.266 1.98579
-2.60366 125.148 -5.26406
-0.732182 111.858 6.81033
6.07849 150.984 1.29372
-1.39627 112.417 4.89096
-1.18163 121.619 0.223419
-3.28876 123.524 -5.97732
-6.6818 115.651 -9.76246
-10.1031 83.001 0.437276
-3.53395 109.255 1.61428
-3.63454 106.745 2.834
3.51524 148.01 -3.00632
-1.4482 107.295 7.92908
-1.84299 110.839 5.00669
-1.18121 129.181 -3.69139
-3.04785 107.147 4.228
-2.92052 107.345 4.53673
-14.4627 86.1172 -11.5
2.89255 145.75 -2.90054
-1.96492 110.387 5.25807
-2.7639 116.831 -0.318827
-10.1548 105.029 -11.5976
-6.89344 116.012 -9.81852
1.0359 139.054 -3.47608
-11.1048 82.6285 -1.13297
-3.86542 122.819 -6.2087
-3.98606 110.774 0.353831
-9.14589 85.6358 2.09744
-1.46141 122.815 -0.165239
-2.29719 119.486 -0.316305
-3.06058 106.322 5.2743
4.05558 151.691 -2.98987
-2.41822 109.409 5.15583
-10.0513 107.007 -12.0525
-7.68253 90.8162 2.91351
-12.3015 81.7813 -3.22312
-7.54475 115.176 -10.4881
-1.69283 128.973 -3.98671
-3.45315 102.394 6.75538
-4.32933 110.368 0.118704
4.94602 147.272 1.86983
-0.75651 126.486 -0.253248
-2.39933 108.36 5.99961
-2.43908 105.127 7.77033
5.41185 150.177 1.489
-2.83613 126.244 -5.02528
4.82777 154.099 -2.1016
-6.50754 92.9982 4.82432
0.89735 139.829 -3.49926
-9.79936 109.061 -12.1396
1.67268 142.518 -3.10504
1.9981 143.785 -2.94522
2.76582 146.972 -2.86677
-10.3183 106.853 -12.0411
-5.05641 121.486 -7.4559
-9.86837 109.114 -12.1065
-5.14897 106.743 0.742653
-9.93562 84.8095 1.51905
5.192 149.451 1.8429
-15.8985 84.1921 -12.5657
-2.91733 104.926 7.43237
-5.47816 107.568 -0.212719
-7.18864 117.003 -9.68877
-0.682442 128.698 -0.421432
-0.384707 135.632 -3.51491
-14.7463 87.6558 -11.3361
-10.5966 83.7686 0.970255
-5.45728 97.9094 5.566
-5.17234 122.023 -7.33317
-13.9268 93.1884 -12.2801
0.767193 140.601 -3.18731
1.36377 142.584 -2.78822
-8.11711 91.5324 2.98303
3.85331 145.635 1.57168
-14.8922 88.8314 -11.8094
4.64868 149.78 1.38515
-4.14803 116.229 -1.07461
-3.47899 104.948 6.94075
-2.65097 121.988 -0.634415
-3.44702 126.731 -5.15773
-2.73772 121.88 -0.673223
-1.52582 132.054 -3.29364
-13.4388 95.7965 -11.704
-10.7691 84.6646 1.0988
1.20881 137.033 0.674899
-16.8196 83.6268 -13.01
1.96666 146.549 -2.77079
-10.1995 110.08 -11.7405
-6.29178 97.4481 4.9585
-0.44082 131.806 -0.16579
-4.23594 105.746 5.38368
1.64916 145.373 -2.65191
-4.11173 105.519 5.9363
-6.033 105.038 1.55426
-2.99905 128.963 -4.48409
-15.4366 87.3146 -11.2146
-5.08423 114.696 -1.47328
3.74996 146.971 1.80117
0.988174 142.894 -2.61294
-6.7533 105.685 -0.421894
-6.31627 109.542 -1.47372
1.43178 139.238 0.658444
-3.28603 121.776 -0.916121
4.01895 149.946 1.01374
-5.28026 114.546 -1.53253
-5.73876 99.0305 6.16486
1.63445 146.658 -2.7268
-6.25539 110.868 -1.69919
-9.23901 91.1602 2.1779
-12.5149 100.173 -10.8921
-14.668 92.9563 -11.9974
-10.535 87.9954 0.915366
-6.17717 111.894 -1.84816
-15.7172 87.3457 -11.1892
-5.52765 123.554 -6.82795
-5.98285 104.562 2.79786
-4.87258 105.552 4.95299
0.543964 135.99 1.04216
3.65639 148.263 1.79049
-10.5573 110.715 -11.5346
-7.73413 106.178 -2.07088
-11.9977 104.926 -11.7226
-12.5534 101.371 -11.0461
-3.75342 128.284 -4.82106
-7.53815 104.285 -0.467718
1.03787 139.119 0.755215
-2.43143 131.271 -3.23995
-11.4093 108.572 -12.244
-9.45573 91.5904 2.12278
-13.4621 97.6947 -11.0706
2.44864 152.721 -3.41027
-7.05187 109.381 -2.04186
-1.59124 129.999 -0.269773
-9.64381 113.424 -10.4854
-18.8295 79.1806 -13.465
-12.6103 102.191 -11.3036
-12.1262 105.282 -11.8331
2.1938 143.835 1.34337
-12.9181 100.284 -10.7708
-9.63189 113.791 -10.3607
-6.25876 113.173 -1.79287
-8.21144 103.846 -1.23976
-9.91722 91.0587 1.87273
-9.93998 91.0261 1.85981
-10.2152 90.2116 1.66039
-12.2964 105.447 -11.8979
-16.656 86.19 -11.5556
2.97912 147.261 1.78582
-7.26976 110.065 -2.11435
-1.88491 130.012 -0.259466
-7.11514 98.1357 5.10738
-7.49257 103.808 0.999345
-5.16509 118.11 -1.38337
-10.2594 90.7336 1.69063
-13.8983 83.0899 -2.83684
-5.78076 124.742 -6.60489
1.61692 150.296 -2.93108
-14.0146 97.2605 -10.9885
-10.0253 91.7733 1.89107
-17.8997 84.2041 -13.0045
-2.13242 134.059 -2.76031
2.63433 148.584 0.68039
-9.95274 92.1663 1.95872
-12.0147 87.2008 -0.23801
-4.45259 127.907 -4.74824
-4.2361 122.398 -1.07721
-8.44285 103.499 -0.622689
1.45108 150.816 -3.25786
-6.13524 115.308 -1.653
-6.67641 99.6033 5.93031
-7.14231 111.729 -1.99524
-1.93366 131.006 -0.191705
-8.69701 94.4033 4.06171
-7.98731 95.6471 5.11358
-7.9338 120.286 -8.59945
-7.56875 121.208 -8.16963
0.531321 139.829 1.07469
-11.1185 89.7031 1.05227
-11.6158 88.5887 0.49952
1.407 143.213 1.34624
-8.61567 94.8808 4.29423
-8.89373 103.281 -1.04508
0.747043 148.294 -2.89103
-13.072 104.512 -11.7884
-9.60375 93.4779 2.9485
-4.64666 128.062 -4.52131
-15.8284 92.4651 -11.5759
-3.2611 127.209 -0.532618
-9.72086 102.473 -2.26695
2.08284 147.937 0.800534
0.15011 139.114 1.13614
-12.5634 87.841 -0.754185
-14.6258 96.9347 -10.8313
-3.82481 125.724 -0.732777
-0.807318 141.913 -2.45532
-9.04399 118.421 -9.21934
1.51807 144.79 1.66171
-10.5411 92.7093 1.80462
-14.2057 98.808 -10.5543
-5.45432 120.245 -1.32229
-9.13692 103.121 -0.612474
-8.73438 108.016 -2.32151
-11.4317 112.08 -11.1688
-13.7185 86.5308 -2.23179
-3.76204 130.966 -3.08847
-14.9851 83.2711 -3.36135
-10.6626 92.9163 1.81505
-9.40448 118.054 -9.27142
-15.1215 96.3435 -10.8872
-5.21037 127.715 -4.47796
-4.5455 129.226 -3.67665
1.26931 144.805 1.72057
-5.29746 121.741 -1.15554
-10.9007 113.819 -10.3201
-0.485278 145.523 -2.56196
-4.17399 130.768 -3.12037
-9.47404 95.6401 3.98368
-7.55402 114.328 -1.87855
-17.4617 88.5691 -11.4492
1.54924 147.035 1.82157
-5.98617 126.591 -4.90523
-11.6299 112.897 -10.83
-10.6937 93.9456 2.21654
-1.54252 141.596 -2.38692
-8.92588 120.418 -8.31409
-13.5509 87.3736 -0.902036
-14.1252 87.0979 -2.12024
-0.972212 137.749 1.28852
0.00955186 141.61 1.56275
-1.0747 137.531 1.23433
-12.3133 111.72 -11.3742
-7.62467 115.03 -1.75859
-4.10043 127.714 -0.25929
-12.6171 111.06 -11.5613
-4.24734 127.269 -0.337169
-2.31903 132.951 1.16076
-14.4302 104.009 -11.9115
-19.6152 82.6502 -12.3339
-7.94008 114.408 -1.80719
-10.4615 101.766 -0.76722
-14.506 104.227 -11.9642
-0.868914 146.93 -2.86294
-13.8926 85.8766 0.0580044
-10.1843 95.7347 3.54046
-10.8582 94.7654 2.46197
-4.86714 125.69 -0.417939
-7.06756 125.05 -5.27761
-5.05344 125.164 -0.43572
-0.7591 139.726 1.79461
0.896586 146.921 1.76265
-4.37733 127.623 -0.142867
-12.6847 111.69 -11.3519
-1.04636 138.703 1.74378
-2.25077 134.138 1.41406
-4.50833 132.392 -3.08851
-16.8167 93.0105 -10.7867
-13.473 87.0252 0.881615
-19.8045 83.2627 -12.3974
-14.8681 85.0239 -1.31335
-9.05852 111.503 -2.07631
-17.0458 92.4736 -10.7683
-3.90923 134.507 -2.51723
-8.4986 100.861 5.34325
0.439206 153.352 -2.55304
-6.75649 120.018 -1.23783
-7.10194 118.967 -1.44029
-9.4813 97.7676 4.82918
-12.0068 113.779 -10.3683
-7.20687 118.742 -1.47534
-1.4022 146.216 -2.83656
-13.4446 88.149 0.669384
-11.3111 115.753 -9.71022
-7.55245 117.463 -1.50213
-7.00607 125.802 -4.82817
-5.98988 123.072 -0.796312
-10.94 95.3681 2.83285
-9.6322 110.039 -2.19477
-5.86978 128.629 -3.52086
-12.0189 99.1267 -1.75765
-13.488 88.0698 0.938887
-5.46389 124.998 -0.321039
-17.0846 93.0938 -10.5887
-9.31433 111.593 -2.02135
-17.0494 93.3878 -10.5391
-3.97904 135.332 -2.40784
-15.8204 85.3699 -2.99528
-7.07523 126.113 -4.68903
-18.1146 89.6351 -10.9041
-13.7537 110.253 -11.7193
-4.98807 127.247 0.0436408
-13.6117 110.708 -11.589
-2.12368 144.397 -2.51052
-14.1509 90.1601 -1.12148
-1.01752 141.227 2.03981
-13.8499 88.9108 0.399698
-7.68031 118.691 -1.32175
-12.1592 101.805 -2.63444
-17.151 94.1562 -10.3994
-11.2736 104.26 -1.79028
-6.88571 127.419 -4.07603
-12.5339 100.407 -2.47991
-10.7685 118.707 -8.43849
-1.86886 148.104 -3.37715
-18.2017 90.4461 -10.5583
-5.83794 125.307 -0.145502
-12.9084 98.5218 -2.14534
-2.25843 137.438 1.8123
-0.838599 143.076 2.0868
-14.08 86.9182 1.61555
-15.1451 89.1117 -2.20812
-2.25512 146.031 -2.92949
-15.8735 102.903 -11.6738
-8.98148 114.809 -1.59658
-9.53649 112.834 -1.80651
-1.52503 140.287 2.23174
-10.2001 110.585 -2.02896
-10.4918 97.6359 4.72261
-3.68653 132.225 1.8024
-5.3316 133.535 -2.92748
-14.137 88.0425 1.46723
-1.21421 142.805 2.1168
-19.8369 86.5354 -11.3743
-12.5245 98.7804 -0.478988
-14.3253 91.1814 -0.520122
-9.34696 114.55 -1.57626
-1.01169 144.036 2.1134
-10.2394 120.687 -7.13215
-15.7498 105.973 -12.1907
-15.9294 85.9064 -1.19626
-11.9312 116.667 -8.82559
-10.525 110.632 -1.98401
-10.5598 101.47 3.1232
-14.5394 91.0151 -0.62413
-2.86728 145.197 -2.81351
-4.01791 139.141 -2.13668
-12.024 95.562 3.06416
-8.21988 125.761 -4.71814
-1.5862 142.012 2.26453
-15.5543 89.4577 -2.0362
-19.0931 88.964 -10.333
-3.00005 136.677 1.94503
-16.4921 101.498 -10.9963
-14.2453 91.0268 0.418988
-11.8441 106.05 -2.19691
-8.65704 124.744 -4.9514
-1.46956 152.939 -3.37098
-15.8728 89.0596 -2.34716
-13.0303 101.843 -2.52817
-11.4622 97.027 4.02683
-10.9375 101.237 2.9532
-14.0412 97.9207 -2.72966
-10.6356 111.14 -1.87628
-8.735 118.019 -1.12788
-9.98718 113.543 -1.62551
-2.51449 150.899 -4.4653
-15.2204 91.3367 -1.74512
-14.9594 88.0073 0.892789
-11.5508 101.001 1.86789
-11.0848 98.1218 4.68812
-15.1155 90.7377 -0.954302
-2.77697 150.505 -4.6249
-11.6484 100.914 1.82395
-14.4621 96.9336 -2.66116
-22.3797 80.8727 -12.838
-14.7113 88.745 1.44608
-1.41582 144.818 2.20938
-3.75187 143.228 -2.43423
-13.8185 97.5302 -1.09114
-8.09914 127.404 -4.00169
-18.1025 95.0011 -10.0309
-3.90755 142.469 -2.24402
-4.81815 138.483 -2.16835
-15.5242 89.271 -0.349317
-3.93331 142.767 -2.34429
-14.7934 89.7444 1.21606
-21.7027 82.893 -11.6884
-3.68573 136.029 2.23875
-13.3706 102.296 -2.2325
-15.0819 96.1564 -2.89712
-11.6295 98.048 4.45792
-4.52698 132.79 2.13648
-14.871 89.2562 1.57534
-16.4951 88.1332 -1.51395
-12.5575 105.979 -1.99224
-16.5483 87.9446 -1.37707
-6.46166 133.751 -2.68493
-11.3283 110.179 -1.20173
-17.309 100.801 -10.4562
-16.2707 89.5565 -1.56242
-21.6495 85.4651 -12.349
-10.7377 121.613 -6.1243
-11.7981 99.4975 3.95735
-15.2249 90.4459 0.850069
-15.3795 96.1274 -2.71671
-2.60019 141.852 2.56937
-3.58564 150.493 -4.69986
-14.353 93.026 1.58191
-7.47365 130.393 -2.77141
-15.3117 91.5247 0.136813
-11.012 112.197 -1.00253
-8.04781 128.719 -3.11587
-11.5989 119.799 -6.70245
-4.93595 139.828 -1.7557
-17.7898 100.023 -10.2805
-13.278 115.992 -8.19413
-16.5336 108.803 -11.8942
-9.97263 116.737 -0.394739
-12.8311 96.941 3.88757
-16.8329 88.2002 -0.906034
-4.53228 145.732 -3.45071
-16.6824 86.8861 0.261417
-14.0536 97.4287 0.72608
-3.94086 137.662 2.67193
-9.82752 125.274 -4.53413
-16.9165 90.5494 -2.16412
-12.0163 108.753 -0.407445
-20.1484 91.4189 -10.3984
-16.8543 86.4096 0.488363
-17.0038 88.2266 -0.838874
-21.433 86.6859 -10.7205
-15.0276 99.151 -2.15471
-17.0808 88.2252 -0.921305
-17.5874 106.021 -12.197
-15.9245 110.591 -10.699
-17.6607 105.952 -12.1922
-21.6762 86.4076 -10.9081
-4.44968 136.567 2.738
-22.7966 84.2359 -12.3633
-18.586 98.4765 -10.1108
-7.51205 132.559 -2.39207
-15.9528 96.5688 -2.60233
-18.21 102.568 -11.4644
-14.0088 95.2096 2.94023
-16.069 90.9169 0.36103
-16.0365 92.7054 -0.538233
-18.2037 101.842 -10.9602
-10.5723 124.005 -4.85304
-5.01722 146.061 -3.70667
-10.8498 114.795 -0.18293
-13.6701 99.1589 1.80032
-13.9286 103.838 -1.46223
-15.55 96.7326 -1.37353
-18.8683 97.911 -10.0768
-17.2727 90.3682 -1.78635
-6.53347 129.64 2.17774
-17.9936 88.74 -2.54079
-21.2008 88.5678 -10.2418
-14.049 103.875 -1.45315
-15.6366 97.3354 -1.62274
-14.8622 96.8185 0.569845
-19.0946 83.8692 -2.34473
-5.07153 148.432 -4.67264
-8.83069 122.436 0.930325
-6.49808 137.518 -1.85174
-18.6819 100.333 -10.4093
-12.3996 108.485 0.309626
-5.46331 145.39 -3.62679
-14.0527 96.1315 3.29304
-15.5399 112.289 -9.43312
-16.5575 90.4841 0.46011
-17.5333 108.114 -11.8648
-16.369 94.8924 -1.54896
-16.4437 94.6841 -1.5061
-11.1065 114.725 0.212217
-19.129 98.4764 -10.128
-4.38881 139.254 2.79717
-18.214 87.7689 -1.75596
-4.51487 138.938 2.80584
-14.1634 98.1941 2.43996
-6.49959 140.929 -3.04026
-16.8195 90.6648 0.254555
-3.39172 144.409 2.59229
-5.85515 144.628 -3.49284
-7.37298 135.702 -2.13634
-19.0093 100.375 -10.4726
-16.214 93.5274 0.212057
-17.8913 107.846 -11.9505
-23.5028 84.442 -12.3423
-23.5103 84.4329 -12.3314
-16.1489 95.6952 -0.763062
-16.7765 94.6877 -1.67707
-6.25382 131.707 3.05987
-15.7851 112.391 -9.22948
-9.32223 121.608 1.33198
-14.3178 104.745 -1.29284
-15.2992 94.4035 2.22986
-16.7606 92.3466 -0.156366
-5.69317 148.622 -4.96172
-17.371 91.1689 -0.910707
-18.0925 107.716 -11.9844
-14.4286 104.64 -1.30936
-23.298 85.4357 -12.0346
-11.5477 113.621 0.663072
-17.9623 108.034 -11.7992
-16.6852 93.2968 -0.323024
-9.38777 121.668 1.45742
-5.86511 147.553 -4.55445
-9.82108 120.323 1.29747
-16.5999 111.203 -9.98244
-8.04962 134.136 -2.11908
-18.9263 87.8685 -2.4214
-18.5466 106.57 -12.0312
-19.9347 97.3199 -10.0693
-10.1904 119.478 1.26333
-22.1035 88.0294 -9.95403
-20.0141 82.5437 -1.50363
-11.9795 112.87 0.946123
-4.49481 141.308 3.11238
-16.2189 112.413 -9.00929
-15.5905 101.634 -1.36889
-7.58641 137.808 -2.31216
-11.775 123.94 -4.62651
-17.1813 93.7391 -0.702923
-4.20689 147.471 0.529061
-18.8277 85.8643 -0.231831
-16.5794 93.003 1.26258
-24.0036 83.7694 -11.5719
-17.5225 94.6869 -1.92121
-16.9812 93.7873 -0.0822773
-8.99651 132.263 -2.30653
-4.29794 147.417 0.611791
-7.78349 128.904 2.6197
-12.2386 122.858 -4.80119
-19.7186 101.9 -11.0761
-17.5505 94.3002 -1.49497
-17.1436 96.8224 -1.81068
-17.4301 94.4716 -1.15636
-19.6631 102.766 -11.1831
-19.5827 86.9569 -2.02734
-19.9329 86.4038 -2.52924
-17.1621 94.1931 -0.167402
-17.2717 92.7994 0.362293
-8.66621 126.512 2.30603
-14.8691 116.452 -7.09824
-16.1252 96.923 0.955716
-7.48144 130.264 3.17673
-9.87781 121.808 2.14552
-20.3575 98.5545 -10.165
-19.9323 102.161 -11.1518
-17.6739 92.8366 -0.364816
-18.6091 90.3653 -1.23556
-8.9915 125.581 2.29861
-18.1686 109.379 -10.8421
-16.6128 97.0405 0.00710892
-13.2825 108.087 1.88941
-19.3999 104.773 -11.0637
-14.5337 105.985 0.107468
-16.1592 113.821 -8.25901
-19.1314 87.1983 -0.379413
-20.3677 84.8658 -2.04189
-19.0822 87.2424 -0.194943
-15.4355 115.757 -7.40518
-19.1116 87.0338 -0.0786301
-17.0651 97.6154 -1.02702
-17.7869 93.6047 -0.516318
-11.2805 117.531 1.81024
-19.395 87.793 -1.06884
-6.8114 133.801 3.58278
-17.5683 92.4869 0.737854
-9.29051 133.151 -2.06978
-19.1811 88.2339 -0.766364
-17.2482 95.5503 -0.169779
-18.8346 87.9583 0.349153
-4.90866 147.473 0.680938
-19.8943 88.3929 -2.39553
-18.6435 88.1508 0.790488
-11.2584 117.843 1.99631
-17.871 92.8498 0.0289756
-12.6067 112.851 1.64997
-7.66106 130.904 3.54986
-12.7422 123.286 -4.51101
-15.1572 105.001 -0.0112203
-16.1572 114.748 -7.93559
-20.3592 85.6581 -1.70589
-20.295 84.2711 -0.685933
-19.8094 104.834 -11.0612
-9.57505 124.69 2.65796
-12.4852 124.565 -4.33263
-19.98 104.336 -11.0878
-23.2141 89.1921 -10.3851
-14.9411 117.976 -6.49634
-11.6102 117.121 2.14995
-15.8065 103.389 -0.246342
-9.64303 124.766 2.78115
-9.46472 134.503 -1.87876
-17.1182 99.8608 -0.834725
-22.2777 94.5924 -10.332
-20.8101 102.532 -11.2354
-6.18109 139.416 3.55318
-10.328 132.018 -2.22999
-8.03003 131.052 3.9152
-18.676 91.2678 0.475918
-13.6336 122.309 -4.78571
-14.958 106.134 1.2138
-12.0292 127.068 -3.46285
-14.1616 107.485 2.41256
-23.6395 89.9412 -10.7269
-10.4039 131.976 -2.23225
-23.8693 87.8012 -10.0201
-14.6957 119.788 -5.74961
-19.0181 90.6815 0.178297
-17.6935 94.4588 1.4855
-12.6893 125.688 -3.93229
-9.587 126.384 3.37312
-6.39101 139.627 3.69105
-19.0183 92.194 -0.180684
-21.0495 83.1493 0.0549691
-16.321 103.142 0.320912
-17.4829 99.5309 -0.408109
-9.87791 125.671 3.47269
-19.8533 85.9554 1.64702
-10.0757 124.934 3.43649
-18.643 89.571 2.62967
-20.1245 85.0799 1.61719
-24.4693 87.1087 -10.1068
-6.05003 145.875 1.54092
-9.39373 127.922 3.58838
-15.9286 117.854 -6.62426
-10.4426 123.754 3.45394
-24.3835 87.6599 -9.99195
-12.3581 127.567 -3.24945
-18.084 93.9346 1.91488
-17.0254 101.516 0.324984
-17.959 113.814 -8.88422
-25.5768 83.7533 -10.3782
-9.79744 126.781 3.73349
-7.09883 138.4 3.8243
-24.7486 86.973 -10.0882
-18.6862 96.2474 -0.556296
-13.002 114.694 3.02764
-16.4967 117.27 -6.92344
-10.5857 137.027 -3.60756
-18.1621 94.5505 2.01308
-21.8489 102.023 -10.8981
-13.8263 124.791 -4.10553
-24.8821 87.5095 -9.91015
-12.4113 128.716 -2.78398
-6.81769 141.099 3.8673
-26.7365 83.4184 -11.8253
-18.9769 94.4528 0.859056
-11.1563 136.833 -3.85864
-19.395 112.163 -9.84074
-10.1559 141.605 -3.95279
-20.4324 86.1275 2.41343
-9.885 144.164 -4.6485
-19.2766 89.8061 3.20086
-22.1987 102.302 -10.9485
-20.1498 110.821 -10.7451
-7.02735 145.529 1.65336
-9.47986 129.829 4.6106
-12.9775 128.354 -2.91363
-10.9653 140.202 -4.57694
-10.2344 143.336 -4.46034
-11.839 121.136 4.23105
-15.511 107.283 3.16427
-7.11635 146.919 1.24693
-15.2013 109.61 2.71854
-18.9066 97.5773 0.585957
-21.8196 105.819 -11.108
-12.6108 130.314 -2.42572
-24.7025 93.4751 -11.0414
-15.5941 107.991 2.95871
-24.9137 92.8217 -11.0245
-8.49827 152.303 -4.6297
-17.9259 100.835 1.50488
-19.4373 90.9225 3.45138
-15.7708 122.171 -5.20965
-8.24249 152.779 -4.14562
-20.1815 88.2046 3.28184
-13.0052 117.539 4.19818
-9.43324 131.641 4.96657
-18.3927 116.776 -8.29489
-8.61957 136.898 4.3287
-10.787 144.654 -5.31658
-23.0907 83.2012 -0.542374
-17.9136 101.528 1.74962
-18.0977 117.819 -7.81154
-7.69317 142.887 3.46352
-8.92598 135.681 4.56021
-18.2484 100.13 1.98223
-13.1687 117.838 4.35949
-21.7851 107.618 -10.6419
-7.82552 142.877 3.43622
-15.9382 109.248 2.72551
-12.5547 135.668 -3.96517
-19.146 116.153 -8.92888
-23.2992 101.121 -10.4946
-21.3459 86.4665 2.74502
-19.6658 94.9965 2.03898
-9.67085 132.873 5.014
-15.4311 111.085 3.3309
-22.27 106.774 -10.8257
-11.9428 140.611 -4.66699
-23.86 82.5708 -0.853826
-12.4172 139.368 -5.06206
-11.5035 141.727 -4.13554
-8.27764 141.471 3.94597
-9.00652 137.432 4.46972
-18.0705 101.82 2.52931
-13.0647 135.26 -4.07801
-9.71779 133.612 5.03007
-21.7593 109.931 -10.8636
-9.82738 151.397 -5.22282
-12.823 133.521 -2.40769
-23.6365 101.413 -10.573
-8.49412 144.171 2.24689
-11.6338 144.015 -5.3062
-14.836 113.856 3.94437
-13.1526 119.759 4.75798
-12.4514 139.964 -4.90367
-16.6372 106.682 3.84216
-11.7459 144.243 -5.32004
-11.2552 147.303 -5.73756
-21.062 112.99 -10.2266
-8.39042 147.384 1.39684
-8.37652 147.546 1.34705
-23.927 103.502 -11.6274
-25.9852 92.7001 -10.5259
-18.7394 99.8641 3.08706
-14.7994 127.922 -3.17321
-18.685 100.143 3.15284
-24.0409 103.295 -11.5548
-10.5306 150.774 -5.46482
-23.4932 83.9551 0.743289
-16.8686 107.344 3.70583
-24.1132 102.565 -11.2209
-26.4521 90.8868 -10.2967
-13.639 136.983 -5.05363
-19.5573 98.42 2.3692
-19.8456 117.257 -8.87775
-19.4039 98.7725 2.70601
-9.42218 153.182 -3.5898
-28.1184 85.4599 -10.8365
-21.7649 87.8031 3.43152
-11.0129 131.131 5.16285
-18.8848 119.194 -7.22174
-11.5034 148.68 -5.88913
-14.8762 115.882 4.43926
-10.2029 135.071 4.99277
-9.20474 145.354 1.68704
-27.0622 89.2535 -10.0472
-12.1136 145.705 -5.5304
-11.7958 147.72 -5.77445
-10.1508 136.253 4.83325
-11.8876 147.643 -5.76388
-20.9062 91.7343 3.89909
-22.907 108.708 -10.542
-27.553 87.4243 -9.81556
-20.2807 94.8763 3.75019
-22.5959 110.392 -10.6339
-21.5811 89.0858 4.01219
-23.2585 85.3767 2.18016
-10.4981 135.511 4.99186
-14.5976 136.271 -5.37957
-15.7656 114.447 4.1095
-9.59218 141.9 3.64208
-15.8576 127.28 -3.2813
-13.0064 124.135 5.47237
-14.8259 130.696 -2.57868
-18.6457 120.925 -6.35435
-20.3832 93.9729 4.6488
-19.5978 99.2544 3.57798
-20.3162 118.122 -8.80055
-25.8389 82.7918 -2.18872
-19.8613 118.827 -7.98748
-26.9768 92.0186 -10.1586
-17.1205 124.274 -4.3304
-13.1552 142.208 -4.72636
-27.5027 89.7813 -9.96473
-14.9976 130.688 -2.61741
-12.1862 148.336 -5.65126
-10.0143 142.543 2.98352
-16.5224 112.95 3.95966
-10.1613 143.791 2.05166
-24.4978 84.0192 0.936315
-8.91921 155.009 -1.18149
-10.5961 152.953 -4.07894
-13.6211 123.118 5.51792
-12.5753 147.248 -5.53628
-17.7233 109.156 3.4918
-16.4844 113.585 4.0446
-20.9914 96.4053 2.82626
-10.0308 153.931 -2.96049
-23.4905 109.607 -10.5346
-11.2881 134.159 5.45366
-14.5316 120.631 5.22554
-11.9802 131.41 5.36122
-13.7523 142.337 -5.07871
-25.8407 83.4365 -1.10265
-26.8686 97.1766 -11.2743
-14.9548 137.987 -5.26405
-13.495 124.935 5.80698
-14.0083 142.603 -5.33895
-15.6093 131.199 -2.75953
-15.347 136.777 -5.25886
-26.815 98.0763 -11.2199
-13.4638 144.648 -4.94685
-12.8726 147.964 -5.37928
-15.1399 137.673 -5.07972
-12.0975 132.123 5.46667
-29.5733 84.8039 -10.2894
-15.9954 116.959 4.64826
-27.9437 91.6339 -10.0887
-10.1689 148.064 1.33875
-13.5016 125.923 5.74716
-16.8838 114.419 4.12348
-28.2187 90.1879 -9.78386
-20.2192 120.093 -7.18573
-13.5568 144.801 -4.8863
-15.6966 118.225 4.92176
-10.8257 144.267 2.12845
-21.1304 119.033 -8.56326
-29.8613 85.1795 -10.6879
-24.2029 109.745 -10.6874
-23.9127 111.047 -10.6644
-23.6011 112.44 -10.6592
-13.4216 147.039 -5.34837
-25.8918 103.77 -11.2337
-16.2927 132.894 -4.30709
-16.9011 115.217 4.23467
-10.8335 154.111 -2.95261
-23.0907 88.8984 4.06569
-13.8057 125.728 5.90135
-28.3661 90.9075 -9.87328
-20.3609 99.3608 4.84622
-19.4354 122.476 -5.96001
-16.3794 134.928 -5.44303
-11.3637 142.573 2.45746
-10.3245 154.973 -1.96147
-11.0121 148.16 0.227186
-10.8095 148.003 0.809953
-12.5241 150.663 -4.70308
-16.6099 116.764 4.55899
-28.2911 93.541 -10.6866
-24.2195 86.9321 3.031
-27.9588 96.0332 -11.1743
-25.8042 105.4 -11.2097
-11.4262 138.657 5.02691
-10.5358 152.363 -0.397359
-12.7171 150.568 -4.62687
-18.2139 125.9 -3.98346
-18.0063 112.93 3.92281
-24.4723 111.2 -10.7441
-11.8196 141.612 2.94099
-22.6464 116.644 -9.26307
-20.559 121.2 -6.68133
-15.928 138.172 -4.97574
-20.2154 122.125 -6.19364
-11.8073 143.3 2.45619
-22.6828 91.5652 5.27775
-10.8103 152.529 -0.171372
-10.8189 152.538 -0.161137
-22.234 118.96 -8.85741
-19.8418 104.11 5.39903
-20.373 102.095 5.39879
-16.8572 135.88 -5.10298
-31.1765 85.6879 -11.5899
-28.1762 98.3552 -11.297
-13.8889 129.343 6.01271
-23.0497 117.389 -9.4306
-17.1964 117.62 4.75104
-12.5997 136.292 5.41394
-26.4306 84.1615 1.21179
-20.4385 102.407 5.50004
-16.1806 139.428 -5.0322
-19.348 109.861 3.9684
-12.4181 142.693 2.66465
-14.3703 128.183 6.29326
-29.8476 89.6078 -9.54229
-13.0401 135.038 5.75282
-22.148 95.5127 5.93912
-26.147 108.561 -11.1593
-12.2158 153.849 -2.78005
-26.2643 85.3466 1.88704
-20.2022 124.59 -5.46932
-21.1055 122.205 -6.31319
-16.325 141.086 -5.31275
-17.8684 134.296 -5.21959
-26.9427 84.2374 1.07007
-13.3755 134.278 5.89999
-17.9927 130.361 -3.1258
-12.7258 150.12 -1.37666
-17.1027 136.857 -4.40539
-21.843 98.5558 5.70278
-21.679 98.8252 6.0549
-18.3485 131.789 -4.43071
-31.8585 84.7184 -10.7235
-14.4025 129.658 6.39258
-20.6754 104.248 5.50457
-12.4879 150.678 -0.728293
-21.3104 101.625 5.60666
-11.3963 153.724 0.331739
-32.381 85.8854 -12.3786
-13.1065 152.29 -2.82498
-31.5438 86.0721 -10.3023
-12.7419 150.427 -0.879207
-18.4727 133.735 -5.3974
-20.9519 103.183 5.88399
-27.0405 84.8536 1.43292
-11.9053 152.218 0.318528
-28.8113 100.162 -11.4113
-13.3555 146.655 -0.0411375
-32.3162 85.187 -11.4255
-14.1181 150.12 -3.79915
-19.008 128.622 -3.54351
-24.0508 117.728 -9.60903
-19.7334 127.268 -4.47042
-15.0692 127.777 6.60307
-19.5524 112.913 4.14257
-15.6839 145.681 -4.87635
-23.4493 93.0289 6.1747
-19.2848 128.617 -3.6939
-13.0617 153.088 -2.27728
-24.357 117.587 -9.65616
-27.4722 105.953 -10.6241
-13.2927 152.505 -2.34633
-13.7119 151.517 -2.78051
-12.1426 153.902 -0.116899
-21.266 125.061 -5.94868
-27.6167 85.0578 1.20803
-23.4156 94.2141 6.38391
-12.9644 150.804 -0.0760676
-20.6919 126.958 -5.38254
-15.3936 128.387 6.77715
-17.1597 141.913 -5.13223
-13.3354 152.906 -2.02282
-24.272 92.8393 5.53864
-22.9416 96.473 6.73397
-17.3291 121.979 6.09528
-23.135 95.616 6.85518
-14.2568 146.476 -0.159232
-30.8757 93.1517 -10.4716
-26.2601 88.7409 3.26252
-19.4249 132.912 -5.03851
-17.8101 137.677 -3.7805
-17.5694 140.502 -4.7065
-23.8439 94.7789 5.87021
-13.3242 153.554 -1.60992
-19.6626 132.637 -5.19303
-13.9454 149.84 -0.973132
-24.5608 92.9244 5.43027
-20.0998 113.932 4.48029
-14.0155 143.82 2.45163
-20.2748 113.377 4.46963
-14.6721 148.107 -1.46974
-33.619 86.5236 -12.7687
-13.507 153.418 -1.44905
-29.667 82.7384 -0.840801
-18.8662 118.84 5.15926
-22.0059 125.311 -6.04205
-26.0105 90.599 3.87439
-25.2043 92.6397 4.81967
-22.2954 102.675 6.2513
-20.4446 129.593 -4.26989
-28.1781 108.021 -10.8999
-14.7837 144.074 1.37044
-29.4605 83.5983 -0.171215
-22.1274 104.8 5.77664
-14.8053 146.2 0.276988
-24.6387 95.4604 5.0744
-28.5782 105.974 -10.3878
-28.1959 108.508 -10.8677
-33.4316 85.9709 -10.8489
-17.1901 144.915 -4.60339
-31.7924 92.3568 -10.4519
-18.1472 140.302 -4.30858
-26.5528 113.765 -9.77487
-14.9136 136.619 5.69143
-12.9737 153.895 0.662987
-30.3881 82.964 -1.38432
-28.4212 108.02 -10.7077
-18.8464 136.823 -3.66627
-27.2551 89.0362 2.91056
-23.1736 123.65 -6.70996
-15.7051 132.233 6.67333
-15.2109 144.455 0.991593
-15.4398 147.887 -1.44185
-33.7228 85.9622 -10.9591
-13.2784 154.081 0.336733
-14.0683 153.087 -0.814515
-25.4946 94.5448 4.51073
-22.7785 125.23 -6.17659
-20.2081 116.741 4.88944
-20.0961 132.824 -3.7831
-18.4259 142.763 -5.31658
-34.1956 86.2866 -11.8034
-13.231 153.263 1.42459
-15.642 149.292 -2.15098
-29.0158 106.313 -10.3774
-17.1194 146.72 -4.16036
-29.3628 85.5047 0.620417
-20.9967 114.289 4.83108
-20.0257 118.221 5.01701
-32.7644 90.9014 -10.5536
-26.9696 91.2137 3.44555
-33.7065 86.8837 -10.4985
-16.0762 132.596 6.67188
-21.4126 112.864 4.86498
-15.4242 141.87 3.10016
-15.5866 148.356 -0.960342
-24.3706 122.496 -7.71005
-34.4286 86.9595 -12.1
-25.8412 95.4303 4.11757
-22.5675 107.506 5.29866
-17.6428 145.829 -4.23078
-26.3221 94.0915 3.9448
-30.5689 83.386 -0.327521
-23.8047 99.3809 7.17159
-15.2069 149.531 -0.189606
-15.9567 142.328 2.10276
-30.7326 83.2559 -0.491592
-13.9944 154.317 0.128921
-24.7987 122.493 -8.05465
-16.2218 143.875 0.762945
-27.2864 92.1945 3.0577
-19.1041 139.505 -3.74426
-19.1174 139.641 -3.78816
-23.0968 104.915 6.16401
-19.2526 121.576 6.14738
-24.9624 97.2154 6.10428
-13.839 152.413 2.10614
-20.963 116.408 5.1843
-34.4513 87.4605 -11.2461
-31.8572 96.4497 -9.97475
-16.9995 129.54 7.51189
-14.0358 152.051 2.13832
-31.3535 82.8922 -0.914863
-16.5317 141.968 1.8044
-20.6625 134.607 -4.08606
-23.1761 126.544 -5.62599
-29.4889 87.0887 1.32268
-22.706 128.427 -5.41379
-22.078 112.459 5.1592
-16.3208 138.333 4.5853
-21.2351 132.522 -4.09633
-34.9553 87.0759 -11.8209
-34.6146 86.8456 -10.8026
-27.3017 94.4247 2.74076
-31.1436 101.611 -10.6212
-31.4206 83.5163 -1.0388
-14.3549 154.249 0.583136
-16.3715 136.813 5.66377
-20.7453 118.726 5.26503
-19.097 123.666 6.60295
-17.2917 138.263 2.82681
-16.484 147.001 -0.0161258
-31.8249 83.1297 -1.21042
-20.9342 135.535 -4.28912
-15.1878 150.423 1.31006
-16.6234 140.699 3.31124
-30.5706 104.837 -10.2952
-26.2894 120.887 -8.91793
-32.5875 95.7013 -9.95312
-19.8417 122.099 6.30809
-24.4183 101.678 6.74892
-19.7409 141.996 -4.52143
-28.6688 113.148 -9.84654
-16.4663 147.71 0.362423
-25.6163 98.4223 5.96938
-34.3785 90.7433 -10.8497
-15.0739 153.887 0.491453
-35.0209 87.196 -10.3902
-32.5543 97.1639 -9.90245
-32.0916 84.5232 -1.52943
-16.9655 137.742 5.25763
-29.3127 90.4769 1.9054
-17.375 142.87 1.37652
-29.3252 111.675 -10.0956
-27.5024 97.0727 2.6188
-27.0265 98.0769 3.2702
-22.7673 112.604 5.52342
-32.7294 82.5154 -1.62309
-19.3458 125.578 6.6367
-17.3521 144.405 0.904018
-20.368 139.38 -3.59434
-17.1144 148.829 -0.957774
-24.7078 102.381 6.85262
-20.3698 139.939 -3.78202
-17.2146 148.671 -0.996415
-17.253 145.22 0.927374
-17.7073 138.619 3.68848
-18.0339 138.913 2.81076
-31.8885 103.133 -10.7087
-15.6954 153.391 0.33949
-32.737 100.107 -11.0007
-17.7596 141.05 2.51311
-22.4908 132.065 -3.89406
-31.9742 85.8333 -0.729956
-25.7366 99.8627 6.55784
-18.1498 139.378 2.73897
-17.4727 136.08 6.27583
-25.6738 125.095 -7.46902
-28.604 96.2517 1.8203
-18.6732 128.902 7.55504
-32.6739 85.3829 -1.85843
-23.3254 112.441 5.79039
-15.1864 153.657 2.37375
-35.4368 87.4931 -9.52425
-19.0928 144.996 -2.20909
-31.2919 106.604 -10.2153
-30.8778 108.319 -10.055
-29.5363 93.6281 1.70253
-20.3658 124.183 6.77308
-21.8806 119.251 5.9536
-30.8517 89.9703 0.684118
-17.4922 145.252 2.01838
-18.5204 133.397 6.30328
-17.4592 149.792 -0.336787
-18.5182 138.913 3.36
-30.7262 90.8629 0.926383
-18.2493 135.62 6.07033
-30.4396 91.7847 1.24333
-28.1886 119.644 -8.97651
-17.1993 150.639 0.270699
-26.0159 101.508 6.67409
-18.6413 138.448 3.76087
-30.4747 111.147 -9.59569
-26.1361 126.138 -7.46657
-21.2021 141.326 -4.02215
-18.3536 137.391 5.14606
-28.8273 117.85 -9.22012
-26.2618 101.616 6.21296
-19.0221 146.42 -1.43619
-32.5393 87.3725 -0.915467
-29.6411 96.0701 1.24715
-22.4063 136.707 -4.01141
-36.3351 88.3082 -10.5591
-18.4059 136.402 5.94626
-19.2378 131.913 6.59053
-16.8998 152.529 0.713533
-23.8495 112.814 6.24
-31.1929 109.269 -9.59662
-18.1079 144.444 2.42133
-27.72 122.225 -8.32585
-18.2007 149.524 -0.567742
-26.6116 125.883 -7.67713
-24.9464 107.684 6.71885
-17.6126 150.699 0.289415
-22.8121 117.378 6.50525
-28.0079 100.365 3.47609
-29.4028 116.104 -8.74592
-27.8033 100.92 3.833
-26.1201 102.548 7.05031
-19.0099 140.994 2.69247
-26.4209 102.522 6.48074
-26.4394 102.538 6.46199
-24.0487 113.103 6.42686
-34.2363 84.8581 -2.4062
-19.2443 136.756 4.90368
-36.5817 90.1233 -10.9512
-20.1692 128.458 7.39621
-26.0811 127.434 -6.35964
-24.1784 130.839 -3.61017
-18.6576 149.439 -0.653367
-16.3366 151.757 3.73181
-31.0021 94.3678 0.450618
-24.2384 112.718 6.55479
-19.3127 139.852 3.23324
-26.9721 125.898 -7.49935
-19.0039 142.236 2.75677
-31.1566 94.1343 0.375856
-37.0747 88.6022 -10.8567
-36.8938 89.583 -10.9388
-34.5375 84.753 -2.47001
-24.2628 130.985 -3.55161
-32.2287 108.355 -10.1498
-29.5707 117.783 -8.99986
-30.7954 95.9524 0.37958
-17.2284 149.544 3.14776
-20.4313 128.343 7.34122
-27.0683 125.886 -7.38544
-16.413 152.028 3.82121
-20.7834 127.561 7.01926
-26.3297 127.493 -6.39235
-27.9511 101.683 4.2475
-33.9458 87.3302 -2.24005
-26.2198 103.676 7.38204
-31.9998 109.274 -9.60078
-18.488 146.204 2.61233
-25.4222 129.365 -4.72237
-24.3236 113.878 6.7437
-24.5872 112.633 6.83723
-36.8097 92.1873 -11.2502
-17.6598 152.461 1.34894
-32.1739 92.7607 -0.2097
-27.2073 103.467 5.87454
-17.9133 151.937 1.14519
-22.819 138.748 -3.25805
-20.4457 131.718 6.51762
-29.9668 117.901 -8.84627
-21.4118 126.681 7.04981
-24.9007 131.542 -4.18858
-37.5248 88.444 -10.5573
-23.9763 115.969 6.94516
-19.9601 135.642 5.62477
-24.8022 112.431 7.00372
-28.2812 102.235 4.30951
-24.3562 114.7 6.91816
-17.0301 151.106 4.22319
-23.0221 138.61 -3.30356
-35.7569 82.8704 -2.76615
-17.8962 152.411 1.52581
-26.3544 128.791 -5.6798
-26.2087 129.239 -5.5318
-23.6001 137.008 -3.50624
-32.6551 109.064 -9.76055
-17.3794 153.253 2.50603
-20.4679 138.052 3.61489
-25.2613 111.046 7.25205
-21.3257 128.244 7.30361
-30.5386 116.659 -8.5844
-31.7062 111.779 -8.62063
-24.3351 115.723 7.11199
-25.8634 130.366 -4.87439
-37.1395 92.9188 -11.0908
-22.0007 143.428 -2.74331
-32.1878 110.732 -8.91079
-33.1373 93.3866 -1.36048
-26.6642 106.242 7.22157
-26.6699 106.252 7.2176
-35.978 96.3008 -9.76838
-23.5039 138.886 -3.39541
-30.3575 118.464 -8.49155
-36.7285 94.4682 -10.4341
-20.5053 139.83 3.44426
-24.7916 133.476 -3.36966
-27.3967 104.85 6.52973
-38.0253 89.9064 -10.8087
-28.6133 103.3 4.67419
-19.3218 151.159 0.27533
-23.5832 138.44 -2.87172
-23.8479 119.883 7.04161
-29.3081 122.816 -7.87798
-20.3221 149.194 -0.833932
-27.8819 126.038 -6.14137
-23.4069 122.545 6.74958
-23.6347 140.629 -4.00663
-35.3065 88.4151 -2.91793
-27.0312 106.531 7.01742
-29.3483 123 -7.84608
-24.0634 137.023 -2.8993
-23.6491 138.587 -2.735
-24.5286 117.432 7.12488
-30.1293 101.454 2.53541
-38.2639 83.9663 -7.38673
-22.8845 124.673 7.11273
-22.6171 125.678 7.20678
-19.5779 145.553 3.41473
-33.3098 95.6563 -1.67554
-31.8936 98.129 0.414109
-33.8364 108.081 -9.89686
-37.6636 89.5006 -8.64782
-35.1764 89.4284 -2.53623
-24.5744 137.894 -4.07216
-28.4639 104.579 5.43229
-21.5145 130.365 7.82108
-29.4654 123.728 -7.72978
-21.5377 135.274 5.10958
-18.1358 151.948 4.03381
-20.1181 143.469 4.0203
-35.8058 88.8788 -3.28346
-21.3978 134.981 5.82381
-35.1016 104.503 -10.2682
-23.4402 124.099 7.07308
-18.4305 152.692 3.11906
-37.2843 83.4623 -3.66695
-27.5298 106.909 6.88226
-27.8973 105.905 6.58141
-31.8434 99.0106 0.886574
-27.2439 129.029 -4.82548
-25.5234 135.496 -4.2788
-23.1336 143.367 -2.8277
-19.7511 145.684 4.10532
-27.9045 106.197 6.59891
-25.5722 136.583 -4.79646
-24.661 139.222 -4.04835
-34.5444 92.8147 -1.88724
-36.8977 86.5295 -4.03733
-22.3165 128.69 7.6534
-38.6325 84.1251 -6.89209
-22.0882 129.578 7.77212
-34.3567 94.3792 -2.15687
-33.2815 96.9173 -0.951922
-31.6954 99.7965 1.3565
-27.219 109.06 7.12483
-36.7277 88.2647 -4.26238
-37.0596 87.1253 -4.39078
-19.8269 152.03 0.924053
-31.9881 115.744 -8.13451
-28.9404 105.28 5.26907
-37.9897 91.9908 -9.24551
-36.634 99.9099 -10.3895
-38.6211 83.8229 -6.13103
-27.931 127.762 -4.88988
-25.2677 135.846 -2.9573
-38.4473 90.6685 -9.50085
-38.7667 85.8285 -7.52126
-37.0134 98.3921 -10.3491
-21.776 147.344 -0.871992
-36.2012 89.8566 -3.40171
-25.2778 136.628 -3.15299
-28.2063 127.795 -5.08453
-37.6789 95.5613 -9.88658
-31.4397 101.742 1.87518
-37.9833 94.7858 -10.1102
-27.9804 127.982 -4.50776
-32.0396 116.658 -7.97027
-38.1968 91.9351 -8.98178
-26.1368 133.331 -3.00512
-19.6947 152.548 1.97994
-31.9383 100.623 1.52111
-23.0621 133.264 4.77277
-38.8135 89.8189 -9.02839
-26.2238 134.485 -3.5421
-30.5191 123.021 -7.49421
-28.6904 126.523 -5.00686
-30.3541 123.297 -7.21782
-30.5662 104.311 3.02291
-25.3102 136.687 -2.41216
-26.393 134.616 -3.84839
-35.2082 94.0497 -2.38915
-35.1885 94.2773 -2.45906
-25.7229 118.186 7.08572
-35.7088 104.816 -9.62122
-30.4561 104.587 3.34192
-33.8587 111.293 -8.69297
-28.1022 108.536 6.94479
-28.5691 128.246 -5.29484
-27.861 109.473 7.05625
-21.8597 148.92 -0.56869
-22.7236 130.603 7.69606
-25.9202 117.859 7.14958
-36.7679 102.211 -10.403
-38.093 95.8451 -10.0156
-35.6008 93.1444 -2.40398
-30.1496 124.017 -6.43033
-22.5522 146.854 -0.830586
-29.1735 126.498 -5.43329
-19.6415 152.409 3.13959
-20.1438 152.321 1.98279
-33.8476 99.0746 -1.2959
-33.1933 99.7308 0.0253343
-36.8259 90.9188 -3.80947
-19.4336 149.744 5.3034
-31.4998 120.39 -7.46985
-19.873 148.157 5.17243
-33.7824 112.017 -8.27142
-25.1388 121.279 7.57541
-19.4231 150.557 5.00086
-33.2912 99.9005 -0.0460157
-38.4039 86.9385 -5.04905
-34.1659 111.199 -8.35323
-28.3816 109.253 6.89281
-32.0964 102.765 1.52442
-35.9339 94.1432 -2.92212
-27.7431 131.931 -4.23464
-28.1914 129.273 -3.80127
-25.4336 141.693 -4.05468
-36.4197 104.024 -9.43549
-36.2673 93.3036 -2.96226
-38.9115 92.159 -8.73599
-29.2503 128.726 -5.80165
-26.7264 135.08 -3.21514
-36.803 92.3547 -3.50469
-37.0772 101.773 -9.49072
-25.1836 122.889 7.58439
-27.7037 132.199 -3.81017
-37.3857 101.22 -9.86908
-19.897 149.164 5.69327
-31.394 104.922 2.74806
-37.9612 99.2125 -9.99926
-26.758 134.698 -2.66304
-27.8018 112.697 7.26919
-30.1845 107.285 4.54354
-23.5835 131.986 6.69798
-36.5501 94.0577 -3.38684
-23.3236 137.221 4.48355
-33.887 100.708 -0.556083
-20.8849 152.067 2.09302
-34.1438 112.236 -7.64322
-39.1439 87.3866 -5.7654
-26.1426 140.596 -4.11685
-20.1274 149.221 5.68279
-28.5218 129.307 -3.49983
-36.8285 101.884 -8.15165
-27.4708 136.581 -4.93255
-33.5683 101.14 0.389244
-37.2699 101.474 -8.79001
-24.9289 132.58 3.70903
-33.7253 114.071 -7.18414
-31.0692 106.449 3.59598
-29.126 128.238 -3.98259
-23.9449 145.349 -0.993275
-36.1616 98.5839 -4.25469
-26.178 120.376 7.74628
-31.5876 105.682 2.93967
-37.9214 100.239 -9.39138
-36.5727 96.1499 -3.7573
-38.7521 89.8442 -5.49574
-37.0439 94.203 -3.7932
-28.3502 131.782 -3.85231
-33.4926 115.639 -7.23814
-28.2052 132.447 -3.83056
-31.6144 105.897 3.00422
-29.6666 127.254 -4.31611
-40.5174 88.5787 -8.85162
-24.4072 134.651 4.35624
-35.7486 99.1632 -3.19509
-24.526 129.409 7.11157
-38.5489 90.8316 -5.23672
-30.3431 126.145 -5.18358
-31.1642 123.186 -5.46238
-28.9536 130.137 -3.93073
-36.9311 97.8551 -5.04951
-36.6639 105.166 -8.48733
-29.6166 128.982 -4.73929
-39.6863 92.5548 -8.64406
-24.9769 129.685 6.26832
-38.7245 98.0575 -9.33588
-36.063 106.983 -7.84289
-39.511 95.4658 -9.58335
-40.4879 88.5507 -8.01226
-38.3541 92.5953 -4.97967
-22.3406 150.881 1.08225
-36.9982 98.7292 -5.10499
-35.3662 109.126 -6.98081
-38.3651 92.7181 -4.96609
-29.9842 110.189 5.61508
-32.0189 122.326 -6.17923
-21.5016 146.722 5.66861
-35.5923 100.201 -2.29139
-28.4071 132.659 -3.12994
-25.2171 129.474 6.50092
-38.0456 94.5765 -4.94241
-38.9091 98.1193 -9.03428
-28.1273 115.887 7.19065
-21.3382 147.773 5.80322
-21.3683 151.698 3.52325
-38.6479 92.7478 -5.21818
-31.6231 107.38 3.65032
-27.9671 116.581 7.45243
-22.5451 143.957 5.19885
-28.1521 116.209 7.23847
-37.1197 101.78 -6.446
-34.2078 113.517 -5.97054
-35.5027 109.246 -6.66822
-38.4415 99.9747 -8.5839
-21.3722 151.556 3.84063
-23.7878 139.585 4.83351
-25.3485 129.099 6.96983
-33.4475 118.349 -6.64963
-28.9207 133.126 -3.92671
-23.9117 148.459 -0.367795
-31.3746 124.042 -4.67718
-24.4086 146.79 -0.556426
-25.8081 126.006 7.83695
-36.5359 99.8842 -3.51144
-36.984 99.5441 -4.40119
-40.2699 93.0764 -8.7169
-29.6435 129.675 -3.39726
-28.8494 134 -3.90563
-22.6442 144.414 5.33591
-29.044 133.242 -3.83454
-30.1443 112.016 5.58917
-22.9771 143.658 5.19428
-23.5817 149.739 0.28686
-24.6133 137.726 4.59155
-39.1283 93.4359 -5.71497
-21.6077 150.632 4.66757
-38.9643 95.0517 -6.13887
-30.797 110.728 4.94852
-30.8395 110.63 4.90499
-33.1226 120.761 -6.27195
-29.5662 130.389 -3.03814
-25.7327 129.014 7.09448
-38.1438 100.528 -7.00733
-37.8175 100.733 -6.2155
-36.5483 105.762 -5.88498
-34.3837 114.989 -5.80885
-26.1892 131.776 4.67789
-36.7146 106.445 -6.55805
-37.989 100.588 -6.31796
-26.2923 143.785 -2.22571
-30.7671 126.063 -3.09057
-36.317 108.099 -6.43759
-37.4213 99.956 -4.49617
-31.6301 109.806 4.09527
-34.6375 113.291 -5.1897
-25.1064 136.854 4.72084
-26.2096 131.295 5.20359
-33.2252 106.605 2.08831
-40.1537 92.5643 -6.83327
-40.583 91.801 -7.32371
-39.6465 95.0597 -6.87415
-39.5179 97.2725 -7.80219
-32.5773 108.113 3.01897
-33.5775 119.827 -6.03404
-38.5018 99.6864 -6.64262
-34.5269 114.789 -5.48145
-37.2979 102.542 -5.30717
-40.633 91.9056 -7.41576
-23.6366 142.699 5.29805
-29.5546 134.171 -4.19268
-31.8732 124.111 -4.13064
-40.3269 93.0875 -7.18553
-37.5897 101.653 -5.30048
-26.8398 126.066 7.09423
-30.2832 114.239 5.39527
-39.747 97.0871 -7.93838
-36.6594 101.797 -2.97256
-28.4174 139.543 -4.09104
-31.807 124.533 -3.80457
-40.1769 95.1108 -7.53031
-31.2157 125.848 -3.07421
-29.3428 135.491 -3.95964
-30.4944 128.664 -2.79293
-36.8733 103.922 -4.31169
-29.4939 136.515 -4.74738
-34.1409 106.317 1.06159
-35.2086 111.777 -4.59425
-37.602 102.063 -4.91166
-36.9334 103.728 -4.16991
-33.2692 121.951 -5.54394
-22.714 148.024 5.44017
-34.3855 117.892 -5.86864
-25.9568 145.572 -0.872102
-36.9005 103.661 -3.82605
-33.6842 116.536 -3.10084
-33.2979 109.394 2.00326
-36.6719 102.932 -2.52661
-29.0817 121.509 5.5218
-31.3113 120.819 0.573143
-27.4812 126.791 6.56288
-26.91 144.073 -1.7893
-30.1189 131.198 -2.31658
-31.5801 113.367 4.26165
-30.545 116.268 5.18965
-30.1579 134.449 -4.12528
-30.3371 131.693 -2.99369
-34.466 107.582 0.604833
-33.8693 116.046 -2.72303
-31.6969 113.439 4.13597
-34.0279 108.888 1.06687
-34.1836 117.034 -3.86367
-30.1249 120.605 4.03577
-34.6657 118.029 -5.54851
-32.4087 116.483 0.840193
-30.5974 117.542 4.65724
-23.7557 145.021 5.84843
-31.5459 118.606 1.85761
-33.6541 117.43 -2.5959
-28.3582 122.998 7.1553
-32.3963 116.356 1.12317
-36.5764 106.613 -3.48526
-24.9978 149.033 0.758337
-23.2385 150.056 4.49623
-23.3014 150.157 4.41435
-30.8865 119.268 3.41884
-31.2018 119.121 2.75325
-34.4871 108.904 0.556625
-30.4513 134.778 -4.23361
-35.8038 105.598 -0.754458
-33.1588 116.04 -0.146474
-33.8243 121.637 -4.91075
-31.2517 118.505 3.13539
-29.9313 122.996 3.9405
-35.6219 113.062 -4.28897
-24.3687 150.164 2.18592
-36.4443 105.923 -2.16549
-23.9197 146.368 5.58456
-27.9032 128.155 6.18426
-28.4287 142.147 -2.97799
-32.2714 116.133 2.38522
-26.048 139.043 4.66718
-30.3583 134.48 -3.20957
-27.8863 130.696 4.99105
-30.6431 134.627 -3.94242
-36.155 106.541 -1.37084
-36.556 109.643 -4.0033
-33.4346 112.642 1.90382
-33.4275 123.504 -4.00361
-36.2608 107.163 -1.6345
-36.7403 108.633 -3.61937
-32.4436 115.33 3.07473
-30.6461 132.921 -2.47996
-35.2459 113.877 -2.74282
-27.9839 143.899 -2.02296
-30.6017 134.502 -3.0655
-24.1329 148.76 4.66363
-27.0267 136.599 4.55385
-32.2762 122.262 -0.125803
-30.9492 123.151 2.66626
-33.9196 119.067 -2.13619
-30.1462 123.924 4.31211
-34.6693 119.631 -4.25707
-24.1557 150.35 3.99312
-35.1294 113.867 -2.11147
-31.4284 131.843 -3.19939
-36.6645 110.007 -3.60627
-33.859 113.399 1.34713
-36.4352 109.734 -2.82364
-24.3835 150.377 3.56367
-32.2151 122.564 0.236251
-36.4798 109.994 -3.03593
-30.9772 133.045 -2.62892
-34.5273 112.388 0.420752
-34.556 112.506 0.30325
-34.7209 112.526 -0.0734301
-31.351 132.298 -2.99615
-28.671 132.445 3.46988
-35.1584 112.506 -1.03897
-31.12 130.908 -1.55856
-34.4376 119.795 -3.35671
-33.825 119.755 -1.83448
-31.2682 124.045 1.98154
-30.8318 133.809 -2.46093
-26.4836 139.69 4.81296
-35.9209 111.796 -2.36838
-25.8939 149.061 1.08191
-29.1028 126.791 5.91005
-33.42 121.33 -1.51448
-30.2024 124.45 4.56988
-28.5887 143.686 -2.32879
-28.743 143.42 -2.54215
-33.7626 123.22 -3.23692
-31.7093 123.58 1.67294
-31.7025 129.021 -1.29981
-28.6608 133.443 3.73145
-30.9551 134.471 -2.42318
-27.704 136.16 4.58803
-29.9524 125.39 5.21662
-25.5923 149.702 2.16518
-30.0837 125.363 5.01378
-27.4248 137.738 4.50183
-28.7994 133.334 3.66537
-31.6326 129.817 -1.22022
-33.2752 122.984 -1.28663
-26.7122 140.647 4.73687
-32.8404 123.287 -0.30442
-29.2356 129.765 4.82536
-29.081 131.537 4.2561
-31.9434 131.816 -2.81652
-34.2152 121.687 -2.48347
-31.752 132.568 -2.55104
-31.7393 130.347 -0.989326
-32.4953 127.475 -0.835788
-25.4419 149.669 3.87993
-32.1261 128.945 -0.666316
-29.8882 129.275 4.74118
-33.8488 123.798 -1.7683
-27.9238 146.42 0.17932
-32.3311 129.018 -0.63599
-30.2668 132.923 2.50359
-32.4996 125.987 1.05486
-31.0075 133.546 0.707413
-26.0361 147.281 5.13176
-32.1222 126.511 2.07307
-26.9157 149.177 1.99895
-32.688 128.389 -0.178375
-32.3845 127.202 1.32175
-26.1531 147.771 4.93532
-32.0892 128.669 1.27701
-33.1828 130.672 -2.49519
-33.172 130.775 -2.27607
-33.3447 130.263 -2.3628
-32.5348 130.299 -0.398758
-33.077 131 -2.02675
-33.3527 131.238 -2.80824
-30.825 132.894 2.49484
-27.4471 148.769 1.80645
-30.5975 133.048 3.02941
-32.3565 137.537 -3.76681
-26.7154 145.645 5.40208
-29.7871 133.936 4.61773
-30.4989 132.736 3.69565
-32.5453 132.916 -1.27971
-32.6908 132.925 -1.52269
-33.2288 132.982 -2.77171
-31.3222 132.891 2.0729
-27.4462 144.993 4.70498
-33.779 130.841 -2.70914
-30.4596 133.722 3.77072
-27.3479 145.303 4.85252
-32.7667 129.817 0.491435
-31.8808 131.625 1.77229
-30.3704 134.074 4.06924
-28.3226 142.584 4.31689
-32.7648 131.662 -0.216346
-29.2037 137.767 5.41884
-32.6921 132.397 0.185808
-31.4848 141.163 -1.68225
-33.77 130.828 -0.916215
-31.5249 141.921 -1.27531
-34.5002 130.612 -1.93687
-30.4137 136.07 5.37491
-32.4486 140.296 -1.76049
-34.0804 131.673 -0.635973
-28.4513 146.604 4.7179
-33.2954 138.603 -2.40983
-34.0703 134.137 -1.56538
-31.4074 134.91 4.62765
-31.1232 144.151 0.221496
-30.5142 145.404 1.14058
-34.1431 135.006 -1.38686
-34.3078 134.111 -1.24151
-34.0746 132.509 0.422523
-34.6055 131.249 0.714685
-32.5585 142.548 -0.576748
-34.4516 137.977 -2.49017
-34.5402 136.493 -1.73643
-34.7926 130.976 0.779999
-31.5191 136.975 5.57457
-32.5172 134.629 4.56866
-35.4266 131.035 -0.333032
-34.8314 134.768 -0.654614
-34.9861 132.713 0.139984
-30.6035 144.904 3.93057
-31.2941 145.809 1.86905
-31.8922 136.872 5.52615
-33.1133 142.663 -0.330902
-31.4089 143.012 3.69628
-35.7959 131.259 -0.337069
-33.2695 134.626 4.38607
-34.458 134.474 1.67285
-32.2138 145.204 1.37005
-31.8362 144.383 3.23
-33.9861 142.032 -0.416716
-34.4746 140.982 -0.959222
-34.1936 134.069 3.7135
-32.2189 143.87 3.05976
-35.9362 133.324 0.200136
-35.0478 140.003 -1.33199
-32.3557 144.37 2.94236
-34.961 140.501 -1.18671
-36.0436 133.077 0.71928
-32.1868 146.38 2.80741
-32.393 145.761 2.83121
-36.1313 136.179 -0.67333
-32.8922 142.935 3.43092
-36.2872 137.993 -1.74636
-37.3557 132.001 -0.936534
-36.8057 132.328 0.242828
-34.6071 142.436 0.0325002
-33.0427 145.646 2.09843
-33.888 144.391 0.860578
-35.6447 134.142 2.49169
-35.4717 140.858 -0.782501
-33.862 137.145 5.31341
-36.6789 133.571 0.526995
-36.619 136.896 -0.987678
-36.6393 136.997 -1.02448
-33.4525 144.927 2.66316
-33.7749 139.035 5.29719
-36.3501 139.942 -1.05497
-37.4349 133.195 0.565696
-33.9341 140.888 4.75814
-36.9489 138.806 -1.17226
-37.9174 133.365 -0.272838
-34.2376 141.688 4.13246
-37.258 137.468 -0.72495
-38.651 131.354 -0.537995
-37.6781 134.068 0.912763
-36.9653 134.187 2.8913
-34.708 140.678 4.97811
-37.6631 137.182 -0.205995
-37.1199 134.147 2.92252
-34.7436 144.154 3.06595
-37.5808 134.077 2.04793
-38.5646 133.532 -0.035186
-37.3464 134.086 2.78873
-38.0572 134.119 1.1185
-35 143.952 3.12525
-37.8648 138.452 -0.715623
-35.4465 138.857 5.13409
-35.1603 140.917 4.87182
-35.2042 143.732 3.18311
-37.6253 134.64 2.8381
-38.1891 138.245 -0.321209
-39.3681 132.727 0.404358
-35.6867 142.331 4.03224
-36.1627 138.829 5.04587
-36.2288 143.235 2.61162
-38.4021 134.81 2.19719
-38.7833 137.06 0.64306
-37.1662 142.746 1.39255
-39.7845 132.676 0.808248
-36.6684 142.304 3.28796
-40.1425 134.447 1.01189
-37.5989 138.903 4.96125
-37.8905 138.155 4.69325
-38.8385 141.136 0.706987
-37.324 140.102 5.00972
-38.5861 137.486 4.37364
-39.4111 136.974 3.69178
-40.4265 136.274 1.89036
-40.8898 136.148 1.30642
-40.5756 136.006 2.40656
-39.9685 140.738 1.33934
-39.5231 139.958 4.43218
-41.2263 135.734 3.05452
-41.0052 139.778 2.05325
-40.5729 140.571 2.6934
-41.7739 137.55 2.5257
-41.5023 137.988 3.26246
-41.7854 137.9 2.87357
-41.0555 140.31 3.62209
-42.2134 138.308 2.54556
-41.631 139.483 3.79151
-42.7743 138.999 2.84725
-42.4914 139.275 3.76586
-43.092 138.832 2.89161
-43.0346 138.643 3.25535
-42.7428 137.727 4.70158
-43.1819 138.353 3.70363
-43.361 139.542 3.50113
