ply
format ascii 1.0
comment Created by Open3D
element vertex 1906
property double x
property double y
property double z
end_header
-13.6647 102.44 0.152621
19.3374 122.527 -8.07844
5.4529 110.677 3.06237
-19.6719 105.185 -12.5878
19.0737 121.28 -5.48175
12.6634 120.303 -10.4184
12.2468 120.095 -10.3502
8.67374 117.441 -8.37822
-16.7122 107.612 -14.5847
-34.298 95.6966 -7.43563
13.1107 118.961 -6.76246
13.0953 118.991 -6.79212
-19.2768 105.619 -12.852
9.45487 117.842 -8.1835
18.8178 122.125 -7.25727
-39.7132 94.5945 -10.6864
-21.0185 104.454 -11.9446
-7.01205 107.051 -2.14153
-37.9038 93.7356 -6.66015
-32.5519 96.4407 -6.5872
19.3002 122.84 -7.96247
10.7197 113.346 3.76172
-4.4725 109.444 -4.25796
-18.6135 100.139 0.878066
4.89618 111.468 1.73242
-15.0397 102.159 0.41089
1.13815 111.573 -2.66144
-15.2838 102.031 0.442198
-9.822 111.984 -15.7624
5.10193 111.417 2.13162
14.5217 119.628 -5.76819
17.9127 121.268 -5.66162
11.732 114.433 2.79716
-1.82585 115.63 -14.9577
-35.0888 97.7302 -11.7327
19.6423 125.067 -12.051
-27.7925 102.196 -13.6024
4.23063 118.572 -14.5701
-18.6249 100.309 0.920006
11.1983 116.926 -3.09676
12.3576 115.958 0.46139
-35.6396 95.8549 -7.91298
19.4877 121.822 -4.71354
11.6868 120.763 -10.9929
-38.8338 93.7865 -6.78901
-28.7233 97.7026 -4.28916
20.3153 124.855 -10.4906
4.01421 112.019 0.147781
18.9599 121.916 -5.37589
-6.39327 108.127 -2.66539
-32.8776 96.7114 -6.55607
4.28563 111.979 0.610451
19.024 125.416 -12.9616
-18.3983 107.131 -13.5349
-28.0601 98.034 -3.88821
11.4621 116.491 -1.23992
-10.2318 105.389 -0.43635
4.79358 112.024 1.45814
-27.4714 102.743 -13.5571
-22.7466 99.2247 -0.384836
-7.17229 113.609 -15.2431
-19.4927 106.41 -12.8088
7.84954 112.078 4.92398
5.3751 111.894 2.59636
-5.73115 109.009 -3.2708
12.385 116.058 1.10579
-36.4717 97.5958 -11.8498
9.34698 121.225 -13.7588
-18.6611 100.711 1.02068
7.08484 117.826 -8.61444
-7.59585 113.604 -15.4731
12.2472 121.442 -10.9278
9.91549 119.177 -8.35406
-16.8705 109.024 -15.3707
12.3165 120.494 -8.43134
11.0822 121.104 -11.118
11.5395 117.736 -3.03228
-24.641 99.1606 -1.68536
4.82722 112.459 1.45299
-21.8981 99.5153 0.754325
12.026 121.782 -11.2975
12.1441 115.932 1.94103
19.127 123.793 -7.82469
-20.8559 105.984 -12.4096
-22.9717 105.249 -13.1082
19.3027 126.004 -12.5508
14.8616 120.3 -4.65111
-5.28285 109.809 -3.51316
-18.9972 107.436 -13.4414
14.6468 124.581 -14.3964
0.870269 117.666 -14.0559
19.903 122.37 -3.38413
-1.21989 117.006 -14.843
14.7893 124.701 -14.2623
18.7219 122.476 -4.89816
0.301402 117.503 -14.2531
-20.903 106.201 -12.5088
-27.8565 98.6151 -3.23647
10.8603 119.79 -7.52632
-36.065 98.5396 -12.1176
-36.5734 98.2857 -12.0765
9.49747 113.823 4.51564
-19.0501 107.737 -13.5796
11.1698 117.806 -2.48459
17.6572 126.55 -14.8253
-35.2018 97.2336 -7.97505
2.91587 118.905 -14.0569
-8.66002 107.027 -0.335803
13.0396 119.921 -5.04246
-39.4549 96.1032 -10.0864
11.0998 117.584 -1.88595
8.89756 113.558 4.74228
-15.8757 110.508 -15.9353
0.434683 117.829 -14.1724
13.6008 120.504 -5.49954
-3.1378 116.124 -14.2452
-37.9763 95.8419 -7.5773
10.895 122.125 -12.0274
0.454539 113.194 -3.56643
15.5059 125.118 -13.5178
7.28329 119.789 -10.6449
19.0528 126.736 -13.0607
-1.06016 117.532 -14.8071
2.82796 113.656 -1.77402
-14.074 104.353 0.27838
-34.2073 100.252 -12.8517
-4.0248 111.309 -3.8947
-1.12128 112.807 -4.01087
-6.33992 109.344 -1.94654
-31.2692 98.4078 -5.08993
-12.7895 112.272 -15.5575
11.7994 120.791 -7.21422
-36.5935 99.0574 -12.2476
-13.1311 112.215 -15.582
-18.6481 109.137 -14.7482
11.0794 117.551 -0.476519
11.1491 123.743 -14.1482
-3.14775 112.118 -4.02471
-1.00825 117.991 -14.7376
20.6677 126.348 -9.30902
19.061 123.976 -5.7441
-34.3949 100.7 -13.0605
8.97296 121.572 -11.5337
-28.5419 99.1422 -3.0442
4.89311 120.707 -14.128
-13.4941 112.247 -15.6219
-17.4453 110.323 -15.6471
10.9935 120.787 -7.28704
-11.5281 106.255 0.198399
12.9335 120.488 -4.41959
19.2231 125.192 -7.81794
-12.5683 112.813 -15.4536
8.54167 114.218 4.92584
-17.1387 110.579 -15.4473
11.8771 121.065 -6.63893
13.545 124.97 -13.5211
9.19775 114.697 4.65836
2.15978 119.405 -13.7016
6.90366 119.961 -9.66776
9.07763 120.675 -8.81322
18.1206 127.459 -13.9119
17.7461 123.077 -4.51387
1.22934 119.037 -13.7947
-29.4914 103.767 -13.7206
19.5956 127.048 -11.1759
12.8096 120.783 -4.67159
4.79937 121.058 -14.1028
13.312 125.015 -13.4758
4.1535 114.45 0.0129845
-4.55664 111.742 -3.56982
5.72953 113.798 3.35122
-5.24582 111.123 -2.80216
-32.8387 98.7297 -5.56278
-38.4635 97.1488 -8.26832
10.207 122.832 -11.6172
13.249 121.197 -4.55978
-4.95998 111.552 -3.07941
14.072 125.128 -12.293
11.2927 124.542 -14.0169
-38.341 97.4304 -8.47639
2.25165 114.878 -2.38304
-14.7809 112.268 -15.369
18.6099 123.687 -3.76966
18.921 125.356 -7.12834
-27.9582 100.008 -2.51726
7.66953 121.795 -11.649
15.8195 127.062 -14.1959
8.97565 115.209 4.7928
19.4548 126.087 -7.77372
-19.083 110.267 -15.221
-32.669 99.1493 -5.3264
-7.39531 109.32 0.042876
-3.492 117.614 -14.1747
19.8623 124.12 -2.69268
-32.3825 99.3097 -5.19837
-33.3024 102.538 -13.3617
-30.5247 99.7094 -3.84164
6.79639 120.878 -9.7111
12.401 122.211 -6.44218
-26.0247 100.847 -1.32913
14.4519 121.927 -3.45481
-9.03153 115.558 -15.2667
19.884 126.73 -8.09239
19.0115 124.707 -4.5319
17.6439 123.633 -3.58522
10.1597 123.386 -11.3203
15.2005 125.869 -11.2604
15.8884 122.856 -3.6989
-30.8308 99.8048 -4.02951
-9.0284 115.677 -15.2434
6.00908 114.725 3.7826
6.75613 114.859 4.35279
3.90173 115.72 -0.718221
-36.6636 100.779 -12.3558
15.3544 127.04 -13.2306
-17.9241 104.15 1.06262
20.9724 127.959 -8.93215
15.4395 126.462 -11.7152
-6.88946 116.479 -14.188
5.36577 122.591 -14.208
15.3413 126.571 -11.9992
14.2561 125.666 -11.1752
18.9734 128.55 -12.3353
13.8635 122.059 -3.43691
-17.1592 104.671 1.00536
7.36735 122.465 -11.4943
-22.9372 101.712 1.27118
10.7452 117.221 4.02222
4.56386 115.639 0.702914
13.1711 122.015 -3.97501
8.24071 123.23 -12.0935
-4.80907 112.502 -2.52425
13.0122 121.874 -3.68336
20.2148 127.483 -8.19917
-6.218 111.028 -0.752498
11.3408 121.464 -4.57203
12.1856 122.7 -6.38691
13.0951 122.415 -4.71519
0.467802 115.566 -3.41666
5.34084 115.453 2.32429
-31.658 100.101 -4.4313
-33.0063 99.7417 -5.08408
-39.1543 98.6701 -9.5023
9.77907 123.789 -11.3072
-20.3788 110.365 -14.7696
6.61421 115.305 4.2582
-8.33883 116.481 -15.0018
-28.246 100.936 -2.33096
-7.7906 116.638 -14.6399
6.43129 121.795 -10.3498
-19.2252 103.828 1.40487
3.83191 116.431 -1.11304
-33.4054 103.432 -13.3857
11.2491 118.428 2.71289
7.32175 115.654 4.58452
11.4375 118.209 3.45816
-28.0738 106.345 -13.8695
-22.7922 108.515 -12.8142
-12.8736 107.337 0.891283
-11.7719 107.942 0.819173
-8.25773 116.734 -14.8818
-7.43357 110.318 0.411508
-6.59517 117.181 -13.9841
-35.6022 102.296 -12.7276
-30.7808 100.571 -3.46837
15.637 123.387 -2.87907
4.45185 116.407 0.31121
-20.9634 110.467 -14.6518
-6.5942 111.058 0.00903838
-36.4321 101.775 -12.3867
16.5006 127.117 -10.229
18.6996 125.418 -3.97383
11.5199 122.618 -5.6849
-16.7073 105.606 1.03438
18.3777 128.72 -11.6839
-2.66434 119.33 -14.0252
-5.55743 112.163 -1.13848
-4.44563 113.407 -2.66805
19.4759 129.25 -11.4987
-28.9339 106.21 -13.6365
10.6449 118.001 4.12007
-5.78568 112.01 -0.722494
2.26835 116.938 -2.6928
-8.99474 109.633 1.14131
18.7288 125.524 -3.59239
-14.9253 106.73 1.05168
-12.0955 108.152 1.04279
-34.8469 103.138 -13.0134
11.1303 119.174 2.2593
13.2139 123.299 -4.65756
-27.1491 107.504 -14.1223
-26.7844 107.692 -14.1209
13.3744 122.842 -3.36446
-20.7406 103.38 2.26502
8.2072 123.867 -11.3803
12.9606 122.039 -1.95897
-27.8367 107.119 -13.9353
-0.281069 120.763 -13.8089
-9.77999 116.535 -14.889
12.8537 121.844 -1.59405
12.7184 126.443 -12.0152
19.5616 127.482 -6.68997
-24.1235 108.734 -13.23
12.4179 121.39 -0.858008
9.3262 123.93 -9.98178
10.6435 125.871 -12.837
13.2622 122.959 -3.3599
-36.8672 102.025 -12.2086
-27.0081 101.95 -1.04357
-19.3688 104.588 1.58788
20.2189 129.74 -10.6294
13.0373 123.515 -4.6063
12.6058 126.6 -11.9202
-35.084 103.353 -12.9015
-14.5028 114.173 -14.2175
-23.4296 109.197 -12.9661
9.7122 117.801 4.66299
-14.6851 114.056 -14.0884
-26.243 102.213 -0.213387
9.70707 123.783 -8.50914
4.28278 117.424 -0.289852
18.4337 128.897 -10.2225
11.1442 122.373 -3.65375
-22.5759 103.029 2.19261
-11.3594 116.071 -14.4955
10.8083 124.103 -7.80041
17.818 128.22 -9.16736
6.74901 116.705 4.32748
-10.7368 109.293 1.4737
10.745 118.826 4.03446
14.7887 123.688 -2.32261
14.4752 126.963 -9.97621
11.5955 124.309 -7.13777
20.1958 128.459 -6.81357
13.4075 123.449 -3.08849
-4.34389 114.246 -2.18788
-20.7036 104.13 2.33774
-4.96674 119.148 -13.6595
-12.4247 115.794 -14.3982
13.0036 123.794 -3.97661
-24.4258 109.452 -13.4061
-37.7192 100.243 -7.55507
8.77196 124.183 -9.35351
-24.7479 102.841 1.15679
-23.1563 110.032 -13.1615
-11.7565 116.259 -14.4052
-37.4493 100.358 -7.33883
-32.0324 101.453 -3.75879
12.8269 124.077 -4.48658
-31.544 106.105 -13.5877
8.23686 124.006 -9.36599
-31.1136 101.602 -2.95749
18.6978 127.155 -4.70855
-37.9358 101.001 -9.14502
-37.9179 101.011 -9.13952
-25.1068 102.872 0.970541
-37.3816 100.862 -8.18034
-34.8835 104.258 -12.9112
-30.3845 101.932 -2.579
-26.9339 102.655 -0.334506
-36.0813 103.538 -12.4784
18.7144 127.317 -4.72163
-12.5224 116.098 -14.3255
-37.1569 102.868 -12.0791
-33.3217 105.35 -13.3577
11.4528 123.5 -4.1403
-3.26992 115.729 -3.03988
-5.90407 113.043 0.0725325
8.44808 122.941 -6.0713
6.95319 125.483 -13.4224
-21.9842 103.984 2.53952
8.41865 124.565 -9.68399
10.3617 123.482 -5.07152
-35.8778 101.016 -6.11113
-26.8378 109.092 -14.1171
9.61815 118.833 4.68148
16.1821 128.32 -9.24829
-2.10121 121.011 -13.2196
-9.12272 118.106 -14.5224
7.00963 117.701 4.41231
19.7469 130.116 -9.10846
-10.5586 110.191 1.81376
-11.8899 116.761 -14.3433
16.4683 128.635 -9.27966
8.39299 122.616 -4.77507
-35.746 101.28 -6.06618
9.80308 122.808 -3.58733
-17.4163 113.347 -12.6822
-3.14995 116.1 -2.9536
14.4578 127.691 -9.3184
21.1259 130.505 -8.123
-33.3966 101.702 -4.22441
1.57177 118.546 -3.01596
-36.5221 103.768 -12.2816
1.6195 118.593 -2.99926
12.6421 124.68 -4.36051
-27.7166 102.984 -0.570415
-35.7491 101.461 -6.09073
-24.225 110.366 -13.205
3.62749 119.132 -1.80292
-7.28721 112.34 1.30142
-26.6978 103.225 0.193131
11.1717 123.997 -4.1736
-9.70815 118.174 -14.3594
8.15793 124.364 -8.32496
-27.4537 103.117 -0.358323
2.55123 123.723 -13.0928
-36.5872 101.457 -6.75765
10.6866 123.836 -4.24832
-22.2856 104.371 2.66445
19.4178 130.14 -8.62758
-8.12123 111.864 1.71061
-0.990772 121.825 -12.661
-5.80576 113.666 0.322837
16.4152 129.022 -9.3174
19.1234 128.35 -4.62306
-14.181 108.914 1.86706
7.33144 118.403 4.56373
12.1502 124.783 -4.3136
-11.8165 117.321 -14.2405
9.50721 126.69 -11.423
19.2132 128.519 -4.66356
13.3502 125.458 -4.27497
-6.88339 112.971 1.25725
-18.3922 113.486 -12.6907
4.36061 119.598 -1.06246
-36.4766 103.065 -9.44727
7.23032 126.466 -13.1086
20.455 129.946 -6.17967
-31.1967 107.658 -13.6173
-36.1835 102.45 -7.48217
18.5156 129.936 -8.14828
13.3002 125.601 -4.23881
-26.6285 110.173 -14.086
-13.557 116.455 -13.5959
-28.65 103.255 -0.823836
19.428 130.534 -8.4132
11.4013 122.061 1.71574
19.7132 129.246 -5.11637
17.9759 126.646 -1.21879
-13.8481 109.413 2.04077
6.53149 125.337 -10.9366
2.23194 119.547 -2.68811
-27.7451 103.62 -0.255184
7.98562 119.061 4.92684
10.7433 124.549 -4.28132
13.1314 125.462 -3.66468
-24.4574 111.172 -13.3283
-25.3465 110.903 -13.6322
-11.6791 117.881 -14.015
8.45246 125.955 -9.67419
-12.2182 117.629 -13.9804
10.4892 127.396 -10.5895
1.5465 123.89 -12.6295
-10.2092 118.696 -13.9806
10.6142 125.404 -5.64459
8.36381 123.191 -3.11789
-4.47837 115.696 -0.616053
-22.5506 112.797 -14.162
21.8953 131.573 -6.73484
-32.8904 107.263 -13.2133
-4.42684 115.825 -0.648404
-26.9522 110.663 -14.1381
13.5561 125.805 -2.94088
15.4731 126.104 -1.43346
-20.5079 113.455 -13.0833
10.6003 127.646 -10.2025
6.25041 119.407 3.42104
12.1035 124.431 -1.26377
-35.6241 103.887 -8.34865
-25.71 111.275 -13.8071
-33.173 102.906 -3.36986
-16.0532 109.033 1.95562
-22.5112 112.946 -13.9885
-19.8888 106.863 2.54807
-35.7808 103.396 -7.32937
-36.1434 104.997 -11.214
20.1692 130.352 -5.29104
-31.0884 103.436 -1.99707
9.84585 125.863 -6.56464
-35.2569 106.034 -12.2828
5.10874 120.777 -0.367717
-15.1511 109.585 2.15448
-18.3794 114.572 -12.5623
-33.5907 107.24 -13.0051
2.44285 125.316 -13.3791
-14.0182 116.728 -12.4397
-10.6075 111.788 2.42251
8.22401 126.287 -9.06959
11.7047 128.27 -9.58255
-35.8851 105.495 -11.4717
-35.7946 104.303 -8.6901
9.46284 126.074 -7.03049
-29.0836 104.059 -0.593884
-30.835 103.716 -1.71213
-8.24941 113.094 2.41841
12.2864 124.924 -1.20325
4.32307 126.546 -13.589
21.906 132.109 -6.47348
11.5412 124.281 -0.388492
-20.4089 114.024 -12.923
-0.0431485 123.71 -11.902
5.71531 127.269 -13.4371
-34.9392 103.565 -5.56889
5.80587 120.709 1.42969
-36.133 105.436 -10.9238
-23.9719 105.43 2.74094
0.0109554 120.019 -3.22563
-7.75382 120.852 -13.7266
12.6488 128.894 -8.99366
9.36938 124.549 -2.89736
10.9617 126.623 -5.73564
1.44153 125.082 -12.8217
-19.304 114.8 -12.834
-18.1468 115.178 -12.3146
-29.6168 110.076 -13.6468
2.63527 125.962 -13.2978
-26.2939 112.04 -14.1016
9.50629 126.844 -7.34712
-36.0372 105.035 -9.02922
-16.1728 109.847 2.31602
0.795648 120.726 -3.15967
-32.5475 108.589 -13.0466
-7.39876 121.387 -13.6152
-3.18286 118.239 -1.85146
-24.5756 105.668 2.51771
-30.0998 104.591 -1.17661
-12.3529 118.748 -13.0541
-0.26602 120.303 -3.04413
-0.885224 119.962 -2.93653
-29.226 104.737 -0.359911
2.51718 126.267 -13.1398
12.7997 125.914 -0.903956
-35.3256 105.093 -7.72049
-7.39142 121.589 -13.5541
5.45484 121.958 0.0828294
-14.3493 117.318 -11.4493
9.012 126.473 -5.95611
12.4951 126.702 -2.58356
-11.5397 112.419 2.66695
0.432898 120.933 -3.05785
9.21587 125.074 -2.49333
-22.7244 113.95 -13.0208
-16.0969 116.399 -11.1288
8.79691 127.36 -7.94062
15.1548 127.659 -1.52687
7.11201 128.808 -13.0441
-17.8909 115.863 -11.8606
-23.1844 106.469 3.34089
-35.9392 106.444 -10.722
19.9646 131.015 -3.50001
-27.8107 105.49 0.724043
-24.3396 106.281 2.82236
-15.117 117.047 -11.0162
-27.6604 112.084 -13.8523
-21.4236 114.642 -12.5604
0.613889 125.413 -12.0757
9.51956 126.069 -3.59672
-4.33118 123.167 -12.4904
-4.57742 123.092 -12.5902
-7.80735 121.878 -13.4036
-15.1578 111.179 2.64085
-29.4205 105.484 -0.45887
-15.8053 116.895 -10.8354
-6.48139 122.536 -13.0599
-14.0888 117.944 -11.2359
3.70509 122.629 -1.88686
-22.6804 107.149 3.53356
5.16362 122.935 -0.776785
-15.0985 111.355 2.68714
-32.3443 105.082 -2.44659
-17.735 110.153 2.47529
-29.0544 105.69 -0.100716
6.45406 122.285 2.27238
-33.1215 109.272 -12.575
10.4778 129.649 -9.64836
5.92536 122.817 0.638856
-11.9949 119.784 -12.4812
-5.5091 116.716 1.62309
-24.846 106.653 2.6511
7.99669 128.223 -9.09237
8.45667 128.836 -9.95143
2.92348 122.733 -2.38974
20.8016 133.225 -5.92089
-3.03493 119.372 -1.37887
-25.8226 106.511 2.07255
12.3008 126.582 -0.405948
8.87078 125.708 -2.24882
6.54822 122.499 2.4346
20.935 132.32 -3.52767
-2.26954 120.043 -1.84311
5.87513 123.231 0.302951
8.35531 128.885 -9.57346
9.08865 126.592 -3.61899
-31.6283 105.613 -1.92877
-35.7153 106.483 -8.2976
10.8554 128.124 -4.9407
9.2116 126.587 -3.27494
9.57798 126.796 -3.32807
-15.7641 111.535 2.71674
1.45052 126.875 -12.4629
-18.7889 109.974 2.87272
-28.3644 112.437 -13.2384
9.25174 126.335 -2.44471
-8.68592 114.92 3.22443
12.3411 130.887 -9.00542
-32.5025 110.064 -12.2397
-28.9064 106.299 0.195001
17.6358 130.171 -1.4001
14.7387 132.031 -8.67954
-32.2129 105.88 -2.35199
18.5509 130.657 -1.34994
-35.2686 107.799 -10.0369
21.15 133.843 -5.56147
-28.7073 106.454 0.34517
19.9381 131.528 -1.66368
10.2042 129.383 -7.67255
12.3167 128.088 -2.38907
5.2753 129.315 -12.8646
-27.799 112.944 -12.9938
-3.37251 119.538 -0.477829
7.54313 122.776 4.4404
6.22402 129.849 -12.7598
-31.1374 111.22 -12.4725
-13.4828 119.184 -10.6442
17.8745 130.587 -1.28951
-25.4603 107.363 2.53292
-27.6844 113.144 -12.8252
8.63292 129.756 -9.53464
-31.4235 106.453 -1.82545
-7.10774 123.507 -12.9127
7.58593 127.871 -6.28739
8.43769 129.859 -9.77983
-22.5546 108.306 4.00699
8.31664 129.018 -8.00529
12.6497 128.634 -2.27299
-34.9836 108.201 -9.47038
-0.246582 122.388 -2.58141
21.6855 133.899 -3.94717
8.02089 129.089 -8.25818
-34.9677 107.032 -6.68154
7.04634 127.773 -6.26082
7.48553 128.345 -7.03631
8.10195 129.146 -8.11504
8.52395 123.785 4.376
-34.751 108.748 -10.0674
-26.0454 107.579 2.25414
6.73261 127.346 -5.5167
-22.4743 116.1 -12.7686
-14.1638 113.181 3.0722
19.6891 134.151 -6.20157
4.66394 124.61 -1.52675
12.0816 128.191 -1.29202
6.78529 124.222 1.7387
8.20139 129.24 -7.89982
-18.4737 117.606 -11.5081
7.1903 123.471 3.9756
-3.99813 119.2 1.09777
13.2361 129.093 -1.49196
-19.2271 110.752 3.46596
10.176 126.027 2.0707
3.45272 129.242 -12.5956
-30.0448 107.233 -0.552552
12.0759 131.977 -9.09389
-30.4892 112.645 -12.9994
-28.0645 113.75 -12.7636
19.3865 132.185 -1.16412
3.47855 129.379 -12.5533
-23.5946 108.679 3.79787
-9.30339 115.777 3.8105
8.02401 128.888 -6.18412
4.18839 129.861 -12.5442
-34.5869 109.056 -8.95004
8.20002 129.083 -6.16934
11.9204 128.09 0.335264
7.03825 124.865 2.12723
3.62389 125.082 -2.15114
11.0953 127.142 1.55611
-32.8766 107.502 -3.3798
-32.2289 107.502 -2.59454
6.68176 125.267 0.927364
13.6676 133.095 -8.80647
5.31681 130.62 -12.475
8.42364 130.366 -8.44786
1.71612 124.455 -2.66841
7.31667 131.37 -11.9021
-10.2341 122.636 -11.6573
-29.1087 113.754 -12.6918
9.79141 129.674 -4.95938
4.90922 130.577 -12.4005
-19.2159 118.262 -11.5623
-25.8369 108.729 2.42369
-14.7805 119.586 -9.55076
-19.2187 118.28 -11.5535
-14.612 113.911 3.35195
-25.1756 108.821 3.01483
-6.79605 117.812 3.35347
-12.4531 121.04 -10.1566
-4.66733 125.626 -11.7358
-15.6678 113.441 3.37284
-14.4818 119.818 -9.58359
4.78605 130.618 -12.3209
-19.3967 118.273 -11.5787
18.3553 135.045 -7.09961
-26.5178 108.785 1.82211
-34.5132 109.359 -8.25613
-11.361 122.003 -10.8054
-34.5204 108.836 -6.97232
-33.3856 108.206 -4.29486
-31.0381 112.711 -11.7697
-16.4047 119.189 -9.99492
-31.5289 112.284 -11.2326
-6.8427 124.997 -12.1317
-23.6778 116.912 -12.7553
7.8896 129.579 -5.84649
8.51556 130.749 -7.66564
3.59379 125.899 -2.17136
-10.6553 122.788 -10.9832
-30.4011 108.667 -1.30275
8.17303 130.196 -6.55354
10.6777 131.359 -6.31391
-17.5862 119.15 -10.402
-34.3774 110.844 -10.4127
8.66998 132.009 -9.88731
8.65995 132.175 -10.1959
-9.66936 116.622 4.29671
-23.1001 109.98 4.2873
-0.596906 123.802 -1.60744
-10.959 116.153 4.12689
-2.46064 122.345 -0.189133
8.65347 125.878 4.31006
-5.73232 119.298 3.104
7.7861 129.839 -5.30675
-5.15541 119.833 2.76095
8.71886 132.357 -9.78182
12.2803 129.708 0.131013
9.41811 126.795 3.56214
-20.8395 111.379 4.46272
11.5281 133.526 -9.09696
-28.7194 109.325 0.324576
-1.07183 123.74 -1.18928
3.46933 126.469 -2.2456
11.8303 129.442 0.468401
13.8049 130.915 -0.574585
8.56631 126.128 4.4521
-32.7625 112.448 -10.8697
7.97668 125.821 4.5212
-13.1701 121.503 -9.24354
8.10486 130.206 -4.85861
9.09247 131.987 -7.67625
7.95794 130.218 -4.75603
9.07689 132.914 -9.44254
7.47718 132.938 -11.2521
-8.56255 118.228 3.9022
-14.6607 120.887 -8.81201
-26.8153 116.501 -12.4828
-6.22698 126.359 -11.6225
-32.615 112.862 -10.7222
0.195825 125.185 -1.80713
-17.3237 113.932 4.05935
-12.2255 122.409 -9.21817
-1.27851 124.129 -0.80208
-3.14339 122.249 1.36519
-16.0836 120.617 -9.26602
11.0952 133.108 -6.99937
-15.785 114.897 3.88328
16.3067 136.079 -7.82896
-21.7406 119.124 -11.9606
-20.7668 112.134 4.82963
-13.047 122.068 -8.79541
-33.7814 112.458 -10.3417
-14.465 115.669 3.99064
-26.9739 110.554 1.52891
20.9287 136.443 -3.14032
-3.75071 127.535 -10.6132
10.9991 132.637 -5.53212
-17.4781 120.458 -9.84274
6.85581 133.093 -10.9326
-15.1136 121.246 -8.83387
16.7597 133.499 -0.761469
15.2525 136.036 -8.03473
8.33444 131.847 -6.3336
-2.36745 123.499 0.523679
-19.9307 112.838 4.88378
-34.0487 111.922 -8.64978
-23.7487 111.252 4.31303
-0.980712 124.784 -0.638493
-16.4545 114.926 4.22823
-26.742 110.889 1.84033
7.93598 127.207 3.90673
-28.7176 110.674 0.155246
-32.987 110.767 -4.79728
9.42827 134.153 -9.95065
7.10593 127.286 2.85764
1.14076 130.586 -11.1069
-20.3471 119.984 -11.0331
-5.51766 120.926 3.39844
-27.6748 117.06 -12.5607
20.1454 136.994 -3.76307
-20.3088 113.012 4.94052
-9.78911 118.604 4.15175
3.23278 131.793 -10.8709
19.7467 137.224 -4.49327
-19.8457 113.454 4.83668
-1.8407 124.389 0.516674
4.537 128.686 -1.88454
-19.8665 120.517 -10.7113
9.71631 134.886 -9.89712
6.29028 129.157 -0.830348
15.8224 133.808 -0.589643
-6.38167 120.861 3.72493
7.4999 134.097 -10.4349
-22.611 119.963 -12.2337
-16.5311 121.766 -9.43294
10.3561 133.476 -5.69854
10.7193 133.129 -4.50465
-30.1961 111.336 -1.15075
-32.1688 113.286 -7.69811
0.333016 126.645 -1.38749
1.51009 127.43 -1.707
-32.3778 112.11 -5.09966
13.9289 133.05 -0.364624
10.793 133.49 -4.83491
-15.4858 116.315 4.39027
-16.0533 122.127 -9.21363
6.53764 133.846 -10.1941
-10.6952 118.699 4.58053
9.68369 135.293 -9.8297
6.19391 133.72 -10.1721
-12.8071 123.267 -7.87472
-9.481 125.67 -9.17971
-25.7276 112.077 3.18212
-31.8653 112.575 -4.66918
-2.3845 129.481 -9.64914
-20.9647 120.995 -11.2866
-19.6087 121.36 -10.5759
-2.34673 124.541 1.61985
-9.86711 119.707 4.12404
0.176432 126.917 -0.821066
0.896215 131.558 -10.3708
12.8997 136.337 -7.70705
-24.9661 112.324 3.94801
-12.7802 123.647 -7.74922
-20.9599 121.167 -11.2631
9.66867 129.754 3.64822
-22.7705 120.69 -12.0612
-0.576004 130.629 -9.49596
-1.87503 129.976 -9.35879
-31.5636 113.986 -6.5456
-5.588 122.305 3.73145
-30.3642 112.703 -2.2317
-29.2878 112.59 -0.681116
-18.6268 115.331 5.06334
-33.3175 114.495 -9.34532
-10.3282 125.531 -8.4308
-30.7119 113.309 -3.71469
0.660881 127.718 -1.04011
-26.3043 119.452 -12.467
-30.5884 113.155 -3.12125
-28.1256 112.478 1.1433
16.8194 138.199 -6.42928
-25.8357 112.725 3.27705
18.948 136.566 -0.273126
-25.8927 112.769 3.238
-29.2354 113.014 -0.920487
0.0361588 127.236 -0.187736
7.61777 129.638 2.95659
0.830683 128.104 -1.07317
-32.2321 114.576 -7.46653
-2.24611 130.287 -9.26966
-16.5454 116.83 5.00355
9.31366 130.263 3.6952
3.92475 133.623 -9.81842
14.8719 134.823 -0.208307
-31.7953 114.688 -6.96506
-27.2131 113.088 1.76406
14.4721 137.807 -7.0457
-30.1648 117.444 -10.9641
-28.266 118.914 -12.1135
-2.54735 125.271 2.32482
-12.1106 124.987 -7.4877
16.5462 138.624 -6.06865
-10.7262 120.453 4.51685
-18.0259 123.14 -9.5748
-31.8884 116.556 -10.2472
0.721664 128.415 -0.491262
-1.34112 131.25 -9.11775
14.9579 135.273 0.00603803
-22.3795 121.908 -11.5272
-11.3247 125.601 -7.46675
-11.6923 125.385 -7.3761
-19.0533 123.036 -10.2544
-14.672 124.152 -7.85808
11.7248 136.245 -5.55178
10.7307 132.14 2.63185
-26.0105 113.836 2.75114
-10.3586 120.894 4.36275
-3.76748 124.755 3.14152
-28.4162 115.21 -2.80262
-30.478 117.839 -10.8307
-25.966 114.079 2.67496
-1.05273 131.699 -9.02868
10.8442 136.002 -5.36622
-31.2127 117.49 -10.5249
-4.60677 130.425 -9.61946
20.2569 139.932 -3.2175
-5.19614 124.17 3.77215
-30.1018 115.699 -4.88527
-25.6796 114.443 2.86348
-31.1989 117.687 -10.3587
-32.3795 116.235 -8.16534
-27.8316 120.111 -11.7751
-21.9312 122.714 -11.0132
4.95391 135.237 -9.11541
-26.3947 115.48 0.337513
-22.4946 122.519 -11.0166
-25.6889 121.315 -11.8247
7.92115 132.206 1.2702
-11.0962 126.507 -7.1113
-29.5133 116 -3.99971
0.746559 133.622 -9.76833
0.0886132 128.554 0.880656
2.82077 130.927 -1.38223
-28.0035 120.233 -11.6784
-20.1494 123.591 -10.4575
10.5925 136.056 -4.14158
1.77603 134.222 -9.77218
18.1716 137.968 0.166039
9.91648 136.801 -6.34704
-31.7135 116.049 -6.18342
-28.9675 119.755 -11.3171
0.564899 129.114 0.595438
-9.91642 127.458 -7.31511
-25.153 121.86 -11.6435
13.3171 135.256 1.15978
10.6158 136.362 -4.31476
-19.3622 123.927 -9.77067
-7.46911 123.886 3.57851
-25.5128 115.509 2.32432
8.8901 132.101 3.59692
13.904 139.004 -6.10116
-17.3598 124.513 -8.30541
-14.7568 125.326 -7.22969
13.554 138.758 -5.7563
-24.8027 122.246 -11.4229
1.78959 130.68 -0.672275
-7.19979 129.554 -7.91716
8.35681 132.41 3.05643
9.06726 137.789 -8.10244
0.260718 133.899 -9.12749
-10.645 122.182 4.97914
-32.0603 116.866 -6.79037
-12.4594 126.556 -6.63855
-17.9545 118.443 5.43781
7.74864 133.551 0.224908
-2.46767 127.256 2.96377
15.9052 137.384 0.812574
3.23384 135.725 -9.53422
-30.5875 119.22 -10.0025
-25.8719 117.004 0.225326
15.2755 139.947 -5.33603
8.44119 132.704 3.28915
-1.20586 128.429 2.35325
17.9238 138.769 0.585321
-22.5815 123.669 -10.6024
9.84523 137.565 -5.61749
10.5112 133.932 3.27942
15.2239 137.255 1.12052
-29.4741 120.265 -10.5595
19.724 141.409 -3.0933
-17.2169 125.23 -7.96052
-30.0005 117.003 -3.70459
-7.42952 124.95 3.67397
-22.1321 116.619 6.05947
20.2181 141.483 -2.41426
0.997715 130.447 0.928792
-22.6542 116.482 5.89157
-11.7487 127.366 -6.34546
-31.9502 118.111 -8.09301
-21.5061 116.873 6.31332
8.03206 134.162 0.490423
13.2737 139.03 -4.56777
0.27566 129.822 1.59094
-26.0356 122.479 -11.2087
-7.69789 129.846 -7.28394
-1.93546 133.316 -8.60727
-16.2134 125.773 -7.46568
11.975 137.97 -3.39421
8.36939 133.62 2.39803
11.2285 134.942 2.69366
-1.61768 128.604 2.70774
-8.44387 124.838 3.57622
-28.3839 117.427 -1.98879
-22.0981 116.998 5.99547
13.9606 139.851 -4.98024
-15.0103 120.721 5.69037
1.22656 135.492 -9.289
0.790326 130.515 1.40281
-17.1768 125.703 -7.78809
17.2292 138.978 0.798101
-30.5766 117.426 -4.10045
-14.4782 121.107 5.64887
-22.8896 124.157 -10.3983
0.859806 135.327 -8.9629
20.0375 141.655 -1.79942
18.7304 140 0.49936
-2.07905 133.72 -8.56545
-6.24362 131.273 -7.59011
1.42228 131.304 0.976029
8.25135 139.058 -8.71123
-23.6287 123.91 -10.2412
-30.4061 117.709 -3.83032
16.3003 138.768 1.02344
-7.87085 125.699 3.61427
-26.2112 123.111 -10.9755
10.8705 135.154 3.33424
-31.3156 117.956 -4.94301
-22.3685 117.598 5.83892
8.65484 139.067 -7.71338
-11.0174 128.565 -6.01183
-0.295651 134.982 -8.33513
19.4627 142.307 -2.75449
14.7331 140.918 -4.84903
-21.8976 117.823 6.14669
-6.09723 126.592 4.16183
-28.0361 118.323 -1.67117
9.32687 139.123 -6.64614
6.714 135.284 -0.949015
11.547 138.707 -3.1226
8.02701 135.697 -0.233144
17.7574 142.229 -4.03008
-6.46159 131.623 -7.18794
-22.4365 125.136 -10.3692
2.9646 133.436 -0.581031
2.65291 137.107 -9.12076
-15.5506 127.296 -7.37068
-30.4189 118.28 -3.71542
-23.4433 118.464 3.67578
10.4386 138.797 -4.09275
14.8685 138.514 1.57941
-14.9247 121.975 5.72914
-10.6909 124.091 5.74853
-25.547 124.043 -10.5656
8.70525 135.688 1.49357
-13.2461 128.554 -6.8774
-4.06109 133.505 -7.70044
16.1718 141.997 -4.16842
-31.4262 119.674 -7.13258
-27.3146 119.174 -1.40225
-15.8191 127.582 -7.40761
-5.52978 127.494 4.28372
-14.9793 128.322 -7.70313
2.20775 133.498 -0.157657
-15.9588 121.803 5.82315
-24.4453 124.655 -9.9777
-12.6696 129.008 -6.56431
-26.2518 119.625 -0.46278
5.12143 135.514 -0.992954
10.2172 139.476 -4.12596
-28.1289 119.435 -1.85651
11.458 137.014 2.90699
-23.0897 118.855 5.21253
5.53257 136.043 -1.38861
-25.1591 124.712 -10.1294
-1.65244 130.583 2.9071
-29.1629 119.28 -2.38431
-0.562074 131.436 2.3268
-2.80184 134.723 -7.44343
4.43095 138.893 -8.70986
-23.154 119.535 4.02171
-6.91702 127.65 3.96075
18.5092 141.865 0.422516
13.394 138.874 1.43805
17.3604 140.882 1.53666
13.1194 140.714 -2.66862
-28.3698 119.971 -2.02873
-6.01405 133.152 -6.63077
-10.891 130.455 -6.01695
-31.0961 120.672 -6.54949
-29.0024 119.881 -2.36216
6.16257 139.925 -7.95637
10.0724 140.986 -5.9724
8.99985 137.462 0.813486
-9.50314 126.47 4.84339
2.34537 138.411 -8.70842
9.33984 137.365 1.50733
12.5573 140.72 -2.41031
-18.4685 127.753 -7.86904
-31.1025 121.192 -7.12697
-11.3674 130.59 -6.19681
5.95767 136.981 -1.11988
10.5103 137.594 2.60594
14.2335 139.862 1.76073
-12.3139 124.734 6.12977
12.9967 139.402 1.46348
6.50007 137.243 -0.879255
-22.866 120.093 4.89175
18.4731 142.84 0.0939678
-30.2449 120.252 -3.48524
4.4157 136.267 -0.732622
-30.7837 121.79 -7.37328
16.0116 143.093 -2.98765
0.496255 133.012 2.40596
0.274358 132.868 2.48418
-4.72753 134.3 -6.22783
-13.8545 124.257 6.16954
10.9624 138.345 2.50785
-2.31598 131.315 3.55593
-29.8406 122.369 -6.94948
-22.7067 120.536 5.0909
-29.9729 122.594 -7.47818
-29.5951 120.718 -2.84885
-26.9256 125.208 -9.91422
-1.25909 132.206 3.05015
-19.4179 128.322 -8.44316
4.82712 140.427 -8.56684
1.00028 134.166 1.44316
12.2053 139.447 2.16387
-30.9019 121.136 -4.68775
-17.0534 122.953 6.665
10.301 138.794 1.63903
6.58739 141.309 -7.88841
18.7611 144.179 -0.742078
-6.18804 133.981 -5.63695
-10.81 126.493 6.10632
10.496 142.067 -5.04428
-10.0647 132.188 -5.7792
12.1058 139.654 2.20049
-28.811 124.2 -8.59563
-4.36742 130.573 4.33449
-28.7918 122.815 -5.44198
10.9032 141.416 -2.88073
6.37359 141.418 -7.87909
8.34237 142.28 -7.57623
10.9629 139.103 2.50245
8.79888 142.085 -6.54554
-22.183 125.763 -4.38304
1.49056 135.012 1.28579
10.5814 141.78 -3.7249
9.2266 142.231 -6.10022
-8.42653 133.15 -5.28627
8.03929 139.087 -0.189799
-13.0101 131.699 -7.03165
1.7175 135.343 1.20629
-16.2764 123.967 6.66642
9.65455 139.519 0.919708
-29.4427 122.512 -4.35334
-6.08015 130.218 4.40701
14.9673 141.735 2.05111
-22.4077 126.708 -5.82179
11.3186 142.016 -2.55878
6.27389 138.707 -0.680681
-22.9578 126.421 -5.55975
-28.0631 124.821 -7.6133
0.841941 139.125 -7.42873
-26.2099 125.836 -7.76131
10.71 139.72 2.22923
-25.4607 121.803 2.13605
-23.1112 124.917 -2.19547
-26.11 126.385 -8.79561
15.4491 142.18 2.07351
-28.2805 121.923 -1.05638
-6.91634 130.137 4.39174
-25.7221 126.513 -8.3481
6.56681 142.427 -7.9615
-23.2851 126.173 -4.69485
-21.2244 122.182 6.53774
-2.21511 132.876 3.9006
-17.7618 130.957 -9.08274
-12.8345 126.376 6.75749
-25.2678 127.31 -9.15001
-10.1058 133.438 -5.84352
-6.22661 134.928 -4.80692
17.7094 145.382 -1.45498
15.7032 144.505 -1.69464
-21.8934 122.272 6.27175
-28.8657 123.304 -3.78171
-24.1227 121.943 4.58044
-11.4993 133.238 -6.59641
-13.0127 132.836 -7.32117
-14.3259 125.71 7.19312
8.29177 140.211 -0.110773
-26.2804 125.388 -5.37872
13.4633 143.207 -1.03768
-5.53779 131.264 4.57084
7.09111 139.77 -0.411755
-23.9451 125.265 -2.3831
-8.4839 129.971 4.29839
-13.4524 126.414 6.86178
-15.5652 132.433 -8.9612
-27.1657 124.26 -3.51591
-14.3989 132.661 -8.02852
-6.89294 130.769 4.58461
-22.0087 126.749 -3.18143
-27.7557 125.273 -6.22706
-27.0499 125.821 -6.64671
-28.4119 124.539 -5.21949
-7.91352 134.736 -5.2407
14.8792 142.735 2.21309
2.7105 140.985 -7.38368
-20.0707 123.144 7.22247
-5.80127 135.567 -4.71047
-13.6123 133.236 -7.95509
-2.47419 137.503 -5.11543
-24.8839 125.426 -2.94438
0.741881 135.552 2.93702
6.51985 143.3 -7.93517
-29.1063 123.048 -2.17392
-25.0981 122.461 3.62252
-4.88407 132.282 4.15054
-23.7217 126.422 -3.62765
-4.77791 132.401 4.10161
-28.9976 122.981 -1.7108
-15.6281 133.62 -10.6499
-12.2365 133.752 -7.15541
-26.1698 123.94 -0.625411
-27.1268 124.594 -3.09254
-28.9239 122.999 -1.51213
-11.9708 133.9 -7.04597
-21.8578 130.053 -9.42415
-7.23662 131.029 4.66775
-24.4911 127.439 -6.47904
-24.0233 125.897 -2.38443
-23.7744 125.676 -1.59121
8.66835 141.039 0.131171
-9.71232 134.681 -5.9464
-10.987 129.183 4.99362
-1.48485 138.388 -5.03006
-23.7995 126.518 -3.22936
11.9246 143.666 -1.8687
-24.2576 126.552 -3.70341
4.72313 139.465 -0.348725
-23.5957 127.073 -4.06425
-24.626 127.594 -6.37239
15.3949 143.617 2.29788
10.8859 143.938 -3.36107
-23.4843 129.354 -8.89861
14.1634 142.995 2.4641
-16.2803 133.704 -10.5863
-12.9797 134.445 -8.56899
-22.4769 129.998 -9.15083
-21.795 127.866 -3.55037
-27.5012 123.19 0.690523
-24.7804 127.913 -6.81696
-23.1526 128.907 -7.22856
13.951 142.992 2.51847
13.2207 144.185 -0.915629
-18.4391 124.543 7.87126
11.5721 143.886 -2.0393
-17.5998 125.008 7.80026
-23.9187 128.194 -6.32539
0.243901 139.866 -5.57743
-11.9036 134.702 -7.45895
-23.2236 129.763 -8.82414
-25.1044 127.894 -6.55574
-22.4214 127.723 -3.143
-4.67096 133.589 3.60541
2.60606 138.096 1.63856
-25.7047 127.632 -6.35263
-6.32705 136.57 -4.78956
8.39274 141.72 0.0752111
-22.9493 127.656 -3.26785
1.35652 140.893 -5.85565
-6.34891 132.689 3.96479
13.9648 143.421 2.62331
-11.8851 135.4 -8.14038
-21.421 124.176 6.40843
-18.0714 125.146 7.96648
-24.9667 128.05 -6.19845
-14.6861 135.203 -10.77
-8.49779 131.457 4.52861
-13.9343 135.469 -10.3653
-18.2434 133.133 -9.896
-14.9234 135.119 -10.5982
13.2359 144.744 -0.706755
3.4572 139.267 0.690314
-24.8462 123.656 4.17546
-24.2587 127.234 -3.07258
-23.8362 128.849 -6.17468
-16.9185 134.105 -10.2418
-26.1169 126.205 -2.66862
-26.8439 123.775 1.98763
-24.5414 127.238 -3.14619
-15.3186 135.027 -10.286
-5.27319 133.919 3.46165
-14.1955 135.861 -10.7929
-11.2093 136.112 -8.02342
-24.6419 126.738 -1.9636
-23.4691 124.249 4.93081
-24.0665 124.156 4.51783
-23.8959 129.285 -6.75369
-24.4126 128.078 -4.61896
-17.3838 125.953 7.98477
-24.1482 128.657 -5.5769
-11.3944 130.15 5.27229
-23.6156 127.491 -2.32333
-22.2939 130.262 -7.05325
-21.5969 129.508 -4.51231
-25.3531 126.505 -1.91001
-23.7558 129.458 -6.72038
-21.6441 129.447 -4.30638
-19.7209 132.321 -8.59023
-9.74456 136.432 -6.65511
15.3825 146.523 -1.29667
-6.42149 133.497 3.63166
-9.69968 131.526 4.43466
-26.4092 127.21 -4.42728
-11.1794 136.789 -8.89611
-28.8182 124.684 -1.39926
-25.361 124.216 3.50658
-25.5857 127.016 -2.99606
-23.4119 130.142 -7.56667
9.59016 142.712 1.00119
-20.6484 132.152 -8.9856
-25.2039 128.035 -4.8257
-20.5782 132.096 -8.73743
-26.2815 126.748 -3.08985
-24.6476 127.766 -3.55153
-21.5979 124.762 6.57066
-24.2692 127.118 -1.62432
-26.3815 126.517 -2.60974
-16.2071 134.763 -9.73334
-26.1356 126.838 -3.02585
-22.1262 131.155 -8.21221
-2.11892 139.447 -4.49258
-14.1707 135.977 -10.1206
-21.8652 130.622 -6.68987
-9.16418 132.042 4.27473
-25.2962 124.437 3.44697
-6.78775 133.567 3.61279
-23.8182 127.366 -1.44532
-3.97219 138.625 -4.55918
-23.406 126.915 0.0547258
10.837 142.794 2.6053
-15.9616 127.294 7.50114
-24.3724 127.439 -2.10364
4.68661 143.996 -6.83585
-1.78095 139.747 -4.46782
-22.1761 128.984 -3.05351
-24.9612 128.159 -4.28204
-22.4633 129.313 -4.07788
-20.7659 131.884 -7.90319
-25.95 124.512 2.84803
-21.9914 130.925 -7.09741
-24.4626 124.812 3.88926
-22.0629 130.463 -6.078
-23.4883 128.172 -2.53135
10.5748 145.329 -3.02745
-24.4057 127.531 -2.08726
-27.3335 125.478 -0.747308
-3.99607 138.777 -4.53503
-24.4916 127.929 -3.01661
-22.4613 130.286 -6.03312
5.88207 141.775 -0.221688
-0.664632 140.492 -4.61533
-22.6121 129.901 -5.29781
-24.6276 127.315 -1.723
-13.4468 136.764 -10.4193
-21.0057 125.072 7.3508
-25.9181 126.527 -1.35653
-23.6043 129.357 -5.07481
-22.132 130.554 -5.98149
-13.8583 129.233 6.17852
-2.7743 135.988 3.43006
-9.35106 137.547 -7.34127
-26.4442 126.842 -2.31383
-7.16074 137.782 -5.3543
-6.62229 134.15 3.39243
-24.6919 125.113 3.56972
-19.4982 133.381 -9.16263
11.4117 143.462 2.659
-24.6926 125.123 3.5644
-21.8168 129.656 -3.35379
-5.766 138.219 -4.65631
-19.8942 132.737 -8.08105
-4.34859 138.915 -4.53929
-4.59947 138.808 -4.53905
-24.5006 127.721 -1.82457
-22.1665 131.387 -7.43475
13.863 146.161 -0.392603
-17.1361 134.736 -9.2672
3.87566 143.704 -5.95801
-27.315 126.478 -2.01018
10.7262 145.815 -2.98818
-25.4264 128.041 -3.38858
-27.1741 126.761 -2.44066
-26.0178 127.679 -3.14389
-24.3668 127.706 -1.25514
-21.6779 131.462 -6.62958
0.363815 141.503 -4.52617
-10.6947 132.157 4.10434
-20.8846 131.652 -6.08897
-26.3513 127.983 -3.9052
-22.0115 130.72 -5.17935
-27.4173 125.336 0.871165
-21.9723 130.728 -5.13933
-12.7545 137.496 -10.0047
-7.35452 138.448 -6.07971
-21.6253 130.538 -4.14981
-2.12119 140.282 -4.25588
9.69538 146.726 -5.35143
6.83799 142.923 -0.00664725
-4.10829 139.467 -4.42524
9.10158 143.856 0.471274
1.19766 138.965 2.67514
6.06223 145.522 -6.5797
-14.5942 136.235 -8.75221
-4.71374 139.267 -4.50787
-21.6127 130.979 -4.74677
10.2023 143.897 1.77039
-21.4446 131.582 -5.84087
-21.951 130.064 -2.9437
-8.99222 138.445 -7.26471
-5.45221 139.022 -4.58286
-10.2967 138.697 -9.14116
-6.45189 139.169 -5.75474
-19.9425 132.736 -6.34292
-14.1662 136.557 -8.45379
-21.959 125.84 6.87962
-1.73584 140.87 -4.26537
-10.4665 138.84 -9.42516
-20.5865 130.565 -2.13374
-15.3137 136 -8.35289
-11.2063 132.527 4.00634
-20.3052 131.313 -3.37191
-25.7513 127.872 -1.72178
10.7165 146.678 -3.19129
4.11684 141.677 0.665357
-21.1011 130.752 -2.84368
-11.1395 138.864 -9.77506
7.98747 146.855 -6.20739
-3.02167 137.227 3.10544
-26.3647 128.82 -3.97481
-29.8451 125.402 -0.0978602
-23.5307 128.427 0.415339
-24.8519 129.532 -3.45277
-24.7565 129.466 -3.19829
14.7951 148.125 -0.95251
7.31051 143.958 0.0572252
-18.537 128.087 6.89343
-9.90284 139.455 -8.90321
-19.1843 134.031 -7.05915
-7.57701 139.778 -7.01231
-13.6171 131.015 5.90118
-20.9684 133 -6.70943
-13.9206 137.561 -9.04448
13.2671 145.863 2.6316
-12.1045 131.612 6.32488
-13.8444 130.935 5.92007
-27.6669 126.192 1.28804
-27.5689 126.677 0.334767
-25.8877 128.241 -1.26872
4.49438 145.229 -5.47431
-27.2113 126.815 0.517553
-23.8499 131.756 -6.76505
-21.9233 132.807 -6.96587
-30.0625 125.954 -0.66182
-25.4903 130.225 -4.95538
-12.7891 138.788 -9.8608
-13.0262 138.66 -9.79617
-14.2773 137.508 -8.57687
12.7727 147.498 -0.847449
-21.5437 127.518 5.78528
11.316 147.751 -2.93114
-27.7489 126.117 2.0966
-18.9741 133.28 -4.15083
-23.3098 131.348 -4.58686
-19.0162 129.2 4.99897
-20.8077 131.476 -2.04443
-17.4949 129.017 7.15846
-20.749 131.803 -2.68936
13.7427 147.902 -0.315581
-18.8133 133.993 -5.34849
-26.6974 127.893 -0.370981
-26.6511 127.124 1.41275
-18.7279 133.739 -4.5078
-13.1489 138.763 -9.54673
7.66582 144.743 0.22039
-7.22771 136.093 3.02283
-16.5563 135.467 -5.95204
-7.23585 140.554 -6.96411
-18.0262 129.638 5.50076
-25.5116 127.054 3.05275
-25.6673 128.178 0.364524
-26.917 127.031 1.55374
-8.57948 135.27 3.517
-24.5262 130.793 -4.15783
-27.1596 127.072 1.33461
-25.2277 130.327 -3.75673
-9.37733 140.451 -8.73441
-21.3673 133.697 -6.90797
-0.787526 139.593 2.80198
2.29496 144.223 -4.10893
-9.16576 140.479 -8.47226
9.3455 145.575 0.752738
-14.7433 137.386 -7.69823
-27.2889 127.32 0.944285
-22.6591 132.999 -6.58232
-29.7788 127.102 -1.27529
7.06718 147.551 -5.83982
-26.7949 127.52 1.35581
-18.3288 134.033 -3.77747
11.5434 148.394 -2.62176
11.0843 148.389 -2.99367
2.27654 141.492 2.66944
10.716 146.255 1.50011
3.78732 145.453 -4.40588
0.109226 140.476 2.65174
-28.6845 126.392 2.2641
8.17789 148.347 -5.86459
-19.6807 133.447 -3.47706
5.04612 146.375 -4.90748
-3.42177 138.694 3.07559
-1.56021 142.836 -4.04603
-29.9515 127.91 -2.12753
-18.4242 134.223 -3.37058
13.4816 148.605 0.0682554
-30.2258 127.506 -1.26687
-20.6221 134.159 -5.47607
-19.1654 134.394 -4.32772
-30.2749 127.704 -1.66908
13.4297 147.767 2.0541
-30.6554 126.139 1.5881
-12.0154 134.229 4.34926
-29.9846 128.244 -2.22274
14.4265 149.28 0.151594
-24.2492 132.324 -4.70071
-18.9343 134.929 -4.62178
-25.8903 129.148 0.616671
10.0003 149.017 -3.9318
-7.91792 137.07 2.90122
10.8019 146.957 1.64541
-3.29483 142.796 -4.67918
-6.27258 142.255 -6.75096
-30.8365 127.36 -0.629945
-16.8336 131.236 6.28589
-19.338 134.95 -4.74172
3.42424 143.172 2.18763
7.92484 148.697 -5.1029
-28.7111 127.849 0.833551
-28.6246 127.629 1.42941
7.17043 148.26 -4.93821
12.1989 148.797 -0.539465
-30.9023 127.135 0.0215139
-25.8046 131.653 -4.40337
-28.5529 129.989 -3.72423
-25.5471 131.784 -4.38981
9.88007 149.357 -4.20684
-28.6794 127.427 2.02703
-27.0995 127.992 2.55206
-17.4253 135.636 -3.72202
-11.9464 134.821 4.30361
-18.3407 134.79 -2.63561
-29.9902 128.198 -0.75712
-30.8295 126.989 1.06215
-4.31116 139.197 3.24272
13.9677 149.601 0.392572
-28.5372 127.747 2.19668
3.14193 146.213 -3.81023
-24.825 130.36 0.608256
2.23537 142.867 2.79583
-28.3524 128.241 1.52567
-27.9318 128.822 0.798856
-4.65497 143.39 -5.89382
-9.88359 136.672 3.35157
-26.5279 128.181 3.94708
-9.36532 142.461 -8.93016
-13.3091 134.154 5.32263
-19.0291 131.157 5.68354
3.018 146.341 -3.78065
-7.70846 138.185 2.67235
13.3777 149.04 1.82374
-24.725 128.859 4.87343
-18.7259 135.597 -3.53422
-27.4914 129.299 0.83786
13.9133 150.127 0.331713
-28.4883 130.692 -3.26788
5.1262 145.392 1.2366
-26.6787 128.779 3.17395
14.0223 150.273 0.327661
-28.3156 127.926 3.42829
-10.443 136.922 3.25041
-23.8787 133.824 -4.69979
-5.7469 139.328 3.26192
11.9323 148.798 1.73831
-29.5625 129.944 -2.17617
-28.963 127.946 2.97482
-17.644 136.189 -2.8815
13.1151 149.422 1.802
-18.0279 135.749 -2.15705
-25.5905 129.444 3.56017
-13.7299 134.456 5.54237
-30.4663 129.31 -1.50409
11.7297 148.928 1.64071
-3.26829 144.648 -5.43945
-14.8952 133.785 6.01299
5.04903 148.123 -3.85686
-21.9892 130.898 4.6338
-29.0242 128.358 2.50592
-18.1249 135.814 -2.03127
7.41129 147.245 0.785109
12.3149 150.11 -0.159468
-28.3178 131.253 -3.03927
-13.5711 135.161 4.69057
-25.6534 129.535 3.88002
-26.6093 129.095 3.88293
-18.001 136.796 -3.6855
-29.1789 129.111 1.11826
-31.608 128.402 0.00688258
-26.6408 132.36 -3.21464
-17.3181 137.074 -3.37987
-6.75068 144.26 -7.71064
-16.5685 133.188 6.22442
12.9898 150.114 1.26349
-31.0061 129.064 -0.503915
-26.5432 132.516 -3.08996
-1.01231 145.909 -4.63693
-31.2282 127.398 3.2051
-29.0585 129.175 1.76147
10.0155 148.847 1.3351
-25.6888 129.462 5.28031
-20.6908 132.048 5.06275
-13.0284 136.446 3.94535
11.0654 150.528 -0.716258
-30.3244 130.194 -1.20461
-22.1981 136.523 -6.09985
-28.5661 131.6 -2.06367
-29.0455 128.657 4.0928
10.3899 150.678 -1.33082
11.5768 149.931 1.66675
-25.7537 129.504 5.92032
8.52184 148.709 1.15901
-3.75791 141.722 3.15886
-28.5603 131.716 -1.92851
-29.2044 128.583 4.53791
3.8212 148.631 -3.43145
1.38027 144.515 3.10619
-17.339 137.908 -2.86826
-0.727676 147.073 -4.78587
-4.08625 146.071 -6.24232
-30.3972 130.681 -1.01097
-15.3134 135.034 6.13853
-15.1683 141.128 -7.17768
-28.1139 129.103 5.37591
3.64897 145.714 3.56569
4.13877 145.901 3.74719
-31.7217 128.155 3.60552
-16.4678 138.962 -3.61434
-26.8522 133.402 -2.69732
11.3229 151.421 -0.45678
-9.12638 139.905 2.60021
-20.4526 132.624 6.311
-32.4387 127.843 3.72756
-19.7965 137.984 -4.89772
-13.398 142.498 -7.83924
-14.3261 136.758 4.07151
-25.2756 130.244 6.49539
-2.77197 146.857 -5.62658
6.56332 148.428 1.24493
-22.5383 137.214 -5.801
4.66436 146.542 3.57811
-17.3942 139.172 -4.26022
-16.7243 134.652 6.64321
-4.66624 142.319 2.93204
0.643354 144.75 3.4395
5.10035 147.349 2.58759
-14.5124 136.831 4.47088
-26.1599 130.525 5.63592
-13.6385 142.626 -7.52801
-14.5823 136.741 4.63173
10.2308 150.485 1.51134
-30.1945 131.54 -0.955021
-14.6135 136.879 4.43643
-27.1179 133.795 -2.53693
-6.81676 146.135 -7.54564
2.92286 149.163 -3.48588
-20.5563 138.541 -5.78064
-26.2756 130.692 5.51253
-24.1623 131.127 6.98839
-31.5437 129.81 1.73291
-5.86671 146.582 -7.11862
-28.037 133.178 -1.76087
-11.4382 139.502 2.62434
-14.2783 137.159 4.71069
-4.52293 142.894 2.93942
-4.59302 147.075 -6.48587
-27.8215 130.634 4.51115
-30.6609 128.902 5.32643
-23.592 132.048 6.14834
-14.9238 136.71 5.37901
-32.1903 128.812 3.92074
-30.8091 128.928 5.27112
-30.6676 131.548 -0.41253
-31.7833 129.244 3.6244
7.18818 151.923 -3.77155
-0.167715 148.773 -4.81717
-15.0609 142.242 -6.7258
-11.6952 139.78 2.54699
5.3671 148.164 2.90672
-19.5661 139.223 -4.66355
11.6129 152.342 0.675873
-11.0719 140.131 2.93438
-12.2052 139.735 2.68631
1.49573 149.638 -4.2247
10.9752 152.426 0.15287
3.2534 150.274 -3.53364
-24.2909 132.043 6.80447
-2.13869 148.489 -5.30055
6.81585 152.167 -3.54581
-20.5561 134.51 5.73002
-15.7585 142.281 -6.3306
-25.512 131.72 6.60603
0.1896 145.736 4.05374
-31.1202 131.138 1.96588
7.20119 152.502 -3.19845
-9.5921 141.359 3.09897
5.41389 151.575 -3.07678
-28.7874 130.799 5.4423
10.2539 152.712 -0.182012
-0.591276 149.409 -4.85017
-23.7874 132.926 6.36522
-3.66821 148.414 -5.91116
-14.4911 138.797 3.65103
-18.5044 140.473 -4.55669
-4.80023 148.166 -6.4514
7.68408 152.704 -2.72324
-23.7562 133.066 6.36262
-24.5976 136.977 -3.30548
-12.7745 140.09 2.92455
-1.58144 145.246 3.89579
-12.7994 140.113 2.93126
-6.97162 143.121 2.69615
-0.309308 149.726 -4.67373
-12.7083 140.24 2.79376
3.12408 150.998 -3.54707
-4.70838 144.184 3.04251
-30.367 132.899 -0.228292
-16.3326 141.231 -3.22537
-12.6518 140.469 2.62786
-20.3877 135.194 5.8384
-29.1443 131.522 4.34396
6.25439 149.818 2.79354
1.56642 150.548 -4.03251
-25.8649 132.01 7.06213
-13.0588 144.522 -6.70121
-29.549 131.466 4.25737
-12.0738 140.987 2.55547
-24.2881 133.11 6.63736
-0.373565 150.067 -4.60035
1.64304 150.804 -3.94689
-9.85185 146.807 -7.73752
-6.8186 148.062 -7.16058
-17.3799 141.371 -3.91758
-30.7895 131.416 3.48602
-26.4478 133.694 3.25477
-10.5371 146.506 -7.66461
-21.1594 139.655 -4.13551
-12.3051 141.125 2.45446
-23.8016 133.644 6.42011
-30.7234 132.07 2.28359
7.8591 151.466 1.8426
-22.6692 134.718 5.44332
4.07781 151.805 -3.03165
-10.4108 146.677 -7.63762
-25.6919 136.838 -2.5346
-14.4507 144.098 -6.15962
3.95277 151.895 -3.05537
6.94922 150.892 2.65148
8.09531 151.867 1.87648
-1.60459 145.84 4.61454
-25.9913 133.108 6.05508
-6.15581 144.527 2.87922
-9.34678 142.797 3.28046
-17.9512 141.752 -3.88097
-27.8424 134.341 1.7973
6.81131 153.377 -2.23256
10.1519 153.615 1.01107
-6.01106 149.032 -6.68635
-12.7742 141.653 2.43246
-30.167 133.614 1.1624
-24.9304 134.839 4.37999
-18.7609 141.693 -3.99561
-24.1871 134.957 5.17689
6.20606 153.465 -2.31727
-4.64869 145.434 3.59537
-23.4219 139.302 -3.46785
-21.6029 136.337 5.22727
-23.5463 139.296 -3.44629
-17.2526 142.387 -3.29014
0.139565 151.398 -4.03206
0.368055 151.472 -3.93171
-27.1394 135.379 1.53456
-24.0377 139.161 -3.4628
-6.62332 149.316 -6.79499
-4.66714 145.691 3.71402
-23.2735 136.784 3.24498
-5.19307 149.891 -5.97103
-15.4269 144.238 -4.35238
-23.053 139.861 -3.004
-24.2229 136.614 3.02179
-18.4155 137.89 6.63833
-9.32171 143.86 3.40585
-28.5669 135.385 0.997215
-17.8561 138.262 6.50476
-3.24522 150.722 -4.97454
-17.0123 139.183 5.57528
5.02864 153.688 -2.18749
8.42825 153.409 2.26914
0.980235 152.392 -3.52524
-17.0029 138.982 6.52962
-15.1405 145.343 -5.60164
-22.4103 140.588 -3.02168
-21.6009 141.061 -3.01365
-27.5971 136.536 0.774008
-23.0871 140.392 -2.44945
-19.532 142.64 -3.50214
-22.4632 140.92 -2.84617
-16.4549 140.545 4.77002
-7.97837 145.628 3.09339
-22.7572 137.803 4.29279
-23.0369 140.68 -2.3829
-25.5835 137.137 2.76589
-3.04816 151.59 -4.39199
-7.93501 150.139 -6.44757
-21.1808 138.004 6.00081
-16.0014 145.434 -4.8377
-8.36922 145.695 3.2043
-10.3336 144.855 2.98744
-22.3287 141.505 -2.75689
-6.84002 150.695 -5.93187
-22.8742 138.124 4.40971
-14.6551 142.489 3.96143
-26.0724 137.629 2.56448
-2.74812 152.188 -4.02653
-21.2442 138.638 5.86565
-8.00397 150.605 -6.10904
-14.4816 142.906 3.97168
-17.5259 140.576 6.26729
-26.604 139.145 -0.422969
-11.4016 149.441 -6.56022
-9.9333 146.835 1.02689
-17.4047 141.007 5.81624
-13.7628 144.158 2.82732
-11.5173 145.051 3.33996
-12.8277 144.519 3.14332
1.06776 153.915 -2.37952
-27.5999 138.603 0.15011
-9.79054 146.056 3.28252
-2.99918 152.665 -3.6101
-21.7459 139.281 5.72464
-10.2019 146.99 1.33872
-11.1231 145.884 2.90239
0.182043 153.979 -2.39386
1.34275 154.311 -1.84641
-27.4931 138.77 0.977898
-22.013 143.018 -2.4341
-13.3085 144.668 3.8982
-21.3184 143.593 -2.56702
-15.443 146.373 -2.20927
-19.7472 144.526 -2.82919
-14.4949 143.941 4.49999
-7.08622 151.861 -4.98945
-22.3272 143.045 -2.04732
-27.6147 139.245 0.664496
-11.4767 146.969 1.62198
-11.3491 146.583 2.83365
-1.71117 153.825 -2.60647
-23.4037 142.535 -1.25584
-18 145.911 -2.6659
-22.8573 142.954 -1.38297
-12.6944 149.901 -5.40798
-26.8153 140.272 0.471917
-8.45749 151.896 -4.94794
-24.2519 142.472 -1.14617
-25.8141 141.443 -0.550403
-15.817 147.121 -2.1131
-18.0166 142.386 6.1334
-23.5449 140.318 4.61868
-10.3518 151.36 -5.41615
-18.5798 142.139 6.31358
-19.6381 141.876 6.00765
-14.7007 148.994 -4.06522
-3.91549 153.68 -2.53184
-17.328 143.538 5.29848
-25.8803 141.551 0.243959
-15.0481 148.433 -2.43419
-22.9391 143.862 -0.961038
-25.9166 141.045 2.07909
-21.8787 141.702 5.17625
-24.6645 141.04 3.8599
-19.179 142.929 5.86016
-21.3002 142.408 5.08306
-18.576 143.33 6.08615
-18.779 143.389 5.98522
-16.9605 144.932 4.71313
-13.9992 150.356 -3.99265
-20.828 142.933 5.07437
-15.1521 149.051 -2.14082
-19.2454 143.657 5.74732
-20.6172 143.404 5.05585
-5.78868 153.746 -1.56457
-4.39455 154.515 -1.56879
-8.76504 152.952 -2.92987
-10.3873 150.571 0.662328
-14.866 150.156 -3.25594
-13.4164 151.279 -3.72888
