ply
format ascii 1.0
comment Created by Open3D
element vertex 1938
property double x
property double y
property double z
end_header
4.05552 99.7195 -4.28572
-14.0697 116.737 -1.62008
-24.691 127.266 -1.07377
-26.2857 126.157 3.7148
7.23161 94.1929 -0.182802
-26.3603 130.542 -3.79851
-7.72953 98.2513 19.4651
-19.3542 108.748 21.8686
-22.3919 112.123 21.3941
-24.4478 125.229 2.21029
-26.5123 119.664 15.6859
9.25152 83.4386 15.2601
-7.75946 98.5442 19.2579
-21.7032 124.035 -0.446448
-28.1867 131.739 -2.24481
-25.0764 128.016 -1.14607
-14.3025 117.26 -1.50024
-16.0609 105.831 21.6633
-6.91661 96.4399 21.8892
-25.3584 129.21 -2.51563
-25.9902 130.59 -3.80085
-11.4693 114.668 -1.86149
-14.3894 117.428 -1.46041
2.99299 87.3467 20.1482
-6.83086 96.2436 22.1296
7.9665 93.4102 0.736107
-27.046 125.291 7.5016
-0.405579 90.3863 21.0095
-25.7834 117.462 18.9961
-31.792 133.553 1.57964
-24.5313 126.733 0.58048
-25.3564 116.654 19.7113
-13.4807 105.24 18.522
-6.77201 96.339 22.1191
-8.61058 100.813 17.6407
-27.0903 125.405 7.64636
-26.3003 123.134 10.2152
-19.0533 109.244 21.5854
7.4243 83.9342 18.6099
-25.6181 128.804 -0.831617
-22.5087 125.325 -0.287629
-26.4285 119.168 17.5126
-5.79963 111.48 -5.84734
-24.9166 129.146 -2.59722
-25.4483 126.551 2.95506
-26.0811 127.185 2.9948
4.82771 99.5791 -3.85345
-31.6545 133.817 1.42301
-25.8603 129.008 -0.354342
-25.0867 116.728 19.7745
-23.9701 127.064 -0.297251
-26.3446 119.286 17.5861
-8.3547 100.931 17.5826
-24.6983 116.171 20.1102
-17.4892 107.523 22.3935
3.48332 101.563 -4.61783
-30.5956 129.765 6.91385
-15.6719 119.09 -1.03394
-25.0146 126.683 2.36162
-25.2025 130.101 -3.28009
-24.1902 115.434 20.5811
8.5094 91.3428 4.35606
-24.2626 126.86 0.802179
-29.3431 129.784 4.78766
-19.2709 123.161 -1.58166
-25.9148 118.655 18.2446
-26.382 127.218 4.12162
-22.4403 125.949 -0.676734
-22.6061 126.102 -0.615788
8.51747 91.0462 5.18073
-24.0295 127.618 -0.608021
-23.7949 127.643 -1.05281
-2.16592 108.439 -6.06763
4.14346 100.97 -4.23658
-24.8261 130.646 -4.42229
-17.3014 120.969 -0.888482
-30.122 130.263 5.74675
-22.0398 113.288 21.0392
-13.8708 106.093 19.0585
-26.4618 126.546 5.76023
-26.8341 127.563 4.64808
8.52316 91.5033 4.62338
1.94534 103.997 -5.48016
7.45939 84.1379 19.4574
-26.9725 125.663 8.27992
-8.78011 102.08 17.1097
2.82397 102.776 -4.82766
-19.8993 111.094 21.1947
-1.21308 92.3981 20.5677
-24.1785 128.007 -0.630623
-21.4587 112.913 20.9438
-24.215 128.029 -0.574036
-27.4329 127.3 6.45865
9.41945 88.6669 8.25443
-6.86428 98.8136 19.5979
-23.9111 127.974 -0.957452
-24.8292 127.498 1.54081
0.322982 105.986 -5.71865
-22.7818 125.795 0.893179
-7.55309 100.536 17.9492
9.46856 88.4244 8.77741
-24.3419 127.962 -0.00620909
-28.617 129.702 4.58511
-24.781 129.646 -2.13571
-7.80874 101.165 17.4531
-23.8607 127.486 0.0839601
-29.8939 129.742 6.92144
-5.54479 96.166 22.2181
-26.236 127.925 3.59645
-28.6814 128.321 7.33852
-17.4011 108.639 21.6608
-25.9626 120.666 15.9495
-4.23966 95.1857 21.7797
-23.6503 128.348 -1.48758
-28.0903 132.773 -1.28777
-11.6565 105.683 16.7955
-22.6648 114.48 21.0694
-2.67168 109.54 -5.98346
-23.6268 129.538 -3.48488
-0.97925 107.707 -5.67189
8.89745 90.9785 6.06721
-8.55774 102.628 16.8864
-26.7809 128.382 4.36652
-24.2802 127.122 2.10626
-0.492994 107.229 -5.54533
-19.8582 125.101 -2.20457
4.07874 101.77 -4.11668
-6.0806 97.374 21.7175
-23.4087 127.347 0.307536
-5.44229 112.768 -6.23503
-22.2679 114.383 21.0118
-27.75 129.622 4.16375
9.5821 89.0558 8.49342
-30.8946 132.971 3.94035
-26.6938 127.673 5.71591
-12.2133 106.194 17.4434
-24.0821 126.837 2.53992
-25.6073 127.996 3.30585
9.06917 86.7349 13.589
-26.5086 126.638 7.31857
-28.0513 129.433 5.20863
1.84159 105.204 -5.67498
-24.9625 118.338 19.2224
-25.1024 127.817 2.99074
-30.622 131.6 6.47499
-16.9137 121.83 -0.84113
-28.9512 129.964 6.45394
-27.5346 128.349 6.77691
-30.6105 131.744 6.37498
-23.1109 128.101 -0.628659
-19.9868 112.713 20.7289
-1.62758 109.064 -5.63848
5.05822 101.083 -3.59386
-28.5797 129.813 6.20354
-29.5696 130.605 6.62267
-9.39885 115.126 -2.27851
-16.9084 109.523 21.0293
-27.2852 128.083 7.08698
-24.3397 127.577 2.74079
-27.8212 129.895 4.91209
-11.4658 116.749 -1.28067
-21.9096 127.461 -1.36112
8.81156 93.2826 3.7498
-30.47 132.174 5.9641
-9.0019 115.304 -2.78474
-4.68224 96.758 21.9905
-22.2822 115.304 20.9661
-26.0322 121.132 17.567
9.84117 89.0503 9.65671
-18.5215 124.72 -2.05104
-7.04843 102.141 17.0224
-26.0826 132.715 -2.45272
-5.93972 99.4742 19.7794
-25.8126 121.885 16.066
-29.4659 130.74 7.16042
8.77939 94.593 2.19359
-5.13156 97.6174 21.7869
-10.188 105.758 16.5903
-22.7758 130.315 -3.83713
-21.5195 114.885 20.9189
-24.8607 122.689 13.2954
8.93514 93.8788 3.36255
-10.742 116.694 -1.41471
-4.14019 96.5045 22.1245
-7.61513 103.239 16.5954
-24.8403 119.7 18.5499
-7.17258 102.704 16.7688
-10.0834 105.839 16.493
9.94014 89.0934 10.0446
-25.3046 120.518 18.0315
-24.8986 128.562 3.28069
-4.07157 112.813 -6.25445
-24.8373 129.348 1.92467
-26.9055 130.169 4.30168
-22.1318 127.333 0.769284
-6.30915 101.374 18.0065
2.29525 90.8463 21.114
-11.6882 117.8 -1.07551
-24.3846 119.368 18.8601
9.69391 88.4569 12.2432
6.42349 87.1182 20.4739
-24.2806 129.749 0.71413
-9.85316 106.194 16.173
-29.2823 131.67 6.29134
-29.7422 132.034 6.48301
-25.7613 127.235 7.79592
-14.5527 108.273 20.967
-1.0264 94.5622 20.8205
-9.23987 116.068 -2.06648
-25.1919 120.992 17.8082
4.05758 103.571 -3.92845
-25.3282 129.106 3.88231
-27.2874 134.44 -1.93117
1.39584 91.8347 21.4215
10.1203 86.6468 14.9276
-28.4219 131.677 5.02115
-10.4475 106.999 16.1259
-2.11093 110.857 -5.49344
2.69213 105.597 -4.84827
-22.8337 130.069 -2.0235
-26.0023 125.578 11.5068
9.20397 94.2036 3.61776
-25.7737 127.748 7.45968
-21.5486 115.856 20.7586
-20.3002 114.595 20.7487
7.66639 98.3272 -0.700021
-3.33072 112.553 -5.93613
-19.9283 127.212 -1.85813
-9.50343 106.458 15.8519
-26.0224 128.193 7.32028
-27.5109 131.615 3.99578
-22.7784 128.471 1.05777
8.67066 86.3547 18.6422
-12.147 107.912 18.0959
-30.2133 135.966 1.26733
-27.2002 129.831 6.62487
-25.298 127.921 6.58794
-24.6933 130.052 1.89331
-6.83136 103.548 16.3789
-13.3749 108.292 19.7636
-20.8297 127.863 -1.14778
-16.1901 110.545 20.8803
8.64807 96.808 0.602047
9.83772 88.1158 13.7039
-28.4497 130.447 8.0469
-30.239 136.323 0.976121
-4.57174 98.2293 21.8008
-13.0646 108.286 19.4091
-24.5183 132.67 -2.78888
-26.4772 131.342 3.10525
-27.1141 128.85 8.62146
-6.98524 116.201 -5.12243
-7.36511 116.494 -4.88197
9.32806 94.9356 3.08135
-25.6851 128.111 7.61831
-19.5614 114.41 20.6668
-27.7624 129.838 8.34678
-6.20123 103.002 16.8057
6.27835 88.1135 20.6123
-26.3318 128.147 8.82216
-7.8688 105.102 16.189
1.83633 92.1403 21.544
5.64698 102.481 -3.33134
5.46528 89.0868 20.4738
-25.8795 126.001 11.8544
5.52068 89.0672 20.483
-8.79159 116.737 -2.3591
-18.4564 126.505 -2.16391
-15.3227 110.194 20.7886
-24.386 121.079 17.9409
-29.401 135.301 2.01708
-20.8125 115.9 20.6791
3.84453 90.7351 20.7146
-0.277456 109.893 -5.42133
-21.8458 130.379 -2.69767
-26.8216 131.178 4.84052
-25.4164 123.823 15.2132
-22.1975 129.396 -0.255265
9.59516 94.3557 4.35093
-18.7442 127.141 -2.37974
-27.0664 130.856 5.98433
9.50699 95.0475 3.36879
-17.9887 126.057 -1.79354
-26.5939 128.791 8.80909
-19.4851 127.406 -1.42278
2.01825 92.3161 21.5933
-25.6064 134.331 -2.59185
-25.5783 128.437 7.68896
-26.5702 128.847 8.8168
-25.2056 124.104 14.697
-8.68685 106.791 15.5098
-15.9247 111.213 20.8124
-26.9494 129.873 7.85257
-4.82222 115.246 -5.98954
-26.0283 128.376 8.90907
-2.98535 113.317 -5.88069
2.46894 107.303 -5.07822
-11.1831 108.358 17.5496
9.99934 89.7054 12.4352
-25.3348 130.428 4.35774
-22.678 129.664 0.977811
-0.453786 110.545 -5.24393
-0.987349 111.103 -5.21422
2.04448 92.7217 21.5908
-6.04414 104.081 16.1643
-25.4388 131.389 3.03524
-12.3538 108.857 19.1007
-19.0159 114.79 20.6275
-0.19386 110.436 -5.34979
-22.3955 130.372 -0.58518
-25.5231 134.665 -2.47534
-21.4677 130.948 -3.19047
-29.2031 136.221 1.4126
-22.1049 118.479 19.8145
10.0063 93.0652 6.96492
-28.5087 136.682 -0.57831
-22.5638 129.718 1.00333
-22.0496 118.443 19.8137
-17.1137 112.91 20.7244
-10.1632 118.359 -1.21085
-10.7683 118.877 -0.976785
-24.6025 127.795 8.12517
3.06773 106.817 -4.49027
-26.7043 131.665 5.23596
-12.8406 120.682 -0.228634
-4.17421 99.5249 21.3605
-23.1987 120.616 18.5055
-28.838 137.082 -0.20758
10.1905 92.631 7.90281
-6.65371 105.288 15.8458
-22.2256 130.635 -0.687763
-5.59209 116.613 -5.76987
-24.9322 124.913 14.3263
-26.2716 131.779 4.72866
-17.3361 126.133 -1.33141
0.611635 94.8895 21.3383
-25.0714 128.494 8.48167
8.87167 88.0584 18.6695
-5.29078 116.563 -5.85141
-19.4692 128.907 -2.03022
9.95423 88.1183 16.8329
-8.51859 107.979 15.0736
-17.5446 114.058 20.5935
-2.66997 97.9574 22.2132
-10.9088 119.588 -0.862858
-15.0467 111.703 20.3312
-7.90347 107.423 15.0723
9.50237 88.1721 17.7476
-18.1077 114.837 20.5943
-8.25172 107.995 15.0203
-21.2766 130.893 -1.7372
-7.24995 106.912 15.2299
-18.2562 128.098 -2.13995
-27.7676 132.2 7.67703
7.96167 88.8731 19.7287
-16.0518 112.951 20.4976
-21.0221 118.489 19.6912
-21.2958 130.508 -0.842122
-7.23225 107.054 15.1404
-0.805774 112.081 -5.10424
-16.1147 113.093 20.5211
10.5213 89.9162 13.5527
0.938398 110.706 -5.67451
-0.112403 96.2465 21.556
-14.4613 111.81 20.0207
-14.1259 111.532 19.9185
-22.5173 130.91 1.07494
-9.26092 108.979 15.8149
2.18316 109.574 -5.57592
9.80721 88.9407 16.9414
8.2771 101.086 -1.56098
10.2624 94.7215 6.04216
-5.58728 105.475 15.5604
-12.6992 110.6 19.4038
6.27047 104.174 -3.10466
-15.2858 124.661 -0.304278
-11.2926 120.818 -0.585323
9.68126 89.3236 17.1052
-18.461 129.242 -2.45677
-21.2572 132.447 -2.99692
-17.539 115.185 20.6005
-20.1705 130.242 -1.03966
-25.1776 135.972 -2.028
10.5345 93.9543 7.93556
-24.7188 129.083 9.6336
-15.9288 126.009 -0.625259
-12.8776 111.535 19.2752
-27.0665 134.279 4.82968
-15.3213 125.28 -0.357995
-9.97404 120.357 -1.1675
6.81872 90.7815 20.6151
-6.38693 118.847 -4.75647
9.24656 99.3901 1.39006
-5.68614 106.947 14.9159
-14.3889 113.058 19.7692
-24.551 128.64 10.677
-24.6865 128.152 11.9154
-8.22195 119.348 -2.00351
-9.51624 120.28 -1.31847
10.867 91.6643 12.3789
9.33674 99.2842 1.81273
-0.549649 97.8726 21.9369
-7.77813 109.55 14.5204
-17.687 129.153 -2.06012
8.06651 90.4618 19.6845
-20.6265 132.05 -1.72914
3.06413 109.925 -5.17329
5.5596 106.341 -3.33171
-24.6113 128.205 12.2845
4.54167 93.2456 21.4618
-17.0423 129.177 -2.82922
-9.94735 120.951 -1.05171
8.81632 102.022 -1.40749
-11.7677 122.297 -0.0864662
-14.0786 124.532 0.146138
10.6504 95.7912 6.36245
-21.5958 131.977 0.629971
1.61187 111.911 -5.64906
-22.7935 123.321 17.9677
11.1596 92.0801 12.0094
8.89872 102.029 -1.34408
10.9592 91.5803 13.3278
5.64404 106.54 -3.35569
9.29394 99.8228 1.9535
-12.0068 111.797 19.0373
-19.3567 119.101 19.4325
-23.8484 129.734 8.88515
8.02456 91.0125 19.7679
-8.3418 119.999 -1.71372
-22.1294 122.743 18.2822
-25.7089 137.589 -1.28798
-11.4167 122.368 -0.169823
-27.1161 138.389 -0.133687
-26.0123 132.45 8.31869
10.5783 90.8375 15.8282
-7.19777 119.838 -3.09063
10.9441 94.6444 8.65176
-20.8271 131.99 0.0556125
1.51811 96.911 21.5671
-14.4917 114.194 19.9429
-18.0272 118.012 19.6131
9.93647 91.2541 16.6474
-1.14274 115.157 -5.39146
10.4971 97.4339 4.84412
-23.4694 129.61 9.23811
-21.5292 132.385 0.935107
9.42837 100.906 0.785524
1.25015 97.5521 21.297
-26.317 135.845 3.60844
-21.6026 135.153 -3.53771
-23.7566 130.248 8.89748
-15.5761 127.424 -0.729937
5.15338 108.318 -4.16535
-25.7049 133.019 7.8026
-17.3595 130.093 -1.965
-23.8486 126.176 16.5466
-20.7458 133.094 -1.04375
9.45241 101.634 0.0867611
9.45181 100.058 2.84967
-20.6783 132.996 -0.967815
-13.2702 124.8 0.212225
8.11376 91.9926 19.554
-23.1389 129.665 9.47939
5.35783 108.472 -4.15295
-27.2087 137.533 3.20245
-14.8847 115.343 20.0643
-17.7835 118.719 19.4061
8.13187 104.65 -2.24712
2.09444 112.724 -5.57789
-20.6176 133.424 -1.23254
2.39187 97.117 21.2116
-20.0171 132.188 -0.131793
-15.0448 127.571 -0.877922
-23.1864 130.186 9.08776
-25.3263 133.225 7.62756
-20.3755 132.809 -0.472526
1.74346 98.0348 20.8825
11.6384 93.0999 11.8816
-22.1863 124.77 16.9056
-20.841 134.223 -1.99626
3.61009 111.341 -5.61712
9.99944 92.0704 16.7002
-15.212 115.926 20.0611
-0.0976993 115.233 -5.66055
-22.4143 129.462 9.30938
-11.7334 113.107 19.0019
-27.4652 138.467 2.82485
-14.8473 127.554 -0.576074
8.04404 92.8619 19.3621
-16.3036 117.529 19.7556
-3.78647 119.436 -5.89225
-24.1088 131.554 9.27659
-8.36097 112.111 15.2222
-10.409 123.168 -0.276112
-23.7169 132.235 7.62452
-25.0117 138.95 -1.73549
-7.34146 111.854 14.2035
-24.026 138.158 -1.98698
7.34708 93.3986 20.3392
-21.8473 129.592 9.16084
-23.8431 131.572 9.27313
-0.83827 101.24 21.2946
5.3649 109.835 -4.69234
-27.4822 139.157 2.72831
-1.04147 101.698 21.0808
-23.2353 131.188 9.17681
-2.47826 105.824 16.5305
-21.6682 129.618 9.16258
2.64645 113.251 -5.58724
6.39135 108.305 -3.58052
-22.3974 130.854 8.47866
-25.6545 139.727 -1.20901
3.90875 112.092 -5.61479
-19.9751 133.133 0.247754
-6.30894 121.425 -3.58842
-3.24237 107.49 15.3225
-23.1759 127.635 15.7081
-26.6546 138.22 3.42482
9.62763 101.67 2.62061
-18.6166 132.64 -1.12769
-0.550462 101.403 21.2829
8.11176 93.8251 19.0946
9.74243 100.747 4.12729
-19.6274 133.026 0.178725
-5.01398 121.062 -4.97591
11.5418 93.9118 13.1655
-14.3186 128.886 -1.82085
-23.981 134.14 6.46331
-1.68163 118.247 -5.45277
-15.8739 118.691 19.1597
-19.1785 122.783 17.9123
8.93584 93.8989 18.2595
4.98227 111.273 -5.07055
-15.8109 118.638 19.1807
-18.6452 122.038 18.3394
-0.401949 101.881 21.0724
-1.20304 103.339 19.9715
-18.193 121.44 18.6707
-24.1356 135.243 5.13146
9.77334 101.431 3.82753
-1.27161 104.155 18.8512
-19.7456 133.439 0.626618
9.78876 93.8411 17.387
-22.8011 130.216 11.9494
-14.0047 128.842 -1.30055
-23.7795 138.872 -1.31214
-26.3061 140.865 -0.280339
-20.437 125.352 16.3835
-16.1193 119.503 18.9322
-18.0045 121.712 18.4629
-9.08072 113.525 16.8637
1.78424 115.299 -5.61502
-21.2882 137.234 -2.76295
-7.98591 113.479 15.0596
-9.07808 113.561 16.8675
10.9745 93.5885 16.0165
9.94133 93.9481 17.2806
-2.32768 107.395 15.6632
-11.6494 115.032 18.9681
10.4309 99.623 6.55939
2.01411 115.156 -5.5657
-6.3229 122.178 -2.95038
5.81833 96.4216 20.5051
6.22539 110.311 -4.52202
-14.3765 117.714 19.4418
-13.0526 127.699 -0.37559
-21.6995 129.882 11.3376
11.1392 93.7758 15.9057
-18.9354 123.628 17.3884
10.0052 101.049 5.25001
-20.4753 136.915 -3.07555
-4.2107 121.665 -5.37503
6.7419 95.7836 20.4658
-3.69323 121.309 -5.53484
-20.97 131.183 8.08565
-26.7164 141.206 0.931214
-15.1648 119.164 18.8997
-0.602991 103.832 19.7752
2.88237 99.6194 20.9546
-0.227791 117.886 -5.43001
11.0754 98.4681 8.37631
-16.9103 121.152 18.7006
0.526392 117.09 -5.31042
-13.5545 129.416 -1.6766
-21.3149 127.395 15.7646
-15.638 131.996 -2.338
-8.88261 114.2 16.772
-4.63944 111.998 13.251
11.054 98.7685 8.42729
-7.22045 123.147 -1.59163
-22.2 128.362 16.053
-2.87364 121.107 -5.69657
-20.0578 126.407 15.7471
-8.90664 114.428 16.8405
-18.7464 124.385 17.0444
-13.5924 117.849 19.3018
10.2231 103.878 1.23739
5.55422 97.8203 20.202
-12.5161 127.987 -0.305899
10.0036 94.8199 17.5782
-7.04429 123.285 -1.69736
-20.5233 137.653 -2.69012
4.12685 113.754 -4.88427
-17.6273 123.291 17.3444
-15.4406 120.293 18.7168
-25.9972 139.707 3.65759
11.5175 95.4622 14.0989
-14.7342 132.165 -3.20024
7.55624 96.1702 20.0506
11.9186 97.0999 10.6498
10.2038 103.857 1.92536
-1.16578 107.423 16.0334
-22.7744 130.234 14.746
-20.2893 130.992 9.0116
-3.54042 111.349 13.499
-0.0150917 104.182 19.7494
-23.7212 137.103 4.5099
9.94409 95.1843 17.8078
10.2023 105.158 0.0634105
11.28 95.1365 15.6794
-11.0328 116.235 18.6196
8.63133 108.259 -2.43389
-7.40076 114.947 14.5209
-21.4019 134.192 6.0578
8.49219 108.753 -2.78105
11.4594 95.7878 14.6318
11.7173 98.148 10.0577
-14.5383 120.043 18.71
-7.76942 124.379 -0.900264
10.1921 103.892 3.10778
10.3325 105.106 0.824077
10.0632 103.082 4.94476
-18.0177 134.453 0.208521
-21.949 139.112 -0.917179
11.3153 95.8828 15.5081
10.211 103.938 3.38875
-11.5447 117.311 18.8852
-14.8514 120.899 18.5673
12.0445 97.67 11.2468
-12.1218 128.928 -0.284947
-25.6207 142.3 0.444713
-6.3568 115.199 13.4886
-13.3252 132.205 -3.81058
-12.6425 130.921 -2.70735
-0.0853043 106.925 16.8647
-22.0341 139.533 -0.958133
-19.2081 135.414 1.21239
-23.813 138.071 4.80005
1.15851 103.575 20.6067
-22.4453 140.159 -1.16492
-16.1754 133.504 -0.689356
-21.1153 130.687 13.1007
-9.14671 116.102 17.2666
-16.3616 123.401 17.4115
0.561088 105.028 19.3482
10.136 103.331 5.23787
-1.34745 109.579 14.8607
-23.0715 140.803 -0.956421
-0.399778 108.013 15.98
1.36933 103.642 20.5611
-21.5505 139.281 -0.816499
-8.56462 125.861 -0.183502
11.901 97.5716 12.813
-3.46598 113.306 12.7271
-17.1718 134.579 0.0531611
-0.981972 109.57 14.9766
1.5661 118.289 -4.7784
11.7839 99.4145 10.007
-2.66705 112.356 13.2532
7.23838 98.5807 19.6971
-7.41457 116.198 15.037
-22.5453 137.015 5.83134
-17.12 125.442 16.4413
-18.7237 135.981 0.914297
3.91266 116.047 -4.61203
1.01997 105.104 19.7066
-5.48787 115.706 12.9082
8.12614 98.1661 19.3111
-25.0733 142.964 0.263716
12.0335 98.6797 11.5101
7.35803 112.184 -3.74213
2.69211 103.156 20.3911
-16.3372 134.479 -0.37128
-0.362901 109.188 15.3781
-8.1646 126.102 -0.262
-23.4927 138.568 5.32963
5.52098 100.327 20.4972
-24.4506 142.725 -0.158161
-3.2392 123.962 -5.1978
-4.48613 124.541 -3.95132
5.13686 100.739 20.516
4.92409 101.019 20.4849
5.25405 100.68 20.511
-7.52257 125.8 -0.604802
-15.0136 123.016 17.7552
-11.877 119.364 18.608
-18.5059 128.368 14.7121
-20.3961 135.137 6.28216
0.710975 119.538 -4.07851
-25.4327 143.015 1.57267
-19.2324 132.981 8.07041
-3.32422 114.235 12.4741
-18.7645 137.147 0.0929702
-20.4035 132.021 12.1611
-19.2533 132.646 9.02335
-20.8464 131.434 13.9995
1.07788 119.398 -4.0736
10.3215 105.026 4.62121
-17.5292 136.143 -0.00836939
-23.7663 142.618 -0.186924
11.2616 102.569 7.38212
3.71899 102.936 20.2471
-8.92867 127.221 0.339952
0.575281 108.59 16.031
-12.7542 120.895 18.4173
12.1036 99.8608 10.841
-18.5458 136.787 1.01414
1.06982 107.885 16.6268
9.81303 109.853 -2.3687
10.323 108.733 -1.23217
-7.74454 117.322 16.0446
-19.9205 132.317 11.5681
10.3329 105.642 4.26288
5.6026 101.31 20.313
11.9582 99.4976 12.3715
-19.5458 130.563 14.3132
1.43688 107.138 17.8588
-18.188 137.513 -0.244011
3.36157 118.225 -4.96234
-15.7247 135.558 -1.19901
-23.4545 142.937 -0.238593
-16.6882 136.203 -0.532048
-22.1868 138.197 6.10234
-14.7458 135.184 -1.90725
-14.9156 135.475 -1.91557
1.11659 120.238 -3.83018
-12.5051 121.542 18.2221
9.06523 99.4256 18.4706
-16.7124 127.978 14.5979
11.064 99.5218 14.7916
-13.2877 134.485 -2.89566
8.63105 99.8703 18.5376
-8.18291 118.2 16.5092
-19.6883 135.644 6.53506
7.38551 100.703 19.3467
10.423 108.49 0.56141
-24.1711 143.849 0.507625
-14.5947 135.752 -2.3967
-19.4687 135.737 6.39974
-20.2715 140.508 -0.4599
-19.7876 140.22 -0.680584
-11.2415 120.728 18.2243
-17.0391 128.842 14.4195
7.64641 100.94 19.1766
-14.028 135.738 -2.93478
-24.2542 143.954 1.03205
-10.2651 130.579 -0.522396
-18.4538 131.818 11.9592
8.15485 100.747 18.8343
11.7748 100.515 12.8597
-5.93744 118.361 13.2748
-12.4057 134.7 -3.57148
-17.9476 133.642 8.17676
-19.7466 136.46 6.52775
5.24535 116.939 -3.91712
-18.4659 139.028 -0.20593
-17.0202 129.215 14.4909
-17.2387 137.854 -0.10102
-13.0016 123.475 17.5321
-8.08142 128.353 0.226154
6.84687 101.906 19.8761
5.42642 103.346 19.9687
-3.09703 116.723 11.8027
10.1786 110.993 -1.80053
-6.73107 118.839 14.7295
4.06471 104.73 20.1667
10.9612 107.626 2.86267
-0.621925 123.69 -4.52647
10.8445 108.25 2.09118
-22.1844 139.74 5.96927
-13.6404 136.267 -3.11881
10.4414 110.859 -1.62289
-17.1704 138.087 0.0682317
1.71364 120.929 -3.61197
-18.1151 131.975 12.482
-5.27593 127.369 -2.1916
-23.7433 142.568 4.2018
-3.77485 126.841 -3.88878
12.1823 102.376 10.4607
-8.26077 119.82 16.6691
8.25907 115.151 -4.48758
-11.8599 135.494 -3.98782
-18.3851 131.923 14.0602
-17.1619 134.094 8.08234
8.9305 101.532 18.5102
11.6819 102.196 12.4377
8.48677 115.051 -4.32199
-2.80532 117.621 11.5159
-17.5026 139.087 0.216261
8.60278 114.855 -3.99523
-2.892 117.795 11.4709
-16.2615 129.608 14.6914
4.34693 105.465 20.1475
5.77273 117.763 -3.81803
3.3601 120.234 -3.67109
-10.1755 133.212 -2.2012
11.1585 106.954 5.74526
-12.1454 136.123 -3.66484
-17.9329 132.076 13.8355
-21.8259 140.56 5.96087
-6.6414 119.971 14.988
-15.1634 138.652 -2.40513
10.9016 110.512 0.300538
-10.4111 134.222 -3.04831
-7.29292 120.305 15.8486
2.52238 109.639 17.1108
4.72814 105.625 20.2054
-8.58569 130.549 0.478962
-17.5201 140.234 -0.506979
10.9187 110.175 1.31152
3.69844 108.024 18.1773
3.7467 107.836 18.4562
-22.566 142.433 4.91878
-14.5812 128.548 14.9985
-20.2121 143.094 -0.371779
-6.75858 120.416 15.2972
1.70921 122.573 -3.55778
9.23569 115.012 -3.70992
11.274 106.574 7.41595
3.11814 109.071 17.6101
11.9762 104.309 10.1261
9.62592 102.235 18.0146
-8.92444 121.689 17.1481
-23.0483 145.182 1.2666
-16.8052 131.268 14.5042
-10.224 122.831 17.5336
8.77024 115.579 -3.66702
-15.2307 129.511 14.8498
1.00243 113.627 13.7665
-9.15578 132.068 -0.351327
-4.83824 120.336 12.5406
-12.4695 137.149 -3.1852
-10.3439 123.161 17.5136
-16.221 132.525 11.6577
-20.2377 139.885 5.97456
11.4946 102.332 15.0677
-16.7145 134.982 8.33239
-5.23548 128.911 -1.52617
-6.04096 129.295 -0.726903
2.8352 122.074 -3.76321
-21.5336 145.149 -0.615548
-16.8546 135.11 8.6685
-9.49154 133.444 -1.55134
-16.66 136.641 5.81524
3.28804 109.564 17.6276
-15.9255 131.585 13.4508
-1.67246 127.43 -4.65604
-21.3693 145.233 -0.633346
-20.3216 144.257 -0.771604
0.192045 125.155 -3.76616
8.99423 116.135 -3.64299
11.9047 109.426 3.10815
4.95638 120.476 -3.79487
-11.5567 126.509 15.142
-16.1012 135.707 7.24304
-3.87535 129.144 -3.07364
-17.5852 137.865 6.21496
9.67915 113.799 -0.241925
11.636 103.162 14.9071
12.2721 104.237 11.9632
-4.64046 121.224 12.4599
-9.45064 134.925 -2.84935
5.03584 120.763 -3.90718
9.11269 116.942 -4.41269
-16.1667 141.377 -1.92171
-21.0495 145.595 -0.510156
-8.33151 132.313 0.0406732
-18.5349 138.995 6.62616
8.88131 115.942 -1.96459
-15.2779 135.998 6.19888
-17.3752 138.096 6.33131
-17.6744 138.363 6.39719
10.7807 112.504 0.84433
-9.40475 135.309 -3.01612
3.79111 109.92 17.9278
-1.99467 119.87 10.8615
11.8105 106.36 9.8589
-17.0039 138.244 5.56187
7.70217 119.471 -5.55865
-4.91554 121.702 13.0939
8.91142 116.01 -1.57504
-9.85217 136.458 -3.84656
11.2611 111.665 1.8536
-11.9467 138.357 -3.34028
1.75591 124.415 -3.36626
9.44573 104.449 17.895
-8.59505 123.502 16.8105
-1.31536 128.267 -4.52353
11.8227 103.817 14.9322
11.0099 112.079 1.98379
-16.0653 137.718 5.46725
-9.29136 124.287 16.9239
-16.2703 141.095 0.000531519
11.8718 106.46 10.3891
-6.3833 131.047 -0.0235369
6.02911 107.199 19.5631
-7.18247 131.601 0.463286
-17.045 139.184 4.86716
-15.2485 132.926 12.619
3.5266 111.24 17.0393
3.14373 123.694 -4.06651
-3.93074 130.156 -2.68404
-12.4055 139.304 -3.54773
-11.557 128.023 14.7105
-9.3822 136.206 -3.44395
-9.8826 125.848 15.6146
12.1111 107.569 8.45981
-6.26041 131.203 -0.0499976
-9.62591 125.579 15.8544
-3.2061 130.021 -3.36217
2.29184 114.613 13.7915
-14.6666 141.214 -2.40052
3.60176 111.662 16.7562
-14.8948 132.335 13.7087
-14.4984 136.138 6.55111
10.248 105.357 16.3183
-5.5066 122.643 14.2193
-14.5006 141.335 -2.39348
6.2772 107.726 19.3894
12.0548 106.857 10.7002
2.70717 114.404 14.2097
-13.1358 130.497 14.3814
-18.7433 144.915 -0.738505
8.56995 106.289 18.1603
-21.8461 146.533 2.20851
4.32591 110.826 17.9888
-3.81129 122.634 11.8612
-11.8734 129.633 14.0577
-14.8324 138.134 4.48021
2.23394 125.285 -3.40055
-13.581 131.244 14.4507
6.54796 122.359 -5.87588
-14.9415 133.735 12.874
-13.9938 136.129 7.00701
-21.9266 146.365 3.29926
-15.0462 134.018 12.6324
10.6241 106.063 15.7484
-14.1972 137.099 5.86834
-17.4721 143.742 0.197099
9.18731 116.675 0.00307905
-7.59159 133.938 -0.230809
-3.14964 122.997 11.0375
2.93491 115.28 13.7669
-20.1019 146.931 -0.453721
-0.189648 128.442 -3.6197
-8.466 136.121 -2.2096
-14.3657 138.35 4.4705
10.8406 106.31 15.5378
5.01347 124.258 -5.369
-8.19615 125.449 16.1907
6.57989 108.606 19.2804
6.14675 109.008 19.3538
11.6734 106.125 14.7418
9.06272 120.01 -4.81153
7.09531 122.701 -5.96547
-14.6411 136.703 8.37627
-8.28295 136.182 -2.0049
-8.19496 136.128 -1.89194
-11.8744 131.077 13.5206
1.36439 127.164 -3.19528
2.25523 126.621 -3.71934
2.75274 116.526 13.0947
6.14739 109.725 18.9936
-17.4571 142.113 4.52812
-7.77604 125.826 15.7977
9.92608 115.154 2.87382
-6.64939 133.5 0.397652
10.9392 106.949 15.4921
-7.50914 134.996 -0.6187
9.47203 115.891 2.49339
1.40283 119.085 11.345
4.55295 112.642 17.0859
-14.3447 139.343 4.11109
-15.4684 140.477 4.14521
-4.84137 132.388 -0.626831
-15.2326 140.197 4.27129
1.87744 118.431 11.853
12.8435 108.919 8.92879
-14.7788 136.25 10.5406
-0.0771415 121.418 10.2576
-13.3827 134.112 11.8704
-11.1019 140.864 -3.86705
12.955 110.194 6.90917
-13.6122 139.155 3.7285
-17.2562 145.185 -0.310711
-14.5003 136.702 9.66918
1.27814 128.092 -3.41325
9.56412 120.198 -4.36507
-8.61022 138.24 -3.46404
11.6014 107.159 14.8395
-8.73406 138.542 -3.74113
11.269 112.814 5.5618
12.0175 111.764 6.14691
11.3144 112.755 5.67725
7.88768 108.906 18.5458
9.3671 117.383 1.10482
-17.0733 145.117 -0.176592
-7.27473 126.252 15.3368
8.12725 108.884 18.3393
-10.9177 141.026 -3.87485
-14.2919 135.815 11.2793
-6.86157 126.024 15.1431
8.32897 108.849 18.1638
-3.2819 132.324 -2.08964
-5.77027 125.344 14.6034
12.7403 111.001 6.78465
-12.5461 133.858 11.9505
4.16589 115.192 15.0272
12.9573 110.561 7.47814
-1.11815 123.609 9.83979
4.01003 126.791 -4.8638
-9.67227 140.113 -3.73874
-5.81559 125.711 14.6208
-12.5843 134.253 11.8856
0.121826 130.233 -3.72568
-15.8505 142.498 3.38196
10.7385 115.602 3.02892
10.4349 115.089 4.53054
-6.98166 126.905 15.0122
-19.2342 144.836 5.55349
4.61861 126.661 -5.23119
12.8321 108.472 12.0595
1.32397 129.168 -3.58453
-15.7373 144.824 -0.312121
7.22294 110.481 18.7829
-9.10781 140.038 -3.75241
8.89499 109.539 17.4733
1.90174 120.441 10.909
11.0234 120.535 -5.50609
12.4669 107.966 13.9972
10.7853 113.823 6.76931
-13.5298 136.873 10.0282
12.8153 119.022 -5.70176
10.2429 119.896 -2.58078
-1.5121 124.821 9.84679
4.29327 116.022 14.8815
9.77325 121.783 -4.96108
2.95698 128.302 -4.15091
-0.552946 123.975 9.73692
-12.0641 137.556 6.56999
0.115145 123.25 9.85829
-5.80485 126.681 14.4625
-5.83814 134.829 0.274908
10.6802 114.213 6.90098
-20.0877 147.875 3.02181
-12.6399 140.064 3.46919
12.4464 119.17 -4.75344
-16.1946 143.755 3.37593
-10.8539 142.288 -3.57125
-7.95257 139.156 -3.2007
10.0489 120.372 -2.46507
10.9453 121.569 -6.06129
10.6867 117.457 1.62589
5.61581 113.677 17.3203
2.64712 120.16 11.2958
-18.1357 148.059 -0.344916
-16.0487 145.469 0.466906
2.17802 129.23 -3.645
13.1322 109.67 11.0682
-19.8084 148.492 1.97327
-9.18826 141.019 -3.90466
11.5224 120.569 -5.03103
2.07616 121.258 10.6618
0.445721 123.469 9.74152
-5.53299 135.018 0.352545
11.8475 119.685 -3.80553
2.22217 121.228 10.7053
3.82019 118.502 12.6671
-1.14081 132.733 -3.33561
-4.18233 126.524 13.045
-15.429 143.833 2.87535
-18.4108 148.407 0.198642
-5.52978 135.232 0.269376
10.9726 122.253 -6.47309
-13.4746 145.026 -2.64986
-11.8155 139.111 4.85496
-2.3476 125.904 11.1154
-19.5542 148.634 2.07473
-1.60082 133.029 -2.67404
9.49333 110.738 16.5776
11.8715 120.585 -4.85672
12.0551 119.465 -3.18906
-19.3845 148.778 1.68893
7.94226 125.466 -6.25974
-2.48715 126.096 11.3292
11.7231 116.177 3.38099
11.4152 114.186 7.45218
10.7974 122.728 -6.27025
-6.06687 136.936 -0.973527
3.59637 129.201 -4.63558
3.67453 129.225 -4.69649
-4.04743 134.733 -0.463095
12.4461 109.714 13.8733
-7.84791 130.315 14.1133
-19.1722 148.978 1.75165
-5.33455 135.863 0.049652
-17.7958 148.542 0.153166
11.546 114.089 8.12163
-5.42504 128.042 14.031
-10.853 137.682 6.86626
-4.29133 135.057 -0.193846
-11.0322 135.014 11.9351
-12.3169 137.773 9.44206
-10.6129 137.687 6.55026
13.0244 111.738 9.92178
1.05631 124.284 9.3587
-10.8925 143.913 -3.55417
0.649796 124.823 9.2426
3.74879 120.291 11.6434
-10.581 138.074 6.12497
7.61171 112.685 18.0968
12.2515 120.005 -2.97182
9.27 111.84 16.7565
-10.1382 134.351 12.1327
12.1355 112.931 9.84568
10.031 122.542 -3.0849
-2.57357 127.02 11.5882
0.789445 124.985 9.16273
-14.0784 144.12 2.247
8.74362 125.752 -6.35349
-9.27766 142.892 -4.14487
7.63213 126.868 -6.16105
11.767 114.215 8.78427
10.3426 123.709 -5.2831
-1.99472 127.114 10.8823
-10.609 135.352 11.8985
8.37537 112.643 17.7572
9.62622 122.679 -1.98505
-11.5905 137.244 10.4459
3.29485 130.649 -4.5115
-2.99678 127.604 12.1788
12.5375 115.719 5.25938
-6.19793 130.073 13.6392
-15.6955 147.487 0.154952
4.41742 119.984 12.3779
6.63468 128.108 -5.77895
-10.566 138.195 7.31133
-8.67471 142.756 -4.00381
1.78616 132.055 -3.82077
4.37982 120.37 12.1259
9.95084 122.822 -1.98434
12.2276 114.639 8.33679
10.3676 124.098 -4.84012
-1.87877 134.857 -1.77352
5.87298 116.548 16.4853
-16.8563 146.367 4.90291
-14.4276 145.277 2.48161
-10.8531 140.944 3.74968
-14.0053 145.119 2.11998
4.83608 119.727 12.9569
-9.32156 134.682 12.1082
10.5992 124.497 -5.625
5.11554 119.089 13.6699
12.7946 120.366 -2.2624
-2.08506 127.916 11.1153
-6.03864 139.139 -1.40729
-9.48857 138.632 5.65138
-7.02846 141.133 -3.06799
-8.76085 134.162 12.2337
-17.5986 147.363 4.91548
-13.2087 147.189 -2.48596
-11.1204 138.535 8.9562
9.34071 113.127 16.8896
10.672 124.43 -5.25891
-17.4661 147.291 4.99439
10.1109 123.691 -2.92866
10.3508 122.912 -1.96486
2.84661 123.87 9.77119
-16.7522 149.396 0.130158
-10.2185 138.535 7.47218
-16.7025 146.707 4.77627
14.1563 120.458 -4.26625
13.5438 119.468 -1.30858
14.0498 120.794 -4.51215
-9.1404 135.01 12.049
5.46341 129.89 -5.00665
-12.4237 147.179 -3.16361
11.0525 122.264 -1.46169
-10.2421 138.756 7.78874
-11.7831 142.886 3.3346
-11.7308 146.91 -3.66838
-8.99709 138.806 5.72001
-6.77094 141.449 -2.87326
-15.4116 146.695 3.42603
-10.6211 138.517 9.1876
-17.4677 150.011 1.32086
14.3865 120.495 -3.85674
-3.63998 136.727 -0.0301815
1.47667 126.589 8.61657
11.1312 124.736 -5.31738
-10.3938 141.589 3.6565
1.71198 126.385 8.6594
-13.6909 145.913 2.05847
-14.692 147.979 0.30683
-9.16679 139.623 5.09134
0.156787 127.973 8.84106
14.1103 119.677 -1.40522
4.16512 122.946 10.6442
12.7551 115.085 9.08471
12.8089 115.198 8.82691
7.60676 115.726 17.2594
13.7927 120.268 -1.73148
-16.0937 147.596 3.8185
1.51468 127.011 8.45658
-14.626 148.182 0.240931
10.204 113.946 15.8323
-6.99493 133.246 12.9754
13.2854 116.864 5.43647
-11.6101 144.352 1.843
-8.81662 140.453 3.74787
-8.73569 145.009 -4.35804
8.88925 128.305 -6.4274
4.57503 122.757 10.99
-16.8945 150.274 1.19172
-2.61011 136.805 -0.734293
-10.8647 142.945 3.27486
4.59049 122.803 10.9807
3.33228 132.935 -4.48455
10.9222 124.735 -3.57601
-15.1454 147.354 3.42127
-3.8371 137.937 -0.22625
-8.364 136.209 11.0197
-2.32241 136.911 -0.921749
-11.0673 147.591 -3.95932
-5.57672 132.433 12.7925
13.7467 121.106 -1.75032
-1.73167 129.667 11.0952
14.3711 121.953 -4.13693
12.2524 123.338 -2.772
10.953 114.406 15.18
-9.51149 138.366 9.79698
11.9446 123.312 -2.13688
-7.82133 139.11 5.57971
-10.7897 143.889 2.51895
8.66067 115.912 16.7604
9.3691 115.511 16.201
13.5726 117.657 4.98088
-8.41777 141.68 2.21313
16.475 117.393 0.265958
-15.0202 147.797 3.43347
10.0815 115.192 15.6813
-9.44706 142.513 2.80715
14.5449 118.838 1.39314
-2.08747 130.095 11.414
13.7759 120.883 -0.736079
-9.09494 142.968 1.49215
-16.8472 150.365 2.40317
13.4124 118.779 3.64312
12.4086 117.413 7.83391
12.6972 121.95 -0.564983
-16.36 149.027 3.94756
12.248 117.17 8.62117
14.2005 120.17 -0.0413944
15.4019 120.243 -2.31338
5.36462 122.56 11.6621
6.40456 131.182 -5.25595
-1.08256 136.929 -1.90265
-9.12236 138.431 9.86587
12.1105 123.918 -2.62992
12.3572 125.439 -5.69584
11.4564 124.117 -1.68038
-5.58098 141.625 -1.88889
10.836 124.233 -0.771242
-6.71521 134.813 12.0796
-5.05308 140.687 -1.16279
-16.5759 150.031 3.0905
-1.91428 130.501 11.2035
0.631298 129.401 8.63487
-3.62305 132.026 11.6412
11.3675 126.231 -4.97138
13.4083 121.052 0.501773
6.22511 131.575 -5.08259
-3.03304 138.189 -0.0468413
12.0753 117.565 9.09523
-6.4671 143.383 -2.90646
13.9727 120.472 0.748265
-1.56057 137.572 -1.36339
-4.90582 140.847 -1.06982
12.8196 124.054 -3.28104
14.5638 119.174 2.24492
6.08878 120.654 14.7909
11.031 123.298 1.40258
-4.73788 133.283 12.1058
-2.27326 138.069 -0.64879
12.9705 116.448 10.072
-6.83107 142.088 0.609242
-13.6352 149.354 0.05682
-12.7794 147.468 1.84028
14.7032 118.789 2.95656
-7.93767 142.898 1.20597
11.8642 124.964 -2.70552
17.7524 117.169 0.496619
13.2363 115.595 11.395
10.5801 116.152 15.3058
12.7616 121.409 2.27547
-3.1114 139.028 -0.189903
-8.99996 144.644 0.548134
6.96156 119.688 15.7615
9.23594 129.951 -6.21411
-13.6703 148.254 2.66193
10.4052 124.035 2.0986
-6.2852 142.169 0.191764
-6.62858 141.022 2.81447
-7.50133 143.098 0.786576
13.1799 115.964 11.3627
4.9808 125.201 9.89225
11.8421 125.711 -3.21452
-14.7302 149.057 3.44965
14.2383 123.889 -4.2146
-7.06745 145.304 -3.63182
11.5809 127.532 -5.81412
-15.1827 149.682 3.23253
5.79476 123.638 11.3564
7.81805 118.716 16.3577
10.4392 124.116 2.27727
10.2102 124.762 1.61364
10.7667 126.551 -2.43413
-6.14508 141.44 1.7293
11.5378 116.036 14.6118
-6.61959 144.708 -3.13333
-15.7889 150.65 2.86772
13.2144 122.247 0.847737
12.9023 116.281 12.0113
-2.63646 132.786 10.9047
12.7417 124.121 -1.27159
10.6296 123.863 2.95739
11.8433 126.119 -3.15395
-6.93526 145.569 -3.59868
12.9896 123.536 -0.610755
15.953 118.372 3.21037
12.8513 116.533 12.0872
10.3984 127.256 -2.26046
-9.77071 148.864 -4.02816
12.8265 121.223 4.00613
11.5505 126.665 -3.17017
10.2836 127.152 -1.72422
17.5638 117.758 1.72862
-5.24283 135.468 11.4724
15.5342 122.294 -2.45165
12.7584 116.78 12.2811
11.6001 118.891 10.6566
-12.1329 148.13 1.88183
11.0219 117.024 14.995
11.3966 128.143 -5.08961
-5.482 143.724 -2.12974
14.4072 124.579 -4.00793
3.00066 129.625 7.56266
-11.9203 148.176 1.82449
-10.0148 146.876 0.714376
-5.42722 143.812 -2.09318
12.4164 127.529 -5.33937
12.6353 121.931 4.07598
13.3012 121.112 4.32247
4.41931 135.227 -4.49356
11.1317 117.368 14.8501
13.7792 122.378 1.36718
-0.934277 139.057 -1.51666
14.6942 124.308 -3.44284
11.5613 119.163 11.1987
-5.50266 142.536 0.802414
-5.45329 141.782 2.05328
11.0214 117.648 14.9072
8.56216 119.619 15.9022
15.4665 119.435 3.93995
11.9455 118.537 11.8005
-7.42457 140.309 8.34867
-8.71444 148.752 -4.09177
-12.7472 151.272 -1.27656
0.159309 132.294 9.0758
12.3121 128.211 -5.43725
15.0673 119.819 4.32765
12.5046 117.64 12.7625
10.1905 128.021 -1.15141
-13.6944 151.8 -0.103174
10.9914 118.049 14.8973
16.4507 118.68 4.06562
-3.61133 135.414 10.7216
14.154 122.306 1.93894
6.81881 122.827 14.2596
-0.421379 132.779 9.81689
-6.49773 139.351 9.17306
16.1091 122.982 -2.54448
4.52261 128.717 8.1304
1.87661 131.768 7.57413
-4.52678 136.549 10.6665
12.5385 120.046 9.14408
10.3544 125.986 2.80599
13.2133 122.455 3.89046
-4.98468 141.991 2.31309
12.3389 127.458 -3.1846
10.2197 127.127 1.26171
15.9085 119.599 4.29466
-6.04572 139.238 9.14191
-4.95699 138.047 9.30201
-4.78421 144.177 -1.72583
14.7161 120.29 5.25264
13.9271 121.499 4.61537
-1.80512 140.597 -0.699906
10.4717 126.512 2.07174
-1.09235 133.603 10.3313
15.6023 123.915 -2.39706
5.72967 135.405 -4.82
14.512 121.148 4.57512
13.8961 123.071 2.34095
-13.7753 152.11 1.06106
11.6639 129.275 -4.40522
11.5675 127.232 -0.626933
-4.81611 138.359 9.17345
1.66476 132.671 7.58707
14.4054 122.312 2.97072
14.07 126.9 -4.4578
-9.27741 150.249 -3.62201
-11.9148 149.624 2.19172
0.716858 133.06 8.62124
14.449 122.598 2.50948
13.6008 123.695 2.15898
16.0869 123.79 -2.32324
17.8884 121.914 -2.17271
14.4901 123.397 1.30847
-3.27316 142.795 -0.862039
12.5522 127.757 -2.77864
13.4182 122.574 4.8764
-11.8773 152.053 -1.53037
-4.49987 142.238 2.52626
11.8022 119.376 13.4465
-7.88758 149.376 -3.88801
19.5083 117.868 2.33262
14.249 120.396 7.31913
17.2172 122.909 -2.37205
11.6367 119.231 14.0554
-3.74067 137.286 9.95633
4.85102 129.742 7.83683
10.8277 129.696 -2.71418
-3.97876 137.857 9.44802
-11.8179 150.044 2.12071
15.0318 120.72 5.49385
18.0418 118.625 3.81469
14.3108 127.016 -4.16567
7.38655 123.623 14.1785
-5.87611 140.676 8.02313
14.5944 120.598 6.61638
-2.90317 142.68 -0.755118
11.2988 120.753 12.2901
-6.90748 148.52 -3.76883
-1.67211 135.26 10.129
8.46268 121.995 15.2579
6.90763 125.863 11.4359
11.0258 126.804 2.45525
14.7495 126.692 -3.73502
11.3488 120.497 13.2781
13.3898 122.959 5.34339
11.3324 131.409 -5.72982
14.438 121.632 5.87403
-2.82594 143.052 -0.779952
11.6732 125.543 3.99891
10.1968 129.128 0.364504
7.60095 123.894 14.1634
11.2515 125.361 5.10313
11.1568 130.846 -4.30447
9.6352 133.427 -6.02537
10.6139 130.638 -2.83784
13.3427 125.336 1.56961
-4.60257 139.565 8.71941
10.5267 130.447 -2.30416
-2.90905 137.075 10.1082
3.08858 132.899 6.73808
13.1291 123.365 5.6128
6.52419 127.809 9.63707
12.4861 123.964 5.75412
-5.65889 147.498 -2.97128
1.74941 140.386 -3.74665
15.6564 121.166 5.12478
12.9763 125.884 1.76404
-11.2104 152.46 -1.359
11.1102 131.019 -3.67599
8.06355 135.207 -5.54903
3.93309 139.034 -4.81301
12.4927 125.745 3.21368
13.0233 125.917 1.96819
3.49369 139.47 -4.63258
14.2294 122.618 5.74509
10.4189 129.581 0.398097
12.0764 127.063 1.86727
-3.76578 142.754 2.78258
-9.24074 151.591 -2.87858
-4.99327 142.212 6.01696
12.5543 126.57 2.10871
-2.32663 143.357 -0.692501
-0.538336 141.83 -1.14795
1.26941 134.984 7.66849
12.4191 127.9 0.157413
7.07228 127.497 10.4513
0.384825 141.47 -2.02775
10.5362 130.067 -0.0671127
18.9616 118.999 4.28518
-7.14085 150.163 -3.62372
13.7491 127.594 -1.41258
-4.61415 140.999 8.06417
7.29444 126.652 11.9413
11.775 126.054 5.02051
13.4071 128.595 -2.32953
-2.97517 139.118 8.56989
-2.4102 143.986 -0.852704
7.60175 125.442 13.7227
10.6045 130.042 0.339769
-11.3617 152.706 -0.0776163
-0.584331 136.487 9.08381
7.33455 126.838 11.8724
-3.37347 142.569 3.47004
13.9815 127.005 -0.272517
13.9895 123.437 6.01669
8.32124 136.066 -5.75453
-9.63391 152.364 -2.02946
11.9181 127.443 3.11905
12.8113 128.433 -0.0825532
7.48118 126.644 12.6366
19.6427 122.764 -2.21116
-2.21517 138.861 8.78694
13.8586 126.996 0.891718
13.5129 127.141 1.38412
8.65803 124.679 14.4081
13.2087 122.721 9.74024
14.0753 122.591 8.49235
0.295212 136.738 8.3466
20.1906 122.288 -1.88725
-11.2187 152.304 1.69435
12.6081 131.77 -4.8803
-2.27002 144.763 -1.02321
10.1952 124.144 12.8429
-1.46609 138.178 9.33198
0.757573 142.447 -2.07516
-2.08913 144.778 -1.00594
8.92637 136.484 -6.11494
11.0725 123.675 12.507
13.2147 130.265 -2.82058
10.0901 125.199 11.6282
6.13416 139.106 -5.55892
-3.67496 146.908 -1.69128
12.9559 131.9 -4.99213
14.6775 124.132 5.56386
3.4783 134.806 6.88555
3.00869 135.125 7.26882
12.7973 123.443 10.2644
12.5989 131.607 -3.61116
14.5227 124.082 6.1235
21.0137 121.904 -1.63684
14.7657 124.209 5.62817
13.0226 132.106 -4.96831
18.9128 124.419 -2.01923
9.44587 126.055 12.0763
20.504 122.87 -2.09641
11.5812 124.374 11.2316
7.10854 130.315 8.83362
14.6038 127.3 0.792654
1.68898 142.696 -2.97279
13.7926 123.461 9.08013
2.14126 142.456 -3.34351
21.3463 122.048 -1.69709
2.59099 142.295 -3.61472
13.1246 123.883 9.89555
9.52612 136.945 -6.47728
14.6249 124.103 6.99402
3.96528 135.278 6.50138
7.43665 138.803 -5.80629
8.40708 127.258 12.8513
-7.32016 152.225 -2.7063
10.0877 136.678 -6.55097
13.4818 131.106 -2.83698
-9.83028 152.331 1.69893
6.83348 131.817 7.85409
14.4966 125.281 5.67315
4.27851 135.565 5.98039
13.5842 124.738 8.33851
14.4308 129.663 -1.7607
-0.3724 144.499 -1.20685
12.1793 134.283 -5.66346
14.1031 128.673 0.735809
0.157703 144.209 -1.3868
13.2412 132.378 -4.01519
5.37059 134.908 5.83116
-3.02642 143.643 5.55365
4.23 141.93 -4.37975
3.15744 142.713 -3.78435
20.8692 123.641 -2.02274
5.78408 134.371 6.18206
13.1779 132.849 -4.35296
14.7883 125.539 5.65559
9.10704 138.158 -6.22402
13.5335 129.24 1.56923
-3.04779 148.103 -1.76288
-2.40501 142.886 6.42263
-1.8622 141.904 7.34808
-1.50876 143.955 3.21971
13.2544 133.278 -4.29771
14.7121 125.56 6.61561
17.5006 127.345 -1.4184
16.9488 123.315 6.79283
12.3009 132.782 -1.43057
14.724 126.121 5.98609
13.5206 132.791 -3.51312
0.677322 144.806 -1.57231
9.24563 138.681 -6.10657
14.2214 126.777 5.91082
16.641 123.734 6.97091
-1.50989 144.133 3.71695
22.9582 121.72 -0.732061
12.8768 134.414 -4.91818
18.1396 122.409 6.70787
12.1794 135.344 -5.26338
2.70441 143.899 -3.2575
22.257 123.003 -1.59
14.2101 133.049 -4.76785
13.5046 132.804 -3.02858
-7.9577 153.563 -0.96555
20.4732 125.034 -1.80659
14.7562 126.371 6.08768
1.62773 144.499 -2.17048
16.599 123.959 7.07123
12.4015 126.984 9.28147
14.3568 131.647 -2.29049
12.4155 133.684 -2.22824
3.88105 137.795 5.82052
12.2263 127.215 9.44977
12.6657 133.362 -2.0453
15.5847 131.241 -3.51799
21.2142 120.149 6.04918
13.7474 127.365 6.86471
14.8872 126.507 6.40102
8.04604 130.801 11.1986
3.63099 138.312 5.96261
14.2962 132.002 -1.98062
14.0833 127.007 7.14285
14.3176 132.414 -2.64392
14.3436 132.4 -2.60402
6.39716 135.81 5.63949
0.772576 140.221 7.9812
13.1367 134.812 -4.61722
0.565777 145.964 -1.47291
3.31622 138.837 6.10136
7.82457 131.794 10.5002
13.0042 128.268 7.44079
-7.96754 153.306 1.12113
13.6791 134.078 -3.82185
13.1969 135.011 -4.51886
14.3619 133.909 -4.5025
12.0014 136.174 -4.18319
-1.0295 143.995 5.46585
-6.1067 153.353 -1.77196
1.60696 140.465 7.06652
21.4891 120.537 6.45983
1.05056 140.83 7.54709
-2.31452 149.62 -1.80896
22.3762 121.046 4.17284
23.6037 120.841 2.47557
15.533 132.888 -4.09192
11.2133 137.863 -5.07282
12.7082 134.376 -1.61591
22.6219 120.455 5.07712
0.0382202 144.965 2.51644
22.696 120.603 4.75485
15.3306 127.173 6.58381
2.34576 145.678 -2.44699
13.5697 134.259 -2.42527
13.5377 134.132 -2.04628
-2.39419 150.362 -1.92963
14.0208 134.59 -3.59109
21.3352 125.987 -1.54473
-6.92466 154.214 -0.336607
13.4831 134.442 -2.12997
12.7959 128.914 8.85759
22.3796 121.095 5.46974
13.4592 134.52 -2.05798
9.71448 140.641 -6.02747
20.5054 126.847 -1.12001
13.5092 129.487 6.77606
12.8775 129.329 8.2318
5.45091 144 -4.12684
23.5132 123.484 -0.445382
2.47454 146.106 -2.43422
18.0572 124.859 7.28969
14.4241 135.123 -3.83774
-0.194741 148.648 -1.3899
10.4845 140.226 -5.61173
22.0408 122.597 4.61144
12.1232 130.3 8.92142
19.4462 128.181 -0.421993
13.9968 135.477 -3.34977
23.7247 122.211 2.70763
23.8398 122.23 2.52776
15.7855 134.277 -4.07343
0.706368 145.497 3.22028
16.2407 133.607 -3.6771
12.8681 135.628 -1.16009
14.2143 129.751 6.86478
24.061 123.579 0.117755
-2.67032 152.204 -2.20614
2.00842 142.745 6.11425
8.17203 135.029 8.62026
21.7208 124.086 3.62308
11.2509 139.944 -5.33831
10.9808 140.232 -5.24853
12.7479 130.525 8.60075
22.9096 125.088 0.094827
16.2781 134.071 -3.75382
22.8221 123.678 2.83888
2.60496 147.262 -2.26868
9.78457 141.776 -5.40086
12.8109 137.7 -3.60986
16.4898 133.948 -3.56161
13.7552 135.716 -1.75797
10.2382 141.268 -5.1239
10.366 132.709 9.6438
2.27542 147.726 -2.1255
21.1287 127.92 -0.943661
15.0438 135.747 -3.50669
4.71356 141.203 5.53058
3.72099 142.32 5.38098
3.30694 142.911 5.28484
17.159 127.309 7.86014
19.041 130.047 0.0803322
22.6437 124.969 2.56596
21.9287 125.614 2.7433
17.8597 126.797 7.96649
22.182 123.718 5.7068
22.8802 122.173 7.315
17.257 133.673 -2.75427
22.8648 122.199 7.32419
22.8476 126.738 -0.483889
20.2638 129.41 -0.301722
19.4186 125.816 7.53937
6.57476 140.567 4.74977
6.33448 140.801 4.85747
12.6494 137.509 -0.589086
5.40898 146.639 -3.61756
13.0423 138.108 -2.21179
4.78551 147.235 -3.238
19.5088 126.035 7.59773
23.8941 125.398 0.917946
15.5501 136.477 -3.42965
17.7892 133.544 -2.19359
12.6608 139.161 -2.84036
20.959 125.502 6.39122
24.3022 125.089 1.19434
20.8744 125.621 6.42671
-2.41945 154.204 -1.92786
-2.58562 154.408 -1.89238
5.23206 142.574 4.94089
10.8713 142.267 -4.56325
-0.55058 152.474 -2.00113
20.8435 127.049 4.35472
12.418 140.701 -4.43324
18.9346 131.381 0.244001
21.3434 124.88 7.43879
2.80693 149.278 -2.05652
15.0279 131.177 7.79783
6.69775 141.58 4.54028
8.1228 140.034 4.705
8.93908 138.695 5.90776
19.9895 126.431 7.77511
12.0651 140.428 -2.45841
12.3659 139.533 -1.33621
6.02369 142.637 4.58626
20.7872 127.57 4.69953
9.43304 137.768 7.25023
16.0579 136.946 -3.10742
12.2404 139.755 -1.08614
12.2692 133.939 9.09664
8.7923 139.714 5.29017
16.1726 136.944 -3.01583
3.55018 145.397 4.7343
2.75668 150.045 -1.9054
17.6071 135.397 -2.7733
20.8074 128.179 4.48896
15.5903 137.803 -3.0188
11.9687 134.539 9.18162
7.0301 142.437 4.21067
4.3433 144.986 4.57387
-0.20804 153.401 -1.98285
1.99809 151.037 -1.73363
7.32157 147.056 -4.23145
18.0494 135.03 -2.30089
4.8849 144.706 4.44939
15.2301 138.14 -2.31897
21.4468 128.737 3.15084
19.279 132.602 0.348953
18.2728 129.839 7.03534
-0.0667411 153.732 -1.95406
17.5265 130.578 7.17783
15.5605 138.349 -2.73022
9.87633 138.457 7.34652
16.5148 137.41 -2.5549
14.4998 133.61 7.71156
22.4804 129.166 1.35377
7.19922 147.846 -3.90841
22.1985 129.418 1.5875
11.9405 136.223 8.06519
6.09024 144.536 4.02209
4.51543 149.922 -2.52471
19.3038 133.506 -0.18069
21.2978 129.696 3.00146
22.7806 129.616 0.499719
20.2865 132.273 0.638043
21.3244 131.333 0.524629
2.89976 148.285 3.95764
21.6393 131.186 0.456118
18.7377 135.405 -1.58782
6.20383 145.246 3.83209
16.548 138.26 -2.20766
8.26416 143.343 3.74178
17.2201 137.516 -1.9935
21.651 131.515 0.634022
1.94435 153.115 -1.81251
1.40459 153.623 -1.73694
13.1127 140.972 -0.0855674
9.11617 142.505 4.40729
6.56346 149.544 -3.31497
4.44869 151.225 -2.32673
17.8299 137.441 -1.82109
3.75662 151.968 -2.05451
14.5295 140.203 -0.553693
20.989 132.787 0.937913
6.677 145.893 3.57492
13.3138 136.726 7.84317
5.77684 150.826 -2.75367
12.6746 137.882 7.68602
19.8629 131.298 6.38227
12.5953 143.327 -1.64536
8.09777 145.012 3.45272
19.2492 136.33 -0.833606
18.8279 137.2 -1.41053
15.1224 136.096 7.23669
19.985 134.653 1.1441
19.271 132.316 6.50974
14.3482 136.632 7.74974
22.1094 131.738 2.65771
9.35933 144.041 3.92467
5.03634 152.094 -2.33646
3.79837 153.046 -1.75879
13.8809 137.365 7.7201
6.17883 147.736 3.35793
7.9334 150.024 -3.65238
21.916 132.99 1.22961
12.1874 145.448 -3.17313
5.33966 152.066 -2.4119
22.3538 132.407 1.68019
6.97791 150.866 -3.14591
20.6711 131.645 6.101
21.4575 132.348 3.67735
19.5211 136.726 -0.43579
19.4612 136.885 -0.513351
11.6014 140.383 7.41492
16.3352 140.609 -1.36375
10.7438 147.293 -2.96816
8.1852 146.365 3.22514
10.4019 142.867 5.56334
5.04366 149.271 3.96245
13.4049 138.704 7.55559
13.5994 142.449 0.812421
19.951 136.132 0.718939
6.54369 151.831 -2.79783
17.144 140.071 -0.980075
20.9968 132.908 4.73824
6.22976 148.973 3.13612
10.0104 144.506 4.33635
20.357 133.125 5.81706
6.96685 151.89 -2.74076
18.5619 135 6.11827
10.8252 143.415 5.66065
14.0817 139.132 7.36847
5.75112 149.941 3.62408
14.8891 142.792 -0.169035
7.76963 151.575 -2.81733
10.1325 145.397 3.85344
18.7376 135.442 5.99037
21.509 133.786 3.9742
9.48632 149.74 -2.29543
9.32419 146.908 2.9846
7.20512 149.216 2.73638
20.0492 134.43 5.7919
12.7763 146.229 -1.44488
5.28416 153.865 -1.42686
9.9398 149.438 -1.87876
19.1202 135.894 5.83948
9.85738 149.846 -1.60088
18.0582 141.107 -0.518615
22.2269 134.793 3.11393
20.8625 135.618 4.27895
18.4297 140.789 -0.364235
11.0713 148.812 -1.22338
20.3024 135.794 5.17204
19.5614 136.262 5.69712
10.3389 149.614 -1.06069
8.41838 149.567 2.4613
14.763 140.65 6.851
22.0955 135.254 3.21152
20.6124 136.045 4.56863
10.7898 149.17 -0.841267
7.43738 153.042 -1.57212
16.768 142.828 -0.215014
5.65883 154.808 -1.24856
11.4189 145.882 4.38813
6.26522 154.356 -1.21405
6.98074 153.729 -1.38204
14.6538 144.455 1.15219
14.8671 141.07 6.72451
9.40515 151.129 -1.07622
8.69329 149.992 2.29717
6.73346 154.095 -1.28041
17.8479 138.808 5.76015
14.1521 145.141 1.28702
10.2599 148.422 2.84927
7.32253 151.478 2.90792
21.835 136.541 3.24532
9.8111 149.283 2.51912
16.8754 140.092 6.20214
21.1978 137.849 2.51112
16.6133 143.678 0.499781
16.4808 143.783 0.56084
21.1193 138.232 2.10131
9.14022 152.178 -0.82068
10.9097 148.522 2.99113
21.0752 138.782 1.93941
13.4119 144.528 5.88027
15.2891 142.477 6.21583
12.2423 146.828 4.22761
13.6907 146.977 1.40149
19.9048 138.563 5.22248
11.9297 149.26 0.761172
