ply
format ascii 1.0
comment Created by Open3D
element vertex 1926
property double x
property double y
property double z
end_header
-15.0018 93.7009 21.5986
-19.8884 114.607 -3.57064
-32.3112 115.247 18.8301
0.903518 83.3247 9.04382
-1.53314 81.2314 17.1488
-32.0277 119.037 12.234
-32.1416 118.366 13.5535
3.67147 78.9723 11.1342
1.68254 78.8984 15.011
-5.66763 85.221 18.4276
2.4592 81.4078 9.43647
1.62473 85.2577 4.73001
1.13464 84.4193 7.11281
-13.099 92.3335 20.8729
-10.961 90.8894 19.2385
2.17404 78.5484 14.8738
-32.2778 118.858 13.3239
-4.54748 84.393 17.9747
-29.6684 109.82 23.3529
-30.1057 111.001 22.4491
-2.47707 82.6678 17.1883
-4.21891 84.2576 17.8921
-27.7425 106.12 26.1179
-1.43266 93.9126 -3.22876
-2.26016 95.4386 -4.1585
3.4851 79.7959 10.8185
-31.8951 123.897 4.69476
-18.5229 97.9027 22.3793
-29.0471 108.563 24.6132
-9.93063 89.9251 19.3867
1.11459 87.4948 2.66693
-5.53116 85.5838 18.5233
-31.7314 123.233 5.75887
3.35797 80.2848 10.5813
2.47667 78.9187 14.4906
2.58716 78.8519 14.4561
-17.4395 112.546 -3.36069
-16.8437 112.102 -3.74096
-20.1744 115.786 -3.41298
-2.72688 96.7312 -4.78338
-7.49949 103.682 -7.24682
-8.13657 104.307 -7.06222
-23.1098 103.271 22.811
-25.5267 105.068 24.5146
-12.3402 92.391 20.6671
0.215092 80.3266 17.0348
-19.3921 100.416 20.9318
-20.5009 101.585 21.0974
-30.9245 113.385 21.3351
-31.602 117.956 15.1334
-18.0728 98.4149 21.9073
1.34844 83.8366 9.46405
2.84442 79.4143 14.0567
-32.079 117.143 17.5706
1.35416 87.809 3.11998
-15.1791 111.74 -5.19223
2.07565 82.7967 10.0511
-31.2075 122.447 7.39303
-25.7921 122.186 -2.28159
1.66117 80.5403 14.7339
-27.5762 107.791 24.8531
-2.28217 96.869 -4.644
0.0799186 92.2539 -1.41956
1.77135 87.0241 4.08958
-31.7878 117.586 16.8393
-24.3529 120.557 -2.02129
-21.7998 103.02 22.0712
-21.9791 103.206 22.1991
-31.4642 124.129 5.64856
-31.9054 117.445 17.5007
-14.1666 94.542 21.8945
-17.6295 98.7715 21.45
-31.5701 125.216 4.11512
-16.6227 112.903 -3.65102
-4.93195 86.0975 18.5682
-3.25639 98.9713 -5.7539
-18.7065 115.043 -3.12976
-30.1884 120.774 9.02916
-5.68685 86.8131 18.9446
-23.7101 120.098 -1.98546
-8.938 90.1795 19.5804
1.57941 88.8425 2.04524
-22.0129 118.59 -2.53986
-21.3445 117.808 -2.46837
1.25187 80.5402 16.4453
-0.558439 82.3445 16.9356
-22.0101 103.708 22.1956
3.56906 79.9376 13.2857
-22.555 119.298 -2.41328
-29.7782 120.304 9.69132
-9.93754 91.8143 19.4406
-9.96289 108.082 -7.30157
1.0323 80.9849 16.6747
4.25029 80.1717 12.0817
0.836376 81.4039 16.5246
-3.17627 99.5553 -5.83176
-29.7292 125.304 1.67403
-17.0357 99.0969 21.0475
-4.15767 101.257 -6.69723
-35.0934 131.624 1.55974
3.93205 80.4944 12.5149
0.972299 81.4888 16.4748
-25.5268 106.498 25.1766
-2.96754 99.5238 -5.71577
-8.23398 106.677 -7.57815
-26.279 107.716 24.6435
-12.7038 111.153 -6.53341
-30.5244 120.282 12.101
-7.89504 89.8377 19.7259
-16.5867 98.6526 21.5869
-4.26832 101.864 -6.84899
-30.3428 122.08 8.87574
-1.37513 96.8683 -4.0218
-2.57697 85.1109 17.6832
-14.9085 112.973 -4.93756
1.89131 88.5294 3.76683
-1.18267 96.5862 -3.71878
1.85502 84.3007 10.8779
-1.44914 97.2431 -4.23124
-33.3682 131.966 -1.39895
-7.07025 105.684 -7.52692
3.11524 83.109 10.5389
-25.7339 123.636 -1.95138
-22.5725 120.162 -2.09428
-0.590625 95.5924 -2.8146
-8.69587 91.2546 19.6697
-31.1863 117.125 19.554
-18.4167 102.247 20.0717
-0.369936 95.422 -2.55327
-30.2232 122.89 8.38965
-17.8289 115.634 -2.93477
-30.9724 125.14 6.12062
3.57004 82.1453 12.0544
2.02939 89.6996 2.50601
-16.2463 99.6348 20.5053
-11.97 111.148 -6.49012
-34.9583 131.388 3.60284
-9.50273 92.6564 19.5582
-23.6079 121.534 -1.49331
-15.6276 98.1921 21.9672
-15.4761 97.9457 22.2447
-9.43578 92.7304 19.572
-16.4457 114.775 -3.51085
-30.0815 123.15 8.36479
-31.4495 130.244 -0.749913
-31.9839 131.144 -1.20087
-28.5675 112.568 22.992
-30.9341 117.17 19.8586
-6.25851 89.2071 19.5412
-18.8278 117.315 -3.06407
-19.6613 118.104 -2.76398
-30.4299 116.154 20.7893
-35.5765 132.039 4.39728
-31.022 117.636 19.5948
-0.942867 97.5502 -3.8025
-18.9107 103.564 20.1121
3.35692 83.7356 10.9156
-15.1395 98.396 21.5451
-10.9591 94.0187 20.9383
-4.41823 103.622 -7.18221
-16.5904 101.084 19.9342
-28.3945 126.189 0.773406
2.57886 83.1005 13.5449
-24.4196 123.072 -1.52542
-34.3795 134.052 -0.853655
-30.8357 129.896 -0.639035
-32.9057 131.01 1.577
-30.8334 121.139 14.1363
-31.1231 119.899 16.8323
3.36387 84.1072 11.181
-30.7373 126.967 4.70283
-30.4708 121.325 13.4966
-16.581 101.764 19.7182
-29.8671 124.17 7.85565
1.95372 92.2467 0.664441
-8.7806 92.9751 19.6537
-31.5234 131.64 -1.15546
-25.0153 108.692 24.4204
-19.934 119.127 -2.2633
-26.3565 126.169 -1.78701
2.41791 89.8438 3.99033
-10.284 111.058 -7.02585
-34.1155 132.884 1.84323
-0.752838 98.3227 -3.879
-31.0211 127.473 5.0138
-33.0346 131.868 1.62154
-26.4349 111.001 23.6156
0.398076 95.9524 -2.0169
-26.6052 111.306 23.4605
-18.0281 103.912 19.5586
-29.2113 122.072 10.7194
-23.8867 107.862 24.263
-31.1091 120.779 16.5693
-29.9226 129.31 0.286879
-29.963 129.323 0.358369
-27.7022 126.149 1.3485
-5.98731 106.648 -7.3266
-25.693 126.153 -2.39829
1.59056 94.1138 -0.839315
-31.207 127.682 5.54914
-31.6968 131.199 0.694954
-33.1186 134.056 -1.32633
-3.75162 103.829 -6.717
-32.045 132.638 -0.952522
-14.7359 100.036 20.2332
3.04333 84.9034 11.7479
-13.7626 114.72 -5.6956
-10.9788 95.054 21.548
-31.2321 131.346 -0.161002
-29.9542 130.587 -1.28416
2.68083 85.3856 11.8653
-30.8629 128.104 4.56521
-9.10529 93.8872 20.057
-12.7695 114.093 -6.33969
-16.9346 116.816 -2.92222
-14.802 115.149 -4.14747
-13.3495 97.5143 22.2348
-17.2756 103.888 19.2495
-19.1159 105.504 20.0868
-24.0367 108.568 24.301
-26.8572 112.818 22.6445
-0.923904 99.8126 -4.65416
3.21052 86.5055 9.56808
-2.25518 87.5189 18.1944
-35.3017 132.598 6.08561
-29.6183 130.388 -0.921705
-24.2818 109.028 24.2813
-2.98863 88.2112 18.596
3.3716 83.9036 13.7391
-30.8089 121.866 15.4697
-32.9571 134.575 -1.42853
-14.8902 101.192 19.6363
-2.65711 87.9787 18.4395
-20.3329 120.441 -1.79711
-36.4698 134.632 5.16766
-9.31227 111.311 -7.44399
-24.2497 124.841 -1.60862
-34.7199 132.374 5.75965
-29.9527 122.137 13.6684
-10.4915 95.232 21.4189
-30.3637 131.777 -1.413
-3.53919 104.369 -6.66221
2.21218 93.3519 0.717331
-25.749 111.722 23.0717
-26.0732 126.264 -0.249522
-10.7526 112.862 -6.8541
-1.0555 86.6704 18.0961
1.49253 95.522 -1.26629
-24.7038 126.174 -2.34324
-31.0311 131.688 0.599911
-8.38905 94.1669 19.8934
-30.4299 132.17 -1.26391
0.438925 97.8286 -2.52302
-28.449 127.372 3.12669
-15.3834 116.514 -3.54842
-9.88861 95.2726 21.1555
3.46143 87.0342 9.67319
-5.2617 107.251 -7.09994
-28.5638 129.615 -0.127154
-28.8585 124.134 9.51591
3.6913 88.0801 7.78888
1.14303 96.7249 -1.61569
-12.667 115.507 -6.45323
3.48379 89.5374 5.98602
-30.1573 122.514 14.9466
-30.6931 121.99 16.8437
2.64072 85.0923 14.9704
-28.4356 129.576 0.127207
-34.7776 136.426 0.777209
-9.45625 112.521 -7.40317
-12.4796 98.5948 21.2723
-29.8707 130.81 0.897732
-13.1097 115.87 -5.97531
-19.8631 121.026 -1.74826
0.245899 98.8996 -3.03474
-29.0087 130.854 -0.633695
-1.73467 102.654 -5.41502
-28.9768 123.234 11.9265
2.71373 92.847 2.42528
-25.8043 113.393 22.2027
-19.632 107.287 20.6646
-28.5777 127.881 3.65368
-28.8623 128.742 2.81674
1.71303 85.083 17.3098
-33.1533 135.991 -0.914508
-3.48625 89.9386 19.1897
-36.7929 135.236 7.24661
3.82144 87.7953 9.10839
-20.1163 121.614 -1.56711
-11.2751 114.797 -6.95566
-4.8245 107.518 -7.08726
4.217 84.8282 13.2985
-30.0457 132.706 -1.11397
3.39427 90.7097 5.21853
-31.6161 134.695 -1.39316
-15.0897 117.056 -3.35246
-23.7834 125.957 -1.64558
-11.5354 97.508 22.2273
-23.472 125.654 -1.62179
-17.9578 119.879 -2.469
-27.276 127.89 1.89063
-24.3413 127.067 -2.22474
-18.9809 120.808 -1.98787
-12.1394 98.9386 21.1962
2.89508 93.281 2.29311
-27.8085 128.599 1.84115
-21.7974 108.771 23.2737
2.66551 94.772 0.461462
-33.9058 132.935 6.36688
-7.23741 110.755 -7.18629
-20.5218 122.36 -1.30104
0.355834 99.8781 -3.4821
-29.8515 126.569 9.3506
-17.6916 119.904 -2.49031
-34.196 133.118 6.77227
-28.2131 130.422 0.0049918
-27.8618 130.026 0.0960444
-3.1384 105.956 -6.72969
-21.2116 108.709 22.933
-29.7899 132.079 0.614927
-28.4328 128.909 3.29884
-4.45735 91.492 19.8911
-36.5492 135.471 7.7768
-29.584 126.284 9.83134
-28.5938 131.106 0.0877968
-36.0565 135.076 7.6377
-29.2363 132.49 -0.865587
-7.14405 94.6247 19.9851
-20.1463 108.461 21.6779
-30.2482 123.193 16.4515
-28.0305 130.636 0.0593157
-12.5729 116.828 -6.25312
3.38767 92.5044 3.85369
-29.6002 133.128 -0.968666
-5.67985 93.2157 19.9267
-2.17987 104.762 -5.66944
-16.8109 106.726 18.6101
2.84237 95.6215 -0.0439213
-2.44713 105.29 -6.00581
-2.13044 89.9315 18.7964
3.6858 87.5473 11.8904
-29.8951 122.298 17.7859
3.95194 88.1755 10.3631
-28.3503 130.093 2.04564
-22.2726 110.213 23.4293
-35.4259 137.498 3.27551
-27.7779 128.824 3.23683
-15.4016 105.508 18.4138
-25.8031 115.553 21.458
-27.3224 117.21 21.591
3.99648 87.0323 12.4663
-27.9979 130.934 0.304238
0.234313 87.7453 18.4535
3.06417 95.4652 0.424325
-12.9881 117.185 -5.10054
-34.8267 134.251 7.93761
-27.2905 129.237 2.14693
-15.0174 118.277 -2.83875
-32.983 137.015 0.0699001
4.84299 85.6973 13.6101
-11.763 100.996 19.652
-9.13028 114.467 -7.40717
-6.79551 111.592 -6.99311
-28.1254 131.762 -0.113972
-34.5222 134.895 6.83029
-27.7306 130.204 1.80935
-27.4729 128.864 3.57535
-15.4615 118.917 -2.58182
-11.043 99.3443 21.3913
-8.24955 96.3971 21.0287
-28.1592 130.347 2.53372
-7.67733 96.0505 20.553
-9.25197 114.817 -7.32928
-5.13455 93.5533 19.9635
-29.5264 122.722 17.8768
-23.9414 113.993 21.9082
-16.4371 107.586 18.3644
2.44061 98.0009 -1.28175
-27.0381 130.491 0.64983
-24.7575 128.135 0.489657
-24.9049 128.681 -0.124061
-28.9416 130.712 4.12607
-30.3096 131.112 6.10677
2.02328 99.3552 -2.35491
-35.4347 137.426 5.35942
-26.1248 117.245 21.2315
-28.0212 130.655 2.76464
-29.1735 131.453 3.62308
1.13784 101.535 -3.92259
-27.0954 130.695 1.17037
-23.8993 114.572 21.7303
0.185341 103.09 -4.60516
2.23578 87.4851 17.3279
4.25716 92.5861 5.2343
-16.7342 108.391 18.7557
-12.5518 118.214 -5.25923
2.31039 99.4428 -2.26975
-19.1644 109.699 21.2149
-29.8257 130.185 7.52351
-34.4041 138.285 2.79034
-31.0159 136.573 -0.746002
-26.1724 130.055 0.922744
-26.3073 129.817 1.63143
-16.7614 108.524 18.8015
-1.27962 90.7435 19.0221
-26.9018 118.637 21.2544
-12.9047 118.322 -4.51281
-28.7315 133.007 1.07457
-0.522064 90.049 18.814
-4.91707 94.3356 20.0171
-34.9779 138.202 4.27261
-28.9355 130.799 5.11016
-26.9865 130.313 2.32243
-27.7895 133.205 -0.858045
-34.2864 138.478 2.81348
4.92928 86.8441 14.1597
-4.77415 110.756 -6.98738
-33.3147 135.27 6.29807
-5.22968 111.183 -6.80612
-29.1402 123.441 18.0629
-19.3837 110.127 21.6618
-2.89667 108.729 -7.02299
-21.5427 126.842 -1.77934
3.37342 97.6578 -0.524074
-16.327 108.676 18.376
-26.8864 132.414 -0.788075
-32.2915 137.757 0.616566
-26.1985 130.394 1.29204
-34.9318 135.874 8.68519
-27.8769 130.891 3.68836
-28.7589 124.805 15.4041
-3.12619 92.7884 19.977
-24.0167 115.879 21.2613
-9.29719 116.358 -7.17929
-19.4441 110.384 21.8456
1.01767 102.9 -4.2789
-26.8147 133.286 -2.00541
-33.3396 135.376 6.83309
-26.9868 130.568 2.84732
-30.3222 132.036 6.70815
5.01207 90.7334 8.3218
-6.77423 113.422 -6.88532
-35.0066 138.149 5.48081
-15.9675 120.939 -1.92768
-29.4655 129.5 9.37573
4.47561 89.7906 10.9997
-23.9964 129.211 -0.366953
0.96415 89.3403 18.4311
-25.732 131.021 0.00599206
-21.1608 126.919 -1.82529
-29.0105 128.687 10.0319
-7.6585 114.797 -7.20944
-10.5255 101.91 19.4396
-18.3054 123.182 -0.949364
-3.65612 110.285 -7.21792
-20.6979 111.763 22.3904
-7.83966 97.6961 21.4123
4.25467 87.6983 15.1493
-27.6338 131.917 2.34922
-3.67575 110.408 -7.21392
-11.7473 118.876 -5.98117
1.93599 101.79 -3.55947
-29.1513 130.303 7.97894
-34.9472 136.533 8.70397
-3.79663 110.64 -7.18905
-3.41193 110.285 -7.26831
-29.284 136.204 -1.31846
4.97901 91.6767 7.65256
-12.2566 119.089 -5.102
-12.625 105.923 17.3505
-28.8575 128.238 11.1149
-27.7841 126.321 12.2681
-30.6072 134.363 4.37907
-6.68745 113.922 -6.90405
-23.9646 129.551 -0.167003
3.5825 88.2275 16.1758
-5.14057 95.7452 20.2702
3.49042 88.2975 16.3218
1.89954 102.298 -3.71851
4.67253 93.5224 5.53814
-29.2035 133.902 2.70971
-7.10902 114.625 -7.05837
-17.8106 123.109 -0.905971
-12.8975 106.399 17.3903
-25.1499 130.702 0.474211
-22.7036 129.521 -2.166
-33.2977 135.143 8.49458
-29.1369 129.534 9.93099
-32.5212 134.011 8.92393
-25.3495 130.374 1.44306
-12.565 119.326 -4.37254
3.55353 88.4472 16.2053
-12.3356 119.348 -4.75948
-0.924423 106.706 -5.24789
-16.392 109.74 18.8554
-33.9515 136.001 8.61229
-10.5911 118.734 -6.83857
-32.3565 135.658 6.23873
3.56205 98.7388 -0.445613
4.27148 96.2413 2.34081
-19.7817 111.553 22.3871
-12.6602 119.536 -4.08634
-10.0711 118.465 -7.0715
-29.8713 132.497 7.09047
-33.7725 135.796 9.03861
-29.6589 133.809 4.62531
-27.4461 122.352 19.4854
-1.95963 109 -6.40917
-16.7115 122.701 -1.19618
-8.2141 99.2134 21.5493
-18.1831 110.87 21.1036
-25.7715 131.416 1.67131
4.79188 94.8213 4.59842
4.78501 88.9593 14.279
-25.622 132.543 -0.346243
-30.7836 137.866 0.675934
-25.2478 131.028 1.56176
-28.5686 131.377 7.27587
-22.5793 130.165 -1.92893
-27.7302 130.623 7.0164
3.43061 100.05 -1.13626
0.357904 91.4219 18.9041
0.143313 105.995 -4.67815
-11.5776 119.898 -5.51521
-25.3501 132.06 0.393499
-13.6945 120.749 -2.82982
-28.3107 124.946 17.7608
-33.7846 139.915 3.42913
3.67021 89.5904 15.9175
-30.5885 133.122 8.65579
-18.4833 124.929 -0.567989
-32.1453 134.662 9.12986
-32.1204 135.73 7.32906
-14.1418 109.449 16.9568
-13.46 120.796 -2.98258
-30.797 134.571 7.01458
-23.0648 130.873 -1.42194
-34.0152 139.306 5.31587
2.95107 102.227 -3.04698
-1.80926 109.811 -6.53495
-12.7162 120.537 -3.68057
-29.8132 133.816 6.59041
-15.9936 122.827 -1.26939
-25.235 131.458 1.89735
5.54343 89.3765 13.381
-25.5596 132.09 1.49061
-3.07143 111.798 -7.299
-10.7657 105.888 16.9265
-25.9828 121.273 20.1956
-27.9999 134.457 2.30292
-29.8541 134.571 5.62003
-32.6155 136.883 7.08092
-24.2992 132.118 -0.69495
-27.754 134.774 1.45909
3.59952 99.9783 -0.149494
-29.7692 134.379 5.96179
-9.75786 104.384 17.7581
-32.3349 136.189 7.92422
-24.9182 120.039 20.6825
-6.88021 116.276 -6.99688
-28.6686 130.002 11.4026
-31.0565 134.189 9.02926
-29.7984 132.903 8.79244
5.41333 93.3051 7.82798
3.63787 101.367 -2.05041
-1.38521 109.614 -6.18305
-21.1521 115.281 21.6638
-31.0494 134.753 8.20997
-19.8823 127.735 -1.2017
-23.0326 131.189 -0.967294
-28.1243 130.958 9.02393
-30.2474 135.579 5.4035
4.84479 96.7451 3.42806
-11.007 106.897 16.5409
-28.3555 129.334 12.2075
5.37952 89.9887 13.7034
-27.7912 134.685 2.43723
0.517514 92.348 18.965
-27.9664 127.508 14.5989
-0.246922 108.126 -5.51267
-20.2777 128.548 -1.47304
-33.7245 139.321 6.23761
-28.1408 127.557 15.1845
-12.5599 109.018 16.4736
-21.0743 129.994 -2.0606
-1.09496 109.667 -6.13192
-29.4461 138.147 0.26513
-14.361 122.443 -2.20079
-27.5549 132.241 6.51794
-7.93912 100.974 21.1705
-8.26092 101.784 20.4435
3.71554 101.971 -2.36059
-9.46472 104.973 17.5009
-13.4363 121.916 -2.90533
-12.5594 121.304 -3.54077
-8.04526 118.467 -7.32978
-8.72571 103.452 18.7
-25.1816 132.404 1.94693
2.21354 104.754 -3.92212
-4.47152 97.4551 20.7419
-28.8615 134.78 5.1198
-29.4482 134.128 7.30176
-8.4001 102.797 19.3444
-4.60517 97.6235 20.7546
-7.22194 117.526 -7.04369
-27.7912 132.205 7.5043
0.886381 92.6131 18.8349
-25.2444 133.794 0.198952
-31.439 136.558 7.29931
-20.0108 128.74 -1.28583
5.12242 90.6974 14.1448
-27.6907 131.954 7.91914
-2.22479 95.6964 19.8869
-28.3274 134.772 4.59993
-10.1524 120.767 -6.47087
-9.99798 120.725 -6.64085
-17.0428 125.161 -0.690247
-28.9862 133.386 8.22235
-29.368 138.645 0.362348
-24.7321 134.599 -1.65786
1.98567 105.538 -4.00229
-22.9 118.735 21.1573
-7.7638 101.845 20.5491
-0.174771 109.248 -5.82761
-3.82169 114.002 -6.78767
5.4647 95.9785 5.49857
-27.7158 135.102 3.46406
-27.2711 137.329 -1.00353
-28.6948 138.446 -0.125095
-15.3729 111.545 19.1488
-18.3614 126.94 -0.530989
-6.60744 117.437 -6.91928
-1.18711 111.297 -6.95187
-22.2133 118.277 21.1789
-24.7877 133.464 1.0338
-32.7125 140.931 3.6654
2.10048 92.5847 17.8931
-28.882 133.938 8.04851
-33.0938 140.315 5.55293
-4.70438 115.563 -6.98086
-22.1683 132.253 -1.533
-22.4163 118.804 21.153
-14.1337 123.484 -2.12378
-27.7372 128.296 15.5812
3.07176 92.3809 16.9355
-24.5592 135.668 -2.40248
-8.12091 104.607 17.8718
-25.0937 122.895 19.7391
6.27545 92.4 11.1278
-28.6917 136.349 4.54965
-11.0604 109.486 15.7282
1.00025 108.479 -5.26914
-27.7304 132.623 9.0095
6.20381 91.3838 13.2139
4.61183 99.3304 3.16898
4.1669 100.714 1.73917
-21.2583 132.113 -2.167
-23.9568 133.807 0.13897
-23.8842 133.625 0.304639
-23.7982 133.738 0.0461284
-18.442 128.009 -0.572095
-8.55831 106.038 17.0546
-3.37526 114.734 -6.92539
-22.2397 119.354 21.0297
-3.20119 114.617 -6.91592
-0.76534 111.969 -7.10348
-21.4547 132.079 -1.32684
-22.0009 132.92 -1.62639
4.22757 101.534 0.769868
-10.9654 109.903 15.5682
3.53227 92.7921 16.5048
-26.7512 132.573 7.91105
-22.6949 133.252 -0.806949
-27.7937 130.777 12.9037
4.95448 98.6775 4.28601
-23.9654 133.678 1.06174
-27.0206 131.998 9.59475
-11.1437 110.306 15.5071
-13.8864 112.058 17.8134
-11.3853 110.568 15.5707
3.83383 104.535 -3.08537
-24.135 133.728 1.40849
-26.5022 132.354 8.1412
-24.2046 122.765 19.7043
-24.3103 134.278 1.0155
-7.37365 104.478 18.2845
-22.9722 121.284 19.9961
-22.9322 133.59 -0.300628
4.64444 92.7731 15.1209
-28.2461 139.466 0.0580849
-15.1987 125.161 -0.843444
6.00725 96.3476 6.76983
-24.4084 134.197 1.62691
-7.22563 120.007 -7.30094
-20.6946 131.87 -1.51448
-24.1593 136.114 -1.93772
-20.4772 131.82 -1.76905
-8.51798 107.108 16.5645
-1.44849 97.5673 19.1085
4.38537 102.111 0.737386
-11.9386 111.724 15.6342
-22.9625 133.87 -0.118365
-13.4398 124.321 -2.23306
-16.4364 126.594 -0.326336
-1.00109 113.237 -7.32379
-26.2856 133.132 7.51772
6.3099 95.3513 8.55877
-26.0805 132.463 8.36702
-14.5532 125.137 -1.23448
-26.1478 132.632 8.25713
-19.9648 131.806 -1.99134
-24.5724 124.175 19.3974
-9.56009 109.494 15.3813
4.44988 102.302 0.907101
1.81405 94.6392 18.5142
4.54352 102.531 0.475497
-22.1153 133.654 -0.670851
-10.7863 111.124 15.1917
-26.0553 132.577 8.57974
-17.5531 128.323 -0.303559
-24.3592 137.045 -1.79746
4.48406 102.406 1.07952
-24.5022 137.331 -1.90479
-10.8556 123.321 -4.42951
-19.282 132.225 -3.2518
4.49261 102.433 1.13619
5.7482 93.0653 14.2119
-26.557 133.452 8.41669
-9.65765 110.072 15.1634
-22.1691 133.859 -0.411535
-23.1863 134.391 0.955409
-1.08974 114.208 -7.32422
4.58912 104.926 -2.7016
-28.9809 140.892 1.17081
-22.948 122.813 19.6225
2.84562 94.6344 17.5659
-4.07258 117.893 -7.43069
-13.0332 124.966 -2.1943
-28.6723 135.78 9.39519
-6.65487 120.83 -7.32928
6.65104 95.4128 9.55584
3.73345 94.4376 16.6623
-21.1547 120.591 20.4125
-26.4251 132.392 10.9036
6.22562 94.2453 12.4202
6.26361 94.4614 12.0339
-18.284 130.115 -0.497155
-18.408 131.8 -3.04096
-31.258 142.3 3.84556
2.79301 108.396 -4.31655
-17.9542 129.651 -0.300585
5.43781 93.8426 14.8268
2.77136 95.095 17.8891
-22.2644 122.582 19.6853
-26.7043 129.987 15.8457
-6.56564 106.206 17.1665
-31.0862 142.33 3.80316
-7.1283 107.375 16.4339
6.48305 95.0219 11.1988
-24.7612 138.692 -1.93678
-26.6108 129.932 16.0211
-26.2401 133.468 9.53832
-0.201385 113.674 -6.79846
4.77938 103.165 1.18194
-24.6567 132.084 8.94776
-28.5875 136.385 9.38118
-29.7888 142.197 2.09705
-17.3472 129.439 -0.239791
-18.6448 118.087 20.9457
-14.9468 114.59 19.7554
-12.8283 113.84 17.0875
-26.193 132.1 12.1692
-23.767 125.338 18.7831
-6.35276 121.341 -7.34814
2.5879 95.7481 18.0078
2.19001 96.1263 18.27
-18.9537 132.667 -2.15918
-9.42321 111.557 14.7028
2.34776 96.0711 18.1656
-24.0445 126.086 18.3582
-24.1983 132.274 8.53991
-4.03631 102.209 20.2799
-14.3074 114.686 19.1146
-18.1678 132.83 -3.51634
-1.80316 116.512 -7.38942
2.42974 96.2057 18.1107
5.02 105.358 -1.83363
2.93192 95.8678 17.7792
-23.985 126.369 18.1659
-17.8327 132.537 -3.55518
5.09126 103.946 0.690137
-20.9583 134.719 -0.979417
-25.7335 129.367 16.8313
-18.8792 119.134 20.8192
-26.1059 130.691 15.3884
5.07883 101.952 4.13128
6.08313 98.8458 7.36103
-22.7136 124.594 19.2034
5.79993 94.824 14.6659
-4.63492 103.586 20.0331
-29.3249 141.267 4.45291
6.19407 98.8422 7.57612
-4.29362 119.884 -7.32058
-20.3068 134.812 -1.73429
-9.92322 113.139 14.4941
-22.0837 135.637 0.340737
6.08716 99.4086 7.1144
-29.2151 141.305 4.53154
1.41172 112.507 -5.52358
6.52612 95.9908 12.075
4.77483 95.7791 15.7597
-26.0823 141.061 -0.797052
-6.11604 108.026 16.1196
-11.8877 114.675 16.0363
-28.1833 139.713 5.48401
-0.128347 115.009 -6.56535
-13.6956 115.209 18.6341
-23.6678 127.575 17.1585
-2.31876 101.586 19.8445
-12.6756 114.984 17.3815
-1.06659 100.435 19.6005
-0.38192 115.675 -6.71296
-27.1596 136.633 9.13169
4.16742 96.4677 16.4291
-16.3164 117.482 20.3231
-23.8498 132.992 9.06692
-2.60893 102.36 19.681
-11.8285 115.054 16.1307
-1.01221 117.016 -7.28052
-27.7408 139.164 6.50822
-27.7156 138.935 6.9177
-0.954862 100.826 19.4814
6.77018 96.9673 11.3626
5.45263 107.001 -2.64767
-10.2473 114.508 14.5196
-15.7143 129.844 -0.425846
-2.06794 118.353 -7.14446
-25.3379 132.169 13.8875
-24.8042 130.063 16.4045
-29.7944 143.709 3.48372
-27.8345 142.512 1.80169
-16.2443 132.15 -2.855
-11.4833 115.496 15.8348
6.27092 96.4294 13.8887
-4.52504 106.831 17.1324
-12.2605 115.691 17.0799
-13.9482 128.29 -0.473024
-27.7979 140.473 5.49826
-22.5109 127.219 17.4177
-23.2435 132.85 9.5238
1.24833 99.3333 18.729
-15.3076 130.023 -0.50094
-21.6233 137.283 -0.445536
-17.3158 134.067 -3.20127
-18.7691 134.511 -1.18209
-24.8062 135.557 8.49047
-15.2787 117.728 19.9635
-25.1324 132.57 14.1096
2.88501 98.5775 17.4907
-3.06215 120.081 -6.73566
-20.9824 125.302 18.4968
2.34061 99.1946 17.6849
-6.02177 123.824 -7.16442
-29.1036 143.797 3.37251
-24.7829 141.531 -1.01624
-25.9883 142.395 -0.170659
-21.7109 126.735 17.6198
2.56352 99.1389 17.5155
-4.92268 108.693 15.8704
-22.7648 139.871 -1.93812
-10.7077 126.855 -3.14501
-29.6022 144.154 3.88113
5.31183 105.365 2.15803
5.34346 104.961 2.76905
-15.7612 118.562 20.1027
6.74859 100.163 8.13132
-21.6969 137.487 0.185454
-22.9907 129.392 15.9603
4.68038 110.04 -4.18511
-12.8542 116.548 18.1857
-21.1495 136.798 0.44195
-18.0999 134.642 -1.71815
-5.92097 110.665 14.9062
-21.672 127.115 17.448
-12.5607 128.029 -1.04343
5.59914 103.966 4.50286
6.69055 100.896 7.52845
-2.84912 104.492 19.5499
-24.1907 135.539 8.55683
-24.8055 132.224 15.2082
-24.1704 135.619 8.43541
-15.7893 131.68 -0.812074
-21.7442 137.104 1.46019
-3.4768 105.688 18.9056
-18.287 122.189 19.5909
-25.2895 142.203 -0.216752
-26.1619 138.459 7.60686
-7.23078 113.011 13.9912
-24.1316 136.257 7.47347
-24.808 141.898 -0.49395
-26.8227 143.324 0.998886
5.29088 98.0649 15.3559
-18.3316 134.95 -0.951911
-5.05916 110.014 15.2263
5.60679 108.333 -1.98545
-21.3113 137.929 -0.095082
-21.2834 137.931 -0.0989496
-1.13448 103.306 19.0758
-12.1056 128.201 -1.26902
5.39114 105.348 3.50346
-10.72 127.547 -2.73217
-26.4066 143.518 0.495644
-16.1368 119.884 20.1528
-18.9964 123.676 19.2943
-22.3776 132.49 11.1323
-17.5074 135.134 -2.35754
3.78401 112.488 -5.01984
-4.36145 109.292 15.616
-25.5876 138.647 7.16358
-1.66359 104.12 19.128
-22.3601 134.318 8.31545
6.36349 99.0537 12.4459
-6.31481 125.276 -6.90656
-24.4127 142.04 -0.260147
6.96216 99.59 10.7083
-28.4677 143.601 4.91338
-14.9697 131.682 -0.751633
-29.0781 144.752 4.25403
-1.56801 104.44 19.0206
5.46827 105.799 3.61169
5.30981 110.454 -3.66638
-27.3971 144.253 2.2718
-25.1247 139.144 6.42851
-4.2686 123.484 -6.9589
-26.6931 141.561 5.442
6.51278 99.7326 11.9437
-24.1944 132.666 15.5156
-9.57618 116.818 14.2913
4.58226 99.2517 16.617
-9.64539 127.748 -3.46161
5.86735 99.5181 13.9259
-2.63888 106.469 18.7221
1.33529 102.018 18.6746
-7.94871 127.026 -5.04065
-23.0568 136.102 8.44707
-4.69197 111.382 14.643
-22.7858 133.49 12.2637
-25.7856 143.841 0.890298
1.39789 102.049 18.6595
6.9639 101.051 9.84831
6.82814 102.865 7.15898
-14.8298 134.326 -3.95012
-21.7181 134.407 8.88869
2.69763 115.174 -5.17828
5.90284 110.316 -3.18204
6.55387 100.574 11.7798
5.84673 108.857 -0.533757
-20.6688 129.243 15.8011
-5.88455 126.11 -6.79424
-11.6897 129.223 -1.00429
-15.6479 121.171 19.8666
-20.6979 138.197 1.37179
-16.4056 135.761 -2.67417
5.65148 111.005 -3.29804
3.35746 101.146 17.269
-0.625038 104.744 19.0491
6.78017 101.117 11.1423
-13.244 119.281 18.8703
-6.86258 127.027 -5.88806
-10.3384 118.088 15.3964
5.1819 99.8636 16.2746
6.19132 108.063 0.890151
-27.3393 143.467 5.62979
-23.1958 133.801 13.8338
-20.2812 129.403 15.6004
1.58099 102.655 18.5756
-7.03285 115.929 12.9712
-4.85294 125.499 -6.82662
-19.9943 128.916 16.1129
-5.6736 126.516 -6.76513
-21.2525 133.565 10.9672
6.7611 101.575 11.0056
6.12937 109.909 -1.51367
-24.9108 143.87 1.1664
-15.1485 121.553 19.6641
-12.342 130.573 -0.449451
6.5191 101.64 11.7618
-20.2836 138.471 1.48484
6.42854 104.995 6.42703
-19.6736 128.943 16.079
-26.3076 142.986 5.4947
-5.06857 113.845 13.5897
5.70546 112.383 -4.25617
-20.368 139.315 0.495516
-9.86813 118.599 14.9369
4.21284 115.32 -5.98849
4.22842 115.203 -5.81339
-20.5661 139.012 1.60689
-9.81257 118.825 14.9649
-13.5597 132.967 -1.22548
-26.7963 143.883 5.6826
4.65658 114.318 -4.65983
-21.3622 136.642 7.74424
-20.2355 139.736 0.533862
6.50931 111.128 -2.59975
-5.3136 115.132 13.0559
-3.00083 111.413 14.8659
-20.9492 132.194 14.4517
-20.3615 139.478 1.38896
-18.9381 129.038 15.9332
-20.8543 135.663 8.63287
-14.2742 136.196 -4.57144
-22.6143 142.854 0.258619
6.2949 112.594 -4.09963
-10.5793 130.256 -1.37384
-19.8909 139.692 0.638625
-10.7841 130.426 -1.12713
-19.6352 130.967 14.7186
5.78034 101.818 14.9666
-22.3074 134.375 14.2853
-15.666 123.816 19.2095
-22.1726 134.801 13.3589
6.6861 107.031 5.0105
-3.1349 125.198 -6.42024
-24.0014 144.628 0.912527
-25.378 143.335 5.70885
1.08678 105.232 18.8734
-5.11716 116.21 12.6448
-19.1246 131.184 14.5493
-26.6884 145.538 5.18448
2.66387 118.567 -5.56675
-22.7089 139.979 7.05582
-13.3849 135.884 -3.71571
-16.2315 138.622 -2.8319
-1.66978 110.414 16.2818
6.55986 102.383 14.0419
6.31345 113.371 -3.57295
-16.2042 125.672 18.5455
6.07851 113.829 -3.8037
-17.4329 128.526 16.2208
3.91042 103.548 17.2921
-16.9066 127.469 17.0715
-19.6958 136.603 7.33919
6.23995 113.395 -3.17193
6.10585 113.48 -3.05506
-8.95187 120.136 14.3647
4.93114 103.25 16.0883
-6.42511 118.53 12.3526
-25.1657 143.763 6.02497
-26.0229 144.707 6.12677
-17.6846 129.728 15.1768
-4.1999 115.869 12.7385
6.83357 102.89 13.385
7.29991 109.698 1.29541
-13.0555 122.405 18.8508
-25.4284 144.234 6.15109
7.2945 108.1 4.16243
-18.8188 141.268 -1.26926
-16.6635 128.104 16.38
1.19317 106.265 18.7893
-4.7074 116.913 12.3614
4.87632 117.549 -6.52887
-5.63233 118.22 12.1465
-19.2792 135.649 9.09848
-1.36668 110.897 16.2104
-26.2535 146.721 4.01588
-18.9079 131.867 14.698
-18.6804 141.1 -0.876926
-25.6645 144.781 6.23246
7.5536 108.993 2.8479
5.82714 113.031 -0.517777
-19.2637 134.696 10.9867
-16.5638 128.694 15.8259
-18.5292 141.486 -1.5504
-17.6441 140.122 -0.916461
-21.8964 143.898 0.954902
-12.7436 136.398 -3.87591
7.05762 111.068 0.693288
0.763123 122.825 -6.8172
4.65716 118.175 -6.44557
-25.6546 147.103 2.89213
5.61777 114.344 -1.91969
3.55276 119.661 -6.75267
6.69538 111.734 0.430176
5.51174 116.529 -5.18244
3.23706 120.047 -6.7001
-18.7923 135.773 8.83835
-18.8248 135.169 9.97636
-6.10113 119.375 12.0845
-17.874 141.092 -1.53322
-25.8967 146.603 4.49258
5.49879 104.454 14.942
7.16461 106.28 8.81522
-19.9251 133.785 14.4617
-2.31175 114.168 13.6657
5.27615 117.99 -6.78452
-2.36479 126.223 -5.96158
-18.7444 132.368 14.8422
-0.0768133 109.537 17.3877
4.61881 118.757 -6.61126
7.25709 106.482 8.67045
-10.7804 121.876 17.2637
7.65125 104.371 11.4631
-17.8427 141.532 -1.80836
-13.0109 137.865 -4.72767
-19.2126 138.35 6.15091
-18.6244 135.845 9.20661
-2.9305 115.694 12.9019
2.32944 121.821 -6.79072
-0.599564 124.483 -5.65589
-15.0158 126.661 17.8753
-20.1374 135.122 13.629
-19.0068 134.523 12.4937
7.012 111.657 1.27361
-6.62243 120.559 12.2763
4.87011 105.092 16.2304
-15.1539 127.342 17.2323
6.79517 104.556 13.5209
-23.7375 146.593 1.68782
4.45373 105.407 16.5843
3.52236 106.148 17.1599
-18.1067 132.179 14.9904
-2.70642 115.929 12.8166
7.98972 109.55 3.29976
-6.12556 120.456 11.9722
4.04431 105.965 16.7866
4.49768 105.68 16.4867
-19.2002 142.692 0.138144
5.55449 114.327 0.333586
7.64512 107.332 8.02649
-16.9542 141.778 -2.30085
2.76921 122.516 -7.62597
-9.54047 122.234 16.078
-11.1609 123.154 17.6244
-17.8905 137.023 7.46339
-1.98605 115.513 13.0863
-25.1088 147.069 4.6037
-0.446102 111.977 16.0772
5.28284 105.889 15.3846
-3.49557 118.011 11.9229
-24.7487 147.701 3.01724
6.23155 113.285 1.51654
-0.956284 125.905 -5.73139
-14.2304 126.898 17.7121
0.206154 125.007 -6.30114
-4.78162 119.908 11.5784
-14.5088 140.148 -3.47337
-17.5903 141.437 0.215853
-15.9085 141.524 -3.08822
-3.01289 128.666 -6.12314
6.02759 106.149 14.2155
-3.81453 119.089 11.4456
-0.38836 112.728 15.4886
7.60535 107.098 9.85871
3.27579 122.759 -7.65534
-23.7945 144.979 6.65648
-7.92701 122.377 14.0812
8.10738 110.483 3.60019
-14.9613 129.412 15.7885
-9.84993 123.057 16.6662
3.50542 107.7 17.1338
6.23928 117.938 -4.71845
-5.72231 121.625 11.7071
-4.2353 120.307 11.308
-19.2731 144.048 0.493693
8.30358 109.871 5.05522
-7.33237 122.706 13.3632
-21.7031 142.958 7.04327
-8.49117 123.082 15.0333
7.63366 106.123 12.6695
-18.4016 143.391 0.226254
-17.2293 143.025 -1.36032
6.28483 119.129 -6.15152
-14.4811 129.511 15.7935
-0.83641 115.296 13.5981
-1.45059 116.541 12.7809
-17.2751 143.031 -1.09669
-1.60839 127.932 -5.65366
-21.9968 147.585 0.503308
-23.3344 145.533 6.41281
-0.0928445 113.903 14.8532
1.64187 125.321 -7.2034
6.10228 117.623 -2.88596
-1.93554 128.514 -5.70337
-16.9563 138.54 6.04594
8.34067 108.903 7.32847
4.23374 108.044 16.472
-2.97269 129.907 -5.9522
-0.0424937 113.945 14.8575
-7.0806 132.947 -3.21061
-0.884286 115.951 13.1589
-17.0038 137.965 7.20783
-19.0062 144.272 0.640706
-18.9631 140.445 6.96757
-5.60964 122.378 11.631
1.93964 110.032 17.8303
-17.0091 137.995 7.46003
-1.45296 117.22 12.4609
-0.514813 127.387 -5.97911
0.322362 126.754 -6.49762
-8.81263 133.803 -0.926939
-23.0559 145.672 6.36658
-6.02903 132.75 -4.27187
6.48133 118.373 -4.07124
1.22956 111.343 17.461
-11.4385 125.599 17.8543
-19.9559 142.028 6.90719
-5.09715 122.425 11.3531
8.1236 108.411 9.61378
-13.1437 140.949 -3.92223
-3.15065 120.509 11.0489
6.42489 118.204 -3.14485
-22.4523 148.527 1.29232
-5.4481 132.717 -4.6239
-15.8902 138.641 5.35947
-8.74995 134.218 -0.696075
5.85135 117.95 -1.32888
-21.2424 147.785 0.496028
-0.832761 117.152 12.6163
-0.46345 128.086 -6.02974
-5.28245 123.082 11.3589
5.73101 117.753 -0.492406
-9.38941 135.69 -1.58384
-19.3969 141.923 7.01866
0.479976 114.534 14.8931
-16.5706 139.252 6.24019
-7.43618 124.024 14.1742
5.08324 108.988 15.4144
-4.90875 122.986 11.1739
-22.2702 145.704 6.40783
-16.4672 144.186 -1.94531
-17.1858 137.204 10.97
-21.5636 144.67 6.93781
-2.05276 119.781 11.2663
6.61972 115.881 1.44341
-13.1588 130.164 15.1227
-9.18776 135.93 -1.74737
-16.3952 139.547 5.87123
-17.1805 140.818 5.28486
-15.6125 143.617 -2.27422
-21.8237 145.321 6.60926
8.42923 108.89 9.84187
7.58729 112.233 5.93676
6.87564 115.552 1.83018
-9.15138 136.182 -1.94879
-10.2615 138.651 -3.90081
7.00092 113.006 5.90276
-16.6656 143.844 -0.338725
6.42107 119.19 -3.091
-7.05102 124.365 13.7449
-23.2711 148.596 4.35499
5.81996 118.43 -0.609019
-12.9253 142.018 -4.15655
-22.5115 147.072 5.67671
-4.46281 132.96 -4.99732
7.95617 108.213 12.4794
-11.3551 140.57 -4.4393
1.0467 127.933 -6.90056
-9.88544 138.448 -3.56125
8.54024 110.744 7.45596
-11.4811 127.701 17.1881
3.57194 125.711 -7.65059
-6.65582 134.376 -2.67113
6.81403 120.91 -5.77798
0.730794 115.375 14.8185
6.36009 122.166 -6.95299
-17.8856 141.76 6.43955
-11.4484 128.079 16.9712
-15.0654 138.116 7.239
-16.6795 137.055 12.0841
-15.2972 139.767 5.06742
6.70653 109.415 13.7379
-7.27244 125.02 14.3925
-15.9806 135.583 13.5006
-5.14844 133.853 -3.9645
-10.9438 127.575 17.2772
3.70716 110.841 17.3725
1.62016 113.892 16.2809
5.02297 124.567 -7.70173
-16.1488 144.33 -0.451882
-7.97818 135.27 -0.842697
5.73539 110.19 14.707
-11.0501 140.989 -4.41177
7.42495 120.281 -4.96962
-19.7886 148.109 0.375043
-16.094 136.804 12.1081
-8.2887 125.891 15.4336
8.88688 109.928 9.4756
8.49929 111.492 7.71436
8.93275 110.523 8.5002
-15.267 144.776 -2.41922
6.79794 118.381 -0.388185
7.48966 112.862 7.47658
1.20817 115.274 15.3328
3.07735 127.036 -7.54717
-6.91931 125.354 14.0278
7.34411 114.984 4.36825
6.71509 120.733 -3.8956
-1.42668 121.22 10.7062
6.13022 120.853 -2.89356
-2.00849 132.166 -6.10035
-14.7209 144.7 -2.82389
8.10316 109.507 12.3232
-12.98 132.774 13.7277
7.59695 117.025 0.991674
-0.527328 120.025 11.3418
-16.2294 137.809 11.6126
-18.0634 142.733 6.95127
7.27742 121.623 -5.90514
-11.239 141.926 -4.53134
-4.15195 124.617 10.7081
-16.5872 142.415 4.89965
2.4533 128.191 -7.36103
-6.77394 135.38 -1.84142
8.7392 109.952 10.9015
-18.8443 147.872 0.320038
-21.2922 147.105 6.20733
-9.87141 140.755 -4.7736
-14.5269 139.33 6.34372
7.63474 114.448 5.69427
-17.9605 143.102 6.66033
-14.4224 134.827 13.6499
-7.68555 136.274 -1.33518
7.67812 114.306 5.97021
-9.46713 139.939 -4.00881
6.61344 121.48 -3.79586
6.21113 121.626 -3.20147
-21.9951 148.83 5.06138
-16.116 146.17 -1.58092
1.36509 116.057 15.1873
-17.8639 143.375 6.37934
-13.6062 134.167 13.581
-14.2108 138.603 7.4376
-15.9377 142.27 4.65255
-17.9826 147.128 0.550762
-17.0295 145.72 1.12484
-10.866 129.371 16.4891
-8.07778 137.845 -2.66646
-10.7949 129.26 16.5975
-15.791 142.46 4.41301
0.289972 119.767 11.7461
-8.72054 139.198 -3.29769
-8.54719 127.517 15.7237
8.20942 110.449 12.5021
-7.73841 137.743 -2.46034
7.26313 120.398 -2.06679
-10.079 141.869 -4.77743
-18.2942 148.266 0.228125
-8.51294 127.765 15.6717
-6.79795 136.13 -1.27531
-13.9951 138.716 8.04504
-15.8721 145.918 -0.289096
-8.31962 127.7 15.5352
-20.6047 150.081 1.80991
-2.55849 134.088 -5.76754
-13.8246 140.453 4.94988
-3.95379 125.823 10.526
-17.0895 146.718 0.837337
-7.195 136.772 -1.34083
0.869267 118.892 13.0514
-17.9393 148.172 0.203391
8.26076 114.717 6.07603
11.3805 118.813 -6.47415
-18.5526 148.835 0.37628
-13.52 139.18 7.03101
0.245931 121.255 10.8091
-16.361 144.266 4.13017
-13.9971 146.127 -3.34961
-0.416612 132.473 -6.29629
-9.90974 142.395 -4.73133
12.2797 119.039 -7.96789
-8.28371 128.357 15.4725
-19.8831 150.349 1.24181
-13.0915 138.847 7.42377
-16.7874 144.85 4.49195
-15.9975 146.413 0.552744
-16.3409 146.618 0.980058
3.48771 114.425 16.7807
-8.67658 129.093 15.5688
8.47424 111.562 12.2555
-12.355 145.034 -3.72007
-17.3386 145.116 5.57445
-1.44068 134.159 -6.2019
6.92428 123.398 -4.10624
-1.75275 125.004 9.65829
-12.7631 138.97 7.37169
-17.5992 145.309 6.11326
-16.5959 147.481 0.673978
-2.85364 135.103 -4.76171
10.85 119.964 -5.32685
-17.6798 149.149 0.24748
-13.7225 137.487 12.0341
-14.1984 139.819 9.11841
-9.98555 131.133 15.5142
1.89473 117.933 14.9385
-9.41874 142.77 -4.65154
-1.80049 134.969 -6.10353
-9.9235 143.422 -4.72878
7.07017 112.952 13.5255
2.02157 117.731 15.1476
7.12638 123.637 -4.17531
-10.1563 131.456 15.4545
-11.0851 144.76 -4.6559
12.7727 118.184 -5.68485
7.48117 122.881 -3.47083
12.4072 118.435 -5.27026
-17.1189 145.799 5.19997
-1.66432 125.572 9.49887
-16.8361 145.823 4.71956
-7.87867 140.508 -3.32331
-11.5768 134.854 13.0054
-13.0417 146.631 -3.62085
-12.8632 136.717 12.4883
12.0479 117.433 -2.57622
11.368 118.342 -2.78298
-7.51611 129.289 14.7578
-5.90882 128.299 13.4781
-15.4782 147.72 -0.511428
9.24042 116.607 4.30845
6.53708 113.838 13.9888
12.4652 120.352 -7.7953
9.08364 113.034 10.6335
8.26794 116.3 6.89728
3.12969 130.619 -6.89135
-10.5416 133.394 14.2632
8.33422 124.607 -6.71728
11.8936 120.657 -6.78212
-6.91774 139.771 -2.8844
8.57026 120.277 0.154829
12.8471 117.675 -3.51263
-12.9635 142.721 3.86254
-2.46643 135.866 -4.57302
0.0770231 124.417 9.51355
-0.378533 125.01 9.41522
2.01972 119.336 14.2625
6.78001 114.183 13.8324
8.89838 113.417 11.1161
-15.0215 148.005 -0.842738
-6.01544 138.302 -1.73844
-11.5512 139.131 7.36049
-14.1115 144.679 3.10503
8.25229 122.89 -3.04001
8.2941 113.335 12.6254
8.64905 115.136 9.04213
10.8099 120.137 -3.2515
12.6364 120.883 -7.89545
2.21922 119.097 14.6404
-8.82037 131.642 14.8271
3.22763 131.023 -6.79614
-19.6623 150.414 4.43606
-6.79282 129.784 14.2339
-19.4299 151.061 3.03104
-13.2721 139.186 11.0337
-10.1192 133.686 14.2272
8.32083 123.49 -3.44955
12.6191 121.09 -7.56087
8.79067 115.84 8.29989
-16.6057 149.812 0.174484
-11.2536 139.96 6.34598
-9.53166 132.923 14.7423
5.05766 115.855 15.5168
-12.1774 142.59 3.91047
-15.3064 146.456 3.42679
-17.7092 150.954 0.56506
7.08594 127.682 -7.70774
-18.6111 148.555 6.26752
-11.0113 146.499 -4.61494
9.13919 120.034 1.18279
-5.70557 129.58 13.4072
11.0508 121.935 -5.45558
-11.0221 146.701 -4.65831
9.03829 115.643 8.88629
-6.70869 140.847 -2.96998
13.4259 116.586 -0.854539
8.97459 117.472 6.06452
-7.52971 142.427 -3.98754
-19.1322 151.242 3.3115
8.6639 123.479 -3.10559
12.7488 121.575 -7.61875
7.2881 114.98 13.5182
7.89822 114.638 13.0361
-10.7285 139.416 7.24867
7.47143 114.983 13.3858
8.67846 114.812 11.4997
9.18676 121.77 -0.909828
-12.6222 148.539 -3.9611
-10.7688 140.267 6.20711
-3.76114 137.764 -2.82867
-9.71614 146.017 -5.22314
8.79088 114.988 11.1166
9.0221 121.685 -0.351657
8.35675 124.854 -4.30656
-14.9393 148.64 0.340105
-11.1614 147.482 -4.77108
8.45249 122.451 -0.382653
-2.48864 137.155 -3.89484
7.76244 123.576 -0.781346
7.24748 115.433 13.6196
-15.9375 147.302 4.70947
-0.614518 127.383 8.72156
-11.2179 141.818 4.87813
-11.5615 138.035 11.8095
-11.516 137.979 11.8411
8.99232 125.416 -6.02038
2.74783 132.909 -6.51243
-10.2969 139.728 6.80856
-18.0911 149.229 5.90082
5.17899 130.661 -7.20482
7.48439 115.5 13.4584
9.99993 122.935 -3.50852
3.71071 118.594 15.4743
-14.9342 147.288 3.35428
12.7303 121.381 -5.96993
9.15815 117.998 6.35251
-11.3159 138.138 11.6747
-11.145 140.155 8.06983
8.51921 125.005 -3.93884
-14.8674 147.302 3.30229
-3.70525 138.179 -2.58954
10.6776 120.023 0.296545
-7.4542 143.544 -4.32474
8.49414 115.473 11.9825
7.4478 115.797 13.5321
10.9145 122.151 -3.45028
8.81326 125.223 -4.54378
2.73447 120.584 14.5478
-5.11092 130.467 13.0184
-6.45257 141.868 -3.23401
-5.38397 130.702 13.169
9.38494 121.044 1.31223
9.43605 121 1.29425
-9.45498 146.711 -5.38114
2.27985 122.275 12.8525
-11.0376 148.347 -5.05205
4.3948 131.85 -6.87041
12.3786 123.045 -7.29539
12.6878 117.818 0.760209
-11.5606 143.54 4.01185
7.82165 128.328 -7.28124
7.57026 123.058 1.88206
-10.7783 141.923 5.31025
8.18776 127.852 -7.13212
13.4569 117.246 0.532709
-2.28683 129.712 9.67488
9.10034 124.948 -3.84558
-11.6202 140.181 10.212
5.2608 131.371 -7.0085
-6.5116 142.716 -3.54385
-3.26928 130.249 10.941
8.16297 118.839 8.28262
-9.79201 140.41 6.53671
11.0565 119.377 2.04947
7.32966 125.277 -0.652171
-15.7073 151.135 0.10601
-3.58155 130.489 11.3518
-8.58054 146.265 -5.20669
-9.23995 135.731 13.4298
-5.16202 131.494 12.81
7.31293 125.505 -0.77589
-16.7519 149.01 5.7549
-1.83138 129.883 9.25774
-0.640006 129.051 8.40121
-16.5629 148.89 5.77751
-14.7754 148.093 3.75455
-10.2738 148.429 -5.25378
11.024 119.293 2.72188
-17.6622 151.161 4.17508
8.11041 119.018 8.674
8.14846 125.715 -2.38381
2.65454 122.412 13.4032
8.13487 128.63 -7.09756
7.46012 123.547 2.54809
-10.3317 142.164 5.38858
9.13721 124.815 -2.60562
-12.8783 150.237 -3.09042
12.2663 123.913 -6.95693
13.3269 117.687 1.35667
9.85671 123.835 -2.22365
12.0908 121.494 -2.49297
7.91522 129.225 -7.29523
10.2562 121.184 1.59229
8.46134 128.458 -6.94454
-9.63934 140.269 7.6524
-1.76256 138.374 -3.99762
1.31203 127.237 8.65553
-4.42272 140.033 -1.6159
7.24865 125.808 -0.119428
-5.43496 132.489 12.7374
7.42412 123.827 2.83726
4.94316 132.489 -6.75763
-5.77778 142.476 -3.04763
2.30083 125.318 10.0381
5.25332 118.743 15.3263
-6.21308 133.187 13.1119
-10.1084 142.57 5.00283
9.02263 125.834 -3.37291
-8.50115 135.605 13.5053
-16.4524 149.657 5.3196
9.36123 125.459 -3.30053
13.0429 122.64 -5.53127
-6.02088 143.222 -3.42923
-12.1091 150.419 -3.81341
10.9958 119.378 3.88772
-9.02338 136.64 13.1042
-13.0138 150.548 -2.13547
-13.3909 150.186 -0.827244
-8.53587 140.983 5.28048
-9.28491 144.049 1.65299
-1.06051 138.591 -4.79128
7.19031 126.609 -0.562804
2.8114 124.11 11.8198
8.35595 122.861 3.514
8.24941 126.712 -2.55204
7.17177 126.853 -0.68267
-9.46483 143.594 3.02982
-2.54384 139.287 -2.87636
9.72332 121.863 2.77366
-5.32656 142.516 -2.83739
4.42376 120.51 15.1149
-10.8015 145.786 2.13019
-8.88833 137.169 12.7684
10.092 121.127 3.54188
-13.2012 150.504 -0.978253
-9.98204 144.334 3.1865
9.82978 126.073 -3.96403
-7.61459 146.576 -4.94403
3.30314 122.67 13.9404
-8.91105 144.378 1.1471
7.55585 124.507 2.9269
10.8058 121.714 1.43246
10.1504 125.695 -3.75929
9.65274 124.979 -1.59079
-16.3118 151.119 4.22956
-10.2071 140.474 10.3951
-3.8162 132.365 11.8353
10.6329 121.173 3.11342
1.90239 136.922 -6.39985
-12.1179 151.232 -3.60176
8.77939 127.232 -3.34689
-1.5751 131.505 9.12396
-10.1694 146.197 1.07939
6.04458 119.396 14.7511
13.3584 117.909 3.61254
12.026 122.673 -1.71395
8.01516 120.067 10.1985
12.2844 123.137 -2.88131
10.3604 125.969 -3.91097
3.73737 122.623 14.089
2.62117 126.791 9.36813
0.240882 130.442 7.88755
-7.68567 142.119 3.55789
8.99874 126.127 -1.46164
-0.789764 139.335 -4.73956
-7.63489 141.418 4.78406
13.0989 123.719 -5.0376
-10.1434 146.696 0.860064
7.93999 126.215 0.602698
-9.7979 146.226 0.986666
-8.60702 148.716 -5.30056
7.49901 125.362 2.90684
-8.34426 138.104 11.7233
10.3169 126.295 -3.86349
-4.33535 142.074 -2.24727
-9.77158 149.921 -4.85031
13.4496 118.174 3.88755
-7.54105 147.624 -5.15858
2.78342 136.795 -6.7207
2.11735 128.461 8.372
-7.91992 137.553 12.2911
-5.9782 145.222 -3.94192
11.9639 123.643 -2.07178
-0.869211 131.931 8.48054
-3.62564 141.233 -1.66067
9.26266 126.212 -1.07629
8.79227 126.42 -0.50142
-9.22413 140.61 10.0366
3.42054 124.182 13.3502
10.1835 125.798 -2.01669
-7.32234 142.788 2.92185
9.44641 128.993 -5.86958
2.9988 127.006 9.52927
10.5974 127.302 -5.23905
-7.34533 141.113 5.74671
-0.414595 131.815 8.03908
13.3895 122.007 -1.73467
-15.1797 150.95 4.30879
-12.9756 151.165 -0.11909
9.74998 124.446 1.24152
7.72836 125.772 2.91692
12.2567 124.094 -2.8119
-0.649853 132.105 8.29385
9.62174 120.95 7.46221
3.51361 125.159 12.0645
9.69274 126.14 -1.08741
-6.00893 145.996 -4.1957
9.08316 127.525 -2.0952
12.1118 126.49 -5.99958
-7.971 148.954 -5.21486
10.5496 126.501 -2.95706
10.1368 121.073 6.76933
-3.48461 141.806 -1.7731
-13.0416 151.534 0.186518
0.750646 131.382 7.50838
-12.0737 149.957 1.04877
8.21746 126.578 1.50245
12.9961 123.309 -2.04473
10.5059 122.254 4.41046
4.45041 123.375 13.9512
-5.6138 145.727 -3.93557
10.2772 127.036 -2.98333
3.67266 125.372 12.1965
-8.45203 140.588 10.0498
2.54413 129.199 8.18135
-8.49736 149.778 -4.90792
4.95413 122.774 14.3581
-6.8636 143.886 1.7986
13.7213 122.755 -2.06731
12.5729 123.983 -1.85994
6.10745 134.253 -6.59298
12.7672 124.905 -3.61831
9.52036 127.832 -2.30972
-0.806771 140.677 -4.04434
5.48281 122.313 14.4257
3.84607 126.145 11.2125
2.36161 138.514 -6.18412
11.1139 122.099 4.40484
-12.9956 150.806 2.50157
8.11695 126.206 3.41399
-10.8127 149.664 0.400744
-7.86922 140.409 10.1146
9.18246 121.691 8.92842
8.87106 126.896 0.965969
-0.147439 140.664 -4.69907
0.457105 132.688 7.31293
-5.54245 146.47 -4.10928
8.43827 128.879 -1.31926
-6.544 148.173 -4.89959
-5.26721 146.115 -3.89769
9.04385 126.637 1.28534
7.40928 133.489 -6.87327
9.60917 129.388 -4.24577
14.7547 121.876 -1.53684
8.03855 121.759 11.2889
7.9077 121.2 12.6463
-6.23545 143.169 3.05687
-6.62751 148.587 -5.00821
11.9788 127.738 -5.56652
7.9149 121.313 12.7355
11.1864 122.619 4.4779
-6.55294 142.098 5.80217
7.95878 121.918 11.7795
15.3738 117.959 4.38594
14.6193 122.79 -2.14529
-9.3758 151.489 -4.24593
-3.61733 135.527 11.2364
9.49407 129.866 -3.97293
-13.5514 152.1 2.8028
-6.45856 139.605 10.1301
10.3887 126.455 0.196087
-0.924331 134.215 8.6907
11.126 127.151 -2.32601
15.3592 121.563 -1.05537
6.57162 122.691 13.6683
-12.8328 153.346 -0.32657
-11.35 153.376 -3.15743
0.984058 133.153 6.98943
-13.8213 153.721 1.10183
13.3502 124.29 -1.48141
9.37074 125.051 4.81874
-12.8255 153.561 -0.341151
-7.58136 141.807 9.23439
11.1534 129.521 -5.68785
9.82928 124.673 4.79703
10.3888 129.45 -4.00944
-10.9946 153.467 -3.21899
-8.48007 151.312 -4.36154
7.44528 123.04 12.4119
-4.52979 146.457 -3.65238
4.10415 128.706 9.42887
-6.05434 140.082 9.91108
14.2377 123.9 -1.54058
16.6327 120.465 -0.2919
4.9944 137.581 -6.58689
10.0853 130.55 -4.54982
9.91235 130.574 -4.23401
-3.29985 144.493 -2.31476
6.91703 135.51 -6.70395
11.0313 130.12 -5.52699
-2.76238 143.938 -2.19705
14.9051 119.223 5.31169
-1.5737 135.185 10.0464
-12.862 153.055 1.84345
6.50276 125.123 11.4838
6.35211 125.098 11.8355
3.72811 130.431 8.15996
4.48861 127.479 11.6174
3.98726 129.815 8.72686
0.0551124 142.092 -4.06423
-11.486 152.093 1.21627
9.77679 132.628 -6.64076
-0.493467 142.389 -3.35277
9.03645 130.572 -1.7662
3.37292 131.446 7.52051
7.65055 124.978 10.2278
-6.07306 149.893 -4.77371
10.9375 129.877 -3.76878
7.73474 135.48 -6.93863
-6.35299 150.323 -4.87303
4.75018 126.991 12.7635
-11.7079 153.725 -0.14704
11.2015 124.033 5.7064
-3.27345 145.907 -2.91586
10.7545 130.839 -4.41652
10.4299 125.701 4.68529
-5.51273 143.109 6.0306
11.7883 128.581 -2.56019
7.59994 126.156 9.37057
-6.28202 142.025 9.33681
4.15322 139.765 -6.50025
10.4453 125.831 4.75484
10.676 128.233 0.384975
15.882 123.561 -1.69267
-4.14291 147.815 -3.84461
10.8592 124.238 6.91922
0.573981 142.756 -4.21495
-4.95769 143.064 5.70557
-1.37356 143.959 -2.40953
11.0218 125.03 5.53553
11.4693 128.34 -0.684203
0.579314 135.637 7.855
12.3309 123.382 6.12243
11.3751 124.755 5.69282
-3.5548 143.206 3.58805
6.47357 137.923 -6.43525
0.165907 143.337 -3.47826
-3.59477 139.384 10.2567
-5.42695 142.237 9.07171
7.7644 126.943 9.50074
4.43584 129.672 11.2651
9.21992 135.364 -7.09098
7.0556 137.592 -6.63365
12.8015 129.622 -4.29694
0.560549 143.381 -3.85428
7.76941 137.02 -6.89023
10.7823 129.896 -0.786215
-4.29797 143.264 5.54521
11.5456 129.15 -0.827846
10.851 126.537 4.83371
-3.64717 143.233 4.6166
-0.981729 144.616 -2.45472
4.81306 130.609 9.7413
11.0379 126.217 5.50224
18.5478 121.379 -0.566851
1.54639 143.199 -4.54624
14.0521 126.789 -0.932554
12.9757 130.028 -4.20775
12.2683 131.656 -5.49256
11.36 132.418 -5.02173
-4.40183 143.746 6.02035
8.92471 136.466 -7.0236
14.0068 127.314 -1.44859
-0.539282 137.96 8.46538
-5.16112 144.149 7.01302
-0.921912 145.072 -2.46066
6.37533 128.28 11.5074
14.2485 126.861 -0.881734
4.13239 141.441 -5.86674
-9.69285 154.525 -1.41199
-8.1608 153.738 -2.99069
4.79303 130.746 10.5415
8.6211 127.386 9.11919
-0.430171 138.16 8.4187
-9.89101 155.095 -1.64847
8.22476 137.639 -6.931
12.9231 131.037 -4.69085
11.9396 125.423 6.42523
-4.8785 144.408 6.80688
11.3523 126.587 5.69159
18.7611 121.871 -0.405447
-2.29045 147.481 -2.97799
1.39694 136.897 7.58083
5.13438 131.913 8.77367
11.4345 131.147 -1.76957
-2.61382 148.203 -3.398
4.89397 130.903 10.9893
16.3964 119.917 7.50769
6.73461 128.719 11.2082
19.0758 121.479 -0.00382472
0.742353 144.525 -3.38177
-3.02603 143.762 5.00572
4.04904 142.158 -5.65314
12.6538 132.016 -5.01758
1.26745 137.525 7.46427
-4.31461 144.189 7.08456
-8.50422 154.555 -2.07918
11.4768 133.566 -5.06156
14.8843 127.111 -0.733392
19.5585 120.704 1.20527
-6.83469 153.428 -2.97945
-3.03397 141.999 8.70738
-7.03502 153.608 -2.72987
4.2991 135.404 6.04733
11.1804 134.609 -5.4557
13.2909 131.914 -4.84038
3.34746 143.434 -5.09465
7.62497 139.382 -6.41852
-4.01379 151.42 -4.31867
5.23053 133.245 8.24628
16.7194 120.809 7.36421
13.3401 124.855 7.06655
10.2255 136.033 -5.44
5.96048 130.964 11.0218
9.6885 129.198 6.96116
18.1601 120.427 5.72447
5.94919 131.227 10.9134
1.5975 145.055 -3.68167
13.8115 124.629 7.01914
-8.08242 154.388 -0.766659
12.8138 132.284 -3.61641
3.99281 143.368 -5.26571
11.2269 133.369 -2.29462
-3.20329 143.923 7.47894
1.7685 138.844 6.5438
4.66983 136.09 5.68205
-1.78358 148.948 -3.33695
5.27547 132.561 10.4089
