ply
format ascii 1.0
comment Created by Open3D
element vertex 1802
property double x
property double y
property double z
end_header
10.7244 94.0465 11.5897
8.17012 80.335 5.86778
11.0692 101.391 12.3384
7.97341 84.9721 5.23661
9.69386 88.2114 9.6217
11.0081 100.945 12.4256
10.8679 99.3936 12.1663
5.03117 100.886 -2.4495
6.94204 118.147 1.72096
5.68092 153.066 -2.64147
5.49561 96.0777 -0.936357
8.16859 81.3895 6.31653
4.52465 107.361 -3.76028
7.03068 98.5605 2.898
5.14653 111.758 -2.30814
6.64969 146.572 0.238081
7.72907 98.2876 4.82399
4.98615 135.294 -3.36193
4.76982 142.309 -4.05665
8.26563 82.8892 6.99948
6.68443 101.443 2.34938
6.86017 135.622 1.60892
7.65602 84.0116 5.59128
8.64652 77.9872 8.34577
10.4628 100.55 12.0956
9.92283 92.0392 11.1564
10.335 98.4803 12.0387
4.96774 97.5259 -1.30718
5.65986 92.5868 0.689449
6.50511 99.0989 2.56494
6.49126 122.524 1.66626
5.04643 120.327 -1.85336
9.2069 101.051 9.30498
7.16998 95.4905 4.44279
4.77365 113.008 -2.20697
6.73981 131.761 2.05425
4.55881 141.094 -3.74075
4.28137 109.439 -3.17948
6.19435 146.616 0.200259
6.23678 115.639 1.56741
7.72121 81.7365 6.71039
4.88033 122.032 -1.898
4.82244 133.733 -2.47134
6.34486 97.1781 2.75098
4.4591 99.6748 -1.97715
4.83429 152.511 -3.009
4.6375 117.17 -2.12681
6.30116 144.005 1.01321
9.5251 96.3017 10.9749
4.33806 143.726 -3.77511
9.34974 100.984 10.4433
4.31672 142.946 -3.67244
5.95628 102.12 2.13973
7.19815 83.541 6.09808
8.86587 89.6162 10.038
4.74426 94.6924 -0.452597
4.54238 119.712 -1.87401
7.18734 83.1725 6.27477
9.27942 93.395 11.1223
6.36274 93.8886 3.83577
9.12163 91.7708 10.82
7.74982 86.0823 7.69992
4.28438 116.302 -2.10176
5.66928 108.641 1.80013
4.61295 130.899 -1.61111
6.91997 96.8803 5.46572
4.00805 147.025 -3.71778
9.16086 100.638 10.9474
5.59412 102.2 2.05241
5.53331 105.86 1.77555
5.59663 100.384 2.1557
4.17252 115.417 -1.97531
8.54797 89.6253 9.9537
8.71344 90.7465 10.4269
8.93609 96.454 10.8225
4.34886 152.966 -2.77505
5.49536 108.863 1.76976
6.233 93.7647 4.27605
4.1447 135.584 -2.47399
5.58692 87.4739 2.97045
5.36106 108.996 1.74681
5.67119 133.503 1.60335
6.29686 84.6061 5.10254
7.52265 76.3117 8.67755
7.44289 86.63 8.13533
5.17489 104.734 1.79601
7.45476 75.6466 8.7901
8.54975 96.5216 10.7344
4.99629 89.2601 2.13219
5.10099 105.503 1.79484
7.2201 98.5771 7.37002
5.38305 140.606 1.1831
5.74178 137.428 2.28373
5.27181 123.179 1.69786
3.72888 138.405 -2.71218
5.1401 116.375 1.68322
5.67911 91.4367 3.98163
6.11364 93.628 5.01325
8.42151 95.7925 10.7918
3.48858 148.437 -3.43813
7.78596 99.2153 9.18329
5.06071 145.118 0.736488
5.64943 84.5967 4.56696
4.51717 90.9813 1.49448
5.05195 119.35 1.81208
3.69034 136.423 -2.23707
4.05242 129.845 -0.998555
4.86495 113.878 1.70089
4.87454 105.814 2.04877
5.21924 90.848 3.54102
3.54067 124.397 -1.92472
6.68845 79.5621 7.68613
6.94673 76.6754 8.5439
3.58996 153.018 -2.73836
3.4601 152.327 -2.90262
5.5021 91.4554 4.54953
7.31548 88.6968 9.20292
4.69253 101.438 2.21925
3.42117 125.238 -1.82628
2.95794 116.878 -2.66586
4.80023 119.384 1.84973
5.56679 84.3663 5.1711
2.55748 112.999 -3.42337
3.94044 92.6561 0.836791
5.91536 83.1914 6.22397
6.01121 83.548 6.52305
6.73641 76.0647 8.62985
3.44902 127.235 -1.53028
7.81803 94.4332 10.7303
6.13739 95.3475 6.50124
3.5738 129.257 -1.07607
4.617 94.9633 3.01186
2.21919 112.42 -3.62403
4.48729 113.15 2.06999
4.68138 86.5751 3.64175
2.95923 144.742 -2.82825
3.3389 135.176 -1.40453
3.36247 131.959 -1.21954
6.69014 84.9056 8.90971
4.61979 90.9325 3.54514
4.0798 82.9153 2.53979
3.16455 137.058 -1.80548
2.00546 109.413 -3.60649
4.37385 114.396 2.18393
4.63961 88.0422 3.86491
5.88088 86.7772 7.02727
2.83683 150.815 -3.00632
4.28326 98.3708 2.62738
5.6767 83.775 6.69276
2.89835 152.556 -2.73807
4.24854 111.718 2.23692
4.34029 124.422 2.02042
5.60744 83.4077 6.76752
5.47337 83.2077 6.46814
2.20343 117.765 -2.98433
6.12379 82.292 8.22394
5.54262 83.0377 6.75575
3.12938 132.996 -1.12068
6.00596 77.9502 8.20227
6.08504 76.624 8.45185
5.46042 92.4317 6.29336
3.49592 82.0398 1.79914
5.32599 83.6351 6.33244
4.20462 114.083 2.39182
4.19138 87.9263 3.3623
6.89818 97.438 9.79982
4.28629 141.135 1.68721
2.65411 152.12 -2.7539
5.48671 84.0982 6.91597
4.70753 88.7358 4.83637
2.46558 149.293 -2.99112
4.2313 91.7694 3.64026
1.62811 108.937 -3.49293
4.49447 134.945 2.73449
3.96904 101.828 2.6967
5.40759 84.0998 6.98267
2.54199 143.517 -2.3472
3.44041 82.8468 2.20905
5.71503 84.9392 7.90298
2.21134 101.429 -1.4575
5.85549 81.806 8.39884
4.99215 89.5664 6.00764
4.2088 130.645 2.51784
5.46941 81.6538 7.57081
4.57352 137.128 3.27257
1.80139 118.617 -2.86151
3.87812 86.2727 3.72735
5.90705 83.3499 8.91495
4.88656 88.0467 6.30345
4.60235 90.9662 5.49745
3.67622 86.9145 3.38169
5.72502 88.3187 8.47332
1.91415 101.578 -1.52517
3.61541 95.4472 2.96352
3.78212 113.685 2.79109
2.32374 127.975 -1.35792
5.61324 88.3293 8.42539
3.66365 102.613 3.01457
1.25427 113.742 -3.41799
5.24419 93.9415 7.32029
3.7518 115.866 2.77932
3.76547 116.442 2.81406
4.17362 135.785 3.11672
4.97763 81.3121 7.20715
3.85117 122.989 2.81556
4.45747 86.4309 5.82536
3.51667 93.291 3.22496
2.86927 80.7444 2.11042
4.12469 135.923 3.17785
5.49479 81.4107 8.69955
5.59353 89.1109 8.68932
3.56022 109.994 2.82145
3.72087 128.952 2.50826
2.48283 134.046 -0.675797
3.64555 107.384 3.25696
4.26168 138.288 3.62954
4.45607 88.224 6.23319
5.66709 90.5624 9.17511
5.91247 94.2175 9.68847
2.64982 81.6567 2.03208
1.82346 146.854 -2.5013
3.5927 126.16 2.80187
3.54598 118.979 2.98805
5.07957 87.8328 8.01311
3.61102 88.9272 4.30627
4.93279 87.2608 7.72921
3.45741 107.913 3.27351
0.92283 114.153 -3.25686
3.25882 92.2901 3.45796
3.86775 88.6617 5.15327
2.89611 83.4759 2.97385
2.1857 92.0235 0.915069
1.88892 98.6968 -0.0717562
3.80217 89.2008 5.09777
3.41194 127.753 2.69115
3.58278 141.622 2.61108
3.26717 140.909 1.87242
4.15288 86.5781 6.168
0.930363 116.668 -2.99579
3.8766 90.6325 5.37518
4.76568 87.522 7.73746
3.3644 129.599 2.64519
3.28333 85.7616 4.1171
4.21329 85.2516 6.48034
5.55569 92.1918 9.62102
4.90317 84.4025 8.30793
3.82084 86.3489 5.69877
3.42145 124.005 3.33223
2.24775 79.8265 2.13978
4.79506 94.614 7.94793
3.03349 100.021 3.34312
3.29128 92.0901 4.29232
5.1978 93.9705 8.98847
5.34627 92.8906 9.43257
3.43163 133.827 3.09888
2.88931 96.2404 3.39475
4.9977 94.4113 8.74929
1.5268 128.111 -1.19094
3.07641 111.468 3.31839
3.30645 91.53 4.65945
3.11431 130.708 2.86802
3.0615 103.256 3.80942
1.57576 140.117 -1.25747
2.43111 88.097 2.89374
2.44191 80.9305 3.23796
3.27727 91.9963 4.94696
1.90442 81.6227 2.01861
3.47708 88.1487 5.73876
2.81929 100.43 3.65032
3.25487 135.501 3.42614
0.984661 100.18 -0.806677
1.23258 144.54 -1.79547
4.53245 90.3296 8.54542
2.61098 94.0525 3.65742
1.42562 94.144 0.730009
2.85368 102.762 3.97378
3.07638 121.754 3.81449
1.08898 146.492 -2.07073
3.22751 88.6683 5.51331
4.0741 77.4529 8.06553
4.71306 91.8924 9.14824
3.86942 80.4454 7.52243
3.03467 124.807 3.7646
2.71532 100.988 3.88037
3.02204 124.64 3.80138
2.78489 113.31 3.69799
3.53158 87.3425 6.67012
4.25527 90.7784 8.5555
3.71884 88.025 7.33171
1.86011 81.9955 2.94818
2.53647 88.8799 4.40844
3.76794 77.8501 7.95744
0.668558 99.8213 -0.581602
2.80932 105.43 4.68657
3.25119 138.477 4.54651
2.46869 100.09 4.06507
4.04634 92.4855 8.31549
3.05171 90.5495 5.98436
-0.534486 104.946 -3.4826
2.477 88.7635 4.67249
2.98048 89.3297 5.91127
2.90206 133.795 4.02957
3.53383 78.9401 7.7747
0.788905 129.005 -0.903113
3.50239 78.3632 7.85559
2.14336 93.1179 3.91673
2.62752 117.512 4.20256
0.546044 153.447 -2.30236
0.48715 124.951 -1.30354
3.27215 80.4593 7.47358
2.82472 140.337 4.10287
2.40768 102.199 4.52057
2.36479 101.561 4.44152
3.95805 92.384 8.79169
3.96757 92.2311 8.87009
0.32559 123.697 -1.33216
-0.545002 112.534 -3.04956
2.10588 89.1113 4.49066
0.285768 99.5146 -0.448016
3.00573 87.8405 6.79858
0.824218 81.4572 1.71113
-0.45926 116.618 -2.75926
2.31127 89.4955 5.22175
2.83652 137.794 4.81715
2.111 88.7137 4.94714
3.04919 89.9748 7.25559
2.42751 121.472 4.52979
1.93546 84.2775 4.74911
0.32025 154.239 -1.93804
2.60006 135.184 4.63266
1.31039 140.906 1.19318
0.0718653 150.547 -2.26809
2.59403 134.617 4.64823
2.59488 135.058 4.64325
0.131377 98.7522 -0.0926327
2.4797 128.424 4.67336
2.14917 107.861 4.64605
2.05324 112.146 4.24985
2.60246 86.2999 6.72676
0.380155 141.058 -0.851733
2.66782 81.2486 7.1918
2.30152 126.014 4.59971
-0.872061 110.827 -2.75584
2.19066 118.571 4.60704
1.83183 84.2639 5.0141
1.83841 98.1986 4.55042
1.96978 112.972 4.32318
2.25085 122.238 4.74122
-1.07804 109.043 -3.016
1.32649 86.3977 3.86535
0.0984379 127.149 -0.740992
2.16609 106.149 5.31428
2.19285 140.999 4.05746
1.49554 140.433 2.36516
1.58501 94.9766 4.39187
-1.38733 105.532 -3.3857
1.85461 100.76 4.90175
0.632275 88.7564 2.36691
1.78349 109.032 4.62138
0.272222 137.158 -0.220536
1.72999 109.828 4.57938
1.28817 140.65 2.36831
1.97691 121.458 4.93529
1.3553 91.9927 4.54577
-0.103356 143.116 -1.03904
1.89263 119.029 4.86845
-0.183585 145.083 -1.25938
-0.447465 150.105 -1.99809
1.85481 84.4949 6.31723
1.82336 119.08 4.92812
0.128746 91.7993 1.77917
2.18299 88.7241 7.19979
1.93593 82.2327 6.87085
1.26688 94.6525 4.87457
1.96331 127.081 5.42159
-0.0539696 94.4572 1.72473
1.96619 132.579 5.3471
-0.638613 80.7886 0.81579
-0.2571 96.7606 1.24901
-0.451726 129.178 -0.367742
1.88299 127.028 5.56281
1.67355 82.8045 6.73586
1.04868 89.4101 4.92607
1.12995 92.7295 5.11294
1.39745 115.112 5.00165
-0.146852 90.1969 2.11424
1.94929 135.267 5.64322
1.66392 124.869 5.55023
-0.704534 126.676 -0.403065
1.40208 118.605 5.27549
1.12075 98.9548 5.33312
-2.21708 106.276 -3.27656
-2.2397 105.565 -3.30583
-0.428121 134.332 0.288933
0.997739 93.3821 5.4892
1.39096 121.385 5.45893
1.27665 104.666 5.82417
1.04139 99.3458 5.44735
-1.10559 122.737 -0.798347
-0.944666 125.784 -0.503128
0.381514 82.1171 4.51875
-0.230721 88.2472 2.84597
1.44441 79.0351 7.55371
1.49305 88.1473 7.3442
1.09672 107.91 5.68752
-0.935218 129.508 -0.125749
1.31695 123.177 5.77574
-0.840539 139.453 -0.153299
-0.173949 86.6385 3.70554
0.982996 107.738 5.86846
1.26613 139.06 5.43267
1.21515 85.686 7.40291
1.03856 105.901 6.26169
-2.75612 106.81 -3.19358
1.0485 106.191 6.35946
-1.30228 127.837 -0.0586618
-1.07553 132.976 0.375087
1.12683 124.74 6.2563
-2.55944 111.632 -2.42697
-0.0594732 138.987 2.80118
-1.42208 126.5 -0.122536
0.607978 100.174 6.03276
-2.92749 107.043 -3.06277
-1.64906 149.557 -1.45391
0.90601 139.546 5.31637
-3.00051 106.379 -3.18599
0.946869 88.0555 7.38854
-1.64081 147.738 -1.32507
0.497678 83.0518 6.51476
0.828656 121.412 5.96561
-2.34144 116.307 -1.73103
-1.26633 136.278 0.226876
-1.35999 138.382 0.0286946
-1.68551 142.695 -0.920995
0.613908 114.997 5.91975
-0.965511 89.3868 2.98964
-2.16741 98.3228 -0.260186
-3.2813 105.59 -3.0781
-1.58765 131.183 0.327515
-1.31183 90.5392 2.58506
0.392247 110.819 6.21167
0.372854 84.0582 7.21039
-0.610236 81.9371 4.94414
-2.09465 141.209 -0.93278
0.300427 77.7232 7.50599
0.346565 111.137 6.37697
-0.223816 91.1389 5.71485
0.33248 105.629 6.56039
-0.388905 83.9266 5.62983
0.717124 136.502 6.42373
-1.93997 137.521 -0.251625
0.24262 77.618 7.50443
-1.27564 88.0982 3.32053
-1.27929 87.6424 3.38208
-0.577665 141.396 3.15395
-0.134653 79.0053 6.71954
-2.29175 122.731 -0.318099
-1.89029 135.604 0.20386
-1.68232 91.2182 2.43014
-2.04904 81.2875 1.90361
-0.778487 81.2952 5.10093
0.234982 112.001 6.52666
-2.04877 133.972 0.307222
-2.94634 116.43 -1.1726
-2.5604 141.499 -1.12319
-1.87905 92.0731 2.48754
0.541307 134.212 6.96261
-0.926059 140.301 3.08135
0.424369 131.203 6.83747
0.0695611 113.312 6.69327
-0.266298 138.564 5.0306
-2.60015 97.2931 0.814614
-2.58412 124.624 0.000940344
-2.95316 150.914 -1.7964
-1.90164 90.21 3.16344
-4.0147 106.577 -2.64118
-2.9168 136.999 -1.00013
-0.225845 109.524 6.86908
-0.780871 89.4368 6.34521
-1.13031 142.727 3.45219
-0.444829 103.924 6.64759
-2.9114 136.468 -0.683869
0.147119 131.856 7.21446
-0.375081 98.5454 7.32477
-1.22019 84.0716 5.81909
-0.721048 76.329 7.39164
-1.35001 79.4877 5.78437
-1.20296 79.1065 6.1804
-0.348604 106.809 7.34433
-0.392366 88.1776 8.06601
-0.315637 119.052 7.11552
-3.34511 136.415 -1.10903
-3.48183 144.08 -1.71243
-4.38485 106.191 -2.52685
-0.130437 130.006 7.29482
-3.51135 80.7117 0.804281
-0.195452 135.766 7.13107
-1.63497 138.51 3.44156
-0.715307 102.486 7.115
-0.675689 101.981 7.27438
-0.82048 103.539 6.88432
-3.09867 126.023 0.416338
-3.64019 116.935 -0.581835
-1.4454 82.2087 6.24774
-1.11253 89.4449 6.85755
-1.7403 139.347 3.43264
-3.77587 148.622 -1.94803
-0.490913 111.585 7.67128
-3.78446 149.827 -1.94858
-3.58828 119.653 -0.20456
-3.98525 147.506 -2.05899
-0.327392 132.918 7.66311
-4.0892 143.358 -2.06328
-2.39959 81.6491 4.54514
-1.18399 92.9765 7.19945
-4.15769 143.375 -2.10986
-3.62348 80.9621 1.71913
-0.920572 98.7379 7.80373
-3.93935 117.957 -0.327759
-2.32667 81.3603 5.10315
-3.53635 131.884 0.190389
-1.0032 94.7265 7.93672
-3.20252 94.7166 2.48981
-1.01136 95.1108 7.97391
-1.2258 137.199 5.9722
-4.68715 108.286 -1.50092
-1.06612 98.4904 7.95685
-3.71392 123.785 0.407186
-1.2976 86.6077 7.86853
-2.76855 86.7492 4.3706
-0.677757 126.605 8.13887
-2.37558 83.1666 5.59774
-2.22921 138.788 3.94156
-3.77021 96.6434 1.72746
-2.235 137.142 4.16466
-1.1801 87.8912 8.80984
-2.32433 137.613 4.10644
-0.982796 113.184 8.42015
-4.96008 145.542 -2.71767
-3.31102 91.3413 3.51617
-0.900816 132.441 8.11299
-4.73879 112.208 -0.694893
-1.31688 107.286 8.05057
-4.3362 132.991 -0.437133
-4.1113 130.969 0.249885
-5.27801 106.537 -1.69911
-2.84375 84.4192 5.34105
-4.2794 131.636 0.0797681
-1.807 104.739 7.34063
-5.1648 108.572 -1.18061
-1.78145 84.199 8.21108
-4.58061 133.049 -0.616549
-5.08975 150.371 -2.52339
-1.17221 115.29 8.61173
-1.12 125.154 8.39511
-5.45961 138.712 -2.95407
-3.21654 82.501 4.88419
-2.08055 90.0407 7.44597
-1.16364 124.223 8.51724
-1.54433 96.3911 8.63754
-5.54309 141.81 -3.00151
-4.49258 80.605 2.03796
-3.57749 89.4327 3.99777
-5.56053 148.605 -3.08088
-1.66286 95.4477 8.74034
-3.84601 89.939 3.63994
-2.26084 92.3045 7.52582
-5.21097 111.276 -0.561081
-5.84962 135.398 -3.04103
-2.08264 101.795 7.71174
-5.78873 144.506 -3.16836
-3.48884 86.6619 4.81652
-2.20704 103.821 7.53039
-5.61404 79.0647 -0.0259443
-5.33359 111.503 -0.413881
-3.83594 80.4641 4.5111
-3.01409 140.595 4.32021
-4.14262 90.1417 3.44852
-4.59467 93.3144 2.24277
-5.97997 134.44 -2.77184
-3.86952 88.5332 4.28377
-5.14222 154.187 -1.17597
-2.16821 89.6266 8.75146
-4.91926 96.6249 1.67507
-4.80429 94.3937 2.08467
-2.04113 94.2917 9.02198
-5.97319 106.898 -1.26442
-5.9493 133.773 -2.18229
-1.82015 114.39 8.9138
-6.1755 106.306 -1.51512
-5.31912 130.601 -0.158001
-5.09072 126.986 0.562861
-3.86901 85.3581 5.22559
-5.1077 126.951 0.563181
-5.10399 125.943 0.638019
-2.70231 135.65 6.29934
-5.1227 125.836 0.634285
-4.22363 87.3371 4.4837
-1.82504 125.961 9.0607
-2.71354 104.253 7.73225
-1.82458 128.468 9.08446
-6.22613 133.258 -2.09992
-2.48592 106.551 8.28864
-4.63379 81.0824 3.92185
-6.28506 99.6034 -0.721471
-6.59989 148.646 -3.36177
-3.43659 138.172 5.00824
-2.58297 90.6053 8.9619
-1.9562 127.179 9.15503
-6.92476 144.99 -3.88169
-5.73347 115.448 0.237024
-5.38401 93.7784 1.98546
-2.55266 98.6279 8.92924
-2.79196 100.646 8.29329
-6.90499 139.572 -3.44749
-2.23288 131.847 8.56475
-6.30423 98.785 -0.21306
-6.36394 110.372 -0.580001
-6.09871 130.155 -0.659216
-2.84683 91.2986 8.94787
-2.1814 125.726 9.48824
-6.54682 131.88 -1.58896
-5.7775 95.7143 1.70891
-6.19915 113.889 -0.0205536
-3.22944 103.339 7.98251
-7.44913 137.113 -3.84068
-3.01384 108.627 8.39581
-2.4253 120.247 9.42747
-7.35361 102.639 -2.22052
-5.85344 94.4215 1.88076
-5.25405 88.738 3.73762
-7.43625 138.469 -3.43674
-4.1046 140.415 4.83997
-3.16518 109.753 8.51926
-7.73531 134.215 -3.8261
-3.23133 107.958 8.44079
-2.58888 118.72 9.63849
-6.77676 79.7396 0.716479
-4.01763 138.034 5.47054
-2.54766 121.875 9.85272
-6.56927 115.34 0.0894159
-7.89942 140.594 -3.92407
-3.37267 91.3014 9.30588
-4.18461 138.641 5.47976
-3.50146 105.734 8.49413
-5.83343 80.2163 3.66072
-3.55612 85.8182 9.18042
-3.35934 97.1423 9.46114
-3.78619 101.634 8.31555
-6.26452 91.4244 2.52477
-8.2809 135.754 -4.15598
-7.87925 104.187 -1.93636
-6.76585 118.555 0.346337
-7.70573 79.4955 -0.493883
-3.1696 114.119 9.53086
-3.46538 96.4814 9.5143
-7.64765 100.743 -1.06982
-6.76456 93.2737 1.43224
-3.62254 99.3641 9.06647
-5.80141 85.8591 4.18795
-3.82119 100.829 8.57108
-7.68817 107.552 -1.28237
-8.26966 137.299 -3.82273
-8.26407 139.911 -3.89596
-4.58778 82.801 7.48683
-8.25522 139.585 -3.81532
-7.49461 112.734 -0.88448
-8.13647 131.517 -3.19162
-4.4806 137.518 5.75209
-3.81566 100.033 8.88619
-8.42399 140.783 -4.1411
-7.77529 111.509 -1.29911
-8.32011 139.082 -3.70595
-7.14465 79.5373 1.6103
-7.03709 92.3729 1.40586
-6.77524 79.4849 2.61137
-7.81522 150.585 -2.6667
-7.14503 118.625 0.237223
-8.3733 104.293 -2.24447
-7.18157 119.258 0.255362
-4.09621 105.308 8.59918
-5.86081 82.9028 5.23334
-6.03628 84.9728 4.81396
-4.02983 92.0801 9.66591
-6.83262 79.1093 3.1616
-9.02761 134.552 -4.3913
-3.44696 117.036 10.2677
-8.02202 100.531 -0.527746
-3.35778 126.897 10.253
-3.74672 114.323 9.8335
-7.32503 78.8773 2.2385
-8.86902 145.635 -4.15108
-3.42419 120.622 10.4413
-6.62138 79.8341 4.02156
-8.756 105.286 -2.28018
-4.50472 103.616 8.43133
-6.62226 79.7219 4.15211
-4.62738 85.5926 8.91825
-6.83563 85.8748 3.59666
-3.58728 118.518 10.5184
-4.49559 108.24 8.78229
-4.13804 89.9708 10.4854
-8.17598 128.278 -1.01309
-9.36433 131.054 -3.98786
-6.37705 78.103 5.49401
-7.93304 93.1979 1.07094
-8.03055 126.969 -0.434731
-8.65604 129.296 -2.08042
-4.68751 134.032 7.66431
-5.72921 138.72 5.18349
-4.56785 111.924 9.23899
-8.2073 151.858 -1.3253
-8.97368 113.675 -1.55291
-5.3098 134.08 6.86535
-9.67415 135.283 -4.08586
-4.78377 109.739 9.1367
-4.27449 130.228 9.73798
-9.35714 147.845 -3.59208
-8.35417 124.057 -0.171838
-7.00813 84.581 4.70119
-4.75992 97.5829 10.0189
-9.77943 105.744 -2.81376
-6.14422 82.2739 7.19504
-6.35625 142.795 4.39107
-9.82908 143.736 -4.07717
-9.78659 107.995 -2.56956
-9.31926 149.172 -2.93548
-5.74487 134.089 6.60446
-9.88725 107.616 -2.65276
-5.16227 99.1743 9.64964
-9.14028 117.529 -0.87197
-8.71316 89.5093 1.27973
-8.80781 120.272 -0.116083
-8.84279 123.94 -0.287261
-4.35143 120.226 11.1207
-8.91153 96.174 0.774789
-6.55445 139.944 5.01233
-10.5105 130.85 -4.43212
-9.73537 99.2112 -1.27848
-5.17951 96.7857 10.3051
-9.9899 147.264 -3.62232
-5.65148 87.2768 9.57461
-8.28023 78.7346 3.34076
-9.0316 89.0045 1.13321
-8.63094 86.1669 2.28977
-5.65175 133.331 8.02368
-5.4913 99.1759 9.79446
-9.18788 120.346 -0.212593
-10.3347 111.867 -2.75475
-10.3713 143.341 -3.87085
-5.43089 97.5394 10.3007
-10.7317 128.668 -4.10003
-6.67629 136.846 6.02709
-9.59209 92.0238 0.466371
-8.09508 83.1663 4.81817
-5.15678 116.725 10.9683
-5.66917 96.365 10.4732
-10.6871 103.423 -2.32459
-9.92994 79.0834 0.526907
-5.11603 127.926 10.7364
-6.9501 137.107 5.8148
-7.73982 147.365 3.46675
-4.87594 123.669 11.5354
-9.86643 125.696 -0.970175
-10.8687 112.323 -2.9288
-7.37858 141.368 4.70145
-7.99076 80.6776 5.60144
-5.12118 120.865 11.2807
-10.7142 98.2733 -1.69243
-11.0976 138.432 -4.16211
-11.1353 104.834 -2.96664
-5.36896 128.75 10.5673
-7.06717 136.775 6.03748
-6.5 88.9738 9.30896
-11.08 135.191 -3.83552
-11.2987 130.514 -4.20115
-9.7525 151.189 -1.04929
-6.78677 134.328 7.0134
-6.24643 89.907 10.1385
-7.90898 81.5716 6.34307
-9.69161 77.2835 2.07948
-7.91696 144.439 4.06489
-10.0682 94.2735 0.674795
-10.8811 97.1495 -1.38993
-9.78208 86.5256 1.8123
-11.2253 110.844 -2.69626
-6.22462 98.7236 10.2656
-6.70482 132.765 7.80283
-7.51541 137.161 5.61712
-7.73897 140.168 4.9652
-10.4159 91.5568 0.1489
-10.9454 114.154 -1.98792
-10.6828 117.072 -1.39664
-5.50226 121.509 11.3955
-10.8506 114.756 -1.70619
-10.3369 121.415 -0.66851
-5.91777 115.515 10.6338
-9.20637 79.0555 3.80222
-6.7689 132.619 7.9055
-8.695 79.1715 5.17072
-9.85725 77.5519 2.44185
-7.1334 133.772 7.2372
-11.4564 109.756 -2.65319
-10.5209 122.492 -0.776304
-5.66649 121.549 11.4197
-6.99702 132.678 7.72284
-8.76202 149.99 2.85583
-5.58427 123.965 11.8134
-10.9137 126.407 -1.55184
-10.8259 118.81 -1.03538
-10.8605 118.794 -1.05786
-7.94874 137.098 5.5463
-6.49687 96.1667 10.7699
-11.0275 126.35 -1.64572
-8.28211 141.443 4.66351
-9.33703 83.6154 4.23413
-9.12586 78.9343 5.01559
-9.1631 78.821 4.97948
-6.0888 127.662 10.8224
-10.6336 150.334 -1.39912
-6.33823 115.506 10.6997
-11.8074 133.805 -3.5164
-6.63832 131.286 9.64564
-6.27826 126.033 10.8023
-11.9761 136.104 -3.81739
-11.9416 138.73 -3.80228
-9.38356 151.137 2.13661
-6.1551 118.118 11.5806
-12.2976 105.374 -3.28834
-9.99078 79.8695 3.45593
-11.7409 114.649 -2.13563
-7.87189 88.1129 8.60154
-12.0377 101.918 -2.32858
-9.16194 149.797 3.05435
-7.19465 101.789 9.88654
-8.73766 144.746 4.40233
-12.1657 99.5001 -2.44078
-10.9706 150.02 -1.32221
-10.9264 78.6875 1.50184
-12.4102 106.816 -3.27456
-8.91303 147.059 3.96655
-8.40891 138.247 5.57995
-9.3272 80.5598 5.50634
-11.4787 95.52 -0.412258
-8.10601 87.3719 8.40058
-11.3174 93.9734 0.125191
-9.92377 80.79 4.18344
-9.04461 81.9301 6.33849
-8.98912 146.488 4.08873
-8.82575 144.314 4.60839
-12.104 96.1921 -1.65761
-12.3837 101.536 -2.54828
-6.82942 115.326 10.8535
-11.3694 87.4337 0.727857
-11.9759 115.569 -1.84685
-7.78071 132.298 8.02055
-12.735 104.816 -3.20328
-11.8381 88.7089 -0.338761
-7.39801 106.55 10.1292
-11.0707 150.313 -0.666891
-10.3817 79.3553 3.80154
-7.93837 132.663 7.88492
-9.93592 79.4487 4.92585
-12.4838 131.44 -3.41882
-8.89096 141.568 5.18038
-10.1062 78.5371 4.5634
-12.457 134.47 -3.43543
-12.6163 136.919 -3.79814
-7.90123 131.887 8.19072
-6.82086 125.255 11.1689
-12.9577 127.479 -4.19169
-9.00117 142.527 5.15792
-8.01407 90.8583 9.59792
-9.12811 144.204 4.83404
-12.6369 135.471 -3.5444
-12.3094 126.288 -2.35473
-11.9843 93.7493 -0.215308
-8.81313 137.731 6.06074
-8.5814 90.001 8.45765
-10.1946 79.5324 4.86683
-12.2926 124.044 -1.90281
-11.1075 77.3593 2.84201
-9.33395 83.4369 7.07165
-9.43475 145.649 4.51655
-12.3248 117.506 -1.63463
-7.62402 99.2962 10.837
-11.6676 148.961 -1.09196
-12.8719 98.7418 -2.14886
-12.669 126.526 -2.66478
-7.61053 97.6331 11.0916
-12.2187 87.5272 -0.0283211
-11.1141 79.2577 3.0558
-7.65934 130.717 9.87202
-7.52376 113.378 10.8921
-12.8325 134.405 -3.13055
-12.481 124.708 -1.86286
-7.54822 113.439 10.9027
-13.2412 103.297 -2.88652
-7.58268 111.028 10.9823
-9.70052 147.572 4.30118
-8.72738 134.424 7.28195
-9.78825 147.943 4.16886
-11.312 150.65 0.310265
-8.82467 134.216 7.24495
-7.22746 121.421 11.7287
-12.5232 144.666 -2.33658
-7.40473 116.393 11.5367
-7.83565 127.666 10.0436
-11.709 149.531 -0.459263
-7.52228 115.689 11.3217
-13.1067 130.851 -3.20423
-11.9024 148.874 -0.654031
-12.7548 91.7525 -0.613716
-9.18408 135.823 6.64442
-9.14612 135.466 6.78662
-12.4697 146.182 -1.89535
-8.32092 130.854 9.1086
-11.875 77.6232 2.2601
-12.8864 94.0331 -0.867349
-12.8631 91.6243 -0.668226
-13.0154 123.941 -2.27485
-9.52019 140.783 5.89553
-13.2258 135.923 -3.17131
-13.2056 95.2548 -1.51278
-8.49715 92.8211 10.3759
-11.9466 85.0967 2.13512
-7.33552 123.449 12.2128
-9.4095 138.436 6.46901
-8.87962 132.824 8.06392
-10.783 150.285 2.69394
-9.00088 132.971 7.94653
-13.1854 116.441 -1.82432
-11.9375 79.1459 2.72369
-8.19412 126.428 10.2977
-11.9241 77.598 2.83913
-13.5179 119.557 -2.73228
-14.0849 103.664 -3.47543
-10.1138 87.9635 7.19419
-12.5824 146.812 -1.08473
-14.1179 105.06 -3.30903
-8.46444 127.937 10.0161
-8.17593 112.827 11.3941
-7.77536 122.193 12.0682
-10.2708 146.327 4.93074
-12.1152 78.9893 2.93671
-8.22361 113.484 11.3605
-13.6001 90.043 -1.14604
-8.41557 97.3667 11.5646
-10.5713 148.613 4.26749
-8.12024 116.745 11.7959
-13.8781 127 -2.83524
-12.8095 146.502 -0.854237
-8.63308 100.491 11.4091
-14.4909 110.297 -3.59968
-9.11233 94.7508 10.469
-11.4377 81.007 5.23221
-8.73803 126.924 10.2396
-7.99641 123.222 12.2682
-14.2087 107.029 -2.57134
-14.5744 101.625 -3.18881
-12.3747 149.018 0.529033
-14.6378 102.181 -3.3294
-8.82507 96.073 11.4716
-14.1862 118.456 -2.72707
-12.5277 77.0273 2.99463
-9.36064 94.8436 10.288
-13.7917 133.784 -2.23867
-9.15408 130.063 9.4958
-13.6755 88.6383 -0.208091
-9.16844 130.012 9.53993
-14.2706 124.603 -2.97716
-10.9036 86.2741 7.04715
-8.30192 119.959 12.3342
-12.5675 148.645 0.602852
-12.3782 81.6527 3.6253
-8.70539 113.558 11.6086
-13.1638 84.9848 1.56944
-8.85676 108.545 11.474
-10.8152 147.136 5.1171
-14.4368 95.8179 -1.77717
-9.00565 98.984 11.8009
-14.802 127.018 -3.71597
-9.75847 130.296 8.80707
-10.242 92.988 9.12879
-14.1789 134.398 -2.22596
-12.5381 79.3639 3.96701
-9.00633 109.095 11.679
-13.0218 147.152 0.196448
-13.404 144.752 -0.657458
-14.5056 115.55 -2.29937
-10.434 137.419 7.09382
-15.1199 109.482 -3.52804
-14.7056 90.8811 -1.57969
-9.20693 99.0587 11.9204
-10.2561 94.2923 9.55857
-9.79409 95.9403 10.6529
-12.8554 148.293 1.05193
-12.2968 149.756 2.43869
-14.5546 129.987 -2.45161
-13.1665 82.824 2.9124
-13.8488 80.9692 1.34684
-9.31438 102.792 11.8633
-10.3087 132.353 8.25564
-12.9607 81.5359 3.55764
-8.91387 118.38 12.3183
-13.012 78.907 3.58499
-14.6346 130.296 -2.41035
-14.7716 96.6451 -1.45082
-13.1037 78.5818 3.41581
-8.95773 124.727 12.0371
-13.5606 78.1488 2.30281
-15.1038 114.943 -2.92115
-14.891 95.9833 -1.64119
-14.5529 131.233 -2.06875
-12.8447 148.608 1.54892
-9.39994 104.049 11.8546
-12.0885 82.7157 5.9455
-14.0171 80.7964 1.20651
-8.97956 118.63 12.3911
-9.7209 97.1093 11.3837
-14.5818 141.201 -2.39359
-14.4204 141.343 -1.98299
-15.4027 107.642 -3.15532
-14.4061 87.0146 0.189209
-9.30629 112.681 11.975
-12.9077 79.9388 4.22029
-14.933 129.049 -2.66866
-14.0831 140.677 -0.829637
-13.7752 80.2686 2.26699
-15.3389 105.935 -2.60807
-14.3181 141.61 -1.38641
-9.50936 107.399 11.9423
-10.5715 134.966 8.24213
-15.2431 115.662 -2.69813
-14.1557 141.074 -0.805841
-10.6196 134.969 8.30086
-13.3516 147.505 1.21175
-10.3513 128.582 9.44197
-15.596 99.6018 -2.45073
-13.8457 143.756 0.276302
-14.8532 139.19 -2.03949
-14.8181 88.4262 -0.0062181
-11.3762 144.164 6.53005
-11.1334 135.856 7.46166
-14.7748 84.9253 0.408964
-14.1823 143.227 -0.3182
-15.6275 123.996 -3.18748
-15.4611 95.3837 -1.66726
-15.449 119.222 -2.52601
-14.841 87.2638 0.217855
-15.3318 89.8864 -1.08405
-10.2349 97.6713 11.3663
-15.6254 92.442 -1.85366
-15.955 115.077 -3.36648
-13.7684 80.3384 3.44877
-9.46788 121.012 12.6871
-9.90223 111.963 11.962
-16.1665 101.591 -3.23958
-10.6753 128.008 9.51597
-9.85514 113.671 12.1315
-9.94944 111.244 11.9978
-10.0227 106.714 12.0831
-10.0071 107.257 12.1019
-13.634 147.313 1.52245
-9.63464 118.452 12.6221
-15.5932 96.2805 -1.41912
-12.5252 87.2605 6.67792
-13.4323 148.164 2.14875
-12.9139 149.21 3.43654
-14.0768 82.0225 3.09417
-10.2136 104.146 11.9977
-16.4971 111.516 -3.9589
-11.5318 136.84 7.65049
-14.2055 79.6799 3.16514
-14.1675 81.3556 3.3307
-13.3939 82.4433 5.23249
-11.4456 133.644 8.2207
-15.2552 83.3022 0.636781
-16.0354 126.336 -2.91477
-15.4892 81.0454 0.221762
-16.042 95.2231 -1.55072
-14.417 142.383 0.827946
-16.2731 90.9327 -1.7675
-15.3689 82.9359 0.805031
-10.423 112.254 12.102
-11.9851 142.234 7.07841
-10.0494 122.869 12.663
-10.2801 124.595 12.0742
-16.0326 128.649 -2.40719
-14.8131 76.3854 2.77071
-16.2466 124.633 -2.64345
-16.5699 99.7643 -2.42474
-10.4413 114.145 12.3713
-11.762 95.4661 9.79596
-10.2057 118.416 12.8384
-16.0846 136.26 -2.49027
-10.6222 107.625 12.2577
-12.8852 91.2531 7.31625
-15.8565 80.1423 0.356902
-16.9244 115.869 -3.64102
-16.0861 135.501 -2.23813
-13.3888 88.8332 6.28133
-14.5387 80.3321 3.80885
-10.9024 103.176 12.0327
-11.4449 97.5869 10.937
-10.4356 123.819 12.4732
-15.4371 138.09 -0.521664
-10.615 114.747 12.4379
-11.7727 125.718 9.1946
-16.7057 118.526 -2.8123
-16.4391 96.1446 -1.26746
-12.5308 93.9076 8.59988
-12.702 92.6565 8.26007
-16.436 125.987 -2.28513
-15.9555 75.4544 0.854256
-16.6721 124.095 -2.72844
-11.7496 127.329 9.45554
-15.7309 81.8392 1.29998
-15.196 80.5411 2.70511
-15.3668 76.5372 2.44196
-16.5578 96.7741 -1.27843
-14.0068 83.3676 5.62189
-17.0389 117.346 -3.17076
-14.2251 147.611 2.7287
-11.2265 102.722 12.0221
-16.0829 79.5625 0.795525
-16.4685 89.3109 -0.437731
-13.6933 90.1717 6.47809
-16.9142 123.463 -2.83416
-11.9837 129.654 9.33652
-11.3691 101.294 11.9596
-14.6122 82.2987 4.59208
-16.7173 125.931 -2.32408
-16.0201 75.764 1.35612
-12.2608 132.556 8.63736
-17.1552 118.165 -3.04714
-14.0106 87.0182 6.03599
-12.4804 139.94 7.85025
-17.5281 114.981 -3.76775
-14.418 146.844 2.836
-16.8701 124.164 -2.42153
-11.2771 105.041 12.2998
-11.252 105.907 12.3355
-12.1319 127.271 9.40023
-16.9772 96.7586 -1.46305
-17.0034 96.7632 -1.47515
-15.954 79.8211 1.81396
-11.8257 125.165 10.4825
-13.5342 147.932 5.39425
-15.9785 137.918 -0.320017
-16.7124 75.5635 0.227119
-12.673 95.8979 9.6083
-15.9292 138.959 -0.157728
-15.7417 80.8326 2.55518
-15.9553 78.8972 2.18581
-14.3566 86.7673 5.88688
-12.7598 95.8615 9.53735
-17.1373 121.711 -2.36891
-16.6606 85.7132 0.211203
-16.7562 88.5575 -0.0753854
-15.1837 143.868 1.79452
-15.5618 141.263 0.970854
-16.165 81.0183 1.77488
-16.1715 79.3048 1.83076
-17.2826 123.738 -2.62572
-13.4604 146.945 6.10443
-13.4703 92.8966 8.19817
-11.5958 123.445 11.8512
-12.3446 98.2909 10.9385
-12.8245 96.4766 9.92517
-16.9377 88.1172 0.0151528
-12.5478 124.501 9.64159
-18.1154 112.153 -3.77868
-17.0245 135.212 -1.90249
-18.1354 111.741 -3.78238
-18.1431 116.626 -3.97486
-15.6501 142.721 1.27323
-11.2817 120.933 13.0709
-15.2997 144.172 2.14818
-14.8004 86.9335 5.63397
-16.5498 80.1052 1.56514
-17.5473 123.057 -2.51941
-16.318 139.161 0.027218
-17.8291 120.076 -2.98598
-12.2633 101.01 11.6522
-17.109 135.204 -1.75197
-11.3609 118.428 13.2713
-17.8496 91.7034 -1.91968
-12.1671 101.973 11.9015
-12.7342 137.055 9.18626
-12.9699 127.164 9.0325
-17.6502 122.988 -2.46583
-17.1688 128.45 -1.42083
-17.8868 96.1678 -1.97008
-17.6708 123.853 -2.44521
-14.8867 147.119 3.75546
-18.1469 106.791 -2.78182
-18.1362 107.39 -2.69786
-14.7851 90.0683 6.35574
-13.986 93.7022 8.29464
-16.2849 80.4134 3.07177
-13.0235 130.972 9.35438
-12.8969 123.817 9.99342
-17.8547 123.392 -2.35919
-15.4584 144.841 2.81824
-17.7131 125.348 -2.0585
-11.6455 118.913 13.3804
-16.0122 81.4701 3.93452
-17.4251 134.992 -1.54726
-16.6905 78.3532 2.46718
-12.2752 107.342 12.4287
-14.2728 92.6927 7.99732
-12.0592 122.108 12.45
-17.5325 86.1993 0.180922
-13.0831 129.503 9.68442
-15.0623 147.169 4.07514
-14.728 91.294 7.03916
-15.4971 88.3004 5.26925
-12.6044 103.944 11.9295
-14.4927 147.302 5.57341
-18.4014 106.71 -2.6377
-13.3359 139.81 8.8165
-14.1911 94.7735 8.40532
-13.5376 142.616 8.30718
-16.5228 139.925 1.02314
-12.3853 108.669 12.5595
-13.0157 100.864 11.2835
-18.1561 80.7578 -0.747665
-16.6847 139.573 0.738728
-18.197 90.386 -1.11272
-17.6513 135.08 -1.31597
-18.7176 102.89 -2.53382
-13.1307 102.059 11.4701
-18.9704 113.232 -3.53343
-12.3347 121.495 12.9967
-17.2908 78.5147 2.24237
-12.4764 120.054 12.7963
-18.3252 129.854 -2.17655
-13.3398 102.331 11.4144
-18.2187 128.987 -1.78038
-16.9196 139.734 1.07868
-18.1593 86.2156 0.0394078
-18.1063 130.638 -1.49171
-18.821 105.729 -2.32995
-18.9709 92.0206 -2.17946
-13.9289 98.1871 10.2165
-18.7254 77.1448 -0.940932
-18.825 118.744 -2.73078
-17.7022 137.9 -0.631727
-13.3676 103.166 11.5288
-18.3501 128.506 -1.79786
-18.1116 126.869 -1.0994
-16.2798 144.522 2.87352
-18.814 119.789 -2.51585
-16.5423 82.8185 4.60698
-18.807 101.608 -1.75926
-13.1908 107.661 12.1322
-12.7081 116.183 13.079
-13.9309 99.8349 10.6507
-14.1381 98.4495 10.2063
-19.2804 77.3424 -1.81408
-12.97 110.639 12.7083
-14.0459 141.113 8.89394
-18.7341 130.476 -2.32652
-18.9937 79.8009 -0.961856
-13.0564 110.575 12.7395
-18.2515 132.71 -1.04764
-14.0885 130.758 9.44721
-16.7967 83.6326 4.62722
-19.4306 98.9626 -2.53851
-18.7786 84.9664 -0.319461
-13.8709 102.994 11.2685
-18.4627 130.394 -1.24814
-15.3886 93.1276 7.85931
-18.6635 86.7569 -0.0393319
-16.0954 90.1004 6.32137
-18.064 77.2725 1.9258
-13.1062 115.377 12.8752
-13.1803 118.041 12.6863
-19.0022 132.257 -2.36991
-18.8501 89.4818 -0.361886
-17.8435 138.595 0.321083
-19.0714 121.732 -1.99306
-13.9645 104.47 11.4492
-18.7328 126.66 -1.29311
-13.9865 104.418 11.4323
-19.239 105.843 -1.73266
-15.4698 146.392 6.18944
-15.0524 96.6303 9.13355
-19.0954 121.996 -1.89645
-14.768 98.1139 9.84963
-14.3651 101.367 10.7562
-18.4713 131.625 -0.591782
-13.5227 118.458 12.3501
-18.7006 135.157 -1.12467
-17.4487 141.259 1.78057
-14.0291 106.322 11.6691
-19.391 79.8898 -0.713656
-14.9349 144.356 8.01809
-19.7393 108.771 -2.60614
-15.1181 97.1229 9.40931
-14.5878 132.207 9.44099
-18.7436 129.658 -0.836324
-18.4726 131.288 -0.15097
-19.2367 120.96 -1.62026
-14.5383 129.753 9.8266
-14.5237 129.492 9.89333
-18.9387 132.318 -1.22641
-14.6843 139.178 9.17587
-15.4008 145.524 7.15699
-14.7931 131.127 9.27849
-13.7657 113.229 12.5513
-19.5609 105.863 -1.61526
-13.7685 112.341 12.6884
-15.3991 96.935 9.19991
-19.0155 119.457 -0.691305
-13.7814 114.995 12.5713
-16.357 146.43 4.95785
-20.0224 116.772 -3.07271
-15.3458 144.944 7.67767
-18.6471 78.6523 1.98389
-19.5133 130.809 -2.15937
-19.9453 117.58 -2.71702
-19.5444 89.9637 -0.648236
-14.0223 122.228 11.9759
-13.9992 121.386 12.071
-19.3247 80.4892 0.387879
-19.8145 79.9662 -0.805596
-14.3208 122.895 11.3166
-19.0671 119.434 -0.406331
-19.7596 128.961 -2.42773
-14.9756 142.376 9.02116
-20.1999 82.3199 -1.56629
-14.378 119.604 11.6605
-19.8839 118.186 -1.93071
-15.1006 132.205 9.4991
-20.1899 101.252 -1.99195
-19.0363 130.939 -0.225246
-19.9264 104.135 -1.36382
-14.4963 119.359 11.688
-17.9119 83.9751 4.50887
-20.8182 77.77 -2.44418
-20.3968 111.952 -2.68201
-18.2156 82.9836 3.87541
-19.655 122.35 -1.15387
-19.3006 121.659 -0.144798
-19.7259 80.0191 0.388529
-20.0302 128.915 -2.21569
-16.6624 93.8399 7.55159
-20.4651 84.3821 -1.58167
-14.6314 121.508 11.6083
-19.0712 81.5209 2.08264
-14.464 115.539 12.3404
-20.5677 100.727 -2.34632
-20.009 88.825 -0.483496
-20.4998 91.8508 -1.80665
-15.285 125.073 9.97229
-14.8181 116.167 11.4802
-20.7678 99.3169 -2.73252
-18.1041 84.2077 4.50172
-14.883 112.014 11.5742
-19.779 120.502 -0.944862
-19.7571 80.8583 0.648049
-20.9525 95.7843 -2.78013
-14.9622 112.693 11.6041
-17.7815 144.226 3.3786
-20.6244 113.34 -2.54705
-17.9916 90.2135 4.91407
-16.8985 94.376 7.62225
-19.8128 127.551 -0.810457
-20.8377 100.758 -2.33012
-18.7978 82.9542 3.48143
-15.8816 114.485 9.58708
-16.6445 96.4375 8.46369
-17.3759 92.8188 6.8552
-21.1801 76.2785 -1.99605
-18.3511 142.525 2.62277
-20.8231 112.674 -2.41584
-15.7003 113.651 10.3801
-21.2496 76.4326 -2.06172
-16.102 114.586 9.43204
-16.3635 124.698 8.43364
-20.8715 112.846 -2.37509
-21.0524 76.8555 -1.34996
-20.9969 84.9747 -1.51133
-20.6037 104.757 -1.27808
-19.5701 122.987 0.641328
-15.8413 134.844 9.73308
-20.4 124.821 -1.2297
-16.366 126.717 8.8807
-21.0809 91.0709 -1.51443
-16.0805 141.197 9.09826
-15.9861 123.991 10.0073
-20.545 120.968 -1.19016
-18.5368 91.312 4.97905
-19.9361 119.471 0.427325
-19.7696 122.884 0.724131
-20.2273 121.18 -0.35478
-21.0661 112.51 -2.1213
-18.705 141.841 2.674
-16.0377 123.413 10.0817
-21.1557 85.4749 -1.24534
-19.1432 138.442 1.77372
-19.8362 124.076 0.59248
-20.0466 123.793 0.279562
-16.0779 126.315 10.1061
-19.7443 123.563 1.10495
-20.3809 124.054 -0.460383
-16.3991 124.161 9.52037
-16.9004 124.16 8.30003
-16.5292 103.141 10.0742
-21.2126 112.142 -1.95413
-16.5071 126.316 9.28829
-20.1242 123.064 0.382452
-20.557 121.914 -0.653087
-16.9348 144.156 7.58955
-16.393 105.486 10.4543
-19.6351 121.055 1.77635
-17.2996 113.436 8.02012
-21.2879 111.959 -1.86796
-16.6068 104.01 10.1931
-16.3778 108.318 10.611
-21.2194 126.17 -2.1573
-22.0081 78.2188 -2.23878
-16.421 109.392 10.575
-16.5889 141.491 8.99642
-21.7652 99.1249 -2.27204
-21.2328 125.532 -1.90608
-16.7794 125.879 9.21939
-17.2658 124.325 8.06811
-20.8434 135.583 -1.27092
-17.5392 114.157 7.8401
-21.3379 104.651 -1.29277
-21.5635 103.35 -1.79219
-19.4239 86.2153 4.27621
-19.4368 85.7195 4.28305
-17.3106 100.669 9.23807
-17.1079 110.963 9.44463
-21.7035 78.0611 -0.792138
-21.3942 123.941 -1.65031
-16.8073 130.747 9.65612
-21.6005 109.419 -1.48471
-17.9586 96.3064 8.12097
-16.4485 118.69 11.0683
-17.6947 111.372 8.29769
-17.8128 144.177 6.75802
-21.6733 82.5716 -0.489125
-19.704 139.154 2.30834
-17.5848 100.841 9.08572
-18.2889 111.957 6.94829
-20.1303 137.094 1.39701
-18.0434 144.215 6.37247
-19.7985 138.784 2.20224
-21.9623 129.37 -2.81895
-18.2594 111.405 7.18432
-21.8084 87.0838 -0.740891
-20.418 121.239 1.45039
-21.1357 124.191 -0.432115
-21.9983 100.372 -1.5747
-19.7496 90.905 4.40827
-21.4949 114.498 -0.850113
-20.8821 123.914 0.361286
-20.1629 121.936 2.23684
-18.1704 110.219 7.68947
-20.1895 84.3449 3.66814
-18.5693 113.338 6.66308
-22.0864 102.89 -1.66021
-17.3665 116.341 9.68073
-22.1549 99.3278 -1.64195
-21.6589 114.305 -0.965624
-18.6117 113.573 6.70298
-22.3189 97.0049 -1.92504
-18.4572 109.521 7.33783
-17.5274 107.625 9.75966
-17.669 108.977 9.35444
-21.0191 82.478 2.02523
-20.5427 117.665 1.88113
-17.9979 123.249 8.035
-17.5273 124.371 9.20316
-21.0884 115.998 0.631995
-20.4123 89.3596 3.35225
-21.1025 118.076 0.548891
-20.9254 83.168 2.32557
-18.8456 94.8048 7.10858
-22.6092 90.849 -2.11832
-18.4347 97.1793 8.08313
-20.3609 118.869 2.44942
-21.3119 116.97 0.22342
-22.2842 98.9558 -1.52108
-17.9851 103.079 9.10773
-18.6085 96.448 7.81196
-17.3589 118.725 10.0984
-20.3833 119.766 2.50698
-18.7306 108.978 7.05836
-20.4433 117.982 2.45312
-20.672 120.986 1.78717
-17.4434 118.736 10.008
-21.66 123.061 -0.694809
-22.5456 80.4571 -1.28105
-20.846 122.019 1.40037
-19.0704 94.7098 6.9033
-20.7489 120.259 1.73792
-17.7375 124.577 9.17635
-20.6952 84.3823 3.31502
-22.5186 97.6479 -1.72952
-17.3998 138.034 9.6228
-22.5033 80.4444 -0.913814
-22.0345 112.633 -0.940762
-19.4787 94.0996 6.17247
-20.8068 124.074 1.78869
-18.4617 107.686 8.32533
-21.6613 124.22 -0.300349
-17.7694 118.66 9.65212
-18.8011 108.18 7.47709
-21.6768 124.201 -0.290978
-19.36 108.957 6.0851
-20.8032 122.024 2.02267
-20.7525 117.113 2.34767
-20.7099 86.2489 3.72213
-21.1606 123.959 1.19401
-20.5375 138.057 2.22792
-22.267 99.415 -0.626702
-22.1031 123.853 -1.12597
-23.01 93.3626 -2.23274
-18.241 107.391 9.17463
-20.5585 122.034 2.89854
-22.4033 81.6335 -0.151701
-18.0677 141.722 8.41618
-17.9249 140.497 8.82562
-18.3611 119.685 8.56135
-18.9472 107.845 7.56138
-17.7377 131.014 9.71793
-19.1233 96.6793 7.58556
-22.3752 78.6772 0.230635
-22.6484 92.8786 -0.982997
-22.1174 123.523 -0.789455
-18.4495 106.903 9.02879
-20.8568 121.855 2.44818
-21.8151 124.274 -0.00391667
-22.8283 93.3683 -1.34013
-19.6168 113.234 6.01749
-20.2662 140.978 3.39211
-22.5545 101.942 -0.83555
-19.0834 107.504 7.66304
-19.611 110.974 6.22233
-22.3769 125.606 -1.24203
-21.4103 124.889 1.2963
-21.7815 114.392 0.782838
-18.7017 118.424 8.33359
-22.8882 127.395 -2.44679
-18.1001 139.356 9.08133
-22.3868 108.655 -0.401343
-18.7761 118.436 8.2579
-21.4027 122.089 1.56797
-22.4965 105.548 -0.536229
-19.2724 120.735 7.25127
-19.0596 104.394 8.42778
-22.26 94.0865 0.840202
-22.0258 124.218 0.293766
-23.0379 94.3472 -1.04268
-22.2042 94.3094 1.04409
-21.7752 122.984 1.02713
-19.9345 114.431 6.14743
-19.6923 107.315 7.04141
-20.6422 121.111 4.181
-22.4787 112.894 -0.0659514
-21.2463 91.2242 3.86696
-22.2674 94.0069 1.23097
-20.5347 108.031 5.06755
-19.3077 105.92 8.25902
-19.2078 123.989 7.85906
-18.0234 126.282 10.7766
-21.2933 91.3251 3.95426
-22.8345 82.715 0.455926
-19.1484 123.789 8.14491
-22.7134 102.689 0.0421299
-22.8509 124.214 -0.948944
-21.1195 138.564 2.85725
-21.6698 121.091 2.14838
-22.434 92.7374 1.36549
-20.19 117.716 6.03756
-22.4542 113.561 0.538847
-23.0474 80.2631 0.371449
-18.395 130.396 10.167
-22.9263 95.7798 0.173506
-23.0625 97.09 -0.213365
-22.7341 101.769 0.442518
-22.6033 135.205 -0.395473
-20.0194 106.081 7.22327
-21.854 123.57 2.06974
-18.7569 135.7 9.35892
-22.7708 108.524 0.414368
-19.5348 122.785 7.97846
-23.0396 97.6744 0.208839
-21.4045 93.1582 4.48239
-22.7824 108.58 0.466323
-22.0003 119.078 2.0701
-21.6055 120.966 3.06573
-23.0356 132.648 -0.949591
-20.8225 107.087 5.55822
-21.3914 119.765 3.75573
-20.4236 106.344 6.69129
-22.3904 102.985 1.91925
-20.4693 120.754 6.05016
-20.5223 98.0366 6.79432
-21.7713 121.344 2.81151
-18.4796 126.11 10.9347
-20.4912 99.2707 6.93903
-23.2786 124.212 -0.764174
-23.0346 134.366 -0.515683
-23.8584 129.424 -2.37194
-22.2283 95.128 3.10441
-23.979 86.4906 -0.883389
-23.5599 130.53 -1.49414
-22.2994 97.1934 2.93511
-23.9016 90.2535 -0.74067
-19.3629 122.633 9.3917
-22.1585 92.548 3.59626
-22.1836 92.1556 3.60156
-21.6138 137.615 3.31383
-23.0133 97.5096 1.35014
-21.8369 119.309 3.47954
-22.7204 91.9425 2.36386
-20.9579 105.598 6.2683
-22.9744 97.5845 1.54583
-21.2391 117.872 5.14484
-22.9859 107.846 1.17644
-22.0675 121.304 2.96985
-22.4168 118.792 2.2502
-21.6995 119.275 4.05863
-22.1715 107.005 3.35889
-20.5893 121.087 6.79577
-22.3817 92.871 3.39253
-21.5487 121.792 4.42934
-20.5042 121.907 7.08073
-21.2825 105.575 5.80086
-21.4585 96.6272 5.70661
-22.9871 85.9694 2.31671
-21.3614 138.963 4.38226
-21.172 104.379 6.22177
-22.4761 108.593 2.83495
-21.1682 116.39 5.85337
-23.0429 98.2747 1.86269
-22.8527 99.3726 2.30764
-22.4484 103.234 3.22305
-21.2585 102.779 6.25202
-22.7675 106.557 2.3558
-21.6256 111.993 5.02344
-22.6034 135.748 1.69848
-22.6849 124.443 1.94088
-22.7888 99.5073 2.64815
-23.182 85.6291 2.23481
-23.9414 91.0812 0.1743
-21.1662 122.04 5.9351
-23.9163 126.721 -1.001
-22.1811 110.498 4.02222
-22.9909 107.491 2.1483
-21.3614 122.391 5.70021
-21.7619 121.069 4.76063
-24.3206 86.8183 -0.311882
-21.2364 122.166 6.09585
-21.8877 112.609 4.83772
-21.4995 139.44 4.83243
-23.1631 109.058 1.83998
-23.8295 89.5436 0.917109
-24.3142 87.7809 -0.150821
-19.4984 123.476 10.5671
-22.015 137.427 3.96476
-22.673 105.136 3.56331
-24.2681 89.5314 0.169959
-20.8594 140.528 6.81147
-19.9527 131.095 9.51465
-23.0561 109.686 2.58991
-23.0829 110.038 2.59245
-22.8416 111.709 3.18805
-22.3137 102.062 4.90298
-20.7975 122.072 7.99235
-23.0541 135.638 1.89801
-20.4389 121.207 9.00742
-22.756 102.808 3.99681
-22.5515 101.196 4.59157
-21.4965 122.489 6.46205
-22.6411 101.541 4.45745
-24.5095 86.1866 0.490429
-24.693 81.9235 0.233342
-21.6043 121.076 6.52676
-20.092 129.499 10.2356
-21.2735 122.597 7.61553
-24.2495 130.708 0.0281456
-24.6714 87.2119 0.662247
-24.7306 82.7735 0.736574
-20.0508 128.247 10.7496
-23.5862 134.084 1.78201
-20.1835 128.706 10.5698
-23.7243 134.814 1.60589
-20.8991 136.631 9.23675
-21.1778 121.006 9.35896
-20.8312 129.503 9.90524
-21.1848 132.359 9.01947
-25.0153 126.125 -0.0447294
-21.3943 134.128 8.97229
-25.2156 124.746 0.150634
-21.5147 136.625 8.96302
-21.6505 133.484 9.03697
-24.4599 132.533 2.10867
-23.2815 120.206 5.56225
-24.1071 133.396 3.02397
-24.8538 123.458 2.01515
-22.1061 136.715 8.52632
-25.4638 129.828 0.504479
-25.2957 130.656 1.06689
-23.3965 137.651 5.83348
-25.4579 123.713 1.22565
-22.2942 135.456 8.76769
-21.4516 125.212 11.5106
-22.5002 120.909 9.25484
-24.3902 133.735 4.21253
-21.5988 125.281 11.5209
-21.9802 123.317 10.6867
-22.2076 127.876 10.0278
-26.309 124.574 -0.0046018
-24.6117 133.354 4.09686
-23.8271 121.27 6.62968
-22.4399 121.281 10.1733
-23.1385 136.077 8.1758
-26.3209 125.853 0.789632
-22.2574 125.695 11.1065
-26.7476 127.097 -0.130208
-26.1614 122.867 1.57668
-26.4573 123.6 0.907255
-23.3947 134.367 8.24274
-23.7953 136.169 7.29069
-24.0591 135.092 6.68771
-22.4838 125.749 11.0217
-23.9003 122.341 7.71041
-23.1666 120.906 10.0223
-23.006 125.889 10.8176
-25.8221 131.682 3.59607
-23.1122 122.757 11.0779
-25.1669 133.433 5.6404
-24.2561 131.585 8.12766
-23.1597 124.377 11.2276
-23.3513 124.634 11.1322
-27.9567 122.916 -0.186417
-23.8969 128.313 9.76327
-23.4324 122.808 11.2733
-23.5815 125.302 10.9673
-27.0739 129.727 2.51533
-24.9337 131.59 8.08985
-23.9359 123.483 11.1186
-27.4846 126.168 2.20146
-28.3694 125.198 0.597549
-28.327 126.945 0.931725
-24.3453 123.755 11.0112
-26.0045 132.474 6.61351
-28.5903 126.239 0.519212
-28.8417 121.841 0.132425
-25.3902 130.062 8.65914
-24.5549 123.51 11.0255
-27.7859 123.777 3.17013
-26.6236 126.547 6.00987
-27.2504 125.536 4.74227
-29.055 122.84 0.657013
-29.1311 124.244 0.479638
-29.1394 123.148 0.544013
-29.1299 121.541 0.654952
-27.3619 127.565 4.88443
-26.479 130.513 6.98209
-28.204 122.109 3.03299
-26.9647 130.17 5.83179
-25.8722 129.987 8.73386
-26.3781 130.095 7.5008
-28.2426 122.747 3.1509
-28.1929 123.114 3.46219
-26.0069 127.446 8.94066
-25.7173 119.97 10.0309
-25.6912 127.853 9.88763
-26.6555 128.519 7.53475
-25.9224 126.837 10.1102
-28.3664 121.618 4.20094
-25.9175 123.174 10.8574
-28.2405 124.261 5.20302
-26.2472 125.639 10.2127
-26.6831 120.179 9.38259
-27.0673 125.077 8.55749
-27.4398 124.595 7.69172
-26.6705 119.37 10.0888
-26.3725 121.226 10.7721
-27.4875 124.481 7.89907
-26.822 125.302 9.75588
-28.2532 123.83 6.4791
-27.1744 120.281 9.44566
-27.3647 120.494 9.27042
-26.9552 123.237 10.2982
-29.4719 121.693 4.13487
-26.9853 121.523 10.7343
-28.9522 122.956 5.94375
-28.2918 120.995 8.12165
-27.6943 119.718 10.3436
-29.1567 121.759 7.11039
-29.2728 121.972 7.59669
-28.6962 121.419 9.34221
