ply
format ascii 1.0
comment Created by Open3D
element vertex 1821
property double x
property double y
property double z
end_header
-5.88048 113.815 0.024179
-5.38818 86.7641 8.7944
-1.19853 118.516 10.3742
-7.55844 82.119 4.77684
-13.6159 78.0719 -9.10602
-4.27906 137.874 -2.52805
-1.54962 145.275 2.28918
-3.79975 142.239 -2.39058
-2.66878 117.092 7.5286
-2.63865 103.668 11.3886
-3.91964 113.639 5.45263
-4.19595 93.6999 10.3662
-3.49555 115.105 6.18935
-4.95159 123.056 0.373704
-3.60785 97.0552 11.0339
-1.97818 117.934 9.28539
-3.50008 115.1 6.30621
-3.02706 130.546 3.19685
-10.8465 106.283 -9.46338
-14.0976 76.9841 -9.36803
-12.1918 83.4912 -6.44231
-4.35085 112.432 5.01288
-3.85882 149.39 -4.03354
-1.94391 110.818 11.4595
-3.25497 129.911 2.91312
-2.61811 105.113 11.4288
-7.72084 124.331 -6.55039
-5.6084 119.693 0.0115
-5.3905 121.278 0.178711
-1.66591 115.753 11.0011
-2.64088 143.096 1.0059
-6.08884 110.144 1.60752
-5.71381 110.071 2.56619
-11.6233 94.6513 -7.7251
-4.18698 147.831 -4.02285
-5.54545 120.786 0.130063
-4.36745 126.547 1.45884
-5.47759 109.926 3.35233
-2.05537 111.266 11.5147
-5.43069 109.896 3.51001
-7.88254 124.259 -6.48269
-9.9382 115.309 -9.08627
-1.93814 141.194 3.60862
-4.83749 111.137 4.7698
-10.8904 108.373 -9.4816
-6.22052 109.639 1.78723
-3.48793 115.098 7.09493
-1.96784 115.438 10.7957
-2.96706 142.982 0.713396
-4.12112 95.7005 11.0022
-8.72033 121.788 -7.63959
-5.05997 123.928 0.87201
-13.5322 80.2774 -8.01679
-3.69851 100.143 10.9362
-4.58516 94.2164 10.4131
-6.65504 130.913 -4.88668
-2.767 116.254 8.93009
-3.80794 100.013 10.8936
-4.55088 94.7188 10.5869
-7.79232 125.481 -5.98578
-9.26606 119.871 -7.96064
-4.94034 110.664 5.399
-2.92962 115.769 9.08886
-6.38828 86.7408 8.60856
-3.49304 114.815 8.00855
-5.36861 109.202 4.94064
-6.53753 108.305 2.29395
-7.69118 82.9519 6.48576
-8.24394 82.6721 5.22329
-12.2716 92.7279 -7.55677
-4.29086 97.6798 10.899
-11.4095 104.852 -8.76155
-5.04898 140.799 -2.88852
-5.58693 108.488 4.80927
-3.90104 114.016 7.48324
-4.34703 98.2259 10.7917
-6.58645 117.569 -0.140004
-11.2709 109.014 -9.38172
-3.05546 115.327 9.29599
-4.53297 150.149 -4.05592
-7.40221 108.324 0.693444
-5.95572 107.895 4.41655
-4.49405 111.92 6.93034
-5.33024 141.058 -3.19572
-12.9017 83.7531 -5.96048
-3.53508 114.109 8.99434
-5.43269 139.047 -2.62358
-5.56408 92.495 9.99686
-3.76038 102.858 11.5962
-5.35573 94.0177 10.1559
-3.86785 113.576 8.48127
-11.647 102.279 -7.68655
-7.70771 107.174 0.881641
-6.96328 132.156 -4.21482
-2.87029 138.327 4.24824
-2.83595 144.184 2.71669
-3.3457 114.11 9.85593
-3.42518 106.71 11.7249
-3.08598 113.68 10.7451
-11.521 110.513 -9.28126
-3.65845 105.524 11.694
-4.73962 111.286 7.45138
-9.42034 121.509 -7.01027
-5.81808 93.2315 9.97197
-8.23828 108.339 -0.227756
-9.9616 119.438 -7.57473
-12.1062 105.296 -8.94602
-4.49995 112.052 8.19818
-4.91667 110.826 7.51096
-3.90779 113.006 9.44557
-3.14517 137.403 4.55746
-7.50951 106.524 2.30617
-3.56881 143.111 1.93299
-7.52201 86.1633 7.96046
-6.91165 89.2475 8.65288
-8.11991 110.711 -0.29871
-10.5266 117.704 -8.149
-3.98382 154.232 -2.01682
-6.56942 90.5852 9.3015
-5.41131 108.981 7.10271
-6.71276 106.709 4.52937
-4.55774 111.892 8.52873
-12.1672 102.037 -7.59498
-13.1576 85.3071 -5.3682
-12.3767 105.467 -9.0174
-3.64215 109.609 11.5601
-7.18692 133.022 -3.6994
-6.34658 135.726 -2.34964
-8.36392 110.473 -0.322082
-8.19973 112.323 -0.329664
-12.2377 100.274 -7.00532
-6.08057 137.321 -1.98566
-8.65708 108.503 -0.269655
-12.5473 96.2222 -6.4501
-8.19895 128.904 -4.68343
-8.45416 84.6965 7.00581
-4.26173 130.44 4.75183
-6.30635 137.218 -2.11983
-6.40333 93.4676 9.80962
-6.23706 94.9473 9.9632
-4.70253 102.755 11.6106
-6.73195 121.756 1.29142
-9.00626 125.344 -5.29564
-7.58909 118.145 0.31735
-9.37707 83.2362 5.61412
-6.81376 121.658 1.32635
-5.1895 142.416 -0.387557
-13.5562 87.3034 -5.83768
-7.6943 117.551 0.323576
-4.89054 102.855 11.45
-13.7771 89.9779 -7.00111
-8.30956 86.5202 7.55866
-6.71935 122.274 1.57057
-13.1154 94.2851 -6.48096
-5.89419 107.405 7.86076
-5.80481 107.438 8.10829
-4.55152 110.802 10.3051
-7.67168 105.779 3.98101
-13.656 86.7173 -5.39051
-5.9697 125.837 2.93375
-13.1225 95.0527 -6.2693
-5.09121 153.427 -2.4976
-6.91728 144.402 -4.50415
-7.37956 91.3405 9.12235
-6.9513 143.865 -4.38937
-13.714 91.8551 -6.72551
-7.49859 133.757 -2.91285
-14.2901 83.2912 -5.68656
-10.0018 122.213 -5.83151
-8.03439 131.86 -3.61001
-3.99402 136.389 5.19091
-3.95659 142.286 3.65633
-11.8982 114.986 -8.41961
-9.75271 103.851 0.066855
-5.53696 101.79 11.1314
-13.4068 94.3159 -6.3363
-7.11481 135.043 -1.97215
-11.7996 83.6117 0.698959
-7.47981 105.93 5.2621
-7.00566 122.368 1.93826
-7.08444 148.181 -5.419
-5.12408 109.571 10.1932
-13.3633 94.9788 -6.19338
-8.87574 128.585 -4.30034
-8.22932 131.928 -3.4343
-7.30102 147.124 -5.34917
-7.0706 95.3169 9.69402
-5.56431 107.198 10.1377
-8.35709 131.532 -3.49987
-5.8782 127.024 3.92882
-4.30743 137.775 4.88689
-7.78188 140.069 -4.38295
-7.22781 94.9036 9.62291
-6.03312 100.609 11.0142
-7.01689 123.045 2.34139
-12.213 84.0926 0.276853
-7.74551 92.5528 9.07766
-7.16808 149.142 -5.20288
-5.98986 102.88 10.5982
-6.30542 142.346 -1.03526
-7.88371 92.5855 8.94819
-6.92488 98.2865 9.76481
-6.14748 126.545 3.85875
-5.57974 107.256 10.651
-7.96342 92.4821 8.8451
-10.3343 103.097 0.0655945
-11.5843 82.8568 2.61705
-6.57376 124.925 3.37398
-10.172 106.081 -0.012395
-8.21494 139.736 -4.47126
-5.31874 129.974 5.46049
-5.75975 140.828 1.3806
-12.1596 115.577 -7.48809
-4.65389 137.602 5.06703
-10.9626 83.4787 4.53678
-8.64337 104.811 4.38595
-8.36883 137.494 -4.01297
-7.91005 93.8877 9.30144
-13.7842 100.926 -7.21174
-13.9396 104.25 -8.45659
-4.82514 142.983 3.48769
-13.1261 112.117 -8.53648
-6.75012 101.052 10.4343
-13.5994 98.4898 -5.83782
-10.8567 121.286 -5.34372
-14.5829 91.5116 -6.31348
-7.07034 123.75 3.40153
-8.73743 138.309 -4.75417
-8.35978 105.049 5.46652
-12.9967 113.079 -8.19402
-13.0466 112.98 -8.21671
-10.2367 103.536 1.47648
-14.7751 87.2399 -5.22822
-7.01004 100.69 10.3652
-9.57987 128.737 -3.71665
-7.15147 142.033 -1.37007
-13.932 99.6618 -6.32001
-11.0069 102.251 0.252996
-8.47022 118.9 1.93866
-13.1353 84.9498 -0.194033
-8.50193 133.109 -1.99175
-7.93456 120.955 2.79987
-6.67828 126.377 4.45641
-8.64803 143.925 -5.2777
-9.04969 138.65 -4.79819
-5.06329 134.723 6.23846
-9.24724 116.371 1.00885
-6.56747 126.921 4.81487
-12.4607 115.848 -6.73983
-8.75337 142.601 -4.95077
-14.1836 109.371 -9.06772
-15.0662 91.0246 -6.13346
-14.1914 109.415 -9.06479
-9.9819 127.903 -3.69266
-15.1656 87.6013 -5.34911
-14.1517 97.8164 -5.54916
-15.1661 90.7625 -6.10176
-9.40863 116.115 1.19203
-5.32818 134.178 6.40282
-16.5524 80.4202 -6.4831
-6.28307 128.693 5.61001
-10.2646 112.618 0.411172
-5.55812 142.013 4.04924
-7.88176 99.919 10.0243
-11.3831 87.043 4.93574
-11.0428 123.514 -4.34811
-13.4502 113.421 -7.47043
-10.0183 129.01 -3.27805
-7.15168 125.575 4.81141
-11.2918 102.164 1.04465
-16.7348 79.9858 -6.28937
-16.1211 84.3186 -5.92169
-5.78824 131.413 6.65792
-7.23794 125.171 4.79646
-10.1995 128.279 -3.41059
-14.4198 98.0092 -5.4698
-9.30333 141.139 -4.70997
-8.70406 149.197 -5.37086
-14.1256 111.051 -8.21983
-9.22332 135.446 -2.68444
-8.03513 104.755 8.84336
-6.21852 130.213 6.47298
-9.36955 131.959 -1.81152
-8.71372 149.901 -5.14398
-9.36668 135.297 -2.62865
-10.4606 113.222 0.891435
-11.5338 102.235 1.3287
-15.8641 87.8803 -5.382
-9.80421 142.385 -5.41998
-11.5176 108.292 -0.119363
-10.5941 127.933 -3.2443
-8.40667 103.581 8.98691
-9.98018 93.3473 7.92838
-8.66723 99.8018 9.39735
-7.55527 140.723 0.785889
-12.2191 101.974 -0.00377206
-15.0414 108.87 -8.89206
-12.1995 100.818 0.450016
-8.65607 150.918 -4.66803
-8.91974 150.17 -5.08579
-5.9796 137.892 5.69677
-10.0627 143.438 -5.87647
-10.0577 115.137 2.01208
-7.53785 153.142 -2.25088
-5.91578 139.48 5.58912
-15.3585 101.767 -7.3758
-9.44643 97.9298 8.47191
-11.7834 108.05 -0.0987663
-9.98383 144.955 -5.87806
-11.957 106.386 -0.0168905
-15.5515 103.532 -8.04701
-12.3566 85.6908 4.88771
-11.9641 89.4996 4.92269
-10.4684 139.53 -5.0957
-10.3366 141.583 -5.30424
-12.5015 119.614 -4.54754
-9.29148 150.219 -5.05724
-11.4072 109.873 0.929995
-11.9057 89.8651 5.29032
-6.50823 141.069 4.5274
-15.0442 110.213 -7.94987
-10.5418 139.895 -4.99004
-10.4758 113.521 2.6964
-13.1723 84.5786 4.05191
-12.8672 100.283 0.447317
-10.3598 104.148 5.60493
-12.8994 100.52 0.335275
-12.966 86.95 3.97368
-13.0588 117.844 -4.84127
-12.9072 118.727 -4.5876
-11.4615 103.271 3.31784
-10.2846 147.084 -5.89968
-12.5252 101.15 1.30919
-9.05754 119.4 4.8585
-17.9591 79.7191 -6.18628
-11.3028 136.47 -5.40901
-13.1685 99.8519 0.281043
-8.55769 121.98 5.58361
-10.961 111.544 2.5268
-10.4993 146.3 -5.89473
-6.59559 138.584 5.97466
-10.6572 104.008 5.56108
-16.1248 102.547 -7.59882
-13.282 102.293 -0.416356
-10.406 96.3043 8.39473
-10.888 134.648 -3.44966
-11.0254 111.233 2.76216
-13.0686 118.884 -4.39868
-11.5155 137.421 -5.67332
-10.4093 99.0734 7.84259
-12.5573 121.347 -3.68014
-17.8323 83.0838 -6.13261
-18.5446 79.2011 -6.76974
-13.0666 89.2031 4.08677
-10.497 114.354 3.49487
-10.5877 131.946 -1.56707
-14.6462 113.013 -6.32229
-6.90375 134.961 6.82892
-12.7367 104.757 0.754237
-7.8954 126.65 6.7059
-11.5764 135.122 -4.77604
-10.6816 104.038 6.11723
-7.09548 140.382 4.92072
-9.8116 104.423 8.24584
-16.3693 105.804 -8.30526
-11.4081 128.225 -2.21208
-10.9067 131.809 -1.64819
-16.4253 107.575 -8.61751
-10.9803 130.786 -1.49932
-16.0944 99.1292 -5.35894
-14.114 99.8221 -0.615375
-7.93482 127.391 7.07575
-14.503 84.641 2.65837
-9.60382 118.478 5.42266
-11.7107 108.923 2.87466
-7.41838 129.759 7.77475
-7.29878 139.917 5.27687
-10.9437 98.6009 7.77342
-12.5051 91.9666 5.76749
-15.309 111.549 -6.64177
-16.6338 92.335 -4.52616
-13.1545 100.913 1.74055
-17.0974 88.77 -4.6728
-13.8895 85.1766 4.30132
-15.3024 111.673 -6.54956
-14.4226 99.047 -0.799833
-13.032 121.214 -3.46723
-9.25554 120.541 6.13789
-13.3768 103.572 0.631377
-10.0386 151.215 -4.28173
-12.2331 102.842 3.7276
-9.51333 142.449 -0.527138
-13.9247 85.6427 4.36154
-12.0395 107.942 2.84537
-11.1156 99.6584 7.46037
-16.6587 93.6288 -4.50367
-11.8652 94.5439 7.16171
-16.7117 93.3497 -4.41099
-10.9583 113.709 4.23558
-11.7791 133.662 -3.31318
-10.638 103.129 8.13577
-14.4231 87.2364 3.15515
-7.6886 130.252 7.93054
-8.99367 122.658 6.80574
-14.8363 113.946 -5.26498
-11.3776 98.224 7.7754
-11.3937 111.282 4.10437
-13.4018 90.5109 4.93048
-12.1989 126.914 -2.20267
-8.84808 153.685 -1.31551
-14.699 98.5884 -0.525301
-18.8402 80.037 -5.6194
-15.8933 110.431 -6.69543
-9.02809 140.158 2.1425
-14.5878 115.51 -4.80398
-14.0963 102.617 0.0514005
-8.75022 153.92 -0.929247
-12.4579 137.894 -5.65902
-9.81774 118.835 6.26901
-12.1194 140.775 -5.48425
-9.7654 119.203 6.44716
-11.3152 148.494 -5.53499
-15.3455 87.6164 1.38874
-18.8157 81.0587 -5.37786
-15.6609 85.5213 1.25417
-15.4073 87.5512 1.33069
-9.19489 140.114 2.21374
-13.9875 99.4562 1.72293
-9.21598 122.61 7.18325
-7.87773 135.377 6.99361
-14.857 87.3568 3.06885
-11.6086 101.095 7.32137
-8.31816 127.96 8.02714
-8.00153 136.318 6.63301
-12.0481 103 5.89454
-8.71127 139.332 4.08892
-13.2059 106.941 1.93563
-14.6532 101.547 -0.127031
-14.9206 87.0758 3.26534
-8.99107 138.917 3.7442
-17.3272 93.7863 -4.32054
-15.4129 98.0256 -0.663274
-13.9945 100.3 2.24052
-9.13272 124.131 7.693
-15.2356 88.0449 2.58342
-10.3201 142.868 -0.418471
-19.1434 81.1728 -5.18132
-8.77417 126.51 7.98614
-13.3677 134.285 -5.56637
-13.6817 92.43 5.3933
-13.1413 133.469 -4.56283
-9.90388 120.351 7.13857
-14.3836 103.448 0.714321
-12.0156 101.767 7.16914
-15.2057 86.83 3.42924
-14.2378 120.498 -3.43626
-10.4014 142.693 -0.0723058
-12.3172 99.6334 7.16627
-13.4387 136.939 -5.95579
-12.3316 100.87 6.84759
-11.5351 113.123 5.42577
-16.1749 87.0337 1.15788
-17.6298 96.5081 -4.99163
-9.50855 153.818 -0.734098
-12.4589 100.964 6.79088
-11.918 110.728 5.42321
-12.4917 99.4372 7.17286
-15.4069 97.967 0.370848
-13.2555 95.979 6.34713
-14.2034 105.683 1.45705
-14.4629 104.444 1.16793
-9.03431 127.401 8.31221
-18.1355 91.3594 -4.18954
-19.876 80.3384 -5.36921
-12.8249 98.3166 7.15275
-13.661 101.915 4.11688
-10.339 119.895 7.38548
-14.3933 92.0104 5.14598
-14.1951 122.446 -2.81135
-18.0142 95.7848 -4.81459
-13.5018 140.261 -5.88386
-13.6892 137.933 -5.62657
-14.0156 101.557 3.69596
-10.1737 153.686 -1.25038
-8.71427 133.148 8.1189
-14.0798 133.06 -5.05881
-14.346 133.849 -5.90343
-18.2123 93.5798 -4.29376
-15.0798 119.35 -3.61433
-18.6198 89.0783 -3.78953
-14.3252 106.22 2.12347
-10.9003 144.523 0.0611819
-13.6833 126.073 -1.6645
-13.7456 138.802 -5.33886
-12.2817 149.232 -4.53896
-16.0564 86.5791 3.53452
-18.3706 95.0594 -4.52918
-17.8458 108.393 -6.92774
-15.9961 88.9902 3.12648
-14.1217 137.726 -5.69531
-20.4539 80.2512 -5.40243
-18.1111 107.743 -7.18052
-9.09147 134.215 7.91011
-9.61451 127.2 8.59054
-17.197 86.4667 1.15719
-9.64043 127.403 8.6464
-14.3463 106.095 2.94743
-9.29616 135.782 7.31069
-10.5059 122.281 8.14093
-9.29247 132.564 8.39468
-17.1061 113.695 -5.76058
-15.0323 104.919 1.90011
-16.9539 95.9692 -0.262826
-14.5247 136.655 -5.52215
-9.65169 129.445 8.64681
-11.1082 146.285 0.352338
-18.6412 102.307 -6.13009
-16.7903 88.5307 2.39064
-10.5586 137.864 4.16828
-14.725 95.5417 5.61256
-13.2665 147.114 -5.04561
-17.3401 87.4201 1.43896
-14.7602 105.395 2.85297
-15.0118 132.022 -5.15236
-12.3536 112.564 6.87228
-19.0625 105.357 -7.7869
-11.2977 141.507 1.45147
-14.6622 124.232 -2.07882
-10.3731 151.428 1.02183
-11.1564 140.422 2.25809
-17.0682 95.7003 0.0579146
-11.1261 153.349 -1.19337
-16.6163 99.031 0.320867
-17.0877 86.7956 2.56222
-17.6257 113.305 -6.09006
-10.0021 127.967 8.80257
-20.0302 85.2472 -4.21393
-16.6979 88.4708 3.17174
-19.0243 94.2645 -4.21361
-18.7093 107.601 -7.06634
-9.70215 137.827 6.91142
-15.3232 104.335 2.28243
-11.852 144.198 -0.13019
-12.4827 112.871 7.04526
-13.6254 106.669 5.94607
-14.8051 124.594 -1.96078
-15.1789 123.096 -2.44034
-20.7772 81.1881 -4.67672
-10.8071 150.546 0.894942
-14.0949 143.85 -5.38724
-18.8199 107.678 -7.05259
-16.6769 90.251 3.12123
-13.5498 147.167 -4.81301
-11.2344 137.949 3.5328
-14.985 124.444 -1.98761
-10.5308 138.319 5.38844
-14.568 129.381 -2.12817
-12.0535 144.369 -0.0239581
-9.94637 132.066 8.71551
-10.5402 138.368 5.59817
-14.2237 145.284 -5.43166
-13.3871 110.31 6.39684
-16.3328 120.046 -3.58255
-17.4825 116.146 -5.34045
-16.7916 100.084 0.852848
-18.1894 112.736 -6.09819
-14.7438 129.907 -2.2917
-14.2575 145.311 -5.35388
-16.0229 99.0824 3.15361
-17.1907 95.4451 1.27926
-15.5154 104.039 3.07865
-12.7036 113.707 7.39988
-13.8516 146.841 -4.64061
-17.3744 95.9847 0.764082
-21.4298 80.3984 -4.93019
-19.6045 97.1907 -5.05824
-12.4804 143.79 -0.269602
-17.069 88.3176 3.76474
-17.0711 90.364 3.23534
-15.2 135.973 -4.78728
-14.1181 106.118 6.244
-17.7112 95.8006 0.197016
-17.748 88.2917 2.26733
-17.2342 88.1115 3.63052
-11.9844 118.236 8.30306
-15.1815 131.094 -3.17657
-17.7759 95.1698 0.402169
-16.5404 101.707 1.69519
-17.6357 87.7958 2.87316
-15.3542 99.5509 5.30663
-17.8709 86.8351 2.60016
-15.8014 95.4745 5.34684
-18.4119 113.731 -6.2102
-15.9206 100.131 3.85229
-15.2404 126.901 -1.79447
-16.5062 98.2472 3.0348
-10.4393 136.571 7.51277
-12.4438 116.92 8.17234
-18.0914 88.5146 2.09181
-21.4966 83.7379 -4.94404
-19.9768 106.053 -7.35155
-18.3055 89.8806 1.305
-10.7214 137.514 6.90032
-16.8753 97.9462 2.72969
-15.8276 130.815 -3.74354
-17.9612 95.097 0.889454
-16.0764 99.8374 4.29526
-17.2467 91.6325 3.67133
-19.6187 109.1 -7.05525
-20.3169 91.5151 -3.85014
-19.8915 99.3277 -4.95218
-18.3083 97.0546 -0.370124
-15.7931 140.311 -6.06862
-16.3833 102.672 2.97479
-12.0257 149.182 0.88037
-11.735 152.526 0.694511
-17.4443 94.7648 2.58115
-18.6649 95.1643 -0.538492
-18.7677 92.1127 0.0702419
-17.6713 90.0642 3.4513
-17.9845 95.872 1.08726
-15.069 105.281 5.75018
-13.0084 140.371 1.14255
-15.9842 140.669 -6.27333
-11.4966 137.879 5.6887
-18.2351 95.6618 0.709362
-18.7204 89.2546 1.32939
-18.639 88.5303 1.80086
-19.1634 88.1591 0.601356
-15.8201 104.026 4.5093
-16.5906 130.977 -4.89585
-17.0144 93.938 4.4719
-17.5038 91.4495 4.01339
-20.2705 103.11 -6.06178
-11.277 137.599 6.74202
-16.8675 131.235 -5.31754
-18.0436 90.8111 3.01311
-20.6433 95.0486 -4.61933
-16.1424 140.54 -6.05185
-16.2068 140.848 -6.29308
-18.8476 94.61 0.0324202
-17.4341 120.391 -3.60289
-18.1982 97.7289 0.805289
-17.545 94.8841 3.2326
-20.3608 102.534 -5.86609
-18.7089 92.2276 1.11483
-12.5408 148.459 0.826042
-18.0495 90.9005 3.19905
-16.5774 98.4875 4.75715
-18.6508 91.8572 1.52388
-18.0125 97.9292 1.45107
-20.2533 105.076 -6.05821
-13.3614 141.211 1.06119
-16.3854 141.271 -6.41226
-15.1329 145.422 -4.33427
-12.7721 148.162 0.797277
-13.299 116.073 8.41392
-11.4251 136.749 7.38246
-20.6106 106.595 -7.02076
-16.4438 141.431 -6.35209
-15.2746 105.216 6.70629
-11.342 135.439 8.08345
-13.3425 151.516 -1.32109
-20.7153 103.223 -6.18626
-19.2768 92.0999 0.493433
-16.5485 125.468 -1.92127
-18.9973 88.3697 2.37914
-16.4633 126.674 -1.95654
-15.5881 104.503 6.40387
-18.7057 93.2431 1.81401
-18.5695 92.1289 2.48274
-18.6391 93.543 1.942
-18.1437 119.113 -3.9259
-18.6794 94.762 1.55613
-18.7505 91.2429 2.38316
-13.3369 138.913 2.63494
-18.9649 91.9223 1.7555
-18.148 119.574 -3.84821
-17.6383 97.9938 3.42463
-20.8679 98.4728 -4.72909
-13.4577 145.632 0.695546
-19.7785 90.0117 0.462031
-19.5564 115.787 -6.11532
-14.1143 113.885 8.03971
-21.4413 90.8287 -3.67483
-13.9173 140.05 1.44038
-18.5209 97.5987 1.84941
-11.637 131.181 9.67292
-19.76 94.0327 -0.130853
-18.9695 91.1809 2.64461
-13.4613 147.149 0.770619
-11.735 132.205 9.22431
-16.2547 143.333 -5.0912
-18.078 95.0515 3.81098
-17.5441 122.695 -2.50703
-19.0214 117.84 -4.78667
-22.8018 81.0815 -3.90025
-18.0876 94.6385 4.07437
-19.2801 93.668 1.45531
-15.4119 109.29 6.74134
-21.6214 87.4292 -2.59855
-18.5986 91.796 3.74004
-21.0926 104.802 -6.04878
-21.3523 102.158 -5.8686
-19.0848 94.8451 1.79902
-18.6631 92.1049 3.61165
-19.6323 90.5195 1.69426
-14.2928 114.707 8.23669
-13.5716 137.829 3.76239
-14.7325 148.33 -2.03183
-17.1966 101.237 4.95006
-15.2087 147.1 -2.79227
-20.0917 93.7582 -0.0502597
-19.2675 94.2188 1.90541
-13.8255 146.893 0.794187
-19.089 94.1956 2.40307
-19.3053 96.1103 1.36205
-18.7438 97.5759 2.38193
-19.6304 91.0968 1.99315
-19.3317 96.0665 1.37323
-21.6409 102.836 -6.21564
-19.3148 95.6102 1.61363
-14.0462 150.95 -0.670296
-21.0671 88.2416 -0.563823
-21.5186 100.682 -5.09667
-15.081 111.862 7.81331
-16.3918 102.471 7.19695
-19.1496 94.3314 2.61488
-15.9543 107.268 6.98716
-17.3572 100.666 5.36581
-21.8033 97.426 -4.75168
-22.1459 91.6942 -3.98035
-18.8314 120.172 -3.66032
-23.0311 84.6222 -4.18639
-19.4171 93.3746 2.36054
-19.6409 92.5749 2.18175
-22.2653 91.5162 -3.96492
-21.7653 98.8265 -4.69825
-19.0044 119.958 -3.711
-12.5586 135.81 7.90797
-19.9786 117.589 -5.42086
-17.5698 129.236 -2.61904
-20.328 92.6618 0.793055
-17.3189 139.208 -4.67432
-17.2263 142.41 -5.29781
-16.5223 144.196 -3.95129
-20.9941 91.9479 -0.474922
-19.7632 93.1598 2.25377
-19.6383 91.9754 2.91892
-17.3415 100.553 6.24011
-18.9064 91.9692 4.74264
-20.5964 93.6923 0.0983972
-19.433 95.3067 2.54812
-20.3384 94.0918 0.659621
-19.7821 95.7598 1.59016
-20.307 93.2208 1.00839
-21.9508 89.7641 -1.97445
-18.3742 95.531 5.32071
-21.3708 112.142 -6.72828
-18.6283 131.16 -5.20272
-21.7817 90.9986 -1.85119
-19.9646 93.5118 1.96718
-19.8459 92.2536 2.64826
-20.068 94.5762 1.46752
-17.9133 128.929 -2.69603
-17.9372 128.612 -2.63635
-12.7317 132.161 9.37849
-19.8567 118.589 -4.52159
-15.007 115.365 8.4497
-23.5817 84.4814 -4.1883
-16.1547 109.848 7.26428
-22.9038 85.4368 -2.69871
-17.1915 100.73 7.35154
-19.048 92.9964 4.89602
-20.3463 92.9475 1.71924
-22.3066 101.384 -5.49532
-14.3694 118.785 9.40882
-19.2324 97.2955 3.33568
-18.7916 122.831 -2.65499
-18.3102 132.353 -4.08223
-22.4059 97.8689 -4.63512
-21.9584 106.857 -5.95976
-18.8298 123.828 -2.79553
-16.5368 145.44 -3.04475
-18.86 123.485 -2.69663
-16.5875 144.874 -2.94624
-22.4568 98.7837 -4.6825
-16.8882 102.107 8.24596
-22.4263 100.051 -4.92764
-16.6892 106.684 7.54332
-18.9926 123.802 -2.93433
-22.9811 95.4714 -4.89963
-14.9285 144.234 1.61429
-22.8495 96.6812 -4.76868
-16.8044 103.242 8.44008
-13.2677 133.683 8.81908
-21.0261 92.9919 0.869844
-21.0753 92.3962 0.954999
-22.6153 99.2904 -4.77865
-21.0537 92.6906 0.963825
-15.2984 139.567 2.32485
-16.7959 107.667 7.50409
-15.2545 138.239 2.83199
-13.3487 127.343 10.6168
-23.0609 87.3502 -2.2724
-22.7772 100.944 -5.33811
-23.0599 96.5332 -4.77813
-22.0352 90.5799 -0.534848
-13.2854 128.863 10.653
-19.6298 121.537 -3.04602
-16.4264 145.657 -1.76746
-17.8825 141.312 -4.17099
-22.3843 108.142 -6.1174
-24.059 82.1381 -3.03263
-15.1507 136.424 4.12475
-15.0163 146.396 1.70958
-24.4935 81.2313 -3.70236
-14.3823 151.57 1.88403
-19.2502 98.0145 4.72424
-21.7541 114.056 -5.86108
-21.892 113.479 -6.00965
-23.5989 89.19 -3.47401
-15.01 146.953 1.95421
-15.0188 151.644 0.640874
-18.4462 138.331 -4.1625
-18.4783 139.445 -4.42401
-21.7599 116.1 -6.07409
-23.8009 92.2754 -4.33376
-23.4869 96.8025 -4.70495
-22.5533 111.992 -6.55013
-19.1301 133.335 -3.96671
-20.6584 89.3199 4.49774
-22.5921 111.952 -6.56392
-23.5673 87.2654 -2.12021
-17.0839 109.669 7.82104
-22.8586 108.965 -6.27138
-15.2796 135.593 5.18811
-23.7306 96.1044 -4.8013
-21.986 90.2628 1.24902
-23.7291 86.8471 -2.04573
-20.6684 89.409 4.85167
-15.1617 151.687 1.22422
-24.0013 93.7521 -4.59802
-19.354 133.351 -4.01832
-17.442 105.407 8.50369
-20.3629 124.139 -3.90351
-24.5224 83.3213 -2.8081
-23.6289 100.569 -5.2604
-19.1183 138.67 -4.62199
-15.2206 151.635 1.515
-14.2245 133.608 9.02687
-19.4931 134.087 -4.03994
-19.1967 138.299 -4.40883
-16.0543 136.135 4.01852
-20.1056 131.173 -4.66003
-18.3622 99.2188 8.56686
-23.8751 100.986 -5.57562
-24.2772 85.4744 -2.147
-23.4799 107.081 -6.16677
-20.8786 122.019 -3.71024
-22.5694 90.168 1.0186
-14.6845 125.242 10.9555
-24.4826 95.2285 -4.8719
-23.5037 90.1449 -1.02508
-21.0695 120.624 -3.4198
-14.4056 131.475 10.1549
-19.3774 98.697 6.92713
-15.9348 135.06 5.3744
-19.3341 139.248 -4.23148
-19.5995 135.491 -3.75315
-24.2074 98.0809 -4.62727
-15.8797 119.498 10.1102
-18.7673 141.801 -3.22782
-19.5563 137.845 -4.0543
-20.7859 124.926 -3.48719
-14.7344 126.769 11.0476
-19.4512 136.695 -3.3577
-15.9134 146.625 2.83682
-19.878 138.223 -4.51098
-14.6786 130.528 10.6421
-24.4424 99.9985 -5.01194
-17.3388 147.345 -0.477857
-16.5426 142.146 2.97796
-17.6803 146.704 -1.0075
-25.418 84.1323 -2.76588
-21.1199 89.4948 6.42434
-16.8048 139.413 3.27791
-19.7396 137.189 -3.1255
-20.4185 138.603 -5.1522
-19.6725 97.3235 8.25305
-16.4769 150.902 1.32557
-16.1642 135.552 6.53525
-21.6611 88.9473 5.99893
-18.6311 102.807 9.68272
-16.9856 140.872 3.28443
-24.3533 88.7279 -0.469845
-16.734 134.679 5.69614
-19.8753 140.446 -3.6003
-19.9921 98.2457 7.84713
-18.2837 110.62 8.6763
-21.4436 125.146 -3.18002
-21.1753 130.218 -3.81737
-25.3005 87.6347 -2.21611
-17.7491 114.683 9.12039
-16.3485 121.195 10.7891
-15.6384 126.644 11.1175
-21.1537 130.949 -3.75701
-20.0786 98.1866 8.04672
-24.0958 112.085 -5.79091
-23.6498 89.6982 1.63401
-17.3295 135.151 4.69952
-18.8127 104.125 9.66733
-23.2609 119.176 -5.07517
-23.4406 118.6 -5.34325
-21.7993 126.256 -3.3327
-16.5101 134.023 7.67075
-26.4645 84.4165 -3.2278
-16.276 123.453 11.2293
-20.1903 95.1624 9.40159
-16.3995 149.951 3.62029
-17.7652 117.306 9.53748
-15.9179 127.587 11.2748
-16.9078 134.712 6.84298
-24.8144 110.878 -6.11269
-23.5019 119.337 -5.1848
-17.6087 118.224 9.78521
-18.5678 111.801 9.19594
-20.524 141.446 -3.85516
-25.8262 97.5151 -4.76949
-25.8937 87.8569 -2.201
-21.0842 137.653 -4.10064
-16.0018 127.807 11.3367
-17.6435 137.894 4.55243
-21.3228 132.991 -3.0894
-25.337 109.746 -6.52845
-17.7898 118.322 9.85079
-18.8017 111.904 9.36711
-24.92 89.3978 0.434603
-26.1247 90.7019 -2.91483
-17.0582 132.68 7.98037
-23.8499 119.748 -5.2729
-25.8615 104.936 -6.08704
-25.0775 111.125 -5.80855
-21.793 130.503 -2.97224
-26.7742 83.0549 -2.15004
-18.6987 113.396 9.51598
-20.3808 96.3235 10.1689
-19.398 146.318 -1.25702
-17.8713 133.824 6.01946
-22.3673 89.1338 7.46464
-26.3565 98.3802 -4.96995
-25.8723 106.795 -6.04
-20.4004 97.9224 10.0518
-18.0846 140.578 4.00226
-16.5932 127.676 11.3396
-26.6697 92.6154 -3.93131
-18.9382 148.026 -0.0791032
-22.5797 88.8256 7.36381
-17.9496 119.786 10.2621
-19.878 144.989 -1.48564
-26.4818 101.148 -5.69168
-25.0382 115.65 -6.10007
-19.6021 146.471 -1.13241
-22.7549 125.763 -3.11526
-19.7981 106.106 9.81542
-17.9919 120.256 10.3974
-18.178 141.024 4.16209
-25.2856 112.246 -5.4801
-18.5889 116.84 9.93531
-26.8779 95.7422 -4.77101
-25.1977 89.1076 1.24896
-27.4049 84.0588 -2.80701
-19.987 102.861 10.4341
-26.8322 91.9561 -3.53756
-26.6916 99.3397 -5.21293
-26.7133 85.7938 -1.46345
-22.0659 138.613 -4.59593
-19.9493 145.803 -1.28073
-21.906 135.611 -3.28091
-26.8422 91.3963 -3.22573
-18.0947 133.946 6.67404
-26.7581 90.0078 -2.50226
-24.9883 89.3731 2.11299
-23.3963 123.808 -3.49898
-17.9052 133.457 7.46841
-26.7629 101.464 -5.56641
-20.2836 102.032 10.4631
-19.9216 109.307 9.35653
-18.3454 150.185 1.94968
-27.1517 93.9502 -4.28922
-25.3894 88.4239 1.66229
-18.8255 137.393 4.42473
-20.6274 97.3412 11.1139
-23.7081 123.131 -3.67906
-17.4686 125.732 11.2574
-22.3612 132.787 -2.84648
-20.1102 146.492 -1.04376
-18.2343 121.085 10.8153
-17.0593 128.735 11.6445
-22.1977 133.949 -2.57136
-27.8911 84.1902 -2.87607
-19.3003 148.849 0.550162
-25.7876 114.21 -5.89698
-25.5686 89.0392 1.6602
-22.5487 130.111 -2.24237
-25.6759 116.027 -6.06111
-17.9618 130.785 9.08072
-26.691 107.132 -6.02801
-22.428 136.381 -3.55282
-26.7313 106.942 -5.99662
-22.9616 133.867 -3.9981
-18.5803 133.727 6.98464
-19.0736 117.382 10.4196
-18.5895 150.304 2.47087
-20.5142 146.115 -1.09258
-18.2231 149.298 3.80814
-27.6169 93.4857 -3.90326
-28.0991 82.8123 -2.12126
-23.3133 128.411 -2.90242
-24.4962 87.7755 5.47995
-17.5758 129.807 11.0251
-22.8712 135.249 -3.62919
-18.6888 140.914 5.19261
-20.3936 109.37 9.7434
-22.3558 95.1242 8.84633
-22.6603 139.095 -4.11304
-18.094 146.296 5.35058
-27.9034 84.2678 -1.76958
-20.4183 109.728 9.80557
-22.5579 135.655 -2.66068
-18.7442 132.873 7.62378
-21.0372 144.763 -1.30256
-18.6159 149.547 3.42767
-19.6957 136.722 4.35615
-20.8423 104.602 10.8428
-23.6731 128.742 -2.81737
-27.2937 108.825 -6.25823
-25.2332 87.8687 4.7149
-19.5758 117.112 10.8041
-21.3289 144.776 -1.24016
-23.7551 136.849 -5.0541
-20.3274 148.443 0.30958
-22.9243 135.966 -2.66948
-23.7888 128.147 -2.56987
-22.8958 135.421 -2.35353
-19.2137 140.813 5.47353
-26.7885 114.079 -5.86692
-25.0664 124.062 -4.34471
-26.7891 114.141 -5.86421
-21.1066 107.155 10.2044
-24.1508 134.642 -4.97285
-28.0122 89.2781 -1.90907
-24.7676 86.6085 6.96276
-19.6397 132.792 6.87877
-25.1262 87.0018 6.0051
-24.0445 137.997 -5.48642
-28.5226 84.674 -1.612
-21.4321 102.377 11.098
-28.4632 95.0117 -4.28605
-22.7713 96.3699 9.516
-19.7275 118.489 11.0223
-24.2425 88.6705 8.15567
-27.8216 107.799 -5.93325
-20.8806 111.412 10.3619
-25.2268 125.058 -4.22856
-28.3729 89.5686 -2.10874
-19.8948 138.759 5.42433
-28.9401 85.4092 -2.20539
-20.2354 137.361 5.02977
-23.5355 95.5246 8.4774
-19.4215 121.766 11.4082
-21.4551 106.908 10.496
-20.4858 114.577 10.8181
-23.9735 136.098 -3.67069
-28.9209 84.6945 -1.60686
-21.5664 107.255 10.4535
-28.1767 105.253 -5.24378
-24.8488 135.107 -5.26045
-24.3385 135.886 -4.0736
-28.2527 103.022 -4.63426
-23.5118 133.844 -1.40645
-23.6698 135.796 -2.20881
-19.8282 148.704 3.79626
-24.3668 90.223 8.97212
-24.806 127.636 -2.52199
-20.8558 114.451 11.0992
-24.489 136.204 -3.96856
-29.2553 96.3838 -4.68826
-22.2225 101.466 11.423
-24.2222 132.338 -2.07632
-26.2954 123.38 -4.72768
-27.4907 115.698 -5.51189
-19.9969 132.175 8.53166
-20.6102 139.282 5.27656
-24.3285 133.073 -2.19046
-24.656 90.0366 8.97208
-21.4549 111.514 10.9719
-23.6118 97.6305 9.50626
-24.3882 95.9872 8.06738
-28.4297 108.6 -5.47054
-24.9738 139.454 -5.40754
-29.3805 98.3635 -4.89469
-24.7841 127.54 -1.58751
-29.2962 92.3299 -2.99961
-21.4015 135.458 4.63746
-29.7079 85.7664 -2.14418
-26.5611 85.7717 5.69185
-20.6564 117.013 11.6899
-24.1095 133.132 -1.37214
-21.3271 135.894 4.81153
-24.3523 131.604 -1.47195
-24.616 92.1863 8.83653
-29.3754 90.1012 -2.40138
-27.4769 87.7612 2.97914
-24.3589 130.937 -1.24585
-22.1035 105.419 11.4573
-27.2844 88.0334 3.45804
-24.1426 133.748 -1.4006
-29.4371 91.5278 -2.79625
-29.6966 84.4321 -1.43856
-20.161 147.25 4.83074
-26.6877 85.4841 5.87621
-25.1503 128.567 -2.1644
-27.8713 114.404 -4.87545
-28.8957 105.835 -5.02848
-20.9266 140.522 5.21566
-25.9984 133.433 -5.40219
-25.8507 135.253 -5.49253
-25.6074 132.685 -4.02818
-27.016 85.8965 5.49534
-29.5886 87.7857 -1.37491
-20.4341 146.628 5.07342
-27.9558 86.7037 3.06415
-21.2274 139.288 5.18035
-24.7467 129.903 -0.834442
-21.1366 130.544 7.99792
-22.9515 100.842 11.8071
-28.5652 111.774 -5.17495
-20.6726 147.523 4.52136
-29.7629 94.4265 -3.26155
-26.3343 133.743 -5.62259
-25.9953 132.101 -4.30165
-27.8884 117.616 -4.96644
-20.585 131.026 9.49594
-22.5229 106.204 11.6703
-25.9363 131.4 -3.78546
-21.1654 117.715 11.9286
-20.6381 130.932 9.57591
-27.3008 85.4845 5.68266
-28.5472 112.564 -4.91676
-21.6779 114.021 11.7461
-29.992 89.6046 -2.10535
-22.1306 147.68 1.27496
-20.9541 142.828 5.60028
-22.6179 105.349 11.9833
-27.1426 123.661 -4.34944
-21.8486 113.458 11.7806
-27.7851 87.2812 4.38625
-20.1907 129.59 11.539
-26.146 124.981 -1.92736
-25.9439 126.614 -1.84044
-26.0942 129.33 -2.92657
-29.5201 104.216 -4.4174
-26.3625 129.766 -3.48166
-21.0959 146.053 5.14084
-25.7861 92.988 8.2557
-26.3059 136.418 -5.06431
-24.3302 100.199 9.94397
-29.6006 105.28 -4.55295
-25.9129 130.039 -2.18155
-25.6374 129.772 -1.41744
-22.6126 108.67 12.0074
-26.0613 126.244 -1.40781
-23.4104 101.659 12.0358
-25.2832 129.732 -0.423012
-30.5008 88.4906 -1.863
-23.8693 101.411 11.0469
-26.7605 131.918 -4.58408
-30.216 100.489 -4.36463
-26.9957 124.507 -3.01126
-29.1769 111.264 -4.74364
-21.8207 115.915 12.2715
-30.1751 101.384 -4.42578
-21.4217 144.57 5.44714
-28.5259 117.51 -4.60655
-23.7019 145.34 -0.300122
-28.0982 86.5205 5.1358
-29.4931 108.411 -4.4076
-26.8013 128.604 -3.31926
-22.7191 109.215 12.2244
-24.6824 100.744 9.70877
-21.5075 145.994 5.02955
-26.4193 137.841 -4.89073
-26.9301 129.405 -3.71939
-26.633 127.027 -2.21882
-21.6741 119.883 12.1389
-26.3009 129.41 -1.91299
-29.0483 112.641 -4.0368
-27.4449 86.0772 7.34235
-29.6343 108.523 -4.33236
-26.4471 95.2542 7.27641
-21.6883 144.755 5.33458
-30.7023 86.4095 -0.781136
-26.9722 125.018 -2.18329
-25.7036 129.386 -0.245363
-26.2964 130.297 -1.95988
-30.6799 100.044 -4.35636
-22.0933 141.042 5.57514
-26.4539 127.323 -1.35577
-26.871 128.185 -2.62921
-27.3126 129.627 -4.10686
-26.9806 128.943 -3.07021
-28.1691 121.69 -3.99495
-27.0953 134.757 -4.954
-31.0107 88.6331 -1.81276
-25.9688 128.668 -0.367327
-26.5561 93.6448 7.93243
-30.9235 91.8292 -2.35031
-22.2317 140.966 5.59275
-22.0319 142.311 5.71713
-26.801 136.191 -4.37819
-23.3722 135.146 4.50316
-31.3922 85.7703 -1.6779
-22.9564 147.26 2.289
-27.0417 128.427 -2.6069
-21.5065 124.589 12.2913
-26.7416 128.41 -1.72765
-31.2383 87.7732 -1.59612
-27.3076 129.679 -3.46638
-26.8673 130.482 -2.51411
-26.2293 128.189 -0.269534
-27.3195 132.222 -4.07033
-28.5903 120.193 -3.83506
-21.2638 128.215 12.1643
-25.2304 101.509 9.79067
-23.2102 130.861 6.70603
-27.0007 135.824 -4.08272
-27.6518 132.876 -4.83427
-22.8683 129.728 7.98281
-26.8865 129.321 -1.86656
-26.8256 129.906 -1.74564
-31.2585 99.8677 -4.34765
-31.495 98.0836 -4.37799
-22.574 141.449 5.76004
-27.1388 128.934 -2.02059
-26.4856 128.217 -0.195314
-26.6314 129.469 -0.900838
-27.5734 128.57 -2.97411
-27.2077 131.052 -2.64368
-27.2701 95.1111 7.25349
-22.2824 128.345 10.4498
-29.5698 86.4584 4.03976
-27.8506 132.941 -4.55363
-26.7474 128.758 -0.643169
-21.7463 128.525 11.8578
-27.1626 129.7 -1.90633
-24.2412 145.938 0.878259
-31.4687 95.8834 -3.10259
-27.6826 125.181 -1.75247
-28.9064 121.267 -3.69517
-27.3824 93.9117 7.73399
-32.0379 84.5619 -1.18157
-23.9486 108.43 12.2888
-23.7337 110.26 12.3187
-27.001 129.979 -1.26406
-24.9453 103.705 11.1791
-23.1445 146.819 3.71477
-23.7413 138.117 4.71655
-31.3419 103.887 -4.59433
-28.3793 128.858 -4.17764
-27.2054 128.418 -1.04212
-27.3738 127.689 -1.21125
-27.3703 126.934 -0.975651
-26.141 101.503 9.1767
-27.5238 125.903 -0.579466
-22.1642 125.69 12.805
-22.1064 126.775 12.6527
-23.6316 113.769 12.4922
-27.5731 136.521 -3.59254
-29.3469 84.269 6.63216
-25.9715 142.013 -0.913897
-22.2366 127.362 12.4471
-24.1985 110.44 12.3625
-27.0472 100.076 8.16792
-32.0253 101.785 -4.55762
-28.8761 122.77 -2.49142
-28.8116 128.174 -3.80407
-30.3801 85.8995 4.07408
-28.0452 92.4872 8.24529
-28.8081 129.254 -3.86904
-22.8524 123.038 12.7288
-28.4674 96.4894 6.17034
-27.8036 126.975 -0.646098
-27.1782 128.863 0.390988
-28.2884 97.6964 6.45834
-22.5802 126.174 12.7375
-32.0306 104.596 -4.59585
-32.2557 102.454 -4.54702
-27.5137 128.708 -0.0417132
-27.9321 129.439 -1.26046
-23.3706 120.327 12.7476
-24.9581 108.044 12.2405
-32.8845 86.1639 -1.3656
-23.8992 142.511 5.33093
-32.4198 95.9024 -2.72015
-22.8843 127.116 12.301
-32.4541 96.6099 -2.98836
-32.5383 93.0181 -2.17728
-27.6155 100.245 8.04878
-28.8414 130.77 -3.46152
-24.9281 138.937 4.02128
-33.6436 84.9798 -2.57733
-32.5209 102.092 -4.51596
-27.9824 99.2085 7.57367
-26.0954 143.404 0.0238085
-30.7182 114.538 -3.42074
-27.2558 129.437 1.12855
-27.5823 126.946 1.01539
-32.661 97.3268 -3.35507
-24.87 135.676 5.38704
-25.9369 144.245 0.369995
-32.4965 103.171 -4.48965
-29.1673 122.725 -1.64301
-27.8848 127.339 0.282307
-27.8141 128.471 0.144774
-27.4738 128.598 0.983291
-23.088 127.903 12.113
-25.7737 105.496 11.7418
-27.558 128.53 0.950866
-27.835 127.607 0.576543
-28.1876 125.892 0.227175
-24.6608 145.718 3.4808
-27.5119 127.434 1.49597
-25.4611 138.564 3.57683
-28.1692 137.487 -2.77198
-31.1003 113.026 -3.04117
-31.2771 111.645 -3.01863
-24.7147 144.928 4.05913
-24.4012 131.31 8.63244
-24.4066 117.973 12.3434
-29.8243 127.362 -3.67289
-32.1605 107.803 -4.03355
-28.0429 100.894 8.11816
-30.4287 119.383 -2.91909
-25.4351 109.52 12.2321
-24.57 116.418 12.4816
-30.5731 118.36 -2.93231
-29.0203 124.702 -0.771422
-24.906 133.019 7.18595
-30.2053 84.0057 7.66445
-29.2829 94.2603 7.11349
-28.1548 126.918 0.834741
-23.7463 123.393 12.7988
-24.5974 117.245 12.4154
-25.3546 140.187 4.22732
-27.8418 128.558 1.31156
-25.5121 110.317 12.1895
-32.7695 105.325 -4.39024
-29.5782 133.539 -4.30085
-29.9623 86.0369 8.10564
-27.7623 140.465 -1.52599
-27.7997 127.433 2.00773
-30.5991 84.3924 7.159
-30.5969 120.109 -2.76442
-24.8681 132.295 8.10752
-30.8857 85.6264 6.24426
-25.6659 140.29 4.07093
-25.2384 131.765 7.51519
-26.8305 105.389 10.9233
-33.5397 91.591 -1.90519
-33.3005 96.0652 -2.5144
-30.5943 83.7048 7.66138
-24.4487 120.88 12.645
-25.1757 132.667 7.58279
-28.1867 127.933 1.45518
-25.653 145.104 3.00054
-27.765 140.978 -1.04906
-32.0071 110.893 -3.21104
-26.8541 143.813 0.481793
-25.7006 112.594 12.102
-28.9002 128.52 -0.267287
-29.7928 122.262 -0.715313
-25.4346 114.753 12.2679
-28.1088 128.23 1.91952
-25.5964 134.549 6.54081
-30.3798 132.27 -4.66239
-26.2027 110.648 11.7549
-28.1467 103.056 9.0454
-28.6087 126.78 1.34791
-29.9068 93.0774 7.50511
-34.0677 89.505 -1.83849
-33.9479 91.116 -1.91397
-27.8711 141.275 -0.729716
-27.5396 142.438 -0.216579
-25.5101 142.921 4.78196
-28.751 102.146 8.08768
-25.106 118.492 12.6326
-27.6206 142.435 -0.207583
-30.7256 95.6222 5.22945
-29.9664 122.519 -0.252228
-26.2332 130.608 6.78375
-30.542 88.2655 7.89942
-26.5346 139.615 3.62747
-31.4864 117.581 -2.52412
-30.4074 97.0771 5.86186
-24.9271 123.738 12.1045
-25.4399 117.764 12.5493
-31.4458 118.208 -2.4774
-29.2259 100.902 7.92711
-26.0618 136.095 6.01316
-34.0837 99.1933 -3.63196
-26.5026 130.194 6.68958
-26.1076 114.792 11.9571
-25.9299 122.428 10.293
-26.2968 130.501 7.19009
-27.1656 108.507 11.1668
-30.7102 132.726 -4.35666
-25.9459 133.857 7.1677
-33.0557 108.843 -3.51173
-28.4566 128.051 2.66546
-26.4642 140.913 4.04616
-26.7973 120.348 9.02254
-35.2555 85.2307 -2.20887
-27.6654 107.11 10.5754
-25.3167 123.481 11.8982
-29.261 125.612 1.51668
-25.8465 122.169 11.0037
-33.9118 104.13 -3.99686
-26.1739 120.958 10.6115
-31.1135 96.0874 5.27702
-32.7384 110.904 -2.77735
-30.7252 91.9282 7.57985
-27.2888 121.827 7.81908
-31.089 128.661 -3.47622
-27.5071 130.654 4.96179
-31.9052 83.6476 7.12798
-34.4292 97.1154 -2.84333
-28.6125 129.548 2.64578
-26.622 120.183 10.2307
-27.5348 121.849 7.52039
-30.0149 123.78 0.860544
-28.6119 120.54 5.29754
-26.4905 141.701 4.70128
-27.7391 108.656 10.823
-27.5241 130.85 5.18578
-28.6307 128.886 3.01217
-34.5483 96.5791 -2.66963
-31.1271 126.409 -2.46313
-26.4599 130.45 8.0228
-33.4361 108.534 -3.14842
-28.2269 141.836 0.567977
-26.325 128.39 9.10356
-27.7659 130.393 4.99873
-26.7799 142.98 4.02758
-27.3771 122.337 8.28597
-30.2662 123.539 0.800242
-26.2433 133.907 7.93436
-28.8909 118.708 5.60388
-34.8288 92.6901 -1.91128
-30.0087 101.214 7.69555
-28.3641 118.815 6.91015
-31.2643 132.643 -4.13402
-29.4861 127.868 1.62152
-28.2263 118.785 7.28902
-27.3939 139.05 3.7269
-27.6681 118.257 8.92034
-27.7072 118.281 8.84633
-31.9513 118.381 -1.63555
-35.1801 87.7497 -1.13345
-27.6508 117.583 9.35915
-27.1842 130.059 7.12831
-30.9977 133.845 -3.38265
-28.3239 142.455 0.891569
-32.814 112.021 -1.76834
-34.9108 96.6187 -2.69205
-33.46 109.596 -2.56309
-32.9874 83.7454 5.8727
-27.075 136.25 6.01687
-29.4816 127.722 2.41577
-29.4755 120.116 4.59547
-35.0151 99.7066 -3.47873
-28.8004 116.931 7.17989
-31.0989 98.2115 6.69358
-27.8707 116.905 9.52994
-31.7049 120.772 -1.05872
-32.6783 113.802 -1.50639
-28.3487 123.641 6.51642
-35.0822 100.456 -3.74976
-30.3307 136.695 -2.0224
-28.2871 142.845 1.36008
-27.1538 116.199 11.5865
-26.9969 129.202 8.37844
-27.0771 130.225 7.89968
-31.7218 120.81 -0.997462
-28.4454 123.715 6.42433
-29.6546 120.509 4.31654
-29.6449 128.822 2.05606
-29.7931 138.351 -0.943298
-27.4793 136.398 5.36843
-35.2554 93.2882 -1.91749
-35.1576 101.07 -3.83338
-29.3918 139.541 -0.187288
-32.6939 84.5457 6.9158
-30.6351 136.099 -2.29181
-33.1311 83.9532 6.0351
-28.1354 136.548 3.97033
-28.2577 122.607 7.57165
-27.9662 138.742 3.83964
-30.1471 116.248 4.68269
-27.0284 127.149 9.40954
-32.7688 114.701 -1.38621
-27.8587 127.065 7.38893
-29.5231 128.117 2.97708
-32.2163 88.7522 7.28978
-32.7107 113.383 -0.781259
-32.1023 128.561 -3.48363
-27.0779 125.874 9.74693
-29.0059 129.353 4.02109
-27.8104 129.776 6.90238
-27.9497 124.083 8.15564
-28.4652 130.035 5.23289
-27.3938 136.096 6.21243
-35.4316 86.0392 0.173968
-29.197 121.943 5.76221
-28.7911 109.482 10.2379
-32.5706 93.7249 5.27547
-31.6811 121.642 -0.252142
-35.4249 99.9036 -3.41057
-32.7121 112.901 -0.278589
-28.5545 115.969 9.21504
-27.7433 126.802 8.22936
-29.2411 115.799 7.61829
-28.3994 128.599 6.15021
-28.4069 112.879 10.534
-32.3902 90.1601 6.99319
-29.284 125.931 4.79083
-32.9365 112.158 -0.453221
-28.2164 129.545 6.54615
-29.2137 140.736 1.00882
-29.7259 122.215 4.92156
-28.6295 130.828 5.27183
-34.0236 107.681 -1.67772
-29.6546 128.82 3.32237
-32.8379 113.644 -0.340286
-28.2447 130.024 6.53269
-31.7555 121.877 0.0855228
-29.3775 126.775 4.64215
-27.9758 141.513 4.0298
-29.9577 115.441 6.38167
-30.0016 115.456 6.27994
-28.9101 128.343 5.46528
-31.8482 127.511 -1.56698
-32.6527 87.6997 7.5179
-28.7975 128.883 5.70768
-28.7045 128.624 6.04046
-29.0631 128.683 5.13358
-31.1766 135.69 -2.05927
-31.4407 115.538 2.90926
-30.5968 121.655 3.327
-36.0823 92.3431 -2.09774
-32.5699 99.2311 4.81297
-28.9099 112.674 10.203
-32.9096 113.287 0.0979726
-33.6046 110.533 -0.862324
-30.8427 136.956 -1.33186
-33.2954 95.0075 4.24727
-30.761 120.116 3.57604
-36.2914 87.9431 -1.19065
-29.1852 126.845 5.71206
-28.3993 141.354 3.70756
-31.9399 121.353 0.526586
-32.0821 115.588 1.7802
-29.8454 123.087 5.25245
-31.6193 122.096 1.1634
-33.3435 97.0589 3.93113
-29.1555 125.756 6.37097
-35.6269 102.24 -3.15154
-28.8921 142.281 2.46288
-29.7413 124.024 5.45613
-29.2688 111.949 10.0189
-29.4468 129.091 4.81755
-31.7123 121.667 1.322
-33.5612 96.4665 3.7545
-30.5059 138.531 -0.336856
-32.5474 119.071 0.0115451
-32.1739 114.883 2.10641
-36.5067 89.4982 -1.57124
-29.4301 129.538 4.92997
-29.53 111.16 9.80205
-33.1155 115.754 -0.3836
-36.566 88.7659 -1.36445
-33.3893 98.3961 3.87078
-33.1863 112.511 0.452034
-30.8271 125.442 2.7418
-29.749 110.391 9.60997
-29.5343 112.853 9.57961
-35.0999 105.26 -2.06758
-31.1452 122.923 2.87313
-36.7256 86.5936 -0.883971
-30.2245 123.977 4.88604
-32.0022 114.931 2.99492
-30.2443 123.739 4.92082
-32.5098 100.424 5.78022
-36.2643 95.688 -2.2089
-29.3134 139.341 3.02211
-28.0081 132.411 8.25323
-31.4764 121.709 2.63122
-29.3425 136.454 3.83728
-31.5233 119.964 3.00564
-31.033 124.075 3.09801
-33.4317 92.9626 5.81687
-34.0278 109.569 -0.264539
-36.1868 101.11 -3.21728
-30.474 129.142 3.23847
-34.5252 107.465 -0.725625
-32.1077 120.242 1.76471
-36.9928 85.3632 -0.537281
-30.4378 109.214 9.13305
-30.3082 112.299 8.64811
-29.785 141.115 2.01911
-30.1481 127.88 4.80446
-28.2818 132.142 8.3267
-30.8226 108.295 8.70317
-30.9939 106.565 8.76318
-33.1505 117.382 0.442141
-33.0934 128.456 -2.49355
-36.0816 102.063 -2.54382
-36.076 102.275 -2.56654
-33.4863 113.82 0.769514
-30.5251 113.702 8.24773
-30.9184 111.997 7.9039
-33.2036 130.528 -2.88822
-33.6965 113.016 0.807418
-29.7976 136.373 4.02044
-34.4518 84.4487 6.90837
-37.2115 85.1135 -0.113901
-29.9773 128.642 5.77133
-31.5207 105.341 8.43233
-35.9943 102.689 -1.92538
-33.7967 99.5685 4.4922
-35.6683 104.548 -1.44281
-35.9784 101.619 -1.3844
-28.7704 134.737 7.31494
-33.7704 99.8333 4.6273
-34.7026 107.981 0.0639869
-37.3116 87.7455 -0.650043
-32.9488 133.219 -2.42545
-33.1413 126.906 -1.12052
-35.7269 103.815 -1.12112
-32.455 127.347 0.476984
-32.8177 113.587 3.51327
-30.2427 128.727 5.75508
-36.7483 85.9697 1.48401
-31.2054 138.941 0.560283
-31.6256 110.173 7.52632
-33.0772 126.691 -0.557262
-34.773 84.6646 6.93134
-34.8127 95.5445 3.92684
-30.6207 137.535 2.91862
-32.3964 104.722 7.70032
-30.8379 139.022 2.03493
-35.9281 101.042 -0.027364
-32.4165 109.208 6.48015
-31.1799 139.649 1.11906
-30.2184 128.629 6.62637
-33.4758 102.184 5.95276
-37.3032 85.0252 1.2295
-29.3854 134.484 7.15755
-32.6783 112.972 4.97033
-32.8121 113.187 4.59617
-37.3532 98.1929 -2.46822
-29.1615 132.828 8.35125
-34.8884 89.7027 6.14461
-35.1492 104.631 1.35967
-32.7148 107.918 6.63453
-35.3975 84.4793 6.58144
-33.4109 127.171 -0.193346
-33.1214 112.022 4.7942
-29.6407 134.211 7.30202
-35.5315 106.152 0.521931
-29.4089 133.334 8.17716
-35.2969 105.453 1.33191
-30.1935 135.524 5.71397
-35.0752 92.8914 5.49722
-33.1646 111.226 5.174
-33.1197 105.478 6.94856
-33.1341 106.793 6.54876
-35.358 89.7801 5.79822
-34.6069 109.946 2.14808
-33.3659 109.871 5.25377
-32.321 137.177 0.26221
-33.6934 129.94 -1.08051
-33.2792 105.799 6.72337
-34.4833 101.662 4.9355
-33.0457 127.6 1.50597
-36.1353 101.652 1.05631
-32.7198 135.876 0.0461188
-35.9206 84.9723 6.36863
-30.8976 128.64 6.70688
-33.5857 107.672 5.87137
-33.5895 127.013 0.489634
-38.5329 84.9006 -0.0546583
-34.0519 103.112 6.09805
-36.4008 87.446 4.6299
-35.2811 106.038 2.25157
-34.0805 110.068 4.13184
-35.3383 106.271 2.1766
-36.5377 100.4 0.967779
-37.8599 88.0574 1.32364
-36.1292 96.2351 3.39668
-34.7325 102.699 5.13316
-31.697 129.908 5.13586
-38.1083 88.3573 0.813699
-32.6259 137.248 0.924274
-33.8749 132.988 -0.96721
-36.9001 87.8968 4.14115
-37.7508 99.5591 -1.18095
-37.1421 97.9421 0.789196
-37.0732 82.8987 5.16715
-38.54 94.2523 -1.60321
-34.5903 107.289 4.61873
-32.2238 138.424 1.8402
-37.0636 99.9282 0.537564
-37.0099 98.2433 1.31021
-34.6444 105.456 5.18933
-31.6046 136.039 4.33576
-34.8079 105.126 5.05268
-38.344 97.0736 -1.45507
-34.2456 128.474 0.219965
-38.5386 91.7082 -0.0834948
-38.654 92.0069 -0.260188
-33.6756 134.838 0.332124
-37.9908 97.0951 0.260564
-39.2368 84.7514 0.628638
-34.4148 131.94 -0.402778
-37.5607 95.9838 1.83524
-31.6198 135.394 5.63494
-37.6884 83.962 5.05484
-37.8109 99.4704 0.438312
-34.152 133.345 0.231562
-32.39 129.964 5.60029
-31.974 135.621 5.25156
-31.768 134.144 6.19774
-37.8806 88.6207 3.67178
-32.7419 137.56 3.00932
-32.6726 129.832 5.3996
-37.4638 94.1116 3.45628
-37.7737 90.6765 3.65002
-31.8808 133.896 6.27785
-34.7205 127.743 1.03686
-39.3854 93.1221 -0.7253
-34.8385 129.07 0.588392
-38.6987 97.2644 -0.114855
-31.5545 131.911 8.08713
-39.2392 86.499 1.92323
-39.3176 91.7331 0.292793
-32.0563 131.025 8.05352
-39.2294 85.9526 2.86447
-34.8385 132.1 0.961316
-39.3681 96.3491 -0.343596
-35.1852 130.759 0.487687
-32.5919 133.856 6.0998
-32.4467 129.729 7.61612
-33.7255 135.262 2.94809
-38.6216 87.2318 4.16152
-34.7475 132.504 1.24447
-38.9275 95.2786 1.25919
-32.5636 132.843 6.62875
-33.6818 135.384 3.17927
-33.5853 135.727 3.38315
-32.4804 131.351 7.71194
-33.4426 128.082 6.46444
-33.7039 135.116 3.94835
-39.6716 83.3439 3.63607
-40.0082 91.1594 0.651004
-33.0718 133.027 6.31411
-32.9936 132.558 6.72889
-34.5975 127.893 4.09135
-39.7177 94.9705 0.65522
-33.8575 128.469 5.99754
-39.7636 94.8178 0.731509
-33.022 131.755 7.29391
-39.4762 93.4904 2.0948
-40.1845 83.0109 3.27275
-40.5419 89.8187 0.641438
-33.7845 134.593 5.0608
-40.1204 93.8617 0.826495
-40.6323 90.0763 0.991392
-40.3207 84.5457 3.35515
-40.3969 92.0425 1.22594
-40.5528 84.9866 2.81527
-40.8864 86.5407 1.55698
-40.5689 88.8385 1.71989
-35.4738 131.066 2.77917
-33.7394 132.134 6.83451
-34.2828 128.269 6.57956
-40.7487 83.1066 3.18187
-40.9477 86.9866 1.60959
-40.5172 85.5044 3.13533
-40.3853 85.8892 3.37433
-35.5601 128.391 3.65055
-40.9169 83.5753 2.82661
-40.5693 86.0965 3.08151
-40.3962 88.0503 3.27029
-41.0588 86.2035 2.20073
-40.8426 87.215 2.69047
-36.3587 129.49 2.45726
-36.2138 128.47 3.79522
-34.9598 131.571 6.62909
-41.8385 84.6024 3.29435
-36.4487 130.093 4.2316
-35.106 128.185 8.14192
-36.4356 127.245 5.36233
-36.7476 127.751 5.31755
-37.0306 129.087 4.31836
-36.876 127.87 5.54874
-36.0486 129.729 7.10474
-36.4371 129.245 7.10502
-36.6432 128.956 6.69197
-36.8785 129.967 6.09112
-36.8517 129.742 6.35072
