ply
format ascii 1.0
comment Created by Open3D
element vertex 1913
property double x
property double y
property double z
end_header
-32.7029 91.5566 -2.72201
-34.9573 93.4264 -9.50324
6.40096 115.536 -4.62079
-28.4542 94.061 -2.47052
-4.34551 105.847 2.77991
13.2382 118.043 -1.18393
0.352111 115.189 -11.3526
11.2471 119.745 -7.32158
16.3608 120.581 -2.57722
0.0564532 115.018 -11.266
-2.76749 109.867 -3.72224
17.016 121.921 -4.48291
-34.1581 94.2505 -9.73345
-33.8538 91.4089 -3.17505
-2.96548 107.144 2.1109
-5.66836 112.464 -12.7727
4.20222 117.418 -10.9108
14.0376 117.582 1.2954
17.8891 122.873 -5.20575
-10.3774 103.657 0.367048
-6.26184 108.309 -4.40006
-28.0082 99.5627 -13.0848
5.33271 114.654 -3.30145
-37.6966 91.0501 -6.9485
-10.3927 103.626 0.604475
-36.9541 92.5533 -9.22262
17.0371 121.315 -2.67
6.78892 117 -6.36247
-3.50086 109.867 -3.99791
13.8247 117.766 1.04084
6.50108 118.924 -10.6973
-10.6212 103.472 0.898438
-3.83972 109.802 -4.1344
16.2577 120.706 -2.12766
18.6763 123.505 -4.94704
-0.0396709 115.455 -11.2828
-2.29531 113.949 -10.8576
6.11863 111.492 5.18975
14.2146 117.959 1.56289
7.58945 119.514 -10.1258
6.31264 119.112 -10.8353
12.62 118.841 -2.22159
17.8541 123.367 -5.30213
-11.8506 102.399 2.20123
-34.2031 91.8711 -3.45332
-4.45512 113.162 -11.5271
5.05083 114.548 -2.45162
3.1738 108.297 8.65414
-11.755 110.061 -14.0448
5.92672 115.711 -3.78992
-29.9757 94.3001 -3.15457
-12.0749 109.942 -14.1242
-33.0661 92.9411 -4.05302
-37.6237 91.9544 -7.69261
-28.4878 99.706 -12.8042
-17.8321 106.779 -14.4482
-36.861 91.6816 -6.03957
-37.1878 92.8037 -8.85899
-14.7636 108.568 -14.3224
-2.16226 110.004 -1.38367
-4.71704 106.232 3.57253
5.90436 114.976 -1.76831
-34.7625 94.7854 -9.77891
7.68144 118.417 -6.81345
-5.83494 104.752 5.49421
-7.2052 104.498 4.40854
-19.4021 106.005 -14.303
-28.1502 100.225 -12.9059
-20.1925 105.489 -14.1232
-18.9991 97.5495 4.51439
-3.32157 107.192 3.65411
6.48902 115.124 -0.941035
-31.6901 97.7131 -11.7687
5.86235 114.981 -1.23494
7.95761 120.128 -9.66409
-3.95623 113.841 -11.2229
-11.3784 103.334 2.03376
6.92541 117.755 -5.81324
9.31205 119.108 -5.6883
-2.61986 108.504 2.08179
4.79696 110.192 7.90598
16.829 123.214 -4.88324
-19.1494 97.6545 4.64193
-31.7557 94.3561 -4.22729
7.57542 115.347 0.454699
-12.296 110.344 -13.9415
-6.40834 109.233 -4.07931
7.56189 118.55 -6.40218
-27.1575 101.266 -13.15
-27.371 101.114 -13.0781
-24.591 103.202 -13.9996
-32.2262 97.4518 -11.2932
9.97866 118.299 -2.65787
18.8301 125.091 -6.01421
5.2653 115.679 -2.90022
-27.8007 95.534 -1.37917
-9.50629 105.298 0.799346
-0.102451 106.826 9.44995
7.95261 116.033 -0.098605
11.7277 121.581 -7.2412
-23.8575 103.891 -14.1573
10.1418 118.704 -2.90793
-2.27028 105.866 9.04585
12.5102 118.454 0.749276
-34.209 93.3349 -4.36873
5.11705 112.853 3.70666
6.61154 114.305 2.47687
1.63934 108.478 8.7425
5.36191 114.2 1.17748
-7.15312 108.554 -2.5279
-3.70619 105.4 8.68348
14.1449 119.817 0.288731
10.6314 117.64 0.596138
-7.64768 107.152 0.109441
8.05638 115.824 1.40444
2.75299 109.293 8.76206
6.70421 114.425 2.72138
15.6619 121.22 -0.543585
8.30913 116.366 0.651402
-1.84962 112.335 -3.46756
9.0804 120.048 -6.20291
-4.84657 114.356 -11.5827
-23.4373 104.575 -14.0563
8.16967 115.952 1.54534
-1.63696 112.315 -2.98388
3.13886 109.693 8.72476
-1.6803 116.11 -11.1637
-5.80706 105.936 5.53923
1.1985 108.505 8.95787
14.161 122.886 -5.58293
-2.27689 109.823 1.72845
2.40994 118.473 -10.9518
14.1481 120.168 0.354588
-33.2533 94.8681 -5.25146
-33.9598 96.9032 -10.5241
-5.53258 105.56 6.92881
7.24609 121.018 -10.1675
10.5939 120.483 -4.7284
-2.34139 109.65 2.28068
-2.42826 109.446 2.66667
10.1428 119.223 -2.43172
9.99382 120.085 -4.44665
13.1273 119.287 1.24782
-1.51553 112.757 -3.20525
-11.0005 105.148 1.1777
-4.30702 114.865 -11.2462
7.6824 115.811 1.9287
8.93094 119.823 -5.11325
-35.4116 93.5503 -4.72125
8.81118 119.453 -4.36614
8.95593 119.31 -3.85808
-6.99667 109.299 -2.49252
8.42484 117.989 -1.62772
7.36315 121.215 -9.91864
-0.593241 117.104 -11.0859
4.97773 113.623 3.51957
12.8072 118.943 2.0259
-10.2586 105.89 0.916296
-31.1607 99.5028 -11.7826
-4.77524 106.822 5.9569
-1.38268 112.488 -1.93068
8.58529 120.228 -5.96078
8.5842 118.104 -1.30945
6.42991 117.879 -3.54761
-22.9141 98.1395 1.76725
-28.0785 101.702 -12.4534
14.015 123.241 -5.47126
-6.4985 114.579 -12.7445
13.7739 123.349 -5.906
10.1133 121.027 -5.45175
6.32868 118.458 -4.70326
6.2376 118.391 -4.62998
-4.27426 115.242 -11.1335
-9.35268 106.743 0.76637
-4.20695 107.138 6.5162
-33.5367 97.9999 -10.9834
-21.3561 98.6234 3.15864
-22.4343 105.868 -13.7989
14.7226 120.919 0.946782
5.5213 114.068 4.06648
-9.78218 106.581 0.792516
-0.380619 108.213 9.22413
-8.72142 113.54 -12.8031
12.3995 118.986 2.26946
6.64956 119.222 -5.52876
-11.5753 112.149 -13.3915
-34.5506 94.9617 -5.46251
7.59628 118.621 -2.95876
-17.2961 100.743 4.00717
-18.674 99.805 4.35411
-22.6036 98.476 2.2483
10.5233 122.388 -7.23437
-30.8185 100.201 -11.8222
-30.9668 100.1 -11.7893
-18.0797 108.773 -14.1272
5.39963 113.676 5.09447
9.28821 117.525 1.74662
-2.32635 110.188 2.8296
19.0916 125.909 -3.87256
-27.7756 102.339 -12.4371
-18.4607 108.652 -14.2002
11.9538 118.968 2.15486
10.6515 122.569 -7.24011
-7.15317 109.086 -0.726618
-28.6958 101.685 -12.0883
6.10207 113.423 6.77515
-3.7698 106.96 8.2617
14.2126 119.997 2.98493
-26.8074 103.25 -12.9159
-31.7307 96.0245 -3.54228
-33.8891 95.7008 -5.58205
13.4315 119.957 2.20563
-3.18735 107.273 8.45725
7.01543 122.137 -10.6122
9.03426 118.636 -0.477578
6.10219 118.854 -4.63306
6.44962 115.788 2.45348
-3.21646 109.327 4.11707
-33.0073 95.8351 -4.50781
-35.0558 95.3215 -5.94438
14.2164 120.241 2.88659
-3.24029 107.436 8.45743
-3.94642 107.88 6.67899
7.24346 119.297 -3.69566
9.40298 121.584 -5.87602
0.400399 118.499 -10.6477
9.67351 118.66 0.767119
-0.985735 113.261 -1.11075
7.35465 116.602 2.30064
13.007 120.339 1.43595
8.88646 121.343 -5.93665
-36.3108 96.38 -9.44038
10.096 121.559 -4.79609
8.56891 121.214 -5.96339
13.8379 120.552 2.22252
8.46568 119.35 -1.97625
-11.8009 112.669 -13.197
-34.6321 95.911 -6.04446
5.71726 113.591 7.08914
19.3721 126.486 -3.36155
-5.5005 115.838 -11.959
8.35002 121.25 -6.04004
-8.59706 114.424 -12.7323
-9.95475 113.69 -12.8551
-27.1446 97.6434 -0.0810525
8.19867 119.658 -2.67136
-25.2934 105.092 -13.6321
8.71097 121.921 -6.73971
-10.5595 113.482 -12.9976
-2.01809 108.338 8.93535
8.95582 122.941 -8.52224
6.79781 119.907 -4.71259
19.4435 126.055 -1.91642
11.8004 123.718 -6.55908
-36.5247 96.274 -8.69589
14.0791 120.678 2.91166
-36.5815 96.1338 -8.45876
-20.5944 99.5447 4.51063
-7.14423 109.371 0.441209
8.59796 123.104 -9.08946
-14.1163 111.509 -12.9017
7.53497 120.297 -4.35805
-28.6668 97.5449 -1.25008
-21.5305 107.618 -13.7017
-14.0283 104.62 2.27205
15.8625 123.393 -0.228004
9.92653 122.44 -5.69941
9.73229 118.839 1.86793
8.989 119.702 -0.92307
-3.48885 109.63 4.98573
0.0292627 109.93 8.84925
9.68702 119.945 -0.395061
-20.1761 108.709 -14.0263
-15.2273 111.014 -12.5546
7.15082 121.379 -6.42536
15.6218 122.969 0.91151
-11.7194 113.282 -12.8862
-12.0406 106.237 1.92463
-3.18726 114.25 -4.05489
-1.95399 118.17 -10.8189
6.73997 120.969 -5.7745
-2.21211 114.819 -3.83472
6.73894 121.199 -6.19344
-15.913 110.888 -12.6679
-11.9471 106.451 1.94416
-2.4171 114.786 -3.9164
7.66014 117.662 2.75522
-6.67061 110.715 -0.441117
-6.31044 111.855 -2.42959
-27.2534 104.349 -12.6703
2.20783 120.395 -9.85643
-28.94 98.0605 -1.20841
-24.3648 106.544 -13.6737
8.61269 120.626 -2.17224
10.7078 123.993 -6.72664
-35.5105 98.2044 -9.76357
5.39919 114.431 7.16455
9.32498 121.095 -2.21033
-21.1857 100.122 4.30303
-13.4157 105.582 2.45616
7.60737 121.205 -4.53799
-12.5007 106.253 2.18786
-2.98567 114.724 -3.98961
-29.6982 98.045 -1.87221
5.97576 123.047 -10.4486
15.7635 125.285 -2.77981
13.8417 121.442 3.11657
18.4892 126.794 -2.47261
-10.575 107.673 1.86247
-7.99646 115.872 -12.4921
-7.53813 109.688 1.44022
9.13947 122.546 -5.08898
-16.5883 110.966 -12.7433
-34.4255 96.9169 -5.07249
12.323 120.584 3.25021
-1.6629 113.123 1.59558
-1.63071 113.199 1.48808
-11.1362 114.217 -12.7408
2.31941 112.168 8.7806
-32.0713 101.336 -11.4703
-25.9759 99.1788 0.933661
-27.7029 104.398 -12.4921
10.1706 119.973 2.03255
-36.1465 97.5912 -8.44369
5.85619 116.926 3.19188
-33.7047 97.0852 -4.19861
-34.6291 97.0223 -5.20772
9.06772 122.127 -3.79655
-22.2372 108.275 -13.503
-10.7923 107.829 2.03542
9.50668 123.674 -6.28156
6.21116 117.454 3.02206
16.2981 124.704 0.231273
-32.2394 101.509 -11.3481
-14.5266 105.466 2.59948
-18.8847 102.01 4.64811
-0.99719 114.642 0.132999
6.29087 123.785 -10.3144
8.6357 124.127 -8.04509
9.78494 119.909 2.52778
12.9699 125.36 -5.1642
10.0023 119.981 2.77494
-27.6645 104.997 -12.6294
-21.078 109.389 -13.7011
16.1913 124.811 0.367283
10.0492 119.962 3.03839
-16.5784 111.56 -12.5116
7.6056 122.462 -5.32015
19.5231 128.031 -2.17308
-32.728 97.7155 -3.10721
17.1017 126.551 -1.91436
8.03609 123.733 -7.33861
-0.0528131 116.287 -1.53304
-15.6329 112.048 -12.0854
-20.9474 100.982 5.02095
-0.667176 115.548 -0.616069
-26.9731 105.868 -13.0924
9.23849 122.232 -2.4136
15.8046 126.036 -2.25639
-12.4643 114.026 -12.1986
18.2698 127.3 -1.73574
5.96089 117.726 3.31931
-6.11163 112.602 -0.936188
8.22432 122.672 -4.43869
-24.1042 100.335 2.70111
-2.45572 112.239 4.5145
8.45652 121.049 -0.62417
10.0846 120.257 3.20914
-0.752795 115.465 -0.201541
2.13878 113.029 8.79735
-4.39287 118.296 -10.7914
8.60076 123.263 -4.94288
7.13762 118.629 3.18871
10.8587 121.339 2.13287
7.59134 122.993 -5.53232
-0.877523 116.97 -3.24236
19.9981 128.678 -1.91153
9.17592 120.462 2.09126
2.91221 122.121 -9.40522
-6.08231 112.69 -0.454659
8.70381 122.966 -3.80231
-1.82092 113.514 3.3322
10.299 121.252 2.12365
-30.495 99.0093 -1.68271
9.77901 122.86 -1.96035
-33.2332 101.697 -10.8089
14.7488 126.213 -2.76484
9.93502 120.687 3.04691
-24.4134 108.087 -13.3413
16.1031 126.993 -2.63867
-6.03491 112.791 -0.085443
9.44486 125.505 -7.78812
-14.8082 106.298 2.88042
-12.5787 107.698 2.79181
-6.90309 117.885 -11.9343
-9.14817 116.711 -12.1866
15.5301 124.377 2.62474
19.5225 128.623 -1.38595
-23.6623 108.747 -13.3281
7.97632 121.993 -1.73747
-34.684 100.698 -9.92168
-34.1861 98.9296 -5.45289
9.16766 120.988 2.01259
-31.0204 103.65 -11.5222
-6.511 112.256 1.04673
16.9843 127.883 -2.76769
-22.9011 101.25 4.19446
16.9456 126.282 0.858245
16.4867 127.797 -2.94228
15.742 125.297 1.51135
7.79923 123.892 -5.53274
9.71557 122.608 -0.31393
-1.87034 113.752 4.08065
-19.3567 111.393 -12.9971
-0.515604 117.905 -3.09758
-29.2822 105.009 -11.7916
-1.84792 117.39 -3.66434
-7.44771 111.469 2.11267
-32.7125 99.0277 -3.10427
0.160225 117.272 -0.602513
20.0851 128.811 -0.109768
-0.49589 118.177 -3.20006
-0.474537 116.569 0.293769
10.5689 125.795 -5.5729
-6.50092 118.588 -11.6899
6.80416 119.5 3.39807
9.79471 125.605 -5.91935
20.1235 128.909 0.0675299
7.51003 121.241 0.59139
7.50541 121.233 0.616666
15.9943 128.05 -3.24721
-1.24126 120.716 -9.23116
-4.95374 119.464 -11.2312
-14.6193 113.755 -11.177
-1.83953 114.233 4.08444
0.834849 113.607 8.86082
12.7481 126.675 -4.14825
-5.66659 114.165 -0.54535
-21.4728 102.113 5.47241
-7.91509 111.453 2.63429
-15.691 113.487 -11.5676
-24.6733 108.986 -13.2402
7.32751 122.197 -1.07857
7.43756 122.968 -2.58616
-18.7587 112.282 -12.7264
14.5961 123.75 4.93945
6.43307 119.505 3.74843
-30.4194 104.899 -11.481
-32.8759 103.11 -10.7401
-6.97994 118.832 -11.6928
-3.71375 120.134 -10.3473
-12.2827 108.781 3.29493
2.61622 123.266 -9.00849
7.42374 126.455 -9.7652
9.43618 126.36 -6.9032
-2.53509 113.365 5.93076
3.23237 115.606 8.46806
10.067 126.152 -5.54268
-1.91334 112.598 8.48199
0.0393359 117.593 0.201057
-23.6043 101.875 4.11259
3.14746 115.61 8.48079
-2.97142 112.832 6.75108
-34.0653 101.009 -7.12546
17.8118 128.661 -0.838769
-3.01763 112.685 7.17922
8.70856 121.911 2.21226
15.8445 128.739 -3.31704
-33.8571 99.8989 -4.19195
-22.1329 111.069 -13.3822
-7.48823 112.285 2.57148
-31.4343 104.6 -11.2115
9.03111 125.056 -3.91366
10.8334 126.713 -5.19166
8.5413 125.969 -6.47677
-22.4068 110.989 -13.4283
10.2331 122.785 2.55745
0.93626 118.797 -0.635257
-31.4412 104.666 -11.1967
3.67652 124.532 -9.43527
-31.6729 104.54 -11.1486
-2.08764 121.186 -9.48599
4.6037 117.314 7.54628
6.78804 122.2 -0.201858
-1.76338 118.743 -3.56891
-1.45213 121.553 -9.04412
-8.18257 111.954 3.12191
12.0574 123.411 4.11749
-8.35732 118.726 -11.6573
10.6041 123.618 1.90463
1.67041 123.192 -8.47388
0.076844 114.227 8.83985
9.96148 122.733 3.0525
6.67018 122.442 -0.478599
-7.03345 113.001 2.48536
-34.3996 101.65 -7.72787
15.475 125.02 5.21907
15.4698 124.986 5.31999
-7.85275 112.406 2.98946
9.07734 128.026 -9.16184
10.1981 123.295 2.59127
7.20624 124.437 -3.65954
15.9394 126.299 3.4526
-2.13628 114.714 5.49375
9.83681 123.293 2.19518
8.59587 126.504 -6.2963
-5.41018 115.753 -0.822752
9.83194 123.357 2.15907
6.63231 120.381 4.56282
4.60254 118.334 6.50521
-3.78477 117.803 -2.94842
3.3363 116.824 8.27331
7.96103 121.468 4.21312
-28.9345 101.384 0.763426
-3.47612 118.175 -3.10047
19.2027 130.151 -0.13949
9.6211 127.958 -7.51167
17.9623 128.585 1.71895
15.2788 125.491 5.05818
0.0231028 118.32 1.16479
8.91059 126.955 -6.16292
16.9073 130.056 -2.68353
-25.6978 102.391 3.05106
1.31301 120.513 -1.64006
2.2489 116.33 8.61099
-4.1217 121.47 -10.5195
-1.44229 122.296 -8.89842
0.640477 120.658 -2.69311
6.30094 123.968 -2.54662
14.9582 125.327 5.51351
14.0088 129.133 -3.87248
17.1663 130.384 -2.52412
-1.77582 116.106 4.23601
1.36688 120.122 -0.416695
-31.8096 101.038 -1.34925
-21.3288 103.931 5.77508
-24.1429 110.881 -12.7429
-33.8284 102.462 -6.87662
0.403751 123.255 -8.1803
9.27031 124.025 1.41904
-5.67528 120.958 -10.8923
8.09227 123.22 1.71501
-3.719 118.346 -2.74572
10.8303 124.659 2.34641
8.26761 125.911 -3.59111
-18.4789 106.314 4.77848
8.16849 126.227 -4.21927
9.44027 124.403 1.36624
-27.4942 102.374 2.04229
2.57972 117.059 8.55633
-4.9541 121.565 -10.697
7.13734 125.93 -4.72028
-27.9466 102.309 1.78437
0.910401 119.78 0.780105
-0.859363 117.846 2.71339
-0.0612191 118.734 1.82742
19.0181 129.852 2.12225
1.53045 121.382 -1.76605
-30.3041 106.96 -11.0366
9.91058 128.858 -7.16813
-2.02642 115.317 7.02046
10.7113 124.931 2.46598
0.765926 121.463 -2.59885
-30.0633 107.197 -10.9452
-31.0049 106.656 -10.9227
-3.3824 122.488 -9.96632
-0.979305 115.511 8.16707
-0.750502 118.188 2.73739
0.412583 121.458 -2.81777
9.3037 128.115 -5.88211
-18.5434 106.75 4.93898
10.3048 124.49 3.33708
-31.2903 101.911 -0.764356
8.95594 127.551 -4.81232
16.7402 131.081 -2.54504
0.209208 123.831 -7.84487
7.4369 123.746 1.53187
-0.733718 123.434 -8.15557
12.0794 124.762 5.27212
8.75775 126.377 -2.36435
10.8991 125.051 3.22184
-14.6712 116.274 -10.1267
16.2112 127.706 4.42082
8.79135 126.404 -2.12992
-16.7039 115.55 -11.0751
-26.3634 103.362 2.94064
-33.9368 103.579 -7.11251
9.27489 128.458 -5.81677
11.0469 125.694 2.42042
13.0262 125.443 5.5478
4.08344 119.739 6.52873
1.06729 122.113 -2.38511
1.60527 121.147 0.408457
1.71383 125.286 -8.36472
0.299678 121.905 -2.84996
4.45485 127.319 -9.22931
7.61907 124.309 1.27227
1.2853 120.699 1.07549
-25.8546 103.656 3.37961
-1.45868 117.586 4.32307
7.20253 124.101 1.27493
-2.71161 120.2 -2.89109
-0.513038 121.719 -3.36805
-26.6504 103.475 2.80674
-27.76 109.695 -11.9405
9.15801 127.337 -3.08924
17.9291 131.095 -0.055597
-10.0792 112.876 3.69813
-4.1325 122.768 -10.0087
-9.77825 113.126 3.68576
5.58412 121.221 5.72872
-30.9873 102.641 -0.517884
7.60876 124.557 1.29171
7.35905 124.502 1.10241
-28.2218 109.58 -11.8423
8.98823 128.334 -5.0481
-21.4669 113.783 -12.2641
10.6685 125.624 2.98393
-11.6675 112.123 3.83331
16.1173 131.612 -2.90267
1.26451 120.931 1.29453
10.0558 130.274 -7.66294
-27.9857 103.452 1.88538
-8.83881 120.435 -10.3018
-1.29845 118.077 4.3615
18.6248 131.588 0.562926
-0.892942 121.884 -3.24884
-3.82455 119.589 -1.99099
0.229606 122.382 -2.85308
7.9284 125.345 0.530371
6.23665 123.888 1.52564
10.8237 128.585 -2.76257
19.1466 131.644 1.21753
1.20706 122.829 -2.46798
-22.778 104.986 5.58914
3.4443 119.257 8.11072
15.6969 131.678 -3.10276
7.68551 126.527 -2.10624
-4.68293 118.284 -0.0292561
8.59183 127.703 -3.4511
5.94855 125.53 -2.07044
15.6653 128.176 4.55957
-4.73202 118.204 0.212534
0.47514 124.97 -7.71601
7.29538 129.625 -9.09059
10.7609 128.661 -2.5845
-1.36543 118.145 4.732
-4.72211 123.019 -10.0187
-25.0999 111.959 -12.0138
8.6253 128.64 -5.17719
-28.7986 109.574 -11.5575
-4.25987 119.352 -1.4673
-9.05031 114.172 3.65831
-8.69432 120.816 -10.1787
-12.8608 111.851 3.9898
-7.26391 121.802 -10.3125
8.10166 126.665 -1.26368
7.26218 126.335 -1.60802
-4.13248 119.577 -1.49195
6.53119 124.266 1.93339
-1.69007 117.695 5.70468
11.4641 130.646 -5.50304
2.18723 122.462 0.373315
1.61931 126.125 -8.20638
-5.70736 116.863 2.61181
10.4197 129.331 -3.77799
8.75359 127.523 -1.99085
-28.9933 103.899 1.05287
15.5012 132.106 -3.25206
9.03377 129.246 -5.29356
9.83668 131.141 -8.34399
-20.0251 115.086 -11.6159
10.7386 129.042 -2.65683
2.306 123.377 -0.928558
9.92941 129.39 -4.18027
7.69755 127.629 -3.16894
-4.87562 118.143 1.33178
-16.715 109.792 4.32421
-32.5903 106.566 -8.83152
10.1937 129.62 -4.18004
-32.5016 106.94 -9.4594
-8.73135 121.163 -9.94942
10.39 128.731 -1.99754
6.51555 126.312 -1.6529
-1.95257 124.476 -8.43551
-26.0202 104.734 3.57741
11.5179 126.635 4.02348
-26.6473 104.576 3.14924
7.8152 130.427 -8.83123
-33.3043 105.046 -5.98288
-0.871251 119.433 4.17274
-8.18037 121.711 -9.95398
-2.98592 121.173 -2.15045
15.0135 128.609 4.6746
-24.6749 113.013 -12.0245
2.40898 123.791 -0.871004
9.71024 129.895 -4.75658
-23.8363 105.581 5.0995
6.82221 127.242 -2.67519
15.4632 132.653 -3.35698
14.4442 128.397 4.54066
-1.59227 124.843 -8.10811
12.3335 126.891 5.1586
10.0708 128.629 -1.45017
4.85103 121.906 6.45028
13.6823 132.275 -4.67619
7.73632 126.938 -0.717418
4.06137 128.598 -8.83918
18.646 132.859 0.517681
6.90355 126.356 -0.33102
6.91893 127.528 -2.68664
-32.5495 106.585 -7.57898
-2.73395 121.668 -2.21727
-5.53412 117.719 2.82096
1.36207 119.335 8.08609
-12.6211 119.046 -9.01492
-26.0896 112.532 -12.0158
17.0928 130.319 4.49353
8.76944 127.907 -0.842569
-3.80253 124.475 -9.34819
-18.0193 116.857 -10.8894
-32.8066 105.144 -4.39915
6.13216 125.858 0.429104
-3.21957 124.717 -8.95006
2.42803 124.833 -2.02977
13.0163 132.505 -5.08526
6.57922 124.244 4.59226
7.65793 128.435 -3.0006
6.15538 125.68 1.0942
17.4836 133.785 -1.99838
-6.07179 117.387 3.50847
19.7619 132.968 2.70498
8.64112 127.491 0.432433
-4.77018 118.961 1.80741
6.79408 130.623 -8.63403
10.0184 131.704 -6.86206
-26.2546 112.752 -12.024
12.352 127.411 5.35914
15.5049 133.414 -3.46861
6.75902 125.925 1.57452
-1.81205 125.371 -8.05546
4.38392 122.124 6.83108
-12.4911 113.56 3.89263
1.76646 124.932 -2.51847
10.0217 131.461 -6.03994
-10.0537 121.105 -9.14926
7.39623 129.029 -3.9937
-0.618717 125.905 -7.35695
3.75718 121.561 7.56444
-18.8944 108.963 5.98131
19.3806 133.285 2.14504
9.52907 132.143 -7.81839
-32.3593 105.364 -3.24098
-0.850963 120.206 4.81167
-12.8408 119.439 -8.72027
8.51977 130.195 -4.79398
7.28841 128.531 -2.7462
2.10658 125.287 -2.28879
8.47931 130.192 -4.76849
-5.10263 118.864 2.42209
-1.97062 122.879 -2.24823
9.53998 127.452 2.56175
10.9584 131.376 -4.07701
-23.4134 106.654 5.62125
2.38232 128.171 -8.00487
-31.726 108.806 -9.44865
-22.1185 107.158 6.3045
2.94407 124.598 0.536482
8.70129 126.523 3.70759
-7.30234 116.875 4.20636
1.378 122.872 2.48175
-31.4531 105.567 -1.85644
2.31596 125.618 -2.14973
2.76238 124.488 0.876724
-0.0867616 126.569 -7.13259
-0.678325 120.045 6.25871
0.191744 124.933 -3.12898
-11.4137 114.77 4.11868
-8.97232 122.333 -9.05535
11.1199 132.423 -5.24254
12.1887 132.554 -4.16971
-17.1188 111.163 4.8436
18.647 133.758 1.55726
-31.2214 109.465 -9.34408
-28.9555 111.106 -9.92794
6.6486 126.515 2.02812
8.83224 130.986 -4.83324
11.3975 131.648 -2.93727
9.31633 131.138 -4.46672
-31.763 106.113 -2.55937
-26.9863 113.141 -11.5265
8.85353 131.097 -4.69432
-16.508 118.494 -9.64564
0.214906 125.295 -2.95691
-16.5491 111.968 4.52677
-32.0524 106.407 -3.1061
1.26099 123.232 2.93088
3.45818 125.732 0.39257
14.3697 130.094 4.85134
-0.0621168 120.598 7.02887
-28.6771 111.693 -10.0199
10.3439 128.38 3.52821
7.05737 126.188 4.1506
-19.007 109.906 6.29631
7.43184 126.45 4.24978
-32.3971 108.706 -7.88289
-32.241 108.994 -8.29575
-3.72843 121.625 0.666706
8.96496 131.469 -4.30829
6.82205 131.797 -7.70307
1.96935 126.613 -2.68705
-2.96283 122.917 -0.955186
-8.69143 123.161 -8.72324
1.72627 121.662 7.72277
1.75834 128.649 -7.19877
18.982 133.553 4.22311
18.0699 135.369 -0.76085
-4.23714 120.857 2.22249
-3.3443 122.473 -0.109829
-20.6642 109.137 6.65789
-13.8521 114.263 4.26473
-2.41116 123.553 -1.19725
5.42132 131.317 -7.98027
-11.0908 115.822 4.4669
11.4736 132.554 -2.90535
11.466 133.291 -4.48363
11.4714 132.844 -3.47609
0.930533 123.4 3.50824
-8.99513 123.162 -8.52816
-25.9998 114.66 -11.7491
-1.26089 124.736 -2.02824
-3.20447 122.809 -0.264926
-31.9808 109.545 -8.17419
8.71865 131.701 -4.23743
-27.962 107.154 2.20592
-1.59103 127.199 -7.46085
2.10362 124.737 2.54899
-20.1527 109.75 6.62586
-0.0852714 122.04 5.76627
-3.11691 123.045 -0.238638
12.7813 134.203 -4.11393
1.44414 128.838 -6.93023
-28.4239 112.616 -9.80343
-13.4265 120.663 -8.07771
-11.0409 122.009 -7.92063
-24.0303 108.137 5.50492
-31.9631 108.942 -6.23685
-28.034 113.094 -10.1766
15.0891 131.361 5.18482
17.1083 135.807 -1.82517
14.1765 134.971 -3.72672
-31.093 107.523 -1.97232
-29.8924 107.431 -0.198775
2.93492 127.782 -2.26238
-6.80019 124.864 -8.29249
-28.8303 107.641 0.985779
-4.06666 126.609 -8.32978
15.7654 135.592 -2.50505
11.2593 129.47 4.97631
2.49784 123.452 6.83818
-12.4447 115.737 4.53828
-6.28479 125.288 -8.18065
10.8872 132.774 -2.49965
3.69491 126.89 1.07303
-13.2002 115.37 4.47293
-12.9993 121.217 -7.86608
-31.4685 109.451 -5.93702
3.17463 128.056 -2.04007
11.4461 133.313 -2.85065
-4.68768 121.106 3.01956
-19.4872 110.738 6.61885
2.77574 128.157 -2.62502
-8.14842 118.465 4.44088
-24.528 108.572 4.99503
19.0771 134.995 3.45003
-7.02785 125.035 -8.17985
-25.7799 115.614 -11.6556
-16.0812 113.677 4.82849
-18.1352 111.929 6.03675
-14.7198 114.665 4.49688
2.48581 128.161 -2.72786
9.19054 129.18 3.58806
-6.29582 125.484 -8.08987
5.5019 126.691 4.29808
5.80604 132.308 -7.3719
3.4725 126.833 1.46988
-23.3153 117.245 -11.8339
-23.7528 108.786 5.87032
19.2889 135.091 3.83931
0.482231 122.859 6.41456
-30.725 111.439 -8.5182
-31.6977 110.137 -6.85397
8.6097 132.108 -3.033
18.6389 135.833 1.70098
-30.7254 109.528 -4.20576
-2.36725 124.587 -0.625553
-28.6268 108.262 1.31578
10.8718 129.969 4.69448
1.48197 129.751 -6.73529
11.9236 134.466 -3.64607
-5.16756 126.44 -8.02848
-4.18461 127.076 -7.97644
12.9532 131.388 4.4766
17.5167 136.723 -1.12802
-31.7748 110.693 -7.44835
-14.4423 121.313 -8.32407
11.3665 134.811 -4.6448
-9.43838 123.99 -7.70345
3.01765 131.337 -7.7329
-20.4849 110.711 6.90556
13.3074 131.688 4.57966
8.60757 132.259 -2.57267
8.92271 132.61 -2.92416
-12.2213 122.262 -7.39306
1.85442 125.562 3.40689
11.4311 134.701 -4.09562
-30.4791 110.382 -4.67469
-13.4159 121.878 -7.79895
14.0794 136.061 -3.40988
-7.0665 120.167 4.08662
-3.22049 123.711 1.39702
-24.5776 109.452 5.03998
-5.65329 126.542 -7.74565
-26.9063 109.182 2.71139
-26.6096 109.237 2.99367
-28.5425 114.035 -9.75639
-2.17258 125.238 -0.390076
-14.7518 121.571 -8.41014
-1.00425 126.422 -1.38204
-6.28948 126.268 -7.73601
-16.2334 114.429 5.18403
10.8274 130.622 4.63472
18.7996 136.392 2.35879
-15.3298 115.141 4.86847
18.838 136.662 1.93607
14.0373 136.259 -3.26476
-29.558 109.192 -0.121666
3.43371 129.698 -2.44772
15.0196 136.619 -2.61436
17.1193 134.328 5.00091
-9.81478 124.202 -7.31361
-3.21783 123.927 1.66152
-15.87 121.436 -8.84643
-9.86817 124.236 -7.25646
2.99975 129.636 -2.52835
-6.15839 126.63 -7.59255
6.09557 128.231 4.5784
-20.3005 119.918 -10.9565
17.0042 137.316 -1.02126
-29.576 109.689 -0.549522
16.8063 134.337 5.18668
-15.0373 115.816 4.79029
11.8629 131.796 4.48222
18.4167 137.426 0.721543
-17.1136 114.246 5.6949
6.76226 134.247 -7.11095
-9.49843 124.734 -7.18742
-23.5208 118.487 -11.4737
-8.29313 120.247 4.07595
-27.0403 116.229 -11.0274
-6.45866 121.314 4.14392
4.32894 129.122 1.02628
2.67371 127.219 3.10423
-1.75388 126.193 -0.267091
13.9065 136.68 -2.98571
3.2733 132.496 -7.31414
10.091 134.528 -3.00422
0.742244 125.348 4.92092
18.9372 137.448 1.93612
-0.731645 127.302 -1.14737
18.3759 137.713 0.675909
4.28766 127.555 4.69977
-10.613 118.57 5.23409
-5.70036 121.872 4.3506
-30.79 112.211 -6.49847
-23.9801 118.512 -11.4272
-29.8334 111.689 -4.01698
-19.2442 113.01 6.70186
-16.3222 115.301 5.5616
-22.4139 119.467 -11.1358
14.4769 137.376 -2.73927
10.2684 134.926 -2.78296
4.84235 130.928 -1.0286
-20.296 112.374 7.0857
9.91194 131.465 4.28343
-27.4326 116.448 -10.6633
-30.431 113.735 -8.30957
-19.2527 113.384 6.63334
-27.1961 110.531 2.72368
4.21974 131.358 -2.19096
-5.8662 127.67 -7.03423
-16.4521 115.585 5.63438
-18.2205 121.683 -9.74434
6.43323 129.807 4.01936
-30.5169 113.675 -7.98914
-29.4935 114.908 -9.30483
2.81802 128.344 2.73625
8.86338 136.726 -7.61213
-6.81766 127.259 -7.06234
-16.9436 115.285 5.93782
12.1279 136.494 -2.82512
-26.9206 110.812 3.03325
-28.8585 111.944 -1.86116
-17.2628 122.145 -8.9214
19.0222 137.575 3.92052
2.25265 127.921 3.51757
5.29158 129.293 4.44491
1.0839 126.32 5.55271
9.21641 137.287 -7.69126
2.45268 127.384 5.16994
-17.0002 115.578 5.96605
-26.7756 111.137 3.24137
-12.8129 118.19 5.7864
6.04391 130.107 4.03471
-8.59507 121.605 3.94272
1.32996 132.145 -6.13771
-27.9825 113.454 -3.02593
-11.3954 119.269 5.48651
2.34256 133.079 -6.84053
-3.38528 129.754 -6.90964
3.1884 128.046 5.10737
2.35648 133.108 -6.84871
1.9097 130.535 -1.85283
-16.2976 116.403 5.52429
-6.07578 128.128 -6.71422
-1.56298 127.41 0.630457
-27.6165 113.562 -2.4995
-12.116 124.577 -6.5551
-2.82425 130.158 -6.78347
-10.3127 120.441 4.80316
15.3882 135.449 5.07108
-27.6343 111.833 1.42214
-7.39752 122.614 3.86442
4.99481 131.477 0.491711
11.6848 136.731 -2.29734
4.13481 128.867 5.12889
3.22865 128.335 5.17732
-26.4226 118.27 -10.7166
-27.4066 112.26 1.07044
3.55962 134.355 -7.24986
10.6408 137.01 -3.943
-18.2444 115.285 6.36421
4.64465 129.604 4.65451
5.67322 135.69 -7.14588
-7.14788 123.087 3.90306
-15.4638 123.558 -7.61138
-0.0911792 129.236 -0.284647
-26.7025 113.167 0.62633
-30.8077 113.99 -6.07857
2.01021 128.216 4.90066
-0.070767 129.345 -0.167198
-8.13092 122.889 3.6367
-18.7126 115.378 6.4365
9.59107 138.142 -6.69545
15.1419 138.968 -1.42513
-22.9477 112.745 6.83264
-5.49001 129.232 -6.48788
-29.3635 116.226 -8.71689
3.63489 134.823 -6.90475
-20.4132 122.239 -10.2642
-3.78044 125.657 3.49994
0.69195 130.369 -0.830601
-24.4771 120.203 -10.8066
1.82467 131.535 -1.63844
-27.1432 114.438 -1.27122
15.9845 136.815 5.27284
9.84933 138.258 -5.57436
-3.81252 130.662 -6.44521
2.26456 129.713 3.76346
-28.3679 114.605 -2.42008
-24.2823 120.787 -10.5263
-30.0736 116.053 -7.63562
-24.4746 113.193 5.67031
18.3604 139.218 3.92827
-21.6499 122.188 -10.0035
16.089 139.975 -0.352022
-22.1453 113.8 7.56539
-21.8429 122.129 -9.94693
4.85017 136.52 -7.08288
2.86319 134.995 -6.18069
-25.2098 113.626 4.26188
2.8106 130.229 4.05754
3.21865 131.005 2.9127
-25.9633 119.962 -10.2665
4.53014 136.455 -7.12363
-21.4357 122.532 -10.0273
11.2137 134.977 4.5935
5.29593 131.549 4.48181
-13.32 119.766 6.29158
-3.14435 131.536 -6.10106
-22.1206 122.125 -9.85403
5.7665 133.404 1.26633
3.60634 131.533 2.56525
-25.1914 113.87 4.16784
-25.2339 114.003 3.82914
5.26474 134.608 -1.87057
3.49368 130.694 4.38275
6.28128 134.374 0.0420178
-0.947505 129.242 1.93178
-8.29841 124.184 3.73301
-19.3539 116.39 6.59409
-25.1192 114.919 2.45253
-2.35187 128.035 3.07215
-8.9245 123.596 4.32212
3.74179 136.245 -6.75693
-21.8416 114.613 7.56105
-14.6329 119.405 6.42128
-9.21229 123.459 4.59044
-14.6687 125.688 -7.10773
-12.0871 126.98 -6.45419
-6.25612 130.119 -5.76841
18.5678 140.953 2.4691
-25.1887 115.659 1.54549
-27.7883 119.17 -9.27787
-24.1953 114.697 4.98405
-19.6657 124.174 -9.52261
6.88951 135.417 -0.0661767
6.70588 135.111 0.379773
-19.0296 124.432 -9.23075
-0.428856 130.361 1.64082
-19.0352 124.465 -9.23194
-9.82644 123.23 5.12182
-12.1425 127.231 -6.43261
-21.5236 123.323 -9.88655
9.46121 135.008 4.31752
3.40169 133.945 -1.06339
5.34811 133.748 1.94856
10.5931 140.028 -4.92247
3.56453 136.627 -6.43626
7.02628 138.949 -7.04674
2.75321 133.686 -1.112
-24.8419 115.91 2.433
-29.1844 115.677 -2.55789
-27.2058 120.102 -9.56252
10.5084 138.369 -1.0862
8.44136 139.872 -6.81398
-2.67144 128.598 3.48109
17.7319 141.599 1.39138
3.41631 136.7 -6.12677
-16.5698 125.554 -7.45752
-8.18078 125.427 3.47457
10.5118 139.394 -2.88626
4.90237 133.629 2.5073
-26.3257 120.972 -9.7974
14.2718 140.931 -1.13298
-29.9911 116.158 -3.89628
6.31402 135.256 1.03214
11.4082 136.422 5.04606
-28.5155 119.291 -8.42649
-29.3756 118.388 -7.51251
1.69489 133.449 -0.549375
-16.1124 126.092 -7.25212
3.48492 137.065 -6.03521
-15.1918 120.323 6.39291
9.48335 135.828 4.37038
-9.03775 124.853 4.54449
-19.0954 117.842 6.9348
10.5912 140.267 -3.72204
-28.9548 116.25 -2.09552
-26.4601 116.662 0.19
6.17147 135.374 1.29042
-18.5591 125.427 -8.61509
14.612 141.344 -0.788743
-6.49663 131.074 -5.28558
-24.646 117.014 2.04409
-18.7229 125.529 -8.74592
0.722091 135.546 -5.60419
-29.9495 117.325 -5.14989
-18.9725 125.64 -8.96397
17.6269 142.324 1.51564
-27.6261 120.54 -8.89976
-20.115 117.238 7.74053
-27.224 116.808 -0.265278
4.30722 133.702 3.33414
7.3707 140.305 -6.93238
10.2936 140.234 -2.94134
-8.39068 130.232 -5.0264
-24.3857 117.359 2.5661
-30.006 118.274 -6.49938
-22.6181 123.903 -9.23815
11.1081 137.38 4.52465
-16.0357 127.034 -7.60255
-22.639 116.344 7.1196
-19.6204 125.816 -9.30275
-2.55782 133.772 -4.79134
-6.92692 131.364 -4.97246
10.1927 139.724 -1.26391
-15.8917 127.401 -7.7455
17.799 142.715 1.98865
-19.4972 126.031 -9.33728
-3.02756 133.668 -4.81145
7.64156 137.698 0.230165
5.52311 135.371 2.59332
16.3296 140.585 5.07653
-16.7379 127.01 -7.61339
12.9541 141.058 -0.20949
-8.9146 126.171 4.13934
-3.84777 129.094 4.35308
-12.5898 129.084 -6.53027
7.22578 137.207 1.25911
-5.4082 132.732 -5.01281
4.53017 137.013 -1.5393
-22.1735 117.197 7.28772
7.18053 140.998 -6.75356
4.42645 139.288 -6.33513
5.99467 136.083 2.57018
11.7322 138.347 5.00832
4.83827 134.809 3.91265
3.60391 136.369 -0.962347
-8.7267 131.061 -5.11093
-1.70193 131.55 2.75084
-6.73418 128.063 4.05498
-23.1739 124.512 -9.10497
3.78648 138.793 -5.56286
10.6824 141.705 -3.07745
8.8363 142.14 -6.25524
9.87651 141.97 -4.53786
-15.2752 121.995 6.62597
11.8223 138.723 5.0803
-4.62393 133.571 -4.65522
-9.019 131.242 -5.19298
-22.9848 118.596 4.34481
-2.51824 130.997 3.59232
-11.5493 130.258 -6.20434
-9.29397 126.61 4.66604
9.92335 138.304 3.95834
9.87811 142.245 -4.5817
-9.17007 131.344 -5.23526
16.9626 143.589 1.53556
-28.7072 120.383 -6.28435
10.5614 142.259 -3.55954
6.43396 136.847 2.87792
12.0274 139.119 5.1639
-20.835 118.455 8.04372
-28.3766 120.845 -6.58072
10.3202 141.599 -2.17788
-0.240133 136.588 -4.74092
10.1331 141.367 -1.8195
-8.17083 128.09 3.62987
-22.6564 118.309 6.38382
3.23043 136.95 -0.835431
-29.4808 119.688 -5.12952
0.395502 134.198 1.55088
-24.2801 119.057 2.90008
-0.943181 132.878 2.77967
-29.4071 119.758 -5.01451
2.07546 136.117 -0.120248
-4.92889 129.855 4.61568
10.5494 142.245 -2.40037
-15.0163 129.806 -8.00367
-24.279 119.212 3.1092
-25.9836 123.867 -9.01134
-2.24226 135.692 -4.34835
-10.8717 131.459 -6.09613
-0.190366 137.127 -4.66879
-12.1498 124.952 6.43916
-12.9524 130.833 -7.03465
-5.89448 129.716 4.38321
-3.84887 130.987 4.27585
7.54454 138.296 3.12124
-11.4003 125.614 6.4703
-14.1802 130.494 -7.56117
-1.4097 133.058 3.22585
-27.9135 121.208 -4.82959
-25.5356 119.324 2.25357
10.1924 139.695 3.69253
0.472548 137.973 -4.83956
-25.6708 124.278 -8.48834
-11.5219 125.688 6.50521
6.91336 142.54 -6.38795
-19.0733 120.48 8.21209
15.85 142.587 4.88887
-24.5365 125.272 -8.92958
8.01495 140.24 0.128967
2.47009 137.042 0.0734488
-25.1015 124.466 -7.78249
6.37641 142.339 -6.34288
-13.062 131.332 -7.25726
-9.59561 127.686 5.0323
4.2573 138.739 -1.16188
10.6604 142.305 -0.595381
-8.27544 133.189 -4.96743
-27.1979 119.679 0.215505
-1.75771 136.759 -4.21297
-25.0089 124.717 -7.72612
-23.364 126.298 -8.8625
3.41766 138.252 -0.611351
7.85676 138.648 4.33115
12.983 143.284 0.845627
-25.075 124.122 -6.09424
-29.5045 120.194 -3.21014
9.58224 139.945 3.8254
-0.590973 137.767 -4.35811
-15.258 131.098 -8.471
-26.6423 123.756 -6.93934
10.5276 143.548 -2.36425
-26.2245 123.963 -6.65053
-24.492 120.041 4.05798
-15.6231 131.323 -8.99121
16.6282 144.685 3.2209
-8.97662 133.579 -5.25519
1.76469 139.569 -4.5178
10.5983 140.964 3.75361
14.4896 142.634 5.20463
-21.8157 120.051 7.85003
-28.63 120.381 -1.45797
8.46805 141.003 1.30985
-9.27573 129.411 3.81622
-0.656574 134.917 2.93424
8.37627 141.195 0.907243
-9.57889 129.293 3.82331
-10.9646 133.274 -6.48562
-5.42802 131.394 4.60152
-3.66683 136.479 -4.0281
0.59534 135.906 2.64817
-13.7162 132.562 -8.26977
4.28876 141.66 -4.97494
11.5587 143.546 0.30689
-7.06927 130.683 4.41678
8.46155 141.42 1.00899
-27.2434 122.623 -3.72756
-25.4242 124.218 -4.78802
-26.4098 123.917 -5.35302
0.663625 136.169 2.61001
-10.5457 128.109 5.80674
-9.41435 129.647 3.94139
-3.04887 137.107 -4.01758
-11.4189 133.589 -6.99253
10.3286 144.717 -3.36752
-24.9466 122.53 -0.290103
-17.8513 122.746 8.29883
-3.15163 133.407 3.97912
-15.049 132.692 -9.56914
-25.2748 124.443 -4.76192
-27.028 122.539 -2.83521
-24.5762 123.686 -2.06017
-25.0971 124.77 -4.92068
3.93193 141.711 -4.57789
-10.8331 133.984 -6.50409
-24.4281 126.288 -7.11217
6.16759 143.721 -5.81725
8.37423 140.842 3.18553
-24.0737 126.768 -7.56696
-27.6399 120.818 0.789759
-26.1841 120.985 2.28206
-0.950214 138.756 -3.98634
-23.3363 121.044 5.86761
-16.4665 132.374 -9.79958
9.69028 145.406 -4.66466
-14.7794 125.214 7.80545
4.23644 142.267 -4.73942
2.55179 141.113 -4.23251
14.9059 144.358 4.44681
9.9096 141.946 3.40535
-21.2084 121.619 7.73438
5.69273 143.665 -5.64309
-18.3796 130.715 -8.22955
14.9211 145.959 1.23382
8.75443 145.349 -5.22686
-25.1688 123.625 -1.21866
-28.4969 121.479 -0.76243
-5.41982 136.576 -4.00783
10.3859 144.418 -0.823109
-2.12732 138.466 -3.82285
-21.6213 121.778 7.5274
-24.3139 126.165 -5.33639
6.85268 142.307 -0.512249
-10.934 134.858 -7.02028
-15.3613 125.33 7.93229
-24.663 126.48 -6.29742
-9.49066 135.297 -5.98071
-22.9904 128.267 -7.95508
-18.1908 123.356 8.77912
-18.8417 130.961 -8.351
-18.2542 131.635 -8.97079
15.2649 145.57 3.82541
-18.8969 131.11 -8.33512
8.8451 143.507 0.269747
-12.0796 128.359 6.36753
7.63494 145.545 -5.60952
-23.2423 121.769 6.46851
-20.6125 130.156 -8.24951
-18.429 131.367 -8.07169
-25.5786 126.225 -6.05836
14.6789 146.626 1.11752
-22.0893 128.795 -7.05624
-13.3295 127.632 6.59826
1.71739 138.606 2.07309
-22.6992 128.478 -7.04258
-22.1087 128.689 -6.67287
10.5128 145.214 -0.864464
-11.7462 135.558 -8.24914
-21.9959 128.886 -6.84082
-28.0151 121.951 0.498873
-16.2074 125.33 8.19692
-23.5638 126.404 -3.44659
9.65357 145.95 -3.33479
-7.29726 136.694 -4.88615
-26.9887 122.337 1.09363
13.7122 146.292 1.21113
-13.7232 135.139 -9.55261
9.68335 145.595 -2.32279
-19.0676 131.599 -8.54331
-22.179 128.723 -6.28643
4.60522 143.741 -4.66474
-23.0248 126.682 -2.87802
-15.0637 126.442 7.92545
-23.6665 126.644 -3.39631
-7.03784 137.187 -4.95354
-27.8462 122.592 0.295368
-9.04034 131.952 3.99363
11.121 146.105 -0.871814
-17.7484 132.629 -8.44457
-5.79122 137.664 -4.09982
-12.9449 135.762 -9.03199
-23.9717 126.487 -2.95651
12.8247 146.162 1.38709
12.3024 144.286 4.79355
-8.08037 137.236 -5.81723
-9.64352 131.776 3.98715
-24.5171 125.997 -2.31737
10.7874 146.391 -1.4276
-3.18616 139.192 -3.60127
-21.3915 130.063 -7.00331
10.504 146.375 -1.61718
-23.405 127.859 -4.64183
12.3187 144.551 4.79611
12.4381 146.301 1.22678
3.91602 143.744 -4.03608
-26.1094 122.659 3.31973
2.38151 140.37 1.29938
-23.756 126.959 -2.92273
9.37738 143.685 3.12746
-23.2483 128.027 -4.50681
-24.1993 127.321 -4.10056
3.59184 141.676 0.223035
-20.2265 131.493 -8.03864
14.4015 147.534 1.45184
-24.2655 127.409 -4.21005
-11.4423 131.266 3.78307
-26.7805 123.076 2.00684
-7.75175 137.952 -5.86855
8.90266 144.135 1.98774
5.89154 145.636 -5.02739
9.15774 143.843 2.99675
-3.77459 136.07 3.35008
-27.3382 123.794 -0.0613174
-24.9559 127.351 -4.6837
-18.1347 132.528 -7.17199
-9.58104 132.606 3.55583
-23.099 128.315 -4.28576
-27.9498 123.354 0.269357
-5.62268 138.677 -4.41096
-16.3539 134.316 -8.59889
-23.5947 126.965 -1.82965
7.91293 144.685 -0.0326573
-23.5355 127.011 -1.84044
-24.0773 127.714 -3.95814
-23.754 127.177 -2.37455
-23.4899 127.981 -3.74822
-25.0074 127.364 -4.29322
-1.40073 140.933 -3.49801
-2.70265 140.195 -3.5512
-20.8002 124.26 7.8405
-8.90165 137.93 -6.49421
-24.6765 127.507 -3.99976
-18.3316 125.51 8.35709
-24.9945 126.286 -1.75932
-11.5927 131.439 4.14167
11.561 147.425 -0.924255
-6.30683 138.854 -5.08136
1.31647 142.588 -3.45344
-24.2156 126.435 -1.03168
-15.4376 127.848 7.06594
-10.2758 132.588 3.45005
12.2054 147.065 0.826545
3.81279 144.296 -3.83097
14.1901 147.639 2.19799
-25.3628 126.678 -2.79344
-5.91462 135.524 2.81766
9.29978 145.036 1.65648
-24.5923 127.466 -3.46628
-26.2685 125.693 -1.75144
-24.4273 127.659 -3.65064
1.75112 140.364 2.19513
-2.74259 140.445 -3.535
-24.3987 127.337 -2.75705
-25.4267 127.082 -3.50372
-16.0056 127.352 7.89227
-23.9742 128.647 -4.96047
-13.7919 136.344 -8.55974
11.4646 147.626 -0.828458
10.7875 144.971 4.036
-26.2449 123.473 3.45627
6.25395 146.497 -4.88651
-11.5646 137.827 -8.75684
9.13147 147.747 -3.85361
-14.5036 135.722 -7.85611
-7.52441 138.983 -5.99324
-16.1351 127.597 7.6254
-15.555 128.591 6.24126
8.74349 145.649 0.320838
-23.8383 128.758 -4.60311
6.41078 146.702 -4.89263
-25.5904 126.393 -1.72179
-24.2372 128.494 -4.52296
14.0364 147.724 2.7854
-27.0996 124.238 1.2628
2.06875 141.059 2.01612
-24.5405 126.747 -0.843377
-26.5796 126.088 -1.97242
-28.085 123.721 1.31193
-24.9997 127.84 -3.60638
-12.3737 130.868 5.88176
2.13011 141.28 1.98482
-13.0612 130.624 5.72933
6.88511 147.246 -4.77842
4.09033 145.184 -3.80619
-11.9652 131.678 5.02401
10.5739 145.588 3.6436
-28.2683 123.998 1.00289
-4.19706 140.42 -3.70664
-23.2253 128.987 -3.13902
-24.9077 128.021 -3.18806
4.57899 145.777 -4.00483
-25.2235 127.313 -1.98492
-24.7685 127.953 -2.77441
-5.33231 140.151 -4.39988
-26.3151 126.347 -1.17069
8.39153 146.111 0.290873
-11.0913 138.881 -8.77222
-15.0866 129.674 6.08625
-26.0075 125.132 2.0418
13.3478 147.409 4.00919
5.02255 146.339 -4.17542
-22.5516 129.753 -3.25625
-24.7345 127.855 -1.90239
5.05308 146.444 -4.16032
-1.90887 141.968 -3.22428
-22.1638 130.853 -4.95427
-26.061 124.816 3.15368
-24.9509 129.377 -5.22462
-27.5783 125.077 0.716887
7.96082 148.453 -4.5035
-19.2286 127.699 5.96494
9.94023 146.885 1.69593
5.2425 144.83 0.262531
1.63723 141.821 2.1782
-25.183 127.237 -0.396029
-23.6612 129.899 -4.16496
-23.231 131.293 -6.57283
-23.3907 129.565 -3.0218
-9.83405 134.677 3.21013
-18.427 134.018 -6.15475
-27.1899 124.932 2.33729
-25.4407 129.672 -5.63481
-15.3422 130.19 6.08815
-26.8972 127.981 -3.79882
-5.44283 137.435 3.09615
-22.8025 131.008 -5.06018
-24.0215 130.554 -5.53428
-11.3871 133.796 3.56668
-25.2402 129.001 -3.61987
-22.7615 130.902 -4.57014
-15.681 130.038 6.31415
4.69984 144.757 0.466519
-21.7832 126.045 7.28567
-0.0683792 141.288 2.10694
-5.11868 138.019 2.85852
-21.6735 131.684 -4.44872
11.7195 148.776 1.08291
-25.828 128.098 -1.982
-26.4787 127.096 -0.574378
-26.9785 126.289 0.541841
-4.61471 138.483 2.6566
-8.43258 140.79 -7.0599
-17.8675 128.459 7.60743
-12.5955 132.617 5.39659
-22.1265 132.652 -6.75598
-2.95776 139.647 2.50202
-26.9049 126.411 0.68602
-24.9294 129.043 -2.35415
-28.5567 124.863 2.25207
-14.1062 138.081 -7.87769
-6.18486 137.899 2.75299
10.4777 149.367 -0.784991
-28.4156 125.109 2.21018
-12.4667 133.837 3.63627
-27.2019 125.683 2.56473
-22.995 132.656 -7.07205
-27.71 126.569 0.104585
-26.6378 128.608 -2.7469
-23.1907 131.097 -3.69539
-27.9169 126.456 0.395242
-15.3812 137.107 -6.6217
-28.3613 126.117 0.670288
-27.8633 127.76 -2.21108
-10.9383 135.109 3.46219
-25.6953 131.034 -6.3591
-29.0572 125.784 0.735899
8.69449 149.918 -3.31886
-20.5707 129.028 4.62281
-26.0571 130.361 -5.07417
-22.0127 127.836 5.52974
-28.2369 126.299 0.977241
-2.78563 143.325 -3.40548
-21.9691 127.935 5.43985
-22.4314 127.572 5.73329
-26.9887 128.087 -1.02289
9.10105 148.567 0.652502
-6.09239 142.531 -5.57238
12.6394 150.444 1.14641
-25.4427 129.78 -2.55104
-27.0082 126.835 1.85206
-0.507504 142.302 2.20637
2.21204 143.881 2.25848
2.71423 146.448 -2.62266
-18.5617 134.9 -4.72346
-17.493 130.566 6.07945
-7.39411 142.548 -6.91595
-17.0521 135.781 -4.53704
-26.4444 126.869 2.85965
-27.5269 125.541 4.37697
-12.088 135.083 3.4474
-28.5867 126.308 1.47124
-9.66404 141.606 -7.41483
11.2381 149.361 2.38725
-26.3265 130.613 -4.85157
-20.6207 133.624 -3.82421
-25.3039 131.887 -5.98631
-27.7256 129.238 -3.21053
10.7638 149.517 1.96531
-27.1273 126.096 4.39696
-28.2112 126.488 2.30758
8.02947 150.513 -3.44395
-21.8158 129.231 4.56211
-26.9707 126.874 3.18801
-26.9933 128.871 -1.07895
-26.4675 126.895 3.89128
1.15859 146.139 -2.53032
-12.6289 140.26 -7.24002
-27.7402 130.603 -5.58059
-13.2691 139.909 -7.22307
-26.2414 130.659 -3.68447
-29.4962 126.01 2.23321
-21.0668 134.015 -4.29262
-27.8381 125.872 4.66982
-28.1345 125.945 4.20686
-28.9445 129.809 -5.11201
-23.4592 128.349 4.99489
-22.6724 134.314 -6.81629
-25.3716 131.656 -4.46369
4.94578 148.792 -2.8984
-22.2079 132.809 -2.86247
-9.58181 138.145 1.69421
11.117 151.003 0.277664
-27.8051 125.959 4.8775
5.15201 148.991 -2.93632
-15.6497 132.693 5.82757
-30.3666 126.864 -0.270055
-27.5798 131.263 -6.20857
-20.9975 133.7 -2.98718
-27.9732 127.063 2.47864
5.38635 147.375 1.04361
-28.737 129.603 -3.86808
-29.9785 125.505 3.43158
-1.33535 142.821 2.46753
-28.8442 130.369 -5.56225
8.79275 149.666 0.601071
-20.1229 130.519 5.19625
2.79722 147.521 -2.2776
-20.654 133.87 -2.59069
-11.1253 137.334 2.12018
9.75099 150.903 -0.552468
-9.29757 142.603 -6.81226
-26.1932 131.517 -4.33655
11.6939 151.323 1.12084
4.56473 148.853 -2.59039
-0.0338265 146.284 -2.73228
-26.3478 128.011 3.38573
-6.41221 140.143 2.56945
-30.7872 127.698 -1.42519
2.16533 145.39 2.28626
-23.9747 133.736 -5.61502
-15.6009 138.886 -6.02332
-7.7467 143.92 -6.82552
-16.0411 138.279 -5.17234
-1.54376 145.859 -3.09699
-10.5575 142.32 -6.81257
-28.9135 126.804 3.33802
-10.7175 138.241 1.80465
-23.2356 134.476 -5.93568
-19.5486 131.299 5.66139
-30.1468 126.144 3.47057
10.08 150.611 1.82386
-19.8269 134.973 -2.15434
-29.661 126.616 3.408
-27.3281 127.192 5.25303
0.685473 145.061 2.45442
1.50027 145.586 2.39606
11.4205 152.029 1.09879
-25.8847 132.521 -4.1827
-19.8194 135.077 -1.98806
-9.42754 143.291 -6.49348
10.727 151.941 0.441353
-18.994 132.094 5.59445
-7.23684 144.709 -6.55541
-14.6865 140.515 -6.9526
-30.5875 126.457 3.28892
-2.39144 143.533 2.30295
-8.05737 140.452 1.77551
-28.4344 126.706 5.5499
-20.3179 131.642 5.21194
-15.7412 139.366 -5.56067
-14.7474 140.657 -6.91595
4.13932 147.275 2.77847
9.0137 151.98 -1.15786
10.8504 151.938 1.32941
-26.081 128.786 4.45279
-22.1948 130.624 5.4689
-18.3046 136.811 -2.85703
8.54803 152.161 -1.8023
-10.0999 143.319 -6.37443
-29.5285 131.012 -4.3939
4.58131 149.934 -1.88758
-28.2868 126.974 5.93478
-21.1877 131.525 5.2356
-12.9226 137.368 3.19524
-17.8461 133.305 5.7629
4.36088 149.956 -1.93905
-18.4508 137.086 -2.99661
-19.0164 136.367 -2.16357
-18.7959 136.574 -2.27154
-27.7598 127.539 5.90049
-0.0131052 147.867 -2.67964
6.62097 151.654 -2.15401
-25.1813 129.261 5.83143
-2.95706 146.856 -3.8413
1.17214 148.735 -2.4385
-26.3873 128.949 5.26258
-17.9587 133.6 5.93298
-25.7352 129.065 5.84325
-30.3632 127.487 3.38051
-8.33289 140.816 2.6216
9.103 151.839 1.04951
-3.34207 144.033 2.09353
-23.6491 129.809 6.99385
-17.6344 138.54 -4.05774
9.86276 152.935 -0.0722124
-11.0156 143.45 -6.06553
-15.107 136.298 4.16049
-23.3441 130.164 7.1952
5.50669 149.511 2.16589
-20.8049 137.581 -5.40304
-26.0101 128.915 6.72795
-25.9268 134.06 -4.24892
-12.5042 138.788 2.66104
1.71196 149.46 -2.29585
-16.9201 134.814 5.88392
-31.6051 128.691 0.686462
-0.328054 146.197 2.73482
-22.7504 131.248 6.56881
-6.71822 142.329 3.12292
-21.7933 132.004 6.27433
-10.1835 144.758 -6.3326
-27.2302 133.129 -2.88416
-16.814 139.822 -4.04361
-21.2579 132.585 6.05903
-6.19652 142.655 3.49967
-24.6168 135.997 -5.23778
-22.3459 132.117 6.00875
-14.6628 137.587 4.01089
-27.9503 132.851 -2.5994
-19.4878 138.257 -3.45935
-30.1892 128.441 4.17215
-24.2127 130.612 7.24573
7.24267 151.553 2.11806
-31.4982 129.979 -0.434366
-3.90485 144.521 3.27003
-15.9473 136.608 5.08319
-24.2883 136.648 -5.49151
-14.6291 138.148 3.64624
-5.35383 143.232 4.49316
5.54512 152.502 -1.58741
-20.4102 138.443 -4.01532
-26.746 134.6 -3.7354
-12.0515 144.157 -5.66322
-0.704107 149.73 -3.17997
2.1404 151.041 -2.35166
9.17884 154.07 0.0931626
-3.26557 145.082 3.72309
-7.12593 147.408 -6.1405
-9.32295 146.337 -6.60145
-10.0952 145.778 -6.33458
-29.9712 129.301 4.0025
-6.45351 147.734 -5.81667
-27.6911 129.839 5.80292
-9.39353 146.432 -6.58163
-28.1517 129.979 5.1185
-13.8777 139.393 2.97759
-29.6831 132.347 -1.79131
-19.5252 139.294 -3.82022
-16.6044 140.765 -3.10967
-19.2963 139.513 -3.79199
-6.24602 142.896 5.52105
-10.77 145.752 -6.11591
-27.5361 130.49 5.52091
-23.6184 132.603 6.06625
-3.3917 149.417 -4.21918
-5.28765 143.859 5.35834
-7.10866 142.682 5.60678
-10.1967 146.419 -6.32197
-25.1358 131.348 7.2031
-24.9731 136.824 -4.24308
-7.42426 142.621 5.63937
-7.5491 142.589 5.59227
-5.74377 148.749 -5.23864
-15.6487 138.742 3.81496
-26.1932 131.215 6.69084
4.85753 153.417 -1.67947
-19.4389 135.401 6.4128
-27.0945 131.834 4.62864
-27.6367 132.055 3.49039
-31.1138 131.497 0.426212
5.12381 153.801 -1.55803
2.48889 152.589 -2.20837
-16.256 138.493 4.41628
-26.9852 131.249 6.52875
-9.31151 142.44 4.86915
-16.9357 141.401 -2.54902
-30.856 131.414 1.36185
-15.6806 139.139 4.1011
-26.8304 132.465 4.37995
-25.4237 132.545 6.27562
3.7617 153.506 -1.83796
-16.7753 141.992 -2.87811
-3.72077 150.31 -4.16984
-8.54459 148.444 -6.1678
-8.3146 143.355 5.20643
-8.02452 143.502 5.36391
-30.9495 132.999 -0.991666
-12.8796 145.784 -5.61277
-23.488 138.884 -4.15685
-14.4992 144.769 -5.41942
-16.5201 139.013 4.44076
-9.89531 142.914 4.53074
-25.9534 134.102 3.34519
-28.4073 133.415 1.76422
-21.0074 135.986 5.97606
-15.9571 143.608 -3.9174
-16.5162 139.442 4.47865
-20.3799 140.824 -3.34421
-15.3056 144.632 -5.08267
-30.6852 133.417 -0.260751
-30.4308 132.998 1.09512
-27.4817 134.432 1.8136
-1.21291 152.168 -3.06222
-6.08225 150.281 -5.02876
-4.71398 150.867 -4.40692
-25.3886 135.384 2.93357
-29.4648 135.24 -1.6591
-23.5892 139.525 -3.17831
-29.6818 133.924 1.18833
-23.7234 139.485 -3.21197
-14.1968 142.042 3.44718
-10.6809 148.694 -6.18442
-11.7489 147.92 -5.85895
-15.123 145.416 -4.63473
-22.4894 136.965 4.53062
-25.5014 135.954 2.94127
-22.3453 140.564 -2.934
-11.2075 148.621 -6.03124
-22.0382 136.938 5.43604
-20.8128 141.799 -2.99576
-28.1758 136.778 -1.49755
-28.4483 136.623 -1.35147
-28.4926 135.539 0.932592
-12.3795 143.802 3.74524
-13.9522 146.962 -4.88367
-0.0292254 153.906 -2.06793
-13.958 147.076 -4.8707
-16.1784 145.006 -2.94761
-29.1785 136.384 -0.762901
-29.4686 136.243 -0.580505
-2.62829 153.131 -2.78905
-11.4963 144.812 3.89883
-15.8262 141.864 4.82531
-28.8104 136.249 0.510819
-5.54155 152 -3.91295
-28.1801 137.437 -0.708953
-29.2216 136.485 0.25309
-11.3496 145.819 3.44889
-1.32741 154.359 -2.0357
-17.238 141.788 4.94402
-26.7203 137.403 2.41117
-15.9797 145.772 -1.92242
-10.2208 146.441 3.97527
-13.1301 148.933 -4.63298
-14.9732 147.535 -3.89201
-26.7217 137.69 2.44665
-20.6286 143.669 -2.68835
-6.11954 152.693 -3.50172
-15.7148 146.876 -3.04803
-18.1316 141.143 6.27068
-15.7311 146.324 -1.75855
-15.7298 146.767 -2.6983
-21.862 143.214 -2.34432
-15.4082 143.632 4.97946
-11.6069 146.526 3.7863
-28.0587 138.458 0.38279
-19.5851 140.752 6.24085
-13.7736 144.793 4.94733
-22.5373 139.279 5.73062
