ply
format ascii 1.0
comment Created by Open3D
element vertex 1898
property double x
property double y
property double z
end_header
15.1901 115.55 12.9246
16.6127 126.047 3.0608
-3.18504 101.116 -9.16626
-6.86639 93.9116 -8.26568
-3.48583 86.3175 8.48941
-11.5368 85.6242 -8.12093
16.2259 123.888 4.95952
12.1649 124.486 -4.58711
6.92703 103.341 10.1601
-13.4061 78.5656 -3.42194
-6.6647 82 7.05191
-11.8874 82.9167 -5.35945
14.8828 124.352 1.68591
13.4238 112.411 13.3261
-12.1977 81.8527 -4.6049
6.91347 103.436 10.2752
8.92626 113.557 2.19146
-1.46295 104.367 -9.02824
10.2648 113.578 5.12315
10.4374 119.56 -1.86354
20.4685 133.533 2.67793
-10.1476 88.7396 -8.49402
-12.3007 82.2447 -5.14115
-3.66714 86.3924 8.53483
8.15516 104.099 12.3813
-11.3521 86.3489 -8.07685
0.150406 96.0613 4.94707
13.0449 111.987 13.3207
13.8723 113.517 13.2635
16.7759 124.46 6.07577
10.8031 122.375 -4.32342
17.1597 128.857 1.53764
16.6048 124.936 5.27044
8.08311 104.908 11.5376
7.00982 111.297 1.37861
-14.0143 79.8296 -5.42333
21.4001 137.952 -0.241742
21.3654 137.978 -0.344649
5.79506 112.249 -2.38243
3.22139 102.627 3.94196
3.47203 102.912 4.18594
-12.114 75.6053 4.05906
8.62931 104.51 13.462
16.8253 129.479 0.457072
13.0291 126.111 -3.6197
-8.41654 80.3386 6.37546
-13.4044 82.8988 -7.62452
4.29576 105.074 3.48011
-2.32378 90.9577 6.53666
-13.4566 80.7957 -5.1014
16.9749 129.211 1.23969
15.0728 119.615 8.97622
16.47 126.814 3.13756
-14.6805 79.4158 -5.99635
10.2115 120.421 -2.54697
17.2788 134.798 -4.89139
-0.0615368 95.8372 5.59893
10.1992 114.953 4.28543
-14.3956 75.131 0.0452368
5.42105 108.653 1.72592
16.3924 129.372 0.000643814
5.19923 112.313 -3.24282
4.17734 104.515 4.19391
14.2015 126.886 -1.6436
5.2359 108.388 1.77469
13.5455 127.771 -3.98912
16.4832 122.587 8.8118
-4.52187 100.029 -8.93245
1.27174 99.7386 4.07654
3.03521 111.437 -6.47712
3.21447 111.711 -6.41499
20.0343 133.308 3.48258
7.83348 114.582 0.107372
10.0598 107.401 13.8377
21.5421 138.845 -0.0383068
-13.3229 83.6211 -7.58651
14.1487 127.189 -1.68633
8.45656 114.327 1.90179
12.1134 111.442 13.4151
-7.53728 94.7 -8.59868
10.4394 115.147 5.25263
13.777 127.135 -2.21577
14.7071 119.427 9.42977
13.7881 127.2 -2.14291
14.9443 119.962 9.36836
-11.9082 77.1066 3.94987
16.0709 124.656 6.04001
8.22878 115.509 0.318367
-2.65683 104.132 -9.28266
8.9124 108.011 11.08
9.73814 111.964 8.0674
-12.9104 75.1726 4.32395
-11.3303 77.7306 4.59821
-8.57543 81.1538 6.38797
6.8791 112.421 1.40694
21.1915 137.358 1.77715
-9.04467 93.2722 -9.45686
-14.3278 81.6685 -6.59945
-11.0267 78.0492 5.09014
-8.09024 94.4307 -8.76123
19.7897 129.956 7.95351
9.7953 121.571 -3.38225
15.865 133.181 -4.44867
-4.46152 101.243 -9.17364
14.3511 127.888 -1.18248
-6.63671 97.6699 -9.44087
-10.0048 91.6695 -9.32895
9.40721 110.944 9.09059
16.77 124.303 8.65239
16.7176 135.324 -5.05318
9.29949 110.53 9.45775
15.6431 124.463 6.08176
21.735 139.668 0.562069
-11.0889 78.1916 5.1672
16.9902 125.248 8.07783
14.9897 118.661 11.9119
20.0576 134.584 3.27615
6.15907 113.729 -1.15054
8.8982 109.338 10.2445
-3.55843 88.0119 9.52295
-11.8531 87.4695 -7.75595
20.9423 139.768 -1.07048
-0.153839 96.9115 6.11923
9.26819 110.807 9.43665
19.1461 138.468 -3.26131
15.2998 124.73 5.36346
5.73306 113.606 -1.67476
7.33927 113.971 1.38599
-13.7538 83.8866 -7.28211
19.9616 139.181 -2.2924
12.3562 112.967 13.5719
-14.7056 78.3703 -2.49579
-1.00527 107.313 -8.41682
17.0671 136.103 -4.57371
13.9359 116.302 13.1575
4.10471 106.646 3.73292
-9.30313 81.0885 6.16893
13.1993 129.928 -5.18774
-11.4419 88.8912 -8.04191
-10.5134 79.3748 5.73808
-14.5331 79.9284 -3.68202
19.2337 138.861 -3.07363
12.3454 127.175 -3.58799
21.7133 140.16 0.737884
-3.73222 88.0884 9.76142
-0.891589 94.6323 7.93279
14.2338 131.606 -4.86208
3.99395 106.204 4.27176
15.7041 134.232 -4.88688
8.66441 108.714 11.3588
3.97925 113.927 -5.22308
15.5901 128.307 2.3307
15.7551 126.235 5.26941
4.25049 107.599 3.32531
11.9552 127.605 -4.62485
-14.9374 79.3006 -3.32471
6.31716 112.669 1.66959
-3.27387 89.5452 9.51265
3.88902 114.14 -5.27822
-4.35459 88.0522 9.07626
-5.43641 86.8405 8.33037
15.2033 133.885 -4.85152
-15.4241 75.2188 1.10806
19.2534 133.614 4.37251
9.86452 114.254 7.88553
13.3548 129.64 -3.53075
13.5514 129.301 -2.67357
15.9723 132.594 -1.4637
-1.96375 93.7346 7.55878
8.55391 108.753 11.8792
14.7931 128.909 0.540869
2.25053 112.462 -6.389
16.0927 130.689 1.21972
15.089 125.498 5.47787
16.842 128.192 5.96545
-6.00325 86.6051 7.70415
8.69668 110.002 10.7788
-3.54555 89.239 9.82048
20.568 140.653 -1.27896
-2.43813 93.3509 7.26377
9.64932 113.841 8.26153
-15.3413 73.9728 3.19733
-15.7953 80.9432 -6.31043
-7.99905 97.6267 -9.93674
15.6018 132.04 -1.0563
14.3268 119.347 11.8603
-9.49779 82.0692 6.14092
13.4409 129.614 -2.73094
19.852 135.521 3.91551
16.1589 125.975 7.75344
8.54133 117.487 1.73041
-6.20903 86.822 7.59274
0.527985 99.3748 6.74631
5.27812 111.557 2.03044
3.79816 114.238 -4.49591
-13.0397 87.0439 -7.48779
11.8302 128.464 -4.59501
-3.23401 90.3056 9.81199
16.0975 130 2.81574
-5.84126 101 -9.04177
-4.30969 103.774 -9.13416
18.853 131.726 6.70532
5.849 112.78 1.87546
16.0538 130.757 1.84912
19.8677 135.975 3.73293
12.9348 126.565 0.378936
14.1198 119.682 11.4841
-3.53901 89.8741 9.98056
4.88921 114.505 -2.08668
8.00135 119.083 -0.965152
-9.31195 95.7741 -9.79333
12.0138 128.353 -3.65994
9.99915 115.7 7.60057
-0.295456 97.2328 8.05267
15.6514 129.664 2.65048
12.6471 128.324 -2.19575
-6.24489 87.1181 7.71399
14.7925 122.197 10.1264
-15.4855 74.7328 2.96677
14.5885 128.339 2.11149
-16.6083 77.7244 -3.14855
10.7583 127.288 -4.88097
-13.5148 86.6695 -7.41009
-16.2489 80.7593 -6.04389
20.8696 141.502 -0.40301
13.6982 128.597 -0.00936973
3.89424 107.304 5.04635
1.55687 101.557 7.07627
-1.1132 108.698 -7.53323
2.19588 113.551 -6.32863
-16.2565 80.9348 -6.12623
-9.41488 96.0672 -9.94667
-2.85441 93.2176 7.86367
21.3456 141.772 0.483292
-10.3171 81.7577 5.84691
19.081 134.553 4.53331
13.1294 117.012 13.2798
-0.127762 110.463 -7.41425
-12.4695 89.0781 -7.78086
0.788605 100.61 6.83915
4.37246 114.687 -2.70011
13.9337 133.773 -5.49738
21.1261 140.968 1.26773
3.69574 114.493 -3.8695
-16.9504 75.1716 -0.113924
15.6976 128.974 4.42169
-7.68784 86.0995 6.56509
-16.9982 75.3731 -0.381627
12.7038 131.606 -5.26627
15.6708 129.132 4.27127
8.91144 112.121 10.5944
-3.44444 91.429 9.31964
-7.40309 86.8226 6.4384
9.94206 111.625 13.5358
9.71379 111.275 13.4811
20.875 141.961 -0.155942
13.5541 128.218 0.912054
14.2076 126.241 4.78345
12.412 129.37 -2.98129
-17.2298 76.5169 -2.06636
-0.998587 96.5004 8.65446
13.5965 133.368 -5.15108
15.1483 133.629 -2.09045
13.6355 129.245 0.0379835
20.6314 139.477 2.64749
-16.361 81.6567 -6.32426
-0.142266 110.999 -7.29254
-3.38484 92.5884 8.43307
10.2845 117.815 7.03327
13.4874 128.12 1.2726
-8.71586 84.6386 6.7445
-0.0423363 98.9339 8.00321
3.81407 114.924 -3.36152
-11.5275 81.003 5.30769
7.2617 118.75 -0.456847
17.415 130.177 7.49663
19.2691 140.985 -1.82219
8.81893 111.319 12.1828
-1.52435 95.8789 8.77761
0.449031 100.007 7.97419
-15.1374 75.7671 4.0483
-12.2961 80.0015 5.00768
6.79138 117.413 0.289346
14.2384 133.957 -3.96129
-14.0065 78.3997 3.29924
-0.704939 97.5101 8.64127
10.5755 119.359 6.264
11.8759 115.816 13.4743
19.1506 136.14 4.18948
12.7326 129.308 -1.25613
-5.71953 89.2362 8.20351
-17.2013 75.7902 -0.116929
-3.18346 92.9704 9.12878
13.4731 133.366 -4.52373
-16.3095 80.0268 -3.35989
18.9991 135.794 4.4913
12.325 129.74 -2.52629
4.72191 115.608 -1.58356
15.8009 128.414 6.70623
18.5627 134.52 5.17237
4.24267 110.625 3.57231
-11.5763 93.3431 -9.41337
16.2581 137.758 -3.76452
15.756 128.064 7.12285
-5.41561 104.195 -9.40417
5.21624 113.504 2.23191
-16.8887 74.6307 2.28299
-0.778144 110.611 -7.14163
10.2467 113.425 13.3547
13.0467 133.688 -5.5277
13.36 132.945 -3.74974
-16.6627 74.4163 3.30084
-2.35063 108.223 -7.30445
9.16878 125.961 -4.1519
10.0687 113.489 13.2497
-2.21717 108.46 -7.2248
8.60855 123.02 -1.64966
-10.4171 83.4041 5.95647
12.512 129.926 -1.67459
-8.24708 86.9774 6.33417
-16.3993 74.8668 3.60168
4.03963 109.789 4.89684
-16.5661 81.2549 -4.63004
13.7955 133.556 -3.17715
-10.7447 83.1392 5.7704
-16.6702 79.8195 -2.89222
-12.1611 81.3875 5.01434
8.32564 121.983 -0.592645
12.5045 128.763 0.245805
12.9427 128.155 1.96011
-1.60773 109.747 -6.91849
-16.6993 79.9093 -2.8565
-3.79816 106.701 -7.89185
4.09217 115.984 -2.17089
6.37941 118.152 0.128426
-0.691931 98.8998 8.5554
18.858 137.081 3.90137
-9.72494 98.2265 -10.1896
10.3162 119.684 6.86225
-1.109 98.0325 8.85777
12.5004 128.606 0.728913
-16.6267 81.2166 -4.02248
-12.1059 93.3611 -9.18067
15.5124 128.081 7.96419
4.3928 116.428 -1.79362
14.154 134.982 -3.36842
12.4931 128.217 1.449
11.6129 117.165 13.2013
-15.0303 78.5052 3.08561
15.476 128.244 7.9821
14.7345 133.933 -0.625306
-9.56918 85.547 6.34963
12.4927 128.272 1.57509
-16.6043 75.6291 3.53139
19.6337 139.194 3.7809
-17.6115 76.9175 -0.182905
15.4093 127.917 8.69127
9.69983 128.599 -4.44733
12.9667 120.766 12.3923
10.6736 122.163 5.68261
-13.1906 91.7453 -8.56541
-3.34485 107.967 -7.17664
-16.948 83.2786 -6.23577
8.22055 123.445 -1.11216
14.8636 135.27 -1.27578
-5.15966 90.8973 10.0313
17.1594 140.309 -2.4929
12.467 130.499 -0.57051
13.516 122.875 11.2023
0.494819 102.889 7.61151
13.5114 133.607 -2.01289
-16.1761 77.2054 3.18664
10.1504 120.296 7.22229
2.94648 116.446 -3.6648
1.55222 105.375 7.09983
7.51048 121.466 0.197302
-8.31488 101.559 -9.56175
8.05738 123.786 -1.23712
-2.08868 110.268 -6.56288
8.62397 126.9 -3.80518
18.2453 137.449 4.13929
12.1327 131.067 -1.22354
-12.5273 82.5887 5.07605
-8.4571 88.772 6.30593
-5.11161 106.405 -8.20377
-17.9488 78.0936 -1.08399
17.1989 134.177 6.06123
12.6586 130.361 0.984518
-9.29879 87.5997 6.10973
3.40403 109.389 6.82145
1.7643 106.014 7.43786
2.50527 107.295 7.47929
-3.81591 94.3566 9.725
17.1328 134.045 6.27497
10.9772 124.615 4.59361
14.4615 135.09 -0.76102
14.3086 134.495 -0.357331
-11.4783 96.551 -9.50528
8.97025 116.855 9.87363
9.13315 123.756 1.7191
-10.4516 99.0113 -10.23
-14.4041 80.1762 4.46175
17.212 141.238 -2.24913
-13.2965 92.7153 -8.59547
12.1841 131.167 -0.674587
17.1188 134.565 5.88728
7.21185 120.606 1.64596
3.69989 111.166 5.69098
9.96495 124.976 2.26129
-6.58549 90.7651 8.6693
9.52244 119.15 8.64501
-5.75465 91.4756 9.9276
0.541789 115.49 -5.98798
7.12847 120.957 1.62609
3.54038 110.65 6.68705
16.9028 133.514 7.5063
13.7113 134.895 -1.13044
-11.5543 97.315 -9.56777
7.64527 123.92 -0.672171
19.6082 144.533 -0.0891548
12.0185 135.961 -5.89076
-17.6326 77.1737 2.36127
-11.5351 85.1328 5.79306
3.03728 109.514 7.35298
12.2966 131.368 0.489955
15.3634 130.632 8.07601
4.96031 116.454 2.9856
14.1755 136.075 -1.20979
4.78173 119.149 -0.638836
9.14662 117.084 11.4259
7.51415 124.017 -0.558091
10.416 118.336 12.8063
8.46352 124.223 1.31346
7.49101 123.534 0.0676117
-2.52186 98.5644 9.17325
-12.5409 95.7097 -9.04391
-7.86824 104.441 -9.63444
-2.69038 98.2647 9.25479
3.46162 111.096 6.79569
12.4598 124.331 10.0176
3.62753 112.4 5.56863
-17.74 84.2589 -6.1026
10.1259 126.787 1.94535
-9.71915 88.6254 5.97524
1.47527 106.816 7.84991
-12.5471 84.1897 5.34858
14.7088 129.548 8.57049
14.5349 129.203 8.72409
10.6743 127.135 2.91828
0.773856 105.993 7.51661
-3.04672 97.7139 9.4716
3.84131 113.159 5.49882
-7.56499 105.595 -9.94641
-2.89302 110.821 -6.23541
13.4781 136.11 -1.80033
-2.87386 98.5174 9.17569
-17.9506 83.2104 -4.65871
19.4651 143.452 2.30057
16.7636 136.167 5.49128
-18.3146 78.67 0.284309
9.06447 119.428 9.44668
16.8831 136.656 5.1983
11.8588 122.173 12.1699
-17.4542 78.6559 2.23618
16.5674 135.288 6.22917
19.6062 144.653 1.27652
-4.82439 94.8673 9.69465
13.8431 137.136 -1.94065
10.0997 127.456 1.91301
-15.4188 80.7705 4.12874
-9.73012 89.3344 5.92325
-15.2515 90.8018 -7.88449
13.4541 137.876 -3.61408
-14.0479 82.7155 4.82406
8.64968 129.787 -3.95391
-14.686 81.8245 4.60321
-18.6156 79.1997 -0.682366
11.0107 126.634 5.17381
10.4941 124.647 6.60581
11.0094 127.794 3.85978
8.01219 124.433 1.5401
-16.3118 80.144 3.39502
-5.27894 93.8705 10.4234
-12.1008 97.9039 -9.38292
8.83649 118.722 10.4466
0.303268 106.062 7.61899
4.79715 117.275 3.54317
-3.81775 110.162 -6.31491
19.314 145.154 0.775588
13.5767 138.3 -3.21482
9.36976 121.228 8.74753
7.46895 126.725 -2.15401
10.2632 124.239 7.06702
0.732225 117.642 -5.46865
10.697 128.523 2.75561
10.8873 128.616 3.06184
10.6486 120.574 12.478
-18.4505 78.9198 0.725661
18.4807 144.972 -0.549908
8.0384 124.875 1.59013
-7.53663 106.487 -9.50232
19.2853 145.245 0.951358
8.67943 130.572 -3.97303
-5.67353 108.473 -7.84853
9.15952 118.886 11.6386
0.196645 117.072 -5.58805
11.6758 137.323 -5.64663
1.46075 118.773 -4.88889
-7.86902 106.371 -9.79113
9.06712 126.983 1.58286
15.5958 133.368 7.96933
-16.4573 89.044 -6.93323
9.43607 119.473 11.8836
13.3749 138.801 -3.39779
-16.5837 80.6959 3.44287
3.50786 113.524 6.59051
4.61511 116.831 4.95162
10.9428 127.667 5.335
7.28482 126.905 -1.67421
7.12554 125.735 -0.558839
-8.07073 106.505 -9.76901
-7.26329 92.4538 9.34709
-0.654085 105.599 7.52461
17.0625 139.004 4.82583
19.0193 145.561 1.01915
-19.1933 80.6692 -1.86441
9.98582 120.779 12.0708
10.2398 134.975 -4.79499
12.621 127.631 9.45642
12.2835 138.379 -4.53905
-1.57517 114.577 -5.23586
-12.9753 97.7174 -9.1724
5.29812 122.015 0.61625
-19.1142 83.0367 -4.15907
-10.8937 102.124 -9.84069
-2.99481 112.53 -5.49721
10.1667 121.461 12.0889
10.191 135.188 -4.80719
-11.3498 101.487 -9.88621
-12.9465 98.2242 -9.30205
3.07174 120.852 -2.41174
10.7488 130.393 2.52088
13.1532 138.544 -2.2906
-2.29539 103.484 7.52791
-9.58527 91.5306 6.47773
10.9055 137.787 -6.114
9.52719 129.166 1.58403
15.3903 142.358 -1.95812
10.7699 124.185 10.4545
8.98796 121.968 9.38095
16.8495 139.536 4.76745
10.4677 122.427 12.0871
-14.9507 94.4896 -8.58151
-18.4627 81.262 0.207756
4.05038 115.644 6.66544
5.61664 121.238 3.17062
-18.5378 81.3357 0.116328
12.9703 138.641 -2.16624
-9.27699 106.134 -10.3269
-6.64174 109.022 -8.16198
12.8083 129.438 8.94658
12.2554 139.682 -4.86604
10.9441 129.822 4.48644
9.30963 121.336 11.4709
7.57759 130.329 -3.31549
0.532978 119.138 -4.76633
11.7739 127.103 9.87531
-8.80068 106.835 -9.78014
11.7524 139.43 -5.30717
10.2444 137.035 -5.62338
-19.3285 81.6045 -1.41753
3.14341 113.601 7.90547
4.95459 119.97 4.00166
-1.5018 115.88 -4.95873
7.10021 125.302 2.14298
17.5531 145.751 -0.277828
11.4647 126.843 9.91782
-6.65483 109.49 -8.01866
-16.083 83.2849 3.9248
-15.3512 84.3064 4.26769
-0.0739812 107.742 8.52414
-7.90276 108.03 -8.83129
5.61268 121.9 3.41376
2.61598 112.365 8.69077
18.0447 143.253 4.08461
9.33075 122.281 11.0646
-12.9724 88.0394 4.98974
3.32689 121.789 -1.25149
17.671 146.213 -0.245187
-11.0522 103.742 -10.1811
17.992 143.319 4.09483
-12.9063 100.471 -10.1004
-15.9282 83.6223 4.1941
-9.70024 106.395 -10.3583
4.12957 116.673 7.0055
13.4406 131.861 8.49665
-14.2648 86.3751 4.47867
15.8921 138.897 5.18283
15.671 137.684 6.27686
10.2954 125.24 10.0284
-11.279 90.7901 5.77283
15.6638 137.996 6.01999
9.76548 125.954 8.08072
12.1658 140.739 -4.93687
-14.7092 85.9514 4.35326
-14.4607 97.1697 -8.91888
-5.443 98.0212 9.65117
10.585 132.671 1.68859
6.48864 124.684 2.65487
-3.5069 113.464 -5.16132
6.48633 126.603 0.334476
9.0385 134.95 -4.41606
14.0995 133.483 8.44068
-1.07595 117.355 -4.56248
5.05198 120.921 4.37148
-7.89377 108.725 -8.6293
-5.12307 99.2068 9.17304
5.64765 122.82 3.47755
-17.751 90.0638 -6.81051
0.78465 110.158 8.67676
10.2077 128.948 5.99023
9.51443 125.558 8.69091
18.0937 146.131 1.97286
-4.32799 112.803 -5.57906
5.02096 120.946 4.68879
-14.433 86.9615 4.39124
11.318 133.934 2.36264
11.4499 128.173 9.77393
12.0006 129.913 8.84853
-7.8619 109.039 -8.52852
1.74008 121.751 -3.35917
-9.20829 93.5383 7.74076
3.12447 122.52 -1.24935
10.8761 131.701 4.27035
9.47451 125.602 8.77533
3.90194 123.203 -0.274646
13.1298 140.631 -1.72779
-18.2003 89.3074 -6.39962
5.08161 121.353 4.6737
5.6921 123.315 3.61139
10.9436 132.674 3.53006
11.3647 134.372 2.38313
15.3287 137.682 6.96537
12.348 140.858 -3.43138
17.349 146.863 0.0533829
0.732917 110.66 8.72926
4.78043 124.489 0.447866
2.12832 113.024 8.88192
-17.0151 92.7568 -7.60554
3.72241 123.51 -0.357251
17.3823 143.992 4.24642
-0.753644 118.816 -4.07104
9.22896 137.296 -5.07615
6.43054 128.83 -0.690966
17.1297 143.365 4.65758
-16.9913 93.4118 -7.70727
4.60263 119.706 6.78106
6.09738 124.961 3.54656
-16.3519 85.2122 3.93629
15.0079 143.858 -0.330775
10.8904 133.68 3.36154
-2.57528 116.049 -4.10937
-16.7173 84.7844 3.82081
7.95223 134.65 -4.06596
10.0138 133.358 2.05338
17.0363 143.786 4.55927
10.9401 135.106 2.08836
11.3415 135.261 2.77216
-13.4902 89.6709 5.18246
7.69663 134.406 -3.96482
-19.2447 87.38 -4.38797
9.60204 129.06 6.83208
3.17329 116.307 8.6411
13.5773 134.908 8.28312
2.6003 123.838 -1.86553
7.03728 127.997 2.76149
-14.9177 98.9543 -9.03675
14.3696 137.325 7.23075
12.0693 140.179 -1.23107
14.6588 143.849 -0.12646
-17.1208 85.2621 3.32365
-1.44081 108.801 8.35391
16.7678 143.877 4.5999
9.82541 127.309 9.97891
11.8071 140.837 -2.42057
16.8429 147.325 0.579465
-19.209 85.9258 -1.89457
11.0715 134.554 3.85345
12.2912 140.793 -1.13466
15.2799 141.002 5.13061
-19.4951 86.7525 -3.43382
14.5811 143.931 0.00524712
9.84064 130.66 6.10471
2.63865 124.356 -1.7363
-0.31037 110.814 8.59064
-14.5482 88.8306 4.81571
1.17701 113.238 8.92458
11.1993 141.816 -4.57176
-6.84183 112.764 -7.87238
-9.00136 110.142 -9.32228
-15.4857 98.2671 -8.74393
12.609 141.248 -0.749423
5.17583 123.336 5.33334
9.0894 128.065 8.18183
3.27212 124.985 -0.638731
-11.0242 93.7089 6.93179
16.5806 144.254 4.54384
-9.35219 95.3926 8.74339
10.9325 142.087 -4.84823
7.51821 129.977 2.71524
-19.4359 87.7982 -3.73127
-9.84835 95.0567 8.19113
-7.78424 112.227 -8.44608
-11.0863 107.668 -9.96739
16.5737 144.671 4.46408
-14.4018 101.704 -9.64591
4.40473 126.504 0.622856
2.77068 125.228 -1.33355
-3.30034 106.627 8.46926
-10.2403 109.377 -9.95712
13.2696 142.938 -0.205872
10.9659 142.686 -4.82965
5.44889 124.95 5.08945
16.5705 145.105 4.36453
6.46415 133.218 -2.91655
7.03877 129.033 3.54015
-15.8219 88.0766 4.48242
1.21409 123.509 -2.21139
9.7665 135.234 1.89746
-4.98867 115.373 -5.63433
-5.01378 115.399 -5.66601
11.7155 137.233 3.73632
9.83523 135.723 1.53016
-4.55233 115.654 -4.94114
7.32332 129.831 3.39488
-16.5295 97.3337 -8.29081
5.43968 125.1 5.18854
3.7623 119.874 8.03437
-2.36652 118.515 -3.58915
11.7927 143.637 -3.83003
-18.2386 93.1004 -6.65868
-4.43934 105.36 8.2162
-3.74883 106.388 8.45301
-19.3518 88.9473 -3.91103
7.12648 129.423 3.70647
8.25466 138.46 -4.96408
-13.7052 103.847 -9.84062
11.4395 143.592 -4.25819
9.56409 129.905 8.57794
-0.715527 111.912 8.48352
12.6835 142.809 -0.505774
-7.35235 99.0878 10
15.7321 143.898 4.86225
9.71946 130.283 8.61495
-6.35103 101.973 8.66707
-12.72 92.7154 6.38142
14.0659 144.698 0.487107
-4.59182 116.226 -4.87423
5.54807 131.6 -1.74232
-8.72792 112.496 -9.16134
-4.35067 106.027 8.35258
5.87956 126.723 5.06576
15.6559 148.185 -0.156822
10.8159 132.75 8.44344
3.99169 121.294 7.80628
6.63565 135.44 -3.86075
-18.781 91.0785 -4.29461
5.15788 124.841 6.05391
0.657677 114.348 9.32906
14.1552 141.066 5.768
-9.47971 96.6416 9.2949
9.15491 135.355 2.00059
-4.60675 116.684 -4.81307
12.7351 136.947 7.85339
-17.3868 87.8399 3.06487
-18.2491 88.2071 0.844771
-0.286769 113.294 8.9024
-4.25723 117.32 -4.52528
-19.0828 90.4027 -3.39677
-18.5591 92.6008 -4.91414
10.0552 137.588 1.72935
7.9382 139.374 -5.03732
9.66888 132.076 7.74752
10.3978 133.037 8.29782
10.1138 132.501 8.37215
-18.7799 89.3314 -0.999994
8.89237 135.869 1.68278
11.2543 138.796 3.20222
-18.5219 92.6929 -4.52976
13.869 141.261 5.8752
-11.0248 110.346 -10.0365
-18.8787 89.4667 -1.21737
4.21207 122.857 7.78337
-4.06241 107.754 8.45857
9.9892 143.598 -5.26149
5.02365 125.394 6.44848
-10.4921 111.317 -9.83968
-18.2301 89.0499 0.853213
4.07051 128.361 0.787572
14.371 146.514 0.757349
-1.75849 120.956 -2.6834
5.18558 131.417 -0.506988
9.27563 142.959 -5.80966
2.6478 127.35 -0.85228
8.02913 140.177 -4.99337
5.18093 131.583 -0.551675
-17.3463 88.8333 3.30159
11.7532 145.037 -2.79334
-17.3564 97.8936 -7.78058
-14.328 92.1786 5.86532
7.30682 138.934 -4.8658
-10.9519 110.96 -9.97659
14.5876 147.455 0.543726
11.992 139.655 4.66582
-16.956 99.1959 -8.26449
13.6322 145.941 0.50783
5.31701 133.056 -1.62287
-1.95716 112.131 8.4592
-7.65003 101.062 9.78842
1.42871 125.984 -1.23157
1.50397 126.093 -1.19697
0.186659 115.222 9.47773
10.3194 134.538 7.65401
14.0959 146.651 0.931147
13.3294 140.856 6.48304
14.7886 144.428 5.24458
-9.98403 112.835 -9.5464
-14.7586 104.421 -9.52857
-12.2664 95.5745 6.84253
-1.10767 122.403 -2.0327
-1.59859 121.774 -2.32197
8.00225 140.798 -4.94786
-19.2262 90.2484 -1.56919
4.26828 124.04 7.76217
6.10042 136.755 -3.94571
10.3884 145.124 -4.90345
15.7236 147.7 3.55301
10.5632 135.055 7.98171
-7.43588 102.164 9.50779
5.12122 132.538 -0.702571
3.00196 121.016 8.93473
-10.2201 97.407 9.38846
3.06023 128.646 -0.192242
-8.81538 98.9913 10.8086
-17.6278 89.8318 2.98563
-17.3884 99.0721 -7.86014
-2.17406 112.595 8.58923
-3.23025 111.085 8.22198
13.2609 147.21 -0.550789
1.11531 118.414 8.62653
1.27297 118.784 8.52774
-17.8302 97.9523 -7.18552
-3.16604 111.302 8.21055
0.0479929 124.734 -1.38038
10.2288 139.778 2.19192
-16.1179 102.491 -8.99051
2.35941 128.119 -0.38291
6.60466 139.01 -4.60413
-4.19692 119.326 -3.74941
12.9843 141.268 6.50868
3.67717 129.452 0.878892
14.2142 144.392 5.42676
1.95832 127.7 -0.55593
6.79938 132.938 3.50989
6.32352 130.674 5.32013
-13.3101 95.4089 6.25873
5.08289 127.077 7.13822
15.2126 149.571 1.44212
-12.1342 110.73 -9.99631
-3.91191 119.942 -3.46435
3.39684 123.276 8.32623
11.6899 140.894 4.61981
11.2023 144.979 -1.39624
-1.76472 122.629 -1.96739
6.87533 140.09 -4.61323
8.75375 138.878 1.12499
-7.17561 117.918 -7.57493
6.92456 140.354 -4.60522
15.0307 150.078 1.00871
11.6774 146.232 -1.47512
12.6405 141.195 6.84776
-18.1208 98.1748 -6.86591
-15.1925 105.385 -9.38555
3.66906 124.376 8.15226
10.9919 145.701 -2.27277
-1.69513 114.176 9.12459
4.49538 126.074 7.88134
-8.83244 115.953 -8.54745
-15.6775 104.437 -9.19716
8.38027 143.681 -5.36258
-13.0068 96.2365 6.97849
-18.3619 97.6901 -6.43765
-8.90585 100.545 10.6602
1.01702 127.174 -0.590625
11.3373 146.393 -1.84124
3.80077 131.232 0.508694
4.57017 126.858 7.71487
4.69193 133.757 -0.526231
10.6597 146.658 -3.39399
12.1627 141.05 6.86685
1.54196 121.19 8.37304
14.6528 150.152 1.18705
14.1741 146.627 4.6336
13.6508 145.152 5.40969
3.59864 125.145 8.30181
13.811 145.704 5.11408
1.07336 127.739 -0.363143
-18.8938 92.3414 -0.0151183
-18.9166 96.1803 -4.65798
-9.09821 116.596 -8.53068
10.9571 141.931 3.76807
13.7979 149.202 0.974698
-18.5225 98.2147 -6.21957
13.5837 145.432 5.25933
-0.226743 118.507 8.54536
-16.5513 93.3776 4.11756
-9.81773 100.136 10.4222
12.1359 141.48 7.09092
-17.2078 92.9879 3.26414
6.24833 132.48 5.54956
11.3661 142.307 4.54444
14.2363 148.336 3.34704
4.07279 133.095 0.0947018
-18.034 100.188 -7.29547
-4.40676 121.895 -4.47944
1.72085 128.988 0.11026
-14.3611 95.9039 6.12192
5.85083 139.614 -3.93306
10.1887 142.303 2.3417
-15.7087 94.4735 5.21191
-0.276266 126.518 -0.801055
7.74888 144.091 -5.04613
-6.87533 119.567 -6.50383
13.5812 146.508 4.68387
-15.0191 95.4889 5.55856
-9.96329 100.486 10.4273
12.9163 144.703 5.60177
12.3113 143.464 5.88422
-6.47211 108.324 8.49024
0.849261 121.841 7.84736
-3.42531 113.604 8.73536
-0.339355 126.732 -0.738081
-18.5474 98.4253 -5.34288
-0.912025 118.012 8.79519
2.58633 130.725 0.762252
-16.7404 93.9551 4.23821
-12.6857 112.483 -9.71816
-17.4111 102.464 -7.60079
13.4645 147.435 4.15035
-4.18602 122.908 -3.81132
13.9799 149.822 2.44298
6.16663 134.333 4.60844
6.90063 143.022 -4.50097
-7.90943 105.642 9.52212
-6.09334 109.787 8.50457
-12.943 112.516 -9.69547
5.73124 140.52 -3.68353
11.6938 143.295 5.867
9.9555 143.398 2.00477
-7.50735 119.608 -6.55583
-0.738054 126.863 -0.768312
-2.67776 124.371 -1.87194
12.0642 149.109 -0.365478
-9.66936 102.149 10.4437
-15.1921 108.295 -9.14625
3.95012 134.597 -0.0287357
-2.69109 124.424 -1.86554
-4.45522 123.257 -4.24967
-16.5046 94.6954 4.93267
-3.31537 114.56 9.11996
-16.3001 105.307 -7.63468
-10.7126 116.224 -8.88193
7.25363 144.552 -4.80854
-18.2963 101.374 -6.95633
-18.635 95.4438 -0.266854
-0.402231 127.783 -0.489992
-10.6289 101.108 10.3492
12.5487 146.479 4.69277
-4.82839 123.475 -4.62141
6.01953 134.67 5.16118
10.1462 143.946 2.71845
-8.41917 105.371 10.0447
1.60833 130.984 0.265882
-1.67652 118.225 8.90081
1.78935 124.482 8.75756
-6.3291 121.75 -5.47766
-18.5626 101.077 -6.48002
10.8398 149.754 -2.68796
1.65331 124.468 8.63687
-8.65533 119.312 -7.39822
6.77515 137.74 3.39011
-15.1094 109.688 -9.43455
12.0178 145.847 4.91434
6.00078 135.005 5.33253
3.46814 127.932 8.58118
-4.97389 113.256 8.39416
0.316751 129.799 -0.456193
11.1113 144.513 5.00423
-0.0881032 122.486 7.87733
-13.2116 113.488 -9.4422
10.6795 144.458 4.27807
-18.8128 99.1112 -3.77398
3.47607 128.472 8.40993
5.38416 133.538 6.30838
4.48626 138.647 -1.75991
-17.1158 105.033 -7.09861
-18.6908 101.672 -6.22712
0.0239413 130.113 -0.613787
-17.5963 95.5944 3.93354
-17.0624 95.9688 4.7082
12.1039 148.074 3.74044
-13.9434 99.1125 7.81559
2.45047 133.94 0.437173
10.5442 150.253 -2.08827
2.07893 133.274 0.573785
-15.9765 97.1546 5.95407
-8.7571 106.447 10.2086
2.85407 134.971 0.260137
10.9511 146.198 4.03373
9.40137 145.51 1.54733
10.2391 145.208 3.79266
7.4884 142.504 1.25893
-11.7792 116.5 -8.45956
6.73127 140.472 2.18059
-16.1902 108.599 -8.26171
8.29879 148.731 -4.55933
-18.7734 97.3768 0.0646866
-16.6096 107.478 -7.64398
-5.89881 113.365 8.3756
8.84791 149.717 -4.44063
3.09848 129.279 8.43032
-15.0263 111.672 -9.18062
3.21127 129.593 8.32648
8.42894 149.153 -4.47894
-19.0046 99.6936 -3.00091
10.8817 150.373 -0.637178
-15.2864 111.256 -9.14137
3.91004 138.45 -0.931267
-16.538 108.078 -7.81535
11.4406 148.065 3.67785
6.01802 137.78 4.60634
-14.4259 99.4341 7.54451
-0.564512 123.675 7.74618
-18.9946 101.272 -4.50857
-4.2274 115.973 9.43115
7.29817 142.7 1.47281
-15.6459 110.872 -9.05966
-18.792 102.366 -5.33589
-14.0179 100.019 7.9923
-10.1287 119.954 -8.06656
8.90772 145.777 1.42184
-7.52406 122.598 -5.64277
-4.66926 125.622 -3.15562
-18.761 97.6573 0.839009
-16.2908 98.1557 5.63164
10.2537 146.45 3.69828
10.6598 147.219 3.64787
-3.96371 126.363 -2.22675
2.55229 128.895 8.8272
10.3324 150.779 -1.25553
-9.30069 120.814 -6.89242
10.0848 150.757 -1.7351
-17.7926 97.1074 3.95271
9.27129 150.669 -3.35175
-3.08911 127.6 -1.6678
6.09754 139.085 4.12128
11.05 151.323 -0.20359
-7.5245 111.106 9.15802
5.34359 144.097 -3.57686
-12.8388 101.828 9.14765
9.7724 150.812 -2.15416
-18.8085 103.072 -5.0661
-18.9019 98.3322 0.621468
-8.81902 121.718 -6.31009
-5.03323 126.044 -3.25279
-18.7297 98.0016 1.63624
2.85717 137.591 -0.186255
1.95282 128.539 9.05293
2.36189 129.48 8.79014
-16.0558 99.4586 5.91275
-18.6195 102.663 -3.61753
-17.0558 108.798 -7.67997
3.3418 139.096 -0.696252
1.89845 128.716 9.08073
-8.34537 110.143 9.76187
-5.20617 126.513 -3.50695
0.309365 127.245 7.66481
-11.6032 119.334 -8.42275
-3.32213 128.572 -1.79988
-1.01945 132.067 -1.09613
-17.852 98.5321 3.76944
-3.85852 128.035 -2.1856
-18.5693 105.274 -6.01713
-13.1555 116.67 -8.30926
-11.5083 104.55 10.2797
-6.25055 115.179 8.77025
-16.314 111.521 -8.51475
-14.1378 115.574 -8.72626
-2.15549 130.681 -1.33088
-12.498 103.585 9.75037
-11.3925 120.181 -8.3161
1.79103 129.237 9.17284
-12.2702 118.739 -8.41795
-6.87366 126.014 -5.67599
-15.605 113.162 -8.74297
-2.25412 122.22 9.15255
9.31848 148.352 2.0221
-0.770616 133.013 -0.833376
4.86423 138.449 4.78675
-14.2083 115.821 -8.63791
2.85651 139.247 -0.486237
-5.93679 116.03 9.09142
-9.43957 108.995 10.2094
-3.15473 129.783 -1.74236
-17.5944 105.306 -2.84453
10.3251 149.981 2.6623
-4.02634 128.867 -2.42797
6.62182 143.951 2.08696
-8.56116 124.124 -6.30132
2.2711 131.23 8.52986
-18.9754 100.97 -0.25502
-11.5725 120.483 -8.26709
6.09907 142.308 3.18355
-18.3225 105.307 -4.18213
-16.0371 112.896 -8.5896
-11.8725 105.096 10.1159
-0.758424 127.11 7.08865
-18.9404 101.028 -0.125144
3.40161 134.217 7.51639
5.07796 139.919 4.1608
-10.7121 107.035 10.485
-13.5392 103.326 8.93623
3.65676 135.741 6.27891
-16.311 112.568 -8.48974
-3.05699 121.39 9.44537
2.14705 131.257 8.58297
0.339824 128.427 8.18556
-2.77805 130.846 -1.57585
-17.7521 100.348 3.66968
-13.8794 116.907 -8.23629
8.20911 148.557 0.73761
-7.79566 113.768 8.95625
3.9007 143.279 -2.03017
-8.42195 112.323 9.44479
1.71421 130.588 8.92275
-6.36999 116.213 9.15196
3.59821 142.484 -1.42688
1.13172 136.87 0.170209
-7.33856 115.025 8.76756
9.33018 149.698 2.23004
1.25882 137.241 0.119252
-5.93538 117.019 9.48107
1.25707 130.216 8.90326
-3.5586 121.371 9.36464
-15.0426 102.99 7.17888
4.44786 139.442 4.53256
-16.741 112.384 -8.04345
-3.01899 131.472 -1.7902
-18.2381 106.061 -3.46463
-18.6404 102.846 -0.353807
-18.3935 101.855 1.54248
-10.231 109.139 10.3373
3.73154 137.696 5.40881
-7.87968 114.639 8.72184
1.23871 137.763 0.027875
6.81165 146.221 1.72429
4.38322 145.697 -2.89771
-18.4687 102.738 0.544365
-1.89009 125.752 8.23464
-18.376 102.452 1.26002
-17.8383 102.202 2.75944
7.33686 151.625 -3.51719
4.08842 139.275 4.69412
-17.6159 105.483 -0.661872
6.21835 149.949 -3.7836
-1.04694 128.229 7.48209
4.5658 146.728 -3.0695
6.87116 147 1.68635
8.74507 150.392 1.6081
-0.200899 129.249 8.29479
-5.77234 118.793 9.1303
-6.21623 129.605 -5.13258
-18.0584 110.021 -6.55585
3.29972 137.715 5.7254
-10.6808 109.439 10.2974
-9.68372 111.862 9.48548
-1.36986 135.035 -1.00958
-2.36055 125.609 8.50806
-5.41554 130.434 -4.04998
-17.4952 102.996 3.61737
-2.33815 126.02 8.13301
-2.98074 124.103 9.17513
-10.1622 124.601 -7.02197
-8.61844 127.026 -6.64262
0.24395 137.284 -0.0122412
-18.8118 107.617 -4.77948
-17.9694 103.417 2.2902
-17.9938 104.535 0.955592
2.71134 135.895 7.21813
-1.68826 128.143 7.30014
-4.07736 122.414 9.21148
-2.67774 125.235 8.7826
-2.80475 133.772 -1.83766
3.74705 145.817 -2.41918
-16.2478 107.995 0.908477
-4.51957 131.9 -3.04166
-17.1791 103.57 4.46841
-18.7766 108.757 -5.37355
-9.61043 126.771 -7.64632
3.25694 144.743 -1.76735
-16.4527 104.45 5.18061
2.33261 142.404 -0.873614
1.33739 140.256 -0.327173
-15.952 108.397 1.48729
0.884939 139.45 -0.228711
-9.30535 113.967 9.11405
-15.9945 104.875 5.83259
-7.42516 129.754 -6.22494
1.28214 133.043 8.68419
-2.64413 134.496 -1.62087
-15.7673 108.606 1.8769
-18.9473 107.538 -3.67481
8.32389 153.454 -1.0919
-7.27377 117.775 9.11454
2.47056 136.738 7.01952
-9.02316 114.961 8.94962
-7.83838 116.881 9.1741
-9.79712 127.385 -7.97702
1.06053 140.506 -0.406836
-3.50275 124.629 9.33144
4.47945 148.833 -3.13824
-3.08763 126.274 8.29691
-16.9231 106.826 2.25127
-9.44499 128.269 -7.88217
-10.121 113.186 9.30759
8.39595 153.851 -0.55366
-10.8136 125.361 -7.06927
-17.059 106.292 2.91889
-16.5323 108.963 0.998291
-11.3462 110.913 9.9499
1.29149 134.25 8.69152
-5.76694 132.424 -4.38601
-2.57166 135.669 -1.43769
-16.6189 107.084 3.34719
4.88568 144.418 3.96848
-16.7829 105.435 5.07345
-14.6949 119.571 -7.8374
2.02446 136.576 7.53445
-0.196042 132.84 7.33934
9.00602 154.009 1.22521
-2.23405 130.068 6.52636
-13.0773 122.814 -7.97213
-6.17656 132.801 -5.27043
0.214295 140.361 -0.548948
0.0154289 140.15 -0.532688
-12.3041 109.694 10.3268
-4.06939 125.339 8.95978
-14.9033 119.899 -7.86351
-9.25151 116.276 8.91961
-2.93287 136.079 -1.79598
-5.16174 123.052 9.47063
-7.30211 132.644 -6.95022
-16.9992 116.206 -7.71695
-5.46791 134.288 -4.91246
-5.31396 122.968 9.45655
-4.77099 123.817 9.58882
-16.6139 109.59 1.46205
-11.5504 111.73 9.9138
-7.35948 132.825 -6.99649
-17.932 108.916 -0.407626
4.35115 144.194 4.48931
-19.0607 109.704 -3.76722
-3.89857 126.332 8.69961
-2.71361 130.637 5.98326
-4.80707 124.792 8.66359
2.35803 145.369 -1.18117
-11.6897 111.693 9.95365
7.65135 154.272 -0.56114
-16.8163 109.671 1.36053
-18.835 108.653 -1.73764
-14.4877 108.117 8.37831
-4.04608 135.931 -3.28494
-16.1459 110.302 2.24176
-2.61978 137.471 -1.92115
-2.31703 131.563 6.17651
-8.74496 117.949 9.04324
3.06993 147.874 -2.16796
-1.41638 133.21 6.21725
-12.1411 111.186 10.1537
-4.67564 135.7 -3.87865
7.50603 154.443 -0.439188
-10.6316 114.387 9.74473
0.952602 143.186 -0.603438
-3.33756 130.494 5.76958
-5.26918 124.97 8.4265
-18.2082 114.229 -6.4129
-15.2111 120.615 -7.78094
-7.66648 120.448 9.00043
-17.9705 115.081 -6.69562
-15.2438 120.933 -7.68482
-7.55048 134.086 -7.20792
-7.16634 121.646 9.02303
-9.2653 117.969 9.16102
-4.0891 130.247 5.40831
-15.7526 111.815 2.95402
-5.68803 136.425 -5.56828
-5.63767 125.646 7.88648
3.49211 150.353 -2.66561
-5.60603 136.615 -5.36402
-19.1577 110.062 -1.9993
-9.36581 118.204 9.22883
2.23853 147.503 -1.68699
-19.0427 112.846 -5.11205
-5.5985 136.689 -5.33479
6.36173 154.59 -1.18681
-5.25863 126.943 7.72236
-2.7122 132.936 5.86677
-16.1229 118.936 -5.93503
5.83755 154.08 -1.55738
-4.44842 129.861 6.00837
-14.1593 110.869 8.37464
-18.7477 114.069 -5.40079
-4.55986 129.032 6.98085
-0.88924 141.915 -0.929676
1.08342 139.668 6.14278
2.21206 142.456 5.20676
-16.0614 118.987 -5.50461
-16.3722 111.962 2.51644
-13.6062 125.113 -7.68142
-11.7899 113.741 10.3804
-15.9839 112.457 2.86949
-18.3313 115.175 -5.57755
-5.76695 126.852 7.34311
-15.1022 112.844 4.37941
-13.1132 125.648 -7.10448
-11.626 114.08 10.4218
-14.6175 111.259 7.45769
-19.2646 112.695 -4.41084
-3.72596 131.881 5.72058
1.69314 147.17 -1.3594
7.51838 155.058 1.56528
-12.0765 127.506 -6.94082
0.53417 138.079 7.41282
-6.2543 137.572 -6.70724
-14.7577 111.369 7.18657
-0.980029 142.222 -0.975378
-5.9075 127.031 7.0933
1.84117 142.091 5.37067
-13.6455 111.889 9.07635
-15.2041 111.344 6.39418
-8.93721 133.515 -7.28627
-5.5578 137.867 -5.31049
-15.0749 113.077 4.65049
-6.47838 124.792 8.90786
-1.08878 136.182 6.55594
0.249021 144.541 -0.850431
-17.7845 111.028 1.434
1.00314 146.236 -1.20795
1.61965 142.061 5.41777
-4.52939 138.912 -3.97334
-14.0444 124.722 -7.05528
-5.52507 128.486 6.90475
-13.4266 112.301 9.78985
-6.55656 137.864 -6.76435
-11.5647 115.117 10.4684
0.238463 145.242 -1.01548
-15.9998 119.549 -4.56042
1.55322 142.265 5.54091
-0.331012 136.805 8.20423
-15.1481 121.508 -5.09286
-5.04289 131.086 5.03947
-1.53985 136.496 6.01977
-4.40574 139.41 -3.79904
-15.6723 121.007 -5.44619
-1.4103 142.717 -1.19288
-15.0434 122.239 -5.50951
-14.6329 114.21 5.43736
-14.683 112.822 7.06506
-7.1085 137.486 -6.82474
-4.90707 139.475 -4.45758
-4.66654 132.143 5.13258
-3.3159 140.802 -2.62856
-13.8863 112.981 8.8884
-13.9923 113.049 8.65469
-13.2604 127.547 -7.61918
-13.7972 126.506 -7.38058
-3.82889 140.753 -3.31406
-14.6769 124.271 -6.52899
-1.61018 143.073 -1.34516
-7.82981 136.653 -6.76132
-17.5043 112.76 1.74208
-13.8008 126.204 -6.7524
-7.19267 126.791 6.99438
-15.0874 122.877 -5.27496
-2.69636 142.056 -2.02844
-2.72696 136.13 5.26303
-19.5212 112.961 -2.55319
4.51121 154.647 -1.74532
-18.8287 111.677 0.635571
-15.7475 121.854 -5.11506
-6.86933 128.271 6.26685
1.74207 143.57 6.24167
-2.62021 136.743 5.26646
-14.016 113.97 8.65493
0.295998 147.154 -1.22109
-14.7273 124.861 -6.30906
-14.8808 123.755 -5.24797
0.620794 147.929 -1.31303
-15.8 122.203 -5.21087
-13.8526 115.463 7.51247
-5.75776 132.259 4.52199
-9.57588 134.673 -6.75363
-13.8545 115.442 7.79225
-4.15444 141.853 -3.71455
-14.9331 124.162 -5.25026
-1.10372 137.914 7.87366
-2.04356 143.902 -1.5667
-8.12873 126.256 7.14605
1.54923 143.803 6.53046
-13.0655 115.497 9.77697
-16.6187 121.101 -4.78116
-16.1264 120.144 -2.51822
-1.98727 144.212 -1.51057
3.59832 154.351 -1.84569
-12.6208 116.236 10.0406
-5.18127 133.959 4.52619
-11.0467 131.864 -5.61166
-10.4212 132.854 -5.46579
-6.38864 131.799 4.66013
-8.35472 124.619 9.35375
-0.163627 141.875 5.87774
-16.27 122.029 -4.59934
-13.7589 115.925 8.42113
-10.1168 134.42 -6.27477
-10.9918 132.098 -5.28908
-7.81561 128.259 6.40171
-10.9691 119.407 10.4851
-8.27618 137.784 -6.3391
-13.6664 115.798 9.20224
-12.1565 117.739 10.0949
0.545208 143.003 6.53001
-10.1074 121.495 9.98382
-16.0682 123.289 -5.16893
-16.6639 120.76 -3.27625
-17.2802 114.432 3.22421
0.0985871 142.54 6.35704
-3.65599 143.492 -2.89365
-0.745172 140.97 6.55952
-18.5155 115.461 -0.523449
-7.79594 129.813 5.18688
-6.88163 131.99 4.48643
-4.87115 135.495 4.55111
-11.6961 119.212 9.83144
-13.4863 128.687 -5.75814
-17.4099 119.334 -2.56106
-6.9321 132.063 4.5314
0.491223 150.396 -1.92558
-17.8055 118.144 -1.82648
-1.29698 146.713 -1.23319
-16.8796 120.865 -3.16776
-18.4549 116.008 -0.476186
-12.5638 118.161 9.6747
-6.22165 133.641 4.3622
-15.5876 122.68 -2.3939
-3.95089 143.844 -3.22869
-17.6267 120.306 -3.83186
-3.7859 144.079 -3.03296
-7.32557 131.581 4.75376
-11.7375 131.457 -4.66828
-16.7466 122.361 -4.31764
-13.613 128.935 -5.62774
-4.84333 136.266 4.38116
-11.2835 132.238 -4.63764
-4.25705 143.79 -3.62838
-1.52304 139.228 7.98288
-11.2196 132.405 -4.6008
-14.924 124.486 -2.75047
-16.5768 120.915 -1.92224
-15.3263 125.34 -4.64713
-11.5094 132 -4.56657
-14.3457 125.43 -2.61409
-15.8987 123.028 -3.01743
-16.8536 120.267 -1.63122
-15.2479 123.902 -2.55547
-16.5505 122.582 -3.74432
-15.1291 124.074 -2.4883
-8.63949 129.181 5.31252
-9.85931 126.279 6.33142
-14.1999 127.44 -4.43595
-15.6865 122.855 -1.95681
-10.2831 125.496 6.55392
-16.0679 122.792 -2.65357
-18.0199 119.927 -3.30732
-17.9197 120.07 -3.2151
-10.6609 122.705 9.32483
-11.2072 124.774 5.60604
-15.9516 122.392 -1.72736
-15.9724 123.438 -3.03233
-16.5555 122.244 -2.81392
-6.50447 134.215 4.40649
-14.9931 125.146 -2.81449
-11.1673 122.422 8.88802
-11.0596 133.998 -5.11331
-15.5724 123.623 -2.04829
-11.2291 123.755 7.30263
-13.6527 129.817 -5.25079
-6.93653 133.913 4.30004
-18.037 118.567 -0.780937
-4.35627 144.977 -3.63366
-17.3069 121.608 -2.90927
-15.7632 123.214 -1.53644
-13.0383 119.752 8.75301
-6.77725 142.514 -5.65595
-3.68779 145.672 -2.83945
-16.7853 122.669 -2.68397
-14.6139 117.658 8.25508
-12.9148 130.906 -4.41009
-4.18382 145.453 -3.39178
-14.0663 118.279 8.79078
-11.9765 123.314 7.13003
-3.10995 146.549 -2.20578
-18.8762 117.047 0.025064
-16.0111 124.414 -2.75615
-17.1904 121.289 -1.4345
-1.9116 141.147 7.27905
-9.91639 128.802 5.22682
-2.25679 140.076 7.9665
-16.7916 123.865 -3.57748
-10.5117 127.38 5.74905
-17.5933 121 -1.6771
-18.6329 115.661 2.66438
-15.8603 125.295 -3.17099
-14.7449 126.441 -2.04259
-17.8846 119.849 -0.650937
-18.0407 119.749 -0.811984
-18.0708 120.828 -2.10918
-16.1333 124.941 -2.96975
-18.3589 116.916 2.15764
-18.3536 120.318 -1.99481
-14.7914 127.859 -3.29278
-5.28904 145.446 -4.36069
-16.7158 124.446 -3.24655
-16.6572 121.425 0.706198
-17.5739 121.962 -1.92795
-16.7379 121.334 0.677889
-15.7751 125.513 -2.30622
-0.0984654 153.093 -2.27795
-19.5726 117.794 -0.980934
-17.6838 117.083 4.01219
-11.2125 135.949 -5.21351
-11.2489 135.839 -5.14394
-7.68024 134.53 4.32701
-16.9116 121.073 0.976605
-1.61894 143.183 7.11509
-10.4215 129.229 5.26665
-14.5044 119.761 8.09206
-8.27155 133.356 4.85829
-12.8211 122.543 8.34758
-17.0557 123.203 -1.63298
-16.8609 124.795 -3.0739
-1.21505 151.182 -1.62044
-1.10728 151.477 -1.67469
-9.80066 139.482 -5.72926
-2.72102 148.92 -1.91946
-9.5057 130.684 6.01632
-18.206 117.508 3.48024
-8.31207 133.843 4.90724
-17.4345 121.606 0.252005
-18.3073 121.573 -1.56389
-17.6665 122.343 -0.97137
-6.02381 146.054 -4.88718
-11.8661 128.128 4.7049
-19.6068 119.085 -0.807941
-1.45607 151.663 -1.59411
-16.8107 118.721 5.73571
-18.418 120.894 -0.263057
-14.2205 130.607 -3.10317
-13.6795 122.745 7.79685
-16.2449 126.27 -2.13319
-18.1058 120.416 1.18647
-17.7376 123.567 -1.90434
-17.8755 119.092 3.35572
-6.72144 138.971 3.04366
-10.6443 138.819 -5.29193
-1.96731 143.727 7.66594
-4.09772 148.446 -2.79119
-19.2776 119.091 0.498552
-4.1185 148.587 -2.78039
-2.47459 143.399 7.22921
-14.0947 122.766 7.51185
-16.4541 128.052 -4.08636
-12.7715 134.016 -3.35711
-15.2949 121.575 6.70181
-15.498 128.666 -2.49632
-3.41345 149.698 -2.11505
-19.8254 119.735 -0.71037
-19.2496 122.452 -2.74436
-9.70668 132.946 5.38503
-14.6443 124.411 5.3089
-4.32031 149.197 -2.83176
-19.8514 120.901 -1.55496
-18.1742 120.146 3.36271
-19.079 118.822 3.10409
-5.5867 142.002 3.86864
-18.6113 121.459 0.997107
-12.1674 137.68 -4.88217
-11.4181 130.043 6.35437
-18.9183 118.724 4.12015
-14.4697 131.554 -2.04596
-4.6539 144.054 3.86358
-17.7844 120.96 3.95592
-18.0496 119.838 4.79944
-11.5847 130.067 6.31582
-18.2566 121.531 2.37754
-18.6899 125.478 -3.3337
-18.4311 126.004 -3.41023
-5.94297 142.412 3.46853
-11.842 129.812 6.24071
-20.2107 117.385 3.54237
-9.5181 143.357 -5.22473
-6.58143 141.635 3.32254
-2.75917 152.475 -1.71819
-14.9243 131.738 -2.52415
-15.3081 130.718 -2.02163
-19.6392 120.687 1.00824
-17.8886 120.937 4.54998
-16.1837 123.943 4.54288
-7.53334 140.516 2.87241
-18.1571 121.278 3.58962
-8.31241 138.592 3.62229
-6.85107 141.551 3.14366
-4.8212 150.105 -2.99246
-8.32313 138.582 3.63821
-8.75614 137.097 4.54486
-2.99524 152.369 -1.80041
-3.86498 144.076 6.56982
-9.624 135.468 4.73148
-10.5804 133.041 5.73863
-18.3106 126.982 -3.56256
-18.4819 126.837 -3.65412
-7.25547 147.45 -4.62619
-9.17303 136.582 4.64806
-19.2984 119.061 4.32944
-9.71245 134.704 5.92185
-17.5161 122.364 4.26064
-16.838 122.764 5.24759
-13.7051 134.026 -1.83402
-7.71984 140.977 2.61612
-13.8928 127.711 5.70987
-15.3567 132.014 -2.75764
-19.7712 121.104 1.31838
-15.4747 132.056 -2.83155
-18.0522 128.395 -3.84691
-19.116 121.351 2.54995
-18.9192 121.476 2.84743
-18.3189 122.737 2.66886
-22.4742 117.51 0.117328
-10.5129 133.777 6.04563
-15.8809 125.324 4.92425
-6.73666 143.312 2.61677
-20.8558 120.718 -0.0988862
-14.2089 134.369 -2.51162
-19.396 120.264 3.69344
-19.4613 120.235 3.61474
-18.9613 121.388 3.39053
-19.4395 119.83 4.29766
-20.8526 120.987 -0.0743535
-19.5071 121.54 2.17012
-16.8107 124.93 3.98951
-5.03177 151.118 -2.6493
-11.1741 141.702 -4.27697
-21.0917 120.865 -0.0439149
-19.6884 121.051 2.85211
-16.229 125.26 5.17395
-18.042 122.503 4.82829
-9.20605 146.088 -5.05535
-16.4672 125.145 5.16293
-6.10304 150.443 -3.4998
-19.2115 121.411 3.92855
-18.7166 122.846 3.31662
-17.1188 123.266 6.34554
-17.8557 122.026 6.35026
-6.28501 150.439 -3.52153
-6.70259 145.101 2.34022
-17.4872 123.946 5.06049
-14.8809 128.034 5.71363
-6.27368 145.983 2.26127
-7.23515 149.435 -3.92504
-18.6139 129.079 -3.50873
-17.354 130.429 -2.42409
-18.3614 122.449 5.29672
-20.4411 123.72 -0.594474
-16.7655 124.549 6.48129
-20.9106 122.797 -0.287488
-13.3453 138.107 -2.73764
-18.7057 121.93 5.60928
-23.1261 118.417 0.375352
-18.2349 122.042 6.55964
-17.2993 131.302 -2.634
-23.403 118.411 0.458733
-20.5851 124.395 -0.777633
-21.6634 121.758 0.138973
-10.4632 137.461 5.09246
-15.9633 133.432 -1.75768
-6.26674 151.686 -3.03818
-20.5113 126.635 -2.84122
-17.4228 132.236 -2.92917
-15.773 127.65 6.55994
-13.3362 139.878 -3.21053
-12.9235 139.128 -1.34371
-19.069 122.656 5.65977
-20.9916 124.708 -1.0355
-15.0919 129.064 6.41021
-12.9484 139.099 -1.28363
-8.59806 143.232 3.10783
-17.2701 125.492 6.18199
-10.084 139.307 4.81921
-21.7823 118.869 4.92193
-23.69 118.909 0.785539
-21.8033 118.906 4.94843
-22.3655 121.723 0.258398
-12.2269 142.261 -3.04817
-18.3047 124.822 5.37209
-6.76273 151.687 -2.69373
-8.81669 143.613 3.22148
-18.0233 125.305 5.87168
-7.64737 146.309 2.62217
-11.2357 144.992 -3.4553
-10.1879 147.192 -3.84865
-17.2092 126.2 6.89837
-21.7504 124.96 -1.25282
-6.46674 152.45 -1.95479
-24.2484 118.169 1.74966
-11.31 136.698 6.99703
-14.9737 137.056 -1.40475
-16.1676 135.091 -1.46435
-19.1905 123.881 6.01977
-12.9367 141.309 -1.56888
-13.2404 133.618 7.27215
-16.2294 128.957 7.02545
-11.5055 137.745 6.61729
-23.5536 121.665 0.409606
-9.66605 149.087 -3.20771
-9.32401 149.684 -2.91733
-8.99724 150.126 -2.61337
-17.8381 126.52 7.38655
-22.007 125.796 -0.761919
-9.22924 149.918 -2.71699
-20.0263 129.643 -1.12465
-13.1816 141.985 -1.45266
-20.6356 121.904 7.18726
-13.1176 141.414 -0.358243
-20.3811 129.066 -0.714836
-11.6095 138.808 6.35209
-11.4197 139.9 5.77393
-16.0355 137.398 -1.06264
-19.1001 127.001 5.31218
-17.9437 127.616 7.17209
-21.5787 126.953 0.0905713
-15.7839 137.956 -0.760857
-15.1325 138.769 -0.3492
-17.8347 128.025 7.09322
-17.6161 135.298 -1.4064
-24.3348 120.649 2.09392
-10.2994 149.288 -2.75537
-12.8797 143.282 -0.898232
-10.2293 149.437 -2.69265
-25.2194 118.157 3.42993
-20.0051 131.147 -1.271
-18.1527 127.914 6.99361
-17.0317 130.408 6.50602
-17.8994 128.83 6.74982
-10.7709 149.107 -2.51117
-19.5452 133.216 -1.94728
-12.2416 145.798 -1.61141
-18.4375 128.475 6.34578
-18.0614 129.429 6.19626
-9.62789 146.447 3.6082
-23.1793 125.174 0.436772
-15.4805 139.116 -0.0488539
-21.667 122.36 7.33988
-10.1081 150.27 -1.88895
-12.557 138.635 7.38034
-18.0618 130.423 5.57673
-20.8526 130.107 -0.0940286
-20.5858 130.836 -0.279582
-18.3943 130.07 5.45475
-20.1069 126.727 5.94388
-24.5002 122.097 2.18725
-7.349 153.779 0.59508
-16.8645 137.709 -0.177647
-7.10483 154.547 0.307535
-7.44031 153.888 0.473295
-20.5927 125.239 7.2804
-12.0941 147.17 -1.18042
-26.0688 117.348 5.5271
-12.3337 146.802 -0.935098
-26.0706 118.616 4.03374
-11.006 149.643 -1.55282
-13.3432 143.545 0.950679
-8.42309 151.216 2.21471
-14.6303 141.748 0.5064
-9.89978 147.578 3.65359
-19.3183 134.252 -0.31513
-19.7653 133.756 -0.588696
-15.6773 134.287 7.84108
-25.1452 121.07 3.59913
-15.9226 140.013 0.287453
-13.9521 137.59 7.60929
-10.5045 146.307 4.46849
-18.4007 135.581 0.569287
-12.2364 147.599 -0.631345
-20.1252 128.968 5.25917
-25.9106 119.679 4.20339
-23.5453 125.87 1.79586
-20.7855 127.451 5.9182
-22.3464 128.148 2.02263
-22.1489 124.502 7.02784
-17.7628 133.076 6.02034
-25.8453 120.312 4.42178
-24.5314 121.127 6.53966
-14.3482 143.408 1.41089
-10.7791 147.234 4.44598
-14.4922 143.373 1.46075
-22.694 128.144 2.67161
-24.0687 125.429 3.15415
-10.9754 150.352 0.950481
-24.2384 125.068 3.44558
-16.5425 135.095 8.01145
-13.964 144.377 2.19652
-24.1606 122.934 6.57325
-16.9388 140.261 0.906274
-20.5317 130.467 5.21654
-11.3164 149.968 1.18695
-16.1349 141.647 1.07025
-17.7484 134.032 7.03894
-22.6243 129.321 2.38496
-23.7854 126.181 3.88709
-21.1413 132.551 1.85052
-22.9907 128.179 3.23336
-14.7837 138.918 7.85495
-17.1514 134.789 7.99759
-18.3087 138.218 1.27869
-19.4121 136.004 1.72996
-21.734 128.735 5.94031
-21.9981 127.922 6.61036
-17.4201 140.288 1.30445
-12.2295 149.175 1.64489
-21.7547 128.984 5.89857
-22.8258 129.732 2.89016
-21.0298 130.9 5.40329
-12.2259 149.257 1.86639
-23.6225 125.598 6.39882
-20.7981 131.316 5.68275
-18.0445 139.579 1.54792
-17.2912 135.526 8.27999
-12.0051 148.194 4.39429
-14.8182 144.558 2.81706
-14.875 144.531 2.817
-20.0129 135.733 2.64949
-18.5011 134.643 7.49809
-22.4147 128.485 6.67029
-16.5712 142.609 2.0603
-16.5051 138.176 8.00228
-14.4519 145.754 3.47553
-13.2812 146.477 5.3135
-13.9689 144.046 6.82923
-24.6481 126.314 5.72876
-15.4061 144.655 3.23431
-20.2105 133.282 6.86505
-14.5733 143.134 7.15556
-24.4964 126.697 6.13367
-22.6693 129.745 6.36432
-24.7213 126.488 5.98934
-17.1099 138.496 7.7658
-21.5213 134.341 3.3839
-17.1485 138.76 7.68091
-23.13 131.015 4.42282
-19.4472 138.432 3.56265
-16.6806 143.905 3.08936
-15.5723 142.912 7.03851
-21.6463 134.619 4.16869
-16.4743 141.333 7.3875
-20.0718 135.133 7.49514
-17.8226 139.519 7.25417
-19.0324 140.34 4.02827
-17.4237 143.004 4.28139
-17.0766 143.448 4.50419
-16.7002 142.4 6.80471
-20.3266 135.75 7.20998
-19.7537 136.798 7.16073
-23.5735 130.918 6.2019
-16.8023 142.864 6.26319
-18.6439 140.523 5.3983
-23.7735 131.041 5.97542
-17.6262 142.155 5.63971
-17.0832 143.459 5.2202
-18.5844 140.581 5.54975
