ply
format ascii 1.0
comment Created by Open3D
element vertex 1914
property double x
property double y
property double z
end_header
16.2546 122.602 -0.0422579
11.0879 106.4 12.0858
22.3438 131.117 0.566074
20.1269 127.104 1.63909
23.1001 134.046 -1.9813
5.81846 109.813 -3.47622
18.1051 122.644 3.85705
9.79042 111.683 2.10509
11.0524 112.844 3.1167
6.47116 110.709 -3.32023
17.8599 122.397 3.77334
16.5581 121.407 2.49588
-2.63841 99.0676 -5.7148
21.6211 133.396 -3.82612
12.1787 108.336 11.96
19.5483 123.014 6.54176
21.5244 128.315 3.17251
-11.7006 76.5852 7.32814
13.2729 113.753 6.70975
15.6837 120.169 2.66678
13.0788 119.266 -1.41353
22.4562 132.429 -0.546537
22.8283 128.364 6.08612
12.8474 111.438 9.29365
-6.5779 93.6481 -5.8046
7.73146 105.714 6.80922
11.6724 115.714 0.952494
2.87501 94.9947 11.9386
22.5833 130.486 2.74377
-10.4013 78.8761 7.24219
15.527 121.999 0.169934
-13.1321 78.1428 2.70069
-2.21438 88.5743 10.5923
-9.521 87.8259 -3.44578
1.68195 105.684 -5.42555
13.1816 113.053 7.98336
11.8443 105.927 15.2604
-5.6685 95.2388 -5.8348
16.1976 123.493 -0.322709
20.4 124.169 7.41684
-12.9495 81.8045 -1.8409
16.3209 122.783 1.00911
3.77002 97.1732 11.1568
14.5904 120.513 0.673549
16.3267 122.792 1.11523
22.3754 128.541 5.52665
21.6661 126.129 7.4727
13.7021 120.257 -0.685807
13.2628 113.906 7.37767
17.3208 123.263 2.61847
12.9666 107.932 15.2134
11.7976 114.92 2.96394
12.3223 115.493 3.24902
-2.933 88.3483 9.93451
12.9708 120.422 -2.24063
14.0668 120.498 -0.0739766
7.5958 105.611 7.53047
16.0901 122.998 0.707955
10.5014 113.559 2.46557
-6.39691 94.7264 -5.92259
11.3052 106.422 14.2076
-12.8314 81.5654 -0.532128
-4.22646 98.3198 -6.31567
14.98 122.062 -0.0133169
20.1694 124.665 7.12218
14.5128 124.899 -4.83668
21.9946 132.328 0.179363
19.5485 123.094 8.16793
17.594 119.878 8.7027
22.3632 130.761 3.27629
12.7024 120.544 -2.29041
-9.60167 89.571 -4.73235
20.4719 125.306 7.1319
-13.278 82.5035 -2.34344
5.84637 102.437 9.1342
-2.79638 100.143 -5.48086
15.9321 122.567 1.68935
3.19058 97.0287 11.3322
9.41639 112.576 2.3331
6.75141 112.287 -2.7474
8.56526 112.065 1.33372
-2.80048 89.1113 10.1793
20.8009 133.774 -3.86457
7.5734 106.815 6.74486
1.67626 93.8488 12.8405
15.5133 122.222 1.50419
-6.20475 96.0043 -6.35782
16.1935 123.46 1.33719
22.2768 130.858 3.49538
10.5325 113.787 3.32567
10.0175 113.548 2.64501
4.41502 99.8664 10.3267
14.3229 125.156 -4.77378
0.793197 92.0926 13.8197
-7.21046 83.9278 8.79378
-0.090753 91.2984 13.167
22.3387 128.976 6.50337
10.8713 114.317 3.46685
14.0593 121.747 -0.366494
23.2056 135.666 -1.04245
-7.26789 94.7051 -6.32622
7.96638 109.541 4.29487
22.2708 131.705 2.72591
12.8708 121.112 -1.74259
-13.2436 83.5694 -2.80567
2.12976 95.5702 12.0764
2.90958 97.165 11.4551
12.4382 116.912 3.36379
-12.5778 84.3577 -2.5051
18.1061 130.458 -3.97472
2.34492 107.954 -4.84716
13.6631 122.283 -1.59608
7.69172 108.031 6.17147
15.9414 123.321 1.72135
7.23191 105.985 8.23271
12.1945 119.013 0.160286
19.5942 125.645 6.1232
12.8268 114.075 8.46597
-4.66743 98.8721 -6.24365
19.1939 124.448 7.13238
22.0063 128.865 6.73183
9.80972 113.805 2.73175
5.77873 112.045 -3.11585
-10.27 89.2789 -4.19336
18.0558 119.468 11.8861
2.00774 107.891 -4.97842
12.4832 121.312 -2.1783
1.3044 93.8399 13.397
-13.6259 83.3275 -2.64712
15.3461 123.419 0.815889
12.4001 121.319 -2.29508
14.4571 122.424 0.439473
0.810281 93.1964 13.3817
-0.139054 91.8176 13.371
11.0247 115.844 2.7395
22.1279 135.683 -2.19694
13.5137 123.471 -2.78072
19.6495 126.489 5.69863
12.2894 117.65 3.03518
16.9155 119.68 9.75226
18.972 125.044 6.49171
15.3041 127.456 -4.41165
18.8146 123.285 8.71366
4.29059 100.614 10.6265
6.91993 112.315 -0.364745
-0.413097 91.8825 13.2793
12.5642 118.127 3.18851
11.8949 119.011 0.659076
-13.3694 78.9392 5.0473
-0.949229 104.675 -5.4927
20.0228 127.514 5.73347
-4.29504 89.1025 9.55508
13.0476 123.055 -2.35599
-14.04 83.2737 -2.3234
-1.53294 91.3758 12.1472
-13.9064 82.3248 -0.669321
14.0807 123.246 -0.404926
4.55821 111.305 -3.26572
19.2141 133.505 -4.22396
15.7152 123.722 2.32992
13.3967 117.637 6.18297
-3.04168 90.5532 10.3553
12.8317 122.64 -1.95012
-12.3028 80.2181 5.85761
3.71192 100.112 10.9676
16.0238 115.703 14.5017
11.2434 108.681 14.5215
15.1961 124.419 0.543604
-12.3928 85.7426 -2.03224
-4.90166 88.5095 9.58763
5.98117 113.356 -2.89002
-10.8506 81.4197 7.27542
13.2374 123.926 -2.75906
19.8142 127.621 5.64676
21.5393 134.071 0.133222
21.6525 133.867 0.84273
12.0414 121.465 -1.41412
19.8159 127.583 6.04794
11.1803 118.537 0.949688
20.952 128.694 6.857
19.666 127.537 5.82814
-11.5891 87.7573 -2.76284
21.5822 133.742 1.10718
-2.18771 103.662 -5.64941
14.5863 125.402 -1.55249
13.2234 125.049 -3.77288
13.2319 111.723 15.0278
-7.53326 85.7114 8.74849
13.2802 125.234 -3.85575
6.79849 113.012 -0.0251388
7.24327 113.165 0.697528
-4.38277 89.8031 9.57088
3.97714 101.343 10.6351
2.63962 98.6691 11.6639
13.7223 124.438 -1.64618
5.55417 113.367 -2.89758
21.6036 130.237 6.60826
1.87871 97.5319 11.8986
21.7006 131.851 4.56782
13.7829 125.274 -2.51493
-4.24821 90.1211 9.71173
20.2731 136.103 -4.32307
12.3453 123.034 -2.28646
1.64634 97.2474 11.9506
-10.6888 90.9933 -4.69554
-8.9425 94.392 -5.8574
-2.61793 91.5847 11.2111
-0.571613 106.041 -4.8991
21.4894 132.122 4.02424
13.266 112.398 14.8308
1.12651 108.384 -4.40705
14.7844 124.945 0.524418
4.93234 104.484 8.97481
22.722 137.177 -0.258963
14.891 115.126 14.6758
11.2567 120.686 -0.633855
13.3476 119.287 5.67304
-13.1459 85.7349 -1.76931
15.0662 128.913 -4.21265
17.1944 131.789 -3.84282
7.86018 112.575 4.01946
11.0357 111.293 12.4029
-2.82907 91.8127 11.1838
11.4849 119.087 2.42733
-1.84329 92.3011 12.6299
9.90795 116.182 3.33007
13.1817 125.428 -2.85498
-14.8142 83.0723 -1.068
20.0579 129.245 6.12994
16.374 124.203 5.63509
18.0885 133.895 -4.4329
15.4444 116.612 14.449
17.7179 133.202 -4.1857
12.8999 120.921 3.16757
15.7533 124.311 4.32397
11.2795 112.857 11.2763
-11.946 89.2486 -3.48056
-1.13895 93.0577 13.5157
-1.27879 92.9317 13.4256
13.2141 119.148 6.49365
16.5599 121.55 10.046
2.06278 99.0696 11.7315
11.2761 112.924 11.3145
21.8002 137.672 -1.56765
12.944 125.327 -2.45221
-4.45835 102.423 -6.12123
14.5997 125.105 1.39146
-3.95635 103.483 -6.49749
-10.9076 92.08 -4.72253
15.7744 124.456 4.84922
13.21 119.586 6.41856
3.92134 112.822 -3.22314
-4.59613 91.0914 9.77826
11.1317 111.623 13.4059
10.408 119.225 1.24289
16.5664 131.935 -3.86264
21.5022 138.072 -2.25946
7.3268 114.532 1.61604
4.55818 105.469 8.73254
6.81951 108.788 8.75162
17.1847 125.242 7.01499
20.5065 133.813 1.84839
-13.3847 82.0954 4.60555
20.7576 132.007 4.91345
18.2395 135.187 -4.74613
18.6148 128.031 6.17529
19.5827 136.96 -4.38113
12.0199 116.245 9.14633
19.6285 137.021 -4.35864
21.0453 135.393 0.866531
-6.88796 88.5932 9.01243
1.26919 109.864 -4.05097
21.1373 138.354 -3.08441
-13.1943 82.3296 4.92585
5.29839 114.78 -2.52065
16.9708 127.601 3.66073
8.34142 115.205 3.2937
22.5365 138.523 -0.165965
14.6428 127.257 -0.545008
18.9035 136.424 -4.62609
-0.0464366 96.4359 12.6339
4.00913 104.729 9.35458
17.9843 125.717 8.76084
-2.14007 93.1995 12.9497
17.912 125.862 8.55059
-1.83887 93.4336 13.3848
0.367821 97.362 12.4728
-12.3267 83.2309 6.15045
-3.24934 92.7378 11.5302
20.1762 134.06 1.78327
-3.46181 104.771 -5.83943
-8.88845 86.7843 8.29582
21.3225 136.618 0.602507
5.32145 114.768 -1.70797
17.2303 134.339 -4.63265
15.2748 127.882 0.422185
16.0625 121.876 10.525
12.7794 119.049 7.72564
-13.1151 82.8118 5.21658
12.3582 126.192 -3.18338
12.0719 125.508 -2.76658
6.35948 114.73 0.635691
-12.484 83.2613 6.00832
15.086 124.943 4.36521
14.5429 127.059 0.28311
4.45276 114.556 -2.93481
17.0427 128.869 3.05091
7.81609 115.645 2.64311
15.3765 128.237 0.553607
13.2861 121.758 5.41459
12.6354 114.148 14.7957
-7.63456 88.7293 8.70971
-7.48685 88.9278 8.7391
11.1664 114.409 11.4323
2.56996 102.756 10.0809
12.2053 126.464 -3.31476
15.8752 132.316 -3.96032
20.1721 131.994 5.37972
10.984 113.175 12.8896
-8.0361 88.349 8.56814
20.1513 131.984 5.41691
16.6992 127.998 3.92208
17.4367 129.246 3.70626
11.1167 113.953 12.1992
11.2544 115.311 10.6177
17.0021 130.676 0.89115
16.0707 132.85 -4.05571
5.79054 108.187 9.42005
13.1585 127.999 -3.15465
21.2602 136.994 0.92686
7.89261 114.952 4.39055
-8.889 97.9013 -6.27994
-5.05149 103.576 -6.26818
-3.46263 93.2085 11.6631
16.1635 127.971 3.29535
10.7508 121.525 1.19189
3.78206 114.431 -3.22113
-4.24931 92.902 10.5437
15.7986 129.404 0.605153
-15.3002 84.0303 0.21328
-13.2563 83.506 5.19216
1.41422 111.528 -3.87251
15.9564 128.262 2.62628
7.73569 116.166 2.73603
-12.1751 92.0667 -4.48016
18.0545 128.309 6.98088
-15.4234 84.7982 -0.958278
22.4412 140.024 -0.401998
15.7344 125.729 5.86939
10.9036 121.482 1.87428
21.9386 140.101 -1.47639
16.2784 123.356 10.5024
14.8584 125.558 4.48912
16.2393 125.84 6.98726
16.0397 122.996 10.6464
11.3787 125.603 -2.65365
15.4286 125.877 5.35772
-14.1611 88.2565 -2.69882
14.5487 125.666 4.1064
-1.50122 95.5557 13.3508
16.7826 127.842 5.82117
15.418 121.424 12.0539
14.1887 129.098 -1.26687
12.5233 115.493 14.4512
11.0413 122.247 1.95364
-11.4075 85.191 7.78411
-7.68956 89.9039 8.87289
9.02156 118.769 2.80381
-6.30197 91.4389 9.62283
6.60875 110.91 9.00579
-12.1656 93.0845 -4.69362
18.5117 137.868 -4.251
5.22257 115.595 -0.305238
0.237601 110.509 -3.43492
15.4042 121.305 12.7375
19.4903 132.242 5.84799
16.6555 127.515 6.65089
-9.52706 87.8756 8.35524
-11.8231 93.9733 -4.9342
-8.50038 89.1598 8.71617
16.5198 127.365 6.65481
16.3543 129.902 2.79942
0.0549629 99.6148 11.746
-13.5888 90.6393 -3.79232
13.4635 126.685 1.38901
12.7036 128.229 -2.34926
15.7953 123.481 10.8113
13.9453 118.28 14.3148
-8.44523 89.3392 8.78242
18.9391 131.411 6.24081
-15.3635 85.8021 -0.394255
8.64361 118.539 3.1407
13.1647 125.25 3.06145
16.3922 129.538 3.76052
11.5581 123.736 1.95287
17.0951 130.044 4.52519
10.0194 121.403 2.11428
13.2619 125.275 3.39021
13.1701 117.428 14.255
15.228 133.893 -4.64977
16.0452 132.118 -0.433705
16.5394 131.781 1.2291
22.1457 141.15 -0.358364
-11.2292 86.336 7.87409
-15.3549 86.3764 -0.706508
-15.2651 85.3669 0.91595
19.9266 140.022 -3.2726
16.0849 127.797 6.00562
3.91142 107.307 9.70281
7.50389 115.038 6.25892
9.40994 120.812 2.07621
18.828 138.861 -3.83727
15.0985 127.756 4.10436
-10.6267 87.1649 8.11583
13.1587 127.374 0.701591
16.4012 129.038 5.0629
18.8261 133.775 3.46621
-9.06904 89.0916 8.71091
-1.60829 97.1125 12.8556
15.0923 121.461 13.0998
-6.39661 103.859 -6.44908
12.6748 129.695 -3.38432
11.0491 126.987 -2.92563
-8.37103 90.0368 9.00314
-14.4006 85.7189 2.66224
-15.3878 86.6366 -0.658869
-5.13344 105.705 -6.26562
16.3469 129.211 5.11787
14.7811 129.665 1.2633
7.57971 115.722 6.04043
13.7372 130.35 -1.81048
7.67037 116.183 5.64458
-9.68465 88.6319 8.57556
-7.16661 102.936 -6.35067
12.6434 130.195 -3.71038
13.0322 130.892 -3.88078
7.87078 118.184 3.36063
6.37473 117.194 1.68643
16.2198 132.583 0.409764
-14.9933 88.6731 -2.28597
-15.4016 86.7706 -0.422827
14.5595 129.24 1.73103
-6.70818 103.895 -6.53416
10.8903 116.317 12.358
19.592 135.778 2.95508
9.7649 123.116 0.49355
12.6269 122.912 6.84506
16.6219 128.706 6.95029
17.49 130.724 5.94157
-3.76017 95.197 12.0551
-15.4677 87.4771 -1.26184
13.0694 127.996 0.689314
13.5847 127.519 2.43871
15.9373 133.259 -0.694479
15.7391 125.451 9.90574
4.8303 109.563 9.75859
-8.14408 90.9145 9.22715
14.2706 130.885 -0.702955
-11.9774 86.755 7.202
7.80089 117.13 5.37315
0.909928 113.119 -3.19658
12.8416 131.324 -4.13477
1.98703 114.724 -3.19431
19.9243 140.925 -2.95537
-13.0239 86.3583 5.80538
-1.3512 98.8055 12.4643
-12.7309 94.4421 -4.90643
-15.3137 88.7375 -2.09343
1.87337 114.756 -3.18639
2.50478 106.421 9.88501
13.0574 129.517 -0.770413
7.80056 117.313 5.57034
11.803 117.399 13.7263
13.2475 129.32 -0.0418077
12.7347 129.881 -1.77153
-12.1421 87.0943 7.06723
9.40381 123.737 0.0219737
7.8564 117.786 5.27548
12.4859 127.106 1.82743
13.9128 120.741 13.748
12.4896 123.612 6.77628
16.7361 137.486 -3.92387
19.4722 136.924 2.58013
11.0399 117.601 12.4549
7.66084 116.899 6.49398
-15.5434 87.9146 -0.60457
1.20315 104.948 10.0352
6.94551 118.471 2.89496
-7.50878 92.3877 9.83416
10.7517 128.333 -2.92543
1.14823 105.004 10.0626
-2.48773 97.2775 13.4356
-2.501 97.2558 13.4535
10.793 118.91 10.4572
-3.61791 108.437 -4.56522
8.7821 121.184 3.19165
-4.96839 107.186 -5.46943
20.2912 142.118 -2.41869
20.1986 142.072 -2.50768
13.0035 120.044 13.6391
7.09085 115.503 7.90964
13.4705 132.795 -3.2237
15.0282 126.585 8.79661
11.0696 118.293 12.3467
11.1823 126.096 1.63562
-6.11643 106.4 -6.33046
13.9017 129.248 3.11969
16.0267 130.043 6.42937
15.3312 133.194 0.610238
-7.12931 93.4634 10.1393
10.3843 125.111 2.02618
10.892 126.08 1.7207
-10.6282 89.7632 8.36461
8.51993 121.291 3.58036
7.75888 117.977 6.67848
-13.5416 88.2459 4.53539
-14.8508 91.6049 -2.80317
16.7727 131.61 6.39289
4.99526 111.761 10.0042
-8.57703 103.999 -7.11553
-3.25235 109.625 -4.02651
13.8664 134.232 -3.20624
19.7511 138.816 2.50658
2.59091 108.253 10.082
14.8782 127.728 8.10601
-10.0124 90.6425 8.90558
11.138 118.985 12.7396
20.8501 143.237 -1.3205
7.17749 116.455 8.11818
11.4735 122.569 8.39293
-0.363108 103.781 10.4018
9.08111 124.049 1.39869
4.31077 118.273 -0.2737
1.55529 116.057 -2.83556
4.91368 111.871 10.0001
-2.91535 97.8749 13.5267
15.7723 129.3 7.92348
14.2297 130.858 2.56807
7.91096 120.315 4.5148
3.52025 118.041 -1.34226
12.3867 129.077 1.49242
13.9351 130.728 2.37301
-1.13007 102.473 11.0624
13.1149 129.42 2.57755
4.52977 118.655 0.0158847
14.4369 134.541 -1.84179
7.78508 118.914 6.41571
10.7052 120.775 9.84962
12.1221 132.511 -3.69176
-15.2577 89.3136 0.599884
-2.71433 98.9521 12.9747
-5.097 108.421 -5.22222
14.4352 134.6 -1.68066
14.1187 135.371 -3.35441
2.56504 108.952 9.97447
7.92255 120.578 4.68916
9.43127 124.29 2.5851
-15.2641 89.122 1.10321
12.6261 126.281 6.44761
19.5369 142.775 -2.45649
15.9544 138.435 -3.66951
6.37233 119.872 2.67033
11.8334 132.285 -3.48234
-6.88643 95.0509 10.2483
0.809737 106.264 10.4166
-5.13106 96.37 12.1003
14.9344 136.163 -2.41844
16.2204 131.73 6.50626
3.39044 118.571 -1.47382
4.94608 112.817 9.96936
14.3781 136.761 -4.22193
-13.3556 89.1512 5.47706
15.5294 136.702 -1.71821
-3.21855 110.499 -3.57332
10.2175 129.789 -2.95674
8.76939 126.138 -0.766319
-8.23715 93.5411 9.97331
-14.4761 94.1112 -3.67675
-13.6115 96.0796 -4.64605
10.6088 121.433 9.787
12.9211 130.879 1.33917
-12.4351 89.7112 6.94735
15.1655 135.476 -0.365081
-14.7166 90.8526 0.694404
14.2056 133.166 0.924791
-14.7276 91.1581 0.280792
-8.11213 94.0349 9.96175
2.84193 110.237 9.81459
7.79229 119.892 6.47175
15.4514 138.369 -3.69242
5.43273 119.99 1.49246
20.1795 143.717 -1.42352
4.73852 112.992 9.95525
-14.6282 94.1925 -3.58718
19.0258 139.01 2.88554
7.7896 119.908 6.55376
13.5614 131.732 1.95189
13.6134 133.795 -0.807097
-7.97019 94.4836 9.96202
-15.0325 89.4535 2.45397
16.5903 133.749 5.47757
8.50944 123.198 3.72641
13.201 131.776 1.37816
-14.8954 90.0012 2.24316
16.5245 140.031 -3.20273
-13.2322 89.7231 6.11654
19.8997 143.811 -1.54061
7.40567 118.97 7.63773
20.7373 144.443 -0.662099
18.5792 142.599 -2.52202
8.23273 123.556 2.91472
9.65783 129.475 -2.43125
7.09723 121.579 3.40698
-13.9234 89.7338 4.81793
2.57181 118.98 -2.25688
11.8521 125.78 7.41464
13.0653 124.681 11.4916
-0.652652 105.305 10.4399
13.2445 132.972 0.305534
-8.51275 106.187 -6.95586
-2.4455 101.802 11.758
10.553 121.669 10.673
2.18186 110.019 9.85444
-13.2172 89.9404 6.29475
12.9191 132.839 -0.0481767
12.7481 132.881 -0.381682
13.126 130.224 4.18647
16.967 136.077 3.92784
6.06828 121.031 2.58781
7.06081 122.086 3.2652
11.1329 132.608 -3.07687
12.5975 125.208 10.4321
1.37616 109.086 9.96763
7.60602 120.055 7.41561
-14.2216 90.1099 4.53806
16.1827 140.28 -3.20226
-15.3355 93.2233 -2.02858
-15.3516 93.2001 -1.97883
5.73335 121.134 2.29994
13.4534 132.972 1.86259
-0.020968 115.905 -1.94865
13.3637 132.521 2.35956
7.92005 121.931 6.05283
9.52372 126.91 2.54558
-3.81042 111.724 -3.63373
19.5279 144.603 -1.54367
1.21926 109.556 9.95998
-1.60796 104.858 10.732
-11.0827 103.212 -6.50559
10.9881 133.343 -3.25731
11.497 130.664 1.60956
20.369 144.719 0.181331
11.4248 130.65 1.62424
14.0603 136.781 -1.52842
12.9388 130.798 4.65184
-5.39164 110.706 -4.93051
13.3487 132.3 3.47665
8.14701 126.075 1.49767
6.72226 118.723 8.90122
-14.9503 93.0196 0.422423
13.946 130.249 7.90136
11.7538 125.114 10.6376
12.5439 136.98 -4.41188
-0.06374 107.88 10.5332
-14.4076 91.2218 4.35935
18.1106 139.769 3.30878
-3.16285 113.177 -3.1499
7.92551 122.997 5.94438
-15.1163 95.5429 -2.98475
9.40797 131.084 -2.3096
16.0141 141.198 -2.88817
13.8877 136.829 -1.10398
9.19479 126.844 3.28159
-5.29825 98.549 13.1702
-3.4782 113.118 -3.54466
13.957 137.982 -2.47404
9.31943 127.14 3.21871
2.05545 120.055 -1.64799
10.7295 123.28 11.7386
-14.9097 96.4256 -3.36745
0.1396 108.836 10.3229
3.28809 121.29 -0.660692
-7.03161 110.184 -6.29389
15.6524 134.604 6.23195
-8.34009 96.3523 10.4905
19.7564 143.41 2.34526
-12.2729 92.9109 7.24418
5.02004 122.223 1.94179
-14.613 92.1061 3.76542
17.1525 138.942 3.5265
3.41111 121.742 -0.592346
-0.718987 107.653 10.7139
-11.0716 93.79 8.83251
-14.2299 98.7912 -4.72539
3.10458 121.4 -0.695552
-10.1309 95.0423 9.10065
3.59463 121.919 -0.362354
4.12752 115.012 10.4754
7.36527 121.739 7.76493
-10.8019 94.2634 8.90869
13.518 131.174 7.23464
-6.85642 110.828 -6.16702
-14.9572 94.0179 0.794413
-14.7227 92.7147 3.20768
-2.66251 104.733 11.3285
16.4275 137.785 4.35213
6.4864 119.685 9.29974
9.12914 127.394 3.9317
0.146821 109.813 10.1685
16.0092 142.219 -2.61292
11.6102 129.492 6.21558
9.24789 131.838 -1.96539
8.19795 125.23 5.22006
11.4191 128.828 6.82572
8.25271 125.537 5.03158
-9.86792 107.391 -6.85574
13.4675 138.879 -2.93889
-9.72466 107.733 -6.96806
15.9863 142.337 -2.52289
4.11867 115.591 10.6036
-15.5365 94.4214 -0.139652
-11.8609 93.8224 8.30136
-14.1425 92.6335 5.31715
-3.88986 102.054 13.3485
-14.8408 98.3208 -4.00339
-0.563424 117.273 -1.12564
0.511773 118.935 -1.16185
1.70686 120.76 -1.25249
-13.4135 101.845 -5.8558
-8.82317 96.8642 10.6594
13.3907 139.146 -2.92776
8.48174 131.202 -1.70545
7.80496 123.994 7.07519
10.6785 125.492 10.9254
12.22 134.164 1.9534
-3.52675 114.738 -3.17762
-5.94265 112.872 -5.53739
6.6458 121.27 8.67615
7.60848 128.36 0.694329
-8.63804 97.2038 11.029
4.76281 123.323 2.00935
10.7779 126.495 9.97925
10.8531 132.654 1.5679
7.38346 129.076 -0.518119
13.4625 139.235 -2.24754
16.4054 143.321 -1.8578
9.56484 129.054 4.09853
7.43 123.353 7.85654
1.65056 113.295 10.1299
7.34681 123.222 7.93643
-13.5935 102.07 -5.55194
18.1318 142.128 3.80553
9.17375 128.374 4.66194
-5.3445 113.954 -5.03118
12.3838 130.057 8.95757
13.4622 140.173 -2.92301
9.94854 135.443 -3.46516
2.82679 122.778 -0.309296
11.8034 132.202 5.00102
0.0729676 119.168 -0.87609
8.20085 126.512 5.59033
-14.065 93.559 5.98527
12.5244 139.836 -4.19835
-15.2713 98.5726 -3.55521
14.9471 141.665 -1.69585
2.60165 122.609 -0.359299
7.9702 125.923 6.09415
9.94033 130.492 3.76239
18.9819 144.629 2.56696
1.89013 114.046 10.2977
10.5918 128.855 7.48119
-4.59965 115.133 -4.45997
-11.939 95.0581 8.66515
8.7336 127.813 5.30258
17.3854 141.674 3.71777
-8.80937 110.814 -6.95651
-11.2572 107.204 -6.86403
10.4444 133.014 1.66752
0.558828 112.709 10.0076
11.763 139.76 -4.87839
7.97276 126.397 6.12247
11.095 128.639 9.42029
-6.90315 99.81 12.8747
-14.4675 94.8587 4.21803
9.16142 134.686 -2.98202
10.1992 127.268 9.66082
-1.15681 118.124 -0.909233
11.3561 131.966 5.52341
-12.0549 95.328 8.73353
-2.34297 108.245 10.6961
11.2768 131.832 5.69447
10.2011 128.262 8.52537
16.249 140.405 3.97446
9.37009 129.611 5.08775
10.8243 128.653 9.44184
15.2146 142.75 -1.2167
15.9685 139.576 4.88797
-13.502 94.7977 7.01743
12.0843 134.426 4.14962
2.80674 116.13 10.7587
7.02479 130.357 -0.533588
10.4654 129.995 7.19944
-4.0281 116.325 -3.41154
10.5583 130.367 7.09056
-13.4841 95.0882 7.10471
-2.39017 117.486 -1.4164
11.3064 134.965 2.31289
-14.2281 95.0089 5.81789
9.74911 137.459 -4.35001
7.11875 129.517 1.52748
12.9071 140.091 -1.25868
18.4542 145.914 2.01223
2.85432 124.229 0.369888
-3.09023 107.835 11.2127
-1.28853 111.115 10.3425
-12.1749 107.269 -6.70742
5.28642 121.59 9.32461
12.519 137.299 2.20145
9.46527 137.385 -4.10675
7.47603 126.03 7.77332
-12.1715 107.582 -6.67766
-4.79861 116.967 -4.4554
9.19533 137.027 -3.76813
12.9319 137.672 3.07197
-12.6038 107.088 -6.6411
12.7173 141.614 -2.89481
6.92135 129.942 1.57371
-13.6424 104.399 -4.92203
5.89886 123.062 9.1964
9.07751 136.85 -3.61243
9.62056 133.229 2.629
-15.7666 99.6847 -2.6121
18.2647 146.808 1.39408
11.2304 136.946 0.750322
15.7394 141.186 4.11041
-14.9701 101.73 -3.76364
13.3435 137.954 3.85674
-2.59989 109.721 10.7206
-4.06945 106.463 12.3672
8.62633 129.825 5.73259
-15.5559 98.3205 0.127292
13.1332 137.47 4.4219
5.11287 122.369 9.11403
5.76621 123.263 9.23459
-14.4338 102.93 -3.81879
10.9996 140.993 -4.82915
-10.3746 111.231 -6.92765
12.8376 142.39 -2.75171
-15.6147 97.8403 1.16215
-14.3709 96.4307 5.77064
-15.5344 98.7968 0.0400872
15.3931 141.028 4.52228
-15.2805 97.2107 2.81648
-13.7175 104.776 -4.57223
-5.16768 104.738 13.1784
17.4718 144.698 3.75607
2.41177 124.839 0.680807
3.74661 126.466 1.21462
-7.1429 102.036 13.1158
17.8107 147.427 0.811183
10.2812 136.114 1.21196
-9.46027 99.9555 11.3219
-12.0338 109.026 -6.68667
-9.67799 99.8276 11.1591
-7.4815 101.849 12.8714
16.0557 145.82 -0.371757
11.323 133.094 7.77102
10.7448 137.43 0.552399
0.994602 115.808 10.8402
-15.8925 100.427 -2.38997
3.60899 121.303 8.59618
-15.2486 97.4885 3.17073
12.8753 141.534 -0.655723
16.8213 144.128 3.86659
3.89571 121.773 8.64377
9.28812 132.328 5.03388
-15.6363 99.3191 -0.011027
12.8334 141.342 -0.311106
-11.8763 109.646 -6.76026
-1.67581 112.574 10.239
-12.8163 108.12 -6.49915
12.9264 136.015 7.56941
7.22627 127.415 7.90243
10.9358 138.134 0.555824
-13.0669 97.7437 7.87863
1.02363 123.595 0.635934
-15.9701 100.685 -2.16753
-4.40101 119.008 -3.83587
-16.0396 100.294 -1.50325
-15.7272 99.6006 0.137485
2.13599 119.09 9.8129
6.15372 131.43 0.797624
-4.92369 106.521 12.9643
-3.81475 119.305 -2.6967
15.6564 143.027 4.17337
10.6088 133.441 7.28412
-3.86482 119.392 -2.7973
2.26981 119.614 9.60001
5.36238 124.485 9.15865
17.2201 146.014 3.37637
-3.68542 109.458 11.6462
1.98972 119.059 9.8706
7.57918 136.345 -2.87414
14.7652 141.231 5.10212
-15.9506 101.013 -1.67044
14.6559 140.56 5.96072
-6.11157 104.811 13.3717
-0.287817 115.227 10.7629
12.8255 136.828 7.50474
16.2058 144.233 4.09051
-2.93961 111.316 10.8735
-6.2273 117.692 -4.87164
11.6387 143.225 -3.85444
-1.59989 121.126 -0.0815812
-2.70278 120.114 -0.86315
15.0368 145.344 0.327061
5.52935 129.547 2.91743
14.2976 139.558 7.00203
-8.50142 102.339 12.278
-15.4276 102.971 -2.90061
4.84978 128.735 2.85614
7.79296 130.802 6.16066
-15.2445 98.8359 3.56818
11.9821 136.766 6.48482
-8.63481 115.607 -6.28733
-0.814492 115.061 10.6686
2.05358 126.03 1.19351
6.79273 128.082 8.12706
12.0451 136.349 7.39409
14.4124 140.808 6.07179
8.59991 132.638 5.58077
7.35838 129.733 7.13098
-12.8351 109.762 -6.43793
5.55764 125.883 8.91587
15.5932 147.157 -0.233272
15.6714 147.356 -0.347163
2.29662 126.53 1.32646
-15.6988 101.011 0.0923497
8.37657 132.504 5.72926
-2.63285 112.809 10.7428
12.3826 138.059 6.27902
5.92157 132.389 0.911536
6.46824 134.915 -1.49209
-15.8999 101.821 -1.103
-14.9865 99.4164 4.22698
12.3193 144.271 -2.29875
7.19592 129.996 7.20978
-14.1889 107.119 -4.6784
11.3327 140.017 1.81436
10.9507 140.375 0.53698
10.161 139.198 0.684865
-4.88864 108.555 12.7228
10.3548 143.362 -4.68714
15.8896 145.041 4.43129
10.3208 139.579 0.6349
5.87338 133.047 0.659658
6.68984 129.078 8.03727
15.3723 147.618 -0.0962615
-14.0991 99.9158 6.24646
2.04415 121.275 9.57346
0.810084 118.913 10.4122
-10.0149 114.804 -6.15482
16.4897 146.577 3.94044
11.0249 140.663 1.01219
2.03135 121.377 9.57819
6.2663 135.432 -1.43835
-13.5118 109.828 -6.1621
6.26773 128.511 8.46398
10.9324 140.95 0.663677
-2.33474 122.057 -0.137902
2.01631 127.249 1.61543
-14.7525 106.739 -4.16855
9.16676 138.119 1.09755
-7.67158 118.067 -5.44783
3.45533 124.716 8.20208
6.2001 135.743 -1.5776
0.0427918 117.788 10.9783
-15.2322 101.134 2.89075
6.16575 135.608 -1.40972
-15.2582 100.626 3.63344
-11.8629 101.636 9.38214
16.537 148.421 2.25007
-2.83309 122.366 -1.10261
-9.33792 103.643 11.8318
-5.42844 108.662 12.8557
-10.6457 102.651 10.5381
-9.60649 115.886 -5.92693
11.1975 140.921 1.83237
10.6882 144.729 -4.47605
13.3231 141.585 5.41842
-14.8969 102.63 1.9698
-3.70721 112.429 11.375
6.56275 137.803 -3.09006
-8.9595 104.124 12.2759
0.315054 125.707 1.07214
-6.5195 119.302 -4.03212
-14.9234 102.613 2.18445
-14.9802 101.208 4.15973
0.514067 126.091 1.23934
-9.81453 116.008 -5.89497
-14.8673 101.355 4.40494
-11.9773 102.173 9.27692
0.516567 126.233 1.2812
-6.98182 106.639 13.399
-4.92569 110.379 12.4064
-0.634717 125.107 0.662357
-7.84811 105.843 12.9592
-14.7142 108.517 -4.94481
-3.89259 122.821 -2.70072
-15.1219 107.379 -4.14842
-14.6782 101.73 4.76041
0.0318208 119.117 10.7699
-11.0397 114.809 -6.03485
4.45121 131.496 2.51197
-9.60751 116.969 -6.00674
-14.5257 101.849 5.12609
9.70414 140.684 0.542343
-11.2709 103.315 9.85615
7.69602 133.611 6.43074
2.39016 124.766 7.94794
-8.55917 118.348 -5.61729
-15.5539 106.647 -3.59578
11.4257 141.417 3.23224
13.0706 146.634 -0.533074
-11.8494 103.122 9.21574
11.4087 141.543 3.31983
6.63823 131.793 7.22663
-4.61822 112.003 11.8888
-5.48716 110.293 12.5104
-10.5721 104.298 10.4628
-12.9065 112.762 -6.2703
5.77118 136.699 -1.36125
8.43776 136.535 4.37939
7.99496 142.132 -4.376
5.03409 133.511 1.65958
14.8322 149.141 0.069999
-14.4745 102.632 4.97486
-3.99293 123.423 -2.57911
12.6413 146.754 -0.999145
-5.26869 111.11 12.1912
6.55756 139.578 -3.32485
10.881 146.24 -3.74423
7.92475 142.386 -4.37251
14.9592 146.678 4.24418
-14.4486 103.042 4.8974
-10.4797 104.909 10.5579
11.263 142.23 3.00156
1.9063 124.783 8.31089
4.78687 133.626 1.84671
0.308576 127.301 1.53742
3.48964 127.423 8.03288
0.433377 127.548 1.62444
-7.30285 107.925 13.3116
0.143813 127.277 1.49345
11.0449 145.997 -2.25913
-8.73687 119.305 -5.56275
10.3386 146.595 -4.52505
2.01504 125.493 7.98446
15.375 150.316 0.697101
1.83365 129.479 2.07428
-11.952 104.323 9.02227
-15.7359 107.522 -3.25369
7.22956 134.531 6.19106
11.404 146.222 -1.58589
15.4282 150.291 1.046
5.35507 136.587 -0.461968
-1.06834 119.015 11.0081
-3.94989 124.134 -2.10024
-13.952 112.166 -5.82208
-4.90241 113.035 11.6694
-13.7711 106.317 2.8814
-3.20674 116.117 10.9243
12.0155 142.93 4.80307
4.26459 128.89 8.57157
-14.0491 103.983 5.7853
0.541633 122.192 10.3385
8.32435 140.384 0.827855
9.75852 146.403 -4.62621
-11.2356 116.355 -5.68798
1.14891 123.908 9.29776
5.36092 137.351 -0.8628
-9.43393 119.165 -5.74858
-1.05639 126.646 1.04502
9.78176 146.618 -4.63414
1.24515 129.599 1.72628
10.9359 143.787 1.79903
-9.00456 106.94 12.4606
-8.96701 119.838 -5.543
-15.9113 105.9 -0.157014
5.89942 139.827 -2.72655
5.73483 139.452 -2.45237
1.4758 125.398 8.52617
14.0339 147.164 3.89183
9.82797 143.305 0.638118
5.19947 137.38 -0.556097
4.46366 134.61 1.87434
-13.3773 114.074 -6.04671
-16.1579 106.367 -0.933704
12.8837 144.567 5.3741
2.81932 128.009 7.9178
-6.41914 122.437 -3.2557
-6.48647 122.366 -3.29333
-8.40817 108.188 12.8138
-15.8802 108.494 -2.99683
7.17541 143.124 -4.03995
8.89445 142.605 0.264502
-1.14853 120.493 10.6867
-11.6803 105.769 9.65337
8.2359 145.367 -4.9125
-15.5613 106.473 0.71128
-14.0055 113.326 -5.69116
-4.8952 114.932 11.0058
-7.26977 110.184 12.8526
11.0834 148.008 -2.43931
-8.80967 108.184 12.637
-11.5036 117.328 -5.7171
6.37488 141.854 -3.24004
-8.21403 121.192 -4.13306
11.1307 144.012 3.75779
10.6075 144.927 1.40935
-1.74724 120.209 10.6732
7.68739 140.203 2.0566
-11.2658 117.968 -5.78261
-4.51901 125.176 -1.94141
-12.9756 105.564 8.20905
0.382207 124.051 9.922
0.796664 130.78 1.33402
11.7486 149.248 -1.92905
5.64306 133.653 7.43383
7.59644 140.334 2.08408
-10.7456 119.036 -5.78998
10.8308 144.717 2.66468
1.44963 127.634 7.41568
-12.3735 116.554 -5.54212
-4.48945 116.349 11.0425
-9.3023 108.318 12.4306
2.79114 133.179 2.47669
11.3602 144.731 4.23045
4.86606 138.465 -0.349521
9.28167 148.138 -4.81592
10.6037 148.817 -2.94789
-4.88956 125.527 -2.14356
-4.14793 126.065 -1.25337
13.7545 149.834 2.3843
-2.65944 127.451 0.114881
13.747 150.046 2.27333
10.8706 144.858 3.64303
13.8503 150.62 1.72214
0.700329 127.119 7.6698
4.57134 132.606 7.95555
2.87128 129.854 8.37969
11.5573 149.669 -1.48836
6.61612 139.633 2.43576
7.28736 140.999 1.94466
7.27715 140.922 2.04593
-2.66426 127.703 0.112824
-4.12604 126.697 -1.35922
6.72284 144.618 -3.99961
-16.4254 108.601 -0.99317
-14.2009 115.449 -5.84389
5.66249 142.53 -2.83744
7.39532 142.109 1.43712
-9.41495 109.618 12.5326
-10.7662 120.797 -5.63499
-8.62788 110.667 13.1581
6.00423 140.093 1.99249
-11.7494 109.403 8.63726
-6.03221 115.989 11.2472
5.7927 143.61 -3.14773
-16.112 111.68 -3.4446
11.7465 150.265 -0.138298
5.49137 139.581 2.00882
-7.28022 113.501 12.406
-12.7452 110.335 5.6381
-8.41891 124.157 -4.85831
-4.54863 127.844 -1.93071
-16.41 110.835 -2.49834
-8.4543 111.701 12.8272
10.107 147.158 1.33342
12.5291 151.696 0.00272697
-11.5626 110.038 8.99686
-11.0745 121.226 -5.68603
-14.8276 115.644 -5.5778
-16.4368 111.325 -2.56957
2.08282 135.224 2.20017
-3.15199 129.423 -0.427747
-13.8407 109.951 4.90023
10.8097 147.178 3.47274
-6.75404 115.486 11.9078
-11.5966 110.617 8.81525
10.1929 150.562 -2.30053
12.1175 151.901 -0.0315056
4.6128 136.217 6.56397
-0.613397 132.708 0.721204
4.74713 142.423 -1.86736
-11.4967 121.253 -5.62452
1.00837 130.504 7.27492
-0.725907 126.338 9.65318
-3.20241 130.02 -0.552439
-0.657247 126.743 9.36834
11.1188 148.415 3.24985
-0.882064 127.621 7.71782
-1.86001 124.142 10.7717
8.76214 150.349 -4.08855
4.46707 139.96 1.74046
9.98234 148.1 1.68268
-0.964186 127.518 8.03223
-11.5776 111.261 9.12876
6.27263 146.866 -3.97628
-8.54666 113.328 12.798
-5.68875 118.653 11.2594
-5.87131 128.739 -3.3095
-0.730604 128.966 6.9938
-11.4813 111.572 9.3095
-3.73855 130.289 -1.03359
12.2076 152.556 0.632988
6.27894 144.054 0.577998
-3.29467 130.937 -0.731952
-9.28128 112.551 12.7891
0.464851 131.365 6.4548
4.94066 141.516 1.44338
-8.76806 126.719 -6.05494
-11.4003 122.704 -5.83856
6.0359 143.589 0.803409
4.65983 143.673 -2.13487
4.05691 136.738 6.44983
4.73389 144.111 -2.32975
-2.29404 125.085 9.93396
-3.5206 131.021 -0.922117
-3.32824 131.219 -0.78165
6.2158 144.483 0.394888
9.76208 151.176 -1.65471
-13.6147 119.583 -5.46919
2.75996 138.903 1.18662
-16.3614 114.05 -3.3421
10.6537 149.304 2.94061
-1.36911 128.336 7.71965
-14.9851 110.772 4.31859
-6.24439 118.545 11.4856
-6.18644 118.696 11.4369
1.55927 133.767 6.28202
3.89586 137.923 5.33396
-6.95359 117.21 12.117
-9.54616 125.951 -5.53852
10.5422 149.557 2.74877
6.12323 145.219 -0.271302
4.56811 141.992 1.18981
-10.7655 113.823 9.19152
6.31854 145.563 -0.160787
4.4592 144.126 -1.94532
-2.67376 125.635 9.4392
-11.2711 113.771 8.3731
-15.3704 117.179 -4.73222
4.11885 141.553 1.32254
1.59384 134.406 6.20367
-13.9009 119.99 -5.40362
11.2292 151.654 2.02171
-15.5337 116.625 -3.97264
-2.36916 126.617 9.18081
-14.5441 117.914 -3.69054
-14.378 117.854 -3.26163
-0.753514 131.122 6.25759
5.38147 144.386 0.314644
-16.2045 113.113 -0.144802
9.91689 149.707 2.33011
-5.83345 120.105 11.488
-15.9697 111.019 3.38818
10.8685 151.392 2.03034
-15.896 115.318 -2.4791
-3.21273 132.775 -0.823802
-15.8309 114.812 -1.61002
3.51416 138.978 4.36847
4.90497 143.615 0.725531
-2.52309 126.828 9.02477
-13.7511 112.92 5.45777
11.3864 153.29 0.608049
-4.21691 132.035 -1.69316
-10.3507 114.186 10.7641
-13.8339 120.519 -5.27314
-5.21552 121.547 11.2449
-1.29627 134.949 0.492944
-15.9947 116.243 -3.5529
-14.2021 118.045 -2.33991
-2.9842 133.44 -0.626964
-13.9935 120.596 -5.27152
-15.9069 115.403 -1.77252
-15.6289 111.781 3.96916
-10.8763 114.832 9.51031
-16.0263 116.293 -3.16985
10.9238 152.638 1.3995
-9.4419 128.486 -6.6802
-10.0437 114.318 12.0465
-3.60398 125.111 10.329
3.04566 138.174 5.73752
-16.759 112.122 1.53853
2.9469 139.314 3.99067
7.72616 148.869 0.462049
4.18168 143.513 0.753721
-3.28378 127.035 8.56996
2.53424 140.419 1.76047
-8.11923 130.769 -6.62808
10.7832 153.551 0.461705
-14.3489 118.773 -2.46641
-3.69805 133.752 -1.49963
8.06717 152.053 -2.87266
-10.2582 114.919 11.5634
-8.54456 116.675 12.6764
2.70563 137.544 6.70756
-10.3831 115.447 10.7616
-14.5538 117.835 -1.08579
-9.07219 116.239 12.5236
-3.13338 127.963 8.33267
-14.6743 119.438 -3.43254
-12.785 114.382 7.60033
-11.0059 126.142 -5.26011
-12.9056 123.432 -5.29875
2.65439 141.579 1.42156
-14.5542 119.426 -2.90722
1.83959 139.878 2.27434
-3.89758 134.396 -1.83418
-1.43034 136.429 0.477774
-4.6439 134.301 -3.12017
-11.9738 124.926 -5.00252
-11.1434 126.6 -5.57328
-15.2851 117.096 -0.659057
-14.7673 119.7 -3.2008
-15.8618 115.671 0.209457
-7.17396 132.726 -5.83514
-15.4673 115.971 0.677814
-12.6257 124.4 -5.2925
-8.43817 131.278 -6.30231
3.38998 145.053 -1.1011
-9.99185 129.132 -6.27246
-15.1653 113.628 4.86268
-9.85429 116.209 12.2354
7.4945 150.13 0.471593
-5.34892 134.955 -4.68037
-15.1369 119.235 -2.77711
8.76977 153.274 -1.2034
-3.57813 135.565 -1.76917
-10.8215 127.694 -5.64975
-1.52295 137.101 0.443505
-9.04009 117.549 12.4514
-8.20284 131.887 -5.99206
-0.506091 138.351 0.850189
-3.96697 135.536 -2.18054
1.71033 141.194 1.72502
-3.79948 129.074 7.42815
-7.2959 133.483 -5.97137
-13.0423 124.067 -4.56774
-3.08845 130.962 6.38373
-5.14063 125.145 10.345
2.02638 138.653 6.16454
-5.75271 135.255 -5.09725
-10.1863 129.46 -6.07795
-11.6465 126.485 -4.90884
0.0889139 136.978 4.61226
-5.24814 135.662 -4.44662
-1.99963 137.552 -0.331079
-15.7022 115.676 2.23176
-14.2642 122.321 -4.1055
1.68719 142.017 1.21352
9.18665 153.936 -0.0496815
1.89722 139.042 5.91696
-13.46 123.944 -4.52011
-1.99388 137.843 -0.339307
-9.14822 118.785 11.8479
0.931243 140.427 2.32562
5.53568 151.156 -3.23266
-10.7259 128.488 -4.91964
4.44682 149.383 -2.95713
-2.60593 132.938 5.61919
1.40133 138.323 6.34809
-15.3676 114.446 5.32306
-14.6568 121.857 -3.59012
0.111186 137.593 4.80073
-2.94186 137.697 -1.64966
6.31565 152.36 -2.97999
-16.2981 114.665 3.34403
-13.628 115.967 7.03448
-13.9868 115.589 6.83237
-8.55774 132.204 -5.29763
1.69373 139.445 5.72928
-14.7678 121.085 -2.41788
-14.0838 123.425 -4.27653
-12.7505 116.137 8.73595
-6.49983 123.26 11.6459
-5.58311 136.469 -5.04192
0.394174 137.984 5.21228
-0.150386 137.703 4.49584
-3.6157 130.449 7.59971
-4.56581 136.654 -3.03577
-6.31726 123.72 11.569
-5.46283 127.132 8.53648
-12.2363 116.547 9.70252
4.44294 150.297 -3.16497
-13.0811 125.582 -4.58128
-14.3804 119.964 0.701014
7.82505 153.842 -1.08338
-3.91966 130.978 6.83644
-8.23306 133.529 -5.54758
-15.3866 118.344 1.06588
-10.6543 129.371 -4.64579
-10.666 117.873 11.5311
-12.5194 126.592 -4.46774
-1.86173 139.259 -0.241748
-15.8875 119.441 -1.31605
1.37731 140.032 5.47602
-1.53227 136.461 4.55819
-15.7691 120.218 -1.99078
-7.1573 135.473 -5.66134
-14.2428 116.251 6.79828
-15.8901 118.957 -0.375814
0.241829 140.62 2.53652
-2.68012 138.97 -1.14081
-11.2394 117.72 11.1162
-16.1391 116.488 2.84357
0.556056 141.977 1.5103
-0.735463 140.896 0.416683
3.41584 148.738 -2.03905
-4.98729 137.681 -3.84109
-16.2089 119.027 -0.714967
-12.7715 126.657 -4.25673
-10.8878 129.351 -4.1295
-1.17792 137.527 4.46463
-16.4984 115.331 4.10396
-9.87078 131.396 -4.74677
-10.3554 119.504 11.0611
-13.5114 120.869 2.69589
-8.47199 123.096 9.98679
-15.3683 116.5 5.02163
8.97957 154.88 1.35767
-15.0557 119.8 1.08013
-15.9147 119.721 -0.564451
-16.647 115.713 3.57759
-11.0194 118.714 10.9858
-13.1984 126.113 -3.91138
-15.2129 117.057 4.80816
0.194987 142.948 0.272102
-1.71238 140.61 -0.36935
-15.4885 121.177 -1.47183
-15.8695 120.081 -0.690227
-9.1664 132.808 -4.70312
-8.76707 133.881 -5.28321
-7.61213 126.155 8.04601
-4.50886 132.629 5.4256
0.83414 142.082 3.22678
-15.8139 119.318 0.893288
-4.91943 138.802 -3.97882
3.82435 150.806 -2.77793
-9.20831 121.375 11.7335
-15.1689 120.288 1.00099
-8.22617 135.048 -5.39139
-15.0898 121.375 -0.307557
-15.8047 118.712 2.01881
-8.42628 124.512 9.14484
-14.4375 122.054 0.205014
-14.1813 121.719 1.20892
-14.109 117.333 7.54498
-7.20273 126.877 8.38475
-0.188623 139.649 4.91058
-0.660503 139.529 4.15002
-0.915388 142.025 0.167114
-14.0486 121.665 1.714
-6.7331 128.17 7.69405
-7.05505 127.428 8.13005
-14.4335 122.701 -0.386017
-14.7269 120.037 2.77859
-15.1497 119.831 2.25915
-9.22292 122.642 10.5594
-6.71779 127.851 8.40816
-14.4453 121.083 2.04014
-4.54664 133.474 5.05956
-16.3512 117.186 3.6118
-10.7491 130.712 -3.83951
-15.668 117.665 4.42787
-6.7124 137.808 -5.38115
-6.5659 138.014 -5.2699
1.9518 147.528 -0.944138
-1.19687 139.555 3.85032
-9.55973 121.765 11.6356
-14.6621 118.562 5.64802
-15.5967 122.598 -1.93676
-10.1076 131.936 -3.73466
-15.0943 121.637 0.499359
-12.1915 129.035 -3.87146
-2.74653 141.068 -1.1693
-4.38829 134.098 5.26834
-11.2064 120.524 10.4728
-7.53041 136.945 -5.01207
-15.2724 120.949 1.52097
-15.7664 120.249 1.487
-9.80907 122.25 11.1264
-3.60476 140.903 -2.25405
-3.70135 135.617 5.05136
6.38915 154.734 -0.98321
-2.10871 138.395 4.50867
-16.1249 120.57 0.903782
-14.5778 119.213 6.01576
-7.40427 129.133 6.97329
-15.2053 121.126 2.14843
-15.0238 119.133 5.50883
-7.30653 129.392 7.04851
-15.7897 120.015 2.76877
-5.66039 132.643 5.99128
-12.3957 129.565 -3.57502
1.99024 149.178 -1.41679
-4.06788 141.388 -2.85834
-15.2707 121.896 1.47038
-16.1207 119.542 3.05666
-13.869 119.616 7.6187
-15.4104 122.108 0.962074
-16.9288 120.168 0.556399
-14.6836 119.312 6.40569
-8.9702 135.595 -4.68431
-15.8141 120.548 2.35816
-12.551 120.613 9.0212
-15.9796 119.926 2.93711
-3.43032 137.6 4.03854
-4.80807 141.148 -3.66267
-7.86784 137.71 -5.023
-17.6176 118.069 2.47291
-15.2509 119.465 5.40056
-15.8935 120.852 2.13504
-16.13 120.241 2.53202
-14.1091 126.46 -2.02923
-16.6112 117.923 4.81946
-10.7683 122.293 10.8132
0.0387151 143.375 3.59845
-10.2103 133.909 -4.21215
-16.6165 121.771 -0.307053
-17.3723 119.142 1.84216
-16.262 118.676 4.82302
-15.9811 120.301 3.14023
-15.2543 120.389 4.60077
4.14938 153.781 -2.26508
-6.37627 140.233 -4.84284
-16.2145 121.678 0.95932
-14.9457 122.775 2.04831
-10.8377 123.491 9.60917
-15.9309 118.628 5.93622
-1.82834 140.888 3.76499
-16.1048 118.893 5.25354
-0.91193 142.618 3.33242
-10.395 133.974 -4.02608
-3.53847 142.729 -2.08795
-15.5484 121.873 2.52115
-6.93864 131.052 7.44803
-14.1058 127.107 -1.70723
3.33088 153.325 -2.54392
-15.1082 125.302 -1.18261
-16.6068 119.708 3.60435
-4.77525 136.362 4.62975
-14.3577 126.016 -0.515398
-7.59204 130.289 7.46639
-1.40114 142.438 3.22962
-16.2539 120.611 3.76595
-15.1478 120.581 6.24646
-14.8835 127.104 -2.33253
-15.6699 123.474 1.17812
-1.86079 145.109 -0.700509
-7.7389 130.536 7.71998
-14.9666 126.925 -2.11616
-10.5383 127.103 6.8258
-4.06734 138.886 3.63126
-9.09082 137.426 -4.67309
-13.9839 128.27 -1.83452
-14.6029 120.935 7.30295
-16.2602 119.972 5.27132
-18.1677 120.74 0.533575
-7.52094 140.414 -5.09231
-6.17477 134.628 5.86148
-14.9423 120.94 7.05131
-16.3758 121.093 4.0706
-14.3165 127.328 -0.362912
-15.8154 120.924 5.61563
-16.4271 120.793 4.63649
-4.82579 138.501 3.69382
-7.94398 140.112 -5.00672
-6.62669 141.899 -4.77533
-16.3376 120.344 5.51142
-16.3893 120.922 4.61212
-15.6904 120.83 6.2119
-19.9909 116.624 3.33495
-17.098 123.434 -0.221324
-15.0462 127.963 -2.31609
-13.2747 123.646 7.60148
-14.1667 128.577 -1.16519
-7.52874 132.589 6.95346
-15.6158 121.566 5.80415
-9.25981 129.378 8.02983
-10.3177 128.01 7.85621
-10.9203 127.463 7.45016
-16.2729 120.674 5.97631
-16.3256 120.115 6.65896
-14.8403 128.014 -1.29153
-6.06596 143.214 -4.44151
-17.0885 120.738 4.42431
-13.9927 121.931 9.20072
-14.858 122.314 6.87854
-16.0671 119.733 8.06616
-15.5608 121.306 6.92337
-16.2934 120.633 6.36177
-1.99735 146.716 -0.803262
-5.18061 138.921 3.64427
-17.1624 120.154 5.38989
-16.7311 120.975 5.18098
-5.22406 139.003 3.6256
-4.50316 139.968 3.76466
-10.3611 137.266 -4.43421
-9.83141 129.038 8.25314
-15.9923 126.383 -0.699388
-12.8534 125.091 7.86122
-16.0482 127.174 -1.62522
-6.46757 136.474 5.10171
-16.3566 119.571 8.48597
-12.3949 125.831 7.88524
-16.3329 121.232 6.2277
-10.2369 137.748 -4.34896
-6.0591 137.814 4.19672
-14.4259 129.877 -1.77134
-16.012 122.085 6.0587
0.580363 152.465 -2.32167
-2.74778 146.87 -1.29468
-14.5613 129.961 -1.88075
-4.88397 145.297 -3.33803
-16.3097 126.89 -1.00926
-3.52977 146.323 -1.919
-3.46048 142.728 3.30023
-18.6337 122.724 0.267756
-14.912 129.466 -1.523
-8.0546 133.418 7.16331
-8.69475 140.681 -4.25945
-17.0504 119.509 8.29081
-9.40357 139.653 -4.24517
-14.555 121.97 10.0693
-16.5707 121.689 6.38475
-9.14566 131.244 8.43296
1.63868 154.296 -1.71331
-13.6982 124.445 8.72836
-20.0789 119.242 2.88282
-15.638 120.845 9.80435
-14.3565 129.716 -0.0215595
-16.4856 121.664 7.02561
-16.4362 120.327 9.03745
-4.80662 141.084 3.86737
-13.9998 124.541 8.24113
-14.6018 123.585 8.40344
-9.1168 132.1 8.14491
-16.2155 122.553 6.93561
-15.652 121.207 10.0789
0.596502 153.72 -2.09253
-14.4701 130.677 -0.790612
-16.2762 121.408 8.58307
-21.4007 118.134 2.6819
-7.98803 135.079 6.57632
-17.8292 126.606 -1.80976
-14.6241 124.337 8.03253
-6.76937 138.068 4.96411
-16.5944 121.553 8.08822
-15.0674 129.942 -0.541174
-7.8391 135.92 6.02995
-14.4937 130.535 -0.0761854
-22.2937 117.191 2.67296
-10.5678 130.563 8.11631
-16.0415 123.356 7.02242
-15.0081 124.301 7.84395
-14.5083 130.534 0.142507
-2.13413 149.557 -1.05295
-5.84221 146.299 -4.08712
-16.0208 122.962 7.86315
-6.02946 140.642 3.62751
-22.0118 118.017 2.53246
-13.219 125.867 9.69726
-16.6647 122.613 7.20447
-10.6634 131.117 8.31184
-16.2523 123.26 7.94212
-13.2827 135.149 -2.48145
-15.0584 123.498 10.3288
-15.8624 123.262 9.05766
-13.4052 134.11 -1.07592
-15.3066 123.201 10.3906
-16.38 123.205 8.30169
-17.8846 128.387 -2.05226
-16.6751 121.283 10.6185
-3.99459 149.121 -2.09051
-1.33621 152.71 -1.5704
-18.7241 127.26 -1.59834
-13.1731 128.032 8.86602
-8.68775 144.114 -4.42156
-12.5544 136.148 -1.1887
-15.7405 123.215 10.4683
-19.4726 126.061 -1.09012
-2.66505 150.981 -1.40942
-5.02012 148.749 -3.0961
-4.483 149.296 -2.5199
-16.0116 131.922 -1.86591
-1.34468 153.4 -1.70616
-22.9251 117.594 4.10329
-15.5958 132.159 -1.08581
-15.9644 132.061 -1.61088
-5.88551 148.261 -3.57151
-23.3997 116.404 5.07947
-18.6023 120.155 9.73521
-6.02731 148.126 -3.63176
-9.95431 133.452 8.90506
-15.5373 125.354 8.80615
-23.6108 115.895 5.54602
-13.3546 128.328 9.31098
-1.84851 152.888 -1.45821
-14.7573 125.934 9.92516
-4.93125 145.638 2.55898
-20.3022 124.004 1.37793
-15.6843 124.966 9.57493
-16.2226 132.208 -1.67959
-18.3699 120.411 10.4945
-6.90066 142.126 3.83372
-19.594 127.084 -1.14596
-17.7087 121.489 10.6341
-7.45254 140.786 4.67698
-15.9094 124.479 10.1938
-13.7033 128.087 9.70942
-7.88956 139.652 5.45791
-13.2069 129.454 8.87891
-8.42637 145.985 -4.33416
-22.7488 116.446 7.75488
-15.9622 125.79 8.6338
-21.4137 117.416 9.16125
-12.5076 131.219 8.17567
-10.9108 132.915 9.1606
-19.1567 119.977 10.3607
-5.76877 149.318 -3.24992
-10.4557 133.833 8.87962
-12.7642 137.171 -0.494704
-20.5835 118.811 9.25377
-8.6274 138.671 6.06885
-16.2964 124.832 9.73802
-21.4028 117.63 9.33178
-12.7718 137.237 -0.39619
-2.98697 152.551 -1.58892
-22.4789 120.969 2.64159
-16.4852 132.566 -1.27359
-9.95618 143.874 -3.64615
-9.82863 135.462 8.52315
-13.9243 135.507 0.0264469
-7.3615 142.124 4.29018
-5.1866 150.298 -2.70769
-12.076 131.948 9.02118
-4.43637 151.078 -2.06608
-7.86566 141.007 5.03929
-18.009 130.202 -0.662026
-20.9929 118.519 9.67226
-11.6063 141.316 -2.9364
-20.653 125.738 0.376666
-5.72759 150.123 -3.09952
-5.66094 146.194 2.5721
-22.5997 120.942 3.30665
-12.3615 138.905 -0.659541
-16.4404 126.617 8.20867
-18.7441 121.6 10.5163
-9.36068 138.184 6.80448
-19.6227 127.661 0.520982
-9.11804 138.994 6.33604
-7.22477 143.702 3.81152
-6.25256 150.117 -3.17994
-11.8322 141.546 -2.61102
-8.10748 141.554 5.07579
-11.8576 133.079 9.27755
-16.3905 127.061 8.43129
-21.6552 123.621 2.40242
-19.6687 127.583 1.04516
-23.0284 117.968 7.69476
-8.83361 140.085 6.02531
-14.6089 136.337 -0.219607
-22.138 118.99 8.79461
-12.1879 141.421 -2.20305
-7.5478 143.901 3.97355
-15.4169 135.67 -0.317136
-17.3514 126.527 8.6081
-13.2871 132.561 8.52178
-4.43599 153.196 -2.0161
-19.7072 128.382 1.55475
-22.8896 120.805 5.65161
-22.9612 120.294 6.64664
-6.66876 146.953 2.99063
-20.2354 122.143 9.89157
-13.1516 132.923 9.37827
-15.6171 130.362 8.04027
-13.4629 132.876 8.98764
-4.39067 153.899 -1.81651
-20.331 122.263 9.82824
-6.5914 147.404 2.85232
-22.7633 123.692 2.84911
-14.3895 132.382 8.08743
-12.6109 141.751 -1.18841
-21.9015 121.098 8.83083
-22.9873 121.109 6.57358
-19.8904 123.295 9.9233
-6.49121 151.712 -2.34376
-10.4543 138.247 8.56821
-14.7411 132.421 8.08344
-7.74852 150.238 -2.47687
-21.1052 126.169 3.80259
-11.3788 144.678 -2.03704
-19.4439 131.047 0.514927
-10.3782 139.277 8.16372
-12.754 141.591 0.0702724
-7.27669 147.405 3.21308
-19.859 130.095 1.80646
-20.3894 128.684 2.81995
-22.5799 123.427 5.87319
-19.6208 131.459 0.71446
-16.4579 131.011 7.88939
-18.2231 128.315 8.07869
-10.5452 139.631 8.15558
-17.5489 134.688 0.644138
-15.5541 137.711 0.6763
-20.2376 129.463 2.62177
-11.4663 145.539 -1.75134
-22.8696 122.32 7.36922
-14.7365 133.227 8.97887
-18.918 127.087 9.02581
-8.46674 145.951 4.21972
-18.9526 127.265 8.90866
-14.4003 139.43 1.27943
-11.071 139.04 8.77115
-21.8474 123.206 8.88492
-20.7924 128.124 4.19813
-21.8954 125.06 6.25903
-7.53638 148.494 3.00748
-19.1853 126.929 9.32324
-9.52541 143.364 6.17837
-7.6221 151.663 -1.4383
-20.5074 125.004 9.54015
-15.865 137.944 0.947493
-10.6628 140.959 7.54849
-9.66244 149.439 -2.07825
-12.0967 144.865 -0.604325
-11.0132 140.084 8.46531
-7.00602 150.552 2.10632
-15.2767 138.971 1.38324
-22.1907 124.471 7.55323
-8.27455 147.737 3.63802
-19.9968 132.368 1.21362
-7.56599 149.734 2.56767
-19.5454 132.959 1.48957
-9.77211 149.764 -1.72312
-19.8599 132.675 1.52896
-19.6446 127.811 9.04805
-17.8529 135.164 2.4321
-21.4888 126.78 6.99666
-7.03268 152.02 1.44221
-12.2573 144.446 1.37896
-22.1595 124.792 8.71045
-7.34511 151.594 1.74721
-9.51923 145.945 5.30049
-17.5499 131.804 8.64467
-14.9234 140.754 1.68439
-21.8778 126.247 7.90897
-18.0744 135.648 2.8204
-19.971 133.069 2.70365
-20.9014 129.964 5.30385
-19.2981 130.426 8.00283
-11.7642 140.83 8.94944
-20.0116 128.927 8.76912
-20.0144 132.179 4.21611
-10.4669 144.797 6.20585
-10.7482 142.963 8.2417
-18.7325 131.294 8.38194
-14.8402 135.905 10.0531
-14.9581 141.57 2.01756
-20.8569 130.413 5.62913
-17.4919 137.405 2.8168
-21.0341 130.104 5.85434
-20.1118 132.049 5.16971
-16.9918 133.889 9.08729
-11.8269 147.587 0.483859
-10.9174 149.567 -0.0789134
-8.68052 152.572 0.336079
-13.6206 139.7 9.32193
-9.80419 149.151 3.97354
-10.9176 145.923 6.26505
-10.6634 146.877 5.46136
-10.9302 146.41 5.92262
-10.9155 146.611 5.77196
-20.564 131.944 6.60325
-10.3375 148.344 4.66782
-20.1406 133.666 5.29353
-12.87 146.394 2.61722
-20.3715 132.505 6.92661
-11.7491 148.604 2.09959
-17.7309 138.756 3.61916
-11.4109 149.315 1.83322
-20.1466 131.733 8.53354
-15.5673 137.87 9.49999
-11.4191 146.392 6.16819
-20.1304 133.168 6.84487
-20.1068 131.991 8.5874
-13.4891 141.607 8.79253
-11.8861 148.346 2.65124
-16.4635 137.343 9.49261
-18.0265 138.529 5.10852
-11.9387 147.613 5.38086
-15.4684 140.152 8.89476
-13.7376 145.65 4.84256
-18.706 137.7 6.00875
-14.7176 141.802 8.54908
-18.0308 139.233 5.56164
-16.9802 138.52 8.91342
-18.2934 139.03 5.9547
-18.724 137.387 7.79202
-17.8639 138.913 7.42433
-13.9243 145.777 6.06475
-15.7158 142.845 7.03279
