ply
format ascii 1.0
comment Created by Open3D
element vertex 1925
property double x
property double y
property double z
end_header
-13.5706 109.58 -14.3471
-9.46068 100.569 5.49436
-27.1076 109.205 -6.04295
-3.31918 108.97 -18.3042
-19.7983 99.8657 12.8268
-8.80513 109.619 -16.8535
-1.79019 108.723 -18.4288
-16.6214 110.028 -13.5819
-27.4077 107.901 -2.5416
13.0439 100.217 -5.41838
-26.9218 109.143 -5.55515
12.0479 97.2153 2.69496
2.5657 107.895 -18.0605
12.9279 100.539 -5.69746
-1.51574 108.996 -18.3071
-2.8627 109.3 -18.2243
-27.4569 110.014 -6.60043
11.8782 101.728 -7.62939
-20.4272 110.609 -11.8472
0.579252 97.9704 7.77744
-0.493412 98.3274 7.50981
-3.84183 100.342 4.44176
-27.0787 108.643 -3.25013
-26.8521 106.711 1.43683
11.359 102.321 -8.46718
-24.5274 110.775 -9.70416
-26.5452 106.105 2.85367
-23.9471 102.402 10.5888
-5.83018 101.007 4.21723
-26.9281 108.979 -3.70754
-10.0219 101.332 5.85708
-6.02637 109.861 -17.097
-26.5503 106.704 1.93535
-27.3922 110.531 -6.80206
-11.2443 101.192 7.35883
-13.7747 100.553 10.3841
-19.7946 100.907 12.7818
13.2124 100.916 -5.07707
-6.89164 110.275 -16.9086
-16.7052 100.27 12.8442
3.46595 98.1733 7.06346
-12.3769 101.066 8.67578
-1.65177 109.72 -18.1489
-15.4976 110.972 -13.5431
-27.5592 108.665 -1.18461
-19.8201 111.387 -11.9467
11.1654 104.431 -11.6875
1.00349 98.862 7.46086
-27.1803 109.471 -3.18989
-1.02249 109.799 -17.9921
-26.0922 111.513 -8.5609
-14.1976 100.797 11.5072
-22.1367 112.09 -11.7609
2.98394 108.927 -17.5434
-26.6324 110.025 -4.20174
11.1462 104.173 -10.3299
-11.0077 110.88 -14.707
-3.17969 110.468 -17.9074
-17.5125 111.537 -12.7237
-23.5259 112.365 -11.4875
3.68107 108.593 -16.9348
-4.81272 101.98 3.8312
8.5282 98.3884 5.47444
-1.04173 100.516 5.45566
0.510591 99.4811 7.18366
-3.76888 101.71 4.14893
-4.79454 102.134 3.82249
12.7735 99.3229 1.27182
3.98104 98.9824 6.88259
12.6986 99.2581 1.50085
-21.7067 112.342 -11.7705
8.5837 106.937 -14.9098
10.8184 105.782 -13.2847
-26.8371 105.765 7.14242
-19.0461 101.761 12.7629
11.083 105.502 -12.5533
12.8638 99.7274 0.608559
-4.07301 102.121 3.98543
-26.9537 106.601 5.42514
-27.0371 110.071 -2.93752
-1.1319 110.462 -17.7444
-16.7497 101.48 12.7575
-20.3358 102.463 12.5139
1.13197 99.8412 7.34986
-27.3401 109.018 0.421165
-27.3525 109.638 -0.96977
-26.2425 112.657 -8.71318
-23.2287 103.626 11.7138
13.6866 101.258 -2.43832
-23.9677 104.078 11.0711
-21.2352 112.891 -11.8884
2.15259 99.7709 7.63858
-26.7934 110.554 -2.9744
11.0673 106.199 -12.789
9.51401 99.2654 5.0135
-18.7708 102.464 12.6143
11.9039 103.743 -7.06616
11.4485 105.549 -11.192
0.446557 100.956 6.17663
-25.7342 113.038 -9.15936
-11.97 111.726 -13.3946
-15.8982 101.997 12.5061
-17.2761 112.815 -13.0368
-4.87803 103.15 3.89703
-18.0206 102.5 12.6001
-22.4134 113.412 -11.6521
6.17157 108.657 -15.4767
4.71101 109.248 -16.0351
-0.939854 111.07 -17.4023
13.3801 101.359 -1.37794
-27.29 109.77 0.125536
-22.3437 113.519 -11.6819
8.76229 99.5159 5.69136
-4.58049 103.28 3.71601
-16.6266 102.323 12.5854
-7.55954 103.431 5.11902
-27.2823 111.84 -4.69207
-6.08407 111.963 -16.4154
-26.768 107.111 6.68753
-6.8886 112.184 -16.3545
-12.3798 102.648 9.89541
-25.3748 105.679 9.53134
-23.5035 104.59 11.3828
5.97165 109.201 -15.6195
13.326 101.669 -1.20065
10.9939 107.111 -13.2064
-24.8742 105.525 10.17
-26.1635 106.576 8.38051
-21.4289 113.865 -11.9453
12.7363 103.698 -5.56703
10.0857 107.73 -13.97
-10.2075 103.371 7.69899
-12.2695 112.412 -13.1347
11.5159 105.687 -9.51982
-20.742 103.941 12.23
13.3332 103.213 -4.3488
-13.0246 112.704 -13.2361
1.44134 101.545 6.23231
12.6681 104.039 -5.59385
-24.141 114.382 -10.876
10.1354 100.309 5.12605
-26.0181 114.14 -8.93537
-12.6759 112.897 -13.0625
-16.8119 113.828 -13.0875
13.1831 101.721 0.292469
13.1124 101.472 0.943486
-15.7594 113.701 -13.2459
-5.48997 112.732 -16.4241
-25.128 114.423 -9.92111
7.74975 109.147 -14.7069
13.708 103.179 -3.31804
-14.9333 113.583 -13.2292
0.0440199 103.008 4.73282
-18.0815 104.018 12.1684
10.3657 108.325 -13.7156
10.5433 100.694 4.9058
2.51636 101.554 7.1768
-15.6627 103.546 12.1599
5.30589 110.467 -15.9786
11.3581 106.799 -10.185
-5.63019 113.062 -16.2782
-14.4992 103.456 12.007
11.5339 105.827 -7.83899
7.20543 109.799 -15.1462
-0.62357 103.585 4.26393
5.12596 101.251 6.95486
8.23998 109.339 -14.4413
-10.325 113.213 -13.8183
-2.21136 104.086 4.07548
-26.986 111 0.640336
-21.1535 105.108 11.9009
-20.2698 114.9 -12.4481
-26.3482 108.157 7.31757
-23.9899 106.103 11.0751
1.97072 111.959 -17.1937
-24.9452 114.998 -10.0225
-13.276 103.569 11.6111
-26.0775 109.356 4.43188
8.19217 109.535 -14.5031
-26.1724 109.198 4.91107
-7.16995 105.091 4.67988
-0.758024 112.556 -16.6739
-27.6571 113.535 -4.42447
-12.3486 103.914 10.8033
11.4087 101.656 3.59268
5.8076 110.889 -15.8681
-9.27858 104.7 7.39262
-13.5519 103.891 11.7235
11.4462 106.795 -8.62773
-23.4103 115.586 -11.1665
12.7561 102.085 2.27805
-11.9816 113.698 -12.6089
2.43426 102.756 6.31442
-6.36561 105.527 4.366
-7.48074 105.604 4.88649
-16.8602 114.839 -12.5747
-4.08374 105.518 3.46023
9.36873 109.671 -13.9165
5.92884 101.797 7.20788
-23.3156 115.811 -11.1739
-26.0042 108.278 8.68574
-7.92321 105.445 5.84669
11.7582 106.278 -6.80824
-23.2246 106.538 11.486
8.00399 110.388 -14.7798
0.810688 112.845 -16.6648
7.00161 101.837 7.01603
-7.76425 105.709 5.60735
-25.9989 109.597 6.04813
11.5304 108.689 -11.8793
0.166328 104.665 4.14479
-14.7642 114.909 -12.7138
-22.5261 116.172 -11.5095
11.3221 108.103 -10.0665
-11.8299 114.189 -12.4051
-4.38283 106.02 3.54517
-26.858 113.527 -2.56561
-24.7244 107.712 10.5279
0.623301 113.169 -16.4675
-25.4296 115.975 -9.22863
-13.3657 104.901 11.3336
-7.62235 114.597 -15.3718
12.9628 104.886 -2.67807
11.48 108.225 -9.81012
-8.05089 105.836 6.66888
-0.18213 113.558 -16.2688
13.6398 103.279 1.43367
13.893 104.141 -0.485573
5.66882 102.735 7.39041
-6.15694 106.63 4.32751
-17.2446 106.306 11.1919
-15.5986 115.609 -12.3632
13.89 103.76 0.650516
-22.521 107.423 11.405
-25.3457 108.739 9.72838
3.16239 104.033 5.98376
-20.9371 116.724 -11.9532
6.94373 102.687 7.27995
-1.25457 105.972 3.77555
3.89849 103.627 6.72605
-25.7665 109.968 7.47639
-5.4854 115.133 -16.0218
-7.58536 106.66 6.03039
13.9054 104.227 0.360505
-16.4934 116.052 -12.0659
-22.0094 107.634 11.4749
-3.73153 115.067 -16.5355
-23.1405 117.118 -10.9822
4.59839 103.706 6.82748
12.5728 106.59 -4.34739
11.6876 103.761 3.18241
9.60369 103.227 5.61895
1.18743 114.092 -16.2938
10.9284 103.51 4.52772
-23.3008 108.455 11.0668
-26.8417 116.884 -7.5054
-6.21799 115.674 -15.6937
-14.4318 106.5 11.2091
-25.6939 110.103 8.50942
-5.94416 107.508 4.217
-11.551 106.162 10.5501
1.39857 114.34 -16.2643
12.4294 108.453 -7.61214
-21.9337 108.343 11.3415
-21.5261 117.657 -11.5794
-26.1824 112.677 3.13676
12.4826 108.492 -7.47138
10.3844 111.711 -14.1268
-18.8016 108.024 10.6457
-24.0814 109.161 10.9083
5.22355 104.568 6.40036
10.8921 104.048 4.60824
11.4964 104.392 3.54175
-11.1742 106.68 10.2103
12.8106 107.521 -4.77413
-10.0446 115.687 -12.3177
-21.1099 108.594 11.0677
3.68411 105.533 5.15808
-26.2596 117.734 -8.0882
10.3523 104.248 5.04812
-5.97389 108.176 4.3784
-16.1394 107.775 10.8575
-7.18654 107.786 6.05511
5.01797 105.161 5.9288
-1.15336 115.458 -15.8121
-27.5133 117.606 -6.4511
-5.79898 108.461 4.34045
3.43861 106.142 5.07556
-21.122 118.403 -11.4342
-27.69 116.204 -2.38982
11.6307 111.067 -11.0827
6.88934 104.562 7.50133
-16.7656 117.659 -11.6459
-14.9605 117.277 -11.6009
12.921 109.652 -8.00493
3.35324 115.244 -16.4519
-26.347 112.818 5.69012
-18.0891 118.27 -11.9439
13.1086 108.646 -5.26208
10.2851 105.049 5.05379
-28.0611 117.199 -3.84348
-26.2545 115.282 -0.0904498
11.7425 111.481 -11.0135
10.102 113.025 -13.7624
-18.2176 109.321 10.592
-2.86297 108.972 3.16597
5.8058 114.801 -15.6487
1.12203 107.98 3.66392
13.6855 106.87 -0.296739
-25.2835 115.065 0.880748
-24.2446 110.885 10.5629
3.00967 107.447 4.28029
-24.694 119.306 -9.57826
0.0166655 108.799 3.43452
13.7645 108.523 -3.22787
8.16183 105.571 7.07044
3.25911 116.174 -16.0433
-23.712 119.761 -10.2188
11.5336 112.933 -12.5489
5.18313 106.633 6.26199
2.61281 108.145 4.00136
13.5604 109.25 -4.55445
13.867 108.552 -2.95597
-7.05814 117.896 -14.3874
-25.9849 115.955 0.630202
-24.9207 119.796 -9.27589
-24.329 111.653 10.3318
3.80408 107.571 5.11328
6.49131 115.097 -14.7088
-21.0061 119.609 -10.8197
8.03856 105.861 7.24851
-14.1864 109.264 11.0798
-25.8415 113.291 7.73835
8.72481 105.994 6.87767
-0.435389 117.163 -15.357
13.878 109.168 -3.52665
-6.43029 109.993 5.53577
1.07142 117.036 -15.6569
-21.4826 111.161 10.903
9.26477 114.675 -14.1901
-5.02402 118.244 -15.1706
4.30387 116.592 -16.067
-24.8981 115.707 2.00168
13.6933 110.982 -7.26423
-25.6142 113.182 8.62086
-14.4393 109.656 11.1934
-2.35984 117.89 -15.3715
-1.21216 117.593 -15.1842
-26.5722 119.148 -5.25173
14.0293 107.551 1.16084
-13.6821 118.614 -10.8513
-23.0953 120.557 -10.4416
-25.918 119.939 -7.37592
-25.8542 113.856 7.55988
13.945 108.779 -1.48553
-23.6226 112.092 10.8098
-11.3096 118.202 -10.6321
8.07618 106.601 7.21548
-15.6832 119.407 -11.0794
11.8325 113.925 -12.4666
2.71786 109.315 3.83318
12.2861 112.945 -9.91083
-3.71234 111.033 3.42979
-25.715 114.67 6.45336
-24.945 120.883 -9.06554
12.086 113.553 -11.1537
-10.4891 118.362 -10.6672
5.36163 116.714 -15.1001
-25.445 120.869 -8.56607
-11.3589 110.001 10.5328
5.30007 108.035 6.34285
14.2138 109.435 -1.82755
-6.71847 110.415 7.24038
-25.7292 114.57 7.4338
-27.7712 119.58 -3.68124
-24.7994 116.426 2.42455
-19.0192 120.575 -10.811
-11.0012 110.092 10.4655
-9.66695 118.608 -10.9744
1.72694 118.03 -15.6982
-8.14959 110.098 9.06228
11.4823 114.903 -13.2212
-18.1294 111.709 10.5914
0.102316 118.361 -15.4563
2.378 110.054 3.62179
-21.0016 112.237 10.9786
-25.5161 120.669 -7.13647
5.05219 117.239 -15.1282
-24.7776 116.624 2.52012
-17.5642 120.631 -11.1589
-18.8658 120.792 -10.8274
13.0474 108.247 2.81821
-17.3266 111.827 10.4983
4.10254 109.519 4.55785
-19.0444 112.154 10.6625
8.91056 115.963 -13.6788
-11.713 110.541 10.7502
2.14504 118.349 -15.6911
-25.009 117.27 1.6808
-20.7035 112.55 10.9003
-27.6676 119.499 -2.19368
-4.01323 119.565 -14.9481
12.4963 108.489 3.33158
12.714 112.61 -6.79465
-23.0556 121.839 -9.96637
12.0472 113.384 -8.24277
-19.0766 112.553 10.6208
-9.40387 119.203 -10.8197
-25.7419 121.039 -6.37675
10.2767 108.363 5.12083
-24.8719 116.833 3.44205
-1.82102 119.302 -14.868
-19.8047 112.811 10.7366
13.8066 110.936 -2.8264
9.6717 108.299 5.86538
-24.3967 114.258 9.7374
-8.85661 110.835 9.70406
-15.8451 120.818 -10.7653
14.0931 109.264 1.26616
11.004 114.774 -10.4256
12.3568 113.117 -7.06336
-11.0763 119.562 -10.056
-27.234 119.459 -1.06328
14.0671 109.343 1.35622
11.2659 115.855 -12.9086
-24.5613 114.665 9.49681
-25.3702 115.448 8.06306
-24.6939 117.428 2.94023
-16.0393 112.377 10.7184
5.50899 109.527 6.03613
-24.8052 117.308 3.55925
-17.5838 121.649 -10.735
-25.2485 115.38 8.74571
-20.0195 113.407 10.7971
-11.0372 111.512 10.5794
11.4213 114.068 -7.7849
-25.0022 118.261 1.66861
10.6949 114.802 -9.11347
-25.0363 116.243 6.71132
-17.0743 112.936 10.5168
12.9701 109.381 3.04727
-5.98639 112.197 6.50496
-12.5874 111.8 11.0648
14.2822 110.823 -1.06748
-25.0035 118.434 1.69415
-25.9743 120.92 -3.83306
-13.8907 112.104 11.2079
-12.0091 120.418 -10.0249
1.16328 119.675 -15.1758
-17.2192 113.386 10.5217
-22.614 122.882 -9.69432
-0.0409017 112.847 2.80626
-13.6145 121.13 -9.98064
13.211 112.135 -2.49123
13.7111 111.464 -1.03773
10.3697 116.983 -12.669
-23.7581 122.449 -7.51897
0.626415 112.812 2.8362
-1.64872 120.511 -14.598
-7.11324 120.689 -12.0594
-21.5009 114.509 10.966
-7.08817 112.226 8.75726
-19.7643 114.205 10.7904
-24.5391 118.388 3.16879
-31.0046 122.846 -4.1906
0.00448706 120.471 -15.0606
12.9948 112.312 -2.10478
-28.8334 122.408 -3.81352
12.3385 112.923 -2.89873
10.0625 115.463 -7.83942
10.3042 115.696 -8.53866
-29.0405 122.654 -4.00451
-28.8045 122.558 -3.88101
-23.1511 123.159 -8.34274
13.5678 111.895 -0.61536
-7.71574 112.591 9.29521
-27.3682 120.717 0.129539
0.981135 120.597 -14.858
9.35907 118.629 -14.5733
12.9422 112.339 -1.1267
6.7432 110.434 6.87545
-7.68383 112.704 9.28321
-16.7696 122.845 -10.242
6.66259 110.784 6.61624
-30.1784 123.399 -4.2297
-6.51571 113.002 8.38445
-34.6976 123.975 -3.13242
10.1862 117.001 -10.2728
13.6209 110.974 2.68467
-24.4454 122.262 -4.20659
5.50571 119.664 -14.0356
13.7092 111.11 2.45788
-23.0338 123.156 -7.04744
2.14859 120.68 -14.5652
-26.4222 122.521 -3.61384
-9.88257 121.263 -9.44049
11.5544 114.104 -3.49157
-24.6873 116.897 9.31629
5.8254 111.732 5.43697
9.98938 110.531 6.14676
14.244 112.034 0.287281
-24.4166 118.648 5.0352
-12.6318 113.585 11.0471
-24.4145 118.605 5.19146
-5.51909 113.891 6.60922
10.1244 117.219 -9.86005
5.96765 119.783 -13.8008
-25.9605 122.434 -2.97554
10.9218 111.01 5.02275
10.1991 117.156 -9.5447
-2.69904 121.993 -14.3364
-12.7121 113.853 10.9806
11.7094 114.494 -3.74487
6.28146 111.735 5.99201
-34.6246 124.68 -3.35068
-23.2281 116.715 9.94037
-24.8044 119.721 3.47563
-21.1546 115.987 10.6607
-18.7287 123.936 -9.99413
-2.14638 114.922 3.07678
11.1455 111.355 4.71279
-2.68948 115.073 3.24274
4.23228 113.453 3.49858
13.8579 111.952 2.01578
-23.5482 123.43 -5.74436
-6.74223 122.083 -11.5112
-13.8064 114.54 10.7925
-26.736 122.918 -2.65246
4.203 113.56 3.47664
-34.747 124.943 -3.19341
-26.0356 123.538 -4.46276
-28.2429 124.002 -4.34014
12.468 114.562 -3.21319
-2.5561 122.406 -14.223
9.53836 119.857 -14.5183
7.28147 111.467 7.20657
-35.2895 124.851 -2.31446
9.73476 118.122 -10.1955
11.5927 116.44 -6.83344
-26.8388 121.579 1.41285
-14.1308 114.975 10.667
-9.6137 114.059 10.472
-25.11 123.676 -4.6077
11.6308 116.511 -6.92103
-11.3335 122.583 -9.27748
-5.07998 114.863 6.22705
-34.6485 125.374 -3.41298
-24.5884 123.508 -4.27522
-33.2107 125.325 -4.04479
4.28818 113.99 3.42232
-22.7299 124.271 -7.05206
-22.9305 123.827 -5.84705
-9.84327 122.351 -9.29619
-5.073 122.764 -12.828
-0.363245 122.354 -14.2467
13.0164 112.142 3.49319
3.31342 114.47 3.06035
12.9364 114.588 -2.25434
11.0292 112.088 4.93235
13.7947 118.048 -10.9889
-32.5729 124.952 -2.64983
-25.0803 123.907 -4.13443
-34.9246 125.636 -3.01
-3.44416 115.795 4.08613
-27.3903 123.579 -1.8044
-24.8219 120.463 4.4627
-12.0782 115.03 10.9046
12.8514 112.466 3.69187
-22.6059 124.878 -7.38229
11.5085 112.402 4.65206
13.1449 113.987 -0.096679
-6.43531 122.881 -11.2138
-19.5947 125.145 -9.51015
-25.467 120.888 4.19095
-26.3118 124.652 -4.51465
-32.8833 125.421 -2.79923
15.3113 116.99 -8.18293
-6.43901 123.004 -11.0877
10.1012 120.413 -13.6452
10.3896 112.477 5.65493
-26.093 124.539 -3.97724
3.58179 115.112 3.00478
9.69589 118.601 -8.7476
-18.9198 116.918 10.8807
13.305 115.101 -1.99844
3.58056 115.295 2.97552
5.16524 114.365 4.44397
-10.6745 115.261 10.8269
-22.2045 125.154 -7.08485
-4.87164 115.841 6.30139
-0.453419 123.139 -13.8556
12.3877 117.247 -6.36993
12.7906 116.808 -5.514
-23.606 124.313 -4.16033
-15.1963 116.493 10.5296
8.16588 112.751 7.05977
-30.9109 125.104 -1.94286
-27.1112 122.871 1.54866
-25.6767 124.533 -3.27067
-24.2451 119.37 8.58111
-25.7641 124.71 -3.58966
10.9923 113.002 5.13612
-5.39169 115.625 7.60361
-24.4101 119.878 7.53422
16.2697 116.77 -6.80155
13.1401 115.529 -2.03821
6.87732 113.331 6.73146
-35.5003 126.081 -1.47518
-26.9099 123.189 1.0439
-26.4001 124.845 -3.19455
-21.8954 126.014 -8.32557
7.03057 121.708 -13.4222
10.7489 118.702 -8.07975
-25.5062 121.561 4.5359
8.29323 113.066 7.04005
-27.0255 123.181 1.45142
12.9638 117.199 -5.46746
1.74838 116.449 2.44235
-26.9771 123.27 1.33879
16.3588 116.894 -6.51206
16.2325 116.982 -6.61347
12.0798 118.064 -6.96756
12.6476 119.46 -10.6751
1.8917 122.719 -12.806
5.55972 122.13 -13.3017
-22.184 126.062 -7.81675
2.37783 116.393 2.55282
-24.3845 121.012 5.76519
13.5591 114.08 2.2169
-10.6734 115.928 10.8103
-24.6465 125.246 -4.33595
-11.4854 116.122 10.9029
-7.39523 115.81 9.50821
-24.4683 125.562 -5.06741
-35.5249 126.504 -1.3465
-5.59615 123.925 -11.1759
-24.4555 124.562 -2.48749
10.4288 113.506 5.6928
-21.9173 126.329 -8.07967
-34.6196 126.523 -1.65892
-33.4875 126.331 -1.79746
4.93561 115.575 3.73081
-20.8412 118.507 10.5149
-23.2067 119.245 10.0039
10.6612 113.577 5.53964
7.14688 113.845 6.80223
9.77044 119.743 -8.99492
7.97236 113.606 6.97221
-29.8193 125.09 -0.526931
-25.7005 124.935 -2.35849
-7.47229 116.014 9.57109
-4.36199 116.763 6.08799
-24.3154 124.93 -2.98071
-24.734 125.336 -3.6873
-32.6144 127.315 -4.12743
-22.4265 126.229 -6.97066
-31.7598 126.429 -2.37479
-22.392 126.058 -6.52136
-24.3084 125.805 -4.79089
-36.8378 127.037 -0.994875
5.37755 115.503 4.45139
-28.3776 125.808 -2.41762
8.25886 113.838 7.01402
-23.8119 125.493 -4.09474
-23.1745 125.51 -4.40733
-28.5048 125.712 -1.98904
-17.1236 118.117 10.5231
12.6579 118.472 -6.42529
-32.6997 126.634 -1.81333
0.619655 123.827 -12.9483
12.2902 118.888 -7.18998
5.04648 122.736 -12.661
-7.59699 124.065 -9.05251
6.34068 122.647 -13.1115
-26.0626 125.394 -2.30171
-7.58375 124.09 -9.04746
-21.7857 126.766 -7.90287
-23.5901 125.959 -4.93081
5.74004 115.424 5.03213
13.6376 120.353 -11.1584
-25.4228 125.603 -2.81364
3.8082 116.901 2.74336
-26.5045 125.54 -1.91576
-23.0991 125.87 -4.52709
-14.618 117.804 10.6939
-34.2476 127.057 -1.26752
4.16511 123.368 -12.919
-0.39616 124.478 -13.127
-25.0882 125.778 -2.92828
-21.6451 119.603 10.3058
-38.2228 127.627 -0.309982
-28.5588 126.194 -2.02776
12.7489 119.08 -6.92949
12.8497 118.965 -6.69676
12.3031 120.442 -9.91517
-3.79301 124.936 -12.1685
-27.3954 125.064 0.273924
-31.8633 126.965 -1.82127
10.8913 121.588 -11.7615
6.07649 115.629 5.46521
-29.9565 125.845 0.0740247
-19.3007 119.162 10.658
-24.3049 126.903 -5.50252
11.517 119.997 -7.89777
3.31861 123.559 -12.1481
-20.498 119.629 10.3397
9.932 121.49 -10.6394
-26.4949 126.32 -2.69112
-25.3663 122.729 5.46519
-28.1053 127.697 -5.10609
-26.2115 125.908 -1.75829
-38.1364 127.814 0.0959304
4.34696 123.845 -13.1691
-35.9998 127.406 -0.016551
-33.0043 128.47 -4.15082
7.81372 123.71 -14.5499
-13.4959 126.081 -8.81741
5.6665 116.311 4.68063
-9.75904 117.311 10.6629
6.46174 115.62 6.02753
-23.9917 126.767 -4.70227
-21.121 127.37 -7.71786
-0.550058 118.576 2.70458
6.62766 123.941 -14.2169
-24.2667 126.208 -3.02516
-1.5555 125.289 -13.0296
-25.7491 123.365 4.77999
-37.2082 127.757 0.275594
-30.7778 127.216 -1.87668
14.2989 120.832 -10.6477
3.88985 123.995 -12.7169
-9.59243 125.362 -8.7644
-28.9116 126.05 0.0169008
-30.7148 126.744 -0.699986
11.7976 121.604 -11.0585
11.804 121.584 -11.0102
5.23321 116.97 3.82512
-27.7562 126.46 -1.50788
11.1564 114.986 5.61756
-14.5534 126.711 -9.07972
14.1037 118.561 -4.64756
13.2956 120.314 -8.48578
-4.46596 125.362 -11.0239
-25.6418 123.456 5.08248
11.8519 121.553 -10.5246
-26.5184 127.533 -4.264
-27.1051 126.201 -0.577317
14.1036 118.337 -3.54803
-28.188 126.387 -0.213342
-27.0016 125.983 0.139443
13.7086 118.798 -4.31974
-28.6207 128.423 -4.90842
-24.0076 127.561 -5.24813
13.1449 120.467 -8.00315
-2.38735 119.029 3.90705
-26.8021 126.323 -0.701523
-25.9318 124.543 3.17713
13.9409 118.83 -4.30309
-27.4458 126.56 -0.784188
17.2547 121.386 -12.2232
-31.8934 127.642 -0.900836
-26.57 127.323 -2.99244
-20.8089 127.622 -6.65715
12.5482 121.213 -9.00293
-22.1132 127.221 -4.90541
10.1625 122.646 -11.1261
-30.4746 127.593 -1.22095
-25.759 124.617 3.53138
-28.3351 127.167 -1.17307
-26.6384 126.359 -0.11039
-4.58065 125.838 -10.7333
-0.100554 125.632 -12.5887
13.3444 120.38 -6.99353
3.8942 118.617 2.44825
5.17632 117.875 3.5676
-37.4403 128.843 -0.168226
13.7873 119.517 -5.06324
12.6726 121.488 -9.20646
16.6864 121.103 -10.4295
-34.7145 128.355 -0.3237
-3.29847 126.154 -11.8796
-37.2878 128.28 1.30716
4.75906 118.361 2.79855
-19.6593 128.371 -8.40893
14.9294 121.752 -10.8619
-2.92398 119.248 4.91873
16.9421 118.613 -4.26654
-4.20777 118.695 7.02528
-20.2573 128.107 -7.2728
-16.041 127.951 -9.16369
-38.1057 128.487 1.46434
-29.7044 129.095 -4.54428
-23.6994 127.888 -4.79197
-15.5006 127.978 -9.42418
12.7833 122.845 -12.168
13.9502 119.563 -4.69544
16.5833 118.688 -3.96455
13.358 120.114 -5.68719
-3.15818 126.351 -11.9289
-9.08317 118.499 10.4618
10.9175 123.291 -12.0011
-26.1158 128.66 -5.07473
-21.6621 121.529 9.97503
-11.7556 127.215 -9.24285
13.4725 119.462 -3.94482
-27.2835 128.239 -3.29736
-36.4993 128.276 1.61679
-14.8648 128.095 -9.62227
13.5434 119.271 -3.4244
9.4128 124.457 -13.7813
6.14637 117.393 5.25744
-22.1817 127.744 -4.62357
10.9226 121.969 -8.39703
14.0253 119.741 -4.61836
13.3235 120.136 -5.19625
13.03 121.64 -8.68494
-24.5762 123.45 7.24544
1.32084 119.741 2.31216
-24.1341 123.061 7.96679
-24.1834 123.113 7.88011
14.9822 122.668 -12.1721
10.8073 123.859 -12.7395
-27.0126 126.55 1.16398
-22.3781 128.153 -5.25202
-27.9643 126.893 0.847612
11.5648 116.214 5.55298
18.6025 118.838 -4.64573
12.4583 117.349 2.32371
-29.3415 127.722 -0.385812
-2.8118 119.67 4.96564
0.849061 119.989 2.34616
-22.0686 121.931 9.99273
-29.3365 127.812 -0.371051
-19.9011 128.68 -7.5697
-26.6408 126.577 1.2094
13.351 123.295 -12.3853
10.2376 124.397 -13.3546
4.82379 118.984 2.8058
13.3684 119.722 -3.59302
14.2326 119.778 -4.1373
2.05686 125.556 -11.6061
7.11151 117.075 6.46605
12.4218 116.762 4.38502
-26.6581 129.383 -5.28903
-33.7345 130.159 -3.34358
-1.74723 120.224 3.62589
5.64253 118.333 4.26992
9.72443 116.39 6.81938
-21.0979 128.927 -7.11614
-35.3053 129.407 -0.604489
-28.9227 129.706 -4.78277
-29.984 127.86 0.299846
-12.8732 128.075 -9.36184
-14.6551 128.554 -9.52717
-4.63918 119.197 7.90627
-29.36 127.993 -0.192657
12.3361 118.251 1.10589
-26.9202 129.593 -5.2845
-36.8568 129.232 0.978072
9.85592 123.888 -11.1759
0.796556 126.187 -11.889
16.6002 122.66 -11.8129
-23.3207 128.43 -4.28967
-18.2677 129.051 -8.4458
-4.70646 119.308 8.05488
-22.2636 122.407 9.99439
9.22823 123.934 -10.6999
17.6902 121.443 -8.98289
-29.1652 127.57 1.44326
20.1912 118.577 -3.26817
-16.564 121.037 10.6797
-18.3504 121.569 10.3821
4.4781 126.172 -13.1241
-29.9742 128.091 0.818301
14.2779 119.832 -2.84859
13.854 119.962 -2.91748
-4.52761 119.602 7.92335
14.4984 119.906 -3.09126
18.4006 121.539 -9.07314
9.81414 116.976 6.72438
12.147 122.291 -7.48715
-18.2977 129.448 -8.42961
11.943 118.392 2.21996
13.2313 119.225 -0.495423
12.279 121.603 -5.53723
-16.8682 121.426 10.7339
11.7979 122.346 -6.89289
-13.8283 120.757 10.8523
-3.15403 127.427 -11.1559
17.4269 121.754 -8.41705
-19.5006 129.746 -7.92464
-16.4647 129.615 -9.19657
12.2878 121.857 -5.79842
12.2908 117.872 3.93907
12.8392 121.24 -4.52657
12.1547 123.465 -9.57127
-21.8488 129.403 -5.66406
12.3368 118.791 1.88853
-22.3076 129.037 -4.32029
-8.47572 120.002 10.2594
-7.7101 127.28 -7.9145
-20.7738 122.917 9.81736
-31.2393 128.763 1.25187
-3.44915 127.578 -10.7854
11.4875 123.088 -7.84334
-18.1281 129.922 -8.5087
-18.4455 129.974 -8.35645
7.70768 126.569 -14.15
15.1724 124.016 -11.9341
-0.151623 127.371 -11.8265
-7.70564 120.13 9.96628
20.8648 118.998 -2.70958
-8.42317 120.183 10.2471
-26.7505 127.971 1.18202
5.09777 120.34 2.76592
-29.8235 128.875 0.857146
12.5785 119.131 1.78773
-0.204646 127.521 -11.7552
-34.0595 129.148 2.57425
13.2505 119.771 -0.052028
9.76482 125.21 -11.3939
-1.22972 121.544 3.53694
-11.6621 121.166 10.1191
-18.3535 122.651 10.1487
20.4626 122.214 -9.65211
-2.87897 120.896 6.20156
2.55081 126.877 -11.2488
-7.03744 120.447 9.66279
-24.1391 125.763 5.98389
-16.9603 122.363 10.4426
18.2724 120.07 -2.9954
-24.6987 130.689 -5.66692
-33.5679 131.567 -2.94083
-16.0665 122.152 10.5934
11.4635 122.045 -3.98571
12.3266 121.453 -2.92309
9.35941 125.168 -10.3703
13.6627 121.242 -2.85007
10.8449 123.535 -6.89843
-1.50938 128.208 -11.5931
10.855 126.051 -12.9957
-2.16842 121.603 4.91107
-20.1413 130.426 -6.84754
-13.9035 121.976 10.5079
-34.3554 131.691 -2.15296
-12.6782 121.861 10.1449
2.30696 127.26 -11.0865
-14.2151 122.037 10.6056
10.629 124.361 -8.45189
10.9492 122.867 -4.94831
10.6819 123.676 -6.77271
6.12387 120.138 4.36882
1.42819 122.022 2.31448
10.7879 123.277 -5.78852
-29.409 129.357 1.22296
-13.2072 122.086 10.2628
-29.3764 128.87 2.44088
7.69481 118.99 6.5304
-23.9028 126.112 6.37907
10.5365 125.025 -9.52066
-30.2935 129.188 2.39633
-31.093 129.308 2.55276
-7.66173 128.335 -7.53996
-21.5073 130.411 -5.1227
-24.4403 131.183 -5.40174
-33.4405 132.076 -2.65414
14.6599 120.786 -1.0881
2.16742 127.595 -10.9249
12.6159 121.95 -2.71875
22.2856 119.496 -1.76932
-22.7508 125.568 7.80982
-11.5698 129.754 -8.41358
10.2156 123.989 -6.10154
-21.303 130.16 -4.09404
-25.3141 128.337 2.56849
-25.4515 128.526 2.22875
-32.5077 132.328 -3.19499
-15.2222 131.474 -10.446
3.95136 128.048 -12.4325
14.2188 121.344 -1.5513
-22.3557 130.415 -3.92679
-16.7419 131.859 -10.4623
-22.6281 125.632 7.94209
-23.2883 126.114 7.15177
-26.9944 129 2.22559
-9.13165 122.075 9.55706
10.3674 123.227 -3.7784
-19.8898 124.447 9.62351
-11.7852 122.636 9.67428
-33.2914 130.172 2.91135
12.1595 124.365 -7.41921
-35.9093 131.623 0.927
-36.0514 131.45 1.43985
2.96731 122.598 1.98755
17.3133 123.473 -7.88419
15.1434 125.218 -10.945
-21.9261 130.823 -4.49223
-12.4662 122.845 9.86876
20.4632 120.087 -1.07662
9.88294 123.965 -4.76502
3.85904 122.584 1.8787
10.6947 125.68 -9.34076
21.1245 123.349 -9.27797
21.9053 122.372 -7.24964
21.957 119.982 -1.38911
-19.1179 131.527 -7.36412
-18.3338 131.647 -8.05697
22.0629 122.796 -8.22979
17.0328 124.578 -9.84682
-21.484 131.219 -5.21233
-19.8354 124.844 9.63991
9.68974 124.086 -4.45562
-1.31759 129.329 -11.1582
-22.5119 132.071 -6.39473
9.90882 119.583 6.5674
20.4913 120.449 -1.25665
-22.2019 131.936 -6.20672
-16.947 131.605 -8.21446
12.5203 122.771 -2.49624
-35.1778 132.48 -0.413919
-13.9036 123.391 10.3554
19.8378 120.895 -1.78545
-15.0947 132.254 -10.5428
22.1112 122.953 -7.94341
-28.2301 129.64 2.94166
-24.6252 128.647 3.63404
14.1641 121.403 0.368466
1.70922 123.435 2.15153
-28.7587 132.916 -4.48464
-12.4939 131.09 -8.81132
13.9183 122.172 -1.28595
-12.493 131.12 -8.82035
-3.70289 122.449 7.6124
5.64911 128.921 -13.2195
18.8928 123.952 -8.11949
22.6058 120.812 -2.35845
-11.9349 131.048 -8.65972
-26.1105 133.206 -6.22522
-26.5965 129.666 2.71251
1.96126 128.751 -10.4471
15.1187 125.826 -10.3752
10.927 127.272 -11.5739
-17.8919 132.181 -7.92882
12.7293 124.909 -6.70834
-14.3436 132.432 -10.4193
-30.4318 133.161 -3.29422
-33.1021 133.134 -1.76833
-2.1388 123.073 6.10289
11.5443 126.467 -9.48244
-13.4971 123.977 10.143
9.13983 120.332 6.83564
-31.7106 133.356 -2.77802
-5.05375 129.665 -8.10424
11.1099 123.658 -2.12674
-5.77405 122.869 8.99525
-30.2002 133.32 -3.25389
-22.9814 127.54 6.9962
-21.4681 132 -4.69837
-27.755 130.111 3.39063
6.68724 129.389 -13.3437
7.58377 129.293 -13.5513
15.5908 122.314 -0.807112
-35.1991 133.026 0.496722
-3.39508 123.176 7.459
20.6124 121.655 -1.77829
-23.6224 129.218 3.67962
5.2853 129.636 -12.9306
12.2449 124.721 -4.54741
-22.2767 127.456 7.43277
22.7218 121.354 -1.98544
2.08095 124.301 2.01571
-28.795 130.379 3.87057
8.89239 126.134 -6.11256
-19.3174 132.628 -6.70004
-25.1414 130.296 2.21803
10.6252 124.017 -1.77313
-24.3548 129.744 3.15914
-1.52159 123.787 5.3722
10.6011 124.362 -2.55981
12.6804 126.908 -9.80345
-34.8885 133.438 0.079014
-22.4517 133.287 -6.27321
10.4407 128.774 -12.9904
10.2077 127.029 -8.55615
11.1907 124.493 -2.89624
-26.771 130.161 3.79167
9.25565 125.627 -4.51761
-18.9914 126.114 9.58748
11.7878 121.267 4.79996
13.8555 123.676 -2.17846
9.22281 121.031 6.83074
-0.0409571 124.599 3.17673
-19.6567 132.824 -6.24297
11.6957 124.87 -3.76569
-16.9973 125.824 9.43945
-16.9142 132.787 -7.60062
-31.405 131.424 3.57788
11.9789 125.031 -4.23866
-29.6116 131.004 3.66932
-10.1365 124.569 8.85665
21.4341 121.95 -1.7946
12.211 124.156 -2.01613
-5.06726 123.642 8.67681
-3.31302 123.783 7.43328
10.3693 129.262 -13.3065
-21.0039 127.544 7.84369
-25.1107 130.51 2.95723
-31.0026 134.04 -2.35364
11.0902 127.961 -10.1836
1.52704 125.018 2.20494
22.5976 124.033 -6.75188
-26.8797 130.778 3.52675
-6.53935 130.617 -7.02438
14.0571 123.959 -1.86411
20.3816 125.027 -7.84275
3.78788 124.811 1.71271
-12.1654 125.179 9.49387
17.9016 125.13 -6.61348
14.7872 123.756 -1.56503
-5.35429 130.649 -7.48929
22.6914 124.637 -7.97118
14.2364 122.946 0.822443
22.5455 122.156 -1.70038
11.6153 126.596 -6.62232
10.7463 129.167 -12.3697
-26.0618 134.317 -5.00258
3.3534 125.077 1.66945
-20.8493 133.084 -4.78624
4.51637 124.794 1.77989
22.6873 124.402 -7.04673
-28.6698 134.312 -3.45031
-2.73108 124.313 6.95639
-20.6715 128.572 6.271
9.37966 121.822 6.65354
-27.2199 131.459 2.97513
-25.5119 130.561 4.37199
3.00937 125.347 1.72216
3.19292 130.534 -10.9092
11.1352 127.745 -8.38425
11.3459 125.138 -2.11131
8.83754 126.98 -5.20423
22.5864 124.978 -7.72082
-12.812 125.641 9.80463
10.7552 129.567 -12.5117
-11.5531 133.065 -8.95002
8.97754 126.737 -4.58402
-19.5605 127.354 9.33314
-32.4145 134.413 -0.923408
-1.39163 124.885 5.65631
14.1332 124.383 -1.48574
-20.5167 129.054 5.84674
19.1416 125.485 -6.82615
22.2672 122.833 -1.9218
-19.0102 133.991 -6.7995
-18.9783 134.002 -6.81149
14.6488 123.822 -0.10303
2.96138 125.679 1.72216
-1.99637 124.837 6.49479
14.8296 127.321 -8.63994
-26.3339 134.707 -4.34523
12.9805 123.283 2.34031
6.8345 124.288 3.21558
10.4358 127.85 -7.27585
-11.4384 133.366 -8.90886
-2.912 124.876 7.23808
7.37306 123.176 5.85728
7.89362 122.926 6.23018
21.0892 122.796 -0.527689
-34.3205 134.321 1.43791
-1.78263 125.094 6.38566
11.0651 128.737 -9.31635
13.2532 123.81 1.53597
4.27773 125.747 1.69016
-20.3704 130.171 4.21475
10.5485 127.907 -6.88662
11.2585 126.398 -3.55764
-34.3453 134.845 0.506989
-22.7554 134.659 -5.1821
-19.4796 134.317 -6.09553
-32.6875 133.527 3.00581
14.6984 124.32 -0.0813969
-9.98237 126.293 8.47424
-31.243 135.093 -1.36804
14.6301 124.767 -0.921205
23.2442 123.382 -2.16531
13.1235 124.217 1.28951
23.1519 124.47 -4.74355
-32.3148 135.07 -0.641446
8.25836 123.2 6.42746
14.8048 124.811 -0.995642
-2.06344 125.402 6.68554
23.5952 124.251 -4.37016
-16.3997 134.444 -7.58611
-28.3375 132.329 4.04729
7.24211 124.644 3.63207
22.8516 125.432 -6.69745
9.34011 123.32 5.7959
13.1877 124.454 0.991692
-9.84327 126.561 8.3126
17.4528 126.517 -6.01645
9.9239 126.602 -2.12663
14.8668 124.914 -0.60129
-27.0988 132.113 4.54942
9.63872 123.787 5.04402
-20.2082 134.56 -5.12104
4.18635 131.939 -11.8892
9.82759 123.871 4.76137
9.50832 128.67 -6.76726
13.9117 128.16 -7.84105
-1.1826 125.948 5.71631
11.9737 124.417 2.3909
11.0077 129.516 -9.50856
11.0273 129.714 -9.82458
-18.4596 134.814 -6.33016
-12.7718 135.001 -9.85871
-4.32729 125.672 8.39905
-20.9504 135.113 -5.60017
8.75622 123.577 6.54907
-32.6138 135.598 -0.419724
9.7812 128.907 -6.96548
-30.8469 134.073 2.39941
3.14412 132.021 -10.8835
4.42004 132.128 -11.8234
-19.8806 130.06 6.40174
-22.2415 132.126 2.65329
-27.8734 132.634 4.52906
-32.72 134.448 2.72209
21.2038 123.851 -0.550315
9.81961 129.005 -6.97063
-33.4369 135.085 1.59029
-15.8804 135.112 -7.81888
11.215 129.095 -7.77054
18.8856 123.724 1.24304
-25.8607 132.036 5.1579
12.3345 127.862 -5.2604
0.60737 126.878 3.48683
14.8864 125.906 -1.81087
-16.4868 128.247 9.44762
10.3223 124.577 3.93815
-1.16497 126.342 5.84053
-19.5058 135.038 -5.35295
22.2858 126.431 -6.89248
10.8648 127.55 -3.30443
12.3662 128.807 -7.10837
2.86786 127.287 1.73903
-14.0984 127.837 9.57899
-18.1155 128.955 9.05023
11.5117 129.547 -8.32754
22.873 126.043 -5.82398
-14.7571 135.508 -8.45607
-15.5132 128.377 9.38403
-20.0141 131.402 4.54214
10.9692 128.583 -5.29
-15.0587 128.339 9.45677
9.94875 129.518 -6.92432
-8.64627 127.493 8.0689
19.1449 126.868 -5.33684
-22.9662 132.323 4.11218
-17.7178 135.289 -5.91526
23.5317 125.428 -4.08157
-10.0052 134.496 -8.08428
-22.8616 136.29 -5.42451
-32.8368 136.394 -0.259736
10.113 132.073 -12.9178
10.7026 128.375 -4.20798
-15.4422 128.723 9.10863
-6.29033 126.912 8.6366
-24.9467 136.531 -4.73839
10.5532 127.583 -2.08164
-17.7567 129.549 8.44009
-23.1981 132.464 4.40268
-22.9881 136.454 -5.40895
-4.61971 126.75 8.35314
-14.6855 128.642 9.20281
-17.5308 129.592 8.42831
23.2905 124.98 -2.35
-20.4739 135.929 -5.39486
-1.83786 133.049 -8.41239
2.0251 127.85 2.1954
13.4814 129.967 -9.15149
-24.4898 132.987 4.00555
-17.4849 129.893 7.82034
-25.5494 132.821 5.03466
-21.3573 132.725 3.07545
12.172 128.344 -4.34606
10.6715 130.533 -8.82992
10.0751 127.882 -2.02882
-7.44046 127.538 8.47906
-18.301 130.497 7.20728
-30.4657 136.84 -1.64508
-32.7177 136.833 -0.32864
3.31991 133.23 -10.9954
17.6486 127.906 -5.69413
9.66943 132.516 -12.5744
-24.9157 133.255 4.31929
0.258027 127.668 4.43492
-18.9967 131.25 6.14563
20.0404 124.381 1.81794
-8.9419 128.368 7.75284
-27.0968 136.831 -3.07522
3.58188 133.422 -11.2375
-23.7922 137.049 -5.25469
-7.96442 134.343 -7.16644
-4.47248 133.338 -6.5988
11.8532 130.617 -8.64519
-19.1006 130.964 7.28036
-10.4425 128.809 8.04693
6.272 133.18 -11.6002
0.57498 133.525 -9.35769
-15.5706 136.225 -7.16408
5.18068 128.045 1.60324
-18.8592 136.032 -4.88359
11.9422 129.503 -5.54215
-20.1981 135.912 -3.81718
13.6438 127.218 -0.867714
23.5959 125.784 -2.68174
-10.6499 135.941 -8.94705
-10.8296 136.008 -9.00823
-31.341 137.296 -1.05027
2.45688 133.446 -9.91279
2.09096 128.562 2.24112
-3.69724 127.501 7.96313
10.5818 130.175 -6.17182
2.0167 133.485 -9.58618
-9.07399 128.944 7.5586
-11.5793 129.052 8.71668
2.96654 133.659 -10.3752
-11.1893 136.329 -9.16486
-8.21027 128.676 7.92183
-25.0817 133.749 4.67899
9.99311 126.121 4.3468
12.0517 129.743 -5.60508
17.7728 125.328 2.10215
-15.5977 136.525 -7.18987
7.68142 127.062 3.34258
-0.673724 127.858 5.91551
4.45252 128.533 1.514
-1.63892 133.725 -7.84964
11.4613 129.027 -3.41276
5.79333 128.162 1.78436
7.39128 126.653 4.67702
-29.5724 136.044 1.73489
-25.7915 133.978 4.76274
19.2615 128.139 -5.15059
-19.0136 132.285 5.44651
-0.876241 127.967 6.19428
-20.3482 136.841 -4.90895
9.9986 133.1 -12.1711
-32.1876 137.297 0.383539
-31.0403 136.547 1.61065
12.8154 127.482 0.103059
-26.7989 137.581 -3.08509
17.7732 128.93 -6.0124
22.1515 126.606 -2.66206
-29.5775 137.604 -1.54501
8.13323 126.204 5.93048
20.9025 127.813 -4.86101
19.7402 125.985 0.228323
22.1363 127.909 -5.7113
24.1333 126.455 -3.16161
13.4648 130.8 -7.91111
-19.0805 136.719 -4.73459
-26.4639 134.687 4.2353
-17.0003 136.909 -6.23811
23.6362 126.665 -3.11721
2.55441 134.049 -9.70874
22.7372 126.821 -2.95497
-11.5861 129.731 8.51418
1.76795 129.154 2.71935
-19.6169 136.708 -4.15169
13.2137 131.17 -8.35103
-5.24202 128.453 8.36081
-0.160604 128.501 5.50501
13.2265 127.994 -0.421518
15.4315 127.046 0.739543
-11.6363 137.24 -9.45318
-0.554831 128.531 5.98668
14.2474 127.91 -0.450692
18.9251 128.965 -5.53242
-29.736 137.998 -1.2807
11.0256 131.899 -8.38197
-19.2246 136.964 -4.29845
22.0585 127.076 -2.47094
7.24127 128.277 2.69187
-7.9498 135.794 -7.41163
-17.9664 137.196 -5.37435
14.461 131.452 -8.77251
-14.2626 137.729 -8.49598
12.452 132.145 -9.30259
-20.8793 137.643 -4.66426
22.535 128.43 -5.58144
19.7458 126.364 0.992396
-13.0083 130.443 8.75425
10.6386 131.952 -7.70794
-10.677 130.595 7.17604
11.1749 131.37 -6.4166
-25.1958 138.673 -4.54004
-22.4073 134.579 4.01897
-23.3072 134.9 3.83993
12.8847 131.399 -7.15382
-12.756 130.748 8.30048
-1.65157 134.571 -7.02944
-16.375 137.708 -6.70424
-10.6654 130.833 7.07734
-18.9569 137.341 -4.22711
13.0914 128.513 0.00422875
15.8853 127.358 1.40857
7.74472 128.184 3.80657
13.0886 132.116 -8.64253
24.1235 127.609 -3.58049
-19.0428 137.732 -4.91013
13.1628 132.087 -8.52035
-15.0329 131.973 7.03032
-26.7787 136.158 3.20342
14.9513 131.541 -8.03598
14.9836 131.557 -7.99148
5.62392 129.746 1.48987
-1.39843 129.176 6.69247
12.6466 128.451 0.883657
-24.8542 135.312 4.41163
-24.7868 135.358 4.38123
12.0713 131.843 -6.95416
-20.833 138.071 -4.36968
-20.0558 134.255 4.59183
-15.731 138.122 -7.16372
-4.20717 129.328 8.09794
-31.6772 138.302 1.11717
16.7781 130.676 -6.4493
14.4552 128.425 0.359361
11.432 134.152 -11.9847
-21.2319 138.258 -4.22295
19.8109 129.334 -4.58865
-20.9423 134.578 4.68939
-9.58674 131.033 7.21123
-15.8297 138.26 -6.97192
11.7337 132.611 -7.93016
-16.3285 132.9 6.53756
3.77783 130.529 1.47991
-30.8017 138.904 -0.213154
-24.7556 135.839 4.078
-12.0581 131.919 6.79576
15.7046 127.976 1.46926
13.3526 132.181 -7.49044
-31.8994 138.921 0.585946
16.068 127.672 2.12855
-25.2857 139.278 -3.84998
9.79289 127.772 5.32872
-12.5543 138.516 -8.81614
12.0861 132.363 -7.03862
-12.6282 138.549 -8.75062
-14.9774 138.685 -7.7665
-19.9838 138.326 -4.13305
19.1821 130.171 -5.36711
-2.63605 129.781 7.39821
3.61543 135.782 -10.5683
17.7106 130.781 -5.97437
12.0254 133.787 -10.2318
9.74002 127.946 5.26429
23.3258 128.919 -4.44689
-0.562483 135.338 -7.13991
-4.9842 135.88 -6.04545
-25.3317 136.384 3.74878
16.006 127.9 2.16254
19.918 127.208 1.73671
-2.99796 129.939 7.5552
-18.7548 138.287 -4.26698
16.4494 131.483 -6.46689
-28.3666 137.937 2.00748
5.41505 135.566 -10.4285
0.917029 135.606 -8.04057
13.0902 133.383 -9.16546
15.8247 128.222 1.97559
-11.9476 138.824 -8.85453
-3.38528 135.806 -6.04909
-24.1423 136.521 3.6381
-21.6944 139.278 -4.16443
-1.46329 135.899 -6.68107
-11.9964 132.915 6.31739
-12.5299 139.072 -8.35087
18.1876 131.201 -5.64002
-29.853 139.631 -0.151617
-28.9378 139.642 -0.671355
7.24479 135.753 -10.5758
-11.8878 139.188 -8.57162
-11.443 139.186 -8.79564
-10.3021 132.447 7.07436
10.1432 129.249 3.93723
-3.60572 130.72 7.78792
-11.8872 133.193 6.23047
-9.39488 132.24 7.226
-21.751 136.31 4.18811
15.6354 132.946 -7.79642
-5.26627 136.846 -5.99646
-6.54248 137.567 -7.05796
3.73785 136.587 -10.1169
11.7892 133.252 -6.25486
16.3509 128.739 2.31069
15.1158 133.309 -8.17523
-4.65305 131.138 7.9446
11.6117 133.333 -6.16252
11.0005 129.701 3.15831
12.9378 129.954 1.58277
-21.2575 136.396 4.35631
19.7262 130.717 -3.92835
-28.5591 140.04 -0.57777
21.2218 130.31 -3.68301
20.3989 128.38 1.48046
1.36059 136.519 -8.03363
4.70738 132.006 1.31389
-27.6117 140.564 -1.9257
19.8447 130.761 -3.59636
-1.69172 131.372 6.66551
-26.403 138.582 2.55278
14.7949 129.732 1.91141
16.5779 132.925 -6.7874
9.46792 129.587 5.26482
12.4913 133.796 -6.61084
-9.73385 133.25 6.85141
-17.4044 139.567 -4.41768
-14.2424 140.206 -7.46631
22.6918 130.525 -3.75729
6.76074 136.722 -10.2731
9.85182 136.418 -11.2028
9.21081 136.496 -11.0373
15.4085 129.678 2.41968
-19.2924 136.453 4.74225
23.3801 130.197 -2.94887
-29.1101 139.862 1.92483
-2.27927 131.932 6.87699
8.00288 131.125 3.38528
-21.675 137.258 4.49138
-14.3697 134.699 6.81581
-16.6615 140.571 -6.19567
-27.1442 141.175 -1.96237
8.27958 130.417 5.1559
-27.8486 139.55 2.54262
-5.95098 138.626 -6.97067
-14.1442 134.92 6.58249
10.6172 130.76 3.55111
-3.34462 137.648 -5.70493
-21.8912 137.57 4.52818
-21.8151 137.562 4.54592
-12.1125 134.993 5.63073
1.55254 137.633 -8.12017
3.44962 137.851 -9.61312
-26.6141 141.378 -1.86546
-14.4053 140.905 -7.27169
-4.80695 132.692 7.62325
-6.95243 133.364 7.19253
-1.82795 137.698 -6.10063
-9.80754 140.516 -8.59869
-23.2688 141.113 -2.72322
-6.10941 133.14 7.48896
-11.2729 135.022 5.70339
7.94825 131.203 4.66084
3.0068 138.02 -9.23295
13.6796 134.273 -5.76609
-0.881145 132.568 6.28289
-27.0656 139.902 2.55651
-29.9344 140.94 1.61812
15.4533 130.631 2.33254
-7.76525 139.808 -7.46674
19.7992 131.867 -2.90973
-8.91681 134.554 6.19524
12.5101 131.244 2.73545
-10.767 140.833 -8.07468
-28.2663 141.69 -0.65442
-5.01271 133.312 7.50363
-2.21211 138.173 -5.87232
12.287 135.068 -5.99445
19.5339 132.932 -4.67545
-28.7107 141.839 -0.0597589
-12.2552 141.319 -7.67434
22.2482 131.011 -1.14704
1.20831 133.297 4.65967
-28.8473 141.124 2.26256
-21.7613 141.74 -3.05945
7.97574 132.309 3.93543
-17.7483 137.678 4.77269
12.3532 135.366 -5.83689
-27.0075 140.659 2.6686
10.6491 137.95 -10.9866
-3.13512 133.648 7.1776
7.95122 132.645 3.67736
-27.9556 142.451 -0.680008
-14.1408 137.439 4.16476
-6.48796 140.309 -6.96156
-21.343 138.722 5.00095
6.13957 134.214 1.15396
-9.58735 141.521 -8.18254
12.5062 135.669 -5.78714
9.27958 138.398 -10.6086
18.4516 131.052 2.36976
-1.45294 138.831 -5.78788
13.3215 135.979 -6.76071
-25.8475 140.846 2.97323
7.99027 132.92 4.0759
-15.7709 138.139 4.17759
5.44544 139.301 -10.105
-6.98814 135.474 6.01051
-27.8887 142.826 -0.557056
-18.0014 138.548 4.62689
-15.2238 138.04 4.52797
1.87549 139.277 -7.72742
-26.729 142.868 -0.944809
-3.98542 139.766 -5.6387
-4.32499 139.965 -5.80976
-19.4202 138.929 4.89942
6.70388 134.797 1.09081
12.9082 136.003 -5.04281
-17.4391 142.296 -3.8857
23.1403 132.334 -1.47914
-3.1405 134.713 6.9376
15.0102 132.712 2.0875
-1.35307 134.453 6.81039
-20.8712 142.777 -2.92038
-13.7024 138.27 4.22471
-28.4743 142.9 0.976518
22.2887 132.802 -1.80526
18.8874 134.992 -5.18474
3.65781 135.186 2.86802
-12.9494 138.401 4.11683
-6.73202 136.474 5.50742
10.0937 133.15 4.75582
0.868692 139.89 -6.68029
2.34262 139.936 -7.58601
-4.38515 140.762 -5.89376
-0.42445 134.792 6.54347
2.73218 135.459 3.30458
-18.1507 142.644 -2.93677
8.55874 133.455 5.10743
-17.0326 142.753 -3.74777
15.02 133.371 2.14063
20.4653 133.849 -1.9586
-25.3111 141.661 3.77594
4.67963 140.324 -9.13607
-19.9457 143.176 -2.76174
17.5686 136.13 -5.79703
20.3699 134.026 -2.07228
-3.15215 135.769 6.41504
-9.32142 137.88 4.62796
5.98999 140.453 -9.88789
-12.7314 143.281 -6.51908
15.2139 133.608 2.1867
-21.7403 140.975 4.38312
-5.63549 136.948 5.56018
17.7002 136.349 -5.52629
11.9974 134.028 3.23323
14.8147 133.857 2.20544
-27.5812 144.035 0.357225
8.14389 140.285 -9.73606
-24.7053 144.132 -1.35875
3.70883 136.351 2.3017
11.3837 139.182 -8.46658
-5.75624 142.214 -6.57622
11.2943 134.077 4.12092
-13.7896 139.613 4.18659
-14.3386 143.818 -5.7666
-15.9198 143.987 -5.26254
-15.4449 140.22 3.70257
-9.27892 138.782 4.00024
4.37059 140.966 -8.54227
-7.16418 143.031 -7.32668
-15.4284 140.45 3.65388
-27.411 143.628 2.37241
0.277123 140.879 -5.87598
13.1093 137.703 -4.98878
-12.5202 143.891 -6.22414
22.6465 133.501 0.152646
-21.1389 141.551 4.40709
-16.2175 144.375 -5.07525
-16.8739 143.777 -3.21793
-26.3465 144.746 -0.456582
1.45502 136.429 4.87064
5.30812 137.047 1.29421
8.06841 136.22 1.8727
0.636732 136.266 5.82721
-9.18068 139.396 3.58259
-4.01568 142.086 -5.71152
-7.94185 139.106 3.83709
-1.76167 141.576 -5.29948
-19.843 141.36 5.0972
-23.9148 142.605 4.33148
-5.79997 138.463 4.70562
-9.17594 139.844 3.26783
-23.5521 145.136 -1.87553
6.99858 137.17 1.13893
-0.521592 137.241 5.60024
3.36237 141.702 -7.30011
-27.0211 144.861 1.41094
-15.6754 141.384 3.80101
14.677 135.145 2.64296
-25.5523 145.352 -0.531132
-13.3538 144.829 -5.80857
-12.4722 144.776 -6.05796
10.965 135.428 4.15512
-6.55505 139.373 4.04279
8.94983 136.021 3.95363
12.9847 135.375 3.38682
-14.1672 145.062 -5.53547
-25.9612 144.099 3.19979
21.9216 134.392 1.24669
2.11847 137.464 4.53543
-2.99969 142.64 -5.2046
-16.743 142.022 3.85801
12.7556 138.674 -3.7109
-3.51469 142.987 -5.41234
-15.0719 145.343 -4.89097
-2.16844 142.597 -5.0973
-16.4775 145.144 -3.51976
-16.7648 142.217 3.846
3.9018 142.316 -7.45538
3.46021 142.271 -7.09745
19.9516 137.042 -3.2046
20.6438 135.792 -0.491048
4.83295 142.417 -8.02787
11.1481 136.202 3.82515
-15.2595 142.243 3.57698
-17.4529 142.683 3.81404
21.1495 135.025 1.69124
-5.95113 140.281 3.70846
20.4648 135.036 2.25044
21.3051 135.137 1.60143
-2.29611 143.076 -5.00466
8.742 137.827 2.00933
21.7796 135.249 1.32777
3.30623 142.679 -6.75875
2.91385 142.652 -6.44857
-12.4722 142.469 2.53031
4.06543 142.867 -7.31856
-13.1389 142.607 2.61608
17.7142 138.533 -4.03396
-9.85537 141.589 3.44481
-17.3932 143.17 3.7169
20.8257 135.488 1.89615
-8.77652 141.641 2.87729
-23.7541 144.798 3.30317
-15.3449 142.873 3.48333
14.674 139.11 -3.52107
-15.2882 142.902 3.44115
6.01488 143.055 -8.43004
-17.0935 145.662 -2.28143
17.1255 139.058 -4.24774
-18.1921 146.037 -2.17747
-14.3111 143.141 2.80677
-15.7596 143.117 3.64958
2.00996 143.103 -5.78314
-13.7689 146.262 -4.94194
-3.05754 140.368 3.6696
4.75181 143.289 -7.5384
2.56164 139.093 3.95871
-12.9141 143.226 2.38946
20.8512 137.178 -1.0218
-22.0146 146.932 -1.63539
10.0675 137.228 4.74048
-0.487929 139.507 4.88443
19.6518 138.426 -3.14985
-20.588 144.189 4.597
14.7992 136.858 3.51562
1.5818 139.017 5.47667
-25.5746 146.542 1.86845
12.2014 141.278 -5.52329
0.300597 139.591 5.03617
11.6675 142.1 -7.17479
20.8474 136.321 1.9732
-20.8021 147.091 -1.73042
9.7991 138.024 3.90036
-1.68249 140.483 4.14155
15.9464 139.919 -3.94201
-17.3919 144.355 3.58662
20.5584 136.599 2.29758
11.0466 142.635 -7.20567
12.2326 142.206 -6.775
-24.5209 147.216 0.95117
-6.23182 146.212 -6.44878
-12.8321 147.122 -5.05158
15.7526 140.248 -3.63043
10.8551 142.849 -7.26699
-7.19211 142.936 2.39579
4.49161 140.255 2.68592
-20.8057 145.078 4.59194
-22.3083 147.68 -0.937854
-24.8504 147.201 1.64442
20.7442 138.394 -1.39499
-22.1335 145.781 4.0506
13.0493 140.909 -2.98432
14.807 140.46 -2.8031
-6.62388 143.149 2.24134
6.6944 140.487 1.60418
16.6889 140.49 -3.66137
-13.0161 147.617 -4.8964
-23.7287 147.868 0.28631
15.8606 140.697 -3.5584
-4.36584 142.782 2.37621
-16.7629 145.137 3.42165
8.5204 140.395 1.38712
-8.38988 147.588 -6.94412
16.8988 140.597 -3.38117
5.58071 140.83 2.23045
-14.0599 145.204 2.26623
-23.7685 147.021 3.11371
-22.7034 146.471 3.95638
-7.08615 147.423 -6.59795
19.29 137.596 3.18064
-4.21816 146.438 -5.5819
-9.21567 148.033 -6.7711
14.3744 141.019 -2.39103
9.77261 139.938 2.75511
1.90787 144.98 -5.09606
13.1935 138.782 4.21366
-19.7778 146.003 4.56615
-10.1983 148.498 -6.58909
-7.49851 144.329 2.14394
-13.6896 145.718 2.09942
0.444771 145.412 -4.77648
9.70183 140.354 2.5847
21.1651 139.064 -0.326608
-16.5643 148.016 -1.64813
21.4761 138.742 0.537852
12.7227 139.14 4.32035
-19.4331 148.518 -1.07044
12.2249 143.598 -6.10588
-15.3796 146.022 2.98118
-18.675 146.446 3.82441
-0.912784 145.933 -4.49188
-1.69777 142.964 3.27393
21.6611 138.703 1.188
-23.1773 147.829 3.15432
-9.77798 145.13 2.59084
4.32142 145.582 -6.06082
9.99461 140.589 3.08632
10.1092 144.762 -7.14239
-5.07859 147.592 -5.8052
3.78933 142.076 2.89425
17.7642 138.816 3.37475
5.32475 145.821 -6.68708
-9.23191 148.947 -6.41972
-14.0813 146.446 2.31742
12.5514 143.625 -5.18361
-1.79306 143.62 2.66439
10.0275 140.834 3.12001
0.309133 142.661 3.93202
2.93014 142.151 3.95777
2.80475 145.923 -5.17136
19.4634 140.815 -1.69291
12.6016 143.606 -4.72426
16.0098 142.141 -2.93314
16.9274 141.904 -2.81352
13.8379 142.114 -1.63552
19.3597 140.93 -1.72499
-3.8613 147.564 -5.343
-11.9184 146.107 2.59764
-14.3073 149.28 -3.74219
-0.531178 146.504 -4.38291
-19.6338 149.245 -0.647579
13.5 139.831 4.46275
-20.1711 149.388 -0.562612
4.70307 146.159 -6.01082
-17.5066 147.256 3.35863
20.9236 140.265 -0.222777
-2.73112 144.658 1.88668
-21.2714 147.942 4.28941
3.30343 146.389 -5.13444
-17.1989 147.568 3.18103
-0.313869 143.842 3.38327
-5.33999 148.732 -5.75334
-9.90039 149.834 -5.90067
-9.2293 149.717 -5.96884
-1.21944 144.764 1.84108
-14.1873 147.491 2.25472
-7.15052 146.251 1.73685
-15.9411 149.763 -2.07029
20.8015 140.165 1.60447
-19.5601 149.933 -0.152682
-6.78765 146.375 1.69787
19.6372 141.757 -1.28108
-8.23597 146.986 1.05466
-4.60185 146.007 1.68695
-20.0265 150.134 -0.0240966
-7.18622 146.692 1.46129
-15.9772 150.136 -2.0395
-15.7194 150.199 -2.22302
8.74976 146.705 -6.69909
-21.713 149.876 2.14348
14.6573 143.31 -1.45732
-9.57366 150.366 -5.56975
-19.7836 148.543 4.5425
8.43659 143.703 1.13512
-6.06162 146.772 1.57196
2.83729 143.506 4.75255
12.0792 141.976 3.63571
13.4346 143.94 -1.88634
18.8426 142.671 -1.57815
-16.1952 150.617 -1.76038
-11.7765 148.158 1.87077
9.2689 143.838 1.25912
10.5754 142.776 3.32076
7.08814 147.436 -6.16434
11.3071 142.594 3.3981
-20.8147 150.725 1.16434
-17.2288 150.76 -0.791443
5.44982 147.737 -5.63606
3.689 144.366 3.81714
20.4331 141.681 1.42104
12.9056 145.056 -2.74462
-11.1687 148.643 1.68848
12.0183 145.998 -4.31525
-18.1687 150.963 -0.0869474
9.42961 144.339 1.31699
11.3305 146.656 -5.32351
14.1369 142.214 4.02587
-19.459 151.188 0.69873
16.2808 141.788 4.37802
9.39978 147.674 -6.23394
7.44305 148.024 -5.94698
-16.9648 151.46 -0.790199
-10.5562 148.949 1.97057
16.6006 142.186 4.19566
3.82397 145.652 2.64284
-11.6168 151.835 -4.07003
-6.24816 151.102 -4.97374
11.3375 143.852 3.33221
2.78363 145.425 4.1488
2.83444 145.462 4.08046
-17.9065 150.338 3.4666
