ply
format ascii 1.0
comment Created by Open3D
element vertex 1939
property double x
property double y
property double z
end_header
-13.7421 94.6155 13.7323
-25.2347 128.668 -2.26913
-25.9847 129.308 -1.32677
-26.8659 123.581 7.57241
-19.1219 105.405 12.6985
-28.0112 127.345 5.51573
-7.14421 84.4172 12.02
-25.6224 120.715 8.4141
-8.80064 87.1052 12.4979
-18.2427 120.571 -7.46344
-13.5777 113.573 -9.15865
-26.9381 124.643 6.65172
-23.4236 128.194 -5.33911
-32.4189 138.619 1.70996
-25.0387 119.12 9.29138
-15.3311 97.9459 13.8226
0.768239 90.4317 -12.2105
-22.6501 127.286 -5.73211
2.13359 86.943 -10.936
-33.8408 140.152 3.1769
-21.2746 109.559 12.8626
-34.7016 139.398 6.00984
-26.6299 123.228 8.03977
-21.7097 110.388 12.9538
3.2618 84.4843 -10.1692
-25.4471 118.396 11.4903
0.00795982 92.3766 -12.4273
-27.995 128.932 4.53558
-28.6984 129.783 5.0661
-24.8068 128.832 -2.10257
-20.7711 109.308 12.7642
-15.0044 98.1971 13.7942
-33.682 137.92 6.52193
2.47743 87.1314 -10.8075
-28.4309 129.72 5.17494
-0.838738 75.3813 10.8071
-21.8106 111.369 13.0036
-18.548 122.011 -7.03322
-4.03297 100.675 -12.8003
-31.1195 137.531 1.72924
-7.8428 86.8505 12.3892
4.65514 82.0541 -9.10811
-21.2055 110.479 12.9501
-4.86112 82.2788 11.5151
-16.497 101.789 13.2798
-19.7887 124.157 -6.65088
-30.3779 132.079 6.94237
5.32223 79.8964 -7.70156
-17.3755 120.578 -7.40258
-0.295355 94.2875 -12.7645
-24.9688 130.34 -2.55398
-0.060884 93.7334 -12.5675
-24.9469 117.868 12.5676
-2.87447 79.3235 11.1342
-3.35534 80.2133 11.166
-21.0607 126.308 -6.0488
-24.8305 129.89 -2.13459
-26.7716 133.662 -2.46501
-25.1656 130.495 -2.10123
-26.3864 123.541 9.00955
4.4613 83.2334 -9.49208
-26.7754 134.452 -3.28833
-17.6285 121.252 -7.16967
-27.4226 128.433 5.57345
-23.4702 129.629 -4.49932
-12.7793 114.242 -9.10354
-12.9319 114.491 -9.0333
-33.2039 138.428 6.25171
-22.5262 128.593 -5.13858
-28.7527 136.339 -0.903933
-5.06177 103.235 -12.5074
-33.6104 139.283 6.20059
-21.4388 111.774 13.0008
-32.1394 135.805 7.24391
-26.7001 126.621 6.52466
-15.6188 118.642 -7.96174
-4.31317 102.132 -12.6346
-28.2284 136.26 -1.75306
6.89868 76.6314 -6.01337
-4.87667 103.219 -12.5197
-17.7529 105.773 12.5552
4.60502 83.673 -9.47043
-28.2077 129.949 6.20551
-11.0931 93.3947 13.1486
-11.6796 94.4334 13.2711
-10.435 92.0835 13.4534
-19.2047 108.64 12.5412
-17.9383 122.365 -6.81502
-9.83024 111.68 -11.5251
-1.3208 77.893 11.0204
-20.467 126.467 -6.05969
-2.92738 100.68 -13.0298
0.659965 93.6333 -12.3182
-9.65675 111.662 -11.6375
-30.3763 137.997 1.78794
-4.29184 102.932 -12.6055
-29.7393 137.569 1.09188
-13.3677 115.957 -8.41332
7.49593 75.8453 -5.15355
-26.7693 127.437 7.24956
7.31075 76.7101 -5.6804
2.07663 91.0922 -11.6368
-30.4241 134.254 7.30957
-31.7668 137.79 5.96191
-27.5828 129.837 6.48146
-22.9425 116.28 12.8315
-15.4053 102.525 13.0607
7.37835 76.9756 -5.65713
6.62279 79.1768 -6.62014
-13.4432 98.8311 13.4148
-15.1238 102.087 13.1666
-16.9922 106.225 12.411
-9.05201 91.148 13.3608
-32.5651 141.104 4.15647
-25.9276 125.397 8.73318
0.992863 94.2448 -12.2833
1.02578 75.3796 10.5355
-32.7709 140.322 5.62935
-7.42255 109.269 -12.0051
-28.6 137.307 0.278605
-24.3235 119.802 12.3195
0.81027 95.0858 -12.565
-22.5729 130.283 -4.12733
-25.7953 135.563 -3.47952
-29.2552 132.951 7.3827
-22.1916 129.429 -3.75031
-2.38108 81.3122 11.33
5.50177 83.4345 -8.42941
-25.796 125.514 8.94872
-32.5048 141.084 4.75681
-0.64405 78.4982 11.0663
-25.7575 124.797 9.80835
-27.5651 130.34 7.07849
2.8208 90.656 -11.1397
-28.9801 137.926 1.02471
-24.0795 132.405 -2.96498
-31.6662 141.343 2.79253
-23.9031 132.057 -2.90503
6.34901 80.9148 -6.94992
-30.5271 139.184 2.97069
-23.8064 131.758 -2.69892
1.15423 94.7931 -12.3573
5.60623 83.5268 -8.34886
-24.0929 131.888 -2.06724
-19.2526 126.427 -6.0142
-26.633 129.233 6.84808
-28.4062 132.09 7.33215
-24.0533 132.115 -2.12613
-27.0808 130.01 7.12242
-11.1378 96.3888 13.0661
-20.1854 128.289 -5.7843
1.63288 94.1383 -12.0219
-10.5605 95.6169 12.8553
-16.9653 107.573 12.3744
-8.36297 91.7755 12.886
-31.4909 139.93 5.04137
-4.59142 85.3314 12.5076
-30.8889 138.557 5.44031
-20.8682 128.927 -4.77764
-11.3721 97.2274 12.9476
-31.8985 140.769 5.02547
-27.8408 131.79 7.18779
-19.9042 112.838 12.8515
-13.4549 118.097 -7.61658
-20.8934 114.42 13.1292
-26.7464 137.196 -1.68654
-27.5638 131.433 7.13775
7.1816 80.1425 -6.49126
1.90376 75.6002 10.5668
-13.2413 117.949 -7.60665
-10.5502 96.2963 12.7985
-17.5747 109.157 12.5523
-27.0007 131.16 6.46436
8.28283 77.0034 -4.93893
-15.4461 105.425 12.4939
0.299192 98.3048 -13.2643
4.79898 87.3094 -9.68062
8.47589 76.4597 -4.54039
-14.1434 102.92 12.9701
-24.7077 123.117 11.58
-19.7531 128.281 -5.4912
-5.0548 86.9418 12.5588
6.64115 81.9573 -6.93323
-23.6586 132.752 -2.31776
-27.1735 131.448 7.06554
-7.59223 91.1843 13.1247
-18.1717 125.76 -5.65142
-19.57 128.121 -5.44905
-16.4938 122.938 -5.88295
-26.4551 137.426 -1.62539
-0.299611 100.112 -13.4947
-28.3531 138.607 1.2093
-13.5225 102.151 13.0945
-25.7677 128.568 7.85692
-6.2264 109.833 -12.0546
-7.12246 90.3363 13.5866
-2.04504 82.7914 11.6524
0.527932 78.8729 10.9874
-20.4372 129.419 -4.45044
-22.7903 119.369 12.9466
-30.6346 140.451 4.65164
-8.11749 93.6649 12.2225
9.14096 75.7597 -3.63931
-6.67938 90.1197 13.6094
-5.18882 88.1527 12.7456
-3.29983 85.0889 12.4483
-23.3568 133.761 -2.7268
-29.2136 139.734 2.85178
-27.9749 133.709 7.46216
-10.477 115.499 -8.67777
-25.3975 130.016 6.33511
-7.8359 112.713 -11.0214
-3.35744 85.3337 12.485
-25.1648 129.308 6.80685
-23.3173 133.114 -1.77934
-20.5446 130.325 -4.29494
0.255361 80.1996 11.0881
2.62323 94.7379 -11.7066
-24.8017 136.522 -2.27226
-25.0343 129.078 7.29922
-26.7425 138.503 -0.338213
-5.25101 109.713 -12.3802
-23.3806 133.732 -1.87316
-29.1319 140.033 3.07313
-15.1104 122.109 -5.80583
-28.6319 139.73 2.44588
-23.537 135.301 -3.29579
-23.1472 134.272 -2.83661
-22.4656 120.095 12.8895
-25.0436 127.354 9.72345
-29.1467 137.846 5.97304
-27.9046 134.46 7.45376
6.7014 84.5116 -7.50963
-16.7897 124.922 -5.16547
-29.3911 139.318 4.92773
-18.5899 127.946 -4.87205
-27.4425 139.78 0.139535
-29.0198 140.259 3.12722
-26.0793 138.537 -1.20767
-26.7751 139.651 -0.886565
8.16426 80.7281 -5.7694
-28.0863 135.21 7.39287
-24.9306 127.601 9.75719
-16.438 109.905 12.68
-29.1519 140.51 3.41771
6.36107 86.2812 -8.41335
-28.7478 136.799 7.05874
3.02066 76.5099 10.7763
-28.7259 140.242 2.85127
-4.88732 109.909 -12.4132
-23.9176 136.129 -2.60621
-26.1042 132.318 6.80559
-22.9645 134.577 -2.74147
-3.03181 85.9774 12.6608
-5.66422 110.955 -11.8444
-5.02472 110.199 -12.2668
-22.7587 134.767 -3.18692
-15.2488 123.233 -5.45685
-25.0853 138.299 -2.21575
-24.4164 137.494 -2.65186
-28.9158 139.374 4.90279
-24.5886 128.202 9.02178
-2.37513 106.388 -13.0102
-24.9332 138.281 -2.38801
-19.9083 130.983 -4.48822
-4.56201 109.922 -12.474
4.84204 91.0567 -10.1416
-24.6836 127.743 9.89511
-3.57448 87.2639 12.8697
-19.9174 130.967 -4.40565
-28.372 136.915 7.04117
-30.2615 142.635 4.24892
-17.7271 127.389 -4.64309
-9.19503 98.343 11.9812
-24.1688 137.855 -3.1649
-10.1433 116.765 -8.21537
-9.48289 98.905 12.03
-24.9397 138.918 -2.71381
-23.1672 135.281 -2.15285
-22.6412 122.018 12.8163
-22.6394 135.24 -3.2148
-25.2576 139.426 -2.56451
-20.7707 118.701 12.8305
8.80392 80.3908 -5.31642
5.42057 90.265 -9.79007
-13.2885 121.004 -6.10838
-0.971509 104.849 -13.4137
-27.5154 141.273 0.503881
2.49225 97.6609 -12.1271
-23.9945 130.539 6.00516
-3.53777 87.9249 13.0208
-3.22883 87.4841 12.9737
3.36752 77.308 10.9149
-25.5506 132.999 6.63319
-19.7329 131.583 -4.28959
-24.3272 131.661 5.70178
-29.3974 141.62 4.71767
9.03346 80.552 -5.14393
5.15476 91.5603 -10.019
-12.4765 104.449 12.8882
-24.07 127.204 10.6756
-9.28332 116.879 -9.1042
-12.2519 104.164 12.8253
3.3072 77.6609 10.9775
-14.0593 107.663 12.5398
-23.627 130.181 6.24088
-12.9609 105.645 12.6996
-28.3783 141.255 3.21646
-25.8287 134.107 6.32451
-15.3248 109.958 12.7041
-27.8611 137.94 6.17657
-17.8691 128.599 -4.17389
-5.35585 112.184 -11.5716
-23.171 137.224 -2.96591
-18.609 130.283 -4.42783
-14.5728 123.7 -5.25366
-27.5177 141.911 0.951813
9.03391 81.0763 -5.11748
-23.075 125.147 11.6075
-18.5542 130.647 -4.9314
-26.4126 135.128 6.86166
-28.7075 140.737 5.10007
-11.192 103.217 12.3658
-18.4863 129.899 -4.00837
-8.03847 98.3159 11.5806
-18.2922 131.367 -6.01847
-29.304 142.025 5.13183
-22.8457 137.389 -3.33319
-9.17598 100.174 12.0359
0.0288253 104.581 -13.3957
-12.3325 105.323 12.7579
-1.82021 86.3206 12.8977
1.52114 81.7517 11.1735
-19.3235 131.991 -4.14362
-29.2122 142.079 5.27893
-22.6303 136.988 -2.93017
-26.403 135.505 7.12701
-1.5315 107.023 -12.5532
2.24634 80.6599 11.2064
-27.4378 142.494 1.23391
-9.78864 118.14 -7.78162
2.96036 98.9201 -12.2818
-22.5514 124.735 12.2149
-23.1216 131.032 5.85588
5.16612 93.3568 -10.2634
-10.6558 103.374 12.2576
-21.0693 122.062 12.4144
-27.7762 139.8 5.61173
-4.20824 90.8082 13.5572
-17.7324 129.933 -4.32316
-4.7247 92.5299 12.6798
-0.637041 85.4214 12.4394
-9.45997 118.22 -8.05759
4.88637 76.8962 10.7206
2.97247 99.4432 -12.3799
5.23331 93.6766 -10.2691
-18.3993 131.49 -4.46849
-22.0621 136.42 -2.42913
-17.9262 116.513 12.779
8.0456 85.5163 -6.35712
3.59845 79.0467 11.2409
-8.63285 117.912 -9.15987
8.30769 84.9689 -6.17784
0.797345 104.379 -13.2884
-15.84 126.81 -4.12847
-25.5784 135.46 6.69771
0.712451 104.673 -13.3167
-26.9006 142.785 0.837778
-22.6093 127.996 9.54089
7.72922 87.203 -7.26862
-25.6192 135.655 6.84618
-0.359492 85.6283 12.3961
-13.6101 123.936 -4.9937
-28.606 143.208 4.42934
5.28685 94.3034 -10.2691
-6.53485 98.0391 11.0939
1.31987 83.6711 11.3801
-1.08007 107.48 -12.2425
-13.6041 109.637 12.5359
0.188407 85.1912 12.1291
11.9555 75.1797 -1.21794
9.79411 81.1596 -3.73911
-26.8364 139.545 5.49564
-0.277155 106.649 -12.6346
7.9134 87.5966 -7.37662
6.26878 75.8623 10.4793
-21.9456 137.418 -2.51751
-13.2234 123.824 -5.02883
-22.1271 125.504 12.4016
-21.9426 129.103 7.66139
-23.8607 133.629 6.55505
-12.872 109.154 12.3645
-1.62682 88.1803 13.2301
-10.6514 120.813 -6.5732
-9.794 119.749 -7.09364
-26.0744 137.753 6.67342
4.7975 96.6333 -10.7671
-5.616 97.3827 11.1095
11.8878 76.7264 -2.06686
9.84898 81.8576 -3.80068
1.26397 84.6077 11.6438
-2.31453 89.6761 13.4234
-22.5304 132.079 6.18442
4.71812 78.94 11.1498
8.09471 88.7806 -8.09022
-7.80145 101.167 11.6659
-5.48294 97.5639 11.0454
-21.8424 128.006 9.93347
-14.8534 113.024 12.8604
9.98924 81.7757 -3.51612
-1.37101 88.4579 13.2401
4.23577 79.9544 11.3774
-14.7016 126.751 -3.96754
9.39336 84.266 -5.06195
-21.312 137.743 -2.78352
11.2106 79.2353 -2.85415
5.83735 94.7646 -9.88473
-0.888964 87.9875 13.1001
-27.5793 144.337 3.14531
-2.72701 90.998 13.5409
-17.3175 118.132 12.5285
-16.464 116.537 12.6065
10.1817 81.6355 -3.16661
-8.07749 102.452 11.5548
-16.615 117.039 12.5889
1.41338 105.419 -12.7015
-16.0216 130.438 -4.93084
-2.90376 91.9393 13.12
-4.68047 96.8178 11.0969
-25.6475 143.549 0.284405
-21.6116 128.061 10.2557
-2.84115 91.8437 13.1862
7.67174 90.6611 -8.30833
5.91366 95.1122 -9.84967
-8.9269 103.837 12.032
2.64587 102.952 -12.1309
4.10662 81.0156 11.363
-21.8147 131.556 6.70569
4.50185 99.086 -11.3993
-15.8657 130.242 -4.6781
-7.35148 118.867 -9.40164
-28.0577 144.67 4.6135
-2.5547 91.78 13.2369
3.69243 101.498 -12.1967
-0.310733 87.9366 13.0112
-9.31184 120.619 -6.95438
-15.7586 130.787 -5.08547
-15.8597 131.649 -5.90904
-15.8723 116.522 12.4881
-23.5088 141.551 -1.14658
10.4658 81.7683 -2.80912
8.30774 75.0335 10.1314
-0.0616758 108.426 -12.0544
-13.3203 111.862 12.7747
-12.2004 124.454 -4.91778
-0.05607 87.858 12.9598
6.08015 78.7857 10.6057
-14.0542 127.024 -3.88061
1.82477 105.431 -12.3601
-20.2988 137.437 -2.80322
8.15059 90.3827 -7.89787
-3.21684 94.7509 11.6874
-27.9825 143.823 6.45369
-22.7494 134.206 6.68773
-2.54453 93.4117 12.2467
-2.18701 92.232 12.945
-2.244 111.813 -10.6195
-10.6442 122.963 -5.75549
-9.18245 105.578 12.181
-16.5734 118.86 12.3006
-14.9031 115.855 12.3603
-8.97185 105.379 12.1151
-26.0806 144.402 2.26473
-12.2132 110.951 12.6292
-12.9668 112.289 12.674
-25.3759 140.371 5.85635
-26.9952 145.364 3.37425
-14.3702 128.425 -3.5997
-20.6524 139.252 -2.85783
7.03771 78.6264 10.4022
-20.9346 128.831 10.6956
9.01329 88.5021 -5.71407
-20.4899 139.508 -3.00034
-5.09076 117.328 -9.70224
-20.4159 138.992 -2.48396
-8.23087 120.996 -7.23696
-17.9165 135.47 -3.62336
-1.65413 92.7757 12.6603
-15.4817 133.287 -6.17757
-20.3753 139.456 -2.88581
-22.53 135.578 6.60266
-24.9258 144.803 0.687001
-14.258 129.278 -3.77711
-20.3815 130.625 8.02072
-20.9267 132.267 7.32142
10.2744 85.4779 -4.09221
2.50139 86.4862 11.7304
8.23772 92.3145 -7.86139
-2.77827 96.8108 10.8617
-1.56527 93.3224 12.475
-20.9847 132.783 7.06507
7.93635 93.4892 -8.47421
-20.0247 127.139 11.8393
10.9745 83.0684 -2.43172
-16.3583 120.229 12.259
-6.37639 120.036 -9.26753
-25.0713 145.012 1.31543
8.18001 77.766 10.2204
-13.2898 127.899 -3.56514
-23.7163 138.417 6.47068
-20.8609 132.669 7.22156
-4.97956 117.86 -9.46758
6.94363 96.3083 -9.3529
0.521653 110.096 -11.9816
-17.8837 123.397 12.1485
-21.3396 141.026 -1.67109
-5.58797 102.482 10.7071
-25.6986 145.521 2.59159
-10.6695 124.623 -4.89706
3.52167 85.4744 11.6152
4.74695 83.4057 11.466
9.16873 90.1947 -6.40823
-21.0036 133.76 6.71704
5.83342 81.6004 11.3575
-26.8898 145.571 5.37295
8.32036 93.2941 -8.0807
9.98944 75.6469 9.71659
-0.680167 92.0051 13.3272
-23.1506 137.866 6.85022
-7.87321 106.428 11.6471
-13.31 115.804 12.1742
-12.5647 114.417 12.2712
-8.26311 122.422 -6.62833
-5.78869 120.271 -9.27294
-14.0744 131.204 -4.35156
-15.7045 135.087 -5.47566
-23.3524 138.636 6.94926
-17.7251 124.446 11.9336
-5.33274 103.492 10.2972
-23.9013 145.036 0.499489
-1.19398 94.5983 12.0596
-25.679 142.954 6.92118
-1.06903 94.2131 12.3106
-5.23829 103.398 10.2997
5.97933 82.2622 11.4561
6.92451 81.1468 10.754
-3.63503 116.534 -9.07159
-13.4217 116.649 12.2026
-15.1996 119.842 12.2281
-1.33289 95.4423 11.5623
-25.9811 146.325 3.72562
-7.45939 122.164 -7.39011
-6.42051 121.37 -8.66246
11.5705 83.6495 -2.02075
2.5502 88.2315 12.242
-5.00164 119.448 -9.12351
8.98676 78.7419 9.75186
-25.9244 146.438 3.9327
3.06744 106.79 -11.2293
5.29865 83.9876 11.5604
9.6062 90.5717 -5.82649
11.3902 84.6994 -2.59772
-14.3225 118.875 12.2007
-1.19626 113.549 -9.93009
-1.56841 97.1501 10.893
-18.736 127.533 11.5591
10.0488 89.1516 -4.64715
8.0675 80.7089 9.93593
-8.20129 123.512 -6.40978
5.90954 83.3475 11.5298
11.4205 85.2018 -2.7512
9.23756 79.0479 9.53305
-23.3735 139.878 7.05019
-18.3815 127.166 11.6132
10.3581 77.421 9.20961
-0.701952 95.1401 11.9169
-5.96592 121.588 -8.56733
-19.4057 132.472 7.73769
-0.885652 96.0836 11.4161
-3.66301 102.17 10.18
3.03789 88.4957 12.1649
-14.0354 119.287 12.212
2.57892 108.783 -11.3318
-12.5958 116.827 12.1124
-23.0433 145.411 0.348914
-18.9393 129.647 10.5108
5.85669 102.987 -11.1747
-15.4818 136.492 -5.14059
-12.879 130.979 -4.12103
-8.45818 124.39 -5.71053
-16.3718 124.069 11.984
7.92697 81.5415 10.4696
15.2886 75.5887 1.62774
6.39791 83.5912 11.4341
-23.3286 140.69 7.27135
-15.1454 121.786 12.3686
1.53473 91.0492 13.2178
-22.9381 140.022 7.49076
-18.9993 132.905 7.5732
7.04049 100.503 -9.9426
-3.79993 118.922 -8.53434
-7.09941 123.689 -7.00858
6.61266 102.019 -10.6068
-16.1964 138.604 -5.04624
9.19984 94.6671 -7.19391
-0.121799 95.8541 11.7588
2.10648 111.092 -11.5924
-13.5455 134.895 -6.19903
-25.253 146.004 5.92829
-5.73222 107.388 10.1724
14.7825 78.6181 0.235412
-14.2521 121.01 12.2859
5.17954 86.4165 11.799
-11.1881 128.547 -3.49272
-13.0363 133.543 -5.44752
-6.98288 123.841 -6.87496
-3.20198 103.303 9.80833
-22.857 146.327 0.58751
-10.7934 127.954 -3.46492
-22.4304 140.06 7.3829
11.8317 86.6327 -2.68571
1.22799 113.145 -11.5814
-17.8502 130.069 9.60469
-14.3723 121.737 12.1503
-17.9264 129.83 10.1184
-17.9129 130.68 9.10965
4.70215 87.7536 11.7587
-18.0847 129.459 11.0544
-21.2368 138.355 7.18314
-21.3565 138.547 7.24231
11.8957 77.2428 8.95482
12.0824 86.2199 -2.34086
7.12455 83.9006 11.3583
14.3777 80.4825 -0.343954
-5.1483 107.32 9.79347
-24.139 143.378 7.6314
-8.57017 125.781 -4.8649
-19.5115 142.903 -1.64764
0.174189 96.4731 11.6714
-18.9825 135.705 5.96129
12.1071 77.2384 8.94661
-0.0769083 114.75 -9.91779
-5.58589 122.967 -7.80731
-23.6119 142.882 7.43323
8.43251 82.4555 10.7658
3.57808 109.252 -11.1189
8.25525 82.6578 10.933
-3.70619 105.527 9.37832
-18.2629 142.402 -3.50546
13.0166 83.161 0.0304992
-17.4529 128.552 11.6007
12.6111 85.0412 -1.2972
7.5899 101.4 -10.0228
-0.21025 98.5367 10.5468
-11.0214 129.684 -3.61054
-18.3237 142.71 -3.28723
-16.7302 127.499 11.7
-8.18845 112.41 11.4845
-0.852775 100.642 9.75044
1.03566 94.7304 12.8169
-6.41988 110.053 10.5485
-3.88705 106.613 9.22604
-9.13006 113.975 11.8005
-1.1349 101.515 9.48009
2.67717 111.973 -11.5351
6.46463 104.622 -10.8945
12.899 84.5532 -0.524457
8.53818 99.3532 -8.89841
10.4126 92.7965 -4.97138
6.76599 104.237 -10.8344
10.803 91.4569 -4.14586
1.73245 113.861 -11.4512
-23.8766 147.603 3.60506
-12.4119 120.007 12.0295
-10.1199 128.751 -3.58564
5.16468 107.038 -10.6267
9.52396 82.1484 10.0788
-13.922 137.675 -5.89086
-15.4868 139.894 -5.16163
-17.4562 132.152 8.5865
14.0962 82.3578 0.0455218
-17.5192 132.44 8.46663
-24.0502 147.39 4.75345
-17.7262 133.281 8.05996
-5.69138 109.972 10.0738
-12.3083 134.986 -5.7751
-6.87966 111.511 10.8686
4.65011 108.68 -10.8872
7.46665 85.1868 11.4707
3.44583 111.248 -11.3278
-13.4355 137.387 -6.12942
0.222855 99.1994 10.3922
-23.716 145.388 6.74506
3.21172 112.037 -11.5627
-4.3215 122.672 -7.99574
1.09698 96.2573 12.2115
-10.954 131.489 -4.1487
-16.6442 129.927 10.3561
-17.7815 143.398 -3.49344
-0.402502 101.322 9.59587
-6.99556 126.069 -6.00655
-3.92946 108.129 9.08316
7.46524 85.5949 11.5254
-12.5792 136.19 -6.03908
2.11207 94.0913 13.005
-16.7189 142.484 -4.53843
-17.348 133.212 8.09824
-0.373717 101.503 9.54698
16.5792 76.2789 3.11091
15.8409 78.3333 2.23704
-2.04876 119.092 -8.09341
-19.054 138.236 5.89547
-6.58009 125.652 -6.09747
15.1682 80.4319 1.22791
-8.68978 114.911 11.5733
-9.68716 116.517 11.8077
-14.9196 139.922 -5.14266
9.27997 99.0901 -8.48485
0.370304 99.7843 10.1599
-10.7996 131.63 -4.0607
13.5736 83.8405 0.718766
10.456 94.939 -5.92336
-2.92552 106.879 8.84533
-23.48 145.826 6.53713
-9.40113 128.919 -3.63738
-16.9233 132.612 8.33406
-2.34737 105.996 8.83096
-10.0597 130.222 -3.67983
10.8224 93.7279 -4.94419
-21.7707 147.825 0.681052
-14.8205 126.284 11.667
-19.0757 144.494 -1.11634
7.75291 103.837 -10.391
-17.1655 134.393 7.0272
12.6314 88.3176 -2.13137
9.06876 84.016 10.9015
4.52882 110.535 -11.1934
-17.4248 143.895 -3.63913
-5.45197 111.128 9.95968
14.6224 80.1962 3.70292
-1.83012 119.395 -7.88808
-22.3457 143.768 7.46214
14.8826 79.6304 3.93862
-10.9739 119.793 11.7355
-18.7831 144.617 -1.2212
15.2579 79.5608 3.3669
-19.788 139.687 7.08259
16.3347 77.6201 3.44976
9.96436 83.2949 10.4913
15.4927 79.3024 3.27151
2.86121 94.072 12.9956
-15.5736 128.987 10.9667
16.1998 77.3548 4.17786
-10.7908 119.805 11.7208
1.32831 98.5777 10.9925
16.7716 76.8026 3.65761
1.25996 98.8196 10.8634
3.9075 92.5479 12.6984
8.41814 103.096 -9.9579
5.26186 90.5093 12.2232
15.9428 77.565 4.60878
-4.44207 110.517 9.19691
9.59591 83.9697 10.7425
7.81349 104.584 -10.3439
-17.3107 144.155 -3.41626
13.6342 85.1948 0.477696
11.5275 92.5998 -3.75461
6.70518 106.79 -10.4149
16.8038 76.6868 4.06699
-10.0182 131.384 -3.63416
10.3107 97.7199 -7.13388
-10.9637 120.564 11.7075
-20.8108 147.808 0.2379
12.3189 90.5524 -2.68623
-13.7513 139.52 -5.10449
14.0958 78.815 7.67945
9.35993 100.737 -8.45631
-18.8602 145.392 -0.858701
11.1739 94.7909 -5.07985
-21.2707 148.437 0.802964
0.0954189 103.077 9.15514
-14.7132 141.567 -5.17283
-17.5721 137.83 5.65132
-14.4043 127.221 11.623
13.6911 80.2562 7.20385
-9.46178 118.4 11.6553
5.64573 109.943 -10.986
-9.75844 131.525 -3.488
15.1359 82.9893 0.983884
0.967546 117.548 -9.92275
10.2842 98.6819 -7.39136
-5.47717 112.868 9.96054
15.6437 76.6635 7.76986
-16.3068 134.457 7.49811
14.8921 82.0731 2.98041
14.9348 83.4571 1.24349
-15.2942 130.795 9.90508
-4.50362 111.926 9.21814
8.83305 103.633 -9.79346
-5.07285 125.621 -5.85497
-19.5591 141.219 6.9503
-21.3741 144.294 7.3011
14.6512 84.1188 1.61259
15.6917 78.8929 5.80427
-16.2904 137.317 4.84264
6.64002 108.449 -10.1925
13.6083 88.4937 -1.15879
16.264 76.7566 7.31583
14.7706 82.5901 3.52884
13.8396 87.586 -0.496684
8.25016 105.617 -10.1422
9.70056 100.953 -7.59849
5.70905 91.8735 12.1444
11.9501 83.2719 8.95941
0.0860704 119.14 -8.61149
-16.9633 145.49 -3.19989
13.4307 89.2963 -1.44443
11.1313 84.0311 9.97473
10.9019 97.8778 -6.28876
-5.64884 114.315 10.0829
-22.2461 148.381 5.14468
7.20062 107.926 -10.0662
0.84407 103.678 9.03272
14.4556 80.5582 7.39787
2.84997 97.4842 12.2759
2.1988 100.104 10.5394
-4.37644 113.194 9.10818
-2.38659 122.853 -6.93909
-16.5052 138.179 5.37602
-7.01622 116.753 10.6516
15.6567 78.6401 7.34508
4.15287 94.8999 12.7669
-21.2649 149.329 2.29797
1.66941 118.04 -9.82542
-18.0204 140.769 5.64709
-21.9313 148.789 4.50037
12.8749 82.685 8.67974
-5.48343 114.823 9.92764
-17.2389 145.658 -1.73789
-19.5269 148.333 0.061623
-0.00546851 119.769 -7.94956
-3.36582 124.945 -6.88265
14.3632 83.5694 4.65561
-13.652 142.23 -5.27306
-6.65863 116.697 10.4739
15.4402 83.078 2.97711
0.583155 105.201 8.65594
4.57552 114.245 -10.8872
7.92885 89.6963 11.5946
-17.226 146.051 -1.68938
-5.91194 128.521 -5.09325
-21.3213 146.57 6.78196
12.3383 94.2366 -3.23442
-20.7899 149.638 1.98438
-11.8348 139.755 -5.56222
0.205562 106.582 8.3711
4.52463 95.4326 12.5181
-7.07351 118.129 10.4721
14.4459 83.9985 4.86876
13.525 90.9182 -1.47791
2.94297 99.4026 11.3812
-10.1037 123.276 10.9745
-12.7886 127.997 11.1271
-0.741714 121.294 -7.00837
4.23547 115.296 -10.5631
14.6379 82.7044 6.32434
-2.41083 111.971 8.08412
-18.0158 142.346 5.34932
-11.8737 140.168 -5.40278
8.4061 107.361 -9.88156
-14.4998 144.177 -4.44117
-14.9694 145.111 -4.51252
13.5303 91.3547 -1.4744
-14.8331 134.268 8.50839
-15.4382 138.195 5.1262
14.5546 84.0636 5.25432
12.821 93.4567 -2.34773
14.0269 89.89 -0.623623
14.6135 84.5899 4.56159
-16.6773 140.821 4.74738
11.1058 85.8273 10.7588
-17.7128 147.137 -0.614554
14.6954 84.6014 4.45417
15.0775 85.6677 2.4223
-16.9335 146.77 -1.65955
-3.6248 114.45 8.50998
14.8592 87.1794 1.23925
-13.4798 130.672 10.4726
1.57209 119.453 -8.78692
12.5707 84.5412 9.54179
15.0841 84.7635 4.00798
-17.187 142.738 4.22185
14.1655 89.9634 -0.243673
14.243 89.5027 0.217771
6.28302 113.134 -11.0141
11.4382 86.0957 10.7186
-13.7962 132.871 9.18207
7.0473 92.9912 12.0896
2.8852 118.583 -9.82932
1.57855 119.708 -8.24246
11.1731 100.009 -5.29114
-14.0952 136.047 6.23497
-8.95841 135.417 -4.19495
14.4118 89.4551 0.552974
-12.4513 129.321 10.9289
-8.31106 133.352 -3.0069
-19.1023 149.781 0.747897
1.08466 120.102 -7.36892
-12.3302 129.281 10.8816
-18.6958 143.971 6.98213
-14.641 137.884 5.51729
12.9636 94.9281 -2.61991
14.9388 83.7602 6.63334
-1.65199 124.427 -6.42126
-16.1111 142.383 3.44044
-14.9253 139.013 5.01132
-14.2178 145.716 -4.66008
-3.5534 127.146 -5.33145
-4.05768 127.753 -4.95671
14.0876 83.7754 8.82319
5.12857 115.358 -9.83113
-7.65126 133.02 -3.32323
-15.3448 146.693 -3.07578
3.54386 118.128 -9.55272
-8.06227 122.365 10.7467
-14.421 138.117 5.63431
-4.98146 129.668 -4.73934
10.1567 105.637 -8.65691
0.0538261 110.53 7.50956
0.282214 110.096 7.60871
3.44874 102.745 9.76831
11.1484 87.9602 10.8891
12.5605 86.0538 10.1375
-10.8992 128.212 10.2796
0.841166 109.133 7.82823
-20.2377 148.872 5.70465
-12.2795 131.324 9.61474
0.967367 121.027 -6.83024
-13.3041 136.914 5.24383
2.61608 105.565 8.65871
2.15116 120.105 -7.93962
-1.63963 125.47 -6.12401
-8.67441 137.028 -4.73632
3.05296 104.617 8.96697
-9.55486 138.996 -5.15984
-9.80643 126.472 10.6519
6.21425 114.529 -9.8481
-5.96123 120.266 9.88251
9.1394 109.329 -9.69144
5.97495 114.915 -9.48519
-10.4714 141.234 -5.43661
5.75865 115.293 -9.34566
14.7724 87.0703 5.23338
-14.8149 147.449 -3.29718
-2.38308 116.102 7.60113
-14.616 141.267 3.84568
16.0023 86.5787 3.2726
1.77285 108.366 7.99141
6.61997 114.488 -10.0042
-5.81694 132.046 -4.07547
-7.40601 122.951 10.4466
0.454044 122.683 -6.37018
-17.1186 145.264 4.76882
2.74126 106.516 8.41111
-9.93444 127.916 10.1592
4.9819 99.4751 12.0806
10.1701 90.6622 11.4446
13.3066 96.8277 -2.86771
14.6217 87.6265 5.45539
13.2801 86.4769 9.79076
5.03602 99.5007 12.0916
14.8428 91.3163 0.625169
-18.0834 150.415 0.907366
-12.9399 136.319 6.94583
10.8712 104.954 -6.96645
-4.88643 119.992 9.25042
9.1219 92.8641 11.5737
-8.93048 126.304 10.4731
-13.7446 138.87 5.76244
15.3297 87.7406 4.35927
-10.1952 129.241 9.83212
14.9664 85.7599 7.68863
-19.0426 148.314 6.16305
-10.8407 130.466 9.9079
-13.7941 139.848 5.00383
-6.59011 133.734 -3.24376
-7.53328 135.683 -3.54693
-13.758 140.203 4.58064
10.513 107.284 -8.47355
10.3597 108.191 -9.19802
15.967 88.1987 2.82422
4.76513 101.954 10.6452
11.0036 104.8 -6.33111
-15.3163 144.76 2.78687
-17.2648 146.062 5.54721
-18.1563 146.697 6.72851
-19.0278 149.504 5.23534
16.017 88.4807 2.8434
13.824 96.4298 -1.99371
-12.0053 145.44 -4.90423
-9.65648 129.177 9.70791
-12.7811 146.77 -4.69971
-9.29412 141.033 -5.33139
-2.74082 128.669 -4.61897
11.4818 102.571 -3.98717
-2.3972 128.276 -4.83519
-15.6296 148.74 -0.725542
15.1988 91.8215 1.01833
-7.96769 138.28 -4.67516
-14.1472 142.251 4.03001
-14.6148 143.087 4.09751
-7.39369 136.902 -4.15009
-18.694 149.732 5.02071
15.0492 92.9746 0.354193
-16.3484 146.074 4.57199
4.07263 105.852 8.74679
5.51176 117.993 -9.05362
10.3849 92.6033 11.1351
7.14434 97.5239 12.2668
-13.7783 141.956 4.09642
10.047 93.2332 11.1874
-1.17923 116.923 6.98609
-9.91753 142.85 -5.27727
11.692 90.5518 10.9532
11.7405 90.496 10.9312
-7.0932 136.413 -3.59571
4.84407 104.164 9.46146
-8.09544 126.938 10.1489
14.021 96.8461 -1.63139
-13.0573 148.175 -4.70455
10.879 107.609 -7.74629
1.25883 123.543 -6.01469
-11.8032 138.365 4.58853
11.5959 91.0138 10.9452
15.0866 93.4731 0.37284
0.360923 114.648 6.94372
-10.1411 143.79 -5.40295
10.528 109.532 -8.85008
11.2473 105.699 -5.76949
4.84226 105.129 9.04906
15.0681 90.1257 4.95898
11.2106 105.979 -5.81671
-14.1823 145.031 2.3366
-0.44699 116.579 6.84487
-15.2177 146.196 3.23501
15.3773 90.1591 4.40686
-2.61467 119.962 7.62574
-17.5821 151.118 2.56663
-16.353 150.863 0.316607
-11.218 146.121 -5.14551
5.40481 103.585 10.1309
-15.7993 146.675 4.32711
11.5391 104.752 -4.53706
-4.88905 123.329 8.87846
3.10179 122.272 -7.29701
9.11078 113.778 -10.0796
-11.8842 147.531 -5.13579
4.57583 106.628 8.59377
-14.5029 149.514 -1.73344
-15.8269 150.556 -0.0956366
-5.02161 133.757 -3.2803
-6.37652 125.563 9.62448
-7.16077 126.823 9.86961
-4.16226 122.604 8.47549
-17.6079 151.232 3.22586
-12.7584 148.905 -4.53534
-14.3733 146.035 2.54673
-6.34829 136.05 -2.87454
-16.3538 151.211 0.615851
-9.49914 143.697 -5.2198
-8.83325 130.591 9.2454
7.03924 99.881 11.8937
-10.2566 134.643 7.55549
-17.5042 150.218 4.57772
-6.36497 126.063 9.54072
-6.1831 125.834 9.4741
8.33371 116.502 -10.8907
2.20433 112.929 6.96209
14.6193 89.5261 8.36769
-6.43367 126.547 9.50429
13.2687 100.479 -1.8867
8.40394 115.856 -9.89555
-15.324 150.625 -0.179015
-16.4255 147.478 6.13089
11.7384 104.73 -3.5201
3.37289 110.731 7.48809
-13.2217 142.997 4.62461
8.64656 116.033 -10.3557
8.56273 115.686 -9.73403
9.92699 113.041 -9.4853
13.8737 98.9908 -1.04761
-4.74515 124.463 8.75485
3.27129 123.444 -7.52094
-11.9891 148.916 -5.04225
4.33012 121.828 -7.83463
15.9884 92.1367 2.73919
0.559486 116.78 6.60527
-4.368 133.9 -3.2199
6.93655 101.256 11.8262
-16.1351 147.682 5.96674
10.134 112.997 -9.36157
-11.9715 140.403 5.79624
-5.07124 125.438 8.90705
6.33128 120.873 -10.4669
16.0732 92.1694 3.06898
11.4555 106.992 -4.77933
13.8505 99.6388 -1.05061
-4.46742 134.312 -3.03915
2.68716 113.263 6.88621
-3.90892 124.005 8.31063
6.82815 101.893 11.7537
15.5571 94.3206 1.90045
-3.34692 123.345 8.02579
1.40965 125.839 -5.35874
12.0763 93.4996 10.6221
-4.77407 125.428 8.73332
-6.16967 138.649 -4.20855
5.29646 121.705 -8.67592
11.4992 108.196 -5.79424
11.8869 93.9215 10.681
13.347 101.721 -1.94901
-7.47741 141.389 -4.54092
-9.69251 136.328 6.44688
-1.10635 120.615 6.75487
-1.03995 129.655 -4.34197
0.867896 126.911 -5.12403
5.81255 106.332 9.05335
15.7489 92.1001 4.61841
11.8333 105.775 -3.41248
-10.3256 138.543 5.29071
6.32007 104.589 10.103
-15.9783 148.669 5.4312
3.35262 124.247 -7.17678
7.81927 100.688 11.663
-11.6376 140.351 6.08261
-1.92121 121.937 7.18935
11.2049 95.4938 10.5917
1.99436 115.501 6.48358
12.7296 103.671 -2.49141
-15.3278 148.661 4.25328
-12.7032 145.773 2.08864
11.4021 95.3439 10.5931
-6.4875 128.685 9.41392
-13.1678 150.827 -2.84709
6.54356 104.697 10.1277
-11.1277 140.335 5.52262
-7.35898 130.581 9.14894
-3.22208 133.521 -3.43335
1.30828 126.772 -5.12075
0.15855 119.324 6.44803
13.5271 102.08 -1.7762
7.09258 102.734 11.5399
-8.98005 135.942 6.38552
-9.74926 138.049 5.56397
-1.45984 121.998 6.93658
3.03944 114.127 6.73966
-9.07092 136.494 6.18414
-15.5694 152.126 1.48623
13.6362 92.4137 10.1071
-15.9907 151.681 3.03646
-0.560663 129.98 -4.32072
-6.71304 141.22 -4.45117
-0.0500126 120.311 6.4105
11.0951 112.39 -8.3143
-2.03024 123.211 7.27848
0.970309 127.835 -4.86662
13.0943 103.724 -2.11232
-5.0664 127.553 8.72455
-13.794 148.353 2.65227
4.51359 111.488 7.41283
12.6211 105.087 -2.53243
-2.48661 133.27 -3.51946
9.47945 99.3958 11.4235
-6.44689 129.852 9.31309
-1.32553 131.609 -3.98225
12.1076 107.88 -4.50623
7.00706 121.957 -10.4223
8.12316 101.926 11.4781
-15.6125 151.798 2.86567
6.48448 123.48 -10.97
6.93762 122.318 -10.5097
14.333 93.0272 8.90335
14.5063 100.38 -0.222535
-7.72398 133.481 8.24244
-15.3525 151.891 2.67963
-15.1023 150.233 4.19328
-7.85791 134.585 7.36666
10.0742 114.878 -7.91608
-10.7306 150.007 -5.05227
-7.55234 144.05 -4.73768
-7.95137 145.057 -5.05722
12.9764 104.907 -1.98038
-12.0804 151.572 -3.80255
-6.95355 142.973 -4.55888
-6.34439 130.613 9.13839
3.2463 115.653 6.37471
-3.07467 125.895 7.87957
14.5534 93.4136 8.7619
15.2787 98.5841 0.96084
6.59028 124.086 -10.9617
15.1377 99.274 0.540228
5.90756 124.865 -10.329
10.9389 114.745 -9.02781
-3.63072 126.884 8.11129
-7.60553 135.192 6.85847
15.62 93.7002 6.49587
-3.16301 135.407 -2.98279
-14.0134 152.139 0.458296
1.24309 120.073 6.02637
-7.28954 134.143 7.66786
7.79949 104.231 11.0352
7.98103 103.585 11.4311
6.22159 124.859 -10.527
-5.55129 140.919 -4.2441
-3.45497 127.079 8.0158
-11.6188 144.285 5.01435
11.1176 98.1283 11.3288
-6.09478 142.14 -4.42282
15.6428 97.5098 2.31174
-10.1938 150.151 -5.0497
-3.51946 136.45 -2.97048
12.1997 110.675 -5.99771
-10.8839 142.233 6.23536
11.3027 114.126 -8.11943
-4.65291 138.762 -3.12501
-6.36614 132.302 8.64067
15.279 99.4261 1.23518
-11.3631 144.288 5.10308
-6.14745 142.779 -4.45421
9.30602 119.169 -9.54352
7.2897 106.807 9.91787
-3.02122 127.126 7.81421
15.1433 95.07 7.01741
14.5383 94.618 8.91074
-7.66663 146.372 -5.20449
15.9726 96.0355 4.22516
-8.61334 148.427 -5.5939
3.67021 127.015 -6.42132
-11.5922 152.314 -3.66903
6.24451 125.687 -10.3186
1.85663 129.35 -5.12396
15.4368 99.1491 1.91421
-12.7604 149.89 2.03066
14.2406 103.362 -0.493434
0.0821509 123.353 6.21323
11.9312 112.208 -6.10576
-1.40163 125.46 6.96238
-14.1887 151.861 2.97242
11.7245 113.342 -6.91657
13.5713 96.4399 9.60764
15.4456 99.3459 2.02131
15.9229 96.36 4.61181
15.7429 97.3149 3.86002
-6.23497 133.313 8.26509
10.5518 100.654 11.204
-13.2372 153.192 -0.532598
-3.14477 128.215 7.72847
-6.01874 143.475 -4.46993
-3.33767 137.39 -2.92744
-6.01481 132.975 8.37869
-8.98084 141.589 4.44951
15.0326 101.478 0.628145
14.3459 95.7972 9.10265
5.35781 126.71 -8.6781
-3.41719 128.999 7.72927
-10.7055 145.006 4.2443
2.79979 128.786 -5.57337
-11.5986 149.184 1.15228
-12.4005 150.23 1.67769
-2.77871 136.749 -2.95477
13.5086 105.544 -0.612054
13.0368 108.191 -2.66511
-3.31814 129.188 7.64675
-10.2004 142.871 6.1753
3.8014 127.995 -6.36359
11.0478 100.578 11.1493
1.85784 130.75 -5.33082
13.1586 98.1388 9.57364
4.77128 115.879 6.46617
15.7745 96.7788 5.61562
-11.0817 148.889 1.16817
-8.08017 140.953 4.24283
12.9729 110.761 -5.14027
1.75133 122.207 5.7171
1.64932 122.445 5.70425
10.6075 101.702 11.3547
-6.27637 136.444 6.17766
15.5865 97.8942 5.17043
14.1409 104.641 0.210636
-2.20757 136.707 -2.94562
-8.24361 149.49 -5.25611
6.49336 126.964 -10.0302
-7.2773 147.955 -5.3649
8.31199 124.821 -11.2692
9.38788 118.414 -5.84295
-11.783 153.42 -2.03713
-7.2363 147.989 -5.3575
-12.2683 153.688 -1.21329
-0.934375 126.788 6.71937
-3.82242 140.214 -3.22354
-8.70428 142.29 4.93943
-3.00774 138.486 -2.86262
15.0087 103.102 0.759293
8.49588 124.775 -11.2744
7.12372 110.903 8.55724
-12.5231 151.591 2.2004
3.64791 129.608 -6.46315
-3.09455 138.779 -2.84418
15.2065 99.8889 4.39985
12.8292 112.009 -5.05907
9.53982 119.038 -6.33721
-8.92834 151.029 -4.74594
9.88274 117.368 -4.89824
4.79914 117.466 6.16277
-0.295199 134.829 -3.76597
9.44858 118.985 -5.82258
1.00489 124.846 5.62941
14.1221 98.6502 8.85257
-10.111 152.609 -3.62725
-12.2457 152.884 0.74575
-8.52824 150.799 -4.81294
15.3251 99.318 5.55294
9.60985 118.565 -5.22527
-6.4838 147.372 -4.99332
10.0223 121.27 -9.38109
13.5934 110.272 -3.78951
4.18273 129.858 -6.94997
-0.430479 135.352 -3.46019
14.4712 104.801 1.05896
-3.40659 131.752 7.52129
-0.402573 127.261 6.41019
-7.86272 142.537 4.18687
-9.90538 152.682 -3.60056
-9.81926 144.178 6.53472
4.23835 119.516 5.73814
-4.91679 144.387 -4.36967
-6.61144 148.16 -5.18095
-5.41734 145.519 -4.51916
4.34791 119.499 5.73863
9.2192 123.838 -10.1701
9.87831 122.419 -9.74984
13.7516 110.203 -3.30817
12.271 101.094 10.983
-6.03849 139.484 4.62948
15.3959 100.865 4.6687
-3.47542 141.664 -3.53838
5.27637 129.223 -7.55513
5.89808 128.575 -8.10404
13.4935 100.217 9.71105
4.78464 119.182 5.78476
2.1903 124.384 5.18721
15.2422 102.423 3.34252
-8.77469 143.655 5.94839
-2.90457 140.57 -3.13774
7.126 113.483 7.83017
10.6321 117.072 -4.15258
-4.6661 144.787 -4.33729
10.4997 104.321 11.6201
6.54839 128.417 -8.91585
1.72457 125.473 5.22101
-2.37318 131.588 6.86774
-6.71854 149.331 -5.14673
6.3274 116.097 6.72529
-8.16307 143.534 5.20906
5.61117 117.917 6.1835
9.60152 121.987 -7.42302
-11.1639 153.326 -0.0491622
2.47623 124.633 5.0615
1.1422 126.824 5.5157
9.98223 120.474 -6.05388
15.3292 99.92 7.23319
14.0607 109.622 -1.7585
-1.45275 130.527 6.85651
14.6925 105.719 1.85878
-6.61666 149.804 -5.03754
-5.07133 146.61 -4.52972
6.75857 129.009 -9.0234
-3.49695 143.305 -3.83394
11.1051 104.533 11.3653
13.2103 101.779 10.1877
15.4624 103.61 3.10731
4.56036 121.454 5.30828
-8.6839 146.002 4.49853
-3.82396 135.632 6.53692
1.53507 126.972 5.33397
-7.81451 143.91 5.3885
-8.68019 145.51 5.50519
-9.79064 151.897 0.263556
-9.60572 153.849 -2.48607
10.5646 105.98 11.6069
14.9247 101.886 7.04808
2.63322 134.569 -5.71224
4.45523 122.377 5.10489
11.5482 115.138 -1.49679
12.2631 113.814 -1.36407
-8.60767 145.007 6.54508
-5.17885 140.967 4.0814
14.578 109.095 -0.409626
14.2134 102.013 9.18061
-5.04632 148.175 -4.66953
9.85528 125.929 -10.1935
12.0183 114.405 -0.662161
11.0506 120.114 -5.38648
-3.83715 146.01 -4.22046
-3.12105 136.152 6.20296
-1.2078 140.287 -2.97954
-6.2062 143.598 3.95455
3.58128 134.57 -6.31564
12.1949 116.174 -2.63884
-9.70122 154.582 -1.36535
13.0683 112.986 -0.654387
14.9992 107.152 2.25432
8.36478 113.396 9.19401
13.4242 116.241 -5.26439
-8.90452 153.003 -0.934185
12.9397 118.37 -6.41454
6.3044 132.059 -8.13278
-5.46052 150.432 -4.64218
8.93695 112.649 9.79598
-4.78997 149.241 -4.59423
14.4473 104.777 7.33051
12.8507 105.394 10.1498
5.51771 123.077 4.83435
15.6296 104.582 5.2289
10.7818 108.462 11.2387
7.92073 116.023 8.41729
14.8352 110.649 -0.039927
15.1684 109.566 0.72869
9.20396 129.696 -10.632
14.3401 105.443 7.58934
8.80774 130.289 -10.4561
2.24852 137.53 -4.89384
6.58694 120.861 5.96154
13.0071 119.495 -6.37051
15.4168 105.278 5.66464
-3.2741 139.586 4.96143
-3.78434 148.214 -4.375
-0.229968 140.791 -3.03061
-0.120777 140.639 -3.04837
9.21935 113.016 10.0864
13.5641 116.9 -4.08545
13.4933 106.08 9.20142
-8.56301 153.955 -0.61881
-2.03353 136.943 5.81239
1.04965 139.117 -3.54883
4.91936 134.649 -6.54595
13.6064 118.035 -5.37691
12.6256 118.417 -3.69145
13.007 115.741 -1.2728
-1.65766 144.056 -3.44645
11.4895 121.968 -5.20158
-3.94622 149.218 -4.50527
10.5669 126.343 -8.4706
10.5195 128.049 -10.3807
-3.1572 140.413 4.54738
13.5962 118.124 -4.99006
11.359 123.619 -6.76445
13.1663 113.857 1.17522
13.0471 117.436 -2.85688
14.9765 106.276 6.53089
6.21016 133.49 -7.30868
0.370773 140.624 -3.14342
11.4688 122.908 -5.89969
14.236 106.521 7.95961
-1.1051 135.413 6.48332
-2.78911 139.787 4.86037
12.8019 119.359 -4.18872
14.6295 106.867 7.00643
13.1423 117.687 -2.86755
0.223445 133.61 6.05718
-0.122572 134.245 6.09107
-1.29023 136.302 6.22682
2.40117 131.05 4.58029
-7.9484 153.78 -0.304197
-3.62993 149.446 -4.44965
11.6186 122.495 -5.04236
-4.84416 144.619 4.2298
-8.02222 154.109 -0.300693
10.3487 125.346 -5.415
10.9182 126.791 -8.27172
13.649 115.243 -0.138747
10.0447 112.768 10.7812
9.80351 130.825 -10.541
-3.35208 149.56 -4.4098
13.288 119.761 -4.60791
3.18115 138.456 -5.04169
11.6706 124.84 -7.00215
11.6096 125.13 -7.16546
14.7865 118.861 -6.41387
14.1962 117.417 -3.34486
14.6562 120.325 -7.86689
13.0451 118.476 -1.96777
14.0916 118.147 -3.77125
9.00563 132.287 -9.73481
-1.07197 145.315 -3.47937
11.614 122.488 -3.4025
2.43723 132.449 4.57806
13.3841 120.101 -4.35451
3.39289 131.104 4.16189
13.5296 109.218 8.59176
5.96309 135.773 -6.98847
14.3191 108.463 7.88433
12.092 124.339 -6.47042
13.4809 122.744 -7.53995
14.6236 117.246 -3.17358
13.6907 118.463 -2.48278
-0.905955 138.337 5.36867
12.465 121.446 -3.23992
14.0981 115.48 0.430376
-3.19772 150.546 -4.29118
14.0589 116.546 -0.737333
1.80867 134.181 4.69311
12.3603 124.491 -6.4847
15.1267 119.172 -6.04404
8.13171 134.119 -8.696
13.4674 120.161 -3.38988
15.3041 119.575 -6.56656
15.2263 109.218 6.35768
-2.8214 143.985 3.64019
-2.45184 149.847 -4.26726
12.3361 121.749 -2.41396
11.294 127.036 -6.53237
15.2331 119.147 -5.56419
5.51742 137.905 -7.06768
13.5237 118.528 -1.05399
13.0823 124.18 -6.92365
11.963 122.266 -2.13341
7.3188 124.284 5.61435
15.8813 110.292 3.8896
0.994676 136.064 5.19891
14.0659 118.266 -1.77859
15.284 116.763 -2.56424
5.10025 138.745 -6.95128
11.2564 113.053 10.8239
10.9685 113.746 10.6385
15.3662 119.411 -5.84292
13.5583 120.25 -2.89117
14.4387 118.114 -2.17073
10.0698 132.782 -10.2867
12.1975 127.615 -8.5346
0.192517 137.424 5.85167
15.0784 117.253 -2.17971
14.0282 117.425 -0.0749814
11.3972 127.326 -6.32942
7.71054 123.296 6.64166
14.672 110.221 7.29926
15.8226 110.152 4.8968
13.679 124.059 -7.24317
14.1192 122.996 -6.88824
7.66058 123.907 6.13768
11.2201 127.652 -6.18521
10.3274 125.877 -2.01821
14.263 122.982 -7.05249
12.7171 125.382 -6.38937
15.0043 110.543 6.73698
14.5496 115.441 1.81425
15.8616 112.009 3.16328
14.1544 117.838 -0.174724
11.0858 124.406 -1.43083
13.1928 111.701 9.38989
2.07803 142.243 -3.28278
7.49548 125.425 5.31147
12.4059 122.024 -1.28208
11.0626 124.145 -0.912545
0.418889 145.328 -3.27277
10.3679 127.072 -2.8673
13.3142 123.152 -4.25354
10.4273 126.037 -1.3597
4.4823 132.725 3.69006
4.69346 140.253 -5.7691
4.72762 140.292 -5.77494
13.4759 123.46 -4.38103
6.71271 138.212 -7.45102
-2.81642 152.261 -3.66136
15.8012 112.587 3.86238
12.8688 113.515 9.20851
-0.695045 142.403 3.81646
14.0473 112.332 8.07688
2.81423 135.567 4.45674
12.6433 128.155 -7.95114
-1.91598 151.073 -3.90255
12.2947 124.18 -2.31986
13.1614 125.478 -5.75881
12.3823 124.72 -3.0555
6.31927 139.223 -7.39435
12.1388 114.536 9.97996
11.6701 128.84 -6.3148
11.5568 128.94 -6.17763
2.14693 137.035 4.61948
17.1847 121.341 -9.09722
12.1841 127.493 -5.57728
6.78379 129.186 4.22023
9.07588 136.174 -9.25443
12.8793 124.413 -3.25169
16.2721 120.641 -6.05048
10.6576 127.107 -1.52227
5.3176 140.603 -6.18636
8.96847 121.355 9.21507
11.9835 127.351 -4.46489
8.395 124.573 6.8205
6.63775 139.615 -7.55113
17.1001 121.011 -7.81232
11.9885 127.768 -4.77111
-0.551692 143.539 3.64112
13.4945 124.181 -3.54916
10.9265 117.444 10.2908
8.61128 123.137 8.45619
11.9648 129.227 -6.13437
10.782 127.323 -1.18552
14.0062 114.058 7.87713
14.1503 122.483 -2.63766
13.5651 118.596 3.43337
11.6558 125.056 -0.21971
11.8996 132.119 -9.28911
13.6763 122.736 -1.66608
14.2284 122.89 -2.95925
13.0987 126.183 -4.4784
12.7381 126.051 -3.46841
16.9085 121.23 -6.72485
9.54894 121.275 9.38685
2.25351 144.807 -3.21275
12.9106 127.905 -5.96965
12.5946 129.297 -6.94727
14.8362 120.979 -1.66607
16.4517 123.679 -8.43329
13.1617 127.192 -5.31761
12.4929 127.174 -3.75634
-3.51157 154.537 -1.84281
13.8392 127.664 -7.10216
-1.94389 146.318 4.83671
18.4453 120.213 -7.9525
4.27081 142.751 -4.28381
7.75471 129.23 4.62968
18.1215 120.379 -7.24173
11.3488 128.071 -1.72658
6.34574 132.765 3.55493
16.7457 123.997 -8.44691
15.0752 115.561 5.4475
11.9946 130.545 -5.99405
13.317 115.921 8.9047
0.980871 148.278 -3.32969
14.3392 121.069 0.585835
8.08789 128.629 5.08956
13.4272 119.056 5.10861
14.4374 120.139 1.80758
2.35118 146.161 -3.27158
14.7566 120.344 1.02096
14.0111 119.924 3.1891
4.98009 136.239 3.14618
1.75335 147.399 -3.24829
3.9422 137.89 3.56061
9.56592 123.108 9.24705
8.88654 139.132 -8.66333
13.0431 131.222 -7.867
14.1085 120.08 3.60699
17.5124 123.95 -8.43855
19.1464 120.657 -7.92644
13.796 127.787 -4.81183
5.09475 143.463 -4.78853
0.554643 144.852 3.50314
14.9162 128.308 -7.68335
19.3832 119.563 -6.8137
13.802 127.843 -4.64172
9.71959 138.444 -8.53148
8.75632 126.916 7.60209
13.8381 128.064 -4.81282
14.1851 122.994 0.68827
16.807 117.981 1.08482
1.64288 142.758 4.19426
1.26563 143.714 3.90348
15.3803 120.481 1.38087
8.43289 140.682 -7.90309
13.2022 129.484 -4.67872
14.5833 120.997 2.68247
6.33441 143.004 -5.87344
15.0618 128.867 -7.66495
6.99254 134.501 3.18793
15.3233 121.541 0.708745
11.1058 136.846 -8.63609
8.05035 141.668 -7.60813
13.1936 118.829 8.89501
14.2948 120.532 4.43774
15.587 120.625 1.50306
7.83776 141.887 -7.33595
7.24107 134.139 3.39596
15.2421 122.978 -0.45694
14.069 130.702 -7.18536
-1.27716 154.225 -2.14621
14.0734 129.539 -5.61681
16.0518 128.027 -7.94303
19.0397 122.982 -8.34137
1.22756 151.125 -3.46196
14.4764 124.533 -0.0061561
2.49204 143.091 3.79955
12.2534 120.991 9.28656
19.871 121.656 -8.15008
13.3395 125.926 0.997531
8.31856 142.08 -7.62143
15.257 121.914 1.73313
13.4594 133.424 -8.20401
10.2698 138.971 -7.93135
8.87342 129.838 6.2604
10.7202 124.665 8.5468
10.9849 124.502 8.17942
11.0791 124.521 7.97388
14.2269 131.534 -7.3574
11.7754 122.764 8.65226
12.5511 135.519 -8.48013
15.7969 121.383 1.77853
15.2577 122.595 1.60798
12.4024 135.942 -8.32444
-0.114566 153.6 -2.35642
6.52184 144.453 -5.73272
13.8215 120.11 7.87919
13.5408 126.234 1.09167
14.5964 131.33 -7.33202
12.4716 123.008 7.541
10.6412 125.964 7.97236
11.8954 125.02 6.38235
12.4273 124.264 6.32234
4.20635 141.637 3.33074
3.03926 149.164 -3.13131
7.39501 136.282 3.02148
16.8783 120.241 1.83077
20.9996 119.477 -6.22148
3.59037 148.389 -3.23395
20.6837 120.645 -6.92326
13.0418 122.769 7.20564
15.388 122.977 1.88331
8.53457 142.953 -7.37133
18.3124 125.685 -7.77652
17.7313 126.695 -7.61493
16.078 129.787 -7.71474
14.1964 122.592 5.16621
3.32153 143.629 3.50202
14.7283 131.417 -6.59633
14.4339 131.575 -6.09248
11.2618 138.194 -7.17465
7.13482 144.798 -6.16241
7.41861 144.564 -6.44104
18.6375 125.513 -7.70377
14.5495 131.668 -6.18097
4.70404 147.212 -3.51851
14.8352 125.562 0.696647
13.8239 122.56 6.65456
6.8598 138.301 2.85548
4.71019 141.827 3.27937
13.0166 125.819 4.58723
10.6975 140.155 -7.57748
5.43309 140.604 3.41784
2.95131 145.154 3.35308
14.6972 126.098 0.961786
17.781 127.455 -7.34658
4.63447 147.967 -3.48962
15.4178 123.746 2.3307
17.9646 127.1 -7.28538
10.1125 141.315 -7.0766
15.6329 131.16 -6.78931
8.92608 132.005 6.95529
15.0316 125.095 1.99846
3.52094 144.958 3.21664
6.99948 139.052 2.85632
16.0165 123.194 2.39338
7.07705 145.983 -5.65652
1.71245 153.193 -2.56947
7.73076 137.761 3.00415
10.6808 128.142 8.26012
9.1305 143.363 -6.7834
14.4119 133.358 -6.18281
14.9818 126.292 1.17375
7.69285 145.573 -6.28105
8.9397 143.756 -6.65286
14.6932 127.105 1.13012
15.2939 125.476 1.83646
17.1158 121.962 2.20626
15.2633 126.681 0.532555
12.3736 137.782 -6.46784
9.85206 130.734 7.60587
4.89253 143.499 3.01508
7.11929 146.477 -5.45698
14.0808 127.958 1.84042
16.5293 123.071 2.42501
13.8625 128.344 1.96415
5.07844 148.661 -3.43041
12.626 127.545 5.79726
13.5618 128.442 2.7131
13.667 128.597 2.3211
21.2875 122.371 -6.77453
10.0236 142.441 -6.49118
13.3357 127.186 5.01408
6.95355 140.623 2.93623
14.6361 134 -5.68182
17.082 122.938 2.43577
12.3316 138.81 -6.40547
10.7914 141.699 -6.42197
7.69812 139.772 2.68009
21.6409 122.273 -6.33291
14.341 135.044 -5.85389
13.4036 129.306 3.16418
19.4587 119.401 1.99662
14.6672 127.331 2.87276
22.0563 121.452 -6.11537
16.4856 131.8 -6.47364
3.08156 147.048 4.3477
22.4056 120.575 -5.70161
9.18688 134.073 6.94009
13.6444 128.056 4.55011
13.9957 127.635 4.34602
13.9067 129.746 2.02078
18.7897 127.985 -6.50752
20.6184 124.502 -6.251
13.1593 129.372 4.39827
9.31479 133.994 7.20774
13.0091 129.629 4.43766
17.1867 131.658 -7.12634
15.6722 127.001 1.99699
15.669 126.135 3.08807
7.33929 147.659 -4.80196
7.67996 147.45 -5.22412
9.69133 144.7 -6.17665
19.8026 119.767 2.0704
13.6071 137.425 -5.6782
19.3896 120.585 2.13901
11.9949 140.788 -6.16796
15.7031 133.41 -5.28123
14.064 130.071 2.44516
12.7652 139.025 -5.56318
16.7412 132.466 -6.22135
9.83324 144.919 -6.1264
6.03373 149.655 -3.54487
7.63327 141.72 2.5965
12.527 139.678 -5.61823
16.8715 132.435 -6.31739
21.0288 124.503 -5.53211
9.7586 145.449 -6.11367
15.3381 134.954 -5.32483
5.47121 146.145 2.67948
17.045 124.838 3.24115
9.65415 135.282 6.73914
11.3671 142.7 -5.92328
19.6866 127.681 -5.75361
15.7075 128.322 2.33563
5.47444 146.512 2.67194
6.53862 144.745 2.52859
6.96933 144.044 2.48973
13.2995 138.81 -4.99307
14.0885 130.764 3.10574
12.5201 131.879 5.25663
21.2854 124.616 -5.04683
10.972 133.504 6.78695
9.27216 146.955 -5.74592
7.72308 142.975 2.5282
23.0145 121.801 -5.03373
11.8968 142.469 -5.80325
20.0991 121.111 2.28093
15.3489 129.294 2.81146
8.75303 148.076 -5.46647
13.1645 131.72 4.85964
14.0886 131.338 3.33736
4.53208 148.491 3.42606
14.0662 131.361 3.3879
14.191 137.64 -4.3825
11.4641 143.738 -5.80231
18.7424 123.512 2.88736
15.9341 128.758 2.9648
18.3418 132.339 -6.52215
14.0602 138.236 -4.21942
20.4954 127.494 -5.07579
9.90701 139.069 4.17494
9.95101 147.111 -5.66986
21.5823 119.615 2.30734
19.3483 123.269 2.8217
9.33207 148.168 -5.46973
12.633 141.517 -4.60078
9.57796 140.242 3.63823
21.5594 119.761 2.31454
16.117 128.87 3.3626
16.7147 127.639 3.64573
16.5048 128.168 3.59855
11.3113 145.585 -5.51414
11.571 135.31 6.4021
12.1088 144.216 -5.53974
11.8284 135.145 6.1494
7.68693 150.987 -3.90253
6.76399 152.181 -3.31965
21.7246 126.076 -4.32769
10.4837 137.463 6.46272
10.2923 139.254 4.77413
10.1105 140.099 4.17973
13.6205 133.355 4.82917
23.2701 124.094 -4.97085
16.6037 128.633 4.11863
19.5548 131.337 -5.5787
11.4007 136.334 6.19688
16.8742 128.116 4.25715
20.1829 123.28 2.91892
14.7088 132.414 3.87955
6.72073 152.584 -2.92588
10.2236 140.294 4.34836
18.5951 134.205 -6.32675
6.33908 153.164 -2.48075
5.53481 154.066 -1.70839
9.64386 142.89 3.03397
17.2232 128.269 4.23647
23.0995 124.834 -4.37448
19.7148 131.756 -5.36436
8.67278 145.34 2.32005
13.7802 140.779 -3.30838
17.0072 136.603 -5.14769
22.6143 125.57 -3.89699
19.3899 125.322 3.52463
9.27606 144.73 2.3414
9.46872 144.433 2.35276
13.3825 135.258 5.05515
12.8137 143.332 -3.38453
13.3088 142.489 -3.23667
20.6106 124.319 3.12303
22.1657 122.677 1.72849
24.2287 120.034 0.489586
22.9754 122.048 0.904092
19.627 125.854 3.65727
12.4521 137.226 5.62408
12.353 145.536 -4.22069
22.1895 127.163 -3.40435
7.37999 152.924 -2.08483
8.62812 147.278 2.20368
10.0652 149.1 -3.11007
10.9934 147.838 -3.46694
21.1995 130.251 -4.43422
14.4608 134.91 4.75897
20.4638 125.579 3.09064
8.03839 152.499 -2.32037
20.9478 130.975 -4.34974
22.1979 124.015 1.52166
11.2328 139.904 6.22267
15.2624 140.493 -3.27217
16.9856 138.19 -4.20508
8.93378 151.407 -2.58414
24.3265 121.191 0.449477
