ply
format ascii 1.0
comment Created by Open3D
element vertex 1920
property double x
property double y
property double z
end_header
-11.5759 97.2254 6.75349
-12.6066 96.8951 8.19455
5.44587 104.023 -20.0214
-6.08089 106.64 -19.2248
-16.9067 107.688 -14.9996
-5.02373 106.462 -19.2342
-19.8249 108.142 -14.0831
-2.68133 105.995 -19.3622
16.5792 95.4926 -5.71248
13.9704 94.1263 -0.780245
16.5149 96.3726 -7.71947
-26.1548 107.58 -8.40492
-25.1599 103.855 0.132785
-26.2817 102.475 4.18774
-3.31847 106.339 -19.2843
-26.5791 105.301 -2.35807
5.54597 104.45 -19.9148
2.82457 105.412 -20.5326
13.2599 94.2864 0.125722
13.1267 100.775 -15.4704
12.6742 101.312 -16.4322
-5.28829 97.9962 2.65179
-26.2668 102.666 4.23532
16.1797 95.2386 -3.74861
-5.67475 107.198 -19.2113
-20.191 98.6022 10.7769
-5.19938 98.1731 2.61394
-25.7914 103.471 2.59954
-9.42739 108.051 -18.3764
-11.4768 98.1552 6.90907
14.926 99.1303 -11.6398
-19.4026 108.828 -13.983
-15.1762 108.575 -15.8761
7.63988 104.074 -18.9857
-21.1516 99.6341 9.58548
-2.45782 106.853 -19.3741
14.0577 100.229 -13.2618
-23.5064 101.045 7.89462
14.6186 99.5927 -11.9544
-0.734137 106.891 -19.9797
15.9327 95.6866 -3.01992
-13.7919 97.9105 9.97998
11.2832 102.832 -17.3133
10.9031 103.065 -17.4734
16.4355 96.5698 -4.95626
-26.2603 103.564 4.37076
-12.4368 98.3665 8.56093
12.3622 102.418 -16.454
-5.04478 107.987 -19.1837
14.1144 100.422 -12.6043
0.802701 96.8107 4.35119
-25.5629 107.761 -5.912
4.97243 105.742 -19.7662
14.3881 100.073 -11.7812
-17.4461 98.941 10.6543
13.4917 101.155 -13.7129
12.9502 95.3876 0.62588
-8.00843 99.487 3.68728
-10.0903 108.879 -17.7105
-25.8375 104.201 3.39676
16.4707 97.0898 -5.33272
-20.189 99.8438 10.6204
-15.6345 98.6902 10.7204
-25.4752 109.352 -9.03899
16.5914 97.5944 -6.31626
2.52323 106.881 -20.1739
13.3226 101.493 -13.7268
-0.3305 98.0038 3.14757
-12.1653 109.076 -16.3508
-15.2159 98.8024 10.7236
14.1067 96.056 -0.578582
12.4944 102.673 -15.6206
10.1586 104.221 -17.851
-23.294 101.949 8.33675
6.20798 105.811 -19.0058
7.86744 105.177 -18.4616
2.74168 107.13 -20.0315
-6.14615 99.833 3.16662
-22.2388 101.515 8.98791
10.5918 96.1298 1.8856
-8.7531 100.008 4.42291
-19.7057 109.988 -12.9447
2.49006 97.0215 4.85993
-18.0744 99.8632 10.7048
5.7062 96.5567 4.14825
16.0406 98.7805 -7.57381
-25.5652 105.206 2.51816
-15.6784 109.93 -14.972
-16.5421 110.068 -14.74
-20.1867 100.577 10.5002
9.48378 104.878 -18.1432
1.5381 107.682 -19.8704
-24.3124 103.069 7.31024
2.41706 97.3559 4.75102
10.8268 96.4835 1.73835
-20.2595 110.46 -12.9791
9.56004 105.026 -18.0836
0.774127 98.3388 3.54805
15.4321 99.5772 -8.43464
-12.3691 99.4218 9.08609
-12.2828 99.4784 8.99725
-23.3193 102.587 8.40093
13.1304 102.264 -13.111
3.24168 97.4026 4.77841
-1.1297 99.5277 2.3215
-10.6067 100.093 6.85995
-10.8486 109.731 -16.2557
-22.1444 111.254 -12.9233
14.6825 100.587 -9.68653
3.43168 97.4906 4.76042
15.2099 100.099 -8.77808
-26.0753 110.202 -7.75905
12.9399 102.774 -13.6987
-25.6771 105.411 3.66473
-0.838911 99.6609 2.35357
-25.8175 105.173 4.36192
-26.2657 108.07 -2.3028
-25.6653 105.458 3.66495
12.8951 96.8776 0.771525
-1.45913 99.9331 2.19411
13.1733 102.476 -12.9036
15.2849 97.3978 -1.79156
-26.0837 110.055 -6.99594
5.82246 97.4426 4.04538
-11.7292 100.06 8.63151
-1.93356 100.306 2.05065
-11.2523 100.243 7.96995
15.196 97.6249 -1.69879
11.6037 97.2958 1.34054
-9.9753 100.708 6.58455
-11.9667 110.253 -15.2307
6.16286 106.991 -18.4304
16.2294 98.7008 -4.35581
10.7494 105.495 -17.4353
-25.6193 111.12 -8.70323
-3.91575 109.805 -18.7947
9.23108 106.176 -17.9408
14.042 97.403 0.370059
15.8239 98.7137 -3.60945
-24.6636 104.601 7.03282
-9.29384 110.557 -16.8155
3.79503 98.3727 4.67881
11.178 105.585 -17.2027
0.213545 100.256 2.45046
-0.958374 109.665 -19.5483
-25.5154 109.718 -4.57028
-23.026 111.974 -11.4885
12.9831 103.915 -14.0167
3.14034 98.8212 4.47791
15.0382 98.4481 -1.8078
-21.6172 112.306 -12.8589
13.3249 103.215 -12.1742
-10.2393 110.687 -15.7897
-24.8518 105.113 6.80093
13.5741 102.857 -11.1963
2.16907 109.14 -19.2049
-18.0442 111.977 -13.5498
-19.6448 112.246 -13.2116
-18.4246 112.067 -13.4737
-24.4297 112.365 -10.3724
11.0188 106.193 -17.1442
-25.5301 107.744 1.6434
-8.88556 101.681 6.11464
4.26916 108.835 -19.29
2.26571 99.8851 3.63476
-13.2633 111.548 -15.0282
14.0406 102.716 -10.3914
13.0348 104.367 -13.7061
-19.8976 102.901 10.1911
-8.42341 102.074 5.28264
-22.8954 112.957 -12.1147
-3.03024 102.176 1.85718
-4.65532 102.267 2.759
-22.6908 104.178 9.25718
-14.8978 112.01 -14.4574
-1.9799 102.082 1.76702
-22.2703 113.224 -12.6528
-25.2464 106.594 5.37591
11.6855 98.6737 1.95699
-11.3556 101.582 9.12451
4.89872 99.3691 4.61343
13.118 104.814 -13.5318
-25.3638 110.145 -2.52355
14.7957 99.0949 -0.350053
-15.5665 102.473 10.1574
-9.85927 111.584 -15.4129
-25.0642 110.514 -3.46789
-14.3706 102.225 10.1083
-24.9757 110.733 -3.8815
9.21656 99.1278 3.26477
-25.912 108.858 1.27026
-25.0862 106.779 5.9847
-22.9184 104.91 9.19926
-6.81097 103.183 3.5818
-17.4193 113.182 -14.0833
-13.6172 102.301 9.97814
-1.5129 102.63 1.76549
-22.3749 113.9 -12.5157
-22.5018 113.904 -12.4451
-5.75853 111.846 -17.7447
-25.1496 108.411 2.55446
-21.7166 104.623 9.67922
-7.87301 103.072 4.99442
15.231 99.8242 -1.26808
-24.981 107.906 3.92668
15.2513 99.8751 -1.28709
-26.3684 112.158 -5.43479
15.0437 99.6822 -0.630042
-25.0179 107.632 4.72604
-20.5604 113.875 -13.1362
-24.8711 108.267 3.20458
-25.1488 113.635 -9.55776
-18.1098 113.681 -13.9876
-20.6197 104.455 10.0396
-10.7014 112.092 -14.4763
-25.8544 109.297 1.62888
-24.9473 107.686 5.04705
-17.6352 103.987 9.53765
-0.942015 111.495 -18.9079
-20.2233 114.056 -13.2659
-13.931 113.044 -14.6508
0.897028 110.995 -18.655
-1.33782 103.181 1.71665
2.8217 101.698 2.79314
-10.624 102.7 8.62834
-21.8894 105.168 9.65447
-0.576337 103 1.87056
-16.0379 113.618 -14.3168
13.0783 99.6811 1.66547
-11.4171 112.573 -14.4215
-7.71949 103.516 5.41572
-12.8561 103.291 9.40009
4.97712 100.722 4.67774
-23.3296 106.196 8.88595
15.4667 101.434 -3.14131
-4.79637 104.27 2.47627
12.5942 100.03 2.0667
15.4492 101.292 -2.72067
-12.6795 103.479 9.30264
-13.067 113.414 -14.355
3.91818 101.862 3.41408
-14.332 104.091 9.27939
16.0119 102.471 -5.34088
13.7252 100.49 0.869178
0.625786 111.755 -18.357
-11.836 113.223 -14.1865
13.1793 107.068 -14.6341
-16.1382 104.565 9.4989
-25.2203 112.257 -3.50375
-24.6192 108.318 5.81109
6.02351 101.201 4.25952
-13.1204 113.685 -14.2198
1.67074 103.319 2.05897
-0.161341 112.217 -18.3089
1.17391 103.541 1.9261
-5.34526 113.12 -17.2614
5.589 101.395 4.45065
-7.39519 104.158 5.73266
-5.45751 113.149 -17.2291
-10.6322 103.601 9.11253
16.0954 103.073 -5.75416
-5.47609 113.27 -17.1591
-6.3002 104.656 4.23632
11.3536 100.689 3.04336
-1.99768 104.735 1.4574
-14.9668 104.903 9.02498
-26.4429 113.885 -5.63763
-6.86869 113.608 -16.8202
11.7687 108.756 -16.2066
-7.35378 113.859 -16.6706
5.0724 111.316 -18.133
-23.3428 115.738 -11.377
-4.13818 113.431 -17.5185
-25.6923 110.562 2.72694
-26.5136 114.052 -5.1138
-26.4629 114.353 -5.80594
-25.1306 109.953 4.07306
-24.3291 112.157 -1.70358
-26.423 114.705 -6.52751
-19.2637 106.371 9.27106
-26.5363 113.895 -4.45946
-20.0432 106.49 9.51026
-24.7554 111.795 -0.436187
3.52161 112.169 -18.6839
-24.7148 111.847 -0.460617
-4.82857 113.698 -17.1629
-26.5116 114.344 -5.34715
-24.8009 111.78 -0.0719769
0.934334 104.493 1.7843
7.07764 101.862 4.39832
13.6446 106.091 -9.84862
-8.23806 104.595 7.45651
-24.4577 112.606 -1.81851
-24.3687 108.944 7.02077
-22.1975 116.305 -12.0851
2.5819 104.273 1.96228
-25.2843 111.226 2.23735
-26.3305 114.034 -3.83324
-6.32166 114.298 -16.6723
-1.64522 113.678 -18.002
-2.51435 113.966 -18.1034
-26.4025 115.604 -7.39674
-24.0316 116.347 -10.4464
12.9466 108.978 -15.2528
-4.89681 114.287 -17.0563
6.23508 111.729 -17.6607
13.256 107.762 -12.139
-23.3048 108.417 8.81416
10.3773 101.999 3.71539
-20.7935 107.651 9.25389
-11.8449 105.432 9.17069
13.0224 109.191 -15.1268
-24.6166 113.187 -1.41808
10.2798 110.49 -16.1898
10.9295 110.273 -15.9665
-8.96269 105.482 7.94766
-14.309 106.415 9.03615
14.2613 102.857 0.137218
-25.8767 116.555 -8.32771
-20.8472 108.1 9.13681
-25.7769 114.164 -2.41258
-21.1487 108.199 9.19923
-8.34902 105.627 7.63823
-17.2045 107.439 8.69317
-3.50549 114.802 -17.4843
14.9855 105.365 -5.95034
-22.8373 117.242 -11.4708
-25.6288 114.115 -2.1311
2.87659 113.505 -18.1353
12.9514 102.602 2.17484
11.6865 102.611 2.96391
4.98896 104.436 2.71362
-11.0771 115.108 -13.1675
0.518905 113.973 -17.3787
-7.19336 105.875 6.99598
7.6592 103.258 4.2337
14.3207 103.303 0.0900993
-26.0854 116.997 -8.07748
-24.3902 110.479 6.78334
-4.18152 107.196 2.3358
-1.71408 107.047 1.31702
13.2212 109.301 -13.1886
14.8809 105.716 -5.47984
-22.0446 117.719 -11.8051
-1.41762 114.922 -17.3886
-26.7657 116.587 -5.76595
4.87293 113.654 -18.0069
-3.59651 107.579 2.00969
-12.0862 115.976 -12.9441
15.9797 104.877 -3.22425
-16.2018 108.156 8.68296
-0.698978 114.927 -17.2054
-26.5556 115.874 -3.4932
14.667 106.624 -6.39208
15.6227 104.194 -1.06749
13.2468 103.687 1.73462
-2.94459 115.741 -17.3913
10.1909 103.618 3.95954
-9.53885 115.65 -13.0571
-8.19792 115.712 -13.9882
10.5992 103.683 3.69722
-10.1931 107.194 8.27388
12.9254 111.116 -15.4199
-4.0141 108.044 2.47883
-3.48256 108.106 2.00363
15.3416 104.508 -0.710943
-24.9725 118.365 -9.24325
11.523 111.931 -16.0551
-24.7015 113.048 3.57739
-26.649 116.602 -3.75897
-0.0382538 107.767 1.35372
-18.4112 118.28 -12.5645
13.7904 109.827 -11.5898
3.66132 106.882 1.78692
-12.1669 107.961 9.01241
-20.0796 110.019 9.01364
-20.4652 110.123 9.09264
4.14303 106.867 1.88121
-8.5771 107.624 8.00945
-6.05351 116.95 -15.9321
14.3065 109.56 -10.4787
-12.4413 117.157 -12.4126
6.22861 105.985 3.23753
-7.8421 116.581 -13.7706
-24.9485 119.06 -9.17233
-17.0521 109.639 8.86776
-10.6009 108.168 8.62704
-24.4022 112.271 7.19572
15.0258 108.036 -6.6368
-14.4219 109.102 9.03561
15.6275 106.359 -2.76216
-0.373267 108.772 1.24763
-4.99021 117.189 -16.3087
13.4219 110.982 -12.5121
-0.616141 108.903 1.22595
-7.62955 107.98 7.77301
-0.330136 116.296 -16.7994
3.66114 107.666 1.72367
5.22554 106.966 2.50082
-13.0456 108.794 9.46965
12.8951 105.313 2.17768
-3.79666 117.35 -16.5426
-15.5988 118.634 -12.3835
-20.6386 111.053 9.12052
1.71572 108.658 1.38
-26.7382 118.39 -4.68966
13.9461 111.016 -11.7147
-24.4249 115.966 -0.10878
-13.2934 118.116 -12.072
13.8944 111.129 -11.8319
-13.865 109.475 9.23605
-24.4112 113.056 7.0866
6.20481 115.581 -17.7891
15.5785 107.777 -4.5685
-23.8094 114.958 2.2677
-5.33844 117.79 -15.8558
-9.8595 108.844 8.66755
-18.2099 119.449 -11.9015
-4.77605 117.794 -16.112
-12.4733 118.084 -11.9381
-10.2394 108.971 8.79675
8.79384 114.756 -16.8705
9.62687 105.637 4.75246
9.79181 114.464 -16.6898
-5.54647 109.204 5.85236
-2.96358 117.796 -16.5037
9.21524 114.849 -16.8245
-24.3585 114.171 5.47496
-25.3021 118.956 -5.53606
14.5004 111.073 -10.8548
1.68424 116.74 -16.6129
-25.1567 119.288 -6.20359
-24.4629 120.166 -8.73879
-24.2459 114.722 4.38994
-25.2104 119.066 -5.51117
10.8329 114.282 -16.0006
-24.0106 113.397 7.59239
-25.1679 119.364 -6.14765
-25.9871 119.032 -4.7515
-21.4114 112.165 9.19477
-12.2073 118.5 -11.786
-5.11644 109.797 5.03796
-13.8406 119.041 -11.9981
1.5076 109.73 1.24875
-8.67281 109.417 8.30449
15.6922 108.592 -4.17937
-17.3879 111.67 8.70616
5.89018 108.262 2.71067
-6.09325 109.646 6.72111
6.41562 116.331 -17.1391
7.73713 115.689 -16.2765
-5.2334 118.701 -15.5282
-4.51091 110.612 3.65475
-26.3515 119.442 -4.2885
15.6994 109.513 -5.95895
15.4153 110.13 -7.24425
-7.93558 118.27 -12.5002
12.4983 114.041 -14.8032
-21.902 121.187 -10.937
-8.31559 109.856 8.19532
-25.6981 118.297 -1.54364
-23.9652 114.998 5.39654
-9.49668 118.399 -11.6589
-26.4833 119.505 -3.81275
-10.7076 118.673 -11.4487
-4.62609 110.71 4.15643
-20.5084 112.61 9.31641
-3.05361 118.76 -16.2369
1.42582 110.546 1.15247
-5.0947 110.451 5.57347
-21.3288 113.035 9.34628
-23.4221 116.929 1.25501
8.56781 115.91 -15.8499
10.7715 106.909 4.61441
-21.6649 113.217 9.26788
-24.2867 120.93 -7.79266
-12.0057 110.75 9.42175
-31.1703 122.023 -6.05276
6.18119 108.955 2.72095
-20.106 112.904 9.38871
-24.1963 121.252 -8.23952
-13.8197 120.096 -11.7928
-25.088 120.383 -5.55386
-23.6925 115.261 6.29653
14.5362 112.581 -10.6551
-12.8468 119.957 -11.6015
-28.5802 121.38 -5.35642
-24.6715 121.09 -7.01794
-25.4116 120.192 -4.34023
-18.0823 121.424 -11.6556
-26.6631 120.165 -3.13246
-31.6699 122.696 -6.15432
-6.20164 110.77 7.2614
-7.9323 119.223 -11.9982
-22.7412 122.03 -9.66224
-19.8622 113.447 9.42007
-1.51526 112.102 1.50138
0.777178 118.952 -16.3533
1.66218 118.873 -16.6871
-1.8162 119.492 -15.9999
-2.37958 112.272 1.88753
-31.8683 123.098 -6.19567
16.1672 110.1 -4.10291
-11.2139 111.477 9.40921
-35.0759 123.575 -5.21729
13.2183 115.028 -14.1369
-13.5735 112.14 9.3387
-26.2582 119.701 -1.05715
12.6423 108.374 2.4987
13.8567 113.68 -11.0888
-24.2562 118.206 1.39938
-2.74515 119.94 -15.8977
-19.5423 122.134 -10.8455
-16.801 113.354 8.85136
15.9949 110.589 -4.46276
-8.74504 119.728 -11.3379
15.5045 108.885 0.0507404
-31.209 123.259 -6.06969
-23.6624 121.885 -7.29183
-11.7639 111.973 9.46955
7.92111 117.171 -15.2066
-26.1524 119.806 -0.55332
-4.25225 112.277 4.27707
-24.0397 121.431 -5.72286
14.1093 113.5 -9.93234
-31.8179 123.644 -6.19012
-25.6011 121.798 -5.46939
15.8955 110.903 -4.49045
-3.8732 112.595 3.56477
-1.32153 112.839 1.46642
-16.9321 113.787 8.87054
3.70366 119.188 -16.7389
-26.3593 121.094 -2.88295
-28.4281 122.771 -5.67287
13.1871 114.888 -12.0522
13.1861 114.331 -10.648
-13.0975 112.782 9.25484
-8.74194 120.103 -11.0957
-20.8591 114.902 8.98473
-4.13794 120.688 -15.2748
-22.7439 121.998 -7.00543
-22.1972 122.725 -9.06583
3.22708 119.396 -16.594
-26.549 122.216 -5.02675
-22.2125 122.211 -7.58827
14.5072 112.758 -7.13283
-31.3323 123.976 -6.09897
-4.10046 120.862 -15.2213
-23.403 116.597 6.99405
8.79235 109.356 4.76859
12.5943 115.447 -12.3264
8.91484 117.614 -15.2289
-23.4135 116.832 6.59584
-26.4859 121.073 -1.65003
-14.8309 113.727 9.05421
-7.34561 112.238 8.08576
12.9865 116.167 -13.9006
-6.92315 120.532 -12.2404
-2.6873 113.357 2.54333
-19.9108 123.155 -10.4854
3.88126 119.64 -16.5479
14.4457 112.87 -6.5956
-11.5943 112.95 9.2883
-25.2725 122.282 -4.91895
15.6489 111.795 -4.46556
9.84898 109.417 4.91112
-12.2779 113.286 9.20959
-19.0656 114.932 9.40854
-11.0273 113.084 9.30357
-24.6261 122.43 -4.9887
-11.6435 121.439 -10.5595
-0.314944 113.741 1.15513
2.81565 120.119 -16.2174
-25.4997 122.637 -4.90742
11.7621 115.443 -10.324
15.4981 111.965 -4.10956
-10.4593 112.987 9.38728
9.96089 118.238 -15.8204
4.28401 119.933 -16.4049
11.5294 109.667 4.0705
-7.16518 120.929 -11.6108
-28.5543 123.928 -5.73443
4.23654 112.762 1.22159
10.3305 118.274 -15.8507
11.7201 116.533 -12.4741
-21.3168 116.099 8.95693
11.4772 118.068 -15.9323
12.5011 114.992 -9.07973
-22.63 116.493 8.86776
-23.3813 117.316 7.35082
-3.92418 113.607 4.4387
-5.04411 121.476 -13.9121
-26.4267 122.42 -3.04234
-2.33934 121.452 -15.4797
-25.4523 123.001 -4.92767
-15.6527 114.817 8.94022
15.0685 112.374 -4.01023
13.1279 114.478 -7.87773
-4.2341 113.473 5.29186
-34.7747 125.298 -4.53094
12.6859 114.901 -8.48341
14.1208 113.186 -5.20075
12.3139 110.143 3.28927
12.6412 114.938 -8.42172
-22.6031 116.806 8.75202
0.724229 114.154 0.875594
-21.4266 124.074 -9.45776
10.1388 110.214 4.78468
-24.2018 122.857 -4.73348
-22.0872 123.281 -7.02115
-30.7134 125.049 -5.99448
-13.1212 114.39 9.04565
15.5933 111.993 -2.69384
-23.2086 123.767 -7.339
-23.6815 119.402 3.56974
4.95637 120.315 -16.2133
7.86241 119 -14.7957
4.43745 113.267 1.23908
-12.7198 114.465 9.08603
-25.1808 123.46 -5.04239
7.43392 111.8 3.30055
-22.039 123.956 -8.01852
-30.1562 125.269 -6.0445
-6.52092 113.531 7.91948
-36.2015 124.585 -0.628047
-25.5982 121.869 -0.535182
10.6604 118.527 -14.7081
4.61991 113.483 1.2772
-1.77199 114.819 2.0034
-7.33982 121.619 -11.0515
-35.0916 125.287 -2.76639
-24.7845 123.061 -3.69129
-20.2035 124.564 -10.1196
-14.4235 115.238 8.99617
8.45467 119.268 -14.7036
14.1291 113.305 -3.69192
7.48131 119.61 -14.8804
2.25646 121.325 -15.6817
-2.97656 114.852 3.22919
4.20893 120.917 -15.8759
-20.8402 124.881 -10.0356
10.2152 110.918 4.82773
-26.152 123.309 -2.83551
-23.6529 124.234 -6.61324
-10.2866 122.342 -10.1828
6.83133 112.695 2.70206
12.0265 110.962 3.7919
-25.6434 122.17 -0.144792
-25.9292 121.902 0.812621
-13.3979 115.312 9.09268
-32.4433 124.849 -2.28033
10.6496 118.326 -12.9214
-24.2518 123.735 -4.54463
-25.2506 123.641 -3.66704
-35.1226 125.485 -1.95135
-35.0986 125.495 -1.97874
-31.0676 126.081 -5.87294
-26.0477 123.571 -2.84129
15.7025 111.918 -0.202271
12.2794 116.047 -8.08001
-25.7705 124.85 -6.0161
9.95409 119.864 -15.8195
9.91836 111.284 5.02302
-23.7581 124.239 -5.58905
-22.8588 119.374 5.74874
9.71714 111.471 4.98472
8.54355 112.019 4.4914
9.14228 119.984 -15.1194
-33.0958 125.237 -1.81648
-22.9325 124.497 -6.26664
-17.1481 124.974 -10.8688
-17.2969 125.06 -10.8217
-19.163 117.199 9.40172
14.1328 114.212 -3.77977
-24.7783 124.532 -4.87747
-35.2799 125.226 -0.09135
13.1274 115.513 -6.26669
-18.48 125.269 -10.4472
-10.8775 115.188 9.33412
14.1478 114.59 -4.41013
-26.5845 124.511 -3.38031
-18.2647 117.111 9.47864
-24.0183 123.876 -3.35856
-22.7073 124.245 -5.05457
-3.84776 115.207 5.27969
-35.6909 125.35 0.281161
8.71374 120.279 -14.7061
-20.7071 117.858 9.24206
-25.9862 123.164 -0.319322
-27.5721 126.096 -6.41123
-22.9804 123.887 -3.82951
6.46635 113.894 2.31822
-24.6805 124.677 -4.53722
-7.6845 122.651 -10.0562
-0.716193 116.159 1.48652
-23.1027 123.881 -3.45805
-32.2126 127.099 -5.6478
-20.8598 125.087 -7.73339
-21.2008 125.648 -8.88166
-15.5384 116.794 9.11913
7.18234 120.93 -14.8472
-23.6561 124.628 -4.8521
-21.0429 125.729 -9.1062
1.96337 115.908 0.671271
-28.093 124.717 -2.17156
-3.71756 123.343 -13.7466
10.9916 118.236 -10.4054
-26.123 123.33 0.0799957
9.57554 112.333 4.86621
-36.5399 126.637 -1.43738
15.1091 112.468 1.17082
-25.776 124.555 -2.94528
-22.5593 124.703 -5.24448
-15.4526 124.877 -10.0072
-16.9739 125.511 -10.593
-24.4121 124.306 -3.08676
-15.9487 125.11 -10.1937
-26.1685 123.598 -0.230608
-25.1692 122.3 2.34729
-24.6042 124.435 -3.17132
4.84826 115.191 1.15274
15.17 112.672 0.983986
-24.8965 124.344 -2.68293
-20.3887 118.278 9.27433
-33.4823 127.379 -4.67346
-26.8794 126.478 -6.54206
-2.84535 116.18 3.71032
12.185 112.498 3.5438
-23.2675 120.748 5.33495
15.814 113.643 -1.32639
15.41 113.069 0.319842
-33.3542 125.914 -0.773405
15.0424 112.822 1.27359
7.41407 113.873 3.44653
14.7448 114.414 -2.36239
-17.1788 117.618 9.48757
-37.0643 126.95 -0.878657
-22.803 125.306 -5.60011
-22.1431 125.82 -7.15347
-23.953 126.22 -6.80544
-24.1437 125.006 -3.73191
-7.60798 115.644 8.7996
7.02075 114.407 2.98822
8.69941 121.34 -14.8112
-24.8737 125.653 -4.62633
-33.5718 127.458 -3.55688
-25.145 122.923 2.27627
-23.7228 126.07 -6.21914
5.83702 115.456 1.35298
-3.47489 116.252 5.18054
-22.7229 120.043 7.84505
-24.9134 122.537 3.27759
-27.9142 125.098 -1.07952
-4.73243 115.888 7.01674
-22.7095 125.474 -5.07554
-22.2381 126.166 -6.96147
14.1076 113.21 2.14062
-29.3742 125.669 -1.316
3.41869 116.561 0.754364
15.5213 113.98 -0.39852
-32.5665 126.379 -0.881809
-18.6952 118.7 9.2052
-24.9366 123.003 2.7228
-28.7121 127.559 -5.96848
-29.7762 126.112 -1.79338
-4.80591 123.957 -11.8905
6.89287 115.028 2.72329
-24.359 126.829 -6.6386
13.6522 119.928 -13.2283
7.88467 114.302 3.95472
-0.722065 117.414 1.70902
-27.9484 127.582 -6.172
-13.3755 125.304 -9.60202
-0.584125 124.129 -14.6055
-26.2657 125.348 -1.56711
-8.81762 124.327 -9.80616
-25.8074 125.395 -1.94194
-27.3348 125.792 -1.81821
-22.0132 126.334 -6.39979
4.27951 122.661 -13.6017
-11.0231 125.023 -9.91284
-26.0259 125.332 -1.42192
13.9857 117.818 -7.74635
-18.3788 119.072 9.15491
15.913 118.493 -10.5098
-23.632 121.884 5.58362
-26.3586 125.232 -0.85079
-22.4154 125.876 -4.80939
-36.956 127.096 1.19741
-14.4231 125.828 -9.57279
-25.5924 125.282 -1.37784
-12.5127 125.385 -9.60893
-26.0319 124.947 -0.230249
4.92847 122.709 -13.8227
-6.7369 124.073 -9.84653
8.11987 122.428 -14.9861
12.0474 113.685 3.84068
-25.5442 125.432 -1.51946
12.6052 113.732 3.44079
-24.7316 124.035 1.50078
-2.58528 124.702 -13.7211
10.8457 122.118 -15.6344
-0.908683 124.589 -14.3555
15.7615 118.593 -10.0466
-31.867 128.766 -5.41759
-5.24428 116.692 7.50001
-5.86161 116.678 7.94918
-2.81223 117.328 4.5277
-4.05668 124.509 -12.1067
14.9205 117.01 -5.59148
14.7632 115.975 -2.90602
-21.1657 120.107 9.17325
-29.2823 126.086 -0.294929
-27.3048 126.258 -1.85961
3.98378 117.236 0.783668
6.94627 115.745 2.68885
-13.3069 125.995 -9.69981
-24.1865 127.51 -6.67292
-24.5768 124.227 1.60121
10.5523 113.914 5.0214
10.7633 120.25 -10.4249
-18.3358 127.612 -10.3562
-24.5456 124.229 1.68682
-21.8453 126.273 -4.92019
7.97768 115.028 4.07868
-5.39817 124.589 -10.8176
-26.2553 125.368 0.166781
13.8305 119.719 -10.735
-2.2235 117.879 3.63515
3.4139 123.486 -13.3652
-25.2699 125.034 0.524596
7.39891 115.616 3.28571
-21.9476 127.267 -6.89967
14.1505 114.352 2.43817
-16.6138 119.229 9.54092
15.0733 115.93 -1.92911
13.7544 118.898 -8.27622
-26.6905 128.312 -6.16883
-27.6522 125.917 0.238131
4.5858 123.504 -13.6726
2.99453 117.993 0.689073
5.0861 123.429 -13.7259
11.4594 121.968 -14.0677
-20.6147 127.599 -8.00803
3.27913 117.997 0.671678
13.0427 119.626 -9.26685
-1.60215 125.24 -13.7988
-24.131 124.044 2.96182
-19.1438 127.825 -9.18321
-30.7134 129.205 -5.39899
11.3323 121.428 -12.2828
15.1509 119.422 -9.7386
-31.0561 127.261 -0.345033
-3.63259 125.099 -11.9005
17.8204 118.141 -8.2089
-18.6118 127.726 -9.05051
-22.4821 121.893 7.47668
-35.8184 128.389 -0.0661988
-32.7712 127.315 0.762557
-2.73174 118.089 4.78358
-31.667 127.352 0.120433
-25.973 127.472 -3.56727
14.6471 117.578 -4.50282
-19.0846 120.609 8.91091
-6.33403 125.037 -9.62825
-18.1289 120.409 9.00359
3.40207 124.106 -13.1698
10.7848 123.001 -15.0119
14.9016 117.8 -4.89757
0.855459 118.902 1.08187
15.1987 115.983 -0.523536
-4.8221 117.78 7.42564
6.62686 117.099 2.10633
-17.9606 128.41 -10.0337
-0.672974 119.111 1.88837
-24.8214 128.81 -6.77091
-7.82492 117.984 9.07006
-26.8342 126.333 0.527798
-30.7141 129.742 -5.3365
-21.2542 128.099 -7.12383
-16.8938 120.179 9.39303
10.8261 122.036 -12.0951
-25.4856 127.482 -2.97914
2.45742 118.873 0.746294
12.2471 121.721 -12.0588
14.6773 115.527 1.49484
10.4217 121.998 -11.4513
-21.5753 127.586 -5.32952
17.3644 118.693 -7.69398
17.1627 120.971 -13.0879
-6.56031 118.084 8.50236
6.02961 117.909 1.2362
-32.2447 127.549 1.44438
1.88217 124.943 -13.1493
13.7822 120.023 -8.48351
-25.221 127.43 -2.34174
15.5346 119.749 -8.72649
-24.7615 129.304 -7.12029
5.75592 124.604 -14.4358
15.8953 119.718 -8.8166
14.7005 119.353 -7.14748
-12.3487 127.377 -9.97058
0.84036 125.463 -13.4208
-24.6493 125.875 1.27029
-25.3793 126.243 0.836348
10.6728 122.116 -11.2989
-21.7501 128.102 -5.85943
13.7059 121.796 -12.2827
-32.9307 130.199 -3.93456
-25.6639 126.595 0.342427
12.9915 122.525 -13.5097
10.5171 122.334 -11.5107
14.7804 119.743 -7.83528
5.91546 124.825 -14.6582
14.5956 120.175 -8.71702
16.0733 119.217 -7.25891
-28.8999 127.132 1.19667
-21.68 128.174 -5.75385
4.17656 124.566 -12.8543
-5.92516 125.817 -9.62235
-28.9294 127.135 1.32283
-5.44388 125.91 -10.1306
-0.518004 119.731 1.94445
-28.4754 127.744 -0.295876
17.9616 118.813 -7.03621
-15.9676 128.502 -9.66127
-14.4858 128.544 -10.518
-14.1513 120.119 9.72349
-12.6538 119.783 9.6463
-19.175 121.753 8.91385
-19.0801 121.756 8.89638
9.59953 124.431 -15.0989
13.4209 120.723 -8.42468
-9.27118 126.793 -9.18582
16.4991 119.313 -6.87443
-23.1352 124.689 4.45028
-35.6997 128.964 1.81636
-17.7595 129.179 -9.7231
11.6849 115.835 4.57519
-4.52896 118.79 7.38248
-17.7871 129.017 -9.02186
-1.87819 119.6 4.10094
15.0073 122.925 -14.3231
14.469 120.49 -7.92459
11.7704 116.035 4.53191
15.2028 122.402 -12.9592
-21.0181 128.935 -6.53472
18.6648 119.375 -7.67518
-17.0971 129.167 -9.37806
-28.7509 127.933 0.793909
-17.8621 129.245 -8.98286
16.4251 119.351 -5.90368
-1.80916 119.862 4.13018
-18.915 122.249 8.86016
-25.1581 130.557 -7.39767
-25.4689 130.646 -7.32798
-8.08318 126.886 -8.81233
13.9252 117.511 0.480523
-32.5879 128.503 2.43502
-21.4278 128.686 -4.78889
-27.2106 127.614 1.38417
12.375 116.464 4.16428
-23.6823 129.944 -6.33383
-24.8276 127.029 1.44449
14.2043 121.083 -8.10723
10.3576 123.742 -12.1575
14.167 123.279 -13.3717
-24.8896 127.526 0.369712
14.4396 123.652 -14.4041
-16.3768 129.54 -9.70462
-18.1664 129.839 -9.30209
-15.3419 121.467 9.27448
-35.1887 129.767 1.37608
8.95771 125.598 -15.578
4.62448 125.756 -13.2849
-10.1103 127.838 -9.20232
-34.9366 130.262 0.297125
-25.5802 131.032 -7.30417
-28.7536 131.383 -6.18713
17.2129 122.492 -12.8325
-20.9128 123.539 8.16412
8.99573 125.757 -15.5523
-28.968 128.111 2.09296
7.82245 126.013 -15.4236
14.3624 120.531 -6.11312
-27.0091 131.265 -6.68819
-0.170704 120.904 1.95293
12.1019 122.466 -9.3214
-28.7095 128.224 1.81472
-24.4166 130.712 -6.84682
5.03787 120.165 0.65656
-24.0112 126.455 3.30062
7.84708 118.182 3.84703
0.274522 127.017 -12.8433
-17.973 130.288 -9.53831
-23.986 126.523 3.36487
-27.5083 131.57 -6.67092
-3.18404 127.275 -11.0683
6.77808 119.286 2.1885
-14.27 129.918 -10.6356
-20.4678 123.376 9.08285
7.65042 126.345 -15.3504
-4.15824 120.013 7.28924
13.5875 121.847 -7.91391
-30.5583 128.735 2.57783
19.8003 121.638 -11.1147
-7.02497 120.334 8.60166
-22.7001 125.576 5.54526
0.447239 121.407 1.43776
-24.1536 127.583 1.65566
14.6951 120.268 -4.3865
-19.7769 130.09 -7.00923
-12.7922 121.548 9.44946
-24.3003 127.515 2.06052
14.0658 121.195 -6.17696
-0.029414 127.465 -12.6407
-6.65371 127.5 -8.61988
-18.693 123.339 8.90501
-12.5571 121.597 9.3722
14.3298 121.024 -5.7544
-25.9688 128.176 1.69179
-31.1023 129.069 2.73251
-6.65603 120.484 8.55018
-17.8839 123.216 8.85087
-18.574 130.51 -8.39923
9.81925 117.745 5.10035
15.9432 120.164 -4.50614
-20.7688 129.645 -4.91138
18.5943 122.219 -11.0974
10.1759 124.84 -12.2659
11.5762 123.819 -10.6152
-5.51786 127.497 -8.99307
12.7111 123.216 -9.7659
9.89037 124.884 -12.0555
-21.6431 124.989 7.10483
13.2624 121.894 -6.80454
-1.61629 120.999 4.51435
-3.36602 120.528 6.73489
-2.77413 120.689 5.98697
6.27295 120.44 1.13124
6.20227 120.49 1.07159
14.4819 120.581 -4.18808
3.59832 121.411 0.594835
13.448 118.54 1.5087
-20.3557 124.007 9.03258
12.5411 123.263 -9.3099
-19.9809 130.336 -6.4652
-21.9516 130.117 -4.67305
-19.2771 123.822 9.02948
8.63518 118.595 4.55515
-5.47805 120.728 8.18452
11.1768 117.891 4.84353
10.6276 117.974 4.99612
-9.8184 128.971 -8.8843
14.389 119.843 -1.51779
-10.1016 129.111 -8.9185
-27.0435 128.577 2.86885
-30.6105 132.299 -3.87903
-32.5351 132.082 -2.00051
-8.77442 128.836 -8.72876
-30.9803 132.376 -3.63217
-22.5159 131.52 -6.73987
-12.7183 122.391 9.38948
-21.1973 125.275 7.64566
12.6377 122.122 -5.22519
-25.3121 128.561 2.50548
-23.8156 128.377 2.09215
21.5288 122.243 -10.885
-20.6599 131.091 -6.29074
-9.45404 122.258 8.28369
17.8148 123.672 -11.8335
-27.2383 132.628 -5.82085
15.1885 120.468 -2.40443
-12.4574 122.663 9.29435
-28.8187 132.517 -4.48707
-25.7778 128.655 3.06009
-13.9348 123.177 9.0659
-3.39816 121.411 6.94309
2.89053 127.543 -11.7607
12.2492 122.545 -5.37947
13.5379 121.815 -4.36353
18.8756 120.575 -4.58666
11.9478 123.097 -6.40582
-8.05057 122.192 8.08674
14.0658 122.576 -6.2804
14.8031 120.47 -1.62039
-18.2918 131.628 -8.32459
-5.37624 128.516 -8.65715
13.0748 123.681 -8.27197
-7.7988 129.071 -8.47355
12.1311 125.182 -11.2764
-18.1047 131.716 -8.53191
10.9407 126.443 -13.5936
-20.9753 131.138 -5.35214
18.3473 123.521 -10.9664
3.41326 122.553 0.596344
-6.4937 121.897 8.36059
-1.01602 128.964 -11.9133
-7.79852 122.429 8.09626
3.00111 122.774 0.631883
-13.4393 123.468 9.08407
-4.63083 128.701 -8.92286
1.71961 122.984 1.0872
13.6352 122.316 -4.30483
20.7701 123.034 -10.3932
-16.0895 124.503 8.72309
19.9992 120.888 -4.63166
-8.92513 122.967 8.12404
15.4199 121.663 -3.65924
-23.3415 128.986 2.42338
12.3154 122.92 -4.75967
-28.4236 129.99 3.14059
4.41287 122.761 0.499849
21.1422 123.076 -10.47
15.7318 121.17 -2.51914
-20.8725 127.299 5.11796
-0.0540543 123.028 2.72236
8.54148 120.141 4.46565
9.43347 127.969 -15.0308
-25.4914 133.321 -6.53116
-24.2245 129.097 2.9956
-24.9565 128.979 3.7331
14.1245 122.418 -4.10602
-21.5712 128.148 3.95844
-33.0341 132.974 -0.692237
-16.6892 124.934 8.764
-8.70025 130.15 -8.73003
-33.6182 132.415 1.0945
11.3523 127.173 -13.8118
10.6157 124.85 -7.72196
-33.4231 131.999 2.02286
22.3322 122.939 -10.2143
-8.38957 130.061 -8.59278
19.8 121.125 -4.18901
21.242 120.928 -4.58558
-20.2409 127.421 5.23522
-26.699 130.039 2.87091
18.363 124.075 -10.2867
-28.2161 130.417 2.96936
12.7935 119.673 3.86997
-21.5276 128.464 3.65082
-0.66552 129.53 -11.6743
14.8699 122.526 -4.19836
9.07029 120.345 4.65634
10.9242 119.778 4.9854
-24.2845 129.402 3.30636
-19.2838 125.938 8.67894
23.1097 122.595 -9.22944
14.5213 122.25 -3.08823
-26.4821 130.238 2.75919
22.1883 120.742 -4.12533
13.1534 124.906 -8.65569
-24.2908 129.427 3.404
22.9798 122.614 -9.12647
-31.1912 131.431 2.84456
16.3673 121.778 -2.96761
-1.68596 122.946 5.31101
-5.4679 122.761 8.10712
20.8238 121.277 -4.42773
-33.0678 132.301 2.07904
10.013 128.407 -14.9363
7.62035 121.966 2.16172
-32.599 132.111 2.2994
9.99264 125.601 -7.98886
-30.4467 131.459 2.6781
-18.4363 132.79 -7.80499
-33.3999 132.931 1.12351
10.6393 127.038 -11.6388
-7.6643 130.311 -8.2723
23.7227 122.851 -9.44816
16.1589 125.831 -12.0048
-9.9763 124.051 8.4004
8.93268 120.899 4.57856
16.4842 122.024 -2.71658
19.856 121.539 -3.60091
-17.4514 132.867 -8.12548
11.322 128.098 -14.2274
11.6568 127.079 -11.9427
8.62922 129.049 -14.7976
-15.7162 133.293 -10.1169
-8.75 124.148 7.82375
-16.915 125.853 8.73465
-20.5065 128.888 3.58793
-25.7606 130.376 3.29619
6.50868 123.16 0.979158
-8.01663 124.079 7.68887
-7.4207 130.468 -8.15441
21.7816 121.918 -5.34367
13.2478 120.499 3.36253
22.1907 121.088 -3.40246
-25.2207 130.048 4.03171
-9.29175 131.352 -8.8732
-15.5836 125.661 8.78771
-27.3636 134.1 -4.31168
-26.1609 130.677 3.26033
-28.2384 134.117 -3.74489
4.77404 124.111 0.373191
-27.239 134.218 -4.31338
23.4632 123.324 -8.90564
-7.32543 124.248 7.78844
14.5488 126.804 -11.8032
10.8983 126.659 -9.20104
22.7849 123.332 -8.43714
-3.19936 123.549 7.06912
-0.231552 130.383 -11.2776
15.248 122.136 -0.788094
0.0779364 124.407 3.02948
-8.7759 124.717 7.73098
14.7983 123.042 -2.66621
-15.2586 125.924 8.85136
20.6071 121.896 -3.41186
-0.954479 123.971 4.85841
11.3497 120.913 4.74311
-24.3029 130.126 4.35655
-33.0867 133.931 0.578774
13.4258 124.996 -6.32218
23.2193 123.473 -8.62353
12.9576 121.167 3.3135
15.5003 122.407 -1.17752
11.0985 127.005 -9.59523
22.1384 122.265 -4.76964
13.2915 125.122 -6.25053
11.6452 128.429 -13.0076
-1.85553 124.142 5.78214
16.0573 126.675 -11.3528
-13.4213 125.774 8.94525
5.47024 130.272 -13.4854
-21.4402 133.971 -5.90837
14.4177 127.178 -11.3939
3.65286 130.001 -11.5705
-15.2292 126.341 8.92651
-10.0442 132.522 -9.13084
17.5506 125.874 -9.92944
15.1258 123.518 -2.72587
14.9262 123.806 -3.25947
17.9967 122.542 -2.04397
11.8609 124.668 -3.41437
-10.5145 132.795 -9.35945
-1.69986 130.914 -10.2136
21.0685 124.797 -9.37409
13.7476 124.283 -3.57071
-7.51603 131.512 -8.0096
11.0107 128.013 -10.8997
-25.4448 131.02 4.35363
-12.8815 134.066 -10.7363
1.11423 130.558 -10.5622
14.0529 122.531 1.00571
-21.7593 130.919 2.73152
11.4004 122.007 3.98054
15.7576 123.902 -3.2772
11.3389 129.142 -13.177
23.7807 124.218 -8.85689
-30.0638 135.082 -2.04312
-12.352 134.041 -10.3848
-10.8444 125.817 8.66164
11.2597 127.822 -9.71261
-29.1675 135.192 -2.72212
16.7592 126.789 -10.5322
9.29524 130.315 -14.4581
8.20161 123.563 2.58396
11.8312 128.281 -11.073
-9.93357 132.962 -9.03373
-27.0799 132.23 3.4
-5.67619 131.298 -7.48834
-18.5109 129.368 5.10597
-17.5205 134.164 -7.09259
23.107 123.459 -6.08383
15.5083 123.23 -0.854947
15.7509 123.774 -2.31431
-19.3272 133.519 -4.37387
-32.4679 134.743 0.765712
23.2323 124.592 -8.8391
12.514 122.574 2.63643
-31.7663 134.142 1.82061
-29.3715 133.59 1.71343
-23.099 131.095 3.9836
11.2836 129.566 -13.3432
20.7342 123.046 -3.33316
13.7172 125.066 -3.90602
-20.085 134.092 -5.00861
-18.4955 134.337 -6.43935
-32.398 134.901 0.770123
6.46286 125.161 0.551564
12.4229 126.023 -5.19637
-9.52765 133.083 -8.77991
-10.2402 126.221 8.34312
20.7931 123.222 -3.40521
1.62594 126.051 1.55068
1.46213 131.03 -10.3979
16.3401 123.573 -1.45605
15.6765 124.694 -3.7487
-4.97399 131.46 -7.45394
9.13816 122.858 4.75536
20.5225 125.521 -8.65932
15.3199 124.886 -3.85177
-31.023 135.587 -1.29404
-27.5591 133.185 2.49219
11.3876 127.919 -8.48848
-26.9605 135.702 -3.7702
17.098 123.482 -1.16599
15.1154 124.511 -2.43055
23.6916 123.657 -5.57195
6.23469 125.576 0.506041
0.151001 125.85 3.63193
-19.1633 130.55 4.17745
3.67776 126.304 0.457215
-8.71454 126.641 7.29095
23.2624 123.097 -3.75478
23.7872 123.691 -5.47818
9.91421 127.171 -5.36915
-0.378495 131.83 -10.3117
11.2494 128.745 -9.97052
14.1865 123.657 0.564411
6.10307 125.766 0.478521
-9.97957 126.695 8.11344
-15.4684 127.911 8.54382
-23.2443 135.766 -5.69594
14.8483 125.231 -3.51662
0.691124 126.241 2.82177
15.3964 124.262 -1.31454
-15.6838 128.12 8.43755
-23.2401 135.898 -5.71649
-21.5629 135.735 -6.3183
10.2023 131.054 -14.3885
-29.8966 136.062 -1.87943
17.904 123.567 -0.94621
23.7411 124.035 -5.62209
11.4255 130.303 -13.2254
-11.9714 127.122 8.92534
11.6863 129.198 -10.624
1.47962 126.61 1.95834
12.306 128.1 -8.25877
-20.5044 135.491 -5.99503
22.563 123.562 -3.51971
-7.17088 126.574 7.47194
16.1661 127.865 -9.96456
-22.565 136.045 -5.92199
-7.2239 126.641 7.44762
-19.5517 135.183 -5.67801
11.8668 128.696 -9.22572
10.9967 128.342 -7.80241
11.5777 124.006 2.47504
12.2901 128.436 -8.69761
-25.0643 132.417 4.60651
-20.3562 135.712 -6.24006
-27.3281 133.973 2.28838
11.5877 126.591 -3.66649
10.1354 128.547 -7.49772
-7.38765 126.858 7.37068
-3.15688 125.92 7.1402
15.5918 124.988 -2.09693
6.4728 131.838 -13.0911
-13.7023 128.244 8.10364
10.6751 127.944 -5.99701
9.59653 123.66 5.08304
10.9624 128.264 -6.85038
3.62832 127.109 0.50562
-18.2441 130.049 6.83888
-12.7884 135.793 -10.4198
11.5244 129.462 -9.97396
-29.6591 135.279 1.26837
2.35213 127.16 1.28276
-24.5224 132.551 4.76306
10.504 127.73 -4.99305
11.8013 130.393 -12.2054
21.6479 123.304 -1.03062
-2.12304 132.611 -8.94012
-29.2301 135.309 1.23484
-2.23289 126.316 6.4928
14.1138 125.103 -0.56575
14.7965 126.224 -3.6953
17.9759 127.33 -8.31146
-27.4222 134.626 1.9144
21.4716 124.598 -3.70658
11.1499 127.129 -3.47232
-15.1591 135.474 -7.52862
11.3468 127.298 -3.93342
2.87187 132.185 -10.5244
13.8185 125.233 -0.197382
-14.8701 129.314 7.56227
-16.061 129.998 6.63738
-31.3349 136.043 1.38578
-19.8123 135.511 -4.39664
16.3356 128.326 -9.17315
2.64853 127.55 1.11833
9.03129 124.723 4.09878
11.2091 129.533 -8.88976
-8.01957 127.865 7.02934
13.8255 129.609 -10.5423
4.41632 127.474 0.432705
-26.4596 136.856 -3.30603
-1.74843 132.903 -8.82598
-30.8111 136.086 1.33243
2.53695 127.679 1.25384
-8.4654 128.14 6.91739
9.47318 124.329 5.13242
16.7523 124.754 -0.190094
11.9035 125.215 1.70855
2.47505 127.765 1.33192
-20.8262 132.526 4.16158
4.96582 132.827 -12.2873
-20.6783 132.609 4.06757
13.061 129.115 -8.08812
12.0945 128.505 -5.91092
-20.7175 132.653 4.21258
-25.3944 137.695 -4.97858
20.3713 127.082 -7.35416
14.6706 129.694 -9.99268
-11.4051 128.741 8.33808
-10.1539 128.627 7.86398
-2.83694 127.189 6.96566
12.115 128.571 -5.47125
-23.1506 133.597 4.02091
-1.92264 127.319 6.34268
17.8039 124.799 0.333795
-5.57727 133.85 -7.22303
4.78049 133.257 -12.0447
-19.025 136.313 -4.79833
-9.9637 135.946 -9.44607
15.851 126.774 -3.03251
12.8933 130.068 -9.14554
8.54884 125.991 3.41099
23.8452 126.648 -7.57765
-26.1438 137.955 -4.17974
-19.103 136.285 -4.45275
12.0631 129.342 -6.72444
-7.79153 128.752 6.95507
11.4856 128.807 -4.64784
-13.0663 129.885 7.87523
-14.5196 130.743 6.722
-16.7857 131.457 6.49926
-9.72427 136.246 -9.42932
23.697 126.478 -6.21713
24.339 125.34 -3.84924
11.0939 128.653 -3.72196
-18.5078 132.809 4.41128
0.622331 133.77 -9.58581
6.55824 133.402 -12.2955
15.6913 126.881 -2.00753
18.6697 128.453 -7.6262
11.5372 131.74 -11.1855
0.467366 133.814 -9.3962
8.32322 127.274 1.7656
10.5404 130.639 -7.67449
20.9532 125.791 -2.28906
14.9708 130.468 -9.87143
-0.0336798 128.127 5.03239
-17.0496 132.093 5.92213
24.1195 127.137 -7.3251
-13.3581 130.513 7.55224
-29.7999 137.462 0.838443
-17.9635 132.932 4.63528
15.2507 127.438 -2.36104
12.387 130.138 -7.03843
-5.42588 128.662 7.54229
9.77597 125.995 4.7097
-14.7036 131.513 6.39446
16.5133 126.066 0.420587
-2.84645 128.254 7.01676
20.6159 125.016 0.468669
1.53422 128.973 2.61222
10.1152 133.362 -13.2931
7.54976 128.133 0.969863
20.7846 127.885 -6.55024
10.3696 130.867 -7.31044
9.66997 133.45 -13.1264
10.4367 131.231 -7.94525
2.00685 134.142 -9.78233
0.721388 128.64 4.42797
-2.00743 134.235 -7.3915
-18.2475 137.55 -5.4192
22.189 126.492 -3.43725
4.67843 134.332 -11.6056
-14.9757 131.963 6.26234
16.5996 126.347 0.479902
13.2905 129.976 -6.14497
-27.7578 138.463 -1.38827
12.7479 129.997 -5.61114
22.3896 126.701 -3.54356
-15.9088 137.798 -6.82871
11.721 132.884 -11.8902
4.93798 134.473 -11.5405
10.2765 126.569 4.39457
20.1422 125.953 -0.136725
-16.2133 132.569 6.16389
-16.5468 132.778 5.90009
20.7052 128.403 -6.36107
-18.8224 137.897 -5.08312
11.5817 130.745 -6.41362
7.61914 128.718 0.969855
-2.77486 128.899 6.98674
14.405 131.649 -10.1747
20.0928 126.019 -0.00488444
4.40132 134.796 -11.5534
11.2646 132.184 -9.27363
-21.8376 138.783 -4.84688
8.45344 127.641 3.5933
16.7678 126.793 0.625354
-16.353 133.056 5.82155
21.3247 127.14 -2.83592
-1.15181 129.156 6.09962
12.3424 132.571 -10.4667
9.99168 134.088 -12.6499
-24.8848 136.582 2.76598
-22.8456 139.069 -4.4732
23.6509 128.259 -6.79639
11.6286 131.497 -7.14244
-1.24457 129.292 6.15249
11.2194 131.808 -7.53305
-18.2735 134.284 4.63967
11.9613 131.516 -7.13834
20.5507 127.187 -1.8856
14.0377 131.737 -8.86617
14.3077 132.224 -10.1099
10.6454 131.963 -7.1195
-18.1862 138.633 -5.40236
-18.2136 138.702 -5.5156
-25.5453 137.305 2.40554
12.4339 132.647 -9.63186
-18.0627 138.597 -5.24484
-15.3959 133.339 5.93674
7.64667 134.866 -11.9038
22.6226 127.581 -3.42309
21.4661 128.908 -5.70033
16.5835 127.714 0.286646
11.759 134.315 -12.5858
7.96494 134.984 -11.8492
10.6572 127.718 4.107
4.84025 130.759 0.339128
-7.66514 137.517 -8.24538
12.5404 128.272 1.79135
13.2545 132.088 -7.79621
-12.2195 132.569 6.75447
-13.6186 133.009 6.66367
10.9592 134.784 -12.6225
7.17458 130.295 0.609394
-4.82746 136.297 -6.50355
7.78537 129.995 1.05251
20.4121 127.159 0.204182
17.3093 127.588 1.11701
21.5935 129.24 -5.3969
10.4388 134.994 -12.3898
5.31259 131.088 0.314507
24.7595 128.391 -5.05747
18.8287 127.324 1.25138
11.7233 132.694 -7.3858
-8.67858 138.456 -8.76111
-16.5417 139.494 -6.35712
0.877796 135.743 -7.94177
-12.3937 133.181 6.4319
-14.8771 134.236 5.40797
-27.7807 140.059 -0.715382
-29.5141 139.741 1.17092
-6.33986 137.614 -7.76539
11.7467 133.399 -8.64874
11.8666 133.493 -8.88336
-22.5035 136.991 3.80012
-11.9856 133.48 5.88965
-15.819 139.574 -6.48433
1.29051 130.731 4.52622
16.1903 128.718 0.276192
-9.2942 139.11 -9.13069
-21.063 136.498 4.45697
-6.36997 131.699 7.0607
-0.703939 130.87 5.63335
12.2682 134.668 -11.5322
11.6835 133.267 -7.76164
8.77088 129.939 2.12183
-3.05514 136.47 -6.37545
-4.44507 131.271 7.11166
-21.4112 140.119 -3.81779
-27.7146 140.534 -0.764094
-3.51236 136.708 -6.34522
17.035 128.421 1.13811
-13.1708 133.902 6.4402
-4.85884 137.211 -6.64872
-6.2027 131.893 7.06756
20.6703 128.523 -1.21361
8.51578 130.488 1.49354
10.6922 129.07 3.65622
4.65989 136.617 -10.7064
4.35545 132.056 0.625393
-13.9008 134.882 5.06417
-16.4174 140.306 -6.52608
-11.5387 134.154 5.49073
-10.8202 133.911 5.64218
17.3569 132.4 -7.86287
-20.0555 136.673 4.79557
3.0496 136.824 -9.75727
13.5247 133.299 -7.60381
18.3204 131.938 -7.2456
21.6285 130.154 -4.95067
20.9999 128.164 0.37089
13.7112 134.312 -9.96645
-17.2218 139.786 -4.1749
-17.0946 136.032 4.8633
-2.53421 131.605 6.74166
15.0678 129.855 0.180863
24.4697 129.107 -3.69487
7.78629 131.524 0.736092
22.9544 130.16 -5.19628
21.4246 129.116 -1.69143
-26.7503 139.541 2.65233
-13.4268 135.207 5.05052
-13.6718 140.594 -7.80052
7.2334 131.903 0.550238
12.2371 133.919 -7.39937
-9.01638 139.932 -8.88729
22.3336 130.387 -4.96544
1.96475 137.072 -8.47396
7.47535 136.723 -11.0019
19.0015 129.022 0.583141
-25.7446 139.588 2.59042
-17.2206 140.258 -3.961
-27.3456 140.084 2.70505
20.8451 128.752 0.583813
18.3319 132.561 -7.06893
13.8783 133.741 -7.16076
-7.07415 139.339 -7.82551
17.6661 132.989 -7.62943
-7.36676 139.469 -7.88196
-1.38776 137.39 -6.48437
-0.743537 137.311 -6.6624
20.9645 129.134 -0.131928
-20.1297 141.035 -3.71622
-8.93944 140.381 -8.80891
0.875179 137.236 -7.19192
-0.515227 137.384 -6.6925
-20.584 137.727 4.92622
2.13708 137.631 -8.64187
10.2334 130.418 3.91721
23.9838 130.322 -4.18943
-7.84945 134.31 5.76354
20.1354 129.302 0.745462
2.6821 133.16 2.14035
-0.218642 137.555 -6.7234
-14.9359 136.769 4.34805
-25.0364 141.747 -1.46616
8.29283 132.336 0.872439
14.1121 134.919 -8.92508
13.1146 134.648 -7.63886
13.0101 134.567 -7.26367
4.74842 133.331 0.893987
-3.10346 138.192 -5.99805
-19.8167 141.417 -3.4818
15.7924 134.568 -8.70978
24.0085 130.536 -3.90988
20.9062 130.066 -0.634841
-15.4796 141.716 -6.45107
3.34945 133.461 2.00737
5.80509 133.626 0.161131
-0.826786 132.932 5.9749
7.1587 137.786 -10.6556
20.8892 129.946 -0.0826588
12.1716 131.298 2.16613
3.80387 133.575 1.85164
5.43112 133.808 0.289151
15.7278 130.864 1.16008
8.82952 131.681 3.44971
6.72319 133.517 0.31694
13.7515 135.013 -7.5957
-3.98979 133.822 6.19689
-13.6001 137.157 4.0399
16.6173 130.812 0.908404
-24.4275 142.305 -1.66326
0.711065 138.097 -6.87573
14.4454 134.702 -7.08138
8.60027 132.56 1.74772
-11.1055 136.297 4.84826
24.0334 130.92 -3.69323
5.05196 133.839 0.917992
-23.6988 139.98 3.81242
18.7182 130.469 1.02447
-10.1736 136.083 5.17975
-2.61351 138.752 -5.93078
-4.55601 134.386 5.84462
23.7264 130.83 -2.80314
-0.118038 133.322 5.81464
4.41545 138.786 -9.99248
0.470607 133.376 5.57601
24.1959 131.076 -3.30645
0.887255 138.54 -7.04014
17.0278 131.19 0.8819
-5.67202 135.079 5.42665
-1.83741 138.87 -5.98425
14.0296 132.04 0.874002
11.0354 131.95 3.10849
-14.355 137.947 4.22239
-17.3446 138.45 4.94552
14.6476 132.109 0.667301
-23.7143 142.936 -1.99868
1.62528 134.176 3.70137
13.9167 135.907 -8.04334
-2.42964 134.228 6.15085
-5.4056 135.354 5.31208
11.5006 138.152 -11.846
15.4433 131.866 1.03893
-4.58721 135.222 5.45239
-19.3559 142.407 -2.85546
-4.88722 135.379 5.35688
-7.78885 136.341 4.89013
-10.7022 142.561 -8.30378
17.0587 131.73 0.958048
-25.1331 143.185 -0.810768
-10.0704 137.285 4.25186
-14.1006 138.423 4.03508
-1.68279 134.446 6.04451
20.2798 130.824 1.34645
-22.2111 140.293 4.56605
16.1655 132.055 1.02471
-14.9676 138.626 4.25696
-8.1986 136.695 4.78448
-13.3142 142.758 -6.75701
11.6795 138.365 -11.4242
0.911877 134.409 4.84925
21.8717 132.492 -3.3191
-10.5604 137.745 3.87781
1.74931 134.768 3.80434
-6.98406 136.609 4.71018
2.81558 139.515 -8.32717
13.1041 136.289 -6.74363
-25.1737 143.487 -0.641933
14.44 132.907 0.720815
-2.50111 135.216 5.67032
7.76345 134.866 0.224477
1.23153 139.55 -7.05816
-8.30947 142.358 -8.00125
-18.4521 139.429 5.34684
-20.556 140.386 4.42548
-3.64032 135.724 5.32934
-5.6112 136.448 4.82246
-5.60915 136.465 4.81569
15.5922 136.251 -7.59703
-3.4498 140.425 -6.0112
-11.7217 143.131 -7.48632
12.3453 137.851 -9.40482
-4.49757 136.223 5.03714
19.1203 131.712 1.48694
0.655979 134.746 5.55303
-9.48385 138.066 3.84336
4.50708 140.004 -9.39199
7.03245 135.41 0.247781
3.12189 135.506 2.43477
12.7297 137.725 -8.81651
14.0339 133.256 1.2482
22.0185 131.993 -0.562069
1.63049 135.149 4.34403
-10.5461 138.564 3.75679
-22.4395 143.98 -1.98321
-15.7114 143.716 -5.40913
-21.5133 143.831 -2.08079
-23.1593 144.181 -1.87005
-24.7157 142.259 3.76661
13.2103 133.518 1.76492
3.71061 135.845 2.09468
17.5731 136.174 -7.09115
5.40467 140.449 -9.97046
14.2519 133.664 1.10141
-7.65023 142.847 -7.62603
-20.1945 141.062 4.51497
2.78852 140.308 -7.75262
-9.08155 143.369 -7.82538
-15.8896 140.332 3.86642
22.2631 133.423 -2.81238
-18.4076 143.635 -2.40448
-25.4481 144.404 0.172509
21.3977 132.363 0.625564
-2.96776 141.268 -5.82142
2.68805 140.557 -7.51334
-3.53736 137.149 4.57145
-13.6395 144.199 -6.18395
-14.5271 144.271 -5.80366
-7.37879 138.626 3.63046
8.15155 136.133 0.256095
17.3657 136.794 -6.92707
15.2631 137.111 -6.36933
7.81522 140.655 -10.3033
-11.9195 144.284 -6.88632
6.06526 136.744 0.413744
10.2294 134.235 3.99903
-22.8435 142.748 3.8423
6.37518 136.803 0.382685
-9.66741 144.311 -7.88543
5.79691 136.987 0.527869
11.812 134.413 3.21997
21.4375 132.976 0.959045
-23.5719 143.409 3.35357
13.1951 137.65 -5.10107
9.35261 135.291 3.01693
18.5665 136.774 -6.11633
13.5486 138.186 -6.2802
12.6626 134.949 2.17921
-24.725 144.209 2.91686
-25.4162 144.939 1.70677
-18.4457 141.787 5.07892
23.0497 133.944 -1.32539
13.5689 137.827 -4.73893
-19.9322 145.225 -2.05394
-7.93134 140.089 3.02122
8.74157 136.859 0.685528
-4.77443 143.314 -6.43244
-11.1271 140.953 3.20951
-20.0362 145.442 -1.99744
16.8295 134.651 1.50529
-22.012 143.586 3.829
7.08287 137.684 0.358378
21.9995 133.824 0.684386
-23.4074 145.856 -0.562644
-0.75467 142.262 -5.71274
14.0093 138.136 -4.73476
-13.8122 145.529 -5.552
-18.416 145.326 -2.19272
-24.7194 144.916 2.67581
-16.0279 145.466 -3.97524
-24.3647 144.82 2.75873
1.73555 137.299 4.95921
-24.0744 145.766 0.436033
-14.6008 145.503 -4.64597
-3.66142 143.337 -5.9538
2.38309 142.016 -6.42907
9.18602 141.772 -10.0096
13.2625 138.812 -5.31903
6.47996 142.307 -9.61796
11.8964 135.854 2.73172
1.14569 142.233 -6.10499
-10.4848 141.261 3.44721
5.20783 142.263 -8.60197
-9.1034 140.992 3.42338
-19.7141 145.947 -1.94881
-13.1897 142.458 2.51047
-22.2041 146.309 -1.0018
-15.1168 145.867 -4.09518
-5.08173 140.375 3.06319
-19.9293 146.158 -1.80762
1.8555 142.472 -6.24133
-16.7782 145.508 -2.09436
18.351 135.035 1.93506
-10.8741 142.122 2.96367
12.9638 139.175 -4.52406
13.8512 136.015 2.60034
-0.386313 138.958 4.25664
-8.78051 141.529 3.23551
-20.9511 144.193 4.35631
-22.0032 146.768 -0.76155
-0.422745 139.268 4.18751
20.0706 134.923 2.18136
21.5082 135.959 -1.1652
-2.54023 143.78 -5.34176
19.7387 135.064 2.16718
-3.70411 140.737 2.9451
12.1425 136.688 3.05108
-4.17754 144.674 -6.07561
3.61753 143.026 -6.83876
-6.91418 145.757 -6.85488
-19.9205 144.211 4.92479
-1.29493 143.769 -5.41842
-19.5478 146.813 -1.54165
3.1343 143.111 -6.41471
12.7925 140.486 -5.77149
15.5539 136.555 2.2329
2.94952 139.001 4.0682
-10.9895 143.054 2.82918
-3.90538 141.383 2.68322
20.9188 135.776 1.46572
3.02249 139.29 3.97458
-19.0268 144.606 4.67792
-12.024 147.241 -5.99058
6.65077 143.717 -8.91843
-11.1288 147.326 -6.71639
2.78465 143.503 -5.97025
-6.3002 146.17 -6.5578
12.6123 141.152 -5.51351
-7.34983 142.841 2.68111
-20.5709 145.36 4.78916
-11.652 147.69 -6.15435
10.9457 142.823 -8.21974
0.203504 140.517 4.00527
21.3011 137.686 -1.98266
-19.8435 147.734 -0.970181
-14.2602 147.542 -3.92491
17.7903 136.978 2.00492
12.9866 137.677 3.27259
8.32023 140.187 0.234021
3.37741 140.251 3.186
-6.70478 143.16 2.489
7.37104 140.322 0.789884
-5.24 146.41 -6.15679
-13.8169 147.813 -4.25584
-14.2846 145.103 2.60608
-15.8084 145.306 3.11959
21.2677 138.12 -2.24079
-1.39558 145.013 -4.98627
12.2472 138 3.72505
-2.82308 142.448 2.30685
-20.9503 146.102 4.70547
-12.3193 148.115 -5.46584
7.1192 144.527 -8.58198
-2.55676 142.499 2.29468
-22.5005 147.828 1.64817
-15.3114 145.457 2.99824
4.38738 144.501 -6.76219
-0.143223 144.989 -5.15581
-3.59629 142.858 2.12969
-19.692 145.969 4.65876
19.7261 139.458 -3.63416
-3.0237 142.942 2.11332
-10.9181 148.537 -6.48988
15.3543 140.753 -3.65767
-13.0408 145.683 1.84717
2.46226 140.692 4.43255
-3.33653 143.191 2.07641
17.5473 137.846 2.20673
6.98704 144.936 -8.31308
-0.932026 142.127 3.35818
16.0012 138.059 2.89778
20.6904 139.198 -2.71677
-17.0294 146.235 3.40417
10.1905 139.908 2.04222
8.6683 141.04 0.287558
-8.5889 144.412 2.7987
