ply
format ascii 1.0
comment Created by Open3D
element vertex 1917
property double x
property double y
property double z
end_header
-17.4954 110.105 -13.6824
15.3906 101.704 -21.6117
27.2554 94.9993 -15.8014
12.196 94.2475 -1.25475
-20.0453 108.255 -6.95579
8.12046 104.534 -21.8902
15.7611 93.7427 -2.6936
-11.6254 109.045 -15.5181
-14.7049 101.79 4.22972
17.9471 101.145 -21.672
-12.4771 109.308 -15.083
13.0198 94.422 -1.38365
0.65143 106.889 -20.2662
23.4676 92.8808 -6.55431
19.6743 93.4916 -4.70011
-21.4816 110.403 -9.69792
-20.598 108.943 -6.95286
13.6606 103.292 -22.4983
26.7766 93.5957 -10.6854
2.31396 106.372 -20.0883
6.14111 105.648 -21.21
8.63932 105.26 -22.3216
-5.08104 108.333 -17.9223
6.35086 105.694 -21.3538
22.4398 99.6434 -20.6706
8.43804 105.349 -22.2575
-14.8072 110.401 -14.4295
3.74693 98.3701 -1.78412
25.7018 93.5687 -9.00039
27.8829 94.4284 -12.8482
26.0325 97.0015 -17.3112
11.7931 104.454 -22.7769
7.96222 97.264 -2.61493
9.59163 96.5811 -2.17727
-19.6318 107.62 -3.39621
13.202 94.9626 -1.28969
-1.37157 99.0648 1.39756
13.7572 94.9039 -1.56616
21.0112 100.861 -21.6389
9.49725 96.7484 -2.22784
-10.9634 109.592 -15.1526
-10.2125 109.482 -15.337
-18.7019 105.765 0.64664
-15.5455 103.129 4.27191
23.4357 93.7302 -6.42621
-10.3596 101.562 3.7381
-7.90071 100.799 3.51169
4.18579 106.642 -20.424
1.47432 99.3396 -0.945005
-17.0499 104.187 3.3305
16.6935 94.85 -3.14784
25.27 94.0654 -8.50111
-9.54749 101.51 3.42632
9.9322 96.871 -2.10685
16.24 102.863 -21.3844
8.69729 106.017 -22.3668
-11.6186 102.071 4.38531
-14.085 111.053 -14.5774
-18.5308 112.138 -13.2734
3.15373 99.4026 -1.48368
19.8816 101.971 -21.6464
24.7799 94.4321 -8.0292
3.79448 99.314 -1.60359
-17.2731 105.003 2.86292
-20.7545 109.933 -5.71413
-18.2234 106.007 1.47794
4.99873 107.224 -20.9443
5.66779 107.201 -21.3968
-17.5848 105.535 2.25625
-12.1843 110.852 -14.7704
17.7063 102.923 -21.2815
-8.17665 101.716 3.45435
23.0355 94.4731 -5.79017
17.0872 95.435 -2.93833
-14.8266 111.846 -14.4843
2.14256 100.116 -1.19934
-11.7599 110.928 -14.8938
-17.1449 105.109 3.44709
25.7325 95.0001 -8.96634
22.9203 100.804 -20.1495
1.84756 100.288 -1.12265
-11.4891 110.994 -14.9842
-19.0698 108.22 -2.03812
21.3349 101.93 -21.1979
7.37185 107.327 -22.0786
2.09302 108.579 -20.5602
-19.6204 109.596 -4.61118
11.8462 97.0523 -1.50114
25.6288 95.1838 -8.71713
-20.8585 110.416 -5.15922
-19.8437 112.966 -12.0137
-21.623 112.734 -9.89485
16.682 95.8616 -2.44617
17.9828 95.7606 -3.2846
-3.90596 109.736 -17.5832
3.80986 108.217 -20.5203
-11.9903 111.554 -15.0052
20.4163 95.5376 -4.66387
11.6242 106.3 -22.5079
16.1325 104.258 -21.42
-10.8315 103.125 4.12886
7.49195 107.724 -22.119
12.2691 106.195 -22.4574
-12.2281 111.911 -15.0723
-13.4866 103.937 4.75478
-20.6534 110.565 -4.73399
-4.47583 101.459 3.11372
-12.0276 103.514 4.69481
0.97806 100.824 0.0608293
14.3051 105.643 -22.2338
-0.557462 100.846 1.63564
-16.4697 113.308 -14.0853
25.7371 95.7912 -8.48363
24.5429 95.526 -6.81373
-6.34312 102.331 3.27053
-4.68206 101.787 3.2144
14.4461 96.7799 -1.15231
-17.7235 113.587 -13.5109
13.7048 97.0482 -1.09304
-3.0871 101.316 3.09136
25.3228 95.7767 -7.84585
21.2632 102.881 -21.1065
-7.75858 102.94 3.28595
-19.5181 110.195 -3.7754
1.61185 101.251 -0.463249
9.70397 99.2606 -2.44823
23.6545 95.82 -5.97973
25.725 99.6816 -16.6592
27.1543 98.0106 -13.874
-7.06879 103.089 3.30638
5.14613 109.247 -21.4781
19.2008 96.5481 -3.44883
23.4867 96.0182 -5.80438
14.4936 106.315 -22.1984
5.33476 109.289 -21.4123
-18.505 107.928 1.96019
18.3957 96.7062 -2.78429
17.3179 96.7796 -2.01407
16.1718 105.453 -21.4416
2.5433 110.009 -20.6097
1.95708 110.052 -20.155
15.163 106.104 -21.9116
-18.5687 109.212 -0.536643
24.6702 100.944 -17.5864
3.49438 109.935 -20.844
-20.5732 114.404 -10.9244
-10.2452 104.332 4.12929
3.46377 101.961 -1.83744
27.1279 97.263 -10.7408
21.9716 103.132 -20.047
25.9934 99.9251 -15.8247
-5.75163 111.08 -15.2634
-7.31192 111.761 -15.4115
-5.31383 111.063 -15.3218
19.8395 97.0254 -3.5022
-11.998 113.299 -14.885
20.2771 97.1107 -3.69254
21.3976 103.841 -20.4151
2.29593 102.284 -0.539489
-11.2244 113.2 -14.7283
12.0091 99.3519 -1.73303
7.17069 101.564 -2.82313
-21.0807 114.914 -10.2533
6.74085 109.564 -21.0701
12.4714 107.843 -21.7098
-15.3205 106.566 4.97976
18.368 105.809 -21.5434
-18.4469 115.256 -12.6706
-1.02403 111.56 -18.6668
1.9545 102.578 0.0213544
26.0175 100.395 -15.1348
-21.1629 114.765 -8.9503
-7.49818 104.709 3.53789
-16.8707 115.265 -13.3641
-1.01795 102.864 2.43012
-2.61143 111.908 -17.3644
13.1675 99.4264 -1.28513
-13.0189 114.5 -14.4986
9.47111 101.325 -2.41439
-2.31269 103.339 2.86635
-20.756 112.798 -3.75927
0.950076 102.858 1.33234
16.7149 106.979 -21.6716
2.48545 111.389 -19.9658
-13.9384 114.848 -14.2275
17.4184 106.773 -21.667
26.7304 98.4743 -9.96695
-1.6579 103.374 2.63006
24.1735 97.9059 -6.19548
23.4752 103 -17.5016
-21.2685 115.027 -7.98026
-3.54225 112.106 -16.0723
22.4832 98.0568 -4.97758
12.4839 100.287 -1.77068
2.70312 103.264 -0.484975
18.7552 106.524 -21.6754
17.8558 106.857 -21.6944
-13.3005 106.678 5.16242
19.7681 105.815 -20.4493
-12.143 106.458 5.03505
3.06089 103.54 -0.903419
23.1788 98.2423 -5.36972
-22.0605 114.537 -5.4042
-6.05008 112.775 -14.5654
0.428105 103.472 1.94146
8.2242 110.431 -20.917
-1.02617 103.873 2.42827
25.2231 98.8334 -7.62121
-21.1456 113.933 -3.82069
-6.60558 105.484 3.8566
-6.64824 105.563 3.85821
-2.91015 112.857 -16.4608
-17.6425 116.553 -12.6715
5.79732 111.437 -20.3992
-17.0129 109.154 4.63972
1.51421 112.55 -18.9143
23.0747 103.757 -16.194
-1.33836 104.493 2.7443
-18.2907 111.758 -0.0087635
-0.105266 112.949 -18.1285
-20.5369 116.132 -8.32843
25.0197 102.424 -14.4521
19.6698 106.761 -20.0741
17.5991 108.107 -21.4502
18.9287 107.53 -21.1611
-8.74025 114.501 -14.1915
23.1771 103.771 -15.8852
-2.12362 104.827 3.0375
-6.07641 105.826 4.03172
-17.9835 110.768 2.48267
-21.8838 115.124 -4.39501
0.491937 112.962 -18.1672
-8.69015 114.579 -14.1558
-20.2346 117.218 -10.6115
10.7888 110.434 -20.8438
1.34625 104.386 1.41948
20.5751 99.3273 -2.8991
2.58251 104.593 -0.0126381
0.858541 104.419 1.91216
-16.6059 117.078 -12.9812
-0.137308 113.304 -17.9187
10.4476 102.884 -2.32802
-3.15177 113.505 -15.7178
-10.0983 107.49 4.3633
-18.143 112.719 -1.11943
7.09452 111.639 -19.8737
-11.1165 107.729 4.7487
-20.7786 114.532 -3.08109
-12.4207 107.976 5.31924
-4.95694 105.813 4.11696
-10.9567 107.737 4.67798
-1.11089 104.981 2.87119
-21.9283 115.443 -4.1413
-20.0517 117.629 -10.8621
-7.72075 114.554 -14.0287
22.3553 104.705 -16.0196
-5.8056 113.96 -13.9219
2.22308 104.976 0.553532
18.3004 100.168 -1.55749
20.2472 106.607 -18.3428
2.10077 105.055 0.713493
12.2458 102.602 -2.07089
-21.1236 114.997 -2.93398
-29.1357 119.439 -6.53029
-3.21537 113.861 -15.2883
3.0606 113.496 -19.6551
-3.8406 113.868 -14.6677
2.5477 105.297 0.204597
25.7605 101 -9.28378
-6.88608 114.647 -13.7245
-1.42558 105.527 3.1624
3.62113 105.596 -1.20351
-29.448 119.688 -6.32045
-20.6925 114.879 -2.39767
25.9911 102.506 -12.6525
20.1853 100.252 -2.42949
20.4189 106.746 -17.8417
19.1723 108.321 -20.4045
-6.72608 114.744 -13.6238
-10.4795 108.386 4.56908
9.43893 112.009 -20.7515
17.6848 100.834 -1.27066
15.1516 101.583 -0.858558
14.2722 102.161 -1.34561
-25.8442 119.103 -6.8934
-11.9294 116.922 -13.4675
25.896 101.987 -10.2292
-27.0516 119.665 -7.08934
-17.5048 111.947 3.08781
-18.4046 113.865 -0.654251
1.83588 114.276 -18.6955
-21.5288 115.778 -2.43708
11.5074 111.444 -20.1338
-21.2331 117 -5.53508
-22.2384 116.603 -3.6978
-3.0564 114.527 -14.9769
-19.4412 118.803 -11.0619
25.8382 102.948 -11.8144
7.38495 105.734 -2.76865
-1.51273 106.287 3.45023
14.4136 102.667 -1.36304
-31.5814 120.017 -3.18327
-0.317574 114.869 -17.4583
12.5546 103.762 -2.15422
2.7252 106.299 0.188716
-0.578628 114.951 -17.337
1.47588 106.189 1.60753
-16.7419 111.273 5.09138
9.47363 105.063 -2.41216
2.35131 114.654 -18.9446
7.91841 105.761 -2.65216
-11.31 117.142 -13.179
19.4074 101.252 -1.69148
4.81098 106.567 -1.85497
1.79561 106.352 1.32231
5.4373 106.596 -2.30353
-17.7962 112.822 2.71987
7.76638 113.24 -19.8025
-20.4997 117.815 -6.66222
-17.8363 113.427 1.42626
3.48023 114.431 -18.9244
-24.5039 119.528 -7.14164
8.183 113.297 -20.0723
-3.07795 107.066 4.12926
-9.89868 116.768 -12.9368
6.64076 113.423 -18.9928
12.4623 111.779 -19.9188
-2.4415 115.28 -15.546
-12.4277 117.807 -12.9473
20.0707 108.351 -18.1289
-32.0803 119.821 -1.04188
24.8336 101.584 -6.10318
-3.29646 115.148 -14.264
7.60864 106.387 -2.70184
1.01507 115.359 -18.0371
12.8895 111.954 -19.9155
-21.9688 117.734 -4.01678
25.0192 104.516 -12.5001
-17.5159 113.413 2.54917
-13.4975 118.369 -12.4645
-30.1662 120.717 -3.90567
3.67869 114.844 -18.5945
-26.6497 119.17 -3.1605
-11.1715 117.757 -12.9012
21.4334 101.723 -2.68961
24.9327 103.1 -8.8663
24.8679 103.055 -8.69485
20.3579 108.2 -16.9753
-13.6134 118.459 -12.4276
-21.6993 117.145 -2.49432
-18.8551 119.237 -9.80053
8.95993 113.715 -20.2836
24.9004 103.038 -8.48777
8.68577 106.316 -2.47678
3.7103 114.929 -18.5299
-31.9556 120.14 -0.670253
19.2035 102.025 -1.23935
-6.91672 116.307 -12.7463
-1.69241 107.403 3.81091
-27.6542 121.245 -6.83055
3.90631 114.875 -18.4936
24.1906 102.035 -5.40576
-22.2217 117.952 -3.59771
8.17654 114.051 -19.8878
0.967031 107.174 2.40021
-19.4574 115.387 0.352699
-24.7692 118.682 -2.84988
-2.89192 115.712 -14.2619
-11.7602 118.31 -12.8604
-30.0967 120.356 -2.16315
-21.5091 117.416 -2.46401
10.165 113.58 -19.9499
-0.803472 116.248 -16.9563
23.8701 105.862 -13.3464
-18.3261 119.675 -10.2034
10.3027 113.559 -19.905
6.71021 107.481 -2.54646
-15.7666 119.475 -11.6721
-3.86399 116.019 -13.4022
-12.2347 118.691 -12.6147
-27.3392 121.722 -6.83806
9.39387 114.16 -20.0051
22.8307 106.812 -14.0348
19.8393 109.919 -18.7338
-21.7041 119.768 -6.63639
25.1424 105.17 -11.8071
7.47285 114.687 -19.24
-28.389 120.465 -2.55222
-2.24375 116.438 -15.1119
4.87487 108.23 -1.71464
25.0638 103.328 -7.14443
0.283839 116.643 -17.4384
-30.585 120.611 -0.6963
4.7887 108.342 -1.62288
-0.790949 108.155 3.72766
13.9287 112.931 -19.8077
20.0603 109.949 -17.8438
24.8535 104.052 -7.98287
24.7875 103.457 -6.51249
-19.8062 116.723 -0.061689
-23.7569 118.954 -1.92297
-20.7985 119.107 -4.75327
10.8412 114.127 -19.6756
-18.846 119.601 -7.32408
-20.5873 119.193 -4.84626
-30.213 121.279 -1.52272
-11.2598 119.133 -12.3684
-32.3246 122.305 -1.98685
4.7491 115.718 -17.7947
17.6349 112.006 -19.9326
-28.6394 122.775 -6.12514
-20.2709 119.961 -6.51967
20.4959 109.475 -16.1225
-3.9514 116.844 -12.8162
-4.49058 116.901 -12.4927
20.972 108.702 -14.6101
23.0611 107.347 -13.1856
13.5996 106.043 -2.0979
24.8767 104.322 -7.48752
-0.717397 117.324 -16.4539
5.88086 115.644 -17.9127
-2.3159 109.123 4.41633
12.812 114.042 -19.9265
-6.83953 117.767 -12.0491
-21.9384 119.327 -2.9275
-17.9338 120.339 -8.68324
16.0555 104.985 -1.24264
-20.0422 119.629 -5.19858
12.4971 106.718 -2.26903
20.4064 109.762 -16.0832
-18.2348 115.738 2.60631
-28.761 121.312 -1.59716
-18.7189 116.019 2.44033
-3.72066 117.119 -12.8104
6.66719 115.594 -17.9839
-20.4014 117.594 0.179158
-28.8593 121.315 -1.40677
-21.897 119.805 -3.65509
-4.31063 110.001 4.64053
-14.1585 120.501 -11.7374
-20.5586 120.948 -7.30403
-17.1477 114.526 5.07728
9.02072 115.662 -19.6816
-22.1598 120.191 -4.00649
-20.7779 120.431 -5.59758
-7.2635 118.314 -11.9616
-20.5535 120.006 -4.61645
7.0192 115.88 -18.1892
11.2419 107.683 -2.3464
13.7372 106.638 -1.99181
-30.1935 121.432 0.302978
24.6314 105.922 -9.4919
-21.7266 121.299 -6.51264
-28.891 121.483 -0.880417
22.8549 104.016 -3.46997
-21.7093 120.549 -4.70189
-15.5056 121.086 -11.1294
-22.2187 120.774 -4.66504
-25.9851 123.02 -6.76229
-3.47362 117.508 -12.7581
19.6855 111.044 -16.9029
15.2451 113.746 -19.4933
-16.1042 114.296 5.71095
-21.8831 120.638 -4.21852
11.4879 107.871 -2.33903
-18.8353 121.126 -7.87651
-21.0545 120.527 -4.54156
-22.1756 121.029 -4.64928
7.13657 116.253 -18.1098
22.7897 104.41 -3.40893
15.7926 105.959 -1.10353
-2.77305 110.137 4.77931
22.8356 108.311 -12.4699
23.4723 104.923 -5.01427
24.695 106.131 -8.87217
-30.1977 122.89 -1.94217
18.8836 112.602 -19.151
-16.6377 114.888 5.51141
-15.3649 114.215 6.20856
-19.9057 121.836 -7.79594
-10.9336 113.04 5.32807
19.5022 111.742 -17.2965
-30.2141 123.105 -2.02638
8.17161 116.543 -18.9861
-19.168 121.802 -8.21512
-7.55608 119.14 -11.7485
-20.0705 120.605 -4.61139
-20.541 120.683 -4.33511
-30.6373 123.019 -1.30444
-7.92348 119.286 -11.6913
-14.6854 121.481 -11.0796
-17.7767 121.395 -8.17442
-27.9231 122.019 -1.01279
-25.6705 121.747 -2.25238
15.7633 106.344 -0.962446
-12.6966 121.131 -11.7164
-7.47843 119.25 -11.676
-21.9383 119.939 -1.03945
24.9374 105.577 -6.79459
-21.5173 121.514 -5.04358
-20.5119 121.374 -5.5458
16.0634 106.272 -0.886882
-19.5641 122.007 -7.81872
-23.0326 121.332 -3.29394
-18.5854 121.159 -6.63519
-21.0465 120.583 -3.16615
-3.10156 110.71 4.94096
-22.1175 120.542 -2.11699
-25.116 121.513 -1.82014
24.9132 105.965 -7.44439
16.3817 106.201 -0.791629
13.7932 115.239 -19.8626
1.97525 110.19 2.03922
-21.0365 121.184 -4.3984
-31.5015 123.196 -0.270876
-9.06002 112.987 4.82488
-7.88913 119.526 -11.4719
-20.7516 120.664 -3.25562
-18.6375 121.717 -7.48201
-19.3454 117.664 2.66978
-27.2441 122.119 -1.11759
21.7824 109.396 -12.5275
-18.501 122.064 -8.31893
16.4544 114.219 -19.3489
22.8241 108.586 -11.2966
19.3696 112.347 -17.219
0.42704 110.355 3.46819
-20.9468 121.537 -4.784
-17.6451 121.793 -8.07712
23.0385 108.404 -10.8747
-23.1137 120.667 -0.653514
0.267729 118.951 -16.2974
8.28859 110.264 -2.57042
22.8193 105.551 -3.74772
-30.7237 123.864 -1.58275
24.1741 106.001 -5.85783
25.0012 106.112 -6.81604
-28.5817 124.797 -5.53277
-14.6898 114.776 6.34838
-29.2179 124.396 -4.01592
-24.7922 124.034 -6.88897
-17.1089 122.642 -10.0854
-19.6927 122.184 -6.78941
11.8026 116.537 -20.0153
-30.2021 122.401 1.65865
-22.6768 121.251 -1.84787
-22.3056 123.582 -7.62319
20.7921 110.705 -13.6571
-29.0013 124.795 -4.75637
-8.14128 120.006 -11.0967
-14.4782 122.183 -10.8245
-22.5643 121.426 -2.1991
24.4222 107.703 -9.5708
22.5528 105.666 -3.19724
-22.052 121.654 -3.12021
-3.27252 118.787 -12.2207
-31.5973 123.497 0.635342
14.1376 108.046 -1.59189
-17.9997 122.401 -8.2245
-7.25738 119.838 -11.2284
-17.7234 116.968 4.39735
-3.09144 111.443 5.06002
-18.7471 121.321 -4.95569
-18.6733 122.528 -7.80462
-14.2106 122.256 -10.8776
-19.8621 121.761 -4.89246
-3.41277 111.643 5.04181
-22.5482 121.19 -1.19646
-22.4357 122.076 -3.29034
-14.4135 115.161 6.22735
-25.0791 124.46 -6.51186
-19.346 122.369 -6.18045
-21.2815 121.798 -3.192
22.2698 106.129 -2.96062
12.306 116.845 -19.7018
-22.5983 121.146 -0.332476
19.0209 113.629 -17.7715
-24.8352 122.444 -1.35993
22.9849 109.049 -10.2171
2.88364 119.085 -16.7154
-22.4915 124.234 -7.38277
-6.72828 113.246 5.16296
-20.1114 119.937 0.728564
25.0431 106.949 -6.83573
-21.822 123.077 -5.20745
-23.9584 121.823 -0.42287
19.7732 106.162 -0.478557
-1.01824 111.474 4.6058
14.1906 116.393 -19.8124
-31.117 124.24 0.0507141
-18.6478 122.518 -6.38937
7.50431 111.469 -2.46249
-19.8234 123.523 -7.73636
-6.4679 113.245 5.19014
-18.77 122.579 -6.37202
-10.2834 114.57 5.31434
-23.3937 122.557 -2.27135
16.767 115.566 -19.4606
-25.1697 124.983 -6.16793
-24.299 122.626 -1.30288
-18.3964 122.539 -5.99841
4.93685 112.087 -1.06494
25.0525 107.405 -7.0184
-31.1454 124.301 0.688296
-21.5319 122.172 -2.39623
-23.6924 122.659 -1.6474
15.9594 116.043 -19.5647
-22.2202 122.288 -1.95578
-10.4558 121.729 -10.5552
20.4607 112.584 -15.1309
8.06408 111.716 -2.60858
4.87432 118.899 -16.6122
-23.8159 122.669 -1.22271
-13.0398 115.926 5.69308
-3.2833 119.798 -11.6544
-26.4117 125.565 -5.67505
14.0704 116.962 -19.5894
-27.0722 125.769 -5.56766
14.996 116.61 -19.5161
-2.66124 112.457 5.19154
-16.9334 123.53 -8.78908
-21.5469 122.804 -3.1523
18.6604 114.578 -17.6649
-25.3891 122.849 0.0728986
19.5346 113.631 -16.1688
-30.9183 124.159 1.72683
2.33884 120.015 -16.5239
-2.31715 112.498 5.10738
-30.9214 124.856 0.285153
-6.64942 113.974 5.45935
0.848974 112.163 3.48556
-14.4014 123.684 -10.7317
-10.7979 122.29 -10.4576
-18.2045 123.069 -5.95887
-18.3172 123.14 -6.02856
17.2599 115.985 -19.2206
-9.28938 115.081 5.37961
-19.2687 122.63 -3.86171
-7.55483 114.47 5.45943
-24.4141 122.638 0.564731
-18.6734 122.83 -4.58149
-21.2607 124.8 -6.87074
-30.275 124.325 1.90765
-4.31122 120.361 -10.6777
19.3215 107.443 -0.0622013
-25.8057 122.982 1.52711
-23.6187 122.42 1.03194
-24.4618 122.822 0.843085
-28.0391 126.602 -5.00863
22.9138 110.581 -10.2933
-19.4481 122.946 -3.58367
0.624367 112.649 3.73728
-30.8287 125.268 0.634189
-17.0481 124.179 -8.238
14.7185 109.819 -1.25614
21.1484 112.85 -13.8026
22.2721 111.391 -11.2979
2.62749 112.948 1.75107
-27.303 126.719 -5.37427
-3.78644 120.638 -10.7839
20.8565 107.732 -1.14078
-18.0552 123.786 -5.97131
-18.1569 124.497 -7.48523
-0.197955 113.01 4.42598
-15.7921 118.024 5.8636
-29.9551 126.43 -1.89272
9.93835 119.156 -18.438
5.63175 120.068 -16.892
-16.2198 124.538 -8.91598
-17.7958 124.148 -6.62382
-17.3032 123.44 -5.31215
23.1481 108.559 -4.39499
-16.6976 124.341 -7.82739
-2.74043 120.959 -11.4573
-20.3547 125.482 -7.21119
-16.662 124.828 -8.75725
-7.98249 122.315 -10.0742
-1.99722 121.067 -12.1736
17.1302 108.949 0.227374
-3.0521 121.12 -11.1222
-16.2487 118.911 5.29869
7.25741 120.14 -17.4388
-30.6391 126.114 0.525016
-5.99412 121.92 -10.3479
-20.4545 122.373 0.838865
-20.1472 125.758 -7.29256
-29.5993 125.261 2.19325
9.90545 119.687 -18.0476
-17.9562 124.548 -5.8492
-27.2197 124.304 2.56119
-17.5201 120.019 4.5918
-16.3643 125.368 -8.94854
-24.0535 123.738 1.48628
-20.6437 122.847 0.741622
1.27787 113.896 3.35177
-21.9582 123.177 1.14875
14.467 118.45 -18.481
-10.6222 123.803 -9.72628
14.066 118.533 -18.1561
-14.4616 118.153 6.82751
13.8321 118.556 -17.9917
6.60069 114.35 -1.93751
-24.2095 127.318 -6.35969
23.3117 111.391 -8.99863
-17.9126 120.604 4.1454
-27.1002 124.541 2.67503
20.0845 108.842 -0.219504
-18.3437 125.437 -6.46478
0.747612 122.132 -14.7985
19.8792 115.512 -15.3621
0.631639 114.189 4.05396
3.33965 121.436 -15.2767
12.6229 118.874 -17.0625
20.3483 109.173 -0.70307
13.9045 111.847 -1.54895
-30.1502 126.454 1.29154
18.176 109.412 0.63584
18.7938 116.62 -16.8302
-21.3263 123.671 0.645077
-12.9905 125.201 -9.98103
24.1409 109.868 -5.25869
7.35396 120.869 -16.8654
3.9108 121.4 -15.1347
23.2011 109.857 -4.21018
12.3392 112.855 -2.01061
24.4455 110.289 -6.19019
-6.45681 123.106 -10.1145
7.35461 114.762 -2.09704
-15.3184 125.753 -8.76527
-13.0032 125.438 -9.91492
22.3289 113.395 -11.3689
-19.1119 125.938 -5.78048
13.3696 112.614 -1.85225
-13.6453 125.894 -10.1473
18.2578 109.819 0.748575
13.8789 119.126 -17.4411
19.4312 116.27 -15.3709
-23.2819 124.369 1.81872
15.5096 119.053 -18.378
-16.6636 126.397 -8.05693
-8.6654 117.632 5.8548
-23.5973 124.559 2.19885
-19.8584 123.261 2.10276
4.55172 115.459 -0.146745
-3.42467 116.087 5.27476
-29.7409 127.238 1.31642
-30.0008 127.751 0.409389
23.2725 112.917 -9.65481
-20.6201 124.326 0.69457
-25.7386 128.471 -4.61727
21.1209 115.606 -13.9019
23.1031 113.131 -9.72136
-21.563 128.273 -7.61211
-17.0422 126.504 -7.26284
20.7751 115.889 -14.0732
17.9483 118.398 -17.5722
22.3187 114.269 -11.5425
-14.1169 119.53 6.86687
5.10067 115.886 -0.724004
-19.7506 123.626 2.15119
-1.98967 115.927 5.34452
20.9776 115.756 -13.6158
-14.5668 126.501 -8.8795
18.2017 117.346 -14.94
12.6994 120.096 -16.6319
21.5927 110.799 -2.1519
17.1468 118.05 -15.4314
22.6318 114.185 -10.955
-2.85831 116.481 5.16783
-14.3576 126.564 -8.7641
17.5497 117.628 -14.6453
-21.0053 124.521 1.70596
17.5587 117.698 -14.7786
-5.00495 117.287 5.36593
-13.9977 126.672 -9.02633
-25.8202 128.788 -4.01269
14.5525 113.088 -1.14527
18.5647 118.063 -16.2315
1.89177 123.444 -14.7351
-11.3771 126.275 -10.0423
-15.5752 120.922 6.14106
20.0441 110.782 -0.0513999
5.08733 122.406 -14.6894
-16.5618 121.607 5.56167
17.5221 117.592 -13.7707
4.97202 116.404 -0.372813
13.7242 120.922 -18.3758
20.5119 115.996 -12.4703
-12.6408 119.883 6.43936
3.75669 116.358 1.00887
15.928 119.324 -16.1797
16.4325 119.551 -17.0744
19.567 116.783 -13.1837
-29.763 128.7 0.438835
-10.9788 119.691 5.84221
-2.03428 123.455 -10.5603
22.0071 111.398 -2.43717
-27.2709 126.877 2.8229
15.6789 120.466 -18.3387
-5.57852 124.529 -9.94542
18.1602 111.389 0.990975
20.7619 115.618 -11.0943
17.0891 118.144 -13.9258
15.5863 119.611 -16.0947
22.3159 111.54 -2.775
20.6513 115.686 -11.0954
-27.1329 129.145 -2.39463
-28.8099 127.779 2.26235
-18.831 127.294 -5.00676
16.3672 120.049 -17.6544
19.5604 111.337 0.275333
18.5231 117.268 -12.7343
-6.81418 125.297 -10.1364
-23.6586 125.752 3.07281
-15.6649 127.707 -8.25705
-15.6321 121.939 5.32817
-20.9016 124.732 3.32366
15.2849 120.263 -16.5762
-1.58642 123.838 -10.7355
-2.1607 123.871 -10.2163
-17.4218 127.093 -4.8703
-19.9534 128.652 -6.39087
2.03521 124.14 -14.2597
0.764368 124.232 -13.3463
-24.1036 126.262 2.90911
6.7984 122.589 -14.3864
-17.595 127.871 -6.08067
-18.2256 127.617 -4.91042
-29.1694 128.957 1.21692
-3.32698 118.155 4.83689
23.1808 114.259 -8.25222
23.771 112.581 -4.78593
-22.5006 130.038 -6.76075
-23.7873 126.472 2.88655
-19.5804 129.061 -6.73354
0.111638 117.082 4.86186
8.84624 116.978 -2.21187
14.0629 114.692 -1.20898
23.8659 113.536 -6.76325
18 112.364 1.03576
11.8542 121.937 -16.2923
19.2353 112.161 0.603069
-25.5917 127.491 2.42334
20.8395 115.634 -8.87173
-14.7271 122.54 4.94473
-23.0832 125.961 3.96203
-7.65511 126.387 -10.0606
22.3917 114.801 -8.12857
17.9699 117.51 -10.75
-11.1127 127.961 -10.7724
-0.789576 117.468 5.21779
16.2066 113.382 0.485337
-26.1218 127.783 2.38976
10.5397 122.638 -16.34
-13.4686 128.438 -9.69612
-17.0835 128.17 -6.00297
16.9742 118.664 -12.3473
-20.2381 129.9 -7.34604
-5.37792 119.173 5.38727
-10.3168 127.653 -10.2172
-11.1887 128.237 -10.8336
-27.7197 129.976 -0.84638
4.55599 117.898 0.350684
-0.218636 117.547 5.20834
-8.71434 127.083 -10.0249
-17.58 128.779 -6.48756
23.6703 113.509 -5.3446
21.1793 115.379 -7.63562
20.9259 112.675 -1.03954
-16.6753 128.375 -6.2155
-0.555007 117.743 5.19072
21.9135 112.816 -2.16576
-23.5809 130.198 -4.60536
-16.9976 128.44 -5.94659
-25.7267 128.093 2.24282
10.7734 116.825 -2.01584
-17.8142 128.487 -5.2069
23.6911 114 -6.10773
23.7058 114.204 -6.46883
21.1243 115.597 -7.47109
6.71879 123.472 -13.8167
19.3741 112.8 0.676872
20.0725 116.6 -8.62379
-10.4692 121.403 5.99403
-16.8611 125.395 2.11712
9.18072 123.463 -15.2326
-17.7955 129.566 -6.72536
-0.545344 118.347 5.12001
-17.6323 125.841 1.93322
20.3847 113.217 -0.443535
3.11689 125.14 -13.8651
-7.365 127.092 -9.57462
4.42747 118.607 0.545656
-18.8555 125.818 3.33238
-17.8001 126.073 1.86167
9.03934 123.548 -14.8348
-27.7679 129.465 2.34368
-6.55575 126.803 -9.27655
23.5403 114.481 -5.64416
4.30317 118.709 0.682189
-26.257 129.098 2.09888
-13.238 129.087 -8.84744
-7.82177 120.92 5.8527
-20.6609 130.884 -6.67286
23.2405 113.946 -3.87808
-12.5639 122.42 6.53891
22.9716 113.894 -3.34868
23.5101 114.71 -5.71829
18.0554 119.366 -12.0531
20.4033 117.14 -8.66264
-13.0391 129.563 -9.6084
6.12459 119.154 -0.962702
20.8809 116.649 -7.47745
-28.3774 130.545 1.43859
-15.0245 125.313 2.53858
0.818148 125.78 -11.9123
19.0895 113.798 0.916009
-2.8923 120.254 4.45949
1.98846 126.081 -13.1979
16.4374 120.548 -12.3239
14.9961 122.784 -16.3327
18.2977 119.769 -12.0217
13.437 123.898 -17.6281
-4.3147 120.595 5.16605
-18.3458 130.541 -6.35184
-18.3646 126.377 3.46984
-18.1542 126.684 2.59977
-15.9045 129.741 -6.46838
21.3184 116.54 -6.69739
-3.77329 120.649 4.87321
-21.5943 131.592 -5.7748
-22.1952 131.491 -4.96935
12.9099 124.359 -17.7385
14.7977 116.168 -0.0572979
22.3394 115.994 -5.96432
20.9868 117.225 -7.69412
23.0872 115.63 -5.70832
-22.9423 128.288 3.43691
-2.04716 126.2 -9.27925
-24.822 131.864 -3.27497
-7.30885 128.077 -9.09512
9.03398 124.56 -14.4663
20.7952 117.793 -8.47279
11.3421 124.139 -15.394
-4.39089 121.082 5.15179
19.2782 119.513 -11.0733
8.34443 124.544 -13.626
-22.5189 128.162 3.95475
0.285979 126.369 -11.0496
21.8589 116.486 -5.9912
15.2942 116.111 0.447117
-10.351 130.003 -10.5093
-9.91323 129.671 -10.0943
8.23342 119.651 -1.83977
9.26735 124.712 -14.6077
-9.23957 129.203 -9.48541
-3.23743 126.736 -8.66494
16.0222 115.774 1.13104
-16.7557 130.556 -5.96762
10.6907 124.64 -15.2116
-12.8043 130.352 -8.71193
1.56274 119.829 3.95699
20.6732 118.381 -8.69851
-19.2907 127.582 3.42528
6.67029 120.254 -1.17662
-20.7524 127.653 4.62295
-20.4998 131.926 -5.5739
-15.1152 130.916 -7.73393
10.8947 125.443 -16.7945
-9.92839 130.147 -10.2033
-12.8977 130.436 -8.3321
-13.8891 124.99 5.33249
20.5995 118.611 -8.72654
-2.82122 127.019 -8.72605
-0.644062 126.852 -10.1217
18.6959 120.578 -11.6197
-17.5651 130.347 -3.97963
-11.1606 130.966 -10.7717
9.34482 125.48 -15.0682
14.9248 124.173 -16.5997
-13.7625 125.587 4.33115
15.5735 123.306 -15.0514
-16.083 127.266 2.38018
-12.1746 131.259 -10.2298
-18.3884 127.692 3.50642
9.67815 125.666 -15.4204
-17.1425 131.362 -6.04101
-14.4381 126.495 3.13538
21.6919 115.558 -1.62811
6.90845 120.733 -1.29196
9.84332 125.861 -15.7095
15.0337 122.901 -13.1089
8.54937 125.758 -14.2294
20.5137 118.996 -8.40197
-23.4068 132.892 -3.98573
-20.7093 128.375 4.44306
0.743549 127.225 -10.9569
20.1936 115.601 -0.0216921
19.5241 120.439 -10.8275
-4.28614 122.265 4.99442
22.4241 116.155 -3.18044
4.75364 126.471 -12.5178
-25.2167 132.767 -2.02215
22.6143 116.735 -4.68365
7.7772 120.795 -1.52372
-10.5149 124.035 6.30681
-2.9609 122.281 4.12412
-24.3172 132.936 -2.86184
-17.0187 131.493 -5.60358
0.684491 127.372 -10.7834
22.4501 116.763 -4.13344
-14.4448 126.858 3.27892
15.844 116.83 1.29813
16.9754 122.31 -12.548
-17.15 127.934 3.11593
4.8237 121.035 0.852482
-22.6986 133.242 -4.59682
10.3913 126.625 -16.8963
16.6678 122.544 -12.4024
-16.9846 131.142 -4.16769
-12.9768 131.351 -7.99164
-8.6162 130.486 -9.46067
-1.11087 121.724 4.87528
17.6532 116.423 1.55784
-10.0241 131.546 -10.4895
18.4213 121.975 -11.957
14.3616 118.355 0.0249131
13.6612 118.941 -0.677874
-5.15501 129.004 -8.4425
-17.5059 128.383 3.54123
17.8154 122.449 -12.1357
22.1679 117.37 -3.81103
20.9603 121.277 -11.9469
3.7054 127.575 -12.1815
20.4968 120.392 -9.44497
19.0641 121.581 -11.0208
19.1279 121.617 -11.1488
3.5075 121.453 2.44029
-6.62711 129.87 -8.78502
15.9881 123.53 -12.9386
-2.74211 122.999 4.15451
2.5015 128.066 -12.168
2.9517 121.46 3.00358
16.4319 123.339 -12.79
-10.8189 125.581 4.95198
16.1374 123.502 -12.9152
0.182334 128.062 -10.0151
2.67218 128.12 -12.1172
-16.8379 128.422 3.65083
-9.36827 131.553 -10.0082
16.8065 123.4 -12.8202
6.93208 121.974 -1.12598
2.99968 121.646 2.98481
-12.935 132.001 -7.85849
13.5824 119.431 -0.642729
2.22568 128.219 -11.7215
12.7057 120.159 -1.59124
-15.181 132.144 -6.23691
-19.0187 129.327 3.71013
16.8031 123.473 -12.6864
-16.2839 132.236 -5.06673
-23.2844 134.253 -3.83159
-13.0292 126.937 4.84014
17.5002 123.411 -12.5543
19.9239 121.264 -9.52048
17.746 123.017 -11.8008
9.3893 127.816 -15.9147
19.702 121.349 -9.29718
1.15176 128.618 -10.7337
-4.27843 124.082 4.55706
11.7879 127.579 -17.2245
21.0888 118.892 -4.52252
-12.8909 132.333 -7.4058
14.1541 125.706 -14.6453
8.06006 127.43 -13.3796
-27.1737 133.7 1.64604
-8.46256 125.342 5.53528
-18.4072 129.911 3.23927
-18.7057 133.993 -5.89634
-17.4943 133.517 -5.5834
13.275 126.077 -14.0108
-6.27221 124.692 5.76752
9.42698 122.312 -1.87984
14.9623 126.373 -16.1091
11.0548 121.782 -1.97238
15.455 124.902 -12.7986
-0.611008 129.059 -8.99186
13.6127 127.376 -16.9021
-15.0121 132.859 -5.59424
-18.8093 130.437 3.47651
16.9931 123.996 -11.3226
20.2418 122.098 -9.55901
-26.1007 134.409 0.620974
-2.28213 124.284 4.39336
-0.937038 123.594 4.99173
23.2456 121.576 -10.6207
12.1268 121.822 -1.77518
21.3785 118.562 -1.79379
23.1742 121.555 -10.3028
21.0537 118.376 -1.02655
15.0091 125.799 -13.3295
18.3566 123.528 -10.7996
15.1517 119.521 1.34541
-20.3075 131.39 3.37325
-15.7341 133.21 -4.64968
18.588 123.255 -10.2065
20.1312 118.204 0.397813
7.84032 128.582 -13.6146
18.1038 118.434 1.65873
-1.23473 129.666 -8.43663
1.94699 123.223 4.13002
-0.784941 129.652 -8.66221
-9.31782 133.322 -10.0069
20.6089 119.434 -2.57808
14.7747 120.025 0.997743
17.3653 124.394 -11.4283
12.0287 128.696 -16.9735
-2.75114 125.09 4.14851
20.0814 120.832 -5.10463
17.0903 125.464 -13.4649
15.6462 126.476 -14.5638
17.4512 125.787 -14.2503
10.9141 122.95 -1.93166
-13.8792 133.614 -6.08557
17.2168 125.48 -13.1979
-13.7725 129.517 3.50312
16.9908 125.633 -13.2546
-19.5764 135.259 -4.93639
-8.25608 133.07 -9.20624
-6.90394 126.64 4.8511
-16.4495 134.094 -4.59538
-6.41082 126.706 4.33041
18.509 122.914 -7.69386
2.4057 123.79 3.8597
18.8793 122.525 -7.04958
-24.7147 135.376 -0.394477
-21.0912 132.82 2.77043
20.8264 122.453 -8.11289
-5.42115 131.779 -7.89016
8.95003 129.762 -15.2225
-6.64574 127.202 3.99598
-19.1836 135.384 -4.60976
-8.73136 133.723 -9.51419
8.21865 129.772 -14.5021
4.30514 123.987 2.47014
-1.77377 125.361 4.5681
21.6558 122.082 -7.46905
-16.3061 134.193 -3.87731
19.1845 125.676 -13.7795
20.3413 123.139 -8.73252
3.76188 130.032 -10.8695
20.4071 119.33 0.261082
-9.37244 134.347 -9.91963
-12.5445 134.322 -7.12073
7.63237 129.894 -13.7048
20.1898 121.525 -4.60612
16.9678 126.563 -13.5425
-24.4161 134.445 2.91475
19.4896 122.78 -6.70134
17.4706 125.169 -10.4666
19.6114 123.336 -7.92623
14.1277 128.835 -16.1296
-9.82551 134.912 -10.1897
-4.38942 131.837 -7.49697
-24.5021 136.199 -0.775274
-19.9038 132.924 3.0777
15.2436 125.939 -10.1072
7.27324 130.091 -13.142
-11.0591 134.752 -8.62967
-9.5638 128.75 4.3143
15.3522 127.892 -14.4633
15.0875 126.85 -11.7787
14.0964 122.17 0.0982062
20.1622 121.251 -2.83969
-13.8879 134.883 -6.12705
1.82746 130.849 -9.88477
23.6047 122.864 -9.38563
12.8002 123.287 -1.18898
10.1066 130.451 -15.7253
-22.617 136.364 -1.99145
-20.8978 133.619 3.06507
3.27514 130.678 -10.4246
19.5303 120.035 0.955154
2.01028 130.923 -9.86398
13.5085 128.227 -13.1211
-10.2298 129.392 4.19248
-5.39346 127.724 4.04135
12.2453 123.797 -1.58486
16.3029 127.403 -13.4903
-8.3565 128.311 5.20442
22.7882 123.034 -8.64413
-6.64109 128.454 3.57556
6.88686 130.17 -11.8733
14.0461 129.225 -15.6247
19.7303 126.513 -13.9366
-0.466102 125.707 5.03942
-14.3683 131.177 3.91327
-25.5935 136.257 1.48147
20.0724 126.068 -13.0949
-23.5517 136.748 -1.30281
-25.7658 135.951 2.45025
13.8765 128.412 -13.2412
16.8434 127.791 -14.2693
13.6662 128.703 -13.6812
20.1837 126.109 -12.9634
-16.3471 132.004 4.06552
-2.39013 126.941 4.25304
-9.8339 135.576 -9.64558
14.3339 128.385 -13.1222
19.3209 127.038 -14.0321
-3.55097 132.4 -7.26626
-24.849 136.883 0.201923
-19.5864 136.636 -3.63207
3.06724 131.222 -9.92736
-20.2902 136.667 -2.91711
17.7875 124.68 -6.77745
18.2046 125.774 -9.67077
-14.6101 135.772 -5.3759
-19.5562 136.778 -3.43666
13.8826 129.141 -13.688
10.5141 131.161 -15.4868
18.0533 125.193 -7.77278
4.08705 131.139 -9.9391
-19.8299 136.856 -3.05396
20.4927 122.543 -3.40721
14.0307 127.941 -10.6353
1.22763 126.139 4.50311
-21.3227 134.741 3.35919
18.5252 125.83 -9.30135
-19.2814 133.81 3.86093
21.2509 126.323 -12.7479
-0.228421 132.145 -8.29386
-6.18007 134.127 -7.9219
-10.7269 130.831 3.7277
-7.80564 129.976 3.36283
17.9679 126.416 -10.0156
-19.2205 136.97 -3.43443
-5.47221 128.923 3.89141
-8.65235 129.699 4.78475
-7.98419 129.946 3.63936
-18.7899 136.987 -3.78284
8.36087 126.293 -1.41039
-8.98742 136.027 -9.6334
17.524 126.921 -10.5886
22.911 123.568 -7.21632
4.57038 126.003 2.60055
-23.6644 135.762 3.6173
-15.8144 132.689 4.41
22.6019 123.426 -6.20472
-21.9511 135.326 3.42138
-12.1295 136.549 -7.74898
2.22955 126.432 3.95996
15.9798 128.773 -13.1328
0.300884 132.487 -8.51642
16.3816 125.691 -6.1044
-8.49302 130.429 3.80627
16.9893 126.007 -7.25436
26.2583 122.828 -7.58901
-12.7232 131.958 3.86038
19.875 122.588 -1.57985
-8.66179 130.474 3.988
-15.2615 136.733 -5.00999
7.38824 132.311 -13.6663
5.36343 126.337 2.11691
-9.30196 136.561 -9.52863
19.8541 124.846 -6.56322
-20.2834 134.839 3.85629
12.34 125.499 -1.52826
-8.66477 130.937 3.48619
19.5087 124.647 -5.47881
-14.6385 132.958 3.81806
6.01174 126.573 1.43867
-15.2326 136.451 -3.86235
3.1029 126.793 3.41142
17.2031 126.738 -8.33807
13.9785 129.63 -12.415
16.8642 127.998 -10.9985
-19.0212 137.435 -2.82374
20.871 124.566 -6.20483
17.5803 122.328 1.9104
21.1336 124.296 -5.70529
14.3744 130.549 -14.6952
-9.68312 131.425 3.60662
6.94027 126.952 0.234038
-7.50929 130.92 3.12133
-12.685 132.505 3.76662
17.4702 122.517 1.82778
21.0349 124.111 -4.83803
17.3661 127.867 -10.5591
19.3635 125.5 -6.59326
-12.7655 137.09 -6.71765
-22.6218 136.092 3.98811
15.4681 129.678 -13.0754
2.7383 127.172 3.66131
21.1815 124.425 -5.33248
2.40147 127.277 3.88892
15.1197 130.257 -13.7866
4.96672 127.018 2.46068
16.9473 126.36 -5.96498
2.22073 127.407 4.01473
-23.4973 138.331 0.0567546
22.3432 126.858 -11.6275
24.6143 124.393 -7.66684
23.7796 126.347 -11.5396
16.3684 128.564 -10.4731
17.1268 130.027 -14.3186
16.0362 126.87 -5.94505
-22.1718 138.374 -0.749335
20.8135 128.471 -13.6966
16.5542 126.741 -6.02522
17.2469 123.389 1.36132
16.8344 123.216 2.18629
-4.10854 130.24 3.37214
-24.4656 138.387 1.4115
14.9103 129.812 -11.5674
16.7823 128.417 -9.86048
-1.23682 133.609 -6.85224
-20.356 135.777 4.33462
25.3201 126.021 -11.2582
16.5475 128.587 -9.81445
5.90612 127.544 1.72988
13.5024 128.951 -7.99583
18.8365 126.262 -6.15423
-20.5713 138.502 -1.66925
13.0931 126.076 -0.848243
5.6825 127.513 2.08494
15.7225 127.34 -5.95028
9.68854 127.632 -1.53249
16.497 127.181 -6.16918
-3.46096 134.621 -6.78101
18.2493 124.059 -0.0918877
21.5114 125.032 -5.05388
15.3275 129.37 -10.0215
14.2909 129.33 -9.03318
4.655 133.199 -9.98853
17.1618 124.091 0.901611
-9.98658 133.021 2.88818
-20.1091 135.989 4.576
17.0516 124.17 1.01444
-1.39823 129.272 4.74389
-14.4866 137.812 -4.29628
20.5714 125.69 -5.33449
-11.5796 138.178 -7.52528
19.9169 126.237 -6.0064
-20.0339 136.048 4.64689
20.819 125.432 -4.82286
14.5047 131.189 -13.0262
16.0673 123.991 2.65708
21.6896 125.18 -4.86821
-6.61495 136.786 -8.27092
-2.57045 130.251 3.77382
-19.31 138.618 -1.77802
21.1021 125.402 -4.66792
19.8589 129.209 -12.4789
-16.4671 134.966 4.64963
-17.2256 135.307 4.52965
13.4889 130.388 -9.71593
14.8513 129.822 -9.43698
-18.8664 135.834 4.96216
1.48331 133.982 -7.86401
13.4813 126.555 -0.479043
13.0758 130.364 -9.08786
9.69967 128.408 -1.49035
2.48375 133.824 -8.1181
16.1064 129.932 -10.438
16.0607 128.61 -7.205
-5.65329 136.55 -7.42242
-13.5829 138.979 -6.41439
13.0934 130.536 -9.0683
14.8904 128.502 -5.78731
-15.4469 134.868 4.85562
14.4502 131.366 -12.1473
16.2037 128.822 -7.57766
3.32082 128.843 3.31227
16.7475 131.458 -14.1799
25.6238 125.146 -6.67834
16.2868 129.136 -8.12541
-12.2754 138.919 -6.9908
-11.897 139.048 -7.25194
-16.9051 135.818 4.58425
16.1559 129.158 -7.65088
26.0016 125.28 -6.82025
15.3618 130.087 -9.06099
5.20475 134.282 -10.3424
-4.12424 136.111 -6.73845
-10.7054 138.914 -7.69091
15.2787 128.652 -5.47155
1.37308 129.4 4.5212
0.556412 134.602 -7.00197
17.2278 131.486 -13.7046
18.7929 125.864 -1.76736
-16.9654 136.016 4.59191
15.6272 130.778 -10.539
17.7915 126.009 -1.09415
15.8223 129.264 -7.07382
18.9299 130.764 -13.1786
-11.2217 134.818 2.80009
15.5058 128.795 -5.57071
19.5459 130.469 -12.8881
-23.3685 139.906 1.17128
14.5786 126.042 1.8363
9.11193 134.468 -13.3346
24.4142 127.336 -9.46581
21.4983 126.089 -4.04549
27.4457 125.04 -6.53015
-2.89023 132.191 2.2609
25.7091 125.73 -6.65802
13.5555 127.388 -0.250883
-5.65875 133.051 2.69251
-4.4535 136.701 -6.90334
-12.4965 135.062 3.7685
3.3348 129.583 3.31058
13.325 131.576 -9.79952
15.8752 131.079 -10.6234
9.64556 134.655 -13.7175
1.39728 134.849 -7.19981
-10.0856 139.309 -7.88713
-17.286 136.561 4.6666
-11.3969 139.617 -7.36718
15.2186 129.235 -5.34626
13.0921 131.536 -8.8941
15.9209 130.193 -8.07346
26.9919 126.425 -8.54698
-7.71094 138.95 -8.69257
-23.1221 139.477 3.10963
20.6292 126.873 -4.16402
-10.9725 135.373 2.72463
-14.176 140.033 -5.44495
7.94009 135.064 -12.3111
22.2606 126.319 -3.80301
15.5178 131.123 -9.37011
23.8954 128.906 -11.1922
25.377 126.061 -5.67724
20.2465 127.94 -5.68267
-2.55732 132.828 2.07825
27.1666 125.699 -6.22306
25.1391 127.844 -9.5547
14.3801 126.779 2.18239
17.0275 131.019 -9.94325
-21.1465 140.879 -0.822261
19.7726 128.489 -6.21206
-14.2885 136.123 4.63333
4.52236 135.496 -9.76489
5.71445 129.881 2.45021
13.9736 133.709 -13.5239
-10.7923 140.058 -7.54842
15.1169 126.537 2.39186
-0.993228 136.006 -6.26655
23.7358 126.337 -4.3619
6.19956 135.848 -11.9067
-7.08962 134.462 2.67921
-16.6499 139.905 -2.03073
-14.7176 136.221 5.04324
-6.54798 138.716 -7.70027
3.93652 135.655 -9.25225
-1.89787 132.944 2.24141
1.73569 130.864 4.22671
2.42856 130.785 3.923
19.5063 127.639 -3.08646
-15.7208 139.941 -2.17053
-12.4851 140.403 -5.92548
-11.6895 140.426 -6.62028
13.9075 133.875 -12.6734
16.9356 131.903 -10.5491
27.3766 127.651 -9.27732
1.75589 136.035 -7.10585
14.8358 133.405 -11.9424
-8.86936 140.366 -8.29072
20.3706 128.48 -4.94915
13.8481 128.63 0.260395
6.0599 130.675 2.16611
19.8291 129.046 -5.5604
27.2307 127.87 -9.00255
20.7371 128.253 -4.39692
-7.26336 139.884 -8.08558
13.7942 132.671 -8.87667
14.1722 134.012 -12.339
15.1321 133.495 -11.9231
-4.40174 134.776 1.61155
-3.91987 134.667 1.48824
27.4375 126.578 -5.90259
-18.5089 138.436 5.03054
-14.0489 140.611 -3.83646
-10.9069 136.877 2.30933
-3.49226 134.635 1.35063
19.3759 131.724 -11.0373
-15.1036 137.274 5.09276
26.3898 127.27 -6.38546
26.4197 128.253 -8.67586
26.2572 126.677 -4.76469
2.032 136.425 -7.22244
-3.09817 134.67 1.26899
13.1645 129.524 -0.310647
4.75244 131.105 3.17927
1.22089 132.06 3.92931
20.0657 128.926 -4.59405
13.7919 133.754 -10.6356
19.9472 128.902 -4.34755
10.95 130.862 -1.28268
27.4634 127.24 -6.64488
27.0361 128.277 -8.68442
-10.2215 141.107 -7.40341
2.27776 131.688 4.2799
13.9542 134.07 -11.1773
18.943 129.01 -3.47566
24.952 127.05 -3.90905
16.9134 127.932 0.821989
11.46 136.026 -13.6087
27.5276 128.176 -8.69046
0.558823 136.93 -6.50492
26.8124 127.266 -5.9228
0.826197 132.66 3.41664
24.0335 127.208 -3.24241
21.9837 127.75 -2.74567
9.22308 131.681 -1.19929
1.50813 136.892 -6.89078
22.6008 130.547 -9.7584
-4.83906 135.671 1.37111
20.716 128.86 -4.15557
-3.48585 138.619 -6.52383
16.5347 132.546 -9.03649
-14.1528 141.483 -4.13504
-7.36002 140.631 -7.86352
14.4225 133.577 -9.59348
18.9308 132.96 -11.8659
25.9804 127.147 -4.0901
13.8942 133.559 -8.92858
25.7128 128.697 -7.37399
6.88953 132.09 0.542063
14.217 134.536 -11.3585
-5.49489 139.623 -6.65358
-17.7834 139.129 5.02053
16.8736 128.467 0.901748
2.61383 132.161 4.28376
-12.5362 138.103 3.2514
15.2601 134.529 -11.653
1.63214 137.436 -6.90939
24.2889 127.646 -3.00481
-8.09387 141.388 -7.86134
-0.955178 137.945 -5.74721
2.5814 137.542 -7.43345
-20.785 141.035 4.12256
15.6891 128.823 2.1946
-10.6235 138.36 2.08696
-19.2488 142.745 -0.907345
13.7184 136.403 -13.8062
17.8899 134.487 -12.6743
2.89909 132.829 3.95811
6.87982 137.963 -11.3862
5.9158 138.249 -11.1926
19.3748 133.694 -11.834
-7.06307 137.214 2.30951
26.7979 128.547 -5.78491
-4.2191 136.889 0.781736
25.4226 129.151 -5.92449
18.1923 129.805 -1.32475
2.76167 138.011 -7.59621
25.5994 128.153 -3.66269
14.549 135.071 -10.6076
-14.5345 141.866 -1.9647
18.9645 134.175 -12.114
7.79156 132.907 0.343177
8.46573 132.912 -0.231788
16.1837 129.823 0.561722
2.34241 138.148 -7.32257
-4.38521 140.1 -6.16213
-4.23678 140.092 -6.12848
-5.67919 137.331 1.5897
3.30213 138.411 -8.52672
24.0965 131.358 -9.43654
-16.4432 139.676 5.22695
25.4798 128.328 -3.42909
15.8116 129.524 2.03271
-13.7873 142.78 -4.12961
-16.8391 142.827 -1.43636
4.18509 133.148 3.62925
-3.81486 137.345 0.520931
-0.0154191 135.706 1.24839
25.5275 128.383 -2.98278
2.19666 134.315 2.82726
-14.6125 142.405 -2.01295
11.2252 132.729 -0.938843
3.83576 133.289 4.00499
15.7689 130.015 1.7737
-13.0083 143.118 -4.66212
14.3779 137.037 -13.3958
15.7762 130.22 1.58229
26.6896 130.67 -8.64695
14.7503 135.631 -10.2263
6.92956 139.068 -11.5587
16.4887 135.237 -10.6042
16.1721 135.177 -10.1363
18.2199 131.298 -2.58526
25.0793 128.897 -2.71876
25.2391 130.692 -7.04972
24.7453 130.601 -6.283
22.7677 132.609 -9.29137
-5.52924 138.244 1.36843
2.04904 135.178 2.21261
11.166 138.292 -12.8038
13.6524 131.174 1.93948
1.66132 139.249 -6.83416
18.4156 135.483 -12.002
-5.68693 141.731 -6.34345
27.0324 130.716 -8.03496
4.57673 139.538 -9.80488
3.32927 139.582 -8.80219
3.34047 134.52 3.11888
17.9256 131.199 -1.36277
0.506935 136.418 1.08035
24.3954 132.128 -8.97171
26.419 131.736 -9.66276
-15.3945 143.193 -1.28164
2.6575 135.133 2.45162
9.09621 134.102 -0.55487
-12.0528 143.752 -5.29587
26.2809 131.307 -8.32128
12.9068 132.709 -0.320655
18.9828 131.534 -2.65799
16.7232 135.663 -10.4467
16.1153 135.532 -9.50075
20.3441 131.049 -2.45916
24.8893 130.139 -4.12619
15.2813 135.877 -9.44891
25.6073 132.454 -10.1124
12.0069 138.633 -13.1433
-0.281729 137.199 0.615762
4.03849 139.879 -9.25221
13.6375 131.622 2.1201
-10.5788 143.912 -6.28207
-11.459 143.98 -5.64587
21.7652 133.753 -9.5839
1.50047 136.227 1.7228
-20.4322 143.964 2.04947
-2.61351 140.88 -5.61971
10.811 134.144 -1.08028
6.09504 140 -10.8471
26.9488 131.544 -8.54581
-14.5912 141.064 4.1602
26.2369 131.705 -8.00985
26.9909 131.703 -8.63531
8.12866 139.791 -11.6237
3.79285 135.096 3.10477
-19.9529 143.258 4.03257
-15.4177 141.417 4.59066
7.43179 134.858 0.732246
-6.81169 139.437 2.04711
-12.5936 144.109 -3.98166
23.3757 130.515 -2.34433
0.288459 137.583 0.603284
15.8975 137.166 -11.5941
24.7972 130.163 -2.62157
10.5758 139.486 -12.3334
-8.10579 140.194 1.79698
25.1098 130.554 -3.56503
-12.7943 141.28 3.29268
14.962 136.502 -8.89714
20.8525 131.294 -1.53912
13.5342 132.331 2.21942
-0.798954 140.728 -5.37799
5.95524 140.557 -10.5989
-7.70709 140.196 1.81258
-12.0686 144.512 -4.65577
6.58479 135.377 1.09866
24.6943 133.13 -8.81095
-15.2103 141.808 4.47315
15.3644 136.722 -9.37759
24.5584 130.632 -2.793
-8.78479 144.342 -6.877
24.6958 130.628 -2.85372
1.90424 136.803 1.87385
-15.035 144.112 -0.992635
11.9866 134.316 -0.760372
17.1023 132.217 -0.118132
15.3828 136.792 -9.41775
11.1073 139.723 -12.5922
-19.7892 144.1 3.21869
6.6009 135.53 1.13706
-2.64527 141.644 -5.39789
0.667827 140.818 -6.15347
2.3422 136.76 2.10412
-8.79183 144.558 -6.78415
13.5823 132.547 2.58649
-19.8531 144.642 2.38287
-10.0418 141.427 1.66198
25.1209 131.2 -3.95531
19.0538 136.584 -11.335
24.6123 132.02 -5.25794
-13.1986 144.677 -3.05398
23.2391 133.558 -7.47616
24.6448 131.248 -3.20164
8.88711 140.504 -11.5802
21.1924 132.036 -1.81158
15.7794 137.344 -9.6985
-13.4544 144.914 -2.70413
-0.210699 139.082 -0.00409241
-1.65444 141.85 -5.24807
23.8806 133.844 -7.90037
18.6515 137.196 -11.371
24.8886 132.477 -5.49625
-14.1857 142.465 4.07256
11.2633 140.445 -12.6074
12.9154 134.11 1.04179
-12.8757 145.186 -3.16532
22.3894 134.541 -7.62075
18.0313 133.322 -1.02638
-6.37694 141.061 1.67307
20.2982 136.442 -9.80911
3.34963 141.84 -8.07834
-8.6761 141.914 1.94449
-5.94664 141.232 1.32428
15.7147 138.069 -9.50795
-12.9778 145.578 -2.89979
2.89133 141.945 -7.67859
-0.0149031 142.137 -5.67226
-14.3931 143.134 4.43709
-18.9815 145.501 2.79438
20.6917 133.201 -1.71907
2.84217 137.931 2.2307
15.6497 133.547 1.82751
3.87511 142.164 -8.37739
24.5988 133.29 -4.9395
-11.8528 146.175 -4.16332
19.1452 133.835 -1.28383
-3.70653 141.183 0.784797
4.08911 137.594 2.80144
0.764872 142.652 -6.26981
-6.17856 142.079 1.11384
-7.06701 145.646 -6.50923
15.9589 138.743 -9.56065
-14.3493 145.888 -0.688105
-2.89635 143.605 -4.85592
-9.36462 143.194 1.58432
4.48523 142.699 -8.82553
-0.757681 140.972 -0.302435
6.36378 137.742 1.29835
20.7664 137.057 -9.17126
-0.106343 140.978 -0.642427
-10.7421 146.728 -5.18861
15.6971 138.843 -8.8405
15.7298 138.868 -8.89253
0.422802 140.671 -0.206274
15.6549 138.851 -8.73293
18.159 134.668 -0.969155
23.6301 133.216 -2.15772
-9.97813 143.631 1.77257
16.3024 138.184 -7.57919
-13.0864 146.382 -2.03867
-13.1854 144.048 3.54142
12.4894 136.355 0.209078
13.1865 135.521 1.59198
4.17368 138.264 2.7746
21.8655 136.394 -7.73785
3.42584 138.782 2.319
2.10453 143.269 -7.0898
12.6219 141.312 -11.299
-10.8224 147.059 -4.98794
26.4828 134.633 -7.24239
12.5857 136.485 0.378179
22.4916 133.823 -1.70222
0.911776 140.849 0.289929
22.0859 134.065 -1.59739
3.631 139.02 2.35792
26.6853 134.897 -7.39801
11.8195 142.213 -11.9928
4.72201 143.494 -8.82523
8.57956 138.328 0.0976794
3.52025 143.513 -7.71895
14.6366 140.258 -9.40697
23.1145 133.967 -1.74176
-8.64311 147.196 -6.02385
1.54666 143.832 -6.70725
12.5457 136.947 0.259413
16.4625 135.459 0.458206
12.3104 137.235 -0.210819
-3.58304 142.183 1.65045
7.25616 138.645 0.880999
-12.7166 147.152 -2.21985
25.7328 135.108 -6.23394
-11.8821 144.766 2.8267
11.8625 137.714 -0.50773
-11.543 144.869 2.6395
-10.3879 144.739 2.06297
15.097 140.231 -8.83638
-8.34807 147.417 -5.91667
22.5995 134.47 -1.4577
2.10468 144.162 -6.87407
6.39694 139.204 1.21338
23.7571 136.167 -6.21831
11.593 142.803 -11.4574
-11.2674 145.092 2.48344
-11.1347 147.961 -4.27712
-13.3135 145.413 3.56081
-14.9234 145.718 4.25028
23.0028 134.625 -1.47457
2.55394 140.682 1.56911
-14.862 147.639 0.0206973
1.81897 141.779 -0.105031
11.9102 138.302 -0.400284
25.6366 135.321 -4.97427
-11.6655 148.136 -3.61056
10.538 138.916 -0.554134
-13.1804 147.589 -0.818881
-6.62058 147.381 -5.86744
-1.03238 142.643 0.570311
1.54866 142.206 -0.470146
2.88345 140.839 1.68063
5.1705 144.519 -8.8888
-14.1662 146.112 3.80942
22.1747 137.902 -7.41962
14.6879 140.945 -8.24296
-7.44771 147.821 -5.69287
24.9604 135.39 -3.71167
-16.2796 147.954 1.56812
0.429805 145.039 -5.67052
7.8582 139.705 0.859232
11.1059 139.205 -0.504421
7.2878 144.505 -9.71784
-15.0003 146.677 4.01524
9.03536 144.205 -10.4343
-12.796 148.145 -1.24049
22.844 137.409 -6.02717
23.5741 137.111 -5.7905
-9.45316 148.679 -5.11162
9.84184 144.142 -10.7102
24.96 135.48 -2.87319
-16.1945 147.913 2.76066
12.4033 138.897 -0.0329398
12.8469 138.514 0.533533
-7.23138 145.34 1.44262
-2.45189 146.047 -4.2137
-15.5707 147.54 3.36764
-11.9797 148.779 -2.57163
14.3861 141.616 -7.97847
18.1509 136.864 0.185696
25.4085 136.965 -6.12915
18.3848 140.551 -8.57256
18.3658 136.929 -0.00735901
1.83177 145.706 -6.58007
-7.15764 148.418 -5.35505
16.78 137.218 1.0696
14.1691 137.611 2.48751
3.29728 145.662 -7.19902
-14.8099 147.91 3.43518
-0.294194 146.292 -4.86898
13.6967 143.129 -8.97946
18.4836 141.226 -8.31478
0.720623 146.441 -5.55436
-14.8273 149.172 1.23986
-12.0435 149.567 -1.94531
12.8381 139.565 0.581955
-8.20673 146.728 1.53711
17.982 141.255 -7.62677
10.4193 140.817 -0.187178
-11.6653 149.786 -2.52282
2.01952 146.622 -6.52042
11.9954 140.256 0.0461298
13.9198 142.769 -7.38102
12.7076 139.856 0.561334
-9.00134 147.132 1.8771
11.0174 144.949 -9.86657
23.0457 138.636 -5.13917
23.7626 138.233 -4.71922
14.3278 138.523 2.63183
19.77 140.957 -7.6796
19.4566 141.122 -7.76451
-14.7022 149.084 2.57413
-10.2734 147.629 2.42641
-11.8717 148.112 3.0179
-13.5717 149.797 0.488599
3.66606 143.051 1.90801
12.5102 144.409 -8.74974
-8.05234 150.022 -4.47734
24.6955 137.307 -2.17567
17.8062 138.456 1.0892
17.3201 141.796 -6.20862
3.72364 147.186 -7.08835
-10.2507 150.552 -3.1537
19.9843 138.545 -0.405802
11.704 145.119 -8.87881
-12.4903 150.432 -0.778807
4.38245 143.473 1.52375
-13.6862 149.984 1.56207
-4.79406 149.208 -4.04714
9.61051 146.432 -9.47679
5.06916 143.69 0.833759
15.2637 139.196 2.80679
11.2355 142.016 -0.220091
20.7003 138.714 -0.416917
6.32866 143.097 1.62254
-12.8972 150.585 0.311417
-10.2262 150.958 -2.62294
-12.8466 149.663 2.64583
23.3242 138.384 -0.679501
22.5209 138.646 -0.612927
12.0821 141.966 0.417895
14.4573 143.596 -5.38847
22.8935 140.644 -5.29456
13.1119 141.387 1.43769
17.1896 139.812 1.85435
-4.95739 150.224 -3.79393
17.1761 143.094 -5.48965
20.1843 139.721 0.0406223
-8.98199 151.328 -2.53023
14.9971 143.665 -4.64953
14.8658 140.763 2.60426
-7.66901 151.44 -3.15502
-8.84667 151.519 -2.31705
3.79311 148.599 -6.08456
-8.91861 149.643 2.19578
-11.6975 151.027 1.3713
5.63813 148.622 -6.77257
15.4042 143.933 -3.97514
18.4641 143.696 -5.89264
5.50266 144.973 2.24673
16.6851 140.92 2.35855
21.0894 142.788 -5.65371
