ply
format ascii 1.0
comment Created by Open3D
element vertex 1942
property double x
property double y
property double z
end_header
0.860073 94.4012 -12.2781
-12.1249 96.3879 13.6469
-5.5461 106.195 -12.6694
-25.3546 121.296 12.055
-19.7679 126.179 -6.08792
0.725141 94.8939 -12.4436
-25.0371 133.509 -3.55078
-5.70236 85.7015 12.8813
-5.0806 105.443 -12.6036
-13.2169 98.6959 13.531
-31.5272 140.267 2.70016
-27.4934 130.083 6.46658
-1.00448 99.1923 -13.4489
-27.8539 137.029 -1.22047
-32.2858 139.294 5.67931
7.65263 76.5939 -4.55419
-2.24889 101.25 -13.1563
1.65702 93.3315 -11.9311
-24.9117 132.339 -1.76771
-23.2726 117.446 12.9173
-31.3671 140.161 2.78223
-25.6504 133.698 -1.74694
-21.8193 114.53 13.3827
-28.414 137.356 -0.141285
-24.4199 132.39 -2.73906
-11.9169 96.9562 13.5051
-6.32711 108.436 -12.7064
-24.7078 132.228 -1.7452
0.072917 77.5192 11.224
-27.7029 130.531 6.89829
-14.2292 118.522 -7.74745
-32.876 141.204 5.1344
7.5271 77.5127 -4.95097
-24.5405 132.772 -2.64681
-9.77816 93.7644 12.9693
-5.01632 106.256 -12.6975
-24.9925 121.597 12.2219
-24.6519 132.254 -1.55594
-22.1087 129.722 -3.80685
-26.4439 136.509 -2.60324
-0.173339 98.5417 -13.276
-30.2345 135.227 7.33946
-18.2801 124.816 -5.86876
-21.4032 129.224 -4.45766
-7.35739 110.252 -11.7355
-23.0787 118.094 12.9454
-21.365 129.357 -4.51536
-1.146 100.612 -13.3861
-20.5369 113.469 13.1569
-3.71319 104.944 -13.0479
-28.882 133.007 7.48474
-25.9078 126.215 9.3266
-17.054 123.005 -5.99977
3.46772 90.2387 -10.5961
-11.4615 115.387 -8.82443
0.604951 77.5571 11.2449
-23.9344 132.801 -2.87962
-15.3701 104.575 13.0658
-3.71336 105.232 -13.0791
-13.0922 100.406 13.2731
-4.77454 107.008 -12.8232
-2.62015 103.326 -12.9792
-3.7407 84.442 12.6278
8.02082 77.563 -4.55204
-12.9338 100.432 13.2069
-11.6286 115.923 -8.59957
-11.1958 97.5531 12.994
-26.5457 130.156 6.54715
-30.386 139.849 3.05328
-10.845 115.026 -9.13337
-1.37657 81.398 11.5882
-25.1457 123.952 11.323
4.82138 87.564 -9.43584
-13.6393 118.785 -7.42082
-24.3567 133.014 -1.3612
-8.3406 112.529 -11.1562
-3.56126 105.709 -13.1741
-22.1345 117.448 12.9701
-21.6209 130.257 -3.79943
-8.13873 92.6387 12.9215
-27.0811 131.233 7.02691
-6.33996 109.934 -12.0971
-18.299 125.822 -5.40356
-6.64327 89.584 13.5704
1.97457 76.3166 11.0374
-31.4496 140.929 4.85757
-20.2314 114.182 13.202
-28.461 133.517 7.51768
-27.4371 131.972 7.21524
-3.58497 106.176 -13.1651
-8.70166 94.3406 12.495
-22.3926 131.819 -3.54816
-8.3379 93.5922 12.6454
-20.9436 115.494 13.3459
-30.0857 136.757 7.28455
-31.5791 142.507 3.65896
6.63643 83.0931 -6.81396
-26.8878 131.446 7.11008
-13.6027 119.485 -7.10883
-20.659 130.119 -4.74389
8.42521 78.0174 -4.30197
-6.48905 110.758 -11.792
-14.4256 104.537 13.1424
-9.88225 115.334 -9.94858
-3.60639 106.827 -13.1563
-29.8867 137.081 7.10393
0.0769207 100.533 -13.3975
-16.06 122.891 -5.58168
-21.3335 131.22 -4.20371
-29.0686 139.75 2.29131
-23.4153 121.038 12.9287
-18.8313 112.867 12.9604
-14.9603 106.057 12.872
-11.4009 116.849 -8.0567
-15.9317 107.878 12.8354
-18.1768 111.601 13.232
-2.1619 104.944 -13.3692
-28.2261 134.257 7.56151
-29.9524 139.333 5.14784
9.52462 74.9701 -2.05102
-25.6875 128.428 9.27479
-26.6808 132.216 6.90353
-19.5533 114.482 13.1816
9.26351 76.3434 -2.9286
-11.8886 117.819 -7.56591
-19.0821 113.858 13.0432
-5.99174 110.924 -11.8578
0.689861 100.181 -13.2273
-13.5052 120.195 -6.58146
-27.0645 139.466 -0.562203
-29.3902 138.609 5.64413
-21.9276 132.719 -3.26182
-6.41336 111.853 -11.5123
5.53605 88.8462 -9.30584
8.3145 80.4999 -5.13533
-27.6751 140.237 0.219117
-25.0444 130.661 6.23373
-18.2637 127.482 -4.55929
-1.19879 83.5233 12.1272
-26.399 132.673 6.94465
-15.4888 123.353 -5.42224
-3.31844 107.793 -12.8544
-27.3883 134.329 7.13564
-4.63515 88.6928 13.4488
-17.7531 112.379 13.0785
-5.89614 90.7112 13.8504
-20.2785 131.271 -4.42766
-7.52944 113.906 -10.9387
-4.75093 110.147 -12.3844
-25.5687 138.66 -1.90182
-25.955 132.336 6.74545
-29.9174 141.443 4.26483
6.82572 85.4624 -7.21858
-25.0387 138.246 -2.32852
-2.68612 107.005 -12.7975
7.42166 83.7488 -6.34972
-7.01717 113.265 -10.9979
-22.3963 134.171 -3.05265
-11.3692 118.263 -7.42051
-30.7597 143.47 4.11779
-24.7462 138.458 -2.81609
-4.53089 89.081 13.576
-22.0651 121.048 12.7012
-4.20243 88.6131 13.5108
4.08937 75.9817 10.9049
4.37268 92.8528 -10.3578
-6.77671 113.317 -11.0089
-3.17126 108.313 -12.6818
-19.7908 116.876 13.1717
-22.6513 122.36 12.7868
-21.6172 133.861 -3.41768
-6.50879 94.0679 12.3828
-12.8087 104.641 13.2276
-7.24186 95.7604 11.9799
2.95452 78.2366 11.3377
-28.0182 136.711 7.29756
5.38498 90.9806 -9.52232
-6.89044 95.2071 12.0665
-6.00655 93.2328 12.7141
-4.32491 89.4382 13.7053
-27.6431 136.21 7.33609
2.43186 98.7088 -12.2799
-5.64199 92.0395 13.4924
-20.9341 119.871 12.7938
-9.84308 117.615 -8.47791
-4.08805 89.2828 13.6745
0.794156 102.489 -13.1072
-23.171 124.434 12.2715
-9.89762 100.818 12.4391
-7.55467 115.64 -10.8143
-17.9191 114.548 13.12
-12.8087 121.242 -6.13079
-2.11186 86.41 13.2082
3.81698 77.6131 11.1386
-23.8123 130.843 6.20405
-28.4316 141.665 3.07199
-23.3107 137.887 -3.42742
-9.35255 100.178 12.3214
-9.92312 101.088 12.4536
-1.22945 85.4116 12.7226
-3.04125 109.212 -12.3963
6.52665 89.3099 -8.86955
8.70062 82.1397 -4.77962
-11.8925 120.273 -6.55524
-15.4852 110.706 13.0457
-22.1574 122.988 12.6984
-5.28544 92.6897 13.0612
3.73831 96.533 -11.3054
-20.782 120.69 12.6026
3.04383 98.3249 -11.9223
-1.32107 85.8724 12.8508
-15.7436 125.616 -4.36705
4.63176 76.8305 10.9635
-23.4715 129.243 8.07004
-17.4216 128.229 -3.82792
9.35929 80.1267 -3.23538
-1.72804 107.389 -12.3703
-24.8202 133.204 6.41045
4.30219 77.5654 11.0862
-18.1683 130.941 -5.24469
-23.2094 126.05 11.7551
-18.7522 117.138 12.9895
-30.0541 143.649 5.29108
-25.2251 140.888 -1.81158
2.09663 81.3604 11.5278
-22.7665 137.76 -3.16646
-22.6979 124.865 12.5355
-3.76941 111.073 -11.7596
-1.16339 86.3806 12.9126
-18.4078 131.756 -5.03783
-10.0712 102.661 12.4488
-22.146 135.662 -1.61563
-11.1676 120.302 -6.69676
8.36722 84.7602 -5.70756
3.87695 78.8026 11.3855
1.63735 82.749 11.5749
-22.8639 138.255 -2.90221
-17.3844 115.559 12.9807
5.51469 93.3425 -9.7079
8.59398 84.4622 -5.506
3.02759 99.8699 -12.2245
-0.701185 106.788 -12.5578
-17.471 115.86 12.9511
-18.1443 132.145 -5.45913
2.50149 81.5675 11.5607
-6.69521 98.0504 11.4448
10.0712 79.9064 -2.87508
-7.21587 98.8986 11.5558
-23.7138 139.493 -2.17251
-5.43399 95.4516 11.9291
-3.3009 110.911 -11.6043
-18.9315 132.481 -3.87355
-18.2321 132.217 -5.07183
-4.06489 91.5617 13.8244
-17.6523 116.538 12.8827
8.14959 85.9445 -5.87189
-22.1257 137.072 -2.45097
6.03076 92.4949 -9.20187
-2.90576 110.482 -11.6337
-10.1454 103.74 12.4203
3.84823 98.6525 -11.5602
-10.7411 120.662 -6.7034
6.47295 91.7254 -8.73518
-4.6465 113.465 -11.0792
-22.622 127.887 10.4771
-25.6004 142.25 -0.60714
6.9465 90.7934 -8.44725
2.68621 101.616 -12.3664
6.42228 76.223 10.6208
-17.6189 132.436 -5.76058
8.0337 87.0882 -6.01199
-2.57586 89.8656 13.7584
-4.17625 93.804 12.4591
-23.2727 139.551 -1.91044
2.79775 101.683 -12.3073
-12.383 108.497 12.5108
-15.7052 114.191 12.9417
-26.4458 143.283 0.746615
7.87468 89.0781 -7.63472
-0.804254 108.105 -11.9494
-11.7869 122.764 -5.94926
-21.9258 137.696 -2.12086
-4.55245 95.2858 11.9372
-10.2256 120.724 -6.77499
-17.8708 132.963 -5.09321
-16.7958 116.484 12.777
8.11219 87.4693 -5.98955
7.21325 90.9292 -8.21244
4.27335 98.6207 -11.1918
-16.0327 115.222 12.7838
-26.1667 143.282 0.533391
-18.3314 133.005 -3.90008
6.19577 93.7839 -9.3287
-3.17572 111.839 -10.9706
-9.29096 119.902 -7.50448
-23.4327 140.23 -1.55443
-10.0716 120.756 -6.79206
-15.7911 114.971 12.7655
2.0734 103.515 -12.1277
-8.8221 103.188 12.0392
-24.5078 135.911 6.20128
-18.1776 133.121 -4.10229
-26.9672 140.727 5.80111
-20.2903 136.21 -3.20089
-22.7404 133.085 6.04159
12.5146 74.7053 0.709988
9.65891 83.1045 -3.2396
9.75839 82.7734 -3.02117
0.333436 86.8109 12.5958
4.12416 80.8355 11.7055
-9.74692 104.908 12.4764
-24.6296 136.444 6.3179
-9.33243 104.322 12.317
-3.96859 95.0407 11.9923
-21.8882 129.355 9.06056
-2.90471 91.7948 13.6902
1.63203 104.94 -12.2448
-15.3576 114.805 12.7268
5.4608 96.3085 -9.95702
-14.8339 113.777 12.9143
-25.5323 138.209 6.38939
4.03379 100.53 -11.7096
-14.0668 126.499 -4.00718
-16.0468 130.32 -4.3607
-28.7481 144.742 5.70053
-10.8462 107.367 12.4477
-2.29086 91.0896 13.8383
-28.4885 144.88 5.11808
-8.10807 119.694 -8.44289
-21.7644 139.144 -2.36764
-18.2968 134.154 -3.79782
-12.0785 109.696 12.6038
-27.8177 145.107 3.56721
12.8537 75.102 0.62402
1.04135 86.6419 12.3204
-22.291 133.095 6.31722
-13.3791 125.935 -4.31015
-2.66304 92.6827 13.0783
-15.5622 129.165 -3.46138
-6.33272 100.614 11.3772
8.84718 87.3371 -5.33886
1.11501 107.078 -12.5491
7.82761 91.0802 -7.58924
-17.4163 119.721 12.3793
3.05783 83.8305 11.7482
-4.78613 98.389 11.0331
-9.60419 121.411 -6.64489
-22.1484 133.08 6.43487
-8.71085 104.637 12.0248
5.84612 96.4775 -9.69487
-21.8719 132.283 6.91875
-22.0744 139.906 -1.96269
-21.4164 130.051 8.70346
4.09973 101.388 -11.8027
7.59225 77.046 10.4024
6.63841 94.6984 -9.12116
8.58418 75.4425 10.2316
-18.8096 122.394 12.4602
-12.1013 124.717 -4.9686
4.13387 101.439 -11.7813
-21.4668 128.106 11.5468
4.76555 81.3426 11.6621
-13.767 113.622 12.8007
-2.3679 93.3787 12.7413
-21.3808 130.065 9.30887
-17.1075 120.05 12.2868
-2.30109 112.193 -10.3596
-27.619 145.487 4.07635
-17.2808 134.544 -4.9853
-7.63022 104.043 11.3292
-24.2404 142.992 -0.105546
2.13155 86.2184 11.9497
3.71545 102.707 -11.678
-4.05153 115.08 -9.69239
-10.8191 123.729 -5.48373
-2.43565 94.2633 12.3253
3.09013 84.8137 11.8708
-5.58953 100.924 11.1029
-20.2096 138.563 -3.06508
-8.97809 106.08 12.2584
-14.3005 128.303 -3.31096
-15.1016 130.004 -3.57304
3.93898 102.762 -11.582
4.96657 100.376 -10.8496
-20.7805 131.249 7.50525
-23.3846 142.594 -0.694759
-4.54818 116.228 -9.43982
7.93683 92.7315 -7.77692
2.2754 106.014 -11.6286
-22.0419 141.153 -1.62081
-5.91545 102.008 11.1688
-21.069 132.189 7.41611
-8.37936 106.014 11.9036
1.61785 87.7301 12.5088
-18.413 123.612 12.2486
-6.16173 102.88 10.9668
1.26521 88.28 12.8159
1.90644 87.5913 12.3577
8.91534 89.9647 -5.8211
11.1248 82.1972 -1.12573
8.73076 77.4164 9.94954
-3.89911 99.3807 10.6424
6.51009 80.8281 10.678
-11.0076 124.8 -4.9508
-21.0043 140.139 -1.91558
-24.8272 144.865 0.654902
-8.7067 122.153 -6.64781
5.64942 99.4887 -10.1357
-2.20882 95.6448 11.7583
-20.1528 140.265 -3.69882
-14.4249 130.075 -3.5693
13.5569 77.1144 0.291379
-1.43847 93.4555 13.0945
9.26696 77.1926 9.69077
12.9289 79.2134 -0.681409
4.0102 103.759 -11.2615
-20.2992 128.328 11.7349
2.26643 87.8153 12.2936
-16.6035 121.258 12.4819
-11.9162 112.819 12.6155
6.05572 99.147 -9.80346
-18.7796 125.664 11.8786
-26.9268 146.142 4.63997
-5.27103 118.877 -9.13547
-22.6526 143.068 -0.80995
-19.2358 126.654 11.8616
-8.54599 107.542 11.97
11.1065 83.7902 -1.77867
-2.94657 98.6847 10.65
1.30233 89.1679 13.0599
-14.2829 117.51 12.3407
-4.1867 117.012 -9.05476
-16.6092 135.502 -4.61107
-5.14398 102.516 10.7944
-25.123 145.518 1.84649
-11.5355 126.336 -4.20315
7.27803 96.843 -8.96566
-2.85291 98.915 10.5812
-26.7358 144.647 6.65288
-7.72122 106.843 11.4961
9.62577 89.0912 -4.5532
-9.49112 109.343 12.3557
7.34009 81.0235 10.345
11.2246 84.0933 -1.76749
-0.759107 112.592 -10.5278
-0.0420655 91.5613 13.6841
11.4582 82.8475 -0.691187
-24.2146 140.603 6.35653
9.07063 91.6045 -6.12065
-14.3582 132.71 -5.31426
13.7256 78.2608 0.191932
4.61858 84.8812 11.9435
6.80348 98.2952 -9.17455
-13.7842 117.463 12.2827
1.76386 89.2683 12.9745
-15.4195 134.988 -5.49939
-24.3057 145.727 0.779503
13.4896 79.2978 -0.244894
-5.63269 120.568 -9.05357
-26.4389 146.549 4.57801
-3.17954 100.616 10.24
-22.8179 138.307 6.97291
11.6248 83.192 -0.601379
7.36151 97.5799 -8.91536
-12.4619 115.684 12.2532
-14.3877 134.097 -5.97907
-2.70871 100.07 10.248
-1.55108 97.1876 11.2998
-2.45503 99.6838 10.3467
-20.4213 141.531 -1.66307
-17.7207 138.693 -4.02517
-19.8469 133.245 7.37788
11.5633 84.6179 -1.54883
-19.0748 140.924 -3.699
3.94251 87.0335 12.1139
-10.3938 126.065 -4.37438
-23.8759 145.939 0.704109
-12.5042 128.859 -3.16105
12.3435 82.2869 -0.223372
-22.8024 144.706 -0.000816928
-19.0079 128.529 11.5424
-19.2914 130.032 10.4312
-21.4823 143.435 -1.17758
11.7227 84.6156 -1.34096
-0.399164 94.5806 12.9279
11.8919 75.6015 9.48013
-25.8077 146.828 4.45885
-1.9328 115.5 -9.18155
-1.859 99.4851 10.4388
-25.8263 146.001 5.79677
-13.1311 131.018 -3.49534
4.48839 86.9595 12.0496
-0.251424 113.712 -10.3309
12.5719 82.4894 -0.0233183
8.68964 95.6452 -7.5684
-7.46059 109.203 11.0964
-22.2624 138.839 7.16719
-1.94438 100.216 10.1982
8.77718 95.56 -7.44129
7.28271 83.0677 11.3313
4.48315 106.246 -10.8786
4.73161 87.1539 12.0175
-16.0236 138.056 -5.03875
-18.0403 141.156 -4.39824
-13.0077 132.04 -4.06853
-19.3703 134.782 6.48042
-24.3546 147.02 2.40791
-20.5356 137.039 6.31267
-15.7252 137.844 -5.1419
15.4655 75.6603 3.04222
10.0314 91.5128 -4.46105
-14.679 121.902 12.241
5.30012 105.358 -11.0137
9.4308 93.9536 -5.99864
4.33204 106.88 -10.7034
-6.97392 109.495 10.7693
-12.3501 130.478 -3.1807
-20.5802 143.637 -1.34483
-20.1172 136.858 6.06124
-15.0376 137.191 -5.34071
-6.15816 123.262 -7.54438
-19.4665 135.851 6.05768
-9.01442 126.141 -4.80602
7.81522 83.1652 11.1704
13.0315 82.7556 0.30618
-8.02492 125.314 -5.90057
-3.82295 105.177 9.63082
-8.24829 125.545 -5.53885
-6.73802 123.96 -6.88962
-16.5114 126.301 11.5615
-19.0137 135.088 6.27674
6.94527 102.522 -10.4232
-8.66118 112.228 11.7386
-14.3677 136.514 -5.52473
-18.1587 142.109 -4.04837
-10.2778 127.763 -3.64642
-0.903786 116.007 -9.63215
5.46431 87.0258 11.9907
-24.0187 147.467 2.29726
-19.3949 136.259 5.96385
8.02886 99.8735 -9.07044
12.36 85.4311 -0.802336
11.5437 79.1916 8.64182
-18.3194 132.275 8.75822
-0.621379 115.879 -9.73492
-0.0297353 97.17 11.8999
9.70616 94.487 -5.95731
-7.10644 110.712 10.8894
-20.5584 138.116 6.67594
8.60453 82.8357 10.8151
5.10992 106.67 -10.6412
-5.51578 123.209 -7.70996
-17.5682 142.126 -4.59279
14.2004 81.4295 0.477833
-18.0962 132.19 8.769
10.2713 92.5675 -4.53671
14.4218 80.282 1.48827
12.4638 77.6357 9.01538
-0.274769 98.8121 10.9137
14.7232 79.772 1.62035
7.73034 101.575 -9.79993
4.80563 107.348 -10.4896
12.1378 78.5397 8.83309
-12.89 134.882 -5.48419
8.73801 83.0793 10.8462
-18.4079 133.751 7.98432
-12.0739 131.992 -3.63441
-12.3374 133.166 -4.45325
-8.88775 113.875 11.6717
-12.722 134.643 -5.36631
4.48655 89.561 12.3412
-18.5302 135.919 5.7605
-22.4569 147.132 0.607595
8.52063 83.5104 10.9958
-3.79963 106.97 9.26359
9.84779 82.1305 9.9499
4.47777 108.647 -10.7959
-21.8755 146.591 0.234197
-18.8942 143.03 -1.81127
-4.12684 121.953 -8.19304
-17.2218 130.826 9.49542
-3.64451 106.949 9.21789
0.212026 98.4831 11.1938
-11.5095 131.247 -3.32752
10.9079 91.6044 -3.63508
13.6953 76.8694 8.53228
15.4194 77.6073 3.87101
16.2159 75.4648 4.78048
14.647 78.9995 3.92946
-20.3583 138.886 6.91065
5.74724 106.661 -10.5027
5.71124 88.4897 11.8624
-17.9144 133.759 7.9793
-0.954871 117.778 -9.38008
-16.8675 129.764 10.7907
-18.038 143.235 -3.06917
-13.9919 123.869 11.8412
4.73506 90.1062 12.3919
-23.3437 148.268 2.40967
-3.72542 121.881 -7.99561
-15.4767 140.492 -5.06072
-12.7503 136.232 -5.73011
14.4679 82.3853 0.875933
-17.7061 135.481 6.06087
-0.316675 101.332 9.9684
-8.32552 114.588 11.3411
-17.6703 134.132 7.79407
13.5857 81.4089 4.26759
14.1872 80.1106 4.54743
-7.66427 113.827 11.0927
15.9973 76.3987 5.34164
3.06645 113.388 -11.7018
-19.0782 138.555 5.8932
-7.54581 113.916 11.0267
-21.7776 142.263 7.35937
0.76581 99.1669 11.0325
16.0873 76.213 5.78147
-1.99062 105.889 8.93988
-2.94466 121.326 -7.81535
15.6997 75.823 7.35496
-21.9401 142.685 7.54668
-20.5887 146.713 -0.298829
-16.7764 143.156 -4.24752
-23.7661 147.244 5.99307
12.2741 89.5915 -1.97063
-3.59904 108.971 8.92472
11.3508 92.4772 -3.44316
-5.36333 111.529 9.7066
8.32421 85.7889 11.4823
-9.96839 130.115 -2.91226
6.12025 107.517 -10.2225
14.8928 78.7033 5.96279
-3.76434 109.547 8.92043
-8.79103 128.794 -3.63407
9.51909 99.3565 -7.48679
12.9814 87.8039 -0.801889
16.2015 75.7519 7.00142
4.27586 112.252 -11.6114
11.1866 83.0794 9.17277
-18.1247 138.14 5.66675
-22.1469 143.866 7.46552
5.22737 110.334 -11.0645
2.69274 115.026 -11.2841
8.8776 85.5536 11.3249
9.19132 100.627 -7.80071
-1.9174 120.258 -7.58823
-21.4711 148.432 0.687692
1.71989 97.7876 12.1687
-14.6788 141.244 -5.17907
-22.8793 148.656 3.65588
-7.98134 116.061 11.1958
-22.6574 146.079 6.49511
14.0859 84.1803 2.21076
-23.2144 147.712 5.75742
-20.6646 142.243 6.90209
-15.6464 142.566 -4.42111
5.397 110.705 -11.1265
-6.61468 127.38 -5.33897
-11.228 135.287 -4.94445
12.5267 81.996 8.54243
-23.1916 148.198 5.38217
-5.81587 126.312 -5.66
-22.9487 148.484 4.64315
-0.245541 119.006 -8.72678
-13.6843 126.212 11.7851
-13.7236 140.028 -5.03992
2.40794 96.5782 13.002
-10.9868 121.549 11.681
-10.6326 120.977 11.7103
-1.55892 107.427 8.56976
-1.38304 107.108 8.58252
8.2293 105.188 -9.894
14.2959 80.4299 7.20342
-6.77814 115.195 10.6019
10.16 99.1008 -6.57097
11.6602 93.7823 -3.3271
-19.4807 146.99 -0.581636
11.5259 83.6805 9.34882
-12.9061 125.333 11.6092
-4.3131 112.338 8.89769
-16.3985 137.301 4.68863
13.4623 88.1656 -0.15163
-15.8896 135.947 5.35532
1.29391 101.502 10.1167
0.797541 118.334 -9.37412
-7.70775 116.902 10.9588
-9.64782 131.579 -2.68677
11.4456 95.3181 -4.21841
-22.4455 147.134 6.22549
5.87348 110.844 -11.0366
14.3802 81.2406 6.67321
13.7082 87.7522 0.351746
-18.9607 140.513 7.0031
-5.3635 114.149 9.67203
14.3609 80.7976 7.52581
9.93867 85.8066 11.1045
-15.5682 136.295 4.93175
-3.39132 111.656 8.56516
-7.37294 116.994 10.7655
-2.33129 110.001 8.33739
8.90071 104.663 -9.57022
0.618557 104.148 9.23075
11.258 96.7423 -4.87018
-9.40286 120.136 11.5246
11.4761 96.0265 -4.43526
-8.56125 130.669 -3.16264
-10.9459 136.882 -5.53171
13.8156 81.5462 8.25795
-9.19638 131.513 -2.75451
8.25782 88.5569 11.8046
13.3853 89.3658 -0.304644
-16.6099 145.576 -3.70303
11.4178 84.572 9.90267
13.5917 81.9053 8.50257
12.3425 92.9763 -2.17785
1.38529 102.82 9.67262
-15.3872 136.79 4.73492
2.93168 116.612 -10.36
9.52853 103.094 -8.15126
-16.1727 138.437 4.65063
13.6079 82.2624 8.67375
-8.5044 131.242 -3.03704
-18.7611 147.518 -0.57191
-21.7527 149.582 3.42615
-9.12314 120.611 11.3906
9.88863 101.138 -6.15785
-9.85524 134.022 -3.3089
-17.4614 141.019 4.77333
-15.4841 134.378 8.63733
-18.1858 142.049 5.16182
14.6483 85.5174 2.9496
-16.2354 145.854 -3.57367
-15.3737 135.799 6.97225
-15.1465 133.551 9.23003
0.421123 119.812 -7.83551
12.9457 83.5768 9.27473
13.5581 83.1227 8.59299
9.92411 101.641 -6.15733
0.680956 105.903 8.77319
-4.81187 127.122 -5.21057
13.5629 90.6216 -0.433386
-7.47807 119.098 10.5696
11.7676 96.9524 -4.24619
-9.39027 133.704 -3.02216
9.28518 105.667 -9.36978
2.82106 100.156 11.4715
-20.1158 149.598 0.971265
8.68954 107.012 -9.66279
8.55111 89.7194 11.8317
-3.70596 126.153 -6.04176
-17.8125 142.627 4.55314
-14.2373 143.621 -4.40189
11.4306 98.2487 -4.79588
11.8481 85.2597 10.2032
-21.5179 148.037 6.07976
-2.2124 112.123 8.02762
-15.5188 145.74 -4.11024
-21.1355 149.852 3.23276
-21.4352 148.122 6.04993
-11.0006 139.199 -5.7661
3.20001 99.4572 12.0574
-13.8154 131.185 10.3196
12.0555 96.6399 -3.75728
1.24589 105.633 8.85932
-9.02226 122.159 11.041
15.109 85.3905 3.56716
0.989493 119.891 -7.80967
-15.9853 140.144 4.4194
-13.9258 132.165 9.74452
-3.90953 115.377 8.49724
7.94525 109.151 -9.70998
7.82962 91.6874 11.9972
-6.05838 130.049 -4.65191
13.4569 84.1746 9.0509
1.45029 105.738 8.84119
9.14871 107.076 -9.50853
-4.73819 116.765 9.08794
-15.9094 140.463 4.44321
-8.94417 122.854 10.8872
3.92243 98.713 12.4398
5.34496 96.3579 12.2908
-2.67923 114.133 8.04421
-1.64506 112.533 7.81676
4.00201 98.6917 12.457
13.8398 86.4911 6.04108
-4.63589 128.302 -4.84774
14.2999 84.7311 7.29277
-14.9418 146.066 -4.03557
4.13086 116.672 -9.60049
11.0801 100.065 -4.37624
-13.7521 133.604 8.74029
-4.8417 128.866 -4.79093
3.51663 101.078 11.1601
-5.99457 119.07 9.86946
14.1435 86.9304 5.35685
7.82469 92.7721 12.0878
-4.15705 116.902 8.66886
-16.022 142.249 3.60639
2.76201 104.075 9.48647
-20.1601 150.277 2.93109
1.7366 120.107 -7.83765
-7.62244 121.726 10.5908
-4.03478 116.995 8.58051
-6.90133 120.75 10.2845
-16.6047 147.512 -1.29276
-14.0144 136.15 6.9743
14.2389 84.9918 8.02544
-11.0083 140.829 -5.25162
-13.7059 136.709 5.71177
-12.6504 131.816 9.47348
2.52605 119.929 -8.90463
-15.1438 140.679 4.21521
8.05451 111.475 -10.5275
8.10144 93.0279 11.9574
4.19149 99.8112 12.1893
-7.15323 121.542 10.3363
2.39711 105.702 8.917
-0.292161 111.616 7.58321
3.72592 102.018 10.5968
-6.35893 120.502 10.0089
11.6991 99.3717 -3.40316
-20.358 149.017 5.72576
4.52781 99.2794 12.3771
12.5231 87.0172 10.0857
-19.3663 150.626 1.78719
10.9085 89.2115 11.0848
-20.092 148.56 6.03086
-14.7948 140.824 3.98875
-15.1205 141.545 3.92441
-4.66681 129.823 -4.46199
-14.9849 141.439 3.88038
9.65172 108.362 -9.31687
-16.5275 144.457 3.62996
4.22508 117.959 -9.15304
-8.512 124.523 10.583
-17.7789 145.087 5.68112
-3.81279 118.004 8.41768
14.514 88.4114 4.7431
10.4182 105.689 -7.48115
-17.6678 149.663 -0.0800987
15.2999 88.1676 3.35844
4.08621 102.295 10.621
4.90243 116.92 -9.05828
-8.26641 124.624 10.5349
-6.44911 132.761 -3.3207
10.6454 103.74 -5.03981
-12.4627 134.301 7.98718
-13.485 146.448 -4.62288
12.5912 98.316 -2.52877
-3.87834 118.751 8.43317
-17.7365 145.896 5.50433
10.6621 104.299 -5.45949
-2.95508 117.719 7.83879
-3.95095 129.503 -4.38741
2.57022 107.384 8.49397
-15.3631 143.698 3.266
-3.30165 118.313 8.07281
-7.91868 124.587 10.4932
-0.859152 114.608 7.35383
-13.2338 138.513 5.16216
-15.6022 144.732 2.73344
-5.23737 121.017 9.21049
-5.04218 120.767 9.10117
-18.3566 150.745 1.44045
-2.23713 117.217 7.38923
7.79323 113.821 -10.2945
5.98698 116.159 -9.20072
9.96426 92.316 11.3304
-13.8144 139.303 5.66255
-5.89457 122.106 9.48335
-13.8569 139.641 5.41757
12.0203 100.132 -2.59338
4.12943 104.267 9.63559
-8.81534 138.93 -4.57293
-5.02056 121.126 9.02931
-11.5477 132.728 9.06983
4.97453 101.05 11.8713
-8.46917 138.348 -4.47015
-8.80611 126.811 10.4064
6.67901 97.5711 12.4825
-3.90925 130.168 -4.30736
8.74769 94.9512 11.2768
1.72679 122.028 -6.5628
10.1224 109.09 -9.01617
-9.9346 129.469 9.75136
-13.8894 147.984 -4.26666
10.5063 107.211 -7.47269
4.17075 104.86 9.38828
1.40723 111.395 7.52245
14.3004 88.8738 7.04147
6.74152 115.83 -9.48037
-13.0069 138.909 5.36923
2.10778 110.055 7.85067
12.5784 89.4956 10.3235
14.1134 88.4466 8.26929
14.7684 93.0984 1.16946
-11.8793 135.626 7.2167
15.0919 91.853 2.11781
7.3325 97.2945 12.3816
-9.39302 129.218 9.76138
-14.8044 145.007 2.26792
-10.248 130.894 9.61946
11.6774 90.8548 10.939
15.1292 91.8843 2.16795
10.9016 92.1701 11.0436
14.7452 93.6418 0.873803
0.460266 124.5 -5.76422
3.06145 121.133 -7.30168
0.504186 113.982 7.11478
-12.1094 137.348 6.00369
-2.67308 119.298 7.62623
-5.33327 122.918 9.01394
10.2701 109.458 -8.50131
-7.55327 137.697 -4.20742
2.31335 110.342 7.79357
-5.29739 122.956 8.99294
7.04432 116.963 -10.4711
-6.60143 134.819 -2.58135
0.907199 124.084 -5.75728
-6.76619 125.099 9.76799
-17.9326 147.694 6.54161
-9.32391 141.945 -5.18048
9.06856 95.8011 11.2959
-8.68119 140.608 -4.80574
-12.3288 138.981 5.17618
4.50663 105.935 9.06837
-1.75786 118.658 7.15747
-4.73951 122.742 8.65832
12.5618 100.683 -1.99234
15.3222 91.9813 2.76966
-0.27064 116.315 6.98213
10.6458 107.977 -6.60227
-9.07706 130.079 9.46411
10.6758 107.824 -6.2507
-8.94221 129.945 9.4883
4.60991 120.588 -8.58932
-8.66754 129.359 9.63114
6.53403 117.954 -9.51733
-3.84961 122.043 8.12096
4.25643 121.189 -8.37448
0.827106 114.783 6.96265
11.6965 103.59 -2.99264
-14.593 146.013 2.40728
-3.66888 131.925 -4.13443
7.80502 98.2917 12.1005
-9.86793 132.251 9.09824
-17.5372 148.503 5.98419
12.3736 102.128 -2.40211
6.9016 118.092 -10.0005
13.6618 90.8713 8.73575
2.25341 112.353 7.30475
8.32477 97.7031 12.0578
15.1806 93.0416 2.85685
11.411 104.815 -3.29373
-16.672 147.351 5.90102
-11.218 137.441 6.19192
6.29514 118.689 -9.00396
3.69376 109.364 8.10753
-10.0983 145.137 -5.58784
4.45787 121.406 -8.19899
-1.70702 129.312 -4.34744
13.2963 90.9544 9.9712
13.309 91.033 9.84884
1.17975 125.153 -5.46549
-11.0774 137.495 6.1481
9.85897 112.759 -9.15154
1.92068 113.739 7.01988
-17.523 150.338 4.66304
-13.5193 143.412 4.49583
6.2962 119.262 -9.0832
8.75898 115.841 -10.2544
14.9826 94.5416 2.28639
-11.6694 148.261 -5.31717
8.03273 117.421 -10.4947
5.80209 120.018 -8.80292
2.96567 111.814 7.45189
5.65028 120.39 -8.80967
13.8873 92.2682 7.6885
3.93385 123.684 -9.05834
-7.43845 128.566 9.7647
13.1512 91.577 10.1789
-8.56905 142.588 -4.89542
6.59017 119.448 -9.53223
9.83869 113.867 -9.67768
-4.38637 124.62 8.30783
-16.8547 149.183 5.43276
-14.1025 146.89 2.2746
2.69878 123.917 -6.21452
5.90107 104.93 10.1243
-12.6489 142.427 4.64987
1.60858 115.364 6.71203
3.46982 111.38 7.60029
4.82238 123.415 -10.0349
-4.0086 124.334 8.12491
8.77842 116.313 -9.91886
-13.5117 150.313 -2.9478
15.276 92.6466 4.95094
5.58077 106.239 9.50327
10.3897 112.692 -8.85349
-15.9463 151.773 0.782528
-0.986125 120.31 6.74109
9.66691 115.082 -10.0661
-9.66286 136.013 6.58084
-9.51724 145.777 -5.67816
-8.93158 132.929 8.85941
-11.9793 141.06 5.59219
-10.5105 147.769 -5.6227
11.3913 95.47 10.7212
8.19378 118.694 -10.6524
7.93019 119.517 -11.0271
-5.00199 126.546 8.56187
-8.15438 131.828 8.99113
-10.2723 138.703 5.21109
3.12804 113.283 7.1261
-12.0553 149.906 -4.58835
-5.6309 127.573 8.87329
-10.259 139.104 4.88627
-4.64037 126.248 8.40916
-8.71673 133.192 8.79864
5.96975 123.113 -10.7376
14.8245 97.4827 1.3528
-12.799 144.489 4.08921
10.1411 97.5722 11.6332
14.7589 97.9098 1.15553
9.29111 115.887 -8.93514
7.84634 101.645 11.6659
9.81856 115.065 -8.99254
-15.7433 149.187 5.07559
14.1996 93.3609 8.16861
9.27795 115.532 -8.24363
-10.2467 140.24 4.10074
14.8855 97.595 1.6597
0.63618 119.106 6.40097
-4.24695 126.33 8.23676
8.58197 100.704 11.6548
-11.7438 141.888 5.61249
-7.99169 132.569 8.85248
-9.76703 139.3 4.58352
-3.77864 134.664 -2.79211
12.4667 105.035 -1.91259
-12.5539 146.621 1.71174
-0.557219 130.196 -4.28601
-8.12854 133.012 8.78659
10.1589 98.2313 11.5674
5.29161 109.494 8.39396
6.83578 105.159 10.3726
4.41696 125.198 -8.88516
6.15707 106.893 9.79687
-0.333544 121.238 6.43474
10.7526 113.765 -8.53646
-9.29819 138.417 5.15277
5.76961 108.572 8.90227
11.12 112.253 -7.24983
15.0736 97.3071 2.46068
6.03796 107.732 9.44195
14.1938 93.8756 8.81409
5.66298 109.328 8.54517
3.09744 115.484 6.64381
5.09819 110.927 7.98202
-5.59476 129.227 8.89343
5.8087 124.678 -10.3794
-1.15388 123.123 6.73036
-5.61247 139.631 -3.72075
-5.58788 139.618 -3.70017
6.2407 124.326 -10.7468
12.2831 96.1591 10.5776
4.17273 113.406 7.19099
-5.63221 139.832 -3.78285
14.5483 94.9166 7.24359
-7.30722 143.528 -4.6103
12.7316 105.202 -1.354
14.6678 99.7191 1.1797
7.55811 104.061 11.3854
14.6173 99.9835 1.00075
12.2305 108.444 -4.02927
-11.9902 144.726 4.35733
12.473 96.3604 10.272
12.2404 108.493 -4.06985
-5.9587 130.168 9.11481
2.59823 126.94 -5.54544
1.87997 118.685 6.15143
14.9212 95.4777 6.17354
-15.2237 150.935 4.02265
-12.1396 147.716 1.24657
-11.695 145.289 3.25563
-12.9433 151.865 -2.06318
8.74901 117.698 -7.49719
6.71404 124.25 -11.0441
-0.0415181 131.029 -4.60579
15.3263 96.3727 4.32708
-2.5775 125.699 7.45065
14.4061 95.8198 7.10469
8.21067 103.003 11.816
11.3317 112.74 -6.884
2.02376 127.881 -5.12546
7.70216 104.516 11.1507
10.9246 98.6208 11.3995
5.62289 125.579 -10.015
-2.20295 125.422 7.25006
0.589306 121.358 6.1418
-9.27963 148.591 -5.60467
14.8577 95.901 6.30051
6.29527 108.819 9.21684
-11.6679 144.869 4.23685
5.8752 110.236 8.40126
1.44713 129.083 -4.94402
4.27956 126.368 -7.72633
13.1885 96.2932 9.6791
-11.0162 151.005 -4.53753
-1.63823 124.978 6.91686
11.3101 113.336 -7.05341
12.5111 106.816 -1.62086
11.1714 114.095 -7.51974
15.0159 98.8086 2.86854
12.3645 97.7634 9.95435
5.03894 126.234 -8.91295
-14.7472 151.513 3.43813
8.4926 103.301 11.8678
12.5506 107.604 -2.22699
0.0561069 123.123 6.19788
-3.90676 128.77 7.93995
14.5361 101.337 1.3606
14.8752 98.976 3.61299
5.58072 112.16 7.82951
-0.751971 133.104 -4.00414
12.599 109.842 -4.62442
9.24214 119.526 -9.08071
0.908553 131.091 -4.97727
-13.4925 150.488 2.77733
11.919 112.152 -5.6751
-12.4673 152.873 -2.30202
-7.00257 145.193 -4.76333
-7.29077 137.006 5.89786
-6.77453 135.439 6.74364
-13.1424 150.34 2.43077
8.97596 121.31 -10.2042
6.13959 126.443 -10.1445
6.75103 109.75 9.17053
8.70391 104.561 11.2861
14.3664 103.228 0.578813
-2.32019 135.772 -2.81572
9.41586 120.079 -9.1166
-5.26526 131.938 8.36876
14.4335 103.244 0.726241
-6.6004 136.126 6.38637
9.72323 116.024 -4.55052
-6.18182 134.512 7.48849
14.6988 100.536 3.73965
11.6146 100.064 11.2113
-12.841 150.959 2.22621
9.70639 116.922 -5.22134
-7.20842 138.868 4.86959
-12.8407 151.04 2.24768
11.0832 101.125 11.2295
0.298956 133.259 -4.58964
0.263276 124.762 5.97398
-5.0802 142.554 -4.14786
13.7975 98.3926 8.77515
1.82139 122.18 5.78842
11.0423 101.316 11.2467
14.5854 101.868 2.89545
-1.06188 134.78 -3.28201
0.698204 124.25 5.80116
13.166 107.939 -1.37649
3.89787 128.832 -6.67149
-5.6255 133.84 8.02357
2.12477 121.895 5.76133
-12.6245 151.212 2.03772
-8.51066 142.281 4.12657
14.6011 101.834 3.2823
8.55619 106.343 10.9694
-5.11067 133.056 8.1343
9.20186 119.687 -6.53866
9.32392 120.908 -8.16326
11.2755 101.762 11.2757
9.30281 105.165 11.504
9.71035 121.18 -8.94892
11.816 101.053 11.1396
9.80212 121.536 -9.51246
9.83086 104.028 11.8723
9.74163 121.367 -9.1022
-10.1333 144.165 6.34003
-5.84366 145.466 -4.5893
8.95641 124.747 -11.1189
7.33205 111.197 9.07532
14.776 103.583 2.25766
-9.76108 144.638 5.63811
-7.53773 149.678 -5.22437
5.11505 129.061 -7.49085
-4.79092 134.874 7.20958
10.7187 115.598 -2.98925
9.38977 106.182 11.4548
8.79067 123.363 -8.26644
8.68199 123.14 -7.72124
-10.7947 151.07 0.606129
8.69933 123.839 -8.40557
-10.7324 151.112 0.584277
10.3522 117.682 -4.39978
14.8829 104.129 2.31965
10.8753 114.869 -2.06633
8.75745 123.3 -7.76595
9.02713 124.101 -9.32409
-4.58224 134.853 7.23297
-11.7839 152.59 1.22958
-1.70863 137.926 -2.76793
8.89496 124.466 -9.29234
13.7443 110.202 -2.21673
-2.52875 139.575 -2.70508
8.78832 108.106 11.1767
14.9698 103.711 3.10366
8.29489 109.415 10.7008
1.42639 134.451 -4.87125
12.1867 113.01 -2.07159
2.68276 133.058 -5.90068
5.56377 129.389 -7.67305
10.9104 115.24 -1.99303
1.68081 125.787 5.22857
13.3923 111.568 -2.76777
14.9742 104.418 2.59974
14.194 106.312 1.99114
11.6436 113.945 -1.77587
8.96014 126.461 -11.238
-6.40775 148.941 -5.1287
0.178319 128.08 6.06479
-9.08972 146.072 4.24046
-1.31666 130.131 6.83018
5.35053 118.857 6.11402
7.63686 128.364 -10.4688
9.90735 106.193 11.7441
-11.1484 152.411 1.08655
7.95612 111.534 9.52839
0.0183841 136.304 -3.43347
-0.709956 129.361 6.68417
2.41554 125.118 5.07871
10.7859 118.347 -4.84408
6.6922 115.481 7.5901
-10.9441 154.323 -1.52077
13.563 111.466 -2.42057
4.07965 131.848 -6.56403
9.08313 123.965 -7.78973
-1.97332 139.46 -2.63702
-8.56702 144.35 5.87117
14.211 108.552 0.0709611
-5.56498 140.296 4.35719
3.38841 133.186 -6.41553
-6.83479 150.45 -4.98669
10.8139 105.598 11.4636
-1.81707 139.641 -2.67499
-0.779706 130.162 6.71362
7.25336 114.381 8.54955
-9.36612 151.124 -0.209315
3.6008 133.163 -6.43089
6.83864 115.964 7.66595
8.38932 111.249 10.06
8.30695 111.665 9.78941
5.36052 130.904 -7.16963
12.5167 116.557 -5.12857
-1.06842 138.868 -2.74407
14.4194 108.126 1.14528
-5.72371 148.977 -4.8993
14.7722 106.121 3.02511
-5.99174 142.459 3.89793
-7.94658 152.478 -4.06376
-0.64849 130.77 6.69582
5.20302 121.395 5.43964
-5.98804 142.624 3.86749
14.4101 109.848 -0.434054
11.8745 114.221 -0.124064
12.5959 104.736 10.2
9.80789 108.756 11.4012
12.4127 117.471 -4.9039
-3.10657 135.751 6.58145
12.0725 116.784 -3.22115
12.5029 117.827 -5.37569
4.94921 132.425 -6.65126
-3.57158 137.625 5.63379
-3.24137 136.867 5.94095
-2.8256 135.515 6.74008
1.34369 129.384 5.24541
12.2635 116.258 -2.42962
-9.01977 154.085 -2.21218
-0.0886237 131.232 6.33735
-8.69288 152.297 -0.670264
0.214843 130.939 6.0674
3.74839 134.758 -6.28154
12.8932 116.998 -4.25621
10.3722 124.099 -7.40183
9.8413 125.648 -8.12885
6.31393 132.001 -8.215
13.7963 112.13 -0.195734
12.2725 106.282 10.4385
10.1049 126.284 -9.31168
-4.20479 140.466 4.52348
12.299 117.566 -3.34846
12.4114 120.148 -6.72409
-1.92058 134.643 6.78412
-7.35824 145.129 5.82386
7.03955 131.476 -8.82439
10.1582 126.333 -9.28454
5.67034 122.567 5.13315
12.607 120.042 -6.77822
-8.14607 153.662 -2.61948
13.7609 112.349 0.250981
3.50572 127.136 4.57579
13.114 118.237 -5.3149
13.6336 116.267 -3.99996
-5.23335 143.799 3.56888
15.1162 107.872 3.31128
-2.44658 137.076 5.85394
11.4738 121.184 -4.92039
-1.17509 134.259 6.66635
10.9339 123.9 -6.87579
-7.35316 145.687 6.37797
0.319874 139.789 -3.09751
11.7769 121.611 -5.75325
4.1736 135.623 -6.25281
6.07827 133.188 -7.40931
12.7552 107.419 9.59056
1.92752 138.193 -4.47117
12.718 118.584 -3.95277
13.6492 119.707 -7.28932
7.55223 118.034 8.21603
12.713 119.434 -4.73519
-3.98643 142.311 3.7442
13.9169 107.485 7.43375
-6.66331 153.044 -3.48129
-4.96933 150.908 -4.53955
9.11653 113.605 10.5
12.7153 118.44 -3.25273
-6.61977 145.521 5.74817
12.649 121.698 -7.0827
-2.0101 145.067 -3.6279
-4.42628 143.537 3.53638
14.8816 107.083 6.11188
12.8793 121.345 -6.96148
-2.23477 138.213 5.34541
10.8309 110.278 11.2249
14.1695 112.241 1.55157
13.5898 117.978 -4.17421
13.2895 108.091 8.68374
4.1505 136.85 -6.59727
3.71971 137.245 -6.11219
9.11275 114.089 10.4889
14.4101 119.498 -7.62538
4.8201 126.689 4.49929
7.63674 118.616 8.26972
10.5444 111.17 11.1232
14.6581 115.909 -3.59123
13.0732 118.147 -2.74381
12.9212 119.046 -3.40893
-7.87011 153.601 -0.351303
12.3965 120.817 -4.36334
-6.20033 145.636 5.84701
12.3102 123.042 -6.79345
15.4256 108.228 4.59287
5.63297 135.015 -6.83145
12.7054 120.435 -4.344
5.62801 125.881 4.66314
6.84688 121.968 6.79922
-0.908862 143.967 -3.15915
11.8682 123.151 -5.47191
8.8739 132.097 -9.76148
0.933722 133.784 5.4974
-4.73606 144.81 4.39028
14.2782 117.126 -3.13619
-0.215946 135.563 5.88542
4.50589 128.441 4.3183
3.39178 130.489 4.27289
4.84887 127.874 4.36763
-5.31579 152.505 -3.60609
7.22114 133.746 -7.90773
10.2283 126.405 -5.4466
13.2354 118.278 -2.01935
10.1232 124.855 -3.24825
12.8371 120.401 -3.69704
10.0775 125.096 -3.41788
13.8036 113.653 2.48674
12.2973 123.947 -6.62061
12.421 121.38 -3.65821
-7.66105 154.58 -0.406257
10.2998 130.651 -10.2338
15.0468 116.429 -3.06891
0.928274 141.596 -3.10287
10.8216 112.517 10.9759
-7.39625 154.102 0.00867129
0.470138 135.77 5.47523
11.3633 127.08 -7.59981
1.21107 134.911 4.97063
-1.23086 146.361 -3.55558
6.05982 136.231 -7.00741
10.077 125.453 -2.53579
-2.83094 143.59 3.51283
15.0837 119.435 -5.94209
-0.959501 138.921 5.27595
14.8577 112.655 2.97705
12.6731 121.678 -3.2732
6.55805 135.849 -7.28298
14.7144 109.964 6.67465
12.022 121.798 -1.80589
7.35015 135.15 -7.95898
10.3767 131.475 -10.0332
10.0868 115.236 10.5073
14.7248 110.27 6.64698
-1.61863 141.308 4.2917
11.9369 126.296 -6.87421
3.08643 140.045 -4.39793
10.3471 127.98 -5.43375
15.3745 110.345 5.2364
10.9346 127.468 -6.03818
12.1783 125.513 -6.33109
13.3221 120.491 -2.67332
-5.27736 153.451 -2.43334
10.3575 126.946 -3.85454
10.0484 125.567 -1.47747
13.2277 111.419 8.93315
13.3772 120.579 -2.58461
7.72995 135.31 -8.29904
12.0741 112.462 10.2337
-4.39803 145.294 5.97934
15.3482 112.42 3.22255
15.372 119.713 -5.74686
1.0274 136.33 5.18912
12.633 112.048 9.63334
-6.74429 154.531 -0.0432891
14.6153 123.117 -8.01768
12.5553 125.687 -6.57829
10.8392 127.129 -4.53738
11.0602 124.416 -1.65252
8.89764 134.455 -9.19322
-0.728324 146.933 -3.48008
9.56161 117.498 10.2075
-2.8231 145.08 3.46989
16.2304 120.389 -7.82881
-0.423027 146.545 -3.44965
12.9934 123.787 -4.82835
2.14578 135.312 4.73408
12.0534 127.287 -7.02173
13.6183 117.962 0.988176
13.6657 112.004 8.2285
15.8747 121.782 -8.54821
12.8208 125.756 -6.70859
3.3874 140.635 -4.3538
16.5541 120.844 -8.77847
14.4309 114.841 3.25673
11.7551 114.027 10.1784
13.9529 112.015 7.92556
11.5379 127.061 -5.12565
15.1752 117.087 -0.775813
14.3223 118.525 -0.634703
4.44878 132.585 3.75845
14.4548 115.507 2.88299
6.49697 138.103 -7.33482
11.2804 127.512 -4.7318
12.3189 127.366 -6.79691
12.1167 124.456 -2.76876
11.4545 130.155 -8.29628
12.1369 114.294 9.65597
12.0375 123.548 -1.41952
15.2004 112.456 5.35394
12.3005 124.459 -2.95831
14.4232 112.479 7.20734
11.7193 123.83 -0.792243
15.8023 122.709 -8.30944
6.8002 128.206 4.60596
14.9093 112.297 6.40968
14.5626 124.481 -7.71695
7.73255 137.053 -8.19815
14.1785 116.618 2.86533
15.1637 112.895 5.30674
15.5933 123.196 -8.21195
11.8268 115.082 10.0144
-0.539748 142.055 3.9779
11.3294 115.518 10.6075
9.73196 134.911 -9.62053
12.0876 128.517 -6.85266
12.8382 127.774 -7.53629
11.0935 124.903 -0.210108
15.1821 113.673 4.6606
12.4713 126.254 -4.8115
12.7333 122.986 -1.3318
13.423 118.82 2.28241
13.7066 120.371 -0.218106
10.5805 117.215 10.475
14.0506 125.39 -7.08235
8.52927 122.005 9.14092
13.7306 122.523 -2.77697
12.4807 114.909 9.35637
5.74706 140.143 -6.84649
8.30521 123.08 8.59374
17.5016 120.671 -8.43021
13.415 117.895 3.91749
14.9602 118.177 0.297236
8.67689 136.984 -9.02301
12.0991 115.542 9.81098
11.608 124.628 -0.133635
11.7341 131.662 -9.01145
12.7103 122.958 -0.434776
13.5986 126.727 -6.97126
13.438 119.075 2.85273
14.2363 119.591 0.603115
12.8296 127.793 -6.33332
8.57416 122.741 9.14289
13.8896 120.799 -0.0512765
3.41074 135.832 4.38876
14.5381 126.066 -7.84413
14.671 113.81 6.89751
12.6204 128.967 -7.13905
10.991 127.889 -2.23735
0.425618 141.181 4.53071
14.6786 119.755 -0.157114
14.6148 116.424 4.0666
11.6982 124.932 0.139052
-0.390868 149.651 -3.69654
13.2737 118.433 4.7864
14.7489 115.01 5.90215
11.8982 128.003 -3.76132
12.9181 115.759 9.04425
12.873 129.318 -7.37419
11.8542 132.641 -9.14928
13.0858 128.186 -6.34516
1.32232 146.605 -3.25275
13.4598 119.181 3.88687
13.3978 128.762 -7.67723
14.4645 114.761 7.14156
13.9727 121.045 0.529054
13.6122 121.983 0.175504
5.45015 141.344 -5.73555
14.8232 120.67 -0.821768
13.8842 127.701 -7.32112
12.2636 129.945 -6.48038
13.4394 128.29 -6.98767
13.3955 118.456 5.18537
11.0671 126.96 -0.116307
6.59038 131.71 3.86677
11.4428 125.82 0.515082
12.783 127.399 -4.32308
13.9161 127.865 -7.33344
16.7871 123.59 -8.35266
13.0459 127.192 -4.60562
11.1418 128.338 -1.76295
14.6485 119.886 0.955305
13.998 121.472 0.454832
0.123672 149.424 -3.51333
7.72339 129.098 4.94444
13.602 119.523 3.87622
13.924 120.233 2.30752
13.1995 123.763 -0.422915
15.575 125.649 -7.86113
-1.30734 152.257 -3.50515
13.0097 127.373 -4.16579
12.5024 130.272 -6.59887
13.2507 118.992 5.59607
4.29903 136.756 3.47731
15.6451 125.814 -7.85154
5.60755 141.875 -5.55289
16.1546 125.256 -7.97276
-1.15331 152.37 -3.39627
14.0216 117.753 5.94101
12.7552 130.414 -6.78652
18.9675 119.288 -6.69954
9.04288 138.732 -8.8572
13.4386 127.606 -4.81288
13.4898 128.603 -6.11842
14.7561 127.689 -7.68943
2.71994 139.703 3.84431
10.4968 136.529 -9.21425
4.92492 142.827 -4.76072
13.7946 119.979 3.90353
7.17677 140.937 -7.27017
13.5498 118.725 6.0659
13.8051 117.005 7.70918
13.5106 129.797 -7.14404
13.164 130.44 -7.15313
12.2859 118.365 9.54922
0.436781 150.417 -3.60647
9.57586 123.545 9.45131
8.4165 139.966 -8.05007
5.30371 136.426 3.07981
12.481 125.514 0.897319
8.64166 126.747 7.85992
4.40727 144.058 -4.08055
12.7942 128.72 -3.55569
13.7803 129.692 -6.85296
12.1707 131.463 -5.41014
2.14849 141.716 3.92539
11.258 120.698 9.80543
5.60814 136.358 3.08359
12.6575 130.704 -5.32663
15.0341 121.618 0.628672
2.5975 146.919 -3.23381
8.64353 128.324 6.37487
12.1516 131.682 -5.38296
13.4284 130.966 -7.23367
7.0311 133.455 3.75794
2.72328 141.26 3.60713
7.1452 133.181 3.89533
4.57011 144.341 -4.152
13.0883 128.906 -3.59714
1.30859 149.565 -3.19858
9.67078 138.914 -8.38494
1.1547 149.949 -3.31026
13.3635 118.532 8.58766
7.48522 132.706 4.07902
-1.91625 154.414 -1.97985
10.8993 121.999 9.88949
19.6292 120.264 -6.95077
14.6075 122.433 1.36168
1.19038 150.199 -3.3462
-1.57536 154.25 -2.12137
16.8426 118.593 1.43147
9.16518 140.074 -8.12175
14.628 121.553 2.99876
16.1528 119.914 1.69948
12.7857 126.413 1.09499
8.55907 130.423 5.41094
7.56039 142.291 -6.92014
10.7303 123.484 9.26042
4.40887 139.492 3.52778
7.27974 142.707 -6.64312
7.69449 133.343 3.97528
17.4563 125.587 -7.76534
13.9242 131.382 -7.09549
10.4291 124.941 8.47593
8.25419 132.015 4.57341
10.2309 125.152 8.69538
12.7198 132.321 -5.42505
17.1942 126.317 -7.67564
7.58717 134.484 3.49821
13.4889 120.375 7.9191
3.08915 142.491 3.51913
13.4599 125.936 1.1848
13.371 121.231 7.15818
5.77312 144.784 -5.04131
16.4417 120.139 1.88492
5.58117 138.43 3.16592
17.0829 119.165 1.68934
3.29134 142.323 3.44034
7.27752 135.533 3.16757
2.05366 144.493 3.71446
5.87697 144.972 -5.08413
1.89346 150.532 -3.20277
18.5106 116.794 1.99414
14.2816 130.691 -5.69614
12.848 122.578 7.3848
10.0303 126.432 8.84369
13.4486 132.598 -6.13995
3.7045 147.825 -3.30859
8.9248 129.392 7.92499
5.30711 139.618 3.36018
13.4996 122.067 7.08577
4.46436 146.871 -3.43625
14.4965 131.669 -6.57678
18.6141 125.14 -7.46803
7.68737 135.999 3.12901
20.1042 122.614 -7.4524
21.272 119.343 -5.88915
2.83745 144.635 3.43981
14.7789 131.534 -6.49521
14.6673 131.698 -6.43315
13.7661 124.281 4.64887
14.7571 123.431 3.6612
8.23436 134.754 4.16638
14.6426 131.925 -6.28022
14.7995 125.769 0.943533
13.6656 133.133 -5.56714
3.40778 149.577 -3.10336
0.26145 154.245 -1.95271
8.62483 132.702 6.21309
17.9629 119.551 2.00014
19.071 117.675 2.0863
12.321 126.836 5.6252
15.317 125.032 1.34798
3.78894 149.273 -3.12058
15.2078 131.493 -6.23494
4.99553 141.871 3.31819
15.1128 125.423 1.42509
7.65151 145.145 -6.44477
3.39939 150.187 -3.06401
7.7923 145.166 -6.45849
19.5293 124.926 -7.16526
14.8119 126.51 1.17982
8.66676 132.939 6.75585
18.5187 126.551 -6.88292
16.5926 130.377 -7.28381
8.045 144.992 -6.54549
16.9914 121.866 2.32379
17.8959 120.57 2.21344
14.5913 133.113 -5.93312
9.20543 143.383 -6.63504
17.1671 129.759 -7.24242
14.0357 134.011 -5.62074
13.9087 127.674 2.43879
8.41325 136.847 3.22162
18.0703 127.741 -6.67928
13.736 127.662 2.93824
14.8977 125.834 2.74438
21.636 121.104 -6.05441
1.79275 153.446 -2.3974
13.716 135.889 -6.49614
8.85416 133.679 7.0863
14.5981 133.593 -5.294
14.7123 127.298 2.19025
12.7006 137.676 -6.10871
15.5145 125.113 3.21207
16.3725 123.903 2.90844
14.0321 134.994 -5.24132
13.7131 129.64 2.06317
13.0901 137.394 -6.00801
20.3748 124.382 -5.92865
20.3417 117.834 2.23063
11.193 131.207 5.89563
20.0839 118.388 2.22195
11.4585 130.979 5.64371
18.503 121.181 2.31772
10.2087 142.957 -6.15286
8.79483 137.361 3.78395
13.6548 135.758 -4.81353
18.8972 120.68 2.28779
6.81348 141.861 2.82483
8.8538 145.63 -6.21712
20.3985 124.764 -5.74962
5.93118 148.767 -3.59634
5.57407 149.425 -3.41886
10.6066 143.188 -5.95599
18.2492 122.596 2.61565
13.0439 130.451 4.37837
5.52865 150.167 -3.32718
19.6933 126.922 -5.61642
6.9804 148.345 -4.11485
22.9387 120.772 -5.10911
9.17388 136.918 5.22403
20.4981 125.422 -5.3411
19.4725 127.421 -5.54019
7.59698 141.895 2.63861
20.4738 119.291 2.33234
12.0355 131.78 5.45564
3.68143 153.374 -2.71448
3.20605 153.888 -2.23911
23.6326 120.123 -5.35419
20.5248 125.637 -5.21749
6.31601 144.874 2.57883
8.7319 140.216 3.05814
15.7105 128.169 2.59845
11.4799 142.727 -5.75765
20.5787 120.276 2.41763
16.7583 126.165 3.86137
12.1609 142.028 -5.52803
15.258 135.996 -4.8237
15.9363 128.356 3.15916
12.203 142.019 -5.4129
9.319 147.493 -5.58875
5.55021 147.566 2.55564
16.5617 126.811 4.0083
13.3518 131.981 4.77221
18.8955 130.83 -5.83094
19.1537 130.661 -5.54715
8.99492 148.615 -5.30019
6.59685 146.582 2.4583
11.868 134.025 6.46444
19.8836 129.485 -5.39196
9.71653 139.941 3.99414
6.23126 147.552 2.32355
8.82888 142.919 2.47707
14.1673 138.361 -3.40745
5.1446 153.508 -2.24072
7.03956 151.34 -3.6174
12.1131 134.772 5.68954
7.05869 151.45 -3.59815
9.62637 148.229 -5.14643
11.5211 135.701 6.1485
6.65286 147.699 2.24221
21.1504 127.089 -4.01059
10.5509 137.302 6.8337
7.36361 146.71 2.33659
9.15923 149.333 -4.73274
21.9145 121.126 2.10787
12.1294 144.391 -5.03569
20.4208 123.246 3.12968
19.5337 131.671 -5.09005
7.81304 151.542 -3.79973
14.0315 133.88 4.28729
11.4051 137.148 6.0144
22.778 125.031 -3.92942
18.4539 126.363 3.90071
16.8099 129.013 4.32596
24.091 123.644 -4.94257
18.722 133.993 -5.88655
11.0669 146.573 -4.5832
7.18272 148.044 2.13795
22.8175 121.031 1.20712
8.91473 150.128 -4.00824
23.6544 124.39 -4.50374
24.4756 123.328 -4.9465
6.03598 153.695 -1.91983
23.8945 124.3 -4.62912
6.62224 153.237 -2.28294
11.3817 137.873 6.25653
17.0512 129.672 4.2492
7.3945 148.781 2.03211
18.2649 127.885 4.1291
20.0694 131.861 -4.46995
17.341 129.702 4.22677
19.6139 126.178 3.69178
12.3326 145.437 -3.98756
9.90952 143.915 3.19788
20.0224 125.875 3.33216
21.6635 123.963 2.09681
25.795 122.382 -4.68761
16.7929 131.311 4.00309
13.0195 136.754 5.58996
19.1831 127.482 3.94157
23.266 126.292 -3.45567
23.644 122.548 0.536941
15.0547 134.587 4.52073
12.5136 145.616 -3.43114
18.7698 135.628 -4.82874
7.79314 149.761 1.87219
10.1609 144.341 3.35196
19.3252 127.834 3.87357
22.3163 128.281 -3.02167
9.15137 147.471 2.20029
22.8297 127.222 -2.8051
20.3889 132.627 -4.09901
21.83 129.719 -3.67286
13.6827 136.756 5.55582
10.0336 149.741 -2.34201
14.8383 135.443 5.03546
22.3235 125.04 1.50642
10.7784 148.927 -2.52353
22.7405 124.59 1.25757
13.574 144.118 -2.49615
20.9757 131.898 -3.63877
21.9451 126.006 1.70467
11.458 141.904 5.24616
14.943 135.793 5.18452
7.01193 151.722 3.01068
19.4836 128.943 3.78369
14.5275 142.682 -2.04732
7.21108 154.464 -0.492612
10.1412 150.249 -1.71402
19.4073 135.875 -4.30474
7.28053 151.838 2.86171
8.36161 153.226 -1.16512
12.8106 146.468 -2.55638
15.2433 135.882 5.13573
11.6323 148.54 -2.47032
13.1444 145.423 -1.85794
13.1109 139.136 5.92627
13.7394 138.231 5.71176
8.54993 150.858 1.60029
12.8922 146.359 -2.32846
12.9511 146.159 -2.16897
22.725 126.028 1.21618
18.7151 137.602 -3.95088
8.21719 153.742 -0.711851
21.427 132.244 -3.18363
8.92475 150.476 1.76253
22.4596 126.658 1.4346
17.967 138.94 -3.74312
11.2545 149.167 -1.62474
16.321 141.207 -2.7039
26.1635 121.363 0.289274
21.6493 132.141 -3.04432
15.5769 136.284 5.15113
23.6839 127.947 -2.21656
11.9921 143.175 4.79055
9.66941 151.949 -0.823331
12.2652 148.468 -2.02048
24.5073 127.475 -2.96497
11.2998 145.57 3.67601
12.9825 140.71 6.06339
12.417 142.707 4.96403
24.7093 124.444 0.677921
21.3011 128.812 2.77966
21.1458 128.965 2.97071
17.7746 134.537 4.03383
16.8077 141.773 -2.57212
23.4061 129.171 -1.47631
9.25392 151.999 1.42264
22.1279 132.166 -2.25294
27.2506 125.248 -4.49852
24.6933 128.142 -2.42241
22.1358 132.383 -1.91629
13.7437 140.953 5.89451
15.9297 137.67 5.25815
17.2863 135.976 4.41587
25.9867 123.413 0.878354
14.5256 139.707 5.93368
20.287 136.815 -3.03638
28.334 123.699 -4.32903
15.7418 143.985 -1.6842
18.0593 140.833 -2.76015
17.5108 141.862 -2.71754
25.623 124.464 0.905686
25.3681 128.045 -2.82746
20.8322 130.938 3.71413
13.866 141.904 5.48419
20.5955 136.886 -2.85529
24.9265 128.669 -2.12383
25.8167 124.722 0.816962
18.427 135.169 4.1613
28.3516 124.606 -4.37931
27.708 125.016 -3.46678
15.4843 144.995 -0.801581
16.7621 138.012 4.97116
20.8809 137.074 -2.60814
9.14289 154.814 1.35764
25.6699 128.579 -2.5231
22.5684 130.522 1.95192
25.8139 125.885 0.700185
21.6897 135.759 -2.291
27.5763 125.092 -2.01951
20.7526 132.493 3.87161
12.0624 151.055 0.0928081
27.7971 124.808 -1.97462
14.0129 147.603 0.175102
15.6405 140.066 5.86601
21.1677 137.024 -2.37982
14.2063 143.425 5.21702
11.5938 150.782 1.90642
14.5284 147.275 0.0777673
28.5755 123.836 -1.73831
22.6055 131.38 2.06118
29.2556 123.239 -2.2162
13.4527 145.793 4.64321
18.4526 142.132 -1.72734
12.6405 150.804 0.333508
24.0883 130.127 1.0427
22.5822 131.836 2.24388
15.9116 140.867 5.8641
27.3303 125.387 0.0124245
16.0294 141.265 5.79331
18.9374 141.936 -1.35731
13.5331 147.718 3.4284
25.7382 130.017 -1.2441
22.3202 132.862 2.81841
16.1462 141.506 5.75741
12.9574 149.796 2.58503
22.5359 135.277 -0.505622
25.4482 130.548 -1.05474
22.7488 134.593 0.111511
26.1634 129.52 -1.0182
