ply
format ascii 1.0
comment Created by Open3D
element vertex 1929
property double x
property double y
property double z
end_header
-13.5165 99.1062 7.96413
-0.556529 114.52 -5.29511
-12.3123 99.945 8.05865
-2.25542 114.308 -7.22892
11.0187 118.641 2.68279
-22.818 101.411 -9.78411
10.3243 119.903 -0.85587
-13.7144 98.9985 8.13973
-10.3192 98.9029 13.198
8.27397 120.224 -4.22152
-9.78336 101.352 9.0412
12.0797 119.503 2.66849
-11.5047 108.699 -8.42049
-27.4176 97.4318 -7.71666
-27.0963 95.2157 -2.67033
0.617361 115.307 -4.74429
10.7025 120.622 -1.37215
-23.7631 100.951 -9.6372
-13.1238 108.102 -9.24253
8.29893 118.761 -0.637237
-26.984 95.797 -3.31357
-8.99524 99.7584 14.0662
-9.46265 103.385 5.94503
17.8695 122.752 4.94969
2.02617 109.093 10.621
0.290685 111.969 2.25751
2.18114 116.763 -4.91265
10.468 121.43 -2.75206
-27.8026 96.9431 -6.58136
-5.02581 102.466 14.3497
1.01107 108.03 11.5001
-16.4478 98.2286 6.94845
-1.76418 105.43 13.0766
-12.3445 100.768 7.67705
-9.49355 103.534 6.03107
13.6068 122.447 -0.140459
-23.3416 96.3539 1.22063
-12.643 100.584 7.76662
5.51278 114.739 4.49973
-0.0591317 115.353 -4.6604
-5.28347 106.122 6.95889
2.90931 117.421 -4.59042
-1.74803 108.265 7.69043
-5.51269 102.419 14.4238
-16.5965 107.006 -10.6951
-2.41513 109.623 4.09411
-9.50888 103.884 5.89067
-24.6354 96.1427 0.465355
6.03071 116.064 2.93915
7.80596 118.425 0.724254
10.36 119.344 2.48365
12.5412 118.925 6.44856
-2.54848 108.54 6.47337
-5.91215 105.885 7.18594
-11.8541 109.386 -8.41008
15.6876 123.085 2.50675
-2.08371 110.866 2.50957
-9.74066 103.514 6.90288
-13.386 108.809 -9.16234
1.42817 112.519 4.27543
9.63207 121.495 -2.50609
-26.1075 99.9566 -8.80195
-16.1125 107.767 -10.7142
-9.50814 104.491 5.48248
-4.93096 106.519 7.86742
-0.454272 115.826 -4.87132
19.8136 122.584 9.94919
-3.53994 104.65 13.9079
11.5515 122.646 -1.73279
-2.85883 107.829 8.36134
7.31232 117.109 3.76094
3.67051 111.282 10.6415
6.04106 119.933 -3.76967
-19.5969 105.746 -10.8961
5.90024 115.9 4.35308
-26.9429 96.5678 -2.31923
-7.90255 104.982 7.35163
18.6716 123.904 6.08575
10.875 122.353 -1.74778
5.93248 115.948 4.43636
-12.0137 109.834 -8.39208
-2.33498 109.994 5.03623
-16.9333 98.9019 7.21104
17.3137 124.04 4.09757
7.23804 116.767 4.81732
11.3123 122.815 -1.8192
-9.57653 104.061 7.18229
12.2447 119.119 7.11645
-27.1867 99.0276 -7.41668
-8.24061 105.548 6.06991
10.6033 123.739 -4.66443
-6.5118 106.206 7.27679
7.13119 117.941 2.46085
-8.20115 111.963 -6.96273
6.25895 117.534 2.08687
-7.49575 105.502 7.38309
14.0718 123.562 0.791745
-19.4042 106.143 -10.7497
4.55942 114.116 6.84428
-2.26367 109.999 5.75352
-4.05718 115.117 -7.32695
-12.5505 102.046 7.55744
6.65691 118.23 1.50555
10.6022 123.928 -4.633
19.0167 122.144 11.0983
15.6662 123.826 2.98109
10.372 118.695 6.07464
-0.416769 116.54 -4.74542
18.4278 123.211 8.28808
-9.73103 102.172 11.7155
1.67671 117.925 -4.47229
0.94971 112.702 5.27816
3.53187 111.694 11.0216
10.6523 123.024 -2.12143
-2.13037 109.271 8.1119
-6.84353 113.331 -6.90277
4.28516 114.146 7.20798
-16.9848 108.227 -10.7292
11.4953 124.308 -3.44193
18.4325 121.465 12.3001
7.44037 119.902 0.231148
-12.6627 110.302 -8.50244
7.59324 119.979 0.441092
-1.21899 116.732 -5.31063
-21.7868 105.086 -10.3916
-7.06567 113.474 -6.67459
-11.7802 103.462 7.33998
7.44127 119.522 1.56205
0.723733 117.833 -4.45543
-13.9267 109.953 -8.99248
-11.0368 104.062 7.25097
-23.4369 103.584 -9.23439
6.9347 121.908 -3.90313
12.468 119.721 8.45515
6.67681 121.67 -3.74075
-8.25688 106.4 6.63554
-0.262532 114.018 2.34335
-26.3741 101.209 -8.21478
17.541 125.13 4.83226
-8.72161 112.613 -6.60562
-26.545 98.775 -3.34998
-0.495875 111.793 6.81354
9.06194 122.204 -1.0672
-26.4349 98.7619 -3.04607
-26.3174 98.3024 -1.88474
8.03481 118.152 5.96962
-24.9572 97.7859 1.17907
3.76644 112.919 10.8203
7.91164 123.462 -4.90117
-5.93066 107.561 8.24229
9.76309 120.357 4.16865
-2.76799 117.134 -6.90362
-8.86179 105.897 7.60612
8.57384 120.765 1.91925
-13.1435 110.902 -8.42551
-2.27152 110.997 6.8014
9.79725 123.705 -2.24393
-18.8762 107.836 -10.2135
9.5796 119.628 5.87781
17.1586 121.482 12.8164
12.4463 120.111 8.97143
-3.14989 107.083 13.6977
16.6467 125.278 4.30217
-23.7276 103.906 -8.92515
9.71968 123.37 -1.54291
-1.33105 113.818 2.49421
-9.81467 103.955 10.8083
16.7523 120.377 14.7231
13.9326 119.036 13.5034
-9.23624 104.734 10.1516
2.6805 119.592 -3.38066
-27.036 99.5463 -4.22835
-2.99717 109.729 8.92871
11.7242 125.385 -2.42066
11.4776 126.102 -4.10361
-10.0308 103.23 12.5422
-14.0236 102.579 8.24951
-24.6726 98.4581 1.66398
16.6423 121.626 12.5779
19.1663 126.113 6.94587
-23.8444 98.7475 2.42907
9.11955 122.412 0.539292
-9.90121 103.996 11.536
-1.8568 113.641 3.0816
-13.1866 103.673 7.57988
-26.8293 101.594 -7.45483
9.11655 122.36 0.766702
14.0028 120.842 10.8252
13.9045 125.275 1.62324
0.749031 110.722 12.9675
-10.3302 105.721 7.57268
2.49789 119.875 -3.35141
-4.03558 109.062 9.68703
-17.8326 109.263 -10.2721
-8.95517 105.192 10.6997
-20.6975 99.7449 5.32953
-12.3362 111.866 -7.73572
9.13547 121.83 2.21251
-12.0159 112.015 -7.54831
-8.97045 105.197 10.8176
9.48248 125.636 -5.05323
9.2701 123.866 -1.6378
-23.2614 105.226 -9.32312
-1.82301 113.479 4.10161
-27.0053 101.091 -6.05272
-9.37357 106.44 7.95023
-3.96085 117.372 -6.88272
8.00945 122.912 -1.29375
-4.5733 109.508 8.46887
-5.13726 109.12 8.4873
9.06793 123.028 -0.00846952
-7.53695 107.794 7.86033
-13.5339 111.521 -8.31543
-27.315 100.397 -4.947
-16.4737 101.128 8.94682
-16.6211 101.103 8.88533
9.11761 120.078 6.35245
-8.8908 104.411 13.1033
1.1294 115.071 5.42834
-6.91902 108.179 8.23947
-1.92366 112.863 5.69302
-1.77308 111.845 8.01358
8.94337 121.673 2.98869
8.68115 120.525 4.98311
-11.0305 105.75 7.48252
-2.72138 108.555 13.5374
-25.4748 99.0763 0.807431
8.83997 122.487 1.31043
9.10166 124.042 -1.38741
8.83375 121.989 2.47624
1.53076 117.071 2.26207
-27.0864 100.987 -5.11312
-18.1375 109.663 -10.1953
14.323 120.111 14.3675
12.9691 125.867 0.62582
14.6915 120.225 14.6952
-17.8192 110.032 -10.3016
0.386631 114.567 6.18481
-14.7114 111.491 -8.87061
6.20535 123.555 -4.04742
-1.79562 113.925 4.4756
9.33262 123.489 0.62322
-1.86814 113.313 5.71013
2.46963 117.441 3.45053
11.0323 125.454 -0.878943
-26.4626 102.569 -6.90369
7.18364 124.676 -4.67852
3.8073 115.791 8.98564
-12.6317 105.116 7.67805
-4.68402 117.452 -6.45175
-2.13242 119.074 -6.17
-6.3138 106.205 14.4038
-6.65584 115.863 -5.96794
8.3384 124.214 -1.82219
-15.6386 111.365 -9.35553
-7.39362 108.497 8.24222
-6.76601 115.827 -5.89744
8.68157 124.02 -0.860287
-2.14373 109.607 13.5261
16.5677 123.677 11.3306
18.6434 127.462 6.50254
-25.7829 99.9798 0.117339
-21.3939 100.609 5.11973
-1.63521 115.33 2.83237
-25.4594 99.9863 0.807621
-2.41201 112.691 7.34001
11.2704 120.989 9.67823
-1.73691 115.129 3.33298
8.08262 124.481 -1.97348
-16.2546 102.389 9.12697
-22.8149 106.99 -9.6042
-22.1482 107.536 -9.76284
-2.45126 112.716 7.50951
-11.254 113.623 -6.83018
8.26369 122.19 3.2205
6.99348 118.926 8.25147
7.49774 119.3 8.23468
9.63218 122.924 3.83532
-1.21774 110.841 13.4404
8.93828 120.481 8.03994
-16.8037 111.512 -9.98414
-3.82151 118.679 -6.32533
15.6925 123.085 12.3439
-6.12949 109.395 9.59921
1.37114 116.648 5.36885
-25.0877 100.357 1.41499
8.94231 126.9 -4.99218
-20.1882 101.324 6.38939
9.43906 122.356 5.10646
-18.3394 101.815 8.02275
-10.4754 114.23 -6.39011
14.5097 127.588 1.54769
-9.69197 114.589 -5.99228
-5.82812 107.358 14.3813
-1.85381 114.835 4.64055
-26.8508 102.134 -4.59545
-15.251 103.361 9.37183
0.490204 120.996 -4.61351
-8.7023 108.279 8.57061
11.2553 126.895 -1.466
10.1249 125.9 -0.872165
-9.54569 114.792 -5.88324
17.9478 126.269 9.48231
-10.9503 107.117 7.9547
10.1186 125.926 -0.848027
8.65758 120.722 7.8098
8.49736 120.724 7.5948
-16.8437 102.614 8.98024
-23.7131 106.308 -8.26186
-24.5329 100.683 2.31772
9.69763 122.821 5.26506
-2.62821 110.254 13.6998
-22.8314 101.119 3.90354
-6.12855 107.599 14.2643
8.9194 121.111 7.79437
-14.5281 104.435 8.90851
17.4759 126.089 9.83996
9.73145 122.833 5.59138
-20.2963 101.735 6.46377
-26.2272 104.659 -7.93358
-10.5899 107.637 8.18096
9.78405 127.966 -4.77051
16.0864 127.855 4.41129
-26.7449 103.63 -6.41221
-7.26304 109.333 9.47647
2.87615 115.014 12.1717
-21.1995 101.619 5.62158
-2.76294 110.395 13.7221
9.21656 121.911 7.01045
10.1118 124.596 2.77646
12.6489 122.242 11.3463
-22.6649 108.06 -9.45958
-18.934 102.324 7.68873
10.5867 126.992 -1.18623
2.2824 119.648 2.20372
7.73936 120.502 8.22718
14.2778 128.518 1.04025
2.66389 115.08 12.272
14.8789 123.078 13.153
-2.71232 113.153 8.71898
8.48276 125.909 -1.6403
-1.0447 121.201 -5.35724
-5.14802 108.848 14.2838
-7.38844 109.442 9.89721
3.27435 120.044 3.18648
-8.35198 107.085 13.4726
-26.5998 104.476 -6.98906
3.09891 116.471 10.4497
-19.4473 102.478 7.31208
11.8443 128.682 -2.22282
-6.85468 108.058 13.7438
13.4961 121.978 13.9371
-4.28481 112.129 9.06795
8.2259 121.21 8.17983
3.13255 116.267 11.142
19.105 128.614 8.36207
16.285 125.502 10.8196
3.04779 120.347 2.76892
12.2057 128.458 -0.801976
2.49765 122.781 -2.8586
-6.04349 108.869 13.6929
-4.93818 109.393 14.2182
-8.25804 116.598 -5.30494
0.618824 119.097 2.14103
-10.9853 108.128 8.29286
-14.7003 105.187 9.08913
3.48032 120.477 3.41511
-25.7475 101.982 0.0616024
0.352662 113.562 13.2519
-11.6796 115.056 -6.84816
-1.00152 112.525 13.5037
-13.4121 114.42 -7.98192
-6.29994 118.056 -5.25411
-9.08585 109.326 8.78176
1.08102 114.315 12.9513
14.0133 122.804 13.8542
-26.2947 105.41 -7.46866
11.6564 122.602 10.9702
-22.5927 102.222 4.38318
8.22082 121.956 7.50754
-26.7092 104.622 -6.26708
-8.27235 109.252 10.3388
8.55264 126.881 -2.10797
10.7833 128.189 -1.63212
-18.5327 112.2 -10.2618
-23.5383 107.629 -7.9353
13.2056 129.274 -0.410263
-13.5919 114.526 -8.02918
-5.14945 111.99 9.17232
4.14803 118.67 8.61209
11.4351 128.61 -1.41193
14.932 124.155 12.7798
-0.116997 117.016 6.32256
1.80123 118.623 5.75498
14.5896 123.83 13.1725
13.1624 129.519 -0.508285
-14.1685 106.311 8.53375
4.01938 118.622 8.999
12.2054 123.163 11.4068
16.872 127.005 10.1162
-26.3565 103.974 -3.73774
-4.59365 110.354 13.988
5.47029 119.957 8.49555
-5.02115 110.199 13.7607
3.35172 120.509 4.4037
-5.49596 112.083 9.23637
-8.55996 110.129 8.95046
-0.668741 113.39 13.454
-24.9734 106.88 -7.56745
12.6248 123.432 11.6939
8.97864 124.024 5.33462
-7.70493 109.09 12.4453
-18.9655 112.341 -10.2128
-14.4805 114.54 -8.32631
0.751701 122.944 -4.0214
-12.1103 108.186 8.17954
-26.1006 102.978 -0.897062
-7.58896 109.938 11.0209
-5.52476 112.034 9.68771
-9.19484 109.945 8.84362
12.3054 123.462 11.5432
9.23061 129.215 -4.64346
2.93007 120.121 5.15752
3.16904 117.189 11.5383
6.69064 123.098 4.44782
10.9496 128.799 -1.07185
-6.15375 112.011 9.25527
-7.94138 109.909 11.0558
6.88499 127.869 -4.897
14.8344 125.077 12.1885
2.14326 119.478 5.7429
2.92535 120.35 5.1894
8.49213 122.795 8.06594
-22.483 109.659 -8.79301
-20.472 103.547 6.66482
-14.2442 106.85 8.71287
-6.74635 111.848 9.09122
11.0715 130.477 -3.97053
1.90641 119.401 5.85866
9.00699 123.089 8.36414
2.28545 121.666 1.79719
-7.43203 109.942 12.1757
-16.4918 105.152 9.19736
-1.1872 122.68 -5.14661
9.2246 123.345 8.24717
-22.9659 109.232 -8.30586
15.2844 126.109 11.2223
3.97977 121.946 3.77389
10.9152 130.497 -3.98219
7.90466 122.962 7.31463
-26.0323 105.183 -4.18089
8.4821 127.775 -1.74249
-2.92205 112.385 13.783
-8.78707 117.535 -5.09646
-24.0491 108.358 -7.80779
-1.75155 116.825 6.37145
-2.72355 121.76 -5.15872
4.67798 126.102 -3.58524
-8.24631 111.137 8.90823
-7.16661 118.546 -4.73845
14.9587 125.895 11.5001
9.44155 123.651 8.3485
-20.196 112.21 -10.0778
-0.855127 117.296 6.89061
0.577829 118.509 6.42605
-15.902 114.847 -9.36902
7.00188 126.309 -0.394298
-12.9743 115.994 -7.39816
7.00507 122.631 7.26294
-20.039 104.087 7.11111
-4.73793 113.588 9.26558
-3.42412 114.566 9.1233
6.25138 124.141 3.12765
11.0172 129.579 -1.3072
-15.6369 106.061 9.34464
8.37463 123.139 8.24962
-14.9076 115.264 -8.54065
17.2259 128.73 9.32336
10.4519 129.455 -1.75131
-1.60935 117.245 6.40696
7.80774 129.108 -4.6662
7.56836 123.038 7.52886
15.8352 127.263 10.6203
-15.2421 115.34 -8.8484
-24.998 103.691 1.34892
9.7575 129.212 -1.91334
-12.3583 116.465 -6.91475
-7.30738 110.628 12.2864
16.5039 128.074 10.1245
-13.0304 116.254 -7.35422
14.1577 125.225 12.7423
-6.90271 111.769 10.6077
-6.6521 112.103 10.3082
-1.27398 117.374 7.15604
7.00478 123.474 6.34192
-1.59819 117.411 6.68223
-25.636 105.398 -2.66266
-4.51735 112.104 13.5141
3.60366 122.941 2.71654
1.38202 121.841 1.84726
-23.7626 109.319 -8.01724
-5.4205 111.556 13.4362
14.4363 131.373 0.820249
-5.37531 111.621 13.4628
8.95699 126.385 3.38358
9.54916 127.824 1.29482
16.4294 130.228 6.11777
7.68107 123.506 7.59442
6.99503 126.884 -0.302701
-1.50817 123.204 -4.75424
5.89829 124.333 3.42551
-7.90189 118.744 -4.62831
8.85522 124.385 7.58927
-5.08467 111.913 13.513
12.5975 132.291 -3.35324
3.77402 123.302 2.66494
-0.136764 118.61 6.83716
8.2577 123.913 7.83263
-23.7459 104.2 3.07401
7.42102 123.524 7.47897
-6.62614 113.005 9.23052
9.13123 124.719 7.51463
9.41237 128.042 1.16939
0.16036 115.994 13.0027
-23.7678 104.369 3.03679
-4.10682 114.881 9.2827
9.33211 124.72 8.0756
8.4516 125.56 5.16179
14.5006 132.059 0.480482
3.93326 123.813 2.5383
6.61949 123.859 6.26318
1.53537 124.86 -2.99204
-25.795 107.416 -5.70673
8.87597 126.154 4.88015
10.8772 131.558 -3.39433
2.85042 119.078 11.0085
-1.26202 118.096 7.25521
-0.0827348 119.109 6.89252
11.1624 130.969 -1.56459
13.8226 132.473 -0.885113
-3.43906 115.765 9.07283
-10.7842 110.976 8.56048
2.9022 119.767 9.86555
6.52876 124.008 6.29536
-21.3016 105.014 5.96731
17.3861 130.185 9.03211
6.6119 124.187 6.11822
-8.96683 112.193 8.74125
14.8026 132.204 1.27054
-6.30452 111.972 13.0239
10.686 130.557 -1.1383
-19.8571 113.85 -10.0135
-1.18029 118.706 6.48496
3.46183 126.307 -2.47019
5.88266 124.149 5.40953
11.3079 130.789 -0.549282
8.86741 125.502 6.91174
2.6345 121.822 5.77425
13.9294 126.593 12.0396
-5.7528 114.063 9.99276
8.53214 125.59 6.51379
8.37537 129.224 -1.1386
-10.2883 118.501 -5.51873
13.3071 125.458 13.6339
8.15512 125.508 6.2365
12.4784 132.838 -2.59789
-7.49508 119.96 -4.27607
6.98851 124.515 6.90755
-4.64249 121.973 -4.30796
16.4958 129.851 9.50715
1.74081 121.213 6.39149
7.03664 125.156 5.80612
5.96377 126.13 2.34575
-10.2139 118.799 -5.38064
3.22189 120.809 9.54602
-0.978065 119.69 6.02358
-16.4678 107.4 9.42438
16.0414 129.578 9.89799
14.6159 133.224 0.385988
9.15468 125.312 8.9463
6.56379 124.574 6.90562
-24.8776 108.309 -4.16568
-2.19497 117.869 8.36165
12.1459 131.624 0.370664
9.02824 124.772 10.0611
10.4849 132.344 -3.46134
8.19724 127.189 3.92974
7.13079 123.895 9.2547
-10.4295 112.128 8.59982
10.0878 128.414 4.22467
-25.5479 106.783 -1.7349
4.03851 125.313 2.11655
-19.6062 106.248 7.89423
-25.0301 110.061 -7.62244
-15.3677 108.379 9.54114
-25.2288 109.864 -7.48176
-15.1118 108.584 9.5389
12.7819 133.786 -2.78084
-1.27513 119.153 7.44284
-20.9197 114.018 -9.7035
1.87048 126.244 -2.537
-1.93117 124.491 -4.27296
-23.8315 111.366 -8.29167
3.86229 123.962 5.12082
10.9285 133.05 -3.57147
6.40178 125.288 6.05143
-3.24847 123.58 -4.06796
14.3119 133.643 0.195381
-11.0714 112.12 8.54424
-24.7564 108.714 -3.82341
6.26974 123.6 9.52611
12.1458 125.782 13.3725
0.469779 122.711 3.14453
-1.44691 124.99 -4.25277
2.26611 126.698 -2.46285
11.0026 133.284 -3.62098
8.13314 125.153 9.07742
-7.70604 114.189 9.23966
2.43415 124.727 1.95879
-2.95933 123.993 -4.04489
-18.7643 115.833 -9.64932
-3.15116 115.591 13.005
12.785 133.815 -1.90438
11.0518 133.565 -3.6872
0.678964 123.143 3.12447
4.35936 126.369 1.70179
-22.6115 113.089 -9.14116
-20.3582 106.836 6.98176
-2.41129 116.296 13.0437
-0.999116 117.382 12.8152
4.48765 129.071 -3.46702
-0.060319 118.121 12.7027
-3.68907 115.56 12.8701
12.2712 132.435 0.751041
8.46449 130.767 -1.12702
-3.42896 117.902 8.54417
2.1556 124.861 2.13295
-19.7814 107.041 7.76947
-2.72425 124.514 -4.00068
-2.60654 124.609 -4.02371
-15.9714 117.786 -8.89603
-0.771938 120.981 6.08219
-1.20806 120.139 7.22458
7.76236 127.543 4.72307
12.7874 134.27 -1.96595
12.2076 132.431 1.00126
-24.7129 107.242 0.547466
-0.647676 117.935 12.7215
-12.4217 111.905 8.44914
2.34216 125.176 2.12062
8.95485 126.507 8.7603
-19.6842 107.201 7.92124
-0.632335 121.483 5.5347
-2.24108 118.951 8.50651
6.79211 126.378 6.04026
6.2884 126.061 5.99024
-7.72482 114.784 9.37002
-25.9312 109.267 -5.07296
0.680114 123.656 3.16348
-15.6674 109.319 9.60487
9.92457 126.065 11.4441
8.14756 125.962 9.16784
-5.77777 122.644 -3.70295
5.63001 126.524 4.48213
2.5404 121.733 9.96587
2.08524 127.383 -2.3051
-4.93963 116.709 9.71618
9.82267 133.412 -3.74815
6.67197 127.442 4.08334
-3.96046 117.736 9.00839
-11.0259 113.142 8.48857
-5.17612 116.561 9.74366
12.2392 132.722 1.16235
5.34888 125.562 6.16881
-24.5539 107.618 0.766589
-8.04843 121.27 -3.92727
8.01562 129.673 1.60838
-22.186 114.172 -9.2597
11.1767 131.911 1.57539
11.3134 134.654 -3.85769
7.51608 132.022 -3.8112
6.7148 125.222 9.10515
-9.22499 120.83 -4.42977
-0.488316 122.012 5.60129
8.35978 132.647 -3.73636
-0.684281 121.012 7.43889
15.8767 134.825 2.49532
12.2637 127.132 13.2348
12.5927 135.202 -2.87992
-4.39854 115.967 12.6644
16.8394 133.864 5.92567
9.30653 127.511 8.40774
15.6721 134.857 2.35616
-24.1565 108.975 -0.780872
9.31276 126.601 10.3914
17.2861 133.646 7.26846
17.7525 132.902 9.53813
-19.0451 116.779 -9.39684
9.41896 129.857 4.03118
6.11867 131.57 -4.14704
-0.0717506 119.282 12.4469
13.188 128.402 12.6202
14.9552 134.883 1.79174
-5.6284 116.241 11.0521
-9.05297 121.336 -4.19725
10.2998 132.052 1.20312
12.1737 127.571 13.0884
-25.5869 110.961 -6.24443
17.3283 132.712 9.84601
17.7607 133.832 8.15441
9.85571 134.272 -3.94761
9.14966 130.589 2.66505
-4.37106 118.092 9.30427
-13.0191 119.929 -6.70164
11.1723 135.34 -4.07637
6.97904 128.133 4.8292
8.88951 130.065 3.65863
6.02377 125.444 9.1418
17.713 133.263 9.68388
8.60799 130.158 3.18304
-22.6783 114.547 -8.81324
-25.8482 110.761 -5.49128
-13.2848 120.084 -6.86637
9.67554 128.091 9.23513
-7.17088 116.282 9.69814
-1.03097 127.021 -3.69834
-3.37395 117.616 12.4299
-8.23613 115.764 9.47924
9.75803 132.972 -0.438724
-0.868094 119.366 12.5199
6.97071 128.286 5.30445
-5.13293 117.408 10.568
4.48151 126.628 5.23757
-17.4479 109.466 9.54678
2.04667 126.42 2.37142
-7.16722 122.97 -3.57865
-0.138149 123.744 4.81376
5.69996 128.62 3.0662
5.69009 128.412 3.54074
-20.7227 116.444 -9.25634
4.46948 131.3 -4.12292
-0.0496899 123.969 4.59761
-3.26003 118.066 12.2542
-20.5613 116.625 -9.26222
-8.62162 122.267 -3.95203
-9.08115 122.013 -4.06875
8.68439 131.829 0.928701
10.6061 133.383 0.476258
10.492 133.444 0.22043
5.77821 128.89 2.97491
9.77225 128.462 9.58993
-23.4706 108.995 2.56671
15.3338 131.822 10.5912
6.17899 126.648 8.29326
8.27612 128.515 7.42886
5.17763 127.809 4.61717
16.8406 133.276 9.9023
0.380011 124.786 4.08902
-0.318575 123.535 5.76632
-13.2469 120.652 -6.48745
-14.9944 120.207 -8.04624
-17.2724 118.882 -8.51547
-23.208 108.969 3.61989
12.4946 134.96 0.761117
-25.3467 112.438 -6.48798
13.8359 130.606 11.6835
1.64655 122.769 10.5438
11.6372 136.739 -3.93149
11.0693 136.603 -4.4486
-2.14529 127.095 -3.56704
15.5547 136.19 2.82952
16.0639 136.4 3.22887
1.17352 124.374 6.92635
2.09721 123.309 10.4442
3.6557 124.621 10.0396
13.2209 135.949 0.278985
1.65531 126.662 3.01955
16.7247 135.102 7.05009
-17.3805 110.404 9.61962
-8.58647 116.548 9.58006
-9.31733 122.77 -4.14367
-22.6612 109.227 4.86784
-0.029628 121.299 12.1286
-1.27071 122.648 7.60015
-23.0576 111.461 -0.128643
-3.85427 119.062 11.453
4.16057 131.957 -3.72084
-21.8639 116.54 -8.86719
-22.3476 110.631 2.6597
1.93941 123.544 10.5403
7.45804 134.678 -4.34197
-23.7492 111.527 -0.814818
-4.3588 120.421 8.36262
14.1617 136.487 1.59474
3.50139 128.875 2.18888
-5.34067 125.427 -3.21535
-18.6005 118.883 -8.45126
-2.77685 121.292 9.02944
-3.49323 120.472 9.71796
-20.7348 109.879 7.16131
-0.389995 123.83 7.3219
-1.92832 127.969 -3.36884
1.14942 129.561 -2.19537
16.7229 137.303 3.95444
6.26246 130.595 2.93762
-25.7077 112.67 -5.45369
-3.31581 119.969 11.3425
5.15873 130.444 1.8825
1.55666 123.689 10.8139
-3.60057 120.006 11.1744
-3.28272 121.4 8.76646
1.45038 125.58 6.89824
0.362873 122.377 11.9623
-22.1738 110.744 4.00206
-1.07193 121.5 11.788
-25.7027 112.717 -5.03932
0.569139 122.68 11.7826
-19.5319 110.457 8.49489
2.64327 128.686 2.47809
-25.7007 112.103 -3.53348
4.65701 133.441 -4.39719
-3.30246 121.194 9.57753
7.78076 135.635 -4.35655
-2.92837 127.682 -3.11932
-2.58212 120.91 11.3247
16.7473 135.033 9.65138
0.924942 123.305 11.4805
-25.0953 114.11 -6.45464
-2.8863 121.928 8.94387
5.02486 133.902 -4.47496
4.84066 130.712 1.93584
-3.21328 120.867 10.7947
-23.8407 112.135 -0.346887
3.80699 132.587 -3.26229
-1.1846 121.961 11.5496
-15.0555 113.573 9.16901
-13.7837 121.976 -6.31697
1.01735 125.72 7.02556
4.59219 133.703 -4.3411
-1.71792 121.741 11.4341
12.1224 136.547 0.592089
-21.7562 112.054 3.01165
-2.2286 122.783 8.62482
-21.0079 118.45 -8.98761
11.6858 131.37 10.8042
7.72473 136.034 -4.40329
-21.9546 110.935 5.25713
-16.5654 112.789 9.09979
-0.840921 124.342 7.60557
-1.38089 122.16 11.3903
15.4686 134.429 10.2009
2.80486 126.468 8.68949
17.5967 136.405 9.19782
-24.8766 114.846 -6.60151
-6.44861 120.234 8.57496
11.455 137.567 -1.71161
15.0762 137.856 2.84314
-2.58933 122.065 10.3174
-25.4682 112.429 -2.20446
-21.8458 118.114 -8.70589
10.8156 135.917 0.955355
8.47804 130.867 8.13894
-21.6167 112.762 2.78593
11.672 136.832 0.427117
-3.233 128.224 -2.96032
13.0056 137.697 0.601332
-0.293945 125.399 7.18463
-15.3525 114.152 9.04857
-19.9853 111.301 8.35226
-14.875 122.449 -7.35211
0.287759 123.926 11.1128
0.186526 126.427 5.82723
0.164673 125.831 7.07848
-6.58702 120.478 8.53518
-25.6782 113.227 -3.59439
17.2218 137.059 8.19512
-7.52135 119.676 8.94699
1.02327 131.09 -2.33844
11.2833 132.018 10.5022
6.08327 129.478 8.41458
-20.4888 119.446 -8.57818
6.37758 129.818 8.33418
11.4731 138.597 -2.45517
-13.7383 115.775 8.80577
2.83567 128.37 6.38797
-25.6649 114.337 -5.10451
-11.0872 124.396 -5.12822
8.58549 131.274 8.60892
-7.46309 126.017 -3.26467
4.59489 134.789 -4.18205
-25.686 113.465 -3.15726
13.7311 133.727 11.1244
0.905484 131.447 -2.25583
9.54638 131.296 10.4702
9.04895 138.287 -4.60085
-15.8636 114.566 8.92413
14.2887 138.812 1.84108
5.8402 129.921 8.29087
11.2432 139.586 -3.9501
12.2176 133.198 10.598
-14.1103 115.982 8.75314
5.15269 129.422 8.40107
15.4153 138.946 3.38989
7.36219 131.082 8.16791
6.9156 133.217 3.25887
-11.5484 124.674 -5.29712
-20.6843 112.376 7.08105
-5.45883 127.682 -2.8405
11.973 139.081 -1.58599
-22.8701 118.243 -8.04057
4.45244 130.686 5.09286
3.4152 131.022 3.10078
-21.714 119.452 -8.60803
-15.6008 123.327 -7.82817
-21.3268 113.453 4.38711
1.62133 128.041 6.89953
0.00690679 131.333 -2.05379
-9.58436 125.955 -4.57294
-5.30038 122.95 7.70451
11.9223 138.498 0.108316
-12.2675 124.546 -5.36544
10.6244 137.724 0.0122989
17.4191 138.144 8.82499
-25.654 113.745 -1.93035
0.706232 127.87 6.38339
-25.7036 113.772 -1.99521
-25.714 114.693 -3.90108
-21.8495 114.461 2.07279
-10.1902 118.74 9.81622
-0.249045 126.822 7.26664
-15.4892 115.544 8.88432
15.0868 135.981 10.2443
-22.0196 119.482 -8.36815
-8.01793 126.894 -3.65272
16.2272 137.25 9.46264
-1.59463 124.984 9.51039
0.25924 126.544 9.02819
-0.281879 125.717 10.001
-24.4919 113.99 -0.164037
3.79348 131.865 3.23891
-11.8564 118.142 9.31066
-11.3109 118.457 9.54306
-21.2092 114.688 3.30157
4.6759 130.332 7.96392
-1.18432 125.654 9.29211
-25.1366 116.24 -5.21147
12.2614 134.632 9.98401
4.51892 130.304 7.94798
13.8985 139.881 1.59075
2.7225 129.18 7.78527
9.64126 133.039 9.66803
12.9927 139.476 1.31216
-20.8355 114.043 5.8802
17.2276 140.611 5.14165
-0.974501 125.803 9.84454
-11.5553 118.69 9.5116
14.5547 140.159 2.32479
1.20657 128.686 7.03794
1.63699 129.591 5.83014
7.10604 138.704 -4.96959
-24.5719 116.891 -4.92428
3.78954 135.813 -3.66984
-13.7667 124.88 -6.02013
-24.9482 116.54 -4.69608
-12.6549 125.759 -6.20776
9.0679 139.928 -4.56773
5.26365 137.352 -4.62476
-0.45057 126.863 9.02997
-4.74392 129.568 -2.57914
-14.1162 117.625 8.76514
-18.5216 122.597 -7.70989
9.67579 140.538 -4.63452
-24.1926 117.406 -5.0163
-11.9479 118.894 9.36442
9.73115 140.621 -4.63651
17.439 140.876 5.77107
-11.1354 126.915 -5.95843
-22.6364 119.912 -7.78787
0.978728 133.462 -2.05417
-24.4426 115.003 -0.00763808
6.42862 135.441 1.76416
0.235762 128.565 7.14716
-13.9481 125.405 -6.41745
-2.30474 126.325 8.33209
16.927 139.545 8.45627
8.47256 139.983 -4.40573
11.4717 140.468 -1.14135
13.56 136.547 9.91367
-5.56809 129.479 -2.58812
-19.4613 122.53 -7.97475
5.83668 132.557 7.3483
-2.23602 126.535 8.32931
6.08821 135.318 2.1163
12.1706 139.914 1.28566
-20.6884 115.2 5.58966
-15.347 124.819 -6.63742
0.950404 129.753 6.33631
-2.01383 126.829 8.29065
-1.06233 132.479 -1.98209
-20.3 114.977 6.8043
5.39786 132.505 7.2327
-23.2525 119.777 -7.15154
2.02808 129.932 7.79953
-24.0027 115.631 0.345097
13.6709 140.826 1.89118
2.00114 130.98 5.67965
-20.701 115.779 4.89353
8.14608 136.194 3.76739
-23.2625 119.805 -6.94959
-1.30888 127.684 8.13807
1.35578 134.467 -2.03714
-20.446 115.951 5.21309
17.5509 141.014 7.53466
12.5444 136.645 9.45441
10.8957 141.291 -2.43483
-24.1161 118.159 -4.4146
-11.2102 120.474 9.11663
-25.3519 116.744 -3.2393
14.6924 141.494 2.6025
9.68308 141.502 -4.49742
16.5067 139.89 8.49686
-4.53461 125.903 7.47232
9.95523 135.154 8.96634
-20.1477 115.28 7.25503
-4.71607 130.588 -2.38113
-25.6519 115.968 -1.94076
10.9512 141.35 -2.29412
-20.6421 116.264 4.57244
14.7325 137.987 10.0047
-20.6998 116.523 3.98021
9.30717 141.377 -4.41482
-6.14069 130.031 -2.94704
-21.4172 121.664 -7.37194
-20.0499 116.004 6.2379
7.13665 133.666 8.42102
5.93175 134.593 4.80989
2.7356 132.104 5.42149
7.82784 140.317 -4.27037
10.7443 141.751 -3.02146
14.8062 138.263 9.94108
2.26783 131.749 5.6169
0.0872106 129.244 7.71072
-20.1005 116.532 5.33784
11.5923 141.607 -1.24122
-2.83435 126.958 8.47616
-5.49138 126.022 6.68418
-12.3856 127.744 -6.63453
6.55732 133.697 7.96523
-13.7179 127.158 -7.23765
2.95499 133.044 4.29938
-7.76617 129.769 -4.13845
0.897592 130.012 7.75987
-21.2719 121.513 -6.10217
-0.135338 129.513 7.4175
7.61722 140.504 -4.20296
6.48489 139.887 -4.46896
-5.51221 130.756 -2.655
5.8665 136.575 1.52712
3.77579 132.385 7.2222
-17.9322 124.782 -7.86758
8.52537 135.121 8.388
7.41607 136.461 4.09698
-20.929 122.521 -7.31237
8.79372 135.275 8.66002
6.19439 135.479 4.57204
2.72087 132.915 4.9417
7.70708 137.722 2.12545
-19.7642 116.403 7.12286
-11.728 128.506 -6.38616
-25.1256 116.533 -0.694982
-8.65011 123.031 9.28752
-14.6678 126.727 -6.83741
13.5767 138.302 9.43457
1.31628 135.352 -1.86931
12.6738 141.193 2.2549
-16.7031 117.429 9.54841
-17.2525 117.001 9.8015
-8.54718 130.143 -4.91797
-20.7216 122.847 -7.08203
5.42617 136.591 1.7153
-11.6305 128.774 -6.36013
8.51719 135.533 8.36907
-8.66418 130.23 -5.03957
-20.0457 123.673 -7.58533
-15.039 126.751 -6.76646
-2.17741 128.251 8.43035
16.8839 141.89 7.42559
5.61177 139.919 -4.42415
-23.1871 116.968 2.01103
6.64789 137.785 1.54867
-3.1555 127.911 8.00141
-21.3375 121.458 -4.4754
-8.89421 130.454 -5.28719
4.82801 134.1 6.68643
-17.543 125.917 -8.08017
6.13684 136.144 4.47589
4.0097 135.581 2.67299
1.87743 132.559 5.90254
6.56816 136.537 4.39454
4.05428 135.716 2.60426
-3.62266 132.694 -2.05159
16.3682 141.727 7.72422
2.55737 133.251 5.68546
-23.4271 117.212 1.91274
6.93094 138.281 1.63157
-5.84686 127.119 6.51086
3.39766 134.092 5.33381
1.38907 132.386 6.15402
-21.6205 121.773 -4.58866
-6.89984 131.494 -3.68252
10.9474 143.336 -2.75653
-8.57029 131.061 -5.07597
-6.70266 126.102 7.82918
-10.9317 122.707 8.97604
6.471 136.861 4.52825
-6.58921 131.816 -3.52826
11.3935 143.003 -1.06686
-5.91696 127.447 6.47808
-21.1228 122.7 -5.27593
5.71535 137.945 1.38471
1.00945 136.232 -1.75045
-3.80625 128.463 7.48412
9.83314 143.382 -3.85362
-2.76022 128.877 8.16825
-21.4996 122.408 -5.06394
-11.5527 122.525 8.91327
5.09001 137.486 1.73079
10.5696 141.483 1.33627
8.49186 139.688 2.23543
15.81 141.939 7.99843
-6.94382 132.028 -3.82522
16.8121 143.841 5.54158
-2.59277 134.068 -1.76725
1.27442 136.859 -1.97667
16.8903 143.389 6.75413
11.1944 142.999 -0.51097
-3.40705 128.959 7.74038
-2.23316 134.38 -1.71363
-22.9376 120.667 -2.78672
-21.8543 122.579 -5.16835
-17.5485 118.233 9.88544
-3.97195 128.814 7.36979
-18.7008 125.876 -7.43877
-20.1344 118.115 6.52594
7.0701 136.481 7.31583
-23.8145 119.671 -1.81383
2.78779 138.565 -2.99532
-2.08212 129.995 7.90255
5.12633 137.94 1.79945
4.83669 136.171 5.14361
11.2611 143.457 -0.743371
-18.8033 117.947 9.19834
-16.9203 127.207 -7.13514
2.79516 135.092 4.61531
-21.9733 122.736 -5.03997
3.32749 135.016 5.57898
-11.6204 131.321 -7.89303
11.1776 143.947 -1.42919
-20.7247 123.675 -4.83054
-3.80596 129.354 7.47158
15.6018 144.323 4.20834
8.03356 137.451 7.64357
-7.32385 132.646 -4.22789
10.1307 138.359 8.84579
-4.57724 133.81 -2.49537
11.5999 139.407 8.9214
15.9544 143.222 7.27761
-15.4291 128.778 -7.43656
4.81719 138.15 2.13893
-11.4783 131.888 -7.9747
-20.6625 124.355 -5.39858
4.04191 137.211 3.25727
-9.32098 132.684 -6.33411
9.04267 138.61 7.50956
9.48216 138.766 7.82856
-0.573565 132.071 7.39917
-23.6754 118.46 2.68527
8.55616 139.85 4.41778
0.676466 133.259 6.8812
14.6813 144.338 3.93509
-12.9506 131.207 -8.19705
-18.6808 126.63 -6.83675
2.65544 135.427 5.42077
0.903636 137.825 -1.90427
-21.7288 122.911 -3.24734
-23.156 121.312 -1.86915
4.29279 136.359 6.09259
-11.8 132.404 -8.50738
-2.97988 135.284 -1.87664
-3.39993 130.342 7.72532
-15.2173 129.872 -7.97877
8.00795 138.609 6.97431
-22.4001 122.372 -2.6949
7.42418 138.291 6.87051
10.1655 145.178 -3.42138
-23.3856 118.998 2.96506
-19.917 125.912 -6.34531
-22.7244 122.585 -3.38492
-12.5987 131.975 -8.2275
-21.5207 123.532 -3.3611
-24.6027 120.094 -0.628487
-7.10094 134.012 -4.47028
9.00531 141.676 2.64056
-23.252 122.888 -4.37009
0.986912 138.44 -2.00436
-19.2585 126.196 -5.47022
-12.8936 123.352 9.45899
-15.977 129.759 -8.10167
13.737 141.943 9.02594
-0.404082 137.458 -1.74722
10.2637 143.876 0.245316
-6.69156 134.437 -4.32926
-18.7718 126.881 -5.83224
0.190382 133.742 6.93148
-14.741 130.844 -8.26877
8.45181 140.437 4.89835
-23.478 122.033 -2.42887
-18.9656 126.562 -5.31461
0.88976 138.62 -1.97921
-14.3431 122.461 9.7084
-22.5896 123.363 -3.81988
1.23489 134.95 6.14017
-8.17186 127.968 7.2708
9.13608 142.182 2.54189
-17.5046 128.574 -7.18219
-18.9621 126.744 -5.41834
-1.99336 132.279 7.29555
13.6731 144.804 3.73311
-23.1921 123.242 -4.12046
-18.3821 120.163 9.07636
-19.5168 119.588 8.65309
5.89534 138.368 6.02377
7.96235 141.949 1.59818
-14.8658 130.676 -7.50023
-23.2153 122.25 -1.87992
11.9697 144.097 3.11132
0.711233 138.832 -1.92082
-1.72762 132.832 6.98688
-23.5856 122.922 -3.46506
-23.5297 122.34 -1.93847
-17.3248 129.192 -7.24241
-3.37587 136.255 -1.99582
-21.9425 123.522 -2.08727
15.1796 146.262 3.77677
-9.28123 127.002 8.79849
-6.82731 135.391 -4.97995
15.3742 144.956 6.80739
0.0190048 138.587 -1.80927
-23.4261 119.95 3.38064
-6.60525 135.49 -4.75734
-13.0498 124.031 9.71758
14.9179 144.392 7.4547
-24.0323 121.393 -0.408869
-13.4761 123.728 9.75875
-13.0795 132.591 -7.78587
15.0581 144.714 7.14409
8.05724 145.344 -3.99619
-22.0517 123.63 -1.96135
-23.7678 121.676 -0.343937
-22.1217 123.72 -2.16298
-16.8261 129.385 -6.3042
-21.1674 124.814 -3.01393
14.719 144.399 7.54704
-3.60952 132.21 6.66886
3.5771 138.027 4.9068
-22.6072 124.208 -3.72859
-26.4393 119.971 -0.422722
-23.034 123.245 -2.31613
-20.9132 125.804 -4.5533
9.27014 141.244 6.46937
-21.1282 124.419 -1.9265
3.67741 138.327 4.62753
4.0208 139.056 3.65553
-22 123.741 -1.64014
10.0398 144.7 0.712854
6.90481 139.509 6.96922
-22.6034 123.179 -1.24062
-0.297522 134.866 6.51218
-24.1165 121.79 -0.317553
-19.6917 120.816 8.02269
-20.9554 126.118 -4.61798
6.12825 139.189 6.91466
-0.51885 134.779 6.58561
5.88028 144.094 -3.41032
-17.0079 121.929 9.79096
-23.0685 124.187 -3.42974
-8.5543 129.742 5.71155
-14.2781 131.91 -6.86536
7.25358 142.745 1.39554
3.93581 139.278 3.91796
8.06314 143.317 1.4731
-22.2494 124.828 -3.42795
8.27563 140.936 6.68582
14.991 145.698 6.43864
-21.2937 125.036 -2.44148
-21.5768 124.833 -2.41345
2.92954 138.086 5.09074
-2.8793 133.676 5.96229
7.51586 143.094 1.31532
0.24384 135.996 5.6682
-2.08837 134.111 6.31087
-12.3265 133.56 -7.05762
-4.78813 137.018 -3.44611
4.08763 139.804 3.43132
-25.9275 121.601 -1.63545
-21.274 124.952 -1.91599
-3.63004 133.402 5.75175
-0.655202 139.139 -1.79237
-0.0751495 135.84 5.8352
-8.13759 136.382 -6.68128
-14.9938 123.574 9.97333
10.5245 145.539 0.959266
-22.1043 125.439 -3.88226
14.6884 145.731 6.56227
-21.8538 125.409 -3.34256
-21.6829 126.345 -4.9308
-22.4158 124.65 -2.41731
-5.92281 132.003 5.82866
-22.5397 125.712 -4.76844
12.5914 143.559 8.30597
-10.9015 135.302 -7.94749
-0.0133676 136.253 5.54213
3.86233 139.609 4.15234
-14.4983 131.971 -6.13565
3.92512 139.755 3.9583
7.91362 146.283 -3.80124
-10.924 127.606 7.96149
-4.91993 132.904 5.62123
-23.6826 122.861 -0.298128
-9.85831 128.292 8.1862
-22.8092 124.787 -2.89126
-20.7283 126.977 -4.41421
-7.03105 136.871 -5.35895
14.5511 146.013 6.41792
2.21743 141.917 -2.62168
14.5461 146.028 6.40934
-21.0817 125.835 -2.52038
5.94294 142.467 1.5651
11.6863 143.344 7.977
-6.43701 132.07 5.52139
9.48095 142.836 5.96001
-21.7067 124.963 -1.43511
4.9024 144.308 -3.53819
-26.7192 121.4 -1.13327
-24.8306 122.628 -0.972923
-24.2092 123.343 -1.53189
-12.3973 133.871 -6.41648
-7.82996 136.984 -6.33999
-22.0349 125.91 -3.63919
0.443562 140.558 -1.91467
-22.8543 125.514 -3.96796
-22.6776 124.489 -1.55117
-24.333 123.336 -1.37356
1.89901 141.942 -2.48807
-20.3402 127.477 -4.18557
-22.8278 124.854 -2.28958
-23.0684 125.243 -3.16871
-22.4548 126.372 -4.55274
-21.3959 126.394 -3.0762
-22.6653 124.372 -0.711354
-3.6065 138.332 -2.3682
-13.8823 133.006 -5.94363
-22.6827 124.902 -1.66723
9.20555 145.19 1.82951
3.72856 143.998 -3.45187
-6.36905 137.805 -4.98847
-13.0303 126.18 9.51215
-27.0982 120.261 1.78904
-12.6672 126.659 9.08027
8.53392 147.455 -3.65154
-20.6554 127.486 -3.90376
-12.8358 126.74 8.8543
-8.59958 137.538 -7.29428
-16.6427 123.699 9.80469
10.2602 143.68 6.82478
1.95437 142.498 -2.50034
-14.4191 132.591 -5.19946
-22.6965 126.319 -4.01559
-19.8432 122.841 7.211
-22.623 124.816 -0.720214
-11.4225 128.674 7.31646
9.65505 143.87 5.97385
-17.8049 129.794 -3.90933
-13.4082 126.612 8.88387
-22.8461 124.731 -0.535336
-5.43015 134.148 4.77065
-17.0032 124.588 8.08395
-12.4231 134.833 -6.45963
9.77169 144.007 6.12628
11.8646 147.009 2.93737
-9.5352 131.333 4.8937
9.87579 146.038 2.13976
9.10187 143.998 5.24778
-22.843 125.094 -1.0755
6.14594 143.765 1.60558
-19.9456 127.735 -2.36154
4.01061 141.252 3.77798
7.88487 143.24 5.18604
-6.31358 133.663 4.82474
-21.3677 123.111 5.23871
-7.57498 132.743 4.9623
-16.9652 125.093 7.44992
-3.09307 139.357 -2.22933
8.3263 144.062 4.34163
-23.801 124.086 -0.04145
-20.0555 123.301 6.95013
-21.7254 123.237 4.75173
2.04615 143.161 -2.52679
-23.6957 123.999 0.484508
-17.2923 130.807 -4.44579
-22.2563 126.742 -3.10622
-17.0168 131.234 -4.88443
-22.0142 127.462 -4.05702
-9.74511 130.674 6.75666
-22.7949 125.244 -0.552128
-5.68135 139.045 -4.51374
-7.88902 132.951 4.91752
-23.7859 124.924 -0.795113
5.28875 143.613 1.96611
10.207 148.873 -1.8763
12.1391 147.841 2.99034
-18.6718 129.922 -3.75468
-9.92784 130.656 7.15664
-20.6272 123.749 6.26545
-21.5674 128.54 -4.90095
-13.5898 128 7.58917
-19.3856 128.622 -1.86632
-20.3764 128.263 -2.50461
-23.6051 125.206 -0.764545
-24.2548 124.036 0.792203
-9.73356 137.75 -6.84329
-24.9951 124.071 -0.247159
5.19404 146.285 -3.15827
-28.2551 121.351 0.777432
-15.063 126.377 9.14208
-24.246 124.759 -0.516804
3.8005 141.604 4.62621
-17.759 126.12 5.9672
-5.42437 139.764 -4.25389
9.91225 146.839 2.93369
9.78766 149.376 -2.44191
-23.5717 125.59 -0.697343
-19.3905 124.387 7.74278
-17.7163 130.941 -3.3486
9.05667 145.797 4.03092
-1.26057 141.591 -1.87602
-28.512 121.728 0.511323
7.40595 146.086 1.30856
-19.4214 124.676 7.40857
-24.5633 123.523 2.51959
-22.5445 124.098 4.26432
-23.8497 124.947 0.704042
7.33977 148.325 -3.12782
10.7234 148.815 0.661504
4.56992 143.315 3.30688
11.5116 148.687 2.19313
-25.6238 123.982 0.446335
-18.9174 130.786 -4.04959
-2.4987 137.769 4.8952
-25.2564 123.921 1.14605
-27.8643 121.231 3.05267
-4.34632 136.652 4.67925
4.48017 143.319 3.48445
0.202417 142.979 -1.87945
-20.8952 124.578 6.10703
-6.91759 135.134 4.29303
-10.5254 132.201 5.23498
-20.2015 128.902 -1.67301
-20.2095 128.97 -1.78898
10.4271 149.342 -0.292186
-24.6939 123.044 4.06828
-5.21025 140.562 -4.36539
-21.0974 129.568 -4.20463
-20.8662 129.408 -3.54225
11.0607 146.503 6.54043
-5.76875 140.485 -4.91511
-26.2513 125.508 -3.09072
-24.451 123.912 2.85949
-2.926 141.299 -2.38799
-24.0656 123.978 3.30691
-22.4754 128.394 -3.38864
0.532042 140.403 4.64019
9.95879 147.296 3.85706
-8.50503 134.423 4.19245
3.8702 142.807 4.51589
-22.522 129.591 -5.61101
9.41931 149.992 -2.32015
-8.29513 134.766 3.98829
-23.776 124.206 3.85278
-23.7011 124.215 3.94978
-5.47407 136.88 3.73572
-3.62409 141.353 -2.83788
13.1141 149.276 4.68859
-23.8381 124.27 3.83066
-2.76869 138.34 4.82864
-11.4539 137.696 -6.15109
-20.4134 129.334 -1.59861
-23.7041 124.427 3.87649
12.2637 148.433 5.45486
-21.6186 130.566 -5.74439
-20.9475 125.545 5.59317
12.4375 148.764 5.127
8.08525 147.67 1.23648
-13.2688 130.232 6.89925
-10.4067 133.674 3.89205
-23.0058 124.885 4.18528
-5.84379 141.372 -5.373
7.43147 149.445 -3.14277
-21.5138 125.642 4.89579
-7.80491 140.424 -6.10304
-22.9881 129.76 -5.66729
-0.450643 143.456 -1.90487
-11.1804 132.658 5.11778
-24.5763 125.198 1.50743
-17.8652 131.759 -2.48252
-26.8326 121.957 5.0027
-14.8378 129.111 7.30648
11.2775 148.202 5.09281
7.83107 149.926 -3.25034
-9.91454 139.209 -6.3327
-6.68922 141.187 -5.81396
-8.68337 135.396 3.30447
9.98815 147.707 4.46454
10.0166 148.729 2.43484
-18.242 131.522 -2.15011
-25.1021 125.192 1.17144
5.75107 148.325 -2.70776
-5.33654 141.831 -4.91232
9.48521 148.984 1.3833
-21.2447 131.338 -5.84048
-19.2349 131.609 -3.54214
-25.1243 125.072 1.57341
-22.925 125.925 2.99348
-23.5255 129.134 -4.42982
0.293693 144.396 -2.0471
-23.4165 129.357 -4.61781
11.1844 150.314 1.30284
-0.691434 143.747 -1.91274
-13.377 130.784 6.81152
-26.3541 122.259 6.0185
1.59035 142.443 4.149
-18.6184 128.337 4.60125
-27.3149 122.084 5.19472
-24.3475 127.813 -2.38481
-23.8244 125.162 3.83601
-13.4914 131.257 6.00401
12.2357 150.751 2.38437
-23.5714 125.663 3.34261
12.3106 149.97 4.21143
-25.2485 124.327 3.79615
-19.5225 131.876 -3.60224
-24.2082 125.23 3.49116
-24.4804 125.053 3.54152
-28.6037 122.235 3.5267
-1.6191 143.501 -1.96083
-11.8654 138.427 -6.01737
-27.8357 123.158 2.81918
-18.0621 132.456 -2.46058
-0.871452 144.032 -1.91775
-8.98902 136.24 2.87792
8.68992 150.884 -2.07255
6.6263 147.827 1.30195
-1.81622 143.61 -1.97265
-16.9236 129.372 5.93525
-2.71667 139.847 4.58667
5.08916 145.994 3.01064
-13.8472 136.786 -4.87292
4.24213 144.875 4.16562
-27.0647 123.765 3.25158
10.8793 149.564 3.98649
-23.7914 125.724 3.93055
-26.3085 127.403 -3.02881
-23.0242 126.317 3.86403
-26.8592 123.324 4.65459
-4.85942 142.818 -4.28123
-15.247 130.815 5.71276
-23.8542 125.798 3.86169
7.85756 151.087 -3.21944
-23.9667 125.079 5.22845
-14.8064 131.114 5.79005
-12.9742 138.067 -5.91471
-4.7451 138.834 4.17643
-14.629 136.01 -3.90814
-19.6403 128.003 5.66261
11.6998 150.412 3.95709
-23.9045 129.684 -3.74166
-10.7653 135.206 3.5187
-28.7905 124.317 0.43829
2.57726 144.164 4.09926
-3.59203 143.278 -2.81709
-23.8366 129.799 -3.74746
-18.5417 133.688 -4.11342
-3.3154 143.477 -2.65619
-12.4066 133.98 4.13879
-23.4999 126.677 3.48891
-26.8446 127.848 -3.64706
-10.1129 140.459 -5.8354
-22.7328 126.954 4.08167
-10.4202 135.749 3.47065
-26.7706 127.93 -3.56242
-22.6478 126.305 5.64074
11.0992 150.982 2.71925
-26.14 124.13 5.24323
-28.5037 122.832 4.6128
-5.00781 143.454 -4.4959
-10.3785 140.413 -5.83345
4.93458 149.379 -2.58059
-12.7714 133.587 4.83632
-16.2918 130.73 5.77616
-24.3273 125.594 5.01076
-2.01542 141.326 4.28375
8.28698 150.09 0.878454
4.85159 146.392 3.63027
8.43121 150.213 0.855028
-2.82419 144.199 -2.34741
-22.4553 127.233 4.7842
2.43302 144.606 4.30328
5.09334 146.87 3.46077
3.23462 145.165 4.37917
-22.6501 127.172 4.73761
-12.8147 133.96 4.72591
-20.5433 127.737 6.60907
-29.4534 123.392 2.9692
-9.76374 141.096 -5.51622
-16.9549 134.616 -2.30329
-3.7685 144.011 -2.92279
-21.1132 127.619 6.33539
-2.84026 144.501 -2.36659
-12.3361 134.967 3.85934
-25.3808 129.151 -2.62741
5.33123 147.506 3.18434
-18.287 129.779 6.22562
-17.1921 134.251 -1.37698
-15.4308 131.804 6.20265
-2.21639 145.031 -2.26691
-22.3883 127.612 5.02158
-16.1926 135.714 -2.87516
-22.2643 127.481 5.5301
1.48174 147.853 -2.50922
3.8838 146.023 4.6722
-14.2889 132.882 6.23572
-27.1952 128.255 -2.5178
-22.2012 132.519 -4.12451
-1.89665 145.538 -2.13215
-0.646089 143.339 4.21868
-19.4096 129.417 6.43102
-24.0693 130.676 -2.75859
-23.9495 126.682 5.64168
-21.3056 127.995 6.73969
-16.6639 131.287 6.5748
-1.41471 143.06 3.96659
-2.45437 142.462 3.75479
-5.21053 144.728 -4.69545
-23.3161 127.199 5.9207
-25.4134 129.609 -1.95834
-1.35185 143.324 3.96524
-24.5448 130.32 -2.13053
-11.3148 136.768 3.37829
-14.3466 138.791 -5.07438
-21.6128 133.629 -4.73541
-29.2247 125.319 1.59532
10.3408 152.608 1.50524
-22.7438 127.807 5.6942
-23.5008 127.561 5.18022
-6.2131 144.467 -5.11022
8.62543 151.771 0.923187
-9.73109 142.159 -5.08188
-16.652 135.925 -2.02368
-20.0243 129.612 6.23683
3.16435 146.231 4.92909
-27.8532 127.715 -0.817388
-16.0072 136.547 -2.14371
8.46973 153.014 -1.29442
5.26728 151.423 -2.52824
-23.1263 128.525 4.41306
1.42957 145.278 4.75679
-19.7726 130.115 5.95972
-22.3666 128.805 5.00923
-16.6885 131.874 6.75329
-10.8495 141.632 -4.94909
-27.3222 128.632 -1.48116
-18.1434 131.302 6.07813
-18.8433 130.983 5.75935
5.99283 152.192 -2.60435
6.35457 150.206 2.11493
7.28398 151.219 1.47876
-15.9866 137.062 -2.24863
-11.2144 141.637 -4.87428
1.64827 149.507 -2.57097
-18.3501 135.821 -2.62155
-26.2755 129.671 -1.18573
8.35522 152.367 1.26423
-27.7976 128.071 0.118232
-20.8094 135.293 -4.79535
-15.0272 139.363 -4.9698
-14.5004 139.736 -4.84377
-20.8313 130.11 6.02448
2.59532 150.479 -2.6688
1.66458 149.818 -2.60112
-10.4563 139.124 2.35178
-15.4424 137.973 -2.33548
-20.2777 135.735 -4.57396
6.89912 153.133 -1.85216
-14.8415 139.634 -4.84538
7.37424 151.657 1.9194
-4.74263 142.178 4.46337
-15.2505 138.536 -2.90177
-4.6025 146.373 -3.93866
-24.2547 132.161 -2.42152
-12.9183 140.985 -4.51622
7.40676 151.79 2.08298
-21.5359 129.552 6.86895
-19.5042 131.521 5.71796
-25.1255 131.167 -1.42662
-28.9656 126.432 2.97187
-21.8971 134.927 -4.36426
-26.348 130.016 -0.426443
-23.2423 129.46 5.27688
3.21771 151.487 -2.4838
-27.2981 126.884 4.94461
-12.3204 141.79 -4.48018
-13.6837 140.805 -4.34604
-0.932383 148.477 -2.06453
-22.6271 129.165 6.96967
4.05718 152.117 -2.38357
3.00112 151.511 -2.49887
-14.1595 140.619 -4.39355
7.14784 153.833 -1.29024
-14.0651 136.211 4.94556
-19.9131 136.663 -4.13517
-28.6805 127.109 3.25211
-9.04072 144.877 -5.45776
-6.18964 146.607 -4.93683
-6.80203 141.483 4.83559
-2.38974 147.945 -2.18434
-7.72197 145.873 -5.4148
7.71779 154.185 -0.607789
-10.1342 140.117 3.07782
2.40603 151.459 -2.4571
-22.6157 129.776 6.88579
-18.957 137.234 -3.23645
-7.49724 146.175 -5.34151
-18.5373 137.522 -3.14262
-17.3987 138.22 -2.68454
-13.1109 137.937 4.09845
-25.5605 131.917 -1.09067
-28.1278 129.077 1.17006
5.00342 153.435 -1.76378
-23.1763 131.431 3.6973
-23.2013 131.192 4.28646
-20.9423 131.765 6.40275
-18.0925 133.86 6.58333
-12.9538 138.591 4.25764
-20.4566 133.08 5.16565
-10.8983 144.705 -5.06394
-28.7163 128.791 2.49801
-20.284 133.428 4.91405
-22.2328 136.09 -3.13318
-25.5117 132.749 -0.888295
-15.3045 136.375 6.31687
7.99543 154.974 1.25498
-5.82133 148.207 -4.37999
-14.6872 141.162 -2.26215
-7.42613 142.633 5.08058
-20.2745 137.509 -2.57264
5.01658 154.436 -1.53204
7.71342 154.984 1.17731
-20.2886 134.091 4.56594
3.75362 153.815 -1.8621
-26.7366 129.901 4.29207
7.68575 155.043 1.33331
-12.6566 140.33 3.07555
-10.1511 141.754 3.78135
1.72291 152.883 -2.26156
-15.1455 137.036 6.4901
3.24529 153.854 -1.84018
-7.67634 143.501 4.04522
-27.382 129.989 3.93927
-27.9958 130.793 1.44215
-12.2604 141.09 2.56295
-26.3126 132.779 -0.128666
-14.7375 141.754 -2.0933
-15.1512 141.548 -1.91199
-24.5309 132.814 2.82354
-26.2178 133.07 -0.0291649
-8.61973 143.555 3.3808
-10.6978 146.264 -5.12825
-1.67648 151.026 -2.01605
-14.8393 142.419 -2.89576
4.96081 155.327 -1.2864
0.72199 152.951 -2.26431
-12.0747 141.85 2.51194
-14.548 143.257 -3.7119
-10.4701 142.882 2.8443
-25.4297 134.057 -0.117522
-16.3501 140.876 -1.28322
4.40977 155.211 -1.3249
-13.6599 143.929 -3.69288
-15.0038 142.831 -2.95067
0.975427 153.417 -2.07878
-25.4804 134.204 0.0196878
-14.3024 139.621 4.71673
-2.42391 151.114 -2.1017
-8.62725 144.425 2.92371
-9.32696 147.882 -5.14257
-16.7412 137.103 6.69439
-8.55597 144.605 2.8536
-11.4934 142.884 2.28078
-12.3074 145.614 -4.47961
-25.7717 134.081 0.210362
-11.3445 143.041 2.21583
-22.8538 134.361 3.80668
-2.34214 151.404 -2.06571
-24.4966 133.733 3.02029
-20.3111 138.764 -1.34347
-24.2255 135.799 -0.654419
-8.39206 148.762 -4.76479
-27.6619 131.997 2.64531
-21.8334 135.314 4.15123
-27.586 132.359 2.15484
-15.8967 138.257 6.77081
-19.3495 140.114 -1.68464
-25.0891 135.294 0.332143
-26.0289 133.591 2.5466
-16.835 137.979 6.66672
-10.6889 144.329 2.51647
-26.8253 133.258 2.76398
-14.5484 140.847 4.86103
-15.8254 139.375 6.4178
-9.70057 148.931 -4.51069
-23.6656 137.474 -0.706301
-8.98341 149.434 -4.41166
-27.5785 133.186 2.68233
-15.0229 143.867 -1.4347
-4.75452 151.581 -2.75961
-11.0695 144.472 3.12917
-7.02123 150.693 -3.91995
-10.556 145.215 2.40709
-2.51665 153.005 -1.88998
-16.9751 142.662 -1.01109
-17.9715 142.205 -1.40796
-11.2277 144.564 3.30789
-4.30657 152.144 -2.48319
-14.8612 144.622 -1.89513
-12.153 147.52 -3.92354
-22.4593 138.591 -0.142637
-3.71392 152.548 -2.24947
-14.8852 141.574 4.97647
-17.0754 143.183 -1.01464
-8.08265 150.708 -3.58528
-19.1406 142.056 -1.24883
-19.2762 138.07 6.80602
-13.4777 143.165 4.66098
-18.0475 142.939 -1.25751
-12.0184 148.274 -3.66534
-8.32776 150.754 -3.36719
-14.5668 145.132 -0.567886
-7.06211 151.721 -3.23308
-11.6741 145.342 3.47012
-26.3076 135.846 2.35995
-23.4473 138.679 0.65206
-24.7493 137.792 0.645866
-12.5285 144.442 4.33877
-24.9182 137.543 1.01535
-14.4835 145.504 -0.456919
-17.4065 140.084 6.72588
-17.1997 143.99 -1.00869
-13.3581 143.901 4.70609
-7.29795 151.802 -2.96238
-17.2542 140.243 6.74254
-7.22036 151.869 -2.93502
-17.6272 140.063 6.72023
-16.4637 140.831 6.79565
-24.1077 136.687 4.63936
-12.3535 148.663 -3.21304
-12.468 145.016 4.22671
-9.35936 148.031 2.47229
-20.4177 138.574 6.73523
-24.1857 138.903 1.04892
-24.3786 138.934 1.14764
-21.3537 141.664 -0.0447613
-18.6869 140.218 6.76447
-22.8027 140.347 0.90277
-14.4042 147.394 -1.54994
-22.3653 140.848 0.957017
-9.22851 151.479 -2.30409
-24.289 137.674 4.86431
-25.2114 138.252 2.41576
-15.7374 143.162 5.74688
-16.9009 145.194 -0.0765977
-25.5448 137.554 3.53154
-20.8515 142.542 -0.0326994
-25.3216 138.084 2.84165
-17.195 141.766 6.83748
-10.0608 148.643 2.85911
-23.2616 138.313 5.54672
-22.687 138.578 5.9332
-23.5144 138.334 5.32351
-16.8293 145.493 0.209166
-15.1955 146.674 0.167724
-17.1916 142.299 6.84716
-9.9915 149.288 2.75173
-23.9934 140.079 1.99114
-24.6887 139.132 3.12333
-7.00067 153.407 -1.12321
-24.4901 139.581 2.78207
-10.3106 151.636 -1.88054
-22.6839 141.544 1.3851
-21.8619 140.005 5.83336
-8.67155 150.993 2.05372
-17.8615 145.551 0.38665
-22.6298 141.808 1.4359
-13.9176 149.1 -1.21524
-10.0393 150.16 2.43809
-17.2938 146.044 0.805383
-13.6079 149.561 -1.0248
-23.4335 140.591 3.91514
-23.3045 141.093 3.19528
-23.4016 140.971 3.37674
-17.0071 143.79 6.67178
-15.9885 144.683 6.55045
-22.209 142.387 2.50984
-13.4208 147.505 4.50757
-9.05879 152.53 0.533084
-13.7173 147.356 4.58706
-7.8857 153.786 -0.299704
-20.2123 142.147 6.20316
-22.0308 142.605 2.82798
-8.42156 153.129 0.546333
