ply
format ascii 1.0
comment Created by Open3D
element vertex 1945
property double x
property double y
property double z
end_header
1.8077 78.997 -7.64651
-24.8457 132.781 -1.71419
-1.57519 89.3374 -10.4412
-5.48878 100.269 -12.5911
-16.5249 104.199 8.61762
-19.4806 126.383 -7.22357
-19.316 115.14 3.88784
-20.5244 116.934 4.87164
-2.12203 77.8335 2.81845
-7.22246 86.1562 5.97503
-11.3031 112.527 -11.5228
-17.4399 106.378 8.90498
-15.8513 103.295 8.49806
-19.5615 126.248 -6.43619
-8.98325 89.3992 7.07074
-27.6467 133.342 4.83178
-4.10576 80.901 4.67474
-1.42503 89.9318 -10.5408
-3.05492 94.5336 -11.4984
-9.41153 109.48 -12.0278
-8.66939 108.283 -12.4463
-4.36649 98.2178 -11.9848
-22.0262 130.846 -4.9858
-16.0487 121.606 -9.16041
-4.29098 81.6283 4.91514
-20.5225 118.796 4.03134
-28.4556 136.179 4.43999
-18.0872 108.522 9.01278
-0.146294 86.6832 -9.6281
-20.5927 118.179 4.92356
-19.3615 126.657 -6.47598
-20.7246 126.976 -3.68687
-5.98453 103.636 -13.3515
0.50616 84.7974 -8.90354
-4.87413 82.926 5.35035
-23.9897 133.418 -2.55391
2.50427 79.1621 -7.62987
-22.9301 124.175 4.50928
-19.1984 114.252 6.15258
-11.7194 114.542 -11.1627
-4.86243 100.968 -12.9266
-28.2656 136.468 4.25484
-19.2729 126.626 -6.17703
-27.3729 135.204 3.56418
-19.3665 113.467 7.56315
-22.2309 132.192 -4.95501
-6.84402 106.26 -13.5385
-5.78815 103.861 -13.3813
-25.0622 127.817 6.15663
-20.6121 128.678 -4.86078
-4.08747 82.0836 5.01367
-20.6212 119.267 4.87616
-19.1114 112.104 8.88049
-21.2521 129.157 -3.57996
-19.3418 113.412 8.22491
-24.6936 133.85 -0.419388
2.26524 81.056 -8.05
-22.9903 125.146 4.58597
-23.0836 124.933 5.05909
-6.64785 106.429 -13.5013
-11.4782 96.3886 7.81327
-22.2083 132.479 -4.52618
-10.6969 113.241 -11.1055
-17.8207 126.164 -7.97091
1.54394 83.6946 -8.78398
-27.1478 135.066 4.27209
-22.3864 132.692 -4.15185
-2.15527 94.7996 -11.591
-19.4306 114.354 7.88579
-20.8991 129.32 -3.98712
-21.6904 122.418 4.86635
-26.5792 133.613 4.63385
-18.696 111.316 9.48097
-19.5726 116.576 6.22512
-4.4493 83.5334 5.47085
-25.9418 135.002 2.19289
-1.66016 94.0406 -11.3985
-24.6651 134.638 -0.319978
-18.3002 126.909 -6.91417
-19.747 117.065 6.45131
-26.0237 131.13 6.43654
-0.768539 91.5193 -10.7337
-26.6414 134.586 4.37149
-4.72046 84.3535 5.673
-9.67953 93.3698 7.90252
-11.1289 96.6361 7.91677
-2.31455 96.4573 -11.9816
-19.0694 113.129 9.25378
-18.5495 127.248 -6.33321
-8.55115 91.3674 7.54683
0.357831 75.8392 3.09261
-8.80851 92.0336 7.548
-13.0114 100.931 8.05919
-20.7933 129.672 -3.49715
0.171598 89.7236 -10.49
-7.12993 108.21 -12.6348
-23.8911 135.03 -1.62747
-20.0982 118.118 7.01533
-19.1186 114.057 8.94188
-0.436266 77.8037 3.36525
-21.2233 122.147 5.56159
-19.1971 114.535 8.74018
-14.6544 121.492 -8.67953
-19.3232 116.905 6.8043
-19.3209 116.075 7.66046
-6.00461 106.928 -13.387
-20.6374 121.136 5.5731
-16.2619 124.956 -8.29839
-22.2706 125.838 4.51404
-9.19613 112.028 -11.1415
-21.769 132.983 -3.81605
3.34451 80.9593 -7.97635
-16.026 124.653 -8.30189
-20.753 121.616 5.7338
-25.6771 135.833 2.48435
-10.7597 97.1108 8.06573
-21.5223 132.923 -3.92174
-22.4798 126.261 5.11825
-15.3815 123.665 -8.36713
-5.17147 86.4113 6.3709
-21.7193 125.226 4.65714
-24.2359 136.926 -1.42144
-7.671 109.959 -11.6624
-2.93385 82.9666 5.15855
-22.7742 126.956 5.57488
-2.92455 100.464 -12.6809
-18.5371 113.712 9.49061
-19.7876 130.402 -4.648
-19.8634 118.17 8.0414
-6.73993 89.5849 7.42302
-14.266 121.865 -8.33536
-17.1966 127.68 -7.49957
-3.78892 84.7139 5.76163
-17.5361 111.799 9.5619
-0.101198 92.8952 -10.928
-26.8235 137.067 4.97174
-22.2242 126.509 5.28101
-1.65459 97.5579 -12.1115
-22.2847 126.79 5.19094
-10.3584 115.383 -10.3678
-5.05473 106.439 -13.262
-16.9599 127.139 -7.09759
-10.8224 98.4961 8.13266
-8.3284 111.841 -11.1231
-13.2915 103.9 8.32009
-0.290601 94.4272 -11.6688
-25.2689 134.296 4.76244
-20.2937 131.106 -3.32887
-10.8539 116.669 -10.091
-6.22282 89.2774 7.37603
-4.2939 105.291 -13.3123
-19.3125 117.576 8.59178
-6.12681 89.2933 7.39872
-20.5597 133.46 -4.74224
1.79185 75.5982 3.30814
4.17008 81.5523 -8.18461
2.20934 74.7971 3.40965
-20.291 121.246 7.3599
-25.8013 138.018 2.93523
-26.3757 136.814 5.54579
-24.4991 132.04 6.1468
-22.8596 136.941 -2.51122
-10.9969 100.182 7.95419
-20.2932 121.563 7.36298
2.56609 74.3439 3.39888
5.71833 77.9281 -7.41488
-4.12878 105.69 -13.1712
-12.7016 104.106 8.16131
-16.1842 110.564 9.56403
-17.7622 113.696 9.98986
-13.2943 121.414 -8.02832
-15.6168 126.056 -7.45411
-2.92904 84.5667 5.95453
-20.9031 126.089 4.60285
-16.9593 128.977 -7.3149
-15.8935 126.657 -7.34021
-17.7667 130.015 -6.48032
-9.38758 96.8375 8.27766
-11.6351 102.374 7.83089
-23.5371 130.537 6.37225
-6.04732 90.3067 7.52761
-22.8444 129.649 5.71235
-19.5909 132.421 -4.49551
-18.9498 131.707 -5.21049
-10.8099 117.751 -9.48151
1.53036 77.4195 3.53945
-19.7937 131.871 -3.35434
-13.4419 122.077 -7.80366
-25.1529 135.286 5.46025
3.39047 86.0784 -9.41195
-9.35697 115.355 -10.1157
-13.1435 121.665 -7.85946
-2.83221 84.8666 6.19291
-12.5121 120.561 -8.11193
-13.5085 106.234 8.87711
-21.7272 128.079 5.35744
-9.68 116.155 -9.95412
-0.701032 98.2432 -11.9646
-25.8596 139.094 3.86455
-15.158 126.049 -7.21062
-25.2978 136.023 5.75828
-22.7938 137.697 -1.60071
-20.7731 135.315 -3.74304
-20.1542 122.655 7.82281
2.76707 75.5776 3.56683
-17.6619 114.88 10.0929
-13.0174 121.969 -7.67794
-7.34069 93.9426 8.11601
-0.6808 98.8908 -12.0134
-19.7674 132.902 -3.16756
-13.4625 106.95 9.04311
1.37527 78.7286 3.98888
-19.9779 124.615 5.90387
0.249794 96.5599 -11.5621
-4.93747 109.255 -12.6786
3.05311 88.8227 -10.0481
-23.7061 133.53 5.41184
6.38363 78.7596 -7.34193
-22.0444 130.055 5.21926
-26.251 139.006 5.72058
-15.0318 110.135 9.66455
-8.56323 97.0834 8.24826
2.11975 92.0541 -10.8415
3.18257 88.9213 -10.0648
-18.564 132.736 -5.1297
-11.0028 103.14 7.93562
-14.2519 125.31 -7.25426
-20.8467 135.865 -2.84751
-23.3076 132.621 6.15825
-0.925661 83.2181 5.5291
-25.937 139.361 5.40466
-5.54121 110.884 -11.9954
-7.17347 94.7034 8.34005
-5.82685 92.1331 7.91992
-12.0631 105.547 8.54251
3.06551 90.4739 -10.5905
-9.96716 101.493 7.92382
-13.7537 108.714 9.22316
-17.5712 132.185 -6.00877
-2.1912 85.3424 6.72197
-20.5563 128.239 4.8974
-6.31831 93.3891 8.00827
-18.5467 119.919 8.88178
-19.0979 121.485 8.55352
-19.4852 134.329 -3.49043
-0.0937647 82.3009 5.38792
-19.9021 134.745 -2.91625
-1.40797 102.926 -12.5954
-0.690479 100.891 -12.1407
-22.3567 138.389 -0.911391
-19.0051 133.951 -3.98444
-15.6351 129.491 -7.10296
-15.2018 112.152 9.683
-21.519 130.522 5.35073
-8.39249 98.4497 8.16387
-12.5315 122.846 -7.28608
5.57179 83.4752 -8.34753
-12.2861 122.562 -7.3943
-12.9503 123.794 -7.11264
-19.4352 127.749 3.80682
-9.85172 118.595 -8.67701
-22.2235 131.926 6.02398
-5.34665 111.86 -11.6919
-5.73605 112.31 -11.2472
-1.0284 102.987 -12.4726
0.671334 98.4461 -11.6122
-7.04719 114.439 -10.2427
-13.9179 110.428 9.6541
4.65167 87.8851 -9.62784
-16.8936 132.287 -5.7737
2.04807 79.9335 4.48963
7.28369 79.7892 -7.27187
-0.851126 103.052 -12.4186
3.67734 76.9238 3.92737
-8.61102 117.328 -9.1824
-23.1792 140.388 0.608573
1.23068 97.7101 -11.5329
-18.6872 123.823 7.32148
-25.1038 139.103 6.52667
-6.04372 113.267 -10.5471
-10.7616 105.277 8.38027
-7.17199 97.3032 8.45049
-6.21662 95.2098 8.43347
-3.11737 108.864 -12.5531
-23.0869 135.85 5.50199
-23.0174 140.482 0.648479
-9.40752 102.95 7.90753
-8.5966 117.689 -8.97241
-17.779 133.899 -4.5595
4.68202 75.6282 3.71797
-15.5033 114.626 9.983
-4.11819 110.951 -12.2427
8.65987 77.7311 -7.49209
-2.48363 87.7779 7.79484
-9.77031 119.706 -8.11476
-24.6192 138.304 7.00043
-6.71841 96.7561 8.56178
-20.1973 130.306 5.11576
-13.5162 126.689 -6.37214
-3.5683 90.3468 8.05069
-9.5885 119.665 -8.10767
-6.66186 96.8356 8.57399
-18.7965 135.613 -3.30964
-17.717 134.228 -4.32761
-14.9618 131.503 -7.81337
-14.4776 130.951 -8.20978
8.43556 78.9455 -7.40148
-20.4746 131.337 5.13969
-14.7876 131.508 -7.94648
-18.1099 123.42 7.93416
4.12275 92.1358 -10.8697
-8.71141 102.437 7.91773
10.1677 75.0444 -7.17052
-23.3415 141.085 1.94994
-11.5945 123.51 -6.84529
0.843138 100.545 -11.7797
-6.80208 115.599 -9.67773
-24.4002 138.731 6.93235
-17.9197 123.671 7.56584
-4.24212 112.254 -11.9214
-13.6817 129.913 -8.27082
-17.6849 124.213 6.74627
0.228331 102.638 -12.0823
-15.4848 132.104 -6.28826
-11.797 124.289 -6.48907
-7.70196 100.84 8.11584
-4.91085 94.3851 8.35876
-24.0858 141.76 3.79246
-19.9027 131.031 5.23412
-0.71302 106.071 -12.9661
1.56414 82.4936 5.90492
-5.28196 95.3872 8.39204
-18.1322 136.457 -4.19967
8.30995 80.4747 -7.39953
-13.9577 131.071 -8.20016
-23.0585 141.586 2.00182
-22.9133 141.807 1.71688
-14.5965 115.2 9.92466
-18.951 137.26 -2.57692
-12.3289 126.128 -6.31441
-3.3046 91.9822 7.9635
-21.6888 140.791 0.194541
-6.59581 116.398 -9.30626
0.309802 85.2223 6.7714
-16.6658 119.787 10.2586
-5.06953 114.561 -10.6662
-13.8713 114.079 9.93104
-5.65832 97.2537 8.44988
2.08466 99.748 -11.578
-0.815237 87.275 7.86031
-16.1845 134.211 -4.94375
7.38783 84.5993 -8.05616
-14.4662 116.044 9.84824
0.461319 104.364 -12.2546
-3.57867 112.831 -11.6578
-17.8715 137.959 -4.66808
6.33078 88.7903 -9.71359
-21.5167 141.274 0.274156
9.02142 80.6574 -7.39566
-23.3366 142.383 3.48872
-20.6358 134.419 5.57421
-5.84716 98.6234 8.45098
-22.7407 137.949 6.93881
-18.2525 137.565 -2.78168
-7.45813 119.025 -8.30556
0.054325 86.5621 7.75398
-1.69366 90.7762 7.44894
-17.4251 128.125 5.27193
-11.5613 110.832 9.54071
-16.9105 124.879 7.47184
-21.3418 141.76 0.403007
-22.9527 138.617 7.34121
-7.1007 118.732 -8.3826
-16.8484 125.199 7.32408
-2.72231 112.171 -11.5938
4.81961 79.2643 4.84808
-7.69318 119.954 -8.11187
-17.4533 138.692 -4.91208
-2.73641 93.2886 7.95356
-21.0012 135.965 6.10014
-18.2903 130.653 5.36224
-8.44483 121.318 -7.57461
11.7888 75.5583 -6.99341
-13.2326 132.838 -8.21789
-16.3698 122.087 9.95504
-15.2914 134.881 -5.44498
-14.4921 118.144 9.81912
-2.23241 92.8422 7.74253
5.45453 94.4571 -11.3511
10.863 78.6733 -7.53406
-2.87916 113.454 -11.6223
-13.6186 133.37 -7.42679
1.25592 104.92 -12.2717
2.57 101.394 -11.6687
-4.60433 116.175 -10.3293
1.81416 103.532 -12.0655
-22.4065 138.54 7.47897
-19.7397 140.9 -0.92959
9.86189 81.0059 -7.32905
-8.83647 106.882 8.94308
6.11947 92.6445 -10.6531
-10.0339 124.478 -6.24992
-12.7614 132.768 -8.43656
-12.6078 132.511 -8.52021
4.60668 80.437 5.3533
3.78008 81.7615 6.01167
-1.91417 111.732 -11.5415
-6.54993 102.798 8.24077
-21.588 137.655 6.98843
0.471572 87.2971 8.08585
-16.3524 137.609 -4.80898
-20.8039 142.444 0.460122
-20.7626 136.34 6.63785
-15.3931 121.075 10.0128
6.60955 77.4489 4.36505
4.1133 81.5331 5.93634
-21.4627 143.381 1.21548
-13.7247 117.585 9.89416
-12.909 133.336 -7.9907
5.61263 79.2828 5.01276
-8.2633 106.575 8.83562
-1.288 92.5406 7.43384
-1.586 93.0967 7.59481
-1.33694 111.428 -11.6405
6.45613 78.1322 4.61356
-16.4661 139.062 -5.23668
2.40036 104.046 -12.3858
-8.4288 122.879 -6.84016
-4.65963 99.6374 8.39465
6.72222 77.9872 4.59908
2.93932 84.4995 6.62593
6.16935 95.0148 -11.4011
-8.79995 123.716 -6.48998
-3.06431 97.0879 7.61406
-6.16168 119.551 -8.21553
-20.8575 137.563 7.04697
5.55223 96.8352 -11.6439
-22.5166 142.171 6.17073
6.8867 92.9032 -10.5321
-18.7938 141.221 -1.16596
-15.9693 125.087 8.86076
7.41393 77.3167 4.4207
-15.9493 128.049 5.97282
8.52063 88.3036 -9.27531
-7.06467 105.768 8.62163
-1.86391 114.132 -11.5756
-16.5078 130.444 5.23298
9.92373 84.1499 -7.68704
5.81265 97.3592 -11.6847
-4.72805 101.201 8.50524
-15.8096 126.996 7.50112
-21.6074 144.219 3.16525
-11.2612 114.695 9.74252
8.16444 90.6503 -10.04
-16.1795 129.994 5.3645
12.5191 77.7321 -6.71448
-20.8195 138.445 7.49183
-2.17478 96.8218 7.52476
-1.39684 113.71 -11.4881
-7.39371 107.086 8.97333
-15.6298 127.382 7.05996
1.22313 89.3876 7.41338
-8.85369 125.319 -6.23194
-9.99195 128.016 -6.28363
-11.5968 133.651 -8.34089
-16.7096 131.919 5.13464
-18.2299 134.326 6.3446
-11.2728 133.021 -8.19482
4.52816 101.279 -11.8165
-18.913 135.786 6.54486
7.95369 92.32 -10.3761
1.1376 90.463 7.09112
-0.318192 111.975 -11.5435
-1.10585 113.695 -11.4412
3.32645 104.981 -12.6233
-12.343 117.833 10.0372
-12.6027 135.443 -7.29704
-3.82297 100.653 8.20173
-8.54002 110.025 9.4557
-9.03276 126.651 -6.37049
-16.1702 131.459 5.02362
3.27564 105.227 -12.5667
-19.2072 143.337 -0.139119
-13.3819 136.758 -6.67951
13.26 77.2256 -6.71307
-14.9645 126.036 7.89593
-15.3669 128.024 6.78671
-13.0197 136.361 -7.06273
-16.5179 140.731 -3.50021
-14.7854 139.06 -5.7375
-19.8761 137.545 7.42652
6.82499 96.5856 -11.6647
-2.63479 116.873 -10.7278
-0.734021 113.308 -11.37
-1.43572 114.646 -11.1051
-19.9366 144.374 0.777862
-17.3877 133.62 5.95331
4.39274 102.496 -11.9828
5.75758 99.4675 -11.778
0.482476 93.1113 6.78799
-19.222 143.975 0.14599
-20.4585 139.865 7.21275
-6.09959 106.363 8.68085
-17.704 142.064 -1.12535
-8.71304 111.664 9.39385
-7.70659 109.333 9.48185
12.5314 80.7443 -7.49588
7.84046 94.6914 -10.867
-15.2688 130.805 5.05499
2.73381 107.573 -12.1929
-17.4086 134.56 6.23741
-15.2307 130.901 5.00837
-20.0806 139.53 7.27548
12.2982 81.551 -7.3941
-2.05545 98.7639 7.79724
-17.3785 134.612 6.2354
-16.8913 134.143 5.61639
-9.31485 113.388 9.62387
-16.0247 141.579 -3.83684
0.239763 112.691 -11.3859
-9.39206 129.715 -6.73779
-3.31967 118.882 -9.50908
-0.454353 113.942 -10.9829
-0.416987 96.0462 7.2004
4.84433 84.4079 7.0919
5.25386 102.43 -12.1204
-1.77582 98.6597 7.78971
-4.18545 103.456 8.43946
-3.77989 102.51 8.52094
-1.93645 99.0687 7.82983
-12.3716 120.558 9.77065
-8.49646 127.781 -6.37205
4.47588 104.744 -12.4559
-6.49347 108.05 9.21341
-14.0154 124.679 9.47952
10.8008 86.3096 -7.77648
-3.06643 101.58 8.28742
5.37318 102.809 -12.1706
0.952389 111.734 -11.1747
4.71697 85.3488 7.17421
8.5109 78.7401 5.29797
-4.08604 104.031 8.37523
-9.44906 131.449 -7.36134
7.03637 99.0488 -11.8688
-4.39535 104.797 8.36266
3.74594 106.453 -11.8487
7.00467 81.6492 6.04216
7.934 96.4361 -11.167
-14.5466 129.5 6.51094
-17.6035 143.404 -0.687272
7.114 99.3132 -11.9545
-7.6232 126.777 -6.22849
-6.40286 108.841 9.34001
-6.31907 124.131 -6.32092
11.055 75.0589 4.12845
-19.887 141.536 6.92688
-2.99543 102.344 8.46491
-20.3127 145.495 3.95075
-13.7771 140.391 -5.54574
-19.6089 141.376 7.00043
-15.13 133.897 4.41415
-3.97737 105.147 8.33706
-17.3182 136.999 6.27121
3.1509 89.3805 8.22254
7.23036 100.356 -12.26
-6.75926 125.418 -5.8878
-13.6566 128.379 6.94156
5.15884 105.039 -12.1741
6.53178 83.3004 7.03279
-14.0372 131.485 4.81759
-12.7608 123.852 9.6995
9.87477 77.7825 5.10209
-4.08063 122.161 -8.32336
12.5744 84.5731 -7.89725
-15.5539 143.358 -3.69747
-0.784304 116.745 -10.1433
-15.3352 143.259 -3.96272
-5.94607 124.778 -6.35841
13.7691 81.5399 -7.19229
-1.95379 101.707 8.17419
-3.75505 122.143 -8.53493
-2.84086 120.892 -9.29976
3.64589 89.0882 8.55766
9.69927 93.8912 -10.1562
-13.8579 132.184 4.55037
-8.87369 132.392 -7.00355
16.1829 76.4195 -7.05513
16.2193 76.3363 -7.0523
9.10034 79.8257 5.71334
-16.5381 136.735 6.18509
-0.711789 99.9029 7.72232
-14.8011 134.427 4.65602
11.6535 75.5651 4.38949
11.6322 75.6053 4.40643
-14.6374 142.937 -4.36573
12.7238 85.291 -7.92622
4.82075 106.434 -11.4506
5.62727 85.93 7.66305
-11.5807 122.656 9.48066
-8.90261 132.824 -6.98298
0.984406 113.582 -9.84547
9.96495 93.7692 -10.0761
-4.25451 107.004 8.89658
-3.15107 105.18 8.37445
13.0451 84.9834 -7.93203
12.308 74.8497 4.10371
8.96276 80.6807 5.83655
11.4563 89.478 -8.80164
-12.4414 125.219 9.30109
-17.6889 145.841 0.295731
-3.90491 106.693 8.80107
10.8862 77.2878 5.07392
-7.68478 114.417 9.56442
-2.80929 121.795 -9.07116
-4.19535 107.265 8.98641
1.33245 113.285 -9.65578
8.99676 97.5111 -11.0304
11.7157 88.4451 -7.97827
3.86992 90.975 7.47558
-6.91806 128.72 -6.30314
-13.0837 130.148 6.31458
-18.76 142.101 7.10486
-8.82142 133.65 -6.92945
11.4265 76.7713 4.91992
-1.76981 102.946 8.32321
-8.70756 133.229 -6.73872
-17.7895 146.252 0.718482
12.9489 86.2915 -8.01236
-14.4488 135.984 4.20549
0.890074 114.889 -9.21889
7.93788 101.721 -11.8367
-18.6456 146.95 2.68528
8.91794 99.6201 -11.7404
-17.7439 146.718 1.06054
-7.02156 114.606 9.52081
11.9113 90.5426 -9.10823
-15.6538 144.739 -1.415
3.14308 95.035 6.43965
-15.4531 144.837 -1.94242
3.97729 109.592 -10.2838
-14.792 137.274 4.33235
-12.9214 133.883 3.53814
-7.14525 130.21 -5.88611
-7.82315 116.399 9.77432
-13.3636 143.145 -4.87906
1.67975 97.9751 6.92713
3.12254 95.3073 6.40619
9.77003 81.0044 5.86141
3.17125 111.192 -9.8761
12.8468 87.6038 -7.87914
-1.08896 103.112 8.2069
1.00045 115.331 -9.01565
-12.6916 132.757 4.55841
-9.71642 137.888 -7.45053
-12.9549 134.436 3.52237
7.01054 104.969 -11.9533
2.36502 97.2466 6.54865
0.559955 100.86 6.99571
-14.9565 138.085 4.42495
12.5005 88.9413 -8.0396
-12.9611 142.868 -4.97463
7.02328 85.569 7.91756
-7.67595 132.045 -5.90075
-6.37753 129.179 -5.88982
2.83828 96.7019 6.26495
-5.66845 112.753 9.30963
4.62898 91.608 7.39448
-4.53636 126.095 -6.86408
-12.8064 134.169 3.83623
0.602322 116.697 -8.8758
8.89249 101.07 -11.8058
4.25016 110.097 -10.3595
-5.79317 113.253 9.34129
-12.3693 132.568 4.65237
-6.21639 129.116 -5.83628
-12.3929 132.409 4.91212
1.07113 100.374 6.91731
-10.6166 123.877 9.63652
4.82337 91.4937 7.47266
-9.02991 137.036 -7.37338
-9.06263 120.371 9.72701
-9.43923 121.323 9.64044
-4.19545 126.024 -7.12522
-1.16626 104.14 8.33532
8.03826 103.098 -11.5214
-8.90847 136.902 -7.307
-11.8955 132.674 3.89779
-12.1136 132.808 4.29818
13.8739 86.1024 -7.30604
-14.9963 139.143 4.45713
-12.5557 143.02 -5.04752
-15.476 139.424 5.48529
-10.9536 141.016 -6.4042
18.1953 76.3683 -6.89088
-17.0211 147.363 1.04019
-11.7963 142.139 -5.50794
-13.0247 144.213 -4.82129
-17.9171 143.919 6.66841
6.99649 106.278 -11.7311
-17.6614 147.411 2.67856
7.02887 86.7736 8.29731
-12.1515 142.839 -5.13309
3.21308 112.763 -9.48975
-8.59544 120.423 9.66091
2.70039 113.663 -9.20887
-3.67797 109.952 9.14671
-7.32494 132.611 -5.5744
-11.3353 141.946 -5.9045
8.065 85.0407 7.90763
-14.1194 145.26 -2.92759
12.8847 90.8059 -8.9258
-0.445557 104.182 7.91506
-2.98045 124.942 -7.3646
-9.49993 122.933 9.60851
-4.00341 111.018 9.26883
-10.4458 126.008 8.81811
5.96814 109.204 -11.3996
-1.41715 122.7 -8.29169
-8.80737 137.897 -6.92539
-11.2785 132.865 3.921
-11.7536 131.707 6.20501
-16.0651 147.018 0.42184
-1.43606 122.8 -8.20981
-12.0429 143.528 -5.09886
-5.48808 129.226 -5.40739
-14.9221 140.431 4.70387
0.904723 117.824 -8.28981
-16.5555 147.734 1.10292
4.59828 111.696 -10.2337
-15.9562 141.395 6.37813
12.8764 92.1066 -9.10697
8.92677 102.944 -11.114
-7.25361 118.808 9.73272
-1.1464 106.603 8.25489
-5.91041 130.562 -5.29638
18.9192 76.5418 -6.81983
2.6972 99.5397 6.73124
4.84363 95.1161 6.35139
10.6393 99.4156 -11.0571
7.86118 86.6123 8.38886
-9.7341 124.859 9.57888
9.97233 83.445 6.94708
11.0387 98.3167 -10.6439
7.98713 105.621 -11.0844
-1.57549 123.626 -7.62373
-11.2361 132.144 5.75778
13.3594 77.2674 5.65732
5.58013 110.989 -11.0049
3.3868 114.155 -9.1005
3.89988 98.2005 6.06944
0.992027 118.658 -8.14129
5.3355 111.624 -10.813
-6.59889 132.826 -5.14044
3.69751 113.813 -9.23097
-7.36746 135.723 -6.26454
16.1986 82.6695 -5.88199
-14.4079 141.248 4.25434
-9.70023 141.306 -6.47446
2.24467 116.778 -8.66829
0.436457 105.387 7.2746
-2.30733 125.524 -6.87444
-1.8634 109.477 8.50773
-13.725 140.858 3.60792
0.323908 121.207 -8.37156
5.12602 112.473 -10.3862
-13.8295 146.938 -2.19115
-4.25562 129.125 -5.73437
6.63223 91.3089 8.03532
2.80436 101.65 6.22128
-3.83974 128.844 -6.16218
-1.5144 124.644 -7.15404
-0.00541709 122.31 -8.11117
-15.1798 147.923 0.412438
-10.8939 144.06 -5.39571
11.3118 82.9516 6.39109
4.30953 99.0357 5.97775
19.0523 78.709 -6.82431
5.19541 113.062 -10.2041
0.263815 106.992 7.30011
-13.8707 141.944 3.90318
12.2705 81.3522 6.11419
15.2808 87.9442 -7.21397
1.21313 105.919 6.73292
-15.5619 143.59 6.63527
-13.9932 142.54 4.1338
11.8498 98.8207 -10.1941
7.74037 89.2219 8.98669
-1.70319 110.99 8.3617
16.2083 84.8698 -5.75067
17.2301 83.0248 -6.14936
13.531 79.3167 6.10049
12.693 81.157 6.17251
-2.65073 127.918 -6.5171
-10.6677 144.675 -5.32475
-9.86719 134.492 3.33242
6.09169 112.868 -10.9364
-1.59893 111.28 8.29937
-6.19362 120.607 9.37292
-6.36391 135.448 -5.36707
12.0127 99.0107 -10.1084
-1.81412 126.334 -6.40452
-7.56666 124.171 8.93903
-9.20384 142.689 -6.21574
-7.03027 137.366 -5.73914
-8.89987 129.014 7.07701
-4.097 130.895 -5.73429
-6.37092 135.772 -5.44006
-10.7755 137.542 2.82479
18.7125 81.0333 -6.77278
-15.0881 143.811 6.38419
12.8524 96.8839 -9.47344
-9.96795 135.122 3.58876
7.42346 91.6744 8.34487
-9.94871 135.183 3.61443
19.5824 79.3474 -6.76225
0.729047 107.996 7.07633
12.3032 98.7506 -9.88832
2.56083 118.761 -8.05655
-13.4861 148.017 -1.22416
-3.32375 130.138 -6.1212
17.479 83.5771 -6.03287
-2.27986 128.106 -6.3591
14.4919 78.2862 6.27452
-13.9841 143.541 4.69416
20.7821 76.9935 -6.69644
7.74528 110.038 -10.5869
18.8281 81.6682 -6.86849
17.3322 84.2088 -5.97594
-2.41165 128.731 -6.26241
-7.0333 124.517 8.59193
4.08444 117.122 -9.15663
-15.3033 145.748 5.87203
8.94166 107.401 -10.2936
-8.16026 141.477 -6.04469
3.1609 104.728 5.69348
-14.308 143.923 5.60292
-6.44864 123.123 8.93353
7.27619 111.916 -10.925
-9.92991 145.161 -5.57981
11.0357 103.403 -10.8002
3.78522 117.711 -8.8503
-5.85931 135.599 -5.02149
15.7379 76.8525 5.75264
-13.659 148.299 -0.0822264
-14.7718 149.193 1.54479
3.30013 104.829 5.63124
19.9443 79.7271 -6.6993
12.2854 83.8173 6.61838
6.21034 98.4063 5.79321
-4.37576 118.654 9.2963
6.34491 97.9936 5.93209
1.70234 121.277 -7.20304
-3.14358 116.292 8.96956
-13.9904 144.283 5.29468
16.0494 87.5619 -5.34996
0.908505 109.302 7.02958
18.7743 82.7685 -6.63389
-3.34418 116.962 9.12055
3.28058 105.742 5.55966
14.0441 80.727 6.53753
-12.2323 149.045 -3.21676
18.2664 83.8363 -6.25702
18.897 82.7016 -6.49711
-14.9324 147.148 5.01503
-15.1484 148.764 3.92239
-1.06113 127.083 -6.06135
-12.553 149.2 -2.34093
-10.3408 139.03 2.99858
-1.21283 113.602 8.13303
4.14537 104.327 5.42678
10.4699 105.848 -10.5057
15.6899 77.851 6.25193
11.718 85.8561 7.1997
9.5452 107.82 -10.1553
-2.85694 116.984 8.83327
6.29712 99.7844 5.49967
1.11455 110.057 6.844
0.864569 110.458 7.01649
-11.2988 141.646 2.96156
7.22076 96.6432 6.6436
-14.186 145.98 5.15572
-14.4263 149.876 1.9513
5.97234 100.788 5.50369
16.6475 76.6749 5.77972
7.4657 96.1749 6.86634
-4.685 121.071 9.20271
7.64666 95.6423 7.09274
4.4466 118.282 -8.56652
14.7888 80.1486 6.80691
-0.729734 113.903 7.77837
-9.18752 136.98 3.52829
1.1573 124.008 -6.8375
0.970698 124.461 -6.87196
-4.85383 134.988 -4.20977
20.4523 80.6461 -6.4732
-5.28083 136.774 -4.97796
8.19935 93.984 7.98718
-2.69971 117.578 8.77879
-12.9595 145.467 3.80202
-7.82096 132.256 5.58753
16.508 90.2577 -7.05609
16.4593 89.9708 -6.64697
0.995151 124.737 -6.74404
-1.02064 115.261 7.71085
7.31562 114.789 -10.7996
-13.5408 146.552 4.4101
-5.44487 137.981 -5.28272
-8.92815 137.231 3.45723
1.6923 123.386 -6.62414
10.0124 108.286 -10.1618
-7.72395 143.526 -5.65259
2.09794 122.683 -6.67878
-5.69522 126.164 7.56164
-7.16846 130.169 6.87853
12.4315 86.1232 7.12511
-0.714881 115.136 7.53078
7.38967 98.3564 6.17935
-8.25946 136.337 3.19046
3.85287 119.601 -7.36867
8.99764 111.528 -10.8625
-14.2275 148.801 4.19411
11.4197 87.7451 7.99019
16.2226 92.1091 -7.28129
-0.164797 127.397 -5.89204
8.3387 95.076 7.71287
2.73386 109.654 5.66639
-4.21412 122.254 8.66719
4.68816 105.939 5.00823
16.7356 90.9605 -7.06783
-12.801 150.462 -0.307222
18.4337 86.0233 -5.64757
15.5629 95.3861 -8.633
14.352 82.9103 6.9243
6.82124 101.307 5.40448
11.1672 88.6912 8.52024
-7.19283 133.137 5.05763
6.3929 117.381 -9.85785
4.1239 107.862 5.05621
-13.3458 150.602 1.30929
8.48953 95.7936 7.66058
9.75352 91.5677 9.12228
9.77788 110.975 -10.7336
11.1677 107.273 -10.0713
-8.99843 147.75 -5.3381
1.76965 112.462 6.21617
-7.47657 136.719 2.59851
-11.9555 146.282 3.06295
12.2476 87.6532 7.70281
1.29005 113.416 6.43987
11.4809 106.923 -10.1761
-6.92556 133.303 4.90696
-12.1749 151.093 -1.23418
-5.14376 126.834 7.49354
-9.402 140.23 3.56878
12.7203 104.652 -10.5853
-9.77328 141.085 3.56963
-9.82704 141.686 3.26233
5.83983 105.037 4.94134
-8.8757 147.965 -5.25077
-12.4127 151.269 -0.478443
-6.73204 135.145 3.20935
1.32893 114.108 6.28959
10.292 110.721 -10.6895
22.2505 79.5804 -6.16531
-6.51494 142.813 -5.04312
-6.26165 130.881 6.57517
1.91016 113.138 6.04075
1.03885 114.786 6.42184
-7.14907 144.672 -5.38397
17.6956 77.7934 6.23234
13.8158 85.4353 7.31426
3.4832 110.716 5.23692
6.70667 103.738 5.02836
8.32312 98.7601 6.43075
6.36631 104.673 4.89114
5.05415 119.681 -7.39973
3.6426 110.556 5.1616
15.7844 81.4173 7.2397
19.7133 84.6214 -4.93695
-4.20473 125.555 7.87208
-10.1601 144.353 2.36712
17.4973 78.9663 6.19974
-6.26147 134.965 3.29564
-12.5879 150.879 1.52547
-7.16034 145.59 -5.39771
-6.10984 133.495 4.56111
2.65685 113.004 5.48799
12.0729 89.1286 8.51574
-6.0774 135.423 2.70347
-12.029 148.16 3.29859
-10.8316 146.741 2.05826
-7.50371 137.701 3.73805
16.3063 95.7817 -7.76429
15.418 83.0686 7.31894
-0.649081 131.248 -5.10339
20.516 83.4074 -4.53321
1.9502 126.175 -5.74841
17.352 80.1448 6.11497
8.34823 100.325 6.08575
-4.78198 140.237 -4.67859
13.3611 87.8452 7.58843
-9.03359 149.781 -4.47175
2.59903 114.036 5.46848
20.1282 84.662 -4.51629
16.3078 96.6117 -7.99027
-6.44032 144.579 -5.00278
2.7039 124.972 -5.80075
18.5836 77.9364 6.17061
11.8212 90.4282 8.93419
-8.48076 149.297 -4.71631
2.39925 114.956 5.599
8.06702 102.506 5.544
-5.07513 130.877 6.59041
4.21838 111.905 4.76549
9.34423 98.2311 7.18414
-9.73141 145.87 2.11316
-5.18907 142.389 -4.68295
-5.26112 134.677 3.36813
7.04157 105.686 4.88298
14.4174 103.996 -10.1563
-0.1855 119.787 7.06113
20.1401 85.5936 -4.41945
8.24453 116.981 -9.27065
-4.65144 141.24 -4.58666
15.8836 99.4591 -8.78358
6.45816 107.413 4.61497
10.8727 112.935 -11.0606
-3.93054 127.927 7.43349
14.3542 104.422 -10.1917
6.52723 107.497 4.59549
12.894 89.4756 8.47822
-6.43401 145.921 -5.0081
18.0733 80.3778 6.00008
-8.3106 149.714 -4.54821
-4.234 140.584 -4.4814
9.38552 98.9724 6.917
-8.51361 150.095 -4.40007
-1.869 134.808 -3.91561
8.34325 102.678 5.58908
20.7144 84.6511 -4.02861
21.1989 83.5873 -4.01779
13.0255 89.5975 8.50762
2.21559 116.487 5.74124
-3.74377 128.204 7.42305
5.18286 111.172 4.46284
15.8787 84.2577 7.60612
-1.16231 122.426 7.55091
8.13836 103.861 5.34838
12.0858 110.267 -10.1879
-9.6831 146.945 2.05484
15.087 86.0064 7.7293
-7.92869 149.58 -4.58576
9.87437 97.7254 7.72807
-11.1248 151.799 0.474836
11.0927 93.4959 9.29543
-3.16421 138.223 -3.76657
17.1458 82.1043 7.17457
-0.763667 122.065 7.26574
8.26394 103.706 5.40692
12.2976 91.342 8.99332
-2.04525 124.712 7.73961
12.0189 111.225 -10.5603
2.76354 116.312 5.37614
-7.70205 149.528 -4.591
14.1613 106.042 -10.075
-4.2457 130.818 6.75013
-1.85602 135.857 -3.81971
11.43 93.2684 9.33302
16.3542 100.162 -8.9111
-11.0138 151.257 1.41357
3.71623 125.12 -5.51524
-4.207 130.793 6.77815
-8.88981 145.877 2.14561
-3.37288 128.339 7.45735
1.52549 118.86 5.97449
19.1293 90.0447 -4.77027
7.9346 105.511 5.07268
16.8105 99.0116 -8.53902
17.1251 82.7806 7.32116
16.1583 101.09 -9.0766
23.9982 79.8528 -5.26553
13.9523 107.04 -10.0536
-8.6152 145.568 2.22672
13.6797 89.7828 8.44844
-3.84265 130.56 7.03933
20.0977 88.6935 -4.83674
18.8936 81.0485 5.746
5.54046 112.361 4.30718
20.455 77.2312 6.13255
12.33 92.4511 9.14121
20.7764 76.6115 6.09535
-8.93878 147.077 2.03609
-6.80271 140.468 3.91567
10.7486 96.2146 9.03546
12.8837 91.6095 8.87814
-8.28527 151.222 -3.59813
-4.77779 144.407 -4.43919
-0.896888 135.079 -3.69318
-2.18898 126.821 7.87287
18.0288 94.3863 -5.15618
20.2298 78.7937 5.79079
8.01204 107.009 4.87887
-0.470216 124.078 6.83697
-4.20041 136.142 3.06293
-5.77591 139.465 3.28342
-2.30236 138.44 -3.55539
11.9825 93.8739 9.38865
-9.3039 152.44 -1.76377
6.87049 121.346 -6.89572
12.0733 113.376 -10.6257
20.1826 79.371 5.63832
18.0577 82.639 7.17125
20.1026 79.685 5.61069
-1.42273 136.86 -3.60875
-2.456 139.223 -3.61315
-1.3152 125.96 7.33431
-3.28651 130.901 6.79214
-3.53557 134.309 3.8931
-6.67794 142.327 3.0966
21.9558 84.3705 -3.05495
25.4356 78.5014 -4.811
7.35204 121.512 -7.15285
-7.01307 143.622 3.09859
3.00105 128.965 -4.70495
-1.79991 138.594 -3.51071
4.57141 116.765 4.2574
15.5656 105.906 -9.63341
-9.61652 151.514 1.39595
6.85065 123.665 -7.73218
7.39143 123.106 -8.37713
-3.52914 136.191 3.20358
3.8304 118.541 4.57335
-0.472407 125.982 6.87009
4.4786 126.668 -5.1019
-5.81967 141.677 3.24874
-6.07634 149.706 -4.3053
18.9313 82.8378 6.89465
10.7716 101.009 7.01219
2.78252 120.67 5.21387
-3.49988 136.846 3.06334
14.6796 90.9226 8.46503
13.774 111.41 -10.2811
13.1403 112.877 -10.3092
11.1155 116.898 -9.74902
21.4815 79.4694 4.87993
-8.87769 153.07 -0.947254
-5.8185 141.825 3.54988
-9.02675 153.206 -0.691533
4.71258 117.781 4.21701
14.8038 91.0731 8.45552
-8.64929 152.988 -1.16668
8.18971 123.302 -9.26979
15.6443 106.927 -9.56732
18.657 96.9149 -6.1405
20.7343 90.5676 -4.37199
14.853 108.89 -9.62495
-8.04166 152.65 -2.01622
21.123 80.7035 4.87472
2.7887 121.312 5.26971
6.46454 114.349 4.0617
-4.20189 140.866 1.34835
18.9582 94.7121 -4.33364
3.54381 120.385 4.73324
10.5713 118.002 -8.84349
-8.84347 151.324 1.47481
-4.05302 146.098 -4.07995
17.7222 100.581 -7.29561
23.2389 84.2304 -3.13592
6.42971 125.313 -6.69024
-7.37269 152.353 -2.76603
-8.67484 152.194 0.415998
19.0431 95.0089 -4.45501
-2.07787 131.725 6.32311
14.7829 109.697 -9.60631
6.11784 115.805 3.98182
5.47137 117.261 3.98983
9.63835 120.108 -8.36949
-3.289 138.773 2.15604
22.4499 86.1633 -2.86983
18.2635 85.2005 7.6859
10.1104 105.52 5.60667
15.8723 107.322 -9.29064
2.99265 121.919 5.20516
9.4585 107.583 5.11621
-5.91576 143.192 3.87608
20.3281 82.4344 6.00177
10.6866 118.777 -9.03092
-5.82815 143.014 3.9561
10.0693 119.705 -8.46721
-2.39686 135.785 3.62361
22.2016 87.6913 -3.42102
9.9107 120.1 -8.41673
-8.09052 150.897 1.23485
-1.81258 132.817 5.39888
12.2599 117.032 -10.5748
10.5826 104.58 5.96463
10.3643 120.424 -9.70012
23.2762 76.8974 5.30335
12.9697 96.2728 9.08657
-0.423619 128.502 6.87762
-8.20993 153.431 -0.778164
26.8079 78.0354 -3.62162
8.74649 110.48 4.49496
7.21604 114.391 3.99982
-1.67422 133.146 5.14671
12.2008 117.567 -10.5619
5.40524 118.583 3.9099
12.3437 116.629 -9.92135
-3.4041 145.993 -3.92897
11.8202 119.08 -11.1689
5.74483 118.005 3.87654
-2.31668 136.423 3.51182
9.80354 123.165 -10.5605
1.36572 125.733 6.11034
15.67 91.526 8.42375
12.0621 118.6 -10.9664
0.829887 126.952 6.18428
-3.9712 147.583 -3.89706
13.8084 113.652 -9.75955
15.0289 111.148 -9.97862
19.133 84.9446 7.46421
2.98726 133.106 -4.8137
14.6509 112.189 -10.005
21.2677 82.1493 5.5677
9.76347 108.371 5.10991
23.4994 77.6232 5.18798
17.1776 103.438 -6.64273
15.0995 111.629 -10.0809
23.8771 77.1477 5.24883
19.0545 99.2921 -6.33581
22.141 81.7309 4.57561
10.8659 105.708 5.85906
23.9599 77.0491 5.24432
19.641 97.1175 -5.26033
25.8316 81.48 -3.39652
5.03237 129.921 -5.36597
-6.0201 152.444 -3.12219
21.7932 90.8796 -3.70789
22.3079 81.7773 4.42649
14.589 112.983 -9.68961
15.3405 111.459 -9.83773
5.61046 119.863 3.80745
-3.96596 148.667 -3.72063
1.0816 127.914 5.98066
22.2375 81.9936 4.6081
3.71185 132.826 -4.98883
-3.15153 141.716 1.61016
22.8327 88.1588 -2.979
21.044 83.3679 6.18009
2.90532 134.428 -4.47775
9.58497 125.239 -10.3266
0.590663 138.579 -3.38921
20.0561 95.4139 -3.64667
0.0837515 130.362 6.39331
24.6452 76.9151 4.91572
-1.88247 144.804 -3.72621
14.5248 95.805 8.8754
16.8799 107.037 -7.81377
7.07653 127.851 -6.67015
11.8215 104.328 6.53727
19.0419 100.444 -5.95931
12.0512 120.924 -10.9065
14.5894 95.8561 8.89592
-1.28844 143.697 -3.60844
12.3184 102.376 7.60049
17.5521 90.0012 8.30688
20.1466 97.1173 -4.65653
4.75518 122.959 4.19237
26.6605 80.2286 -2.18006
12.7373 100.913 8.51863
22.87 82.5184 4.20229
9.32172 126.891 -9.91914
8.77539 127.213 -8.99479
17.1508 106.674 -7.07432
23.3916 88.231 -2.43007
10.224 125.768 -10.6545
20.7984 84.9026 6.98808
19.5249 86.9313 7.82967
-1.79502 139.744 2.58805
12.2313 121.372 -10.6441
-0.916946 136.677 3.78529
24.4216 79.0581 4.84272
17.4675 105.55 -6.30284
17.8107 90.4069 8.39547
22.9844 90.0378 -3.00427
5.42301 122.65 3.80228
7.91128 128.14 -7.47591
8.71005 115.28 3.88423
11.5548 106.94 5.95009
24.8677 83.7732 -0.744111
-7.1774 154.368 0.377609
25.3897 83.5633 -1.61308
26.7792 80.5925 -1.74987
25.1141 83.7759 -1.1913
25.5369 82.713 -1.06636
21.6582 93.5415 -3.24884
14.8089 96.6851 9.21621
-4.59783 151.964 -2.89732
10.167 126.495 -10.5742
6.26106 121.394 3.55497
25.3391 82.3704 -0.102143
27.5802 79.0214 -1.71767
6.28864 121.498 3.55165
16.6755 109.015 -7.3877
25.464 81.9236 0.228143
8.56399 128.059 -8.17479
16.545 109.695 -7.60624
20.4367 98.6457 -5.14018
3.78307 126.049 4.8968
15.6846 95.6684 8.78798
-1.20251 139.418 2.81068
-0.0675649 135.704 4.13627
2.80878 128.206 5.33734
25.0936 85.604 -2.01885
21.9863 84.7865 5.91635
0.56174 132.509 6.13566
24.6195 83.5283 1.23131
4.09361 126.083 4.68565
-1.10157 139.582 2.76316
10.6487 111.069 5.05502
8.11255 118.079 3.70338
24.5595 83.9764 1.05767
26.1916 81.6996 -0.309183
5.76032 133.422 -6.42098
10.6311 126.923 -10.8839
13.2583 118.859 -8.5242
24.3541 82.0458 3.73038
14.9525 97.5842 9.40919
-1.91538 148.064 -3.44553
-2.77125 144.232 2.4493
21.8046 94.505 -2.81133
19.8503 88.3364 7.95082
14.1279 99.806 9.33449
6.89237 131.743 -6.65207
26.7071 79.9228 1.07878
27.2601 80.685 -0.909584
-1.69551 147.937 -3.45617
0.158147 136.66 3.87032
27.009 80.9207 -0.506047
12.7748 105.686 6.7825
-2.36711 149.491 -3.32893
27.6858 79.8742 -0.748865
13.4505 119.829 -8.94883
15.1422 98.2184 9.25237
0.957699 133.317 5.80904
26.5308 78.0242 3.92899
11.9178 125.384 -11.0611
24.5603 86.6092 -0.333539
0.426542 143.543 -3.32572
17.5829 107.28 -5.45048
13.4522 120.261 -9.22444
12.5275 106.975 6.47138
24.3632 87.1529 -0.296465
13.3179 103.833 7.90379
17.9231 92.8869 8.62049
18.9198 90.7953 8.51339
26.1573 81.5188 1.47608
1.75411 132.101 5.58609
15.924 114.418 -8.62583
14.0453 117.106 -7.08084
8.81319 130.043 -8.29934
26.3745 81.0804 1.62412
25.2833 81.8706 3.34058
-1.77985 143.525 2.18718
26.7331 79.8823 2.16608
16.4789 112.26 -7.47439
4.57327 127.237 4.48688
-3.1022 151.666 -2.92451
3.46584 129.026 5.24518
18.9929 91.086 8.54029
23.9384 90.226 -1.85791
2.19592 131.706 5.47428
5.66743 125.69 3.69897
16.5284 112.31 -7.37816
14.5794 116.328 -6.99452
10.7684 128.546 -10.7619
20.9495 87.6962 7.72832
21.9837 86.2679 6.99845
23.6362 84.1954 5.5393
27.6525 78.8707 1.82458
25.4569 83.193 2.44491
8.6263 119.685 3.60875
3.47294 129.573 5.28276
24.8094 84.2488 2.98877
8.57825 131.493 -8.16438
25.6763 82.1501 3.18134
13.2912 122.5 -9.72824
23.4894 92.4382 -2.21094
18.4848 105.389 -3.97006
13.7015 118.644 -6.57728
-3.43651 152.975 -2.47855
13.7738 120.25 -8.27365
9.9053 130.362 -9.73631
26.0946 81.93 2.77621
18.6621 105.26 -3.86718
26.4265 82.0864 2.08361
26.2307 82.0027 2.73327
24.7887 88.5283 -0.563699
2.30527 141.831 -3.60208
13.0711 107.299 7.07861
21.9091 97.8876 -3.43304
18.1366 107.015 -4.11942
22.9969 85.8558 6.39647
21.7025 87.6939 7.49284
19.0721 92.7875 8.37141
23.8443 91.7196 -1.40357
12.9636 124.237 -9.72196
15.0073 116.208 -6.12343
13.7753 122.15 -9.2836
25.7371 82.9118 3.49628
26.6102 81.6748 2.82547
25.3841 82.8765 4.39733
8.43012 121.841 3.35276
8.03749 122.837 3.23904
22.2429 87.2932 7.13628
12.7222 109.243 6.51866
16.3394 114.838 -7.44338
25.0738 88.1145 -0.0911653
21.5019 99.5467 -3.60698
8.96201 120.569 3.59724
12.6736 109.576 6.43171
25.8801 86.0262 0.373477
3.52651 131.219 5.29233
1.353 144.545 -3.31577
2.08877 134.312 5.47595
16.4272 114.577 -7.07215
4.17275 130.272 4.92147
24.1007 85.0075 5.70429
12.5199 127.339 -10.9685
16.6125 98.5135 9.22257
19.6698 92.6994 8.27317
24.7692 87.4543 1.99445
22.0861 98.8592 -3.368
14.8166 116.995 -5.27923
14.5853 103.669 8.94558
12.1992 128.387 -10.8306
25.3227 84.3475 4.18592
21.6385 99.8494 -3.17292
19.1155 94.3913 8.20154
-1.77036 151.887 -2.78429
15.3945 115.449 -4.71239
19.6122 104.73 -3.37352
4.99052 139.21 -5.16442
13.4383 122.546 -7.42226
24.6228 85.4205 5.02721
-0.547404 144.513 2.1685
5.7005 138.813 -6.235
24.8202 87.9416 2.1928
15.8634 101.198 9.10809
3.3709 141.873 -3.83151
4.64748 130.741 4.63169
6.18955 128.713 3.32765
24.1667 93.2148 -1.33842
11.5865 115 5.17621
14.7691 104.547 8.59394
3.89346 132.772 4.65586
24.4635 87.7876 3.69883
17.2146 113.643 -6.0296
-1.16226 151.637 -2.85908
8.49903 134.598 -7.43133
3.49634 142.263 -3.83378
13.2427 127.245 -10.7454
14.4925 106.118 7.99537
1.46193 140.391 2.79951
10.6891 132.317 -9.82711
14.3816 119.416 -5.05053
13.7321 108.406 7.7377
12.5394 129.204 -10.7021
24.9912 86.6361 4.42422
-2.33923 154.102 -2.04303
21.5697 101.139 -2.53216
10.1971 120.225 3.98616
25.07 86.4498 4.60254
14.1536 121.804 -6.54403
20.7582 103.512 -2.91405
2.2422 138.271 3.8786
25.4361 88.58 1.66979
25.0416 86.6011 4.677
2.80666 136.508 4.60115
17.5266 113.539 -5.53506
7.13697 128.489 2.99434
22.494 89.8264 7.43285
7.12363 138.774 -7.30718
13.8672 124.37 -7.98119
12.171 130.711 -10.5546
10.459 120.219 4.06341
6.01105 140.331 -6.0707
25.6939 90.1095 0.28998
14.1508 108.116 8.26092
2.78863 145.082 -3.4593
25.7054 90.2055 0.303805
22.95 89.7146 7.12594
9.63334 134.751 -8.44852
6.53113 140.159 -6.82827
12.6579 130.268 -10.6403
14.8854 120.209 -5.44822
2.03288 146.866 -3.30865
17.2263 113.947 -4.36024
14.0055 109.063 7.97681
21.5704 92.0955 8.06822
25.5957 89.6832 1.36522
2.15295 146.823 -3.3061
10.9585 133.328 -9.60093
24.8348 93.1567 -0.248056
20.807 104.43 -2.50682
24.4418 90.2613 3.68526
25.2986 90.6334 1.56424
17.4218 113.885 -4.08962
21.2964 93.3443 8.04768
14.4644 123.722 -7.31826
14.5122 122.994 -6.64284
15.8897 117.499 -4.12878
17.8761 113.498 -4.57545
18.3487 113.098 -5.12972
24.9227 93.7791 -0.410123
25.231 91.1019 1.63179
25.6197 90.7246 1.15214
9.75507 135.874 -8.69958
6.55848 131.717 2.88652
22.9731 90.7945 7.20998
5.20265 142.21 -4.67101
22.2372 92.0252 7.72811
24.4329 90.847 3.93918
19.3205 97.4719 8.88481
15.2433 120.784 -5.56349
2.32625 147.476 -3.32533
3.68984 136.629 4.66753
13.9496 128.383 -10.2607
13.4149 112.203 7.50464
0.897846 150.588 -3.09167
4.93066 142.888 -4.37856
11.66 118.989 4.68135
8.99894 137.505 -8.12553
19.9011 107.034 -1.81788
18.457 99.6161 9.06343
6.54871 132.27 2.9858
15.6455 106.247 8.8038
20.6333 105.784 -2.07842
9.41738 137.238 -8.51344
24.7247 95.2361 -0.501578
9.47712 137.239 -8.57278
14.3766 126.142 -8.35269
12.1446 117.818 5.33347
22.6525 101.365 -1.52374
23.4415 92.0033 6.30839
11.9823 118.82 5.11797
16.7407 103.663 9.74906
22.4631 101.952 -1.54108
24.8445 95.1636 -0.00938173
11.6359 120.198 4.60318
7.98372 140.513 -7.70523
16.1911 105.748 9.10424
12.7982 116.031 6.4121
2.24962 143.519 2.4435
14.5823 126.596 -8.39748
20.6862 106.279 -1.53245
20.1425 97.508 8.77265
25.7063 92.4595 1.28672
22.5784 93.4585 7.4638
19.1662 99.5643 9.04979
14.7804 109.677 8.84229
24.2702 93.5403 3.7067
17.9498 118.847 -7.69276
15.2372 108.508 9.05972
2.42279 143.68 2.45792
17.8618 119.475 -8.02577
5.34777 136.264 3.40555
15.2586 124.448 -7.07723
18.3728 118.152 -7.74637
17.4718 103.201 9.65361
18.3348 118.154 -7.56616
22.169 103.652 -1.42606
5.64104 143.981 -4.80762
16.3471 106.218 9.32655
22.0459 104.028 -1.43522
18.1543 120.38 -9.24217
5.50808 136.5 3.20978
0.652099 153.088 -2.62966
11.8044 135.682 -10.2599
0.307318 153.632 -2.33664
17.8093 119.099 -6.96639
13.6023 131.017 -9.51044
19.894 110.525 -2.89337
25.6347 93.3839 1.54938
11.2795 122.89 4.2198
20.1933 108.282 -1.21118
7.9504 141.534 -7.20795
20.1107 98.7559 8.71381
9.37112 128.585 2.84269
4.59451 138.761 3.39273
17.9693 121.234 -9.22943
20.7396 106.687 -0.666481
17.847 114.504 -1.90336
17.0567 115.989 -1.55605
25.1081 94.0069 2.59885
16.5042 120.815 -5.04862
25.5973 94.1514 1.50115
24.7447 94.301 3.31745
14.9393 125.545 -6.11419
15.6357 108.91 9.28729
18.2405 114.075 -1.91382
17.1931 116.042 -1.5253
14.1656 126.707 -5.47584
5.22125 145.477 -4.21044
14.8753 127.43 -7.82092
11.3984 123.485 4.165
20.609 107.488 -0.514344
15.1059 125.552 -6.37771
18.2996 118.444 -6.38929
19.888 112.018 -3.389
25.2026 94.2874 2.63752
3.76747 148.112 -3.3772
17.0643 105.444 9.85334
3.17614 143.504 2.70978
21.1722 98.451 7.62521
12.4353 119.684 5.92316
14.5019 127.062 -6.22682
22.3243 104.51 -0.987431
18.6601 122.055 -10.4341
15.8202 125.195 -7.1537
3.25448 143.667 2.68239
19.2535 101.616 9.10813
7.04984 143.731 -5.99927
17.2546 122.804 -7.92533
6.76921 144.134 -5.72487
14.3018 130.341 -8.80287
16.0406 125.108 -7.41345
24.7342 97.062 1.42626
11.6632 123.223 4.62536
14.6398 125.588 -4.54637
7.31656 134.147 3.44148
16.543 123.553 -6.74814
4.92396 140.169 2.82021
15.9491 125.47 -7.3363
12.124 121.362 5.61807
20.9513 107.202 -0.0621369
7.96667 133.403 2.9333
18.4587 114.084 -1.25911
5.22867 146.3 -3.90595
4.16294 148.26 -3.45871
19.4702 101.758 9.11079
7.05311 144.28 -5.94718
14.7132 128.054 -6.80607
15.8255 124.272 -5.46297
3.27881 150.105 -3.15383
14.4052 130.58 -8.58807
18.261 104.252 9.49592
14.2201 114.452 8.33756
4.23952 141.942 3.07863
18.5524 123.109 -10.2494
7.2597 144.318 -6.11578
19.6485 101.704 9.10799
19.7943 101.498 9.09856
14.7378 130.199 -8.59064
7.18557 136.355 2.46432
11.8214 137.881 -9.64695
11.7554 124.285 4.41898
13.9924 115.587 8.25136
13.5478 117.341 7.51551
15.6659 124.357 -4.47068
10.5961 140.167 -9.02772
15.4727 127.344 -7.06029
21.4949 99.639 7.55567
22.1895 98.4948 7.14177
13.0322 119.249 6.91125
13.4073 135.022 -10.0196
25.0819 96.4262 2.99404
4.87576 141.8 2.80642
15.7752 124.188 -4.08064
5.33409 141.07 2.54159
11.6615 138.496 -9.26264
23.6981 97.6052 5.07491
24.8161 96.5115 3.75369
23.587 100.818 2.21473
5.37426 141.249 2.54504
15.3361 129.516 -8.07627
21.8794 99.7976 7.32563
19.8341 113.104 -1.58438
15.1902 113.026 9.09725
17.8302 119.527 -3.54978
13.6006 117.951 7.73741
14.279 129.843 -5.91402
1.53559 154.278 -1.76932
24.4729 97.4022 3.94018
22.2584 99.3926 7.00214
16.42 126.774 -7.58585
22.6736 104.835 0.596211
2.80318 152.736 -2.84029
18.2189 124.873 -9.51877
15.7585 127.438 -6.48883
12.9662 120.5 6.96565
10.9825 128.374 3.46744
22.81 103.695 1.78976
13.25 119.644 7.35065
17.819 107.048 9.78199
17.7464 124.775 -8.10961
22.7864 104.052 1.54487
24.6881 97.8808 3.51624
21.5734 100.756 7.69093
18.42 117.866 -2.5042
14.3164 130.536 -6.0586
19.8691 103.403 8.96648
15.2108 128.499 -6.00593
23.6375 100.169 3.68291
9.79043 142.746 -8.12729
17.9672 121.963 -5.52939
22.7671 104.564 1.2905
19.1766 124.705 -11.0186
17.7373 125.205 -8.20656
19.0867 124.852 -10.8911
19.6707 104.073 9.04707
18.0844 125.342 -8.99815
19.7338 124.407 -11.7794
16.7612 127.227 -7.84191
9.33485 133.945 2.27983
9.61212 133.241 2.41266
24.0365 99.412 4.05542
22.7809 104.946 1.28979
14.8063 125.983 -1.96611
15.8208 129.265 -7.60033
9.60653 143.425 -7.82841
14.5012 127.552 -2.78672
12.2448 138.622 -8.8896
15.1737 130.821 -7.60405
13.6237 119.083 7.94535
16.045 129.733 -8.40808
21.3465 121.639 -12.1901
19.4021 125.15 -11.2991
20.8678 123.118 -12.5426
17.6549 108.541 9.69735
21.4427 109.214 0.390126
18.265 119.905 -3.21462
15.1066 128.482 -4.74189
16.2457 129.329 -8.11472
10.6451 142.015 -8.26268
17.9252 126.422 -8.95266
17.828 108.465 9.70562
23.4946 100.287 5.16261
19.3679 105.743 9.06955
12.3192 125.603 4.90498
17.4275 127.329 -8.49419
23.737 99.8493 5.15638
5.07654 144.259 2.42466
19.4093 114.147 0.454464
13.2795 137.344 -9.22642
17.1154 110.291 9.68128
14.8547 131.493 -6.73345
15.375 131.462 -7.88424
15.4612 130.434 -6.98806
15.549 128.493 -5.17064
4.88153 150.414 -3.19438
23.6735 99.6554 5.7535
12.621 124.505 5.70229
15.4335 131.687 -7.9917
15.8955 113.647 9.36905
11.4639 141.126 -8.55924
16.7078 126.871 -5.94718
14.7435 134.737 -9.47237
21.4504 122.997 -12.7334
9.83377 134.187 2.38049
16.4889 112.219 9.62201
10.4882 132.205 2.9223
15.2489 131.872 -7.56712
19.2201 106.676 9.10662
18.1927 127.502 -9.78345
15.6972 114.458 9.27175
16.6387 112.112 9.56923
11.9726 127.775 4.24023
5.65447 143.766 2.34319
21.7763 102.55 7.71578
15.9277 125.168 -2.01362
10.9823 142.172 -7.92726
12.2627 126.988 4.67017
10.4395 143.142 -7.61728
14.6489 132.085 -5.93795
19.9599 106.121 8.44723
19.2006 114.974 1.19555
22.873 102.358 5.71139
12.5549 125.983 5.16323
18.9885 127.143 -10.6894
9.17229 136.547 2.19103
21.7972 108.965 1.56645
16.5065 128.487 -6.26848
16.7508 127.178 -5.40808
16.7143 125.587 -3.61623
18.6526 108.547 9.35346
21.897 103.757 6.88578
23.1999 102.834 4.95761
22.0484 104.503 6.02243
19.1561 108.084 8.98324
17.3744 111.61 9.45232
14.9331 132.543 -6.34233
18.4461 121.054 -2.59793
15.0458 128.154 -2.06567
19.3552 115.532 0.991047
16.7986 125.051 -2.84193
18.7524 109.091 9.03595
15.4257 128.831 -3.46919
15.3467 127.276 -1.67036
17.558 130.18 -9.64425
16.2752 129.431 -5.93762
6.76166 142.807 2.21015
20.3642 106.913 7.89156
12.5753 139.966 -8.05056
17.2829 126.75 -5.27515
12.8548 126.071 5.54909
15.5438 134.402 -9.01433
22.9932 104.016 5.02474
18.9557 117.688 0.306671
15.7691 127.475 -2.34826
19.5741 116.338 0.351057
6.55232 143.666 2.19321
10.8544 133.17 3.10409
21.4763 105.983 6.61647
16.5178 131.618 -8.1395
19.1252 118.361 -0.55492
23.3539 105.023 3.42526
19.4214 109.163 8.24739
20.2149 107.755 7.93665
19.3672 118.697 -1.23093
19.3954 118.953 -1.54724
16.8247 132.192 -9.15888
15.547 132.352 -6.33302
6.65749 149.971 -3.93282
9.21241 138.237 2.31293
21.0391 107.154 7.06466
15.2891 133.288 -6.46297
17.4122 124.087 -1.81718
17.7777 124.539 -3.07782
18.5177 130.009 -10.3343
22.4242 123.434 -12.4613
21.7419 106.96 5.91604
12.4761 128.643 4.93716
18.0971 124.72 -3.78985
15.9686 134.406 -8.81099
7.33481 149.379 -4.34752
18.2313 124.715 -3.94112
15.8603 129.55 -3.40129
8.46687 148.312 -5.65865
7.46778 143.14 2.13333
17.1445 124.575 -0.988592
17.7253 123.373 -1.08138
10.7876 144.716 -6.94848
17.3298 130.08 -6.92484
16.2221 133.732 -8.06493
17.1839 131.359 -7.77999
19.9609 116.172 1.41341
7.97472 142.15 2.26897
21.818 107.922 5.62394
22.5858 123.773 -12.2516
16.2404 129.082 -3.02262
23.5172 122.543 -12.9515
20.5212 118.661 -2.13726
15.7873 127.276 -0.0845786
18.6345 122.051 -1.16314
17.9331 132.215 -9.8471
6.61394 151.483 -3.6299
22.7837 108.744 3.13415
21.2245 109.243 6.23655
17.7895 123.852 -0.822579
23.1123 108.028 3.4655
17.0316 133.307 -8.40584
12.705 129.668 5.24204
23.1593 107.902 3.71876
12.6872 127.978 7.12764
21.6216 113.264 1.77659
15.8367 134.44 -6.63426
13.562 125.443 7.75796
18.9037 118.672 2.49313
21.4903 126.73 -11.606
6.27719 147.2 2.22212
18.7618 123.125 -1.67716
16.1344 135.684 -8.47262
16.2163 134.747 -7.65888
19.721 129.909 -10.5619
10.1149 147.425 -6.48328
8.7121 149.492 -5.26301
9.11654 141.154 2.34513
23.281 122.4 -10.6433
21.5688 109.962 5.96897
19.5889 112.47 7.93125
12.6084 130.654 5.33852
8.83135 142.218 2.19007
16.1981 118.947 9.17544
18.532 122.93 -0.214087
12.1093 132.991 4.1791
18.807 120.169 1.9881
15.9723 119.565 9.20258
18.9263 118.852 3.2656
17.7061 129.914 -5.23198
19.7717 120.946 -0.769371
8.69236 142.911 2.10546
17.9048 125.088 -0.722999
9.10168 149.503 -5.52848
18.2025 133.2 -9.60071
18.678 122.925 -0.194051
16.4767 134.948 -7.4178
6.14787 148.483 2.5698
19.68 113.396 7.50703
20.099 112.62 7.35751
19.7266 120.377 0.309221
23.3493 122.952 -10.5471
20.1722 112.58 7.29805
20.4236 112.536 7.0556
20.2042 117.633 2.4909
13.5298 127.276 7.89058
19.5734 120.765 0.817605
14.82 123.598 8.81417
15.8884 137.373 -7.64569
14.1509 140.822 -7.15407
22.2179 111.054 4.83316
16.5579 135.994 -7.64417
18.7111 133.271 -9.73324
17.2151 118.232 9.06036
18.5527 116.042 8.27977
23.5461 124.003 -11.1635
17.5282 131.77 -5.33585
18.0377 125.216 0.419981
21.1252 129.305 -10.7278
7.61871 147.347 1.82144
11.9378 134.95 4.68156
8.90064 150.868 -4.55923
23.49 123.675 -9.9877
22.8897 126.475 -11.4284
18.37 124.897 0.504915
15.4236 138.941 -7.00784
16.5869 136.417 -7.06851
16.4089 121.144 8.9486
21.8812 113.273 4.52826
21.1243 119.974 -0.554338
19.1717 133.408 -9.78507
15.6121 124.454 7.56091
23.564 125.254 -11.3038
22.9449 126.422 -11.0047
22.5273 127.21 -10.8231
21.024 130.154 -10.3522
13.0576 144.695 -6.8983
7.49288 148.571 1.86944
17.5862 119.305 8.73006
19.6256 122.142 1.20039
8.64954 145.928 1.98201
11.611 138.584 2.74729
22.4815 127.294 -10.481
14.6865 127.034 7.67227
15.9359 137.756 -6.09951
