ply
format ascii 1.0
comment Created by Open3D
element vertex 1940
property double x
property double y
property double z
end_header
23.6501 122.064 2.51357
-11.1288 85.323 4.78373
-12.4994 89.2565 -4.51094
11.5132 110.454 1.2954
27.1582 125.53 2.87673
15.516 117.2 -3.32842
24.2524 123.283 1.63677
18.6971 118.348 0.356197
11.655 106.178 9.09705
21.7785 123.667 -3.42216
17.7717 114.524 5.43278
17.6125 114.535 5.19125
24.5597 123.02 2.75669
19.7082 123.126 -6.08744
23.8163 130.179 -10.9814
15.8674 117.578 -3.0936
18.6415 118.454 0.335404
20.0714 119.494 1.08374
18.9588 110.483 14.9169
-6.19928 96.6429 -5.73
19.0257 112.205 12.1284
23.5249 122.779 1.73904
25.9716 125.173 1.92848
17.6617 114.824 5.2162
-12.7071 89.515 -4.63877
23.7075 120.787 5.70999
23.4698 122.817 1.8806
26.3452 126.301 0.930738
20.0596 123.43 -5.22566
15.5352 117.816 -3.3341
-14.8827 85.535 -1.11777
17.5987 118.758 -1.22871
18.7116 118.384 1.45923
6.56416 108.593 -3.02839
2.48345 95.7035 12.3411
15.7951 118.195 -3.17697
27.5841 132.609 -7.34687
1.0483 104.182 -4.96203
20.6319 120.861 0.873957
11.4592 106.753 9.22367
21.4859 124.259 -3.46822
-7.16508 96.3068 -5.68694
23.0561 115.81 14.2588
18.9449 110.405 16.3856
6.56058 100.442 11.7104
25.1755 125.373 1.33517
-16.4336 83.5136 0.368668
-13.1105 89.6987 -4.51403
3.2192 106.175 -4.18183
19.0438 115.439 7.90206
12.6565 110.022 5.99043
-13.1878 89.367 -4.00029
-3.83139 91.8408 8.39982
25.9448 132.585 -9.70728
22.3232 122.372 1.71955
23.818 117.447 13.0194
-16.6571 83.6944 -0.140349
-6.47181 97.5566 -6.10254
-9.31675 87.724 6.02756
22.9233 115.9 14.3321
18.4954 123.953 -7.58934
7.10664 101.573 11.2848
25.5709 124.552 4.09506
5.81538 99.9336 11.9058
11.7372 107.792 8.73958
26.9694 128.31 0.110562
-10.3693 93.7132 -5.9812
-3.63741 100.449 -5.73789
-5.56983 98.4714 -5.70429
-0.0360408 103.902 -5.29687
19.012 111.281 15.8164
26.5802 127.239 1.42651
23.5567 123.274 2.97093
18.6161 119.116 1.51886
16.0717 119.24 -3.04208
23.3523 123.863 1.87439
-15.9723 83.8459 1.69913
4.08143 107.5 -3.81964
-14.8255 84.6485 2.44515
20.9394 128.912 -11.1349
24.501 124.485 3.00164
26.6019 130.72 -4.07721
18.5514 111.885 14.5354
20.483 128.57 -11.1825
-15.2853 84.444 2.17128
26.5873 127.457 1.68878
26.8529 127.906 1.45178
26.4436 126.1 3.89253
-15.0797 86.3155 -0.628462
27.17 132.901 -6.65508
22.707 116.396 14.376
-10.3785 94.3345 -6.09656
18.505 116.607 6.53304
20.8352 124.917 -3.82513
20.659 124.709 -3.76541
12.7223 113.977 0.996875
20.8683 125.199 -4.07252
18.7168 113.547 12.4858
14.6731 113.723 5.00126
-11.6187 87.105 4.68763
19.1528 127.236 -10.5864
26.75 131.884 -5.11987
22.8872 120.691 7.65806
2.91395 106.97 -3.97525
25.4164 133.039 -9.37457
-8.36518 89.3823 6.80762
-8.09227 97.1657 -6.29121
22.204 123.533 1.68127
24.1274 119.864 11.5368
-16.5857 84.1061 1.44051
22.2786 116.197 14.7185
26.4358 129.609 -1.32549
-1.89375 94.2934 9.97997
17.7328 120.117 -0.0457047
20.7558 125.517 -4.07888
21.0131 124.084 -1.07483
7.82686 104.061 10.4534
24.6477 125.499 3.01095
20.6497 122.803 0.607284
26.3252 130.056 -1.92715
17.3635 116.961 5.01949
-5.98906 91.4578 7.95886
22.7029 124.54 1.32719
26.453 134.028 -8.55729
22.6087 117.089 14.2949
17.3769 120.682 -1.33248
14.5669 119.201 -3.68321
8.18246 104.772 10.1763
-2.20419 94.4035 9.78081
26.4382 129.599 -0.651776
19.0791 116.88 8.46414
6.55143 102.773 10.8263
20.5353 125.618 -4.15014
21.1884 123.788 0.221509
-15.8593 85.0072 2.01124
6.22642 109.978 -2.21951
-8.43318 97.3907 -6.3401
6.98907 110.018 -0.893459
21.1074 129.947 -10.5303
12.206 114.296 1.00653
8.41148 110.878 0.228346
-15.8088 86.5939 -0.496473
-14.3241 89.8322 -3.42039
15.8104 116.068 4.48211
-7.93004 90.3159 7.17343
18.4531 121.444 -0.165618
24.5432 125.219 4.1104
-16.043 85.0581 1.93047
25.5055 133.688 -8.96898
18.5721 114.604 12.0743
11.902 110.397 7.54757
2.01245 97.4567 12.5574
20.725 124.257 -0.893693
26.4692 133.065 -6.00509
-12.4871 92.9602 -5.38656
23.401 122.956 6.21098
2.82444 98.407 12.5032
24.0668 132.496 -9.21181
6.60114 110.203 -1.37168
21.6081 116.095 15.2073
10.6766 112.88 1.32093
-0.150273 105.59 -5.22235
24.7692 125.618 4.30064
23.0443 118.688 13.3797
21.9171 130.821 -9.85932
9.88062 112.322 1.10774
22.8323 131.599 -9.48892
-6.05913 92.0335 8.23311
-8.8018 90.1527 6.63501
-8.8422 97.5707 -6.39168
-5.93436 99.989 -5.39949
18.1293 126.535 -8.86748
18.7796 125.566 -6.00495
11.3868 109.436 9.11983
-10.7005 95.7758 -6.41224
12.9686 116.979 -1.23528
17.4347 120.907 -0.0219344
24.1272 125.375 4.31739
19.3625 123.268 -0.483599
23.7102 123.96 6.1691
-1.63451 95.478 10.783
-12.6581 88.0558 4.08956
4.79996 101.751 11.3091
16.4611 122.2 -3.59745
-9.92995 96.9025 -6.43356
10.3718 108.277 9.9608
23.0361 119.373 13.1954
23.7986 125.841 3.246
7.69493 111.256 0.0182477
21.5416 130.958 -9.71078
-9.02266 97.9334 -6.43672
23.2698 125.231 3.53259
23.2463 121.436 10.2011
18.7092 114.401 14.4664
22.265 118.153 14.2528
6.83592 104.637 10.415
26.638 134.666 -6.73674
23.2311 125.857 2.60367
24.5009 126.173 4.31965
18.6653 123.166 -0.82156
21.6363 117.34 14.7021
21.333 116.903 14.9392
-0.217684 106.427 -5.18898
18.1099 122.604 -0.747886
26.0483 130.844 -0.984585
23.3753 126.119 2.55126
14.8665 116.485 4.28188
18.7388 114.816 14.1723
19.0121 117.512 9.94901
12.8525 114.048 5.03546
23.0461 122.524 8.44108
26.5728 134.79 -6.70509
23.777 124.827 5.76835
6.11701 110.953 -1.47372
25.8718 132.994 -4.72605
6.7098 104.842 10.3761
22.6885 119.347 13.5363
10.6839 113.998 1.4619
18.8148 126.285 -5.51106
22.8059 125.49 3.02035
1.2868 107.928 -4.65917
-1.01625 105.959 -5.32234
26.5262 134.875 -6.68151
-7.99473 99.2489 -5.94542
-5.66411 101.674 -6.00776
23.8313 125.993 4.11417
18.8343 119.152 7.24451
19.5538 125.022 -1.68247
18.5344 115.766 12.8423
23.5863 124.599 6.47604
16.6855 121.873 -1.05573
25.423 127.981 3.95205
-14.2578 92.1045 -4.07184
18.5628 124.051 -1.34485
-8.53112 91.6231 7.07198
-6.35791 92.9905 8.56026
-4.32056 94.7149 9.20462
20.3628 125.986 -1.41967
22.7115 121.981 9.79784
13.0669 118.812 -1.84093
19.147 118.929 8.83935
-7.77657 92.1069 7.76892
-9.48771 91.156 6.44718
-12.7618 88.9824 4.42385
13.1337 119.235 -2.25711
18.7997 129.197 -9.51376
-12.7563 89.0188 4.45016
26.1205 135.416 -7.29992
22.3718 125.703 3.0694
25.6141 132.47 -2.93134
2.70915 109.648 -3.66232
21.5304 124.863 3.34353
3.60313 102.048 11.2951
24.6157 127.681 3.98159
19.1205 119.344 8.76098
2.8713 101.042 11.8125
-3.80686 95.4239 9.72764
-3.1457 104.703 -5.27203
-1.75493 96.6287 11.3433
23.6284 133.676 -8.11833
23.7964 126.428 4.89559
20.1518 124.699 1.44493
-10.632 90.6161 6.12577
23.3651 126.954 3.40481
3.93787 111.035 -3.41956
-9.3062 91.7627 6.66282
-6.89962 101.237 -5.61021
-10.8215 97.7606 -6.48118
-13.3667 94.1202 -4.614
6.18523 105.573 10.3094
21.2826 125.159 3.00571
5.82903 111.82 -1.19943
-10.6099 90.8575 6.17373
21.3038 126.849 0.244864
22.1555 132.741 -8.43033
10.3567 115.1 1.44105
19.9021 124.841 1.44121
23.2274 127.73 2.33578
9.1825 108.748 10.4934
-7.27066 101.103 -5.49329
19.0389 120.169 8.22574
25.5691 132.305 -1.29947
17.7315 127.263 -6.34973
-17.337 87.5586 0.566648
-7.96622 92.9281 7.90512
-15.1487 88.4893 2.88211
7.50756 107.354 10.3427
-9.1973 92.2554 6.94243
-13.0066 95.1445 -4.87756
6.64079 112.622 -0.359435
23.3494 127.805 2.95656
2.37008 101.461 11.6874
19.0492 117.088 14.3506
9.75176 109.864 10.4093
17.787 128.941 -8.47347
18.4207 117.473 12.8063
17.2025 127.662 -7.16529
25.4397 131.855 0.208836
-2.30352 106.409 -4.75311
-12.1134 96.9657 -5.65884
18.9486 120.967 7.8135
7.4311 113.491 0.364188
-11.6777 97.6823 -6.07818
13.557 117.492 4.33071
26.1363 135.697 -5.04076
18.7298 126.94 -2.93694
26.1768 135.949 -5.39991
16.1535 123.952 -2.30267
21.0633 125.175 4.39237
5.02044 105.331 10.5568
17.9515 121.404 5.55092
3.51664 111.818 -3.4309
17.9087 125.968 -2.39047
-9.82913 92.4862 6.70187
25.3193 132.496 -0.489745
20.8036 125.119 4.40415
-13.6082 95.1278 -4.55874
7.64856 113.903 0.596796
20.1675 118.663 14.6416
18.7932 125.423 0.420124
22.6691 124.59 8.88236
17.3752 125.697 -2.49219
16.4808 124.317 -1.545
24.5112 129.963 3.00462
-4.00715 105.383 -4.89728
25.2739 132.046 0.749092
7.4862 114.026 0.538431
4.98055 112.903 -1.94158
-5.40629 95.8841 9.29166
12.2467 120.25 -1.78996
6.41639 113.469 -0.288321
25.8981 136.24 -5.29994
18.2652 121.938 6.1066
15.3903 124.674 -3.78777
-12.8163 90.7279 5.28954
19.854 127.331 -0.387728
24.9592 134.459 -3.72951
-12.6922 96.893 -5.22418
-13.7747 95.3979 -4.53598
25.2852 133.54 -1.46854
4.79092 105.783 10.5521
-3.10535 97.3206 11.2619
7.79132 114.439 0.852455
10.7552 112.879 8.88564
18.6312 131.037 -8.80446
-10.3549 92.6434 6.63044
21.655 133.838 -8.29126
20.7167 126.331 3.22186
20.9371 120.522 13.8352
17.3056 122.021 4.73419
21.1901 120.925 13.632
16.038 121.318 3.86242
16.4391 125.091 -2.0016
25.2241 133.746 -1.44117
6.1937 113.741 -0.394684
11.667 115.032 7.12118
0.783122 110.44 -4.17434
-4.82411 105.22 -4.99085
22.2255 123.908 10.6477
22.5907 127.103 5.7253
17.1665 122.24 4.56902
25.54 136.571 -5.48367
25.1004 133.198 -0.352373
15.6801 125.096 -2.97348
19.7018 119.418 14.1821
-15.8115 90.0006 2.28591
-12.3449 98.2285 -5.82889
16.8873 126.026 -2.21422
-16.8932 89.8242 0.812966
5.93313 113.902 -0.550789
15.9711 125.561 -3.0005
25.1135 133.771 -1.01836
9.61571 116.701 1.25219
-17.5572 89.7729 -0.105578
24.3751 131.032 2.62282
-13.8084 96.2232 -4.64363
15.2696 121.303 3.44174
22.4154 128.872 2.96291
16.8352 126.353 -2.58883
16.2323 126.047 -3.10913
18.0294 122.785 5.80891
18.7231 128.056 -2.16894
3.14512 104.841 10.7405
18.2222 127.635 -2.21103
2.82042 112.738 -3.60048
18.6848 128.014 -1.84526
13.267 123.859 -4.18474
11.8674 121.242 -2.09956
18.1694 119.254 12.6636
-6.45989 104.692 -5.8261
22.9694 135.762 -7.59865
24.9769 134.058 -0.983019
14.7171 125.826 -4.88295
-7.99012 103.325 -5.96043
20.2327 129.486 -1.24853
8.42421 116.054 1.17493
-12.6597 98.5552 -5.84338
-2.14653 108.33 -4.11065
11.1127 119.921 -0.704343
17.2101 128.623 -5.01043
22.3106 125.561 9.47166
-7.30924 95.816 8.74696
19.5257 132.955 -8.24093
20.1581 126.965 3.40726
18.5452 121.195 10.6704
-9.82594 94.0762 7.51228
-9.37268 94.3432 7.90651
6.42482 108.963 10.6172
17.8541 123.635 5.40488
22.287 126.449 8.41248
8.45261 116.432 1.24203
-9.36185 102.233 -5.71289
20.8621 129.893 -0.133848
18.0964 119.829 12.6215
-16.1051 91.4722 1.20498
-15.8339 91.7413 1.37653
12.6441 123.906 -4.03199
-10.2439 101.573 -5.80378
16.6219 128.002 -4.03001
19.858 129.095 -0.159282
-1.89134 109.102 -3.9897
20.4009 127.512 3.65308
-1.01473 100.415 12.9448
7.73745 110.621 10.7147
4.1666 114.421 -2.26829
20.1963 130.464 -1.60963
-0.286963 101.579 12.3617
-15.4159 95.5561 -4.073
19.5313 128.898 0.0240729
-1.37899 109.871 -3.99656
24.6219 135.173 -1.79774
18.5438 132.631 -8.16454
24.3426 132.348 2.6896
-16.7899 93.2458 -2.29452
24.3132 132.669 2.15298
10.1543 119.612 -0.190578
6.90956 115.789 0.707251
-14.4657 92.1576 3.90007
20.6405 129.906 0.640184
18.2009 127.061 1.29755
3.79632 107.063 10.6733
-9.26862 95.1906 8.17603
20.5962 130.094 0.446054
19.0827 130.116 -2.29116
-4.30876 107.401 -4.27459
-4.75103 107.079 -4.48563
16.7353 124.197 3.96169
19.932 130.869 -1.96713
10.6953 115.28 8.83708
20.2681 128.141 3.43875
16.3915 124.054 3.81197
9.7446 113.471 10.5328
17.3121 129.182 -3.37888
4.42436 108.078 10.5459
0.109686 112.076 -4.15068
11.9112 123.773 -3.54291
11.4108 116.737 7.94459
19.4146 133.768 -7.52326
-7.54503 105.409 -6.009
16.2883 124.166 3.73574
18.8201 121.235 13.3985
-3.5532 99.1617 12.1152
17.9375 128.921 -1.50641
9.95452 119.95 -0.0110327
17.886 124.991 5.33588
21.4354 129.492 3.80656
18.0411 121.532 11.718
18.5525 124.557 7.4005
4.70847 115.311 -1.13349
16.3801 130.424 -6.73172
-14.5014 92.8988 3.84888
16.9952 129.444 -3.85443
19.0892 121.75 13.4114
13.252 126.162 -4.71919
14.8493 123.264 3.20863
-15.0789 97.05 -4.31712
-15.4589 93.1312 2.03495
-17.336 92.6051 -0.287596
3.6707 115.246 -2.32675
11.9222 124.589 -3.87997
11.0024 122.71 -2.23375
24.1611 136.224 -2.37711
18.4533 123.324 10.0223
-1.72846 110.617 -3.71497
20.169 129.669 2.08267
24.8696 137.722 -3.61231
16.4668 129.169 -3.62126
23.2455 138.22 -7.33854
19.5119 129.807 0.718976
-4.78878 107.893 -4.32313
4.69292 115.698 -1.03886
19.1524 128.89 1.78582
-17.2872 92.8318 -0.181899
19.9733 123.281 13.075
7.70751 117.501 1.30122
18.5568 123.905 9.51735
4.86363 109.411 10.4515
7.53046 111.894 10.9291
18.0332 129.938 -1.86849
11.5154 117.939 7.60422
19.6282 129.848 1.26718
-3.9729 108.698 -3.84971
20.1176 129.703 2.51605
-13.397 93.8276 5.45565
6.72015 111.322 10.7698
4.25371 115.838 -1.42743
20.9927 125.557 11.4696
18.086 122.829 11.0812
6.18341 111.02 10.6814
19.7147 129.766 2.0663
18.2377 133.686 -7.41541
16.8548 129.819 -3.11061
1.61106 114.517 -3.55338
-12.478 94.394 6.53286
19.7077 130.663 0.75218
18.4413 125.699 7.20093
22.2832 138.085 -7.60899
9.65434 114.913 10.446
23.2694 134.189 1.03828
22.0678 131.57 3.63222
-15.4928 94.0687 2.20278
24.8286 139 -4.40783
13.961 123.449 3.41421
19.5899 123.775 12.967
18.5443 124.935 9.08336
8.92684 119.861 0.873072
5.62992 117.17 -0.301638
22.6315 138.586 -7.40967
19.1834 131.955 -1.95642
22.3975 138.439 -7.49394
18.4917 124.911 9.21827
7.18506 112.366 10.9909
15.7237 129.786 -4.22696
-0.492478 103.96 12.0269
3.0183 116.068 -2.85344
6.39721 111.733 10.7987
13.3944 128.106 -5.25775
20.3435 136.792 -7.83723
17.0054 130.623 -2.99522
21.2675 130.378 5.07141
21.5887 130.327 5.76924
16.0273 130.081 -3.71553
20.2454 126.923 9.35512
-13.9792 100.611 -5.6837
1.71771 115.333 -3.36798
-16.2924 96.9675 -3.25751
-0.260301 104.805 11.697
7.14102 112.771 11.0586
16.8667 126.899 3.72175
22.4656 132.789 3.47241
16.6936 129.16 -0.455144
17.9134 127.15 5.24321
10.1369 116.563 9.92766
-5.85777 99.52 11.2544
-12.2386 95.5098 6.92833
1.98584 107.795 10.929
9.03661 115.048 10.8754
-5.32589 99.9599 11.6408
9.53532 121.621 0.308674
19.9429 126.673 10.0823
-7.64062 107.411 -5.44694
6.38484 112.396 10.9118
18.7437 132.907 -2.82888
-11.8662 95.8715 7.32323
-16.9124 96.3825 -2.54023
17.4702 130.573 -0.939453
-10.455 96.8186 8.32378
-16.2192 94.6622 1.80716
24.7816 139.813 -3.97699
16.9437 129.701 -0.263372
1.12949 115.45 -3.42793
0.547626 106.561 11.1282
19.8777 126.142 11.4114
-16.9219 94.5116 1.05065
19.9175 125.793 12.1876
1.76624 108.005 10.9021
22.582 134.916 1.01769
-11.7665 104.012 -6.22387
9.33115 121.723 0.47555
19.133 132.581 -0.993616
15.7953 126.97 2.88439
23.8412 138.168 -2.2566
11.21 119.245 8.31316
3.974 110.598 10.5831
-11.7558 96.3972 7.48954
2.51004 116.976 -2.96337
11.4199 120.278 7.20893
5.45712 112.174 10.7523
12.8764 123.476 4.24607
23.7265 137.933 -1.64829
10.6738 125.517 -3.17682
19.9218 137.617 -7.73733
12.1161 122.416 5.0006
22.1673 133.572 3.45327
-6.1607 100.193 11.2981
20.0418 128.467 8.72974
10.6723 125.869 -3.38451
-4.87396 110.332 -3.83087
18.1221 128.361 5.69019
21.0258 131.03 6.22962
15.8988 132.816 -6.02756
23.7204 138.399 -1.76457
5.15375 118.748 -0.400146
-13.8316 96.3117 4.99518
20.3963 129.683 7.73443
-3.22493 102.763 12.7037
3.89476 118.265 -1.55038
-8.88515 98.8645 9.60724
18.3056 127.597 7.94254
18.3825 134.147 -3.37948
17.965 132.418 -1.04897
11.6607 122.072 5.80716
23.071 137.369 -0.552736
-15.1812 100.868 -4.95579
3.5894 118.23 -1.81466
-7.56873 99.821 10.5844
22.7246 136.681 0.18971
-15.1774 100.969 -4.97459
11.743 128.124 -4.41591
-1.40336 105.162 12.3275
17.181 135.389 -7.34089
20.6659 130.626 7.30878
-3.5003 111.882 -3.02955
5.32976 112.941 10.8918
11.3039 120.857 7.74117
-0.456778 106.689 11.5832
2.88797 118.163 -2.39807
-0.409804 115.238 -3.14728
16.3655 133.979 -5.94075
23.7367 139.467 -2.3785
16.7941 131.23 -0.32192
17.8762 125.923 10.9578
12.3142 123.951 4.51488
11.094 120.481 8.42055
2.08812 117.868 -3.0401
-16.5247 99.106 -3.43883
17.2714 132.295 -1.16229
24.1107 140.839 -3.85945
-1.8714 105.053 12.4319
9.39359 123.872 -0.37745
22.5763 136.85 0.48385
-14.0399 96.9448 5.04429
-13.5295 103.527 -5.51424
-15.9977 100.13 -3.9248
-17.1228 96.6731 0.117818
18.1324 128.708 7.03929
16.773 134.254 -5.08978
13.2903 125.946 3.31769
11.637 128.717 -4.48335
-15.9335 96.515 2.71556
22.4404 136.894 0.652383
0.166274 116.283 -3.05422
9.17235 117.739 10.5149
13.0428 125.784 3.43703
15.6598 131.822 -2.35566
11.0565 120.988 8.45387
-10.1023 99.2193 8.76422
5.03499 119.927 -0.40254
16.1717 131.694 -1.10001
-16.7057 99.2348 -2.98848
1.76547 110.215 10.7947
-4.33495 102.945 12.6313
-6.78554 110.324 -4.60438
16.8013 134.685 -5.1013
15.5798 129.13 2.47176
20.9822 133.443 4.58745
20.1485 131.087 7.45928
0.632029 109.207 10.9164
-13.8825 97.5539 5.50681
0.184316 108.701 11.1501
-7.5955 110.137 -5.08415
-1.34435 106.77 12.0442
7.34034 116.083 11.3228
3.9491 119.914 -1.39659
18.8288 128.42 10.2995
-17.2813 97.8749 -0.723151
22.7563 141.606 -5.65783
17.7681 127 11.0466
15.3575 133.537 -4.63655
21.3652 135.675 2.35125
16.1211 133.976 -4.00839
-6.42476 111.328 -4.62364
3.29805 112.561 10.6639
-8.07303 101.075 10.5081
-2.79031 105.241 12.6526
-8.88166 100.575 9.97708
-1.13271 107.459 11.839
8.2663 123.368 0.813132
16.6284 135.515 -5.49208
-12.4146 98.6452 7.18419
-13.7534 98.1342 5.75134
19.9475 132.274 6.26198
12.4069 125.645 4.46557
16.6929 134.778 -3.83614
0.62598 117.697 -2.62536
-5.82732 112.14 -4.3969
-15.7256 97.7172 3.17173
-5.8453 112.181 -4.41987
20.8808 134.405 4.46797
-1.94567 115.035 -2.34633
17.9094 128.26 9.97333
-12.9865 105.615 -5.5353
-9.81666 100.438 9.36502
-11.41 107.835 -6.36167
17.5598 135.504 -3.03588
21.078 135.819 2.80831
-10.8563 99.9731 8.51809
-17.357 99.0838 -1.39077
17.5827 130.449 6.19654
-14.3886 98.4377 5.14355
5.43663 121.433 0.350593
17.3993 131.167 4.79504
9.8647 120.743 9.59534
-6.01051 112.736 -4.67236
-14.3486 98.6686 5.20302
-9.65747 110.04 -6.281
20.8278 135.497 3.61437
-2.67823 106.425 12.5326
-8.26778 111.168 -5.64577
13.364 133.196 -5.49681
20.2999 140.903 -6.54158
19.5824 140.13 -6.43728
12.7639 132.454 -5.09957
20.8639 136.232 2.8206
21.8419 138.52 0.573666
-4.72466 113.803 -3.59098
16.082 134.456 -2.56512
-8.1891 102.22 10.5518
17.853 128.318 11.4247
13.2962 128.577 2.90132
7.54466 123.791 1.06751
21.3854 141.998 -6.05298
10.3313 129.505 -3.88708
-7.958 111.85 -5.64095
-15.9247 99.0437 2.59859
-10.2519 109.949 -6.34068
1.72487 112.467 10.7362
-16.0431 99.2526 2.16619
-15.6267 99.1651 3.08176
15.3012 135.39 -5.05013
18.2119 139.089 -6.23912
20.4827 141.487 -6.33436
-14.9868 104.441 -4.84011
8.33154 119.574 10.328
17.5879 138.542 -6.27839
-7.68963 102.973 10.8249
18.9264 131.811 8.046
20.5618 135.814 3.99944
5.46439 122.415 0.530942
-0.110112 110.63 11.2477
16.251 135.269 -2.62977
-12.3316 100.412 7.33335
-2.96267 115.562 -2.40615
-7.56053 112.668 -5.51324
5.56968 122.748 0.646683
0.58019 111.765 10.9916
-16.0295 99.8521 2.20908
4.80097 122.302 0.13145
17.3884 129.019 10.87
16.3998 132.972 2.2173
1.6466 113.079 10.7167
-4.00218 115.1 -2.82346
17.1475 129.484 9.82074
6.15611 117.756 10.7902
15.613 135.169 -2.73667
16.8591 133.11 3.12872
14.8456 131.62 2.16023
-1.79712 117.069 -2.02982
12.7397 128.204 4.47974
-13.9232 100.305 5.69897
20.3335 135.532 5.22968
2.63113 121.499 -1.79969
18.6117 131.258 9.6619
16.1939 136.994 -4.66951
6.78574 124.091 1.13367
-8.32468 103.354 10.448
-16.9227 101.671 -1.94543
1.20348 120.406 -2.13442
10.4075 130.924 -4.09448
15.9847 137.868 -6.10446
10.3005 130.891 -4.0423
1.60295 113.578 10.7378
18.7192 132.851 7.60836
7.18584 124.802 1.12287
12.8655 128.729 4.42301
11.172 125.326 7.37644
11.0844 125.053 7.70892
1.48041 113.536 10.7225
-15.4575 100.727 2.89515
-9.57525 111.951 -6.20346
8.76619 121.34 10.1503
5.02326 116.743 11.5817
5.22787 123.267 0.536632
16.3244 136.082 -2.04853
16.9339 132.139 5.98241
-8.24792 113.146 -5.74759
-16.3845 100.654 1.66921
0.0869748 112.08 11.1924
-17.0215 101.916 -1.56811
-13.2115 101.271 6.3687
20.6284 138.557 1.5537
-16.4935 100.758 1.492
16.8186 132.081 6.21853
-15.6599 104.633 -3.69448
-5.51863 115.355 -4.29571
4.86243 116.979 11.5098
-11.4802 102.274 8.06095
-12.3125 101.974 7.19917
5.98656 118.878 10.3515
-15.3301 105.623 -4.46671
15.081 133.025 1.90547
-14.7979 100.898 4.80346
10.9529 132.294 -4.14442
6.19108 124.614 0.957033
-14.9015 101.642 3.50955
6.69219 120.058 9.85054
7.12712 125.618 0.951421
-12.4938 109.725 -6.17621
-7.87822 104.781 10.7235
21.2258 143.62 -5.22632
1.37219 114.246 10.8184
-9.82505 103.735 9.34118
-2.48975 109.509 12.3928
-8.22852 114.008 -5.67108
-16.1133 103.845 -1.95689
-8.84859 113.549 -5.93137
-9.808 103.846 9.34216
12.178 128.393 5.70196
11.7471 127.722 6.14525
15.6502 137.671 -4.21406
10.9961 126.257 7.4648
-15.9318 104.461 -2.43512
16.159 134.736 1.96357
-15.0581 106.535 -4.38939
-0.369665 112.529 11.3864
13.0995 130.552 4.05466
15.1575 133.884 1.90538
17.1042 131.772 9.08599
16.5639 133.448 5.19849
9.40636 131.17 -3.52155
19.5869 136.708 5.0158
6.75188 125.908 1.0397
-15.8977 102.437 1.71663
-3.99079 108.281 12.816
-8.34672 105.225 10.4767
16.0049 138.42 -4.10571
16.2632 135.291 1.869
8.7285 123.116 9.86838
7.74502 128.114 -0.558308
11.6567 134.68 -5.01902
5.31867 119.524 10.3279
22.6418 143.959 -1.40372
-8.53394 114.639 -5.75628
19.6411 137.522 4.52859
0.893743 114.845 10.9282
15.8298 138.062 -2.8847
-6.10307 107.088 12.2687
22.2068 142.895 0.209317
-15.0893 103.761 2.10634
16.2399 133.709 5.76621
-10.0065 104.866 9.40312
-5.98542 107.342 12.3259
11.4792 128.259 6.97482
16.557 135.771 2.92153
-14.3132 109.094 -5.4671
7.47304 128.288 -0.112905
-14.9196 103.631 3.07147
-1.67835 112.138 11.8413
8.16701 130.539 -2.756
-16.721 103.263 0.618765
16.6472 136.141 2.7558
-14.4048 109.137 -5.42633
-2.98723 118.763 -1.87657
-16.5535 104.727 -1.51861
2.59999 116.784 11.6299
13.9463 137.989 -5.11735
5.44151 125.936 0.847619
19.8528 138.906 4.1292
15.9048 139.125 -3.29079
-1.18574 113.215 11.5814
22.3062 144.108 -0.458133
-7.77607 106.752 11.2124
19.8879 140.36 1.84518
19.1114 137.718 5.08653
21.7733 142.997 0.63067
9.95928 133.773 -4.32167
-15.5947 107.216 -3.44533
-16.5481 104.074 0.39893
-15.9034 106.55 -2.7341
3.79885 125.349 -0.44059
2.55337 124.342 -0.885359
-1.97391 112.497 11.7767
-13.9282 110.305 -5.67097
-5.68128 108.364 12.5226
-12.2445 104.653 7.35924
7.29976 123.533 9.27803
-3.38636 111.015 12.1198
13.8906 138.518 -4.9288
-15.4265 108.397 -4.56796
-5.27117 118.458 -4.03794
18.7673 136.71 7.02959
17.6665 135.427 7.48887
-14.045 105.019 4.102
22.024 144.291 -0.158889
-1.53375 120.814 -1.136
-12.8529 104.911 6.51148
1.52714 123.711 -0.70518
20.1483 141.482 1.54034
3.7492 125.883 -0.416141
9.16306 133.388 -3.73219
8.15545 131.898 -2.87507
-14.699 105.401 2.76158
-10.7556 114.517 -6.11627
16.6823 137.128 3.48579
-16.5696 104.79 0.790328
20.238 145.376 -4.49108
6.43415 128.215 0.892201
10.7207 128.632 7.9387
20.4929 142.354 1.44028
-13.533 106.002 4.31209
16.313 134.94 7.16808
-16.3566 107.093 -2.41217
-13.2937 112.204 -5.72759
7.60125 131.712 -2.53061
-17.0542 105.494 -0.652007
-12.4011 106.121 6.60882
-2.2039 113.727 11.5826
14.0574 135.579 2.48207
8.55259 126.186 9.20322
0.681015 116.898 11.4023
3.68181 126.708 -0.38033
16.2555 135.445 6.8026
4.54706 121.57 10.2778
6.90461 130.227 -0.513838
-16.9741 106.391 -1.41382
14.5733 137.155 1.11822
-15.7364 105.893 1.90026
-1.19323 115.477 11.1421
-1.60928 115.041 11.2153
-12.1935 107.586 5.41571
-12.2515 107.683 5.17927
-15.957 105.881 1.77267
-15.1161 110.565 -4.8601
16.3996 137.203 4.81827
-10.2977 107.544 9.05245
16.1129 136.462 5.64376
11.4712 131.428 6.23741
21.5228 146.012 -1.19475
-16.1717 108.911 -3.58207
21.5405 145.634 -0.462922
-11.3425 108.369 6.02531
5.92051 124.552 8.55976
-10.9763 108.461 6.65872
9.93401 128.724 8.56543
18.6658 144.928 -4.17255
7.27635 125.744 9.14569
-5.71542 120.09 -4.08787
16.9223 143.339 -4.32482
9.83193 136.319 -4.61534
-11.2846 115.34 -5.5622
1.61958 118.741 11.5636
-4.32708 112.297 12.2378
-14.6351 111.704 -5.05472
-14.3849 107.259 3.31642
-13.6764 107.669 3.89498
19.1219 141.28 3.70204
5.75473 124.969 8.4564
16.6126 138.318 4.49626
3.93185 121.921 10.5604
10.1271 129.654 8.26307
21.3162 146.028 -0.396611
-1.33473 123.176 -0.839844
4.87133 123.622 9.56556
12.5962 135.98 1.75808
12.6609 136.133 1.62217
16.433 137.283 6.42228
17.2926 144.131 -3.97357
11.7119 132.665 6.22259
13.9948 141.285 -4.75788
10.743 138.578 -5.77191
-4.29282 112.986 12.2502
18.9005 140.707 5.18874
-16.7969 108.581 -2.29723
1.3389 119.297 11.3755
17.2122 137.794 7.4075
-14.8693 107.443 3.2517
17.8902 138.622 7.19651
6.72684 126.33 8.80198
6.42388 131.71 -1.09171
15.5847 141.994 -2.67792
18.7983 141.949 3.15648
0.518904 118.639 11.3744
16.5652 138.793 4.87497
15.7145 142.215 -2.50204
11.509 139.95 -6.02863
-2.86182 115.381 11.3852
17.7096 138.799 7.21974
-5.35108 112.18 12.6777
-4.62778 122.323 -3.53208
12.2605 135.663 3.35976
-7.03303 110.98 12.1222
2.99522 128.141 0.106977
-14.9869 112.565 -4.74388
4.57025 129.409 0.722329
-7.00123 111.112 12.1194
4.93649 125.304 8.62758
12.2038 135.595 3.64681
-12.748 115.135 -5.02656
-1.33744 117.411 11.4131
2.03855 121.015 11.1618
-12.0445 109.665 5.88541
12.4292 137.17 1.47203
-6.80318 111.403 12.2895
-15.9629 107.494 2.82379
-3.87343 123.129 -2.71013
-1.24737 117.807 11.3444
7.67407 135.701 -4.02618
10.9657 132.888 6.8026
4.96216 125.96 8.23863
-11.0042 117.605 -5.547
12.4668 136.834 2.78691
17.9666 140.258 6.65388
17.2241 139.81 6.21943
14.5571 141.712 -1.85633
-14.5794 113.738 -4.92321
-8.64016 119.657 -4.52844
-15.8728 112.091 -4.11634
1.92923 127.865 0.1253
-2.96405 116.541 11.2763
18.2117 142.223 4.20622
17.6069 145.596 -2.75827
-8.99257 111.233 9.93842
0.984052 120.824 11.0098
-15.3242 113.021 -4.42096
16.4637 144.131 -2.0693
-9.93058 111.337 8.19595
-1.142 118.642 11.1596
-2.55081 124.179 -0.96358
13.7198 142.262 -3.47892
17.3593 140.681 5.8294
16.561 140.71 4.37993
-17.0275 109.608 -1.15616
13.6118 139.405 1.4852
-0.429549 119.61 11.0649
11.4414 141.464 -5.92894
-11.6947 110.772 6.47689
7.20447 136.071 -3.94317
-6.26996 112.852 12.6335
20.3414 147.823 -1.03122
-16.4461 111.465 -3.09451
-8.37425 120.336 -4.19698
-3.30174 116.583 11.455
-17.196 108.891 0.161823
16.7778 145.141 -2.57291
-1.70732 125.177 -0.617164
-1.26655 125.615 -0.52968
12.4276 136.963 4.35199
16.6988 141.198 4.59207
12.839 142.544 -4.64598
10.327 133.136 7.33414
5.43837 132.483 -0.101454
12.2898 136.685 4.89325
-16.6368 108.904 1.87598
10.4707 133.487 7.28642
-1.55939 125.696 -0.504893
-7.11167 112.899 12.0749
14.9093 143.255 -1.707
17.8806 143.196 3.74253
5.47521 128.096 8.15334
5.55701 133.187 -0.581174
-14.8588 114.749 -4.67449
19.2521 145.735 2.06493
-16.8659 111.331 -2.15559
12.0912 137.692 3.46871
2.28807 123.47 10.8798
-8.24439 121.245 -4.02084
18.8664 145.36 2.26176
17.6605 142.086 5.92851
2.61177 123.969 10.9291
6.16615 129.087 8.35869
-10.2283 112.887 7.43945
12.7663 140.04 1.00738
4.13338 127.156 8.1647
-14.5064 109.912 5.10155
7.25386 137.566 -4.42243
11.6743 142.568 -5.25588
19.4888 148.506 -1.67486
13.5424 142.803 -2.3024
-16.3991 109.478 2.69263
6.79304 137.048 -3.93947
-3.64935 117.396 11.8074
13.6794 143.633 -3.12154
4.12772 127.722 7.84223
3.97847 127.485 8.06177
18.5694 148.558 -2.6923
12.761 140.541 0.988516
11.4955 137.234 4.55615
-16.9657 111.983 -2.04791
12.2467 139.933 1.24471
3.39557 126.173 9.63108
14.3891 143.863 -1.65954
10.3986 135.001 6.74878
-12.1964 118.751 -5.13552
18.9518 148.706 -1.89868
1.14999 129.521 -0.0922698
-4.25712 116.919 12.3156
-17.0634 110.15 1.31252
-9.14432 121.376 -4.1341
-1.80266 126.847 -0.561337
10.2955 135.044 6.74634
-1.37813 127.258 -0.440425
10.195 142.28 -5.98303
-6.4982 114.861 12.3127
-10.1744 120.918 -4.76553
-5.15498 116.025 12.8387
-3.16215 118.872 11.5385
12.1805 144.018 -4.91651
16.7114 142.966 5.28231
16.5094 142.876 5.0902
6.74575 131.013 8.45442
-6.38383 124.88 -4.14832
16.9134 147.37 -1.85309
17.0012 144.118 4.08194
10.0257 136.432 5.09495
11.971 139.339 3.53553
6.66391 138.246 -4.00258
-3.35312 126.416 -1.18963
-7.30051 124.05 -4.09809
5.01576 129.581 8.27033
-5.06569 125.518 -2.49624
18.71 148.992 -1.10615
16.7232 147.307 -1.64452
-12.595 119.222 -4.80503
-10.7073 113.934 7.836
3.98672 133.215 0.42657
-12.6566 119.233 -4.76423
14.773 142.314 3.98914
-11.7248 120.514 -5.1402
10.7486 143.677 -5.51519
-17.3078 112.129 -0.341028
11.4266 139.231 3.61882
-0.960461 122.45 10.9954
8.52822 134.129 7.52234
-13.6279 118.259 -4.27072
11.5129 139.477 3.56327
17.7177 149.207 -2.3016
-15.8185 111.197 4.37812
-6.55951 125.505 -3.99916
-8.63845 123.598 -4.36068
-8.00926 124.291 -4.44471
4.02237 133.905 0.223973
17.3927 148.992 -2.26219
14.7303 142.688 4.07944
-16.6846 114.681 -3.00378
16.5584 143.709 5.65527
14.8411 142.8 4.19891
15.8159 143.366 5.07318
5.68036 137.547 -2.82647
-0.0596979 130.419 -0.410313
6.57925 139.432 -4.28729
-8.423 115.862 10.2183
4.97348 136.107 -1.1852
11.784 145.274 -4.98316
11.0865 140.238 2.59184
0.0710667 130.731 -0.431659
13.4868 142.756 2.50291
-0.158549 123.816 11.3287
-17.3374 113.054 -0.461264
9.82484 138.604 3.34069
10.5496 139.562 2.96533
-8.629 124.467 -4.74961
-17.1646 112.802 0.50502
8.77781 135.821 6.58706
12.4443 145.876 -4.38378
9.1751 137.589 4.32258
1.24663 126.163 10.3448
10.318 140.174 2.04779
-9.73611 123.448 -4.42083
1.26875 132.19 0.101322
18.2199 149.271 0.533018
17.422 149.552 -1.3792
-15.3326 117.499 -3.77954
-16.0802 114.14 0.782957
-16.9655 112.381 2.34383
9.89459 139.944 2.14071
-8.51959 125.227 -4.87287
-15.2657 117.729 -3.76927
-8.0386 116.733 10.9463
0.48833 125.937 10.0756
-1.66954 123.134 11.2823
14.6922 143.935 4.37994
-0.226937 131.528 -0.502232
15.3986 147.654 -0.644598
-6.79591 117.658 12.224
2.44086 129.72 7.69492
-7.26351 126.615 -4.13638
-9.82763 124.546 -4.99794
-10.0237 124.304 -4.83198
-2.84365 122.189 11.7183
9.65237 144.788 -5.46067
-12.9014 121.41 -4.76204
11.7433 143.167 1.34895
13.3533 143.903 2.94526
-7.08728 117.864 12.0437
16.2014 149.455 -1.62493
8.21127 137.452 5.14685
-12.7607 121.871 -4.9653
-13.1665 114.573 7.12638
4.8823 138.139 -1.87035
4.47823 137.208 -0.909069
-6.58413 127.374 -3.43276
0.434854 127.052 9.7124
10.5183 141.08 3.43833
-4.34856 120.751 12.5664
-16.6929 116.953 -2.80347
-9.97666 125.172 -5.18505
-15.3393 117.997 -2.14112
-6.86655 118.688 11.8258
15.6668 148.907 -0.806938
-0.561742 126.57 9.39538
5.00488 133.746 6.9444
11.249 146.91 -4.85471
4.30452 133.025 7.04781
6.70874 141.918 -4.11142
17.4315 149.659 1.62478
10.6984 143.128 1.06848
1.58356 130.358 7.15491
-15.2996 114.348 5.02484
1.00994 129.155 8.25151
-15.8371 118.304 -2.7412
-13.7932 114.87 7.02332
4.30769 138.003 -1.08539
5.52463 134.704 6.89103
-12.0684 123.388 -4.61297
7.10488 136.518 6.6639
-11.9358 123.528 -4.5628
-12.175 116.174 7.87781
-16.2476 116.169 0.633427
-14.5798 118.526 -0.474461
10.6389 143.398 1.0722
16.9643 150.33 0.261918
-2.55021 124.031 11.4652
-14.8214 116.573 2.62123
12.1123 147.121 -2.71345
17.0923 150.362 0.574607
6.36069 135.72 7.04223
13.2862 144.868 3.40387
-16.3699 116.865 -0.510043
1.41476 130.752 6.9673
11.4185 147.21 -3.83194
9.8556 142.144 2.24674
-15.3575 117.028 1.2005
7.36277 137.911 5.31826
-15.4366 114.47 5.64546
8.73955 141.417 1.70185
-15.4092 116.636 1.97547
-4.61899 121.739 12.3412
8.49531 145.102 -5.05324
-4.06302 122.532 12.178
14.5651 145.86 4.67849
-7.61132 128.535 -4.43931
10.1199 142.428 2.92038
16.2201 148.863 2.68365
2.05185 135.771 0.392744
-15.2291 114.893 6.07285
10.0341 142.379 3.17291
-2.38881 125.132 11.2642
7.79885 140.567 2.50212
-6.96377 120.376 11.4738
3.45504 133.66 6.85666
11.1882 147.722 -3.79715
7.64451 140.301 2.86265
-0.961499 128.395 8.37926
6.48177 143.068 -4.00213
4.76866 140.636 -2.75546
14.0641 149.399 -1.41326
0.259317 129.411 8.95813
-14.2491 120.818 -1.86161
-13.8855 122.901 -4.701
2.85604 137.291 0.0348753
0.228338 129.851 8.39661
-3.48177 124.115 11.8169
-2.85575 125.043 11.3784
8.32537 145.795 -4.94906
11.7564 148.32 -3.16879
-15.2651 120.818 -3.25311
-5.67799 122.077 11.8632
9.63031 147.434 -5.16193
5.21589 136.211 6.65559
2.32623 133.097 6.98815
-15.275 120.915 -3.11592
14.7253 149.914 -0.228863
-14.2508 116.537 6.46705
7.45264 144.84 -4.29237
13.7845 149.677 -1.25709
-14.1855 121.354 -1.61474
-14.3798 120.833 -1.00835
4.5378 141.019 -2.53884
-8.3583 120.202 10.9396
13.5409 146.549 4.02333
-15.278 121.043 -2.78518
-15.8326 119.428 -0.920222
-3.65422 125.494 10.2273
-4.33362 124.002 11.6647
-14.0827 120.08 1.1345
-10.5977 118.576 9.99805
-0.71734 134.675 -0.443811
-15.0156 119.261 0.99627
-15.3212 119.287 0.443851
10.8276 148.367 -3.74687
0.521863 131.759 6.91887
1.94782 133.218 7.02112
8.95433 142.605 3.16963
-1.96654 128.565 8.24197
-3.82626 125.339 10.626
-15.324 116.257 6.04701
8.15861 146.48 -4.84258
-1.92677 128.855 8.09044
15.8253 151.577 0.0383574
-12.0624 118.057 8.9145
15.7305 151.174 0.660895
-9.07087 120.309 10.3893
-8.41881 120.79 10.7985
-3.85276 126.084 9.80735
-15.2335 119.766 0.550584
-15.2832 121.291 -2.14936
10.0696 144.697 2.16997
-5.42291 124.271 10.2991
-14.3115 116.254 8.46164
-15.2043 118.84 2.36684
1.04104 136.682 0.251147
10.2103 148.807 -4.57754
11.9833 146.803 2.10463
-0.52016 130.94 7.58105
6.84593 141.88 1.60857
1.49695 137.333 0.121961
-14.3958 120.735 0.797024
6.10845 139.36 4.83764
8.02689 146.834 -4.74156
-5.21513 125.467 9.01432
-13.0645 118.47 7.26501
-12.4212 118.366 8.59982
13.422 150.144 -0.826506
-13.2216 118.184 7.53561
-12.5782 118.332 8.48213
10.3401 149.1 -4.43004
2.56655 138.811 -0.295201
7.18535 142.897 0.862652
-14.9986 120.465 0.525827
-14.2509 123.393 -3.2439
-15.0305 120.455 0.51878
-2.62522 134.059 -1.12632
2.07085 134.28 6.9149
-16.2903 119.616 -0.0205659
2.19975 138.593 -0.137579
-16.0212 119.386 0.974461
-14.5385 122.591 -1.96259
-5.92413 132.394 -3.73254
-14.2281 123.152 -2.35756
-5.01585 125.507 9.99929
-5.05805 125.354 10.2777
-14.3175 116.653 8.97924
2.45558 135.076 6.71449
-3.81261 127.145 9.4023
-9.53514 121.005 9.99331
-14.4502 123.66 -3.42815
-6.31961 125.599 7.72067
-2.067 130.156 7.49669
-4.91481 125.531 10.5122
5.84563 139.959 4.52288
-5.44405 132.964 -3.3739
-0.995587 131.834 6.56898
-2.43336 129.637 7.85735
-0.852521 132.041 6.48314
-14.1796 123.045 -1.45185
-14.6781 122.724 -1.76872
-14.9892 123.126 -2.89522
14.8276 151.585 0.574431
14.8148 152.115 -0.339846
13.5212 148.779 3.19011
-14.5087 123.282 -2.21958
4.72302 143.614 -3.44236
-6.20928 133.145 -4.60198
13.5107 151.055 -0.42231
-14.0865 123.765 -1.8695
-13.9488 118.698 7.25204
-12.2777 120.028 7.93419
-12.5852 127.358 -5.42581
-13.8296 119.338 6.41142
-13.6384 120.625 4.50702
-13.6081 118.812 7.75589
1.09863 134.358 6.83478
-12.1415 127.084 -4.04894
6.26666 142.48 1.92259
-12.8085 122.308 3.24803
13.7236 151.455 -0.328593
1.02039 134.42 6.81047
-4.005 128.143 8.94559
-13.9726 118.123 8.7217
-15.5847 121.549 -0.0834247
-14.5966 120.707 3.20657
14.3059 151.334 1.22517
-1.75625 136.022 -0.654364
-8.35516 132.443 -6.15075
-13.3784 121.485 4.08716
5.23125 140.02 4.89519
-13.1285 118.753 9.39757
5.78437 142.862 1.02189
-11.7848 127.727 -3.86372
8.27049 148.562 -4.50667
6.77931 146.66 -3.833
-15.1315 117.169 8.65433
-13.4293 118.436 9.53929
-14.7669 121.633 1.55941
5.45418 145.307 -3.64815
-14.3326 120.649 4.2342
-13.2496 121.656 4.46798
-15.7565 120.354 2.31675
-4.1476 129.156 7.66509
-14.2973 122.563 1.10224
9.51846 146.568 1.64168
-13.8809 122.008 2.90558
-14.9467 120.259 4.0648
-2.22238 136.156 -0.98252
11.7615 150.758 -1.49528
-15.171 117.361 8.85836
14.0632 152.248 0.0164998
-11.5184 129.082 -5.114
4.87274 139.96 5.19089
-14.7851 119.693 5.5558
-14.2502 120.345 5.4468
-3.23729 130.569 7.24618
5.54234 141.801 3.27841
-12.76 120.072 8.64147
-0.627492 133.743 6.39548
13.0841 149.938 2.55252
-11.1518 129.784 -5.43903
-15.1581 120.798 3.17946
-13.2007 122.068 4.46015
-14.2223 122.157 2.48359
-15.8821 119.476 4.24653
-13.5688 120.244 7.10039
-13.8904 118.604 9.41307
-15.775 119.601 4.35639
-9.43083 131.791 -5.52179
1.75075 140.323 -0.439163
-9.31247 123.891 8.61274
-14.5099 120.455 5.41631
-0.666166 134.122 6.31625
-13.9035 123.783 0.85028
-13.8415 119.103 9.1594
-14.61 124.536 -1.70279
-17.8346 115.366 8.58696
-14.4126 119.122 8.20008
2.85331 142.193 -1.32175
-15.0284 117.942 9.2202
5.03811 141.496 3.85247
-13.4329 126.514 -2.76773
-1.66827 137.399 -0.780481
-17.0535 116.144 8.95196
1.17343 140.187 -0.408591
-13.1892 120.232 8.88801
-15.0909 121.297 3.63541
-15.2501 120.587 4.70674
2.61988 138.258 5.74066
-7.68337 134.533 -5.89576
-13.4812 126.551 -2.24611
10.2549 151.106 -2.79394
-8.54789 133.931 -6.31514
-18.469 115.486 8.24507
-9.0738 132.803 -5.25869
-13.5154 126.502 -2.16049
-10.4396 123.903 7.93637
-13.7898 123.16 3.33028
-5.56917 135.937 -4.28394
-12.2991 120.902 10.094
-19.3677 116.6 5.00931
9.50831 148.136 1.47004
3.56569 144.277 -2.38715
-14.7629 121.469 4.88162
0.134091 135.856 6.31371
-12.0898 121.198 10.147
-15.1402 120.326 6.23495
8.22363 150.17 -4.23366
-14.9221 121.993 3.82524
-13.6196 125.079 0.750971
-15.2583 124.183 -0.56348
4.84056 142.672 3.04372
10.7799 149.386 2.07122
-14.4494 124.251 1.08151
-11.0598 123.552 8.4003
-18.8231 117.511 5.116
4.45784 143.501 1.23672
-13.1579 125.535 1.24058
-13.7028 125.234 0.824883
-5.31262 136.46 -3.8323
-12.6255 122.331 7.94253
-8.76055 134.247 -5.93487
10.3921 149.406 1.79575
-5.50653 136.565 -4.12276
-15.2027 121.612 4.83463
-3.33772 137.862 -2.40507
4.02615 141.387 4.60884
-13.6341 125.196 1.42223
-14.3144 119.795 9.67853
-13.3384 126.323 0.00593078
-15.3023 120.791 6.20631
-15.772 123.74 0.233597
-16.2219 119.928 6.1396
-15.5921 120.713 5.99389
-12.2602 122.775 8.36947
-1.53741 138.98 -0.834938
-4.64909 137.292 -3.33482
-14.5082 123.715 2.82942
-12.3803 122.342 9.06827
-14.6805 123.512 2.95571
-19.279 117.812 4.82504
-3.35061 133.519 5.8743
-14.4596 124.046 2.68747
-16.1969 120.652 5.60683
3.86187 146.158 -3.14676
-15.9673 122.599 2.66925
-13.8479 125.651 1.11457
-14.5895 123.824 3.01182
-16.3511 118.517 9.16438
-15.2665 121.3 6.26095
-15.8714 120.6 6.46235
7.70731 150.614 -3.93743
11.5345 151.092 2.11812
-12.8615 122.216 9.0861
0.861746 141.784 -0.613956
-0.372366 136.723 6.04954
-16.1536 120.801 5.76983
-10.1867 124.991 9.19509
-15.9609 121.049 5.86725
1.13083 138.663 5.66015
6.08229 149.062 -3.50323
-16.549 120.475 6.11362
11.1752 151.107 2.03299
-12.6125 123.032 8.7648
9.95892 150.04 1.81956
-13.848 121.21 9.76066
-0.462482 137.12 5.93072
3.71315 142.598 3.8452
-15.0254 122.123 6.24858
-10.8156 124.451 9.71308
-14.3219 120.424 10.5188
11.5694 152.968 -0.152767
-12.0373 123.151 9.90493
-12.5624 123.288 8.77296
-2.31281 135.247 6.24889
0.829635 142.459 -0.688491
-13.3476 127.194 0.729128
-15.2916 121.308 7.58269
-17.2245 120.61 5.52464
-11.3826 124.55 9.10737
0.852409 139.107 5.5698
-13.3207 122.012 10.2413
-13.1864 127.875 0.305786
-18.4952 119.945 4.81086
-4.32993 138.92 -3.00359
-9.79916 125.788 10.2307
10.837 152.892 -0.257212
3.39427 143.17 3.59715
-13.0481 122.356 10.7545
3.54611 143.838 2.86045
10.6098 152.925 -0.385001
-14.5799 126.405 1.16096
-16.5442 119.292 10.1916
-18.2506 118.009 9.51568
-10.862 132.211 -2.03821
-15.0586 121.96 8.46178
0.258959 142.862 -0.74351
-5.45369 131.953 8.22747
-14.1665 127.444 0.574592
-3.72327 134.867 6.25219
9.2186 150.721 1.6324
-13.0803 129.654 -1.31418
-16.6132 123.703 2.79614
-13.3325 128.222 0.754328
-17.2815 118.899 10.0929
-20.0661 118.378 6.0678
-14.9191 127.507 -0.652527
-1.4618 141.488 -0.980235
-2.35843 136.828 5.62864
-17.5597 118.83 10.0585
-8.32514 136.772 -4.80796
1.54886 145.033 -1.37892
-12.0018 124.487 10.3809
-15.0229 126.645 1.26257
-13.0541 123.589 10.2591
-19.8679 119.594 5.22044
-9.23237 135.936 -4.36612
-17.4549 119.297 10.1636
-17.102 124.949 1.01449
-12.2644 124.544 10.435
10.9958 153.808 0.786159
-15.9984 126.144 1.12768
-14.2354 122.303 11.0084
-15.9298 123.231 6.37787
-8.81969 129.057 8.89017
8.23647 150.595 1.66786
-17.6201 123.03 3.73959
-12.5938 130.691 -0.636339
1.31388 145.324 -1.37372
-16.7369 125.604 0.944115
-12.2523 131.197 -0.829295
-16.0951 123.31 6.2004
-16.9497 122.959 5.43514
-15.9558 120.985 10.7148
-17.9012 122.377 4.87909
-16.5332 124.999 2.7413
9.74199 153.681 -0.502899
-16.6675 125.991 0.821812
-17.6679 119.857 10.247
-16.8342 125.295 2.35447
-15.7551 121.539 10.8573
-14.0928 129.273 0.32687
-4.0994 136.626 5.55349
-18.0393 122.799 4.87021
-16.0482 127.976 -0.632368
3.62332 149.571 -3.05201
10.0682 153.645 1.33577
-17.8304 125.546 0.978973
-15.0493 122.663 11.0778
-5.06742 141.462 -3.93001
-8.26345 138.901 -5.04834
-16.4938 127.948 -0.546115
7.72931 153.405 -1.76776
-12.3733 125.455 11.4436
-1.04965 140.73 5.06621
-1.38518 140.524 4.86792
-12.1616 132.588 -0.473288
1.84423 144.732 3.29084
-18.333 120.217 10.2341
-13.2167 125.752 9.79378
1.28508 144.222 3.69229
-6.95175 132.486 9.53601
-12.9558 125.991 10.1844
-17.1715 125.979 2.7582
-4.82259 136.645 6.2315
-2.54809 139.968 4.56817
-2.77859 143.347 -1.66833
-5.79204 135.321 6.99758
3.92124 150.928 -2.96003
-9.96236 129.558 9.65182
-12.6827 131.919 0.73826
-12.8863 131.66 0.875652
-14.2115 130.504 0.571945
-7.0017 132.776 9.49054
-6.37518 133.959 8.6329
-11.6154 134.397 -1.44296
-14.5231 130.768 -0.183468
-4.8615 136.957 6.28074
-13.6286 131.249 0.626213
9.12621 154.492 0.638181
-13.3302 131.008 1.78565
-14.2186 130.579 0.973731
-16.8075 122.335 10.8917
-20.4531 120.104 8.36103
-11.7829 134.452 -1.2606
-17.9178 124.479 5.23727
-17.9097 121.462 10.5527
0.451453 147.031 -1.39171
-19.9981 122.445 5.19833
8.06838 153.233 1.49067
-18.2645 124.346 5.04312
-19.6523 123.025 4.93214
-20.6724 121.229 6.30734
-16.2124 123.089 11.1413
-16.3376 123.033 11.1057
-18.8291 126.126 1.28384
-11.3504 135.672 -2.04954
9.26891 154.819 1.29362
-4.58623 138.502 5.30953
-13.2374 132.364 0.691489
-3.027 144.272 -1.89364
-12.8281 132.83 0.646914
-10.0315 130.942 9.04897
-5.12684 143.28 -3.71954
-9.65495 138.992 -4.2543
-3.93668 139.929 4.38048
7.02717 154.242 -1.07842
-19.7669 123.782 4.39001
-5.86866 136.596 6.80437
-10.4653 130.572 9.15495
-18.8177 125.309 3.45431
8.86159 154.861 1.25823
-20.8096 121.906 5.98387
4.48988 152.802 -2.86733
-2.04085 141.8 4.72733
-20.7467 121.068 7.61917
-19.149 126.145 1.83336
-17.3731 122.828 10.8594
-15.8901 130.158 0.828045
-3.5099 140.716 4.53616
-12.6857 127.634 11.0904
-7.21846 134.049 9.64721
-8.24387 141.315 -4.72903
-13.9033 132.395 0.866289
-17.9431 126.897 3.27485
-11.4281 129.617 10.2431
-18.8479 126.598 2.28451
-13.0906 133.237 0.986554
-13.6158 132.8 0.845137
-7.92775 133.451 9.90832
-11.8042 136.545 -2.3753
-1.69146 143.108 4.20391
-17.3143 129.331 0.507751
-18.0875 126.452 4.18855
-18.4491 126.103 4.45517
-4.74893 139.918 4.75971
-13.462 133.185 1.07592
-10.1618 139.175 -3.50213
-12.5572 128.827 10.4426
-2.26001 142.86 4.40462
-9.19138 140.524 -3.82848
-13.353 133.968 0.295583
-17.7274 128.834 1.58359
-8.8012 133.167 10.2061
-12.6046 129.379 10.0598
3.69646 153.236 -2.56919
-19.6452 125.312 4.70099
-16.6514 130.519 1.01904
-19.5807 125.541 4.8314
-7.97574 134.673 9.6439
-13.0472 134.311 1.23014
-3.75678 145.904 -2.42302
-9.4186 140.784 -3.49947
-19.5478 122.747 10.0279
-8.84785 133.695 10.0672
-9.22566 141.262 -3.78141
-14.7583 128.117 9.35404
-8.40358 134.357 9.78704
0.396224 150.2 -2.08954
5.93484 155.197 -0.863449
-18.4908 126.446 5.86839
0.0137769 149.773 -1.85221
-17.6477 124.47 10.9866
-5.75692 139.597 5.85875
-7.88376 143.307 -4.42837
-6.70284 138.093 6.95674
-5.05028 145.809 -3.43424
-20.7838 123.025 8.34399
3.70963 154.024 -2.04892
-16.25 126.769 10.2385
-6.24723 139.226 6.36126
-17.3207 131.028 1.11884
-8.15669 135.664 9.55452
-8.27927 143.458 -4.26493
-11.9106 136.953 0.644468
-16.6245 126.485 10.6023
-19.3392 125.297 7.96612
-13.8691 130.157 9.24744
-18.1804 128.771 4.02026
-12.6576 137.197 -0.61235
-9.91278 133.572 10.6609
-3.60154 147.374 -2.17498
-12.6783 137.922 -1.69355
-18.0354 130.263 2.2461
2.71769 154 -1.96091
-6.28494 146.055 -4.13191
-1.96624 148.899 -1.39563
-18.0773 129.6 3.66171
1.95372 153.445 -2.25554
-17.9189 130.177 3.07515
-6.13921 140.64 5.85929
-6.50423 140.008 6.40664
-7.68668 137.119 9.36337
-12.4896 137.737 -0.276591
-11.1736 140.383 -2.3642
-18.6087 127.441 7.13425
-12.9001 132.028 9.31938
-3.82951 144.72 3.46692
-16.4093 128.488 9.77735
-18.7364 127.056 8.21024
-18.9514 126.693 8.84599
-17.9349 130.65 3.79478
-11.7501 138.867 0.553757
-11.7174 139.263 -0.0785615
-1.50405 150.447 -1.39691
-13.2074 132.269 9.55062
-11.1274 141.371 -2.49297
-14.1508 136.359 1.01943
-18.411 131.23 2.38744
-12.287 133.002 10.224
-19.5922 125.498 10.443
-14.0688 131.511 9.81986
-7.63749 139.158 8.0174
-18.9018 128.116 7.28426
-15.138 135.526 1.14161
-18.904 128.473 6.76319
-19.1576 126.099 10.6021
-18.3446 131.74 2.20157
-7.23196 146.599 -3.90468
-6.50404 141.902 5.80689
-11.5461 141.41 -2.12661
-5.7852 148.238 -3.50576
-15.997 134.96 1.5116
-6.61712 147.539 -3.729
-9.69067 144.336 -3.56979
-4.12041 149.317 -2.32921
-16.8531 133.969 1.92311
-9.08498 137.467 9.78726
-12.1764 133.767 10.9707
-4.46386 146.044 3.37822
-18.6927 129.442 7.07036
-8.92488 137.932 9.72379
-0.526134 153.299 -2.1253
-11.9156 139.836 1.25826
-7.89054 146.869 -3.78388
-17.4345 133.367 2.80551
-9.07758 145.774 -3.93527
-12.2346 140.443 -0.205919
-4.8869 149.46 -2.81177
-1.64049 152.171 -1.56654
-13.6502 133.343 10.07
-14.8607 131.953 10.4106
-6.30223 143.801 4.9673
-12.2596 139.611 1.7509
-19.1739 127.911 9.89073
-8.063 140.386 8.01982
-19.076 129.114 8.12712
-5.29065 149.583 -2.98285
-17.2017 133.667 3.65445
-1.20557 153.237 -1.85159
-8.02513 147.348 -3.65681
-2.47565 151.918 -1.63226
-7.52976 147.957 -3.55112
-19.0614 129.383 8.48739
-13.8244 133.644 10.4173
-17.7081 129.843 10.1463
-8.55491 139.701 9.25623
-2.10026 152.716 -1.56249
-7.90441 148.019 -3.50452
-17.8159 131.913 7.10788
-16.8755 134.299 4.69499
-4.64196 150.811 -2.27994
-17.1969 134.009 4.81757
-19.1928 129.3 9.53804
-19.1386 129.414 9.451
-17.2615 134.004 4.9395
-15.5073 132.521 10.7448
-11.6428 143.016 -0.547047
-12.7333 135.083 11.4732
-15.7426 132.474 10.7332
-12.2078 140.955 2.25869
-11.5191 136.724 10.919
-14.0345 138.896 2.71328
-7.43574 143.624 6.27186
-14.0402 138.973 2.72825
-17.428 134.036 5.34055
-11.7538 136.626 11.0062
-11.2529 144.311 -1.51226
-7.23189 149.414 -3.18689
-5.05063 148.28 2.84117
-7.04284 145.195 5.10145
-8.20586 142.419 8.1527
-17.4616 134.325 6.0047
-13.3615 135.386 11.4913
-18.0063 133.212 7.34912
-15.9724 137.084 4.26009
-15.4417 138.137 3.38328
-16.29 136.56 4.78548
-17.809 134.18 6.40829
-16.7018 135.926 5.39099
-11.9525 143.755 0.315089
-14.0113 140.19 2.92866
-12.7192 141.705 2.61522
-15.7442 137.966 3.94994
-7.70176 145.147 5.82907
-16.7822 135.597 6.5041
-13.3918 136.487 11.126
-5.66625 152.113 -2.32379
-17.7319 132.664 10.1746
-9.29101 141.948 9.46798
-7.44531 146.371 5.04504
-17.8036 133.356 9.39902
-6.69596 151.439 -2.3286
-16.0643 134.279 10.9792
-11.701 144.308 1.32333
-11.7276 145.209 -0.0458462
-16.539 136.663 6.34796
-18.0626 134.24 8.03553
-11.2087 146.45 -0.965075
-10.3046 147.973 -1.9042
-16.4501 137.271 6.0251
-7.51756 147.098 4.81255
-17.4384 135.258 7.8747
-12.3962 138.826 10.6492
-16.4477 137.689 5.51028
-6.23255 149.842 2.51836
-17.9001 134.095 9.47381
-7.46411 147.659 4.41257
-16.7154 134.71 10.6246
-12.1756 143.423 3.49265
-14.6809 140.685 3.88015
-16.4088 138.026 5.45502
-6.35244 150.429 2.25886
-11.4968 140.789 10.1658
-15.1178 140.403 4.38057
-14.2383 141.604 3.88995
-11.8134 145.215 2.51954
-10.045 143.67 8.85354
-16.9632 136.262 9.58143
-16.4059 137.033 9.68042
-11.9563 145.338 3.09861
-16.0759 137.207 9.98185
-9.84293 144.687 8.02691
-6.45712 152.04 1.38296
-6.90979 151.243 2.05497
-15.9223 139.829 5.98102
-9.47682 150.356 -0.852489
-9.82664 150.148 -0.712891
-8.01261 149.828 3.29785
-8.85344 147.872 5.27285
-15.4997 138.733 9.39764
-10.7192 144.025 8.70976
-7.49634 151.207 1.9618
-15.0818 138.963 9.8412
-11.2962 147.944 0.897067
-10.2531 145.161 7.69857
-15.1693 139.783 8.85163
-8.82989 151.482 -0.24198
-12.1365 145.18 4.97875
-7.17954 153.363 -0.264351
-14.9609 141.931 6.15071
-11.6793 143.73 8.88645
-8.26149 152.29 0.0435318
-14.8872 140.557 8.80877
-9.99259 150.497 0.287094
-11.174 145.346 7.51059
-12.1944 145.752 5.11863
-11.3919 145.098 7.74932
-10.2273 150.272 0.814482
-12.1163 146.417 4.38848
-9.29815 150.983 1.55234
-10.0098 150.715 1.03789
-13.611 142.88 8.52403
-10.1954 150.495 1.32893
