ply
format ascii 1.0
comment Created by Open3D
element vertex 1950
property double x
property double y
property double z
end_header
-14.7574 127.38 -2.34333
-14.5165 131.469 -5.5528
-14.4721 128.816 -3.87814
-16.9534 122.069 6.52516
-17.5678 123.562 7.04377
-20.112 139.811 2.68043
-12.6085 110.982 3.41709
-19.406 129.897 7.52836
-1.28296 92.5726 -11.8672
-17.9394 136.556 -0.292575
-17.7026 124.227 7.18692
-15.3346 131.585 -3.26961
-7.84831 114.124 -9.88718
-15.3196 132.494 -3.80284
-14.0493 118.82 2.14539
-15.3327 130.023 -1.98546
-9.31114 94.7234 6.47752
-14.4061 132.072 -5.26372
-11.1314 99.1522 8.26779
-3.15194 102.334 -13.0548
-10.4423 97.3441 7.82033
-6.25883 84.1839 6.3953
-14.5304 130.386 -3.70019
-20.5673 137.338 6.38825
-3.13029 102.6 -13.0696
-18.9936 129.963 7.5656
-15.2098 131.574 -2.61072
-6.35862 110.934 -10.513
-6.27571 84.6572 6.46213
-13.0536 110.424 6.06353
-20.4433 137.067 6.57612
-10.9967 99.292 8.40061
-3.58752 104.949 -13.163
-19.8573 140.433 3.0407
-20.2264 139.29 4.6792
-13.2174 131.495 -7.09896
-17.6437 137.493 -0.270316
-4.03886 106.656 -12.9996
-16.5297 134.967 -1.26131
-13.2054 110.206 6.83869
-12.2764 111.305 3.91069
-12.3901 104.536 8.69453
-18.7322 129.869 7.54774
1.7923 76.7328 -7.37786
-13.3376 119.277 1.45907
-10.6384 98.7577 8.34888
-19.5018 132.562 7.73758
-12.6602 117.112 1.30118
-7.55492 114.982 -9.57123
-14.0915 119.665 3.22463
-13.6104 131.852 -5.80577
-8.71329 118.614 -9.00619
-6.84591 88.9374 5.85203
-14.8995 131.641 -2.35985
-0.532749 92.793 -11.7411
-4.89414 109.031 -11.7382
-3.06919 78.782 3.61808
-6.09382 86.153 6.1634
-17.6413 138.42 0.0218667
-1.53335 97.2906 -12.0203
-19.8522 134.605 7.90993
-12.6421 117.847 1.46474
-15.192 133.571 -2.61397
-2.81827 103.893 -13.1388
-6.90689 114.075 -9.82206
-4.40953 108.569 -12.1521
-18.0839 139.538 0.755392
-16.0373 135.238 -1.38368
-19.3474 141.61 2.48246
-16.6459 137.236 -1.17556
-19.6125 134.441 7.956
-10.8394 126.858 -8.27206
0.704246 88.0778 -10.7526
-13.0555 108.239 9.3392
-15.3175 136.319 -3.47207
-17.2599 126.308 7.738
-15.2457 134.238 -2.25184
-4.86372 109.954 -11.4817
-15.3131 135.907 -3.04203
-18.8267 132.7 7.59251
-4.75282 82.8436 6.17143
-7.96208 118.07 -9.01774
-13.7167 120.18 3.58681
-7.21517 116.074 -9.40298
-12.6862 119.226 1.77768
-19.7277 137.117 7.12758
-15.0062 121.858 5.67186
-1.96684 78.2449 2.60775
-12.4925 112.134 5.96912
-12.9496 108.477 9.49076
-16.6673 138.209 -0.889319
-9.8421 98.3805 8.58765
-12.4152 112.218 5.80279
-19.6681 139.141 5.85556
-4.96221 83.7075 6.48144
-13.9839 135.167 -5.23175
-5.46212 111.816 -10.5759
-13.7816 135.078 -5.63236
-19.623 136.394 7.62387
-13.7083 134.836 -5.61778
-13.1105 119.943 2.82613
-15.7364 123.676 6.86365
-1.32218 100.682 -12.8665
-5.64819 86.6442 6.74389
-12.1712 132.88 -7.46114
-1.40389 78.0143 2.28567
-3.75022 109.043 -12.2482
-19.3262 135.964 7.87633
-11.0332 131.708 -9.31634
-6.41753 90.7934 6.23203
-13.7606 135.596 -5.19346
-2.19594 105.001 -13.1651
2.3193 82.2422 -9.23742
-13.4522 121.552 3.4835
-7.5772 94.4977 7.00112
2.13181 84.5948 -9.95651
-16.5759 139.522 -0.514819
-2.68238 80.4422 4.47331
-17.0518 140.476 0.0792005
-12.5434 108.661 9.92704
-7.83762 119.662 -8.58216
-13.1973 135.738 -5.99338
-4.84725 85.0484 6.94363
-9.12969 125.525 -9.06366
-12.1046 112.792 6.41178
2.586 82.4392 -9.23165
-10.589 131.399 -9.28563
-9.81727 126.817 -8.15966
-11.1095 104 9.83983
-13.4468 116.698 7.24533
-12.3681 119.772 2.66107
-14.5372 136.395 -2.90776
-13.2695 116.806 6.79458
-14.7491 135.985 -2.089
-12.0835 111.984 7.2096
-6.55841 116.673 -9.17231
-12.1957 134.031 -6.78835
-0.220234 98.5604 -12.4347
-14.7704 139.22 -3.66057
-14.2924 135.94 -2.67035
-14.64 136.547 -2.20354
-11.9173 112.786 6.84933
3.59302 76.5249 -6.91273
-16.1005 126.917 7.81581
-13.3079 120.814 5.06105
-8.98983 126.113 -8.78828
-12.3041 109.831 9.8412
-17.8262 143.049 1.56726
-14.8017 139.646 -3.45087
0.990536 93.728 -11.6655
-13.096 121.813 4.08823
-12.0699 110.314 9.15644
-12.2377 114.626 6.78633
-4.95114 86.5575 7.48103
-0.684858 102.191 -12.9892
-13.3597 121.775 4.8765
-11.6052 134.114 -7.38805
-14.2883 137.647 -3.11511
-13.0219 136.684 -5.52135
-11.9579 135.583 -7.37259
-15.5174 125.823 7.62094
-3.26677 110.651 -11.9589
-12.2998 118.301 4.87955
-2.39914 108.525 -12.6514
-7.15817 95.3568 7.45794
-9.73761 129.127 -8.22223
-14.1014 139.719 -4.58176
-18.6283 141.639 5.20855
-11.7006 112.433 7.54469
-12.2046 118.798 4.61864
-10.7465 105.193 9.96487
-7.49992 96.1865 8.0438
-14.8737 124.971 7.11132
3.19751 83.0778 -9.20696
-16.1654 141.921 -0.759678
-6.47107 93.8888 7.19559
-11.6471 112.151 7.81294
-13.439 123.659 4.65088
-14.4569 124.442 6.63086
-14.1996 124.029 6.28066
-12.8586 120.294 5.50628
-16.2425 129.233 7.85635
-9.17979 127.83 -8.21345
-12.4769 115.967 7.53611
3.89315 77.9374 -7.14985
-18.4817 141.527 5.58686
-0.81894 79.1542 3.67213
2.88455 87.3462 -10.5489
-12.3515 119.138 5.64537
-12.055 115.485 7.5512
-0.0534126 78.1054 2.92728
-9.17828 128.683 -7.97173
-15.9985 129.856 7.74502
-18.2111 138.243 7.63487
-2.33187 82.5349 5.61687
2.05463 92.2216 -11.1738
-14.471 141.516 -3.3803
-9.29738 130.43 -8.64449
-0.771918 79.4956 3.95121
-7.22569 96.6204 8.39409
-12.3848 119.765 5.8593
-11.5489 109.513 10.5317
-11.7812 112.009 9.4782
-4.44917 87.7356 7.58759
-10.1671 134.374 -8.95192
-7.94801 98.2166 9.24343
-10.6772 135.418 -8.2498
-11.723 114.927 7.69014
-0.470818 104.935 -12.9223
-18.1193 142.228 5.44644
-2.59475 111.441 -11.957
-13.035 119.789 7.9808
-1.54093 81.1915 5.37433
-12.9692 120.56 7.34092
-12.3476 116.375 8.56564
-13.9167 141.906 -4.15687
-14.6336 141.486 -2.13889
-18.0356 139.746 7.2218
-13.0175 123.298 5.9357
-13.1584 121.857 7.23776
-8.92895 102.1 9.89602
-13.6478 141.46 -4.2921
-8.80494 129.341 -8.0825
3.12443 89.4999 -10.8938
4.3425 81.7522 -8.78758
-13.3999 124.727 6.14482
-16.2011 132.697 7.79257
-11.3851 110.34 10.7277
-17.519 144.201 3.6238
-12.7622 125.509 4.36508
-12.4974 117.876 8.81353
-17.6605 143.377 4.67197
-6.37757 121.244 -8.12921
0.0361099 79.6244 3.50879
-5.21989 118.038 -8.80711
-10.5261 136.238 -7.84873
3.17197 90.3172 -10.9659
-0.214257 79.9968 4.03048
-1.95503 111.152 -12.0512
2.68564 92.9422 -11.3053
-11.4748 112.819 9.94216
-15.0714 143.411 -1.27264
-0.00573679 105.357 -12.8566
0.416779 77.9857 3.95646
0.640543 102.858 -12.7717
3.2065 90.6599 -10.9853
-4.94833 117.935 -8.84045
1.06255 78.9603 2.06678
4.58363 82.8061 -8.93075
4.93258 79.3639 -7.522
-7.37489 126.775 -8.65556
-12.2216 116.682 9.80096
-16.9531 136.44 8.36254
-6.70835 97.4651 9.05552
4.77808 82.4264 -8.86525
-15.5813 144.094 0.123657
-8.46658 102.759 9.96264
2.71698 95.0178 -11.9891
-5.49422 120.17 -8.49572
5.5888 75.2065 -5.92945
1.2066 78.386 2.61642
4.95869 81.5652 -8.48085
-1.30552 110.385 -12.0716
-12.1506 125.057 4.58228
-12.4782 140.8 -4.82529
-3.86184 116.005 -9.46334
-12.5955 126.187 5.0604
-17.2135 143.823 4.77017
4.52264 84.6416 -9.14493
-12.6359 121.494 8.42924
-2.88727 114.606 -10.6151
-10.9654 112.749 10.113
-5.84231 121.675 -7.96955
-12.1 140.629 -5.12597
-9.46642 136.163 -8.54534
0.773202 104.875 -12.8852
-7.02208 127.108 -8.37592
5.46987 78.5755 -6.9022
-11.1801 139.796 -6.52724
-16.9336 144.344 4.41423
-12.9021 126.722 6.21198
-9.92656 137.014 -7.65373
3.13279 95.0983 -11.8787
-4.00641 117.234 -9.05768
4.76761 85.6396 -9.60733
-7.64496 129.522 -8.15586
-12.2225 141.542 -4.91464
-14.0167 144.227 -2.30624
-0.156138 81.2612 5.2853
-5.09692 94.3675 8.68066
-0.735492 82.4195 6.00047
-13.9057 144.23 -2.41012
-5.09941 120.784 -8.3777
-3.96595 117.564 -8.96125
4.46863 89.0333 -10.7046
-11.9603 123.078 6.81793
-3.04553 87.8005 8.39588
-10.9308 114.162 10.2912
-2.93993 87.4084 8.43105
-16.2805 145.261 2.96841
-15.1895 144.993 0.593933
-12.1634 120.895 9.0493
-16.4918 138.572 8.01168
-6.13345 124.853 -7.99884
5.81063 78.9478 -6.9295
1.52859 79.8457 2.82574
-12.0867 126.881 5.06621
0.492848 107.064 -12.352
-16.8235 143.472 5.76813
-10.2699 111.552 10.7759
-4.37658 119.392 -8.51521
-11.4795 140.938 -5.39147
-9.88565 109.838 11.0337
-11.411 124.791 5.01091
-9.59153 108.795 11.2454
-5.29463 122.055 -7.758
-16.7172 143.505 5.8515
-8.26322 105.357 10.3039
-14.4178 144.62 -0.401585
-15.4085 145.759 1.28084
-11.4281 117.493 10.1235
-16.5454 144.434 4.94405
5.84324 81.7902 -8.29893
2.76859 98.8346 -11.9566
-2.3797 115.91 -10.5658
-12.0489 121.599 9.11467
-5.65417 97.6421 9.27986
-16.6198 143.579 5.86907
-16.5883 143.91 5.6179
-9.61095 109.943 11.0085
-9.89279 138.516 -6.89871
-1.12215 84.479 7.16921
2.68625 78.2701 2.07883
2.27388 101.699 -12.1666
0.39669 81.5552 5.51759
6.04758 81.8083 -8.24087
-15.712 137.168 8.30478
5.21133 88.2258 -10.261
-11.1332 125.519 4.95235
-0.880106 84.3472 7.13053
-14.6667 133.547 8.45187
-11.0921 118.26 10.0526
-3.32851 118.819 -9.00799
-2.25816 87.8497 8.68402
-4.34453 95.0226 9.23901
-2.18423 117.074 -10.3116
-11.6035 143.763 -4.8969
-11.7838 144.143 -4.70609
-1.39741 86.1423 8.02191
-0.685516 113.771 -11.5961
-11.4388 127.533 5.43309
0.100421 110.788 -11.5152
1.05361 108.074 -12.006
-13.7815 132.135 8.14674
-10.6123 124.687 5.42524
-13.349 131.308 7.77805
0.463054 82.4524 6.25116
-5.62909 99.4511 9.89704
7.06295 76.6056 -5.76426
-15.9438 142.333 7.14826
-14.1443 146.156 0.337492
-13.9293 133.451 8.18427
-10.9998 126.938 5.4005
0.611757 82.5453 6.33784
3.0286 101.609 -11.8705
-0.315225 84.6003 7.52426
-14.702 136.533 8.48845
-1.91671 117.855 -10.2007
1.50243 81.4963 5.26426
6.90357 81.9893 -8.03412
3.11551 102.09 -11.8872
7.02794 80.5701 -7.2982
-8.85603 139.132 -7.08362
-4.61687 97.4954 9.79508
-6.07027 102.962 9.75824
-10.6464 122.702 8.05806
6.79528 83.8353 -8.66871
3.66915 77.651 2.92926
-15.15 146.195 3.86895
-4.05721 96.1735 9.72345
-2.84908 91.9056 9.61418
-13.665 146.593 0.159711
-7.30451 135.831 -8.11729
-12.5908 131.318 7.60245
-12.5119 131.192 7.54334
-5.19154 127.361 -7.62801
-9.0256 113.097 11.0032
7.08102 83.494 -8.49533
-14.2823 136.876 8.31403
-4.47238 97.8939 10.0438
-14.435 137.437 8.34583
-0.149946 85.8283 7.4781
-8.38837 139.182 -7.21811
-10.3801 122.446 8.55173
-0.528888 87.0955 7.80976
-2.87193 92.8366 9.72996
-2.62894 92.1473 9.64265
-7.96928 138.667 -7.70104
-10.5078 127.1 5.96431
-15.0879 145.721 4.90419
0.284345 114.002 -11.4921
-12.2613 131.344 7.53978
6.50937 88.3511 -9.7495
0.483156 84.5313 7.28719
7.62081 79.8986 -6.85715
-5.81589 130.445 -7.22635
-0.739625 117.089 -10.7732
-3.31632 122.764 -8.07982
-10.267 119.467 10.8692
-0.0806608 86.7617 7.62186
-14.6287 140.11 8.10536
-4.23487 98.4111 10.2886
4.15076 79.3476 2.49428
1.67692 82.6737 6.34669
-13.0421 147.271 -0.164443
-10.9716 146.5 -4.65806
-9.67564 124.696 6.4958
6.02154 93.7396 -11.2252
-8.58227 113.188 11.3685
-12.5273 147.539 -1.39577
8.50937 75.6455 -5.3582
7.81257 81.8473 -7.69868
-10.0238 126.525 6.28175
-9.18962 116.116 11.0504
7.85565 81.4966 -7.50286
-8.76362 141.94 -6.7412
-2.16922 120.918 -8.71674
2.12421 82.3255 6.05821
-7.91391 139.821 -7.11842
1.08827 112.884 -11.2399
-9.89263 123.994 8.04009
-2.18558 121.229 -8.71594
-4.67867 102.443 9.60173
-5.42971 130.416 -6.75684
8.13271 80.3411 -6.88149
-5.60269 131.24 -6.48002
-2.74815 95.7746 9.95143
-10.8518 130.526 7.04925
-13.205 137.915 8.00275
-12.1671 148.396 -1.32305
4.57259 80.0709 2.82309
-0.647918 119.176 -10.0081
-7.66158 112.052 11.5987
-10.9611 131.108 7.1843
-13.6284 139.606 8.11347
-13.1847 148.048 1.64086
-6.91364 109.142 11.8669
0.157387 87.8953 8.65312
3.91427 106.295 -12.2522
-3.98474 127.017 -6.64109
-7.7932 141.46 -6.7353
5.0462 101.191 -11.4575
-6.08619 135.799 -6.96601
-11.2546 148.906 -2.91843
6.70969 95.7941 -11.6674
-12.5644 148.685 0.477579
-11.4419 149.168 -2.50826
5.45289 77.8879 3.1852
-4.74287 130.188 -6.21112
-10.7908 132.286 7.02645
-6.2973 108.566 11.6788
-9.05058 145.449 -5.68958
7.81922 88.6888 -9.43439
-8.66419 144.418 -5.87444
-0.0577828 119.237 -10.1566
-3.81522 127.524 -6.47037
-5.28134 106.337 10.9034
-9.40812 125.127 8.67899
-0.0376214 89.3837 9.3503
-3.34516 100.915 9.85289
9.47165 77.4809 -5.78774
7.48722 92.9875 -10.964
-8.43394 118.524 10.8469
-13.329 147.799 3.73209
-8.33533 118.45 10.8457
0.313033 88.9107 9.25101
-9.10798 127.181 7.18499
-8.27773 118.507 10.8669
7.13689 96.0696 -11.5737
-9.94429 130.919 7.03577
-2.38605 97.5567 10.6368
10.0154 76.4099 -5.43769
-11.3543 149.922 -1.71142
6.02629 78.3658 2.96574
6.44566 99.1047 -11.4042
-12.9765 148.257 3.50051
8.91654 84.9224 -8.08992
-7.40392 115.651 11.3533
-8.46363 145.967 -5.79876
-5.72711 136.817 -6.36615
0.239913 90.2608 9.60938
-3.58785 128.75 -6.11184
10.2515 77.0362 -5.53647
-9.70897 148.917 -4.04325
1.85812 114.844 -9.68257
1.95755 114.544 -9.71615
4.20476 109.277 -11.6812
-7.32518 116.821 11.2654
1.48007 87.7764 8.95747
-12.8517 147.846 4.44609
0.76443 89.7078 9.45537
3.79438 83.7512 6.02146
-7.27293 116.795 11.2873
-10.1594 134.199 7.09018
3.78826 84.0978 6.09199
-2.20949 99.9853 10.241
2.26729 114.171 -9.79284
-7.12761 143.611 -6.23314
1.7978 87.6369 8.6989
-10.7381 150.465 -1.94787
-5.8323 138.764 -6.15054
-6.97213 143.278 -6.22092
1.97454 87.5414 8.51919
10.4394 78.1041 -5.7238
1.25212 118.006 -9.45832
-6.32137 141.5 -6.4059
10.0542 82.3482 -7.35153
4.04918 110.43 -11.0163
10.3289 79.5652 -6.01053
-9.13464 132.281 6.66996
-10.3381 150.491 -2.17183
3.37068 86.0283 6.71307
-3.21101 130.49 -6.26504
2.09606 115.464 -9.2435
-0.787617 124.011 -7.79319
-9.01859 132.787 6.43298
5.17275 82.521 4.94084
1.40627 118.45 -9.33525
-7.14872 145.312 -5.93065
8.66553 95.4883 -11.5255
8.45169 96.3781 -11.4756
-9.85893 138.312 5.45162
6.78863 103.297 -11.9227
-11.4667 149.816 1.87561
4.67619 109.77 -10.993
-3.80639 107.441 11.1069
-0.94924 125.322 -7.43007
4.64979 84.6553 5.73361
-11.5472 143.493 6.54262
-8.57819 149.263 -4.38041
11.0286 78.9259 -5.78953
-5.55184 113.098 12.0433
4.84751 109.79 -10.8326
9.78662 89.0951 -9.169
0.776514 93.0687 10.0546
-10.1034 140.395 5.5484
5.05841 84.3545 5.45213
-9.51426 138.945 5.1289
-10.2761 141.135 5.54947
-1.00858 99.2453 10.5636
-8.73803 135.042 5.94377
-8.89424 135.956 5.757
5.86788 82.6359 4.84649
-1.06282 99.7077 10.4688
-11.0629 146.102 4.41738
-3.49466 107.805 11.1681
-5.85862 142.931 -5.87102
3.28855 113.944 -9.05116
-6.60158 145.399 -5.62557
-10.8299 150.376 1.33962
7.57646 79.8915 2.8206
-9.16097 138.428 5.11495
-8.51882 135.379 5.63593
-2.86368 132.262 -5.97379
-8.07992 132.349 6.5781
3.4516 113.813 -9.04811
-7.59172 128.388 8.21587
-0.510287 98.0406 10.8951
-4.03845 109.579 11.9006
-8.73263 136.558 5.68254
-7.60414 124.26 11.027
2.03162 119.138 -8.75875
2.36421 89.9596 9.4432
-8.60756 136.621 5.65197
3.02813 88.0175 9.24987
2.13417 90.8383 9.6224
6.24063 83.1044 4.84627
5.64883 84.6399 5.37687
8.82024 98.7113 -11.44
5.59157 109.373 -10.5106
-5.35093 115.474 11.9435
-10.0209 144.041 4.66356
-5.54642 116.314 12.0373
5.28501 110.218 -10.1377
3.88357 87.1375 8.30875
-4.03934 110.945 11.996
-8.04657 150.235 -3.78194
-6.24015 146.152 -5.32008
-4.87453 114.85 11.7983
-1.64776 105.078 10.5698
-4.74484 141.164 -5.36144
-7.39509 134.377 5.5957
12.5889 76.5851 -4.97158
2.46723 91.3427 9.86249
-6.65709 123.148 11.2532
2.20274 120.5 -8.39963
2.50681 119.196 -8.209
-8.57773 141.316 4.23422
-7.20252 134.099 5.69605
-8.73807 142.452 3.9683
-7.68407 136.506 5.31315
-6.57277 127.671 8.53387
-3.40041 110.653 11.9864
12.8054 76.8493 -5.06044
-6.61484 128.379 8.26382
6.48276 84.6731 5.14804
-3.01562 109.623 11.9371
6.08016 109.562 -9.96159
-0.101119 101.531 10.2969
-0.0186908 101.278 10.3459
3.94275 88.1793 9.32305
-6.69328 131.17 7.00957
-7.219 136.229 5.03571
5.43229 111.612 -9.33105
-6.59472 129.844 7.84806
-8.31121 142.13 4.04501
-2.08984 133.529 -5.33451
1.65359 123.387 -7.73465
-5.19404 144.647 -5.041
-5.57332 146.054 -4.9733
-0.35261 128.902 -6.36541
-5.85926 147.117 -4.92035
7.28739 83.5413 4.76981
0.564084 98.9979 10.9804
3.69932 116.623 -8.06338
6.2934 109.769 -9.7729
12.2903 83.5984 -7.10336
3.04914 118.792 -7.66242
-9.51065 149.154 2.9087
-8.40729 151.908 -1.52571
-9.22462 152.418 0.137613
-4.54509 143.03 -4.89393
-8.95756 145.967 3.84435
7.41534 83.9959 4.78548
-3.60178 114.375 11.6198
4.27871 115.974 -8.34719
-6.13149 124.788 11.0417
-9.34574 149.457 2.75109
-9.15991 148.099 3.20064
-9.29501 149.178 2.83601
-6.36042 133.805 5.84655
-7.65609 151.627 -2.52032
10.2388 99.3752 -11.6219
8.06926 82.7436 4.52497
-6.23827 133.567 5.98935
0.191817 128.269 -6.05244
-4.5135 118.552 11.8466
-2.21878 135.221 -4.52983
-6.59871 150.424 -3.85302
-5.38661 147.403 -4.53906
4.537 116.76 -8.46943
-5.25399 147.036 -4.53466
3.58376 118.678 -7.35668
-1.30178 108.131 11.5244
8.5695 82.6727 4.41018
0.453912 128.608 -5.7748
3.86656 91.4187 10.2463
3.5368 92.4379 10.4085
7.72579 109.342 -10.6614
6.69497 85.8385 7.16877
-1.22432 133.928 -4.97851
-0.103567 131.235 -5.88918
8.17906 84.3256 4.68944
-0.888698 133.131 -5.1846
7.01193 85.5808 6.74739
12.0461 91.797 -9.42728
-6.41431 139.036 4.47253
0.131365 130.589 -5.79802
14.2201 77.8272 -5.29081
4.23522 118.597 -7.69934
5.4553 88.1302 9.28143
2.36758 124.374 -6.84829
13.4191 83.1494 -6.55033
-5.34984 133.047 6.26578
-6.07693 150.865 -3.56817
2.99963 95.5684 10.5706
-4.67048 122.898 11.3908
-5.0864 126.048 10.3707
10.0087 104.016 -11.7126
-8.29172 151.392 1.62557
-5.19838 128.321 9.19725
11.2782 77.2366 2.70417
8.53092 84.5465 4.73359
5.22445 89.2303 9.66716
-0.113514 106.385 11.4414
8.93206 83.9217 4.5156
-6.56699 141.492 4.47104
10.8844 79.8014 2.58772
7.61487 112.056 -10.4647
8.61432 109.405 -11.1308
2.55216 124.804 -6.52438
-5.17006 134.113 6.20285
-1.52142 136.401 -4.08989
13.3003 86.1818 -7.01216
13.7074 84.0301 -6.56713
2.1928 99.7469 11.0169
14.1143 81.3869 -5.78
-4.91775 128.12 9.77204
-2.85262 117.129 11.9876
11.4224 78.7636 2.60741
4.36302 93.4534 10.2155
1.93326 101.544 10.8511
14.9816 77.5446 -4.93264
7.59532 113.183 -10.0842
-1.77086 114.781 11.5068
-2.72897 117.612 11.9819
10.404 82.1891 3.39068
-6.85475 147.359 2.68292
7.41 113.659 -9.7522
0.662708 106.545 11.3907
11.5824 79.4173 2.70185
-2.0467 116.11 11.7482
5.46098 91.928 9.40506
8.72504 110.893 -10.7584
-5.93375 144.067 3.12374
-7.1756 150.587 1.91501
10.5542 82.4167 3.51431
-2.38882 141.7 -3.75083
14.4571 82.6206 -5.90612
7.63194 86.5057 8.09903
13.4405 90.9938 -8.75051
-4.23543 132.755 6.80705
-7.20893 152.077 1.42844
11.9922 100.928 -11.5499
-4.2064 130.354 8.44985
15.2502 79.6253 -5.43273
-4.87845 139.24 4.33718
-4.77896 138.866 4.36968
0.347017 108.483 11.8531
7.93993 113.999 -10.0364
11.7746 80.0782 2.83499
-4.2762 134.232 6.36598
8.061 86.4215 7.77163
5.82585 118.758 -7.83004
-3.84447 126.133 10.7557
0.192718 109.766 11.7073
13.6279 91.4857 -8.75047
-3.93733 130.2 8.45021
6.92175 88.6259 9.36161
14.0572 87.5277 -7.08742
9.38633 110.36 -10.5993
6.91037 89.388 9.08117
-1.42112 116.254 11.7831
-4.53861 139.111 4.45609
14.1774 87.3981 -7.04583
-3.69879 131.63 7.33428
12.1844 101.642 -11.4733
7.9635 86.8232 8.39724
13.6623 92.5787 -8.9108
13.1545 95.3893 -9.49498
2.07565 129.392 -4.89047
3.23773 126.273 -5.55557
5.52358 94.2566 9.81736
7.3312 88.3683 9.29888
12.7056 99.73 -10.9928
-5.41291 146.021 2.64509
11.8167 81.3236 3.23691
-1.21298 139.916 -3.41224
9.53312 85.872 5.84226
12.3111 80.1127 3.02114
3.98163 99.5053 10.5167
-2.21286 143.902 -3.40332
3.35975 101.183 11.0075
7.12012 117.804 -8.85887
13.2173 96.5364 -9.64477
-1.2418 117.277 11.8161
8.65135 114.623 -10.3203
0.929706 109.753 11.6282
-1.71706 142.668 -3.40434
-2.18073 144.278 -3.32289
7.65298 89.238 8.78848
-3.82368 135.995 6.06068
12.5965 79.9242 3.03934
-3.85778 137.169 5.51885
-3.38728 148.747 -3.12345
0.078122 136.535 -3.52006
-2.91112 124.977 11.2642
6.91653 92.5493 8.70232
-4.4595 141.635 4.23723
-1.69978 120.119 11.6568
-4.59935 143.965 3.14168
3.04711 103.699 10.9191
-2.98622 127.312 10.1303
-3.01954 126.987 10.4631
-3.92741 139.433 4.72912
13.2286 99.4567 -10.611
-4.45319 144.014 3.10482
13.4094 97.817 -9.92781
-4.30179 152.084 -2.49265
12.2492 81.7453 3.43799
6.97626 93.1477 8.85483
-3.46054 136.981 5.58159
1.45201 109.736 11.5349
-3.67428 150.67 -2.72819
-2.39467 124.858 11.1949
-0.945126 118.834 11.6554
-2.37775 128.341 8.93982
16.4229 79.9685 -4.91911
-0.915976 141.741 -3.28717
-0.820585 118.562 11.6648
14.1506 95.2019 -9.25518
12.29 104.171 -10.5671
9.90405 86.6661 6.59813
-0.458707 140.447 -3.38377
-2.54203 131.215 7.71097
-1.74633 145.106 -3.22444
-1.13727 120.082 11.6024
13.6724 98.5457 -10.09
5.74728 121.721 -6.02553
-2.27886 146.977 -3.03892
12.1531 82.871 3.86966
-3.56133 139.576 4.90173
8.57365 89.3883 8.3359
-0.724003 118.837 11.6321
1.92759 133.211 -4.06885
1.74333 110.112 11.4404
13.6179 78.9058 3.10952
-3.68146 140.703 4.63603
-3.10821 137.441 5.4535
10.3754 86.3699 6.16843
14.1891 96.0763 -9.33452
1.62194 110.867 11.395
3.46971 105.154 10.6703
13.6652 99.9013 -10.5188
-3.92329 144.529 2.87833
5.93122 121.825 -6.00054
-3.67616 143.781 2.96714
13.9317 78.3982 3.13519
-2.25108 147.913 -2.91082
-2.08195 126.384 10.7087
6.86746 120.04 -6.71357
13.0728 103.318 -10.7919
3.1645 130.356 -4.47974
-0.391214 119.032 11.6064
5.01 124.992 -5.25269
14.0884 98.5198 -9.83176
14.5171 96.1074 -9.26637
7.38102 119.756 -7.37829
17.3171 78.4952 -4.36303
14.9553 93.9718 -8.73445
16.7498 82.8946 -5.82791
10.8965 111.874 -10.5621
9.24839 88.587 8.60946
11.2771 109.903 -10.1462
5.7401 99.6442 10.0738
-1.13929 123.496 11.1508
4.37117 104.247 10.59
11.1981 111.298 -10.3618
-3.52267 153.225 -2.07484
11.0147 86.5918 6.26116
-0.297993 143.422 -3.14243
-1.42929 130.207 8.26043
7.24643 96.3687 9.36597
2.3598 111.336 11.4151
7.34088 96.2577 9.23215
-1.99187 136.442 5.59873
-2.70779 141.337 4.14766
-0.903035 124.445 10.8327
1.92132 113.298 11.3707
16.3366 88.025 -6.91594
1.79002 113.885 11.3907
2.94261 133.83 -4.31683
14.4493 100.059 -10.0035
8.20188 120.032 -7.90507
3.79008 107.057 11.2146
13.3436 82.7059 4.02637
7.95346 120.285 -7.28382
1.44601 138.63 -3.49497
1.16873 116.544 11.5896
7.703 120.506 -6.75425
-1.44421 148.235 -2.70853
14.4994 100.582 -10.0719
0.55292 141.806 -3.24739
-1.37544 132.365 7.61027
-2.76779 144.422 3.17492
-0.456928 145.381 -2.9629
6.69625 99.1146 9.90916
12.0486 110.306 -10.285
-0.764694 126.777 9.98019
-2.97064 153.309 -1.96184
7.54059 97.1535 9.30573
5.54747 102.631 10.5626
-0.27754 123.925 10.8276
-1.28357 132.846 7.49648
-0.956777 147.555 -2.8385
11.9793 111.392 -10.5022
14.9152 98.9708 -9.42308
5.01004 105.115 10.562
-1.37585 137.579 5.04748
7.74277 97.5723 9.20879
18.6392 77.9707 -4.32755
-0.595135 147.081 -2.88521
12.0286 112.63 -10.9035
3.00702 111.789 11.4476
7.75452 97.7103 9.21124
12.8099 84.5436 5.58406
7.16414 99.5728 9.49161
-0.273088 126.24 10.1237
1.59507 117.285 11.6427
2.03001 115.952 11.4709
11.0574 115.319 -9.84697
7.01563 100.386 9.67119
10.2362 90.9745 8.05124
5.11619 105.857 10.7317
18.268 80.1028 -4.23569
0.222217 145.226 -3.03289
1.5017 117.888 11.7167
10.2356 90.2502 8.69346
0.0147457 125.708 10.2879
5.86355 103.698 10.528
7.57954 99.7453 9.12274
9.27296 95.9708 7.51691
15.6906 78.7384 3.25529
6.58343 125.461 -5.09887
-0.39972 130.247 8.64178
8.84364 120.912 -7.51753
17.403 87.7771 -6.58335
6.13643 103.62 10.437
0.0767272 127.723 9.38041
0.136971 146.472 -2.9437
18.1586 82.1613 -4.53749
3.45426 136.329 -4.24643
10.7793 88.7896 9.09599
5.79895 128.618 -4.68364
14.3772 105.759 -10.4726
19.4011 77.5205 -4.14417
15.4995 80.3179 3.51121
0.689607 125.007 10.2303
4.09247 110.747 11.3062
5.31106 107.029 10.7894
10.6404 92.262 7.55496
15.0992 103.641 -10.601
15.1461 103.157 -10.3888
-1.66048 152.766 -2.11527
19.4407 77.8329 -4.19469
8.15943 100.008 8.602
11.5492 115.343 -9.54271
-0.775634 150.535 -2.56611
-1.53371 152.743 -2.15484
18.9284 80.2067 -4.2761
-0.0320947 148.394 -2.80737
6.64089 126.957 -4.95212
12.6637 86.6511 6.76048
9.15383 123.602 -8.76173
12.0953 87.8936 7.39042
14.796 82.4355 4.43439
5.93996 105.765 10.6357
14.5903 106.131 -10.408
9.06315 123.074 -7.95476
0.180409 130.614 8.61434
-0.580614 140.91 3.80207
9.55192 123.827 -9.49712
1.06134 124.746 10.4012
19.9201 77.0634 -3.95537
14.9062 82.678 4.55414
20.0047 76.8282 -3.89458
-0.359825 140.171 4.08382
16.865 95.3992 -8.29156
6.4534 128.715 -4.83443
13.5768 110.56 -10.1459
14.1622 108.181 -9.83376
-0.766887 152.142 -2.41654
1.62889 122.047 11.4288
15.9081 80.8348 3.94781
18.6915 83.0909 -4.21996
18.1712 87.6336 -5.90496
13.9903 109.177 -9.7763
12.6242 87.8416 7.48606
13.9566 84.9771 6.16948
0.303651 137.26 5.09756
0.999937 127.739 9.63306
18.039 89.5724 -6.62462
10.993 118.679 -8.52245
6.48845 129.884 -4.93453
17.1488 78.0479 3.15965
7.18329 105.167 9.57256
4.00075 114.401 11.2561
9.94007 124.722 -9.7615
14.4753 84.5321 5.67438
9.11124 126.058 -8.41605
11.5557 91.419 8.36804
11.5838 117.273 -8.51157
5.3821 110.823 10.6585
9.41332 100.022 7.99341
20.5625 76.8975 -3.79648
15.4994 105.833 -10.3892
5.27423 134.818 -4.5649
19.3199 82.1261 -4.14036
0.474987 149.979 -2.78974
11.505 90.1496 9.54411
11.4848 89.9283 9.73922
10.7637 97.3179 6.75686
7.56224 128.377 -5.62113
6.25411 108.952 10.2103
0.330742 150.819 -2.73695
8.65427 103.566 7.95377
4.89453 136.81 -4.54299
9.86312 99.47 7.79822
1.24374 147.961 -2.96341
0.79737 136.664 5.47752
7.53501 106.172 9.15656
14.2651 110.658 -10.0002
1.67182 126.671 9.99473
17.8225 77.487 3.04409
10.6192 124.797 -10.2923
8.74945 104.036 7.73834
18.6052 88.7671 -6.0987
4.4854 114.811 11.0293
5.49066 111.943 10.5817
11.8015 89.8825 9.73305
10.5913 98.6308 6.97797
4.15781 116.301 11.0858
17.8325 95.0903 -7.99893
15.9792 105.646 -10.3164
11.9728 91.0426 8.93505
11.3581 120.983 -9.06344
1.80014 127.243 9.93499
11.5399 96.2324 6.79601
1.98608 146.972 -3.10413
17.15 80.1802 3.89084
4.08923 140.864 -4.06312
11.11 98.6375 6.49481
4.77974 138.912 -4.3703
12.1492 117.894 -8.4552
1.32882 136.639 5.50585
8.4007 106.587 8.00398
0.359456 143.768 3.20489
6.24626 134.786 -4.949
1.12887 139.656 4.2464
13.9135 114.846 -10.3973
12.7855 117.921 -9.55233
17.7774 97.6712 -8.40453
8.31955 107.477 8.04214
4.78322 116.354 10.8239
12.5428 118.347 -9.12033
15.2504 109.273 -9.68858
17.7538 98.3092 -8.44624
20.1069 83.1039 -4.22491
20.6833 81.0869 -4.23406
10.5387 101.733 6.88779
13.3057 117.149 -9.79263
16.5134 82.8068 4.83746
12.8334 89.4224 9.41589
14.8729 112.751 -10.6817
18.3797 95.4813 -7.89056
7.13257 133.888 -5.74468
1.06711 141.956 3.72814
13.1109 119.736 -10.816
5.5401 115.382 10.3199
1.55924 139.001 4.5761
12.4225 120.089 -9.32584
12.8573 120.451 -10.5155
21.3121 79.2763 -4.108
3.61917 121.726 11.0128
5.20346 116.852 10.4472
4.31801 119.4 10.9738
8.11329 131.768 -6.18623
19.3332 88.4431 -4.98591
4.65713 118.75 10.7288
14.1352 87.855 7.99358
5.4462 116.665 10.2189
8.48508 109.631 7.62028
1.31126 142.38 3.72663
11.2773 100.931 6.69476
10.8494 128.327 -9.94204
10.0716 106.898 5.98139
18.8107 95.502 -7.66581
12.1518 98.8674 6.22626
21.7113 79.1936 -4.03281
2.2581 132.403 8.29049
12.348 123.31 -10.0726
8.36029 110.888 7.66329
19.3734 92.1979 -6.7444
14.7876 87.0101 7.70731
9.3393 130.247 -7.27574
6.54873 137.537 -5.28147
8.02475 111.592 8.06683
8.23388 132.626 -6.08073
2.20475 133.952 7.62732
6.76941 114.92 9.06641
20.9893 82.9334 -4.411
10.5362 128.999 -9.15828
11.4312 101.63 6.5503
12.5386 98.0901 6.24665
18.3986 99.0237 -8.42539
18.1932 100.016 -8.49376
2.16204 138.836 4.93607
9.16715 110.443 6.56517
6.5522 116.273 9.09189
4.73443 143.229 -4.01888
9.93892 130.595 -8.35307
2.50996 134.313 7.15798
9.96315 130.555 -8.38256
8.37119 112.078 7.50426
7.35855 136.658 -6.02748
8.17589 112.542 7.73747
12.6421 123.654 -10.2768
2.94264 128.913 9.78394
6.49757 116.847 9.06589
18.5904 98.8614 -8.39443
9.75073 131.42 -8.2402
14.4652 88.2665 8.51153
2.77039 135.895 5.77687
7.54499 136.04 -5.78884
19.2834 94.3675 -6.97875
13.2131 94.6496 7.49192
14.3277 117.193 -9.83678
12.7327 98.6581 6.09448
9.1356 111.5 6.47107
3.53561 126.138 10.4932
6.55675 139.499 -5.43654
11.4984 104.448 5.58312
15.1112 115.244 -10.1352
6.32396 118.523 8.94208
5.73579 141.227 -4.41522
15.1938 114.74 -9.98295
11.4712 129.678 -10.6976
19.8927 89.3126 -4.71992
13.1401 122.833 -10.153
13.3707 95.2124 7.29802
3.26775 128.779 9.83712
8.63185 113.299 6.98561
7.66135 116.036 7.6339
9.28769 112.236 6.18368
3.61957 127.222 10.1983
2.95898 133.47 7.85576
12.9971 125.526 -11.1751
13.2998 96.9594 6.71686
12.4296 127.981 -11.2887
7.00528 140.367 -6.22263
12.0386 129.23 -11.0733
7.64133 139.249 -6.92708
18.993 79.9149 4.35444
8.80978 114.537 6.42663
7.46983 118.528 7.06657
11.6637 130.294 -10.7099
2.09977 142.973 4.14655
10.3812 132.114 -8.75903
5.61613 123.539 8.32739
9.15386 114.158 5.90581
7.42221 119.357 6.77551
8.05589 117.019 6.82051
10.4692 111.259 4.74849
2.92507 138.135 5.45823
8.30644 116.406 6.6245
15.5941 87.1286 8.12613
13.9039 92.5561 8.69828
17.8768 106.199 -9.76832
7.41642 119.829 6.63789
13.2411 99.2808 5.9586
7.89447 118.852 6.22401
9.72392 113.216 5.51564
4.13056 126.321 10.4939
20.9851 87.0059 -4.544
4.64618 125.503 9.83698
20.0722 78.0229 3.53688
9.5506 114.263 5.35128
15.391 116.369 -10.1097
20.5718 88.3262 -4.35068
16.1735 86.2984 7.61026
20.2193 89.94 -4.52562
2.97913 138.814 5.39677
4.24568 126.512 10.3868
4.29182 147.727 -3.48043
13.9852 94.5663 7.84849
14.5052 119.884 -9.84071
3.25255 137.802 5.67101
4.2656 126.92 10.3389
16.6528 85.8384 7.21784
3.88168 149.138 -3.16867
19.0162 101.937 -8.94976
2.56988 153.304 -2.68532
10.2144 133.38 -8.16336
18.2139 105.889 -9.53377
4.48696 147.781 -3.60715
7.99829 120.888 5.50606
20.4067 92.0955 -5.68948
21.9407 84.2167 -4.2398
15.8843 115.836 -10.1947
14.5634 118.596 -8.77018
3.13499 139.148 5.43892
7.06068 141.974 -5.84093
4.69382 126.638 9.89853
13.8319 123.244 -9.90673
3.56828 137.185 5.89825
6.85781 123.47 6.90902
13.3478 125.77 -10.242
18.6313 104.456 -9.07366
8.0325 121.806 5.28125
14.2095 95.0838 7.82003
20.4298 93.3668 -6.04474
16.126 87.3958 8.36486
14.2997 94.9191 7.95718
13.6068 101.381 5.62093
14.1609 96.8271 7.25922
20.7946 89.8707 -4.21776
3.74433 151.342 -3.06898
15.438 88.9488 9.40353
9.07141 138.654 -7.55032
4.12743 150.303 -3.15098
4.55767 129.733 9.26209
11.4041 112.072 4.2439
6.82095 124.455 7.2468
7.17746 143.521 -5.88335
9.65472 137.304 -7.78793
4.23002 135.557 6.47399
12.7211 130.553 -10.7428
13.7986 101.46 5.68217
23.87 77.927 -3.25835
7.60239 143.158 -6.45592
19.1422 103.238 -8.29357
13.405 104.015 5.09249
8.57611 122.667 4.63022
7.1092 124.594 6.96306
10.6755 135.544 -8.70594
5.8884 146.888 -4.50644
13.6457 103.009 5.34258
9.0786 140.638 -8.09535
8.46935 141.865 -7.38244
10.3893 136.983 -8.68749
5.1402 128.396 9.59486
12.1733 133.109 -10.4148
14.4146 98.2534 6.88284
18.1313 110.182 -9.64739
10.4023 118.336 3.74702
18.8302 106.471 -8.86052
9.23833 122.366 4.07105
10.6971 137.457 -9.20249
17.5498 113.107 -9.85625
17.7743 112.055 -9.65686
11.3167 115.478 3.74192
8.82851 124.229 4.05523
3.82454 141.417 4.94713
7.49566 144.657 -6.01206
6.58849 146.626 -4.99498
3.89203 153.241 -2.78845
6.98299 145.651 -5.28144
4.55392 151.419 -3.14942
23.7547 81.3514 -3.84029
8.52062 124.615 4.77497
8.31172 124.736 5.23733
9.71365 121.923 3.68655
13.7165 125.897 -8.46075
15.1636 119.164 -7.53256
8.44049 143.578 -7.13984
4.25254 139.009 6.01248
14.3264 123.482 -8.10882
15.2083 119.24 -7.45967
18.1984 111.141 -9.36066
8.67914 143.444 -7.33572
16.0882 116.817 -7.85668
12.7144 133.828 -10.6799
14.7254 100.259 6.38112
6.78929 147.421 -5.1697
11.4967 116.619 3.54037
17.7798 87.2149 7.57369
14.6784 122.436 -7.87328
4.641 138.21 6.1073
23.7276 82.536 -3.70297
4.14812 153.408 -2.57628
14.3369 123.169 -7.43148
20.8615 97.2427 -6.23171
14.9796 98.5804 7.10631
6.51048 148.395 -4.88086
19.6357 104.111 -7.72265
7.89666 126.106 6.32292
14.8303 122.047 -7.74848
15.2805 94.9906 8.78575
11.5836 137.612 -9.99354
19.6373 104.372 -7.74346
22.2518 89.2031 -4.17676
9.94933 141.279 -8.37706
6.4451 129.113 8.12329
20.2915 101.812 -7.45613
14.3184 104.444 5.26201
15.0741 98.9181 7.0492
7.38542 127.986 6.70858
15.2989 121.433 -8.12138
18.8644 109.106 -8.69816
18.2782 86.837 7.21849
22.65 87.6871 -3.8815
6.51383 129.264 8.01701
11.0347 119.932 3.23741
17.6224 115.086 -9.4799
12.2047 115.095 3.60837
8.82742 126.46 4.39793
21.0803 79.9468 5.15326
14.4691 104.166 5.36433
3.67131 143.946 5.58546
15.5066 93.7384 9.71878
12.3845 136.217 -10.4031
6.30422 130.227 8.27072
4.72318 153.326 -2.72338
15.4257 97.2633 8.05357
22.6452 89.3308 -4.14621
23.1019 86.6709 -3.46525
15.1855 121.317 -6.83842
4.81633 140.186 5.94574
13.2121 134.451 -10.3422
4.71919 141.976 5.32463
21.4325 80.0346 5.34678
24.5172 82.1191 -3.36626
23.0585 88.0902 -3.65865
13.2894 134.569 -10.3078
14.6802 129.305 -10.2172
5.53789 152.451 -3.2197
24.7672 81.616 -3.48756
22.7474 77.8351 3.88993
19.7307 106.827 -7.69396
21.2793 99.9654 -6.92216
14.745 105.591 5.19559
14.8175 126.685 -8.45781
21.964 93.3706 -4.01533
18.4027 113.765 -8.40871
14.9394 126.576 -8.36487
11.7876 139.311 -9.04389
11.3526 140.947 -9.03019
20.9509 102.048 -6.82689
20.0832 105.398 -6.66178
19.6991 108.055 -7.34248
6.37532 151.684 -3.58933
16.0929 96.0842 9.18264
11.5958 122.619 2.81494
8.05067 148.727 -5.61459
10.3177 127.458 2.79355
5.96893 152.986 -3.24744
10.2262 127.875 2.82822
9.44236 130.077 3.30742
9.85135 129.143 2.98894
13.0455 117.002 3.26579
21.9772 96.4256 -4.89345
16.1275 96.7961 9.04051
14.2516 111.351 4.14001
15.8343 102.724 6.2533
7.84565 149.851 -5.00774
5.05607 143.763 5.69678
15.0867 128.155 -8.32897
14.6299 131.094 -9.12993
10.412 128.893 2.61893
5.11699 143.924 5.62613
7.1585 135.821 6.129
14.8289 110.213 4.4937
8.77579 148.872 -5.96646
22.1106 81.1873 5.93208
8.17298 149.905 -5.16338
12.108 123.924 2.46314
16.6673 95.8071 9.79443
15.0133 126.98 -6.29683
24.4579 86.0848 -2.44432
7.48769 133.468 7.70404
10.8568 144.362 -7.47128
16.1861 103.8 6.12023
13.1971 119.732 2.99125
7.55412 134.918 6.74411
6.74105 153.114 -3.07602
15.7571 126.103 -7.18961
15.5914 128.802 -8.49101
16.7059 97.7589 9.04916
18.4038 90.6315 9.60376
5.39782 155.472 -1.20798
14.6965 127.966 -5.70893
8.40744 133.406 6.02908
15.4744 127.533 -7.18505
9.15123 149.222 -6.01
22.6453 98.1918 -5.33853
11.0512 129.936 2.05293
24.3104 88.9762 -3.25347
19.0794 121.558 -11.8125
12.0202 126.341 2.14634
14.6371 127.975 -5.20152
10.865 130.867 2.04995
15.8146 125.259 -6.21544
17.409 124.085 -9.26347
16.373 126.198 -8.10719
15.3664 129.844 -8.04555
12.264 125.597 2.24038
16.7705 101.33 7.26419
17.2632 124.212 -8.77377
11.9952 127.101 2.0686
17.9263 121.643 -8.6773
14.4654 129.685 -5.5018
14.8794 130.014 -6.7082
17.2404 117.787 -4.43013
15.7713 125.382 -5.82028
16.3147 124.599 -6.61094
19.4457 121.369 -12.0221
11.753 128.533 1.89188
11.4291 130.032 1.77481
17.1775 118.351 -4.48448
9.4533 134.968 3.34639
6.55014 142.269 5.60706
19.9575 89.2698 7.90567
21.2226 86.1404 6.92466
17.7236 122.352 -8.20732
16.2659 124.727 -6.22403
13.279 122.144 2.69878
10.6388 146.863 -7.01024
20.8616 87.2187 7.16344
26.9141 79.7045 -2.41887
11.2 131.626 1.79408
20.561 88.281 7.43861
6.27344 144.331 5.45597
18.6375 115.429 -5.55762
6.83718 142.177 5.52351
16.8608 123.927 -6.77159
26.1778 83.645 -3.02973
7.50639 140.2 5.26473
14.5827 130.496 -5.4568
21.8092 85.0977 6.77344
15.4897 132.517 -8.76021
14.8788 130.968 -6.23909
20.4908 108.779 -5.33115
6.38308 144.773 5.39802
19.1837 90.9848 9.53983
17.745 117.835 -4.41189
17.1927 100.201 8.42419
20.0668 112.818 -6.70319
23.2626 96.6955 -3.88484
19.9241 122.638 -12.7096
8.77601 151.445 -4.55594
8.85447 138.276 3.85495
24.0661 92.999 -3.35214
25.4547 85.4437 -1.78115
14.6784 131.106 -5.44935
17.5275 127.014 -9.64895
15.8837 111.068 4.70672
17.2183 128.869 -10.0741
17.4857 123.198 -7.00366
19.2922 91.0902 9.56212
17.8856 122.759 -7.64622
6.22931 155.098 -0.56295
19.8188 121.506 -11.4722
18.0393 116.591 -3.95697
16.1386 109.96 4.97434
10.2817 134.18 3.3711
22.4883 83.6875 6.81466
17.9388 122.742 -7.62799
16.9661 124.014 -6.09989
10.3013 134.548 3.18064
22.5308 102.111 -5.2171
14.526 118.846 3.24381
17.7902 119.226 -4.76443
18.4883 126.794 -11.3623
8.35935 137.957 5.82305
10.951 133.582 2.43366
13.0649 141.92 -8.06902
15.2593 135.877 -9.40573
22.2415 84.9185 6.93264
15.4139 114.745 4.03049
14.6876 118.635 3.31011
15.5728 130.552 -6.54924
6.91274 144.49 5.28694
15.9104 132.422 -8.56701
15.5035 132.76 -7.77887
9.68129 150.29 -5.10503
17.466 102.326 7.44418
16.9271 127.269 -7.47423
24.0483 94.4833 -3.31237
15.6723 114.015 4.22246
6.68027 154.701 -0.563749
20.9139 108.5 -4.76261
19.8858 90.8837 9.25712
8.37719 139.078 5.70362
23.3715 100.636 -5.4528
16.9483 127.592 -7.40269
7.1746 144.469 5.22123
10.9212 134.234 2.86746
24.7655 92.3499 -3.25891
7.34106 144.196 5.19454
7.57422 143.351 5.19993
9.22986 151.395 -3.99633
19.0813 121.202 -8.03642
20.9927 108.737 -4.46466
11.5753 134.52 1.51689
16.7731 129.902 -8.01447
17.8804 97.9853 10.1077
11.1372 147.976 -6.15787
19.7873 123.279 -10.9531
19.2761 92.7784 10.1481
23.9293 81.307 6.40873
23.0369 101.945 -4.78032
16.2404 129.072 -5.97302
14.2307 123.256 2.69145
16.8011 131.938 -9.14463
18.712 121.869 -7.17329
19.5022 121.232 -8.66265
18.5095 118.456 -4.43454
17.9996 97.8925 10.2249
17.5245 105.788 6.25596
9.85636 139.142 3.05735
12.3009 145.934 -7.06423
17.5496 106.18 6.18426
22.0646 87.2439 7.77877
19.161 94.1457 10.3589
19.1379 94.2264 10.3805
14.24 124.487 2.53099
22.8896 85.0227 7.3623
17.7943 104.96 6.69947
20.2594 91.4885 9.54617
16.6648 111.855 4.99573
8.36145 142.162 5.31438
17.008 109.926 5.45017
15.8066 134.115 -7.3906
12.7422 145.113 -7.15153
20.1164 123.582 -10.9287
13.4561 128.341 2.0509
23.2453 84.0813 7.29643
18.7414 95.9831 10.4482
11.0402 148.892 -5.30251
10.0457 139.755 3.05586
15.6254 133.783 -6.49954
10.677 149.55 -4.8163
18.1498 123.406 -5.76363
13.9044 126.826 2.27568
24.1995 97.6401 -3.54964
15.9203 128.927 -3.92318
18.179 122.86 -5.23756
23.2142 84.8198 7.49439
18.4926 98.5965 10.1552
20.3813 92.1553 9.79413
25.2259 93.9086 -3.03918
18.2578 100.735 9.37474
22.1352 88.1932 8.19173
16.3176 134.469 -7.86499
26.0429 90.2425 -2.51941
9.04091 144.775 3.01778
16.5689 135.037 -8.72452
16.9166 133.179 -8.30173
13.8417 128.548 2.1363
15.814 127.939 -2.20134
24.3729 99.1699 -4.10091
18.9552 120.156 -4.68361
25.0907 81.2059 5.88964
26.1958 89.8032 -2.35709
16.9045 130.732 -6.54751
10.709 139.796 2.55015
8.44706 144.27 5.115
8.93748 147.446 1.89853
18.3978 102.395 8.39815
10.4265 140.825 2.63939
21.1529 113.919 -5.70755
16.2357 129.292 -3.84352
23.0523 86.2118 7.87144
12.6881 134.77 1.28606
20.5955 123.981 -10.7741
22.978 86.4411 7.92468
16.5501 114.99 4.85509
21.7551 108.721 -3.55646
25.205 81.4709 5.88176
21.5792 110.621 -4.34011
18.4813 102.075 8.7021
25.4258 94.2488 -2.95218
13.7391 144.172 -7.22468
8.49568 153.83 -0.784737
8.7385 147.673 2.66179
8.65117 148.676 2.24224
11.4048 139.17 1.82277
17.7049 109.648 5.9283
18.8478 98.9282 10.1728
9.47904 142.479 4.49946
14.1863 143.056 -7.17471
10.6755 142.465 1.738
8.51038 147.495 3.73679
15.7656 138.593 -7.94579
18.548 104.973 7.27645
19.2951 120.355 -4.52096
8.54984 149.911 2.21679
16.6871 129.798 -4.3092
16.7183 115.426 4.97971
19.2917 120.539 -4.55758
26.7539 88.2132 -1.50014
28.6407 82.2962 -2.19531
8.53931 150.064 2.2434
16.9555 126.097 -2.41529
8.19074 150.27 3.00965
12.1306 138.624 1.11015
25.8985 80.6439 5.7019
12.1552 138.636 1.11608
10.9433 142.382 1.634
20.3096 94.6629 10.1586
11.922 139.244 1.40483
16.2526 136.043 -6.94526
8.51603 147.918 4.02207
16.3415 135.53 -6.71074
16.9793 126.9 -2.61069
16.9801 126.937 -2.61933
18.7073 105.247 7.35676
21.9133 110.736 -3.94808
18.8089 103.07 8.53828
24.6858 100.847 -4.08405
20.2144 115.624 -2.87297
20.8982 126.214 -11.4101
17.494 112.592 5.68583
19.4528 121.469 -4.73035
9.14699 145.83 4.30362
16.9107 129.742 -3.87655
17.8083 126.385 -3.84653
28.4468 84.5654 -2.29136
18.9727 102.284 9.07381
8.54917 151.68 2.1905
19.0206 123.45 -4.70025
10.6781 151.132 -2.58663
17.8643 126.644 -3.98757
21.3285 120.009 -7.95579
27.8966 85.985 -1.64769
25.4446 96.5377 -2.59399
16.8125 126.501 -1.24328
16.5299 135.993 -6.74099
27.1403 87.6396 -0.823938
24.2821 85.0955 7.74495
26.0766 94.4666 -2.67945
17.3846 130.696 -5.26286
8.0792 154.436 1.81486
18.0363 130.233 -6.40913
21.5206 114.338 -4.4635
17.6245 129.475 -4.9073
26.5229 92.8051 -2.50714
16.4689 119.276 4.5863
10.3317 146.928 1.3979
26.6802 92.2366 -2.44774
21.1302 94.0856 9.80676
29.2691 81.8756 -1.83051
13.4804 135.524 1.39798
18.4758 126.408 -4.72013
17.8707 127.946 -4.2528
16.4724 129.427 -1.76913
13.0981 137.179 1.33391
24.601 84.92 7.65793
15.0265 127.682 2.93675
18.0517 134.034 -8.47568
25.8314 83.3821 5.73129
13.7171 133.916 2.07525
14.0095 132.682 2.21633
12.1151 140.688 1.58637
16.9518 135.914 -6.80814
29.1737 83.4173 -2.09513
19.2624 132.62 -10.2011
16.6154 128.593 -1.12783
11.1103 151.018 -2.31051
9.55961 150.971 1.46377
25.9545 83.8545 5.62026
18.0008 131.171 -5.94701
21.6415 93.8071 9.62306
23.8115 105.48 -3.20228
15.6333 123.862 4.57131
16.7503 137.199 -6.79186
14.7141 130.088 2.78027
23.1981 90.0283 8.39612
20.0218 122.005 -4.71792
22.3528 112.499 -4.13628
21.5303 124.866 -10.1506
16.6264 119.421 5.25607
25.1682 101.111 -3.39027
21.0577 121.024 -6.38038
16.5049 120.032 5.29024
21.4513 124.044 -9.2013
13.1157 138.945 1.38742
16.4723 139.257 -6.90089
18.5785 124.983 -2.64375
16.4702 139.329 -6.83025
18.5577 125.174 -2.63258
16.3331 138.746 -6.07339
18.9329 108.425 7.39947
10.3904 149.418 1.32719
17.7728 130.272 -4.02353
20.122 99.8268 10.2529
21.0952 115.293 -2.14607
16.3663 138.76 -5.91977
22.5497 92.6061 9.21839
20.5257 98.734 10.117
11.6184 145.501 1.19058
17.2823 117.054 6.09416
22.6038 112.439 -3.74042
20.4329 121.337 -4.28574
18.1748 112.533 7.04964
20.4372 121.325 -4.13626
20.4801 120.633 -3.67124
17.6749 115.109 6.70073
21.4825 95.5688 10.2811
18.8703 124.993 -2.52152
19.1916 125.476 -3.60322
17.3251 117.244 6.29106
26.1985 97.3929 -2.19788
17.81 131.315 -3.96135
9.46437 154.277 1.25683
22.6777 112.958 -3.68567
23.5627 90.8498 8.58214
29.868 82.9038 -1.45942
22.9546 109.27 -1.89272
15.4564 128.417 3.74147
14.1745 135.486 2.2652
17.7821 126.599 -0.636244
19.7036 105.283 8.69857
16.5743 139.588 -6.04984
18.9793 124.733 -2.16305
15.6362 142.742 -5.79287
15.909 123.335 6.18844
19.7374 105.52 8.55106
19.8284 126.001 -4.96151
21.5641 126.981 -9.75287
22.487 114.121 -3.60527
17.5298 116.478 6.87495
16.6007 139.806 -6.05981
25.7838 100.938 -2.91487
12.455 144.267 1.06179
21.15 115.639 -1.26324
25.4994 101.762 -2.69698
16.7754 120.217 6.35463
20.4659 122.959 -4.32166
20.9932 121.469 -4.60008
27.7345 91.9786 -1.62957
20.8264 117.423 -1.50457
16.1432 141.362 -5.74602
20.7041 100.246 10.0404
16.6441 139.74 -5.83238
19.8608 104.749 9.21785
29.9222 84.4812 -1.86526
19.7855 107.34 7.73096
17.127 119.072 6.52047
10.7209 153.302 -0.280526
22.7747 113.769 -3.63353
17.6948 137.134 -6.58162
18.8701 111.129 7.51792
21.2924 121.546 -5.04124
17.9102 126.817 -0.254084
19.6462 134.352 -9.33061
14.0303 135.101 3.7408
20.8942 130.83 -10.0212
14.0424 138 1.86874
21.3761 126.135 -8.09001
12.2004 150.639 -1.88541
22.6154 94.3295 9.71874
26.5365 85.0935 6.3128
19.5811 134.949 -9.32127
13.8835 134.37 4.93312
20.0726 105.498 8.9276
28.7007 79.6755 4.92308
17.8204 137.748 -6.61822
21.6992 121.649 -5.45991
21.6774 123.892 -6.85225
30.714 80.2314 -0.20188
22.2558 96.2973 9.80291
20.1661 106.391 8.33692
20.847 131.585 -9.70124
20.2598 124.689 -3.77659
17.2385 138.784 -5.65496
17.8467 116.193 7.6198
27.8295 83.2828 4.95324
14.3472 132.329 5.59193
28.2857 90.9755 -1.1074
14.8702 130.44 5.58574
14.2552 132.825 5.53215
13.991 137.584 3.31038
24.5608 106.768 -2.08024
27.2024 96.6492 -1.84985
13.9081 136.694 4.22533
21.1217 121.137 -3.02909
19.4009 125.542 -1.72665
13.6018 141.191 2.11698
17.1406 139.474 -5.29986
16.9716 120.65 7.4605
30.0239 85.412 -1.07743
20.4812 132.992 -9.02095
29.4297 86.1427 -0.0909219
19.7054 136.061 -9.01571
13.9632 135.027 5.5751
21.8983 121.694 -4.88096
13.9683 137.638 3.90231
20.2905 107.664 8.21133
21.6028 126.554 -7.24971
19.6826 109.419 8.56224
15.7079 127.593 6.34329
19.4788 110.255 8.53209
21.2137 121.581 -3.01609
23.7361 109.425 -1.18543
23.6301 110.422 -1.57664
21.1172 121.857 -2.93173
21.0699 102.56 9.77581
25.0506 106.052 -2.00808
14.0341 135.693 5.34193
29.2868 88.0027 -0.377174
18.8087 127.149 -0.400805
22.9254 96.7622 9.51679
31.0586 81.2856 -0.0165581
28.4889 84.2717 4.24425
21.1263 123.125 -3.28097
21.9051 115.768 -0.316655
19.3023 111.815 8.63967
17.9562 117.564 8.14636
14.6439 132.955 6.1465
20.8831 123.229 -2.56508
19.0052 113.42 8.37708
24.4803 107.895 -1.14162
29.6403 86.3298 0.460005
19.8565 136.65 -8.61616
13.5334 142.882 2.6065
22.1417 99.4608 10.1419
22.5626 123.717 -6.66624
17.1378 121.139 8.18495
16.2072 125.984 7.36611
21.4082 103.378 9.56387
20.3653 125.101 -1.98639
14.2314 139.812 3.2869
22.4827 98.8503 10.0513
29.1802 82.9735 4.29256
26.4165 102.57 -1.75612
25.9199 88.5777 8.56985
19.5897 111.52 8.92015
25.3987 106.265 -1.64939
29.4801 86.3679 1.47997
16.2188 125.675 7.91629
20.9779 105.729 9.4322
19.6164 126.312 -0.669848
20.1712 125.514 -1.48517
28.3872 93.7319 -0.580611
21.8597 116.386 0.438932
20.0901 109.826 9.00854
16.1373 127.093 7.43272
30.3335 84.7818 0.723982
16.761 143.369 -4.65871
21.6412 131.891 -8.94583
22.192 121.744 -3.6576
18.8783 115.025 8.7223
16.784 143.407 -4.62655
13.186 151.174 -0.993147
20.6848 124.857 -1.92497
21.7084 129.575 -7.43605
18.3497 139.813 -5.98669
13.9873 141.72 3.34106
18.9187 115.09 8.78398
25.5941 106.224 -1.49106
22.5826 126.352 -7.30309
29.2061 84.9328 3.69378
29.3076 87.1706 2.00633
13.2361 147.083 1.80048
20.366 136.971 -8.82359
21.6085 104.009 9.69054
31.2093 83.9147 -0.325195
24.3562 109.989 -0.723952
14.8816 148.411 -2.84537
12.1608 151.655 1.61928
23.7983 96.1068 9.7123
15.4144 133.843 5.38269
13.3708 147.073 1.92219
14.4111 149.626 -2.24588
30.7813 84.6184 0.640589
19.4787 139.019 -7.49198
22.5354 127.032 -7.05917
15.61 133.912 5.31638
21.0333 120.877 0.714139
21.2177 123.694 -1.50486
15.8854 132.82 5.44712
20.3557 126.688 -1.3464
21.2989 119.907 0.803924
21.7055 121.23 -1.02397
17.8964 141.628 -5.00424
12.6981 152.113 0.766101
12.9064 152.779 -0.120892
27.7501 100.058 -1.53867
16.8737 127.277 7.04249
19.2873 139.686 -6.79398
13.9242 143.086 4.06403
30.9626 84.3135 1.2343
14.644 137.766 5.81987
26.7196 103.772 -1.17604
23.9872 120.835 -5.65548
31.7901 83.1032 0.173148
20.4367 111.14 9.40645
21.1535 125.921 -1.90824
29.6381 91.604 -0.0270314
26.9912 103.094 -1.09969
17.1513 128.584 6.16804
26.2942 105.364 -0.7488
20.4703 126.729 -0.599058
23.9202 114.245 -0.796019
17.6257 123.715 8.2576
29.1752 86.2172 4.83341
20.3137 127.412 -0.578916
18.9626 117.788 8.95499
22.7134 127.694 -6.52905
17.0477 130.949 5.02979
16.8164 128.866 6.94579
19.7367 114.451 9.33985
18.676 119.018 8.94239
14.2479 150.479 -0.829614
22.4183 118.408 0.332005
28.1905 99.4883 -1.22085
29.8753 88.5263 1.85395
23.125 121.807 -3.49745
29.7794 86.1666 3.66251
20.6586 127.303 -1.07493
16.5913 130.555 6.64783
20.4698 127.162 -0.471372
17.9401 126.42 6.15157
15.4424 148.489 -2.10063
13.5282 148.885 2.30771
18.1294 122.313 8.56829
18.5548 126.908 4.58892
17.7517 124.243 8.29356
19.0044 118.539 9.00156
17.1287 132.622 4.3676
15.6354 136.222 5.65156
21.9791 119.655 1.18322
13.7455 152.311 -0.186722
30.2917 82.7368 5.21774
23.5566 100.967 9.68935
23.323 127.234 -6.78433
17.6964 144.202 -4.21021
21.2789 109.65 9.76291
17.976 128.796 5.30897
19.7338 116.305 9.26387
21.0584 110.682 9.7303
20.3809 113.407 9.59399
17.7506 144.437 -4.20777
31.2192 84.9677 2.0196
17.6612 131.834 4.22985
18.3583 143.034 -4.74357
21.1153 110.582 9.76165
24.8875 97.8421 8.99702
20.4122 128.518 -0.153266
30.2721 85.5907 4.02547
31.1954 85.5459 1.87799
22.7985 117.541 1.3163
18.7563 132.156 1.68422
14.4149 145.336 3.61581
19.8628 116.466 9.26614
18.9256 125.996 5.35624
21.098 121.044 3.36147
19.3808 131.01 1.05514
20.0964 115.736 9.31837
32.3068 83.3652 0.932446
21.682 125.358 -0.687246
18.1707 129.264 5.2874
17.4958 133.497 4.16837
21.7464 125.13 -0.570391
18.5666 143.519 -4.78327
32.2595 83.2219 1.46631
15.5822 149.348 -1.32907
20.7307 139.325 -7.21059
27.011 104.352 0.42386
29.7125 90.3165 3.05972
16.9754 147.237 -3.22825
26.6516 92.37 9.26071
18.7122 132.079 2.7498
18.4198 130.659 4.41654
21.4639 123.417 1.87082
23.0867 117.769 1.68667
16.5935 147.878 -2.20106
24.2267 101.497 9.57881
24.3192 124.434 -5.51003
