ply
format ascii 1.0
comment Created by Open3D
element vertex 1903
property double x
property double y
property double z
end_header
7.49788 111.6 -0.313065
1.23173 95.9981 6.39861
16.3947 129.702 -4.52717
-14.3 75.9871 -0.95263
0.715218 105.933 -7.42574
-4.56324 85.0088 8.26609
21.4994 135.559 -1.12998
-6.57396 81.8271 8.10434
-9.55053 77.8553 6.88797
21.1819 128.395 7.62248
-6.86199 93.6143 -7.4821
22.189 135.639 0.535448
17.1922 123.068 6.05784
7.5816 111.888 -0.0582283
11.6169 120.884 -2.98668
11.0518 106.685 14.148
-3.56517 99.3415 -7.67475
17.7792 122.438 8.25381
14.2765 112.314 13.9047
15.4998 124.213 1.20489
10.81 112.665 6.07044
-13.5051 81.2672 -5.48417
12.2791 122.294 -3.14012
4.38183 102.939 5.00248
12.6817 124.404 -4.90574
10.022 116.678 -0.623779
-11.4982 85.3932 -6.30526
-2.41522 87.4798 10.4613
11.3273 120.737 -2.99555
16.5402 118.321 11.2873
18.1319 125.263 5.79165
-14.6034 76.1161 -0.893147
19.4698 125.76 8.03546
-3.099 100.4 -7.57911
12.2207 108.834 14.4428
19.1447 125.641 7.60105
9.79566 115.942 0.108259
17.7959 124.07 6.78497
16.6718 130.662 -4.1001
18.8902 134.449 -4.22651
9.14041 105.31 12.4846
-8.97941 91.0899 -7.97129
1.26392 97.2448 6.06345
1.51237 107.607 -6.75755
5.43277 112.432 -4.54311
21.1367 131.3 4.74865
-2.17264 87.9844 10.7324
16.1291 117.117 12.3798
16.5854 126.031 1.87469
18.0964 125.601 5.67401
-2.87203 101.484 -8.09958
8.88599 104.672 12.9925
8.02067 111.959 1.77841
15.7483 119.36 8.78892
18.5801 125.759 6.64014
11.8594 122.127 -3.0324
21.773 136.522 -0.361027
2.0044 99.1651 5.51696
-4.66739 98.7354 -8.19709
8.55683 113.42 1.21627
15.5201 118.999 8.97529
20.0577 136.278 -3.57929
-13.823 73.4456 4.97215
20.1162 136.415 -3.52602
18.3796 124.914 7.70007
7.81123 112.038 1.68791
9.84463 106.918 12.6737
-13.935 81.6848 -5.68547
-4.60451 86.2596 8.40308
7.84177 112.186 1.6828
3.70921 110.769 -5.28813
16.1003 118.578 11.2413
-10.0427 89.6797 -7.45943
17.8243 123.721 8.31534
0.563964 94.7439 8.7848
0.992045 96.1414 7.9801
-14.0807 79.6266 -2.98168
20.7493 131.603 4.56588
17.7063 125.994 5.28772
-14.4757 78.2239 -1.99521
16.457 121.29 8.71372
13.7304 112.765 13.8866
14.5499 125.56 -0.798853
15.8338 117.368 12.5694
-15.0726 75.0564 0.997331
15.4496 126.192 0.404215
20.2085 128.663 7.45926
17.8205 133.981 -4.50979
16.3015 121.192 8.77944
16.2605 123.906 5.19331
-14.0539 74.0902 4.61339
12.8093 125.392 -4.03308
-2.91698 88.3259 10.1213
10.6423 112.914 7.47294
-11.7183 77.4206 5.41443
10.0694 110.5 9.4217
0.362478 107.322 -7.23633
0.634482 107.695 -7.10507
12.7237 126.247 -5.1228
16.7507 126.616 3.03011
8.54901 113.99 1.81414
3.47126 102.235 6.10544
-14.2084 79.689 -2.60693
8.57059 114.337 1.48387
-3.38402 102.153 -8.3956
-11.5961 77.8966 5.34819
20.8788 134.863 1.43482
4.9089 104.827 6.03784
14.897 129.833 -4.82921
5.45302 108.551 2.45476
2.46808 100.8 6.10409
-15.2616 77.0314 -1.17489
-8.29442 81.7454 7.67156
12.9197 126.168 -4.13774
10.9485 116.651 3.93194
18.374 135.506 -4.47381
10.2229 111.831 8.636
14.7912 126.379 -0.302488
10.0958 111.312 9.08948
10.1803 116.294 2.87482
4.84322 104.698 6.41989
13.0129 125.531 -2.91428
13.0826 124.559 -1.48749
12.9551 112.426 13.9312
-1.43648 105.323 -7.66753
10.7829 117.073 3.37645
11.0634 116.128 5.33142
15.226 119.048 10.5026
21.4907 136.865 0.954243
-7.80501 95.3736 -8.25495
20.1083 132.37 3.8285
12.1519 125.101 -3.80127
8.10461 114.141 1.68343
16.5429 128.272 1.53744
15.8247 127.999 0.379374
11.048 116.429 5.0763
15.9252 126.831 2.11259
12.3601 125.837 -4.21331
2.30926 110.471 -5.83183
-6.32023 98.4052 -8.64663
16.4834 124.348 6.74619
-6.10701 85.9393 7.95779
1.82745 99.6274 7.31902
2.21371 100.702 6.81337
18.9989 128.463 6.96342
-6.50656 85.1845 8.17527
16.4863 126.501 4.13921
21.7196 138.539 -0.133834
10.5907 122.596 -3.32691
-1.74634 91.5529 10.3391
5.46375 109.616 2.54856
-11.0063 89.8863 -7.26819
-8.73605 94.482 -8.2753
14.6457 127.439 -0.677127
-1.86161 91.2577 10.6524
16.0327 125.357 5.00395
10.0153 112.529 8.79395
-0.824676 93.842 9.69645
14.5076 124.798 2.60566
14.6007 124.717 2.90921
14.305 127.378 -1.12945
16.1192 124.729 6.19522
-6.13389 99.1659 -8.46124
16.5707 128.528 2.30134
16.2642 125.068 6.14282
15.8239 127.179 2.49781
10.1333 108.851 14.0116
8.19206 115.207 1.75401
12.1783 125.653 -3.14025
4.84424 113.16 -2.68741
6.43038 112.007 2.25872
10.206 120.473 -0.569654
9.49 117.266 2.06606
1.97664 100.617 7.4762
-1.64622 92.9971 9.57324
-11.3488 89.8684 -7.14063
15.0143 127.148 1.22455
-11.2844 79.4634 6.54325
-6.67782 98.9448 -8.63974
7.57816 114.516 1.82001
20.2568 134.9 2.69129
-2.93533 90.0819 10.8924
-0.990332 107.139 -6.83407
16.1639 122.898 9.5974
9.49497 111.236 10.3821
13.6908 128.667 -3.113
0.927401 109.987 -6.33292
19.4355 132.752 3.97226
10.6694 118.651 3.41018
13.8245 128.516 -2.55782
20.7377 136.337 2.15668
12.0597 126.907 -4.23885
-15.6943 76.5881 1.35932
2.95117 102.543 7.84717
13.873 116.071 13.7854
-1.86502 92.748 10.1946
1.78342 100.083 8.54688
-15.7101 76.7457 1.22818
15.9626 133.848 -4.60574
17.2253 127.707 6.05909
20.4304 139.455 -2.10199
15.5271 125.088 6.06347
-14.5486 84.0431 -5.36529
8.04928 116.188 1.64703
13.4544 130.125 -4.69102
-16.0101 77.8433 -0.333721
8.86077 117.463 1.85071
-2.36897 91.4302 11.4195
13.7483 125.326 2.31621
21.0762 137.914 1.7956
10.3169 110.519 14.1111
16.6593 125.539 8.33365
-8.07372 97.8068 -8.85291
-15.7811 79.6312 -1.89131
13.6726 130.698 -4.59267
-2.38013 92.2995 10.5904
15.6451 134.054 -4.65566
-11.7814 90.5978 -7.27405
-14.1082 77.483 4.67163
-6.97513 99.6153 -8.50517
7.52251 115.698 1.84939
14.4869 119.822 11.5717
11.9836 127.698 -3.90559
-14.532 77.1165 4.6745
13.3615 126.158 1.17659
-9.57799 83.4777 7.161
-8.53068 84.7844 7.72547
9.23102 111.349 11.533
6.09843 113.251 2.50211
15.4879 123.044 10.0278
15.4527 129.707 1.48166
12.8362 130.055 -4.5557
16.2381 129.11 4.05487
16.2336 127.968 5.55019
15.4406 126.329 5.98244
11.0918 120.329 4.43309
3.56895 114.851 -4.54143
14.4682 119.808 12.4225
20.4471 137.134 2.89195
5.27812 114.794 -0.757133
14.74 125.773 5.43925
2.49029 103.808 7.54982
18.7479 133.045 4.65675
20.6509 137.891 2.52524
15.5801 123.879 9.78413
5.0825 110.655 4.36945
19.3335 139.89 -2.76428
-0.637828 96.9504 9.92975
13.2914 131.306 -4.47801
17.2956 137.46 -3.80839
10.916 121.249 3.48918
19.189 134.619 3.96977
-0.516421 109.581 -5.90918
13.178 126.75 1.29186
11.243 120.293 5.5524
13.0627 127.084 0.779457
9.74683 111.806 13.3904
15.8375 131.764 0.709313
10.3604 117.015 8.00815
13.4844 129.861 -1.80946
14.7467 126.206 5.67645
20.1101 137.247 3.00034
-3.14729 91.9051 11.6915
14.1668 133.196 -4.45323
11.0093 121.578 3.77985
16.5791 136.92 -4.08033
15.3763 128.896 3.74567
10.9553 121.845 3.38477
15.6424 125.363 8.90674
18.7835 133.925 4.59028
18.5739 131.38 7.46465
-16.5966 80.2973 -1.91406
13.2663 131.033 -3.30799
17.5854 138.286 -3.39819
-16.8067 79.2921 -0.799318
4.93485 110.789 5.12992
15.6178 128.556 5.16689
15.1999 128.575 4.24983
-13.0799 90.0294 -6.58174
-7.05185 89.0949 7.54223
0.431697 100.006 9.50808
11.8749 115.652 13.8984
12.8463 117.41 13.8287
14.7825 123.217 10.4872
14.0064 134.028 -5.07469
-7.39194 88.9021 7.32518
13.4887 131.057 -2.27951
-16.6099 80.8602 -1.97279
10.1271 121.815 2.47569
-1.91957 108.334 -5.9165
7.28875 118.28 0.975499
18.3187 131.55 7.50307
-7.44333 88.9347 7.30946
15.3405 130.653 2.29376
14.2742 127.116 4.5852
-7.98262 100.523 -8.76301
13.2468 118.504 13.5229
9.43245 112.699 12.9001
5.05225 115.791 -0.399706
15.665 134.287 -1.47755
-10.7184 95.6589 -8.13442
10.3234 122.41 2.45421
10.5165 127.787 -4.0593
9.19771 120.985 1.93455
12.8776 117.939 13.7812
13.9867 134.602 -5.3386
-9.55202 98.3919 -9.0046
8.263 120.486 0.676483
12.8979 129.547 -1.07301
13.5646 128.111 2.21566
3.25528 106.532 8.00198
-6.94476 102.075 -8.08914
14.2602 122.496 11.0045
12.8812 129.757 -1.22732
7.85407 119.85 0.792856
20.7558 142.351 -0.592242
15.831 128.237 7.09052
-9.26037 99.1212 -9.0177
-0.982615 97.96 10.2278
-6.16609 103.87 -8.47547
12.0256 129.968 -3.16356
11.2151 122.959 4.15292
13.2493 119.206 13.4309
20.7944 142.511 -0.459672
15.8434 127.261 8.63638
-12.1875 82.541 6.31376
-13.7743 89.369 -5.87485
10.8646 123.23 3.21387
13.8912 134.831 -5.26296
4.77095 110.932 6.05425
11.1976 115.712 13.6655
-16.5495 82.4829 -2.86635
9.24119 114.299 11.325
9.43519 115.74 9.91355
-16.1453 78.0499 3.77916
14.7369 133.874 -2.07518
9.12588 125.231 -2.92402
-16.6958 83.4879 -4.34605
14.881 136.16 -4.64909
-11.3239 95.1865 -7.83951
15.4412 134.304 -0.967049
6.94313 118.566 1.14404
14.9077 131.645 1.33612
5.35393 116.787 0.049487
13.6088 133.39 -3.63038
-15.3408 79.1892 4.29626
14.8346 125.59 9.0773
12.1387 131.461 -4.20744
7.78158 119.499 1.91169
9.89931 117.622 8.90719
9.89811 114.407 13.081
11.7943 130.335 -3.37117
14.4951 130.605 2.07124
-11.6254 94.9115 -7.67352
5.62933 117.205 0.522273
12.8108 129.495 0.0695226
0.331479 102.124 8.6656
-1.12844 98.6333 10.0453
-0.648937 99.7153 9.681
17.6607 131.937 7.40528
15.6768 128.575 7.52113
9.90185 114.798 12.9391
13.1395 132.453 -2.89603
-17.0248 81.6211 -1.89574
11.1572 122.517 5.75681
9.88265 114.896 12.8752
11.1551 124.307 3.52035
13.4022 129.747 1.33103
8.51128 123.86 -1.53707
13.0195 134.101 -5.06777
1.3049 104.664 7.83873
15.4736 135.629 -1.73969
12.734 128.223 2.01811
14.4679 125.034 9.89115
4.65278 111.748 6.09291
0.546805 103.224 8.37853
14.3217 124.744 10.1453
-4.8848 106.365 -7.26436
10.4734 120.369 7.56616
11.1436 124.993 3.05933
-0.272143 101.65 8.78405
-15.3895 80.2596 4.00733
-15.6729 86.5973 -4.7116
-15.1151 80.6158 4.21613
9.1792 115.618 11.1037
-15.1623 80.6191 4.13466
17.2064 139.697 -2.74865
14.2701 134.818 -2.62643
15.4934 127.842 9.07226
-15.9296 80.2139 3.22356
-2.04208 97.619 10.515
-0.983368 100.26 9.43546
0.238793 103.087 8.41278
10.964 125.309 2.76778
-4.63256 106.969 -6.94867
-15.6759 87.1167 -4.96463
-3.0681 95.8895 10.73
17.3792 133.839 5.60533
-5.52342 92.1055 10.4124
-7.90943 102.632 -8.2736
15.0541 135.116 -1.00222
-1.27109 99.7271 9.70161
18.2915 136.502 4.18798
-2.46229 109.569 -5.44062
-13.9623 82.0708 5.41026
9.95801 129.04 -3.95528
11.2344 123.855 5.47097
-16.5379 80.45 1.9968
-6.02928 91.9552 9.6927
2.62003 107.24 8.51366
14.6832 136.028 -2.74274
13.9708 135.878 -4.06769
4.53751 111.865 6.7912
13.8187 135.398 -3.67243
4.56479 112.333 6.28747
11.1124 117.76 13.3293
12.8371 129.916 1.34989
12.801 129.402 2.0025
13.0402 121.398 12.8567
-6.74565 91.7827 8.69862
-16.2153 81.0516 2.26622
-14.0373 82.3629 5.25374
10.6055 125.454 2.46103
13.8423 135.284 -3.11122
15.1382 127.954 9.14157
7.4407 120.696 2.04381
6.22937 118.885 1.79548
10.4061 125.467 2.29093
-8.49978 90.3033 7.1724
4.23068 110.713 8.11398
19.0059 138.74 3.7201
8.77274 123.467 1.54779
8.28676 125.274 -1.77026
12.1131 131.752 -1.84651
-12.9519 94.4754 -7.4098
18.1288 137.354 3.85003
0.284667 114.657 -5.08205
-10.8748 98.988 -8.73724
10.0225 130.107 -4.11984
14.9312 136.829 -2.23691
13.4401 123.965 11.2078
-10.4639 87.7853 6.70738
9.29048 124.581 1.56433
-9.20239 101.761 -8.55692
-5.60939 106.891 -7.4776
-17.8077 82.6821 -2.35665
-16.2883 81.6887 2.21497
5.25339 115.046 5.33967
12.8268 130.74 1.32016
7.89603 122.738 1.09011
-16.9753 81.2674 1.35967
11.7005 131.355 -1.74636
6.52872 119.365 2.71267
7.73142 122.538 1.29194
5.38742 115.96 4.76953
14.117 134.543 -0.500903
18.4686 138.45 3.90153
9.8967 126.052 1.67929
5.52249 119.228 1.11882
-6.05534 92.8755 10.4083
11.9907 131.653 -0.933641
-6.29345 92.7648 10.0796
13.0111 133.622 -1.17952
-14.9158 91.5126 -6.65017
0.241518 115.314 -4.87678
6.28041 119.183 3.08864
0.571973 115.823 -4.77568
-10.6253 100.473 -8.81001
-9.02377 90.687 7.24924
12.1811 121.443 12.9985
10.1463 126.894 1.61696
9.45559 117.917 11.7757
14.0755 137.777 -3.92977
19.8727 144.457 -0.0815762
-11.927 86.8641 6.11993
10.139 131.201 -3.80168
-1.81867 101.534 8.96801
20.0516 144.344 0.632461
13.1837 133.314 0.158134
9.77087 126.649 1.59744
17.4367 142.373 -2.23388
13.4719 134.738 -0.829175
11.2467 128.08 3.07504
12.1204 131.764 0.199987
-17.6261 82.5833 -0.0520493
-4.07104 109.582 -5.84204
-10.5717 101.024 -8.72169
8.67155 124.881 1.76965
11.5088 128.053 3.76817
10.7353 128.028 2.16142
-1.69223 112.556 -4.44713
4.60005 119.541 0.0367612
-4.64716 109.165 -6.36252
19.4447 141.738 3.22268
7.42037 122.361 2.51994
11.4459 128.384 3.39005
-0.190862 105.215 8.36527
16.5448 134.693 6.19569
-15.0898 92.2726 -6.77592
10.6951 128.302 1.98666
-6.98465 106.884 -8.16689
-11.1817 100.421 -8.79874
12.6472 126.008 9.24575
-2.79447 100.111 9.63891
9.71542 131.15 -3.59403
0.605926 106.518 8.70512
-15.6751 91.043 -6.16662
13.434 137.75 -4.05715
6.43112 121.807 1.57067
-12.9926 86.3163 5.76103
-10.8778 101.135 -8.79064
10.531 119.985 12.7433
11.2483 134.703 -4.66857
-4.93729 95.4721 11.3395
-16.4125 83.1332 2.69403
-4.72734 96.0431 11.0772
17.1578 137.61 4.32213
19.3698 142.216 3.14003
10.2366 128.212 1.64975
15.3309 140.388 -3.10054
4.22408 113.389 7.95673
13.3825 127.738 9.17466
-15.7277 91.3109 -6.16613
16.6347 136.292 5.14989
-3.93296 97.8268 10.7776
-10.957 101.391 -8.82543
-17.1614 87.9748 -4.77096
16.4705 135.604 5.84629
11.5753 122.279 12.5584
5.35759 116.697 6.47869
-1.24983 113.909 -4.07276
11.356 121.795 12.7803
9.54709 121.723 9.0832
-17.6937 83.903 -0.456465
-4.35618 110.233 -5.80166
5.62101 119.072 4.16814
5.9363 121.41 1.83111
-13.1248 86.7627 5.7268
-2.66372 112.084 -4.52885
9.40842 127.189 1.8588
5.12228 116.143 7.005
4.95398 115.645 7.31352
10.4933 133.699 -4.10981
15.9326 133.848 7.34752
19.1817 145.145 -0.250594
2.5264 110.301 9.05001
11.4433 128.457 4.74089
17.4464 138.684 4.42644
10.9151 121.463 12.705
-13.4908 86.4155 5.66882
-5.52981 94.8785 11.8623
-3.67441 99.3174 10.132
7.37575 123.626 2.4881
-16.3148 83.8027 3.1425
-16.1771 83.8524 3.37412
10.6865 121.31 12.5884
5.23512 116.681 6.93678
4.75539 115.248 7.80518
12.4402 126.703 9.51
5.57345 118.923 4.85091
-10.02 91.2042 7.22399
13.4393 136.39 -0.801799
-17.1411 84.102 1.17016
-3.87386 99.2172 10.2166
-13.5456 86.7244 5.65175
5.51152 117.874 6.28173
-16.4583 90.5519 -5.46541
12.9668 127.801 9.49531
13.4943 138.307 -2.90433
-6.5667 94.6359 10.5325
1.34266 109.053 8.89657
4.88383 115.857 7.72491
-13.0312 98.5837 -8.16718
-10.8123 90.6819 6.83249
7.79983 128.794 -2.46682
-12.6925 99.4269 -8.46373
-8.42295 106.778 -8.79809
17.0644 143.365 -1.36639
5.57619 119.101 5.3347
9.14828 121.392 10.0406
9.44308 122.594 9.13492
-9.32896 92.3703 8.00028
14.4813 140.121 -2.57886
-16.216 84.5636 3.41978
10.0366 124.437 8.21967
9.3517 132.138 -3.16856
17.7311 140.278 4.32613
-16.9423 90.0863 -5.1257
6.59237 122.588 3.4492
-1.94026 114.168 -3.87074
11.3065 129.107 5.23928
-14.0126 86.8428 5.58049
11.329 129.683 4.65069
6.16803 123.45 1.72308
11.3164 129.68 4.74008
13.5079 139.7 -3.39356
-0.0225253 107.637 9.00131
-9.41092 106.161 -9.15558
15.6874 135.406 6.89742
-4.38246 99.5375 10.2485
-1.22733 105.713 9.07995
-10.04 105.198 -9.07908
1.11612 109.849 8.84305
0.321674 108.466 8.93064
-10.6493 91.5901 7.24807
-15.866 93.5214 -6.41429
14.8527 141.288 -2.24594
-8.59791 94.1793 8.52436
10.8635 125.414 9.95557
11.6412 132.723 2.23002
7.46362 129.255 -2.23234
11.4232 130.569 4.56194
10.8317 128.55 5.95218
7.91833 126.59 2.29591
-5.36046 97.7972 11.0207
12.9999 139.07 -2.84742
-4.51939 99.9422 10.1655
1.45526 120.171 -3.11472
16.0569 143.183 -1.49908
-1.94037 105.202 9.00095
-17.1427 86.9853 0.0272773
18.0228 145.893 -0.64132
1.95776 111.64 9.173
10.5912 128.212 6.43626
17.7671 145.599 -0.60122
13.0272 139.471 -2.80629
11.5838 132.134 3.59746
10.8071 138.086 -5.71003
-2.05631 115.032 -3.5064
11.2358 130.63 4.90927
-17.8727 88.4237 -2.87159
10.7421 125.959 9.99489
9.57926 122.943 11.3963
9.33302 123.377 10.3173
0.428684 119.198 -3.33091
3.47065 122.028 -0.431984
9.63795 122.899 11.69
-13.3468 88.9285 6.30147
-13.5037 88.7832 6.24616
8.15201 127.806 2.30076
-17.1964 87.7651 -0.274187
-14.9613 87.0958 5.3849
8.00014 131.414 -2.61436
-5.41292 111.865 -6.08528
0.575509 110.289 8.81201
14.7148 134.646 7.68007
-17.2531 91.3487 -4.92057
2.32377 121.808 -2.28813
9.46573 123.523 10.7948
12.4856 129.835 9.12457
-2.05468 105.695 9.1306
11.3111 139.258 -5.52578
-0.905056 107.779 8.94661
-16.2509 94.0442 -6.18674
-17.3431 91.238 -4.85721
-2.01019 105.911 9.17147
-17.4836 90.454 -4.00555
-13.2393 101.05 -8.50025
6.8752 127.698 0.316525
6.89579 128.377 -0.497011
17.0576 141.396 4.57384
10.2572 128.429 6.7852
6.6921 124.804 3.83014
-16.3168 94.3877 -6.15695
12.8749 131.38 8.7079
12.7876 131.275 8.7103
17.2097 141.868 4.6179
7.6313 127.411 2.75956
9.92496 124.961 10.8381
-16.5999 93.908 -5.86821
-3.00999 104.96 9.01143
14.8278 136.103 7.04727
-17.4031 91.5984 -4.47208
-3.6322 104.125 8.86455
6.72678 129.048 -1.06006
-8.32366 95.624 9.85145
-8.50497 95.4928 9.69131
6.16793 123.889 4.50683
1.85403 113.031 9.30926
2.48126 122.826 -1.90382
-12.8778 102.784 -8.8709
4.74441 124.105 1.39472
10.2496 132.905 1.8823
17.4888 143.035 4.40066
18.0613 145.437 2.54536
15.4504 138.127 6.39983
7.83896 128.464 2.57366
5.70445 121.773 6.6531
5.31347 120.475 7.49591
-4.56562 102.603 9.4582
12.6669 139.759 -1.55352
9.58128 126.483 9.00951
-12.7031 103.335 -8.75655
9.65027 126.832 8.80217
17.785 146.684 0.61828
-6.75377 112.104 -7.29846
15.4287 143.792 -0.644673
9.42505 124.792 11.0457
1.20653 112.624 9.16086
-6.70368 112.299 -7.29705
-17.3086 92.7783 -4.78486
5.90166 123.223 5.71218
-8.57876 110.296 -8.61285
9.02278 131.351 1.94912
9.56445 132.353 1.82786
5.36012 125.462 1.74217
4.72973 119.184 8.50159
-15.5697 97.5467 -7.04599
-3.80912 104.644 8.99635
6.5877 130.177 -1.66472
-10.2266 94.7686 8.02608
-17.468 92.4435 -4.48041
6.45226 127.927 1.02533
1.26232 112.918 9.27438
-4.72828 114.472 -5.55284
15.5004 139.392 5.67765
-16.1382 88.2472 3.92576
-15.2178 88.903 5.12407
7.05525 126.78 4.02189
9.33522 126.357 9.53624
8.9668 136.478 -4.24137
-7.03941 112.513 -7.57496
14.1036 136.304 7.20022
-5.83816 100.488 10.7122
12.2977 141.807 -3.66299
12.2545 141.786 -3.69377
13.8268 135.524 7.86053
-5.30059 102.276 9.82824
9.89675 129.672 7.07798
-7.88497 111.977 -8.11643
-7.13805 97.7137 11.9417
6.33534 128.596 0.974515
-8.85062 96.3851 10.0245
-5.95748 100.596 10.7916
-12.0205 93.1815 7.56446
13.4174 134.551 8.69239
13.4696 134.681 8.67884
11.8218 141.783 -3.82942
-17.4365 90.6724 -0.550124
2.75891 124.693 -1.07751
12.4587 133.319 8.6203
3.75373 125.029 0.680051
-15.3421 90.1926 4.73104
17.3354 145.875 2.89003
9.63246 139.39 -5.22565
16.7682 147.396 -0.258671
7.25581 133.442 -2.60597
7.95927 129.866 3.55332
5.35466 122.311 7.8111
3.85804 118.641 9.39269
12.0462 136.356 4.08818
7.75315 129.343 4.01352
-13.4425 103.866 -8.45798
6.19885 129.429 0.659399
-17.2459 94.5118 -4.45983
8.30869 130.901 3.34524
6.23832 125.847 5.45324
2.52332 124.779 -1.11266
-12.0533 94.0446 7.44349
17.0587 145.476 3.4946
-4.44665 116.042 -4.58607
-17.2422 90.0533 1.55057
-15.7234 99.4065 -7.23523
7.43796 128.68 4.7817
16.0834 147.02 -0.290127
8.26659 137.055 -4.09291
-10.675 95.9146 8.51486
4.42153 120.907 8.6596
7.45697 135.414 -3.44054
10.646 136.801 1.66126
-16.3054 90.2016 4.07937
5.11093 122.609 8.15611
-16.3498 98.4212 -6.56557
-2.58478 118.204 -2.5742
-17.6025 90.6076 0.895893
-13.3098 105.027 -8.5025
-9.81787 111.124 -8.86967
2.82715 125.779 -0.684727
9.49897 134.227 2.94806
11.2779 135.449 5.19642
10.8224 137.202 1.98147
10.1181 141.726 -5.33661
-17.4738 90.7115 1.38645
6.66421 133.934 -2.65542
-17.0004 93.4927 -1.11773
8.54402 138.712 -4.73884
9.45567 130.128 8.31062
4.48072 121.601 8.6779
11.0718 132.372 8.89938
-5.14267 105.104 9.47424
11.8006 142.005 -1.81656
-12.9686 94.1124 7.01668
1.70669 116.471 9.62448
15.1935 146.201 0.169448
-5.35166 116.965 -6.05114
13.9397 144.056 0.344442
9.90565 131.098 8.43485
5.19965 123.66 7.96418
7.48542 129.612 5.29633
-13.1613 106.265 -8.78289
-16.1603 99.7759 -6.82112
4.83776 122.903 8.31394
14.2461 139.608 6.91766
-4.8868 105.95 9.42067
3.84818 120.474 9.47575
9.63474 131.132 8.15104
16.7173 147.11 2.74158
-11.5873 109.192 -8.9534
15.5972 147.681 -0.276775
2.14248 117.997 9.2097
16.3563 145.444 4.32981
14.9252 142.725 5.07876
10.3227 142.946 -5.06237
-17.183 97.4648 -5.25672
-15.8174 101.228 -7.14167
11.0577 138.417 2.51546
-2.25609 111.384 8.87646
7.94141 131.993 4.28361
-2.22927 119.96 -1.96321
16.3487 148.065 1.58884
-17.3472 92.3655 1.35215
5.49517 131.459 -0.0972772
9.93052 132.508 8.13416
6.63577 128.427 6.35317
11.2257 138.79 2.91947
13.3114 144.452 0.117772
6.7655 128.971 6.09584
12.1656 139.007 4.7527
13.8506 140.243 6.77424
7.18502 130.203 5.46605
6.33605 135.225 -2.80621
1.3017 117.604 9.19773
12.5698 137.038 8.28547
11.5572 142.628 -1.07745
-17.3521 92.9379 1.14844
6.02409 127.1 7.28397
-7.03788 102.037 11.6519
6.21149 134.991 -2.4565
7.45492 138.56 -4.38988
-14.388 105.41 -8.34701
-10.3309 112.483 -8.75403
5.54073 126.015 7.8096
8.32255 140.494 -4.89543
9.70134 137.84 1.53337
-8.51235 114.961 -7.91549
-9.56412 113.708 -8.51446
11.8834 136.568 8.22097
-5.5116 106.659 9.56579
10.8897 135.343 7.71103
-17.3153 94.0562 0.632826
7.38691 139.048 -4.47386
6.90492 137.937 -4.02538
-7.03646 102.759 11.5789
-16.2573 93.1939 4.20935
-16.2214 93.2746 4.24539
4.91522 130.525 1.4756
-1.75461 113.361 9.33692
-5.78853 118.57 -6.00124
2.4022 120.783 8.70851
-7.52615 116.731 -7.30813
9.86864 138.74 1.57208
11.53 137.159 7.28783
11.2495 139.669 3.46877
11.5903 143.573 -0.811629
-9.36529 114.604 -8.30657
12.2898 140.264 5.05249
-17.4003 97.9402 -3.90337
13.8355 146.321 0.672473
14.3839 143.686 5.24919
13.5382 141.628 6.13924
12.272 138.956 6.899
9.6225 143.874 -5.09825
12.4337 139.486 6.58508
-17.685 96.9385 -3.00494
-17.1737 93.4247 2.63391
5.45516 134.067 -1.33085
-4.35034 119.729 -3.82219
-15.003 104.892 -7.36182
-3.32847 111.694 8.9843
6.93298 131.245 5.758
-4.79091 120.115 -4.86811
15.5933 148.84 1.74182
7.2397 132.901 4.44378
9.56805 144.182 -5.09428
6.60803 130.718 5.94176
7.2387 132.661 4.96386
-17.2442 94.0211 2.44432
8.1026 141.879 -4.95529
5.51774 135.022 -1.64096
-13.3399 96.53 7.64404
7.71704 141.027 -4.65166
4.39141 125.246 8.62187
4.68454 131.559 1.24423
9.71619 144.764 -5.0064
1.6993 121.242 8.17088
-17.7415 96.6076 -1.67556
10.1074 140.037 2.11019
-3.94582 121.135 -3.5348
-13.9647 96.2836 7.13388
11.4792 140.767 4.39959
-16.6505 94.331 4.09348
-2.66858 122.01 -1.6459
13.4866 143.323 5.47355
-14.8985 95.4177 6.49481
7.02377 140.275 -4.36098
-0.296432 117.314 9.60065
4.97765 127.08 8.40285
8.93216 139.342 1.30129
8.59956 143.974 -5.37496
9.61985 140.327 1.53662
-3.63625 121.828 -2.97648
-17.8022 97.0735 -1.27184
11.2546 145.321 -1.28619
14.2923 149.021 0.575989
11.2358 141.097 4.29904
-9.3375 101.352 11.5145
-2.56797 114.145 9.56535
-14.6623 96.1912 6.88686
13.1021 143.198 5.70924
14.228 149.062 0.626364
-0.202005 118.457 9.26258
-17.5677 98.8669 -2.55203
-8.21428 118.057 -7.23559
1.26158 121.889 8.12313
3.33422 130.326 1.71433
3.96687 131.663 1.3663
3.41813 130.69 1.58681
-16.1003 104.065 -5.8597
-6.85156 106.662 10.6546
-9.96911 101.092 11.1964
0.0939977 119.608 8.96951
3.31846 130.741 1.58062
-14.838 107.529 -7.33466
4.39937 133.129 0.845463
11.3706 147.03 -1.98702
-1.91291 124.307 -1.07484
14.7072 150.268 1.05005
-9.49538 117.006 -7.83016
-1.03788 117.421 9.76925
2.11847 129.416 1.07945
1.03705 122.126 8.19212
-12.5619 98.961 8.99629
-3.39028 122.874 -2.19552
3.0438 130.651 1.63949
5.39941 137.454 -2.08586
-12.7636 98.8528 8.81716
1.22729 122.846 7.83727
5.90081 139.349 -3.43944
-9.67671 116.899 -7.80101
-15.5868 96.3984 6.06585
-6.44572 108.268 10.3937
0.580472 127.72 0.50199
4.63021 134.891 -0.014809
-2.34219 115.541 10.0417
-2.7172 123.685 -1.13576
5.7654 131.602 6.82171
-3.11407 123.576 -1.81461
12.4934 148.644 -0.58924
8.65727 140.886 1.2197
12.5987 144.094 5.65419
0.331042 121.28 8.83032
1.33452 129.12 0.893768
7.55091 143.856 -4.78482
-17.7614 98.6628 -0.607408
-6.50657 120.895 -5.15943
13.7466 149.881 0.957016
-5.09384 122.869 -4.53561
-17.7201 101.743 -4.16099
-6.77197 108.474 10.6145
8.41286 140.903 1.36473
7.32767 137.015 4.13451
-3.46472 124.124 -2.34121
-4.70751 113.18 9.13631
-17.8004 101.528 -3.80385
-13.4182 99.3136 8.48149
13.1718 146.493 4.65248
-6.03712 121.9 -4.66973
-15.4351 97.8978 6.18169
-17.7385 100.085 -1.54333
-7.6371 120.194 -5.71179
2.75307 126.191 8.89682
-17.8109 101.303 -2.98744
-14.9671 98.5699 6.65674
7.02319 136.2 5.22864
7.17199 136.785 4.8115
5.55043 140.158 -3.00895
-9.14263 104.49 11.5891
-17.7364 98.5812 0.854794
2.69332 126.345 8.82941
4.03691 128.657 8.76157
-13.1014 113.522 -8.31915
-17.7379 99.4828 -0.114331
-7.4606 107.836 11.155
-17.3059 101.258 -1.40173
-10.9707 116.624 -7.61911
-8.46613 105.995 11.4676
-17.6108 103.572 -4.85311
-2.01021 126.148 -0.562826
10.4663 148.843 -3.09823
-15.716 98.5198 5.75368
-3.11297 116.079 10.1188
-16.8062 98.0433 4.07965
2.19309 131.688 1.43109
-9.73819 118.747 -7.40925
3.13073 127.334 9.07819
-13.4517 113.271 -8.27893
-14.7646 99.3282 6.97866
-12.9043 100.772 9.14541
-2.25587 117.768 10.0363
7.07359 137.548 4.49987
2.69307 127.057 8.69784
2.91068 127.26 8.90675
10.3053 143.892 3.28688
-11.6333 102.133 10.2586
12.4046 146.534 4.50119
11.0665 144.148 4.71543
0.433364 124.133 7.79385
13.5329 150.145 2.30636
-7.82482 107.729 11.2894
-0.207995 129.072 0.160671
-1.94329 118.663 9.88507
-2.89821 116.732 10.3356
12.516 147.208 4.03945
-9.37666 105 11.6273
-7.38655 108.851 11.0311
-11.1517 117.073 -7.61975
-17.1845 98.9189 2.90207
-15.846 99.1632 5.49841
1.07864 131.095 0.565601
5.65626 133.906 6.79827
-13.0604 114.396 -8.11428
11.2693 144.616 5.05644
-17.2526 103.841 -3.39299
-16.8086 102.825 -1.09698
-7.75133 121.229 -5.42896
13.2998 151.101 1.12941
4.9247 132.109 7.74287
7.67636 141.377 1.68745
4.78887 138.989 -1.39985
6.23221 143.331 -3.87902
-16.7984 98.9882 4.02712
9.13447 148.816 -4.70708
1.68661 131.978 1.15478
2.01414 132.343 1.42385
12.7843 148.803 3.25989
-8.41751 120.681 -5.85579
-12.1335 102.277 9.95117
7.04599 139.612 2.91441
-17.4583 105.227 -5.01366
-12.8002 115.215 -7.79504
-13.3738 114.474 -8.06205
-9.55908 105.607 11.6401
-16.9376 102.959 -0.613091
-12.5117 102.332 9.67615
-7.73974 121.877 -5.2943
9.86542 145.59 1.82495
-8.64158 120.904 -5.86942
3.52351 129.752 8.77195
-16.8379 99.9973 3.58019
-4.44647 125.463 -2.69103
3.34812 129.521 8.87736
-0.58697 123.074 8.79456
-1.04603 121.742 9.53218
4.90969 140.828 -2.32559
-16.9499 100.347 3.10528
-1.52208 120.916 9.68512
-12.5923 102.66 9.54818
-16.5634 108.47 -6.40682
-8.83856 107.616 11.4641
-9.68282 120.546 -6.96745
-16.7326 105.081 -2.11329
2.68618 134.879 1.04016
11.3449 147.169 3.83204
12.6685 150.571 2.28061
-17.373 106.288 -4.92158
8.4204 148.856 -4.49006
-9.89477 120.532 -7.16
-17.3164 106.633 -5.09269
-10.7186 105.076 11.1374
9.86477 150.322 -3.01189
5.34751 136.186 5.58533
5.48801 143.28 -3.22693
-9.4478 107.175 11.5716
10.8868 150.405 -0.616882
-15.2856 112.506 -7.59821
-11.0109 105.189 10.9962
-16.3426 101.823 3.99231
-5.47389 115.493 9.65289
-17.2838 102.995 0.520331
-7.21146 112.182 10.3648
4.66479 134.762 6.69582
-16.9623 104.527 -0.499403
4.62829 134.823 6.66357
-15.531 112.375 -7.50102
0.242769 127.17 7.37263
6.95954 147.563 -4.40526
-10.0414 121.296 -6.8424
6.49213 140.269 4.10437
1.20167 133.761 1.2053
4.36936 134.23 7.42713
10.9441 148.241 3.51912
6.71513 141.703 2.94735
12.0842 152.435 0.761109
-15.6326 102.534 5.80618
0.80745 133.67 0.911765
4.386 135.684 6.05
-2.99308 120.505 9.85648
-16.3884 106.544 -0.786007
-3.17372 128.865 -1.27247
1.25581 134.301 1.20732
7.49328 144.451 1.47884
-4.47923 127.974 -2.87291
-13.4825 116.581 -7.34843
-16.1132 105.908 0.825584
4.20373 141.298 -1.31011
-16.8557 103.876 1.95179
-6.02352 126.501 -4.02021
-15.2921 103.118 6.30508
4.0876 134.441 7.42901
4.32661 136.116 5.80825
2.24923 130.086 9.21962
2.06935 129.931 9.04204
-16.325 105.381 1.3445
-16.7251 103.921 2.37768
7.03025 148.467 -4.18759
3.59125 133.212 8.12662
6.79595 142.825 2.61365
-0.147123 127.71 7.43433
3.16185 132.503 8.34853
-1.39956 124.462 9.04237
-14.497 115.68 -7.64937
-14.655 115.471 -7.71855
-0.201821 133.418 0.136449
6.22467 147.46 -4.18744
-15.3664 107.362 1.34822
-12.9989 105.358 9.02749
11.4673 151.559 1.82704
-16.6583 111.209 -6.31508
-0.0906303 133.685 0.26251
2.08403 130.473 9.12882
-15.6833 106.86 1.5615
10.0747 148.614 2.90152
10.8703 150.042 2.76442
-3.20109 129.962 -1.45503
-8.88701 111.289 10.5638
-13.9493 105.049 7.84024
4.14606 142.305 -1.44515
-0.118821 128.181 7.66801
-9.5665 122.851 -5.64353
-14.6235 115.959 -7.55742
6.38129 142.29 3.46195
-16.2397 112.748 -6.83944
1.20676 129.833 8.49267
-1.19712 132.943 -0.60884
-10.7349 107.923 11.2763
3.02302 133.12 8.28959
3.91399 141.821 -0.982079
9.17245 151.409 -2.04436
1.26118 130.363 8.19135
-15.0266 115.609 -7.64118
7.504 150.12 -3.91275
-10.1149 108.861 11.5947
2.43883 138.32 0.513508
-8.27603 125.771 -6.21675
-9.72102 123.03 -5.6475
-16.0706 104.261 4.97226
3.14326 133.696 8.16926
5.68338 141.31 3.89971
3.47943 134.667 7.76199
-14.9022 107.933 2.8925
-4.56006 129.603 -2.88733
-17.9829 107.694 -3.36917
-15.1398 107.539 2.9724
-9.32224 124.582 -6.47101
-10.6952 108.516 11.3364
-15.6422 104.679 5.80607
-15.3949 107.075 3.28938
4.66383 139.864 4.0337
-16.8381 112.06 -6.13596
0.211622 129.272 8.19613
-1.77738 126.614 7.42851
-13.8465 106.035 8.15722
-7.9833 114.484 9.85467
-1.12595 127.861 7.32706
8.53405 151.78 -2.7918
-8.82761 125.867 -6.4646
-11.7173 121.735 -7.24624
-16.1381 114.27 -6.97667
-9.50084 111.725 10.5881
1.746 138.101 0.649047
-15.2838 106.983 4.45299
3.71635 142.704 -0.939636
-3.65024 131.297 -1.98573
-6.27532 117.872 9.81262
-15.5839 105.648 5.69805
10.942 153.589 0.877062
9.13923 149.792 1.92532
-1.2647 128.289 7.43517
3.3611 142.333 -0.681732
-14.318 109.142 4.39707
-16.3212 108.452 1.04708
-1.41766 128.399 7.26403
-2.117 126.037 8.81763
3.86099 143.929 -1.39505
-0.367429 130.412 7.06168
5.23303 142.28 3.79764
10.1005 151.835 1.91928
4.43517 145.908 -2.46801
2.98595 141.973 -0.473557
1.11631 138.127 0.558336
10.081 153.491 0.146069
-10.345 111.317 10.8952
-9.9647 125.49 -6.56086
2.42616 141.111 -0.146427
-9.32906 113.4 10.4996
-10.405 124.619 -6.25107
-7.50729 129.374 -5.98337
-2.83283 133.683 -1.47549
-14.2208 119.117 -7.02049
-11.9294 123.096 -7.17412
2.31016 141.409 -0.155523
-11.2742 123.721 -6.40897
7.02196 147.77 1.78747
-7.97904 129.242 -6.42216
-2.59808 134.224 -1.2543
-3.63375 123.795 9.98371
-1.54281 130.404 6.13398
1.22179 139.556 0.336545
1.82292 140.765 0.106966
-12.4211 122.918 -7.32728
-9.41869 128.332 -7.86228
-6.14848 131.75 -5.22562
1.23567 133.79 8.00979
-2.59481 134.585 -1.19338
9.4702 152.498 1.54504
-13.9807 120.145 -6.91077
-3.42751 133.912 -1.94785
-14.0029 109.969 6.29365
3.54044 145.436 -1.7125
-18.0483 109.108 -1.0727
-0.26154 133.05 6.14172
8.10469 150.975 0.97583
8.74426 151.616 1.53125
-18.2732 110.511 -3.29221
-15.9458 117.325 -7.07178
1.68537 134.527 8.57127
-18.0995 111.554 -4.11141
-0.00666397 138.196 0.288254
-2.16217 130.292 5.88275
4.12184 147.226 -2.42407
-13.8254 109.118 8.47354
-7.2735 131.723 -6.63987
-4.22446 124.044 9.82108
1.76579 135.017 8.51437
-18.2982 110.681 -3.05333
-4.21815 124.429 9.38391
2.19522 137.584 6.28381
-11.5636 110.863 11.412
-2.49049 135.586 -1.0192
1.22354 134.975 7.76809
8.50499 152.149 1.2632
2.83274 140.874 3.83102
6.98468 152.7 -2.50281
-11.1015 125.696 -6.32689
-4.70176 123.8 10.0119
1.45715 135.413 8.27769
-13.7987 109.982 8.43596
-17.9469 109.672 0.0418623
-4.75861 124.014 9.78504
-8.70866 131.193 -7.89906
2.17496 139.628 4.56606
-13.9049 110.241 8.13617
-17.4883 109.889 0.968559
8.50546 152.954 1.08786
-15.9529 118.32 -6.55147
1.77113 137.764 6.33411
-12.8176 111.392 9.18622
-15.7811 118.235 -5.94229
4.4569 149.668 -3.09293
-16.2181 117.886 -6.33388
-4.77821 125.345 8.57148
1.72074 138.393 5.73604
-13.9975 111.564 6.6884
0.142572 135.362 6.27109
-11.6808 125.744 -6.63866
-7.58821 119.769 9.98612
-11.5723 125.978 -6.54923
9.12569 154.291 1.25151
-9.85309 115.255 10.996
-2.48645 137.27 -1.55956
8.61254 154.356 0.208298
1.61954 138.629 5.55458
8.96608 154.262 1.12663
4.58173 150.485 -3.33107
-4.09301 127.241 8.16116
-11.4409 126.491 -6.59167
-9.39731 130.695 -7.54303
-3.93087 127.569 8.20045
-4.0055 127.495 8.16445
-0.641086 135.235 5.45074
3.75114 148.656 -2.37888
-3.91941 127.899 8.13192
-15.2327 120.186 -6.08588
-1.18728 139.092 -0.377986
-2.28684 132.613 5.65699
-8.10737 133.18 -7.5225
-7.74188 133.543 -7.15005
-15.9112 118.002 -4.47123
-18.0715 110.565 0.519596
-8.28612 133.134 -7.56333
-7.20307 121.361 9.97098
-13.5184 113.044 7.20926
-17.2196 114.321 -2.31914
-15.3177 118.619 -3.75288
-9.16701 117.846 10.6562
-12.5834 125.746 -6.79072
-8.61904 132.637 -7.16031
-15.2844 118.751 -3.39965
0.916122 137.809 6.73439
-5.25854 136.578 -4.89688
-15.4393 120.263 -5.6464
7.00757 154.11 -1.19865
-17.1705 115.897 -3.66454
-12.7652 114.284 7.91568
-18.1786 113.026 -1.98072
-13.837 123.823 -6.53494
-17.2562 111.437 2.13436
-11.429 128.335 -7.02347
-15.4273 118.975 -3.49148
-5.88625 136.841 -6.04974
2.28214 142.247 4.47358
-16.7534 112.199 2.54481
-13.0158 125.801 -6.84718
-11.4108 128.121 -6.39033
-10.7496 115.628 11.2461
-2.09476 135.062 4.78512
-8.53384 133.451 -6.85924
-4.43481 130.725 5.48256
-5.87592 126.938 7.30614
5.25999 153.077 -2.52194
-1.84347 140.236 -1.16239
-15.5288 120.314 -4.55966
-12.7444 114.201 9.32074
-17.6339 111.836 1.91179
-17.0681 117.279 -3.82263
-13.1169 125.588 -6.06121
-4.85418 137.937 -4.23184
-5.26835 137.808 -4.94627
-10.6922 116.283 11.2464
0.552397 139.504 5.41153
-15.5803 120.243 -4.26786
-14.676 114.142 5.55139
2.7994 143.558 5.07769
-1.20149 141.391 -0.664019
5.08042 153.195 -2.41918
-11.4362 128.303 -5.67153
-1.18702 137.19 4.84438
-14.4031 122.415 -4.36657
-16.1682 119.783 -4.55566
-13.4587 114.837 7.63208
5.16083 153.433 -2.16888
0.414327 140.081 4.92561
-14.7622 123.004 -5.5043
0.0253545 137.383 7.66418
-5.76718 129.021 6.15591
-17.3561 115.731 -1.45797
6.46604 154.765 -0.797086
-11.5229 128.569 -5.49749
-11.6168 115.736 10.8684
7.62414 155.078 1.41098
-15.2894 121.328 -4.10451
1.61594 142.443 4.8994
-17.2161 116.735 -2.21927
-17.2716 113.062 2.44293
-3.83666 139.76 -3.1183
-4.37858 132.92 4.58915
-5.184 139.014 -4.99524
-15.0096 122.636 -4.88213
-16.0431 119.251 -2.69501
-13.9906 124.807 -5.41414
-14.2313 123.967 -4.8275
-17.2265 116.394 -1.45266
-18.4435 113.012 0.486134
-5.39282 139.268 -5.39526
-14.4763 123.261 -4.11402
-0.0849739 139.187 6.21691
-0.438256 137.64 7.47745
-0.377043 137.648 7.63377
-16.6233 116.885 -0.359953
-15.1365 123.065 -5.13134
-10.6946 131.186 -6.07365
0.995086 146.724 -0.938645
-6.40608 128.773 6.39067
-17.7279 114.76 0.242526
-2.60198 136.731 4.36452
-15.4658 122.593 -4.9375
-14.4093 124.289 -4.78894
-17.987 114.327 0.421154
-6.73815 128.145 6.7523
-13.8812 115.528 7.73961
-5.4519 132.175 4.44588
0.404921 145.941 -0.767302
-0.197741 140.631 4.82597
-6.22902 130.054 5.57335
-17.3942 115.575 0.341498
-16.5391 119.54 -2.87358
0.801643 146.899 -0.936006
1.86861 143.803 5.49508
-8.63562 135.582 -6.2904
-7.65269 126.439 7.65327
-0.653403 144.583 -0.712679
-1.05132 138.154 6.76414
-15.5853 121.134 -2.3855
-15.6447 120.969 -2.07604
-6.16561 131.421 4.84313
1.96907 150.384 -1.9671
-17.4751 114.238 3.06121
0.522187 147.264 -0.948283
-13.6208 126.774 -4.76893
-6.25596 131.695 4.78445
-3.04768 137.368 4.38834
-8.93511 122.915 10.5257
-5.95726 132.809 4.21185
-9.68803 121.576 10.734
-12.3905 117.447 10.3615
-3.86797 136.433 4.12637
-9.61494 125.218 6.37438
-17.3672 119.988 -3.38893
-15.3133 122.894 -2.66726
-2.28668 143.655 -1.49231
-14.8309 122.837 -1.42605
-15.9349 120.079 -0.220807
-16.1369 115.774 4.96307
-1.78812 139.362 5.39653
-14.345 125.917 -4.07516
-15.1192 122.582 -1.37171
-0.0568899 147.466 -1.0129
-17.589 119.255 -2.11326
-10.9085 120.659 10.4023
-15.9861 120.383 -0.111951
-10.2521 124.249 7.19017
-10.3202 133.715 -5.14516
-10.4377 122.178 9.48796
-9.23568 125.694 7.54561
-13.9098 117.151 8.60699
-15.691 120.877 0.00335184
-3.75814 142.998 -2.97671
-8.38045 127.345 7.33148
-10.5828 132.861 -4.49152
1.89308 151.938 -2.36325
-7.81746 129.456 5.89635
-16.3993 120.966 -1.45039
-5.16684 134.923 4.63688
-16.7095 121.232 -2.36986
1.70092 151.748 -2.29237
-13.7704 127.251 -3.77871
-15.0094 123.454 -1.51306
-10.8887 123.398 7.43489
-15.7655 121.351 -0.33554
-6.22994 141.069 -5.2852
-18.3034 116.002 1.31335
-7.17984 140.11 -5.95956
-5.1419 135.4 4.50804
-14.0086 125.992 -2.29753
-17.8189 115.363 3.29915
-16.3952 119.782 0.665624
-15.8225 121.971 -0.852523
-16.7029 118.845 1.38372
-10.4871 134.272 -5.18969
-16.0547 120.769 0.400028
-0.342166 148.158 -1.09271
-11.1819 125.081 5.52438
-16.3527 120.566 0.284911
-16.0836 121.258 -0.0166449
-15.5386 124.706 -3.29058
-3.34444 144.277 -2.4202
-16.9085 116.28 4.67202
-17.0276 120.981 -1.64671
-15.9168 117.148 5.69969
-6.91746 132.724 4.93189
-8.6488 138.252 -5.76803
-4.84423 143.324 -4.12705
-14.1051 126.911 -2.77868
-17.5836 117.002 2.58659
-16.1601 121.373 0.0589293
-11.4476 123.575 7.33203
-15.4731 123.95 -1.76677
-16.2811 123.707 -3.17289
-14.2492 126.51 -2.41153
-8.80997 129.202 5.78664
-16.3647 121.81 -0.838485
-2.41087 140.918 4.39836
-9.3576 128.334 5.82583
-15.0591 124.437 -1.35319
-15.7774 121.188 1.38474
-10.525 126.442 5.91665
-9.9251 127.188 6.24913
-5.18133 143.387 -4.36914
-16.9249 122.159 -2.09159
-15.7746 121.727 1.07933
-6.06158 135.34 4.34621
-17.5872 119.481 0.130328
-11.6537 132.175 -3.41514
-16.5653 121.891 -0.651043
-15.5096 124.535 -1.74307
1.38475 153.104 -2.4153
-15.5019 124.866 -2.13254
-16.1981 121.003 1.3746
-3.80291 144.926 -2.90978
-18.1357 117.574 1.70183
-14.4183 126.054 -1.20808
-17.0688 120.239 0.644743
-17.9365 120.677 -1.76739
-13.7291 119.507 8.77479
-6.51343 142.404 -5.30329
-17.9913 120.549 -1.59353
-9.02975 138.759 -5.67588
-2.6224 146.409 -1.6859
-3.20424 140.803 4.34806
-16.6185 121.823 0.193578
-0.612332 149.604 -1.33081
0.40291 151.994 -2.18644
-12.4556 121.533 9.576
-15.5033 125.283 -1.66605
-0.718683 149.663 -1.33406
-18.2065 119.688 -0.0975825
-17.3572 117.973 3.99893
-15.1365 126.716 -2.41472
-2.43083 147.173 -1.59153
-18.4683 118.516 1.07276
-14.546 126.944 -1.32147
-8.31455 131.76 5.87068
-15.046 126.08 -1.16089
-10.4765 128.374 5.66569
-16.5382 122.753 -0.0482177
-17.6344 119.092 2.36432
-14.8036 127.533 -2.4118
-1.97674 148.114 -1.30304
-15.4739 126.419 -2.20295
-0.878115 150.155 -1.44178
-17.742 119.124 2.54209
-16.4611 121.626 2.06339
-8.41383 140.846 -5.4201
-3.1504 142.442 3.79487
-15.1928 126.337 -1.21496
-3.10101 142.582 3.75348
-5.53342 144.962 -4.42035
-17.7699 119.963 1.67914
-7.13725 143.183 -5.46795
-3.85637 146.555 -2.77623
-17.643 118.457 3.97796
-13.9947 129.483 -2.30615
-16.8304 121.008 2.6146
-8.49176 141.017 -5.27295
-3.71999 146.916 -2.58808
-15.2635 120.786 6.41359
-12.6299 126.443 4.77491
-8.72259 140.763 -5.23987
-9.46241 139.612 -5.30501
-18.0577 120.312 1.26402
-15.7454 126.896 -2.27228
-8.98056 131.675 6.11478
-17.2462 119.922 3.65584
-15.6107 126.978 -1.93466
-18.1366 120.21 1.41005
-18.1946 120.442 0.998162
-18.848 119.208 1.22068
-17.5862 118.836 4.41874
-8.65739 141.1 -5.11709
-3.12358 143.31 3.9066
-18.1161 118.451 3.97021
-16.1562 126.305 -1.72578
-17.5875 124.307 -2.18901
-2.67321 148.734 -1.75222
-16.0237 127.389 -2.79902
-18.7813 119.902 0.993012
-8.77814 141.309 -5.06289
-17.5729 120.867 2.47436
-14.7747 129.098 -2.10033
-12.4834 127.164 5.36884
-17.2284 120.257 4.1235
-17.2231 119.656 5.02576
-11.4127 128.115 6.59107
-19.0986 117.65 3.6337
-11.1142 137.531 -4.86623
-17.2296 125.472 -2.38815
-14.0341 123.769 6.77702
-16.3092 128.159 -3.75019
-3.2554 142.661 5.49819
-21.1148 117.059 0.546231
-11.3464 137.479 -4.78849
-18.7695 119.883 2.04393
-1.73774 150.775 -1.26866
-17.8201 119.473 4.77215
-13.2999 132.118 -1.85357
-16.2759 121.672 5.31245
-14.8743 124.098 5.26531
-16.9417 120.083 6.11629
-13.1062 133.04 -2.37866
-14.3816 129.584 -0.545808
-18.4943 120.748 2.24257
-6.03058 146.733 -4.55528
-12.0448 128.28 6.53286
-8.78218 134.813 5.11623
-18.1266 120.236 4.02763
-5.31368 147.74 -3.93258
-17.6582 119.323 6.29162
-18.8152 118.604 4.77326
-19.452 118.28 3.89176
-5.25148 147.887 -3.84238
-15.2054 130.316 -2.47762
-14.4246 125.18 5.8614
-1.03146 153.445 -1.9156
-12.1115 136.418 -3.65919
-15.1711 124.39 5.36249
-18.9706 120.708 2.08588
-5.55327 147.847 -4.13011
-1.09476 153.564 -1.90635
-18.8523 120.781 2.36172
-10.7021 139.465 -4.28416
-17.9838 120.705 4.35705
-19.2441 118.481 4.52768
-15.7133 123.569 5.58887
-18.9696 120.727 2.28206
-15.002 130.159 -1.32976
-6.9515 140.196 3.007
-16.7161 121.071 6.77923
-18.9447 121.19 1.87399
-17.5371 121.059 5.09914
-3.91151 149.438 -2.31702
-19.8989 121.365 -0.30887
-12.8842 135.109 -2.99489
-19.4965 118.692 4.1189
-12.3675 136.614 -3.70286
-5.6144 148.199 -4.01739
-17.5262 121.44 5.13927
-4.89288 143.993 3.14293
-6.58708 141.359 2.93935
-13.6064 126.885 6.62539
-18.776 125.585 -2.75052
-18.2054 126.863 -3.16706
-18.9764 119.487 4.80841
-11.8041 138.35 -4.12443
-13.5745 127.146 6.53836
-16.9052 129.055 -3.00403
-18.6316 124.614 -0.929409
-14.5219 131.264 -0.677215
-19.0772 120.932 2.97674
-17.2932 121.416 6.26403
-16.5836 122.42 6.67027
-18.8805 121.337 3.20635
-19.4634 123.818 -1.03288
-18.8563 124.932 -1.12937
-8.09026 145.908 -4.8924
-14.0438 127.259 6.5675
-10.8165 140.822 -4.00072
-12.9854 137.075 -3.80295
-9.50788 135.048 6.26318
-16.5145 122.976 6.84018
-4.43421 150.358 -2.47663
-17.7529 121.385 6.38477
-22.2523 118.503 0.509422
-10.5781 141.534 -4.12987
-14.4328 132.493 -0.532141
-14.6079 132.177 -0.414179
-19.764 118.704 5.95101
-19.8009 123.702 -0.556521
-12.9702 135.771 -1.47024
-20.9795 117.529 4.9456
-22.6472 118.57 0.528625
-12.8668 138.02 -3.51593
-22.7817 118.566 0.532572
-5.96747 145.033 2.49404
-16.0705 124.635 7.23175
-18.0195 121.632 6.94606
-9.85867 135.57 6.48832
-9.86567 135.201 6.99745
-18.4151 122.781 4.71761
-13.351 136.93 -2.54307
-5.49219 146.173 2.49621
-12.9871 137.784 -2.58025
-8.52584 139.827 4.36527
-9.61 137.554 5.27401
-19.6035 119.869 6.75981
-9.62831 137.615 5.26832
-22.8477 117.712 2.78949
-16.8559 131.703 -2.41946
-5.66172 150.921 -2.97254
-15.9749 125.603 7.70687
-20.3606 119.363 6.44489
-9.85921 145.216 -4.32462
-13.5154 136.37 -0.729006
-20.4966 124.837 -0.74398
-9.91593 137.69 5.40016
-4.36391 152.85 -2.09468
-10.6621 135.164 7.36916
-17.5185 123.43 7.87645
-10.3067 136.018 7.16598
-17.0698 132.39 -2.57892
-18.7879 121.509 7.84614
-8.24828 142.273 3.64232
-17.1947 132.113 -2.40624
-23.5349 117.754 2.61133
-6.41469 146.27 2.59398
-21.1163 123.719 0.276808
-8.03378 143.129 3.29694
-6.99815 145.333 2.7341
-12.7505 139.734 -2.31127
-23.1684 120.106 0.764579
-20.4631 126.85 -2.13068
-16.7494 125.853 7.11883
-12.0112 133.539 7.65033
-13.4114 137.592 -0.447979
-15.5754 127.456 8.07961
-11.7599 142.316 -2.87413
-6.60504 151.121 -3.15352
-7.87805 144.453 3.03602
-24.0504 118.056 2.49285
-21.5908 124.513 -0.479656
-22.3515 118.287 6.15824
-20.803 126.534 -1.11109
-9.11876 148.062 -3.83207
-9.87566 146.872 -3.90699
-17.7629 132.674 -2.33503
-12.3862 141.783 -2.56523
-9.18539 141.642 4.51766
-19.899 128.124 -0.838888
-22.0925 123.357 0.61758
-18.1627 124.597 7.52836
-17.4749 126.473 6.73582
-9.91205 140.206 5.25151
-9.21764 148.27 -3.65098
-8.00465 145.223 2.98286
-20.3921 127.401 -0.395584
-24.4095 117.26 4.11134
-24.1475 118.745 2.8144
-16.8627 126.68 8.21163
-15.4954 136.316 -1.27253
-5.26932 153.511 -1.53275
-4.79352 154.222 -1.40231
-11.3169 144.646 -2.9625
-20.6426 120.849 7.81912
-18.9455 123.622 8.08799
-22.0891 119.239 7.14758
-14.0855 138.313 -0.306183
-19.2043 130.825 -1.60781
-13.3553 139.416 -0.0552175
-21.2067 126.369 0.0623729
-20.1787 128.291 -0.168745
-6.61538 152.258 -1.96039
-10.7432 139.143 6.224
-8.30315 145.704 3.04636
-24.5463 116.601 5.90798
-9.06935 144.262 3.96094
-19.0071 132.298 -1.7714
-9.97455 148.388 -3.18373
-13.3815 140.045 0.310161
-13.8633 139.266 0.298581
-11.2462 138.197 7.38748
-20.5785 128.321 0.309334
-19.1737 125.26 7.41442
-17.6911 128.203 6.90222
-19.1097 125.918 6.90483
-21.1825 122.018 7.88429
-16.4619 136.122 -0.136511
-12.7379 142.593 -0.297016
-5.79814 154.404 -0.615465
-25.0594 116.888 6.62026
-15.4143 132.634 6.98534
-25.4833 117.196 5.48108
-17.784 134.749 -0.661685
-24.6359 117.552 6.97561
-12.3523 143.832 -0.466868
-18.0479 134.506 -0.623873
-25.1035 117.037 6.81193
-19.7834 125.234 7.65138
-24.3907 118.237 6.8635
-22.7598 125.362 1.25599
-22.3533 125.899 1.45209
-9.29825 145.881 3.90756
-13.7178 135.315 8.13083
-24.981 119.637 4.29386
-17.323 135.592 0.125652
-23.4137 124.647 1.27919
-10.0525 144.038 4.92399
-23.5702 124.344 1.50859
-21.0051 123.694 7.88523
-19.9707 125.987 7.28325
-22.6406 121.515 7.44014
-19.7577 127.003 6.5644
-11.0251 148.288 -2.11137
-21.7907 123.034 7.61471
-10.9704 148.591 -2.04095
-21.0011 124.684 7.84454
-20.2298 131.989 0.0764052
-10.568 143.644 5.73183
-15.4282 139.67 0.600915
-20.2536 131.957 0.365926
-23.8611 124.196 2.80776
-21.6045 128.434 2.20635
-20.1085 132.856 -0.290134
-24.9022 121.011 4.74118
-20.289 127.109 6.81564
-15.885 133.544 8.00424
-6.99893 154.033 0.6224
-13.104 138.236 8.02784
-24.5469 122.691 3.80469
-10.7411 144.462 5.33223
-22.3764 126.827 3.26719
-24.4454 123.066 3.78619
-24.3024 123.395 3.74445
-11.4867 148.387 -1.04709
-12.5753 145.847 -0.0485177
-22.475 126.81 3.47174
-24.7678 122.302 4.59432
-8.86281 151.499 1.14372
-19.9521 133.46 0.713023
-22.6158 126.76 3.69795
-18.7259 135.287 1.41564
-18.8591 135.025 1.62876
-9.85521 148.618 3.64682
-21.816 129.486 2.73602
-24.4949 122.492 6.1362
-22.6473 124.964 7.00392
-19.9328 130.321 5.92843
-9.83684 151.472 0.502381
-24.2859 123.046 6.32409
-12.6108 146.981 0.483419
-23.054 126.504 4.88123
-15.0653 137.192 8.407
-17.9939 137.536 1.71222
-20.6282 132.375 2.77315
-10.4239 150.191 1.6473
-10.9192 147.056 4.71207
-12.9559 146.452 1.1564
-12.5007 142.368 7.68605
-16.0565 135.735 8.73346
-11.2029 146.783 4.92426
-23.2724 125.338 6.75264
-10.7746 149.091 3.29349
-24.1878 124.881 5.99606
-11.7857 149.33 1.19787
-22.8281 126.491 7.06569
-20.724 133.178 2.99329
-18.6079 133.509 7.52706
-11.4919 149.077 2.87508
-15.2766 138.734 8.33646
-20.8106 134.11 2.92058
-16.4429 137.129 8.44579
-11.8174 148.06 4.32911
-23.9452 126.265 6.5146
-18.3473 134.441 8.20211
-18.0234 139.532 2.48367
-18.9639 133.928 7.88955
-12.176 147.884 4.5552
-14.4489 141.606 7.81203
-22.6165 130.373 4.9833
-20.8518 134.582 3.35687
-15.3521 144 3.26846
-13.8166 143.659 7.23059
-14.2049 143.005 7.4015
-13.668 144.744 6.46818
-18.5439 139.02 3.48325
-12.8971 147.279 4.9539
-14.5321 145.241 4.22919
-18.6764 135.25 8.24414
-22.6126 129.819 6.8974
-17.9247 140.524 3.25314
-20.7134 135.207 4.27083
-18.3845 139.745 3.49721
-21.4095 133.018 5.78047
-14.7839 145.228 4.36242
-22.918 130.555 6.15269
-17.2194 141.919 3.80341
-21.0259 134.965 4.63787
-18.3343 140.163 3.84999
-21.1057 133.003 7.1671
-21.8384 132.056 6.82375
-17.9647 137.617 7.98973
-21.0502 135.184 4.78132
-18.1038 140.69 4.20939
-18.0423 140.808 4.28947
-17.134 142.303 4.38979
-17.0547 139.975 7.57913
-15.1992 145.341 4.74776
-15.0275 145.593 4.92946
-20.8673 134.081 7.38119
-18.555 139.597 5.431
-15.2294 145.26 5.26247
-19.826 136.082 7.27313
-18.0588 140.688 5.18306
-18.129 140.108 5.80172
-20.7613 135.983 5.49054
-15.7361 144.423 5.38706
-17.0292 141.305 6.77397
-17.1635 140.96 6.97619
-17.8079 141.193 5.33542
-17.3435 140.425 7.3288
-20.6142 136.159 5.83966
-16.6325 142.717 6.00694
-17.7228 141.033 5.88629
-18.6662 138.675 7.07907
-20.2916 136.482 6.42776
