ply
format ascii 1.0
comment Created by Open3D
element vertex 1923
property double x
property double y
property double z
end_header
18.2343 120.677 3.78058
-17.218 106.093 -12.6237
-2.97916 107.819 2.83834
-5.09391 102.235 11.8521
9.06046 119.009 -4.69194
13.0979 117.129 4.66722
-11.0156 102.8 3.11681
-8.95114 104.14 3.05863
-20.7966 96.7641 2.87783
12.3233 118.222 1.65786
-33.8662 92.7994 -6.15241
-29.6785 93.9238 -2.9429
15.8229 119.249 4.16013
-4.52816 106.517 4.08597
-17.1428 97.5218 6.34231
-3.17722 103.751 11.827
-29.6636 94.0385 -2.87674
-5.87139 105.707 4.24042
3.07028 109.326 8.53661
18.7541 121.536 3.67375
5.10098 114.854 -0.391235
-7.47585 104.945 3.82178
-9.91635 101.879 7.06598
4.89188 114.445 0.273671
-24.3055 101.837 -11.9736
-0.0315963 106.309 10.9656
8.9324 118.875 -3.65747
-8.83059 104.436 3.24922
-27.1536 94.9548 -1.11205
17.8264 120.904 4.03302
-19.1089 105.332 -12.2301
-7.21943 105.847 2.53374
-9.35867 103.932 3.73632
-7.35354 105.745 2.62034
-11.7494 109.38 -10.912
-7.41417 101.753 11.0105
5.80186 115.22 0.164214
-1.67655 110.423 0.398539
-24.106 95.9623 1.24575
-3.62977 113.839 -9.25415
12.1554 118.526 1.9236
-20.1441 97.4666 3.48154
-27.7154 94.996 -1.3657
7.38519 117.909 -3.02664
-5.96425 108.356 -0.588312
8.09074 120.885 -8.26181
-12.7068 101.454 5.1146
-5.96666 105.987 4.58215
-23.6628 96.2979 1.52389
-33.073 95.0619 -8.34559
-10.1554 103.765 3.87588
6.79488 120.134 -7.88217
-17.0689 98.4274 6.24075
-1.14059 115.117 -7.72311
-10.3301 102.858 6.00251
13.1211 117.813 5.64045
12.8886 118.609 3.67594
9.48293 119.503 -2.72103
-5.78236 109.293 -1.47815
6.83265 115.898 1.38024
9.34909 120.13 -4.20483
-22.403 97.036 2.37197
-10.2003 102.867 6.36146
-5.2801 109.761 -1.6559
-6.07317 107.614 1.86868
-32.0521 94.581 -5.14589
-27.2816 100.456 -11.2072
-19.2764 105.928 -12.0816
-9.69153 102.996 6.94899
-0.306527 107.037 10.9315
-8.91246 111.811 -10.5423
11.0351 121.774 -5.00449
-32.9139 95.6421 -8.31379
7.4159 118.613 -3.1104
14.6306 118.814 6.101
-1.67213 112.081 -1.36622
-9.36217 104.62 4.17049
-1.84119 106.117 11.1533
6.93937 115.964 2.08469
-20.723 97.9174 3.46981
7.71797 121.433 -8.34345
6.62777 115.51 2.79738
13.8333 118.749 5.59356
-24.2876 103.108 -12.1409
-1.68223 106.38 11.0997
-9.72985 104.441 4.52278
-2.9552 109.049 3.86739
-6.77604 106.151 4.92203
-30.2627 95.0199 -2.79314
-16.4371 107.942 -11.6759
-13.5059 102.018 4.83582
19.7997 124.472 1.78847
7.9161 121.773 -8.27473
-28.0113 95.7841 -1.18756
-16.2086 108.109 -11.4707
10.1157 118.326 2.09338
9.23294 121.751 -6.30876
7.154 118.957 -3.14645
-9.96785 111.614 -10.374
11.844 119.041 3.0222
-25.6546 102.283 -11.5036
8.12244 119.975 -3.85709
-2.33598 110.098 3.09377
-8.21049 103.19 9.90273
3.06204 110.381 9.74793
9.06991 122.062 -6.93026
10.5528 120.258 -1.11578
-26.193 101.923 -11.3153
19.9453 124.9 1.60421
7.7233 117.245 1.50179
-28.0789 95.9363 -1.15628
-10.7721 111.187 -10.3335
9.13168 120.937 -4.41306
-1.11117 107.204 10.9894
-33.3931 94.8559 -5.86612
-15.5427 100.652 5.6749
9.7193 121.729 -5.21767
10.7358 118.19 3.70063
-18.0751 107.551 -12.1431
13.4379 119.047 5.56524
7.08442 119.226 -3.28208
-8.94692 105.339 4.71922
6.31796 115.371 3.90854
-5.67151 109.847 -0.380008
6.59214 118.557 -2.41228
2.53318 118.481 -7.5475
11.4407 118.64 4.04174
-6.79992 107.42 3.50714
12.3415 118.841 4.89327
-4.71972 111.127 -1.5224
-25.2401 97.0039 1.0949
-23.9237 104.222 -12.4059
-32.9569 96.1194 -7.27866
-6.6436 103.909 11.3467
8.29627 120.648 -4.13399
-0.819757 112.743 0.452346
-3.61349 108.777 5.12349
9.10274 120.846 -3.35585
9.52885 121.09 -3.30416
-19.9161 106.668 -12.0277
15.7965 123.693 -0.322489
17.4961 124.621 0.0047377
9.88369 121.374 -3.23699
17.2701 124.515 0.0422609
7.31741 118.661 -0.825905
2.46603 110.432 10.1211
-2.94008 115.697 -8.18373
15.3166 120.988 5.00145
10.084 119.782 0.5871
-25.921 102.831 -11.485
-7.62651 103.968 10.6256
7.53251 118.943 -0.771778
7.26345 118.956 -1.09651
3.97237 112.761 7.62711
-31.7327 98.2603 -9.28485
6.61689 118.776 -1.54299
-6.31759 104.475 11.4601
-10.1072 105.766 3.74242
11.2119 123.173 -4.6303
12.2187 118.679 6.2535
-1.59161 116.509 -7.52125
-5.92435 104.74 11.6082
-0.581781 113.417 0.452522
10.1821 122.652 -4.72802
-31.4468 98.6592 -9.4579
18.1203 125.319 0.27755
6.31622 118.938 -1.93586
-11.1539 105.103 4.08821
19.7836 124.937 3.41723
13.321 119.967 5.45588
-13.668 110.214 -9.87141
-7.8045 105.816 7.25702
-9.14041 105.818 5.49648
-32.0347 97.3975 -7.19916
8.11487 121.338 -4.28287
-20.6851 106.904 -12.06
-18.9336 99.3613 6.29263
13.9786 120.57 5.33627
-29.3965 96.4078 -1.38677
20.1599 126.492 1.11281
9.10105 122.349 -4.84841
-16.2024 101.487 5.55858
-5.35342 111.236 -0.593714
-17.6869 108.75 -11.7785
-8.07212 106.118 6.67525
-4.57958 105.856 11.8881
14.9163 121.178 5.48061
-32.1006 96.1888 -4.27281
-0.133337 117.896 -7.41913
3.47144 112.182 9.4933
-32.0273 98.1586 -8.11355
2.64001 111.41 10.0877
6.87963 116.722 4.53407
13.1296 119.754 6.4766
7.5122 117.156 4.51294
-24.1323 105.142 -12.2346
-21.4411 106.788 -12.1202
16.6167 124.795 0.552672
7.78926 120.436 -1.9763
16.8489 123.147 4.43935
-3.19164 113.42 -1.70452
3.9212 112.75 9.2227
5.03818 120.998 -6.72002
-31.7403 98.959 -9.12037
-4.41169 116.238 -9.14384
-0.131707 114.96 -0.696719
0.425873 109.828 10.9101
-7.46481 107.293 5.8762
-7.37426 105.572 9.67126
5.37089 115.842 5.04695
-19.2652 108.431 -12.0735
-0.0968491 114.567 0.559897
20.2211 126.144 3.30754
-13.7924 110.82 -9.62658
6.65148 122.961 -7.85419
8.21555 118.082 4.55443
0.292995 115.455 -0.450163
-2.86381 114.058 -1.66832
0.275649 115.506 -0.480246
13.8564 120.544 7.0077
8.89596 122.938 -4.56961
8.67668 122.943 -4.85217
20.243 126.34 3.39347
-2.8935 107.888 11.5766
-7.83055 106.594 7.7995
20.226 126.327 3.57703
9.03706 119.537 3.06929
15.333 122.29 5.67279
13.9696 120.568 7.51682
1.56893 119.254 -6.20032
-1.29966 109.232 11.1794
-2.50514 117.309 -7.48241
-14.3409 110.936 -9.76158
-6.49483 105.958 11.2448
-0.569477 114.346 1.4422
3.63716 114.405 6.96634
-3.81786 117.127 -8.72526
16.4081 125.348 0.902831
9.85303 124.324 -5.66862
14.6838 121.536 6.69343
-3.34828 110.901 5.20727
13.8639 121.501 5.74222
9.9318 125.165 -7.24578
8.96266 119.449 3.57582
-27.9806 98.0839 -0.369015
12.1093 120.045 6.67461
2.05826 111.909 10.4868
9.8427 123.993 -4.66777
-21.0013 99.8858 5.23694
-6.67088 106.217 10.9992
-5.01062 112.448 0.0484681
-31.1386 98.3287 -4.89315
-7.66794 107.513 7.06223
9.33713 123.923 -4.83528
-8.24705 115.068 -9.54349
-20.6276 108.505 -12.109
-9.38404 114.291 -9.34681
19.6162 127.292 1.83013
-1.88464 115.445 -1.77529
-16.8108 102.447 5.82105
-21.8053 99.8639 4.62506
-31.5168 99.0794 -6.59763
-16.4321 110.511 -10.5706
-26.5227 98.6237 1.13722
-3.64234 110.99 5.5018
-4.99793 112.188 1.19501
18.6446 125.743 4.07683
4.0249 114.381 8.61891
11.011 119.796 6.48354
-10.6764 113.508 -9.1036
13.8669 121.435 6.87895
-4.99014 112.186 1.30261
-23.9715 106.588 -12.1554
-0.621684 116.263 -1.47561
19.3915 127.288 1.93182
-14.4463 111.444 -9.65817
15.5838 125.613 0.46275
-9.17639 108.044 4.66217
8.48728 119.393 4.28886
7.28568 122.848 -4.5199
-11.4044 106.649 4.9132
-14.0546 111.767 -9.43198
8.77336 121.804 -0.224645
0.300655 116.643 -0.57094
3.71221 114.054 9.45573
10.0617 125.05 -5.30459
2.35588 112.809 10.3537
-2.2823 109.381 11.4297
9.45604 124.037 -3.89137
-7.48661 106.85 9.87845
-24.8817 99.5458 2.21034
-4.86402 112.663 1.16455
-1.12153 118.799 -6.75986
8.67086 119.527 4.75471
-24.6653 106.442 -12.0089
-2.97578 112.015 5.143
-1.41075 118.653 -6.79861
-31.7604 99.7356 -7.22847
-20.9905 108.846 -12.0935
-23.3067 99.988 3.58816
-31.1059 99.6204 -5.95141
4.84154 116.448 6.39311
-6.30545 108.654 8.06157
9.86208 124.675 -4.26536
-3.3479 111.738 5.52328
-2.47494 118.379 -7.34861
-24.2586 99.8281 2.87987
18.5543 127.141 2.23492
6.59193 118.234 5.18623
13.3791 121.974 6.32903
0.0488 117.027 -0.968491
8.0104 123.321 -3.66364
-2.20624 113.156 4.22137
4.82455 116.632 6.33429
-4.22622 117.984 -8.58868
-16.0409 111.291 -10.1725
19.832 128.087 2.1828
-6.21311 110.689 4.34239
15.1399 122.889 7.02681
7.87486 123.815 -4.53311
3.98048 115.653 7.59181
13.808 122.521 6.29587
-4.54423 114.257 -0.598155
-27.4331 104.631 -10.7523
8.7948 124.633 -4.68898
-7.4616 107.61 9.66976
-13.897 105.826 4.87836
9.06574 120.095 5.36414
4.24873 122.5 -6.12383
-13.159 112.817 -8.64992
-10.7541 114.327 -8.6339
-5.29197 108.793 10.4139
-19.2819 101.472 7.2585
9.00247 123.34 -1.2366
-1.57542 116.908 -1.60635
5.23859 117.972 5.23198
4.7409 117.023 6.58681
18.5718 126.716 4.53578
8.62144 123.738 -2.40869
-25.0485 106.949 -11.76
7.71498 123.797 -3.66582
-17.3316 111.217 -10.4475
7.8026 120.302 3.84696
11.4181 121.32 6.54838
0.62585 117.92 -0.637971
-4.54268 113.713 1.43705
8.31877 120.214 4.83505
-10.8213 114.487 -8.51023
-5.87436 111.538 4.36591
-11.1656 114.283 -8.40599
-20.1134 101.461 6.8148
9.78548 122.661 1.8798
8.06099 120.157 4.91671
1.24366 117.887 0.630175
18.8387 127.16 4.63243
-3.99058 112.035 6.19304
-3.44389 119.196 -8.19785
7.58818 122.729 -0.916702
11.1507 125.978 -2.97687
-23.6204 108.177 -11.6165
5.69842 118.654 5.3622
-23.8065 108.085 -11.6187
0.937597 118.512 -0.63735
-30.5644 100.027 -3.4652
12.9312 126.567 -1.58652
7.60404 123.465 -2.11207
5.80601 124.659 -7.02876
11.6834 122.006 6.54297
-20.1709 101.758 6.96158
6.71567 125.626 -7.49149
-31.547 101.131 -6.6658
-16.8627 111.977 -10.0205
8.75043 124.933 -3.20047
-18.5 102.72 7.48305
-6.97799 109.204 9.13721
-1.61855 117.609 -1.49144
-27.7647 99.9643 0.984036
10.0458 126.462 -4.63869
-23.6732 108.444 -11.4569
8.62494 125.604 -4.6745
-31.3173 101.8 -7.56637
-5.11519 113.022 3.6708
7.09938 121.603 1.82828
17.9593 128.128 2.54092
16.4625 128.321 0.158854
-0.760696 112.401 11.0348
11.6649 126.766 -2.69277
-4.48126 110.193 10.8387
3.28784 115.833 9.36297
-1.36446 120.59 -6.86002
-17.3948 104.116 6.74227
-29.5691 99.8492 -0.434749
-16.4486 105.233 5.78963
-13.9083 107.068 5.35093
19.1602 129.136 2.86437
-22.6989 101.715 5.1751
14.1007 128.046 -1.408
15.0064 124.927 6.40162
-31.0504 102.624 -7.78546
-7.65172 117.68 -8.40414
13.9485 128.03 -1.46179
13.3855 127.812 -1.63014
5.5547 125.407 -6.92899
10.4817 122.283 6.31955
16.0217 128.847 -0.0833571
-17.7325 104.141 7.17347
17.1323 128.5 2.17186
-2.91289 117.373 -0.920698
-30.0676 101.301 -3.12254
6.10323 120.043 5.48185
-25.4257 101.255 3.23668
-29.543 100.434 -0.499701
9.11465 124.927 -0.740812
-12.1345 108.451 5.80929
1.56326 119.615 0.476437
-11.7315 115.097 -7.69107
15.7407 126.087 5.73746
5.76122 125.889 -7.0562
8.93082 121.845 5.7776
18.1095 127.969 5.1231
-23.2709 102 4.9183
2.41453 115.813 9.97663
18.0266 127.963 5.1647
-18.2162 112.453 -10.3011
-20.6613 102.781 6.93276
1.51176 120.338 -0.630524
-6.11578 119.12 -8.21711
-6.63157 110.649 9.05564
9.59074 127.193 -4.22157
16.1557 129.304 0.0694665
1.073 122.299 -5.19509
14.692 128.908 -1.0174
8.04492 125.917 -3.52826
-3.6812 111.839 10.6166
-3.8283 120.488 -7.73213
-17.1332 105.309 6.63622
-31.1143 102.52 -6.10129
6.51855 120.738 5.574
8.50919 125.827 -2.47585
-11.6887 115.497 -7.52921
-10.6666 116.184 -7.61402
10.5304 128.2 -4.74122
7.84136 125.861 -3.37502
7.21298 122.25 3.4476
8.66187 125.52 -1.46498
-9.4348 110.655 6.00349
-2.70522 118.128 -0.798958
16.7192 129.773 0.524783
8.16434 126.439 -3.81561
-30.245 104.615 -8.73714
-16.5883 113.583 -9.42767
-28.0064 106.424 -9.49481
14.1589 124.268 8.99643
-29.6698 101.528 -1.32982
1.64624 119.809 1.78379
-27.4352 106.949 -9.78323
-5.76077 119.794 -8.05093
-3.7628 120.851 -7.62115
7.12072 122.482 3.49194
2.09224 120.936 0.068212
-21.0891 103.216 6.75219
7.35841 122.908 3.03742
-15.3053 114.35 -8.89875
2.56455 123.913 -5.24766
-4.98549 120.357 -7.77971
-26.4915 108.169 -10.632
0.0264938 122.518 -5.61932
8.57729 126.904 -3.48225
-10.2285 116.885 -7.32746
-8.62226 118.004 -7.54801
-23.4775 110.344 -11.1367
-30.8162 103.217 -5.84734
10.7845 129.108 -5.10734
-4.90242 111.838 10.6026
0.903357 119.381 2.40199
5.91146 123.924 -0.437067
-28.3119 106.568 -9.34875
-1.02889 117.594 3.72325
1.51104 121.274 -0.651529
-4.10447 116.74 1.47308
-16.1429 107.032 5.99704
14.2798 125.513 7.51436
-23.5896 110.495 -11.1654
-4.49158 115.812 3.10223
9.84033 129.595 -6.92653
8.47526 126.708 -2.61335
9.09468 126.244 -0.778397
-4.37131 116.262 2.51679
-29.7241 102.283 -1.641
5.76335 123.684 0.546555
3.84127 119.593 6.65537
8.44932 125.494 0.36039
-25.76 109.254 -10.8616
18.0149 129.196 5.37301
-20.7641 103.943 7.11226
-3.81014 117.544 0.976735
8.64952 127.031 -2.43893
-17.2771 114.12 -9.47864
10.7085 129.673 -4.99482
-24.6804 110.255 -11.1014
-4.47844 116.152 3.38426
0.746062 123.431 -5.04404
-17.3021 106.41 7.01596
0.662156 116.138 10.4037
-2.54455 116.639 5.0794
-10.9695 117.086 -6.98941
9.44547 124.508 4.54778
9.39222 124.123 5.30582
8.5495 124.283 3.90332
-4.34676 113.111 10.3469
8.54225 124.434 3.60478
9.16432 124.62 4.09907
-29.2694 102.588 -0.468661
5.75221 124.552 -0.206902
6.31168 125.57 -1.59909
-24.097 110.978 -11.2719
11.9474 129.998 -3.41542
-4.59671 115.926 4.29965
8.93636 123.824 5.65396
-26.8334 108.558 -9.73325
-2.66164 122.46 -6.88206
-3.06401 116.089 6.12673
17.4247 130.393 3.28001
9.07808 127.008 -0.685632
16.1246 131.103 0.0945186
8.73091 129.818 -6.95537
10.9153 130.597 -5.64884
7.18399 123.885 3.60738
-26.9054 108.622 -9.55593
9.85786 124.817 5.27316
9.09518 127.663 -1.69565
8.51283 124.878 3.465
-23.003 111.965 -11.2173
10.8314 130.557 -5.43097
14.6723 131.016 -1.23691
1.8939 124.653 -4.81244
-10.085 111.903 6.20025
-10.4037 111.694 6.2272
-12.1054 116.836 -6.86435
12.778 130.736 -3.00588
7.47992 124.552 3.02048
9.09256 128.299 -2.72462
2.1608 122.92 -0.551011
2.86534 118.785 9.2734
10.1893 127.792 0.0368643
9.13235 128.256 -2.28834
-2.71329 117.138 5.44312
18.1011 130.888 4.11343
9.25362 124.153 6.56738
-4.56125 113.79 10.0741
5.32537 123.655 2.40107
8.82519 126.6 0.859665
-26.3791 109.558 -10.0205
9.94413 129.617 -4.01462
-4.4055 116.668 4.31747
8.38362 126.619 0.346905
5.54222 124.607 0.818547
0.394138 124.132 -4.97771
13.7871 131.282 -2.23446
8.87933 127.534 -0.824989
10.1824 130.91 -6.15047
11.7065 124.997 8.42255
10.0002 125.763 4.56155
7.56509 127.873 -3.11236
9.71469 124.798 6.303
-30.2808 106.238 -7.71814
10.7388 129.073 -1.29264
10.0774 125.871 4.65252
13.6227 131.511 -2.5192
9.29618 130.622 -6.37267
8.22873 128.68 -3.67368
-10.2765 118.426 -6.63495
-29.0031 103.659 -0.288194
12.5266 125.594 8.75047
16.3513 129.148 6.34016
9.86272 125.931 4.55595
-26.6584 109.554 -9.44197
15.9716 132.091 -0.25805
1.78025 121.646 2.9183
15.2414 131.924 -0.872228
17.5306 131.612 2.85398
-24.7146 104.278 4.4664
-4.11106 117.327 4.37369
19.1315 131.752 4.92326
5.70411 125.961 -0.706456
6.48834 122.951 6.72973
-4.42705 115.44 8.06276
13.6878 131.971 -2.68842
0.504671 122.968 -1.21995
6.1618 124.307 3.49347
5.72237 123.921 3.76112
7.46477 126.53 0.587347
-3.2985 115.232 10.1377
-29.3809 104.158 -1.20246
-1.5954 118.793 5.02088
7.51131 127.565 -1.36759
2.89849 120.516 7.39403
-22.9949 104.928 5.84858
-30.1041 105.805 -5.42662
0.251172 124.678 -4.86604
0.495821 123.137 -1.24109
9.99386 130.145 -3.36131
9.772 125.904 5.3385
0.932499 118.069 10.1486
3.60071 127.288 -5.7646
-2.72521 115.745 10.2569
-16.563 108.726 6.66132
5.38911 125.232 1.01931
-0.154155 120.249 4.2076
15.3057 132.437 -0.942656
-5.32342 122.147 -6.65312
-23.5601 104.931 5.46293
-11.6228 118.076 -6.41917
-18.6172 115.341 -9.94354
-10.1816 118.995 -6.4124
5.53979 125.888 -0.00500504
-2.52518 120.581 0.4936
10.3503 131.009 -4.37061
13.2879 126.597 8.89455
8.83815 130.917 -6.14783
-3.17952 119.406 2.1995
3.03257 124.374 -0.016427
16.8678 132.833 0.557149
-1.67289 124.204 -5.86992
9.92172 125.622 6.5934
10.0245 125.85 6.26203
6.60921 125.144 3.21024
11.4442 132.468 -5.82749
14.3947 127.9 7.93562
17.5513 132.91 1.63664
10.8308 131.218 -3.66998
5.85601 124.828 3.21356
-2.50246 120.786 0.63668
-3.06513 116.017 9.98189
-17.7573 107.832 7.7943
7.05564 128.215 -2.22324
11.208 132.31 -5.28724
-2.44675 118.557 5.6746
5.05505 122.579 7.17749
10.859 130.792 -2.41214
-21.4731 114.526 -11.1066
13.9693 127.82 8.05498
-22.5483 113.862 -11.0789
5.15668 125.17 2.00156
-7.093 121.42 -6.3956
-28.6287 104.87 -0.0244749
-20.8069 106.27 7.46074
15.6386 133.166 -0.783252
11.3434 131.146 -2.19504
10.0282 131.97 -5.68985
2.6356 123.492 2.42189
-1.37856 122.27 -0.29285
12.9792 127.146 8.54049
-29.2097 108.6 -8.41409
9.11082 130.382 -3.31101
-29.4323 106.881 -4.9652
18.4775 131.496 6.89981
-15.7148 110.187 6.50006
-8.15458 114.851 6.73081
9.87663 132.158 -5.64679
11.506 132.345 -3.83349
-13.7454 111.586 6.41622
17.241 130.968 6.76716
-3.40085 116.653 9.54234
11.6996 133.211 -5.3425
2.14323 120.255 9.37523
-10.092 119.82 -6.00492
13.782 128.379 7.74416
-11.4683 113.166 6.31471
-28.3852 105.408 0.251161
3.03343 124.26 2.26884
-23.3507 105.981 5.77318
-28.3885 105.423 0.239626
9.3472 130.791 -3.08825
-3.74083 117.48 7.62061
-11.7947 118.869 -6.04256
-14.6556 117.853 -7.63853
-29.5747 108.651 -8.05162
4.23498 129.114 -6.22701
-21.9361 106.425 6.89616
-29.2151 107.501 -5.06177
-6.30623 116.443 6.6153
-4.64349 123.385 -5.83771
15.3725 129.441 8.14404
17.5404 133.984 1.45376
11.0344 126.842 8.19093
-18.1025 108.631 7.92667
-20.992 115.671 -10.7924
10.9303 127.128 7.66794
-15.9239 117.722 -8.19698
9.11966 127.533 4.45971
-3.98553 119.066 4.91675
9.54384 132.649 -5.72701
-16.3592 117.587 -8.39144
1.42538 125.467 -1.34421
7.15934 128.999 -1.11429
-29.285 106.9 -2.96061
11.4714 131.74 -1.10225
16.0397 130.52 7.57074
7.33182 129.009 -0.741259
0.408292 124.717 -0.886098
-3.30792 118.678 6.957
17.295 134.475 1.07869
-2.58282 121.463 2.10393
0.145363 126.291 -4.46117
1.49888 123.249 3.79314
1.28255 120.275 9.79702
-0.127018 124.309 -0.609384
7.8996 128.971 0.356688
7.45981 126.167 5.76188
6.5172 127.329 2.21905
-22.4489 115.308 -10.9601
-15.4908 118.308 -7.98977
-16.7863 110.235 7.42206
-28.5632 109.031 -5.67855
3.60083 125.562 2.30159
6.68935 127.392 2.56317
-22.9838 115.11 -10.9062
8.11873 130.728 -2.46596
-11.6655 114.046 6.44895
-28.3884 106.65 -0.180397
8.20782 129.25 0.853898
7.59775 126.525 5.88416
16.852 134.905 0.525333
-14.6258 112.197 6.6129
2.14709 126.51 -1.25889
-22.1296 115.794 -10.9205
-20.0542 116.87 -10.398
11.1522 127.762 8.22514
7.76158 129.321 0.440542
-24.5565 107.009 4.58071
-3.11826 120.601 4.4191
-28.436 109.587 -6.01357
6.85647 127.638 2.86201
-25.1314 106.97 4.01129
8.11354 130.881 -2.22341
-27.2458 111.728 -8.84181
-1.63677 126.245 -5.39889
-14.2829 119.194 -7.32417
-1.39115 123.501 0.810332
-28.7415 110.478 -8.03533
-29.076 109.74 -6.9208
-22.5445 107.468 6.61307
7.44101 130.288 -1.66973
3.49631 129.623 -5.51314
-2.71518 121.269 3.89287
6.94956 129.801 -1.26384
-5.77755 123.785 -5.4325
-2.68946 119.429 7.91003
17.9077 134.697 3.0959
-22.8465 107.51 6.27473
3.10018 125.483 2.88055
8.58685 130.719 -0.866984
10.7315 131.996 -0.608308
-6.15205 123.638 -5.3984
-9.46287 115.705 7.01231
16.5406 135.212 0.423942
-28.4041 107.446 -0.746229
-7.60393 116.877 7.05183
11.6687 134.622 -4.72511
12.0297 133.506 -1.82415
-15.9978 118.871 -8.19431
-1.9577 123.139 1.60991
10.4685 128.526 6.8167
5.02857 131.108 -5.88201
-26.133 107.302 2.92549
2.65281 127.354 -1.09668
8.29315 133.023 -5.55919
-20.7342 108.479 7.71622
0.461885 125.693 -0.428784
11.3295 135.081 -5.76134
-14.8937 112.677 6.69338
7.37181 130.477 -1.21653
4.22786 127.891 0.0934027
-27.838 111.791 -8.5883
-2.48405 121.991 3.67264
-10.7029 121.062 -5.3096
11.3551 135.156 -5.66349
17.7824 134.731 3.86567
8.01542 128.102 4.87958
-17.9318 118.473 -9.29457
8.19748 131.344 -1.67784
5.55502 126.292 5.49744
-19.2673 109.419 8.10693
-4.53827 124.984 -5.16154
-26.0232 113.584 -9.66739
-0.391753 127.331 -4.53981
14.796 130.922 8.20573
-6.83877 118.011 6.69854
-2.4723 120.202 7.95711
-2.29108 120.06 8.53643
9.42098 129.12 5.21369
12.0056 129.758 7.32683
-28.6046 111.481 -8.1463
17.3426 135.911 1.46296
-12.9156 114.456 6.50539
-16.3196 111.894 7.39524
15.4211 135.563 -0.312254
1.26073 128.371 -3.97286
8.9847 129.069 4.84935
-18.4627 110.21 8.16306
-2.4972 122.213 4.09675
-4.69791 125.188 -5.07228
-26.4691 107.964 2.45194
-20.2194 109.283 8.08237
-5.09756 125.044 -5.08617
-27.4273 112.754 -8.83322
-28.2962 109.568 -3.24343
-1.95797 121.575 6.53433
3.91347 125.409 6.33212
-27.301 112.961 -8.90669
-20.8739 117.672 -10.2763
-27.7232 112.642 -8.69357
-12.9005 120.717 -6.00548
17.8297 135.262 4.29864
-24.8987 115.25 -10.3276
-26.1256 108.324 2.71346
11.979 134.492 -1.807
-28.4458 111.924 -7.94301
-2.01846 121.482 7.1364
-9.47873 116.721 7.31166
-25.637 114.736 -9.95622
14.4943 135.885 -1.17173
16.6479 136.247 0.939641
-27.4794 113.086 -8.83918
3.03142 124.767 7.15145
17.1597 136.424 1.34906
3.89031 131.369 -5.62272
-27.638 110.946 -4.43379
-11.0524 115.954 7.11739
-1.87761 121.805 7.05005
1.22712 127.314 -0.355173
-27.6081 110.647 -3.51011
-12.2045 121.369 -5.5946
-20.9886 118.001 -10.1734
9.19528 132.898 -1.43534
-27.5445 110.176 -2.31495
-25.3975 115.173 -10.0169
-24.1171 108.933 4.95012
4.27892 129.607 -0.709432
9.34473 129.639 5.98557
-3.11836 122.285 5.02912
-11.5002 121.875 -5.26167
13.7298 135.932 -1.3529
18.2677 135.143 6.3956
-1.47677 124.779 2.0036
-9.83693 116.977 7.40027
-8.99274 123.277 -4.7967
-24.9195 115.791 -10.1944
17.7787 135.414 5.31397
-21.6895 117.922 -10.2501
0.0438256 122.522 9.01893
-9.2461 123.203 -4.79529
9.46615 133.357 -1.31056
-27.2073 111.45 -3.75916
0.513895 122.95 8.90901
-7.01533 124.718 -4.84978
3.12215 131.283 -5.21734
-27.3783 109.991 -0.839574
18.3395 135.131 6.96514
4.33129 132.232 -5.53168
11.0498 136.155 -4.86434
-15.2245 120.704 -7.12652
-14.8563 120.808 -6.85353
2.71556 125.725 6.21704
14.6776 132.353 8.16354
-28.3551 112.785 -7.77521
-2.63517 123.052 4.89465
-17.5047 120.186 -8.85961
11.0178 135.679 -3.59438
-11.0244 122.453 -4.98133
7.02472 134.082 -5.4863
14.59 136.672 -0.850569
-0.691519 122.679 8.43367
-1.57926 124.84 2.73497
-26.5397 114.834 -9.32399
9.062 130.208 5.67182
-28.5193 111.69 -5.09117
-0.778749 122.857 8.29695
-5.50146 120.881 6.20708
10.9218 136.251 -4.29028
-21.0905 118.678 -9.80218
10.8455 135.808 -3.41561
4.32884 128.886 2.53789
0.252625 127.232 0.604893
-26.8323 110.272 0.417645
5.61959 128.101 5.98262
5.60552 130.525 0.921937
-5.36112 121.112 6.25218
-25.2199 109.708 3.89801
-22.8647 109.999 6.56864
-22.3894 110.07 7.08874
-7.72362 119.643 6.41962
9.34341 133.975 -1.07813
14.7429 137.114 -0.518059
-18.1427 120.43 -9.07119
3.51855 132.403 -5.50825
-3.97231 122.303 5.88948
-5.73682 121.1 6.1509
-26.4959 111.211 -0.424397
-19.3295 119.808 -9.04773
16.1201 137.368 1.07885
17.3791 137.704 2.07089
-14.9682 114.847 7.29003
4.79696 131.116 -0.71526
-0.807119 124.07 6.76935
10.303 130.952 7.14221
-26.6212 112.358 -2.67364
13.0213 132.609 7.35471
-1.8146 128.759 -4.25622
10.9106 135.309 -1.09845
17.5147 137.888 2.26393
0.985145 125.033 7.47472
-16.9663 113.484 7.99531
-1.26417 125.84 2.92691
0.083742 124.145 8.32045
-28.0638 113.983 -7.69049
-25.6187 112.432 -1.06655
10.896 131.739 6.87782
-8.1483 125.05 -4.34834
2.83898 130.091 -0.359955
-0.890041 129.448 -3.96407
10.0481 137.454 -6.17142
-25.6769 110.488 3.3604
-27.4906 114.791 -8.12227
11.5633 136.258 -1.43782
2.39882 131.813 -4.20336
-4.06594 127.766 -4.24554
14.3464 133.67 7.81613
12.2988 132.851 6.90484
-5.45107 121.996 6.2565
1.82851 126.666 6.14827
8.48432 136.578 -5.85996
-22.6436 111.002 7.03457
-28.2282 114.271 -7.30751
-24.9226 117.557 -9.72417
11.9315 133.047 6.69829
10.4681 132.143 6.67294
7.81615 136.33 -5.68726
-28.1583 114.457 -7.31158
2.58397 128.597 3.7762
-18.3347 113.46 7.93016
-26.1857 116.532 -8.96417
3.73789 129.857 2.81293
-19.0133 121.143 -9.02953
-0.97429 126.839 3.04314
13.2363 137.622 -0.678865
-24.4182 118.153 -9.68283
-6.73405 121.985 5.80776
4.96426 131.167 2.0139
2.92432 128.27 5.68527
1.74058 132.146 -3.9318
16.3502 138.678 1.782
-17.6468 121.959 -8.10354
3.63678 130.22 2.85454
-25.6831 113.443 -0.698071
-5.05015 123.152 6.28023
-0.161099 127.948 2.70679
-28.5924 114.013 -5.50032
1.43841 127.522 5.96622
-2.04795 125.733 5.11205
16.6828 136.498 7.38161
2.8232 129.698 3.30892
-6.70637 122.618 5.71801
-28.576 113.586 -4.31279
-28.5042 114.778 -6.65315
-6.96029 127.093 -3.94788
11.2164 137.838 -2.35747
1.18001 127.981 5.1614
12.6675 134.47 6.87196
0.320657 131.684 -3.69279
7.4928 131.755 5.77157
-24.2138 112.51 4.21025
10.8797 137.309 -1.38347
-1.11318 130.743 -3.45318
-24.2467 113.734 1.71918
-25.6988 113.877 -0.409065
5.2659 130.796 5.1331
15.3028 139.164 0.951807
16.2217 136.617 7.57955
-13.9317 123.968 -5.66139
-10.3548 120.128 7.43989
-6.56044 127.854 -3.78933
7.65844 137.77 -5.77026
-23.441 112.784 5.65694
11.2161 138.078 -1.52463
10.3226 133.94 6.2315
10.8369 139.225 -4.16028
-21.2723 113.106 8.27199
0.216054 127.705 6.23272
-28.4726 114.669 -4.23642
-1.07683 127.791 4.63558
3.67233 135.168 -4.57628
-23.8476 114.707 2.07354
1.32028 129.547 4.24603
1.79357 131.032 1.76899
-11.4566 126.013 -5.20304
6.57287 134.354 1.21902
1.61053 133.613 -3.74973
-4.24434 129.906 -3.69714
11.0702 139.682 -3.92304
0.459632 132.847 -3.58372
-25.5627 118.954 -8.88571
5.507 134.525 -0.312594
10.0344 137.506 -0.578087
7.44202 132.885 5.93191
15.4602 137.08 7.77647
3.97217 135.868 -4.79375
1.75234 129.455 5.83585
17.6242 140.658 3.32592
11.2401 135.239 6.34982
2.75298 132.555 0.780514
-1.30282 128.042 5.00108
3.51012 135.524 -4.35777
5.53061 134.987 -0.443344
2.31082 134.633 -3.97671
-2.55395 131.301 -3.39279
-1.0076 128.43 4.76921
13.6588 136.635 6.99574
-21.0779 114.036 8.51735
4.05076 136.182 -4.80707
-12.3127 126.397 -5.92693
-16.2416 117.61 7.51102
-10.5901 121.114 7.64051
-5.94339 124.875 5.90042
2.95527 133.173 0.265296
-18.0147 116.497 7.79381
-3.01056 131.293 -3.44161
0.806194 130.568 3.22844
1.9029 130.738 4.3673
-0.719043 129.001 4.56073
-0.689788 129.088 4.52758
-1.62429 128.139 5.30242
-10.9393 127.031 -4.77102
-4.10521 130.766 -3.5402
-6.67506 129.129 -3.46323
0.718018 133.805 -3.4923
-11.4441 120.768 7.93385
5.22493 133.651 2.94917
8.39559 134.445 5.49923
4.59331 132.169 5.31053
-22.7056 115.067 5.11031
-18.3558 124.127 -8.2478
5.82684 133.038 5.22091
0.61414 133.889 -3.42513
-3.663 126.71 6.20249
-6.03037 125.396 5.84687
-21.9923 115.126 6.47051
2.12092 131.389 4.24152
4.2659 137.039 -4.84395
-28.2576 117.119 -5.96732
-28.3375 116.502 -4.76757
-11.6508 127.312 -5.36696
-17.8891 117.133 7.86726
7.35925 133.994 5.95772
-17.5549 124.796 -7.78059
2.38963 133.14 1.19816
5.32316 135.738 -0.370728
9.82258 140.838 -5.09107
9.87769 135.502 6.27605
-23.904 116.44 1.62552
2.92993 131.905 4.83474
-22.6299 115.83 4.83982
10.5689 139.817 -1.5883
3.52874 136.665 -4.2176
2.84231 132.429 3.90416
0.804088 134.595 -3.33225
-27.7996 118.055 -6.44898
-8.90276 123.571 7.0815
7.68322 136.653 1.54977
-4.95549 126.459 6.31543
-15.4813 125.837 -6.36117
-22.0084 115.784 6.21981
10.6835 140.29 -1.84646
10.1608 139.008 0.181516
-6.79262 125.855 5.44853
2.18026 133.403 1.47478
-8.73891 123.955 6.95962
-14.3869 119.948 7.91995
-5.59344 130.773 -3.19518
6.26262 135.665 2.33424
-8.12559 129.47 -3.67894
-18.2206 117.533 8.1954
-18.9075 124.987 -8.21031
-22.0315 116.522 5.69588
5.18928 133.982 5.12779
-27.9813 118.027 -5.2845
-28.3881 117.043 -3.73981
14.4207 141.724 1.14986
-16.8282 118.901 7.78555
6.35167 139.894 -5.67658
1.01627 135.469 -3.36263
6.68381 140.151 -5.64909
13.1626 141.051 1.1193
-14.7039 120.318 7.89914
17.0529 141.263 5.97311
10.6707 140.839 -1.60285
17.4904 142.48 4.10444
-16.8088 125.932 -6.6076
3.0237 133.322 4.31663
10.0565 140.155 -0.759556
-12.463 128.476 -6.03009
-13.2848 128.23 -6.59703
-26.081 117.054 0.001407
-21.9496 117.33 5.12678
-9.09929 129.852 -4.21429
8.12063 137.932 1.67359
12.6369 138.333 6.93011
11.6606 137.756 6.87842
10.548 141.786 -3.09761
-17.1705 126.079 -6.79134
3.1017 133.666 4.24946
-2.38219 129.436 5.9464
4.07883 138.342 -4.22676
-27.6369 118.506 -4.54222
3.53846 133.908 4.5057
-7.89186 130.574 -3.64895
-26.3067 119.832 -5.40087
4.93151 135.428 3.30646
-16.9101 119.494 7.89969
-28.385 117.748 -3.65269
1.1491 136.233 -3.3691
11.2881 137.85 6.82889
5.43612 135.88 3.19668
3.4786 134.251 4.09249
-14.2922 121.262 7.92211
-11.4322 123.107 7.84273
6.81647 137.036 2.72861
-0.556294 134.899 -2.55567
-15.0451 128.181 -7.58058
-27.6177 118.64 -4.11894
-21.7837 117.64 5.85471
-0.995038 131.289 4.7337
-20.4587 117.28 8.4422
10.8803 141.781 -1.5828
8.31233 142.094 -5.57121
9.8308 142.668 -4.56367
-23.7085 123.173 -8.03422
10.1181 140.844 -0.260261
14.898 142.665 2.29412
-14.3809 121.507 8.01079
-7.83782 126.796 5.65696
1.11333 133.371 3.68721
-24.9856 122.11 -7.26634
-14.6219 128.723 -7.40282
-20.2613 117.641 8.57518
17.313 143.259 4.51335
10.9711 142.508 -2.2774
3.75277 134.841 4.36154
6.32182 138.515 0.0213948
-0.417857 135.5 -2.48916
1.45434 134.356 2.51245
-23.8278 118.185 3.00961
-0.163708 132.424 4.44637
4.13644 135.224 4.26988
-2.69088 134.122 -2.45913
8.30025 139.134 1.60281
5.94884 136.804 3.42328
9.46039 142.939 -4.78668
6.07546 135.938 5.61432
17.0078 143.838 3.636
4.5665 135.717 4.35226
-19.1 126.839 -8.41214
-8.30545 126.729 6.23197
-26.1724 118.278 0.297572
-25.7996 118.295 0.805305
15.9928 142.068 6.27897
-21.6289 117.831 7.51216
-9.58772 131.295 -4.79555
8.28709 139.724 1.22199
-6.40462 132.632 -3.17954
-7.3144 132.309 -3.54736
-18.7091 119.214 8.99556
8.89176 143.356 -5.12832
-14.6424 129.971 -8.19383
-14.2663 130.126 -7.89947
14.4156 141.004 7.354
13.0415 140.224 7.1917
-19.7929 118.699 8.99451
10.2943 139.253 5.74151
-14.6276 122.409 8.22895
-11.4304 131.239 -6.14806
10.7961 143.577 -2.58067
-5.53848 129.351 5.78259
-14.5723 122.513 8.21904
-13.2488 123.509 7.90366
-4.51704 133.979 -2.54834
-19.5567 127.28 -8.35453
-26.5416 120.855 -4.05167
-6.81957 133.014 -3.3942
-27.1571 118.808 -0.463629
3.78368 139.908 -3.82763
-24.6429 122.647 -5.1407
-6.46436 129.042 5.59282
7.8944 139.206 3.27387
-2.58772 135.281 -2.39707
16.7559 143.845 5.34771
-2.06844 131.818 5.83253
9.01501 139.142 5.2111
0.8591 137.903 -3.03844
-15.3443 130.367 -8.70275
16.5609 144.479 3.99089
-8.70404 127.391 6.58503
-15.4272 130.398 -8.71593
10.94 142.505 0.902183
-24.4391 119.18 3.10671
6.6515 138.161 4.52247
10.4757 143.021 -0.61785
-13.9367 123.495 8.18156
12.1551 142.838 2.11363
7.46571 138.983 4.04521
15.335 142.871 6.48645
-21.3993 119.365 7.25188
2.28337 136.395 2.81352
-25.9077 121.197 -2.58951
-7.93941 128.86 5.18258
-8.04509 133.18 -4.05729
-8.64986 128.196 5.73237
-2.66581 135.84 -2.37485
-12.4147 132.079 -7.37217
9.8857 140.339 4.92041
-22.6051 125.134 -6.22
-16.5235 121.962 8.64926
-5.47757 134.391 -2.82813
-22.2458 119.655 5.9904
-27.4581 119.844 -1.31377
-23.2235 124.873 -5.98628
5.61525 142.445 -4.64415
-24.1389 119.8 3.64388
-21.9365 126.06 -6.46217
-12.0326 132.716 -7.25658
15.1763 143.483 6.33805
-21.7664 126.746 -7.48512
-12.8283 124.9 8.36159
-4.97166 135.102 -2.67117
-27.0528 119.773 0.367762
7.88789 141.733 0.546621
11.2885 141.183 6.28963
-24.0819 124.367 -5.29543
-3.52806 132.11 5.78315
10.4045 144.208 -1.22009
-8.6713 129.135 5.27452
-17.1131 129.917 -7.57093
-21.5698 126.411 -6.09133
8.58142 141.598 2.07972
-16.1707 122.81 8.89447
-2.92401 132.777 5.47622
-21.642 125.086 -3.16037
-14.7612 123.865 8.6374
0.188228 138.625 -2.63089
-11.8252 125.901 8.3959
-20.2214 120.61 8.62951
-21.329 127.483 -7.34641
-24.8204 123.341 -3.18547
-1.68278 137.519 -2.3078
3.65959 141.538 -3.48719
2.56259 137.725 3.25867
-21.2846 127.278 -6.41089
6.58811 144.084 -4.78274
7.60327 139.957 5.3088
7.42305 144.755 -4.96132
-5.23596 135.725 -2.73603
-26.6341 121.573 -1.2815
-25.2311 123.274 -2.94427
-4.78792 132.24 5.41021
-3.20272 136.913 -2.34701
7.55384 142.377 0.47174
10.0986 145.138 -1.90921
-6.65428 130.941 5.90765
-22.6288 125.393 -3.61964
-22.8693 126.123 -5.42597
-19.2084 129.172 -6.99097
5.67272 143.728 -4.45079
1.22301 137.024 3.82745
0.178629 136.409 3.97138
-9.43259 135.205 -6.23724
-20.6949 128.023 -5.86594
15.4131 145.643 5.0249
-25.1662 124.606 -4.50717
-15.7265 124.141 9.06552
1.7787 137.711 3.77497
9.56914 146.35 -4.07949
12.2647 145.068 2.32295
-18.5207 130.366 -7.59
-18.5674 130.024 -6.86018
4.52892 143.102 -3.71268
-23.577 125.132 -3.00593
-26.0602 121.738 0.893213
-4.43236 136.981 -2.46022
-26.1002 121.118 2.22973
-20.3603 128.735 -6.1064
4.85757 143.608 -3.88133
-16.4304 124.014 9.21302
-18.8292 130.42 -7.52078
-23.0395 121.213 6.38946
3.98295 142.875 -3.38257
-27.5635 121.511 -0.128913
-25.5327 123.266 -1.11076
-25.8582 123.461 -1.95532
-7.03436 136.632 -4.62054
-25.9217 123.215 -1.36872
-25.2873 123.375 -0.790464
-4.74911 137.153 -2.5387
-3.1983 138.015 -2.28719
-22.7258 126.197 -3.30558
11.0742 145.962 -0.0349917
8.8167 144.163 0.875669
-23.0713 126.451 -4.0795
-10.7668 128.891 7.28391
-9.6536 136.393 -7.09503
-19.626 122.849 8.34766
-8.8557 136.642 -6.34024
13.5519 146.694 2.2765
-22.4132 127.528 -5.11874
-22.832 127.339 -5.27765
10.8372 146.404 -0.703897
-5.82146 137.424 -3.90432
6.62384 143.217 0.47223
-23.1372 126.372 -3.54416
-22.5023 127.073 -4.08732
-23.5755 126.003 -3.17642
8.37438 143.051 3.3669
-22.5009 127.561 -4.99107
-22.9524 125.467 -1.13869
-23.8302 125.547 -2.44311
-22.7391 126.765 -3.55081
-15.2335 125.63 8.89346
-20.132 122.977 8.02063
-22.5349 126.958 -3.5744
-21.6599 128.559 -5.78246
-24.9173 121.875 4.03623
-7.19027 137.331 -4.95087
-9.73175 131.116 4.81858
-17.493 131.505 -6.33993
-24.788 125.419 -3.17236
-11.9136 136.001 -8.36524
9.52098 143.52 4.31172
14.4385 147.081 3.34217
-24.988 124.644 -1.75281
8.83316 147.238 -4.43649
6.2728 143.272 0.585065
1.83681 142.075 -2.73396
-11.9449 136.083 -8.42462
-22.5209 127.624 -4.60786
9.53912 147.621 -4.10908
8.6191 143.866 2.6118
-22.8901 126.905 -3.47465
3.00167 140.34 2.63297
-19.705 130.1 -5.89481
-8.26328 137.277 -5.76233
2.90967 140.275 2.80972
-25.6852 123.819 -0.490064
-22.3268 122.38 7.03268
6.30847 145.826 -4.2985
11.7899 147.125 0.265968
13.5057 145.697 5.576
8.06852 147.07 -4.4676
-22.3169 127.777 -4.07191
-8.0337 137.483 -5.53064
-25.0096 125.294 -2.37885
9.28276 143.848 4.13163
-26.0101 124.241 -1.40992
-8.17121 132.756 4.377
-25.1661 125.325 -2.55101
-12.5583 135.702 -7.68738
3.1224 140.822 2.42309
13.7486 147.633 2.19322
-22.5413 127.087 -2.68908
-14.8415 133.964 -6.94615
-15.549 133.421 -6.73937
6.00956 145.805 -4.17142
-11.4367 129.493 7.07358
11.4843 144.55 5.84886
-24.4386 124.981 -0.599829
-23.3662 125.902 -1.09355
-22.9816 126.814 -2.43421
-12.0301 136.465 -8.24235
11.821 144.811 5.96445
-23.9061 127.534 -5.11973
3.74861 144.037 -3.11484
-12.1921 129.253 6.90235
-10.816 130.703 5.691
2.62057 143.203 -2.82484
-6.98385 138.244 -5.06393
-25.6188 124.255 -0.308322
-1.92932 137.284 3.76381
-21.0376 129.505 -5.18336
-22.3994 128.001 -3.78836
-25.5986 125.152 -2.02533
-26.4199 124.615 -1.96788
11.8273 147.489 0.715891
-24.3794 125.348 -0.698303
-2.89355 139.651 -2.22088
-26.1935 124.493 -1.21487
-24.0251 128.021 -5.75271
0.104633 141.643 -2.25123
-25.213 125.34 -1.49056
13.3806 146.442 5.34489
-23.8335 127.749 -4.7103
-23.7087 126.171 -1.19342
-18.6275 131.523 -5.68202
-15.0282 134.088 -6.29723
-21.0634 129.658 -4.92795
-13.8945 128.634 6.79866
-24.296 127.063 -3.69823
-27.3052 123.385 0.105885
-25.8028 125.322 -1.98159
11.5502 147.77 0.422558
-2.33082 137.463 3.74143
-26.3198 124.611 -0.990003
-11.9423 136.943 -7.89866
8.70198 145.79 0.928471
2.23467 140.522 3.51221
-26.0951 125.164 -1.75003
8.64109 148.227 -4.11935
8.43217 148.09 -4.10218
-16.8263 126.044 8.99957
-26.0856 124.408 0.137679
-20.4941 124.219 8.00185
-3.47172 136.755 4.22015
-14.1087 134.893 -5.98826
-21.2914 129.709 -4.56833
-26.0106 125.545 -2.05015
3.22124 144.406 -2.86716
-11.3091 130.753 6.77207
-22.9627 129.052 -5.15143
5.35958 146.247 -3.68924
-24.1518 127.191 -2.71183
9.45177 145.747 2.85883
-0.477773 141.843 -2.09687
-23.8078 124.072 4.4565
-6.04366 139.508 -4.49263
-2.03231 141 -2.17755
-19.6612 124.935 8.29851
-22.2408 124.255 6.31665
-25.3055 125.254 0.154055
-15.8349 133.766 -5.13093
-26.3892 126.018 -2.75467
-15.7809 127.886 7.43615
-17.5519 126.385 8.2951
-18.7906 126.559 6.41831
-24.4134 126.58 -1.09881
-26.0377 125.53 -0.991886
-22.2936 128.755 -2.80637
9.73083 146.229 2.97136
-24.5522 124.373 3.50828
6.32122 147.353 -3.82952
-15.7976 128.165 7.29662
-25.6636 125.955 -1.10432
-25.1498 126.292 -1.12291
-25.9971 127.032 -3.77956
-24.837 124.469 3.30032
-23.4452 124.572 4.94544
-23.8212 128.395 -3.48191
-22.1008 129.538 -3.6044
-26.1281 125.351 -0.0585242
-27.2836 123.921 1.58441
-21.1429 131.12 -5.42221
-24.1618 128.068 -2.93192
13.5617 149.255 2.74778
-10.1067 133.65 4.20641
-24.1886 129.04 -4.79666
10.3509 149.181 -1.2475
-24.951 126.841 -1.05497
0.64747 143.494 -2.13692
9.78595 147.307 2.01479
-27.258 123.787 2.38413
-19.2977 127.361 5.52608
-25.2394 124.723 3.22251
13.2428 148.426 4.42279
-22.1588 129.963 -3.70353
-2.70103 138.721 3.74907
-17.799 127.741 6.86396
-1.64334 142.182 -2.13283
-21.8393 129.563 -2.27734
-21.7861 129.542 -2.1494
-5.97968 140.748 -4.76026
-21.4942 131.185 -5.19951
-6.46769 136.824 2.98046
-28.0027 124.367 0.628236
-17.6174 128.08 6.65983
-28.0757 124.209 0.994115
-18.7747 132.587 -4.28232
-28.3989 123.359 2.41586
-5.03277 137.354 4.01852
-14.3973 136.257 -6.10583
-26.0418 126.377 -0.611634
-16.8139 134.01 -4.44
-26.5766 124.753 2.21103
-21.8999 125.513 6.85859
9.1781 149.692 -2.84235
10.5035 147.274 4.09507
-7.96622 136.045 3.28192
10.0821 147.369 3.40156
-25.3919 125.782 1.79133
2.68461 145.538 -2.53447
-26.8978 125.503 0.437691
-6.34261 137.239 3.08796
-13.59 131.317 5.95184
9.67566 149.737 -1.95226
-25.1085 128.842 -4.10351
-17.1738 128.406 7.42028
-21.684 125.796 6.93439
-21.72 125.845 6.86474
-18.0359 128.931 5.31387
-23.4723 125.51 5.31124
-26.2962 125.028 2.5915
-21.8425 130.557 -3.1532
-25.6569 125.923 1.61434
-1.58432 140.097 3.72994
11.3919 148.114 4.08576
-21.8423 130.252 -2.30873
-26.4405 125.014 2.64306
1.45389 142.279 3.40392
-21.4518 130.55 -2.31149
-25.8507 126.234 1.03119
7.33211 149.36 -3.60298
-21.482 130.579 -2.28026
10.7969 149.382 0.987472
-19.3818 132.216 -2.90295
-26.8363 125.215 2.07655
-16.6463 134.484 -3.93775
-9.44209 135.598 3.33278
-19.2887 132.334 -2.86436
-28.9348 123.489 3.05502
-21.6646 131.026 -3.17433
-19.8125 131.903 -2.55798
10.0419 149.879 -0.755606
-26.4477 125.951 1.2578
-26.2512 125.841 1.78921
-19.0138 128.971 4.86122
-29.6971 123.534 2.11736
-23.991 131.054 -6.12
-21.0467 127.784 4.72579
-25.3457 128.707 -2.92321
-24.5838 130.666 -6.04444
-0.228868 144.151 -2.0493
0.664699 142.152 3.41491
-19.3237 132.636 -3.08843
-25.3439 126.25 2.48802
-29.8199 124.764 -0.279499
-25.1127 130.108 -5.15806
-24.3491 131.016 -6.04975
-14.6692 131.309 6.35005
-30.0538 124.552 0.149233
8.25583 150.401 -3.42137
3.94371 144.964 2.42784
-14.2172 137.725 -6.46054
-25.3802 129.841 -4.65657
-26.5501 125.743 2.46142
-28.6227 124.742 1.83134
1.5103 142.928 3.54416
-21.5097 131.288 -2.50962
10.6567 149.088 2.76019
3.65903 144.742 2.66666
12.3256 150.082 3.03346
-8.36389 141.428 -6.17953
-29.2867 124.423 1.9083
-19.7315 132.843 -3.10632
-5.4534 138.629 3.73452
-23.8371 130.714 -4.00266
-27.9959 123.985 4.68508
-18.8026 133.498 -3.16348
9.1883 150.437 -1.66537
-29.8391 125.671 -1.29128
-28.0317 127.533 -2.81922
-18.4341 133.772 -3.19863
-12.0688 134.667 3.42194
-19.3319 133.487 -3.69106
-26.2848 126.12 2.64129
-28.8737 124.127 3.43015
-24.3903 131.398 -5.89337
-22.2037 132.861 -6.0111
-27.2973 125.102 3.71334
-25.9902 126.265 3.04903
-29.7786 124.877 0.977811
7.11672 150.177 -3.32776
-9.69756 136.907 2.38393
-27.2999 129.241 -4.85522
5.02722 146.414 1.92403
-28.3586 127.695 -2.95621
-12.2032 135.046 3.11433
-23.5374 127.183 4.67177
-30.7112 123.259 3.51302
-24.3956 131.406 -5.2646
-19.6361 133.85 -4.04407
-12.5257 134.911 3.21103
10.0594 149.751 1.94745
7.108 148.344 0.998793
-26.4298 125.572 4.46059
7.54633 150.686 -3.33172
-20.7409 132.139 -1.79527
6.58577 148.035 1.03404
-15.0234 131.971 6.21937
-11.5583 140.169 -6.46211
8.06921 151.019 -3.0831
-21.2588 132.038 -1.96616
5.19647 146.856 1.96408
4.33278 148.538 -2.71124
-21.9476 131.747 -2.20181
-23.8095 127.357 4.62607
-21.8175 128.471 4.96029
-14.14 138.723 -6.39243
-15 132.589 5.4669
6.95093 148.526 1.03072
-26.7466 125.505 4.80686
-4.24105 140.28 3.57542
4.59163 146.415 2.39196
8.72396 150.956 -1.69801
-15.1812 132.447 5.60502
-30.4268 123.668 3.87602
-26.749 129.704 -3.94576
-26.9659 126.373 2.95372
-2.5289 141.421 3.71025
-20.9587 133.593 -4.28633
-27.0885 130.096 -4.9556
-26.2839 129.822 -3.24659
-11.4732 140.683 -6.42137
-30.431 125.19 1.07174
-1.47006 144.931 -2.04635
-17.8677 134.9 -2.64002
-15.5043 132.478 5.67573
-6.0261 139.699 3.11094
3.77908 145.932 3.0069
-29.0678 124.778 4.04546
-4.57122 143.954 -3.73984
-13.4802 134.66 4.08495
-0.0267402 146.028 -1.97414
-28.4984 129.27 -4.4501
-9.7061 138.069 2.0127
10.7121 150.644 2.7998
-30.7573 124.393 3.08059
-18.7351 135.055 -3.35082
-26.4707 126.223 5.03906
-3.94894 144.334 -3.20864
-27.4417 125.562 5.20274
-29.0887 125.038 4.11935
-19.2662 135.276 -4.43519
-29.8769 124.751 3.68696
-1.40435 142.679 3.73135
-24.9573 127.975 3.47167
-19.2697 135.335 -4.37675
-26.0955 127.044 4.08511
-29.3289 124.653 4.83322
-27.9834 129.955 -4.58148
-26.3002 130.818 -4.13916
5.91806 150.536 -2.80514
-30.2171 124.74 3.59357
-28.6871 125.674 3.71761
-8.12651 143.168 -5.81751
-20.3316 130.442 4.8912
3.95768 146.398 3.55393
-18.0873 135.239 -2.18348
-27.1413 126.607 4.01342
-20.0557 133.934 -2.02437
-19.4952 130.999 4.94112
9.95406 150.837 2.2677
-25.024 128.029 3.87535
-30.1655 125.073 3.3254
-29.197 128.9 -3.45267
-13.4507 135.521 3.53899
-20.629 134.986 -4.88941
-14.5515 139.217 -5.70252
-26.1994 126.773 5.09844
-13.3639 135.711 3.39876
-11.9265 136.842 3.17334
4.50876 147.126 3.40006
-30.3297 127.384 -1.20509
-5.7819 140.926 2.89478
-6.2486 140.734 2.74436
-21.2298 135.009 -5.07343
-3.12023 142.629 2.9704
-3.91721 145.098 -3.23715
-30.0306 128.167 -2.23335
-2.99696 145.468 -2.77707
4.52551 147.252 3.48953
6.35657 149.313 1.58956
7.08288 151.807 -2.64603
-18.9602 134.83 -1.39497
-20.8083 130.465 5.38101
-25.3634 127.878 4.85695
6.92643 149.886 1.3678
-18.9179 131.53 5.85841
-23.2789 128.752 5.93583
-27.932 130.442 -3.82915
-20.9053 130.397 5.70784
5.38429 150.903 -2.52703
-25.8534 131.481 -3.09207
10.6359 152.593 0.920534
-7.60702 140.23 2.89026
-23.9115 128.805 5.33374
-23.3313 128.85 6.26972
-21.182 130.07 6.59903
-18.4642 135.71 -1.61249
7.1219 150.384 1.50267
-28.5332 130.109 -3.05329
-25.4015 128.233 5.31108
2.5973 149.387 -1.90705
-1.92373 146.811 -2.38331
8.30276 151.755 0.800827
-10.4729 139.083 2.59927
-10.5831 142.799 -5.40082
-25.7804 132.079 -2.96079
-23.577 128.868 6.80775
9.5553 152.473 1.10863
-12.4625 137.689 3.21902
-4.63074 146.083 -3.95738
-26.2742 128.113 5.22415
7.16128 150.946 1.7826
0.00461012 148.115 -1.75749
6.2558 152.347 -2.30128
6.47277 152.456 -2.16878
8.85281 153.303 -0.715609
-1.07884 144.471 4.73645
-14.4036 136.294 4.2707
-13.37 137.378 3.37352
-27.6652 127.454 5.31548
-30.279 128.886 -1.05467
-28.2359 130.803 -2.2873
-13.73 141.419 -5.23458
-26.6863 128.084 5.96696
-8.03897 140.871 3.82649
-9.26813 140.185 3.64831
-29.7473 127.098 4.07202
-2.48779 143.792 5.11862
-20.5158 132.265 5.53043
-7.32615 141.479 3.65522
-21.6138 131.533 5.65541
-25.4356 133.528 -3.59824
-14.321 136.965 4.03765
-4.00595 143.434 4.13248
-26.5405 128.338 6.06568
-26.1762 128.695 5.79898
-8.41713 145.462 -5.98141
7.45466 151.71 2.12505
-26.2844 132.717 -2.67217
-25.5145 129.164 5.90573
-16.0198 135.484 5.20411
-3.79379 147.237 -3.32106
-29.0111 127.62 4.54913
-8.34681 145.611 -5.94851
-6.54153 146.486 -5.30473
-16.3381 139.525 -3.61356
-22.9085 136.254 -5.4265
-14.5373 136.982 4.29094
-13.1329 138.656 2.67676
-4.49363 143.516 3.9664
-13.3412 138.586 2.73347
-22.2241 136.865 -5.45943
-5.02414 147.164 -4.24412
-25.2382 129.782 5.56963
-20.8968 137.612 -5.19395
-5.10091 147.191 -4.29174
7.1584 151.677 2.6069
-26.5928 129.024 5.6001
-13.9701 141.911 -4.80903
-15.7172 136.142 5.15742
8.305 152.836 1.93818
-30.1225 129.834 -0.612236
-16.1455 140.677 -4.80065
-14.896 137.152 4.40092
-30.5062 128.6 1.69449
-30.5143 129.305 0.325625
-14.9763 137.189 4.41888
-16.2157 140.052 -3.17738
-17.6883 138.754 -2.37974
-30.4801 129.272 0.71144
-2.734 148.507 -2.91923
-18.9373 138.743 -3.78964
-4.95494 143.672 4.52955
-14.9397 141.791 -4.74184
-30.3187 128.686 2.50553
-25.8977 130.53 4.51208
-20.8164 133.695 4.94549
-29.8314 130.635 -0.532512
-22.1355 132.385 6.0628
-29.8639 128.678 3.61425
-15.4789 141.768 -4.74384
0.451915 150.429 -1.7152
8.48235 154.65 0.516781
-1.41483 149.855 -2.40819
-1.93272 149.667 -2.63348
-25.1004 130.571 6.89297
-3.67312 148.986 -3.29609
-18.7768 134.904 6.41957
-3.7628 149.097 -3.3044
2.34673 152.182 -1.5433
-22.1672 137.856 -3.92276
-27.4455 133.604 -1.91318
-28.7455 132.219 -0.685428
-25.4409 131.571 5.12065
-15.7653 141.758 -3.49306
-29.2563 129.898 3.68512
-16.9327 140.689 -2.60931
-11.6813 141.431 2.85746
-27.8484 133.34 -1.49754
-27.0006 131.842 2.86316
-1.78351 150.307 -2.55044
-16.1916 142.191 -4.57234
-20.2884 134.763 5.78544
-29.4292 130.152 3.37266
-13.9683 143.936 -5.0641
-8.36393 142.79 5.04985
-16.2473 141.232 -1.88865
3.25384 153.425 -1.46886
-2.96184 150.195 -2.89168
-7.58401 148.418 -5.28085
-24.6659 136.76 -3.2718
-22.244 134.762 4.27295
-10.268 142.528 4.06153
-1.56248 151.147 -2.43084
-16.2732 138.582 4.6868
-27.306 134.601 -1.58925
-16.1205 141.936 -2.15065
-18.923 140.722 -3.28052
7.13164 155.168 1.0627
3.84315 154.316 -1.38972
-15.886 142.582 -2.50972
-10.9254 142.734 3.85021
-15.4137 143.272 -3.10277
-25.6352 134.236 2.3822
-17.1793 137.752 6.30145
-27.6094 134.845 -1.21181
-13.6942 141.725 2.99498
-5.83753 150.113 -4.25099
-23.2159 135.602 3.32342
-28.9668 133.86 -0.607109
-29.5383 132.695 1.1327
-9.86165 148.285 -5.60497
-13.9206 145.206 -4.37332
-25.2149 137.027 -2.09728
-18.6265 137.137 6.50051
-8.20306 144.158 5.57111
-17.1882 138.181 6.46405
-17.3464 138.063 6.54116
-2.15648 152.172 -2.63403
-28.0595 134.989 -0.761303
-17.6871 142.209 -1.98572
-28.6071 133.59 1.69578
-8.98987 144.989 3.8289
-4.56159 151.099 -3.13785
-21.3412 140.128 -2.25299
-10.3825 148.566 -5.39114
-18.0777 138.295 6.28035
-27.7795 134.489 1.50383
-20.6007 141.072 -2.45852
-0.367387 153.603 -1.91007
-16.1613 143.484 -1.52196
-8.83329 145.675 3.79581
-25.2082 138.046 -1.89477
-11.9174 144.379 2.46163
-25.2794 138.205 -1.74035
-25.2037 138.32 -1.86275
-14.3913 146.054 -3.77091
-0.994642 153.856 -2.11584
-12.5341 144.152 3.17301
-6.30633 151.393 -3.82178
-16.0909 144.107 -1.42466
-20.4299 141.874 -2.47529
-13.4533 143.197 4.03885
-17.5216 139.601 6.36218
-17.9017 139.436 6.27035
-11.5001 148.757 -4.74379
-26.0221 137.659 -0.557097
-13.3032 143.521 4.01989
-24.6232 136.752 3.36147
-4.14639 152.557 -2.678
-24.9781 139.004 -1.70568
-22.4032 137.337 5.30649
-24.3115 139.339 -1.45492
-18.2073 143.517 -2.03559
-14.2272 142.916 4.55337
-23.2546 137.458 4.23275
-17.2243 144.027 -1.60383
-28.5873 135.732 0.853885
-21.2466 137.898 6.10309
-24.3825 137.221 3.44827
-15.3912 142.492 4.69495
-24.5447 137.41 3.46991
-14.0128 147.477 -3.74834
-15.0708 146.334 -2.56943
-12.3578 145.154 3.68337
-20.1859 139.256 5.97298
-18.0697 144.363 -1.9551
-25.0918 139.476 -0.975779
-9.63576 147.541 2.60843
-22.7687 141.17 -1.23674
-19.0662 143.925 -2.07187
-6.91729 152.255 -3.30451
-19.5453 143.764 -1.9977
-2.53361 154.45 -1.90645
-8.13872 151.607 -3.31203
-26.3422 138.505 0.161757
-14.009 148.049 -3.45311
-11.2229 150.202 -4.11487
-25.603 139.578 -0.632418
-18.0547 145.188 -1.75145
-13.8679 145.107 4.67078
-4.31939 154.242 -1.90055
-27.2862 138.178 1.48281
-16.2357 143.594 4.88869
-16.2957 143.67 4.8989
-26.1475 139.698 0.444657
-24.8193 138.878 4.17634
-10.7572 151.334 -3.20408
-16.346 146.593 -0.571884
-17.4262 143.012 5.74831
-25.8751 140.139 0.803445
-11.4752 151.226 -3.26343
-24.1701 141.751 -0.0819749
-5.66954 153.996 -1.27507
-19.1819 145.444 -1.19533
-26.1823 139.674 1.72955
-15.828 147.212 -0.393148
-21.63 140.738 5.69716
-12.8388 147.282 3.68454
-11.4805 148.313 3.41965
-7.42182 153.238 -1.48053
-15.4349 145.143 5.04014
-9.43823 152.241 -1.92298
-19.4054 145.573 -1.02818
-10.0339 149.608 3.21216
-6.00451 154.268 -0.757845
