ply
format ascii 1.0
comment Created by Open3D
element vertex 1884
property double x
property double y
property double z
end_header
13.17 118.913 8.55777
-8.59757 90.9513 -10.768
12.2162 131.515 -6.97362
8.52088 112.361 5.19806
11.7982 127.209 -3.03758
8.61235 116.266 1.49527
18.6541 141.42 -2.6062
-7.20597 82.1186 2.1875
-10.5687 88.3528 -12.0368
4.16644 101.362 7.41429
-5.62147 97.8781 -10.9747
9.29634 125.781 -6.99096
14.014 134.258 -5.3478
8.84942 114.731 3.80858
13.0414 119.126 8.64747
-10.8107 88.0198 -12.0604
14.0738 135.402 -6.33201
-3.5086 103.881 -12.4367
19.9853 140.66 1.47552
-13.8112 81.1402 -11.423
-2.25714 106.169 -11.9681
-13.8707 81.2287 -11.6112
6.46204 117.338 -4.10919
13.2507 132.801 -5.24897
13.0579 117.744 10.385
-6.94138 96.1049 -11.7247
13.9774 134.308 -5.18002
4.45715 113.775 -4.77327
2.37553 104.442 0.579466
-0.286542 98.7454 0.651985
13.0163 132.255 -4.97139
16.8621 139.327 -3.8023
-8.26898 81.0275 1.58892
-5.09634 101.14 -12.6675
11.7612 114.424 11.307
20.5479 143.674 0.0165359
-13.9672 81.1123 -11.2677
19.8907 143.282 -1.02258
12.7091 132.061 -5.25126
12.8015 132.049 -5.02174
6.88464 114.78 0.0924259
-10.7744 89.0165 -12.3309
16.163 138.624 -4.32735
-1.06554 108.72 -11.2332
-1.56363 107.896 -11.4678
12.7007 131.721 -4.56831
8.07608 111.662 6.37665
-6.72407 97.1523 -11.5705
-9.90459 79.0317 0.57944
13.9381 122.992 7.62307
12.9286 133.195 -5.42723
-10.3078 90.1447 -12.0237
12.7256 125.064 2.82946
-7.11615 83.1724 2.65743
11.6598 127.709 -2.39538
-8.93208 93.1381 -12.0745
12.4963 125.368 1.99873
13.0039 132.99 -4.96271
12.5465 125.308 2.25804
-8.07281 81.8242 2.0611
14.7541 127.279 5.20215
14.0168 131.929 -1.3853
-1.95315 95.2111 1.69227
-10.3338 90.3759 -12.0978
10.6823 130.27 -7.13566
13.7297 126.721 3.55051
-13.4136 82.5911 -10.7373
1.91939 113.167 -8.67498
13.3127 126.831 2.55177
-10.0623 91.1607 -12.2301
17.3116 134.558 3.43565
13.0655 134.023 -5.55684
8.2194 117.614 0.991964
13.6958 133.706 -3.78203
19.945 144.073 -0.603762
12.7871 126.303 2.17196
8.34215 117.802 1.21937
17.9661 136.985 2.5935
14.9476 128.599 4.73558
-4.55506 88.0068 3.94805
13.7306 134.08 -3.84085
7.32954 106.705 10.9173
11.5064 115.222 11.3835
11.6184 129.125 -3.13698
19.3052 140.032 2.64984
19.8303 142.83 0.862897
-7.21262 97.5654 -11.9792
14.1747 133.222 -1.63432
18.6361 143.236 -2.21304
4.6313 115.329 -4.09816
14.4577 126.332 6.38452
-2.1884 95.1948 2.05609
13.2498 121.978 8.41063
11.5998 128.917 -2.67593
14.6481 127.619 5.63196
-8.49143 81.9112 2.07602
6.96363 120.285 -3.84026
14.6741 127.28 6.15725
16.205 139.871 -3.79316
13.8118 135.667 -4.69929
13.6578 134.764 -4.08163
11.5287 129.795 -3.56805
14.0648 135.482 -3.89235
-7.51259 83.5765 2.70391
-13.0062 83.3333 -9.42349
5.0628 116.249 -3.61373
-4.11581 105.182 -12.5344
-2.03687 96.1814 1.77471
8.63423 115.436 5.38686
11.5709 129.684 -3.15421
-8.44241 82.209 2.25054
-13.6132 82.4596 -9.67054
1.91595 113.73 -7.90062
17.9588 137.7 2.82094
-2.85129 93.725 2.73171
14.2858 136.164 -3.72558
12.1922 129.034 -0.787003
-4.50921 90.7623 2.29658
4.41776 115.685 -4.08273
-2.86436 93.808 2.85101
-3.23642 107.058 -12.1022
13.9395 133.695 -1.65395
-7.88803 83.4833 2.60843
7.37686 110.245 8.57945
-12.1342 89.3884 -13.2856
7.42416 108.469 10.6642
-4.79078 89.8666 3.03189
-2.21951 96.2228 2.07858
2.04689 106.176 1.11519
-12.7838 76.3369 -0.539155
8.18802 119.538 0.806853
-12.7379 88.5202 -13.4152
-7.96017 98.0942 -12.7072
-11.6953 90.74 -13.2652
-2.58093 95.1609 2.66008
11.5498 128.319 -0.75392
-12.8297 87.8734 -12.6482
7.42356 109.033 10.5915
1.72688 114.225 -7.79748
3.78608 115.429 -4.40585
19.4237 143.286 1.27011
-3.55683 93.177 2.78541
7.44509 111.3 8.33427
-12.7255 89.0045 -13.4451
4.44777 112.929 -0.08893
0.151717 101.923 1.94468
9.25624 119.797 3.4832
5.06311 117.49 -3.49128
9.05508 118.456 4.55237
9.11991 112.28 11.3533
-0.136501 101.496 1.97025
11.6658 129.75 -1.46621
-5.7366 103.591 -12.8961
-5.5033 104.04 -12.8252
3.77669 115.755 -4.30966
17.7531 138.407 3.1527
13.3937 135.292 -3.34991
14.3767 128.251 6.39587
12.9613 124.222 7.5175
-6.0187 103.243 -12.9773
1.87088 114.611 -7.24322
8.34476 127.587 -6.43457
-0.382256 101.144 2.05315
-15.3752 82.0358 -11.4311
4.67296 113.915 -0.0922573
7.45513 119.428 0.325831
-5.79385 87.8988 4.02006
2.64186 109.26 0.370673
12.3058 130.823 -0.729249
16.564 135.939 3.47373
-13.5123 88.1062 -13.4574
11.3691 131.118 -2.98135
8.23607 115.766 6.35636
1.13602 104.2 2.65343
9.37863 113.457 11.4175
8.89476 121.49 1.77867
-15.0341 82.6362 -10.8302
14.2279 138.758 -4.38295
2.56161 115.386 -5.81592
6.42568 121.28 -3.34421
11.5387 132.008 -3.20508
-13.1072 89.5543 -13.5834
-14.3346 75.3548 -1.12322
-7.23075 101.391 -12.7843
-8.29818 99.0869 -12.7215
12.2925 132.13 -1.41156
-11.0168 80.4656 1.02126
13.7049 136.2 -2.52043
8.57224 117.548 5.8054
11.6424 119.41 10.8816
14.0397 128.629 6.48753
9.40576 121.477 3.79113
4.67032 115.286 -0.277364
-12.7023 78.1791 0.0354465
13.6212 137.434 -3.61613
-8.60007 84.6812 2.44159
6.74748 119.603 -0.0713341
12.9937 136.787 -4.26227
7.65188 112.405 9.68335
-13.3405 89.7816 -13.6346
15.2537 140.827 -3.38524
-13.5837 76.8595 -0.318731
-7.79238 85.7322 3.35211
-14.7896 75.2671 -1.29886
6.96851 120.103 0.071064
-2.1054 111.078 -10.8066
16.5965 142.772 -2.33018
7.69371 111.884 10.5273
16.4402 142.63 -2.46205
15.7146 141.671 -3.07009
10.8407 118.112 11.0584
-10.2099 82.0401 1.94682
-2.06703 98.5444 2.7603
-14.5092 85.3821 -11.3132
-17.6506 77.7349 -10.2556
-3.92009 93.7424 3.80214
7.98278 128.374 -6.18037
-0.298823 102.175 3.06394
4.85467 118.959 -3.18156
0.655627 115.53 -9.01155
-3.54165 94.3512 4.14727
7.638 113.984 8.52197
18.7386 143.21 2.56218
-10.7746 94.5717 -12.2025
0.0678514 102.948 3.40197
8.51538 123.292 0.857354
-17.079 80.9108 -11.7925
7.75251 115.404 7.60304
18.883 144.704 1.60785
16.9959 139.058 3.38737
-4.33327 93.4844 3.78958
-14.7686 75.8807 -1.00551
7.66883 121.972 0.558777
15.6165 142.078 -2.90329
-5.19832 92.2423 3.20611
8.66684 119.118 5.89484
-15.425 83.3409 -10.2509
11.9816 134.188 -2.49287
17.2735 139.876 3.49391
8.28778 114.309 10.4635
-16.6635 80.5346 -9.9194
0.768506 105.211 3.19555
-13.8674 77.3578 -0.182328
-0.246939 115.024 -9.52506
1.23368 116.009 -7.22532
13.7207 139.273 -3.80347
2.34613 110.723 0.939705
5.81539 119.061 -0.108605
-16.5386 81.0871 -10.0628
2.64279 111.805 0.647536
-12.7025 92.5308 -13.4799
1.56351 108.027 2.27637
6.86756 126.376 -5.29994
9.15119 124.822 1.54646
-16.6677 82.9922 -12.112
12.3208 126.372 7.19729
14.715 140.943 -2.89371
6.23644 123.24 -3.11387
-9.07796 85.2868 2.75915
18.3674 146.014 0.100568
9.98117 118.011 11.0404
-7.98025 86.4745 4.11328
0.534026 116.225 -8.26642
18.1432 146.144 -0.28261
2.81641 118.184 -5.07006
-3.58774 95.4867 4.66397
1.23072 107.579 2.742
2.40964 117.82 -5.50453
7.7614 123.684 0.361191
11.6449 125.212 7.53496
-2.55437 112.15 -10.5634
3.17917 118.635 -4.48085
14.462 132.611 6.19824
15.5428 136.714 4.27734
1.73778 117.217 -6.09335
-0.644258 102.771 3.97064
12.459 127.275 7.45755
-8.14907 102.955 -13.1873
5.28349 121.835 -2.94405
-18.1735 81.1491 -12.5031
7.04525 122.739 0.153647
9.68085 134.27 -6.08883
13.0447 138.975 -3.43627
2.47641 118.309 -5.25934
-6.10507 90.1771 5.37532
0.34462 105.3 3.84264
6.06516 124.124 -3.28439
16.0634 143.618 -1.43795
4.43325 120.311 -2.84715
-16.7557 82.9557 -10.8471
2.63279 113.052 0.892542
-11.8568 81.8323 1.43801
-17.208 81.3671 -10.0927
0.446165 116.858 -8.01936
-6.33212 89.8087 5.53341
-9.29546 100.797 -12.8657
14.9053 135.094 5.34152
0.650285 106.627 3.48428
11.9145 126.593 7.69104
-14.6665 89.7751 -13.1088
0.464628 106.096 3.70845
-12.5781 94.1072 -12.9619
-13.2962 79.7302 0.757139
17.2887 141.664 3.8938
-15.3497 77.3316 -1.25261
-11.462 82.668 1.85455
-0.575082 104.074 3.66554
-8.45532 87.0006 4.07776
14.7541 135.01 5.37759
8.80025 121.763 6.06569
14.4229 141.306 -2.03744
8.09759 125.537 0.486176
6.51179 127.068 -4.66959
-17.8239 80.2922 -9.79198
9.53623 127.162 2.11449
7.67314 116.852 8.931
4.092 117.323 0.351113
12.9394 139.81 -3.57668
-13.6061 79.6049 0.661778
0.859753 117.459 -6.97663
9.0218 127 1.33946
12.5253 138.274 -2.71309
-15.4601 88.4656 -12.7075
14.9307 136.014 5.39671
7.69606 117.472 8.82032
-15.2559 77.8836 -0.806549
-10.7322 84.7351 2.11558
-16.5862 75.2428 -0.99184
8.32024 120.449 7.12375
17.8284 145.253 2.22002
11.5522 126.521 8.0137
14.5702 141.939 -1.54887
12.6787 140.438 -4.21161
16.6069 141.224 3.86419
4.72148 119.49 0.185247
12.4477 138.456 -2.39419
11.4098 140.022 -6.35325
10.3634 123.417 9.00601
1.24641 109.878 2.91983
4.06764 121.307 -2.88425
0.146862 117.713 -7.84809
-17.2659 74.65 -1.26298
-1.35865 115.95 -9.33825
2.46814 119.902 -4.77714
0.766479 118.415 -7.01902
-6.57825 91.8112 4.78573
15.3927 139.227 3.91421
3.24528 116.409 0.822296
14.1409 135.102 5.55561
8.56224 122.228 6.80677
15.9503 144.685 -0.437476
6.07495 126.877 -3.75187
0.50497 107.845 3.95776
0.922926 109.135 3.5879
-20.998 74.4412 -8.91715
10.5405 139.213 -6.68174
-13.3675 94.723 -13.1774
2.06557 113.383 1.82028
0.371503 107.799 4.06818
9.69492 127.557 4.15441
6.04098 127.516 -3.97723
-14.5925 79.7268 0.354181
10.8496 126.146 8.40483
-1.52442 104.157 3.92961
15.6318 140.789 3.77885
5.97682 127.329 -3.66915
9.31775 126.02 5.28535
-3.66826 98.6263 5.18032
-16.2356 88.5708 -12.4816
16.1538 145.921 -0.425404
10.7811 140.264 -6.48259
-19.9584 80.9396 -12.6515
-18.3895 84.5217 -12.9219
9.51016 129.863 1.84411
-13.1309 95.6894 -12.8546
4.02609 119.41 0.660358
5.22665 122.173 0.437237
-16.6443 77.9559 -1.84217
-14.5521 93.4201 -13.5488
-10.3581 87.1188 2.67991
0.517131 108.996 3.93182
8.41186 120.389 9.63204
-16.8033 87.8467 -12.6339
14.7219 138.134 5.05797
-13.2827 95.6318 -12.9188
-6.9437 107.783 -11.5332
-18.7151 83.4984 -12.1954
7.80442 127.98 0.321773
-12.6108 97.5829 -13.3957
5.91958 128.325 -4.27084
-13.7501 95.0604 -13.2514
-1.82153 116.562 -9.15973
8.9859 130.277 0.659608
8.58767 120.892 9.79422
8.05905 134.43 -5.79886
0.702132 109.786 3.87544
-16.2858 89.0214 -12.291
0.954263 111.061 3.22546
5.72901 127.41 -3.38499
4.68988 124.533 -2.47331
-13.1839 96.7948 -13.2928
-21.4444 75.135 -8.76825
15.2411 144.87 -0.175212
5.72888 124.237 0.362736
7.4868 133.494 -5.42024
8.75839 122.123 9.6263
5.71587 127.895 -3.40018
-21.3359 73.5048 -6.4341
8.22185 122.034 8.65274
-8.23761 89.9197 5.69804
11.6523 130.587 7.3092
-21.5828 74.4004 -7.83533
15.7835 142.536 3.99565
9.39125 128.546 4.52414
-7.92757 107.176 -11.8231
15.6756 142.394 4.01813
0.0147234 108.901 4.34637
-20.41 80.802 -11.8579
-13.6282 82.9253 1.2491
-3.90504 113.757 -9.61632
-19.9869 81.6332 -11.532
-17.6355 77.4841 -1.78757
-5.12759 111.784 -10.0609
-6.3314 109.73 -10.5601
-17.8647 87.1344 -12.5174
-11.149 101.775 -12.9487
-21.7081 75.3587 -8.50646
-20.7209 80.825 -12.0702
-6.95543 108.852 -10.8387
3.24381 123.164 -3.04128
16.6761 146.386 2.5649
11.5015 142.174 -4.62843
8.97907 126.364 6.5367
8.52809 124.376 7.70458
-10.6558 102.981 -12.8015
14.6095 144.467 0.0859844
12.0456 141.874 -2.93551
16.2788 147.697 0.433008
-7.99625 107.623 -11.6711
9.63422 140.121 -6.44183
12.1448 143.08 -3.85911
-10.9141 88.0573 2.70594
11.7836 140.567 -1.9629
-21.7562 74.4873 -7.2638
9.22623 124.952 8.95518
-4.37365 99.2925 5.58635
0.524554 111.271 3.9538
16.0499 147.878 0.0172493
11.9698 141.889 -2.78994
-6.23202 110.396 -10.3439
1.36337 121.741 -5.24373
-21.0902 74.1039 -5.08136
-0.23733 109.221 4.61977
7.98464 130.663 0.364589
-7.13455 93.0223 6.33993
-14.3454 82.7862 0.963987
9.3812 140.003 -6.42439
-13.0792 99.1843 -13.6607
16.4906 146.569 2.71333
-18.6928 86.0195 -12.2325
-9.38341 106.17 -12.6725
3.25065 119.794 1.36962
-15.4079 94.2169 -13.5159
-21.893 75.3664 -8.05996
-10.6353 104.005 -13.054
-1.57605 118.748 -8.28283
8.98558 128.298 5.41319
14.0158 144.017 0.0406096
-5.78886 111.51 -10.0263
9.62101 140.92 -6.51929
-13.2931 84.7749 1.63472
-16.1708 92.648 -13.2608
11.9193 143.562 -3.99786
8.532 138.562 -6.17208
5.73114 126.396 0.524993
8.88901 132.967 0.698835
3.382 124.611 -2.80114
4.66195 126.765 -2.20066
-0.744912 108.639 4.97483
-20.7978 74.6511 -4.08746
-15.5056 94.752 -13.561
11.9584 142.595 -2.43919
-9.30084 90.3459 5.23998
-15.1261 95.7228 -13.6534
4.93064 127.789 -2.5116
-8.65029 91.0106 6.01716
-1.21089 119.855 -7.89717
-6.52984 110.712 -10.1676
-15.3616 95.2669 -13.6379
14.97 146.728 0.0516767
-15.2885 82.3261 0.432472
4.98592 125.086 0.751915
8.93675 133.341 0.918794
-21.5023 80.4806 -11.4976
1.68033 123.04 -4.46616
0.490681 122.207 -6.22158
-1.12127 108.262 5.1139
3.83957 125.786 -2.35062
-8.6738 108.097 -11.7224
7.12273 130.287 0.446897
8.86601 129.386 5.40623
1.90463 116.9 2.99293
-4.93786 100.101 5.45005
13.6214 139.362 5.63699
14.9282 143.444 4.28015
3.17879 121.038 1.61895
-16.1119 94.2995 -13.3875
3.41677 125.566 -2.58005
9.46178 142.103 -6.53862
-21.7449 78.6784 -9.41451
5.09863 130.368 -3.84166
15.9661 146.713 3.32556
9.12884 131.016 4.63574
6.91739 130.283 0.459321
-1.1855 120.557 -7.3608
2.28129 124.355 -3.56248
-5.47041 113.255 -9.21532
10.0807 143.185 -5.94589
-17.0234 80.7707 -0.632051
2.90798 125.193 -2.94818
0.273454 122.772 -6.32166
8.72521 126.332 8.99298
-7.86 93.7463 6.27807
8.91012 127.058 8.68538
-4.42493 102.324 4.93773
11.7596 143.071 -1.85399
9.66932 135.544 1.45899
8.43315 127.515 7.23652
10.1924 135.969 2.25402
8.69915 126.687 8.79424
2.71428 120.345 2.11473
-13.7345 86.0771 1.54598
-19.4377 86.4534 -11.7143
-11.2758 104.956 -12.9779
-6.46981 111.998 -9.62055
-15.6343 83.0963 0.493816
-21.2825 75.7903 -4.46016
4.81213 125.913 1.07593
15.4753 148.501 1.10192
-21.4371 79.9341 -9.17981
3.34689 126.224 -2.49856
-4.82933 101.91 5.02894
-15.866 82.935 0.323696
-13.3394 87.1007 1.59413
6.72881 136.428 -5.63852
-6.62876 111.87 -9.63941
7.30488 132.093 0.34957
-0.0100426 112.51 4.71282
15.6365 146.463 3.8862
9.18562 132.165 4.57594
13.7759 145.934 0.366065
-12.4174 88.9983 1.92991
-14.7375 84.8325 1.14132
-19.9463 77.1202 -2.39481
15.6266 147.109 3.44473
-22.4654 77.5984 -8.50118
-10.9937 90.6122 3.58826
-4.04249 116.529 -8.31265
-11.064 90.6138 3.50311
11.334 134.61 7.21441
-12.911 88.4366 1.68547
-21.9558 81.6304 -11.5026
1.51942 124.754 -4.4224
-20.1375 77.0014 -2.43604
9.77713 134.309 4.10342
8.92908 130.882 5.8549
-12.2274 103.627 -12.8248
3.55634 127.249 -2.33407
-15.9549 83.4005 0.403319
8.914 129.435 7.56254
-14.2228 100.231 -13.5802
-10.4315 107.398 -12.5961
-21.4124 76.2965 -4.20916
-1.08605 110.375 5.44302
-8.78205 109.722 -11.2524
-16.3865 82.9941 0.0845376
12.0997 144.278 -0.856396
-13.6469 101.651 -13.5806
1.99758 119.169 3.11841
-13.1386 88.518 1.66313
2.69221 121.377 2.45969
-22.0836 82.3814 -11.9473
1.66756 118.143 3.63425
2.65115 121.333 2.51702
8.21184 141.28 -6.15069
-16.5111 95.5793 -13.2073
-10.9667 107.014 -12.8674
14.8909 145.678 4.3762
-1.35153 110.157 5.59276
15.1066 146.614 4.04646
-20.7363 76.968 -2.64648
-19.903 86.9233 -11.3475
-5.04136 103.149 4.96314
5.62087 129.538 1.02239
12.706 139.51 6.40934
-7.25303 112.232 -9.46741
12.1917 145.375 -0.822444
-12.7341 89.8176 2.08915
-22.3058 77.0915 -5.92861
9.31483 132.385 6.58162
6.462 137.988 -5.8362
8.99971 131.203 7.18879
-9.11097 93.5049 6.58468
11.4461 139.233 4.37226
4.46748 131.681 -3.3465
11.1948 138.579 4.52487
9.72463 134.157 5.92831
1.18859 117.732 4.18076
11.6485 137.341 6.9434
-16.0882 84.5761 0.527571
11.9423 137.929 6.99433
10.162 135.046 6.11022
12.981 142.201 4.89321
11.2253 136.99 6.50934
-5.84203 102.105 5.13958
11.4941 139.104 4.87559
-5.244 115.783 -8.08306
-19.8184 87.9187 -11.3056
9.56635 132.8 7.2716
12.0758 139.46 5.86051
9.58132 133.513 6.63013
-12.5179 104.973 -12.8292
14.8376 148.24 2.90543
-8.42711 111.415 -10.3927
4.74478 133.488 -4.15798
8.7261 137.3 0.783424
-8.55567 111.292 -10.5365
-11.133 91.7909 4.47507
14.9632 149.449 1.99532
-22.1378 80.9523 -8.75546
-22.9154 79.1163 -8.55321
13.3801 143.557 4.78424
9.96024 138.938 1.98998
12.5278 147.993 -1.81714
-19.2225 80.4148 -1.49143
0.913476 126.047 -4.63402
-14.0174 88.6206 1.56546
4.68045 133.53 -4.00223
14.8074 148.876 2.53957
-8.28246 96.2847 6.49645
10.8005 146.245 -3.59719
0.810237 117.425 4.57557
-16.0526 98.2106 -12.9933
12.0589 139.964 6.03705
13.5096 144.183 4.83971
-10.0085 109.857 -11.6518
10.4403 146.962 -4.98725
-9.47446 93.9488 6.55289
7.89748 136.506 0.485116
9.11996 138.437 1.18872
4.0625 126.817 2.15896
-22.3569 81.2303 -8.8277
11.6453 140.503 4.87268
7.16118 134.271 1.41599
-2.20675 110.457 5.71128
5.03331 129.498 1.78095
-4.56344 105.987 5.20746
-7.90001 97.7828 6.45882
2.69702 123.636 2.88883
3.87579 130.886 -2.1624
-22.1275 84.8713 -11.8507
-9.14964 95.2284 6.51101
-4.7649 105.774 5.18263
3.94646 126.924 2.32384
-12.6119 106.171 -12.9591
-15.5124 87.0084 0.953885
-0.883077 123.828 -5.20007
-8.2667 97.1591 6.59849
-18.7663 92.7628 -12.3915
-22.0823 83.9277 -10.4616
5.15026 136.305 -4.65174
-14.5392 88.9074 1.39316
10.7354 146.35 -2.58163
-19.7042 89.8381 -11.085
-1.90176 111.725 5.93393
11.8425 141.08 5.73402
-3.24299 109.399 5.49845
-5.91904 104.029 5.19266
-22.7778 79.0704 -6.24042
-19.7164 81.1499 -1.53209
-8.01043 98.5061 6.42308
-9.24979 95.7462 6.58267
14.154 149.234 2.47085
-23.2777 79.7187 -7.91687
2.20218 128.829 -2.64514
-16.9309 85.683 0.22549
-1.11982 124.124 -5.00749
10.5895 146.871 -2.75386
10.2905 141.147 2.70169
5.26667 131.243 2.00221
10.5998 147.024 -2.72179
3.28609 131.027 -2.16405
-20.217 80.951 -1.86603
-12.877 92.082 2.89365
-22.2254 85.6599 -11.3196
2.26436 129.162 -2.34864
1.284 128.145 -3.42891
-7.97124 99.4701 6.29042
-16.5139 86.8322 0.50511
-1.07131 124.659 -4.81786
6.48667 135.347 0.973417
-18.2064 95.526 -12.3375
-4.23808 108.498 5.49175
11.4158 142.05 5.12504
-16.9888 86.5145 0.260339
0.883604 120.332 4.74369
9.21701 141.222 1.3622
-13.6763 106.17 -12.9892
-20.7249 89.1347 -10.7042
-10.7 110.956 -11.2913
-8.10292 100.161 6.15571
7.16412 143.549 -5.60294
6.70831 142.504 -5.5121
-8.56962 114.281 -9.94478
-6.93081 103.495 5.30292
10.9127 142.403 4.21409
-20.3823 82.0777 -2.12666
-22.3329 79.5647 -3.85223
-16.8959 99.356 -12.6576
5.72602 134.544 1.00994
5.21334 138.739 -4.61218
10.1836 148.572 -3.83361
2.19476 130.067 -2.14555
-7.19959 115.988 -8.32624
13.0276 150.556 0.587747
-14.8426 104.339 -13.0716
-11.4289 94.1474 5.52547
4.0636 129.403 2.95781
-5.17067 107.464 5.48592
1.93449 123.977 4.04793
-9.97165 112.545 -10.6407
-6.43682 117.366 -7.76975
5.6764 134.987 0.880649
-23.5413 80.7803 -7.31895
1.24973 122.155 4.66217
-6.81304 104.42 5.41958
7.68265 139.758 0.4996
-19.0552 84.1765 -0.630197
-8.11256 101.411 5.80336
-2.70859 112.609 6.08363
-21.1516 89.3484 -10.7628
-2.51018 112.979 6.17864
3.54783 133.982 -2.50502
7.57718 139.686 0.539028
3.49234 133.871 -2.46367
-6.28976 117.981 -7.50789
4.61589 137.743 -3.85637
11.8861 145.297 4.53333
4.24384 136.7 -3.46717
-22.6634 80.7442 -4.54934
-21.481 82.327 -3.55636
12.6429 148.565 3.00059
-18.4646 85.8224 -0.358877
10.9612 149.898 -2.10658
-20.935 90.7471 -11.0718
-7.53018 103.829 5.43391
9.73951 143.161 2.54292
3.23269 133.934 -2.31548
-17.9035 98.5633 -12.3725
3.60343 129.737 3.00718
5.26709 140.48 -4.63705
5.17313 140.275 -4.60708
-8.40319 101.823 5.79463
-18.3489 97.7747 -12.288
9.692 143.445 2.44581
11.4842 145.719 4.09075
5.66378 136.111 1.18824
11.9125 150.508 -0.00740576
-23.5019 81.1311 -6.01153
6.38857 138.009 0.902964
-10.3219 113.748 -10.9024
-4.91236 120.761 -6.13207
-7.81549 117.102 -8.56965
-11.5302 111.875 -11.3915
-9.45536 99.5674 6.5516
-21.6676 83.0637 -3.45285
-1.65164 116.137 6.54146
-22.0955 88.8431 -10.5373
8.66235 148.767 -4.90183
-15.0905 91.7632 2.26478
-21.2177 91.6343 -11.3147
3.21946 135.239 -2.46933
4.34654 138.614 -3.50606
-1.86867 126.084 -4.18792
-19.2797 96.7898 -12.2193
-9.73358 115.375 -10.4494
-2.56975 114.487 6.73633
-11.3978 95.7353 6.81266
-9.45873 100.265 6.39075
-12.7753 94.8731 4.83205
-23.4141 86.223 -9.93639
1.49255 131.915 -2.12878
-23.894 84.9893 -9.40912
-18.2187 99.9319 -12.4774
-19.7424 96.439 -12.1807
6.19827 139.105 1.00612
-16.5756 104.01 -13.0429
-19.3569 97.389 -12.2082
-17.5949 89.1387 0.622703
11.8429 151.923 0.275631
10.1515 145.19 3.68296
-9.76024 100.699 6.34797
-12.0839 112.703 -11.611
-1.07953 119.625 6.12742
8.07856 143.842 1.0268
-6.89567 119.757 -6.96784
-21.177 93.959 -11.7342
-24.309 84.4663 -8.60287
-22.8057 89.5294 -10.5595
-9.3529 102.471 6.05736
-8.66012 118.277 -9.21172
-4.99465 111.754 6.04065
-6.06458 121.067 -6.20473
-11.203 97.6052 7.2332
7.92957 149.256 -4.5566
-15.5794 92.8267 2.74056
6.33051 146.469 -4.84453
4.39212 135.989 1.95726
-19.7386 87.1921 -0.470152
-7.80031 119.671 -8.10125
10.3103 147.462 3.20711
4.2402 141 -3.6211
10.7031 151.548 -0.255565
-24.2434 86.0412 -9.36221
-0.730069 130.232 -3.32536
-8.02746 119.54 -8.36604
1.32772 133.476 -2.07474
4.37517 136.206 2.0306
-2.95648 116.311 6.68501
-17.7159 103.352 -12.851
-20.6867 86.1968 -1.22433
-20.2737 86.6141 -0.689715
9.99347 151.153 -1.07263
0.366772 132.08 -2.47093
-6.40747 121.658 -6.54674
-20.8226 86.2848 -1.38306
11.4077 152.058 1.36654
10.905 152.193 0.178219
-22.185 85.528 -3.4591
-23.0988 85.1542 -5.08737
-7.88747 120.28 -8.15848
-1.97374 119.592 6.04707
-24.13 85.7626 -7.94959
-11.8533 97.4205 7.3737
-24.044 87.3752 -9.46425
-10.1365 101.983 6.44471
-2.02598 119.563 6.042
-17.7064 90.6403 1.44632
9.11178 147.294 1.66195
-22.1009 93.0441 -10.9725
-6.45268 110.445 5.95255
-5.15502 112.775 6.43122
-23.9871 87.7551 -9.45163
1.77518 135.402 -1.98765
-5.54396 123.205 -5.51267
11.2303 152.955 0.714531
3.43059 139.637 -2.69852
-22.3976 86.0328 -3.88774
-19.2104 88.8535 0.396379
-3.63272 115.799 6.88478
-10.408 101.638 6.67373
6.89371 143.828 0.848131
-23.6991 85.7931 -6.36939
4.05484 141.817 -3.36996
6.30342 142.567 0.917529
-22.9478 86.3538 -5.08028
9.55825 151.652 -1.22716
-9.86255 103.452 6.30367
2.31515 132.427 2.98368
-8.70135 120.248 -8.90374
-9.42899 104.703 6.11186
-0.373411 132.346 -2.82938
3.13912 134.847 2.53686
-23.7768 89.4429 -9.87978
-8.27652 107.391 6.06474
-16.2427 93.7346 2.76861
4.60576 138.825 1.81489
-1.16878 122.597 6.11677
-8.35735 107.53 6.07941
-5.18077 113.701 6.77808
-22.2399 94.0431 -10.8089
-1.08237 131.918 -3.34491
-7.11412 110.313 6.06876
-24.0394 87.7442 -8.0274
-20.4976 98.6721 -11.6731
-22.0407 87.2882 -2.9878
-15.8357 94.9285 2.95548
-7.06362 123.226 -7.3384
6.20678 143.624 0.976984
-23.1536 91.9349 -10.2597
-23.9769 87.3937 -7.19253
-22.3858 88.2851 -4.45338
5.21329 141.429 1.27241
6.64845 149.587 -4.16438
-20.7129 88.5227 -0.878327
-15.033 95.9272 4.19453
-5.25522 114.155 6.9532
-16.1953 94.8925 2.81178
-18.6296 104.044 -12.4479
-19.2559 90.7482 0.332648
-22.2857 88.7603 -4.31608
-23.5661 88.3361 -6.72118
-3.97421 127.367 -3.99894
9.99988 153.306 0.00279517
7.71699 147.748 0.909868
-15.3907 111.074 -12.0785
1.59554 132.633 3.36283
0.272933 135.115 -2.26835
-16.6234 108.449 -11.9605
-0.847828 125.156 5.94318
-21.939 88.7242 -2.86182
-2.82978 121.042 5.87671
-10.8411 118.836 -9.87399
-11.5036 101.233 7.44316
8.83811 149.71 1.83816
-23.4749 91.648 -9.17685
2.86986 141.201 -2.46649
10.402 153.91 1.02557
-19.0499 91.7545 0.756325
2.74784 141.039 -2.47023
-10.2941 105.043 6.48055
-6.08251 125.292 -5.59464
-20.6376 89.9323 -0.760557
-4.83407 115.912 7.30994
7.10131 151.484 -3.64439
-23.3979 92.7589 -9.92782
-23.6485 91.0296 -8.62657
2.25599 135.172 2.87489
-16.8526 108.586 -11.9682
-1.36175 124.51 6.11862
-22.4619 89.7168 -4.46725
-9.37777 121.109 -8.31232
-15.894 96.0709 3.7404
2.93524 136.934 2.72964
-2.59654 131.396 -3.83888
-0.376753 126.991 5.95297
3.86486 144.432 -3.04619
-7.77972 111.153 6.25989
8.1783 149.661 1.31324
0.988096 137.72 -2.19581
-20.8029 90.3506 -0.911069
-10.841 119.443 -9.39466
-10.1302 120.27 -8.66975
-11.508 102.344 7.46616
6.43911 150.965 -3.71155
9.09486 151.434 1.80989
-23.0167 94.5694 -10.0426
9.1847 151.79 1.80925
-21.2703 90.0807 -1.21235
-23.0544 93.3206 -8.61552
6.11747 146.111 1.22768
2.39158 136.914 2.84696
-22.9666 95.0655 -9.82459
0.0880751 130.126 4.90551
-10.3544 106.495 6.56547
-16.223 96.5271 3.95902
-4.34307 129.269 -4.09507
-3.86721 130.187 -3.95504
-23.2073 91.8396 -6.66954
-5.03117 117.393 7.23168
1.64871 135.556 3.0017
-12.6016 117.873 -10.3489
3.19569 144.229 -2.73436
1.80527 141.134 -2.48499
1.8311 141.203 -2.48383
-3.78335 121.343 6.11012
-2.11889 134.161 -3.65448
3.62507 145.831 -3.08511
-12.2187 118.828 -10.0082
-23.1076 90.96 -4.89265
-20.0387 92.9178 0.0426321
-18.5649 107.167 -11.8088
-23.2674 94.4852 -8.8617
-12.2926 102.351 7.64969
-8.32628 124.998 -7.48726
-6.15721 127.259 -4.93883
-21.5375 100.301 -10.9476
-19.9429 104.237 -11.541
-23.3944 91.2048 -5.42416
-11.8393 119.67 -9.60915
-22.5751 93.6744 -6.09294
1.78001 141.921 -2.47716
-9.95333 122 -7.75442
-4.76042 129.725 -4.24677
-23.1614 91.7514 -5.33878
-12.8189 118.277 -10.244
2.89658 139.921 2.25225
-3.50137 123.275 5.6008
7.65063 153.582 -1.38474
2.36412 138.512 2.76864
-1.1583 136.557 -3.0969
3.36283 141.361 2.00388
8.19199 152.923 0.826832
-18.5445 95.3158 1.9364
-22.9804 96.2076 -8.98684
-21.8323 100.264 -10.6772
2.5407 144.403 -2.50929
-22.6217 94.0125 -5.58899
-11.776 104.732 7.52661
-4.29127 131.597 -4.15513
-15.6741 114.219 -11.3527
2.85772 145.5 -2.80196
3.46674 147.021 -2.97571
-6.31946 128.405 -5.21179
5.4318 147.338 1.16685
7.92038 153.307 0.477188
-6.05202 128.899 -5.03188
3.64649 147.579 -3.0136
-7.57346 126.448 -5.76223
8.90403 154.848 1.34516
3.40114 142.752 1.91096
6.3271 149.983 0.874166
1.46347 142.874 -2.49664
-11.1301 121.487 -8.10966
-11.563 121.032 -8.51293
-0.308025 139.444 -2.70383
-9.56769 124.175 -7.29893
0.105218 134.108 4.09922
-19.17 107.666 -11.2597
-8.99088 112.412 6.70351
-22.6547 92.9493 -3.39586
-1.70369 128.56 6.00121
2.10754 140.05 2.38192
-6.28258 117.286 7.71338
-14.6393 116.699 -10.5414
-19.9648 105.612 -10.7162
-18.6893 109.089 -11.4058
-12.5183 104.284 7.72492
-20.7657 103.769 -10.337
-6.20881 117.734 7.68704
-7.90341 126.962 -5.97902
-4.55467 132.704 -4.37387
-14.6148 100.824 7.12119
-3.74132 125.438 5.51749
-22.284 100.874 -10.1953
-22.5241 95.5962 -5.05946
-20.7492 104.17 -10.1696
-18.3612 110.47 -11.4751
-11.603 107.143 7.39797
-10.2029 110.525 6.98723
-6.00978 130.844 -4.93943
-5.89252 131.1 -4.89674
-22.4728 100.848 -9.96322
-15.4267 116.297 -10.4717
1.79457 141.127 2.05954
-0.933034 140.179 -3.06783
-17.9574 111.904 -11.3967
-14.5521 101.514 7.40925
-14.4766 118.007 -9.99837
7.00574 154.538 -0.359134
-21.7402 94.2273 -1.00472
-15.9908 99.9256 5.93389
-3.76409 135.1 -3.9293
-22.7809 99.5765 -8.85696
-22.3216 101.74 -9.9355
-2.04007 129.757 6.07816
-8.04411 128.411 -6.0582
-0.776375 141.06 -3.10383
-2.68609 137.352 -3.43021
-6.93978 130.504 -5.59837
1.35622 140.595 2.39706
-20.5651 95.4423 1.09294
-14.1126 103.009 7.70598
-13.0875 105.077 7.86709
-13.4903 120.523 -9.41769
-1.34832 140.54 -3.28037
-3.08777 137.292 -3.54612
-11.7323 122.821 -7.64051
-3.25654 137.034 -3.62302
-16.6175 100.133 5.58409
-5.16548 134.106 -4.72813
-6.04236 132.674 -5.0882
-14.608 102.665 7.60718
-12.7388 106.388 7.86662
-13.0249 105.811 7.8893
-13.3763 105.045 7.91456
-22.0227 95.1518 -1.01356
-5.52964 133.868 -4.993
-15.7882 101.347 6.53689
-2.50279 138.906 -3.48767
-3.66657 137.023 -4.04247
-9.96784 113.355 7.05355
-19.6954 108.858 -10.0795
-1.10436 134.606 4.4979
-19.0193 111.297 -11.082
-0.831926 135.434 4.35643
0.195061 144.266 -2.73656
-14.8829 118.944 -9.78569
-16.3061 101.072 6.10102
-12.8005 106.966 7.92433
-6.68397 132.501 -5.46334
-12.6824 122.37 -8.19973
-8.10814 130.494 -6.50337
-3.2061 129.228 5.96284
-5.49227 134.864 -5.16225
-8.94055 128.829 -6.48381
1.52741 143.307 1.96741
-19.9092 97.736 2.21135
-17.0294 115.872 -10.541
-22.3195 97.3607 -2.70693
-6.31146 133.903 -5.4859
1.25894 142.926 2.06448
-5.03377 126.438 5.4881
-4.22691 137.883 -4.88604
-7.73054 118.393 8.03219
-3.036 131 5.21558
-5.43159 136.113 -5.4431
2.10568 145.342 1.79988
-22.8343 102.428 -8.63083
-18.4858 99.6586 4.17395
-0.303291 139.138 3.22844
-20.7649 97.6474 1.27692
-19.9004 110.337 -10.2815
1.77282 149.176 -2.638
-20.4689 98.1286 1.54851
1.32033 148.307 -2.68836
-22.8569 101.485 -7.32557
-7.72995 132.503 -6.21031
-11.1304 112.305 7.65133
-13.7863 106.391 8.07918
-22.2621 97.5375 -1.62481
-22.8137 100.641 -6.17399
-8.34621 131.876 -6.78041
-6.77344 134.504 -5.99817
-6.81197 121.444 7.91312
-9.65591 115.675 7.65249
-1.59976 143.151 -3.41862
-14.0054 106.125 8.10209
-14.0766 122.168 -9.07131
-9.98133 128.859 -6.9306
-14.0919 122.161 -9.07386
-1.1724 144.177 -3.2421
0.0859126 141.466 2.59349
-7.74913 133.266 -6.34334
-22.7633 101.38 -6.18887
-8.29739 118.731 8.01799
-22.926 101.862 -7.05387
-5.38512 127.283 5.50036
-22.9405 101.99 -7.20225
-9.14675 131.403 -7.38446
-22.1184 105.273 -8.77657
-16.4102 102.915 6.64943
2.06106 150.862 -2.70413
-7.22706 121.145 8.01801
-7.03039 121.663 7.96375
-17.0917 102.283 5.9805
-4.25719 130.144 5.3647
-14.6173 121.782 -9.05982
-3.18265 133.19 4.64147
-3.52546 132.559 4.54808
-22.7182 101.522 -5.7109
-20.125 111.231 -10.17
-20.8024 109.284 -9.46853
-5.61095 127.434 5.56132
0.267872 143.241 2.00403
3.14182 153.493 -2.41698
-6.58443 136.486 -6.22986
-16.7011 103.127 6.52733
-11.9799 126.868 -8.04576
-20.7928 109.565 -9.49868
-4.01529 132.3 4.21843
-7.30864 135.85 -6.97347
-5.1255 139.046 -5.41337
-22.5731 99.6716 -2.8323
-4.6149 130.1 5.34035
-11.7737 112.693 7.82828
-5.07201 128.862 5.83163
-22.7866 103.044 -6.65167
-22.0822 99.9247 -1.68723
-22.7884 103.346 -6.79043
-18.3065 102.121 4.65203
-14.0143 123.361 -8.29363
-12.5715 111.261 7.90488
-17.7861 102.784 5.17156
-17.8071 102.779 5.14957
-12.8165 110.887 7.94056
-21.7146 104.953 -5.84099
-5.56245 139.024 -5.6586
-22.5176 104.154 -6.71447
-13.7569 108.734 8.26336
-6.61699 137.541 -6.30197
-9.78338 132.46 -7.9924
-2.14081 144.518 -3.51909
-17.3061 118.024 -9.45502
-19.6814 113.745 -10.1303
-15.7915 105.48 7.48221
-4.03269 133.994 3.69342
-6.39611 126.562 6.30604
-19.9264 101.482 2.67756
-15.2925 106.473 7.9108
1.01101 151.138 -2.78485
-4.24801 141.817 -4.70806
-12.558 127.9 -8.59708
-9.70342 118.396 8.02822
-3.75756 142.597 -4.33669
-1.94091 139.349 3.25754
-22.32 102.728 -3.73662
-19.3315 102.296 3.4954
-20.4128 101.954 1.46083
-9.92066 118.133 8.05956
-21.8552 104.668 -4.51468
-19.2087 102.829 3.55601
-18.8539 103.27 3.95257
-6.1317 128.593 5.78394
-6.53056 139.035 -6.2364
-9.62863 119.174 8.01016
-21.6809 105.872 -4.9201
-6.80384 126.396 6.83454
-11.9165 130.303 -8.8144
-14.2549 109.546 8.22586
-2.16632 140.144 2.94846
-1.57131 143.194 1.17453
-18.4458 104.546 4.26631
-9.21772 120.647 7.96835
-9.32944 135.357 -7.93444
-15.0378 108.053 8.32656
-12.8176 113.04 8.1007
-10.1366 134.116 -8.17974
-14.7994 124.249 -8.13326
-9.50445 135.513 -7.98655
-21.1887 107.132 -4.05297
-6.32709 130.357 4.83637
-20.9806 103.515 0.484415
-16.8605 106.316 7.07402
-2.43034 141.175 2.56716
-20.919 103.702 0.748877
-16.7219 121.153 -8.36207
-20.936 107.027 -2.70773
-2.69158 142.524 0.716609
-21.9319 110.239 -8.17616
-4.05626 137.417 3.25424
-18.7891 105.328 4.1891
-20.9933 106.855 -2.39286
-2.56495 141.397 2.46641
-20.2319 115.123 -9.39611
-1.00114 149.855 -2.95424
-19.175 117.594 -9.59798
-21.7445 105.199 -2.15216
-8.33791 123.837 8.30459
-10.4037 119.581 8.20638
-21.038 113.06 -8.88021
-14.0783 126.349 -7.2738
-15.1786 109.342 8.42817
-20.247 115.282 -9.36047
-14.2974 111.476 8.18662
-18.3823 118.954 -8.99263
-18.8686 105.582 4.1866
-15.3546 109.024 8.47734
-11.053 134.17 -8.6184
-8.41092 124.285 8.004
-20.8179 107.208 -1.7531
-12.1058 132.317 -8.82232
-5.09776 136.679 2.41437
-0.0880495 152.128 -2.70769
-15.8681 123.977 -8.35512
-19.9678 108.585 -1.09986
-1.97322 148.796 -3.14558
-17.6247 106.888 6.20723
-19.1479 105.794 3.94802
-17.6637 106.98 6.18883
-5.31808 136.889 2.22667
-20.4341 107.703 -0.801465
-9.69252 122.01 8.28322
-20.7631 107.028 -0.712532
-18.7763 106.451 4.56794
-3.309 141.422 2.26405
-11.3402 118.933 8.37599
-18.1227 107.183 5.60701
-3.55391 141.817 1.65893
-20.609 115.601 -8.93177
-9.11379 138.73 -7.58038
-18.3115 107.153 5.32784
-7.63759 141.09 -6.71339
-19.5543 109.753 -0.178228
-22.1323 111.359 -7.63036
-8.05204 127.49 7.01496
-10.4161 136.494 -7.87474
-13.5753 130.593 -8.56746
-20.1351 106.864 2.00703
-22.6072 110.165 -6.99997
-8.48 140.273 -7.06906
-15.78 110.271 8.47385
-22.1764 111.733 -7.50891
-22.411 108.462 -4.53859
-11.2393 135.411 -7.86426
-9.35722 125.024 7.59963
-18.211 107.971 5.78036
-11.0173 135.974 -7.80019
-20.0389 117.982 -8.91707
-4.81068 139.557 2.51149
-4.49478 146.836 -4.18291
-4.74111 140.914 1.6119
-6.82462 136.303 2.04003
-7.97168 131.488 4.61074
-8.36849 141.341 -6.75339
-20.9798 109.658 -1.46795
-5.115 146.297 -4.64175
-18.8341 110.328 2.78251
-5.03093 141.538 0.734667
-5.02536 142.283 -0.0235645
-19.2731 108.474 3.89979
-13.5854 116.29 8.46538
-18.1098 109.016 6.15993
-9.28235 126.77 7.24253
-9.33891 140.085 -7.08187
-13.6779 116.304 8.52287
-16.4841 110.573 8.45713
-10.119 124.323 8.24136
-4.30126 147.987 -3.82392
-18.7552 110.475 3.61139
-21.3169 115.942 -8.00825
-18.7699 110.619 3.47007
-16.1155 125.986 -6.81805
-15.1734 128.193 -7.0413
-8.09479 133.867 3.294
-15.7538 127.502 -7.21459
-16.0394 126.416 -6.66046
-15.1557 128.537 -6.82021
-8.96049 128.732 7.08466
-21.5647 115.943 -7.70726
-18.7297 110.592 4.45668
-19.9169 111.476 0.864271
-11.4569 122.217 8.63749
-15.6871 113.244 8.70829
-13.9801 131.425 -6.81807
-22.8492 110.194 -4.19285
-19.2791 121.05 -7.67393
-7.16549 138.291 1.36301
-3.50013 150.292 -3.12224
-9.81616 140.466 -6.87916
-17.1152 125.089 -6.86968
-10.4287 125.972 7.38633
-22.0007 115.209 -7.28499
-3.30322 150.849 -2.9901
-3.11454 151.219 -2.89521
-19.9343 111.976 0.94352
-20.0137 119.226 -6.84363
-18.8382 112.584 2.91966
-20.861 111.033 0.0778283
-9.80309 140.895 -6.77147
-13.5739 118.304 8.81498
-22.3415 114.457 -6.84743
-7.88382 144.594 -6.15006
-14.1176 131.539 -6.24004
-10.8401 125.846 7.34972
-11.9753 122.153 8.73047
-16.378 127.097 -6.45205
-22.9049 110.388 -3.37136
-19.5705 119.746 -5.78369
-18.7644 111.952 4.40334
-14.3388 130.936 -5.61044
-20.9305 111.592 0.177396
-9.13925 133.448 3.53207
-22.3641 110.775 -2.09433
-18.7215 113.071 3.71832
-10.158 141.018 -6.55725
-13.6076 132.793 -5.58109
-11.2944 124.627 8.37656
-18.1587 123.494 -5.58332
-13.7404 132.634 -5.33797
-19.2162 122.445 -6.74016
-8.98071 143.747 -6.26951
-17.6042 125.019 -5.69478
-17.8522 114.366 5.16413
-18.8052 122.35 -5.4051
-22.9783 113.486 -5.32737
-19.523 121.776 -6.33948
-17.5487 125.838 -6.20893
-17.9315 124.529 -5.64227
-13.6167 119.77 9.20001
-6.17116 148.559 -4.66248
-19.8802 119.536 -4.69506
-17.7074 113.603 6.57104
-5.79181 149.062 -4.30666
-13.7501 133.057 -5.05824
-18.7035 123.395 -5.81001
-18.5396 124.115 -6.15412
-11.8096 138.273 -6.03974
-18.3693 124.1 -5.71244
-15.0692 131.02 -5.58269
-7.26914 142.622 -0.105162
-12.5624 136.902 -5.94523
-2.67108 154.178 -1.97135
-23.0398 111.702 -2.63926
-8.37929 145.846 -5.84115
-19.5086 121.352 -4.73185
-13.3858 134.894 -5.25898
-12.2271 124.641 8.31982
-19.5239 122.834 -6.23217
-17.5487 114.492 7.19261
-21.6789 117.59 -5.4077
-8.91298 145.166 -5.92042
-5.05032 151.01 -3.23608
-14.374 119.578 9.51259
-21.9481 116.433 -4.03081
-11.5202 140.336 -5.89612
-22.1636 112.913 -0.495799
-21.133 113.966 0.752942
-12.9408 123.71 8.92767
-11.8977 127.756 6.98489
-15.0729 132.016 -4.73608
-10.9717 130.873 5.81229
-19.4646 123.682 -5.70145
-15.6336 118.25 8.816
-4.20247 153.08 -2.41282
-8.07197 140.22 2.55849
-8.78148 138.954 2.35357
-16.0498 131.06 -5.54633
-21.4694 118.679 -4.56426
-16.3227 130.656 -5.66893
-23.093 113.468 -2.58921
-10.7294 142.586 -5.49005
-16.4407 130.51 -5.51194
-11.9483 140.165 -5.53805
-22.4816 113.279 -0.570987
-22.102 117.342 -4.04456
-16.0443 118.38 8.58748
-14.086 134.686 -4.3685
-21.6452 117.353 -2.94243
-8.28616 147.776 -5.15623
-18.248 126.914 -5.3663
-22.0561 116.404 -2.62337
-20.7838 121.765 -5.43789
-21.0888 119.231 -3.38141
-19.9466 121.664 -3.3278
-11.1273 133.798 3.71725
-18.8539 115.809 5.61293
-4.4217 153.708 -2.17459
-21.5775 117.634 -2.3998
-20.8871 121.062 -4.4403
-10.8353 143.284 -5.41901
-14.2458 122.983 8.67574
-19.5391 124.862 -5.19523
-21.3387 114.797 1.47579
-8.2903 141.902 2.17974
-7.56838 143.7 2.18128
-11.6613 132.91 4.44025
-13.5627 125.815 7.72431
-22.9797 113.825 -0.7478
-13.0157 127.483 7.37945
-20.1271 115.974 3.63761
-22.7879 114.259 -0.41303
-10.8373 144.31 -5.38187
-18.7036 126.564 -3.97672
-7.44776 145.233 1.56445
-15.0919 123.232 7.78808
-20.2189 123.06 -3.42538
-4.43611 154.664 -1.36445
-20.4208 123.828 -4.56962
-15.6397 121.897 8.34532
-8.40701 149.368 -4.50743
-10.1874 146.418 -5.37695
-16.9381 119.634 7.95622
-18.4465 117.284 7.08816
-15.6823 123.472 6.82107
-14.7016 125.723 6.65148
-19.3981 116.645 5.80642
-15.3995 125.144 5.92827
-20.5511 123.67 -4.14033
-21.5539 119.478 -1.92578
-18.3253 127.728 -3.41585
-15.0008 124.676 7.38413
-18.3547 127.823 -3.48623
-19.0586 127.399 -4.35324
-7.77273 146.05 1.28282
-20.4043 124.783 -4.56576
-22.8353 115.165 0.248326
-14.1279 137.948 -4.367
-21.4491 116.09 2.39813
-13.7534 128.478 6.58404
-15.0218 126.456 5.89215
-22.8153 116.628 -1.21742
-22.2327 118.21 -1.52904
-17.8611 130.052 -4.23595
-15.1455 135.253 -3.52832
-16.2546 122.264 7.94736
-16.1483 123.752 6.63382
-13.238 140.164 -4.27314
-20.0406 124.87 -3.29671
-8.8728 142.735 2.9537
-17.9051 119.287 7.57522
-20.9434 122.519 -2.68953
-22.039 119.202 -1.62017
-5.99687 153.398 -1.63429
-9.23983 142.468 2.77931
-15.3055 135.435 -3.39644
-22.5416 116.095 1.17912
-21.4798 122.262 -2.9814
-18.2409 129.028 -2.87547
-18.8418 127.511 -2.59115
-20.9806 123.009 -2.42202
-17.5833 131.181 -3.4339
-22.2474 116.979 1.21682
-18.747 128.318 -2.92696
-22.067 117.958 0.785423
-11.866 144.391 -4.32631
-10.0721 142.12 2.17923
-8.21343 146.659 1.60257
-20.2839 126.34 -4.00478
-16.6966 124.833 5.71523
-22.5172 117.013 0.906859
-9.50901 143.948 1.62188
-17.4828 130.61 -2.12584
-14.0708 130.315 5.97327
-15.9833 134.801 -3.07586
-13.0445 141.895 -3.99025
-21.2067 122.988 -2.26782
-10.4221 141.931 1.96618
-16.2383 134.188 -2.90202
-21.9257 120.749 -1.38051
-21.98 118.05 1.39541
-21.0631 123.154 -1.93975
-18.9689 130.035 -4.41689
-18.0846 130.103 -2.47544
-16.4894 126.471 5.17852
-11.4355 146.038 -4.23555
-11.1684 140.516 2.26901
-23.2288 117.711 -0.66551
-9.01317 145.571 1.77906
-7.66623 152.236 -2.19086
-22.4425 120.129 -1.31015
-18.1025 131.477 -3.5943
-11.6845 138.562 3.37531
-21.3524 124.222 -3.16247
-16.4381 134.238 -2.67972
-15.4487 135.878 -2.11308
-20.8459 125.326 -2.9923
-17.2489 124.484 6.0713
-21.3401 124.315 -2.96449
-15.0077 137.35 -2.54542
-18.234 130.581 -2.57722
-22.0227 117.571 2.76842
-14.22 140.247 -3.72659
-12.697 143.663 -3.8911
-19.5955 128.484 -3.23863
-23.1105 118.311 -0.327387
-19.3605 130.163 -4.45596
-19.2595 129.184 -3.1367
-12.6985 143.722 -3.79414
-21.2681 124.444 -2.52844
-16.5375 134.271 -2.26739
-20.1444 119.739 5.10134
-15.143 137.655 -2.64156
-17.4627 124.782 5.86096
-7.56686 152.834 -1.46084
-21.1566 118.881 4.06083
-11.842 138.907 3.81065
-9.89437 144.663 2.07953
-16.6857 134.511 -2.43873
-11.4028 140.722 2.88517
-16.5639 134.319 -1.84196
-20.8188 119.727 4.19124
-14.8338 139.653 -3.49736
-16.0376 136.71 -3.04779
-18.3928 130.956 -2.22115
-21.9748 122.647 -1.44642
-11.9726 138.643 4.16244
-21.5315 123.349 -1.09826
-13.8826 141.599 -3.25567
-16.6539 134.643 -2.09504
-21.7631 118.795 3.26604
-8.93289 147.076 2.13718
-15.3524 138.473 -3.17631
-18.131 131.671 -2.19578
-16.8868 127.378 5.22669
-23.2908 119.221 -0.547581
-20.3892 127.563 -2.87773
-11.1826 147.979 -3.81799
-11.7282 146.66 -3.60018
-16.8124 134.099 -1.69008
-21.2079 126.188 -3.15842
-12.9199 143.673 -3.01048
-11.1403 141.787 3.03909
-11.3511 147.696 -3.70446
-11.4089 141.124 3.19654
-22.0027 121.989 -0.34346
-19.9692 128.715 -2.834
-14.3492 141.019 -3.24815
-11.3896 141.264 3.23113
-11.2362 148.104 -3.69271
-12.1118 138.782 4.28966
-16.8771 134.499 -1.80118
-21.9425 122.617 -0.532633
-22.8862 120.393 -0.243854
-21.4623 120.113 3.30638
-17.4521 133.167 -1.51327
-22.0511 123.056 -1.01963
-20.1718 130.178 -4.33453
-18.369 132.666 -2.82526
-19.4368 131.153 -3.61908
-17.4573 133.489 -1.37932
-15.7692 137.284 -1.38027
-10.9526 149.421 -3.41416
-8.59314 149.584 1.76407
-22.8292 122.754 -1.7602
-22.4041 122.254 -0.232167
-13.976 134.676 5.63637
-15.6118 130.881 6.03972
-18.5538 133.64 -3.47475
-14.2978 134.43 5.58902
-12.5719 145.779 -2.53297
-7.83295 153.028 0.503717
-12.1672 140.265 4.348
-19.8619 122.439 5.97486
-13.563 137.031 4.70337
-22.7894 120.641 1.33329
-11.6603 148.321 -3.02149
-21.94 123.318 0.413654
-21.9556 124.42 -0.791454
-8.3015 152.19 0.558173
-13.3638 143.934 -1.9823
-14.3593 142.039 -2.15845
-12.6153 145.976 -2.37741
-15.1414 133.23 5.55837
-21.3516 128.213 -3.07399
-21.6776 127.619 -3.16726
-16.0599 137.531 -1.02853
-19.1794 133.024 -3.21054
-11.2746 143.408 3.61602
-23.1857 122.091 -0.477644
-13.9892 136.304 5.15383
-22.7824 122.6 -0.0797061
-23.623 121.228 -0.489839
-21.4003 128.51 -3.14494
-22.886 120.86 1.89259
-22.8813 122.772 -0.135217
-22.1471 125.135 -0.905451
-15.4931 133.024 5.82016
-21.3638 129.472 -3.57572
-12.649 140.303 4.61633
-23.3713 122.791 -0.938836
-13.55 144.294 -1.59964
-22.7367 123.197 0.185705
-23.6743 121.395 0.0597302
-11.711 149.229 -2.57596
-21.0896 122.831 4.42862
-23.3179 121.536 0.863599
-14.2067 136.102 6.05265
-17.1937 136.729 -1.17874
-20.4202 124.349 4.80022
-22.2834 122.938 2.12222
-10.1566 147.826 3.02077
-12.9012 146.19 -1.40735
-18.6133 127.984 5.28451
-14.1286 143.709 -1.17263
-12.6195 147.092 -1.3318
-20.4529 124.81 4.73244
-14.1289 143.701 -1.06219
-25.1805 120.302 -0.985425
-14.1848 143.516 -0.695988
-12.6953 141.734 4.58104
-24.1739 122.079 -0.390802
-22.9606 126.413 -2.23677
-16.6754 138.812 -1.06119
-15.6482 140.379 -0.123649
-14.7295 142.082 0.251767
-10.1542 152.503 -0.50627
-14.3301 143.001 0.427479
-10.1406 150.328 2.42914
-12.9868 146.706 0.0781668
-22.9867 128.745 -3.31307
-10.8388 151.991 -0.309057
-10.465 151.264 1.51734
-24.8794 124.497 -2.49062
-13.2745 146.104 0.708298
-14.4046 139.171 5.71386
-20.8468 132.795 -1.53459
-20.2658 126.801 6.31602
-10.7505 150.661 2.44993
-20.9458 133.042 -1.57115
-24.6894 125.746 -2.19744
-17.0285 133.669 6.71626
-15.3615 143.121 0.507066
-16.3381 135.182 6.80497
-25.658 122.683 -0.714898
-12.6716 149.063 0.562075
-12.7457 144.875 4.89605
-23.7768 129.271 -3.09242
-20.5433 127.274 6.38718
-24.6581 123.283 1.46359
-25.0133 122.397 1.68494
-21.3744 126.222 5.84997
-14.3463 141.157 5.87379
-18.3044 138.917 -0.670923
-24.152 127.469 -1.59625
-20.4406 128.25 5.99123
-11.7527 150.667 1.73825
-17.5559 140.183 -0.157517
-14.9151 139.547 6.5162
-13.3681 147.927 1.08143
-25.2885 121.422 2.52282
-23.7876 129.899 -3.12242
-13.1326 144.368 5.66361
-14.8384 140.013 6.47179
-25.6078 125.068 -1.79602
-14.7019 140.572 6.34666
-22.2882 125.474 5.35218
-19.3856 131.23 5.80983
-13.9573 146.892 1.53232
-12.8833 149.576 1.23721
-15.212 139.398 7.01261
-24.8584 123.007 3.32691
-27.7174 121.257 -1.26199
-15.7836 144.304 1.15023
-26.3367 122.013 1.23327
-16.7311 143.112 0.588794
-21.7198 127.083 6.47781
-26.3525 121.405 2.09812
-22.13 133.039 -0.566399
-25.6955 126.246 -1.11689
-27.9023 121.394 -0.929266
-18.4513 140.495 0.0917689
-19.1895 133.136 6.40131
-15.8803 144.836 1.59884
-20.3697 137.221 -0.289455
-26.81 124.186 -0.784228
-20.9953 129.869 6.40264
-16.3454 139.237 7.05519
-15.8017 140.264 7.1883
-24.4357 130.478 -1.83481
-19.0641 139.964 0.327525
-15.2044 146.563 2.74083
-28.5486 121.87 -0.230654
-27.2898 121.857 2.777
-20.4951 138.611 0.835031
-19.4077 141.095 0.763515
-20.6287 133.837 5.75352
-20.0606 139.704 0.797245
-28.0058 123.726 -0.120986
-26.2239 129.04 -1.70972
-20.3453 139.109 0.848848
-28.2875 123.065 0.155333
-26.7159 122.809 4.16274
-15.1748 144.915 6.72861
-23.6497 127.135 6.83152
-21.5493 137.366 0.685479
-26.6631 128.983 -1.57197
-23.285 134.746 -0.0679456
-16.2275 142.587 7.53433
-20.5461 134.852 6.05232
-14.8963 148.518 4.37969
-24.9555 131.369 -0.0518157
-26.199 129.698 -1.04556
-22.7668 129.538 6.90941
-25.2656 125.306 5.77886
-29.1566 122.233 0.469319
-21.9647 132.468 6.11927
-28.8884 122.899 0.759983
-15.9722 144.6 6.85977
-25.8672 124.974 5.45206
-28.9979 122.077 1.99299
-26.811 124.007 4.92684
-21.0126 139.79 1.29919
-29.1127 122.554 1.38748
-18.6338 144.304 1.88054
-20.3982 136.013 6.74765
-23.5927 135.091 0.790606
-25.0309 126.539 6.71919
-16.0534 146.85 5.43549
-16.9162 143.636 7.11199
-26.3794 125.064 5.57318
-23.592 134.903 1.44451
-16.5736 147.52 4.05406
-26.9291 129.952 -0.572536
-20.3073 142.177 1.6226
-18.4846 140.926 7.23299
-23.6583 134.902 2.02519
-18.7358 144.856 2.56163
-26.4237 125.477 5.90707
-28.5578 126.384 0.347022
-19.662 143.613 2.21813
-21.7629 139.619 1.89601
-23.4682 132.49 5.6595
-23.1055 137.342 1.38867
-26.8367 125.26 5.84137
-28.0941 123.859 4.99344
-17.8164 144.168 6.73716
-25.9789 126.734 6.89201
-17.9606 143.861 6.82189
-28.6773 128.341 -0.641712
-20.2153 143.394 2.5628
-26.3556 126.566 6.74278
-24.6245 130.437 6.61331
-23.0946 138.125 2.05857
-18.5214 145.777 4.3155
-29.1007 127.356 0.0580657
-20.1152 140.077 6.9509
-26.9638 126.044 6.48688
-18.1771 146.077 5.06382
-19.3228 144.975 3.66686
-26.8286 131.535 1.16423
-24.0708 135.934 2.75424
-25.6903 133.261 2.0623
-19.0188 145.392 4.29463
-24.6361 132.533 5.33579
-27.9987 130.33 0.231026
-23.8369 134.245 5.56869
-30.6743 123.827 1.25745
-28.2835 130.055 0.155172
-30.2916 123.188 3.23131
-19.1959 144.615 5.47053
-25.1519 134.759 2.58609
-29.9039 126.305 1.01956
-19.6369 142.816 6.65406
-19.5685 143.196 6.56028
-20.3335 144.048 4.081
-25.1344 135.162 2.72103
-22.914 140.019 2.87917
-22.2976 137.897 7.12612
-30.0617 127.887 0.446509
-21.0383 143.002 4.86724
-28.6892 130.744 1.03363
-20.7184 143.246 5.86315
-26.3148 134.509 2.77703
-24.2597 138.748 3.03616
-24.9138 135.56 5.62584
-24.1784 139.331 3.2993
-21.574 142.349 6.00309
-25.9982 134.355 4.64521
-32.4447 123.616 1.706
-24.7989 137.886 3.79492
-23.4444 138.159 6.72858
-24.1996 139.842 3.61103
-31.4048 124.055 4.26406
-28.5023 127.933 6.70493
-23.114 140.395 5.75941
-23.2806 141.078 4.71178
-31.1402 124.538 4.5878
-27.3532 131.062 6.20102
-25.7489 136.595 3.98845
-23.018 141.196 5.30515
-31.2331 127.631 1.28867
-23.3543 140.121 5.80628
-28.7339 128.157 6.70435
-27.9137 133.707 2.66874
-26.071 136.454 3.99928
-31.9639 125.701 2.37271
-31.4536 125.22 4.59418
-24.7656 139.236 4.77065
-30.6248 129.819 1.64703
-28.6955 133.365 2.7955
-26.4373 136.726 4.56087
-28.7051 133.792 2.83094
-28.4051 131.454 6.05192
-28.4386 131.884 5.77005
-29.3002 129.271 6.67142
-28.6867 134.176 2.85096
-26.2406 136.95 5.54099
-28.2323 133.069 5.29159
-33.627 123.656 3.14494
-31.7688 129.151 1.49334
-30.4178 131.098 2.65159
-32.8046 126.374 2.41928
-31.8216 129.302 1.61737
-27.9796 134.488 4.82381
-30.916 130.543 2.43112
-30.4451 131.282 2.75945
-31.5269 129.953 2.04477
-33.3471 125.719 2.54094
-27.3599 136.525 4.81628
-29.4175 131.539 6.07562
-32.2691 129.875 2.27478
-29.8469 132.286 5.19668
-34.3676 125.117 2.7667
-31.2184 129.796 5.28354
-34.6635 124.648 3.02673
-35.0551 123.627 3.54651
-32.0492 130.758 2.84573
-33.4338 126.457 4.39629
-31.5182 129.411 5.57988
-32.6311 126.765 6.11305
-31.7524 129.056 5.86794
-31.8012 128.626 6.21701
-33.4854 128.591 2.47357
-32.8234 130.051 3.19325
-32.4848 130.091 3.9565
-33.3539 129.09 3.30953
-34.3439 125.724 4.79722
-33.0652 129.644 4.15064
-32.8921 128.882 5.49876
-35.5977 124.585 4.7148
-35.4719 124.902 4.85549
-36.4327 125.162 4.4103
-35.7868 127.01 4.91798
