ply
format ascii 1.0
comment Created by Open3D
element vertex 1934
property double x
property double y
property double z
end_header
27.38 127.374 -0.883229
20.5501 119.585 0.958096
9.31774 103.369 10.0425
2.46919 95.5682 11.9275
22.5358 121.161 1.76434
-9.39503 87.9351 4.76123
-2.90266 92.3815 8.3457
16.7911 117.923 -2.32655
19.2105 123.818 -8.50757
-14.9927 86.5366 -2.36965
11.9101 108.149 6.56695
24.0065 122.929 1.58969
21.7614 123.739 -3.76033
19.1949 123.878 -8.50895
1.91873 95.248 11.9865
-10.6245 87.2792 4.09486
24.6703 118.343 11.0067
23.1839 119.603 6.17404
-2.5503 100.996 -6.00691
22.5798 122.976 -0.741537
25.2356 131.473 -11.1652
-5.03747 91.3339 6.98485
18.1075 118.698 -0.919588
27.1282 129.434 -4.10268
-17.5279 84.169 -2.14934
13.9469 115.493 -2.41853
-17.4582 84.0502 -1.77983
-2.74481 92.791 8.58043
-17.4715 84.0488 -1.73934
26.4204 125.609 1.63586
20.1159 111.253 16.1088
20.6691 111.697 16.32
-16.5285 85.1202 -1.88142
-0.250654 93.6874 11.5447
10.2674 110.464 0.419746
-6.3392 97.7953 -6.2536
16.4116 118.594 -3.18642
16.4263 118.603 -3.16751
27.1736 132.942 -9.71145
4.45671 98.2869 11.943
23.5547 122.57 2.4134
3.37992 97.2071 12.0465
22.7552 122.17 1.81034
27.023 128.691 -2.24138
-15.041 87.0945 -2.14214
13.1831 113.852 -0.0409817
21.2942 113.244 15.3975
-6.51501 90.7309 6.52425
26.9534 129.338 -3.1822
27.0521 128.523 -1.55077
-10.4801 94.1922 -6.4473
-4.70158 92.0347 7.60999
13.7597 115.96 -2.34313
26.4626 125.853 2.42611
24.7394 123.511 3.56104
21.1073 113.15 15.5859
-12.8255 91.6146 -5.78325
-8.57609 96.2633 -6.53338
22.4884 122.432 1.62961
-11.7215 93.2637 -6.70918
6.91587 109.015 -1.86996
13.1122 115.053 -1.64064
23.089 120.221 6.82379
20.7793 112.836 15.9679
17.358 115.352 5.48588
27.1127 131.752 -6.49096
-4.01338 92.6361 8.2634
23.1905 122.827 2.59201
14.2946 112.617 5.11598
10.7588 107.032 8.82901
19.7509 120.815 0.18385
27.7217 133.055 -7.48801
11.4128 108.394 7.65862
-1.91579 93.9163 9.98655
20.8008 113.117 15.8533
18.4996 114.127 10.0363
18.555 114.542 9.41033
23.3203 123.968 1.06928
17.8206 119.822 -1.22144
18.6391 111.395 15.2095
21.5721 123.607 -1.27899
1.42817 105.588 -4.65399
23.8195 122.053 5.48571
24.4908 123.782 3.60439
20.7438 113.169 15.8832
27.3063 132.575 -6.89348
26.7715 126.463 3.02837
-9.82122 95.7952 -6.76516
-0.591971 94.6133 11.6106
-11.9782 93.6168 -6.64273
23.2665 123.815 1.75876
26.7812 126.993 2.30768
5.98696 101.546 11.0529
-15.1236 85.736 2.1039
27.2506 132.701 -6.78702
8.27329 104.565 9.85735
20.4851 113.27 15.8768
11.6287 112.981 0.848556
-3.01927 102.438 -6.15831
-16.025 87.0549 -1.68437
22.3745 116.003 14.4357
21.5339 122.872 0.860431
7.1905 109.674 -0.898486
21.7122 123.614 0.0051526
1.19213 106.054 -4.73579
19.5147 112.736 15.6402
26.8978 131.415 -4.52948
-2.26664 94.4404 9.87544
-0.688649 95.0039 11.729
-9.29101 90.1848 5.21365
18.5107 115.695 8.80636
-2.33928 103.373 -5.93582
18.2991 112.699 13.8161
26.866 129.037 -0.117909
20.76 122.603 0.586294
-1.39375 94.9397 10.8376
-14.8487 86.4989 2.17703
22.7665 124.454 0.9717
-13.7954 87.398 2.51139
26.7304 129.422 -0.863279
19.3963 112.942 15.5463
18.7511 121.242 -0.289285
-12.4864 93.6985 -6.28432
23.0397 120.944 7.89503
26.6513 134.18 -9.26902
8.41761 110.992 -0.119331
23.2491 118.25 13.1286
-4.87703 101.38 -6.34133
24.2338 124.559 3.68906
-10.2947 96.3425 -6.88967
-17.3244 85.0921 0.7721
5.87156 110.023 -2.64748
-15.1923 89.3001 -2.85133
23.532 118.889 12.6963
-15.0886 90.1161 -4.08577
-13.1875 92.9066 -5.69868
19.6887 128.146 -10.4736
19.1398 127.485 -10.2156
18.4774 115.527 9.90406
-12.9003 93.3983 -5.96381
13.4104 117.447 -2.33124
6.04934 102.863 10.6507
-13.8855 87.756 2.43996
9.2955 111.883 0.397653
18.2705 114.788 11.0254
-12.9896 88.3188 3.11505
23.8981 123.366 5.72532
-10.1113 96.8333 -6.91013
20.2513 123.04 -0.0354167
23.0525 124.128 3.09611
-15.2922 90.3878 -4.32096
20.9567 124.102 -0.372294
6.02534 110.329 -2.09241
18.4878 116.371 9.15415
2.40764 98.7997 12.0983
21.8521 123.684 2.11833
19.9223 128.845 -10.4439
12.019 115.743 -0.988977
13.7778 118.699 -3.11878
13.8171 114.321 4.74957
26.6939 132.995 -5.71991
-15.661 89.7983 -3.31487
14.2916 120.028 -4.30141
17.9669 117.655 6.40022
-0.320375 96.2013 12.3956
-5.13363 102.001 -6.32306
20.5231 124.314 -0.78661
5.45255 110.589 -2.8699
5.97941 110.582 -1.92631
-17.9249 85.9653 -0.221299
6.28403 103.919 10.4661
-17.3329 87.2289 -1.25684
-1.74301 95.7993 10.9842
24.3654 126.272 2.93951
-17.7732 86.2646 -0.0655361
12.1159 116.612 -1.40859
2.56216 99.6559 11.9156
15.5619 121.493 -3.97861
26.5333 132.622 -4.43217
-3.87404 103.365 -5.81614
0.478297 97.4765 12.3495
3.95113 109.997 -3.77455
17.2851 121.596 -0.926423
13.2062 118.387 -2.38165
13.3211 118.633 -2.60285
-18.0741 86.4416 -0.536091
18.6217 123.074 -1.04433
17.7772 122.305 -1.16438
-11.9907 95.8491 -6.47677
23.3371 122.564 8.28502
6.4997 104.851 10.1785
11.407 115.344 0.262651
4.80828 102.962 10.7155
19.559 126.118 -4.46336
16.6836 121.609 -1.45633
0.469944 97.8068 12.3564
13.6866 120.203 -4.09364
21.4474 117.516 14.3682
-1.40067 106.075 -5.4257
-2.43566 96.0124 10.7127
22.8998 122.013 9.17361
10.0026 109.087 9.58819
10.1269 109.342 9.43614
-16.43 87.411 1.74661
10.7189 114.888 0.687725
0.343039 107.843 -5.00191
16.911 122.308 -1.47941
26.2379 132.246 -2.64249
16.223 123.021 -3.83247
-10.2081 91.7692 5.26583
26.1231 129.098 2.84648
15.1091 117.472 4.14276
21.8387 118.651 13.9083
21.6031 125.322 1.64217
16.5127 122.798 -2.82392
18.1934 116.161 11.9612
10.9497 111.84 6.93496
23.3976 123.601 7.97289
-8.22577 100.232 -6.12099
-12.5964 95.8692 -6.0036
-1.48235 106.461 -5.24
18.6464 126.647 -5.60266
19.3328 115.923 14.6653
26.64 134.893 -6.17871
11.5429 113.325 5.6048
24.027 126.927 3.41597
23.3563 123.671 8.07883
6.53163 112.027 -0.807778
21.6446 124.935 2.84372
-9.00615 99.916 -6.446
-16.5857 90.8163 -3.53793
20.3874 124.614 1.49163
23.1888 121.977 11.1409
10.6199 111.301 8.02584
20.3918 126.326 -1.38196
0.293103 98.7349 12.3919
19.2904 116.391 14.4461
-16.4803 91.2322 -3.73236
3.8723 103.308 10.6562
18.8083 126.19 -3.56774
15.7833 118.812 4.2333
21.8848 132.422 -9.19106
12.5344 119.158 -2.04307
26.19 130.319 2.16802
18.172 128.348 -8.40749
21.1044 118.567 14.1764
23.7906 125.804 6.09531
25.6356 129.128 3.45103
18.8221 129.546 -9.23943
26.7405 135.908 -6.61564
20.005 124.828 1.25081
9.58388 114.85 0.768877
17.9703 128.155 -8.11099
22.1125 125.769 3.44426
7.81343 113.44 0.202447
20.0169 131.172 -9.81635
5.91792 112.341 -1.14375
22.1124 125.769 3.49649
18.3091 116.907 12.6314
-17.2743 90.2211 -2.53602
5.33016 112.139 -1.69229
18.4565 119.509 8.35391
15.8129 123.803 -3.89324
17.7834 120.276 5.83889
14.3104 122.547 -4.30074
-2.80032 106.024 -5.03042
-17.0693 88.4491 1.12569
22.2862 120.714 13.0876
23.6474 127.777 2.99836
15.0002 123.65 -4.87447
25.7978 130.015 2.92031
26.0464 132.627 -1.24998
22.8182 123.379 9.53096
4.67976 112.407 -2.81276
9.02446 114.743 0.688406
0.422339 99.7929 12.1258
22.7282 123.209 9.79572
2.57174 110.93 -3.79385
19.5286 130.944 -9.47765
-5.0679 104.344 -5.45827
22.6413 123.051 10.0518
25.0628 135.733 -8.16401
-7.94158 94.431 7.26309
26.0453 136.22 -7.20308
22.3497 121.342 12.8549
23.0805 124.508 8.51978
18.2958 117.594 12.5516
-4.55741 96.4408 9.98928
7.84257 114.122 0.38665
-13.0378 91.1182 4.5522
22.8237 122.642 11.6343
19.3734 117.955 13.9997
13.9929 123.076 -4.51299
23.7535 127.959 4.03766
12.6568 121.456 -3.90006
22.824 123.962 9.54298
22 133.43 -8.65539
26.0794 135 -4.26164
12.1691 120.117 -2.23745
22.7035 123.057 11.1617
22.9174 124.372 9.20993
-16.777 92.3917 -3.7793
19.7434 118.482 14.0989
-14.34 95.6194 -5.19233
-4.01642 105.741 -5.01344
18.2368 126.646 -2.92676
13.4175 122.641 -4.28682
21.1031 126.658 2.13291
20.8773 127.497 0.326434
20.4314 125.585 2.97836
22.9465 124.924 8.60599
7.95074 114.628 0.541027
13.7308 123.218 -4.55284
1.87599 102.818 10.9743
5.79383 113.426 -0.973859
-9.49498 101.383 -6.45483
15.9405 124.37 -2.51855
-5.26071 96.5558 9.61229
-1.06229 99.0678 12.538
-16.019 93.8599 -4.44018
3.56573 104.814 10.5495
18.4997 119.798 10.2014
26.3278 136.575 -5.8223
15.6033 124.714 -3.59451
-9.30361 101.631 -6.32796
-13.425 97.3327 -5.81591
25.4668 131.069 2.66339
18.2481 125.991 -0.972751
18.2765 118.247 12.8563
-1.42825 108.492 -4.46613
23.0214 125.851 7.73986
24.3478 129.772 3.14509
17.6635 127.792 -5.01185
25.9407 134.011 -1.45133
18.2311 125.804 -0.412164
19.5768 132.163 -9.25327
17.2934 126.436 -3.03769
20.3646 132.853 -8.95295
16.9759 121.7 4.91192
-8.44761 95.1495 7.37496
25.9168 134.321 -1.66098
13.0864 118.329 4.24097
21.047 127.278 2.41811
3.76729 105.674 10.4211
17.4387 128.321 -5.7315
-11.4405 93.3638 5.63294
26.4007 136.754 -4.86897
0.402307 110.753 -4.3734
10.5432 114.058 7.61775
0.99587 102.677 11.1407
20.9899 127.444 2.30342
-4.02235 97.7653 11.0612
0.891301 111.24 -4.16007
22.7872 126.738 6.89708
2.76156 112.974 -3.86334
22.8675 127.822 5.13653
10.5005 114.138 7.70155
-15.6808 91.7831 1.4142
15.4264 126.261 -5.11764
20.4205 126.387 3.59914
19.0299 126.187 1.5594
-15.4661 91.7988 1.99396
20.2783 126.441 3.37004
18.1929 119.367 12.2741
18.0624 122.427 6.65259
18.4028 119.263 12.9426
20.4101 129.365 -1.3966
17.2593 129.29 -6.8002
18.148 119.288 12.5361
-8.62329 103.445 -6.3506
20.4324 133.431 -8.39724
17.5982 126.683 -1.30842
-4.61309 106.638 -4.75371
18.4654 128.27 -2.58447
4.14774 114.058 -2.46319
-12.9394 92.8908 5.12351
25.3212 133.384 0.515687
-15.411 92.1381 2.18788
4.04423 106.846 10.2895
24.0567 136.716 -7.53862
25.6283 137.336 -5.86954
7.25664 109.853 10.6678
25.3536 137.435 -6.276
-5.60336 106.209 -5.12179
7.17133 115.716 0.486143
25.082 132.98 1.38937
3.37922 106.421 10.4318
19.1609 126.695 2.21828
13.0334 124.569 -4.76471
21.9202 124.028 11.8723
16.7616 127.687 -3.69033
26.0442 137.59 -4.94785
17.4219 128.624 -4.03262
17.2459 130.538 -7.71064
19.5938 128.934 -0.669035
19.4058 133.139 -8.43
9.03948 112.351 10.2845
21.1947 134.769 -8.08586
17.6423 126.942 -0.419254
-17.6424 93.0183 -2.16738
19.5194 121.034 13.4414
-0.22201 111.611 -4.3831
25.5251 135.542 -1.59318
21.7214 135.506 -8.17043
-2.62507 109.154 -4.08969
16.7814 128.201 -3.79649
24.8839 133.504 1.03199
10.8771 116.222 7.22816
-1.41912 101.158 12.3868
-14.6012 98.3289 -5.74515
-7.56349 105.584 -6.17967
-7.06446 105.882 -5.77904
-3.98246 108.02 -4.14087
18.384 132.609 -8.48369
-15.715 96.8163 -4.82525
21.9088 125.25 10.8731
20.7003 128.909 2.30488
-17.0987 94.6044 -3.21257
19.0599 129.735 -2.02507
4.11773 114.894 -1.92331
-5.53893 107.086 -4.98037
20.4217 130.645 -1.15214
18.3963 123.345 8.32992
6.15697 116.071 -0.25583
18.7596 127.318 1.95864
14.2072 127.004 -5.48345
20.5946 130.386 -0.235252
9.43132 119.364 -0.219438
19.6362 121.88 13.2607
-12.1223 101.657 -6.66347
16.2053 128.504 -4.47748
22.1902 129.429 4.40415
21.9027 136.295 -8.18747
12.579 125.149 -4.70765
24.4498 137.993 -6.63929
6.28809 116.435 -0.254398
17.3283 127.618 -0.579797
-14.6424 93.4759 3.8914
-15.5531 93.7543 1.9622
1.49829 113.947 -3.90533
16.8367 128.152 -2.13483
16.7843 129.054 -3.78705
2.55315 106.883 10.6857
26.065 138.508 -4.09992
4.3255 115.569 -1.57231
6.63731 117.067 -0.130262
24.3726 133.394 2.15486
16.7606 128.325 -2.19503
21.4968 127.723 7.36164
20.3173 130.887 -0.298717
16.5535 124.554 4.40227
14.9577 128.399 -5.20638
9.27236 114.453 9.68164
21.3747 127.408 8.09155
19.1814 122.426 13.1694
23.98 138.431 -6.63625
20.1437 123.796 12.7962
16.8339 131.906 -7.42889
-8.17473 106.436 -6.11854
6.67812 111.54 10.9595
19.872 130.389 0.748677
18.1315 124.858 7.5376
16.4966 130.563 -5.45798
12.3668 120.91 4.44543
16.9879 128.38 -0.684554
-7.41214 98.4206 9.63106
3.21325 108.414 10.5758
-9.19708 97.3198 8.52199
25.9019 139.206 -4.08919
19.9152 130.496 0.874833
-15.7888 98.4775 -4.98625
16.1828 129.598 -4.03192
11.5273 119.717 5.42421
-15.6682 98.7432 -5.12942
17.3274 125.602 5.19028
5.262 117.043 -0.773385
17.8601 133.478 -7.79426
20.0437 135.727 -7.91422
18.9068 123.014 12.682
20.8643 127.143 8.79891
-6.30723 108.142 -5.22973
16.5477 128.962 -2.01619
23.9342 138.696 -6.30108
0.192757 113.943 -4.00863
6.86193 118.183 0.219195
-11.7979 103.763 -6.95554
-5.87185 108.511 -4.92288
20.1452 124.377 12.7035
22.0461 129.825 6.46676
21.5278 130.716 3.97802
19.4867 131.728 -1.27857
20.9101 128.167 7.59637
0.654356 114.565 -3.85567
25.1925 138.305 -2.84756
16.7838 128.878 -0.826937
11.5736 120.329 5.23051
8.17953 119.489 0.791726
-6.05367 108.688 -5.0177
12.4796 127.106 -5.12169
-7.71564 98.7943 9.70351
8.08321 119.455 0.849462
17.2511 126.187 5.03941
11.1569 119.804 5.6664
-8.27097 98.596 9.3122
9.96742 122.374 -0.85686
19.1737 131.31 -0.462349
-1.27999 104.126 11.9138
10.0484 116.975 9.01727
17.3086 130.078 -1.43758
15.9612 130.195 -3.97699
-9.5868 97.8776 8.55686
16.2506 130.493 -3.84099
-9.34917 106.665 -6.44872
24.642 137.497 -1.40382
16.2045 129.964 -2.84477
-17.0944 97.5649 -3.79948
11.7058 121.171 5.04044
-10.2616 97.731 8.06017
13.5624 123.983 3.32264
2.68745 109.074 10.6931
-5.89707 100.259 11.307
16.4742 132.765 -7.06075
16.2767 130.013 -2.47502
21.7306 130.502 6.37746
-17.604 95.5046 -0.603796
-14.431 96.0732 4.10865
0.554791 107.008 11.0513
5.6683 118.523 -0.397032
10.3479 124.627 -2.97496
15.5048 130.646 -4.53418
-15.3492 95.9175 2.93338
23.5111 135.475 1.04037
14.493 125.535 2.88585
21.4905 131.108 5.29712
16.4913 131.052 -3.37726
18.3983 124.541 11.6042
15.1594 126.088 3.1953
18.092 125.242 9.89943
21.8253 138.851 -7.67844
-8.71264 107.7 -6.03926
-2.01879 103.976 12.4057
21.5591 130.629 6.54579
-0.356776 106.332 11.1829
18.9954 132.85 -1.87819
19.8207 126.557 10.7957
14.9437 126.137 3.0349
20.107 137.463 -7.92696
7.30284 119.908 0.755046
9.54307 117.098 9.71935
16.8719 127.349 4.52096
18.5197 132.209 -1.05596
18.7499 133.226 -2.44794
-11.4726 97.751 7.49379
-7.87766 108.662 -5.56747
-11.8277 105.334 -6.54896
-3.99056 111.328 -3.3469
5.47672 112.613 11.0279
23.2702 135.772 1.2875
21.343 131.673 5.27494
-13.3833 103.846 -6.25908
10.7726 120.113 7.37546
23.3599 136.124 1.08151
16.6653 134.2 -7.26173
11.5003 127.685 -4.72541
4.85253 118.992 -0.96766
23.8332 137.283 -0.0787054
18.3939 132.9 -1.82217
-14.9727 96.7369 3.76738
18.4178 133.043 -1.95917
11.0261 121.317 5.944
5.00183 112.578 10.9393
9.45708 123.798 -1.0241
-17.5876 97.6641 -2.14985
22.2524 140.022 -7.18994
3.28688 111.218 10.6603
-5.48656 110.859 -4.11312
24.6712 139.974 -2.72832
16.998 133.609 -4.80229
15.5452 131.985 -4.46032
18.1493 126.568 9.75197
10.7231 120.509 7.57333
1.82847 109.867 10.8558
-16.6467 96.6732 1.82853
3.11241 111.251 10.6938
-14.2891 103.499 -6.00775
9.46376 124.804 -1.99513
16.3015 128.271 3.91659
-1.21611 114.897 -3.09668
11.5403 128.55 -4.88639
12.6429 130.14 -5.73216
-3.16602 104.306 12.4168
13.7502 126.332 3.05358
17.9005 126.065 10.8827
20.4854 129.899 8.61878
-17.0902 97.321 0.417525
10.8988 121.527 6.64038
10.1189 119.589 8.83126
14.499 132.034 -5.51776
16.4579 128.529 4.15504
17.6869 134.349 -4.0209
17.8174 128.794 6.17029
8.7298 117.428 10.3967
22.4933 135.328 2.82973
-9.02652 100.365 9.59842
-4.50422 103.317 12.3985
15.4747 128.509 2.86091
-17.4722 99.1629 -2.90111
15.8277 132.711 -3.92069
21.7073 134.083 3.99507
22.9775 136.843 1.39494
1.59472 110.34 10.8748
21.2525 132.879 5.47996
-3.07221 113.661 -3.04259
0.00149749 108.841 10.9397
-15.6797 97.588 3.37594
8.88897 124.084 -0.414788
-9.55605 109.283 -6.55047
-13.7916 104.785 -5.99899
8.97728 124.52 -0.885781
-5.72202 111.961 -4.37223
9.31453 125.722 -2.34915
-6.4097 111.551 -4.81697
11.36 129.21 -4.90602
-6.548 111.509 -4.90734
20.3197 131.008 7.84007
9.86 119.956 9.10762
12.8037 131.239 -5.66467
17.5651 136.959 -7.42454
10.2327 120.606 8.74171
3.82853 113.036 10.9485
-8.85954 101.165 9.75907
9.59643 119.698 9.37187
-5.33045 112.575 -4.21172
16.3621 129.604 3.70446
-11.6799 107.896 -6.85383
-4.65186 104.019 12.465
9.73229 127.385 -3.65748
17.4399 134.639 -2.98609
0.834223 118.193 -2.91807
10.4385 128.482 -4.247
2.87986 119.819 -2.12705
17.4047 130.025 5.30129
-2.14293 115.11 -2.54962
17.1225 136.87 -7.29014
13.0998 126.987 3.1985
17.2493 130.116 4.9937
-15.4352 103.733 -5.60829
11.3095 124.078 5.30043
-2.85898 106.094 12.3513
-6.11417 112.537 -4.81594
6.61614 116.092 11.3315
-14.9543 104.309 -5.64392
24.1586 142.133 -3.97756
14.2568 128.464 2.89383
24.2735 141.17 -2.06072
-14.526 105.079 -6.0414
17.5459 130.124 5.95125
14.0254 133.517 -6.22775
23.0698 142.073 -5.48672
17.8019 128.885 8.68418
16.6839 134.997 -4.10406
21.9049 141.49 -6.39447
-4.94221 104.349 12.3773
-16.5563 102.104 -3.89828
-0.658618 117.15 -2.63886
-11.9414 100.293 7.60336
-8.66162 102.219 9.95537
8.08451 124.245 0.311109
16.1092 134.165 -3.15622
9.24481 127.396 -3.1936
19.9875 140.067 -6.69235
19.7159 131.899 7.36253
6.18707 122.399 0.529128
-11.0082 109.558 -6.8426
14.8688 129.877 2.61573
-4.79525 113.943 -3.65073
14.8365 134.544 -5.61674
16.6802 136.522 -5.83299
-10.9804 101.119 8.46867
22.683 138.772 0.789662
17.3262 136.353 -4.28353
11.4291 130.957 -5.03511
16.6201 136.854 -6.36003
17.0339 130.947 4.88285
13.3012 128.305 3.09784
12.2128 131.933 -5.26164
20.3005 133.509 6.17797
-16.99 101.857 -3.15378
16.6293 136.677 -5.84908
-8.13428 103.161 10.2204
1.09331 119.626 -2.71055
-12.3107 100.849 7.1863
12.6892 127.847 3.26481
14.9558 130.515 2.52421
-12.7068 108.35 -6.70623
-13.3354 107.639 -6.5089
-17.1875 100.009 0.291403
5.21648 122.353 0.00812175
7.01247 118.098 10.753
7.24846 124.031 0.683162
7.23508 118.399 10.6792
16.9319 135.631 -2.88214
1.35897 112.568 10.7586
23.8893 143.17 -3.97519
20.8247 141.531 -6.43101
-15.508 105.158 -5.64849
11.0504 124.953 5.92946
12.6702 132.991 -5.47017
18.3044 139.065 -6.33815
-11.5308 101.51 7.9468
-15.6873 104.988 -5.51418
2.99478 121.479 -1.91673
10.7424 124.145 6.99609
14.5779 130.422 2.61271
-10.9734 110.461 -6.84505
16.7023 136.519 -4.46147
5.07277 122.524 -0.0413571
17.1326 136.582 -3.78874
15.2019 135.699 -5.60471
19.4935 132.78 7.15906
2.3016 113.627 10.9771
6.59452 118.027 10.7228
-16.0584 103.936 -4.04248
-0.925188 110.329 11.3369
23.4587 141.101 -0.441117
-17.2641 102.029 -2.54657
0.822259 112.413 10.8214
20.603 134.916 5.6406
4.62774 115.792 11.5278
16.5138 136.615 -4.4663
22.9558 143.25 -4.92134
8.42283 127.062 -1.68512
-11.094 110.663 -6.86148
16.5327 136.477 -4.13064
-17.2263 102.162 -2.51605
22.7553 140.264 0.196496
-13.5774 101.16 5.91846
5.19986 116.708 11.3201
-17.2005 100.713 0.344073
-1.99288 109.29 11.9273
1.2788 113.219 10.7471
-14.7391 106.945 -6.26562
22.3069 143.162 -5.42693
-15.6552 100.701 3.28013
-9.95823 111.989 -6.64744
13.113 129.387 3.02431
0.246416 119.718 -2.40396
-8.16566 104.288 10.2912
22.1989 139.795 0.656387
9.32539 122.235 9.21984
12.5624 128.625 3.57999
-13.1691 108.929 -6.60855
-15.6029 101.771 2.05385
-15.5713 101.686 2.27154
1.57403 121.176 -2.16911
10.5517 124.535 7.68584
20.6234 136.094 4.92299
7.91228 126.306 -0.0338965
-15.7087 105.68 -4.89641
9.85802 130.673 -4.28338
20.7304 136.592 4.32578
-15.5761 101.988 1.96129
-16.7549 101.385 0.96132
-15.8969 105.044 -3.95167
-1.55463 118.219 -2.12684
15.8483 136.345 -3.65527
-2.91648 108.862 12.2837
-11.6857 102.64 7.99389
15.8421 133.124 2.25115
10.4883 131.718 -4.46015
11.5378 133.101 -5.04098
10.298 124.216 8.57578
5.64772 124.209 0.410193
14.7046 132.137 2.27135
11.724 133.382 -5.15267
-16.9169 101.756 0.697114
16.6267 138.753 -5.86439
-13.1932 109.747 -6.5829
18.7963 133.011 8.42358
-1.94647 118.367 -2.01814
-0.687688 119.647 -2.03043
0.691447 121.042 -2.04243
7.55854 126.603 0.192851
-16.5611 102.441 0.787819
3.70011 123.571 -1.01236
14.8316 137.053 -5.3791
20.5105 137.134 4.46969
16.5822 133.387 4.3363
23.3488 143.236 -1.21889
4.32274 117.451 11.1926
8.11035 128.977 -2.61233
19.3953 134.815 6.88866
-10.527 112.951 -6.73533
-6.04879 106.791 12.0903
11.1251 133.403 -4.98609
8.07273 129.068 -2.58999
-9.85789 113.548 -6.55011
15.6789 137.059 -3.33231
21.5533 140.335 1.26955
19.8001 135.64 6.55569
17.2713 131.635 9.25883
16.7759 131.673 8.326
5.52402 125.034 0.386271
15.999 138.677 -5.37532
-1.7202 119.125 -1.78253
21.1954 143.733 -5.12966
-3.95331 117.486 -2.72557
23.2327 143.707 -1.47784
18.2007 132.965 8.86614
-9.99076 113.749 -6.54807
16.4337 133.035 5.73757
-15.2962 103.242 2.96422
19.9636 136.833 5.31555
10.1137 125.269 8.66147
2.27201 115.982 11.5628
8.35582 130.367 -3.28024
-1.0287 112.85 11.4021
-13.5543 110.516 -6.47547
-9.83819 105.284 9.37029
17.628 132.764 8.89531
17.7156 141.003 -5.55759
22.9498 143.355 -0.510462
-3.51338 109.985 12.263
-15.7071 104.38 0.802605
7.82431 129.591 -2.56372
-16.3384 104.135 0.172546
-11.8308 104.259 7.94855
-5.72529 117.363 -4.59357
-16.8696 103.835 -0.148367
-6.32133 107.486 12.0364
-17.1924 104.427 -1.63934
7.34976 122.316 9.78208
17.6279 133.068 8.82456
17.9226 141.403 -5.4119
17.2135 132.658 8.91661
19.7496 137.056 5.57516
16.051 138.781 -3.91511
9.27779 124.864 8.91699
-16.1187 106.808 -3.6099
-8.07814 106.698 10.8286
-13.6453 110.963 -6.44228
-15.5369 108.537 -5.44683
0.773624 122.385 -1.23998
22.9161 144.988 -2.45133
-0.722662 113.996 11.0533
22.9464 145.203 -2.73358
-9.1125 106.372 9.92887
-8.87839 106.514 10.135
-4.92789 118.182 -3.62481
16.2019 134.171 5.26535
9.6873 133.134 -4.32865
-13.2777 104.477 6.23684
20.0311 138.28 4.79481
-3.76113 118.816 -2.37839
16.122 138.952 -3.16736
9.63515 125.781 8.83736
-13.1338 104.628 6.37844
-7.06314 117.343 -5.45539
17.9817 134.784 7.68698
-14.7878 104.776 3.37945
15.2952 135.293 2.10606
16.0549 139.15 -3.267
0.498383 122.557 -1.06912
20.3968 139.307 4.21377
2.04659 124.166 -1.1292
20.8777 144.93 -4.86112
-8.64627 116.358 -5.96892
16.1601 140.28 -4.81734
14.0684 134.074 2.57598
-1.02809 114.396 11.0496
10.343 127.425 7.95443
-2.92767 119.927 -1.91042
-14.3793 105.499 3.5884
-14.2161 105.47 3.96757
-7.42554 117.516 -5.42965
-13.5316 105.267 5.59347
-6.16089 108.826 12.3215
3.62482 125.963 -0.819501
7.59579 131.091 -2.91431
22.5022 145.309 -1.93591
8.01491 124.578 9.44335
-14.5487 106.022 2.75307
2.91036 125.416 -0.994829
4.18223 120.381 10.193
22.1419 143.722 0.614962
13.1821 133.681 2.70993
16.7085 134.091 8.2469
11.1918 129.366 6.97462
6.965 123.811 9.42995
20.1085 140.275 3.30098
-13.8815 106.474 3.71259
-13.8413 106.428 3.88172
16.2681 136.175 3.98716
-13.782 106.427 4.04264
4.18931 120.777 10.1631
-14.6223 111.172 -5.82505
12.6116 131.913 5.23451
-10.6374 106.707 9.17723
13.878 134.522 2.8861
5.54506 122.99 8.79261
14.0054 139.25 -5.1784
-15.9583 109.497 -5.00526
-11.8412 106.502 7.57827
-11.657 106.673 7.69609
20.1141 141.249 2.19997
-17.3755 106.492 -1.94887
18.7761 137.204 7.21496
-0.779126 115.644 11.145
22.2705 145.185 -0.801764
4.81897 122.056 9.62484
12.4454 131.9 5.56484
-7.03549 108.995 12.0041
-17.089 105.575 0.414673
13.0427 138.885 -5.75181
5.65094 128.06 0.509087
20.7346 142.311 1.72833
13.6663 134.606 3.01109
-16.4614 105.95 1.0453
-13.5671 112.853 -6.11251
-13.2302 107.734 3.73414
13.7329 139.562 -5.36373
-12.2516 114.261 -6.06912
7.90031 132.698 -3.33177
-6.54752 109.596 12.3384
-15.522 110.674 -5.34765
-1.14419 115.614 11.1777
-12.6379 107.877 4.72062
19.6826 145.18 -4.68478
7.89182 125.65 9.27682
4.80973 122.531 9.43607
6.56593 124.41 9.1932
-12.5194 107.969 4.84071
12.7085 139.146 -6.01135
-10.9299 107.379 8.86884
6.17714 129.315 -0.0121625
16.1068 135.945 5.76493
-2.45836 121.636 -1.46324
-16.1805 109.916 -4.691
-5.99899 110.317 12.5283
-4.74511 111.95 11.8509
19.8286 140.949 3.58788
-17.2382 106.487 -0.348782
0.327837 124.218 -0.943439
-4.76939 120.87 -3.92456
-5.73797 110.822 12.3215
2.79655 120.071 10.9038
-3.64957 113.304 11.5958
16.3702 137.625 3.61356
-10.9769 108.508 7.30062
8.45232 126.727 9.14185
7.39999 132.605 -3.14329
-4.36065 121.286 -3.69217
-16.6763 106.415 1.20249
-17.3334 106.879 -0.760912
-17.008 108.621 -3.24729
20.3361 146.122 -4.18078
1.59215 118.74 11.6057
-4.28874 112.935 11.6143
19.6979 145.736 -4.39076
-15.5764 111.288 -5.21416
21.5325 144.594 0.927656
9.75893 128.732 8.44076
-12.082 115.123 -5.78041
-17.0738 108.671 -3.07867
8.47837 134.74 -4.38269
12.012 132.471 6.00885
0.940314 118.425 11.611
3.24971 121.336 10.5505
-5.78333 120.709 -4.16963
-6.40384 120.305 -4.31247
-12.3492 109.144 5.10858
-14.7319 107.879 3.20265
20.5706 146.766 -3.77869
5.84542 130.075 0.052358
19.4972 141.54 3.73934
16.3763 136.819 6.64331
19.5132 142.258 2.52583
7.1089 133.364 -3.33492
18.5726 139.198 6.47595
-10.2663 109.04 9.36675
-7.23417 110.42 12.2586
-1.27136 123.868 -1.1128
-11.6925 116.16 -5.71684
6.91128 133.161 -3.19007
20.9603 144.243 1.84909
-16.7826 110.028 -3.69375
11.2087 132.063 6.44333
21.1469 144.788 1.31754
-7.70307 110.293 11.9836
-7.93218 110.285 11.657
-17.1167 109.526 -2.98657
19.3353 142.443 2.65486
21.4317 146.741 -1.18432
10.6451 131.677 6.74013
6.06183 131.153 -0.373582
-8.61104 110.38 10.8167
12.1152 140.642 -6.44453
-10.0548 109.967 9.12471
9.56911 137.446 -5.1221
6.29169 132.191 -1.51398
6.33953 126.456 8.8825
17.8635 144.976 -3.61288
2.46611 127.905 -0.276379
16.4171 138.226 5.96549
6.11458 132.038 -1.04987
-2.0979 116.941 11.3757
-5.09914 122.639 -3.9305
1.79244 120.943 11.2062
-17.2483 109.774 -2.40568
17.5121 138.944 6.9127
15.8446 142.477 -2.29039
1.42443 120.637 11.1884
9.71339 138.164 -5.36616
11.6003 133.452 6.47009
-7.57107 120.592 -4.29732
17.9667 145.342 -3.33167
-10.3591 110.781 8.30011
18.5405 140.468 6.49805
0.117556 126.275 -0.531585
18.5587 140.671 6.44917
-16.7706 111.409 -3.56921
-16.3631 108.293 2.68738
-17.4426 109.568 -1.35515
-9.42502 111.262 9.76512
18.7287 141.934 4.79518
-2.10316 117.663 11.2792
-9.61766 111.161 9.6203
-12.4526 110.533 5.86911
3.52225 124.186 9.71957
-13.7116 109.735 5.08443
7.11584 135.402 -3.81381
-1.01435 125.642 -0.758798
1.35524 121.339 11.0655
-17.5368 109.37 -0.812987
12.8636 141.998 -5.28769
-4.18774 123.811 -2.94197
11.0783 140.792 -6.2585
-7.71214 121.144 -4.24708
16.7459 144.429 -2.51968
-4.81239 123.716 -3.52719
13.95 141.648 -2.31758
1.68538 128.323 -0.174165
-14.7189 114.955 -5.25371
6.2241 134.267 -2.56838
-12.8991 116.898 -5.25552
-15.2339 109.372 4.07185
6.9369 128.614 8.88966
11.3023 141.521 -6.27717
11.7309 137.204 2.20897
-16.2358 109.026 3.1019
3.2429 130.029 0.152508
12.0992 141.974 -5.40366
20.2115 148.212 -2.14162
16.6478 144.736 -2.20653
-8.72013 112.539 10.4609
0.785663 121.701 10.9035
-17.0588 109.464 1.3535
-9.63344 120.414 -5.01613
11.7735 137.258 2.74997
-16.5642 113.243 -4.14519
-17.189 109.698 1.08779
20.3616 147.883 -0.705985
-14.3736 115.942 -5.01496
8.8034 131.366 8.42316
18.1211 143.048 4.23423
-9.77574 112.722 9.06213
6.04847 134.943 -2.5312
13.8043 143.361 -3.75981
-15.6927 114.816 -4.82182
18.01 143.163 4.31637
18.0127 143.299 4.1521
-17.6148 110.297 0.199755
15.928 141.306 4.15951
-15.5708 110.157 4.19478
17.9335 142.542 5.67352
-3.01649 118.745 11.1866
1.70893 129.889 -0.254198
5.61992 134.618 -1.74705
-3.49657 118.321 11.2571
-8.52053 113.495 10.9982
12.0668 137.179 5.17311
16.9779 145.91 -1.64498
-9.6889 113.719 8.6726
-8.765 113.698 10.3554
12.1369 137.35 5.09507
-11.4705 113.191 6.64153
11.4579 138.457 2.18606
-6.42493 124.525 -4.50393
10.4172 134.721 7.00639
5.9024 135.757 -2.70487
-7.75868 123.051 -4.13801
7.41427 138.723 -5.0948
-14.4936 111.25 5.2677
16.0382 141.927 4.46905
9.25638 133.303 7.86767
-17.6768 111.586 -0.673787
11.3203 138.277 2.90962
-10.2103 121.378 -4.91873
19.4377 148.755 -1.39423
-13.28 112.454 5.72585
-2.82568 126.754 -1.18236
2.78138 126.51 9.2614
9.51607 134.183 7.4825
4.6688 133.866 -0.424837
17.4947 143.434 5.1419
-2.6779 120.189 11.0572
6.61032 138.013 -4.23472
-17.5321 112.708 -1.72672
13.4912 144.522 -3.68435
8.23355 132.843 8.02257
19.1883 148.909 -1.18833
6.63364 131.102 8.46973
-6.96408 115.578 12.2029
1.09223 130.707 -0.495882
-13.8363 112.545 5.54015
2.79901 131.995 0.303073
11.4994 138.887 3.40921
-4.25304 126.485 -2.18936
5.32559 135.875 -1.98193
-0.364052 122.982 10.9221
-8.54039 123.674 -4.6863
6.00746 137.551 -3.56024
-17.1228 111.526 2.04976
14.1454 141.62 3.62938
-15.1695 111.829 5.06237
7.76604 140.226 -5.04549
15.8461 146.059 -1.15295
-11.8048 113.912 7.34664
19.0176 149.073 -0.791487
18.1903 146.014 3.22365
10.6522 143.657 -5.79251
2.15973 127.189 8.54919
17.3327 148.294 -2.14824
-8.24064 115.495 11.3217
-3.64482 127.429 -1.7698
7.48964 133.135 7.6794
5.96718 138.12 -3.64785
10.946 144.154 -5.56585
-15.9405 116.894 -4.41914
-10.4389 122.464 -4.53593
-10.7998 122.273 -4.82754
0.696711 125.064 10.5965
-6.25375 126.253 -3.66073
11.5904 139.553 4.2975
7.49677 133.705 7.54883
-1.15105 123.193 11.0827
-1.39138 129.622 -0.710527
14.498 145.796 -1.48723
16.279 147.393 -1.14991
-16.0356 112.309 4.50134
18.2854 149.367 -0.927656
-8.54808 116.386 10.6589
-15.5384 112.58 5.12777
9.92154 143.962 -5.84912
13.1648 145.196 -2.3225
13.5241 145.307 -1.86973
-16.749 113.374 1.66107
-2.97198 121.632 11.2494
-10.157 115.566 9.4689
-14.0567 113.696 5.95976
-2.1785 122.605 11.0323
-0.135899 124.845 10.6826
-4.52565 119.841 11.9358
-3.33332 121.444 11.4654
3.18387 129.958 7.97894
13.4589 142.898 3.06268
-1.80794 123.252 11.1694
-0.815109 124.379 11.0644
-12.8414 121.689 -5.2935
-12.6631 121.985 -5.45406
2.961 134.406 0.00247996
-16.0852 114.505 1.87099
10.7233 140.299 3.26304
8.91117 137.723 4.65683
4.37609 131.673 7.43439
5.1965 132.629 7.22338
-16.5814 115.565 -0.750952
-16.4834 113.067 4.01843
-1.52733 123.804 11.2531
4.68022 132.198 7.26636
-5.28556 128.348 -3.3161
16.0192 148.224 -0.980618
-10.0939 116.292 9.84478
12.2773 142.878 1.98184
-14.8511 113.893 5.77537
12.7724 143.267 2.1979
11.1656 142.063 1.52349
9.65127 139.612 3.23462
9.32689 144.418 -5.82684
-10.4247 116.146 9.67585
-1.14206 124.673 10.9022
-15.7157 118.021 -2.86905
13.5278 143.431 3.41746
3.17371 130.898 7.51216
2.71337 134.624 0.0983768
5.30475 133.331 6.95525
-16.7999 116.795 -2.5248
12.4455 146.193 -3.27291
-11.2454 115.904 8.90993
12.2105 146.28 -3.76211
3.99317 131.994 7.1715
15.9738 144.872 5.37078
2.57698 130.398 7.52506
16.7579 149.818 -2.01921
0.722922 127.703 9.09488
2.37982 130.25 7.50765
-16.5851 115.476 0.443472
-1.95969 130.713 -0.868662
-15.7678 119.031 -4.31883
-0.412592 126.395 9.60619
-11.3701 123.61 -4.71409
-5.34871 119.891 12.5252
-9.49249 117.005 10.3739
-12.2181 115.854 7.65051
-16.6165 115.834 0.0507972
-2.11793 130.763 -0.949124
-5.00646 120.406 12.3841
-3.91187 121.883 11.7305
-16.5893 116.012 -0.0985669
-14.6523 114.476 6.2098
-15.9413 114.038 4.74509
5.48256 140.079 -3.80671
-13.0192 115.46 7.42261
-9.66795 117.115 10.377
-0.0294806 127.114 9.59766
-2.73412 130.577 -1.30834
7.65974 142.84 -4.76231
-0.212046 127.048 9.51135
5.02404 139.262 -2.91438
5.79116 134.493 6.95344
4.8308 133.674 6.73269
8.10463 143.585 -5.05944
-6.38171 128.671 -4.01203
-10.2596 125.837 -5.74156
-9.08941 117.528 11.1424
0.438414 128.516 8.49522
-7.927 127.665 -4.6058
-13.4322 122.662 -5.27984
-0.641976 132.791 -0.759882
-0.663326 132.784 -0.769229
-1.93367 125.055 10.7763
16.9727 148.11 3.09105
17.5658 150.014 0.758802
-6.33264 120.064 11.9924
16.471 147.305 3.73812
4.22543 138.12 -1.47994
-11.4682 124.444 -4.74875
-0.0736443 133.315 -0.45527
16.774 150.203 -0.723581
-12.6416 116.47 7.52126
-3.192 130.969 -1.59503
-12.1951 124.036 -5.00578
-8.26392 118.892 11.2239
10.0885 141.589 3.20468
-0.197948 133.498 -0.491839
16.9807 150.309 -0.0681415
-15.1698 116.84 2.88864
6.69814 142.621 -4.43559
-13.2157 116.339 7.39445
-7.31827 119.956 11.3402
16.1955 150.483 -1.52365
-13.0309 123.699 -5.31639
10.0869 141.703 3.38432
14.7371 145.58 4.71485
14.9211 145.711 4.82811
-0.283288 128.27 9.2529
-1.49155 132.88 -1.01858
-14.9742 119.667 -1.15414
17.1263 149.972 1.46576
6.47174 142.767 -4.35199
-14.6525 120.589 -2.01973
-15.2114 117.873 1.82702
5.54369 135.586 6.86275
16.395 148.554 2.96717
-12.0496 117.289 8.53294
-2.81554 126.165 9.01851
11.2439 147.534 -4.18131
-2.2136 132.662 -1.28011
-15.1399 121.509 -4.12694
-13.5472 123.745 -5.28571
-15.3157 115.697 6.10362
-0.647063 128.611 8.98844
9.22943 146.462 -5.3499
-12.2579 117.495 8.39636
11.4258 144.661 1.8307
6.89858 138.22 5.3468
-15.7919 119.743 -1.66603
-15.0793 120.572 -1.83369
-1.89279 133.298 -1.13302
-14.8076 120.417 -0.936156
-14.4463 120.059 0.351419
11.8888 148.232 -3.22388
-5.04798 131.349 -2.93012
4.3964 135.503 6.32461
4.44723 140.62 -2.65516
-11.3061 118.078 9.7169
-13.3766 124.491 -5.26936
-0.487984 129.405 8.70914
-11.4743 126.548 -5.53397
5.59361 136.504 6.85176
-16.314 115.812 5.13755
-10.6846 128.004 -6.58849
7.42052 144.847 -4.64117
-14.3357 121.934 -2.18619
-6.71013 121.52 11.9691
-11.4299 126.86 -5.79166
-6.05889 122.97 10.5774
-14.8925 120.995 -1.36525
-14.65 117.433 5.38974
-14.3002 119.95 1.59509
9.63117 142.674 3.40433
14.32 146.971 4.06911
-12.7904 125.002 -4.56957
-1.38614 129.202 8.15884
7.01099 139.409 4.83268
2.20603 137.501 -0.205609
10.9802 148.239 -3.79542
-5.3595 131.748 -3.21395
-14.6168 123.164 -4.1091
-14.1743 117.472 6.81952
-14.9181 121.956 -2.44484
-13.8361 123.966 -4.10754
9.70664 142.936 3.69307
13.3592 146.323 4.10117
-0.438471 131.339 6.53754
-14.5272 117.097 7.06493
14.1149 147.314 3.79421
10.6341 148.444 -4.30397
-6.907 123.958 8.36846
-14.791 120.433 0.826646
-4.70156 124.772 10.9078
-1.88864 129.364 7.70731
-14.6046 123.087 -3.4055
8.83406 143.003 2.4557
-13.852 124.175 -3.93921
10.2506 144.841 1.79481
5.00828 142.926 -3.84527
-8.65189 121.129 10.9028
-14.5279 117.975 6.18299
-6.9111 131.952 -5.22294
-15.3024 121.837 -2.00311
6.00763 144.136 -4.11543
-15.2105 119.403 2.55933
-0.973201 131.186 6.74407
-7.17519 124.471 7.81743
2.38967 134.741 6.4446
-1.18519 130.187 8.2656
-14.2163 120.169 3.16634
15.7217 151.353 0.460394
-13.9535 118.47 6.75578
5.8977 144.274 -4.08032
-6.06694 132.625 -4.33878
15.3973 150.69 1.43155
-10.0964 129.834 -6.30063
-7.97558 122.494 10.5273
-16.029 119.091 2.51871
-5.71888 125.389 9.56037
-14.7023 123.893 -3.44117
-14.2861 121.413 1.72175
10.0676 145.718 1.43153
-13.8439 118.645 7.48653
-12.7476 119.55 7.88063
0.150878 136.882 -0.227751
-14.0786 124.585 -3.39303
-14.8885 123.317 -2.5523
10.9778 149.617 -3.72862
-12.3644 126.901 -4.41297
-10.1679 121.094 9.77618
1.97442 138.864 -0.400474
-2.20124 135.091 -0.990133
-5.86826 133.484 -4.57878
8.10512 142.771 3.50022
-5.52942 133.6 -4.12606
-15.4071 122.347 -1.48937
-13.8979 118.847 7.40373
10.2343 146.075 1.51664
-16.3959 118.191 4.27308
10.8075 146.526 1.78759
-14.4736 121.055 2.67078
-11.7389 128.14 -5.09788
-15.0312 121.996 0.0459049
8.00117 143.335 2.64699
-11.6429 127.871 -4.25469
6.71364 146.078 -4.19569
-14.5657 120.907 3.11189
9.07262 148.898 -5.01963
10.1873 144.993 3.96388
-13.5736 120.676 5.39505
-13.5967 121.759 3.52664
-13.691 123.288 0.663092
-15.9583 120.316 1.97655
0.825575 138.164 -0.166476
14.07 151.314 -0.237422
-9.94969 121.789 10.0564
3.95729 142.839 -2.65595
-16.0844 119.348 3.88977
-14.1356 119.392 7.25398
11.807 150.447 -2.25441
-14.9507 121.292 2.50094
-15.4527 119.179 5.3768
-14.9546 117.821 8.72035
1.59197 135.738 6.03818
-13.6794 121.012 5.39254
-13.9942 123.442 0.575476
-11.3746 129.014 -4.71499
12.463 148.142 3.31642
8.00406 148.24 -4.64655
-5.08669 134.936 -3.94176
-13.0192 120.295 8.14673
-2.69783 136.006 -1.6068
-15.8172 119.209 5.20859
7.1224 143.19 2.9598
-12.9833 120.408 8.08484
-11.3735 128.816 -4.01908
-13.8074 122.435 3.07363
-14.8645 122.097 1.83274
-14.2019 125.306 -2.70266
-13.9601 121.36 4.74657
-13.9046 119.254 8.69016
13.0806 149.01 3.3404
-13.3176 120.154 8.21522
-15.5389 119.285 5.85916
-14.2499 121.291 4.63419
-2.74465 131.698 6.41077
10.4158 150.469 -3.75142
12.5735 148.525 3.50554
6.85111 142.931 3.39502
-1.11014 137.275 -0.557113
13.6051 151.753 -0.395187
0.067229 134.537 6.41639
-9.9336 122.748 9.79937
6.00031 146.32 -3.98495
-11.1401 130.038 -5.14885
-15.6843 117.724 8.75798
-15.0496 118.648 8.24696
-15.1896 119.986 5.63749
14.026 151.205 1.55878
6.39848 143.203 2.39946
-9.939 123.315 9.08013
2.61177 141.603 -1.30886
-10.0289 123.128 9.28408
-17.1756 117.253 7.19443
-12.8959 120.734 8.60513
-15.6695 123.209 -0.595414
6.58099 147.197 -4.08108
10.0952 147.585 1.47104
-14.2994 120.311 7.03272
1.19619 139.929 -0.541846
-14.7033 123.579 0.562497
-15.4126 120.604 4.61929
-10.0347 123.74 8.50936
10.6722 150.794 -3.05768
-13.9352 121.457 5.80474
-13.742 119.898 8.97604
11.6896 148.68 2.62772
13.7656 151.325 1.5976
-15.1071 123.122 0.934083
11.5591 148.629 2.52625
-15.9384 120.321 4.47945
-14.9608 123.307 1.07241
-15.4222 119.999 6.14364
-7.24912 134.941 -6.01788
5.52059 143.129 1.90904
10.8478 150.937 -2.5437
-15.5256 120.395 5.43672
-15.2564 119.249 7.96331
-15.3564 121.769 3.43208
-14.8631 123.626 1.01904
-15.948 120.714 4.31159
3.76896 144.26 -2.8342
-13.8475 124.975 0.445806
1.81324 137.704 5.38422
-8.86556 133.4 -5.72529
-13.0951 125.506 0.878296
12.3949 151.672 -0.742024
-11.1511 130.296 -4.1734
-15.6527 121.304 3.96767
-14.9326 124.188 0.13818
-16.1368 120.302 5.07443
-9.765 132.06 -4.57088
-15.6607 121.162 4.44024
-14.4977 121.21 6.4158
9.68742 147.645 2.03809
-10.3677 124.732 7.52998
-14.5552 123.306 2.70146
-9.98541 125.314 7.2207
1.60459 137.881 5.28238
5.17812 142.979 2.61525
-15.6423 120.394 6.14504
-8.91831 126.536 7.06808
-15.6604 120.818 5.38176
-14.6158 119.726 9.23282
-4.95809 130.244 7.58996
-15.4245 119.991 7.46678
-8.92963 126.734 7.10214
-14.9379 120.787 7.12344
-6.8643 128.666 7.35877
-1.77497 138.457 -1.05706
-2.30141 134.027 5.9054
-14.4461 122.121 5.74065
-13.9081 120.639 9.33028
-15.6227 119.49 8.40768
12.2414 152.195 -0.687218
-14.374 125.108 0.660937
-16.445 121.441 3.56749
-15.1155 124.933 -0.276745
0.53359 140.681 -0.664501
-15.7913 120.243 6.94209
-3.32399 133.125 6.03638
-14.4482 125.157 0.647147
-13.4177 126.134 0.72961
-13.2605 127.373 -1.19312
-14.4319 126.114 -0.989123
-15.593 120.311 7.31604
1.33508 138.324 5.15034
10.7862 151.449 -1.46508
-13.691 122.23 7.4043
-10.7211 131.227 -3.35762
-15.9144 120.779 6.10541
-0.804135 139.521 -0.612358
-6.38515 136.984 -5.87963
-14.884 125.317 -0.0730688
1.7217 138.833 5.12649
7.66176 149.976 -4.10223
8.68847 146.444 3.99271
-13.0227 122.536 8.28999
-18.959 118.456 5.1589
10.9105 151.549 -1.01738
-15.1543 123.95 2.1793
-15.5004 124.566 0.509628
-6.96055 136.66 -5.83385
-18.102 118.951 6.1255
2.51114 139.968 5.05979
-16.1739 121.08 5.78839
-17.4298 118.527 8.12169
-0.755926 139.967 -0.630535
-8.78044 134.928 -5.75013
-14.9025 122.66 5.29133
-16.9911 120.323 5.89682
-18.4762 119.071 5.5234
-13.736 126.012 1.53935
-4.47744 137.954 -3.37762
3.25818 145.228 -2.68613
6.26355 148.839 -3.8153
-13.7523 127.172 -0.496719
-15.0848 120.981 8.24221
-15.0156 122.713 5.30346
-4.26752 132.558 6.733
-15.1595 122.019 6.36875
1.58355 142.682 -0.874315
-16.7554 120.749 5.8409
-18.3606 117.88 8.12109
-7.18442 128.916 8.21258
-13.1215 129.098 -2.54191
-16.2468 123.379 2.17101
-17.0233 118.994 8.71827
-8.52962 127.497 8.62395
12.1089 151.634 2.06065
4.01743 142.528 4.04097
-17.0306 122.121 3.46507
-15.925 123.222 3.56799
-3.62965 138.973 -2.65008
-16.3949 124.214 1.2725
7.76257 151.087 -3.98412
9.0135 148.774 2.37059
-14.0473 126.586 1.25175
-12.2778 123.213 10.4026
-16.5985 124.329 0.892934
3.45789 146.426 -3.04002
-0.229569 138.02 5.44284
-13.6173 127.227 1.13652
11.6783 152.981 -0.128371
-20.8456 116.523 7.45063
3.40665 146.436 -3.00119
-13.7602 127.078 1.39394
-11.5828 131.141 -1.76164
-14.1796 121.996 9.928
-11.9364 124.23 9.9205
1.78916 144.199 -1.39241
8.79154 152.001 -2.93779
-16.8112 119.546 9.70048
-18.3234 120.127 6.04046
-16.0935 122.25 6.21252
2.35312 141.359 4.72159
-13.241 124.342 7.54461
-10.5484 125.814 9.68293
-12.8886 124.381 8.14278
-10.4985 133.298 -3.41281
-14.818 126.453 1.16003
4.68753 148.452 -3.48829
-4.54297 139.293 -3.43189
2.02304 141.247 4.68473
-11.4238 131.53 -1.69655
-19.5825 117.615 8.70382
-17.555 119.147 9.55647
-13.4911 128.627 -0.133545
-4.06764 134.578 5.97693
-7.7422 129.395 8.72903
-17.6111 121.814 4.875
-5.74615 131.964 7.74743
3.16168 143.037 3.76486
-13.7025 127.923 1.03326
-13.208 129.39 -0.69834
-4.04585 134.861 5.76894
8.43807 148.817 2.98201
-12.3507 124.037 10.5447
11.6163 153.036 1.19379
-17.7627 122.887 3.1163
-9.17991 135.839 -4.7122
-12.842 130.102 -0.902459
-5.94547 139.3 -5.09173
-9.39976 128.246 8.48291
-15.6456 126.304 0.94968
-18.5012 121.499 4.54098
-17.5589 122.988 3.59125
-13.45 123.154 10.5756
-16.3237 125.794 0.861239
-15.8317 123.462 5.88777
-17.0581 124.148 2.58117
-12.7032 124.155 10.2775
-10.8723 126.116 10.0286
-13.9441 127.917 1.4423
-14.7028 122.839 9.23024
-13.9715 127.995 1.4641
-7.66002 138.21 -5.57995
8.88892 152.639 -2.04666
10.3798 153.193 -0.362414
-2.94462 136.852 5.24869
-12.9479 130.059 -0.221194
6.00637 150.734 -3.49406
-14.4851 123.077 9.65725
11.3579 153.825 0.516202
-13.4626 123.713 10.5384
-12.5596 130.776 -0.362442
-4.92026 134.258 6.96661
-13.2187 129.041 1.68362
6.32066 151.296 -3.45039
-3.62699 141.117 -2.7327
-2.27079 141.801 -1.5461
-12.4615 125.343 10.0439
8.6363 153.005 -1.86143
2.76867 147.723 -2.7806
-17.4406 125.337 1.47574
-9.67311 129.098 8.4716
-15.6677 128.289 -0.597526
9.84758 152.003 2.16441
-12.9667 130.761 0.226125
-6.71896 140.009 -5.13778
-6.25433 133.359 7.65246
-1.53241 139.621 4.83652
-20.5813 118.986 8.01854
-13.1662 129.843 1.7912
4.57703 150.222 -3.20476
-20.7182 119.067 7.83222
-21.1304 119.683 6.08662
-3.76205 142.014 -2.85262
-0.283869 144.405 -0.939149
-13.7394 125.251 9.51385
-0.112999 144.804 -0.950974
-15.999 128.696 -0.255498
-13.1403 125.098 11.2017
-5.23528 135.905 5.94568
-11.8932 133.371 -1.19936
-1.8033 143.593 -1.29162
-13.3165 130.735 1.34614
-0.109115 145.13 -0.989395
1.3517 147.09 -1.86722
-16.6032 122.344 10.5749
-5.31634 136.136 6.03767
-0.387097 141.95 4.42939
9.38087 154.075 0.0959252
5.78268 152.324 -3.05984
-18.3178 124.735 3.67172
-13.466 125.842 10.3284
-5.73277 135.778 6.30545
-18.9598 124.99 2.21932
-12.8829 131.866 0.720875
-18.264 124.257 4.78379
8.08301 151.896 2.04366
-18.7059 125.338 2.12935
-18.3174 124.273 4.75464
-3.21073 139.54 4.31609
-11.1991 135.609 -2.71716
-2.97627 143.347 -1.95951
5.10102 151.973 -3.03844
-18.3813 126.872 0.359089
-11.2333 135.746 -2.66776
-13.3894 126.044 10.7866
2.68072 149.71 -2.9757
-11.3205 135.49 -2.32583
6.13836 153.038 -2.70332
-2.43551 144.004 -1.55624
-5.35336 142.562 -4.12547
-21.1818 120.743 6.8133
-8.07841 132.341 9.42932
-16.3668 129.31 0.258168
2.17888 149.476 -2.67441
-7.02247 134.074 8.53209
-6.61295 134.657 8.30432
-4.65339 138.611 4.74655
-20.5495 120.766 8.51922
-16.7723 129.237 0.198071
-18.4466 126.124 2.84368
4.84201 152.441 -2.95115
-12.0433 128.243 10.3984
-12.8421 133.545 -0.41268
-4.79203 143.354 -3.66659
-19.0584 126.379 1.40353
7.06438 153.888 -1.47359
-12.1589 128.375 10.3606
-16.0674 124.64 10.4016
6.66373 153.961 -1.55238
-17.9301 128.295 0.848483
2.75075 150.919 -2.88321
-12.651 133.955 0.40822
-14.3297 127.288 9.36273
-12.928 128.016 10.5358
-13.2637 127.593 10.7041
-2.47914 145.197 -1.53226
-20.6576 123.644 4.80205
-3.36903 140.935 4.49454
-20.6576 123.667 4.77583
4.31826 152.839 -2.84693
-10.6375 138.491 -3.49204
-17.6306 128.433 2.0988
-14.416 127.77 9.16126
0.56618 148.841 -1.88697
-14.0748 127.911 9.63021
-17.7145 128.453 2.28613
-19.0554 122.788 10.0446
-12.4876 136.088 -2.0204
-21.5344 122.561 6.22971
8.1225 154.645 1.57989
-12.6546 135.605 -1.06672
-20.9407 124.466 4.17668
-14.4718 128.173 9.01655
-6.98833 136.313 7.72986
-3.96711 145.244 -2.78557
-10.1406 139.551 -3.51697
2.71138 151.844 -2.73136
-21.6325 122.645 6.51285
-6.49151 143.922 -4.56822
-14.1585 128.484 9.41802
-19.1712 125.934 5.13595
0.822836 150.04 -2.26608
-11.6598 138.029 -2.79844
-10.9832 138.809 -2.88593
-11.0544 131.997 9.13012
-2.70651 146.466 -1.72696
-11.045 138.852 -2.78532
-13.419 129.708 9.31071
-21.3798 122.776 7.66005
-16.804 131.308 0.568863
-19.7065 123.376 9.79904
-13.6401 129.861 9.07374
-18.9629 123.97 10.2681
-14.5656 133.476 1.15385
3.26579 153.225 -2.53141
-13.7509 129.92 8.96339
-8.47172 142.785 -4.50195
-15.0009 128.915 8.73346
-16.4658 132.366 0.117573
-20.29 123.391 9.51451
-19.2299 126.381 6.07542
-18.1226 130.07 1.51059
-2.90611 143.883 3.81224
-5.48454 140.768 4.87712
-16.3481 127.584 9.2119
-11.1658 139.346 -2.48209
5.45863 155.172 -1.29083
-8.25961 135.75 9.20959
-3.37609 143.705 3.80296
-20.5391 124.015 8.61097
-20.7402 125.266 6.05706
-16.1617 128.153 9.10538
1.90981 152.654 -2.61064
-5.88321 145.78 -4.10153
-20.208 125.949 6.01944
-19.4273 125.846 7.88621
-19.8695 126.085 6.73421
-20.1352 125 8.36404
-18.8239 127.64 6.06492
-6.84029 139.322 6.52242
-12.9472 131.974 8.86296
-20.4362 124.566 8.87616
-14.061 135.454 0.910196
0.570356 151.857 -2.43875
-15.7176 129.479 8.86042
-10.8308 140.925 -2.82765
-3.94789 144.356 3.4628
-7.67706 138.476 7.41937
-4.88727 147.278 -3.22081
-18.2848 130.798 2.77844
-19.137 127.649 7.03029
-14.8141 135.434 0.83049
-8.1883 137.392 9.14389
-9.93432 135.34 9.79068
-9.89139 135.41 9.7645
-10.6547 134.392 10.36
-18.2737 130.165 4.6058
-7.91959 145.435 -4.28543
-1.44626 150.257 -1.4187
-11.8804 140.288 -1.83544
-18.1128 130.602 4.42098
-20.2178 125.542 9.96515
-4.17303 148.567 -2.49668
-11.296 134.186 10.6066
-16.0153 134.938 1.10653
-18.1126 131.165 4.29016
-11.5654 134.107 10.5962
-16.0521 134.94 1.42588
-4.4572 148.826 -2.65718
-13.1126 133.195 10.0099
-2.49074 150.396 -1.6188
-11.2481 142.278 -2.45445
-9.5301 144.802 -3.85767
-15.533 135.55 2.35907
-14.7821 132.255 9.72349
-2.93734 150.485 -1.78217
-8.34385 139.667 8.23625
-6.53931 143.053 5.41282
-7.0471 142.448 6.00442
-19.3579 128.201 9.66741
-13.8898 133.494 10.0086
-13.1373 134.047 10.7944
-17.4364 130.672 9.59189
-17.3641 130.797 9.64427
-6.36413 144.893 4.45925
-7.16512 148.594 -3.49747
-6.33091 149.373 -3.24333
-10.5686 144.855 -2.62848
-5.35954 150.24 -2.80492
-12.4178 141.794 0.0475526
-10.2734 145.608 -2.83014
-18.9749 129.929 9.97947
-19.2679 130.265 8.92853
-12.8299 135.563 11.0896
-14 139.254 2.47496
-12.0231 141.485 2.00838
-12.2638 142.354 0.0629415
-18.3221 132.832 6.33101
-17.0429 135.017 4.81345
-5.7308 150.555 -2.84482
-12.0788 136.715 10.6566
-4.37698 151.598 -2.13318
-17.0938 132.076 10.1941
-17.8068 131.568 9.99649
-13.6008 135.027 11.2885
-16.9729 132.279 10.2849
-12.0729 142.423 0.919873
-18.6026 131.644 8.62993
-12.2906 142.734 0.140891
-18.2671 131.292 10.0343
-11.7777 142.894 1.22774
-5.40355 148.311 2.95131
-10.3463 139.895 9.94235
-8.64051 142.648 8.25021
-11.4806 145.148 -0.987701
-14.5325 140.024 2.77805
-9.73471 141.17 9.23712
-12.4072 142.445 2.35127
-8.38532 143.535 7.58818
-4.99133 152.475 -2.25066
-17.322 133.289 10.632
-8.5656 143.686 7.6338
-11.4962 145.574 -0.750847
-11.8858 138.984 10.2928
-18.301 133.488 8.97182
-18.3156 133.237 9.44619
-11.9086 144.831 0.202582
-12.5347 142.795 2.82343
-16.8073 136.699 6.27418
-12.2728 143.113 2.93585
-15.4379 135.65 10.7936
-10.3407 141.407 9.75777
-9.09424 149.347 -2.15302
-17.5018 135.877 7.03072
-13.3927 138.06 10.4075
-12.8787 138.572 10.4236
-6.96447 148.236 3.71434
-18.1755 134.839 7.85986
-13.392 142.268 3.10488
-16.6785 137.416 6.03754
-7.03204 148.542 3.57357
-15.2848 140.293 4.01824
-17.8058 134.904 9.30763
-13.8172 138.417 10.2402
-10.6009 142.116 9.46323
-15.0881 137.108 10.5221
-17.0215 135.468 10.0544
-10.5627 142.29 9.38273
-8.02572 147.856 4.61731
-13.1217 139.763 10.1523
-16.907 137.733 7.21277
-12.4766 143.95 4.20266
-12.3693 144.051 4.21756
-17.3104 136.522 9.24522
-5.79169 153.889 -0.894019
-17.0927 137.544 8.30005
-17.2358 137.651 7.89994
-16.4652 137.88 9.04712
-6.07873 153.772 -0.773852
-9.66259 150.285 -0.794085
-16.8162 138.435 7.69592
-16.6328 138.502 7.97929
-8.1385 149.419 3.55955
-8.80442 147.894 5.11117
-13.4358 143.634 4.76239
-16.0457 139.074 8.39533
-7.24026 152.903 -0.534832
-7.46227 151.47 1.7044
-5.94799 154.286 -0.563573
-15.1503 139.733 9.4402
-11.4326 147.98 1.48524
-9.12787 148.414 4.81288
-15.2214 140.205 8.91672
-6.5706 154.07 -0.282204
-13.4221 141.829 9.42544
-6.87222 153.154 0.962071
-15.6257 140.79 7.62208
-7.418 152.759 0.918486
-8.57726 152.102 0.150717
-10.7139 146.296 6.77371
-9.9248 149.698 2.43452
-8.77714 151.657 1.02192
-8.8367 151.749 0.875545
-13.3439 142.899 8.67309
-10.0689 149.22 3.35545
-10.4455 148.278 4.513
-14.3953 143.423 6.22203
-11.3723 147.905 3.58305
-11.7278 147.463 3.80676
-13.8199 144.251 5.94161
-14.7865 142.273 7.79686
