ply
format ascii 1.0
comment Created by Open3D
element vertex 1937
property double x
property double y
property double z
end_header
-19.2856 110.286 -4.0751
-16.1823 110.305 -4.55034
-16.9429 101.092 18.6124
2.97193 109.448 -5.99703
-21.1653 110.571 -4.17087
-11.2751 110.014 -4.59923
-15.3176 101.22 18.2608
-26.7792 110.521 -2.63898
-10.8112 103.141 13.0647
-7.16794 110.747 -6.51866
0.784333 110.293 -6.7042
8.5257 103.319 9.35954
-27.8218 110.834 -2.41218
-26.1735 110.942 -2.98604
-0.374584 110.372 -6.38916
7.98532 104.53 6.59714
-26.0826 104.152 14.0531
0.758957 99.5738 20.391
-8.02625 104.05 11.0423
-3.76729 102.8 13.4092
-10.8162 110.613 -4.65196
7.69905 108.021 -1.65271
8.47975 102.419 12.1827
-27.1679 106.77 8.16416
-28.6739 108.302 4.88109
-8.41346 104.22 11.2408
-13.8548 110.993 -4.39907
-20.9202 102.387 18.482
-12.9957 102.56 16.5864
-19.2919 111.666 -4.91935
-10.6703 110.913 -4.62946
-10.1664 110.998 -4.92845
-13.7171 111.037 -4.33547
-22.3734 103.109 17.1283
-26.9409 111.563 -2.99646
-17.2653 102.22 18.5381
-6.04998 104.544 10.6743
-27.9143 107.681 7.26274
-17.8631 111.876 -5.10376
-3.11557 101.046 19.1913
-25.6917 104.679 14.4845
-27.3245 107.447 7.96808
-20.9229 102.907 18.3603
-19.3978 112.28 -5.20265
2.18131 100.091 21.2874
-26.1214 112.2 -3.52392
8.4611 106.658 3.84935
4.76899 110.753 -5.54752
7.72515 109.425 -2.72654
9.35815 108.015 0.478515
9.38933 108.148 0.282704
-23.1385 104.095 16.6018
-22.4724 103.865 17.0646
-6.62987 112.18 -6.58217
-3.06173 103.598 14.2322
-3.85316 101.858 18.7668
-27.9802 110.191 2.62795
-12.0725 103.719 15.7952
-4.34551 102.084 18.4464
-4.8458 103.077 16.1065
-27.8057 110.395 2.22572
-2.89978 104.64 12.1823
-19.057 103.41 18.316
-25.2834 105.289 14.9348
7.92749 103.213 13.8485
-11.2498 104.392 14.5833
-2.92648 104.856 11.9885
-6.70961 112.64 -6.59736
2.56758 101.026 20.5955
9.34553 109.319 -1.35619
7.56261 110.313 -3.48789
-5.09747 103.203 16.6451
9.03519 109.55 -1.78063
-18.4931 113.035 -5.21025
-16.4757 103.447 18.3221
-12.1369 103.937 16.3296
-9.55455 105.07 13.0579
-27.8022 110.318 3.51855
2.08012 112.112 -6.61966
6.97213 110.828 -4.21001
-7.02317 112.826 -6.51117
-17.6467 112.967 -4.79586
-4.94135 102.786 18.1783
-20.3439 104.019 18.0763
-9.46593 105.143 13.3481
8.37133 106.104 7.63477
7.39828 102.818 16.0114
8.81616 104.371 12.0317
-6.48691 113.084 -6.71036
-6.56916 113.08 -6.68298
-2.39769 105.052 12.6217
8.62143 105.205 10.2163
1.62326 112.422 -6.42114
-8.87929 105.848 12.3032
-1.17841 112.759 -6.29637
-28.6822 112.282 0.124206
-0.488853 102.077 20.2494
9.31252 110.091 -1.49492
0.77412 112.614 -6.1333
-2.79602 113.254 -6.93864
-28.5447 112.103 1.02397
-28.6378 112.543 0.00642222
-23.8407 105.666 16.2581
-27.2951 111.587 2.32288
-9.28446 113.099 -4.85707
3.82268 102.16 19.9298
-15.0617 113.461 -4.43579
-2.01713 105.743 12.4228
-21.7484 105.113 17.7475
-0.332875 113.065 -6.05097
3.05605 113.017 -6.46026
8.25481 104.478 13.9022
-15.9606 113.726 -4.4698
-0.360157 102.81 19.8759
-22.2689 114.642 -5.42928
-28.1755 113.671 -1.70155
-26.2294 114.362 -3.78815
-2.41532 106.513 11.3875
-2.49247 104.867 15.5612
-26.966 114.219 -3.0826
-17.8434 114.247 -4.87148
3.98858 102.653 19.8941
1.2887 113.285 -6.09284
-11.0653 113.205 -3.44255
-14.7677 105.107 17.5665
6.54315 103.419 17.781
8.73587 111.192 -2.00486
-4.08037 114.301 -7.28946
-25.1347 114.797 -4.49784
8.62339 111.326 -2.14391
1.63931 102.656 20.9228
1.16082 102.828 20.591
-27.6293 110.973 5.80978
-2.42762 103.931 18.6273
-20.387 105.674 17.7045
-5.51103 114.467 -6.9852
2.66892 113.546 -6.2408
-7.27227 107.349 11.1982
-26.6137 114.711 -3.46717
6.50656 112.347 -3.83121
-6.29178 107.975 9.51049
8.6197 107.253 8.48692
-24.3783 106.89 15.7167
8.43955 106.837 9.64598
-16.271 105.608 17.5758
-22.0623 106.183 17.2621
3.718 103.126 20.0322
1.70146 103.011 20.7673
-11.6028 105.653 16.784
2.71596 103.075 20.5503
-1.3445 114.119 -6.20215
-9.21731 114.124 -4.29966
5.59593 112.87 -3.95776
-3.04097 108.322 9.05642
5.30607 113.07 -4.33022
-16.1513 106.028 17.3066
-2.33327 105.324 16.5708
8.55761 105.395 14.3421
9.96491 109.59 3.64513
8.88534 107.649 8.77224
6.87279 112.77 -3.54686
-8.50689 106.904 14.052
-14.4681 106.314 16.729
-0.875319 106.646 13.3717
-24.6965 107.696 15.3494
-28.5037 113.559 1.46656
-4.13447 115.188 -7.18138
-16.3829 106.523 17.1248
-26.5269 112.464 4.255
-25.207 108.164 14.748
-7.03615 108.166 11.3069
8.85145 107.458 10.206
-0.800894 114.81 -6.19865
8.85593 105.969 14.0264
-26.2465 112.76 3.85429
8.89262 106.283 13.3426
0.841014 114.861 -6.37773
-19.3734 116.025 -5.39408
-3.53993 115.564 -7.11424
-16.8878 106.987 16.8961
-26.8025 112.339 5.49379
-7.07651 108.227 12.0413
-24.3363 108.135 15.6696
10.0538 112.15 -0.863599
-12.7599 106.949 16.4608
9.33805 108.31 8.88118
-7.05546 108.311 12.0912
-27.4503 113.522 2.97541
9.88074 109.041 7.09518
-12.262 106.973 16.4984
-2.59658 105.759 17.84
-25.0137 116.467 -4.5658
-13.9945 107.217 16.4841
-11.2517 114.823 -2.9855
-2.09755 108.997 9.81368
-14.1068 107.322 16.462
-28.3157 115.489 -1.15701
-20.7613 116.685 -5.35838
3.70171 115.126 -5.90116
9.94708 109.244 7.66337
-1.86302 106.343 17.139
-23.1158 116.911 -5.14987
1.4083 115.576 -6.47395
-27.9179 116.041 -1.95533
-2.53424 115.927 -6.47778
-6.22857 109.728 9.68271
3.97772 104.82 20.026
-28.3377 115.321 -0.0175396
-6.69919 109.292 10.9125
-1.8937 106.406 17.3061
7.69113 113.806 -2.90562
-26.951 116.486 -2.99211
-0.218901 105.6 19.1128
-25.7755 110.341 12.2195
10.4226 109.999 6.33092
-7.54534 116.152 -5.56039
-23.7231 117.159 -4.971
2.33928 105.063 20.2645
-0.600221 108.731 11.7516
9.49356 108.574 10.2558
-6.8326 109.081 12.168
-0.767725 106.139 18.3847
6.00048 114.266 -3.08164
-10.9616 115.498 -2.92834
-8.61752 115.879 -4.28309
3.0406 105.081 20.4215
-15.647 108.275 16.0104
-2.03449 116.138 -6.15618
-28.4238 115.197 1.24647
-28.3058 115.867 -0.434307
-15.7772 108.34 15.9577
-17.6406 108.463 16.0291
7.75969 114.112 -2.7497
10.2443 113.442 -1.4816
-22.125 117.444 -5.30793
-3.82321 116.717 -6.95924
-11.3309 115.611 -2.77443
1.35269 116.183 -6.44157
-26.0313 113.302 6.1709
-25.6292 111.088 11.6563
-0.285591 107.608 15.5783
-19.5027 108.762 16.376
-25.9753 113.363 6.25243
-28.2535 116.659 -1.52403
-4.78652 116.977 -6.68882
-20.3238 108.808 16.6676
-16.8549 117.02 -4.41397
9.35988 114.29 -2.58208
-25.4631 110.926 12.5071
-17.2492 117.263 -4.67968
-26.7085 112.626 8.96949
8.01776 114.992 -3.42986
-5.44544 110.941 9.29025
10.2325 109.96 8.93491
-6.10519 110.863 9.79747
-8.17672 109.175 14.4505
5.62268 115.298 -3.26276
8.02761 115.486 -4.17368
10.0343 112.231 3.64817
10.8258 111.133 6.24725
-8.57332 109.291 14.611
-21.6866 109.548 16.5191
9.50725 109.245 11.3589
-26.2736 114.59 4.84524
-26.0668 113.306 8.17882
-28.4547 116.68 0.25337
6.01702 106.948 17.9875
-25.4569 113.944 6.52848
-16.0082 117.532 -4.12759
-13.0321 116.873 -2.92246
-27.2624 117.844 -2.56944
0.319572 109.747 12.4229
-13.1367 109.335 16.142
-10.3711 109.563 15.1312
8.35027 115.971 -4.34674
8.73554 113.663 1.41749
-9.28451 109.692 14.8788
8.4683 115.59 -3.11695
-13.1421 117.175 -2.93061
1.01104 117.337 -5.9378
-12.6935 117.122 -2.78489
10.1376 112.079 5.48173
-7.76779 117.448 -4.46977
10.4492 111.582 6.7165
-0.193156 107.504 18.9206
-21.2819 110.129 16.3961
-25.0658 111.381 13.993
9.39328 109.293 12.9043
-18.4202 118.552 -4.85125
0.00344426 110.777 11.1312
-13.8567 117.625 -3.28026
-21.472 110.383 16.3059
0.498299 110.349 12.2554
0.773131 109.423 14.5426
-24.2276 119.156 -4.95092
-23.6722 110.818 15.8188
8.64512 114.093 1.57195
10.4188 111.604 7.45045
-2.50451 112.283 8.2135
3.59204 107.401 19.3552
-20.1643 110.542 16.0406
7.44252 108.313 16.4
-7.43319 117.905 -4.58486
-9.50546 110.226 15.0352
-22.3845 110.737 16.2617
-28.5791 117.681 0.193036
-25.9396 113.056 11.3497
-11.8559 117.552 -2.48498
-26.1706 113.444 10.4837
-21.6283 110.926 16.1583
-18.8488 119.197 -4.92713
-5.92451 112.155 10.3168
9.62141 112.676 6.14127
-0.397171 112.045 9.63973
-13.6321 110.388 16.3136
0.855283 108.112 19.2895
1.00752 109.259 16.433
-22.249 111.161 16.194
-8.03365 118.159 -3.78073
-19.8766 119.506 -4.8478
-13.6367 110.557 16.3054
-19.4869 119.52 -4.91822
-1.01498 112.694 8.61989
-24.7187 112.092 14.6476
-5.91611 112.271 10.8632
-27.5451 116.88 3.52885
-26.6583 116.299 4.85916
9.45225 112.813 6.75978
0.536182 111.746 11.1483
-20.6661 119.746 -4.73702
-8.56403 111.026 14.7212
-3.03045 119.092 -6.41961
-23.3594 120.143 -5.16199
-6.90973 118.714 -4.69803
0.856331 111.548 11.9151
-5.93399 112.304 11.4399
-7.33325 111.466 13.8752
-17.6538 111.521 15.7458
-17.6378 111.701 15.737
6.12141 109.185 17.7897
-4.34392 113.594 8.78932
-24.8623 113.029 14.1015
2.86697 118.673 -5.19204
0.994151 111.996 11.8222
-0.0963976 113.26 9.19071
-26.456 119.39 -1.03845
0.965111 110.337 16.3604
-24.6957 116.127 6.85343
9.01026 113.425 7.23856
-9.02793 118.807 -2.75204
7.79882 115.132 3.24676
1.18979 109.927 17.6433
7.95028 116.359 0.381484
-5.48235 113.577 9.95272
-14.3224 119.565 -3.29297
-3.14943 114.261 7.9178
8.15038 116.047 1.34477
-15.037 119.764 -3.49924
-12.3368 119.204 -2.53447
7.86426 115.394 3.20807
-17.5345 120.472 -4.61037
-20.4043 120.806 -4.85043
1.17723 112.595 11.5359
7.85032 116.578 0.413959
7.95959 118.528 -4.42779
-1.39419 120.016 -6.18672
8.39329 117.243 -1.09621
-17.6959 112.515 15.6468
-5.3224 113.945 9.77249
5.48468 109.781 18.1541
-15.5654 112.484 15.4128
8.47605 118.837 -4.96872
7.97742 118.773 -4.71071
8.49528 114.209 6.65542
-25.4892 114.592 12.1559
6.38889 118.606 -3.8847
8.43435 117.351 -1.14378
-3.64578 114.474 8.32344
-23.846 121.384 -4.94061
-2.53509 120.371 -6.29982
-0.318457 114.356 8.28931
-20.4068 121.159 -4.79395
-14.9837 112.629 15.6172
-4.55818 120.468 -5.73736
9.30463 117.192 -0.201815
-24.9306 115.56 10.3691
4.64159 110.097 18.576
-12.7108 120.003 -2.54615
7.83599 116.275 2.94312
11.6077 118.616 -3.53807
8.65177 119.404 -4.86118
-1.72531 115.176 7.70872
-14.1914 120.392 -2.89774
-17.8654 121.441 -4.80066
-25.1245 115.296 11.9109
-5.85757 113.545 12.6429
8.60851 117.826 -0.746738
-25.2411 115.115 12.5693
8.49446 119.562 -4.87202
-25.0156 115.491 11.6443
-24.5795 114.566 13.9631
8.92489 113.821 9.47296
-7.50767 120.261 -3.39272
-18.4169 121.77 -5.047
8.26053 115.39 5.82617
-8.01101 120.148 -2.94466
2.88934 119.785 -4.09632
-13.8008 113.061 16.0048
8.61995 114.099 9.19319
10.646 118.914 -3.15004
-4.97599 120.988 -5.34975
-21.5346 122.09 -4.92368
-21.8303 122.165 -5.04021
-7.91058 113.284 14.4565
-5.12467 114.782 10.25
5.05659 119.736 -3.97597
-23.7566 121.534 -2.97723
13.0899 116.727 2.06421
1.8457 110.901 18.7487
-19.3825 113.76 15.6674
-0.1051 120.837 -5.56024
8.06988 119.971 -4.90891
-8.60098 120.325 -2.5609
9.32731 116.583 3.40682
8.93071 118.584 -1.48929
4.18369 120.043 -4.21891
8.96092 115.633 5.9228
3.05965 120.074 -3.88033
1.22647 114.743 9.77282
-15.423 121.307 -3.2928
10.3239 112.995 12.5559
-24.7767 115.977 11.7864
-26.3795 119.128 4.29379
7.66996 117.36 2.29196
9.48507 115.881 5.63893
-26.3975 119.171 4.31227
9.51479 118.106 0.232799
2.54933 120.191 -3.64134
5.57099 120.107 -3.93568
-24.4314 116.839 9.966
9.845 116.241 4.97002
-15.1525 121.397 -3.1109
7.14405 111.899 16.4015
-4.66809 121.555 -5.36484
-11.8032 120.817 -2.11407
-17.4078 122.314 -4.72574
-23.245 122.448 -3.94948
9.41804 112.581 14.465
5.62682 111.855 17.1544
7.3383 120.744 -5.28865
8.98105 117.614 2.2378
6.54857 121.031 -5.7979
9.00288 114.367 10.3688
-23.0364 114.855 15.2489
-12.3753 121.065 -2.20556
-26.0268 120.887 0.910486
-14.9448 114.194 15.5277
-3.84737 121.88 -5.7081
-24.1741 118.453 6.82298
1.48543 112.174 17.6551
-20.9414 114.801 15.699
-12.3904 121.371 -2.27013
12.2507 117.473 2.78892
9.51852 118.839 -0.0628739
5.45202 121.099 -4.87288
4.19093 120.732 -3.69397
-16.1628 114.701 15.2207
-4.83788 115.746 10.4788
9.2921 120.283 -3.50503
-5.64177 114.911 12.7499
7.96247 120.834 -4.58203
9.86275 117.483 3.55237
12.5091 119.922 -2.86526
-15.8576 114.837 15.2758
-11.6964 114.3 15.8495
-6.90906 114.729 13.8894
-27.5502 121.781 0.229768
-19.6912 115.016 15.6749
11.5453 120.713 -4.21086
-17.9857 123.251 -4.89874
10.016 115.797 8.36708
3.34988 112.097 18.8887
-18.2592 115.229 15.2146
-13.7185 114.725 15.6708
7.7882 119.6 -0.538604
10.3725 116.404 6.95771
4.17185 112.38 18.1648
9.42453 119.56 -0.722465
10.0679 116.192 7.70633
-28.0111 122.526 -0.852698
12.3031 120.644 -3.75295
4.86385 121.865 -5.3745
11.2728 118.445 1.94759
11.3461 120.966 -4.31674
4.74068 121.898 -5.38028
9.09406 120.802 -3.45114
-28.7566 122.753 -1.05096
1.17678 116.828 8.21189
11.3034 121.092 -4.25678
-19.252 115.499 15.5264
-24.7643 122.609 -1.07646
2.89853 112.624 18.5945
-17.7203 123.663 -4.93279
8.08579 121.926 -5.32338
-5.99486 115.585 13.1628
-28.4786 123.276 -1.70614
-8.9717 114.991 15.2543
13.7267 120.648 -3.08236
-5.45316 115.776 12.7058
-1.06363 122.749 -5.50238
-6.57486 122.283 -3.29016
-29.1295 122.59 0.248158
9.91799 116.086 9.07529
16.8939 119.983 -1.93268
-27.5997 121.032 3.91572
-29.1022 122.67 0.120964
10.6473 116.838 7.19272
-5.88195 115.741 13.0891
10.7689 119.107 1.56028
-10.2156 122.068 -1.79563
9.31835 115.499 10.9168
-28.6333 123.482 -1.71344
-10.7827 115.173 15.6918
-22.9549 116.516 14.8812
-9.34684 115.284 15.377
-26.1089 122.156 1.53433
-24.0663 122.952 -0.697608
-16.8614 116.142 14.9679
-21.4547 124.434 -4.80567
10.0377 114.933 12.9066
-9.05897 115.43 15.3118
7.00405 122.763 -6.01126
7.40269 114.125 15.5716
2.71849 122.186 -3.54802
10.0405 115.058 12.845
3.87223 113.381 18.2688
2.08212 114.258 16.4654
-24.1814 119.828 7.72323
-22.7722 124.161 -3.32917
-29.4844 123.7 -0.842696
-0.612298 118.334 7.05845
-2.96982 118.2 7.94771
10.1436 119.292 2.81628
-23.6883 118.005 12.455
-22.9826 117.079 14.6319
-22.4985 124.418 -3.73261
1.26298 118.1 7.64533
10.1845 115.662 12.1423
9.71486 115.22 13.3801
7.42837 114.576 15.5321
-11.4271 116.05 15.4362
8.89409 114.777 14.8219
-26.0985 122.8 1.51713
-17.4943 116.774 14.9479
15.4722 117.94 5.84571
-23.6899 118.056 13.0935
8.52089 121.277 -1.04927
2.90923 122.829 -3.82485
-14.2834 116.587 15.0287
-2.18859 123.848 -5.33562
8.26382 114.87 15.1164
-1.6099 123.818 -5.29075
15.8726 121.469 -2.73709
9.76585 120.002 2.1631
9.02532 122.014 -2.70717
-17.7419 124.882 -4.69982
8.81169 123.21 -5.5643
-25.2444 123.746 -0.424871
-12.0692 123.662 -2.64854
-9.30563 123.076 -1.68466
-18.2114 125.129 -5.05002
9.80045 116.362 11.4983
-25.6937 124.513 -2.06706
-23.9639 124.051 -1.00273
-0.476298 119.051 7.00495
-5.54917 117.024 13.0371
9.99553 119.95 2.83193
8.71355 121.571 -0.960341
2.86789 117.328 10.7477
10.199 121.25 -0.373188
-25.893 121.29 6.42156
-25.6514 121.227 6.63558
10.4346 120.768 0.934567
11.1049 118.868 5.60311
-5.18825 117.241 12.7551
-30.5964 124.02 0.794005
8.97483 122.495 -2.907
16.5349 121.526 -1.71353
9.88203 116.728 11.5165
-21.111 118.013 14.2142
20.7268 120.783 -0.619863
1.26331 119.056 7.40137
10.0796 116.627 11.8
10.838 119.66 4.15388
9.05535 122.74 -3.17922
7.02148 124.129 -6.14668
10.2567 118.177 8.08919
16.1652 121.8 -2.05783
10.804 119.775 4.11395
-30.6977 124.792 -0.489335
-4.94168 117.604 12.6045
12.3001 122.838 -3.69146
-23.6599 119.092 12.5185
19.6223 121.268 -1.1161
-27.4769 125.159 -1.85626
4.84752 124.264 -5.72219
-20.3109 125.92 -5.00478
-29.6107 125.174 -1.21605
-6.93978 123.975 -2.47858
-14.149 124.762 -3.06849
-23.9061 125.042 -1.86617
8.50422 124.251 -5.95353
12.1094 123.052 -3.63296
19.5651 121.469 -1.09091
10.8693 119.497 5.47823
-31.2054 124.572 0.880358
9.51026 123.625 -4.35551
-10.8209 124.328 -2.17022
9.9967 120.573 3.28149
-17.5133 117.996 14.9645
-25.7527 124.149 1.20836
-20.2211 118.493 14.2719
-26.5502 124.262 1.0929
0.73879 119.956 6.82378
-4.91201 118.056 12.637
-5.73623 117.865 13.2943
-24.5071 124.635 0.0329931
-7.02157 117.635 14.2324
-23.4948 119.228 13.4187
-24.4853 124.03 1.67373
-14.779 118.069 14.6917
-25.9986 122.27 6.35195
-14.9003 125.498 -3.73553
11.5638 119.749 5.58132
-23.6408 119.765 12.2352
-23.1653 119.095 13.851
2.41916 124.051 -3.35808
-25.6119 124.459 0.981977
-29.1625 125.694 -1.30623
-25.3926 122.216 6.66236
-29.3284 124.452 1.90826
-29.3352 124.468 1.93588
-14.1944 125.53 -3.54669
-25.5598 125.852 -2.04527
23.2337 120.9 1.04966
-24.3392 124.746 0.565084
-22.199 126.077 -3.12134
-21.0007 126.33 -3.96709
-25.0748 125.096 -0.110149
-18.2864 118.51 15.0559
-4.15882 118.972 11.3179
-24.3695 125.18 -0.307206
6.5113 116.398 15.7232
-11.013 125.004 -2.3492
3.36809 118.861 10.2889
-32.0263 124.687 2.51247
-23.2225 125.053 -0.0352181
3.08012 119.334 9.23145
-24.9503 125.142 0.171614
8.23119 123.433 -1.75985
15.9095 122.809 -1.64975
-21.4851 126.059 -2.64362
9.25336 122.569 0.254983
13.2628 119.575 6.97162
2.74963 116.486 16.7215
-26.7567 122.977 6.14074
9.65437 117.923 11.8279
2.36662 116.991 15.5551
8.29755 123.701 -2.27287
3.78919 116.136 17.4423
-22.919 126.104 -2.29692
10.0509 121.504 2.94216
-0.383022 125.342 -4.55152
-10.0237 118.123 15.2755
-23.2921 120.88 11.0191
10.0822 121.657 2.75066
9.00911 124.207 -3.39388
2.56811 117.837 13.8412
-8.31197 124.882 -1.53935
14.8778 119.789 6.76656
9.7671 122.879 0.118711
-23.987 125.204 0.752741
-24.2891 121.815 9.27344
-25.7542 124.877 1.95967
-24.9819 124.994 1.62322
10.0441 122.694 0.727189
-24.9672 122.312 8.52053
10.5946 120.382 6.67421
15.4763 119.994 6.76141
-10.8051 125.583 -2.16936
-17.9662 119.316 14.8503
17.1933 120.123 6.18291
-23.765 125.513 0.560886
-22.3404 125.694 -0.109528
-22.7627 126.247 -1.3626
9.25709 122.415 2.1168
12.3744 120.241 6.94527
-23.1171 120.625 12.7549
-31.7642 125.672 1.83159
2.48865 120.801 7.48079
20.0965 120.246 5.55317
-22.6269 120.34 13.4547
16.0632 123.237 -1.10243
-28.1853 124.798 3.45808
14.5249 123.946 -2.49185
9.11709 124.548 -2.95414
9.08211 122.67 1.73799
9.43508 119.55 9.5618
-24.7309 125.592 1.02638
9.85365 124.053 -1.68495
-22.5458 126.415 -1.41517
-22.1472 126.954 -2.82353
14.2345 124.145 -2.70329
-1.53719 126.138 -4.6734
10.4705 122.255 2.76652
-26.7543 125.963 0.642967
9.28833 118.532 12.3683
9.37738 124.53 -2.57706
-26.2994 125.226 2.52088
-5.32743 119.369 13.1415
-25.5663 123.258 7.3861
-26.8962 125.286 2.69147
-27.2724 124.307 5.24331
-26.6147 126.119 0.659858
-24.7716 122.64 9.01229
-19.9432 127.514 -3.99113
-32.3953 126.237 1.66397
-22.0458 126.554 -1.00987
9.72438 125.814 -5.16648
2.53848 121.356 7.31373
-2.11735 121.455 7.98042
14.2756 124.4 -2.43946
21.1792 121.834 2.66562
-22.5496 126.624 -0.907886
-2.06233 121.529 7.93052
23.1385 122.273 1.31857
-26.8906 124.435 5.49065
-12.1617 119.535 14.9255
5.51333 117.709 16.1499
-27.4823 125.444 3.17255
11.9281 120.832 7.19383
-12.8756 127.105 -3.71347
-2.56938 121.186 9.18012
22.2971 122.075 2.28035
3.24867 117.917 16.2788
-26.221 126.367 0.812107
18.9519 120.032 8.11809
-26.8879 125.942 2.14074
13.0212 124.825 -2.56372
2.5123 121.753 7.12946
-3.74335 120.528 11.3702
4.36527 126.781 -5.73724
17.2787 120.865 6.61851
3.3092 119.959 11.5417
-24.5736 122.948 9.40489
-34.791 125.546 4.89476
7.19212 118.11 15.4711
21.5526 122.105 2.79699
-23.3364 121.706 12.3282
23.3173 122.219 2.2145
-24.2264 127.523 -1.9533
-3.34308 120.846 10.8396
-2.83385 121.142 10.0286
-32.0801 127.544 -0.302442
8.27884 123.807 1.4084
-14.2586 127.849 -4.38375
22.6108 123.068 0.578518
-2.54479 126.99 -4.41538
-9.02118 126.224 -1.26655
-33.7376 126.776 2.0533
-22.673 127.343 -1.45752
9.4522 120.286 10.0354
-26.0357 127.575 -1.39206
13.7948 124.947 -2.39038
-34.5143 125.804 4.65274
11.0222 123.055 2.88109
18.7808 120.602 7.54445
22.4955 122.392 2.40739
9.77589 120.494 9.66665
-25.1691 123.58 8.67344
4.06355 118.117 16.7932
-21.2503 128.002 -3.01386
7.94005 127.016 -6.04668
2.57865 119.094 14.7183
-11.7617 120.122 14.9196
-25.4594 126.185 2.46612
-25.041 127.872 -1.80156
22.8779 123.029 1.17738
-31.0122 126.851 1.88599
-22.5189 127.78 -2.03342
-4.16494 120.632 12.4557
-9.11887 126.541 -1.32639
-27.8205 126.08 3.37698
-3.85598 120.822 11.9379
9.6911 126.948 -5.74113
8.97995 120.333 10.9322
2.60524 119.315 14.6905
10.8932 122.396 5.44105
-32.5111 127.255 1.58625
-27.1972 126.35 2.84376
22.3208 123.601 0.313294
8.08332 124.071 1.85758
11.3598 122.997 3.95973
3.86961 121.757 8.48041
-28.3591 126.281 3.37435
-23.2291 122.813 11.0668
8.12028 124.789 0.387051
-23.0415 122.297 12.5399
-23.5533 123.137 10.5726
14.1324 121.393 7.78509
-3.78853 127.332 -3.45971
-23.0979 122.622 11.96
-22.2874 122.038 13.2829
-11.1782 120.533 14.9491
20.9394 121.802 5.72906
9.86215 127.075 -5.29755
18.1267 121.185 7.855
-26.0142 127.352 0.87418
6.29185 127.625 -5.88307
-25.8924 125.493 5.54245
-28.5157 126.977 2.34479
-12.603 120.774 14.7937
10.1105 126.145 -2.88308
-17.1034 129.236 -5.36761
-23.1627 122.947 11.4612
-9.32932 127.083 -1.4735
-28.8037 126.572 3.64101
-26.2359 127.379 1.1633
-2.06948 127.744 -4.26675
-27.4506 126.621 3.35113
-23.776 128.269 -1.36005
9.69906 125.63 -1.08646
3.07356 120.636 12.686
11.5686 124.055 2.61054
-24.9397 124.201 9.20417
-27.3935 128.648 -1.37674
-28.1002 128.656 -1.22553
10.3132 122.905 5.90994
-5.82182 127.311 -1.97683
10.3067 126.62 -3.2982
-2.55449 127.903 -4.02866
11.3999 124.297 2.31318
-26.2245 127.697 0.995548
5.09186 128.035 -5.78259
9.65417 126.187 -2.03877
-5.44427 127.448 -2.15313
-31.2338 127.584 2.51729
9.62999 126.019 -1.32685
9.16365 126.341 -2.04148
-16.7245 130.069 -6.40685
-20.8939 128.837 -2.53757
-34.2577 126.609 5.55564
4.05394 121.984 9.82262
10.5084 125.139 0.821513
9.61353 121.255 10.7511
13.1742 126.022 -1.71806
11.6069 122.42 7.59019
-13.7662 129.262 -4.63184
0.855716 127.545 -3.08293
-35.4673 127.384 4.22202
9.57031 125.986 -0.826944
21.095 124.629 0.401114
15.437 122.082 7.86231
1.1252 123.833 6.24118
21.8692 124.56 0.497532
-10.9089 121.536 14.3074
11.1338 124.716 2.20791
16.0141 122.138 7.72504
9.9178 126.597 -2.07529
-17.0826 122.189 14.0642
-33.2198 127.984 2.69079
9.36058 126.982 -2.86751
12.0928 122.602 7.6325
-18.5791 129.759 -4.36489
1.65962 124.006 6.14029
-33.1927 127.375 4.42301
10.3493 125.482 0.945896
-8.43453 127.774 -1.20164
22.2542 122.96 5.05972
13.1723 122.438 8.12498
20.1256 122.649 6.32817
3.01694 121.229 13.1178
-1.859 128.471 -4.00072
-24.4448 125.42 8.00563
5.98216 120.044 15.7456
21.1148 122.742 6.16021
2.86171 128.379 -4.41787
18.5133 121.66 9.42179
-10.977 122.078 13.9856
11.4172 123.049 7.34584
-23.7246 124.375 10.7434
-16.9499 129.99 -4.4733
9.22668 121.719 11.348
11.6415 123.056 7.59682
-26.6475 129.925 -2.2404
11.9001 123.381 6.75354
-19.5086 123.23 13.1005
-16.6268 130.51 -5.5878
3.82189 122.309 11.0256
-20.7 123.162 13.5721
-21.6878 128.784 -0.142851
10.3973 126.405 -0.291299
-22.7901 124.127 11.7145
-15.9003 122.597 14.2411
-33.4534 127.632 5.11657
7.92734 121.327 13.0328
-29.0245 129.815 -1.10117
-26.5525 126.876 5.78447
10.7226 124.967 3.47854
7.804 126.669 -0.173082
-30.4854 129.778 -0.581828
-4.46677 128.583 -2.52522
-22.0499 129.14 -0.48601
6.68894 129.246 -6.08844
-26.4392 126.972 5.90884
-30.4581 127.882 4.66622
10.4338 125.116 3.84717
-33.6754 127.713 5.77497
-1.9813 129.127 -3.74295
-21.8296 129.213 -0.130188
-11.4833 129.668 -3.17796
-21.0995 129.399 -0.672111
10.72 126.617 0.23567
0.0948725 124.933 6.46427
-19.3542 123.839 12.8847
7.90274 125.084 4.61769
-26.4168 127.511 5.09713
-21.5997 124.015 12.9587
-20.4369 129.922 -1.97944
-25.5313 127.125 5.98143
10.598 126.796 -0.0262079
-22.3029 129.333 -0.0631533
21.5129 123.743 5.5656
4.50185 124.058 8.14323
12.118 123.542 8.03946
-36.888 127.699 6.98502
10.2048 128.387 -3.63492
4.09047 121.257 15.3357
12.876 127.411 -1.63394
-26.8017 130.778 -2.44992
-4.78869 128.991 -2.17242
11.4653 124.201 6.7515
0.257389 125.208 6.38314
-12.0738 123.254 13.6536
10.1512 126.311 1.9183
-35.5511 128.211 5.92114
-33.5064 128.111 5.85089
7.91011 129.805 -6.18789
13.0179 123.568 8.39047
-13.8742 123.322 14.1396
11.1955 124.46 6.54739
11.6689 123.272 9.44315
-25.374 127.384 6.37437
-19.9371 124.297 13.0654
10.0148 128.275 -2.49629
-18.8506 130.957 -3.68463
-2.33275 129.628 -3.45834
18.0955 122.869 9.52398
-13.5089 131.625 -6.28389
12.4516 123.964 7.9763
4.70473 124.495 8.12478
4.15069 130.009 -5.47619
9.00325 128.277 -2.01582
11.4057 124.691 6.50393
-29.6099 128.382 5.10944
-32.5966 128.512 5.35444
12.5493 128.195 -2.38524
9.07115 128.464 -2.33599
17.4352 123.359 8.86133
-34.1979 129.54 3.30033
9.00501 125.207 5.93131
-0.517769 129.638 -3.29472
-21.3867 130.716 -1.9332
-25.8058 128.476 4.6549
-36.318 128.382 6.92341
9.9362 128.324 -1.70981
11.9993 124.234 8.10904
-14.7551 124.156 13.4171
2.21285 125.949 5.73962
-23.9594 131.071 -1.96441
-5.34423 123.636 13.0434
-23.4525 130.685 -0.934339
9.44547 127.377 1.10016
5.37261 122.026 15.2272
-20.2246 130.81 -1.78333
9.81036 125.389 6.05322
-6.89415 123.761 13.3568
-8.93882 124.3 12.4347
-2.75453 130.095 -3.13312
-17.8551 131.585 -3.9644
21.1911 126.5 1.32861
12.5006 124.521 7.97367
-28.8105 131.547 -1.69642
7.28108 127.337 1.95553
2.59276 130.329 -4.60596
-20.9199 125.231 12.5732
-16.5226 124.854 12.6995
10.6474 125.492 5.96822
12.7379 128.733 -2.4882
3.51294 126.107 5.81161
7.47963 122.345 14.487
3.53361 123.448 12.4954
-29.7683 128.84 5.37783
-34.267 130.157 2.96113
9.27598 125.968 5.22327
-30.6078 128.839 5.64297
10.9416 125.551 5.9887
10.3828 129.939 -4.80597
-2.81987 124.565 11.1219
2.90618 130.661 -5.16166
-4.20044 124.205 12.3434
6.77553 130.705 -5.90249
3.64636 123.095 13.6858
-21.2503 130.936 -1.03778
-17.2253 131.763 -3.82016
7.40912 127.369 2.62885
-20.8674 125.702 12.2914
8.02808 127.341 2.84856
-34.3865 130.599 2.78761
6.1688 122.617 14.9971
-19.0779 131.816 -3.01644
-25.0953 132.275 -2.96662
11.1951 127.512 2.08686
-31.8992 128.996 6.5765
-34.77 130.575 3.18694
-33.9907 128.845 7.4318
-2.39414 130.656 -3.07131
-34.5404 130.738 2.84961
-25.6526 128.714 6.26475
-2.79041 130.685 -2.91027
9.66744 127.517 2.62772
9.58209 128.706 -0.291723
21.3774 125.783 4.79053
-16.0269 132.455 -4.65269
-10.4221 131.393 -3.06081
-26.6746 132.435 -2.57081
17.5215 124.32 9.45468
10.1858 130.125 -3.55614
11.32 129.382 -1.89578
8.48827 123.693 12.8286
-22.5689 127.153 10.1673
-34.0877 131.284 2.10207
11.2124 124.945 9.33998
2.05519 131.016 -3.97891
-30.2548 131.994 -0.247083
-2.62515 125.427 10.8922
-0.0932323 126.518 7.69793
8.13434 126.972 5.01473
4.58757 126.722 6.43552
0.729282 126.907 6.71286
21.7533 126.209 4.46299
11.8077 129.483 -1.81056
7.85127 123.571 13.7436
7.91077 127.474 4.02477
4.57586 126.824 6.35936
12.2049 128.857 -0.14991
-1.42689 125.89 9.8503
8.88878 124.148 12.247
-16.8626 126.174 12.0912
11.1583 129.901 -2.51306
9.02323 129.723 -1.66278
5.49502 123.44 14.7175
4.44342 124.962 11.1267
8.47654 123.945 12.9426
22.1309 127.276 2.0576
-18.5513 132.62 -3.4554
2.76772 127.555 5.13394
7.74645 131.522 -5.65619
-8.60003 125.917 11.4899
9.92817 126.957 5.44874
8.86106 127.071 5.39594
10.5551 128.781 0.818195
-31.883 129.344 7.5095
-34.7114 131.153 3.53824
-17.2655 126.384 12.1409
10.0827 131.592 -6.00344
-20.8911 131.964 -0.984999
8.91427 129.38 -0.133332
18.3999 128.25 0.93262
-20.5631 132.062 -1.16004
13.4324 125.349 9.14459
10.007 125.083 10.5346
-27.2341 129.48 6.66805
-12.4708 133.47 -6.05354
-6.3287 125.35 13.0263
-25.7921 133.052 -2.45745
12.667 125.981 7.8717
18.2628 125.859 7.11447
18.1152 125.579 7.8472
-20.2819 132.255 -1.43378
12.8057 130.374 -2.93594
-4.56181 131.244 -1.80613
0.231673 127.133 7.60544
-23.4465 129.076 7.30823
-8.19571 131.47 -1.53548
5.41423 126.244 8.91765
-15.5323 133.297 -4.66698
17.3817 128.864 0.135409
11.4475 125.915 8.63395
6.11358 124.035 14.3432
4.56059 125.431 11.1663
12.7331 126.481 7.02375
-23.3128 129.314 6.8162
11.063 128.271 2.89078
9.93727 131.914 -5.94569
10.3775 125.956 8.83863
-22.5861 127.967 10.1594
9.2278 129.534 0.267298
12.4267 126.071 8.37231
-29.3981 129.781 7.11658
9.61235 125.572 10.2385
5.38444 132.134 -5.31013
-16.6838 126.901 11.9247
-21.2209 132.804 -1.858
5.01659 127.449 6.53424
3.11327 128.206 5.01351
10.0363 128.395 3.22795
2.25138 131.869 -3.84382
-18.8512 133.066 -2.76255
9.58789 128.501 3.23259
-3.45243 126.039 11.8607
-21.1526 128.071 10.1754
-15.7283 133.413 -4.16287
-22.805 129.435 7.19627
-20.7882 132.95 -1.85317
17.9209 125.251 9.99788
8.89489 132.342 -5.82084
6.43504 124.801 13.4879
17.7144 125.329 10.0494
-20.4349 127.76 11.2484
-3.98981 131.798 -1.91185
-21.9055 129.751 6.68457
0.247138 127.593 7.89235
-25.3518 129.878 7.06023
-24.5179 130.071 6.42114
-20.7214 129.824 6.33826
-18.9183 127.295 12.3329
6.08556 124.881 13.6793
-32.3346 130.257 7.64914
-10.8635 126.818 12.1481
11.4097 130.787 -1.96277
-5.53452 131.657 -0.901546
-31.1954 130.19 7.62818
-24.8841 130.062 6.75613
21.8791 128.278 2.32485
-6.08859 131.692 -0.860664
8.86721 128.033 5.43695
-23.849 130.167 6.38325
6.15379 125.168 13.211
17.2181 125.603 10.0325
-13.8394 127.136 12.1383
-23.015 133.583 -2.13637
-22.1487 133.456 -1.87378
7.95976 126.076 10.8074
-24.962 133.858 -2.3134
5.36103 132.729 -5.2309
21.7371 128.519 2.17747
-35.1951 130.994 6.83316
11.5071 126.745 8.56558
-20.2743 133.193 -1.44688
-28.4613 130.222 7.60671
9.00923 130.807 -0.920412
7.25546 126.109 11.1527
-7.47864 127.094 11.4934
5.5088 125.228 13.7306
-19.2781 129.609 7.56046
-19.3691 129.888 6.91096
-27.2596 130.673 6.47359
-19.7951 128.63 10.1559
-5.39663 131.96 -0.84878
3.66128 133.078 -5.33036
9.36555 128.785 4.30569
-10.3517 127.296 11.7673
-21.2635 133.633 -1.93292
-11.2532 127.181 12.2968
10.385 129.863 1.50239
7.94285 132.927 -5.66377
-28.3088 133.406 0.0239886
19.352 127.347 6.09304
6.15661 125.818 12.4728
22.0912 128.408 2.99364
-9.77874 133.219 -2.93272
11.4007 129.787 1.62467
-23.237 130.744 5.99224
10.7409 131.371 -1.92789
-23.8969 130.593 6.60874
-24.169 130.583 6.73118
-5.08659 132.21 -0.946017
11.6355 132.509 -4.85869
10.4521 130.872 -0.530786
10.4657 130.588 0.206496
21.7574 128.83 2.51578
11.0629 129.874 2.00946
4.27317 126.4 11.9953
4.19869 129.159 5.21012
-27.4656 133.827 -0.334396
-9.70049 133.59 -3.0531
-28.1978 130.715 7.64063
6.32073 133.324 -5.32947
-34.4785 131.53 6.91136
5.86696 128.018 8.05307
-21.7784 134.155 -1.93509
11.3714 127.779 7.7103
-9.31046 133.494 -2.6044
-5.29419 127.332 12.0082
4.80212 125.974 13.4899
4.37403 133.613 -5.45741
-13.1037 127.902 12.1062
-8.1501 128.163 10.5211
6.03586 126.485 12.0482
-26.666 131.158 6.63017
20.0034 127.947 5.77761
-16.6702 128.388 11.6455
-9.22379 133.615 -2.59564
-20.3049 133.505 -0.209797
-26.8837 131.014 7.25898
-25.2815 130.76 7.59051
12.6651 128.201 6.78
22.5151 128.455 4.28056
-19.673 130.824 6.46872
-10.2998 134.678 -4.68649
13.1208 128.144 7.16145
17.0511 130.706 0.0577687
10.5121 127.459 9.41613
-7.84411 128.383 10.6563
-28.4806 134.089 0.459522
12.5925 132.273 -2.80474
-30.0878 131.272 7.82309
-22.6058 131.25 6.50704
15.6705 131.427 -1.18718
-14.1607 128.383 12.0888
-30.6544 131.392 7.7925
-31.6735 131.487 7.75553
-20.7728 134.699 -2.24706
-17.8179 134.463 -2.20017
19.3057 129.707 2.66628
6.01432 128.733 7.66217
-3.77161 133.045 -1.17215
-18.4236 129.046 11.5772
-33.2171 131.9 7.27879
11.3142 128.646 6.99856
-8.39554 128.967 9.95591
-1.09532 133.221 -2.02916
-26.1499 131.59 6.81289
-32.6848 131.898 7.50051
14.6458 132.36 -2.56658
-26.5152 134.68 -0.534043
7.48101 127.747 10.428
-9.57189 134.919 -4.16319
10.0033 132.046 -0.67189
10.6972 128.416 8.35041
-33.9466 133.029 5.33735
-17.9821 131.016 7.39235
16.1542 131.79 -0.890975
-11.3588 128.88 11.6315
-20.8461 135.251 -2.39453
-1.74357 133.453 -1.51321
-25.2552 131.54 7.77984
7.67164 134.453 -5.6951
20.5508 130.045 2.86447
-16.3995 130.471 8.87977
-10.4423 129.177 11.0557
-8.76853 134.584 -2.73633
13.6118 132.495 -1.77656
12.2505 132.244 -0.807204
-8.83044 129.743 9.48146
-15.6697 130.277 9.45319
-25.4626 135.258 -1.09113
-7.9293 129.459 10.0377
16.8216 127.626 9.9201
-17.3135 130.028 10.4509
-18.0162 130.578 9.26525
-19.0818 131.715 6.63436
3.31452 130.745 4.8068
11.6187 132.543 -1.25073
-11.8386 136.237 -5.98483
-32.5874 132.556 7.2107
-15.4916 130.242 9.77786
-16.9734 129.93 10.8404
-4.8106 133.676 -0.751616
3.43654 134.752 -4.97637
-11.6959 129.259 11.6093
-15.6109 135.631 -3.45897
1.21581 130.153 7.02441
-18.6144 135.034 -1.26863
18.4023 128.233 8.67619
-4.51031 128.856 11.4857
-16.5515 135.512 -2.7654
-29.7971 132.605 7.00402
10.8757 132.598 -0.699141
-7.19019 134.401 -1.6889
5.98478 128.141 11.4222
-12.1262 129.42 11.6761
8.70776 128.45 10.1979
4.81754 128.355 11.25
18.592 128.485 8.33313
-14.1033 130.51 9.51805
5.28036 130.783 5.2679
3.46638 131.165 4.67646
-13.2849 130.075 10.6225
-10.5975 129.794 10.8329
-19.7178 135.426 -1.44465
-2.90943 134.004 -1.07892
1.51758 130.694 6.50328
-23.5689 132.331 7.18448
15.6302 128.378 9.59972
18.7032 131.35 1.66133
-17.2261 135.704 -2.22576
-1.62001 134.186 -1.39068
-18.8956 135.405 -1.11401
-2.90388 134.169 -1.06514
-30.5918 133.032 7.09964
-4.1331 134.172 -0.752369
14.6443 133.438 -2.48326
-13.2295 130.489 10.3438
-12.2194 130.067 11.2287
-19.7607 135.267 -0.290929
-24.4281 132.204 8.34415
-21.6526 136.321 -2.43665
-10.706 130.851 9.14119
-17.6101 132.351 6.73786
-22.2295 136.4 -2.47252
-16.2111 131.714 8.20997
-26.6935 132.642 7.9696
-20.3878 136.043 -1.69448
-26.7195 132.679 7.89421
-18.1814 135.867 -1.65982
-33.1778 134.13 5.69764
8.60639 135.664 -6.04942
-21.0131 132.72 6.9701
18.8995 131.427 2.63366
-14.5928 131.787 8.10309
11.2299 135.222 -5.34849
11.3561 130.042 7.56051
10.1594 135.753 -6.30103
4.89175 129.099 11.2914
7.56387 129.111 10.8065
5.13436 129.696 9.87154
-32.7225 133.988 6.38528
15.5901 133.634 -1.85653
-33.1126 134.613 5.22008
12.6923 133.467 -0.594898
-10.5336 137.311 -5.76895
5.34147 129.909 9.69244
-6.70961 135.358 -1.5537
-12.558 130.938 10.5773
-22.6569 133.352 6.63534
12.602 134.76 -3.51685
11.7588 135.099 -4.18387
-19.9295 136.381 -1.35503
-15.2263 132.473 7.53479
-31.3686 135.54 3.23848
-31.2369 135.611 3.13362
-5.78915 130.527 10.991
21.3062 131.276 3.98259
14.1884 134.232 -2.02708
-12.292 137.466 -5.05851
-19.3253 136.09 -0.294231
-32.401 135.352 4.07095
-10.6211 131.939 8.45813
-18.4764 136.307 -0.929657
-7.17205 135.931 -2.13117
-16.1093 133.29 6.1504
-17.8143 136.633 -1.85705
-7.5072 136.135 -2.5105
-27.8229 136.323 0.91579
-12.2027 137.537 -5.0521
-27.3137 136.408 0.646656
-25.2917 133.358 7.93267
-32.7231 135.39 4.33336
14.5989 129.889 9.35228
-5.45525 130.736 11.1053
15.2062 130.004 9.02592
6.86921 136.503 -5.50484
0.830474 131.453 8.25013
11.5485 134.426 -1.13868
-6.76761 136.172 -1.97073
4.30084 132.814 4.32586
8.91226 136.697 -6.19045
11.2209 135.783 -4.28164
-8.46513 137.014 -3.60481
-15.9617 137.41 -2.86886
-13.2319 132.535 8.8295
-29.3493 135.095 5.55864
-25.6449 137.456 -0.991169
-31.4426 134.932 6.4023
13.2232 130.59 8.75686
9.92013 136.759 -5.97811
-25.9429 137.276 -0.359668
19.4866 131.102 6.4885
-9.059 132.289 9.01631
-9.30203 138.127 -5.41595
20.8276 132.097 3.91961
-27.6232 136.9 1.16809
-29.6072 136.694 2.05942
4.22142 137.125 -5.41998
-11.4224 133.255 7.20332
12.1869 131.058 8.19836
7.48574 130.596 10.2892
-18.9997 134.069 6.71545
15.6914 130.687 8.64015
-14.6341 138.12 -4.13373
2.40014 136.804 -4.07768
19.2651 133.088 1.99056
-20.1664 134.159 6.86165
6.50881 137.117 -5.56269
-6.44904 136.725 -2.06554
-3.65628 136.053 -0.780589
-32.1445 136.118 4.51658
6.49569 131.687 8.34976
7.09189 130.773 10.6709
-11.8904 138.434 -4.78528
-13.1962 133.326 8.33284
16.7377 130.921 8.64767
-26.5884 135.328 5.93976
11.5009 131.6 8.1733
-0.169724 132.239 8.87196
14.452 131.213 8.70032
-26.0014 137.942 -0.267885
-5.47884 136.857 -1.3341
6.13857 131.185 10.6554
-12.6329 134.232 6.69896
2.21742 133.392 6.00964
-15.0204 138.562 -3.52252
-24.4906 134.956 7.29659
17.6504 131.242 8.6138
-13.0377 134.182 7.21676
-20.5548 137.991 -0.847523
-21.0566 138.117 -1.03918
-8.2689 138.31 -3.92943
13.2937 131.496 9.00253
-15.1953 138.644 -3.39651
-6.34885 137.661 -2.55759
-8.56116 138.713 -4.75927
-4.82987 132.333 10.4689
-28.7275 137.531 2.12963
-23.7419 138.486 -1.155
4.43102 138.044 -5.34085
12.756 136.268 -2.40173
20.4488 132.165 6.39569
20.0876 132.145 6.51993
19.3063 134.114 1.86699
-12.8194 135.233 5.18083
-20.1181 138.16 -0.726484
-13.2103 139.195 -4.61247
5.31082 138.211 -5.67129
13.9445 131.76 8.78713
8.23134 132.061 9.30791
-22.6208 135.584 6.55682
15.2034 131.955 8.49802
-31.2788 136.779 5.30496
-14.3012 135.611 5.01762
19.362 132.25 7.14233
-26.7869 138.075 1.38514
1.50194 133.501 7.45981
5.93281 138.493 -5.69015
14.5569 136.092 -1.33276
2.82912 134.27 5.45725
16.7596 131.965 8.58535
6.88724 133.257 7.42877
-23.5998 135.927 6.57022
6.07644 134.713 4.05148
-12.8014 136.023 4.40851
11.9508 135.906 0.020373
20.3315 133.801 3.81991
1.86265 134.405 5.991
-23.0088 139.029 -0.807017
3.98998 134.627 5.12951
-6.58483 138.64 -2.83411
-23.1141 139.06 -0.730685
-5.31866 133.406 9.99129
11.1626 132.722 8.63527
21.2957 132.968 6.15766
-21.2654 136.048 6.56399
-5.34504 138.215 -1.82765
19.5754 134.526 2.67833
-11.883 135.858 5.36758
2.24619 138.393 -3.60446
10.2759 138.503 -5.39869
-28.4614 137.389 4.7525
-14.7627 136.338 4.7987
13.9621 132.75 8.36422
-13.6182 136.442 4.43399
-4.47511 137.952 -1.05533
-10.3095 135.349 6.63448
-25.2373 136.991 5.43123
5.4934 135.318 3.81823
12.1295 136.611 -0.536896
-7.25981 139.239 -3.3291
-14.4373 136.63 4.57007
-29.0948 138.468 2.87239
-2.12945 137.984 -1.01283
-2.42017 137.994 -0.97256
7.17874 132.979 9.71155
-2.31529 133.838 9.44964
4.26804 135.104 5.04812
-8.81513 140.28 -5.2953
7.28104 133.129 9.51258
6.37693 133.698 8.31035
5.96888 135.547 3.95688
-30.5836 138.011 4.89649
-20.8736 139.647 -0.962952
-29.1863 138.123 4.55062
-23.6945 137.272 5.70321
12.286 137.898 -2.67578
6.51875 134.137 7.90432
6.77606 135.605 4.2158
11.1625 138.726 -4.38963
18.7057 136.074 0.867456
-25.8701 137.6 5.55695
-22.6277 139.689 -0.247758
6.76232 134.389 7.40209
-11.8624 140.821 -5.0612
-8.75692 140.662 -5.24244
4.46515 139.581 -4.94946
3.24048 139.526 -4.35035
20.5855 134.603 4.65039
7.67729 133.794 9.12745
-1.40366 138.602 -1.12283
-4.46094 134.779 9.06445
-7.71421 140.594 -4.80353
-11.1894 141.009 -5.16489
2.95056 139.501 -4.07053
20.016 134.873 4.2382
-26.455 139.775 0.929653
13.3638 137.294 -0.402617
-7.62445 136.024 6.81498
6.36997 134.085 9.19667
-18.1809 139.79 -0.272546
-5.75315 139.69 -2.38017
8.0581 134.01 9.16522
-7.69414 140.851 -4.81388
4.46087 136.33 4.23028
-15.0676 137.425 5.28394
12.1844 138.249 -1.91322
16.1225 133.948 8.17296
-2.77068 134.812 9.62039
-9.43428 136.834 5.88015
-16.6553 140.348 -1.42065
-10.1297 141.43 -5.35272
-0.414639 139.082 -1.34509
-16.0673 140.852 -2.7081
0.667899 135.459 7.57169
10.2202 134.154 9.04359
11.111 134.344 8.42405
7.76811 136.136 4.63231
-15.1966 141.013 -3.16428
18.6334 134.036 7.83495
11.8073 137.625 0.232407
-16.6617 140.561 -1.44204
0.279376 135.385 8.35702
-27.1126 138.606 5.54057
-16.2757 140.916 -2.23046
6.58929 135.247 7.60431
11.923 137.954 -0.117801
7.7672 136.319 4.86723
-26.9524 140.045 2.20535
-21.9053 137.914 6.56755
-14.8388 141.294 -3.09363
-18.0894 140.481 -0.444201
14.9662 138.101 -0.747327
3.29101 136.737 4.95765
-3.31086 135.707 8.85575
12.0407 138.689 -1.48716
-19.1874 137.54 7.42372
3.34208 136.897 4.80331
1.36865 136.207 6.89773
-14.5435 138.157 5.07845
20.917 134.994 6.25629
-13.3731 138.13 4.96183
-24.842 140.555 1.12585
-9.49988 141.997 -5.32228
11.5768 139.907 -4.05753
-1.34093 139.756 -1.17854
-16.8094 140.756 -0.681855
-19.7529 137.756 7.41219
8.29513 140.836 -5.56605
-18.0055 140.857 -0.489635
15.1823 138.449 -0.639323
-25.334 139.034 5.67968
3.98024 137.376 4.3073
-10.4376 142.217 -5.00051
-21.6223 138.226 7.12172
13.0284 135.279 7.89162
11.9458 138.774 -0.577486
17.8554 137.813 0.722355
-14.1872 141.765 -3.02736
-16.593 138.251 6.20692
-6.01198 141.229 -3.14697
10.6928 140.417 -4.24972
3.26146 140.913 -4.03775
-27.1774 140.507 2.78933
-24.8781 139.194 5.63738
-22.4199 141.055 0.563044
-14.9334 141.838 -2.79436
7.22826 141.153 -5.14136
20.6382 135.566 6.25567
-14.1579 138.92 4.52865
6.64479 135.735 8.59124
6.84431 136 7.90077
-24.4114 139.286 5.67918
-22.0776 138.659 6.80011
7.22632 137.605 3.9089
16.4127 135.355 7.85863
-24.649 141.041 1.51033
1.87409 136.986 6.61487
-1.60981 140.382 -1.16599
15.4398 138.863 -0.563166
-23.3564 139.219 6.07999
-3.10234 136.871 8.09919
6.90557 135.758 9.00273
11.3318 140.603 -3.89946
-13.638 139.102 4.60264
-19.7155 141.62 -0.427998
-3.06757 140.682 -1.01951
6.85417 136.07 8.60367
10.8146 140.849 -4.00996
4.09014 138.034 4.29274
1.20055 136.968 7.58914
-6.78427 142.351 -4.29526
16.5026 135.76 7.78387
10.4186 136.14 7.99721
-14.952 142.336 -2.6226
17.9642 135.567 8.06966
7.62465 135.975 9.0446
-7.1003 138.792 4.82686
-27.067 141.181 2.75791
-2.41262 137.426 7.54417
-18.043 138.78 7.18563
2.84795 138.019 5.23878
20.0875 136.295 6.37347
-4.28536 141.46 -1.80876
19.8182 137.736 2.93701
15.6474 136.167 7.69701
7.05407 136.403 8.7724
14.3126 136.349 7.67774
10.0276 141.531 -4.40165
-6.70603 142.753 -4.26518
-18.3037 139.032 7.26533
-17.8428 141.925 -0.0282392
-27.5611 140.485 5.58554
2.33193 137.91 6.45326
16.7455 136.32 7.70022
18.1635 136.115 7.97262
9.77257 136.673 8.26872
5.94744 142.104 -4.50756
-0.409098 137.882 7.28547
-21.0546 142.319 0.230916
-14.5136 142.972 -2.59698
-16.4705 142.158 -0.169819
8.84129 136.582 8.94717
-6.25704 142.897 -3.84597
19.06 138.758 1.67089
19.1785 136.65 6.93545
-7.05717 139.764 4.24905
-9.44702 139.722 4.81708
1.79941 141.772 -2.41526
12.9367 136.733 8.04741
0.935412 137.686 7.96828
6.26641 139.06 3.63739
-6.8984 143.337 -4.4356
8.95223 136.861 8.75744
5.06 139.07 3.99878
0.97025 141.779 -1.95929
-25.6091 140.62 5.98225
-3.1249 139.002 5.85927
-3.27368 141.924 -1.34233
-4.06206 142.197 -1.80437
-22.9275 140.287 6.56056
-13.0817 140.546 4.08425
7.54228 139.315 3.43815
7.80698 139.243 3.61365
-25.2943 140.797 6.1187
-23.9596 142.53 1.76415
-6.83845 143.706 -4.41633
-24.7959 140.803 6.24419
-26.4021 141.008 6.19214
-7.94541 140.442 4.1145
-18.7075 140.17 6.93203
18.844 137.391 7.21245
-13.9448 143.894 -2.54892
-5.31041 140.208 5.02475
-12.7827 141.21 4.03482
12.2304 142.034 -2.76832
-19.5915 143.291 0.151927
8.22389 138.614 6.59725
13.249 140.554 0.853619
5.58718 143.158 -4.17592
2.48686 139.266 6.11687
-24.529 141.152 6.56451
-27.4289 142.133 4.69012
-11.7866 141.242 4.07727
17.8995 140.038 1.46884
-20.3997 143.522 0.24593
18.5512 139.937 1.84049
-21.9191 143.471 0.718258
18.7677 137.794 7.25566
20.3646 138.681 4.80969
-0.41551 139.643 6.52032
8.61218 139.182 6.04374
5.6798 140.266 4.03221
-7.40514 144.877 -4.88472
8.57257 140.156 3.94107
-17.8062 140.974 7.03367
-11.6885 141.686 4.11664
-9.55011 141.04 5.41703
3.24117 143.613 -3.35244
-18.6884 143.874 0.325675
19.1554 140.244 2.23536
-11.7503 141.893 4.06961
10.8737 143.359 -3.79012
8.59673 138.605 8.64352
-4.96749 144.272 -2.84367
15.1573 138.59 7.55936
-18.9156 144.134 0.30584
-16.2253 141.959 5.32448
8.6739 139.335 7.16296
-10.5229 145.428 -4.17428
-5.30352 141.884 3.67171
10.7438 138.885 8.11339
13.9024 138.779 7.95385
7.57858 144.428 -4.91421
3.51356 144.116 -3.32762
3.56849 144.137 -3.338
4.35289 140.984 4.46398
12.4645 142.784 -1.55689
-5.01315 142.069 3.54287
-6.28856 142.21 3.55168
-20.3154 141.924 6.95749
16.3998 138.95 7.43672
-23.7437 144.08 2.32256
6.25479 141.188 3.86794
-25.3405 142.671 6.32654
2.67514 140.825 5.80844
11.7915 143.885 -3.32549
-7.6509 142.162 5.04466
-8.58931 146.358 -5.1108
18.7984 141.436 2.07489
0.742638 141.221 6.17766
0.175195 141.456 5.80936
-19.263 142.624 6.64806
-23.6371 144.745 2.42896
-1.18122 144.496 -1.21042
6.61089 145.147 -4.28888
-25.0146 143.365 6.18759
-25.3731 143.787 5.20498
-8.70766 142.416 5.497
1.43535 141.304 6.38542
9.76528 139.92 8.25956
-6.09542 146.146 -4.10086
8.10405 145.298 -4.67581
-10.391 142.813 5.06474
-23.5448 144.889 2.42002
-8.32585 146.728 -5.02309
-20.679 145.314 0.86445
-15.5118 145.162 0.313671
-4.21516 145.454 -2.52476
-19.5562 145.362 0.695471
9.17953 140.437 7.57685
15.7635 142.608 1.1001
-14.502 145.694 -0.796006
17.4172 142.406 1.42958
0.498485 142.054 5.54486
-0.384695 144.942 -1.34275
17.758 142.434 1.50008
-11.6003 143.52 4.4045
-8.70505 142.833 5.57053
-6.01252 143.307 3.89683
12.5195 143.842 -0.935346
-3.40752 143.472 3.053
10.7289 140.423 8.01246
-24.9276 144.699 4.16471
12.5884 140.336 7.98047
-0.245832 142.494 5.20796
-5.82437 143.504 3.83232
-4.01371 143.597 3.31212
-3.13681 143.635 3.05803
7.50381 145.95 -4.55687
-10.1925 147.413 -4.73085
9.57717 140.907 7.78011
-10.9065 147.276 -4.18291
8.42023 145.934 -4.47829
-1.50311 145.481 -1.29762
12.4491 144.261 -0.851763
-16.7501 143.802 5.97127
-17.0773 143.704 6.3816
6.91084 146.161 -4.27134
-24.5134 144.569 5.69185
19.1896 141.45 5.18516
3.53654 142.891 4.69835
-14.7942 144.175 5.09596
3.62494 142.979 4.63076
-13.5402 144.402 4.60847
-18.7579 146.309 0.918672
4.09988 146.163 -3.05492
9.79167 146.214 -4.24087
18.2707 141.384 6.25111
17.9868 141.267 6.65789
-23.5072 144.77 5.86507
-13.9497 146.606 -0.425047
-4.57982 144.233 3.84155
2.48898 142.796 6.19475
-1.75661 144.344 3.14178
2.83493 143.049 5.76861
-16.6679 144.478 5.93652
-7.99645 143.929 5.73168
4.16473 146.531 -2.98338
17.5979 141.548 6.91177
9.81227 142.181 6.86779
11.2356 141.875 7.36801
-20.7682 144.65 6.54329
-22.7849 146.203 3.0603
-7.21224 144.061 5.51561
18.93 142.33 4.9434
0.779185 146.288 -1.40865
-9.06934 148.346 -4.50705
3.7498 146.689 -2.75618
-4.9112 144.592 4.14379
15.8193 143.887 2.0326
14.5292 141.712 7.7765
-12.1854 148.047 -2.92725
10.5462 142.489 6.76233
7.28069 144.388 2.73304
-6.78524 144.443 5.32788
-14.3453 147.195 -0.0947972
-4.83764 144.765 4.21657
-11.6266 145.472 3.78996
-23.5285 145.678 5.54917
6.67905 147.228 -3.77898
6.9065 144.603 2.7954
-5.72745 144.883 4.56415
5.73387 144.571 3.16768
1.3637 144.87 3.29209
2.35802 146.913 -1.96222
14.0371 142.238 7.5129
-10.0994 145.072 5.10291
-17.7863 145.008 6.78675
0.28692 146.873 -1.29234
-3.32582 147.683 -2.50684
12.8089 142.564 7.28094
4.50679 144.58 3.9227
2.06321 144.943 3.66736
-16.9623 147.281 1.60397
14.2454 142.587 7.42335
-23.1692 146.552 4.77808
5.54814 147.626 -3.30405
13.5489 144.912 1.99263
-3.28206 148.023 -2.5532
7.5247 145.197 2.58373
-11.4014 146.141 3.88738
14.854 142.753 7.43058
-4.59709 145.419 4.53821
-8.67385 145.906 4.52566
-14.219 148.423 -0.548476
14.1742 143.184 7.14892
9.9157 147.662 -3.05677
-10.1409 146.16 4.58145
12.7769 146.287 -0.0720868
-3.27346 148.556 -2.65643
-10.8925 146.545 3.86145
3.11379 147.91 -2.15649
5.64287 145.647 3.06178
-20.0975 146.03 7.02291
-12.9469 146.549 4.51871
14.526 145.502 2.05216
10.0369 147.823 -2.79582
5.54384 145.818 3.07163
13.0806 145.982 1.24865
-19.0175 146.024 7.35891
2.50214 148.104 -1.88908
-15.7095 146.492 5.60896
-21.4333 146.752 6.15538
-9.40848 146.535 4.47932
16.1411 143.733 6.64411
2.9314 145.232 5.4194
13.0923 146.168 1.40817
7.39142 146.182 2.51444
9.98186 145.557 3.59175
-16.8295 146.444 6.50464
5.9066 146.158 2.91586
15.3185 143.866 6.86182
16.7676 144.034 6.22139
11.5393 144.535 6.21164
-8.47736 150.171 -3.94627
-17.7724 146.505 6.99721
9.6384 146.222 2.51659
15.77 144.194 6.51421
9.85293 148.429 -2.86794
-8.31805 150.278 -3.9368
-18.6309 146.543 7.34341
10.1999 145.702 3.97949
14.6286 144.368 6.66284
16.7846 144.555 5.80256
14.8811 144.51 6.62912
9.14057 146.635 2.42399
-13.8533 147.444 4.82581
-18.3782 146.861 7.2386
12.8105 147.144 0.650172
-19.2455 148.868 2.50764
-5.7032 150.342 -3.72824
8.09069 149.28 -3.6832
-12.8043 147.588 4.57514
-13.3212 150.021 -1.35253
12.6298 147.519 0.00934659
-15.0555 147.488 5.44698
-13.7466 147.65 4.83086
-3.84961 150.026 -2.86263
-19.9509 148.818 3.37353
-13.7306 150.002 -0.674598
-19.4393 149.002 2.98402
10.6586 146.042 4.73092
7.83573 147.286 2.28749
2.71666 149.297 -1.72017
-19.3497 147.651 6.60049
16.2015 146.796 2.00474
4.29807 146.722 4.50753
15.4779 147.007 1.7309
4.59416 149.523 -2.45669
4.94115 147.174 3.49084
-16.3686 147.584 6.79757
15.4534 147.281 1.65841
11.2547 148.638 -0.873814
1.41816 149.625 -1.36018
3.10901 149.719 -1.7979
-10.7641 148.331 4.43273
-15.0591 148.291 5.38344
-19.102 149.472 3.2741
3.99728 149.911 -2.12097
10.0529 149.361 -1.88471
-16.3639 149.786 2.10777
10.735 147.199 3.6461
-18.1434 148.326 6.5867
9.66597 148.057 2.1538
1.60432 150.178 -1.3983
10.2267 147.873 2.80647
6.15686 148.365 2.48214
-11.5048 151.341 -1.43609
