ply
format ascii 1.0
comment Created by Open3D
element vertex 1925
property double x
property double y
property double z
end_header
9.51698 104.169 0.152
41.6917 89.406 -4.36567
36.3019 91.5067 -2.77962
7.51002 112.621 -16.2131
-14.6624 118.693 -3.98892
-14.3961 119.079 -5.13232
24.6278 96.5371 -0.321206
2.50771 114.451 -14.3668
36.6551 91.4467 -2.86832
-14.8779 118.544 -3.2429
-0.996631 114.76 -10.9236
12.5126 103.094 -0.661909
-12.8884 117.051 -2.12707
39.5635 90.988 -5.0442
-14.6644 118.527 -3.29035
-14.1859 118.601 -3.9354
26.3533 102.724 -15.6482
4.11818 106.468 1.8957
14.3664 103.185 -2.62797
39.5678 92.9829 -9.17316
14.1727 109.771 -16.8943
22.6066 98.8822 -2.52417
-9.93222 113.973 1.77759
-17.7516 116.211 6.02512
2.1188 107.157 3.09383
-14.7506 117.635 -0.446988
35.0045 96.8522 -11.8857
32.897 98.002 -11.9539
21.598 105.901 -16.323
21.1062 106.326 -16.6103
-15.4413 118.956 -2.2123
-3.42006 116.451 -10.4627
-14.536 117.722 -0.40732
19.5686 107.331 -16.8465
-17.1631 116.057 6.3479
7.25649 113.433 -16.0562
-1.57768 108.634 4.84941
16.6347 103.462 -4.72005
-6.16662 112.094 2.60887
-15.9864 119.095 -1.51794
14.7546 103.639 -2.85008
-12.3799 116.264 0.648297
-13.853 119.377 -4.46908
23.9974 98.1764 -1.28627
-3.10771 116.462 -10.3851
-13.9551 118.066 -1.26022
-14.4416 118.369 -1.3649
-6.67566 112.721 2.1738
41.7113 91.182 -6.03872
31.7081 94.6045 -2.03244
11.3376 111.474 -15.7986
-15.0683 119.889 -3.84854
1.24094 115.099 -12.1006
17.351 108.675 -16.4254
17.7308 103.054 -4.38548
3.62978 107.569 1.94842
2.53734 115.4 -14.1297
17.9823 102.863 -4.22039
-14.6217 118.083 -0.116303
6.59579 106.476 1.0811
-18.1169 116.632 7.25932
13.2266 110.938 -16.3694
-5.83303 112.169 3.03538
14.1778 110.661 -16.7824
17.0718 103.767 -4.85053
-3.08451 109.668 5.45334
21.7598 100.726 -3.45932
31.1018 99.8211 -12.2315
41.938 91.2317 -5.72392
31.8277 94.7975 -1.92183
41.6375 91.5339 -6.04188
-18.2263 116.724 7.45716
26.7398 96.5694 0.103443
-0.317168 115.786 -10.8209
-13.6933 118.663 -1.68828
-1.8921 109.539 4.92683
-4.49683 117.84 -10.4517
-18.3598 118.438 4.27801
10.6143 105.415 -0.256401
-18.0924 118.23 4.57568
-16.9039 116.594 6.88143
1.46282 115.669 -12.3171
31.3032 100.123 -12.3758
-17.7788 116.71 7.68939
-11.2335 115.574 2.64295
-16.8076 120.381 -1.55398
28.5965 102.86 -15.2763
24.0742 98.8698 -1.15024
-15.4433 120.605 -3.55421
36.375 96.9325 -11.0152
17.9014 109.044 -16.4554
25.4877 97.6095 0.134349
-15.0279 120.675 -4.063
29.354 96.2343 -1.24899
30.6711 95.7299 -1.63134
-13.7706 119.869 -3.6444
-14.8884 118.521 0.65173
-13.0547 119.7 -4.05877
-5.02353 111.616 4.59389
-12.8464 117.126 1.48243
-15.188 118.664 0.788645
-13.4065 120.063 -4.35986
-12.9954 119.144 -2.74009
23.68 106.261 -16.606
38.5987 95.2141 -9.38536
-7.49861 113.617 3.20397
-13.6884 119.054 -1.65705
30.3651 96.0216 -1.49559
-12.7526 118.377 -1.1236
-14.8686 118.636 0.767714
-13.335 119.394 -2.67865
15.9177 104.575 -3.66891
-7.8026 113.817 3.32031
-11.9463 118.767 -2.8362
-16.733 117.2 6.27281
6.59327 114.943 -15.6719
36.6055 93.1378 -1.97669
-3.92106 111.003 5.35326
20.3517 108.403 -16.9571
37.4861 96.5964 -10.5266
-10.2297 115.518 2.83382
37.7797 96.3705 -10.2878
-17.6964 118.02 5.96339
3.06415 108.802 2.38843
-5.58108 112.791 3.57827
5.17927 115.639 -15.1744
-14.4738 120.681 -3.57134
12.7297 112.137 -16.1025
-17.9784 119.538 3.0445
3.43922 108.771 2.2052
-18.0276 120.715 0.606787
5.74183 115.5 -15.3377
-16.3152 121.104 -2.17047
2.06488 116.459 -13.1468
-13.1574 120.986 -5.48318
-2.71646 110.549 5.58506
-7.02035 119.783 -9.82371
8.75948 106.746 0.809298
-18.7516 119.379 4.65913
-12.3791 121.2 -6.70772
-9.40306 115.315 2.9558
21.239 102.498 -4.044
9.01671 106.737 0.713634
-11.329 121.779 -9.06348
15.3888 105.012 -2.83059
30.8037 96.265 -1.28279
-16.3943 121.212 -1.91028
22.3695 107.796 -17.0214
19.7401 103.361 -4.14286
3.85667 108.886 2.03441
26.5387 105.167 -15.8685
34.8516 94.29 -1.36916
37.7811 96.7894 -10.244
-0.96724 116.992 -10.0937
-11.0149 121.843 -9.20064
24.2766 99.682 -0.943603
-17.7012 119.862 3.0321
-10.0018 115.748 3.24396
39.6461 92.8036 -3.37605
16.0286 110.919 -16.1618
-15.0159 121.63 -3.94457
-3.3443 118.292 -10.0358
-17.2994 118.096 6.63724
-13.8567 118.361 2.09894
-14.6137 118.687 2.25523
42.1488 92.2303 -4.79512
-11.8699 117.207 2.42426
5.26421 108.684 1.53532
12.5724 105.888 -0.700338
-13.3093 118.172 2.16181
29.9728 96.9524 -0.786711
40.0724 94.7355 -7.48216
-3.25231 111.518 5.50265
29.2834 103.694 -14.7805
17.7364 110.376 -16.1726
41.159 93.7377 -6.24637
-8.31176 121.127 -9.62991
-20.709 120.422 6.29027
13.063 112.961 -16.248
1.72204 109.917 3.63006
-12.8138 120.96 -3.94274
17.2034 110.779 -16.1052
-20.1913 119.934 6.9155
-13.8608 119.081 1.48049
-18.6487 120.044 4.89339
-13.7405 121.205 -3.33343
37.4946 93.7695 -1.8295
40.9846 92.7383 -3.54459
38.6593 96.5912 -9.27166
39.5068 95.6112 -8.05699
9.88861 114.189 -14.9154
-18.0249 121.886 0.389513
-15.3756 119.041 3.68535
-15.8171 122.182 -2.74551
-12.792 120.678 -2.91006
-19.8218 121.951 2.4219
17.9217 105.576 -4.96651
33.1726 101.041 -12.566
-11.8776 122.939 -8.93206
19.9015 104.243 -4.27632
34.664 95.1065 -1.07318
4.55749 117.001 -14.6515
-12.8115 121.276 -4.00192
36.5669 94.3959 -1.5861
-5.83035 114.05 3.95007
37.8831 97.4532 -9.82275
19.4518 104.705 -4.48119
-6.16848 114.255 4.05054
22.5287 108.767 -17.0047
-14.8684 119.31 2.94773
25.098 99.8539 -0.184945
2.11769 117.591 -12.8333
-13.9726 119.329 1.96802
8.9674 107.778 1.03179
7.24639 108.501 1.44568
-20.7433 120.892 6.40915
-13.1933 119.052 1.76855
-17.0846 119.101 6.23778
25.5727 99.534 0.225527
22.6481 102.573 -3.10928
6.46383 108.937 1.54784
16.4891 106.513 -4.62985
41.6736 93.7148 -5.41086
-12.7586 119.401 0.68007
2.71385 110.39 2.83229
-5.9941 120.352 -9.09993
13.2446 106.516 -0.685979
0.648819 117.604 -10.667
29.6547 104.231 -14.4488
-12.0621 121.389 -4.15772
6.38462 116.593 -14.8678
16.5639 106.736 -4.78558
-11.1455 117.913 2.53403
-13.7265 119.152 2.79933
11.6121 114.13 -15.3929
-13.3265 121.767 -3.44682
-13.7722 119.242 2.69325
-12.3937 120.325 -1.28215
-21.2118 122.089 5.02886
-7.60638 121.372 -9.12501
35.4484 100.02 -11.5175
25.5533 99.9036 0.197812
23.3158 108.814 -16.937
-18.6025 122.888 0.400741
-12.2546 119.425 0.740893
14.3156 113.268 -16.2765
41.4498 94.1128 -5.22589
28.3293 105.366 -14.8396
40.4055 93.6387 -2.8044
19.6423 110.654 -16.4344
-19.8753 120.468 7.56552
-5.57764 114.406 4.45598
-16.4327 118.605 7.7166
38.6309 97.544 -9.29032
-16.8122 119.698 5.86748
-16.6885 119.453 6.33504
-0.857533 111.824 4.93646
34.6345 95.8636 -0.768824
14.3995 113.428 -16.2471
-12.3985 121.844 -3.87666
34.8831 95.7948 -0.872726
-12.6387 122.046 -4.03497
-7.83169 115.629 4.63013
-15.8347 118.179 8.33895
35.3868 100.409 -11.5393
32.837 96.858 -0.652703
29.7073 104.683 -14.2985
-12.17 118.769 3.0614
-16.2712 119.463 6.32215
-17.6981 120.656 5.41764
40.7431 94.1998 -3.5243
-12.4634 122.344 -4.27978
-19.4174 120.439 8.01414
-15.7486 118.809 7.42331
-2.00834 119.175 -9.23715
-14.4052 122.976 -3.22961
-12.5793 123.91 -7.32537
19.3031 106.144 -4.8409
-12.7139 123.673 -6.54336
-12.1562 122.233 -3.99273
15.2944 107.335 -2.70921
-18.4575 123.908 -0.353483
-12.0463 122.067 -3.62656
22.3841 103.984 -3.38851
38.7742 97.6252 -8.24351
-15.8205 119.897 5.5981
-18.7989 124.03 -0.104549
37.6521 98.7566 -9.39469
26.9322 106.724 -14.6083
-20.5987 121.953 6.79852
8.9279 109.083 1.15826
37.7296 98.8075 -9.33608
-12.6641 119.475 3.20858
22.4881 104.086 -3.32485
-20.7609 122.696 5.54531
18.4312 106.991 -4.96089
21.7694 104.776 -3.8535
20.2607 111.209 -16.321
12.5127 107.984 -0.116249
-2.17972 112.993 5.88077
-20.2587 123.265 4.11434
31.9085 97.9156 -0.0969243
-7.51878 116.206 5.09305
1.92681 118.92 -11.8425
40.7397 95.3381 -4.46414
15.2659 113.854 -16.0072
24.5326 109.133 -16.2685
37.1882 99.4873 -9.43016
-18.4044 124.69 -0.921601
32.1356 103.905 -13.3178
23.9133 103.214 -2.24432
25.219 108.657 -15.8097
-15.1507 120.495 4.77077
32.0626 98.0013 -0.0322472
12.7072 108.179 -0.166482
-14.7561 119.975 5.5144
40.4146 95.2171 -3.43571
12.9146 108.189 -0.270972
-11.8292 124.847 -8.51245
26.9307 107.194 -14.1877
-19.1917 124.168 1.60602
30.4699 98.7582 0.445101
8.58808 109.875 1.27541
-20.1312 123.501 4.3263
40.1789 96.4119 -5.40741
26.7025 107.453 -14.2403
-18.9878 125.162 -0.546593
-12.383 124.371 -6.34819
-19.0584 124.34 1.4708
-8.03572 117.215 4.53493
-12.7637 124.619 -6.33349
-11.5476 124.628 -7.74937
38.6923 97.9236 -6.61138
-18.6681 125.421 -1.13616
24.9619 102.509 -0.836902
1.56651 119.423 -11.1709
25.8479 101.598 0.242435
-14.2399 120.148 5.54389
39.9951 96.7314 -5.22013
39.0413 97.6476 -6.11406
-11.7487 120.308 2.4908
-12.1121 125.071 -7.52716
-11.6805 120.358 2.43653
10.7537 109.384 0.860268
0.169684 113.402 4.22642
-16.406 125.055 -2.4024
36.418 101.072 -10.3886
-18.2445 125.694 -1.64104
-4.34772 115.012 6.09147
-6.02311 116.141 5.58247
29.6723 106.087 -13.2466
14.868 115.241 -16.3281
25.1026 109.683 -15.7644
-6.48092 116.628 5.44215
18.2815 113.526 -16.3453
22.8944 105.207 -3.24296
15.0551 109.198 -3.00023
1.22959 119.854 -10.5966
-18.6645 125.661 -0.299059
-10.8253 119.924 3.45125
-18.8858 124.448 2.77273
4.45113 112.517 2.21066
26.6495 108.257 -14.0307
29.5009 106.356 -13.1151
-12.6091 120.688 3.9351
-13.2535 120.289 5.61171
-18.5644 125.153 1.00887
-1.96827 120.96 -8.89453
-1.51823 114.426 5.1482
-16.9531 120.729 9.06894
-11.705 120.313 3.9523
-10.9879 125.391 -8.04513
-13.5106 120.366 6.02966
0.26954 114.119 3.95716
-12.0593 125.61 -7.21455
-11.6554 125.613 -7.67985
31.5816 99.5352 0.0687764
25.2482 103.193 -0.67779
29.1108 106.788 -13.0333
19.1622 108.281 -4.81484
9.92394 117.357 -14.1916
4.27619 112.851 2.39144
12.8715 116.624 -15.8884
15.9525 115.316 -16.5133
26.9322 108.351 -13.7583
-12.853 124.24 -2.90521
-16.3256 125.892 -2.53426
39.3845 96.7529 -2.37471
7.26812 118.781 -13.9986
-13.4052 121.155 4.71416
-19.3673 122.653 8.46319
-4.56465 116.1 5.85245
7.25398 118.884 -13.9647
18.4928 114.119 -16.4022
29.4507 100.871 0.370845
17.2982 109.624 -4.90569
8.48363 111.447 1.40757
-1.23833 121.186 -8.86556
-13.7761 120.537 7.14446
-11.5448 125.93 -7.36932
-13.0863 125.48 -4.54919
33.0425 99.4 -0.0921442
38.1305 100.457 -8.27879
-19.0393 123.661 6.52166
13.2793 116.999 -16.1145
-0.881469 115.163 4.43456
0.862392 114.571 3.84132
38.4336 99.1389 -5.44651
35.7303 102.836 -10.4857
30.4199 106.474 -12.3541
-4.19952 116.34 5.88949
21.7254 107.326 -4.12842
1.76555 120.782 -10.8435
8.21506 118.713 -13.6945
19.0608 114.272 -16.3868
37.5219 101.25 -8.89443
-13.227 121.736 4.47329
14.23 110.232 -1.76063
-12.2813 126.151 -6.28956
36.3444 98.3262 -0.763783
38.8377 98.8082 -4.53766
-10.545 126.319 -8.2349
-13.7673 125.532 -2.73946
28.551 107.89 -12.5962
-15.3681 121.131 8.97767
3.97678 121.05 -13.1735
-17.7206 122.389 9.01723
4.0604 113.808 2.82458
23.9448 112.07 -16.2885
12.6533 110.571 0.151725
16.4144 116.285 -16.8498
-12.5957 125.416 -3.49516
33.0506 100.151 -0.290567
0.0677736 121.334 -9.0304
-11.1473 126.915 -8.36494
18.0626 110.127 -4.97203
14.1438 117.36 -16.4049
38.8903 98.5264 -3.31227
-19.0035 123.882 7.54903
26.6276 109.598 -13.5806
32.8323 105.495 -11.6384
8.88161 119.154 -14.1284
-12.0659 121.148 5.74727
-7.55485 119.254 4.88687
33.8617 100.033 -0.45029
37.7874 100.413 -5.82936
13.3773 117.798 -16.0129
10.8809 111.316 1.29064
-10.2683 121.34 3.59862
37.8173 100.717 -6.27603
0.54285 115.452 4.22397
14.2272 111.224 -2.08393
23.8083 112.632 -16.2889
31.2812 101.332 0.132098
-13.2426 125.724 -2.34369
22.7552 107.493 -3.60432
8.47084 119.638 -13.9409
12.9729 118.092 -15.6911
19.5638 109.695 -4.64996
1.91924 121.674 -10.7065
-0.5145 116.233 4.40682
-1.84283 116.377 5.67902
-11.833 121.258 6.44601
-15.5501 127.631 -3.36298
9.99663 112.105 1.48201
14.8615 111.987 -3.76049
16.2298 111.755 -4.63696
38.0131 98.9676 -1.50107
19.2069 115.699 -16.8059
-13.1222 125.856 -1.81872
37.2585 102.495 -8.33543
4.09799 114.652 3.16255
30.1484 107.805 -11.772
10.3556 112.162 1.4922
24.8447 112.354 -15.5652
-17.462 127.187 0.616132
19.4688 110.299 -4.64498
19.5676 115.735 -16.7989
37.6712 99.265 -1.2541
4.76842 114.512 3.1396
24.7903 106.384 -2.01814
-18.2936 125.099 6.42245
37.8025 101.365 -5.88638
-18.1667 125.925 4.57984
-15.2829 122.495 8.93891
36.1379 103.844 -9.21314
37.643 100.134 -2.64211
9.10353 120.39 -14.3498
-18.5203 125.007 7.4018
-7.93453 120.563 4.99898
-9.83384 122.005 4.02331
-18.3787 125.243 6.74262
28.0094 109.61 -12.2168
37.7656 101.437 -5.29213
-4.32064 118.413 5.841
-11.9203 122.745 5.04044
-5.30149 118.975 5.8018
-10.66 128.448 -8.96976
-17.2722 128.451 -1.31059
-8.29434 121.172 4.47278
37.7469 101.47 -5.12545
-9.6102 122.046 4.14932
29.0665 109.152 -11.987
8.06746 113.764 2.1646
30.0272 108.577 -11.7262
14.5309 112.851 -3.19365
31.9902 107.277 -11.0233
-12.5335 126.419 -1.88146
26.4308 111.412 -13.7272
4.01021 115.369 3.4756
-17.3758 128.626 -1.0508
-6.68257 120.077 5.57712
-6.00081 119.635 5.79327
-12.1715 127.518 -4.46781
-17.9947 127.371 2.62195
19.9136 110.826 -4.59142
-8.82325 128.22 -9.78698
14.8486 113.34 -4.18627
35.1653 105.232 -9.72003
15.5791 118.317 -16.0106
-8.26906 127.833 -9.44996
-10.9517 122.401 5.69531
31.1314 108.109 -11.3317
-4.26896 125.461 -8.78711
7.23946 121.496 -13.2912
-10.3982 128.977 -9.45285
-2.63735 117.805 6.35432
-17.36 124.327 8.9661
-9.17146 122.546 3.78388
25.8199 106.483 -1.11692
3.05481 116.081 3.98016
-16.376 128.714 -1.4504
-12.2748 122.934 6.63523
-12.4016 127.834 -3.99194
-10.2848 128.385 -7.60954
-18.0261 127.707 2.94913
21.88 115.77 -16.7769
-15.4083 123.868 8.46005
7.99175 121.504 -13.3486
16.0246 118.428 -15.805
8.49257 114.228 2.3312
37.3168 100.746 -1.09593
4.6563 115.688 3.60242
7.7917 114.527 2.59174
-7.80257 122.046 3.98982
27.3651 111.135 -12.3889
7.3227 122.053 -13.2739
22.1368 115.92 -16.8278
-9.31601 122.658 4.65506
-0.186599 123.765 -8.32846
13.4065 119.914 -15.5257
-17.8509 128.228 2.50043
12.413 113.292 0.571913
37.7003 102.133 -3.91826
37.3259 103.406 -6.30359
2.12389 117.213 3.93214
2.03053 123.482 -9.8505
-12.9784 127.781 -1.89031
-18.4049 127.22 5.65791
13.8631 119.953 -15.4657
12.5591 120.605 -15.3215
-18.49 127.11 6.25867
16.2106 118.828 -15.553
35.8351 101.812 -0.548457
0.685832 123.793 -8.54614
-12.5552 128.541 -3.6963
-14.6773 124.666 7.39499
10.729 121.136 -14.1148
-12.7287 127.726 -1.54017
37.5706 102.249 -3.29137
-18.2767 126.193 8.35115
-14.2034 124.649 7.10659
15.7472 114.255 -4.51566
-18.4909 126.49 8.07928
23.5255 109.686 -3.31784
-8.79728 122.886 4.8574
26.2127 107.149 -0.786482
-12.447 127.977 -2.11898
-15.6743 125.021 8.22335
11.423 121.114 -14.4512
-17.8516 125.965 8.72552
9.02992 121.981 -13.5395
-12.4108 129.176 -4.63719
-4.12211 120.086 5.94018
-11.203 129.309 -6.19733
33.5465 107.689 -10.0727
9.66978 121.801 -13.6715
26.9532 106.493 0.291169
-10.0855 123.192 6.19426
-18.3516 127.534 6.14245
-10.4116 129.163 -6.62505
24.1022 109.505 -2.98619
11.9305 121.166 -14.7246
36.9917 102.257 -1.81392
-9.08328 123.892 3.60801
5.30295 123.743 -12.7069
-14.6406 129.515 -2.38944
7.07565 123.095 -13.0978
-18.2435 127.736 5.94676
5.60954 123.733 -12.7861
-17.855 128.282 4.36081
31.9749 103.932 0.676835
34.712 106.885 -9.00211
29.3127 110.773 -11.3608
-15.6905 125.546 8.02073
36.7412 103.739 -4.32305
-5.31095 122.001 3.9415
-9.90143 130.212 -8.83353
-4.00758 120.917 4.9686
-18.4436 127.529 7.03667
8.96071 115.28 2.68871
-12.1869 129.647 -4.63792
36.3278 102.629 -0.905121
-12.6164 124.731 6.81881
-16.3311 125.845 8.66022
1.41934 124.563 -9.01585
17.5514 119.05 -15.461
-1.05589 119.345 5.42938
-3.7929 126.852 -8.02807
-12.9443 124.961 6.7624
17.5683 114.275 -4.85435
13.7396 120.847 -14.9799
-18.301 127.788 6.74426
20.7795 112.44 -4.443
12.8961 114.806 -0.508349
13.6879 115.339 -2.51127
23.7953 115.821 -15.2061
29.811 110.836 -11.1205
-2.17445 126.065 -7.81677
13.521 115.323 -2.16172
9.96406 115.15 2.34892
-17.1094 130.476 -0.18718
-17.9628 128.309 5.6909
25.5867 109.065 -2.05396
24.7408 115.028 -14.2339
36.9312 103.499 -2.7268
12.9983 121.521 -14.9553
5.60302 117.188 3.21183
-4.38188 127.509 -8.04845
-9.43953 130.546 -8.91412
-17.5484 128.988 3.94804
24.371 110.145 -2.8018
-8.4151 130.473 -9.87639
24.0746 115.775 -14.8744
32.9854 104.119 0.641631
36.2321 105.608 -6.31167
-13.7071 125.823 6.70836
-17.0022 126.547 9.06015
-7.40768 124.356 2.87162
36.855 103.681 -2.51273
0.578613 125.208 -8.11756
-12.6217 129.276 -1.73645
30.7049 105.536 0.718949
36.8071 103.684 -2.20188
-5.89427 128.78 -8.36963
35.5914 103.818 -1.04319
-11.0884 130.203 -5.46205
31.5342 110.18 -10.3962
10.8139 115.481 1.86861
12.8504 115.707 -0.973105
-17.2886 130.872 0.329591
29.4513 111.629 -10.949
11.6922 115.4 1.29112
33.999 108.313 -8.77029
-18.0638 128.399 7.04524
-18.1365 128.051 7.9222
4.22871 118.206 3.85685
-16.1501 126.872 8.24256
34.1958 108.156 -8.5491
17.4333 115.23 -4.79877
34.8927 107.358 -7.51969
24.1944 110.901 -2.87461
-2.74907 121.075 5.8702
35.0662 104.544 -1.20219
24.8389 115.768 -14.2216
-14.9684 126.839 7.33923
24.0747 116.417 -14.7302
16.9677 120.158 -14.7466
27.9351 107.398 0.839565
-4.92896 123.596 2.98817
36.4408 105.658 -4.91548
-17.6351 129.07 5.8021
-8.06806 131.056 -9.66346
-1.47631 126.705 -7.54053
13.7395 116.817 -3.19124
-10.0382 131.145 -7.3482
34.1882 104.723 0.10499
28.1291 107.57 0.933144
-4.49978 123.55 3.30442
27.2212 113.868 -11.8905
17.3608 115.831 -4.76317
-3.62875 122.487 5.05725
-17.5543 129.333 6.05533
-12.8468 126.543 6.82557
33.1334 109.689 -9.02037
-8.31671 131.716 -9.78694
16.9836 116.243 -4.76747
0.302945 126.324 -7.79056
-0.765694 121.058 5.11757
35.0206 107.419 -5.98543
-4.39558 123.885 3.16836
7.62429 118.201 2.0372
6.50256 118.643 2.41087
36.3626 105.928 -3.93803
-9.45715 124.891 7.08855
1.59412 126.292 -8.73981
-6.88405 125.413 3.03401
32.8994 110.131 -9.1255
31.3166 111.342 -9.92252
28.5293 107.834 1.09752
-14.1231 127.447 7.01981
11.8175 123.12 -13.3395
-12.5366 130.798 -2.11504
-8.67811 125.471 5.25914
34.8263 107.931 -6.06259
-17.6665 131.12 3.37131
10.9924 123.343 -12.5318
-10.7688 131.219 -4.75383
-9.21258 131.986 -8.20108
29.3576 112.686 -10.0698
-3.71901 123.227 4.86355
-17.298 129.919 5.83735
-15.3018 128.123 7.52396
16.7621 116.959 -4.79651
32.4754 110.92 -9.40254
20.5782 120.388 -16.6067
2.91604 120.494 3.72179
30.1407 112.348 -9.73722
25.3961 111.37 -2.03085
20.6625 120.458 -16.6258
-9.31611 125.46 6.99652
-5.25186 130.319 -8.37728
-15.274 132.213 -0.814642
-10.2449 131.644 -5.30189
13.3478 118.318 -3.06172
-16.0289 132.491 -0.445195
19.8729 121.198 -16.8894
-10.7939 131.656 -4.47389
25.3518 111.663 -1.99565
-0.947915 122.137 5.33675
7.90646 119.192 1.64597
18.6293 121.889 -16.6591
21.9411 114.43 -3.9192
3.96253 126.765 -10.4032
-10.3763 131.822 -5.00706
-12.9219 131.856 -2.09808
-12.5124 127.642 6.77304
13.8289 118.603 -3.65276
26.3624 110.808 -0.877124
-3.67804 124.248 4.13949
22.9218 113.776 -3.38197
-16.6942 129.103 8.64469
17.7783 122.594 -16.7301
10.7782 117.81 1.982
33.1364 106.734 0.667238
-8.81205 132.568 -8.00829
-8.80501 126.364 5.75575
-9.90039 132.073 -5.57946
-8.76509 132.615 -8.0238
4.69882 120.437 3.49885
19.077 116.738 -4.78761
29.4823 108.473 1.49232
28.8798 109.007 1.02983
27.3612 110.439 -0.378442
30.4583 112.67 -8.8729
6.88256 126.252 -11.5985
24.3735 113.048 -2.51565
-13.5114 128.47 7.28187
11.4177 118.323 0.91752
-9.91298 132.4 -5.54965
-17.0636 129.954 8.17925
-11.0658 127.33 7.07412
-9.55925 132.499 -6.06309
17.4257 123.028 -16.2872
10.7078 124.624 -12.0215
-11.136 132.477 -4.13108
8.84971 119.447 1.64816
-11.555 132.443 -3.46961
-2.43172 129.503 -7.44156
10.3484 118.528 2.09616
0.678356 122.328 4.87327
8.88545 125.488 -11.5878
-0.711396 128.513 -7.15096
-8.86361 132.882 -7.29482
-11.8595 132.598 -3.17597
33.667 110.496 -6.89606
17.8685 123.325 -16.9551
6.00653 120.705 2.58582
-16.704 129.736 8.93373
-6.18135 126.89 3.07099
35.1644 107.557 -1.83538
7.26451 126.476 -11.4361
35.332 108.32 -3.61102
22.3454 119.856 -14.0569
12.6284 119.631 -2.25645
3.98127 127.642 -9.98512
21.9236 120.03 -13.7838
18.6416 122.735 -15.9741
-6.34281 126.843 3.85073
-16.8039 130.994 6.76517
5.25538 121.146 3.13491
20.1625 121.315 -14.4475
24.92 113.335 -2.14169
-11.9601 128.647 6.65353
12.7464 124.609 -12.9186
15.6972 119.396 -4.73209
11.8642 119.748 -1.02885
-11.8853 133.126 -3.14623
-16.7286 130.889 7.42832
10.3253 125.441 -11.7905
-5.08825 126.734 3.32265
-5.58956 127.119 3.14515
14.4765 119.923 -4.07638
6.12059 121.351 2.47258
15.2387 119.726 -4.47758
-2.07141 129.999 -7.19172
16.5647 123.872 -15.1452
31.0831 113.126 -8.06139
-9.64845 127.92 6.34313
-7.83599 127.632 5.00064
-13.1036 133.153 -1.13334
9.4631 125.987 -11.3602
-4.13325 126.459 3.35149
12.1095 125.296 -12.8412
-2.98431 125.461 4.34658
-0.310202 124.032 4.41855
-16.8039 132.64 4.44249
14.0884 120.241 -3.82171
-5.63264 132.533 -8.23279
12.1271 125.395 -12.9103
34.5303 108.971 -2.40003
2.31116 122.757 4.38198
20.6431 121.41 -13.7856
11.1859 119.854 0.628317
6.88005 127.363 -11.0225
22.71 119.782 -12.5323
3.32276 128.457 -9.27277
-5.7502 127.305 3.82083
-12.7714 133.286 -1.27317
-0.387786 124.502 3.87611
29.2291 115.46 -10.3392
-15.6557 130.31 8.77537
-15.4381 133.368 1.83068
-9.26502 128.277 5.97582
-15.2132 133.738 0.812819
18.8026 118.537 -4.77859
25.705 113.31 -1.11434
-13.3676 133.508 -0.6259
-11.7402 129.513 6.50655
-8.32335 134.531 -8.35865
17.6201 124.846 -16.6303
10.3261 120.253 2.06348
26.2452 113.004 -0.202433
8.5678 127.114 -10.9931
-3.07932 131.518 -7.175
-11.1321 134.323 -4.04038
-15.137 133.71 2.00146
27.5398 117.922 -12.3991
-16.3755 133.129 4.73858
30.8175 114.522 -8.49456
14.0404 125.753 -13.9438
28.9296 116.475 -10.6121
7.98148 127.541 -10.8573
-11.577 134.519 -3.62261
-5.41424 128.058 3.67468
21.8003 121.316 -12.7946
-2.4964 131.384 -6.97384
2.19861 129.455 -8.07159
26.5147 118.584 -12.1231
-13.131 130.32 7.7899
12.4411 126.889 -14.1733
18.0884 124.813 -16.0556
32.0074 113.556 -7.21826
28.264 117.554 -11.4073
26.4887 118.673 -11.8198
21.3514 117.826 -3.97997
33.2213 110.001 -0.327605
-14.1921 134.737 -0.235219
-4.66932 128.273 3.15603
-7.17744 134.968 -8.75245
7.46581 128.168 -10.6242
23.2757 120.086 -11.0053
31.8311 113.889 -7.05173
13.1413 127.39 -15.151
22.3146 120.755 -11.0656
-11.4717 134.458 -2.20992
-6.38185 134.652 -8.52748
17.9051 120.328 -4.85504
-12.7213 134.487 -0.73271
-4.86853 128.507 3.43481
29.0169 111.604 1.66768
34.1398 112.321 -5.81929
25.5671 119.299 -11.2626
-12.2012 135.666 -3.7048
23.0055 120.329 -10.457
9.27364 127.673 -10.7541
3.0386 124.353 3.84276
24.5728 115.762 -1.99136
11.5222 127.707 -13.1527
32.5286 110.754 0.148002
25.6399 119.355 -10.9093
-13.9444 135.105 0.0267109
-11.7041 134.753 -1.74083
20.4392 122.738 -12.2775
8.56229 122.717 1.63028
-2.60404 132.4 -6.82995
-0.769185 131.392 -6.68945
12.3979 122.566 -2.32168
15.1494 122.183 -4.57292
4.26389 124.464 3.10765
-12.2704 136.225 -3.80821
9.68657 122.167 2.11301
-8.35864 129.773 6.15641
-8.6067 129.866 6.26942
11.5031 128.321 -13.5592
4.74918 124.578 2.59528
17.3717 121.372 -4.90614
10.128 122.109 1.86108
11.4161 122.386 -0.212605
20.6007 122.89 -11.9429
-2.57108 128.188 3.26036
33.1207 111.803 -1.7284
3.20487 130.635 -8.80411
-11.4279 136.196 -4.15393
27.8646 118.468 -10.26
33.5859 112.925 -4.57031
24.7749 116.365 -1.69523
20.9578 119.528 -4.10131
29.1331 112.717 1.58594
27.3179 113.902 1.16668
4.2356 130.666 -9.20395
10.6626 128.295 -11.362
-5.61211 129.614 4.57548
-0.965529 132.239 -6.5707
21.0939 122.873 -11.2873
-5.13003 129.605 4.21305
-0.837658 132.292 -6.54693
7.59758 124.333 1.43364
3.80025 130.994 -8.93008
30.3011 112.409 1.61464
28.7306 118.396 -9.82593
3.38594 125.822 3.15151
-6.77429 130.098 5.46513
2.89204 126.541 2.26228
-15.5886 135.055 4.8162
11.0217 123.004 0.770924
-13.1271 136.054 -0.188706
11.8086 123.262 -0.702174
5.03962 130.748 -9.41197
32.2599 115.179 -6.38699
10.7193 129.152 -12.3641
12.6003 123.711 -2.40638
-1.36505 132.878 -6.51052
22.5048 122.556 -11.0757
-7.11272 130.433 5.83588
5.13262 130.901 -9.3493
-16.2333 134.647 7.14977
-11.443 135.972 -1.30207
20.5802 124.631 -13.2248
28.7206 118.642 -9.35484
8.91671 129.438 -10.3157
23.9646 121.918 -10.9038
-1.54952 129.277 2.33752
5.57871 126.191 0.948646
-12.2442 132.212 8.25114
3.69326 127.053 1.31423
13.456 124.177 -3.57167
25.2438 120.289 -8.52044
26.468 115.542 0.597557
-11.1781 137.635 -4.67763
6.26857 126.007 1.00504
25.7967 120.046 -8.30242
-2.01876 129.856 2.18585
28.1736 119.044 -8.79699
19.2941 126.091 -14.1057
19.8183 124.842 -11.8643
6.45142 130.848 -9.58526
28.9911 118.816 -8.85303
-6.8964 137.23 -8.10073
31.5589 116.654 -6.99088
11.1515 130.325 -13.5366
2.29936 128.263 1.28616
15.0345 129.324 -15.7656
23.8009 123.592 -13.1537
21.8166 123.989 -11.7209
18.9484 125.869 -12.5663
19.3465 125.651 -12.3884
-10.5792 137.952 -4.98656
-5.7792 136.934 -8.27189
32.8801 114.784 -3.92938
-6.09238 131.07 5.21414
31.5306 114.077 -0.671834
-0.166778 133.207 -6.37021
23.5128 119.212 -2.68075
21.5257 124.344 -11.7197
8.75381 130.33 -10.0021
11.322 124.338 0.524208
27.2648 115.535 1.64936
0.549297 129.053 2.71207
-1.57266 134.256 -6.32963
26.8056 116.046 1.20246
27.7241 115.286 1.85406
8.95117 125.024 2.02863
-5.59089 131.667 4.14405
0.869791 133.051 -6.33414
11.79 130.901 -14.1767
21.7301 124.949 -12.4549
23.3096 124.102 -12.3936
1.54107 129.461 0.970885
-5.98629 131.652 4.98897
14.0964 130.375 -15.3964
32.5251 116.212 -5.30756
-11.477 137.415 -1.3016
-15.4487 137.012 4.22662
17.9094 127.28 -12.6967
-11.7915 138.553 -3.28823
25.9709 121.544 -9.30447
32.3567 115.499 -3.27902
23.546 119.611 -2.18825
21.4043 125.834 -13.3958
-0.0770525 130.161 1.89953
19.8462 122.603 -4.35956
-1.0285 130.878 1.48248
6.4692 127.089 1.20773
22.1564 120.969 -3.37476
18.2181 127.802 -13.889
-4.98571 132.025 3.63744
9.77452 131.391 -12.007
9.73293 131.423 -11.9313
7.42056 131.466 -9.30152
-7.50282 132.238 6.30177
-9.65518 138.848 -5.84007
21.2378 126.515 -14.2096
18.1511 128.258 -14.4996
20.1393 126.764 -13.4608
17.354 124.329 -4.7627
-10.0779 138.845 -5.0918
32.5048 116.146 -4.07349
-15.581 136.453 6.60292
20.2243 122.653 -4.25207
-5.99137 138.143 -8.13954
13.3417 125.767 -3.06807
30.7325 118.619 -7.35574
22.0554 125.816 -13.2564
20.0593 126.473 -12.3446
-2.10361 135.326 -6.28858
22.7656 124.757 -11.6479
-15.1795 135.745 7.95913
-8.84407 139.034 -6.60024
23.6375 119.858 -1.67137
20.4151 126.858 -13.386
30.2284 115.719 -0.0527776
22.7088 125.102 -12.1167
-15.3751 136.834 6.13031
28.3116 119.796 -6.67938
27.5647 116.395 1.80251
-4.289 137.03 -6.88955
28.3721 116.118 1.70712
-14.8204 135.816 8.24913
31.5796 118.168 -6.2306
1.18465 134.038 -6.21291
-2.27268 132.47 1.27103
-2.77676 132.692 1.6263
22.8193 125.904 -12.8967
31.4771 116.335 -1.69479
13.7469 126.704 -4.12358
-4.98405 137.899 -7.23401
7.25148 127.614 1.47948
20.9737 127.91 -14.9313
-3.34764 133.071 1.83441
15.6593 126.215 -4.92357
-8.49756 133.435 7.08776
-0.6303 135.208 -5.87476
31.4657 116.611 -1.75148
-6.66972 139.157 -7.56761
22.6385 126.24 -12.6587
-0.01258 131.813 1.21449
19.1295 128.02 -12.5112
24.6717 125.121 -12.4316
31.0815 116.779 -1.35761
-10.7467 134.076 8.80888
-15.1592 138.196 4.79697
8.13397 132.932 -10.2331
27.2457 122.022 -8.08029
27.8954 121.396 -7.39898
20.6575 127.051 -11.5442
23.6353 127.089 -15.0334
-11.3564 134.588 8.87527
31.4407 118.738 -5.50329
-6.73298 139.596 -7.41928
25.712 118.697 1.34179
14.0802 132.209 -15.0657
0.37606 132.014 1.25136
17.5737 129.322 -12.6185
31.4004 117.556 -2.41399
-5.71145 139.268 -7.55907
10.1274 126.934 1.45292
-0.654449 132.864 1.02246
7.27014 128.444 1.66418
17.2441 130.704 -14.8795
12.379 132.909 -14.1109
31.7037 118.057 -3.50809
21.8903 127.511 -13.0158
-7.93898 140.399 -6.95616
-4.42523 138.454 -6.6791
-8.52449 134.325 7.22804
-0.920915 136.266 -5.80296
27.3873 124.651 -12.7463
26.8391 122.955 -8.3387
19.3756 129.467 -14.1157
26.9282 123.325 -9.23922
29.8995 117.56 0.112606
21.9213 127.639 -12.9437
-0.73047 133.169 1.02838
22.0323 126.596 -10.7051
-3.69293 134.223 2.17429
10.5521 133.677 -12.9634
23.9642 120.805 0.125497
17.3464 130.954 -14.6723
-6.64529 140.178 -7.26011
31.4485 119.047 -4.48845
23.3244 128.39 -15.7554
19.5583 128.754 -12.1789
28.5927 117.97 1.37545
27.2317 118.564 1.66202
24.8539 127.653 -15.6533
20.4549 128.715 -12.9064
3.67832 131.348 0.715466
-11.1266 139.399 0.0726168
-4.48157 138.983 -6.6645
17.3996 131.256 -14.8056
22.1585 127.374 -11.684
16.9843 131.627 -15.0652
28.713 121.322 -5.78167
10.4607 134.054 -12.7878
26.7071 123.45 -8.03436
13.1453 127.748 -1.77823
6.3484 134.743 -9.29806
25.3633 120.056 1.27012
26.5099 123.301 -7.04142
31.3102 119.218 -3.53645
17.3731 131.605 -14.7399
31.2482 119.337 -3.55611
-5.7357 134.737 5.13959
13.6958 128.54 -3.55648
9.42604 134.685 -12.1561
-8.46223 141.216 -5.88497
1.99282 132.632 1.09516
30.2515 118.953 -1.25816
21.7555 124.194 -2.9539
18.1802 126.908 -4.76834
20.796 125.22 -4.04444
18.2291 126.945 -4.75947
12.8828 134.058 -14.2728
30.2207 119.202 -1.3595
29.3854 121.533 -5.54844
-5.10191 140.205 -6.95306
1.1934 136.42 -5.80917
-7.52618 141.487 -6.92402
-5.45355 135.75 3.39044
10.2252 134.738 -12.4894
28.4396 125.368 -12.7936
25.3253 125.717 -9.96068
-1.30362 134.495 1.42683
-11.8812 140.146 1.2127
16.5619 132.507 -14.7477
-0.95784 134.432 1.302
-13.931 138.471 7.39585
4.91602 135.552 -7.94573
-2.60278 138.694 -6.17087
8.58406 129.153 2.03976
22.3959 127.494 -10.2283
23.4622 122.086 0.523957
-4.00803 139.517 -6.22334
-14.4816 140.201 4.42117
14.356 133.936 -15.066
21.8924 130.034 -15.1005
-3.99453 139.583 -6.19733
12.8317 134.447 -14.2274
25.2665 125.92 -9.6901
26.8475 125.219 -9.96354
4.98906 135.781 -8.04325
18.1081 130.965 -12.5109
20.5932 129.252 -11.5916
28.2531 119.836 0.463863
19.7999 128.968 -9.90651
-8.47388 141.979 -5.95584
21.538 130.367 -14.8373
-9.78417 136.365 8.16592
-9.56338 142.154 -4.85378
19.3284 129.429 -9.89669
24.1951 121.93 1.08759
19.5066 129.968 -11.2957
19.0495 131.178 -13.3715
16.5285 128.696 -4.92384
-8.01067 142.222 -6.40944
22.013 128.507 -10.7267
-14.2569 140.7 4.32296
-4.26023 140.27 -6.25718
25.2775 126.151 -8.949
11.7318 135.241 -13.3772
20.4125 128.758 -8.97238
30.2995 121.068 -3.37344
19.834 129.078 -8.94361
-10.8241 142.012 -2.11165
12.714 129.395 -1.37325
13.9221 134.873 -14.8248
-13.2457 141.106 2.95594
-2.70041 139.593 -5.82689
-4.68501 136.738 2.80487
13.6387 130.177 -3.86107
22.4185 123.956 -0.200288
-2.86378 136.809 0.763698
25.3991 126.27 -8.54324
5.32911 132.771 0.337185
2.45278 134.114 0.730947
20.8269 128.629 -8.3666
28.0202 120.865 0.511359
-8.041 136.761 7.09703
26.4156 125.84 -8.48393
20.8089 128.664 -8.21009
22.9891 130.873 -15.5889
12.6193 129.809 -1.14192
7.46529 136.852 -10.6883
5.26469 136.986 -8.40201
-11.1815 142.268 -1.05262
26.4766 126.291 -9.2202
23.039 127.545 -8.01264
23.6819 127.875 -9.48088
27.3987 121.168 1.11172
27.2906 125.101 -7.36989
28.2719 121.184 0.203059
28.8505 125.989 -10.9869
27.2378 121.348 1.23601
1.72009 137.902 -5.84033
3.79794 137.306 -6.89761
-5.33916 141.819 -6.30012
27.3075 125.545 -7.96615
-2.09714 139.844 -5.60795
7.1903 137.202 -10.4358
9.54941 136.555 -11.7163
13.6305 130.98 -4.01834
-11.1851 138.333 8.50192
-0.890661 139.26 -5.44812
24.126 127.875 -9.16591
24.1062 127.899 -9.18241
21.0674 126.761 -3.13737
-9.08048 143.54 -5.34806
14.7947 135.383 -14.7887
-7.75173 137.352 6.98058
22.2204 125.071 -0.480797
17.5738 129.432 -4.76249
19.9401 127.938 -4.15549
16.8388 134.123 -14.1007
19.2671 128.455 -4.34244
14.2088 131.057 -4.21796
22.3444 128.174 -7.21804
29.61 126.564 -12.0006
7.6979 137.644 -11.099
-7.56106 137.54 6.86743
-9.39858 143.802 -4.85493
-3.49037 141.144 -5.79232
8.83538 131.259 1.87176
10.7529 136.608 -12.1662
26.7596 125.539 -6.09971
28.7793 123.449 -3.69588
-6.64624 138.298 4.49294
-8.18831 143.732 -5.70752
-6.94799 137.942 5.72624
26.6833 125.179 -4.85336
7.79858 132.46 0.933147
1.44483 135.978 0.515876
21.4887 126.92 -2.54899
25.1563 127.256 -7.51428
21.94 125.825 -0.608856
27.6274 126.553 -8.74014
17.0418 134.281 -13.5397
24.9401 131.149 -15.6152
23.9747 128.59 -8.81237
-6.91524 138.346 5.36869
26.942 125.97 -6.29086
10.0655 131.315 1.41184
26.235 130.616 -15.7547
19.7161 128.793 -4.14121
18.1709 133.494 -12.7242
26.1766 127.2 -7.98921
7.97749 132.836 0.764906
-1.88457 138.147 0.444798
21.7491 126.339 -0.743301
19.9985 128.742 -4.02423
26.397 127.223 -7.97919
1.89836 139.079 -5.87975
-1.49987 140.61 -5.3283
-10.5335 144.188 -2.79879
30.0716 127.01 -11.7145
26.6957 125.935 -5.41811
24.5124 127.779 -6.86346
10.297 131.636 1.07935
21.761 126.257 -0.239336
-5.64069 143.241 -6.10244
8.10658 133.104 0.635626
0.236001 137.168 0.754969
11.2123 131.739 0.0867971
21.9223 129.119 -6.49922
24.1915 127.971 -6.54402
-11.5849 142.86 1.93307
-13.2408 142.784 4.06105
13.6471 131.95 -3.05169
23.8552 128.294 -6.69681
10.4104 131.92 0.898904
19.5354 132.655 -11.1122
23.9874 128.508 -7.02446
6.29317 139.088 -9.96915
-9.49072 144.891 -4.55437
2.41923 136.536 0.326159
-10.7631 144.249 -1.47378
16.0816 135.951 -14.0778
24.3721 132.135 -15.1826
26.8381 126.164 -4.70139
8.66091 133.207 0.742406
24.4878 132.112 -15.1471
22.9865 129.408 -7.40739
17.3955 133.778 -10.5595
15.7785 136.309 -14.2943
-7.79943 139.231 6.5893
28.3473 124.187 -1.79383
-9.3012 145.237 -4.80048
-8.64674 139.231 7.85066
20.1556 129.459 -3.77947
19.224 132.498 -9.43475
28.142 123.864 -0.615699
20.7457 133.815 -14.0549
24.5635 128.699 -6.93329
17.5552 133.38 -9.08727
29.9792 127.522 -10.4613
17.3885 134.048 -10.3435
17.5487 133.417 -9.12471
27.9977 130.909 -15.3824
-7.45303 139.831 5.88475
4.83207 140.043 -8.76401
14.4733 133.069 -4.43892
-9.35488 145.623 -4.66118
-6.11104 140.233 3.52819
21.3776 128.464 -2.19336
26.5916 126.114 -3.00896
26.8063 126.31 -3.66216
4.11078 136.527 0.108762
-10.7511 140.848 7.83544
22.8049 129.206 -5.13443
-5.63739 144.332 -5.71704
3.20061 140.289 -6.97176
12.4212 132.537 -0.40358
-0.542292 138.793 0.83317
26.4189 126.326 -2.66803
6.12464 135.697 0.0888399
17.3165 134.623 -10.4025
16.089 132.836 -4.9724
19.6614 132.677 -8.69879
-12.3058 142.53 6.48578
4.14117 140.47 -7.98481
25.9253 129.078 -7.92189
-4.44143 140.845 1.19775
20.301 129.999 -3.37146
23.8324 129.417 -6.10635
21.4673 127.693 0.573525
29.6392 131.419 -17.1279
17.8621 135.336 -12.0183
1.39551 141.055 -5.59335
7.67304 140.187 -10.8969
-10.7965 141.484 7.63077
12.3319 138.533 -12.6008
26.4959 126.874 -3.15857
0.516491 141.409 -5.20471
10.8177 133.13 1.25725
8.75131 134.757 0.0448185
19.781 130.7 -3.72498
-0.244622 141.792 -5.09586
26.0901 129.255 -7.79308
25.7425 125.476 0.992553
19.6966 134.133 -11.1813
3.35175 140.916 -7.2765
-10.9182 144.368 1.6454
26.275 128.768 -6.81985
26.4235 125.368 0.562634
30.0071 130.055 -13.9516
23.3431 129.91 -5.91217
29.4871 129.301 -11.6576
30.0643 129.104 -11.8725
17.1821 136.017 -12.2706
18.5443 134.139 -9.55287
3.30215 137.773 0.106833
7.34855 140.522 -10.6217
-12.3013 143.594 5.41762
-9.85568 146.348 -3.49325
25.991 129.064 -6.67018
20.4006 130.375 -3.09
13.0578 134.092 -2.69406
27.0034 128.977 -7.39899
12.9 133.752 -1.6182
26.9865 127.661 -4.41891
-1.51308 142.711 -4.77862
-10.9477 142.276 7.13441
13.1995 138.799 -13.0884
24.5234 126.493 1.26557
23.6446 130.465 -6.45352
-12.0638 143.731 5.65448
20.8614 133.795 -10.4122
0.0300835 139.635 0.790864
27.3767 128.655 -6.52286
20.1206 133.011 -7.66896
7.3964 141.007 -10.6226
-2.30854 143.409 -4.67282
-11.7978 143.477 6.19838
9.43968 135.231 -0.0976228
26.3328 127.191 -1.80148
10.64 134.322 0.613779
-10.0849 146.773 -2.90184
18.3777 136.418 -12.8783
25.3246 130.55 -7.89391
-6.922 146.252 -5.35093
18.8809 134.461 -9.07719
20.2456 133.072 -7.56647
13.7592 139.106 -13.3411
18.7276 136.397 -13.0837
29.1283 129.229 -9.20704
26.3252 132.937 -14.17
-5.92489 145.874 -5.47236
12.7825 139.445 -12.8005
17.117 133.513 -4.64673
12.4249 133.963 -0.17374
-4.23916 144.809 -4.89752
12.6534 139.524 -12.7246
6.06473 141.529 -9.53084
0.492595 142.443 -5.08266
14.8441 138.933 -13.8901
21.4969 131.664 -5.47323
22.2474 131.36 -5.63147
23.7902 130.998 -6.56312
9.29914 135.736 -0.194047
11.4935 134.037 1.03984
-6.09566 146.197 -5.48957
17.7261 135.152 -8.57677
-8.97041 142.014 7.1564
22.9579 128.741 -0.382827
-8.59467 141.884 7.09042
14.9597 134.889 -4.6283
27.0151 128.799 -5.06674
20.562 136.136 -13.8505
5.56255 137.808 -0.121059
-10.1661 142.832 6.97195
25.0992 130.815 -7.21626
-10.3376 142.986 6.84673
19.5685 134.586 -9.11103
30.6557 130.868 -13.6892
23.115 129.049 -0.891112
2.44481 139.379 0.150012
26.1529 128.022 -2.1239
26.6664 128.805 -4.32859
-11.704 145.209 3.80131
4.77833 138.371 -0.0965729
19.2347 136.265 -12.1554
11.7895 134.214 1.01146
-5.59265 146.126 -5.25703
24.7414 128.633 -1.57337
25.0382 128.424 -1.42327
20.6006 129.946 0.341977
0.149268 143.047 -4.97695
26.091 128.294 -2.29371
-9.90728 147.476 -3.0635
11.9991 134.364 0.643761
-0.927913 143.57 -4.7694
5.55564 138.104 -0.144317
21.234 132.217 -5.21082
24.6838 131.418 -7.36278
24.9504 128.862 -1.94109
5.74791 138.099 -0.160203
25.1318 128.777 -1.90324
17.2964 136.475 -9.84947
1.75727 140.037 0.259555
21.3896 132.355 -5.33616
26.7504 133.597 -14.2287
-11.2795 144.448 5.75655
13.2608 140.164 -13.0361
-0.130418 140.968 0.683079
24.877 134.473 -13.8667
8.01019 142.004 -11.0209
-7.28994 142.633 5.30205
-9.67024 143.293 6.64602
-4.80675 143.09 1.50859
10.5671 135.783 -0.0886879
0.521155 143.357 -5.17556
-10.3003 143.947 6.11871
-11.1944 145.81 3.05767
-10.2106 146.185 1.14284
24.5397 129.912 -3.01785
25.9445 130.817 -6.64384
-7.06019 147.258 -4.85921
29.7233 133.785 -17.5053
12.8927 140.522 -12.8475
29.0929 130.85 -10.1587
16.921 134.782 -4.75404
12.3116 135.18 -0.25461
-10.9801 144.704 5.68381
5.07912 138.98 -0.174245
30.6095 133.793 -18.1655
20.9901 136.936 -13.8122
1.29577 143.71 -5.89922
20.8848 134.149 -7.3536
0.0441451 143.93 -4.88125
18.6913 136.687 -10.3192
19.0682 137.747 -13.098
18.7178 137.555 -12.125
18.2867 136.716 -9.65988
19.3036 132.05 -0.440942
-8.11856 143.753 5.39789
16.8563 135.324 -4.76236
12.2629 141.228 -12.485
19.538 133.186 -2.99598
-10.008 148.385 -2.47353
-0.632476 142.185 0.437195
26.682 130.831 -6.01792
17.591 137.241 -9.68896
3.55607 140.264 -0.113372
25.2391 132.478 -7.94645
-10.3011 147.7 -0.5285
17.4039 138.838 -12.884
22.2715 131.021 -1.15077
18.3063 137.413 -10.7207
11.7383 135.994 0.135019
28.2776 131.186 -8.32631
30.4979 133.51 -15.8912
18.8505 137.336 -10.8271
2.23575 144.156 -6.7038
20.4633 131.67 -0.104206
28.7492 134.667 -16.3136
11.3516 136.508 -0.213437
25.5717 132.32 -7.38899
31.2698 132.685 -14.7302
19.5312 137.4 -11.5713
-10.1538 148.655 -2.12189
5.88849 139.451 -0.280859
-0.667592 144.854 -4.58321
19.7835 132.204 -0.21567
-4.77262 144.359 1.33804
-9.00966 144.563 5.8501
15.394 136.501 -4.5083
-10.0156 145.275 5.53987
6.13061 143.6 -9.35361
-1.30876 143.098 0.421349
14.0359 141.317 -13.3818
25.8512 131.818 -5.97985
13.1668 137.302 -3.42381
21.7664 131.409 -0.319297
-10.1369 145.544 5.43813
0.680804 142.329 0.260613
30.6645 132.024 -11.5043
-2.71289 146.205 -4.06319
-6.91854 145.07 3.47641
19.275 138.075 -11.2696
21.2569 131.834 0.287239
29.8554 135.143 -16.8932
12.904 136.892 -1.10394
18.6745 138.749 -11.8971
1.11622 145.195 -5.82764
25.4351 133.043 -7.03379
22.2956 132.014 -1.07843
17.0811 140.016 -12.7099
15.782 137.114 -4.76077
29.6378 135.262 -16.6678
17.8731 139.46 -12.2996
23.6029 132.274 -2.88898
27.232 135.493 -14.1769
22.8378 137.576 -13.6566
13.9603 137.945 -4.17954
0.0858953 145.635 -5.05209
13.9839 137.988 -4.19394
-5.36649 145.499 1.70666
27.9013 131.922 -6.6693
-7.89962 149.261 -3.5749
-10.3194 147.658 3.00103
9.65613 143.642 -11.2196
5.79341 140.644 -0.0708337
15.9139 141.142 -12.8228
-9.8346 146.712 4.72897
21.3847 138.568 -13.3093
-10.4217 148.28 2.01588
15.9605 141.172 -12.6612
2.31981 145.549 -6.54581
21.8316 138.333 -13.1123
-0.140249 143.748 0.396849
29.9644 132.815 -9.85758
11.5047 143.393 -11.9309
5.8056 145.022 -8.88177
6.64234 144.821 -9.37805
12.43 138.846 -2.74737
18.455 134.723 -0.501128
31.3703 134.269 -14.4079
15.7446 141.33 -11.9183
1.84771 146.024 -6.17791
30.4939 132.921 -10.2853
19.81 139.713 -12.8496
13.9689 142.44 -12.1136
-9.74623 147.714 3.73887
29.9861 132.998 -9.63913
23.1372 133.703 -3.20589
23.473 133.786 -3.71951
19.1612 138.755 -9.72244
23.4582 134.832 -5.88192
25.0706 134.142 -6.17719
-4.5068 148.679 -3.87683
18.6184 135.836 -2.17137
-9.01026 150.192 -1.86092
26.3204 133.686 -6.0459
12.6805 138.21 -0.216552
4.30584 145.944 -7.54041
3.20884 142.795 0.716421
6.77664 145.451 -9.28124
27.0808 136.617 -13.0726
30.7064 134.306 -12.1187
18.4523 140.015 -10.5648
2.12679 146.631 -6.25348
-8.45045 147.641 3.76773
23.3447 135.155 -5.1805
3.08785 146.498 -6.81885
30.3771 133.472 -9.46883
26.3536 137.107 -12.7284
4.27235 146.287 -7.50233
-7.55454 147.697 3.13645
9.63928 144.953 -10.6377
23.3814 135.332 -5.19026
11.3861 144.363 -11.3079
6.48397 145.902 -8.9918
17.6402 137.837 -4.02627
30.6261 133.656 -9.56896
11.7921 144.315 -11.3488
2.12042 147.054 -6.21993
25.2557 134.785 -5.80155
17.0269 138.443 -4.35219
29.0285 133.489 -7.2627
27.3444 136.991 -13.0286
-4.89429 149.655 -3.73242
17.8337 136.346 -0.498583
24.0465 135.249 -5.16469
31.8747 135.039 -13.7324
18.3325 140.179 -9.43843
3.55706 146.83 -7.06647
15.9995 139.277 -4.3361
-5.44629 150.181 -3.6141
28.4786 136.325 -12.1654
-4.123 149.435 -3.42193
13.7712 143.632 -11.2055
17.8139 141.382 -10.6456
28.9018 135.672 -10.8178
17.9639 140.952 -9.81379
19.2256 140.556 -10.3838
2.42319 147.524 -6.36568
18.0158 141.057 -10.066
22.8284 139.505 -11.8843
15.9849 142.289 -10.1141
24.3582 138.91 -12.2134
12.3179 139.808 -0.161522
-5.99916 148.61 1.56692
13.8359 143.931 -11.0001
20.9322 136.188 -1.99617
27.5391 134.506 -5.81842
23.2452 139.445 -11.6127
3.98202 147.616 -7.24487
29.2839 135.285 -9.20079
-0.101113 148.66 -4.78089
30.1301 134.64 -8.56909
9.34736 141.48 0.445749
17.4128 138.703 -2.64053
-8.99713 150.882 1.04859
20.9437 141.253 -12.2517
27.6721 134.832 -5.795
28.1634 138.637 -14.7481
17.4135 138.601 -2.20686
8.18556 142.216 0.581969
10.0922 141.49 0.0386625
29.6962 137.617 -13.9886
29.7442 136.819 -12.0427
27.9368 137.124 -10.5697
12.919 141.379 -2.27762
29.0985 135.944 -8.88965
28.3748 139.101 -15.0296
15.5623 140.879 -4.12968
-6.29797 151.688 -2.74213
31.4111 136.938 -13.6935
9.19762 142.071 0.643533
-0.213544 149.393 -4.68073
-1.65332 149.84 -3.89022
18.5294 141.123 -7.82107
15.457 141.112 -4.15975
23.6018 140.033 -11.159
11.4076 146.125 -10.5184
31.0695 137.251 -13.6056
26.4958 138.818 -11.5346
17.9506 141.585 -7.70387
28.094 138.98 -13.6638
12.4273 141.921 -2.01864
13.8731 144.963 -10.3726
11.5618 146.204 -10.3378
6.60499 144.047 0.182427
25.8709 139.162 -11.2863
28.6216 135.78 -6.95001
29.2907 138.175 -12.8127
-6.79877 152.146 -1.94209
31.8806 137.227 -13.6356
27.7424 136.229 -6.52231
16.6769 142.994 -8.69779
30.0381 137.763 -12.4998
32.3356 137.13 -13.6879
17.75 142.431 -8.44281
23.0613 140.934 -11.2596
-7.38646 151.477 0.761065
12.3602 141.738 -0.421881
14.5336 142.026 -3.42077
12.1101 142.91 -2.53507
26.9149 139.071 -10.8687
10.336 142.609 0.611772
24.135 140.477 -10.6334
17.2997 140.183 -2.06119
25.389 137.143 -4.55076
29.0803 136.904 -8.20823
26.6747 137.392 -6.39931
27.8954 139.8 -13.0555
17.6499 142.674 -7.5261
15.8035 144.128 -8.59382
26.4461 137.509 -6.1792
-7.30532 152.81 -0.922644
30.8042 138.317 -12.9067
12.6344 142.188 -0.247556
17.5329 142.824 -7.26588
17.9738 142.51 -6.94769
29.2023 139.966 -14.1288
28.8622 138.863 -11.263
25.1446 137.954 -4.87824
4.60143 149.596 -6.77762
11.063 147.431 -9.37577
15.085 145.172 -8.97743
18.4433 139.323 0.148709
25.0708 140.45 -10.0205
18.0437 139.741 -0.313734
5.32117 149.446 -7.07216
11.824 147.195 -9.24559
28.2033 138.012 -7.76496
25.9779 138.19 -5.53174
15.0658 145.4 -8.87212
12.9257 144.093 -3.29933
27.6618 138.121 -7.11809
11.5006 144.191 -1.84179
15.8888 142.864 -3.97201
7.05161 149.243 -7.84958
2.53159 150.603 -5.63089
26.0981 138.311 -5.56604
10.3583 148.163 -9.1104
13.8108 143.877 -3.52781
30.2852 139.856 -13.645
11.0597 144.732 -2.12804
-4.74257 152.978 -2.03723
27.9652 139.774 -10.6025
21.1958 143.431 -10.7571
15.8247 143.137 -3.83155
10.9242 148.085 -8.97225
28.2745 138.763 -8.39133
18.2441 140.223 0.0354617
10.9826 148.116 -8.94229
26.8463 140.366 -10.1091
12.2847 147.479 -8.81083
-3.20895 152.905 -2.75292
10.4587 145.618 -2.38305
12.1495 144.089 -0.876614
19.706 144.353 -10.015
30.1721 140.462 -13.4321
15.448 145.49 -7.46973
2.09938 151.481 -5.21582
-2.83348 153.075 -2.84829
0.300039 152.179 -4.33493
27.8659 140.701 -10.7839
27.6152 141.202 -11.517
11.1723 145.37 -1.67169
16.3417 143.263 -2.90065
28.0408 141.35 -12.0626
10.3026 146.201 -2.26965
14.0827 144.766 -3.45983
26.5608 139.253 -5.51605
27.6604 139.885 -8.10587
29.5585 140.951 -12.6287
20.0529 140.753 -1.18195
26.2801 141.234 -9.34229
17.6155 142.028 -0.921466
9.59055 145.264 1.20395
0.853028 152.313 -4.22277
29.3468 140.796 -11.6724
28.4527 141.421 -11.9374
26.4499 141.337 -9.40808
28.0235 140.999 -10.4326
11.3328 145.66 -1.336
-5.43119 154.267 -0.901968
17.4242 142.648 -1.42753
10.635 146.241 -1.48569
3.90425 151.611 -5.54212
27.9834 139.944 -7.42457
11.0953 145.158 0.692693
10.5391 146.291 -1.16372
27.9234 140.081 -7.43775
27.1808 140.816 -8.12186
13.2618 148.224 -8.3687
23.274 143.906 -10.3118
19.4118 145.391 -9.1218
28.8149 141.669 -11.6783
4.03755 151.819 -5.45471
13.4109 145.959 -3.24932
12.4157 148.776 -8.28752
12.7992 148.583 -8.30257
9.98146 146.739 -0.879801
10.0899 145.606 1.51398
27.9797 140.171 -7.00383
20.2908 145.24 -9.29594
15.0499 145.373 -3.37948
23.4162 144.019 -10.0277
9.91841 146.812 -0.548837
25.7868 142.171 -8.55579
27.2619 142.1 -9.76857
27.2967 140.343 -5.86744
2.26462 152.557 -3.93363
10.4243 146.91 -0.668143
8.52394 150.827 -7.10888
19.1245 142.123 -0.0473308
15.852 144.878 -2.11406
18.2657 142.623 0.160729
16.0416 144.711 -1.84493
26.7713 141.765 -7.72091
10.4877 150.224 -7.60713
28.4899 142.48 -11.0809
27.2306 141.264 -6.71249
11.3139 146.859 -0.559992
11.6557 147.435 -2.22203
17.1393 143.76 -0.312797
27.0579 141.528 -6.79277
9.77334 147.837 -0.757701
5.43071 152.242 -5.29829
28.6211 142.649 -10.8705
10.8428 147.406 -0.795886
16.9832 146.3 -5.40695
8.7173 151.307 -6.8041
28.4705 142.609 -9.97927
14.9831 148.23 -6.76334
2.52886 153.165 -3.22837
9.287 148.37 -0.209394
6.88087 152.094 -5.52455
28.2303 142.385 -8.50393
21.768 145.948 -8.80424
22.277 145.824 -9.09068
13.3815 147.637 -2.79319
28.3573 142.429 -8.19568
3.20897 153.269 -3.06122
16.3323 145.33 -0.626256
14.1252 147.556 -2.96176
17.623 144.622 -0.489306
8.33095 151.963 -5.88362
27.9935 142.863 -7.68246
18.0199 144.93 -0.644904
8.61708 152.177 -5.75336
22.6109 143.299 -2.05327
20.251 143.918 -0.673296
24.8852 144.753 -7.8798
13.1916 148.374 -2.31969
17.8014 147.196 -4.91106
3.80544 153.645 -2.73778
19.7904 147.513 -7.43692
18.4147 145.253 -0.804087
25.3387 144.6 -7.34398
23.9895 145.947 -8.43053
17.7989 147.721 -4.77792
26.7006 143.046 -4.67912
15.7314 148.895 -4.8939
3.01205 154.314 -1.92307
15.4105 149.291 -4.96728
11.3446 151.743 -5.61323
16.0914 147.125 -0.784593
19.7919 148.11 -7.18958
9.49668 152.568 -5.05144
19.0678 148.258 -6.52236
18.9645 145.712 -0.734263
22.4138 144.355 -1.63274
6.9448 153.35 -3.66092
21.2582 147.765 -7.44937
9.58371 152.662 -4.54181
8.64897 151.129 0.0618391
11.5757 150.183 -0.94597
23.5761 144.742 -2.72288
6.24566 153.784 -2.40093
5.93447 153.932 -1.87933
18.4796 148.791 -4.9339
24.0196 147.203 -7.74845
12.4192 151.859 -4.43646
23.2734 147.941 -7.71028
12.5654 151.883 -3.99418
19.6093 149.134 -5.70554
20.9321 149.032 -6.9571
9.17764 153.048 -1.8072
10.1423 152.707 -2.14137
9.9449 151.775 0.251283
8.45567 153.332 -1.27315
24.5947 145.762 -2.86243
17.4641 149.761 -3.40658
10.0461 151.965 0.35536
21.7899 146.406 -0.747056
25.806 147.075 -6.48305
19.8319 147.638 -0.562542
26.0783 145.961 -4.07205
17.6893 150.15 -3.47163
13.1628 151.924 -2.16183
23.1819 146.556 -1.70911
19.9102 149.869 -5.15802
24.0889 146.435 -2.34169
15.8527 150.856 -2.46347
11.6491 151.935 0.105877
19.2457 148.209 -0.369015
20.3825 150.052 -5.581
23.8858 148.747 -6.70418
24.3752 146.713 -2.36084
25.7415 147.226 -4.81545
14.2563 152.035 -2.06078
