ply
format ascii 1.0
comment Created by Open3D
element vertex 1922
property double x
property double y
property double z
end_header
8.30267 119.71 -7.82729
-20.7789 103.508 -12.734
-1.31527 113.421 -7.47502
-31.7394 92.8844 -4.98225
-10.8493 101.72 4.50922
-26.2895 94.4345 -0.811134
19.9403 123.618 -0.119745
1.38826 106.905 10.1862
3.73232 117.046 -7.99216
-14.3352 107.032 -11.1058
-0.406727 105.265 11.3782
-2.1822 108.76 1.66087
-6.31638 101.267 11.9256
-8.99252 103.085 4.5034
4.72797 110.775 6.9776
-29.2305 93.7698 -2.79638
20.3852 123.175 1.9177
0.429729 106.075 11.2037
-16.0586 106.559 -11.9545
-14.771 98.799 6.13983
-3.73428 106.863 3.99467
-11.0137 102.56 3.4211
3.7399 117.376 -7.97954
-2.27442 108.763 2.13717
-4.28267 102.53 12.6604
-9.51499 103.8 3.0115
-15.8226 106.795 -11.7775
-16.68 106.452 -12.2049
4.90374 111.263 6.66615
17.5879 122.954 -0.903362
18.7038 123.498 -0.498418
-10.5717 102.314 4.90697
-20.5002 96.8477 3.10667
5.48543 115.153 -0.541322
-12.2971 100.917 5.68127
-8.98042 101.146 9.65894
-3.75753 103.228 12.3559
-26.8896 94.8681 -1.07929
-18.7305 105.229 -11.9476
-5.72458 106.589 2.69557
4.91386 114.748 -0.169116
1.56983 107.82 9.94935
-6.06925 102.047 11.8594
-3.1774 103.819 12.0585
-32.4932 93.444 -5.42112
-7.50678 105.172 3.45647
0.924521 106.929 11.1329
12.4987 118.542 2.33061
-21.738 103.773 -12.5347
13.0052 118.764 2.64696
5.78217 118.981 -7.41872
0.285385 106.657 11.2011
5.77959 118.994 -7.41038
-5.73169 106.658 3.16298
-1.88862 111.065 -0.950738
-2.90668 104.359 11.86
14.0486 122.281 -3.10881
-13.1466 108.455 -10.4589
-5.61658 108.604 -0.604271
-9.21999 101.546 9.43755
-9.52617 103.776 4.36639
-6.28753 112.534 -9.71466
-2.58573 108.784 3.23397
-13.1437 100.963 5.56747
-1.84718 109.924 1.88159
-17.9263 97.7679 6.11627
10.657 118.182 1.55341
-20.3488 104.959 -12.2187
-16.9941 98.0916 6.78494
-5.92271 106.781 3.42093
-11.6984 102.441 4.86363
7.61381 118.298 -2.55689
7.16946 117.946 -2.364
-1.2142 114.86 -7.11948
11.0859 118.769 1.20669
-5.72978 108.24 0.856845
4.69133 113.654 3.45039
10.6149 119.871 -1.68405
-30.6732 94.521 -3.725
8.8332 119.515 -3.32153
-11.1012 103.128 4.43493
-22.3577 103.941 -12.3895
-1.93572 110.024 2.2462
4.70763 114.581 1.57561
5.27427 115.863 -0.353096
10.3062 119.584 -1.43044
-24.0366 102.65 -11.8782
6.68463 116.248 0.742838
-3.04253 114.332 -8.27781
-15.1275 99.7571 6.23077
-30.3815 97.645 -9.80675
-9.26616 111.288 -10.1834
5.62383 115.875 0.190217
5.03706 115.026 1.1941
-17.9271 106.62 -11.8807
20.3586 124.628 1.62377
-7.65116 102.178 11.3327
-23.38 96.5956 1.99916
17.7113 123.849 -0.151509
-8.96159 111.592 -10.1264
-11.7424 102.859 4.55181
14.6265 118.733 6.52548
-32.8548 94.3997 -5.93783
-7.27457 112.54 -9.73007
-16.3756 99.2393 6.14051
-32.1428 94.6211 -5.22354
-3.56405 108.044 4.90557
-18.5 98.2489 5.48927
-10.8146 110.549 -10.0355
19.6199 123.001 4.64823
10.1688 117.974 2.58741
10.3163 120.324 -2.14921
8.49662 121.933 -7.83621
-24.9682 96.4123 1.03113
-3.78039 114.711 -9.06776
-10.5989 103.562 5.45409
-2.46132 109.673 3.53355
13.1089 122.937 -3.49968
-1.01266 115.723 -7.25862
7.35054 116.801 1.72373
-5.31675 103.709 12.3154
6.34873 117.891 -1.87833
-11.1464 103.842 4.25019
-25.704 101.899 -11.2045
10.3415 121.738 -4.58291
13.2529 118.201 6.80276
-4.44651 104.291 12.352
11.425 118.945 2.84979
9.26765 120.959 -4.21622
-12.8799 102.649 4.7236
7.38405 117.585 0.515818
19.618 123.625 4.31046
8.99789 122.405 -7.36943
9.71768 122.193 -5.94427
-1.18547 112.801 -0.761726
8.60626 120.08 -2.82125
-3.26409 105.545 11.8692
-5.27205 114.409 -9.5046
6.00377 120.258 -6.66837
4.34749 112.813 6.82919
-5.57216 108.098 3.49455
8.66364 120.24 -2.88199
-28.7715 99.983 -10.4827
-21.1405 98.2432 3.44141
-5.36529 109.946 -0.0142164
-1.29689 111.65 1.87555
12.0524 118.886 4.59996
10.2261 120.671 -1.6049
10.4195 118.108 4.15325
13.241 118.752 6.60731
-10.2266 104.351 5.44982
-9.04425 104.108 7.55291
-5.33544 110.049 0.0917564
9.99202 118.882 2.07351
10.715 118.284 4.34532
-32.5994 95.3471 -5.50731
-19.4024 98.6566 5.29202
-10.7239 104.692 4.33965
10.6416 118.195 4.61274
-15.5282 100.905 5.91526
19.589 125.578 1.15371
-8.50148 104.15 8.64383
10.7799 118.262 4.80815
-32.2534 95.3976 -4.74857
-7.59815 106.29 5.42517
7.83335 117.268 3.10156
16.9271 121.955 5.44348
-8.43461 104.17 8.86571
4.43036 114.912 3.58602
19.5874 125.701 1.23325
-31.395 96.8021 -6.34414
-18.2863 107.752 -11.79
-30.0074 95.7489 -2.23501
-26.8491 96.8519 -0.31087
10.056 119.826 0.866289
11.7401 118.358 6.27273
10.1108 122.4 -4.40121
-4.53217 115.363 -9.19597
-0.856157 116.785 -7.23062
-17.4771 99.416 7.08276
-31.2542 96.7341 -5.66861
-5.27175 110.127 1.01787
-20.6986 98.6942 4.42356
13.7636 119.128 7.66992
19.6094 125.849 1.37866
-1.20014 112.212 2.19721
1.93134 118.391 -6.56972
8.94154 121.332 -3.34854
-8.39518 113.292 -9.66814
6.33174 119.159 -2.18944
-13.7302 102.964 5.00441
-1.09407 112.403 2.10509
-8.18957 104.278 9.70117
-4.20724 108.5 6.16056
-6.90467 114.235 -9.53159
-8.07695 103.631 11.2518
14.4579 120.438 6.12584
8.5981 118.154 3.06905
2.53654 118.866 -6.56236
-30.9032 96.8657 -5.07197
19.7153 124.571 4.59786
-20.3046 98.9325 5.0387
-8.08865 104.329 10.1609
-0.421961 113.563 1.07561
4.75217 114.805 5.44673
-22.4161 105.798 -12.0592
-27.9412 101.651 -10.6813
-2.70471 116.306 -7.63331
-7.92219 113.906 -9.58081
-20.8615 98.9658 4.56598
-13.3277 103.684 4.84043
-30.7953 97.2944 -5.10573
-1.42963 112.233 2.89317
-3.80296 112.573 -1.01089
-14.4507 102.822 5.26718
10.6843 123.412 -4.33724
20.3808 126.235 2.74443
-5.87793 107.923 6.10522
-5.55994 105.26 12.1796
-31.1605 98.0304 -6.91188
-2.402 111.091 4.23398
-2.5696 110.898 4.44814
12.3471 119.136 7.13052
9.23164 122.541 -4.18935
-30.7985 97.3534 -4.85885
3.63998 113.204 8.03333
-14.5269 102.925 5.29214
9.32648 119.06 3.38528
-1.96108 108.081 11.4782
8.44291 122.068 -3.99976
-7.99705 114.182 -9.46464
-26.0458 103.41 -10.9771
8.39088 122.068 -3.99405
17.6805 125.489 1.28877
-31.1514 98.2302 -6.86192
-7.77944 104.537 11.3476
10.0083 123.374 -4.45665
13.6617 119.735 8.12643
-13.14 110.846 -9.13734
0.443914 118.363 -6.60878
-3.23312 113.413 -1.09649
-27.8316 102.284 -10.6162
-8.23361 107.563 4.68253
9.69684 118.872 4.95117
-29.5686 97.0402 -1.77324
10.1947 124.586 -6.37882
9.08523 118.695 4.68062
-30.9806 98.4126 -6.35202
-4.91749 111.971 0.120579
9.18603 120.891 0.279748
-27.948 102.379 -10.5633
-4.94681 108.676 7.137
9.19104 121.792 -1.47221
13.6856 120.893 6.55288
-18.8369 108.879 -11.8181
-20.7798 99.5795 5.28105
8.18242 120.781 -0.29782
9.20243 119.276 4.37077
9.95931 119.174 5.65
-14.3072 110.917 -9.52144
-4.25507 107.025 12.2235
-4.76698 112.746 -0.503846
-3.11272 117.392 -7.96386
9.032 123.454 -4.36781
8.87777 123.219 -4.0402
-27.5505 98.0951 -0.0268204
-4.78441 111.835 1.83314
8.4738 121.241 0.0440741
3.45197 114.733 7.1809
3.75383 121.065 -5.72252
9.31353 119.607 4.83746
10.2249 125.71 -6.7738
8.50311 122.02 -1.20432
-7.88017 108.531 5.22306
-26.6269 98.5512 1.07098
-4.6392 117.209 -8.69497
-20.3766 100.244 5.93543
-15.3866 110.948 -9.86683
-3.03294 111.579 5.4684
3.12612 120.776 -5.59814
11.9162 125.096 -2.87937
-4.61831 112.883 0.663013
-8.08657 115.238 -8.95746
11.1184 119.912 7.00066
4.45869 121.827 -5.89661
16.7566 124.219 5.59767
-25.8098 104.845 -10.7612
-14.1955 104.678 5.22637
-5.82827 108.875 7.74678
19.0269 127.169 2.63286
9.8934 119.699 6.11308
-7.34322 108.239 7.11621
-26.8137 98.7885 1.08362
-5.47877 109.137 7.95861
11.4164 120.345 7.10099
-1.40971 116.143 -1.26508
8.25859 120.843 1.8433
9.95678 124.669 -3.87464
-23.0202 99.9715 3.88723
8.20507 120.444 2.76305
-4.05083 117.839 -8.21299
-25.2323 105.703 -11.0463
13.0928 125.769 -1.73014
5.69828 117.675 5.43792
10.4151 125.802 -5.33266
8.51973 119.652 5.09957
0.892397 116.73 1.03511
-0.87686 114.884 2.65084
8.53766 123.09 -1.98394
-13.5682 105.612 5.1842
-0.920443 114.861 2.72908
-4.52798 110.779 6.51785
-24.8818 106.328 -11.3958
-20.3581 109.324 -11.6138
7.36285 124.987 -7.36483
-9.05694 108.42 5.52089
8.11571 122.546 -1.14534
-11.3979 106.908 5.63383
9.88073 125.257 -4.43931
-3.73716 114.8 -0.528992
2.59541 113.692 10.3535
10.1201 125.098 -3.57878
2.32698 113.441 10.5245
7.86845 120.721 2.71474
8.93597 123.137 -0.942639
-20.8655 100.812 6.09827
-0.581348 115.634 2.17721
-6.47136 107.837 10.7655
-4.76981 112.385 3.48672
4.68472 122.959 -6.04038
-5.50306 111.426 4.65386
-1.56125 116.715 -1.16556
2.68622 114.044 10.2682
-7.85531 108.19 8.561
9.42594 122.802 0.986517
13.9499 126.466 -0.632718
-27.946 99.2127 0.531674
9.50882 126.646 -6.91974
-4.3986 111.402 6.57737
7.76808 122.549 -0.556782
9.72785 125.279 -3.64415
-24.3577 107.296 -11.4969
15.0817 123.425 7.53029
8.1551 123.683 -2.25602
9.01304 124.888 -3.54888
7.57961 122.37 -0.0153794
-30.544 101.994 -8.28415
-15.0183 112.316 -9.15184
-5.86937 117.871 -8.54569
-14.0032 112.731 -8.62796
7.74026 124.243 -3.60814
-12.6761 106.867 5.63845
0.0907788 116.771 1.97475
-5.18105 109.192 10.8913
2.71599 114.571 10.1981
-1.41048 119.976 -6.70925
7.99396 124.554 -3.68077
12.0924 126.355 -1.95187
-6.089 109.757 8.63232
-22.369 101.047 5.14179
8.55495 121.23 4.17484
1.2976 118.334 0.551465
10.2518 126.671 -4.89926
-4.24446 114.166 1.9964
-30.6606 102.041 -7.89825
7.31634 119.859 5.61791
-10.8509 114.655 -7.81146
7.39178 120.703 3.9604
-12.1498 113.802 -7.74014
-6.69534 109.323 9.03747
8.39423 124.985 -3.65628
10.9862 121.607 6.96691
3.31914 122.513 -5.20192
-30.6426 102.111 -7.78283
-5.43167 110.931 7.51779
9.08787 125.282 -3.21079
-29.2997 99.8569 -1.10554
-10.8306 108.257 6.04648
0.175693 112.856 11.1584
9.00067 125.528 -3.57195
-5.18599 111.377 7.22227
-6.47425 117.902 -8.25864
10.2208 127.787 -6.65043
-20.2053 110.659 -11.3544
4.30582 117.659 7.03441
-6.2163 110.175 8.67769
8.26035 121.621 4.00143
-23.8393 108.312 -11.0769
-30.063 103.248 -8.69946
18.1602 128.396 3.14419
10.4159 127.219 -4.7647
-17.4373 103.733 7.38795
1.84551 114.49 10.6779
-21.554 109.854 -10.9894
-3.71818 110.565 11.5047
8.41009 121.293 5.22323
17.2936 128.113 2.7873
-27.3607 105.635 -9.79223
3.87582 123.573 -5.58626
8.42594 121.343 5.24722
1.35932 119.558 -0.342868
9.05262 121.209 6.54332
-6.12275 110.634 8.45725
4.63062 118.687 5.94215
-4.82073 110.22 11.1295
19.3665 129.22 3.61176
13.4538 127.776 -1.27801
17.8894 127.236 5.82537
-3.61619 116.349 -0.096743
-21.3427 110.233 -10.9835
-0.309278 121.234 -5.90814
-29.2394 100.439 -0.943336
9.31702 126.422 -3.8637
-19.0216 102.937 7.57354
-20.4574 102.303 7.00709
1.67598 122.055 -4.87522
7.7874 121.7 4.16122
-29.4995 104.339 -9.32978
-20.5114 110.953 -11.1611
-1.85864 115.603 4.13165
17.6155 127.192 5.9528
1.08746 119.744 -0.547521
-30.67 101.84 -5.48004
-17.7699 103.764 7.80139
-6.75384 110.165 9.29746
-25.8199 101.065 2.91987
-7.50765 109.522 9.79031
-22.225 102.1 5.69582
8.93981 122.335 4.98691
-30.2723 101.882 -4.43694
4.86389 125.206 -6.36943
-25.7255 101.247 3.03498
8.10295 125.741 -3.11902
-17.9294 112.472 -10.0056
3.95629 124.44 -5.77131
-26.0383 107.671 -10.7231
-0.919727 119.139 -1.10073
-24.3318 101.786 4.03708
-0.202296 117.68 2.96017
-0.494758 113.605 11.1631
-14.6423 113.952 -8.5264
-17.5488 112.701 -9.79023
-10.4884 116.007 -7.26388
-11.9683 108.635 6.30625
1.86111 120.244 0.421887
-2.02118 112.738 11.048
1.88017 120.31 0.337214
6.86901 120.942 5.80161
-6.26795 110.365 10.4758
10.4764 128.727 -5.71053
-2.72991 114.846 5.83977
-10.9785 109.341 6.44051
3.7729 118.549 6.8588
-14.9369 107.081 5.916
-4.29694 115.094 3.33397
8.41178 128.089 -6.96471
9.98841 128.937 -6.63046
6.15438 122.801 1.22117
-4.26439 115.276 3.14537
8.36369 122.17 5.63205
8.6274 126.489 -3.0854
-20.0528 112.052 -11.193
3.03068 123.859 -5.06235
14.846 129.236 -0.449667
8.75359 126.407 -2.62522
-6.22289 119.237 -7.62451
4.33668 119.345 6.3445
-20.93 111.525 -11.1086
10.0942 129.066 -6.35457
6.03107 122.869 1.27983
-16.7182 113.431 -9.28222
5.79222 120.535 6.01354
-2.25833 116.02 4.71409
0.224554 118.443 2.95149
-17.0943 113.309 -9.45342
7.19913 125.533 -2.47945
0.0983077 120.34 -1.02507
-28.2355 101.476 0.718113
-26.756 107.348 -9.64439
7.33493 125.846 -2.82587
-13.0758 115.132 -7.49394
-4.61198 120.452 -7.33172
7.54137 126.301 -3.27873
-29.5543 102.164 -2.21047
-29.7229 104.705 -7.70494
-6.43276 111.136 10.05
8.18029 122.819 5.06646
-9.58073 117.218 -6.91469
-9.29108 110.987 6.64243
-26.5133 107.797 -9.7761
16.9915 129.745 2.45
15.4673 129.895 0.129357
1.71454 121.27 -0.142325
17.8223 128.657 5.94404
6.00859 122.7 2.63118
-1.67128 122.088 -6.39854
-26.7932 102.079 2.09477
-4.39047 115.287 4.42387
-2.48071 113.457 10.8728
1.09944 115.808 10.7532
15.4905 130.051 0.166538
8.19827 123.358 4.50129
-1.42056 114.119 11.0642
1.02906 123.196 -4.7043
6.95082 123.131 3.41448
10.2598 128.742 -3.95846
8.4695 125.517 0.48939
9.38333 123.121 6.8238
-1.45997 122.411 -6.24298
7.07407 126.11 -2.55417
1.75085 120.393 2.41305
-9.6414 117.521 -6.77672
3.29681 119.186 7.11642
-14.163 108.454 6.31695
-28.9083 102.241 -0.380803
-1.91233 114.073 10.9836
10.923 130.313 -5.99208
-27.2121 102.341 1.74946
-16.9275 106.345 7.1617
7.9535 123.548 4.36915
2.0949 121.163 1.54361
9.11059 126.553 -0.338473
9.34161 129.721 -6.65714
-5.79853 112.12 10.1051
-4.83535 112.416 10.8344
-5.99848 112.398 9.31098
-4.42586 115.473 4.97141
8.89917 127.034 -1.3747
1.85384 120.811 2.30598
1.95654 121.964 0.0414677
-29.7308 102.984 -2.43854
3.48681 119.625 7.12589
-16.1834 114.753 -8.88721
-25.7724 109.315 -10.2992
8.72652 127.187 -1.56985
10.8838 130.157 -4.89616
-2.45105 116.955 5.03832
-3.83104 113.4 10.6804
-27.1432 107.863 -8.94352
8.25451 125.639 1.18593
-29.9153 103.433 -3.26828
-4.48436 113.016 10.7079
-6.80938 119.934 -6.99897
6.13831 125.457 -1.07874
6.79992 123.357 4.24872
3.24687 119.694 7.23748
17.0962 128.947 6.34869
-24.552 103.344 4.36534
-18.6321 113.972 -10.0712
5.90103 127.984 -6.63596
-6.70096 120.121 -6.95594
-23.0192 111.701 -11.1244
2.66467 122.315 1.05991
-23.1742 103.803 5.45904
-0.519941 115.702 10.8828
-29.9251 104.354 -4.70755
-5.18385 121.243 -7.00598
-10.3097 117.75 -6.50998
-10.2589 111.529 6.6983
-4.02731 116.798 3.97403
-4.3639 113.439 10.6218
11.0217 130.823 -5.32512
13.7399 125.62 9.3279
2.19999 117.94 10.0252
-4.50369 115.86 5.50911
-7.0257 113.712 6.68018
6.30453 126.036 -1.38319
9.48396 128.089 -1.39323
-4.49521 114.767 7.90931
-1.81638 123.139 -6.11547
8.85677 125.091 4.13295
1.01344 120.457 3.4187
10.7575 130.505 -4.66012
9.73083 127.503 0.317959
-15.0375 108.803 6.48824
5.53149 124.593 0.850823
-14.6238 115.944 -7.99707
6.48411 123.59 4.25416
10.1785 128.428 -0.902404
-27.3893 103.353 1.50872
11.9463 124.874 9.05957
-14.1128 116.185 -7.64209
6.13051 125.999 -1.11652
8.80594 126.63 1.15075
-4.39142 116.282 5.30479
15.5489 131.535 -0.027126
8.05601 126.921 -0.350393
-6.30078 120.824 -6.7897
10.9333 130.129 -3.24184
9.63129 125.566 4.63341
-29.9533 105.966 -7.23321
2.8758 119.688 7.98453
3.04825 125.956 -4.95412
8.12436 126.659 0.40531
2.70153 123.352 0.0991301
-3.78091 117.367 4.0401
-21.9407 112.946 -11.0035
13.6359 131.438 -2.11527
2.81008 122.867 1.42313
9.23027 124.851 5.8705
-1.5571 120.944 -0.383586
8.26444 127.149 -0.213292
-4.78177 113.738 10.574
9.66421 124.955 6.39175
7.30962 123.247 6.87315
-29.7685 106.394 -7.41998
0.0599089 119.955 4.07783
-13.5697 116.656 -7.253
5.61357 125.447 0.00201338
-11.8346 111.129 6.75144
7.46952 123.423 6.86439
3.20664 120.407 7.52414
-29.8132 106.07 -6.56795
6.92925 126.317 0.140606
-3.09994 119.073 1.98814
-3.96556 117.171 4.83822
-28.2594 103.815 0.401112
-29.1827 104.161 -1.54552
-19.9288 105.655 7.75301
-3.22597 118.519 3.08257
9.45158 124.743 7.10007
-3.77171 117.528 4.55921
18.9963 131.685 5.36827
8.32132 127.377 0.129758
-21.9951 105.057 6.51796
-16.3491 115.888 -8.69676
7.36427 123.603 6.91789
-28.0573 103.975 0.732269
10.3845 130.739 -4.01356
6.58 126.29 0.279525
8.81705 124.9 6.3078
-3.06609 119.163 2.43607
6.82387 125.062 3.31712
6.79002 126.841 -0.460059
6.68881 125.11 3.14193
11.0206 130.403 -2.19423
14.5824 127.449 8.82158
6.67636 129.623 -6.38029
8.601 130.675 -5.98146
-2.0213 123.905 -5.89419
2.96252 123.476 1.76786
-28.074 104.308 0.593861
5.4197 125.612 0.707632
17.5657 132.259 3.06539
-19.1681 115.256 -10.4149
-7.02462 121.054 -6.24696
-9.3521 113.364 6.88114
18.8171 131.299 6.95385
-2.97628 119.487 2.61849
1.60573 121.959 3.58055
1.09584 118.459 10.2831
16.4684 132.834 0.637304
-3.5938 117.043 6.97424
6.24443 124.883 3.67389
-4.21036 116.264 7.82332
3.04989 124.054 1.17493
-14.0912 110.643 6.53278
-4.54906 122.679 -6.00383
-11.9427 118.043 -6.14476
0.973682 123.778 -0.875984
-4.3663 116.166 8.01112
-3.48389 123.378 -5.99158
-29.0748 105.03 -1.61674
-8.63281 120.132 -5.96235
11.2158 132.167 -4.4682
5.25403 125.593 1.38032
-1.95268 121.364 0.676401
-1.53532 116.851 10.7667
18.7353 131.703 6.703
1.08395 124.08 -0.902098
10.4161 132.186 -5.34961
-5.46722 116.418 6.58482
5.6226 123.189 7.23109
-24.441 112.456 -10.5327
10.1328 130.669 -2.43573
-21.3071 106.06 7.23406
-2.50607 120.814 1.44746
-4.74309 115.844 8.92946
-2.33121 118.877 5.86408
-29.0657 105.449 -1.74737
12.475 132.085 -2.01193
5.05195 125.03 2.8996
10.263 125.777 8.3558
-3.82261 117.322 7.28974
7.64149 128.559 -0.936856
-1.54722 117.214 10.647
14.8523 128.631 8.62097
7.69881 129.285 -2.34228
-18.9156 107.403 8.05967
9.68103 127.205 4.77893
2.5339 125.112 -0.413536
-7.03561 115.422 7.16212
11.4152 132.099 -3.17732
9.13598 126.405 5.81459
16.7873 130.698 7.13023
-28.8394 107.423 -5.09121
-18.0636 116.498 -9.67894
11.7301 132.514 -3.38218
-6.07759 116.234 7.01317
16.4414 133.654 0.55669
0.35429 118.755 10.4417
-15.6311 110.236 6.98795
-22.5308 106.138 6.39366
-16.3204 117.129 -8.37432
-3.32331 116.694 10.0502
9.89375 127.056 5.96853
13.0758 132.875 -1.98033
-19.2984 107.478 8.08852
-10.5155 113.667 6.88546
-12.2938 112.613 6.78725
-15.4986 110.489 6.99941
18.6261 132.319 6.91887
-21.4535 115.217 -10.8059
-18.8646 116.497 -10.0229
2.47773 127.349 -4.17636
11.8778 133.033 -3.51628
5.7904 130.377 -6.0712
-1.39608 125.396 -5.214
10.2291 126.962 7.11301
9.79866 131.121 -2.22648
3.92852 125.982 0.901462
10.3224 130.714 -0.419544
-8.93741 114.811 7.23397
1.87178 123.406 3.67399
3.82551 125.84 1.17003
-23.5886 106.4 5.31458
6.08094 124.707 6.67622
6.59873 127.313 1.95237
-27.9977 108.512 -4.9065
10.5778 127.111 7.73604
11.5568 131.977 -1.16518
-1.54982 118.212 10.2518
-28.523 109.588 -7.7989
6.67978 128.652 -0.671224
-3.58888 117.424 9.29515
-28.6791 106.603 -1.53336
-5.28887 123.328 -5.32129
7.95533 128.262 2.07543
-16.5102 117.65 -8.38308
6.68909 129.011 -1.06391
-25.1041 106.384 3.92276
14.2928 134.038 -1.37699
5.91703 126.499 3.35871
-1.91473 118.322 10.0731
8.84277 131.254 -2.68127
3.02485 124.864 2.98424
-2.30009 119.959 6.24485
-28.5499 106.899 -1.48277
15.9162 130.717 8.07112
3.15167 122.504 8.24477
-23.9764 114.173 -10.6235
0.202208 122.23 4.93803
5.44958 126.456 3.12667
-27.5455 110.95 -8.42447
-2.36505 121.625 2.96055
-2.51112 125.438 -5.25851
-2.12868 118.494 9.92549
9.38336 133.185 -5.51763
-27.7177 106.721 0.435043
7.02622 127.763 2.80981
-12.2766 113.576 6.81431
7.10383 127.756 3.00396
-12.4046 113.564 6.81919
6.66407 131.524 -5.40165
6.92664 129.362 -0.399028
-10.713 120.419 -5.23822
-27.8975 109.577 -5.41466
-1.49081 121.122 5.79576
8.67877 131.473 -2.3028
4.68371 124.278 7.51552
17.6783 134.882 2.6543
7.89256 130.189 -0.557378
10.7111 127.932 8.07703
11.2943 132.722 -1.17673
-22.9235 107.548 5.98026
2.72604 127.131 -0.810353
-4.09564 119.425 6.27705
8.86799 128.417 4.94577
-0.601607 124.442 0.681446
7.66158 132.535 -5.24126
0.568277 127.355 -3.81086
1.20619 127.696 -3.64284
17.7043 134.644 3.91468
-10.101 121.141 -4.9833
-19.33 117.616 -9.94111
17.4482 135.304 2.23686
-6.63574 123.438 -5.06635
17.6608 134.546 4.19427
-15.2155 119.261 -7.7558
3.62788 127.838 -0.499646
-24.3597 114.701 -10.3984
8.09552 128.098 5.03134
16.5308 132.201 7.82502
-19.5032 117.658 -9.91379
-27.5594 110.098 -4.79563
-22.9875 115.719 -10.464
1.27657 124.062 4.55412
-10.4912 121.105 -5.01696
18.2166 133.48 7.51153
-27.5808 107.738 0.269565
12.5656 129.78 7.94391
6.79866 126.909 6.26459
-20.9034 108.58 7.69389
-2.38355 121.902 4.53474
-0.181783 127.434 -4.16559
1.3847 126.64 -0.341712
11.8401 134.622 -3.10565
-4.10135 119.932 6.50329
2.90199 123.415 8.59291
-8.98477 116.334 7.60292
11.8395 134.737 -3.19572
-17.0474 110.931 8.18935
14.006 135.241 -1.30715
17.0066 132.798 7.88515
3.69525 128.423 -0.709433
4.6877 128.355 0.794779
-19.4988 117.951 -9.73936
-5.19875 124.806 -4.86324
-2.75189 120.284 7.96764
-0.161601 125.47 0.525718
-28.2136 110.457 -5.41779
5.67467 126.671 5.96465
10.2885 129.018 7.33781
10.7317 133.252 -0.97694
-0.192165 123.302 5.31977
-28.7874 110.787 -6.71027
4.29665 128.811 -0.0453281
-26.0232 108.187 2.71321
14.6072 131.296 8.63611
-2.46249 126.85 -4.6719
-27.1721 108.653 0.546047
-18.5392 110.421 8.42278
-3.99892 125.88 -4.59344
1.77187 127.457 -0.136674
9.47236 129.222 6.55019
6.18636 127.301 6.24537
-23.1045 108.797 5.89475
4.02848 125.967 6.23993
-1.49802 127.602 -4.44958
5.11489 132.197 -5.23412
9.66142 133.364 -1.54997
10.4008 133.254 -0.324123
11.2785 135.815 -4.54024
-9.90399 122.415 -4.73326
-18.5499 110.675 8.437
2.26311 128.041 -0.167276
-26.7425 110.719 -2.44209
1.7579 127.746 0.0103632
8.94211 135.007 -5.61588
15.047 132.231 8.54904
3.11818 126.963 3.63223
-24.0508 116.202 -10.0926
9.42644 129.701 6.59903
11.0024 130.216 7.72562
-21.84 117.756 -10.1162
-3.22824 126.942 -4.45917
-19.4105 110.504 8.47024
-1.61367 122.86 6.35967
-9.26249 117.274 7.88439
10.4423 129.781 8.00305
18.0382 136.487 4.08028
-26.1613 108.954 2.7293
0.135408 128.728 -3.6092
4.14662 128.134 3.03717
5.40407 129.787 1.24275
5.01769 129.912 0.473721
-19.1813 110.761 8.49138
-4.73855 126.091 -4.3766
15.9335 136.673 1.10018
-0.783538 125.609 1.97379
10.0859 134.172 -1.44814
-24.0536 109.368 5.00108
9.46671 133.905 -1.59799
-26.537 109.85 0.828779
-26.5134 110.827 -1.12486
1.13334 123.701 8.91375
-23.8405 109.519 5.26301
-26.2342 111.411 -1.91848
5.42835 127.825 6.20462
-0.409715 126.221 1.75
2.36594 125.724 6.65389
9.24112 133.764 -1.0163
4.778 133.028 -5.42577
3.04712 129.474 -0.210911
12.0845 131.542 7.60031
-0.720171 122.804 8.83495
-6.09718 120.534 6.42733
1.54599 126.16 4.89393
-8.21605 118.885 7.16654
-5.11564 126.289 -4.23271
-1.55626 122.625 8.31614
4.19938 128.856 2.95173
0.425673 127.395 1.04433
12.8205 136.336 -1.05366
2.90485 126.602 6.19962
1.31673 128.365 0.380038
3.96784 130.484 -0.435682
4.25705 127.667 5.95553
2.52778 127.368 4.29631
-3.79175 122.402 6.33802
10.0289 134.773 -1.16297
1.14077 124.704 8.18621
-28.5725 112.488 -5.9299
9.89494 137.055 -5.96596
-28.2788 113.105 -6.64938
-3.20248 123.116 6.06921
-12.9856 122.338 -5.43603
9.23059 130.932 6.40298
17.5318 135.796 7.42391
-16.3929 113.832 8.1711
11.211 136.153 -1.75096
10.4583 137.204 -4.91454
-28.1747 113.513 -6.85246
-1.13562 123.909 7.59495
-1.63626 125.042 4.55314
-11.6441 123.176 -4.85775
4.65722 133.894 -5.54084
4.32281 133.673 -5.47451
9.19079 131.213 6.30239
-21.5036 111.057 7.71367
2.77045 128.266 4.06505
10.3157 135.456 -0.851063
-0.042239 127.396 2.2789
1.15465 128.839 0.8624
10.2608 131.603 7.27868
-0.61013 125.03 6.60551
-4.391 127.59 -3.86231
18.1738 137.898 4.82428
14.736 133.995 8.46956
4.39898 133.982 -5.35625
-5.06592 122.259 6.68307
-0.935958 124.206 8.15217
17.7734 138.394 3.42787
-0.494566 125.298 6.56172
1.97025 129.807 0.409822
9.56107 135.304 -0.925982
14.8185 138.065 0.325074
17.7379 136.677 7.30153
-10.8786 118.096 8.13667
11.1011 136.937 -2.02902
-19.9673 112.134 8.54286
-4.841 127.655 -3.76282
-28.3082 113.776 -6.02546
-0.403087 125.574 6.63679
-26.6517 115.913 -8.25622
-19.0892 112.919 8.23345
9.64489 135.542 -0.819873
1.60363 129.756 0.578542
4.72168 132.182 -0.317892
-4.18548 128.17 -3.80394
-0.389273 125.665 6.58062
9.47402 137.885 -5.92143
-13.2364 123.189 -5.36034
-26.1024 116.516 -8.56302
2.78362 130.776 0.200193
-4.03752 123.375 6.6841
14.1551 134.327 8.06224
-16.055 115.151 7.97618
-24.425 111.56 4.30956
6.02378 132.688 0.716717
17.4666 138.849 3.10918
18.1097 137.62 6.73913
-2.49148 129.465 -3.72482
18.0216 138.896 4.19847
-9.17547 125.417 -3.92804
6.06154 133.377 -0.0613205
15.3672 138.686 1.28135
2.75321 131.132 0.262236
15.9978 135.987 7.97597
-10.386 119.228 7.85467
15.9323 135.954 8.0094
-27.554 113.307 -2.65061
12.4387 134.12 7.23371
-28.2613 113.296 -3.53646
3.10689 133.679 -4.25583
-4.35684 123.686 6.85873
-21.9022 120.115 -9.14891
-24.11 113.59 1.64481
-5.75895 123.113 6.24644
-21.3663 120.356 -8.9038
13.2304 134.675 7.46317
-25.7189 113.631 -0.470724
-6.49945 122.89 5.98138
-15.9666 115.996 7.79403
-0.18543 126.209 7.47725
11.0923 136.981 0.00264971
-19.8762 121.405 -8.75446
5.79203 136.272 -5.56526
-23.7343 112.428 5.06986
3.63863 132.288 0.00333592
-23.7294 113.308 3.37591
-6.90323 122.777 6.07413
10.6141 139.233 -5.03668
-23.8474 113.718 2.45097
-18.5414 114.487 7.9647
6.36637 133.967 0.463192
5.75725 131.274 5.45972
-24.4354 114.224 0.850258
3.7223 134.763 -4.58866
17.3661 139.763 3.30226
-18.973 122.32 -8.6983
-3.55484 125.089 6.20439
-22.7769 112.653 6.78681
11.3413 139.116 -2.73632
3.04011 130.868 3.54724
16.2839 139.879 2.35199
-10.0511 120.562 7.70913
11.2622 137.743 0.141831
0.963376 129.732 3.21815
-6.91779 127.917 -3.48896
-2.28359 130.777 -3.28168
-1.80931 131.044 -3.13248
7.00613 137.902 -5.65339
-7.72096 127.527 -3.52301
5.35043 136.88 -5.67303
-22.6363 113.314 6.44134
-1.43077 127.31 5.47608
12.1077 135.301 7.01428
5.72109 137.292 -5.67104
0.375898 128.417 5.89688
0.529425 128.658 5.63794
-28.0927 114.547 -2.83537
10.3125 134.612 6.5556
17.7007 140.56 3.95735
-27.9776 114.584 -2.64928
-23.6377 115.209 1.88103
-24.1268 120.202 -9.18098
-21.4783 113.596 8.3456
-5.721 124.669 6.2413
7.75523 138.985 -5.78102
-2.32228 131.293 -3.10478
0.620448 128.712 6.32504
-2.01242 127.184 6.02585
1.18271 133.74 -3.46461
10.9119 139.034 -1.4513
7.26206 135.369 1.39916
10.7881 138.704 -0.886727
-1.3117 127.986 5.48779
4.09389 132.542 3.17905
-21.602 113.84 8.10354
-10.7083 120.821 8.0388
-14.918 118.218 7.96778
-23.2478 114.904 3.80204
2.70164 132.646 1.32005
-15.5132 124.672 -6.15049
-20.731 122.377 -8.31335
-21.7085 114.419 7.17567
1.29504 134.132 -3.44331
-22.7597 121.39 -8.88057
16.5707 138.969 7.15254
8.6904 134.54 5.95356
-13.2658 126.239 -5.93337
-14.9276 118.57 8.07675
-5.28798 130.069 -3.14033
17.9814 140.989 5.1553
-17.072 117.352 7.89162
-21.6429 114.739 7.27078
5.29686 138.001 -5.54491
11.1147 140.478 -2.76481
-22.1694 122.014 -8.51983
-28.0406 116.419 -4.60504
-20.1295 115.119 8.79496
-16.4391 117.941 7.81608
-8.37382 128.494 -3.56528
-8.11237 128.625 -3.45237
5.90244 138.675 -5.76914
0.198692 133.743 -3.0244
4.97623 135.097 0.551077
-25.9343 115.638 0.146895
-9.52137 122.6 7.64515
3.23433 132.564 3.794
2.11368 131.47 4.60929
-2.73854 131.972 -2.91221
-22.2766 115.543 5.49876
6.64767 133.743 6.11538
-24.9897 120.524 -8.3916
-23.1987 116.401 2.72324
-13.0662 127.196 -6.38776
-21.3655 115.034 8.2068
-5.49011 126.04 6.33862
-22.7358 115.934 4.53967
10.3137 135.986 6.68431
-11.355 121.606 8.04925
6.04806 139.215 -5.67617
-21.4661 115.247 7.89568
10.7032 136.308 6.80145
-22.3601 116.035 5.17858
1.79108 132.388 3.20031
-24.5406 116.616 1.12654
-26.2436 119.61 -7.38201
-26.9383 118.291 -5.29214
6.23257 135.697 2.62584
4.81241 135.84 0.418949
4.47728 133.572 4.867
-23.5146 117.04 2.14249
-14.778 119.761 8.15022
4.38026 134.081 3.76717
11.0182 136.806 6.94503
0.576838 131.541 4.02496
-4.44983 127.09 6.67944
-22.9929 117.164 2.83352
7.99063 135.648 5.51023
17.5971 141.604 5.96161
-20.7839 123.865 -8.1591
-20.5062 124.008 -8.04694
1.57607 132.676 3.46585
10.8725 141.061 -1.65434
9.67681 141.915 -4.90997
8.08361 137.713 1.8125
7.09892 135.189 5.82568
-0.79429 130.583 5.00067
14.1393 141.861 1.34928
-25.4953 117.065 0.420537
-20.3566 116.562 8.51326
5.62601 135.713 3.08513
-28.0866 117.103 -2.86371
6.76449 135.158 5.93552
-16.3559 126.474 -6.82666
7.6295 137.926 1.27665
-27.8918 117.03 -2.36821
-21.7112 116.496 7.0644
7.645 136.031 5.39724
-27.0364 118.539 -4.22596
6.96315 137.963 0.542312
10.6792 141.881 -2.71761
-7.39869 126.439 5.60697
-3.0391 133.069 -2.45588
13.9794 139.157 7.60986
-5.06036 131.957 -2.71988
-18.8671 117.638 8.92864
-3.72303 132.766 -2.60349
11.2217 140.511 1.18804
-17.0412 126.355 -6.84257
-9.18947 130.096 -4.04956
-27.7674 118.114 -3.72127
4.70888 136.992 0.194208
3.38268 134.007 4.74471
-24.5702 121.855 -7.17708
14.7239 139.77 7.90595
-21.6307 117.212 6.61401
-0.841655 134.68 -2.26785
-23.4084 123.08 -8.08639
-26.1554 119.854 -4.97449
-1.55809 130.444 5.76973
-8.85085 125.068 7.3245
-23.3974 122.48 -6.75602
6.4997 140.899 -5.38581
-7.91448 130.812 -3.48013
1.82904 137.048 -3.52633
5.62716 136.231 3.36457
-20.4914 117.25 8.40983
-23.3177 123.066 -7.5756
6.34651 138.29 0.276277
14.5505 139.871 7.97266
-2.4252 129.972 6.22195
-2.66298 129.827 6.29376
-8.04277 126.374 6.3703
1.84923 134.627 2.30142
-23.2552 123.3 -7.55403
-14.9815 128.828 -8.07904
-7.68468 131.288 -3.41561
-12.1459 129.605 -5.85337
-23.3773 122.5 -5.93184
-0.484414 135.38 -2.28814
-8.93851 125.429 7.35223
-22.1524 118.075 5.12226
-26.1504 120.38 -4.8653
-8.31111 126.309 6.69643
7.07374 137.836 3.08904
3.56921 136.618 1.00024
16.8489 142.802 5.85907
-20.8205 125.404 -7.9678
-17.4933 127.207 -7.28185
-0.204823 135.872 -2.30592
-5.1211 128.772 6.15967
10.2839 141.758 -0.500484
-9.19863 131.169 -4.30009
-22.4886 124.251 -7.55845
6.15694 136.171 5.89039
-10.8395 124.334 8.03087
-20.9141 117.841 8.20153
-27.4902 118.142 -1.24871
-27.7197 118.422 -2.03426
6.90553 136.991 5.39955
7.73981 138.658 3.0135
7.34414 138.341 3.17959
11.8869 141.768 2.06173
6.93793 139.501 0.444552
-27.628 118.552 -1.81611
2.96039 138.903 -3.60766
-3.82785 129.753 6.57007
-8.56721 126.582 6.93644
-23.775 122.388 -4.62899
7.02354 138.246 3.48586
4.08147 139.927 -3.923
10.1633 141.867 0.191474
4.6792 136.175 4.94368
-0.278678 132.933 5.13749
-21.677 118.89 5.99838
-24.3235 122.305 -4.71668
-10.1916 131.554 -5.18702
-19.9994 118.633 8.89374
8.26226 140.466 0.868231
-21.8943 125.335 -7.75131
-26.9385 119.699 -2.5849
-16.9465 128.207 -7.08612
-26.7544 119.845 -2.61197
6.72941 138.139 3.90558
-8.47759 132.179 -3.92664
-8.14463 127.739 5.8986
-24.2431 122.323 -4.28459
-2.72608 131.164 6.25251
-21.3883 125.996 -7.91525
5.84751 139.505 0.249515
-6.17252 133.378 -2.97977
-27.048 118.764 -0.197055
2.84941 139.389 -3.48914
-13.3203 131.35 -8.20226
-26.6824 120.101 -2.41235
-14.8823 122.502 8.51478
10.0241 139.758 5.64113
-8.56415 132.542 -4.05984
15.0468 142.338 7.10013
-18.466 119.97 9.29213
5.44684 137.124 5.32374
12.2683 140.524 7.32754
-24.2766 119.452 3.18479
-7.4466 129.08 5.54435
-4.75163 130.48 6.37444
-1.25631 132.977 5.83108
-11.8201 125.024 8.40136
3.5607 138.094 1.54648
-24.9962 121.764 -2.31959
7.04244 138.842 4.80949
-22.774 124.782 -5.46476
14.1812 144.477 2.72437
7.26116 143.771 -4.98096
-24.9558 119.612 2.72605
1.20884 138.956 -2.88856
-22.8889 125.069 -5.78723
-5.87691 134.508 -2.76859
10.2928 143.785 -0.520559
-18.2983 120.842 9.43647
-7.62461 133.951 -3.81196
-16.5948 130.432 -8.3897
-17.3184 129.584 -7.4725
6.83548 143.785 -4.84864
-23.9729 124.022 -4.56308
-16.8445 130.307 -8.20997
-22.3628 119.957 6.20463
7.78962 139.417 5.72579
8.76379 142.27 1.11801
15.9089 144.73 5.58003
7.47551 139.508 5.26771
-10.8052 126.572 7.97462
-22.0134 124.437 -2.49794
-5.13688 135.261 -2.48517
7.04857 139.185 5.75751
-0.146854 135.047 4.81677
1.09756 136.049 4.45218
1.11124 136.065 4.44761
-9.51806 133.867 -5.1844
1.6497 139.933 -2.91487
-17.507 129.769 -7.22753
1.68207 139.968 -2.9223
1.35263 136.313 4.37645
-10.469 127.101 7.9527
-24.5924 120.44 3.01586
-10.9073 126.875 7.89847
-9.11817 134.131 -4.93258
-24.6447 124.314 -4.96369
-0.11814 135.425 4.61547
-26.5076 121.357 -1.07568
3.80967 139.373 1.71017
-13.0222 125.3 8.79101
-23.3492 124.178 -2.69456
-16.3171 131.183 -8.00629
-0.10699 138.82 -2.2816
-27.3057 120.431 -0.0460306
-5.11358 131.821 5.80363
-25.7029 122.257 -1.68564
-23.3629 124.234 -2.61563
9.28905 141.564 4.75333
-3.99259 136.399 -2.18224
2.60267 141.115 -3.11391
12.5674 142.631 7.11458
15.2303 146.256 3.06196
15.3728 145.873 4.13002
10.2436 142.068 5.28085
-20.055 121.289 8.39302
8.11899 142.867 0.83206
-24.0856 125.161 -5.11288
-18.5718 121.888 9.35516
-26.0055 120.611 2.08954
8.32156 141.867 3.42823
-19.4815 128.92 -6.51416
-24.8167 124.651 -4.68231
3.45044 139.449 2.18464
8.49701 145.836 -4.48137
13.4911 143.665 6.82584
-16.2969 131.185 -6.84744
-1.96665 138.059 -2.04534
-23.5408 124.897 -3.29142
-0.689503 139.009 -2.15936
2.65948 141.575 -3.06788
5.54404 141.738 0.515083
11.405 142.788 6.20425
-23.6588 124.718 -2.82163
12.0237 143.036 6.58026
13.7222 146.061 2.49073
12.8218 145.45 2.5955
-19.2669 129.547 -6.96648
8.60988 142.702 2.7682
-27.2269 121.136 0.132508
-23.4938 124.639 -2.17349
-7.60724 131.067 5.71482
-22.4172 125.366 -2.11376
-10.9399 128.039 7.68389
-22.1115 126.952 -5.03655
-26.9999 121.391 0.117734
-24.6843 124.519 -3.35984
-24.5204 124.587 -2.94717
-21.6997 121.455 7.51387
-18.7107 130.029 -6.51723
-21.9488 127.251 -4.96924
-7.52833 136.264 -4.53624
-21.7873 121.529 7.44413
-10.5002 135.819 -7.35841
-14.6756 133.34 -7.71012
-6.53625 132.52 4.98815
-22.6046 126.255 -3.39662
7.98279 142.035 4.53559
-12.8009 134.545 -7.52354
-18.8491 130.168 -6.36005
-24.1916 125.627 -3.95956
1.19551 138.038 4.01891
-23.859 125.323 -2.80343
-11.4346 135.665 -7.87942
-20.2628 129.139 -5.94452
-24.1412 125.033 -2.47013
11.4569 146.49 0.149
-22.9799 126.841 -4.69591
12.262 144.005 6.4903
-26.1814 123.537 -1.95073
-17.8166 123.498 9.38291
-23.7981 125.475 -2.80715
8.70495 142.851 4.25535
-26.9198 122.535 -0.642755
-26.2048 123.243 -1.11421
-22.498 126.992 -4.03485
-25.176 121.683 3.56089
-23.5258 125.181 -1.47291
-7.41449 137.005 -4.73842
-6.50022 133.209 4.54347
-23.2631 124.807 -0.256741
-26.234 123.369 -1.20231
13.3224 146.877 2.43562
-14.7454 125.953 8.93179
-18.2767 130.953 -6.32022
-22.7195 126.755 -3.42617
-18.9504 130.318 -5.85913
-24.8512 124.556 -1.60927
-21.5551 122.414 7.3386
-22.9074 126.044 -2.0808
-4.48701 138.126 -2.55983
-21.5766 128.534 -5.17125
-7.70999 132.812 4.46469
-24.8597 125.138 -2.337
-23.0667 127.515 -4.93552
-25.898 123.652 -0.585628
-7.65496 132.955 4.38564
-25.2822 124.922 -2.28596
14.1478 147.778 2.56338
3.22746 140.832 2.53894
-25.3706 124.256 -0.908886
-14.7462 133.785 -6.70874
-10.4313 131.212 4.52799
-10.3925 137.127 -7.78273
-10.4861 131.173 4.70231
-4.67611 138.436 -2.78462
10.1388 144.046 5.31404
-13.1382 128.239 7.36447
-22.0318 127.508 -3.02678
-1.93605 139.856 -2.03456
-24.0328 125.975 -2.42429
-25.6398 124.958 -2.33144
-18.3875 131.234 -5.80159
-22.1809 127.804 -3.64369
-26.0585 122.978 1.3514
-21.8633 128.232 -4.05862
-15.2568 126.274 8.98897
-25.5924 124.331 -0.660257
2.66817 143.393 -2.80843
-26.5805 123.944 -1.07202
9.45091 148.139 -3.65389
6.58946 146.562 -4.15922
-11.8186 136.588 -7.86966
-24.0009 126.251 -2.42154
-12.4746 129.206 6.86029
3.1839 141.174 2.70155
-13.5876 128.47 6.9643
-9.23407 132.523 4.30021
-25.8178 122.656 2.90651
-26.4054 124.773 -2.29728
8.42904 145.461 0.983561
9.35427 148.42 -3.99969
-21.8717 128.713 -4.37918
-21.5571 123.517 6.99934
7.67121 147.451 -4.08118
-24.1341 126.651 -2.9089
-18.9924 124.307 8.96295
-0.244218 138.66 3.92654
-5.17114 135.503 4.02702
-23.7697 126.94 -2.87706
-20.762 129.678 -4.54638
-17.4998 132.335 -5.74088
8.92521 145.008 3.06907
8.77899 145.889 1.1134
-22.0811 128.366 -3.35553
-23.7606 123.561 4.53503
-21.6543 128.285 -2.48568
-24.2624 125.81 -0.771244
-25.721 123.993 1.14617
-24.3305 125.787 -0.705227
-22.9545 128.008 -3.52993
-27.3684 123.309 0.50227
-25.2053 123.52 3.09265
-15.3187 133.749 -5.18355
-22.5059 129.126 -5.03257
4.61601 143.358 1.46016
8.98014 146.294 1.17197
-20.5114 124.281 7.95044
-21.9812 129.046 -4.06126
5.02146 146.01 -3.50176
-28.4194 122.635 0.872248
9.13389 145.411 3.33132
1.40104 143.206 -2.35132
-21.355 124.178 7.19663
-12.6506 130.134 6.34616
-13.0394 136.294 -7.13704
8.65682 148.615 -3.95442
-3.96329 136.596 4.52971
-9.30939 133.316 4.26524
-25.2222 125.138 0.163162
-12.1479 130.524 6.41988
-11.4595 137.478 -7.3148
6.98563 145.378 0.831991
1.60838 143.501 -2.38308
9.64594 146.158 2.84219
-23.0862 128.803 -4.55377
-21.4313 128.848 -2.37521
-21.7396 124.336 6.76511
-26.7126 124.693 -0.649439
-13.0386 136.535 -7.1783
-23.9029 127.156 -1.99888
-27.2884 124.497 -0.942471
-23.4922 127.352 -1.84542
-18.6893 126.569 6.31063
9.63787 146.195 3.07881
-4.5841 140.047 -3.03026
-28.0041 122.584 2.3517
5.08271 144.211 1.30402
-25.8024 125.615 -0.933503
-21.8775 129.444 -3.71447
-3.30161 137.613 4.03768
5.77051 144.772 1.15692
-26.217 125.628 -1.45659
-22.292 130.143 -5.53372
9.46368 146.044 3.72844
0.980103 143.431 -2.16154
-5.86123 136.416 3.5031
10.591 148.867 -0.568358
-17.9468 132.865 -5.09982
-21.3737 129.995 -3.64426
-23.8344 127.316 -1.24798
-25.7887 125.24 0.596265
9.80316 146.219 4.24229
1.15805 140.983 3.66503
-24.6497 126.81 -1.131
-23.1943 128.939 -3.61785
-4.04229 137.445 4.20426
-17.7043 127.856 6.06727
-23.4036 124.771 4.921
5.72096 147.381 -3.59493
-21.6986 124.937 6.87349
-27.3717 124.204 0.922694
9.90546 146.416 4.27066
-24.6593 127.751 -2.7559
8.22094 146.962 0.981008
-18.4022 128.02 5.16149
-21.0643 129.737 -2.00386
4.08874 143.801 2.18188
-22.0092 129.934 -3.58714
6.21067 147.971 -3.60007
-20.7582 125.78 6.98288
-11.6569 132.493 5.0806
-6.40211 140.569 -4.85452
8.50878e-05 140.592 3.76232
-26.717 125.864 -1.02508
-26.0067 125.415 0.915895
-1.17768 142.602 -1.94595
-21.2405 125.452 7.26628
-26.842 124.048 2.7032
-26.5038 127.536 -4.14139
-19.7978 131.844 -4.16882
-21.7937 130.966 -4.9703
-24.0047 129.426 -4.58688
-17.286 127.779 7.92678
-21.9149 129.93 -2.8085
-20.5746 126.581 6.06441
5.72293 147.868 -3.45338
-5.82423 137.197 3.58013
-24.8769 128.915 -4.48024
3.93378 146.541 -2.88422
-26.3672 125.891 -0.00923284
5.1434 145.272 1.53196
-29.5421 123.6 0.611251
-26.6967 127.783 -4.3571
-27.1796 127.291 -3.95861
-7.64912 136.398 3.09026
-20.3934 127.293 5.24395
-20.6032 130.884 -2.57773
-26.292 124.515 3.24235
-3.68555 138.565 4.00562
8.73818 149.952 -3.17956
-8.03591 136.296 3.15459
9.78311 148.152 2.19031
-6.77007 141.421 -5.7723
-26.4417 125.52 1.32818
-21.7222 126.224 6.19578
-21.9596 130.193 -2.4867
-12.0404 132.798 5.4361
-0.548098 140.839 3.94562
-25.4541 129.411 -5.41655
-12.9467 137.854 -6.39887
-21.2918 130.98 -3.07933
-21.5774 132.505 -6.67604
-19.049 132.371 -2.99282
-25.7467 128.26 -3.30117
-11.5606 133.948 3.82147
10.3957 147.955 3.84583
-27.1723 126.66 -1.7409
-23.7878 130.789 -5.88564
-4.01231 141.951 -2.83514
-23.4307 130.105 -3.94395
-19.6765 128.468 4.55912
-10.912 134.447 3.78352
-8.23774 136.552 2.9491
-2.47875 139.776 4.02817
-6.07391 137.797 3.4327
-29.4758 124.914 -0.848982
-25.3872 129.622 -5.17483
-16.1263 129.659 7.21555
-23.7634 130.269 -4.3199
-28.8589 123.314 3.56093
-26.8832 128.393 -4.49013
3.50553 144.285 2.95542
-1.97817 143.178 -2.01001
5.61644 146.389 1.48012
-20.2323 132.583 -4.09406
9.99071 150.026 -0.223145
-1.36466 143.616 -1.93142
-26.5174 128.542 -3.95637
3.5958 144.52 2.85365
-18.6431 133.232 -3.21982
-18.6514 133.231 -3.20889
-27.1463 125.763 1.11866
-28.8982 123.208 4.18453
-27.1195 124.324 4.22353
-9.65127 136.156 2.80734
-9.61222 136.198 2.79065
-15.2902 130.661 6.90903
-22.7837 126.713 5.24701
-23.2083 131.943 -6.30178
-29.0001 123.322 4.10576
-26.4096 125.366 3.2932
-26.9579 125.815 1.63565
-26.5348 128.739 -3.94048
-15.5023 135.928 -4.2246
-19.718 129.038 4.63795
12.0905 149.721 3.80381
-19.082 132.93 -2.68639
-21.6017 131.213 -2.43984
-12.4405 138.914 -6.34589
-24.0075 126.199 4.98387
-27.2465 125.716 1.79713
-24.8138 129.866 -3.6692
-5.91179 138.506 3.55229
-29.3095 125.857 -1.20792
-21.0997 131.638 -2.27365
-14.5539 132.247 5.24231
-15.1018 131.754 5.58312
-30.0894 122.89 4.25917
2.04944 146.445 -2.15751
-4.10184 142.906 -2.96332
-18.9547 133.181 -2.42297
-23.635 131.889 -5.97677
-27.0769 125.134 3.65204
-26.619 129.575 -5.07427
-24.3806 130.844 -4.70169
-6.26949 138.644 3.24553
-27.8434 124.269 4.56021
-2.67583 143.507 -2.11848
-12.6224 134.562 3.39031
3.69151 145.231 2.88882
-22.2109 127.792 4.85566
-14.7789 131.955 6.08211
-19.9597 132.345 -1.57214
-29.6109 124.75 1.47873
2.15052 143.97 3.70488
9.06033 150.748 -1.25953
-28.9951 123.397 5.44379
-30.2158 125.022 0.386533
11.5314 150.443 2.94733
-18.3193 134.034 -2.2621
-23.0663 132.453 -5.20652
-29.0243 127.396 -2.54817
-4.37449 143.42 -3.14805
-3.22147 140.815 3.90415
-19.2423 133.213 -1.59553
-22.5312 132.846 -5.18051
-14.352 133.188 5.10413
-0.699727 145.223 -1.89817
-29.1719 123.72 5.22032
-16.9662 135.558 -3.18582
-13.7911 134.011 4.37564
-21.6246 128.639 5.18564
-20.8139 132.487 -1.81204
-28.336 124.799 4.33487
-29.4753 124.279 3.9037
-3.6574 140.822 3.76093
2.70209 147.743 -2.22708
-2.08105 144.627 -2.06762
-6.36073 139.505 2.99353
-14.3088 138.579 -5.72681
8.24782 151.462 -2.5499
-21.4967 128.882 5.0982
-3.2172 144.154 -2.45063
-25.6302 126.991 3.62607
-29.868 123.697 4.89422
-21.9146 133.948 -5.86911
-29.2496 124.566 4.09857
8.90847 150.221 1.29824
-17.4583 135.212 -2.46506
-0.336387 145.839 -1.85887
-19.2729 134.33 -3.02583
-12.7038 135.515 3.3065
-2.42303 144.697 -2.21259
7.37074 149.403 1.03621
-13.6532 134.559 4.16579
-19.9352 133.477 -1.98855
-14.6985 138.337 -5.12476
9.59657 150.508 1.92189
6.56927 148.923 1.20426
-4.64898 140.721 3.46356
9.51058 151.351 0.114692
-9.85155 138.133 2.00741
0.870947 144.066 3.9427
-27.0285 126.478 3.57277
-29.4847 128.057 -2.99525
5.934 148.395 1.73379
9.80395 151.578 0.378621
-17.4063 135.777 -2.7762
5.1982 147.742 2.40263
-9.93335 141.941 -5.54644
3.74772 149.158 -2.30599
-23.8815 128.485 4.29091
-19.1468 135.488 -3.9958
-22.6178 128.455 6.16914
3.91231 149.454 -2.31136
-20.1072 130.608 5.15401
-11.2567 137.535 2.57219
4.32162 146.968 3.67206
5.35892 148.221 2.44537
-24.4151 128.25 4.54495
-17.8304 135.699 -2.22828
7.66785 151.999 -2.32124
-16.5455 132.723 5.82607
-23.1939 128.53 5.86608
-21.2457 135.048 -5.21987
-25.5207 127.365 5.26205
-30.3354 126.93 -0.203637
-10.8481 138.28 2.06384
-30.3985 126.637 0.421733
-3.38439 145.428 -2.68298
-23.8799 128.558 5.3438
-2.16517 143.379 3.49214
-14.8446 134.473 5.22933
-28.6583 129.406 -2.60989
-19.8853 136.041 -4.74572
-25.6352 127.412 5.73503
-11.5868 141.72 -5.52794
-0.504619 144.384 3.84294
5.4154 148.734 2.65432
-19.5658 131.08 6.5184
4.83105 148.122 3.46434
-14.3904 135.81 3.59061
-13.867 136.08 3.79937
8.98574 151.835 1.38918
-27.7654 130.514 -2.98335
5.01226 148.488 3.26457
4.91308 148.347 3.4442
-7.85057 144.6 -5.80743
-1.13124 147.065 -1.972
-26.599 127.192 5.72547
7.8657 151.364 1.2127
-14.7605 140.161 -5.55937
-14.1464 135.991 4.12135
-14.154 136.109 4.08916
-24.5458 133.306 -3.89005
1.703 149.048 -1.80106
-7.07517 145.163 -5.39719
-3.18132 143.167 4.08811
-19.8594 131.674 5.96565
-17.027 137.491 -2.47897
-17.1346 137.766 -3.16584
-3.77398 143.206 3.44615
-9.23878 144.087 -5.67826
8.95501 153.287 -0.592641
-17.043 133.369 6.4829
-6.4604 141.687 3.26917
-21.0182 136.669 -5.71457
-12.4833 138.028 2.95013
9.72797 153.089 1.07924
-18.2715 137.129 -2.65032
-7.82005 145.267 -5.70517
-4.65094 146.36 -3.71972
1.72392 149.505 -1.76649
-0.883204 145.199 3.8398
8.47592 152.554 1.00932
9.42113 153.164 1.06257
-10.2632 139.693 3.13081
-25.8795 128.382 6.05472
-16.4848 139.524 -4.65685
-2.69 147.343 -2.56086
-15.0375 140.708 -5.13363
-2.20583 147.633 -2.38467
-13.2659 138.121 2.85714
-16.8194 139.266 -4.21188
-13.0477 141.972 -4.84695
-3.60176 143.293 5.11737
-26.0858 132.64 -2.58366
-3.90051 143.336 4.68326
-17.078 138.405 -2.56924
-17.7715 133.749 6.64115
0.40383 149.286 -1.66228
-18.4584 133.596 6.19955
-10.2581 140.138 3.44072
-30.327 128.923 0.288249
-15.1381 141.126 -4.89593
-17.5174 134.297 6.40325
-19.0522 133.678 5.88282
-16.9636 135.105 5.68186
-16.1083 139.902 -3.19436
-29.2249 128.082 4.20029
-18.5736 138.539 -3.40813
-15.9787 139.95 -2.51349
-27.6361 129.188 4.50891
-24.4162 130.287 6.54034
-26.3047 133.426 -2.58544
-12.2656 140.123 2.22103
-13.477 142.825 -4.88967
-15.2733 141.676 -4.59783
-23.4506 130.936 7.22181
5.35251 153.411 -1.39935
-28.0648 131.883 -0.776024
-29.9916 129.236 2.23213
-17.0114 135.861 5.71409
-30.0299 129.317 2.10433
4.469 153.01 -1.45834
-16.9168 135.993 5.68899
6.67685 154.319 -1.15027
-25.3172 131.377 4.28365
-25.4374 130.645 5.71658
-21.4907 137.775 -3.99276
-2.59382 149.305 -2.70151
1.19726 151.252 -1.61542
-27.8578 130.367 3.54958
-20.3566 134.295 5.38663
-7.4178 142.678 5.25698
3.83547 153.084 -1.46567
-23.763 136.887 -4.36949
-28.9919 131.62 -0.276153
-15.5394 141.685 -3.32881
-10.1674 141.529 4.35909
-10.0464 141.603 4.4301
-8.00155 142.438 5.42452
4.77722 153.835 -1.34305
-5.00858 148.733 -3.72614
3.75776 153.321 -1.46213
-14.0572 139.386 4.00003
-19.2711 134.99 6.29165
-4.48438 148.979 -3.31961
-8.33194 142.53 5.18392
-5.28412 148.802 -3.92113
-21.6213 138.146 -3.37895
-23.2798 137.342 -3.79759
3.57397 153.416 -1.47729
-29.747 130.802 1.49501
-24.3552 133.58 2.96199
-24.1913 133.695 3.00483
-23.811 132.621 5.78926
-13.5813 140.538 2.85521
-0.919653 151.029 -2.0781
1.97992 152.694 -1.5961
-8.99151 147.607 -5.57814
-27.918 131.602 2.73423
-4.42295 149.462 -3.217
-27.4062 134.012 -1.43045
-2.83635 150.297 -2.69381
-22.2782 134.604 4.30442
-8.96602 143.269 4.0562
-14.4034 143.964 -4.70748
-8.48903 143.084 5.10648
-11.6138 146.028 -5.29038
-2.04002 150.844 -2.51531
1.56586 152.746 -1.6134
-11.6858 146.081 -5.26393
-15.2918 142.561 -2.64059
-27.9519 132.168 2.4112
-7.37617 143.7 5.75368
-8.64003 143.338 4.82782
-20.3493 139.564 -2.52121
6.27287 155.357 -0.00238649
-16.3879 138.008 6.15989
-4.6173 150.003 -3.29137
-10.3486 142.959 3.91657
-20.4388 139.615 -2.47004
-23.7274 137.831 -2.9123
-4.07792 150.452 -2.96168
-8.50468 143.679 5.49307
-13.1199 145.74 -4.85013
-25.7868 136.093 -1.53171
-10.4367 143.35 3.80213
-24.2464 134.869 3.16576
-26.5627 134.013 1.88027
-16.0707 142.626 -1.98795
-14.2611 144.748 -3.95554
-15.7207 139.85 4.43995
-21.017 135.977 5.61196
-29.1842 132.821 1.39854
-24.0665 138.054 -2.60333
-16.7303 138.523 6.28908
-21.6533 136.153 4.69784
-21.8051 139.645 -2.25201
-12.4237 143.448 2.47963
-27.3357 134.398 1.5883
-13.3646 146.275 -4.47597
-2.4919 152.304 -2.54876
-3.46882 151.792 -2.72074
-9.70092 149.057 -5.07233
-16.7254 139.395 5.86907
-21.095 140.43 -2.1662
-18.4442 138.309 6.16118
-12.9381 146.954 -4.52229
-15.1663 145.001 -3.23151
-18.4768 138.499 6.15838
-13.9248 142.268 4.50946
-16.9301 139.585 6.13405
-14.7658 145.566 -3.39513
-2.55162 152.855 -2.32446
0.1163 154.356 -1.89693
-28.0373 135.106 1.12761
-19.6489 142.188 -2.5225
-22.4694 136.949 4.79234
-23.9454 139.064 -1.46398
-16.0476 141.282 4.63844
-18.7791 138.869 6.10613
-13.0205 143.597 4.10893
-25.753 137.764 -0.492374
-19.3862 138.839 6.01816
-21.9662 137.444 5.63551
-26.454 137.23 0.103248
-18.0632 143.603 -1.9206
-11.2305 145.863 2.6649
-16.768 141.107 5.30808
-19.465 139.207 6.05353
-12.8544 144.471 4.14359
-20.9919 142.216 -1.8954
-13.5533 144.217 4.5083
-12.2938 149.145 -3.92417
-14.7912 146.891 -2.51642
-15.5163 145.95 -1.06391
-23.7926 138.222 4.23754
-3.06257 154.365 -1.88236
-8.68688 151.402 -3.09122
-6.64391 152.656 -2.65241
-15.8172 143.478 4.79187
-6.83256 152.717 -2.4644
-10.1056 148.082 2.91419
-15.463 143.791 4.7732
-17.4467 145.563 -1.27262
-14.5797 144.687 4.74185
-19.0016 141.218 6.168
-3.91505 154.609 -1.76272
-20.791 140.151 6.09881
-16.8342 146.019 -0.855786
-6.91051 152.948 -2.04546
-24.7925 140.802 -0.0254432
-8.81367 152.094 -2.18397
-22.9206 142.211 -0.117311
-26.1525 138.984 2.47552
-25.6365 138.924 3.30831
-10.9179 148.502 3.3338
-20.6242 144.475 -1.03388
-19.3052 145.313 -0.987872
-22.0509 140.473 5.61352
-12.3463 147.741 3.41007
-15.1876 148.116 -1.13799
-23.4935 139.946 4.96872
-20.8355 141.328 5.83888
-12.6036 150.619 -2.61466
-24.7355 139.837 3.98568
-13.8637 149.832 -2.22178
-18.7774 145.999 -0.706201
-23.6658 142.483 0.368437
-24.9309 140.579 2.87481
-13.3181 147.645 4.01568
-19.998 142.538 5.99324
-20.6338 145.203 -0.278076
-18.5581 143.621 6.28293
-24.2017 141.494 3.30472
