ply
format ascii 1.0
comment Created by Open3D
element vertex 1932
property double x
property double y
property double z
end_header
18.6772 111.03 13.9021
-15.3133 83.5396 1.86823
20.0566 119.867 0.879795
4.35248 97.5881 12.1639
24.3771 122.531 3.9588
21.1774 112.393 16.11
17.015 114.504 5.04237
19.1215 114.537 8.73055
18.8949 114.794 7.90253
-7.58551 95.836 -5.7179
23.6004 120.792 5.81894
21.2736 121.12 1.11502
5.53496 108.074 -3.87813
7.32902 108.666 -1.66564
-7.87938 88.6933 6.47377
24.611 119.149 10.6673
-0.719266 93.5563 10.6998
27.0695 127.556 0.286107
-7.25728 96.4838 -5.87571
-10.6028 93.3796 -6.3192
0.914414 94.3206 12.4984
18.6447 111.239 14.2727
-8.75238 88.1943 6.13103
23.4706 119.887 7.67317
1.82666 105.06 -4.65996
-7.99294 95.8642 -5.91252
-16.7477 83.4177 0.453906
19.5754 123.962 -6.27583
18.7265 112.207 12.9027
-10.3233 87.3358 5.13242
24.5457 124.933 1.04723
17.637 119.506 -1.6632
23.2966 122.911 2.42974
-16.8105 84.4428 -1.17153
-2.46775 93.1414 9.02881
24.5887 124.74 1.53408
-1.8426 102.122 -5.64086
27.5605 132.536 -6.83461
6.72734 108.968 -2.37198
-0.248108 94.0965 11.4009
-13.2965 90.1932 -4.84122
9.05683 109.958 0.129109
-7.502 96.7893 -6.128
19.1841 126.361 -10.7065
13.3526 115.146 -1.32429
23.0388 123.04 2.0225
19.1001 114.711 9.69543
-15.3272 84.3396 1.97723
17.4388 115.712 5.1728
-13.6854 89.2698 -3.61438
-16.2139 85.059 -0.685562
11.6749 112.196 1.17265
26.7589 129.039 -1.60972
-4.7 91.8637 7.96087
-11.148 87.2204 4.69722
12.7686 113.615 0.853396
15.8294 119.083 -3.31744
26.9104 128.53 -0.200097
-6.74741 90.3421 7.20156
8.27505 103.718 10.4042
12.5766 113.459 0.943893
19.8445 112.27 16.0605
22.6035 123.649 1.01006
11.2921 107.705 8.99659
-1.63678 102.951 -5.58347
-13.8703 90.0695 -4.50549
-17.187 84.1638 -0.00897216
-8.99185 88.9421 6.15231
-13.3865 90.7537 -4.80976
14.934 113.842 4.923
22.5837 124.006 0.732387
26.5766 129.564 -1.86659
13.5566 116.373 -1.79466
-1.09351 94.5277 10.6795
20.7106 129.012 -11.2072
26.8013 128.792 0.00823026
15.949 119.774 -3.41125
3.77719 98.6512 12.2057
26.7976 127.426 2.57091
-7.73253 97.6503 -6.40895
-11.1805 87.8621 4.78945
18.9719 116.322 8.33235
18.7371 112.347 14.9424
-4.24632 92.7425 8.6705
12.6478 114.785 -0.0324108
-8.93899 89.4424 6.22017
13.9203 117.45 -2.40143
-5.44529 99.6414 -5.41392
18.8244 112.557 15.0114
5.15991 100.651 11.6767
4.66765 100.071 11.8683
-13.7449 86.5317 2.9703
2.52916 97.6028 12.4353
11.7869 109.832 7.46136
2.94308 107.453 -4.05445
-11.8407 93.7924 -6.2663
0.896378 105.832 -4.8098
8.75942 110.951 0.231958
27.3264 134.06 -7.32694
-9.94099 95.9544 -6.50286
16.448 116.226 4.74408
-4.88887 100.7 -5.84884
24.0133 123.598 5.26999
-15.0174 88.1882 -1.7899
18.3435 125.211 -7.60858
16.7298 116.574 4.78967
7.38124 103.935 10.4763
-0.0466852 105.396 -5.25445
22.956 121.094 8.01257
18.6606 114.917 11.256
-13.2684 87.2457 3.25523
24.9655 125.328 4.20961
-14.3061 90.5099 -4.30904
20.5034 129.429 -10.8328
1.81507 106.943 -4.48786
16.856 121.506 -3.37535
-11.2811 94.9009 -6.56034
-2.67757 103.257 -5.88749
17.5701 120.31 0.0976932
1.11714 96.6651 12.4772
22.6896 124.177 2.44352
27.0112 134.337 -7.64118
21.6653 123.821 1.3626
15.7005 120.814 -3.82819
-8.3281 90.6278 6.66899
23.3294 122.768 6.4002
18.9913 117.259 8.40505
23.3517 120.991 9.5957
-7.50122 91.121 7.31572
18.773 122.083 -0.424901
20.0073 114.171 15.71
6.64099 110.302 -1.23244
8.19905 105.616 9.8389
4.70493 109.743 -3.59958
26.5971 128.629 2.11882
-4.99835 101.382 -6.08097
21.9391 116.751 14.7541
19.2476 113.588 15.5533
-12.0177 88.3534 4.42432
12.1198 114.978 0.498194
26.5483 129.315 0.947578
-1.67622 95.3268 10.5904
20.2043 124.536 -1.85398
18.8736 127.841 -10.0315
4.30437 109.497 -3.65283
-1.52917 104.794 -5.65926
26.5882 128.998 1.78162
18.9993 122.554 -0.336888
22.0403 117.185 14.5616
11.5453 114.36 0.921353
1.67112 97.8281 12.4784
19.0126 117.656 8.41784
13.6121 114.179 4.94436
-15.8254 86.0658 2.0999
6.51797 103.87 10.5515
11.4618 110.248 8.13263
-15.0726 89.8332 -3.07176
15.899 116.86 4.43459
26.4218 133.088 -5.39868
2.42183 108.158 -4.16583
-5.61249 100.989 -5.82821
0.807307 106.959 -4.87854
4.52242 110.024 -3.58736
-9.37182 90.5514 5.99932
-11.1247 89.2986 5.09925
23.6316 125.496 3.19545
26.3936 134.829 -8.23886
24.1085 125.985 3.41777
26.245 134.863 -8.38386
7.72721 105.786 9.90339
18.8286 116.655 10.5371
12.3886 113.261 5.11137
13.9902 119.998 -3.8714
-14.0908 91.9585 -4.44507
19.9445 115.207 15.1915
22.4224 131.762 -9.48758
-7.65071 99.4091 -5.94893
23.2795 123.073 7.46926
11.6815 111.744 6.78934
18.207 118.759 6.04873
-9.40293 90.9137 5.98718
19.326 114.659 15.3056
6.26908 104.271 10.4859
23.0342 119.761 13.0786
16.1679 122.577 -3.96601
9.97314 113.442 1.09814
6.30376 111.039 -1.14361
20.2658 130.335 -10.2751
-12.784 88.8727 4.01196
-5.61493 93.5779 8.57413
-3.14978 104.136 -5.59345
-1.88202 105.326 -5.42154
23.4569 121.647 10.8921
26.0793 133.116 -4.61797
12.3332 113.713 5.12774
-0.953252 96.4224 11.9348
20.7747 116.609 15.0681
23.8331 126.587 2.97876
21.3341 126.185 -0.717525
-3.64866 95.1877 9.50783
-10.1459 97.8544 -6.63462
5.96005 104.423 10.4744
-15.2902 91.1283 -3.84715
21.4511 117.862 14.4743
23.8674 125.401 5.51824
10.3691 109.314 9.84196
1.38242 98.7091 12.5311
18.0626 126.622 -6.92316
-4.06798 95.1311 9.20705
0.862224 108.131 -4.87118
21.049 124.425 2.35278
12.9907 118.745 -1.9607
26.2468 135.373 -7.64265
19.3125 124.951 -1.57629
-11.3371 90.0497 5.35589
26.0968 129.554 2.39318
22.6834 125.4 3.65547
-12.8428 94.6485 -5.35142
19.2545 124.969 -1.6065
13.485 120.368 -3.73753
23.9697 126.636 3.92465
25.9916 131.038 -0.213792
-9.09557 99.0758 -6.33566
25.4708 128.442 3.54895
23.6526 125.059 6.37148
23.4644 133.369 -8.51745
25.1744 128.059 3.94092
21.1892 131.676 -9.42593
23.1777 122.046 11.1506
-2.57094 105.356 -5.19675
11.1275 111.529 8.2949
25.8274 133.961 -5.00154
-3.93747 104.136 -5.42005
13.2179 120.423 -3.55066
21.8942 125.856 2.31869
19.0343 119.418 8.57334
22.3652 120.108 13.3935
17.992 120.055 5.75351
-0.19375 107.706 -4.83177
16.7333 122.868 -1.37463
-7.08553 101.308 -5.68259
-9.30116 99.4657 -6.36187
18.3334 127.208 -6.00195
-10.7397 91.1312 5.79947
1.23676 109.093 -4.46386
22.1324 125.682 3.48944
-5.39478 94.9156 8.75052
18.9598 125.524 -1.72583
23.1689 124.249 7.9998
18.0179 128.539 -8.68127
18.4189 125.205 -2.03068
21.449 125.328 3.19096
22.6422 120.973 13.0009
-17.5922 87.7842 0.133016
-12.4079 90.3428 4.96446
16.0933 123.856 -3.30568
-10.5011 91.7484 5.98963
5.63589 112.222 -1.3409
15.9935 123.874 -3.42108
22.9428 124.093 8.66736
10.2337 110.613 9.80996
0.684438 109.19 -4.59637
1.68806 100.84 11.891
18.708 120.656 7.37542
21.4104 125.51 3.7253
-0.0998437 98.7286 12.6726
-12.5413 96.5133 -5.53036
22.7261 123.718 9.28412
19.5317 126.705 -1.61019
21.2268 125.59 3.38904
18.6711 120.83 7.22762
-10.8941 91.7199 5.91332
-5.43901 95.5597 8.86587
-17.3338 89.2313 -1.11585
25.6202 133.484 -2.61931
-13.3645 95.4325 -4.88618
12.5137 116.024 4.90524
13.9266 122.491 -3.92507
-17.6332 88.3919 -0.00629008
2.67094 111.014 -3.68147
3.97947 104.197 10.6722
2.54756 102.494 11.1316
23.0583 128.039 2.65718
4.12873 112.461 -3.44319
25.5561 131.602 0.981486
20.9256 125.583 3.41182
21.0973 125.424 4.06875
1.77765 101.658 11.5829
16.0937 124.1 -2.43978
18.8603 121.185 7.70335
10.6091 112.011 9.18856
-4.20965 96.4985 10.1839
20.8233 125.845 3.2006
18.5013 126.1 -1.35623
4.56805 112.905 -2.79154
18.4039 118.708 11.6243
-3.5067 97.0244 10.8766
-1.94485 107.38 -4.55553
-16.5764 89.1371 1.57952
15.7484 120.506 3.84925
25.3409 134.741 -4.14205
10.651 112.688 8.64552
18.8792 120.73 9.15782
16.4873 121.082 4.3122
23.1718 128.485 3.17305
17.5305 129.019 -7.72725
-3.80899 105.831 -4.83489
7.84385 108.818 10.6174
18.901 121.099 8.69437
18.8261 120.311 9.97412
-17.1545 90.5526 -1.60949
-17.5373 89.7515 -0.851917
21.0202 126.957 2.25059
17.914 129.876 -8.38536
17.3227 121.721 5.00968
-16.3827 92.4609 -3.34439
-5.3885 104.705 -5.32943
14.7127 124.726 -4.82182
21.0032 127.549 1.42469
25.981 136.471 -5.34405
10.6612 118.316 -0.614756
-16.2897 89.7766 1.70644
13.4838 118.392 4.28286
19.0192 125.735 1.23412
15.9235 121.063 3.96028
-15.8053 90.0029 2.25068
-3.74014 97.2801 10.9285
-1.85768 107.913 -4.36601
15.5933 125.005 -3.37586
26.1812 136.478 -4.62888
18.4805 125.871 0.397155
-3.50269 97.5987 11.1825
24.755 136.752 -7.47315
-4.97598 96.8179 9.96573
4.8071 106.456 10.4366
-16.6011 92.5794 -3.13456
22.7733 127.756 5.04679
19.5496 127.655 -0.45951
13.9056 124.394 -4.62267
-14.682 90.9853 3.40367
20.6571 120.784 13.8
17.6794 127.345 -2.92841
4.72498 113.641 -1.83434
4.75175 113.641 -1.77812
-4.95347 105.682 -4.91985
-2.53329 107.763 -4.26553
18.769 122.336 7.99525
20.9239 127.722 2.35757
-15.7361 91.146 1.599
14.0788 120.022 3.82548
-10.2594 93.8307 6.77805
18.1885 127.968 -2.69531
-17.4839 90.4702 -0.121524
9.9792 112.409 10.1083
0.392646 110.934 -4.29769
17.6373 128.442 -4.43088
13.6142 119.463 4.21505
11.7557 121.07 -1.88949
7.89159 115.626 0.870908
14.1647 125.222 -4.8243
24.995 133.368 0.105435
19.088 128.717 -2.16293
14.9402 121.354 3.49036
-1.42092 99.5221 12.8473
-7.80401 103.918 -6.22285
-0.243604 101.012 12.3361
20.7156 127.711 2.62539
9.87029 118.294 -0.0621298
-16.0787 94.2105 -3.75383
-5.25559 97.251 10.133
25.1826 137.166 -5.87972
3.97293 106.479 10.5511
-5.97278 97.0378 9.5453
-7.94854 95.8004 8.25579
18.4968 127.847 -1.11506
3.58163 113.971 -3.20839
25.1218 137.27 -5.90913
11.6344 121.824 -2.6534
18.7664 128.925 -2.37527
6.85648 115.322 0.402206
20.3764 127.517 3.04766
-3.11409 98.7247 11.9706
-1.3248 100.043 12.8548
8.5934 111.201 10.8786
24.9016 135.559 -2.97033
18.7174 123.293 7.61892
12.198 123.18 -3.69925
22.6438 129.832 3.19042
-7.7598 96.1246 8.47752
20.8007 128.23 2.80028
25.7778 137.555 -4.67905
21.2479 123.002 12.8965
-0.656395 101.155 12.4581
19.538 126.769 3.29677
21.9911 127.782 5.90876
9.94056 119.189 -0.295536
15.0127 122.176 3.46421
13.7698 125.722 -4.92159
19.3569 128.425 0.298506
20.3818 127.711 3.387
18.0016 128.86 -2.85438
17.4316 127.392 -1.24285
24.8449 135.022 -1.48553
12.4684 124.073 -4.19631
-2.70902 108.674 -4.02577
17.0025 129.543 -5.69769
-14.2829 97.5384 -4.98943
18.7389 123.117 8.69551
24.464 133.62 0.40799
-8.35788 95.9867 8.30038
11.3119 116.326 7.48281
21.7464 129.413 3.0249
18.339 129.217 -2.65417
-11.8116 93.7038 6.25398
11.3497 121.866 -2.09513
19.1133 129.868 -2.3676
21.9252 126.492 8.64645
-9.49496 95.2619 7.76736
-14.8456 92.538 3.09038
-4.27637 98.5093 11.3953
21.9601 129.314 3.83133
9.76028 113.408 10.1677
-0.166633 102.385 11.9849
21.6321 124.59 11.7588
18.7534 128.738 -0.593206
11.468 117.139 6.93358
24.2727 133.735 0.549681
-2.0124 100.358 12.6906
18.3803 122.098 10.7524
18.1406 124.65 5.85266
19.1739 121.41 13.4251
23.5893 131.967 2.84314
9.89354 119.869 -0.181955
20.8161 123.506 12.873
21.6827 127.248 7.88323
12.5827 125.054 -4.39039
-5.28676 107.206 -4.72599
-7.38759 97.1805 9.17692
-15.0577 93.1776 2.61972
20.4748 129.001 2.74934
-9.36549 103.997 -6.29057
18.4421 124.544 7.12732
18.7604 130.589 -2.91735
18.2593 127.994 0.783044
18.8345 121.599 13.0929
23.0872 131.555 3.15119
25.5958 138.197 -4.06584
17.8338 128.947 -1.53257
18.799 130.118 -1.85944
11.0479 122.833 -2.75748
4.1088 115.286 -1.8032
19.014 130.97 -2.89413
21.4622 129.879 3.40487
-5.82439 107.116 -5.00055
-15.3217 93.5158 2.0524
3.89664 108.093 10.5985
20.1916 123.189 13.0239
7.65538 117.311 1.08923
19.4959 129.746 0.288518
16.6184 131.182 -7.29642
-1.50509 101.48 12.8104
2.68814 114.958 -3.44014
-16.7182 95.0846 -2.95102
-16.4863 95.5782 -3.37696
18.959 121.972 13.1941
-16.4623 95.6494 -3.42605
-1.76764 101.373 12.8137
16.8554 128.617 -2.00973
-5.81999 107.402 -4.97356
13.6766 127.342 -5.37663
19.583 130.211 0.0731143
13.2483 126.81 -5.14367
15.2961 128.783 -4.95022
-1.67463 110.98 -3.73776
19.1943 134.201 -7.49702
19.6256 129.725 1.14884
-16.0598 93.4933 1.48406
5.41928 110.038 10.5974
5.06548 116.136 -0.719837
16.4081 125.028 3.80815
19.7718 129.958 1.20007
21.0501 125.823 10.7635
-5.97275 107.562 -5.02172
17.5672 130.234 -3.06165
18.2256 133.556 -7.69756
20.2161 130.01 2.09695
21.0121 127.213 8.46124
0.706676 105.158 11.186
19.4846 130.843 -0.525192
25.547 139.051 -4.07647
23.522 138.502 -6.69876
-15.2768 98.1557 -4.61802
23.947 135.873 -1.18911
19.3084 123.152 13.1005
-16.3373 93.8365 1.34554
9.77765 120.97 0.0290787
20.7255 126.081 10.5642
7.16432 112.131 11.0261
17.5938 126.145 4.95004
17.749 130.161 -1.73569
9.03344 120.074 0.572776
17.8603 126.29 5.35271
18.0561 122.947 11.6268
21.3539 129.005 6.83408
15.9847 129.791 -4.03359
10.5352 122.999 -1.76226
18.2053 123.772 10.5226
10.5267 123.288 -2.14437
-17.22 93.8845 0.279356
21.8451 130.028 6.11851
9.08852 114.493 10.8418
10.4992 123.217 -1.9787
-5.35007 99.5993 11.4579
18.2657 126.317 6.44027
9.45992 120.972 0.246474
16.6491 130.363 -3.47001
21.4382 129.531 6.78135
9.22446 120.813 0.42435
18.4419 123.496 12.0887
12.5199 121.893 4.55722
-15.0876 95.0481 2.82919
17.6935 126.874 5.0964
18.2629 123.658 11.7946
18.5369 125.533 9.02943
-8.67495 106.585 -5.98267
16.5975 132.843 -7.25654
12.594 122.119 4.497
11.3998 120.034 6.04818
8.9488 120.648 0.636878
6.64442 118.483 0.375822
8.08848 119.497 1.19022
18.3128 126.708 6.69505
16.1497 130.363 -3.44696
1.89171 107.783 10.9506
-15.4673 99.1453 -4.69595
-14.9869 95.2346 3.04264
-2.25331 111.726 -3.32521
10.2841 123.775 -2.23737
23.7243 136.907 -1.43661
0.0035038 105.712 11.3175
2.07913 108.088 10.8943
19.3927 131.899 -0.187672
-14.0623 101.427 -5.99984
-5.23977 100.409 11.6901
20.7489 129.092 7.46459
19.0441 132.634 -1.70464
-14.3595 95.6677 3.98444
19.2175 132.153 -0.512869
18.2163 132.784 -3.39421
-12.1738 96.2236 6.94275
17.5589 132.122 -3.33121
18.6029 124.538 11.952
23.3843 139.351 -5.59041
-13.4897 102.431 -6.13028
19.2069 132.554 -1.01394
-13.0552 95.9635 6.02415
22.8427 134.482 2.06523
18.1658 131.149 -0.3833
8.87838 121.217 0.586794
16.6241 129.861 -0.851008
16.0674 132.574 -6.59853
-7.07339 99.465 10.5406
19.5541 125.152 12.7043
-12.9101 103.088 -6.15713
-0.166935 106.013 11.3857
-15.4825 99.7982 -4.82817
19.8246 125.948 11.92
10.7451 125.511 -3.43636
-13.2453 96.0552 5.76471
9.94243 117.162 9.85857
18.0231 125.049 10.4047
10.4354 118.127 9.11652
-10.0536 97.8211 8.42826
17.9769 124.957 10.5725
22.3429 139.537 -7.30565
9.9714 123.842 -1.57263
9.94004 123.741 -1.35671
-17.2844 96.3622 -1.46172
18.7821 133.158 -2.09168
-8.95156 98.6258 9.37284
-11.3895 105.095 -6.3046
-12.622 96.5607 6.57336
7.39508 119.917 1.10275
-10.6319 106.102 -6.62387
-15.2658 95.9081 3.0818
5.1935 118.625 -0.482128
19.6139 127.255 9.96304
9.86958 117.471 9.8824
10.6016 125.838 -3.4868
-1.25224 113.668 -3.09765
-11.6061 97.1473 7.60018
22.593 134.337 2.97104
11.5023 121.665 5.58423
9.20035 116.607 10.457
4.02056 118.219 -1.53621
-10.0713 106.771 -6.41683
8.5003 121.518 0.650356
-1.36515 105.009 12.182
-8.39715 99.2631 9.81708
-10.2343 106.714 -6.49418
12.9832 129.556 -5.41412
-3.65215 102.529 12.5866
20.7517 130.116 7.52839
11.4405 121.64 5.92265
19.5337 137.63 -7.79649
6.47752 113.619 11.2403
-2.00704 104.343 12.4821
13.3766 125.119 3.41056
-5.77856 101.128 11.5775
-12.9383 103.84 -5.90036
19.3536 126.988 10.8037
6.90123 114.146 11.274
-10.5459 106.723 -6.61338
17.3267 131.535 -0.666242
-4.09229 102.363 12.5902
2.24078 117.632 -3.00102
-0.590026 106.501 11.5692
18.0943 133.039 -1.85891
16.834 131.007 -0.502001
-13.2309 96.927 6.04099
18.5913 136.951 -7.75055
23.9155 139.138 -2.04867
22.6126 140.435 -6.62508
-10.091 98.7996 8.51988
5.73768 119.642 -0.00112506
16.5305 133.137 -4.54566
-13.6923 103.305 -5.74319
9.4421 117.563 10.3048
11.6235 122.658 5.28863
1.45207 109.275 10.8156
15.3297 132.099 -4.62814
15.6647 131.796 -3.47889
5.19683 119.552 -0.511942
0.667697 116.563 -3.23438
15.855 128.532 2.74042
13.486 130.942 -5.66153
16.6235 134.352 -6.08426
-3.62559 103.395 12.6023
-0.296825 115.759 -3.1533
16.7893 133.376 -3.68818
-8.11402 109.234 -5.41473
9.47327 118.2 10.1932
14.8946 132.381 -5.02722
16.7996 135.031 -6.20186
23.7243 139.11 -1.05147
20.0355 129.684 8.97916
23.8805 139.975 -2.23205
-4.30287 112.186 -3.38863
-5.21667 102.468 12.1076
-16.8999 97.2372 0.566653
18.4789 137.657 -7.37831
23.2854 141.421 -5.35794
17.4913 134.745 -3.90265
21.489 140.56 -6.96713
14.0059 127.394 2.93134
-6.83749 101.668 11.1725
-13.3075 98.0122 6.10947
-6.46752 111.056 -4.61314
23.8248 141.606 -4.41695
-15.9122 101.583 -4.61623
-1.45738 115.14 -2.70302
13.1381 126.572 3.25186
-9.38046 109.213 -6.19991
9.6355 126.645 -2.99576
16.181 129.947 2.84428
17.0676 133.688 -2.11399
2.2192 111.42 10.7691
9.05843 118.503 10.4769
17.8697 127.324 10.6197
-9.92658 100.178 9.11638
16.7219 135.633 -5.81523
-1.96824 106.556 12.2886
-13.9762 104.58 -5.48843
-16.366 98.0884 1.69615
5.86226 115.035 11.4127
-6.36092 111.887 -4.7665
18.1205 127.441 11.4533
-2.88295 114.298 -2.74575
-16.5382 100.955 -3.51843
-16.7538 100.58 -3.23967
17.2275 134.676 -2.70439
-4.47195 104.086 12.5872
13.0852 132.097 -5.46136
7.31702 122.652 0.963822
8.14863 117.847 10.9481
17.6063 137.686 -6.99052
12.1682 125.607 4.61888
-4.56202 104.246 12.5652
15.4144 130.267 2.38129
17.6632 129.543 7.66151
3.3655 113.275 10.8939
4.41042 120.95 -0.671615
-1.71895 115.762 -2.43374
18.7023 138.892 -6.69872
-16.479 99.0496 0.871863
19.4632 130.733 9.08061
-15.9262 98.6385 2.66481
21.9511 141.818 -5.97935
-14.7716 104.25 -5.14511
-4.11497 104.864 12.7424
17.4237 130.984 5.12684
8.82669 126.098 -1.51995
-15.6823 98.8408 3.04642
-11.1006 100.469 8.39894
17.7808 128.886 9.74288
10.1099 121.548 9.05972
-7.54665 112.081 -5.54042
17.4229 130.556 6.35085
16.3564 136.751 -6.35574
8.70723 126.161 -1.29772
4.11309 121.257 -0.82746
5.35359 115.631 11.4766
23.7136 142.999 -4.01228
21.0541 136.66 2.5637
-3.32512 115.037 -2.62169
15.011 135.14 -5.39575
22.9264 140.396 -0.558525
21.598 138.056 1.25587
2.8698 120.985 -1.90149
4.43063 115.015 11.404
12.3251 127.043 4.28449
3.22881 114.018 11.0901
-15.1938 104.591 -5.03469
16.8274 137.824 -6.56654
16.4536 132.005 3.02212
4.1137 114.854 11.3856
-13.0236 107.466 -6.04694
9.37233 128.573 -3.34141
-5.7854 104.485 12.1514
8.40185 126.133 -0.543299
16.2927 136.733 -5.15887
12.5864 127.721 4.19579
10.042 129.837 -3.96791
-6.7598 113.574 -5.21461
-17.3702 100.048 -0.236265
-10.7336 101.641 8.79931
12.7125 127.995 4.11283
-4.87666 114.682 -3.70645
17.1799 129.653 9.15345
1.80158 113.238 10.7352
17.0806 130.065 8.29708
16.5796 136.796 -4.42651
-2.64453 116.173 -2.30439
1.80527 120.577 -2.12599
19.1664 132.947 6.99142
17.224 129.541 9.55729
11.3336 131.7 -4.61664
-0.238166 118.709 -2.21722
19.7435 141.084 -6.05717
-11.3001 110.012 -6.53141
1.46626 120.45 -2.19737
6.07417 123.404 0.85778
-0.703399 110.529 11.473
18.557 131.01 9.80541
-11.7294 101.629 7.68992
13.6837 135.239 -6.27091
16.2619 136.659 -4.17319
11.5302 132.218 -4.63339
16.2538 136.672 -4.05043
-5.73994 105.224 12.2121
19.2522 133.682 6.60357
4.90048 116.429 11.5792
16.2963 133.279 2.19639
13.1632 129.857 2.82181
2.62092 121.866 -1.80988
-9.33225 112.352 -6.24592
-6.66768 114.47 -5.13632
-5.47002 115.221 -4.28359
-2.26486 117.197 -2.03646
10.9877 125.151 7.53244
-14.8897 106.369 -5.34748
2.32096 121.754 -1.81187
-9.99168 103.041 9.26992
16.896 132.051 6.10869
-17.4443 101.231 -0.669754
8.87173 121.761 9.99278
23.0073 142.1 -0.604052
11.2034 126.141 6.59296
16.2092 136.4 -2.50324
16.7617 131.937 6.45364
19.5142 141.656 -5.61442
-0.00575446 112.387 11.1942
1.12249 113.767 10.8033
-16.3709 103.473 -2.16691
-9.42958 103.865 9.58439
13.1931 130.653 2.68111
-6.33175 115.305 -4.97925
13.9335 131.665 2.31907
22.3747 141.452 0.200157
10.943 125.857 7.37572
9.36211 130.579 -3.70684
-17.1755 101.811 -0.152441
23.2104 143.901 -2.42218
-16.7483 103.179 -1.72401
7.83598 127.362 -0.533663
5.73963 119.083 10.3064
7.59094 126.569 0.496822
-15.6311 105.421 -3.49335
15.8291 138.334 -5.48027
19.9194 136.345 5.2956
-12.7919 109.906 -6.25722
20.527 137.878 3.75312
8.14085 121.902 9.97612
16.5439 132.399 6.44883
1.13177 114.329 10.8701
7.90093 127.899 -0.947807
16.5757 133.997 3.76513
-7.95956 105.308 10.7326
2.19794 115.238 11.3429
-12.5622 110.397 -6.30337
7.99832 128.609 -1.7863
22.9463 144.785 -3.67536
-7.93512 105.403 10.7708
22.6712 142.594 -0.23613
17.0714 139.991 -5.59368
14.2529 137.162 -5.61474
-15.0585 107.481 -5.47288
-16.0337 104.964 -2.72488
9.67284 131.549 -3.79918
-13.6767 109.263 -5.95755
21.5435 140.999 0.864872
-13.5273 109.495 -6.02751
-13.5355 102.755 5.90055
6.0769 120.406 9.74246
-13.9049 109.109 -5.85428
-4.97125 107.612 12.6537
4.49683 118.176 11.0103
-17.0931 102.602 0.0562102
-15.1802 107.429 -5.02807
4.51833 118.24 10.9756
-1.75897 111.37 11.9693
12.0313 128.729 5.96482
-14.3315 102.739 4.92606
15.9939 138.619 -4.25236
14.6123 133.68 2.02409
13.3046 131.568 3.5168
7.73559 122.41 9.74315
-7.27104 106.281 11.4658
19.8203 143.022 -4.97035
0.00595257 113.905 11.0391
-15.3052 107.421 -4.60054
-6.7481 116.444 -5.14799
-12.3067 111.468 -6.25721
15.7141 135.143 1.93255
6.67979 126.7 0.772585
16.3738 133.091 6.86168
-15.398 107.373 -4.25585
16.3853 133.092 6.98046
-12.3756 111.559 -6.23168
5.86867 120.94 9.69727
19.2853 136.173 6.76015
6.24966 126.374 0.83732
19.4216 136.991 5.61774
16.5079 135.786 2.74888
-1.30492 120.175 -1.42548
16.5192 132.588 8.45763
-17.2303 103.529 -0.161216
13.5141 132.752 3.1388
10.3889 126.595 8.52282
22.5544 145.058 -2.31878
7.6009 129.725 -1.89166
-2.54329 111.632 11.9232
-5.38785 117.933 -4.14644
-15.1113 104.121 2.96229
-14.9315 103.987 3.5631
-5.27975 118.061 -4.02503
22.6093 145.627 -2.94917
21.4227 145.226 -4.34102
-14.2962 104.184 4.50592
16.505 133.211 8.19563
5.72022 121.548 9.64688
-9.60175 105.977 9.82017
-14.1929 104.296 4.62404
8.33631 131.506 -3.15582
15.1089 138.317 -3.04961
-15.1287 104.433 2.94394
22.0593 143.509 0.328092
-3.25131 111.334 11.9626
0.535667 122.51 -0.933179
0.104138 115.329 11.0601
0.205216 122.299 -0.979733
-9.48056 106.322 9.94287
4.94859 126.301 0.452316
9.55922 133.637 -4.23085
19.6713 138.876 4.5356
4.61005 126.161 0.178803
5.95916 122.449 9.12686
2.76533 117.804 11.6433
11.778 129.824 6.51977
7.65512 130.93 -2.67718
-13.581 104.935 5.35105
6.91671 128.602 0.154766
13.4272 133.854 2.57202
20.6074 141.788 1.3905
-16.9321 105.6 -1.63766
8.74809 125.422 9.13508
16.313 135.89 4.30085
21.1949 142.557 1.26062
-16.2133 107.16 -2.92585
-14.5616 105.703 2.82723
22.2766 146.099 -2.75476
-17.1781 104.772 0.0163787
16.2925 136.994 2.83737
15.1284 139.403 -3.41391
-5.01719 109.905 12.6914
-14.846 110.244 -5.31647
-14.3285 106.135 2.85308
15.6027 139.756 -2.93996
-4.02873 119.712 -2.46288
12.9386 132.751 4.76522
-1.10972 121.844 -0.992774
15.4221 139.94 -3.40809
-16.4316 107.416 -2.77009
-16.2916 107.768 -3.06237
-13.9272 106.685 3.05712
0.676307 123.662 -0.823349
-7.93882 117.543 -5.30693
-4.50221 119.814 -3.17732
-0.861637 122.318 -0.951423
-13.3952 107.082 3.68268
-11.8275 106.682 7.22061
-7.03484 118.34 -4.71014
13.5133 139.438 -5.24206
15.2758 140.509 -3.92631
-16.4717 105.545 1.19355
15.3062 139.815 -2.59971
0.538138 123.92 -0.804809
18.7237 138.051 6.6742
15.6005 140.922 -3.90719
8.13385 133.042 -3.3086
10.3093 128.675 8.2413
-13.7208 112.365 -5.7287
15.5644 140.905 -3.88595
14.8962 139.742 -3.01446
16.1942 135.918 6.02894
16.1291 136.16 5.64443
-10.9878 115.425 -5.8492
-15.9016 109.662 -4.42375
-11.9883 108.13 5.33875
20.9346 146.525 -3.66944
13.4776 135.466 2.61753
12.3886 133.336 4.49289
-15.036 111.076 -5.0666
10.355 129.288 8.04836
6.86052 131.718 -2.30276
-8.94208 117.625 -5.57712
16.7582 142.836 -4.22568
-7.39929 118.652 -4.60013
15.1858 140.303 -2.52117
19.6586 145.885 -4.38329
11.6538 138.972 -6.31127
12.1951 133.601 4.09742
-5.52954 110.859 12.6353
4.30181 122.126 10.2877
18.278 138.118 7.06705
14.9512 140.584 -3.07145
-4.03954 112.925 11.8461
7.59226 126.125 9.34496
-1.58284 122.81 -0.927239
15.7037 138.049 2.98416
13.0107 135.763 2.24149
-17.0576 107.74 -1.81924
16.7731 136.67 7.46434
6.62504 131.641 -1.70342
6.85787 132.441 -2.68259
6.29563 130.438 -0.0744234
15.9056 138.341 3.15449
13.7387 137.249 1.22529
13.1585 136.469 1.56917
-0.435281 117.144 11.5062
10.3962 137.785 -5.53131
21.423 146.954 -2.04388
18.8594 140.152 5.39283
16.2282 142.337 -3.05675
15.7244 141.88 -3.10599
18.1147 138.472 7.14205
19.5997 146.345 -3.97524
11.8324 134.03 3.92727
-13.891 108.045 4.00874
6.9712 133.1 -2.95879
10.0583 137.553 -5.25639
8.62821 127.967 9.15263
7.35322 133.924 -3.45476
20.5435 147.265 -3.45934
18.9805 142.121 2.81314
-8.1329 109.942 11.2894
-10.9437 109.839 6.59628
-9.73109 109.488 9.41008
17.0365 137.921 6.98425
16.55 138.748 4.67507
-4.11969 122.346 -3.18408
18.3727 139.594 6.45454
1.6282 126.519 -0.293368
5.35375 125.41 8.32241
21.1359 145.853 0.421563
17.0265 144.209 -3.814
-9.43478 109.743 9.91643
5.37862 130.069 0.511702
13.2766 141.478 -5.46291
-2.77068 123.022 -1.3924
-13.3812 108.781 4.82695
6.50227 132.874 -2.19449
15.5194 139.078 3.0135
-6.41425 120.893 -3.9156
-8.00398 110.832 11.0805
-7.42178 111.182 11.6968
-2.48289 116.486 11.2258
16.8357 138.822 6.41432
-14.7973 108.335 3.86185
5.48714 126.364 8.27821
12.6222 141.45 -5.54951
-13.1255 109.307 5.26539
-10.4003 110.805 7.51074
17.6364 145.265 -3.23526
-14.6963 113.638 -5.05264
13.2964 141.964 -5.11973
19.1402 143.684 2.24733
0.44457 126.272 -0.340281
-9.76642 118.876 -5.45569
-11.0557 117.692 -5.64334
-12.1119 110.079 5.9666
9.66281 130.888 8.21068
1.73306 121.375 11.0918
-17.3334 108.499 -0.127851
-15.1557 113.335 -4.73362
9.17144 130.509 8.43766
18.4427 141.764 5.1954
13.726 142.631 -4.66328
-12.0572 116.984 -5.33217
-7.06974 121.237 -3.90103
15.3895 142.768 -1.80224
9.00413 138.132 -4.9804
3.21033 123.449 10.6281
0.265339 126.675 -0.263923
13.8402 141.593 -2.36775
19.4968 144.768 2.14298
13.846 139.228 1.86871
16.3656 143.904 -1.8659
16.5267 140.395 4.6041
16.8385 145.004 -2.81784
-16.9061 108.629 1.27884
12.0668 137.266 2.44288
0.202988 120.49 10.9554
-3.16512 116.979 11.2237
11.6717 134.984 5.9323
12.1455 137.247 2.81858
17.2298 140.896 5.51215
-9.22379 111.871 9.60514
18.0508 142.65 4.06891
-16.9589 108.969 1.29296
-10.1588 112.059 8.00913
7.44405 136.902 -4.39276
-10.3304 119.588 -5.48599
-16.4753 112.352 -3.60058
19.135 145.092 2.23996
-1.45494 119.313 11.0664
-7.30506 121.903 -3.86364
-0.490357 126.765 -0.307147
15.6834 143.813 -1.52644
1.58128 128.742 -0.0344638
12.5023 139.079 1.27411
-0.543549 120.432 10.9446
1.65407 128.995 -0.0230397
9.46037 132.446 7.86385
9.6567 140.243 -5.4728
2.73243 124.08 10.724
7.10187 137.118 -4.38559
16.5175 145.303 -1.88172
14.3211 140.362 2.94957
7.16882 137.395 -4.48238
11.8567 138.671 1.67586
-7.17982 122.573 -3.81678
-14.7222 109.979 4.93737
-14.0812 110.354 5.45345
5.61659 134.012 -1.12549
-13.332 116.92 -4.63325
9.0719 139.915 -5.22581
-4.68054 116.057 12.3496
-5.51466 115.068 12.6877
-17.1156 111.75 -2.05492
9.43518 132.94 7.92878
-15.3105 109.945 4.42653
7.17904 130.268 8.73505
1.4983 123.35 10.8168
17.8885 147.442 -2.40797
-8.11391 122.109 -3.98391
9.99663 141.488 -5.85223
-15.4949 114.991 -4.53119
-17.3108 111.177 -0.966971
-17.4295 110.482 0.0711865
-14.5279 116.057 -4.51941
7.90474 131.385 8.4225
-14.5843 110.487 5.23163
-14.1645 116.439 -4.48048
0.943203 129.291 -0.210323
6.74409 137.392 -4.09065
6.31654 136.603 -3.36826
-1.66669 126.978 -0.602505
-0.752615 121.428 10.7979
-14.1871 116.559 -4.43848
7.20719 138.313 -4.66404
10.7334 142.584 -5.89904
-7.34703 114.209 11.9508
-0.5641 121.758 10.766
16.4821 142.442 4.74886
11.538 138.841 2.41724
7.44669 131.345 8.45459
13.5802 144.183 -3.19746
11.1221 137.328 4.63433
11.0593 143.152 -5.69657
13.6615 141.231 2.34315
0.437133 129.421 -0.306499
8.44631 132.882 7.89838
-17.3267 111.989 -1.13139
-8.33059 122.719 -3.92179
-1.78563 120.838 11.019
14.4495 141.528 3.49074
-3.54926 118.763 11.5609
15.8182 145.627 -1.13533
13.3756 144.682 -3.7815
6.57764 137.952 -4.01838
2.91963 126.94 9.05496
-16.2162 115.028 -3.96718
2.30092 125.543 10.4671
10.4144 136.888 4.93869
-1.57373 121.374 10.9895
-4.2478 118.042 12.1302
12.3515 144.448 -4.79243
-13.8653 117.758 -4.35244
-15.0341 111.139 5.26239
11.0939 139.434 1.94301
2.98349 132.081 0.532569
17.7981 145.526 3.31253
11.353 138.637 4.01588
17.2437 144.74 3.7574
5.97923 137.477 -3.33638
-3.2008 127.053 -1.18218
15.2732 145.785 -1.21844
8.51632 133.936 7.63803
-17.5526 111.71 0.461046
-4.81068 126.273 -2.46679
6.04459 131.214 8.19999
7.52106 140.076 -4.72636
-12.9954 113.223 6.27227
-9.98452 122.237 -4.1981
-12.4071 120.224 -4.89893
-17.252 111.676 1.55293
-6.71153 116.257 12.3469
-17.3413 113.301 -1.30321
8.96767 142.164 -5.27842
10.0485 143.551 -5.76679
5.81321 137.869 -3.28794
-4.39815 126.975 -2.25618
-5.73604 117.163 12.6461
7.83588 140.828 -4.70825
-0.284175 123.583 11.2264
-7.20898 116.11 12.1613
2.12134 127.33 9.00545
-7.69972 116.009 11.4904
4.85865 135.893 -1.1003
9.18588 136.809 5.21428
0.681029 125.146 10.6376
8.27788 141.603 -4.77419
-1.15697 123.032 11.1655
-0.927259 123.253 11.2052
10.8953 139.57 3.52606
3.69569 129.71 8.12094
-7.36053 116.362 12.1314
13.7905 142.841 3.18168
-1.72229 129.375 -0.676494
0.732041 125.633 10.2902
-16.1638 113.883 0.968553
0.0808039 131.149 -0.532526
-5.8727 117.679 12.6032
-11.3052 114.644 8.34891
15.2651 146.845 -0.967634
-3.88457 120.119 12.028
7.21102 140.707 -4.45936
-3.7836 120.265 11.9822
2.41372 128.824 7.97796
-9.20601 124.547 -5.08854
0.670085 131.814 -0.296687
3.37894 134.369 0.111081
4.21856 135.482 -0.288058
-1.30045 130.107 -0.605859
-9.37933 124.539 -5.14553
2.5789 129.24 7.91613
-17.1575 114.241 -0.686102
12.92 145.51 -2.09149
2.13956 133.143 0.513836
-17.2329 114.391 -0.883992
9.95943 139.931 2.51835
18.1838 148.329 2.43863
5.21838 138.068 -2.50499
13.4917 146.042 -1.74275
-12.1013 114.7 7.96415
-9.29766 116.334 10.1688
-12.6609 121.624 -5.07021
8.69784 137.608 4.7671
-6.51573 126.959 -3.47647
10.1337 144.956 -5.45484
-17.3014 115.029 -1.54342
1.31659 128.192 8.53313
11.8708 146.32 -4.5621
10.8957 142.021 1.30336
17.2429 147.212 3.46174
-10.7566 115.665 9.22355
10.5516 140.805 2.87248
15.9711 145.066 5.01195
-9.12465 116.667 10.3723
-16.5693 112.985 3.64582
-16.2899 115.064 0.52952
-6.92364 117.985 12.0386
10.2664 140.935 2.32465
-16.9946 115.469 -1.24899
1.11894 127.685 9.48315
8.28939 137.516 5.06811
-16.2174 113.591 3.72473
9.10435 139.548 3.0689
12.1264 146.354 -3.41065
16.8001 149.917 -1.36037
-6.78802 118.593 11.8711
-2.57341 123.161 11.3337
-15.8828 114.219 3.46221
-15.8287 113.408 5.06875
5.21559 139.291 -2.97112
-16.1054 117.64 -2.65838
17.0047 150.013 -0.732199
9.18157 140.188 2.66223
-16.7919 117.118 -2.89909
16.2659 149.978 -1.9028
-17.0345 116.6 -2.35008
12.4083 146.498 -2.4441
-10.3623 124.962 -5.01556
-15.0996 118.449 -1.84045
-16.7203 116.73 -1.6181
-15.5717 113.841 5.50755
-14.9286 118.472 -1.49055
-15.5907 118.403 -2.51688
-8.30773 127.014 -4.70217
8.94071 144.892 -5.43273
-14.4886 118.523 -0.671463
-3.04121 123.205 11.5194
-1.49545 131.747 -0.727679
1.69399 130.493 7.14837
-13.3158 115.155 7.45711
-14.5029 118.21 0.0139098
-6.51941 119.712 11.6125
-16.0835 118.437 -3.12931
-15.4626 114.032 5.789
4.89556 139.317 -2.48688
17.2965 149.317 2.01749
16.8031 148.322 2.94307
-16.3852 115.775 1.25206
-8.49796 117.897 11.5381
-2.79074 130.983 -1.24856
8.21971 139.493 3.57525
-14.9406 120.429 -4.03361
14.6917 148.765 -1.19241
6.09147 141.684 -4.00253
13.799 144.985 3.96164
13.258 144.83 3.28138
-15.7145 116.916 0.95129
-15.5725 114.77 4.97846
7.66883 138.486 4.65281
0.422201 133.856 -0.0643179
-14.0369 115.201 7.0582
10.1409 141.908 3.19652
14.9854 148.997 -0.558016
6.67705 136.398 6.84974
-14.8206 116.781 3.17797
7.18584 143.28 -4.22945
-14.6932 117.542 2.16643
-1.47243 127.084 8.92865
-15.0372 116.46 3.57883
13.8961 145.448 4.12226
-1.13402 133.06 -0.780473
2.99704 132.892 6.86767
0.293328 128.745 9.39091
-4.90235 121.894 12.2568
10.9783 147.549 -4.61898
-9.06088 127.804 -5.44176
14.0941 149.085 -1.71492
0.232694 128.795 9.36349
12.934 145.324 2.9079
-2.48041 126.292 9.1751
13.1693 148.896 -2.769
-14.7381 117.661 2.6172
9.17746 142.363 1.73345
-2.81123 125.968 9.27637
3.53245 138.091 -0.729159
1.86528 135.936 0.268755
-14.9562 117.224 3.3102
-2.88589 125.296 10.583
-15.3502 119.66 -1.60149
-0.0593489 134.368 -0.228937
8.54258 141.732 2.11312
-14.4639 120.531 -1.35731
-3.10318 125.429 10.2447
7.59213 140.079 3.52972
-13.781 116.253 7.47096
-14.1968 120.912 -1.3953
7.96512 140.95 2.78305
5.44705 136.166 6.75668
6.2477 137.119 6.52251
-3.85504 123.904 11.8174
-14.9531 119.135 0.56215
11.1898 147.92 -3.55042
2.56395 137.191 0.0317463
-9.85003 128.401 -6.55653
-15.3174 120.969 -3.17533
-5.38729 122.932 11.0238
-14.2961 119.849 0.657333
14.3913 147.166 3.82901
-14.2901 121.507 -1.97516
13.1581 149.387 -2.1558
9.72222 147.744 -5.21142
-0.153928 134.968 -0.220996
7.29336 140.349 3.54701
-3.76656 124.849 11.2326
-0.177497 130.676 7.40921
-14.8793 116.673 5.94004
-6.7125 131.025 -4.67191
-1.5486 134.037 -0.789495
-6.37234 122.063 11.7277
-6.42784 122.95 10.1492
-4.39047 124.306 11.4126
-2.73902 133.247 -1.34757
-13.9527 119.833 2.38879
-10.9108 118.802 9.67699
-1.41199 134.322 -0.715779
-6.35779 123.921 8.79348
-15.7959 116.197 5.72562
-15.8226 119.913 -0.854195
-14.6669 116.246 7.64923
9.97971 148.496 -5.23622
-15.193 121.008 -1.60439
-14.6515 121.435 -1.35936
-3.05389 133.232 -1.46664
-8.16038 130.5 -5.69851
-15.8143 120.008 -0.798119
-11.8029 126.617 -5.24335
11.3127 146.136 1.54074
-5.4002 124.104 10.6498
5.05928 142.896 -3.74939
4.44902 141.666 -2.65878
12.0452 146.656 2.06141
-15.7623 117.101 4.71198
12.5811 149.755 -2.36186
-15.1981 122.098 -2.97584
-6.99574 123.128 9.79195
-5.68784 125.049 8.76187
-7.02627 122.607 10.7101
-11.389 127.866 -6.27396
-6.98744 123.957 8.63017
-11.5128 127.855 -6.2581
-14.563 121.009 0.436575
4.10377 141.345 -2.12864
10.4387 145.903 1.14507
-12.9569 125.237 -4.02925
-15.0479 122.095 -2.15492
10.2308 144.331 3.66605
-15.3178 121.679 -1.86677
-15.981 119.765 0.332448
-5.26438 125.615 9.09701
-14.7974 119.691 2.58762
7.77314 143.065 1.58784
-7.40034 123.058 9.83817
2.77096 139.295 -0.632815
-5.08093 126.444 8.08023
7.50083 142.641 1.94958
-6.77898 132.094 -4.78784
-4.41507 126.224 9.84389
-15.3082 118.831 3.54283
-13.1116 119.061 7.07016
7.32335 146.156 -4.2612
-11.9721 119.454 8.46673
-14.5193 120.542 2.06819
2.47166 139.153 -0.422557
5.30899 138.277 6.18852
-5.08531 125.316 10.5353
-14.0978 117.452 8.44178
-8.6685 131.441 -6.42371
-13.9214 121.347 2.18681
-15.2102 120.306 1.785
1.67788 138.477 -0.149014
-13.8833 121.303 2.45749
-14.5228 120.082 3.53082
11.1777 147.16 1.59676
14.9684 151.996 -0.102618
-2.26062 130.462 7.22861
0.428324 133.368 6.95215
-13.8924 122.376 0.906487
-5.21849 133.605 -3.42431
0.414989 133.441 6.93409
-15.4974 121.244 0.158838
11.6548 150.325 -2.74023
-8.7128 122.045 10.8125
-14.1984 124.524 -3.24964
-13.1324 119.061 8.29562
-11.0107 129.302 -5.91691
3.22479 141.173 -1.41166
-13.7869 121.416 3.17251
-14.905 121.888 0.41741
-15.0972 118.675 5.94648
0.553705 137.915 -0.0769668
5.64192 140.556 4.33847
-12.587 126.887 -3.96106
-5.72889 127.021 8.13191
-10.8079 121.327 9.20518
-4.02485 128.646 8.39671
2.35203 140.26 -0.685017
12.9767 148.838 3.24085
-10.2939 130.488 -5.80401
10.9742 150.54 -3.24724
-0.627599 133.318 6.46648
-12.2038 120.789 7.95093
-9.01182 132.146 -6.34893
-15.2089 122.436 -0.26813
-13.6338 122.025 3.26254
-4.39971 134.804 -2.79654
6.37261 143.126 1.71583
-3.54948 129.442 8.16195
-9.11691 122.639 10.255
-13.0942 121.003 6.12424
9.77591 146.745 1.5245
-13.3051 119.737 8.11636
-2.31533 136.101 -1.11848
-11.5338 129.195 -5.35135
-13.2946 119.745 8.1584
-8.11928 133.048 -6.02746
-5.91587 127.246 8.14079
-14.4049 122.636 1.19222
-14.3412 119.158 7.43005
-4.46358 134.998 -2.87147
-12.6479 120.035 8.9218
14.1483 151.904 0.486383
-2.79656 136.006 -1.61825
-9.45145 131.68 -5.80875
-14.2627 119.621 6.9717
-0.206197 134.083 6.53917
5.78172 145.979 -3.70879
-12.6103 120.092 9.16178
3.93623 143.481 -2.55394
2.12046 140.562 -0.611003
-5.65139 127.718 8.22591
-15.4433 120.489 3.55122
-9.58878 122.748 10.0281
-5.77248 135.007 -4.74475
-14.923 121.69 2.43879
11.2237 150.805 -2.31206
3.95694 138.862 5.8344
-1.94825 132.895 5.89117
-12.5605 120.202 9.40711
-14.5253 123.503 0.180951
-13.6623 119.572 8.65611
-5.57319 128.093 8.04708
-14.9725 120.666 4.45607
-12.8131 125.06 0.587978
-13.9867 119.104 8.99806
-14.259 123.007 1.66657
-14.8597 122.154 2.12062
-13.2036 119.809 9.19787
-13.907 125.775 -2.37813
-14.726 122.263 2.47453
-9.9101 123.709 8.49233
-3.6139 136.374 -2.57362
12.3783 151.507 -0.763156
-15.2267 121.199 3.54652
-15.4097 119.554 6.13283
-14.274 120.275 6.88853
-12.4806 121.314 8.25581
-3.4805 130.992 7.28062
-15.4561 118.081 8.72081
13.6015 152.014 0.672404
-0.51695 138.347 -0.373123
-15.1144 119.881 6.22684
-12.0717 121.717 8.42088
-13.5849 124.681 0.541125
-15.0775 121.039 4.32911
-9.07167 132.717 -5.51425
-10.3301 122.988 9.46334
-13.8949 120.967 6.73109
-15.5695 120.244 5.03117
-10.2209 123.525 8.7658
-5.94001 135.657 -4.9538
-12.9698 125.505 0.47398
0.522453 135.842 6.27438
-2.13573 133.308 6.02132
-4.75778 129.766 7.65719
4.1538 140.036 5.49657
-2.3971 133.207 5.91965
2.46135 142.165 -1.1349
-15.7379 118.457 8.31324
-8.11019 126.683 7.47369
7.59222 149.109 -4.06927
-14.3788 124.561 0.0963113
-4.73254 130 7.73953
-15.6292 120.625 4.90321
-15.7524 119.812 6.2421
9.7629 151.084 -3.39578
-13.5693 124.899 1.2311
-16.2894 119.651 5.64119
-12.5525 120.937 10.0214
4.74276 143.392 1.31996
-9.04396 133.268 -5.36606
-13.3755 121.399 8.01232
-15.419 120.869 5.46598
-13.5286 126.758 -1.53217
-15.5548 119.98 6.8361
-0.692833 135.347 6.34162
-15.7206 120.657 5.57311
-11.9467 123.325 7.62652
8.3785 150.677 -4.25788
-15.2834 121.561 4.93672
-2.44733 133.965 6.0471
-12.8857 128.524 -2.90568
-15.5732 120.121 7.12482
-14.6151 120.911 7.5209
-13.2819 120.747 10.2036
-4.37324 130.982 8.03868
-17.461 117.531 8.48914
-14.529 124.106 2.14605
-8.18564 127.53 7.43135
5.14581 147.243 -3.5222
-13.2328 121.422 9.23943
1.63693 142.14 -0.695982
-3.26313 133.231 6.39404
-9.24893 125.64 9.23865
-8.64455 134.849 -5.80674
-14.6577 121.742 6.60602
-14.7767 120.951 7.81676
5.84681 148.247 -3.54383
-14.2312 122.255 6.49828
12.1904 151.487 2.06497
1.09299 141.858 -0.675749
-16.145 121.186 5.09072
-11.6515 123.716 8.66219
-9.88984 125.509 8.65143
-14.7049 124.176 2.49601
-9.39885 126.707 7.47691
-9.63026 126.475 7.49851
10.8991 151.979 -0.863509
4.5478 147.126 -3.43041
-14.0694 126.605 -0.376094
-8.85315 126.545 9.01673
-8.91599 126.472 9.04594
-15.348 121.209 6.89093
-15.5575 120.885 7.16199
-2.13109 135.051 6.20165
-13.7081 120.958 10.4438
-0.509619 136.857 5.99252
-10.5888 124.464 9.92422
-7.88919 127.873 8.72672
-14.99 121.038 8.16466
-9.41924 125.982 9.38321
-10.8712 131.333 -2.57422
-3.45499 133.994 6.00785
-13.1631 129.034 -2.51137
-12.2694 123.026 9.67562
-16.3441 122.006 4.25816
10.349 150.201 2.10026
-14.2228 122.462 7.24319
12.0812 152.307 1.49276
-13.9747 126.992 -0.268581
6.28919 149.424 -3.55841
0.266933 141.728 -0.676209
-9.48024 134.448 -5.16718
-9.1296 126.661 9.29573
9.14788 151.909 -2.62192
-1.06362 140.584 -0.832417
-14.1383 122.791 7.29819
8.2343 151.723 -3.81397
-10.9236 124.419 10.1971
-14.0622 126.302 1.3705
2.45958 145.003 -1.75611
8.95799 149.832 1.47475
9.47727 152.245 -1.83645
-10.3884 133.105 -3.46119
0.219391 138.59 5.75085
-10.7309 124.886 10.4247
-1.87594 136.276 6.13703
-12.4448 124.455 8.21529
-1.61517 136.655 6.02003
-0.456427 141.736 -0.689999
-12.7431 122.844 10.7093
-13.4327 122.517 10.1833
0.0978341 142.409 -0.750957
3.30579 143.166 3.63972
4.38356 148.224 -3.31666
-6.68465 138.22 -5.32872
-0.35235 138.347 5.7786
-6.65606 130.205 9.04979
5.64274 149.686 -3.34356
-13.5033 122.55 10.3865
-1.24223 141.415 -0.922792
-2.2251 136.578 5.85399
-13.0192 122.924 10.7798
-18.3398 118.282 9.50585
-13.6403 127.72 1.26295
-12.6582 123.596 10.4156
-14.353 127.166 1.15481
-8.57654 128.631 8.84939
-14.7023 122.731 8.35994
-17.2631 122.046 5.13521
4.17289 148.519 -3.24052
-17.9518 118.791 9.77331
7.67308 152.183 -3.39447
-3.99776 134.912 6.25275
-3.08077 136.195 5.68486
9.06949 152.731 -1.77296
-12.3269 124.376 10.1557
-9.10922 128.442 8.75401
-13.9534 128.32 0.452651
-13.3363 129.604 -0.568778
0.923972 140.951 4.90925
-5.79156 139.691 -4.75886
-16.3255 123.099 5.72754
-9.69324 127.999 8.97902
-1.52827 138.473 5.09991
-13.3554 123.502 10.4239
-16.9373 124.327 2.75934
-15.9493 123.315 6.30115
-4.32728 140.524 -3.31365
-20.175 119.661 5.27395
1.90544 142.522 4.34428
-17.4597 123.219 3.89477
-8.5193 129.463 8.87277
-10.5483 126.878 9.83182
0.784224 141.227 4.83645
-17.0071 124.44 2.77493
-1.72531 142.159 -1.20356
-4.55553 135.007 6.44659
-14.2219 122.783 10.9714
-1.74216 142.367 -1.2233
-6.30361 132.457 8.24957
-16.4544 123.824 5.47429
-12.6881 124.897 10.2974
-2.50666 141.967 -1.59816
-19.8289 120.7 5.07797
-8.69237 137.559 -4.77685
-6.26756 140.065 -4.80475
-10.9416 134.396 -2.91825
-10.6991 135.238 -3.91669
-9.52788 136.65 -4.29223
-9.56666 129.191 8.80204
0.187566 141.254 4.92203
-7.23606 139.51 -5.16068
-5.01876 134.52 7.69046
-16.8751 125.395 2.70659
-11.8241 125.686 11.2171
-17.3994 124.033 4.65103
-7.69238 139.563 -5.22023
9.70623 153.204 1.72183
-17.1948 125.801 2.25934
-14.5417 129.735 0.185732
5.36217 151.714 -3.04228
-13.8558 130.127 0.832337
-15.9355 128.651 -0.192867
-13.1952 130.381 1.63907
-11.4674 126.676 11.2389
-9.4101 130.157 8.82914
-1.68847 140.292 4.79416
-6.08842 141.094 -4.40998
-17.9787 120.788 10.1938
7.63555 153.459 -1.74618
-1.15739 140.777 5.08809
-19.8845 122.148 4.81778
3.31209 150.155 -2.98611
0.647834 143.439 4.14428
-0.607953 141.761 4.87919
-5.62009 141.879 -4.19248
-11.3739 134.851 -1.85998
-20.6983 121.196 5.6012
-20.6533 121.364 5.42656
2.61891 149.639 -2.88066
-13.995 125.705 9.76225
-16.9019 122.259 10.7176
-13.5479 126.332 9.7455
-19.5814 123.26 4.49684
-15.473 123.645 11.1291
-8.9371 139.342 -4.72251
-20.2518 120.365 8.64992
-6.36318 141.98 -4.48943
-10.7118 129.43 9.93944
-11.7705 134.877 -1.41368
-10.5329 137.608 -3.94931
-18.3699 127.218 0.52378
4.56333 152.401 -2.90694
-12.3915 127.388 11.0626
-11.082 129.267 10.2015
-18.3053 125.998 3.17969
3.51407 151.49 -2.88387
-6.28497 135.53 7.95716
-14.0016 132.004 0.737467
-2.13902 145.193 -1.37959
-6.11984 136.513 6.84355
-19.541 121.434 9.60116
-6.41368 135.611 8.31592
-18.3979 125.637 4.63126
5.79232 153.756 -1.78589
-20.8967 122.454 5.89068
-7.45789 133.974 9.60454
-16.1877 130.162 0.822157
-8.83684 140.493 -4.27507
-19.1885 126.79 1.46105
-0.145262 147.704 -1.4703
-18.2626 127.513 2.05501
-11.2663 137.558 -3.17213
-13.7184 132.834 0.791972
-21.1107 122.023 6.80048
-13.4379 133.048 1.12116
-13.4006 133.29 0.764289
-0.572121 147.462 -1.34475
-16.5578 124.325 11.1273
-15.9994 125.209 10.6204
-0.15927 148.104 -1.4978
-21.1576 122.295 6.58815
-2.85797 141.956 4.55622
-19.4504 125.268 4.43073
4.67631 153.44 -2.16376
7.61893 154.825 0.688922
-7.84989 142.281 -4.73276
-1.17991 147.04 -1.13786
-12.2798 135.551 -0.634209
-20.6984 123.901 5.01946
-9.8507 132.026 10.0377
6.14003 154.627 -1.24857
-20.492 124.924 3.69565
-15.7005 131.976 -0.124002
4.07473 153.308 -2.4155
-8.81906 133.224 10.0699
-16.1852 131.279 0.44248
-17.7893 128.222 2.99456
-15.1128 127.318 9.38036
5.83804 154.592 -1.36414
-14.4723 128.108 9.13473
-20.5859 122.093 8.99851
-19.9153 125.32 4.65956
-19.5797 125.472 5.07441
-7.72867 135.018 9.43207
-7.25061 143.548 -4.64557
7.62233 155.102 1.47723
-17.9419 128.23 3.37658
-9.13601 133.368 10.1079
6.7114 155.063 0.168585
4.34006 153.991 -2.08605
-3.27907 142.739 4.17698
4.40021 154.044 -2.04682
-12.8498 135.957 -0.861667
-10.9772 132.126 9.33576
-4.96052 140.951 4.62157
-13.0029 134.855 1.12814
-19.4853 125.756 5.64421
3.36881 153.431 -2.40783
-3.45295 146.437 -2.14116
-10.3445 139.915 -2.90837
-16.5854 125.942 10.6113
-11.9378 136.561 0.24187
-19.5979 123.36 9.95872
-19.8348 125.612 5.60273
-4.35048 146.119 -2.90074
2.67265 153.08 -2.57327
4.57295 154.599 -1.7572
-12.3157 137.877 -2.23185
-7.11841 137.136 8.3371
-5.42162 140.638 5.20411
-3.54948 143.246 3.96133
-12.2981 131.616 8.90544
5.91731 155.403 -0.504608
-3.7037 143.173 3.92245
-20.1552 123.81 8.96871
-20.7188 124.946 5.97813
-20.6444 125.434 5.26718
-2.31618 144.927 3.6766
-19.1265 124.245 10.3421
-20.4644 125.044 6.57074
-18.0813 125.076 10.7677
-9.24659 134.579 9.79957
-0.0815506 150.585 -2.03059
-0.482819 150.04 -1.77446
-8.88131 135.067 9.6506
-19.3025 125.621 7.75788
-0.901826 149.669 -1.53955
-8.55192 143.488 -4.22381
-19.72 124.169 10.0506
-16.1454 132.987 0.986423
-15.0413 133.732 1.65183
-4.13831 143.619 3.66987
-15.1131 129.477 9.13931
-4.80099 142.849 4.03732
-3.82784 147.541 -2.32201
-4.98431 142.702 4.18559
-15.806 128.926 9.36607
-10.367 141.566 -3.05905
-9.41993 143.055 -3.96735
-13.4059 131.612 9.30043
-15.4341 134.123 1.50352
-17.7087 132.193 0.93988
-12.8661 136.935 1.24115
-11.4362 133.151 10.5511
-14.1698 135.913 1.00551
-2.86062 146.097 3.25727
-11.8763 138.735 0.308026
-4.42914 144.358 3.65132
-17.0053 128.117 10.0128
-8.85013 144.471 -4.09317
-15.4668 134.73 1.31664
-4.36696 144.868 3.51225
-18.4081 129.56 5.73772
-4.79423 148.256 -2.904
-19.1496 126.149 10.4963
-13.686 137.087 1.20229
-18.9851 126.539 10.5428
-3.87859 149.069 -2.20868
-8.645 137.617 9.49324
-16.7654 134.071 1.48492
-12.1108 133.56 10.7618
-11.5364 141.528 -2.21761
-6.2323 142.584 5.38339
-17.0918 133.704 1.82568
-19.7133 126.723 9.71377
-17.9746 131.307 4.77755
-6.06657 148.287 -3.51448
-17.6507 133.161 2.61866
-4.90537 149.206 -2.85992
-10.1059 144.14 -3.16199
-18.2551 132.578 2.76697
-3.37992 150.377 -1.91622
-7.90074 146.925 -3.79771
-3.19925 150.636 -1.86641
-12.4586 134.031 10.9981
-7.57651 147.382 -3.71224
-16.9351 133.976 3.39069
-8.27821 139.795 8.60541
-8.18144 140.155 8.21648
-9.82456 137.647 9.98632
-2.57644 151.649 -1.68093
-5.09125 146.187 3.59237
-4.74189 146.725 3.37066
-11.9672 140.386 1.78672
-0.857513 153.891 -2.06039
-6.64181 148.803 -3.35797
-17.8422 131.954 6.41402
-11.3011 143.038 -1.42836
-10.3535 144.838 -2.85827
-4.43522 150.494 -2.24835
-10.8068 136.74 10.6225
-9.44552 146.365 -3.7098
-13.4975 138.848 2.34118
-15.0163 137.441 2.15756
-8.74542 139.76 9.26476
-19.4766 128.994 9.30428
-17.0488 134.229 4.76452
-16.8114 134.773 4.34695
-10.5582 145.048 -2.50112
-5.6768 150.388 -2.84647
-13.4148 139.53 2.53572
-18.1653 130.388 10.2178
-6.50844 145.764 4.29419
-17.9869 132.094 7.95758
-3.05867 152.708 -1.72218
-16.1483 136.124 4.32626
-5.68003 147.07 3.67848
-15.5092 137.408 3.30522
-3.42715 152.555 -1.82958
-15.4831 137.524 3.26303
-15.8353 132.925 10.8393
-14.1157 139.293 2.71198
-6.85216 145.586 4.71469
-10.2191 146.405 -2.58826
-18.5746 130.935 9.90752
-5.29778 148.476 2.85619
-5.5801 148.093 3.18357
-5.27274 151.61 -2.42224
-10.1649 139.608 10.109
-8.7037 142.068 8.64158
-2.84699 153.957 -1.7293
-12.7778 141.511 2.52039
-6.35473 151.083 -2.87297
-3.23945 153.578 -1.68135
-13.1125 141.248 2.65474
-11.8821 144.279 -0.284878
-18.1092 133.583 7.52988
-17.7367 134.48 6.66545
-7.89943 149.774 -2.68131
-7.2686 146.231 4.90146
-17.8953 132.524 10.2174
-16.7765 136.023 6.2599
-16.7544 136.119 6.24943
-6.03349 148.859 2.97399
-6.9436 147.241 4.2784
-8.75845 143.108 8.91853
-8.47234 149.764 -2.25768
-17.3268 135.387 7.37995
-16.611 136.658 6.47878
-17.9932 134.066 8.63938
-14.6172 140.578 3.50438
-5.513 152.761 -1.73832
-6.06869 152.284 -1.80371
-15.805 139.078 4.49653
-10.7432 141.14 9.99325
-8.96988 143.77 8.5474
-16.0527 138.8 4.8226
-16.4676 137.672 6.0708
-12.7429 143.008 3.46884
-10.9981 147.375 -1.05438
-14.2951 141.456 3.65894
-7.88476 151.066 -1.70394
-16.7982 135.283 10.3059
-12.0566 140.005 10.4351
-16.4073 137.992 6.52855
-9.2303 144.571 7.75395
-5.98042 153.002 -1.29296
-11.4501 141.26 9.92106
-7.82375 148.294 4.2187
-11.6829 146.662 0.746549
-16.9625 137.531 8.05604
-12.3851 141.142 9.94279
-15.8179 137.75 9.95099
-16.4104 138.649 7.96343
-10.8378 148.85 -0.0463558
-13.5483 140.481 9.95005
-15.4465 141.11 5.48078
-14.6204 139.393 9.9963
-15.6524 138.869 9.09814
-15.2558 139.065 9.57701
-15.258 139.523 9.01542
-15.0918 139.716 9.17502
-9.87657 150.42 -0.373584
-14.5336 140.552 9.30696
-12.4073 142.986 9.0982
