ply
format ascii 1.0
comment Created by Open3D
element vertex 1924
property double x
property double y
property double z
end_header
-11.5622 108.281 -16.0357
7.37429 95.1953 6.49924
-27.1444 102.145 6.93838
0.895677 95.9546 8.05901
12.0953 96.1613 2.07098
-24.5059 108.799 -10.3304
-15.4776 98.1497 11.2225
-24.3257 100.045 11.0923
-18.7406 97.8025 13.8481
2.31853 95.9542 7.82403
-16.9137 98.1319 12.177
12.1996 98.5574 -3.49043
1.40817 106.464 -17.4017
-2.90391 96.4474 9.33903
-23.807 99.8683 11.6566
10.522 95.9501 4.09212
-2.3507 107.527 -17.7533
8.70225 103.453 -13.3328
11.8003 96.2309 2.82988
11.4505 99.5503 -5.07754
6.64597 95.6725 6.84423
-20.132 109.105 -12.5529
-11.0332 99.5522 6.30419
9.68929 95.8529 5.12146
-23.7951 100.086 11.6547
-28.5823 103.459 5.83659
-25.8273 101.586 9.0468
11.1567 100.068 -5.6984
12.7923 97.5713 -0.38304
-8.91437 108.534 -16.184
12.5439 98.6654 -2.74676
-24.8318 100.787 10.8813
10.0198 102.231 -10.1623
-27.8935 105.528 0.88292
-22.7615 99.3846 13.3741
6.84093 104.709 -14.4574
-9.44709 108.808 -16.1168
-17.0188 109.257 -13.3848
-27.5366 104.881 2.64082
10.1725 101.707 -8.55268
-19.7204 109.553 -12.6615
-26.073 102.151 9.06914
-28.1413 108.058 -4.28048
-26.3361 109.148 -7.711
-6.71106 108.785 -16.561
-1.37929 108.12 -17.5755
-10.3528 100.268 6.18825
-28.1838 108.699 -5.42747
5.79084 96.5463 7.35479
-6.10962 108.873 -16.7027
-27.989 108.163 -3.89525
-23.9511 100.993 11.6416
-27.9745 108.142 -3.79405
-20.1464 99.1145 14.3979
-3.05886 108.628 -17.4756
-7.41236 100.221 5.3586
-10.4163 109.562 -15.9629
-28.2189 104.084 6.4419
-27.5402 105.13 3.57384
-5.50769 108.969 -16.8768
-28.2814 106.583 0.481786
4.54037 96.8421 7.84404
10.1116 103.467 -11.1667
-15.69 99.2188 12.239
-6.31249 100.218 5.15892
-4.11404 108.971 -17.326
-12.9126 109.544 -14.1299
-16.8658 99.1428 13.362
-27.9266 104.068 6.89917
-9.90234 109.732 -15.9806
-10.058 100.774 6.1826
-21.0722 100.009 13.8515
-28.2596 104.618 6.2402
-12.006 109.792 -14.496
3.98283 97.3604 8.19542
-14.1783 100.459 9.89154
10.4433 102.475 -7.37869
3.07423 107.563 -16.0114
-6.07469 109.664 -16.3995
-27.5532 109.084 -4.0863
-28.3634 107.338 0.671368
12.5273 100.363 -2.81106
10.4265 102.702 -7.47828
-7.82557 101.211 5.40156
2.95915 97.7404 8.49931
10.1597 97.6007 5.31469
-22.6474 111.018 -10.9759
-11.2858 110.213 -14.719
-0.752852 98.2712 9.23283
-12.5397 101.145 8.20448
-27.4251 104.46 7.70303
10.3699 103.918 -9.91778
-3.1575 109.693 -17.212
6.29656 97.6478 7.56574
-5.18239 109.926 -16.6531
-15.5374 100.126 12.6116
-17.3364 100.11 13.6974
-24.0227 111.403 -10.527
-27.1399 106.501 3.05637
5.9174 106.881 -14.4341
10.6228 97.944 5.16608
6.11624 106.851 -14.3596
-14.5179 110.613 -13.1496
-8.52674 110.547 -15.9902
10.8257 102.619 -6.19601
-3.27123 100.587 5.93654
-17.8302 100.335 13.9359
-12.8142 110.424 -13.2955
12.1768 99.4777 1.0587
-20.6691 111.23 -11.1373
-25.1198 111.172 -8.74163
-27.2944 109.731 -3.99514
-2.50652 100.435 6.4259
8.32597 98.3117 6.25693
-23.0083 111.844 -11.0845
-11.8472 110.67 -13.7789
10.8185 98.3651 4.98455
-27.6379 111.122 -6.84313
10.5117 103.353 -6.9983
10.8166 98.402 4.98037
-8.1556 110.891 -15.9637
-6.37037 102.001 5.00665
-22.7922 101.9 13.5505
10.5174 104.464 -9.47245
6.24428 107.297 -14.1529
-17.4016 111.362 -12.1916
-23.3448 112.149 -11.0111
-22.1359 101.909 13.5738
-15.0402 111.393 -13.0489
2.1754 99.0436 8.53111
-2.53726 110.49 -17.0538
-17.8717 101.034 13.8528
7.967 98.6771 6.69983
12.8615 101.256 -1.98948
-25.8675 104.199 10.3188
10.5548 105.333 -10.7518
-28.2034 108.421 1.21487
-26.5321 111.898 -7.98628
-13.9284 101.659 10.7502
12.7783 101.043 -1.13487
5.79767 98.8514 7.76335
-27.1712 105.437 8.25231
-12.6335 102.039 9.33951
2.83787 109.275 -16.0505
-1.19636 100.29 8.08212
7.16111 107.476 -13.7102
-4.68497 102.259 5.04512
-28.0772 109.697 -1.36144
-5.65345 102.631 4.76079
3.28593 99.3908 8.28088
-28.1994 109.102 0.346645
10.6466 104.168 -7.10096
-25.7777 112.247 -8.54481
-27.8388 111.668 -6.07201
-24.0654 112.891 -10.7536
-4.41211 111.247 -16.5978
-26.7981 105.442 8.92907
-10.8796 102.947 7.11585
-7.37194 102.919 5.67473
-9.9789 111.797 -14.6368
-25.2484 112.664 -9.00844
7.39616 99.3012 7.39018
-22.6218 113.011 -11.0334
-3.19689 102.341 5.48838
-0.0440089 110.642 -16.2646
-10.5817 103.299 7.02865
-27.6713 112.394 -6.43185
10.7051 105.794 -9.53262
-27.1325 112.8 -7.57419
-10.3942 103.407 7.01641
-1.82702 111.251 -16.4844
-10.8415 111.97 -13.6782
-22.5454 103.487 13.2006
12.3604 101.59 0.316067
10.7792 106.251 -10.289
10.2375 107.202 -12.3207
9.50311 99.8048 6.23558
-1.51871 102.205 5.95179
-25.5998 113.263 -8.91753
-11.3877 103.078 8.90048
-22.0455 103.51 13.2243
3.47881 109.968 -15.4022
5.4872 109.255 -14.5109
12.3578 101.782 0.494829
-25.9178 113.586 -8.79979
-11.2351 103.36 8.91449
-27.2414 111.429 -2.61222
-27.5632 110.865 -0.822318
-5.235 112.459 -15.9486
0.804174 101.315 8.34599
-28.0768 112.972 -5.59872
-24.7317 114.175 -10.1616
7.22392 100.317 7.76665
12.725 102.574 -0.385608
-26.3997 106.527 9.63303
-18.2181 103.33 13.4031
-11.9686 112.61 -12.4422
7.6265 100.427 7.58971
10.8025 105.792 -7.09892
11.9127 104.207 -3.75831
11.7865 104.386 -3.98943
-21.43 104.299 13.0923
3.60127 110.783 -15.3405
0.515319 111.712 -16.0548
-25.5823 114.362 -9.35029
-10.2351 104.465 7.20787
12.9644 103.062 -1.01022
-28.1058 113.386 -5.58224
10.9017 105.453 -5.78246
4.37711 101.041 8.33338
-27.2344 108.12 7.09163
-6.08283 104.674 4.88543
10.8119 105.932 -6.62682
-27.1135 107.6 8.40829
0.525336 111.907 -16.019
-26.49 114.334 -8.35677
9.32905 108.677 -12.4742
-20.3021 104.425 13.04
-25.3865 114.698 -9.48598
-8.11494 104.985 5.65463
-22.9332 114.917 -11.1646
-22.6225 114.926 -11.2422
-20.6958 114.814 -11.8224
11.4215 105.205 -4.4477
-27.8115 110.789 1.69756
10.8792 107.956 -10.7165
-3.41574 113.148 -16.1449
8.0991 109.555 -13.0848
-15.9548 103.85 13.1045
-28.0646 114.114 -5.66176
2.93587 102.022 8.34797
-28.1238 113.94 -5.13873
-23.5107 105.817 12.4628
3.74042 101.913 8.38026
-13.1543 104.119 11.6045
9.73855 101.651 6.32477
10.8788 106.386 -5.69132
-11.4536 104.534 10.0827
10.6673 108.989 -11.9396
1.8046 102.516 8.3937
-22.4735 105.719 12.8684
3.10406 112.118 -15.6606
-2.90665 113.472 -15.8656
-26.6521 112.521 -1.54016
-7.10148 105.797 5.20926
9.48484 109.631 -12.5116
12.1366 104.561 -1.42711
-5.11528 105.739 4.37842
-28.0681 114.479 -5.4551
2.81278 102.551 8.36504
11.0733 106.304 -4.9605
-12.7833 104.51 11.4708
12.836 103.402 1.61533
-27.0373 112.338 -0.191015
2.48695 102.741 8.47184
-20.9194 105.964 12.3859
-26.6187 108.448 9.23528
-14.4505 104.601 12.5574
-4.9767 106.027 4.32769
1.82286 103.262 7.79225
-6.81076 106.167 5.07726
11.9765 102.996 3.56252
-11.9377 114.153 -11.6238
-27.0917 112.423 0.261134
11.2826 106.649 -4.83211
-21.4303 116.148 -11.4988
10.8913 108.913 -10.0082
-26.7234 109.561 7.46991
4.85598 112.38 -15.1942
-24.7127 107.467 11.7743
12.9672 104.071 1.13057
-26.6872 109.704 7.40733
-1.13772 105.463 4.98049
-12.7671 114.619 -11.5431
-20.193 106.602 11.9714
-26.17 108.661 9.94875
12.7366 104.673 0.19055
-2.9266 106.133 4.75018
-20.4879 116.425 -11.6141
3.49302 113.24 -15.7409
-20.982 106.957 12.0674
-27.4631 112.059 2.85165
-12.8038 114.916 -11.4113
10.0997 103.191 5.78619
10.8498 109.728 -10.4194
-6.78494 107.039 5.15036
-9.60125 106.048 9.10071
5.91981 112.758 -15.002
-18.6484 106.76 12.1303
12.233 105.767 -0.971053
12.5907 105.213 0.232281
2.70297 104.296 7.56228
11.1949 103.936 4.19779
-25.6078 116.805 -8.79464
12.1567 106.233 -1.89739
1.85966 105.087 6.18578
11.9816 106.635 -2.67729
0.808513 105.705 5.32485
11.5625 108.819 -7.64602
-1.20279 106.405 4.76847
-21.8305 117.222 -11.146
-26.3714 110.753 7.29118
-24.4589 117.423 -9.86089
-19.3934 117.083 -11.5765
12.4031 105.785 0.202463
4.61338 113.811 -15.5139
-26.6102 114.071 -0.430889
-19.355 117.133 -11.5621
7.18173 112.89 -14.507
-6.83314 107.786 5.20841
10.8503 110.819 -11.004
7.66394 112.802 -14.2481
-10.8268 115.462 -11.4404
-26.3207 110.917 7.49725
-18.0427 116.992 -11.4969
12.4296 105.97 0.25367
-15.2834 106.902 12.0447
2.04361 105.908 5.77035
-27.8148 115.018 -1.43113
2.06201 105.933 5.78486
-17.7854 107.646 11.6946
-25.6906 109.702 10.6812
-4.02145 115.889 -15.3346
-26.3628 113.648 1.45573
3.04901 114.633 -15.693
9.45314 112.188 -12.8969
12.9426 105.324 2.22065
-28.3839 115.757 -2.52256
4.08408 104.949 7.63506
10.9937 110.966 -10.3357
4.72501 104.888 7.7884
-2.67144 115.838 -15.2543
4.70602 104.956 7.75023
13.0741 105.302 2.70036
-11.9015 115.999 -10.867
-23.0212 108.946 12.0185
-25.5551 109.991 10.7656
-26.3888 117.778 -7.87764
-26.1332 113.939 1.40989
-28.2288 117.059 -5.15712
-13.8352 107.124 11.9754
-15.1212 107.36 12.0632
12.1713 105.239 3.6233
-3.99936 116.276 -15.1447
-8.14371 107.79 7.75087
-19.3748 117.908 -11.3369
0.66394 107.148 4.93978
4.46051 114.79 -15.4287
7.32018 113.659 -14.055
-1.26355 107.87 4.51835
-8.06814 108.001 7.76801
-0.906843 115.728 -14.7518
-26.436 118.188 -7.81516
-14.6867 117.063 -10.9386
0.84871 107.413 4.9119
-8.66684 107.75 8.90842
10.6562 112.314 -11.778
4.09809 105.966 7.19373
-26.7774 115.174 0.2538
-16.6598 108.441 11.6787
-27.6411 115.793 -0.721032
-26.8548 118.392 -7.39329
-28.4068 117.628 -4.60548
11.2269 111.753 -10.1354
-0.172936 116.005 -14.7026
-28.5363 117.347 -3.70617
-3.32625 109.027 4.00188
-10.5434 107.881 10.4431
-16.185 108.506 11.8373
-28.5713 117.216 -3.24166
-17.8373 118.222 -11.0882
-21.9782 109.786 11.7249
-23.4884 119.022 -10.0051
-20.3525 109.651 11.4229
12.7049 109.261 -4.2185
11.1675 112.452 -11.223
1.36385 107.909 4.97049
-24.6072 119.179 -9.37401
-26.3242 112.34 8.36243
12.2959 110.884 -7.40947
-23.0557 110.361 11.6697
7.30203 105.506 8.31621
-14.9008 117.783 -10.5467
-7.25559 109.302 6.39334
10.097 113.321 -12.141
6.5885 114.572 -13.4272
-27.2635 118.801 -6.70535
12.8347 109.629 -4.33964
-26.4784 112.752 7.94581
-22.6671 110.489 11.5948
-1.55358 109.13 4.31793
-28.4064 117.311 -2.2004
-3.67077 109.765 3.8612
-26.3536 112.586 8.39918
-21.5957 110.361 11.4831
9.68156 113.721 -12.4783
13.0691 108.379 -1.01089
11.5125 111.801 -8.52836
-11.2634 108.627 10.7494
11.8993 106.583 4.12119
-3.30222 117.501 -14.8683
-7.26319 109.51 6.69887
-9.2452 117.38 -11.3976
-24.597 119.711 -9.37263
0.110084 116.887 -14.7952
1.23223 108.75 4.75087
11.5843 112.113 -8.57709
-1.16136 117.186 -14.4885
-26.3304 112.887 8.71483
-11.202 117.565 -10.1597
13.1655 107.387 2.56692
12.5805 107.119 3.60473
-7.13909 118.29 -13.6491
-11.6162 109.233 10.9391
-25.6347 120.09 -8.41787
-1.03867 109.917 4.21646
-5.40518 110.654 4.6427
-27.6807 119.027 -4.63781
-7.05837 110.156 6.71905
-28.1355 117.737 -1.15532
-26.4507 114.532 5.85673
-26.6685 119.526 -6.13822
-8.19147 118.294 -12.4006
5.26638 116.165 -13.9105
-9.33192 109.328 10.1869
-24.4462 111.91 11.5243
-5.0407 110.827 4.44425
-25.5284 120.349 -8.47988
-5.96358 118.648 -14.0477
13.4123 109.261 -0.763377
5.1018 116.414 -13.9944
-26.6198 114.288 7.19899
-7.88456 118.559 -12.6536
-26.7827 116.987 0.874395
-25.1117 112.667 10.6723
-3.81215 111.063 3.95622
-10.9826 118.289 -9.92368
12.9308 111.14 -4.3545
-14.6526 110.23 11.8299
-7.275 110.386 7.79919
0.304727 110.293 4.25545
8.42478 107.133 7.91064
11.8466 107.882 4.41953
-9.05774 118.435 -10.8717
13.4544 109.783 -0.812966
-25.0527 120.966 -8.79857
-11.433 110.059 11.0692
2.58008 109.69 4.9996
-2.64277 118.674 -14.341
-26.6457 117.364 0.955873
6.12322 116.342 -12.9521
11.1546 108.043 4.96214
4.40787 108.411 7.47786
5.75737 116.596 -13.236
4.21108 117.388 -14.357
-14.4377 110.568 11.8586
12.7113 111.379 -3.74219
12.3473 111.908 -4.80403
9.37334 115.645 -12.4565
-26.6778 120.058 -5.08275
-28.1166 118.798 -1.15251
9.68825 115.679 -12.3864
10.6351 115.488 -12.3527
-13.6009 119.507 -9.88078
-28.2354 119.865 -3.30124
-14.6658 110.935 11.9775
-15.1624 111.017 12.0457
10.3624 114.64 -9.49883
11.9502 112.419 -4.5697
12.1632 108.765 4.27244
-24.1334 113.331 11.3685
-16.433 120.663 -10.2187
7.08314 108.185 8.59899
10.9193 108.746 5.33158
-27.8876 119.249 -0.848299
-8.70366 110.894 9.98131
1.66377 118.805 -14.6031
10.3581 116.371 -12.9935
3.14408 118.566 -14.6551
-21.6953 121.565 -9.47939
-9.68197 110.919 10.6121
10.0191 115.207 -9.73066
9.93396 116.842 -13.2802
9.96547 114.505 -7.53139
-8.40441 119.71 -10.9293
-7.48314 111.43 8.92556
-2.65101 119.881 -14.1493
-26.7779 121.022 -4.72105
11.0228 109.176 5.2718
-5.91189 112.375 6.03572
-6.84511 111.809 7.89626
-25.3257 117.571 3.13772
2.14868 111.512 4.36686
-6.58914 120.303 -12.6487
6.84429 108.909 8.63162
9.96122 116.379 -11.2226
6.73557 108.94 8.64891
-19.0849 113.224 11.1914
5.94837 109.269 8.29209
-6.81291 112.05 8.07695
-25.152 115.021 10.0861
6.77378 109.052 8.63907
-28.1333 120.387 -1.39312
13.7063 110.722 1.26535
10.3518 114.361 -5.89401
-25.8271 116.889 6.13631
-25.8204 117.011 5.94442
-2.76928 120.463 -13.9919
8.37861 109.288 7.93661
11.2759 113.237 -3.09463
12.3068 110.033 4.27997
-27.6798 120.078 -0.182245
-0.848314 120.319 -14.2741
-16.9493 113.162 11.3686
12.4287 112.059 -0.692899
-16.5678 113.057 11.4717
-22.8714 114.425 11.448
9.49872 116.952 -10.9567
-22.8654 122.882 -9.18172
10.8191 113.976 -4.29522
-14.9557 121.381 -9.34629
-2.78893 113.558 3.72732
5.54484 118.771 -12.9455
-26.501 121.834 -4.19899
9.42164 118.048 -13.002
-12.1528 112.459 11.5571
-23.9915 115.084 11.098
-24.0109 115.092 11.09
-7.97106 112.343 9.75811
-4.81439 113.624 5.1325
-14.9546 121.579 -9.22464
-24.2083 122.649 -7.09968
-4.41921 121.368 -13.5331
-21.677 123.171 -9.19685
9.88411 115.179 -5.48421
-25.3461 116.18 9.87808
-25.4657 117.486 6.74651
4.70553 111.549 6.15536
-17.714 114.074 11.2628
-29.3564 122.161 -2.58032
-6.33562 121.407 -12.2118
10.5953 114.2 -3.07284
-4.0596 114.15 4.43834
9.46269 118.724 -13.5591
-26.6087 122.086 -3.5868
11.4907 113.204 -0.819009
3.54773 120.294 -13.8558
-25.2959 119.299 3.1691
9.36056 110.56 7.13252
-13.3887 121.823 -8.81124
-17.5123 123.016 -9.64026
8.21003 119.155 -12.9949
12.9013 112.442 1.14483
10.8575 114.527 -2.91448
5.3824 111.672 6.92274
-26.1584 119.842 2.79012
9.30021 117.795 -9.98469
1.16354 120.924 -13.528
-19.9331 123.534 -9.2924
-25.3319 118.563 5.61161
-29.9896 123.155 -3.26719
-6.19922 121.894 -12.0468
-22.8689 124.045 -8.6797
-11.9216 121.781 -8.63847
-28.5876 122.258 -1.27816
-13.6928 113.895 11.7611
10.1355 111.301 6.28178
9.58763 119.328 -13.0791
-1.62974 114.891 3.44249
-16.3924 123.086 -9.12595
-23.0868 124.142 -8.27927
3.61461 113.445 4.50211
-25.8774 120.038 3.34904
3.11839 113.71 4.25347
-25.2898 123.154 -4.53717
10.9801 115.903 -4.99108
13.3111 117.065 -8.9519
5.53622 112.164 7.11053
-14.7761 122.836 -8.61044
-27.4703 121.262 1.69746
-25.2431 123.185 -4.07033
-24.7221 123.117 -3.96653
-23.3247 123.825 -6.37908
5.05439 112.771 6.40904
5.00745 120.746 -13.0653
12.2167 114.784 -2.08572
-19.0887 115.79 11.2058
11.8308 115.394 -3.28598
-33.5492 124.647 -3.07456
-10.3479 122.171 -8.60402
3.36978 121.144 -12.991
13.3505 113.025 1.89226
-20.1966 116.038 11.4978
8.14723 111.613 8.14461
-27.162 121.338 2.1297
-7.24101 122.395 -10.3115
12.9044 117.639 -8.78945
-25.1842 118.068 9.34044
2.75034 121.373 -12.6249
-24.8868 119.424 6.08103
-23.4855 123.878 -5.48597
-24.9744 123.598 -4.03588
-5.60858 115.02 7.27633
-24.1613 123.79 -4.82381
10.3007 117.436 -6.47731
-21.8338 116.85 11.1366
1.81541 121.642 -12.4343
-22.8754 124.763 -7.61087
12.7351 112.699 4.05248
-29.3503 124.43 -3.4683
-24.9847 123.898 -4.24897
12.7688 113.86 1.40986
-3.64311 115.96 4.60758
-1.75568 116.047 3.51592
6.33658 112.507 8.18107
-2.04134 123.046 -13.3219
-21.3138 125.153 -8.75097
9.61118 120.696 -13.3786
-25.1608 123.972 -3.89742
12.2412 119.109 -10.8046
-2.5777 123.213 -13.2314
4.70882 121.553 -12.8261
0.826031 115.874 3.21991
-30.1805 124.363 -1.943
-23.0024 124.938 -6.81003
12.7014 114.941 -0.241014
3.81009 114.984 4.22
-22.2351 125.449 -8.20439
-17.162 124.772 -9.07491
4.09982 114.871 4.53136
-4.61045 116.134 5.82654
-33.2179 125.422 -2.49129
-23.2057 124.549 -5.31077
4.47969 121.828 -12.4617
-25.0682 120.65 5.32904
-31.8969 125.666 -3.48741
-27.6576 124.934 -3.80082
-23.0147 124.952 -6.1502
-8.16278 123.022 -8.85191
-15.8431 124.423 -8.37908
6.10997 113.29 7.84076
-12.0205 115.496 11.5928
-14.1384 124.089 -8.28189
9.44368 119.267 -8.23612
12.8724 113.818 3.41762
13.6559 117.764 -6.63114
12.0437 119.123 -9.1152
-15.6174 116.538 11.1619
-29.5828 124.678 -1.70113
-5.41077 115.997 7.39265
-15.1261 124.427 -8.30249
-25.1359 125.367 -5.56152
-13.0263 124.006 -8.30461
-28.8093 125.439 -3.84767
-27.9219 125.308 -3.94014
4.23323 115.197 4.64387
13.1472 114.228 2.55071
-19.95 125.728 -8.90458
-26.1089 121.507 4.55933
8.69956 113.037 7.80869
6.08707 121.714 -12.0932
2.25484 122.454 -11.9692
-24.8765 125.564 -5.8158
-25.862 124.958 -3.80518
-2.24199 123.868 -12.985
-8.41932 123.334 -8.39432
12.6987 119.824 -10.4204
-22.3296 125.339 -6.25704
5.79068 114.013 7.3434
-2.37712 117.132 3.82944
-25.623 125.288 -4.41565
1.1735 116.727 3.10645
12.707 115.457 0.450372
-11.1074 124.042 -8.51795
-26.4362 125.153 -3.49126
10.8158 113.613 6.04798
-26.7719 125.025 -2.88963
-35.5396 126.55 -2.14833
4.73782 115.137 5.57129
12.0412 118.142 -5.43859
-25.7602 124.877 -2.89573
5.73802 114.287 7.23458
0.48448 123.523 -12.6414
1.21026 116.958 3.07356
3.03548 116.399 3.62942
-20.4873 126.332 -8.78702
-27.7737 124.517 -0.626127
-24.8085 125.131 -3.56183
10.3621 120.767 -10.5635
10.194 113.907 6.57356
-12.6882 116.63 11.4301
-4.61907 124.292 -11.3897
-24.0559 125.36 -4.2234
-21.6569 118.676 10.9828
9.23854 120.66 -9.2944
4.86269 115.468 5.67017
-26.0376 125.353 -2.92462
-27.2847 125.556 -2.78607
-24.1786 125.052 -3.03461
-21.8474 126.049 -6.6284
12.2666 116.36 0.0420083
13.3382 119.181 -7.25291
-10.4745 116.585 11.206
-24.7507 125.776 -3.92577
-26.2343 126.338 -4.54182
13.6204 118.842 -6.19348
7.32274 114.307 8.10493
-23.1412 126.253 -5.8121
-33.8443 127.209 -2.76013
-27.9625 125.478 -1.39139
-24.4849 125.263 -2.58244
-24.9518 120.882 8.38849
-36.087 127.242 -1.55424
12.643 116.107 1.19729
3.55465 123.4 -12.0724
5.47192 115.329 6.72829
12.8134 115.277 3.17831
-28.1104 125.711 -1.62758
-21.822 126.629 -6.99652
-26.9146 123.604 3.02137
-26.9731 125.467 -1.46676
-31.3617 127.27 -3.65342
-25.5187 125.736 -2.79246
-19.9416 118.823 11.3563
-27.3604 125.837 -2.05183
-7.642 116.842 10.0578
-27.0107 126.096 -2.84851
13.8578 120.53 -9.69712
-6.59618 124.606 -9.33751
12.0037 116.955 0.0517822
-26.3111 126.231 -3.30956
-28.2469 127.171 -4.62096
-5.04636 117.375 7.70401
8.9484 121.491 -9.27809
7.57057 123.605 -13.7069
2.8124 117.66 3.30141
-26.099 125.88 -2.16426
-24.3431 125.964 -3.22909
-24.6732 126.732 -4.91596
0.346775 118.36 3.00193
12.9807 119.057 -5.05961
10.4979 122.176 -11.4468
-10.7246 117.267 11.2911
-4.09982 117.909 6.42185
-0.435544 124.84 -12.3428
-14.5701 126.023 -8.09302
0.990631 124.434 -11.989
-8.11104 117.208 10.3329
-3.9275 118.056 6.15674
-28.658 126.446 -1.94317
-15.3687 126.247 -8.12921
16.6848 117.785 -3.5309
-18.1667 127.089 -8.72831
-21.6546 126.963 -6.64282
-24.863 127.064 -5.25489
4.69305 116.879 4.84172
-5.43739 125.059 -10.0185
-21.3398 126.769 -6.15576
4.42377 117.277 4.22758
-18.551 119.172 11.2167
-32.1868 127.335 -1.88644
-21.2493 127.346 -7.38676
12.2698 115.488 4.78725
-38.7375 128.066 -0.278149
11.7234 120.059 -6.03988
-9.92797 117.528 11.1132
16.7102 121.013 -10.7992
-26.8928 127.114 -3.78066
12.0643 120.838 -8.01386
11.5659 121.158 -8.49536
-31.5485 127.377 -1.97988
-34.5264 127.371 -0.450661
13.0033 119.118 -4.13996
-28.2851 126.49 -1.38493
-9.52888 117.588 10.9847
-27.0039 126.583 -2.22878
-10.514 117.697 11.2602
-0.927562 125.374 -12.27
-24.2867 126.851 -4.09203
9.80176 123.125 -12.1057
-27.9075 126.396 -1.11921
-32.3733 128.334 -3.60218
10.9893 120.871 -7.11204
-22.8623 126.539 -3.87854
-24.7721 121.836 8.60735
-22.3331 126.66 -4.42604
-23.6674 126.45 -3.20259
-15.9517 127.012 -8.4468
12.8418 119.909 -5.50958
16.3133 121.507 -11.0958
-1.33054 119.205 3.5899
12.7543 120.317 -6.12385
14.9332 121.712 -10.6266
17.0224 118.279 -3.18187
-22.461 127.733 -6.39856
-15.4591 127.183 -8.57394
-26.21 126.408 -1.22808
-28.7859 127.328 -2.1691
16.2214 121.834 -11.2722
10.5971 121.464 -7.52709
10.5891 115.623 6.78584
-27.4433 126.461 -0.508792
-29.7552 128.421 -4.13581
-19.5944 120.15 11.0907
11.4724 120.748 -5.99853
-28.6916 126.542 0.0670858
4.38023 118.195 3.8837
-5.74926 118.162 9.10951
-3.22415 119.097 5.55035
-18.0945 127.938 -8.58738
-27.0793 128.189 -4.6521
-7.0059 125.585 -8.35197
14.5873 122.21 -10.9515
-27.4865 126.29 0.232466
-18.2863 128.05 -8.69238
-27.4575 126.03 0.880674
-37.1078 128.253 0.34678
-22.0336 120.966 10.6199
-19.4492 128.262 -8.50496
-20.7966 128.049 -7.29813
12.6525 120.619 -5.74323
8.86739 115.795 7.98745
10.6617 115.928 6.77073
16.698 118.656 -2.89708
-18.1632 120.095 11.13
-2.39689 119.59 4.4384
-38.9182 128.686 0.561533
11.3805 122.522 -9.64997
-27.8631 126.7 -0.0423964
-31.8141 128.045 -1.25812
-23.4179 127.958 -5.27045
11.3395 122.921 -10.4094
0.142367 125.766 -11.7367
-5.25241 118.585 8.56854
-6.13669 118.468 9.35237
12.7212 123.013 -11.2094
-28.6644 126.778 0.412939
-22.0141 121.298 10.5346
-31.1371 127.233 0.617189
11.5233 117.832 2.20367
-14.683 119.472 11.3787
10.9406 121.549 -6.56443
-7.01456 125.903 -8.18689
11.0936 121.445 -6.27639
-23.8533 127.288 -2.93159
-28.8515 127.612 -1.14905
-31.936 128.206 -1.01105
-35.5888 128.364 0.490648
-22.2061 127.531 -4.17702
10.3989 124.012 -11.9394
-28.8028 129.007 -4.42765
-30.5337 127.34 0.536493
-35.9547 128.656 0.0786355
-27.5141 126.508 1.10035
-25.1031 128.572 -5.12272
-27.4814 126.689 0.715688
-29.1304 127.62 -0.64041
-0.389628 120.146 3.20148
11.858 116.8 5.28758
11.957 120.853 -4.65677
15.3095 119.043 -1.86323
5.85768 117.44 6.82292
-23.6312 122.242 9.98833
11.3737 121.435 -5.57043
13.7954 118.986 -0.73503
-5.65113 126.489 -9.23454
2.69244 119.815 2.91317
12.5451 118.819 0.400263
11.9892 121.534 -5.85195
8.63643 116.591 7.99138
10.0788 124.033 -10.9328
-3.93232 126.745 -10.4471
-24.4102 128.844 -5.2816
13.9376 119.854 -2.50911
-5.164 126.638 -9.4964
11.6431 121.39 -5.00329
16.3086 121.849 -8.46633
10.2007 124.717 -12.1841
-4.02898 119.674 7.36844
-29.1568 127.337 1.29756
11.7407 121.7 -5.38746
-34.0251 129.347 -1.03873
-23.9067 128.691 -4.50418
-13.7946 120.148 11.3415
5.001 126.167 -12.857
-4.92224 119.551 8.35446
-26.325 126.531 2.04833
10.0891 124.713 -11.8195
-23.0393 128.889 -5.26575
-1.15172 120.793 3.56679
11.8261 121.274 -4.1254
-0.383884 126.805 -11.4828
-29.4513 128.12 -0.00556491
11.6167 121.897 -5.40861
1.69989 126.153 -10.8139
16.8758 119.481 -2.09625
9.88476 117.081 7.34676
-33.9443 129.955 -2.10278
-21.1977 122.259 10.3513
13.9968 119.642 -0.90458
-13.7471 120.353 11.3342
9.95201 124.808 -11.4953
-5.41493 119.63 9.06319
11.1775 123.492 -8.67181
-24.0481 123.48 9.09166
-28.1178 127.606 1.14852
9.84672 124.01 -9.11575
-24.059 129.223 -4.77978
18.564 121.752 -7.87447
-1.74737 120.991 4.23401
11.0647 123.727 -8.87026
-35.7814 129.579 0.388486
16.8701 121.806 -7.0346
-15.1696 129.313 -9.21906
12.5434 121.235 -3.37519
-11.2591 120.311 10.8875
-18.0204 129.593 -8.35493
-30.933 130.545 -4.05941
-36.3516 129.749 0.655281
-35.1556 129.936 -0.396974
-22.9963 128.883 -3.91814
11.2674 118.748 3.6845
11.0112 122.574 -5.50996
20.0477 122.045 -8.75478
-3.03414 127.573 -10.65
-21.1256 122.734 10.3119
13.0639 124.303 -10.7351
-27.4705 130.269 -4.91108
10.0219 124.2 -8.90936
-15.332 121.172 11.3687
-25.3741 130.259 -5.77102
-38.2031 129.714 2.11245
14.9059 124.026 -10.6695
-33.0032 131.016 -3.55881
-19.7597 129.826 -7.30521
-7.36202 127.355 -7.43563
10.5837 123.906 -7.91924
-22.4761 129.233 -4.30493
-25.4977 126.518 3.92085
12.6862 119.827 1.11728
-5.20533 120.295 8.9816
-17.48 129.864 -8.20938
5.74121 127.02 -12.8958
10.4674 124.192 -8.32999
-10.1886 128.066 -7.42221
-36.0419 130.437 -0.210554
-13.9149 129.332 -8.60129
-34.5452 130.613 -1.31718
-30.0129 128.767 0.934331
0.276189 121.661 3.16493
11.4189 118.271 5.98453
-35.5964 130.714 -0.720986
10.8764 124.472 -8.72832
0.849353 127.298 -10.5979
11.2739 119.177 4.07871
0.0460789 121.832 3.26116
13.9833 120.791 -1.17373
16.1637 123.891 -9.86113
5.61544 119.659 5.83718
-32.5271 129.426 1.11727
-26.6428 128.198 1.22273
-34.9022 130.957 -1.34679
11.729 124.523 -9.01399
-14.8348 121.722 11.2963
-12.1956 129.111 -8.11313
-35.7443 130.991 -0.834193
-4.76159 120.799 8.58789
-1.94941 121.818 4.70961
-22.8064 129.582 -3.802
9.27497 125.402 -9.64375
-23.7132 124.881 8.23682
14.57 124.604 -10.3495
-27.4261 128.496 1.27445
-16.3608 130.583 -9.39611
10.0556 123.814 -6.02154
2.38597 121.865 2.69248
-1.64563 121.994 4.40907
12.4242 119.866 2.58682
-17.7173 130.608 -8.52465
-15.3282 122.025 11.3272
-1.01943 128.153 -10.8441
-35.6449 131.304 -1.13267
-32.0765 131.755 -4.03078
-16.5357 122.379 11.1256
-21.1667 130.178 -5.61532
15.3377 124.512 -10.0864
5.4006 120.559 4.64774
2.32334 127.316 -10.3185
-30.4326 131.714 -4.59496
10.8902 124.546 -7.82021
9.99897 123.659 -5.17825
14.5892 124.782 -10.202
-35.4121 129.911 2.40388
12.2094 125.324 -10.2939
5.11615 121.018 3.89057
-13.8483 129.971 -8.46402
17.3537 120.555 -1.099
-10.0997 121.5 10.4023
-29.7643 129.643 0.470966
11.3866 119.76 4.10062
-2.27806 122.048 5.37655
9.64161 125.921 -10.0833
13.2551 120.588 1.22647
-26.6086 128.828 1.16945
-5.03747 128.319 -8.33814
13.4789 125.294 -10.244
-16.8054 131.313 -9.72489
-16.966 122.945 10.8488
-15.7146 131.14 -9.82594
-22.9786 124.978 8.92429
-29.9036 129.47 1.42967
20.2623 119.993 -0.60204
-21.1879 130.445 -5.29229
11.6002 120.044 3.82698
-6.18987 121.385 9.50558
11.0515 125.905 -10.2032
-5.81161 128.365 -7.71029
-25.7712 127.927 3.61989
-12.0849 122.41 10.2697
8.40874 127.76 -13.1431
-14.8505 122.669 11.0641
12.5404 122.875 -3.17782
-21.0756 130.635 -5.25367
7.54035 119.499 7.70278
-5.41519 121.58 9.14648
-28.5583 129.208 2.13025
13.9457 121.689 -0.811653
9.24487 127.668 -13.0642
2.24871 122.701 2.63829
21.8504 122.905 -7.58716
-1.0237 128.845 -10.5986
4.44805 122.187 2.98372
-5.81758 128.634 -7.60826
4.76155 122 3.33056
-14.4258 122.932 10.881
-21.3313 130.322 -3.66286
-34.971 132.367 -1.77466
2.4043 128.178 -10.2855
10.2957 126.66 -10.4433
6.25873 120.464 6.78437
-9.45621 122.382 10.0597
4.24155 128.607 -11.9695
7.91762 119.821 7.81508
8.9416 124.754 -4.68224
16.5628 121.373 -0.2154
-4.48602 122.202 8.41221
-10.0352 129.769 -7.29444
2.90143 123.128 2.56288
-2.23613 122.836 5.89688
10.3575 126.21 -8.69485
-22.4577 131.574 -5.31291
10.5565 119.86 6.78563
-6.30249 129.063 -7.20532
-23.225 126.251 8.21557
8.59122 128.38 -13.0062
-10.4506 123.002 9.77736
-25.872 129.203 2.364
13.6209 122.317 -0.641992
-7.00167 122.261 9.87568
4.24089 122.922 2.67188
-8.36218 122.485 10.1077
11.0505 125.792 -7.74935
12.1925 126.283 -9.48742
-13.2332 123.408 10.3601
-8.12361 122.449 10.162
-5.47799 122.307 9.17865
9.01972 124.798 -4.11438
4.80464 128.987 -12.22
12.7503 124.581 -5.40562
-18.334 131.837 -7.50204
-32.5133 132.948 -3.07606
-32.3099 132.957 -3.18614
12.5749 126.272 -9.37769
-28.4955 129.679 2.97333
-5.91043 122.45 9.38015
-23.8229 131.803 -4.48311
9.40886 124.238 -2.67709
18.159 124.228 -7.03901
6.38857 129.014 -12.714
11.5072 120.795 4.86988
-4.92183 122.563 8.85287
-29.944 130.369 2.37102
-28.6315 129.767 3.22713
10.8071 127.491 -11.0422
10.9697 123.598 -1.58959
12.7692 124.791 -5.4054
6.23342 129.129 -12.6577
-10.8559 130.569 -7.54685
24.0632 121.715 -3.35227
-4.24673 122.784 8.28632
-29.1306 130.682 1.46988
-1.2623 123.624 4.74176
-16.9561 132.283 -8.54488
-13.1862 131.459 -8.42368
17.1556 121.823 -0.0476959
-23.5859 132.618 -5.95138
-7.18576 129.558 -6.62519
-22.9617 132.572 -6.05728
-22.3022 126.086 9.50734
-16.8531 132.658 -9.3124
-29.6306 130.564 2.25728
-22.1182 131.269 -3.16689
-24.1004 127.579 6.94207
11.532 126.867 -9.24672
22.3645 121.127 -0.61616
14.2236 122.564 -0.0166515
-0.407666 124.144 3.56955
15.3929 126.002 -8.86907
10.6127 123.726 -0.872912
1.62708 124.152 2.62136
6.16248 122.122 5.31169
-22.1409 131.436 -3.24486
-5.85463 129.706 -7.19476
8.77823 125.633 -4.5646
-24.8828 133.227 -6.13079
10.6986 124.065 -1.55796
13.7169 123.092 -0.670614
-19.7239 125.642 10.0332
5.45619 129.618 -12.333
18.5665 124.626 -6.68935
2.36813 124.215 2.48087
-5.34166 123.123 9.08138
-10.653 124.056 9.50739
-26.8727 133.559 -5.5392
22.5246 121.479 -0.769966
21.0296 122.075 -1.45792
0.775196 124.439 2.97974
6.19985 122.645 4.65762
-24.187 128.072 6.66125
13.5757 122.293 1.82143
-1.44291 123.988 5.33488
-21.1329 132.176 -4.80166
10.0515 124.121 -0.747486
-24.18 128.187 6.62096
10.6661 127.611 -9.4354
-23.5198 127.613 7.78112
5.66023 123.311 3.65912
17.9269 124.824 -6.14771
-34.4273 131.885 3.11478
9.55716 129.377 -12.8173
11.0281 124.869 -2.47863
13.4816 123.457 -0.220635
10.776 127.815 -9.4947
2.74492 129.782 -10.2585
15.6952 126.167 -7.90332
21.2082 122.432 -1.51146
-21.4414 131.919 -3.24366
-33.2618 131.695 3.25823
-30.0266 130.888 3.6416
-21.1842 132.38 -4.45526
12.6993 124.139 -1.22687
-21.1697 132.422 -4.43463
9.15796 125.449 -2.61808
-17.1534 125.763 9.85954
-9.062 124.225 9.55632
-35.4631 133.67 -0.185907
10.8978 126.762 -6.57598
24.1317 122.717 -3.29399
15.2332 126.624 -8.31905
-30.9353 131.324 3.52931
-2.03536 124.169 6.53641
-26.9813 130.427 3.84245
-20.6368 132.762 -4.99299
-3.41916 124.034 7.72791
-1.17039 124.585 5.28213
10.4079 129.356 -12.1623
24.1465 122.93 -3.33147
21.5496 122.697 -1.44544
-10.9265 124.983 9.32872
-31.7172 134.11 -2.52057
-36.0365 133.225 1.93521
-26.9591 130.502 4.10533
12.7537 124.679 -1.57201
5.71027 124.117 3.35421
-22.3291 128.144 7.62471
-28.3736 131.495 2.51013
-22.2805 128.333 7.20196
-21.9207 127.614 8.81803
-7.63949 130.988 -6.54698
18.4807 125.337 -5.84299
-9.17245 124.868 9.28622
-20.6755 133.087 -4.96235
-26.1307 130.739 3.54089
-17.0003 126.339 9.75693
-25.6834 130.89 3.03737
11.1549 127.403 -6.82591
10.0671 128.432 -8.77945
-16.6806 133.419 -7.49405
10.7032 128.159 -8.38442
-31.5977 134.381 -2.31401
-21.505 128.372 7.38737
-25.7395 130.942 3.23634
6.88795 122.781 6.83791
22.9512 124.129 -4.50412
-35.392 134.261 0.13562
-20.9973 133.059 -4.13371
11.5498 127.375 -6.58829
-35.3862 133.962 0.951326
-19.2506 133.732 -6.59599
-31.1097 131.963 3.74186
3.34767 125.488 2.27603
-15.2835 126.166 10.0265
22.4613 124.893 -5.80458
-7.70965 124.77 9.68436
-13.1376 133.587 -9.1403
20.1399 125.666 -6.45492
-18.1899 126.917 9.8054
-24.5144 130.929 3.25776
19.2269 125.746 -6.05177
10.1091 125.702 -1.3256
10.1456 128.701 -8.65608
-27.56 131.432 3.6594
14.186 124.242 0.309095
-0.240058 131.128 -9.24392
9.75859 128.6 -8.07644
-20.8445 133.204 -3.90073
11.0354 125.769 -1.71861
-30.8187 134.62 -2.30212
5.40615 125.122 2.75488
-25.3716 131.097 3.64455
-28.2641 131.768 3.50405
8.41358 127.596 -4.58314
-12.1788 133.458 -8.48341
-25.2776 131.205 3.63861
-30.7553 134.726 -2.21539
-23.0059 134.381 -5.26416
11.4879 125.879 -1.79913
-6.32935 125.012 9.32086
3.80851 125.836 2.27777
17.067 126.171 -5.17293
21.0464 124.009 -1.78322
8.39551 127.735 -4.53958
9.73799 127.617 -4.89861
10.4585 127.632 -5.28276
-28.116 134.82 -3.46647
-20.5232 133.715 -4.5676
14.9572 127.497 -7.14358
-27.6928 132.019 3.34193
-22.0805 130.487 4.30394
6.68193 124.562 4.37807
13.8277 124.376 1.29494
-15.4389 134.537 -8.79185
3.45359 126.189 2.18472
10.8642 126.687 -2.72402
19.1981 123.327 1.3597
-28.4856 132.036 4.05522
11.1797 128.38 -6.94736
-20.9275 129.975 5.30745
-13.7211 126.533 10.1679
8.33897 128.338 -5.34509
22.3844 125.669 -5.85459
-8.54705 132.355 -6.64646
-14.6132 134.684 -9.27963
0.572267 131.572 -9.21052
10.5056 128.224 -5.99813
-29.3811 135.121 -2.71302
-15.4425 134.711 -8.54957
-14.4534 134.802 -9.25097
-7.22402 125.71 9.42361
-32.4159 135.193 -1.06947
13.8636 128.03 -6.81003
1.654 131.606 -9.35834
-19.0446 134.486 -5.93018
2.61474 131.714 -10.0289
3.59412 126.532 2.17831
6.4903 125.301 3.75671
-6.63595 132.083 -6.24522
-12.4392 126.766 9.71327
-24.0087 131.79 3.3328
-15.0179 127.272 9.94218
-21.1028 130.909 4.2097
9.72365 124.253 5.02702
10.71 129.583 -8.38056
-26.2784 135.454 -3.93731
9.04206 129.161 -6.19556
-15.0912 127.532 9.94153
10.7893 126.897 -1.50549
4.70368 132.134 -11.2197
15.0119 124.685 1.83808
9.62606 129.104 -6.27038
-3.97456 132.366 -7.38114
-18.7222 128.475 9.58535
-28.1151 135.69 -3.17818
4.01169 132.326 -11.0839
-23.9373 135.476 -4.71465
-20.3644 130.442 5.84589
-10.5115 127.263 8.67603
-18.0603 128.423 9.66059
-21.5349 135.255 -5.28583
14.2499 126.008 -0.639192
-9.33848 127.118 8.51512
-33.9479 135.707 -0.118504
-11.5239 127.336 9.2222
-2.07783 126.318 7.03703
-32.1052 135.809 -0.974443
15.8678 124.692 2.12604
7.30531 124.44 7.10298
13.8884 126.428 -1.04807
-29.5358 135.984 -2.42019
-33.0533 134.528 2.92335
11.9121 130.098 -8.83605
7.40016 132.261 -11.7964
-33.9519 134.929 2.48068
21.5058 125.153 -1.46429
-27.4593 132.734 4.62084
9.28623 132.019 -12.1134
-21.5415 135.65 -5.41882
19.9223 124.134 1.91938
-23.9824 132.199 4.28308
10.3941 128.235 -3.2656
-20.2098 130.687 6.1689
-25.7535 136.026 -4.05236
-24.1515 132.108 4.75875
-17.1934 128.628 9.78649
-5.30303 126.604 8.76978
10.6392 128.059 -2.79567
-8.58236 127.329 8.69324
14.7763 125.824 0.811362
18.3682 124.389 2.53613
9.54715 129.699 -5.99192
-19.8674 131.095 5.48606
0.832718 127.564 3.72359
11.0572 131.273 -10.5022
23.1088 126.104 -3.90236
9.54735 130.032 -6.58369
8.86309 125.15 5.91857
14.1185 126.751 -0.538274
11.0582 131.59 -10.7817
9.56416 125.497 4.94999
-33.7624 135.764 1.62573
-19.9243 135.346 -4.26834
11.019 131.858 -11.2842
-1.54056 133.119 -7.94876
12.785 129.173 -5.47175
9.50859 125.569 5.01089
10.6999 130.904 -8.6307
-27.2456 133.06 5.26618
-7.40436 133.678 -6.22979
3.04691 133.213 -10.2858
-28.1344 136.615 -2.81524
-13.271 136.23 -9.32005
10.1024 128.319 -1.57393
-4.55296 133.243 -6.19662
21.3102 127.526 -5.15535
-9.0831 128.28 8.29849
10.9508 132.369 -11.7796
11.4501 130.862 -8.31486
22.9998 126.877 -4.3402
-33.1619 135.716 2.33204
10.394 126.042 4.18942
-6.00279 127.568 8.74942
-31.1305 136.946 -1.49582
1.78677 128.457 2.73942
-23.5197 136.783 -4.91371
-7.02573 127.766 8.86729
21.7052 127.648 -5.30076
1.54896 128.399 3.03429
19.7276 125.913 0.053319
-2.03042 133.458 -7.40673
-27.312 133.612 4.98397
-10.5643 135.576 -8.06819
13.3235 130.816 -8.38902
-25.831 137.043 -3.89672
12.7182 126.457 2.63606
3.35963 128.631 2.15076
19.6438 126.06 0.288265
3.83822 133.762 -10.602
8.56697 133.109 -11.2863
12.6408 129.83 -5.27694
22.3685 126.695 -2.48439
-17.2315 130.166 8.98153
-23.8511 133.347 4.55549
-18.4237 131.054 7.48351
7.12909 126.471 5.8761
9.82611 130.488 -5.28163
-27.763 137.154 -2.6648
20.8072 127.793 -4.139
-14.8268 136.497 -7.49673
-6.90558 128.252 8.8066
-1.11063 128.041 6.41626
-31.6709 137.447 -1.21693
12.0334 129.729 -4.29625
-14.5219 129.713 9.22743
19.4984 128.285 -4.24786
-28.1772 134.802 3.8159
12.7214 130.412 -5.98433
-7.1467 134.585 -6.18265
-28.8158 135.422 2.68494
-4.05263 128.091 8.21178
-30.2806 136.115 1.76501
-17.2017 136.447 -5.55246
-19.6873 136.487 -4.35992
21.1314 128.035 -4.20371
-19.287 132.063 6.52382
10.9682 130.422 -4.68169
-5.31903 128.41 8.55165
19.2854 126.145 1.74044
9.35546 133.463 -11.1531
-19.091 131.713 7.48921
12.3938 131.837 -8.63971
12.0208 131.7 -8.09888
-18.7294 136.571 -4.49514
-21.1114 133.623 3.93071
-2.09292 128.434 7.1927
-15.1432 130.563 8.55835
-22.0412 133.82 4.09626
-23.3861 137.952 -5.33739
12.1992 130.255 -4.39683
-24.9966 138.013 -4.65863
13.26 131.314 -7.42354
-6.81665 128.82 8.79244
-28.2381 137.727 -2.1887
-11.4589 137.026 -8.80278
14.9084 127.616 0.99897
-21.1221 137.36 -4.70754
-26.2329 138.134 -4.01209
-18.4779 131.958 7.32176
21.9694 127.462 -2.01122
14.4015 131.539 -8.05177
15.5272 127.244 1.91312
21.8104 128.603 -4.55492
-15.4008 131.119 8.13807
-3.8123 134.485 -5.80802
-15.0623 131.052 8.38622
-16.5703 131.75 7.48211
-15.6989 131.445 7.83206
-21.2614 137.629 -4.49812
-8.70382 136.163 -7.21313
-15.9972 131.628 7.63005
-4.14904 134.661 -5.67256
23.9485 127.975 -3.41177
-1.86435 129.021 7.0752
7.08974 127.925 5.35249
-1.08707 129.154 6.54039
11.3718 131.868 -6.27787
-26.9975 138.351 -2.77464
-15.0247 131.4 8.25078
11.2759 133.615 -10.4093
12.3717 131.826 -6.54597
-8.13439 130.112 8.07528
-25.5463 134.982 4.94384
13.166 131.923 -7.04285
-19.6731 137.431 -3.93684
11.5725 132.419 -7.37306
-9.21062 130.555 7.71146
12.9392 128.88 0.685351
14.5565 132.195 -8.16192
-20.9056 137.874 -4.21332
8.35018 127.565 6.31593
10.7091 132.354 -6.5886
12.1884 128.543 2.24278
-7.78801 130.248 8.15101
-13.5804 138.122 -8.16369
-7.48836 136.242 -6.62399
22.1731 129.289 -4.41392
21.3523 128.078 -0.992416
-13.5942 131.184 8.99397
-13.1886 131.296 8.55027
10.042 134.547 -11.0347
-31.3414 138.846 -0.69671
9.96153 127.906 5.32232
11.4601 132.704 -7.13434
-5.59759 129.794 8.58601
23.3404 128.8 -3.51142
13.3136 129.107 0.924063
-9.04548 137.259 -7.70545
1.51981 130.583 3.45035
14.252 132.46 -7.55034
-2.20493 135.274 -6.13451
10.8584 132.556 -6.0259
12.5743 132.424 -6.54193
-18.2349 138.043 -4.69394
-29.953 138.033 1.26105
0.902434 130.579 4.05985
19.4714 129.766 -3.24511
-31.1619 138.353 1.21054
0.588021 130.46 4.58684
13.1964 133.025 -8.03613
-18.4844 138.133 -4.5967
-31.569 138.466 1.18927
-5.33897 135.816 -5.49131
-17.244 138.17 -5.25357
-6.39615 136.229 -5.91162
-11.5326 131.925 7.36142
-12.2276 138.565 -8.45724
8.66675 128.369 6.2169
-19.1642 134.529 5.18271
-25.1222 136.043 4.48045
-15.1546 132.777 7.56778
-18.4231 138.484 -4.62698
3.35207 131.339 1.9541
4.55055 131.103 1.94381
-19.1105 138.338 -3.81487
12.4748 134.289 -9.73607
-11.8193 138.793 -8.46648
14.7396 132.972 -7.53696
9.70089 135.42 -10.8664
-10.2015 138.588 -8.53647
12.3778 133.096 -6.44959
-18.1656 138.743 -4.83377
7.20074 135.678 -10.0763
20.6752 130.065 -3.09273
11.0573 129.357 3.57263
-27.7833 139.491 -1.68623
-24.4372 136.503 4.17994
-12.729 139.003 -7.82264
-27.187 137.792 2.4249
-8.58217 131.85 7.71564
10.2586 135.6 -10.9086
3.97703 131.705 1.84379
19.5518 128.375 2.16618
19.38 130.742 -3.5299
-19.5412 138.69 -3.31979
-9.34245 138.464 -7.85557
18.0743 128.781 2.33885
-20.4428 139.07 -3.39219
-25.9873 140.1 -3.06444
12.4373 134.986 -9.76061
-17.4445 134.471 6.57081
9.8393 129.657 4.64341
21.6066 129.607 -1.10788
3.50703 132.077 1.99734
-24.0635 137.023 3.83713
-6.87912 137.795 -6.63866
-24.7626 140.155 -3.39826
13.2437 130.194 1.91567
8.25352 129.587 5.92429
5.30918 136.607 -9.76425
-17.3877 139.456 -5.29134
-11.4907 133.248 6.97348
22.0768 130.571 -3.33186
-0.0572107 131.296 6.03735
20.2166 129.291 0.748694
21.7045 129.788 -1.18211
12.4284 133.725 -6.11784
-26.6012 138.199 2.58181
16.8802 129.253 2.61219
7.9127 129.795 5.8421
-1.77503 136.605 -5.91869
3.0002 132.262 2.31445
13.2391 134.513 -8.28357
-25.6872 137.782 3.36445
0.462269 136.528 -6.72083
19.4692 131.339 -3.51288
-14.849 139.863 -6.96627
-27.6545 138.691 2.38893
19.4552 131.51 -3.62896
7.53337 136.594 -9.96384
1.06437 132.001 4.5801
9.42361 129.95 5.41955
-18.6915 135.787 5.32253
-18.0003 139.682 -4.47008
12.6366 134.016 -6.00777
-1.26202 136.882 -5.98336
11.726 130.4 3.3569
-30.1047 139.914 1.19464
2.34929 132.618 2.74259
-22.8815 137.242 4.20292
-15.0885 134.524 6.96337
10.5883 130.47 4.0167
-24.205 140.58 -3.11915
2.9622 137.483 -9.08951
18.3002 132.618 -4.81505
-17.7378 139.56 -3.57706
19.4634 131.81 -3.28909
12.4178 134.361 -5.96728
-8.93341 133.238 7.53223
-15.1784 134.894 6.80658
-27.5998 141.125 -2.08682
-10.414 140.121 -8.19937
22.9595 130.878 -2.35123
0.643687 132.29 5.43268
12.845 135.675 -8.93828
-11.7428 134.544 6.22145
13.3555 134.066 -5.20286
-3.06695 137.51 -5.32685
-17.2842 136.044 5.57995
1.71676 132.947 3.60857
-7.49785 133.232 7.69782
-23.1098 140.886 -3.17948
11.0984 136.951 -10.7209
18.4814 133.039 -4.81555
9.4199 137.242 -10.5065
16.3901 130.484 2.65554
0.806127 137.68 -7.00205
15.7836 130.623 2.75647
-13.8268 140.704 -6.98805
12.9189 135.943 -8.72108
-17.8366 140.099 -3.40788
-16.7206 136.232 5.50742
-25.3358 139.092 2.87241
13.0248 135.871 -8.50725
-16.5646 140.827 -5.71181
-22.6643 137.9 4.53946
15.0778 134.728 -6.59886
12.665 136.304 -9.19348
-15.6648 140.998 -6.27884
-0.352125 132.786 6.30359
7.66261 131.599 5.27314
19.497 132.977 -3.97135
18.8444 133.387 -4.6451
13.5781 131.629 2.42782
22.3141 131.263 -0.93136
-22.3464 138.196 4.71062
10.8999 131.612 4.17332
-14.7918 136.2 5.91953
-9.33461 134.881 6.42398
-3.26864 138.356 -5.11917
-23.4025 141.49 -2.60172
19.6882 132.748 -2.73622
-22.5493 141.476 -2.85247
-14.0197 141.338 -6.75819
1.26807 133.773 4.10612
-19.8023 141.174 -3.41087
2.56163 138.559 -8.26098
12.1443 136.832 -8.8125
0.524171 138.344 -6.59412
-4.34572 138.846 -5.25102
22.8452 131.847 -1.75934
-3.6354 138.618 -4.96381
13.5639 136.048 -7.30218
-14.9838 141.483 -6.17277
18.7534 130.916 2.85763
18.2681 131.016 2.87809
-14.806 137.015 4.93595
-18.5808 137.802 5.04731
-22.9077 141.816 -2.60538
-17.4705 141.517 -4.53951
-29.9739 141.63 1.57874
-17.3306 141.576 -4.64376
22.9788 131.927 -1.27796
12.0117 137.02 -8.17183
-4.9287 139.454 -5.60221
-9.9486 141.347 -7.71096
22.3815 132.217 -1.58695
7.71441 132.27 5.7347
3.81418 139.02 -8.82052
-24.5171 142.238 -2.41385
-3.81363 139.021 -4.94295
7.98576 132.214 5.79935
-18.3272 141.179 -2.91297
8.60271 132.293 5.38378
-1.50454 138.817 -5.3526
-1.03892 138.805 -5.52597
-23.7915 139.572 4.10199
-13.8705 137.304 4.79431
3.62388 134.477 2.94991
11.9463 137.169 -7.80776
17.9091 131.54 2.99618
17.0116 131.768 2.89318
-20.7476 142.128 -3.36609
7.70191 133.04 4.57332
7.73452 132.718 5.37793
17.0363 131.818 2.90119
-11.4565 136.536 5.76666
19.7188 133.843 -3.31111
-5.41081 134.857 6.86519
14.3657 135.787 -5.31106
7.68356 133.373 4.00913
13.5566 136.41 -6.37573
-21.5895 142.306 -3.04907
-18.4134 138.458 4.86138
13.2978 132.713 3.07349
-17.9622 141.578 -2.89369
20.3376 133.194 -1.60746
-13.5852 142.273 -6.43466
-24.8349 142.827 -2.06072
-26.4111 142.795 -1.15275
3.06069 139.555 -7.98761
2.17772 139.549 -7.36812
-16.2208 142.501 -5.32826
-28.2247 141.7 2.68376
-22.5728 139.653 4.89005
-18.5855 141.991 -2.77113
21.4643 132.215 1.01697
-14.6998 138.22 4.51816
12.8245 136.144 -4.14687
-4.92689 135.504 6.57763
-29.1291 142.919 0.624269
-10.7757 137.231 5.45632
17.7192 132.344 3.08959
-27.674 143.274 -0.766988
12.295 137.702 -7.18005
-2.381 134.897 7.12625
10.1648 139.395 -10.089
-24.777 140.991 3.63437
7.36643 135.224 1.82418
-2.08441 140.016 -4.97952
-16.0412 138.886 4.89656
-22.6172 143.261 -2.50592
-27.3379 142.049 2.84076
-8.77559 137.283 5.24589
19.1029 132.455 3.17579
-26.8234 141.977 2.99476
-11.3062 138.101 4.83034
-21.2401 140.066 5.06515
-10.678 142.995 -7.37789
-0.528856 135.395 6.13326
-18.7366 139.615 4.98216
-1.03021 140.167 -5.21079
0.401793 135.663 5.20559
-21.8533 140.435 4.78179
-15.2943 139.241 4.56538
1.45393 136.005 4.07878
-26.4226 143.858 -1.02065
-16.5742 139.356 5.07349
-9.95647 138.032 4.99642
-22.3431 140.784 4.57957
-21.9665 140.665 4.68821
12.7688 137.237 -4.32633
22.1847 133.195 1.01869
2.51104 136.279 3.37945
17.7923 133.241 3.1733
-28.1808 143.934 0.166588
-9.20767 138.092 4.93267
8.02354 134.811 4.31829
8.20512 134.698 4.68654
3.1909 140.72 -7.46583
3.73116 136.629 2.28016
12.9245 137.52 -4.4945
-15.9772 143.636 -4.89078
13.0578 137.645 -4.75495
18.0957 136.558 -4.49295
11.3052 139.542 -8.14069
-28.5628 143.839 1.41983
-21.6707 144.105 -2.63383
-27.281 144.363 -0.415576
19.087 136.361 -4.13481
-14.2045 143.714 -5.34522
-0.741192 136.076 6.63555
11.003 134.504 4.70603
-27.0739 142.956 3.29856
16.4533 134.166 3.05129
10.8228 140.261 -8.91336
-14.8244 140.161 4.41226
-11.557 143.917 -6.41318
-4.60045 142.12 -5.41764
8.90712 134.861 5.58149
-12.0553 144.034 -6.00105
-2.66075 137.352 5.67768
-15.447 144.291 -4.82353
20.2256 135.884 -2.15445
-27.9017 144.469 1.24828
-9.91399 139.709 3.87977
21.9883 134.662 0.204279
7.59119 137.041 1.64432
-2.86047 137.623 5.48449
18.4551 137.119 -3.97544
-8.34097 139.369 4.09191
2.72248 137.565 3.12626
12.7851 138.516 -4.25956
-16.2286 144.455 -4.12634
10.5563 141.018 -9.01265
9.7416 141.204 -9.00546
15.0907 135.2 3.03551
-0.0151689 136.998 6.2537
18.7178 134.411 3.32913
-16.096 141.27 4.05322
5.06583 141.946 -8.10195
-2.60388 138.176 5.07962
12.6445 139.135 -4.93486
-10.1399 140.39 3.65492
-15.1105 144.883 -4.79401
11.0457 141.117 -8.61208
-19.149 141.528 5.60038
10.2198 135.713 5.27055
-15.5621 141.636 3.91059
15.3374 135.627 3.09704
-26.1549 145.593 -0.407656
-11.3346 140.696 4.13442
-11.8497 140.746 4.32354
-9.18564 140.634 3.3762
6.92015 142.258 -8.62353
18.0268 137.988 -3.63708
-10.486 145.102 -6.62668
-14.2344 145.207 -4.99603
15.5488 138.817 -3.96672
0.516383 142.519 -5.4339
-14.4788 145.327 -4.7339
6.68582 138.405 1.56915
12.4789 139.391 -3.46221
-9.73492 141.072 3.64066
10.3956 141.887 -8.46713
-3.36994 143.28 -4.8296
-7.02802 144.765 -6.6256
17.52 138.535 -3.68437
18.575 135.457 3.34179
-0.686038 142.856 -5.07431
6.9077 138.594 1.54687
3.73899 142.71 -6.89595
15.25 136.208 3.34832
6.71182 142.783 -8.41905
0.949987 138.215 5.77484
-23.1061 146.268 -1.72602
-10.0663 145.62 -6.68898
22.0308 135.722 1.48521
-26.217 145.116 2.92403
2.51363 138.993 3.52613
21.0131 136.338 0.798519
-2.99856 139.873 4.29579
-20.0791 146.125 -2.20081
-12.511 142.228 3.56525
-14.5868 145.868 -4.03167
-3.38286 140.33 3.92933
0.0496684 139.134 5.29839
-18.4153 143.436 4.22644
16.3385 139.723 -4.06884
2.77422 143.26 -5.86135
-25.5503 146.536 0.406947
-15.4897 143.092 3.84322
-13.5753 143.004 3.16177
18.4964 136.367 3.35316
18.2913 139.034 -2.86611
19.7686 136.261 3.23023
-9.40747 142.108 3.6057
17.9555 136.645 3.29449
10.8815 137.507 4.89529
6.51263 139.712 1.71655
-24.7191 146.913 -0.0883453
-15.125 146.359 -3.52108
8.7046 139.137 2.19084
-15.7111 146.444 -3.36307
12.2945 141.626 -5.45556
14.7064 137.25 4.08739
2.51567 143.716 -5.46965
-16.2946 143.741 3.94804
-13.1102 143.49 2.98059
-10.4078 142.556 4.19716
2.99631 143.905 -5.74916
-6.49092 142.334 2.92457
10.574 143.043 -7.17217
-3.55218 141.717 3.22749
-23.0658 145.563 3.6553
-5.36742 145.749 -5.63909
17.8537 139.748 -2.61585
-22.587 147.498 -1.2289
17.3725 137.423 3.42476
17.2371 140.104 -2.94113
12.7153 140.994 -2.83
-7.83761 146.867 -6.70278
9.87073 138.851 4.11268
3.75834 140.56 3.01294
10.425 143.416 -7.20807
-14.2033 147.049 -3.65818
-19.7365 144.638 5.05735
-9.71806 143.059 3.88541
12.7748 141.251 -2.91875
3.37405 144.373 -5.78635
-22.8683 147.769 -0.868971
-1.01418 141.117 4.43403
-17.099 144.735 3.80235
0.48112 144.727 -4.74019
12.3223 138.436 4.72701
-16.9707 147.032 -1.58227
-25.2318 147.201 2.18178
2.43197 144.537 -5.14954
-18.1351 145.126 3.80291
-18.3325 145.139 3.92585
8.39948 140.554 1.76402
-3.87203 145.883 -5.06209
-11.8702 147.674 -5.36475
-7.84594 143.453 3.05681
18.9081 137.81 3.56882
-21.0601 145.656 4.66017
10.3183 139.083 5.00859
-2.36982 142.293 3.54631
10.0785 139.504 4.28246
20.5116 138.065 2.71733
20.7931 138.124 2.46567
5.67919 145.13 -7.00521
9.56511 140.255 3.03168
21.3376 138.281 1.97751
-2.39234 145.839 -4.54691
-5.91767 143.717 2.44162
7.5208 145.123 -7.51981
9.39278 144.684 -7.3325
-4.73367 143.676 2.26556
9.02766 140.839 2.33652
-2.3605 146.018 -4.54737
-0.702535 142.147 4.1027
21.2983 138.994 0.760184
18.44 138.389 3.6861
-2.90054 143.192 2.77827
-5.20791 143.849 2.33954
21.0091 139.365 0.131446
5.21609 141.686 2.42693
8.47739 145.211 -7.65778
3.41234 141.917 3.03213
6.73641 145.44 -7.19439
2.69604 141.847 3.65815
18.3732 140.986 -1.90431
11.6637 139.518 5.11402
19.5576 140.526 -1.31957
21.2266 138.882 1.88408
-1.83368 146.189 -4.37337
13.5253 141.911 -1.51466
19.5079 138.723 3.31593
-22.6107 147.071 4.07398
14.4206 139.229 4.71129
6.11791 142.064 1.9651
-13.2897 145.732 2.87837
12.694 143.558 -4.80202
11.8904 139.707 5.05473
3.2627 142.269 3.16703
-9.76739 144.743 3.69798
-20.8619 146.566 4.90077
-19.4628 146.511 4.34189
2.64301 145.774 -4.94073
-20.7834 146.552 4.94698
15.7289 139.278 4.38912
6.82424 145.763 -6.98327
10.8203 140.147 4.78745
-20.6399 146.685 4.89578
-23.1059 149.071 0.30076
16.8727 141.963 -2.402
19.942 139.307 2.66586
-23.5994 148.801 1.39885
6.81247 145.925 -6.83533
-10.0595 149.109 -6.139
-3.1759 144.358 2.06609
5.10092 146.019 -6.13844
9.05301 141.869 2.05069
10.7868 145.03 -6.55701
1.78222 142.321 4.76425
