ply
format ascii 1.0
comment Created by Open3D
element vertex 1924
property double x
property double y
property double z
end_header
10.3114 102.363 -12.3278
-27.7857 108.285 -6.43912
-6.34951 108.181 -17.4923
9.23704 103.511 -14.2183
13.474 98.2209 -3.40947
-13.4451 99.2461 8.4326
-19.2168 98.297 13.8652
11.5798 100.3 -7.27449
-27.5391 107.557 -4.23526
-23.1344 100.255 11.3945
-27.814 103.912 4.94795
0.0781485 96.7382 7.77186
3.54996 106.058 -16.7978
-14.46 109.005 -14.485
-21.5573 109.416 -11.639
-27.6653 107.095 -2.66749
-22.0893 109.46 -11.2325
13.5494 98.4866 -3.21467
-14.816 109.136 -14.2216
-26.6855 109.046 -7.72982
-27.5005 105.969 0.416402
0.86745 107.453 -18.0678
-25.0632 101.65 9.8762
10.4547 103.077 -12.3586
-10.702 109.352 -16.4137
9.65106 96.3895 4.56934
12.4736 97.0338 1.50494
-2.70204 98.1792 6.75292
-21.3538 99.5937 13.3225
-21.4232 99.6299 13.3253
12.8857 99.4959 -4.44079
2.91542 96.806 7.53949
-27.3351 109.409 -7.21444
5.23786 96.7011 6.83534
-27.5252 109.044 -5.99606
-27.7232 104.125 6.14264
-5.63117 99.9899 4.59166
2.82149 96.935 7.61394
-14.9782 99.1778 11.5377
13.3328 98.0926 -0.74621
-28.0211 107.468 -1.75577
-16.1064 99.0214 12.6246
-27.0566 109.627 -7.41576
-20.1755 110.15 -12.3083
-13.5644 99.9834 9.06415
-27.2483 108.859 -5.15056
-23.771 110.6 -11.2143
-18.1758 110.249 -13.1105
-9.03043 109.75 -16.594
5.75006 106.217 -15.7282
-13.749 100.121 9.50553
-25.8042 110.074 -8.41171
12.4111 97.948 1.10893
-4.29404 100.028 4.85402
-13.5655 109.783 -13.9689
7.04757 105.898 -15.3001
-11.5322 109.92 -15.1012
-19.6002 100.136 13.1136
7.4802 97.1971 6.16512
-27.3088 109.745 -5.89367
-2.93464 99.8432 5.46143
-21.35 110.72 -11.371
-11.6846 110.08 -14.8016
6.69031 97.4084 6.58011
2.16674 97.8268 7.94737
-23.9595 111.125 -10.6818
-24.617 110.952 -9.79945
-0.0984503 98.3664 8.10489
2.49487 108.327 -17.5741
-13.0727 110.214 -13.7665
-17.0572 100.046 13.197
-11.1342 101.328 6.94295
-24.6495 111.035 -9.57051
-7.28825 101.339 4.96032
-9.31606 101.456 5.90558
-15.6445 100.122 12.5727
5.48112 107.061 -15.5323
2.98522 98.1645 7.58947
-20.7255 101.035 13.1013
-19.0041 100.661 13.134
-27.883 108.58 -1.4375
13.0104 100.933 -4.28079
-26.711 111.033 -7.95903
8.55488 97.9354 5.43252
-0.265104 98.9195 7.82614
-27.3497 110.892 -7.10484
12.9249 99.3971 -0.165059
11.0915 98.0241 4.16471
6.27409 107.03 -15.2771
-24.2405 102.929 10.9016
-8.70278 110.814 -16.5024
-11.2825 110.617 -14.6343
-22.1699 111.699 -11.5023
-5.03893 110.387 -17.1021
11.6347 98.3257 3.59702
10.465 105.454 -13.0272
12.6635 99.5292 0.312225
-0.831511 109.869 -17.5607
-27.1657 109.931 -3.57434
9.29001 98.4939 5.1487
-15.7817 100.876 12.6658
-27.0294 107.711 2.00107
-25.0103 103.874 10.4089
-26.143 111.9 -8.49532
-10.2023 102.38 6.36143
10.9667 104.355 -9.60898
-26.9669 110.519 -4.52857
-1.4536 110.366 -17.5445
-7.27988 111.196 -16.4468
-26.3571 105.126 8.54621
1.99207 99.2534 7.93051
-6.70734 102.385 4.917
-27.3748 106.225 6.52118
-24.7178 103.925 10.7456
4.30434 99.1208 7.22683
-12.5576 101.917 9.311
-18.6873 112.061 -12.2215
-23.7841 103.457 11.5166
-8.10189 111.483 -16.3675
0.167424 100.083 7.54125
5.7863 108.172 -15.1555
-26.9881 107.07 4.86352
0.451434 110.203 -17.106
11.2919 103.82 -7.07642
-27.8258 111.626 -5.41974
-1.54344 101.646 5.10611
3.4572 109.401 -16.48
-2.82034 102.123 4.76318
-14.0439 111.961 -13.3137
-17.6703 112.52 -12.7569
-17.2744 112.463 -12.7865
-9.52016 102.972 6.35274
-13.5807 101.889 11.2185
-26.4955 112.729 -8.40914
-27.1198 111.225 -4.3687
-27.1894 106.544 7.14904
12.2957 103.264 -5.58145
12.323 99.918 2.6908
-26.9541 110.864 -3.16485
-27.2081 112.621 -7.23311
-26.9305 106.511 7.6064
-27.2148 112.68 -7.23205
6.09959 99.7283 6.88186
10.7049 99.6112 4.86229
-21.5738 113.369 -11.6647
-26.8627 108.546 2.92886
12.9151 102.885 -4.22042
-12.6516 102.624 9.96238
12.8515 102.97 -4.33131
-15.8007 102.224 12.7161
-23.7311 104.324 11.7856
-22.9856 103.923 12.4341
-27.5038 109.753 0.739322
-8.92141 103.564 6.08019
-14.3509 112.641 -13.2331
9.66066 107.628 -13.6298
-18.4051 102.916 12.8562
-27.4427 109.322 2.07275
-18.5851 103.061 12.8127
-7.4595 112.558 -15.9269
9.79645 100.084 5.51232
7.19926 100.126 6.79711
-27.8056 112.71 -5.42846
-5.79502 103.874 4.56975
-7.35367 104.022 5.17518
1.61645 101.145 7.4757
6.09006 109.546 -15.2075
-20.8427 104.036 12.5335
-26.8401 109.053 3.43923
4.75596 100.673 7.267
-12.5202 103.176 10.2929
11.2323 105.879 -8.84445
12.7942 101.598 0.956865
-26.5803 111.54 -2.43364
13.4305 102.689 -1.91691
10.4459 100.542 5.13002
11.1854 106.194 -9.04291
2.67586 101.149 7.7939
-5.62968 104.381 4.35953
-25.8773 106.774 9.35933
-16.6773 103.473 12.6216
-22.2836 104.805 12.3967
-14.1666 113.423 -12.8984
-9.34273 104.464 6.49874
6.51568 100.826 7.09289
7.35825 100.754 6.88897
-5.35276 113.029 -16.2478
6.6551 100.923 7.10244
11.8494 101.454 3.22332
-12.7801 103.611 11.0152
11.3455 105.753 -6.79916
11.0608 108.168 -12.4667
-26.525 107.775 8.37343
-8.97685 104.785 6.43043
7.73406 109.675 -14.3099
11.6917 105.563 -6.20445
-19.3599 104.753 12.1968
13.2776 103.649 -2.20678
-17.8284 104.462 12.411
8.21978 109.647 -14.0047
-0.953677 112.639 -16.38
-2.59189 113.104 -16.6141
2.44246 112.203 -16.971
-12.0964 104.102 10.5277
8.04255 109.854 -14.1519
-26.1481 115.064 -8.60852
-8.27106 105.228 6.06122
-10.6445 113.634 -13.1771
-19.3426 115.268 -12.4466
-19.2975 115.269 -12.4573
-8.15859 105.352 5.94436
-7.93431 105.534 5.40561
-6.21504 105.564 4.43308
11.2371 108.616 -12.2316
-8.17418 105.364 6.00974
13.0051 102.457 2.16027
3.31759 112.155 -16.4213
-9.37549 114.035 -14.2979
11.2684 108.214 -10.9347
11.228 108.81 -12.3634
-4.41017 113.902 -16.4765
6.09262 101.807 7.57162
5.37953 111.458 -15.5958
-10.7345 113.852 -12.9328
-27.7122 113.622 -3.39414
-12.8925 114.103 -12.3333
6.79358 101.779 7.41514
-26.7898 111.97 0.333528
-10.1341 113.986 -13.3826
-4.60993 114.034 -16.3639
-1.12575 113.224 -16.186
4.37888 102.322 7.5755
-26.3291 109.396 6.57918
-7.81578 105.892 5.41167
12.2098 105.522 -4.17148
-25.7662 108.194 9.54161
7.40497 111.084 -14.8709
0.485551 113.165 -16.1961
11.0661 102.556 4.14759
0.916733 113.174 -16.3353
-11.2445 104.885 10.3591
-9.56571 105.333 8.76407
2.67929 103.509 6.77052
-24.0998 107.416 11.3774
2.70436 103.517 6.78913
-12.8442 104.88 11.6797
-26.996 111.776 2.36206
-26.8001 112.19 1.27552
9.8168 110.32 -13.4803
-20.8872 106.685 11.6475
13.2553 104.544 -1.07382
9.50757 110.541 -13.6852
11.5999 107.974 -8.45299
-2.64442 114.245 -16.2011
-15.7053 115.465 -12.2184
-17.3566 106.126 11.6296
-3.69053 106.415 3.73802
-6.19509 106.705 4.51958
-20.8383 116.574 -11.8543
8.48413 102.68 6.63979
-22.9149 116.732 -11.0768
-22.1277 107.136 11.9735
-27.9616 114.939 -3.96521
-11.7196 114.744 -11.9135
-26.1572 112.911 0.26655
-11.6481 105.4 11.0102
10.4973 110.584 -13.2986
12.4263 106.057 -3.21132
-5.16418 115.12 -15.9845
-20.5881 107.225 11.4695
-20.371 116.75 -11.9059
-27.4511 116.222 -6.87217
4.38729 113.201 -16.2114
12.6993 105.563 -1.82538
-21.6721 107.455 11.782
-26.9611 116.471 -7.38452
-23.6604 108.107 11.3292
-5.71298 115.343 -15.7536
5.15372 113.169 -16.0377
-13.2364 115.441 -11.8301
-26.0853 116.809 -8.30068
-26.1345 113.075 0.964592
3.00278 104.836 5.79712
-22.6466 117.328 -11.0841
-18.6758 107.429 11.1016
-2.94709 115.213 -16.0618
5.79362 103.686 7.54909
12.5828 106.791 -3.43228
-8.26525 115.839 -14.4637
-10.4428 106.206 10.2409
3.30436 105.092 5.70666
-12.105 106.253 11.0597
-7.30827 107.541 5.61187
-26.5349 114.399 -0.765924
-3.1318 115.624 -16.0378
-16.2151 116.675 -11.6616
-25.5429 117.551 -8.82403
-16.7608 116.783 -11.5769
-21.8284 108.367 11.6716
-26.7763 117.319 -7.56856
-20.7416 108.334 11.2937
13.2217 105.68 -0.084719
9.48323 104.034 5.93225
-8.76137 106.835 8.76643
-17.2844 107.814 10.9517
-0.950745 115.144 -15.5828
2.82183 105.852 5.19486
1.26669 106.528 4.37945
13.1816 105.843 -0.200067
-18.9541 108.241 10.949
12.458 108.761 -6.88664
-25.9139 111.211 7.46129
9.7326 112.223 -13.8321
4.33222 105.259 6.09595
-14.3893 116.632 -11.6623
-21.1079 108.684 11.3394
-12.5314 106.935 11.1036
12.7803 107.721 -4.01848
-15.614 107.562 11.4341
-26.5113 112.866 4.27037
6.07536 104.509 7.58662
4.06324 114.723 -16.2615
-15.8014 117.156 -11.5242
-5.67641 108.5 4.33461
0.641377 107.228 4.11876
4.89352 114.649 -16.1044
3.77847 105.923 5.80879
-24.9086 110.205 10.5057
-26.3604 118.102 -7.96671
-9.71641 107.33 9.76651
12.7267 109.263 -6.75546
11.7698 105.282 3.6422
-11.4969 107.559 10.3806
1.62519 107.217 4.32263
-22.6888 109.625 11.3047
-2.37578 108.401 3.64594
-0.972956 108.028 3.83177
-0.120858 107.815 3.93566
-23.0466 109.766 11.3185
9.61014 104.976 5.7923
-19.2104 118.319 -11.5852
12.4226 110.23 -8.51259
-25.6299 118.632 -8.67806
2.54586 107.132 4.57592
-20.6654 109.538 11.0004
-25.3446 114.61 1.09203
6.94558 104.935 7.86072
-27.2152 118.217 -6.51722
-28.2356 117.381 -3.90763
-23.9906 118.983 -9.9737
-14.4466 108.219 11.37
-23.413 119.031 -10.2989
12.4424 110.656 -8.72793
12.7975 110.225 -7.77427
-8.95965 107.944 9.44761
7.73771 114.202 -14.5276
5.77533 105.741 7.22234
13.1359 108.925 -4.36326
-7.74354 117.428 -14.053
10.5375 112.984 -12.8229
5.95881 105.719 7.36979
-26.4421 113.231 6.15178
-2.41613 116.983 -15.5003
10.0485 105.701 5.56025
12.8066 110.75 -8.08656
-25.802 115.444 0.864235
7.80787 114.447 -14.3198
-18.8812 109.866 10.974
9.46905 105.73 6.1669
13.2064 109.827 -5.74822
-20.8818 119.271 -10.8037
-8.91924 108.443 9.47949
1.97521 116.314 -15.4733
-17.2503 109.793 10.7783
11.7603 112.303 -10.5762
-26.934 116.406 -0.127574
-20.2667 110.453 11.0884
-20.3647 119.416 -10.7521
-5.7313 109.908 4.76787
-25.4457 114.878 3.16352
-10.8852 108.799 10.3441
3.91007 107.407 5.99819
-14.9389 109.227 11.5926
-12.5669 117.835 -10.675
-14.9589 109.316 11.6023
5.84192 106.647 7.4091
-23.0064 120.213 -10.4323
-26.0002 114.338 5.52765
-16.4554 110.017 11.0511
-17.5422 110.344 10.851
11.6754 113.36 -11.8618
8.13302 115.04 -13.9135
-16.3408 110.132 11.0859
-10.7239 117.819 -10.6568
-25.5323 112.892 9.31861
-26.3068 119.376 -5.97699
12.0301 112.504 -9.39696
1.21643 109.452 3.80683
10.0515 106.805 5.65424
-25.7359 113.158 9.03559
13.8037 109.442 -2.70404
13.8691 109.244 -2.25036
-25.7761 113.224 8.9619
9.10891 115.018 -13.818
-22.1845 111.571 11.2225
-25.3789 112.991 9.45912
-26.049 120.1 -7.55685
-15.7646 110.165 11.2955
-10.7607 109.449 10.4566
-1.92076 117.994 -14.9754
-26.3938 119.377 -5.41819
11.3347 107.266 4.29909
13.8333 108.04 1.33311
-20.003 120.222 -10.3973
-9.36128 109.568 10.0274
-22.1305 120.648 -10.221
-9.38088 118.366 -11.0921
13.7038 110.06 -2.65964
-15.6004 110.784 11.3152
-1.97986 118.542 -14.8162
-25.3261 115.893 4.05552
-14.3699 119.524 -10.5883
-24.2213 121.245 -9.55471
-26.3911 119.989 -5.32607
11.9565 113.816 -10.4458
-7.01066 119.17 -13.4638
-25.6736 114.062 8.88367
7.90352 107.381 7.62069
9.88909 107.738 5.70894
12.0328 113.702 -9.97454
-1.72591 111.28 3.23147
11.8815 113.583 -9.55708
10.2094 115.518 -13.3496
-10.2909 110.234 10.4105
13.7026 110.907 -3.64971
-7.68649 110.465 8.74081
-7.94037 110.441 9.00136
-21.0905 112.384 11.2619
-19.8468 112.181 11.1164
6.32316 107.994 7.58936
-13.7494 119.705 -10.4128
-17.524 120.74 -10.8968
7.22962 107.795 7.68069
2.72497 118.241 -15.442
-25.1833 117.205 1.92238
5.38175 108.616 6.91438
-24.2202 113.526 10.5519
11.7711 114.842 -11.5881
-22.9741 121.683 -9.85994
6.3475 108.246 7.54165
-21.8239 121.488 -9.86145
9.16049 108.134 6.64813
-8.27675 110.787 9.5014
12.787 111.95 -4.34701
-16.6674 112.092 10.8808
-23.1357 113.478 10.9787
-1.76189 112.096 3.11225
2.45971 118.726 -15.2576
-17.074 121.072 -10.6563
3.712 110.385 4.4952
-6.23269 111.743 6.51142
10.5843 115.511 -11.4841
-24.6695 114.508 9.85306
-9.23078 111.089 10.1015
-8.66872 119.674 -10.8914
-25.5778 115.306 8.747
-26.4491 120.92 -4.41787
-17.4423 121.498 -10.5472
10.5809 116.707 -13.6084
-25.5191 115.771 7.90334
-25.5257 121.7 -6.51529
-27.0779 119.536 -0.286183
6.86691 117.48 -13.1208
-3.89982 120.394 -14.5171
5.05822 110.095 5.94046
-26.9196 119.466 -0.0524134
-4.1165 112.918 3.96615
5.7509 118.032 -13.6503
10.3782 114.968 -8.58064
-11.172 120.135 -9.60291
13.7815 110.114 1.79455
-27.382 121.21 -3.57877
-17.5471 113.285 10.7933
1.84987 112.135 3.45882
-12.3411 120.655 -9.77512
-25.7913 122.047 -6.02126
10.115 115.157 -8.01303
-2.06456 113.266 3.12765
-14.1632 112.466 11.4881
-25.9127 121.522 -4.38966
10.0284 117.097 -12.5248
-24.758 118.291 2.94366
11.7241 113.285 -3.81306
-25.7563 122.035 -5.20489
10.2707 116.203 -9.94534
-25.3593 121.556 -4.17272
-25.4969 122.349 -6.03687
-13.3085 112.588 11.3918
-12.9741 121.162 -9.68537
14.1818 111.13 0.559125
9.66823 117.527 -12.6753
-0.0718133 120.504 -14.8041
-16.2294 122.046 -10.0164
-1.56031 113.617 2.99074
8.73486 118.342 -13.98
-11.5587 112.53 11.0405
2.83252 112.529 3.55139
-25.5729 121.93 -4.39886
9.97996 116.748 -10.3382
-4.93409 113.654 5.23924
11.7956 110.46 4.26283
5.4271 119.234 -13.7502
9.56829 117.905 -12.3729
-21.1385 114.868 11.344
5.00792 119.576 -13.944
10.5759 114.811 -5.19035
-25.6779 122.121 -3.872
9.61278 118.051 -12.4353
-6.67605 112.996 8.61689
6.59365 119.046 -13.1737
-4.49568 121.747 -13.6662
9.32235 119.013 -14.2602
4.17434 112.567 4.25653
11.9319 113.329 -1.60107
11.5836 114.023 -2.87194
-27.581 122.686 -3.34226
6.58942 111.033 7.1232
-7.41026 121.52 -11.0116
-27.1626 120.863 1.13382
10.7563 110.983 5.29845
12.4654 113.091 -0.718424
-22.0221 115.866 10.7859
-24.8203 117.707 7.78397
-1.08836 121.645 -14.2092
-7.76496 113.397 9.5286
-26.8135 120.708 1.82408
-10.4388 121.668 -9.11976
5.80375 112.043 6.07006
-24.5731 119.089 4.96286
-24.2961 122.929 -4.55555
-6.09262 113.836 8.08194
-7.46725 113.627 9.3442
8.08867 119.592 -13.3767
9.77199 118.543 -11.6996
-16.2076 123.298 -9.53855
-0.465522 114.853 2.78779
-26.0237 120.292 3.04077
-26.3386 123.042 -3.39311
-10.0724 121.905 -9.08149
-24.1581 123.19 -4.75194
0.906142 121.51 -13.7941
9.46338 119.855 -14.2397
-5.86352 114.2 7.71498
0.567334 121.655 -13.8746
-13.4186 114.527 11.0936
-21.7821 124.688 -9.3147
11.5277 115.871 -5.34797
-0.589608 122.103 -14.1119
-23.8618 123.473 -5.17035
-33.2475 125 -3.78708
-22.5606 124.509 -8.21077
13.5369 117.838 -10.9488
13.6096 117.752 -10.7491
10.7376 116.796 -6.86276
-5.92145 114.327 8.01195
10.1335 117.083 -7.10749
-24.9545 123.46 -4.1218
1.00456 115.046 2.8926
12.6651 114.313 -1.39559
7.65494 120.158 -13.0176
13.6288 112.633 2.26766
-11.1899 114.477 11.1129
-24.2525 123.992 -5.22022
-23.5274 124.625 -7.03631
-23.9963 123.989 -5.23046
-8.95143 114.383 10.321
-5.75276 122.892 -12.0923
-18.4752 116.24 10.8871
-13.1095 123.198 -8.87943
-14.1446 115.354 10.884
-22.7627 117.47 10.2975
-19.0622 124.774 -9.50401
6.28525 112.679 6.67429
1.42165 121.841 -13.0299
-26.2084 121.515 2.39437
6.08733 112.912 6.41692
-24.2746 119.62 6.08607
-31.4292 124.488 -2.00834
-26.3343 121.665 2.22474
-24.7986 118.879 8.29111
-24.7965 119.009 8.04018
6.71626 112.542 7.22063
-24.7041 124.528 -5.4464
-2.9869 116.057 3.79285
-5.13953 123.169 -12.4445
-25.899 121.322 3.04341
-27.2414 122.438 1.09121
-16.5599 116.173 10.8006
-25.0709 120.649 4.42241
13.4479 113.055 2.64252
-22.8568 124.765 -6.77963
-24.0209 123.857 -3.94422
-25.0326 124.482 -4.92717
7.82621 112.289 7.55135
-13.0498 115.398 11.0064
-22.8388 124.558 -6.15825
-6.76637 122.961 -10.6232
-5.37687 123.311 -12.0318
-0.697116 116.233 2.89417
9.40066 120.992 -14.0466
9.76466 112.572 6.44585
-27.0986 122.841 0.859809
-20.6151 117.344 10.9406
0.502107 116.189 2.62126
-18.3256 125.327 -9.73727
-3.17782 123.551 -13.339
-6.52129 123.209 -10.7238
-13.5663 115.879 10.9423
-26.9982 123.555 -0.649631
-24.1825 120.162 6.17931
8.37132 121.405 -13.9473
-26.8202 123.248 0.146203
-25.6187 124.236 -2.88722
-24.6495 119.716 7.65335
8.24733 121.447 -13.9331
7.21384 112.966 7.34223
-25.5205 124.594 -3.71512
10.0972 120.775 -13.1613
-14.513 116.294 10.8658
-21.3789 125.874 -8.87826
-9.15484 115.313 10.5074
3.636 122.042 -12.6649
-5.42299 115.721 7.58551
-26.8858 123.625 -0.329174
9.67599 118.835 -7.85406
11.5943 118.073 -6.99347
-24.4413 125.177 -5.28037
-25.3136 124.735 -3.71238
-31.8957 126.23 -3.88362
9.01752 121.654 -14.2925
-11.6 115.7 11.1553
-26.0916 124.534 -2.7452
-16.9782 125.274 -9.30382
-30.8501 126.177 -4.15096
-1.59003 116.88 3.15125
3.52384 122.195 -12.4579
12.7669 115.878 -1.85992
-23.3726 124.881 -4.76958
-19.3054 117.541 11.1611
-25.8439 125.469 -4.73676
-26.2674 125.183 -3.64529
11.6979 118.362 -6.95767
-7.84148 123.474 -9.11927
9.70334 119.275 -8.04059
-4.42639 116.57 6.04117
13.2558 116.856 -3.86372
-24.3732 120.539 7.02541
13.6245 114.753 1.15915
12.9934 116.439 -2.54207
-4.99402 124.051 -11.6142
-22.1301 125.717 -6.60796
-24.7736 125.314 -4.22242
-24.9172 125.147 -3.72411
-24.4069 124.735 -2.9686
-33.2695 126.964 -3.58174
-25.8778 122.306 3.89965
13.3747 118.847 -8.35294
-22.5278 125.839 -6.47616
-26.7016 125.064 -2.36146
-8.23789 115.98 10.0973
1.40077 116.995 2.5953
-7.77328 123.729 -9.00337
-24.6395 125.101 -3.42787
5.25046 115.193 5.00719
-4.25024 124.28 -12.154
-26.1506 125.849 -4.35981
-24.4063 125.129 -3.4565
-25.971 125.2 -2.72209
16.2158 117.231 -5.42659
-2.16894 117.542 3.59291
12.0996 118.677 -6.70593
4.00095 122.776 -12.4304
7.84545 113.889 7.35785
-21.603 118.94 10.5689
-11.8453 124.81 -8.88947
-26.1822 125.328 -2.53177
-27.2775 124.095 1.08174
12.7267 118.263 -5.76379
-24.5894 120.632 8.17794
12.9406 116.021 -0.301079
-26.1124 123.02 3.22402
-25.8526 125.146 -2.0626
-25.1939 121.882 5.56665
-35.16 126.758 -1.08012
12.6471 116.356 -0.886222
8.5275 122.606 -13.9485
-23.8004 126.192 -5.61665
-22.2057 126.388 -6.87464
-0.265372 117.746 2.80413
-21.1996 126.928 -8.53732
-3.71097 124.742 -12.3821
-25.6536 125.924 -3.6682
-23.028 126.363 -6.11387
-22.4391 126.562 -6.82226
-8.87444 116.561 10.4609
-20.6506 127.021 -8.87554
-22.3782 126.624 -6.98491
-25.2771 125.902 -3.65307
-35.8581 127.112 -0.980543
6.70282 123.159 -13.7617
3.32767 123.195 -12.0645
-26.7573 126.877 -5.16731
13.4769 117.707 -3.98224
-30.9411 127.368 -4.08462
-27.1949 126.993 -5.13367
12.9188 118.661 -5.80656
15.526 118.121 -5.85782
-3.87185 124.879 -12.0528
-15.9544 126.065 -8.53632
-2.93483 118.03 4.24072
12.0348 119.413 -7.03054
-2.48953 118.068 3.95251
-21.0338 127.197 -8.47573
-3.89913 124.97 -11.94
13.8128 119.015 -6.70273
-28.1852 127.368 -4.92877
-20.0887 127.342 -9.06847
-34.3024 127.126 -0.89507
-35.9183 127.337 -0.521689
-26.7897 127.311 -5.13967
7.89826 114.761 7.29527
-22.8915 126.978 -6.25905
-18.763 119.058 10.9903
-10.5103 125.424 -8.8814
11.909 120.978 -9.74681
13.3143 119.552 -6.90025
-35.9939 127.495 -0.195981
-26.5895 127.119 -4.15379
5.04774 116.888 4.16323
-10.0595 125.437 -8.69256
-23.0764 126.349 -4.01363
-20.1493 119.736 10.6559
-31.1956 127.182 -1.68825
-23.0352 127.187 -6.00628
-28.8828 126.791 -1.8581
-22.8089 126.529 -4.41686
-20.5516 127.438 -7.76711
12.1967 117.299 -0.279542
-5.94768 117.455 8.92682
2.03688 124.327 -12.0675
13.2963 121.658 -11.3998
-26.605 127.154 -3.75004
-0.623903 125.241 -12.7206
-29.1349 126.167 0.154962
-10.0561 117.75 10.8661
-25.5416 123.204 5.72819
11.9571 120.266 -6.83299
11.9132 115.398 5.09735
9.55205 115.133 7.03473
18.7239 117.997 -4.77792
13.8814 118.102 -2.44724
9.39731 115.157 7.15816
-13.1042 118.502 11.0263
-28.3961 127.28 -2.34741
-34.7473 127.695 0.0847779
12.1916 115.721 4.6931
11.9191 120.455 -6.72985
-26.1992 124.643 3.17076
-25.8741 126.55 -1.64889
-26.5645 126.985 -2.3343
-3.76604 118.507 6.40854
-30.8058 127.589 -1.50011
-35.8756 128.102 -0.00270339
12.6089 121.22 -8.69642
-19.3772 120.24 10.6139
-29.9248 128.66 -4.34376
16.773 121.127 -10.5924
-23.6308 126.91 -3.38445
-1.1741 125.841 -12.4781
3.76003 118.553 2.74059
16.4473 118.494 -3.80066
12.2216 120.379 -6.04319
-22.7424 127.145 -3.98468
12.0217 120.592 -6.3255
-35.5078 127.934 0.916682
-31.256 127.412 -0.0481553
-36.2291 128.718 -0.559994
13.0866 118.235 -0.920309
14.0011 118.516 -2.06821
-9.21518 126.059 -8.16352
-22.5494 127.559 -4.71095
-15.8672 119.766 10.8184
-31.6639 127.962 -0.790129
-24.1954 128.227 -5.34665
16.477 121.278 -9.78077
11.6188 122.642 -10.4514
-14.0009 119.41 11.0241
-30.4464 127.984 -1.16597
-35.6761 128.164 1.20177
2.68188 125.1 -11.5157
13.2003 119.704 -3.82404
-22.7088 121.732 10.1841
16.9173 121.65 -10.5118
-25.7318 124.97 3.89923
-2.03166 126.43 -12.125
-26.6281 127.03 -0.499568
9.43121 116.093 7.19486
-38.2639 128.881 1.14426
12.8649 121.256 -7.21983
-5.23444 118.671 8.67524
9.83302 123.09 -9.91569
-22.6734 128.463 -5.85271
8.08298 116.443 7.30881
-23.4729 122.448 9.36543
13.7815 119.93 -4.11914
-16.346 128.403 -8.88905
15.548 122.82 -12.0208
-34.8902 128.946 -0.340887
-24.4295 128.893 -5.70129
-18.7594 121.004 10.6197
12.9336 120.566 -4.95007
12.6438 121.384 -6.79401
-26.4417 129.152 -5.05813
11.8583 122.599 -9.19677
-26.1912 126.432 1.59359
0.296841 126.242 -11.9032
-9.40311 119.1 10.6749
-20.4051 128.688 -6.91523
14.4534 119.455 -2.75643
1.73771 125.729 -11.3652
16.0773 122.773 -11.6713
5.31361 125.88 -13.5205
13.1441 120.242 -3.84907
-36.3557 129.012 0.907315
-30.9399 127.905 0.777063
6.00753 117.95 5.60197
-6.62874 126.482 -8.54945
10.5314 124.355 -12.3889
-22.6698 128.223 -4.29985
-18.5823 128.93 -8.1555
-4.40705 119.416 7.68581
13.4309 118.992 -0.68687
-4.06833 119.505 7.30307
-5.70861 126.691 -9.35809
-30.1468 128.384 -0.570845
4.91697 126.026 -13.3136
12.5564 120.964 -4.88666
-36.3542 129.33 0.557858
-28.629 129.826 -4.70201
16.6286 121.742 -8.84236
-32.7297 128.607 0.467005
-17.0914 121.032 10.7716
-11.9624 127.969 -8.87144
-8.16977 119.368 10.1989
-27.5949 127.271 1.16053
-35.1366 129.673 -0.720939
17.2507 122.57 -10.9679
13.2198 120.388 -3.50276
1.47823 120.497 2.49132
-28.4325 129.954 -4.78086
-29.0159 127.494 1.58147
-34.185 129.916 -1.60266
-37.6904 129.258 1.91619
-36.8629 129.558 0.795376
-16.1471 129.128 -9.09131
6.94089 117.657 6.75439
9.85423 116.963 6.94493
9.52537 117.064 7.08006
-26.5771 130.114 -5.73132
-17.9996 129.377 -8.42789
13.6436 119.366 -0.667449
-25.0325 125.48 4.85269
-5.57684 127.058 -9.17666
3.55265 126.204 -11.8397
-18.4896 129.724 -8.77202
18.5969 121.639 -8.58551
-3.16677 127.372 -11.0888
6.81516 117.964 6.65392
7.60313 117.646 7.07711
-16.5401 129.457 -8.92231
-28.0642 127.806 1.26079
6.22671 118.56 5.87891
2.35579 120.818 2.4445
16.9439 122.496 -9.16
-31.4043 128.897 0.846275
11.9959 122.372 -6.09909
-22.232 129.155 -4.5393
13.1526 120.574 -2.1637
9.92221 125.072 -11.3913
-21.7061 129.554 -5.62001
-30.3057 128.357 1.85707
11.7512 117.735 5.66199
11.1444 123.878 -8.99608
-24.683 125.732 5.39741
-29.6567 128.911 0.27193
-27.3435 127.851 1.68691
-17.114 121.937 10.7802
8.23936 126.555 -13.8536
-26.3287 127.494 2.11607
-34.3019 131.071 -2.33801
-10.8398 128.388 -8.12411
19.8305 122.194 -9.14864
-22.1857 129.382 -4.50665
-34.3394 131.103 -2.22458
-15.6593 130.237 -9.88144
10.0718 125.528 -11.9552
-29.7611 128.281 2.35348
-1.34737 121.561 3.7945
-26.6579 127.733 2.15297
8.51805 126.671 -13.7961
13.5432 121.075 -2.75472
-17.5165 130.245 -8.72351
9.33742 125.176 -10.4061
-33.4116 129.256 2.20429
-30.9644 129.061 1.45213
9.31889 125.173 -10.3018
5.31828 120.392 3.543
17.3659 123.451 -10.2581
-5.48844 120.521 8.97124
9.08801 118.153 7.12374
11.1474 122.183 -3.66925
-5.14597 120.642 8.80907
-22.1112 129.706 -4.35912
1.17738 121.821 2.61157
17.9523 122.432 -7.63918
-20.1188 123.528 9.79153
-29.4664 129.221 0.828236
-8.51204 120.875 10.2356
-29.6476 129.002 1.57515
9.28463 126.862 -13.6767
-14.0815 121.964 10.6505
-3.43151 121.1 7.16601
-8.87677 121.057 10.1598
-11.7342 121.713 10.0773
18.3736 122.648 -7.94475
-22.206 129.714 -3.73924
-27.1693 128.737 1.31079
3.76414 127.562 -12.1098
-13.0051 122.042 10.2897
-7.84465 128.163 -7.38074
-21.8501 130.116 -4.7412
-37.3276 130.567 2.33239
-33.2573 131.899 -3.05616
14.4493 120.992 -1.59206
12.0865 124.778 -9.59304
11.4006 124.263 -7.97129
13.517 121.466 -2.22927
15.9918 120.612 -1.18505
20.4895 119.728 -1.38418
10.8169 124.857 -8.75662
13.4291 125.267 -11.0097
-18.8984 131.022 -7.99707
10.2791 126.825 -13.1168
-8.85708 121.513 9.99177
-17.7718 130.934 -8.31482
13.8072 121.49 -1.90268
10.0737 125.539 -9.752
2.8229 122.198 2.24382
-25.1589 131.77 -6.31372
11.99 125.123 -9.67918
9.98661 124.126 -6.08826
-22.3753 125.014 8.85401
4.06805 122.041 2.17907
-36.8336 130.754 2.49163
3.07462 122.275 2.20856
-30.9839 129.513 2.55514
-21.8993 130.133 -3.75475
-7.65971 121.456 10.0545
-19.7238 124.193 9.73747
-17.0746 131.046 -8.36391
3.47895 128.015 -11.7664
9.83106 124.936 -7.58776
-2.53564 121.993 6.16897
-28.1482 129.117 2.31792
12.9186 120.395 1.97124
-9.02985 129.094 -7.68601
-2.28088 122.189 5.65932
-10.5033 129.55 -7.9375
12.8665 123.437 -5.33164
-8.31532 121.785 9.90018
-28.2752 132.472 -5.66757
1.76414 122.746 2.34775
12.9311 120.489 1.98695
4.58417 128.291 -12.632
-15.8529 123.288 10.4146
-34.3644 132.327 -1.72103
-18.2572 124.077 9.93854
-23.9488 126.686 6.58554
5.22129 121.845 3.02119
-0.483273 128.816 -10.9886
13.3865 121.834 -1.25179
19.3457 123.516 -8.42594
-5.9616 128.778 -7.83222
15.7406 121.234 -0.835375
-4.69299 128.85 -8.63902
11.2195 126.207 -10.5608
-35.0268 132.361 -1.07168
19.7382 123.608 -8.56896
13.6112 125.771 -10.6022
9.81565 125.308 -7.46567
-8.99338 129.471 -7.68026
10.8618 119.513 6.24098
6.39521 120.982 5.02765
10.3634 127.539 -13.0857
-24.7363 127.773 4.89168
18.7105 123.611 -7.85683
-5.2629 128.917 -8.15092
11.3906 125.85 -9.31173
-25.1107 128.225 4.26917
3.68164 128.69 -12.0026
8.95822 128.202 -13.5636
-28.6385 129.545 3.1528
14.8733 125.63 -10.2535
-31.2514 132.808 -3.40768
11.9066 122.846 -1.85165
23.2052 121.172 -3.69955
22.9536 122.23 -6.14877
-24.6947 132.686 -6.50631
-30.901 132.806 -3.49748
-23.6959 132.027 -5.38245
12.4564 122.885 -2.10564
-23.7725 132.477 -6.36337
-21.0747 131.443 -5.09391
9.32103 124.653 -4.54199
9.10743 125.032 -5.31603
-33.3424 132.932 -2.10818
-34.3534 131.031 3.07041
-24.5065 128.009 5.30786
-33.0927 130.78 3.09101
13.153 122.719 -1.60764
-35.9135 132.319 0.865406
-36.2484 131.995 2.01518
11.8865 126.546 -10.0752
-33.5441 131.004 3.0769
-6.3757 129.415 -7.37948
-1.69861 123.239 5.31604
-33.1522 130.964 3.13742
-20.5517 131.725 -5.37211
16.5716 124.932 -8.37204
-7.46863 129.644 -7.17076
16.3885 125.429 -9.4636
-23.9109 132.966 -6.56637
-26.2639 129.855 2.27957
-12.1731 123.801 9.64617
19.1049 121.447 -1.11337
1.57017 128.963 -10.215
-24.4189 133.048 -6.45247
10.5137 120.266 6.36113
8.70335 128.764 -13.4418
-22.5497 126.623 8.29703
23.4364 121.615 -3.71352
-2.4139 129.834 -10.1403
-22.6062 126.682 8.23064
-23.6935 127.552 6.74406
13.3972 121.641 1.70758
-11.4098 131.1 -8.3061
-31.7855 130.815 3.31672
-17.3573 125.101 9.66504
10.9862 126.465 -8.63029
-5.48975 122.842 8.9748
-9.75339 130.722 -7.93103
10.3405 120.504 6.44348
8.89668 125.749 -5.59289
-2.44825 130.009 -10.0051
6.22009 129.387 -13.0506
22.3515 123.223 -6.39546
-1.9331 130.043 -10.2338
-24.093 133.283 -6.44362
22.3141 123.435 -6.85098
24.0247 122.127 -4.52548
-31.1828 130.88 3.28923
10.1526 127.164 -9.44463
10.5898 126.677 -8.40306
10.8345 123.791 -1.43581
10.956 120.777 5.8946
-5.25934 129.88 -7.77846
17.9634 121.894 -0.514111
11.9456 126.946 -9.60801
8.90181 126.328 -6.42945
7.85533 121.205 6.66609
24.1493 122.302 -4.61301
-9.17307 130.792 -7.64451
14.9912 122.623 -0.433025
-7.9705 123.508 9.53323
-14.4294 133.033 -10.3252
-3.7649 123.295 7.88008
-20.4063 126.139 9.73461
-11.2865 124.377 9.28643
-22.0749 133.059 -6.22644
14.1368 122.359 0.815665
17.6633 124.74 -6.75686
-31.6946 133.713 -2.59529
-9.81397 124.353 8.89008
12.5697 125.248 -5.11623
11.2712 127.361 -9.59314
-22.2452 127.359 8.16414
13.7726 123.708 -1.92823
-21.7627 132.099 -3.65536
-13.9524 133.076 -10.0911
13.1827 122.227 2.11735
16.9973 122.343 -0.159038
9.40043 125.275 -3.25935
16.2313 125.634 -7.64369
-10.9113 131.773 -8.28368
13.6541 126.867 -9.19084
-13.4263 124.841 10.081
19.3549 122.162 -0.621976
11.3328 127.37 -9.08306
-3.08195 130.619 -9.33732
17.8746 124.954 -6.55643
9.81619 124.948 -2.22175
-15.8523 125.703 9.54759
-5.99057 123.787 9.0721
11.6646 125.261 -3.7583
-13.0175 132.921 -9.42942
9.45037 125.385 -2.86126
-9.1018 124.573 8.93686
10.9889 121.774 5.25087
-12.7611 132.854 -9.23667
13.4499 122.654 1.86253
-21.6579 132.389 -3.38595
20.9005 122.591 -1.91317
9.00765 126.162 -4.32715
9.80469 129.673 -13.2629
-21.2051 133.302 -5.67543
-11.4662 125.125 9.1741
-28.0169 134.032 -3.82507
11.1528 128.259 -10.2229
-11.8476 132.666 -8.83278
-7.54171 130.994 -7.01009
-12.0248 125.253 9.41302
5.92446 124.1 2.80567
9.94503 121.832 6.22613
10.1125 128.129 -9.24292
10.977 125.282 -2.72952
-25.4264 134.333 -5.58024
10.8748 127.476 -7.96208
-14.105 125.562 10.0004
12.676 122.699 2.8818
-12.7811 133.21 -9.32881
10.8043 125.132 -2.00658
6.9644 122.753 5.92482
-29.0704 131.504 3.57733
13.3757 122.966 2.02849
-34.9164 133.768 1.1998
-20.9732 127.765 8.51635
-24.2328 130.78 2.87917
9.00345 121.898 7.05453
-20.9242 128.846 5.95072
-20.1401 133.416 -5.58372
10.0544 122.307 5.68934
11.0221 128.35 -9.42941
13.1917 127.502 -8.48096
10.9513 122.66 4.58636
19.2081 125.502 -6.69297
14.6386 124.339 -1.32374
15.5926 127.018 -8.32593
-23.3325 130.746 3.27824
-28.9829 134.602 -3.12567
10.591 127.53 -6.6853
-30.4652 132.319 3.30011
-32.0404 134.633 -1.51352
-15.3679 134.283 -9.40425
3.83169 131.033 -11.5444
20.9896 122.306 0.748078
12.288 128.301 -9.20455
-11.8594 125.969 9.32095
-20.7455 128.896 6.88932
-19.5449 127.611 9.41836
11.7303 128.661 -9.66132
-24.6583 131.044 3.80195
7.19384 123.531 5.42915
10.4729 125.946 -2.16172
9.06308 122.667 6.65985
-23.5513 134.619 -5.31413
11.5117 127.619 -6.69327
16.8351 126.175 -5.90507
-12.6023 126.165 9.71901
-20.7859 133.361 -3.52141
14.2905 124.969 -1.51474
-24.0479 134.813 -5.31781
-28.7284 132.046 3.92495
20.7898 122.486 1.18163
-30.1397 134.906 -2.26875
8.95888 122.762 6.76475
11.6817 127.865 -7.0655
-20.6372 133.417 -3.54912
19.1424 125.907 -6.18772
9.86655 128.051 -6.38173
7.43389 131.177 -12.7047
10.8368 126.11 -2.11853
-17.8977 134.235 -6.69985
6.59291 124.9 3.18167
-26.7687 131.816 3.94692
12.3719 125.931 -2.26694
19.4296 126.049 -6.27774
-20.1884 133.628 -3.87647
22.7194 125.222 -5.99108
-31.4838 135.047 -1.2921
10.8275 128.98 -8.68058
-17.2439 134.22 -6.65105
20.0132 122.942 1.32082
-8.23654 126.033 8.72774
2.02669 131.46 -9.93745
-9.85548 133.159 -7.77865
-20.4153 129.006 7.99674
-19.7867 134.464 -5.64403
14.8053 124.371 0.860914
-26.5471 131.9 4.3349
9.0209 123.448 6.2471
7.42769 123.935 5.92239
-4.72809 131.945 -7.22372
-34.3721 135.183 0.700415
11.2586 128.835 -7.82965
-13.992 127.129 9.68436
22.7978 125.163 -4.90789
-9.2867 126.761 8.1841
-28.1411 135.543 -3.23947
-4.88015 132.119 -7.0233
-7.56383 126.192 8.92174
-26.8915 135.552 -3.69874
13.0328 129.161 -9.00504
-8.32125 126.603 8.55417
-7.15192 126.14 9.07847
-16.6007 134.652 -6.73139
-19.454 128.78 9.12932
1.25116 131.985 -9.60172
1.78685 127.051 2.21641
-23.6844 135.44 -4.80549
11.37 127.997 -5.12305
17.3716 123.962 1.58941
10.9058 129.897 -9.49307
11.1835 127.515 -3.81244
3.63548 132.236 -11.3528
11.0263 128.626 -6.3732
-17.9792 128.494 9.27901
13.345 125.167 0.882997
-20.7867 131.274 4.01704
-1.67241 132.445 -8.93049
14.1439 126.244 -2.02592
2.62625 132.152 -10.3515
-21.0383 135.294 -5.52918
7.61765 124.387 6.00516
-30.7984 134.191 2.39355
3.35198 132.313 -11.0308
14.9638 125.806 -1.23704
-1.4984 126.258 6.35414
-27.8777 132.601 4.81297
2.84751 132.265 -10.5621
-19.196 129.019 9.04204
3.11354 127.132 1.90065
8.86927 124.206 6.01968
-12.3082 135.097 -9.33243
14.9763 125.235 0.462169
-5.95208 126.455 8.7171
18.7077 123.983 1.91681
16.7402 124.503 1.75334
-19.7867 130.559 6.27839
18.4718 124.074 1.98633
10.656 131.585 -12.1697
-10.5838 127.78 8.3773
-0.118452 132.791 -9.37514
-22.2427 132.544 2.93219
10.3843 128.422 -4.17473
20.9583 125.193 -1.85314
24.0823 125.093 -3.24083
-12.7194 135.736 -9.63423
10.572 131.82 -12.305
10.4692 127.952 -2.73193
3.0122 127.701 1.91599
14.4108 126.598 -1.27954
11.5772 129.354 -6.48376
16.5663 128.029 -5.86649
-32.143 135.123 2.5289
-18.2096 129.466 9.0567
10.5304 128.491 -3.71908
-18.7344 129.815 8.5356
20.1151 124.398 1.2811
8.92323 129.721 -5.68396
-15.2861 135.694 -7.47883
22.8962 125.166 -1.91168
-5.06413 133.018 -6.31581
10.2939 130.407 -8.03586
12.4592 128.572 -4.57245
10.9462 128.651 -3.95413
11.652 128.418 -3.72564
-18.535 130.406 7.45055
-20.6119 132.156 4.28328
-18.108 130.178 7.801
11.7059 129.296 -5.7777
22.6868 126.928 -5.75104
10.8031 130.754 -8.80329
22.7695 126.677 -5.15782
-19.809 135.652 -4.60019
7.46712 126.45 3.63153
12.0887 130.358 -8.26799
24.1184 125.621 -3.0096
11.894 125.964 2.64221
15.2598 125.809 1.28181
5.66527 133.044 -11.286
6.63423 127.167 2.66281
-12.5828 136.354 -9.55565
-11.1455 128.637 8.56754
-17.0606 130.106 8.11499
-17.1264 130.253 7.79384
-9.31413 134.88 -7.54445
10.0539 125.883 4.23508
16.8093 128.65 -6.04317
14.3998 129.899 -7.81459
13.5188 127.216 -0.719531
11.0527 126.1 3.33492
2.03599 128.473 2.34102
-22.4169 133.076 4.07685
-8.16865 128.322 8.17818
13.6252 127.354 -0.956804
-3.5497 133.541 -7.00072
-4.89417 133.567 -6.25162
-1.00243 127.627 6.22982
13.6116 130.623 -8.76266
7.32182 126.581 4.45388
15.0229 126.717 0.0740898
-19.4153 131.147 7.43878
11.0717 131.031 -8.36585
-30.6458 135.978 1.67293
-31.8286 136.093 2.04271
13.1436 130.144 -7.09338
-23.2618 137.332 -5.43603
8.49142 133.078 -11.8016
7.44516 126.852 4.07925
23.5862 126.256 -2.84603
-26.572 137.337 -3.4351
-20.2582 136.078 -3.68319
-30.7633 136.201 1.62544
10.0375 126.306 4.4801
-31.8125 136.416 1.90843
-19.9557 136.267 -3.98386
12.3008 131.231 -8.66129
22.6689 127.859 -5.876
-16.3191 130.89 7.45009
-9.14772 129.323 7.5938
-12.0588 129.495 8.85636
12.8103 131.265 -8.52195
-8.53478 129.232 7.80876
-10.6257 129.685 7.82993
-22.7243 133.755 4.34117
11.3704 131.631 -8.45086
-22.1212 137.585 -5.20245
-3.58965 128.226 7.89201
16.1262 129.898 -6.59733
-4.43266 134.164 -6.13553
15.4416 130.124 -6.75007
-21.1955 137.324 -4.94928
-28.1953 137.69 -2.11601
14.846 130.561 -7.41275
7.28896 126.891 5.56068
7.49627 126.766 5.77282
14.4874 130.981 -8.21761
-29.8523 136.562 1.60474
2.64467 134.163 -9.66862
3.99414 134.382 -10.8936
21.6497 126.973 -2.03859
-27.3767 137.739 -2.45787
3.86634 129.328 1.70968
19.509 128.703 -4.91191
5.36976 134.152 -10.6811
9.92143 131.451 -6.3135
-28.9878 137.962 -1.65033
-15.3072 137.391 -7.44885
23.2668 127.32 -3.17571
-31.869 137.305 1.61099
5.84472 129.009 1.98132
-13.7186 130.457 8.89581
13.036 128.344 0.0324588
-18.0148 132.207 7.02648
3.59096 134.782 -10.6465
-7.93618 135.862 -7.18913
-27.4152 135.847 3.21478
11.3961 131.341 -6.22853
-4.02121 134.617 -6.03245
-29.7741 137.122 1.46684
23.62 128.046 -4.52565
-18.5568 132.567 6.90875
-21.836 134.29 4.6237
-4.31981 129.057 8.19199
12.2359 132.755 -9.48023
17.4864 130.226 -5.92462
6.90559 134.613 -10.8336
-11.071 137.822 -9.15019
10.3741 131.901 -5.85211
4.64902 130.072 1.6518
-18.9563 137.512 -4.00662
0.302788 129.654 5.04946
20.1738 129.016 -3.87808
13.3235 132.019 -7.59109
22.5775 128.976 -5.00738
-17.6272 132.873 6.8193
-20.6796 134.448 4.72952
13.0421 132.139 -7.41864
19.4243 129.593 -4.45003
-24.9804 135.546 4.45404
-6.8989 130.161 8.11471
11.9354 128.252 2.88017
-8.46364 130.792 7.54211
0.760183 135.239 -8.17239
23.019 128.2 -2.69219
11.6396 132.289 -6.58531
17.5936 127.285 2.5097
2.03525 135.282 -8.79374
-14.8149 132.286 7.48768
14.9016 132.382 -8.25474
-19.7107 138.141 -4.0159
20.1611 127.558 0.802069
0.134965 129.969 5.50291
-15.5349 132.889 6.68998
-29.4873 139.042 -0.960483
-24.6535 139.317 -4.17024
-17.8995 133.551 6.40424
12.5991 132.548 -7.21768
0.264049 130.111 5.29669
11.1417 132.783 -6.9347
5.69312 130.559 1.6456
-10.2702 138.34 -8.93513
-23.1732 135.967 3.73385
13.3919 132.92 -8.10481
-18.7948 134.547 4.92117
5.88252 130.57 1.64491
-23.0169 135.983 3.7963
0.00919757 135.554 -7.2918
13.9905 129.164 0.971015
-26.9484 139.674 -3.07861
-13.9632 132.288 8.14382
-3.21942 130.17 7.66445
1.2896 130.898 3.6217
-31.0185 139.089 0.831113
14.9729 132.908 -8.28467
21.5143 128.587 -1.15132
15.1359 128.846 1.68924
12.6138 134.059 -9.70342
-5.78566 136.603 -6.04636
16.0358 132.192 -6.73089
-22.1658 136.033 4.15619
15.3952 128.789 2.04644
-16.9728 133.997 6.41907
20.2865 127.879 1.7328
22.6301 129.807 -4.1344
-6.89725 137.379 -7.00046
-17.3157 134.17 6.38136
-0.996256 135.997 -6.63112
12.5949 134.524 -10.0947
-21.6128 139.451 -4.0648
13.2403 132.855 -6.33023
-30.6255 139.395 1.00219
11.8089 133.188 -6.16832
-13.6559 132.941 7.88582
-9.9292 138.943 -8.70166
-7.35048 131.732 7.66082
13.6422 133.281 -7.16882
-26.473 140.199 -2.81227
-0.784415 130.924 6.46815
7.67872 130.589 2.88083
-22.9815 136.842 3.85507
12.2901 133.53 -6.6283
23.3851 129.408 -2.33666
-12.4715 133.725 6.23374
-30.9062 139.872 0.990889
-3.05276 131.253 7.43419
22.2785 130.47 -3.88549
1.98439 132.089 2.94566
2.4792 136.925 -9.11706
-17.3375 135.231 5.50513
-17.7221 139.405 -4.2631
19.8115 128.763 1.9638
-2.33242 136.87 -5.95018
-26.9332 138.73 2.50408
20.9656 129.587 -0.445619
3.86212 137.164 -9.8922
-29.0274 139.479 1.89282
5.75757 136.855 -10.0589
-3.83941 131.629 7.78426
8.02829 130.17 5.3638
-6.06554 138.155 -6.68578
4.55221 137.354 -10.0244
6.08615 132.27 1.68025
-18.4382 136.129 5.21468
-2.76356 131.968 7.14554
13.0026 130.665 2.00794
5.47056 137.257 -10.0945
-19.6659 140.003 -3.45214
-4.69638 137.671 -5.61868
2.94719 132.801 2.30344
-1.80482 132.07 6.6288
4.70942 132.812 1.39249
-17.4877 140.019 -4.49656
-7.04056 138.868 -7.16618
-21.5248 140.665 -3.81602
7.72276 130.753 5.08708
-29.2198 140.768 0.154744
13.1811 134.389 -6.61948
-16.8953 140.652 -6.02198
13.4321 135.046 -8.30821
5.43849 132.767 1.50029
21.238 130.204 -0.544546
-7.71141 133.293 7.23812
2.56971 132.98 2.59695
-28.508 140.953 -0.420036
21.8329 130.421 -1.25701
-22.7208 140.883 -3.21284
7.02433 132.363 1.947
-6.70944 133.102 7.50944
12.9408 134.488 -6.20928
9.69193 130.76 4.81668
-23.5233 138.387 3.72272
-25.1203 141.272 -2.44313
10.1804 137.128 -10.9564
17.6149 133.423 -5.82197
13.6916 131.153 1.79737
22.9922 131.056 -2.81474
-14.6678 135.354 6.6277
-9.21782 134.281 6.40455
11.685 136.812 -10.8046
-12.0888 135.24 5.71967
-9.48405 134.497 6.24787
18.0789 133.386 -5.53484
-3.69265 138.041 -5.4029
15.4361 130.663 2.52778
-22.7447 141.177 -2.94747
2.16414 138.084 -8.5359
17.6133 130.317 2.31962
-7.98906 134.142 6.61562
7.73808 132.612 2.24499
-6.46077 139.461 -6.89797
18.3333 133.52 -5.40946
-15.3155 136.34 5.49067
-6.25249 133.674 7.23661
20.7124 131.733 -2.25197
1.62819 133.498 3.64987
-0.230964 132.876 6.17623
22.3258 131.539 -2.45688
14.0935 131.431 2.1543
-28.5908 140.589 2.34351
-18.6177 137.468 4.81872
-18.0474 137.29 5.01877
-10.718 141 -7.84818
22.6047 131.58 -2.41785
7.53525 133.031 2.00974
19.7629 132.766 -3.73332
-16.0621 141.557 -6.24437
7.75555 132.875 2.47021
7.83623 131.669 5.3756
7.75899 132.855 2.52606
4.61645 133.993 1.54505
-13.7844 136.64 4.80523
-12.9874 136.29 5.28064
-17.5556 141.422 -4.83626
13.601 135.878 -7.72295
-3.51843 138.613 -5.31708
-16.345 137.085 5.19615
-23.8414 139.344 3.65924
12.0745 131.739 3.30987
13.5465 135.992 -7.81623
19.7292 133.084 -3.96658
-13.2796 141.616 -7.34682
-11.5686 135.949 5.61408
-16.8426 141.671 -5.51339
-28.1372 142.262 -0.981626
-4.72179 133.79 7.3786
-23.6838 139.325 3.90165
-15.4491 137.157 4.90266
17.8778 134.397 -5.86573
-23.3204 139.138 4.33722
-15.2277 137.208 4.81053
22.0742 131.931 -1.9888
18.9995 130.792 2.50464
-29.8959 141.751 1.55995
-11.8418 141.593 -7.58135
13.7382 135.9 -7.15427
-13.6627 137.072 4.56642
-2.09284 138.717 -5.54829
0.867812 133.795 4.92809
-26.601 142.289 -1.2709
13.127 132.139 2.6859
-12.7196 141.879 -7.43761
-29.4797 142.119 0.85433
-22.2387 138.954 4.86993
-4.9955 139.696 -6.03684
-13.9905 141.949 -6.7217
-28.9165 142.42 0.045597
-18.5057 141.46 -3.03565
13.0951 136.587 -7.65623
-11.5987 136.535 5.51442
20.6161 131.222 1.51542
-23.5252 142.38 -2.38325
-15.9285 137.953 4.54119
12.7355 132.297 3.23528
-28.8677 141.696 2.30259
-11.1011 141.994 -7.65571
14.697 135.775 -5.98365
6.62899 139.12 -9.85529
19.7801 133.895 -3.99403
-8.56784 136.226 5.37677
-3.26097 134.32 7.2379
-5.12964 135.009 6.57321
10.2842 132.521 4.52157
11.7167 137.686 -8.70667
11.3548 138.212 -9.79854
-29.1688 142.52 1.09466
-25.9935 142.895 -1.16154
19.313 134.499 -4.56591
-25.7779 141.128 3.10925
-6.1543 135.716 5.99243
-12.7773 137.932 4.20058
-28.161 141.866 2.73757
-26.7253 141.488 2.92286
-14.9952 138.331 4.45119
-23.8509 140.373 4.19848
-22.0309 139.795 4.70048
13.094 136.539 -5.87274
12.3682 137.432 -7.64516
6.54833 135.093 1.24115
21.5533 133.031 -1.61812
7.69546 134.363 2.45779
-14.8496 138.515 4.33699
-15.6247 138.733 4.32518
-0.791764 139.662 -5.6463
-9.86196 142.558 -7.88244
-7.11039 141.636 -6.99636
-9.48601 137.275 5.05771
15.3786 133.051 2.31969
15.4172 136.459 -6.02446
-21.3983 140.015 4.74933
-0.279866 134.873 6.17605
11.6573 133.117 4.17215
22.6352 132.844 -0.868536
9.2312 139.63 -10.1816
21.1229 132.458 1.15649
-7.25439 136.992 5.11993
-26.5171 141.916 3.29083
18.2558 135.839 -5.27474
19.9404 134.813 -3.61489
2.91634 140.211 -7.71167
6.76414 140.217 -9.72525
-5.99707 136.739 5.56286
4.65727 136.158 1.46613
-14.8689 139.206 4.33429
5.92473 135.946 1.34089
16.418 136.686 -5.90426
-0.0846106 140.212 -5.77715
-15.2785 139.324 4.42232
-16.5133 143.514 -5.09732
18.8348 135.809 -4.89395
-14.4183 143.321 -5.67908
13.4435 133.864 2.71904
-10.6454 138.46 4.22587
7.69151 135.344 2.20598
0.65806 140.358 -6.318
-24.3886 141.607 3.98885
-22.8953 141.059 4.57587
-1.3234 140.486 -5.36767
11.4894 138.882 -8.20507
-10.8316 138.727 4.02329
-18.7789 140.023 5.10713
-1.31611 135.654 6.60014
7.79647 135.456 2.36099
-26.5607 144.191 -0.804036
11.2999 133.949 4.23574
-4.6547 136.774 5.82942
4.86763 136.517 1.45124
16.3516 137.136 -5.78667
-20.3642 143.743 -2.53444
-19.5451 140.359 5.37467
-23.4336 144.282 -2.12236
-3.1948 136.558 6.08268
15.954 133.886 2.52054
0.201363 140.718 -5.84001
14.102 134.265 2.68911
-3.42473 136.7 5.9929
2.84398 140.841 -7.28261
1.46178 140.804 -6.44285
-19.7096 140.519 5.4764
21.8144 133.304 1.18317
1.86608 140.831 -6.63877
-9.05823 143.523 -7.44229
8.66867 134.791 4.6173
-8.27965 138.622 4.22229
7.44657 140.864 -9.55267
19.7196 135.906 -3.8003
-25.1416 142.429 3.98102
2.85232 136.79 2.99317
7.03738 136.609 1.24604
16.0753 137.391 -5.38167
-26.4657 144.671 -0.599324
1.42344 140.981 -6.30532
-7.24883 138.498 4.38655
0.0674073 136.163 6.24501
-2.59092 136.947 5.78852
-20.3048 144.15 -2.44951
-12.7164 139.804 4.18209
9.41675 134.636 5.12968
-15.2252 140.764 3.55039
-18.3155 140.666 5.43993
21.963 134.432 -0.592258
-23.9595 142.314 4.43261
-13.0771 140.09 4.25535
4.01412 137.275 2.13929
10.0894 134.832 4.97948
-14.0763 140.596 3.73972
-21.1456 141.857 4.49496
18.6638 136.933 -4.36857
11.8081 135.206 3.48791
14.8589 137.766 -4.27667
16.2798 137.874 -5.21254
-4.18508 138.189 4.949
-2.42079 141.871 -4.97888
0.108998 136.778 6.1751
2.81713 141.556 -6.83358
-9.40588 144.488 -7.47356
-24.8785 143.147 4.08787
9.35318 135.466 5.08307
11.7212 140.396 -8.01396
9.16085 141.487 -9.26428
11.1494 140.897 -8.72666
8.58508 136.572 3.22751
-27.0854 145.05 1.37541
22.2833 134.857 0.271224
-15.3894 141.636 3.71151
19.7867 136.926 -3.30257
-27.0025 145.096 1.4987
19.2448 134.461 3.09579
1.86391 137.53 4.78829
-5.83078 139.406 4.31147
-21.6731 142.789 4.42645
-1.8312 142.449 -5.06019
8.81371 136.547 3.74888
10.5675 135.809 4.63184
-22.2983 145.63 -1.99039
-12.7492 145.114 -5.71591
16.8698 135.195 2.89009
-15.0775 141.85 3.50937
-22.855 145.748 -1.89126
-25.6761 145.709 -0.25274
8.52313 141.992 -9.14668
-8.94804 140.755 3.13358
16.2418 135.447 2.81808
19.0987 134.734 3.09579
-7.37999 140.319 3.51309
-14.3296 145.359 -4.98498
-23.6545 143.884 3.83335
8.43029 137.886 1.58953
-3.13862 139.272 4.32515
6.79978 142.511 -8.82543
17.5084 138.308 -4.20214
-0.363516 142.737 -5.3848
-3.30179 143.283 -5.09562
-19.4492 142.514 5.40874
2.81547 142.523 -6.35249
20.1875 135.133 2.56857
-13.1529 142.316 2.75627
12.5715 139.373 -3.6333
-25.0838 146.181 -0.268701
11.7136 136.596 3.95942
-0.787261 143.079 -5.2525
20.6948 136.686 -0.914867
-22.002 143.809 4.25197
7.21406 142.831 -8.72511
12.0723 136.604 3.93626
-19.4154 142.856 5.3603
-22.7593 144.178 3.95694
-0.865911 139.028 5.01199
21.0312 135.668 1.84141
-20.9733 143.693 4.41937
6.19742 143.08 -8.4164
-21.6157 146.431 -1.88411
-12.4242 145.945 -5.46457
14.3996 139.267 -3.25138
-7.33858 141.51 2.84287
-16.7637 145.853 -2.77938
-13.1579 146.059 -5.14488
-14.0174 146.021 -4.54155
7.10183 139.112 1.19268
-17.6637 145.873 -2.06105
-2.73247 143.765 -4.791
5.32464 143.285 -7.78652
21.9464 136.012 1.3679
19.7654 138.245 -2.89443
-1.46505 139.749 4.6682
20.9018 136.919 -0.164547
-25.6775 145.945 2.56104
-15.5178 143.348 3.57657
9.75227 142.927 -8.54282
11.2039 137.323 4.44141
-17.5639 146.183 -1.9811
1.39826 139.118 5.49545
-21.3858 144.556 4.24236
-22.8679 145.118 3.66481
5.56427 139.682 2.0315
7.07321 143.776 -8.34023
-13.6539 146.633 -4.36949
18.6255 139.105 -2.97896
2.02079 143.731 -5.46074
0.536126 144.01 -5.22192
-22.4814 145.282 3.82693
-19.0008 146.911 -1.97358
2.22121 139.661 4.55058
-13.7499 146.731 -4.24885
20.3253 136.608 2.57675
3.01599 143.857 -5.94173
-0.669241 144.301 -4.99626
-5.36866 142.183 2.70226
6.67533 140.055 1.57018
10.0642 138.246 4.46462
3.42503 144.027 -6.15724
1.50576 139.755 5.35502
12.3723 142.044 -5.95901
-5.65992 142.472 2.52163
-24.2952 147.41 0.384752
-2.51535 144.889 -4.72807
12.3574 142.023 -5.57194
-2.55677 141.565 3.45907
0.473215 140.353 4.95675
-8.17497 147.125 -6.99574
1.84059 139.918 5.35969
-0.00843981 144.582 -4.95697
-0.35984 144.653 -4.90243
6.35998 140.45 1.8398
-21.4293 147.809 -1.38019
-2.08463 144.974 -4.58389
-16.0368 144.694 3.50734
-1.50949 141.399 4.02192
-0.175199 140.927 4.55357
4.08397 140.705 2.88026
6.87218 144.532 -7.91735
-16.5098 147.138 -1.86745
-9.62456 147.703 -6.8292
17.0599 137.861 3.20544
10.3526 138.715 4.66091
-17.3804 145.175 3.58958
-20.1611 145.213 5.04759
-17.0693 145.158 3.56388
-4.48458 146.207 -5.543
8.79153 140.335 1.83164
0.0601081 141.127 4.52116
15.5458 138.077 3.83747
21.458 138.173 0.626982
19.7517 137.466 3.30288
-12.8626 147.821 -4.71515
20.7812 139.001 -0.908985
-11.3605 148.011 -5.92828
-5.25467 143.421 2.18074
-9.41107 143.992 3.02422
9.14758 144.567 -7.92139
-23.186 146.79 3.72483
-19.7016 145.689 4.68315
-3.63378 143.196 2.30408
0.245805 141.524 4.37632
18.4813 140.334 -2.21353
-21.2135 148.469 -1.11645
5.61561 141.314 2.21662
-6.9019 143.997 2.27852
12.5349 142.872 -5.16596
18.7409 140.291 -2.12324
0.221013 141.749 4.25746
6.81397 141.455 1.54786
-12.9788 148.294 -4.64038
-1.9103 145.903 -4.60001
4.70305 145.311 -6.41779
13.08 139.076 4.41166
-12.6628 148.46 -4.89722
-12.3381 148.496 -5.15614
-14.9648 148.199 -2.96623
6.2792 145.416 -7.33267
-17.5916 146.161 3.47069
8.65897 141.32 1.47155
-23.2991 148.653 0.515894
2.53686 141.517 4.31863
-22.2188 148.829 -0.258637
15.3398 138.9 4.17764
16.2514 141.715 -3.13466
10.1364 140.354 3.58822
15.7201 141.827 -2.94791
-6.33299 147.949 -6.13479
15.4709 139.091 4.19789
-21.4237 149.065 -0.598623
3.35754 142.184 3.24991
10.0664 140.676 3.42546
12.6753 139.668 4.54063
-11.9651 145.65 2.96616
-11.6153 149.142 -5.69778
-2.16495 143.745 2.52666
11.7759 144.311 -6.21362
-22.6621 149.148 0.464355
13.6076 142.161 -1.567
21.5943 139.276 1.34102
-11.0076 149.373 -5.97843
-22.2698 147.776 3.89845
0.601294 142.845 3.99143
-6.62983 145.201 2.05796
12.7643 143.284 -3.4946
-21.6829 147.514 4.40951
-13.0894 149.37 -4.55466
-12.4715 149.439 -4.9371
-21.3338 149.43 -0.222633
-2.53086 144.494 1.9236
-1.55744 144.135 2.28739
18.6957 139.185 3.75073
12.5117 144.281 -5.31577
-6.63592 145.422 2.02972
-8.96584 145.85 2.22869
-18.7786 147.228 4.08654
-22.6889 149.359 0.947055
-22.3346 149.459 0.589257
-8.6899 146.051 2.02038
18.8354 139.409 3.74638
-5.27772 148.52 -5.65688
16.29 142.503 -2.33496
13.1461 143.338 -2.68133
7.42068 142.918 1.3866
-22.399 149.634 0.852841
-13.4006 147.205 2.07809
19.7008 139.914 2.57363
-20.696 147.961 4.68908
-2.2763 145.21 1.84171
-6.54009 149.356 -5.90352
-16.8798 148.029 3.11545
-3.98268 148.643 -5.19368
