ply
format ascii 1.0
comment Created by Open3D
element vertex 1938
property double x
property double y
property double z
end_header
-2.43019 100.123 19.9638
4.17541 98.7754 22.6049
-1.57137 99.954 20.5578
-26.046 105.585 9.94776
-1.57825 100.04 20.4705
-4.23076 100.721 19.1779
-2.1933 102.949 13.3717
8.56077 107.517 0.477019
-10.9249 102.404 15.9734
9.0743 105.862 4.692
-25.7797 104.366 13.301
-1.94354 103.539 12.2267
-9.14446 110.602 -4.34186
-22.7451 111.248 -4.04569
2.83366 110.255 -5.10366
-5.47851 104.388 10.7031
-26.8855 106.729 7.88511
-21.6327 111.159 -3.82837
4.62805 99.2749 22.305
-15.2962 110.884 -3.87797
-2.06351 104.225 10.9066
-27.9103 110.186 -0.352706
-5.75503 101.671 17.8976
-10.1847 103.237 14.6465
-27.895 108.113 5.04733
-24.3747 104.05 14.7496
0.922163 99.8677 21.8274
-20.4205 102.743 17.6697
-19.9772 111.444 -4.09002
-26.0671 105.419 11.8582
-27.2998 110.859 -1.54229
7.9984 108.397 -0.265043
-0.307859 110.594 -4.57423
3.18431 110.446 -4.65512
-5.73207 102.083 17.5401
-11.4361 110.586 -2.86798
1.47961 99.8252 22.2829
-23.8595 104.053 15.2641
-3.82812 101.559 18.7618
2.42625 99.4691 23.1099
0.351999 100.306 21.3221
-27.4728 110.852 -1.08096
2.06501 110.806 -5.04967
-4.76163 102.026 18.0737
8.62682 102.913 14.0738
-5.34709 102.276 17.6802
7.42092 109.302 -1.60535
6.13307 110.016 -3.09838
8.71179 104.582 10.2869
-25.3873 111.752 -2.83016
-10.2883 111.114 -3.33611
-2.9676 111.79 -5.98952
-20.168 103.205 17.9472
-2.30129 103.38 15.1433
-2.33382 105.41 10.158
8.39242 105.769 7.94745
-16.7013 103.135 18.0669
-25.8488 107.39 9.04643
2.57633 100.207 23.0828
-1.45499 104.009 14.4061
8.66879 109.448 -0.578596
-12.5023 103.332 17.6981
8.69385 105.345 9.90121
0.356504 101.157 21.5412
6.7066 101.609 19.5306
-1.58883 105.608 10.7129
-4.29991 103.283 16.9137
-23.8869 105.053 15.2885
-11.8346 111.653 -2.71973
-4.596 102.865 18.2795
-3.8028 106.262 9.79271
-1.1823 104.867 12.9847
-5.76695 105.937 11.0011
8.60391 106.137 8.72826
-4.50828 103.031 18.3633
-16.0879 112.611 -3.92961
-17.4113 112.82 -4.20242
-9.79343 104.5 15.5391
-10.3545 104.178 16.517
-8.89382 104.783 14.8235
9.5883 108.439 3.42555
-8.18723 112.735 -4.59216
-27.9601 112.009 0.0292305
-10.1923 104.54 16.3874
10.0754 109.708 0.787995
-3.55369 106.923 9.63954
4.96552 112.103 -4.45273
1.82596 112.353 -4.56349
-3.92554 103.311 18.8448
-16.0594 104.574 17.4777
-17.1515 104.685 17.3657
5.71931 102.053 21.1228
-21.6556 113.992 -4.7189
-12.6452 104.761 17.1275
-23.7351 113.946 -4.23634
-25.5135 107.848 11.3081
-1.71797 102.984 20.3318
-17.238 113.632 -4.05127
8.03255 111.458 -2.07017
-22.1775 114.216 -4.59888
5.7936 102.429 20.9383
-1.55782 113.168 -4.72474
-26.6003 111.418 3.13633
-26.6147 110.644 5.15204
-5.2684 107.464 10.134
-22.989 106.105 16.0318
-25.3466 107.477 12.9807
0.520163 112.901 -4.15702
-19.2804 105.292 17.5954
4.80154 102.537 21.2535
-2.81529 104.67 16.9946
-22.432 114.449 -4.53853
-1.88952 107.714 9.49459
-22.248 114.515 -4.57875
-20.4172 105.623 17.3847
-26.5536 110.802 5.3369
-18.2802 105.633 17.1698
9.52642 108.363 6.49098
-7.32541 106.127 14.4301
-2.49025 104.88 16.9997
8.40325 104.912 15.4792
-20.9513 114.728 -4.78107
-20.8665 105.928 17.177
-27.8115 113.347 -0.285463
-16.8961 114.207 -3.94609
-25.7474 114.314 -2.97237
-2.36481 108.091 9.33757
-10.1576 113.305 -2.56295
9.05377 105.549 14.1797
-21.3499 106.129 17.0305
9.47869 108.373 7.22948
-14.2083 114.014 -3.37765
-5.39621 107.574 11.4934
-14.2145 106.083 16.5479
-0.400636 103.834 20.4401
-3.72314 114.635 -5.8707
-0.131033 106.197 14.7046
-24.5378 107.654 14.4709
-4.58213 108.51 9.67648
-12.7465 113.884 -2.59964
-2.97674 104.958 18.3703
9.96541 111.448 0.441337
-14.8574 114.421 -3.46291
-10.0494 106.199 16.4038
-23.2621 115.271 -4.34069
7.78754 104.468 18.3902
-1.89655 108.683 9.22471
4.70944 103.472 21.3179
10.1579 110.823 2.23219
-6.5607 107.006 14.0882
2.37038 113.882 -4.28945
-22.4767 115.39 -4.51487
-25.5204 114.981 -3.0677
8.70058 106.891 12.4699
-2.1807 105.436 17.6797
-8.72999 114.218 -3.16185
-6.17605 107.376 13.6021
-22.3082 107.134 16.5643
-27.1124 112.792 3.16444
-8.0641 114.616 -3.8611
4.90397 113.894 -3.82914
9.66347 108.756 8.33405
-16.7185 107.131 16.1358
10.3515 110.161 4.8155
0.403071 104.42 20.5541
-1.13488 104.982 19.4283
-1.3157 105.135 19.3018
9.57287 108.687 8.97006
-25.3917 110.112 10.3757
3.49974 114.556 -4.6207
-0.939699 109.269 9.28035
0.570294 107.049 14.6793
-1.95898 109.48 9.04509
9.55418 108.696 9.42438
-26.1997 110.963 8.82237
-15.3202 115.334 -3.42048
-26.1831 111.076 8.72835
-24.7578 109.932 11.4618
-4.82054 115.637 -5.54328
-1.57761 115.041 -4.48157
-8.62008 114.87 -3.03801
9.80605 112.787 -0.389514
-6.99584 107.841 14.471
-24.6183 109.571 12.6585
10.4674 110.9 4.4558
-21.616 107.739 16.857
0.452343 115.203 -4.71252
8.82242 107.661 13.1878
-21.383 107.896 16.8242
-16.728 116.009 -3.89135
9.15839 107.046 14.9186
-23.4388 108.762 15.4591
-23.9912 109.011 14.9408
-2.11963 110.257 8.89222
-23.0663 108.728 15.8086
9.45343 108.653 11.5655
7.95225 106.172 18.0864
5.81015 114.355 -2.02406
5.89096 105.479 20.143
6.75955 114.127 -1.4791
1.08914 107.723 15.3353
-6.21713 108.706 13.912
-0.657243 106.458 18.9132
-24.0163 116.956 -4.03559
4.81646 105.258 21.2397
-21.304 108.577 16.6328
10.7592 111.522 4.89327
0.435836 105.901 20.3724
1.11679 108.535 13.7473
-25.8883 111.945 9.04779
-13.6422 108.546 15.8754
6.08105 114.398 -1.47955
-25.6657 112.259 8.29376
8.31773 106.642 17.6122
9.14503 107.671 15.1616
-27.6587 116.164 -0.758652
-24.0726 110.2 13.6625
4.3585 105.529 21.3732
-24.2153 117.28 -3.96228
-1.39691 107.112 18.2487
9.95307 109.377 11.0819
2.52725 116.13 -4.72466
-4.92727 109.922 11.9918
-16.0285 116.762 -3.51184
-14.3089 109.006 15.6122
-3.96072 110.866 9.54035
9.13004 107.507 16.1966
-25.1819 113.716 5.72888
-23.8554 110.103 14.5834
-25.4355 112.449 9.00417
-24.3805 111.009 12.4576
-6.42418 116.879 -4.63825
-0.183403 107.784 17.1978
3.56646 116.274 -4.51032
10.8739 110.754 8.32749
1.27845 108.285 15.8421
-25.4717 112.36 9.54199
-13.8737 109.241 15.7425
2.3801 106.094 21.4315
7.1542 107.037 18.4265
8.93922 107.581 16.9056
-19.5657 109.38 16.4327
8.46486 114.994 -1.42552
10.6444 113.327 2.46987
-26.7633 114.625 4.44236
-2.09335 116.919 -4.70865
-2.79138 117.162 -5.2121
-17.2094 117.63 -4.35749
-8.55821 116.447 -2.48596
-0.413596 107.4 18.9999
2.51666 116.627 -4.42387
9.78921 114.165 0.717708
-24.8721 113.131 8.2545
-25.5336 112.136 10.8604
8.78895 115.687 -2.77491
-27.757 116.657 -0.0877668
-4.04257 111.428 9.6627
-24.7587 113.265 7.9877
-18.5707 117.824 -4.20029
-11.4568 109.442 15.8219
-2.8775 117.428 -5.27972
-21.1231 109.728 16.4919
-14.5109 109.817 15.4294
-0.256053 108.077 17.852
5.53912 106.686 20.5494
-25.9336 117.738 -2.59118
0.840034 110.989 10.6376
9.45661 113.69 2.72636
0.454121 117.192 -4.69035
-11.4064 109.662 15.7843
6.6517 115.647 -1.64657
-4.62629 111.157 11.202
6.77509 115.725 -1.72234
5.43369 115.981 -2.07567
-18.1653 118.159 -4.17494
-16.4164 110.18 15.6241
9.1611 115.314 -0.695193
8.95939 115.479 -1.07289
8.56031 108.174 17.2307
-26.3383 117.946 -2.18409
1.74499 109.915 14.0168
-23.2082 118.738 -4.52622
9.63006 113.415 4.23349
-18.4925 110.317 15.8836
8.57183 115.96 -1.79636
-24.4319 113.984 7.76669
11.0068 111.397 9.28647
-18.5069 110.431 15.886
-3.07154 112.364 9.08311
7.39809 116.338 -2.10054
-8.85365 110.289 15.2626
1.46356 111.196 11.7159
-24.5697 112.401 12.359
-18.0483 118.755 -4.26079
1.5642 109.187 16.9136
-24.3236 114.307 7.78914
1.46855 109.637 16.0464
7.77714 116.673 -2.3314
6.69809 116.477 -1.65884
-28.0009 116.931 2.05663
7.06204 116.567 -1.88521
-17.6267 118.919 -4.31335
0.651689 107.913 20.7695
-23.8743 112.103 13.7801
9.38635 109.331 16.1401
8.87059 116.917 -2.72341
-11.9873 110.596 16.0366
-9.40211 110.694 15.4556
1.55521 109.462 17.0241
-5.38821 111.308 13.3842
4.30185 117.466 -3.30667
-8.77279 110.726 15.343
-25.7291 118.834 -2.43297
8.53382 115.52 1.19469
4.28665 108.107 20.4504
8.87319 117.12 -2.65239
-25.524 119.129 -2.78329
8.68106 116.802 -1.68078
-9.44029 117.845 -1.73098
1.35424 112.453 10.2902
9.71134 110.048 15.4304
0.508459 118.485 -4.27344
6.75012 117.106 -1.67872
6.50659 108.867 18.9632
-28.0416 117.755 1.63685
-7.66718 118.388 -2.72427
-25.8464 118.531 -0.477693
-24.4842 113.925 10.9283
-19.6073 119.747 -4.23099
-26.6918 116.681 4.48971
-21.947 111.898 15.9581
8.77452 114.432 5.36866
8.81997 115.52 2.65511
2.26718 111.231 14.3068
-24.3746 114.206 10.7149
-23.9251 112.938 13.8714
-15.0571 111.887 15.3358
2.01804 118.416 -3.30183
-18.5849 120.082 -4.47115
-20.5525 120.086 -4.10142
9.64481 113.479 8.37018
1.75474 113.098 10.4245
-14.188 119.255 -2.70413
10.2901 111.275 13.8427
-25.2602 116.426 5.96308
8.62808 114.65 5.68391
-12.5304 111.739 15.9065
-1.24417 114.253 8.09484
-24.6731 116.196 6.57243
-26.9595 118.475 1.31788
2.12974 109.239 20.4089
-17.9057 112.219 15.8461
-27.622 118.15 2.4066
10.2655 117.758 -1.88132
-25.1499 119.801 -1.97758
-10.1087 111.864 15.8
-10.7721 118.73 -1.17375
0.389325 114.429 8.25028
10.2707 111.258 14.7917
-16.9443 112.494 15.5261
-9.91019 112.005 15.7815
-5.17652 112.656 13.5319
8.30211 114.979 5.87568
-18.5091 120.647 -4.51545
-1.4884 119.796 -4.74289
-25.0117 120.136 -2.31201
-1.26331 119.781 -4.68654
-24.7129 120.379 -2.90581
-24.8983 120.347 -2.73553
1.53177 110.086 19.3355
-4.78185 119.966 -4.44626
-24.8992 120.378 -2.6576
-0.0386649 114.721 8.10315
-11.0743 112.225 15.8719
-21.7713 112.865 15.875
1.82446 109.733 20.4184
-27.4771 118.573 2.52925
-1.31936 114.929 8.05672
8.35805 117.246 0.949311
8.0493 116.844 2.01212
8.28432 115.129 6.31269
-22.9264 113.423 14.9654
-9.7335 112.388 15.7343
7.84403 116.03 4.33859
6.4785 110.247 19.0116
10.9205 112.341 13.1693
-23.7405 115.86 9.2783
-3.88502 114.174 10.8295
1.43008 111.485 16.8903
0.765304 115.004 8.24614
-18.9506 121.151 -4.34724
-0.304794 115.2 7.96393
1.39211 111.033 18.1966
8.25496 111.157 17.2618
-7.45082 112.955 15.1249
-26.9886 118.741 3.40712
1.43826 119.602 -2.6648
9.83953 118.744 -1.65094
-23.976 117.207 6.95205
2.70956 113.43 12.6693
10.5899 112.405 14.1603
5.57139 119.308 -2.238
-23.0183 121.467 -3.51228
10.1417 113.567 11.5891
12.184 119.487 -3.44188
4.62556 110.596 19.8119
8.95493 118.338 0.114254
-6.37942 120.543 -3.12007
1.4037 115.606 8.27961
-23.773 115.367 12.4021
10.2025 117.934 1.3493
-3.95933 114.438 12.0639
9.00797 118.455 0.253691
-24.0706 117.742 6.70654
1.82612 110.853 20.3264
14.1953 119.622 -3.27373
10.3379 119.554 -2.44784
2.58599 114.848 10.4875
9.37669 119.35 -1.67045
1.36902 111.378 19.3474
-18.4413 113.961 15.8225
2.78062 114.569 11.3779
-20.4976 122.103 -4.13576
9.42924 114.211 11.4735
10.0338 113.678 12.7221
2.65382 113.303 14.714
6.21944 120.642 -4.05681
-5.55273 114.171 13.9255
-22.8199 121.778 -2.63608
-22.8264 122.211 -3.70205
2.79292 113.563 14.3728
-23.3606 117.509 8.22117
13.3083 120.141 -3.37032
-5.31005 114.484 13.7124
10.6943 113.668 13.5301
10.2049 116.612 6.27418
-5.63551 121.379 -3.41701
8.8375 120.333 -2.78749
9.58749 112.777 16.0555
-22.6986 115.216 14.6413
-16.0183 122.037 -3.30532
-14.0622 114.537 15.1814
9.68889 120.08 -1.88514
-11.6734 114.386 15.5243
1.25857 116.75 7.9472
-23.2548 117.679 9.06795
-23.1864 116.263 12.6252
9.67952 117.874 4.05447
0.974877 121.299 -3.09322
-23.1799 117.107 10.7483
-3.30592 116.202 10.3437
-18.138 114.884 15.734
10.7111 114.027 13.8714
-6.60586 114.677 14.6915
-4.31041 115.357 12.8897
12.3274 121.015 -3.47401
-2.94996 122.234 -4.35955
9.34916 115.023 11.9764
4.99386 112.541 18.7816
1.75383 113.367 17.1755
-12.7397 114.968 15.2082
7.83684 118.906 2.54364
-16.6003 115.247 15.0941
6.18164 112.798 18.123
-3.15935 116.567 10.0336
10.6665 116.96 7.12753
3.14104 116.037 10.5325
-9.94727 121.345 -0.892675
10.1279 114.603 13.1944
10.1975 114.582 13.2718
-17.7186 115.238 15.5602
10.081 118.347 4.0104
-3.43394 116.273 11.162
2.33368 113.963 16.141
-24.5788 121.576 1.0021
-22.8661 116.093 14.4733
-19.5496 123.371 -4.14727
-27.384 120.915 3.09721
5.06074 122.072 -4.26825
10.0859 114.04 15.089
-22.8548 116.122 14.4817
14.2525 121.17 -3.25108
-6.21576 122.056 -2.54663
9.47112 121.056 -2.07628
9.60818 115.8 11.0357
-20.9297 123.637 -4.22116
-22.9729 122.981 -2.17645
-3.87751 122.597 -3.87269
14.3523 118.088 4.85981
-4.93883 122.432 -3.20566
9.43313 119.129 3.04075
-1.75127 122.716 -4.32553
-5.31542 115.662 13.871
10.3223 119.606 1.85006
-9.05254 115.209 15.545
-24.0182 122.399 -0.310847
-24.8241 121.582 1.88664
11.7738 118.855 3.61624
5.00535 113.305 18.4891
-12.6313 115.678 15.037
2.66098 113.053 19.5116
-9.59347 115.382 15.5143
9.8391 119.15 3.429
6.04314 113.617 17.8191
8.49531 122.301 -4.14188
-25.199 121.665 2.14891
9.57307 119.423 3.05534
3.44911 116.386 11.503
-2.76501 117.512 9.56196
3.54625 122.172 -2.93003
-2.6983 123.057 -4.21664
-18.4175 116.076 15.5273
-3.04559 117.294 10.3968
18.0414 120.585 -0.730273
3.48288 116.654 11.1837
9.7456 121.442 -1.63064
-23.8247 122.623 0.109238
-22.6971 123.245 -1.48916
11.1713 119.587 2.9303
-22.3844 123.637 -2.43682
-13.2983 116.196 14.9051
-25.5679 122.735 0.302107
-22.6006 117.172 13.7788
-27.2738 122.562 0.992196
-25.6249 120.153 6.78941
-23.4806 122.753 0.0113674
-22.4546 123.489 -1.94853
-25.3878 122.847 0.198815
-17.9015 124.399 -4.68343
-18.9603 116.526 15.1463
-26.8866 123.156 -0.170546
14.9024 122.007 -3.11576
-27.7676 123.768 -1.55537
-27.1612 121.236 4.69456
-22.5555 117.595 13.1791
-22.6129 117.124 14.4153
-25.4952 123.122 -0.0803153
6.39962 114.345 17.4367
2.88168 113.822 19.241
19.2959 120.708 -0.206325
3.00893 115.576 14.9033
-25.9184 122.984 0.488966
10.064 116.5 11.6819
2.63366 122.328 -1.79062
-7.40679 116.125 15.1263
-26.0443 122.254 2.51519
-26.9898 121.49 4.57636
-23.4812 123.007 0.348839
10.4537 120.678 1.46612
-22.5711 118.256 12.21
-0.0742431 123.271 -3.3831
-26.0958 122.938 1.08113
-22.5051 119.19 9.94097
8.58357 121.482 -0.0630137
4.20718 114.136 18.9722
13.298 119.192 5.17593
-23.8651 123.569 -0.553866
9.19775 121.912 -0.933227
-21.2158 124.879 -4.04979
1.29463 122.962 -2.38462
-23.6836 123.572 -0.40113
10.7054 119.511 4.96362
11.0788 120.464 2.61459
11.0346 122.745 -2.99089
-14.1489 117.067 14.6959
12.3417 118.924 6.38154
-22.3265 119.17 10.609
10.0328 115.743 14.6761
17.0268 118.532 6.83547
-22.5727 119.646 9.66442
-0.0639127 123.589 -3.29835
-4.3253 123.686 -2.92788
-5.67954 123.504 -2.21087
8.29136 115.243 16.4783
9.8301 121.684 0.301421
11.8851 119.082 6.52432
1.37183 119.39 7.23038
-25.9949 121.192 6.5911
3.7996 118.104 10.1654
10.6933 118.201 8.96367
9.02122 121.483 1.00814
-22.4044 124.354 -1.77595
-25.2732 123.55 0.673352
11.5627 119.092 6.69516
-21.5188 124.435 -2.01934
-26.2294 122.857 2.60149
-25.445 124.699 -2.06689
-0.190022 123.895 -3.30477
1.71312 119.613 7.18247
-24.1349 124.675 -1.79661
9.36205 123.738 -4.11461
-9.4769 123.44 -0.734376
11.2242 120.124 4.67647
-24.9241 121.096 7.29564
10.9861 120.724 3.23945
9.44398 123.755 -4.04341
2.11921 119.67 7.19288
-27.7679 124.862 -1.53633
2.61429 115.985 16.4082
9.82428 122.296 -0.335791
2.86778 116.49 15.1783
2.7297 116.278 15.7782
-26.2276 121.581 6.59255
-24.3065 123.599 1.29051
-19.3819 118.083 14.3894
15.022 122.829 -2.20669
9.12896 122.935 -1.44825
-26.0866 121.644 6.68128
2.50046 119.761 7.45226
4.05519 117.937 11.823
-20.8618 124.969 -2.23931
-26.9264 123.123 3.21652
-22.1533 119.904 10.6161
-26.1889 121.879 6.27945
15.8517 122.598 -1.36101
2.63495 119.773 7.55644
9.83183 122.342 0.204101
-24.6727 123.896 1.14375
22.1793 121.294 1.11394
-22.4813 119.347 12.1957
14.3296 119.215 7.43303
5.27508 124.427 -4.28369
9.87227 122.282 0.444878
16.6252 119.193 7.23137
-10.0585 123.999 -1.00998
4.05634 118.631 10.4879
-15.5408 125.279 -3.36227
-17.7273 125.805 -4.3522
11.5022 119.611 7.0799
0.416783 120.275 7.0763
-23.9042 120.787 9.20025
-21.1523 125.642 -3.16945
-23.6045 123.691 2.06527
-14.1124 118.155 14.5648
-30.5918 124.82 0.259852
-14.2835 125.263 -3.09795
-24.2472 124.333 0.689336
9.8402 124.053 -3.33011
11.8228 123.669 -2.61153
-16.1499 118.23 14.985
-1.32438 120.086 8.32306
-14.5374 125.549 -3.35998
-22.1891 125.521 -2.13537
-3.62107 124.886 -3.13469
10.0701 118.104 11.9432
-26.6781 123.299 4.11211
11.1946 120.263 6.41888
4.99099 115.907 18.1662
-31.2489 124.825 0.98706
-27.9163 124.637 1.04048
3.18889 117.793 13.8192
-2.74985 119.247 11.0278
5.42136 116.17 17.7125
-7.02792 117.975 14.9621
11.9239 120.033 7.21596
0.256376 120.75 7.13238
-18.3915 118.886 14.3841
-5.29403 118.3 14.0499
-23.1666 124.556 0.926136
1.23802 124.345 -1.92629
-26.162 122.475 6.5791
-17.831 118.813 14.625
15.8368 119.75 7.62603
-4.84189 118.482 13.6949
2.88026 117.61 14.7974
10.7753 120.717 5.95749
-23.1289 125.433 -1.0591
-22.5409 125.105 -0.269134
2.74944 120.735 7.13615
-0.351595 120.795 7.49944
-23.4079 125.116 -0.0681901
-22.7899 124.792 0.733532
-24.5442 124.222 2.40808
8.42551 116.885 16.2098
-31.3118 125.785 -0.432121
-18.6704 119.276 14.1222
-25.4676 126.007 -1.70179
-1.96873 125.453 -3.58192
9.5491 119.208 10.4425
-22.2252 120.849 10.7796
-2.67481 125.478 -3.46063
-3.30134 125.397 -3.15934
10.0554 119.335 10.1273
10.4422 121.457 4.85658
18.3977 123.006 -0.051765
-5.46797 125.113 -1.97579
8.86868 124.234 -1.76997
-21.7455 119.773 13.6804
-8.37295 124.746 -0.583593
-7.70785 124.736 -0.64976
-24.5371 124.828 1.47927
-26.3463 124.35 3.01841
-18.8887 119.488 14.1237
-22.2789 125.308 0.1604
19.726 119.595 8.6084
8.4075 123.974 -0.740992
-26.918 123.907 4.35819
-5.36982 118.795 14.1228
7.89489 125.676 -4.88049
-27.9629 124.102 4.08802
-8.02827 118.565 15.1562
14.4759 124.074 -1.70425
-29.8186 124.451 3.52728
-6.12593 125.171 -1.55797
9.41191 125.601 -4.78042
19.7162 119.696 8.56643
-20.8746 126.169 -1.92071
17.3704 123.313 -0.0848035
-24.5674 125.325 0.735259
-22.4954 125.555 -0.119435
2.85555 117.187 17.285
7.68864 125.797 -4.81824
10.1939 121.811 4.81109
1.06236 121.574 6.70785
19.8661 123.14 0.205045
-5.64934 118.945 14.249
-27.476 126.457 -1.37799
20.1235 119.855 8.49845
3.26829 118.725 13.6956
-26.2611 125.376 1.37436
20.8538 123.136 0.436967
-18.4263 119.92 13.9442
-22.8035 125.432 0.84997
10.7897 121.467 6.08413
16.1172 120.454 7.87536
10.2814 121.665 5.69173
-26.7517 124.085 4.81132
10.7064 121.022 7.26037
4.06988 117.036 18.16
-22.5927 125.744 0.180923
-24.5432 124.963 2.49595
18.4862 120.559 7.50785
9.81748 118.679 13.5149
3.45771 117.352 17.727
10.1728 124.811 -1.78257
-14.6875 127.309 -4.55446
-21.77 125.699 0.570844
4.23035 121.068 8.55589
9.4338 124.347 -0.327655
-21.8942 125.922 0.112244
-17.1267 119.928 14.4379
-9.11121 119.165 15.2282
13.9378 124.699 -1.76944
-24.4393 125.311 2.06421
-22.3728 125.862 0.427272
21.3301 121.042 6.4067
10.6053 123.308 2.26401
9.87557 125.216 -2.34627
20.5466 120.385 8.27897
-26.4864 124.851 3.72619
3.2871 119.201 13.7129
22.141 123.32 0.816339
9.32893 124.995 -1.56349
20.6338 123.555 0.554854
10.0586 124.033 0.946418
-20.7977 120.458 14.3358
-32.1379 126.744 0.264338
-0.130263 126.109 -2.55181
-18.7988 127.988 -4.62807
23.2126 122.569 3.0876
-22.187 126.994 -1.5876
11.3827 121.272 8.03617
19.882 123.824 0.486264
-16.1741 127.762 -4.27555
5.90447 118.054 16.9308
-25.7672 123.927 6.70628
-18.0742 120.672 13.7614
16.6913 121.07 7.94111
10.0775 125.547 -2.29939
16.228 121.04 8.12716
-34.1111 124.078 7.72347
-32.5219 126.331 1.88062
-15.2674 128.066 -4.84805
-2.53665 120.694 11.8499
-10.6838 126.59 -1.69943
9.43713 125.397 -1.51875
3.5563 118.169 17.3797
17.1096 124.223 0.423335
9.19278 119.501 13.3333
-22.1584 126.543 0.179947
-26.3911 127.348 -1.20945
-26.4644 125.405 3.66586
18.2085 121.326 7.64092
15.4218 121.171 8.43726
-3.76071 126.606 -2.44379
-1.54857 121.387 10.3142
-10.9845 120.058 14.967
12.356 121.181 9.08786
-19.122 128.237 -4.09236
-21.9175 127.018 -0.462867
4.94912 127.079 -4.31463
13.5031 121.392 8.7563
22.0606 124.013 1.02298
9.65326 122.538 6.43766
-3.48844 126.866 -2.52247
12.2097 121.102 9.69698
-8.93224 126.421 -0.567627
-20.9564 127.75 -2.182
-0.654109 122.391 8.44735
1.26881 126.305 -1.58794
4.47199 122.215 8.19603
3.54894 122.819 6.82553
-26.1217 127.678 -1.07997
-25.9093 124.876 5.90734
-33.9003 126.181 3.80817
23.4057 123.137 3.42514
-24.9362 124.041 7.95292
18.8303 121.21 8.92906
21.9465 124.196 1.06063
-17.5919 128.684 -4.63204
-24.415 123.453 9.39554
-26.683 125.427 4.78698
8.79176 123.77 3.98741
20.7567 121.597 7.92138
-25.6969 126.384 2.48328
-26.4977 126.123 3.2692
-25.4372 125.82 3.8917
-30.1993 127.705 -0.122764
-16.3926 129.008 -5.26598
8.81579 123.758 4.35353
-34.5539 124.592 8.34227
11.3287 122.932 6.09706
-19.59 121.431 14.1553
-22.2804 122.497 11.8706
21.3558 121.666 7.95272
-22.3895 127.62 -0.798479
-22.4273 122.652 11.703
9.88368 126.073 -1.31875
-12.2008 128.063 -3.1718
-17.4072 129.142 -5.12424
-11.0124 120.747 14.9479
16.5982 121.845 8.37783
16.4867 121.881 8.44509
-11.3044 127.805 -2.43148
-1.02847 127.42 -2.85774
11.0965 123.03 6.42786
4.70333 122.73 8.09433
17.1565 124.968 0.810191
4.34057 121.573 11.1282
-27.8811 126.322 3.81125
-27.0084 125.877 4.82478
9.63767 123.107 6.65322
-24.457 124.483 8.10211
-28.7421 128.114 -0.32704
3.72261 121.178 12.5251
-7.469 127.009 -0.455751
-31.8811 125.889 5.75704
-21.9459 127.613 0.0776128
8.95152 125.923 -0.00366157
16.7876 125.204 0.788908
-34.1261 126.123 5.59463
-2.64235 121.765 12.1232
11.3623 121.719 10.314
13.2086 126.103 -0.866132
22.7098 123.901 3.31489
22.9038 123.504 4.28783
-25.7914 126.452 3.7451
17.9823 122.112 8.56879
-6.14342 121.122 14.4482
-6.46792 121.188 14.3666
22.641 123.984 3.36505
18.2743 121.804 9.48306
-7.55347 121.436 14.0581
4.38607 123.484 7.32483
-28.2123 125.999 5.59922
-0.0741775 123.394 8.23442
-12.1067 121.437 14.8248
-26.2106 126.199 4.91715
-30.1264 126.645 4.37214
9.10914 123.712 6.23495
10.1131 127.847 -4.20061
-26.4089 125.86 5.89828
-0.484102 123.234 8.87139
-25.8862 125.892 5.79657
22.6654 123.756 4.38482
-34.7689 125.181 8.86718
-26.2107 125.888 5.91485
5.07089 123.247 8.18089
8.31715 121.132 13.0112
22.3866 124.216 3.35895
-31.2738 126.403 5.44205
-21.862 127.982 0.249562
-23.1894 123.719 11.1667
4.96984 123.488 7.84192
-29.7237 126.234 5.85776
-26.4022 125.981 6.03229
17.7695 122.514 8.57837
2.27947 124.323 6.23722
22.9143 123.608 5.18409
18.1207 122.126 9.61254
8.32467 124.442 5.22597
3.52192 121.6 13.0083
12.0583 122.865 8.67982
-1.59662 122.807 10.771
8.44472 127.032 -1.14866
-24.3593 125.587 7.05408
5.83611 120.015 16.7611
9.98703 126.558 -0.146744
-0.795429 123.164 9.82884
9.73398 127.292 -1.93661
-28.6054 128.848 -0.439633
10.311 123.611 7.26585
-30.9042 126.696 5.31905
3.22432 120.814 15.2598
10.4003 127.207 -1.66713
-1.45636 128.288 -2.69091
1.97786 124.563 6.15578
-21.7644 128.44 -0.142863
-22.0573 123.518 12.194
7.68749 126.076 1.70265
12.6857 122.801 9.24946
20.9451 123.145 7.25397
-31.2487 126.679 5.8227
-0.757094 128.358 -2.60885
-28.3346 127.191 4.15834
19.8052 123.357 7.02873
1.5087 127.768 -1.42792
-27.795 129.129 -0.664422
-26.2442 126.251 6.31662
-3.32362 128.408 -2.25594
-27.1869 129.173 -0.774797
19.7535 123.379 7.18103
-23.5116 125.343 8.30366
10.4401 122.253 11.3461
19.7151 123.373 7.28164
7.30658 120.48 16.2326
9.72645 127.619 -1.89314
9.80039 126.604 0.63374
10.4525 125.907 2.28231
0.557578 124.326 7.61557
6.44723 128.832 -4.42974
22.2944 124.574 4.04795
9.67775 126.52 0.958132
-19.6155 129.439 -2.12634
3.46829 121.06 15.6129
5.11795 124.164 7.68365
17.8511 125.907 1.59847
15.3086 126.453 0.648703
-8.35082 122.769 13.1471
12.6661 123.123 9.46527
17.1426 123.207 8.65538
-21.268 123.852 12.4148
12.0514 123.503 8.68752
-32.4896 126.555 7.3071
-29.4014 126.778 6.33507
9.42465 122.202 12.3543
3.3858 121.5 14.9831
-28.1368 126.836 6.10536
3.19388 121.904 14.1411
-13.1734 122.892 14.1909
-20.5578 128.83 0.458645
-6.28032 122.911 13.3662
3.41371 122.38 13.3526
-17.6753 123.664 13.0967
-10.3451 123.116 13.4484
-6.97336 128.432 -0.275894
-10.7928 129.716 -2.90817
-15.3659 131.1 -5.68999
1.65146 125.348 6.34478
-32.228 127.006 7.00032
-32.2558 129.328 1.21879
15.4578 127.019 0.456383
11.2026 124.215 8.05276
8.11193 121.437 15.4353
10.3832 128.318 -2.05186
9.60313 122.635 12.255
16.2486 123.528 9.10184
17.9886 126.402 1.73536
-21.135 129.546 -0.650308
-21.2619 124.595 11.7333
-28.2775 127.581 5.31243
5.50012 124.365 8.69246
9.80822 126.846 1.91058
-27.8294 130.12 -1.00461
22.4539 125.303 4.05707
-15.1808 123.641 13.4587
-1.87148 123.755 11.3446
-21.2143 129.58 -0.488585
14.7835 127.328 0.255187
9.85453 127.112 1.51142
0.218943 124.831 8.58617
7.47351 121.505 15.9361
8.36298 122.538 13.2524
5.66086 129.641 -4.08984
22.4248 125.609 3.68586
9.94802 128.458 -1.63213
-24.0485 130.614 -2.26144
14.1665 127.55 0.0938925
16.805 127.068 0.973462
4.7542 125.57 6.4326
10.61 127.121 1.7921
-21.54 129.795 -0.378358
17.2777 127.001 1.2148
9.2261 129.987 -5.09574
7.9517 122.252 14.3962
-5.67916 129.027 -0.606645
11.8288 124.759 7.64564
-21.4999 129.768 -0.124755
8.16279 128.041 0.108637
-25.0528 127.381 6.4155
-0.143847 124.835 9.33507
-18.6226 130.716 -2.75006
22.0232 124.823 6.32488
19.5416 126.661 2.0893
21.9156 124.792 6.4255
10.588 124.955 7.63956
-23.5709 126.508 8.53866
-15.9381 131.224 -4.21652
8.2146 128.198 0.0832221
-0.812657 129.697 -2.29727
2.4716 129.398 -1.99775
-12.3321 123.901 13.8147
-29.3648 127.812 6.47514
-21.6245 129.678 0.74522
9.01396 127.752 1.34964
-3.87288 123.926 12.7501
10.06 128.52 -0.637854
5.56333 124.767 9.42846
10.3817 129.866 -3.94243
-22.2288 130.858 -1.85403
8.958 125.612 6.91163
-8.83772 124.376 12.5065
-34.6974 128.38 6.13905
9.96517 127.172 2.94322
-11.4031 131.289 -4.32524
3.32782 126.472 5.65672
11.6555 125.378 7.27547
-21.0531 130.251 -0.293936
17.0342 124.259 9.39027
-23.7995 126.942 8.39692
-22.5431 131.289 -2.62165
19.2866 124.6 8.27947
-15.7972 131.614 -4.31245
8.62835 128.071 1.23397
5.8548 125.362 8.38482
-21.665 131.266 -2.38136
10.3674 129.866 -3.31308
-20.3409 130.702 -1.10549
-29.6569 130.881 -0.183596
-20.7999 125.615 11.7321
16.5342 128.027 0.51891
-27.9157 128.319 5.98605
-27.5714 127.8 7.26619
-35.0846 127.9 8.13403
12.6239 125.222 8.18981
11.6043 128.458 0.265196
3.89913 123.953 12.7021
6.89168 122.603 15.73
-11.2038 131.681 -4.36896
4.4703 124.337 11.8696
12.1163 125.727 7.35661
-28.0668 128.228 6.71242
-33.111 127.59 9.03366
-21.8255 130.241 0.861317
5.98957 125.852 7.98506
11.8535 127.731 2.47927
3.83184 126.964 5.52693
-12.348 132.366 -5.69482
13.1255 129.186 -1.28386
11.2177 129.052 -0.628774
9.88446 127.802 2.68766
-1.58117 125.138 10.9618
12.9253 125.578 7.85381
18.1293 127.905 1.37662
-10.319 131.458 -3.49385
11.3474 126.068 6.94459
8.47485 129.01 0.0122098
-31.9335 128.035 8.08153
-10.0703 125.01 12.6748
-5.0365 124.524 13.2235
5.4984 122.931 15.7395
1.40892 130.051 -1.46235
18.9215 124.89 9.00618
-24.386 128.154 6.99243
6.82117 131.001 -4.41797
-33.7016 129.795 4.2399
12.7833 125.206 9.25061
-30.4235 128.168 7.8792
-1.39248 125.376 10.8054
22.882 126.763 3.98218
12.2626 126.07 7.2087
-10.0248 131.495 -3.1404
-0.283142 125.765 9.83406
10.1402 127.094 5.06616
-0.136771 125.822 9.68695
-31.8022 130.822 1.66442
-26.8688 128.303 7.28677
20.1271 126.082 6.28905
8.56839 126.529 6.81814
10.1729 130.202 -2.47573
11.1642 127.869 3.25142
16.1294 124.849 10.1764
-33.4509 130.128 3.91123
10.3557 128.593 1.67525
4.16404 123.779 14.6393
-17.4415 132.111 -3.1399
12.134 128.306 2.26027
-30.0833 128.253 8.32314
13.2493 129.798 -1.53555
12.3536 129.522 -0.666256
20.7129 126.439 5.86711
-18.584 132.005 -2.53146
-24.2183 128.192 7.77768
10.279 130.492 -2.74403
-23.8476 128.134 7.9234
-12.1104 125.431 13.0428
-0.937885 125.854 10.4701
12.9008 126.45 7.08202
10.4933 128.082 3.37332
10.2385 128.123 3.35295
11.3757 130.093 -1.71067
12.9374 125.426 9.78941
18.7014 125.004 10.0818
2.79684 131.253 -3.28089
1.93359 130.767 -1.92658
-1.84209 130.934 -1.80381
9.43049 126.934 6.69503
-5.29416 130.62 -0.42499
12.2982 129.21 0.656735
-23.1541 127.868 8.96849
13.2825 125.484 9.92512
4.40376 123.995 14.9061
17.4118 128.941 0.796551
10.0786 124.938 11.8608
7.74166 129.036 1.97822
-0.561867 126.22 10.187
18.6238 125.142 10.2075
13.5537 125.513 10.0151
17.76 128.919 0.946054
4.13912 131.508 -3.59067
-27.2203 128.472 8.36862
8.35134 129.531 0.787374
-15.4165 132.853 -4.09983
3.06963 131.644 -3.65345
6.03595 126.268 9.38326
4.76256 127.826 5.6849
18.5625 125.688 9.1657
-23.6024 128.933 6.99033
0.544142 126.873 8.79318
-6.45085 126.102 11.7848
-11.2464 133.178 -5.13949
4.24218 124.751 13.8051
-22.495 128.255 8.84936
17.955 129.143 1.02531
11.44 126.009 9.78419
-22.1248 132.622 -1.98936
-27.1155 132.292 -0.446493
12.1733 130.522 -1.47584
-7.44522 126.659 10.9067
8.3653 124.53 14.0242
-10.6704 133.091 -4.66711
12.4006 130.059 -0.29572
-15.1265 133.166 -4.20626
-26.6323 132.453 -0.786449
4.37829 131.862 -3.60087
-16.0581 132.756 -2.98572
-22.049 128.277 9.10135
10.7153 131.802 -4.25339
-20.8989 131.67 0.485317
-20.1474 127.453 10.9424
-20.0704 132.068 -0.561083
-24.0812 133.089 -2.46028
10.1885 130.92 -1.81329
13.0286 126.47 8.90702
-24.4899 129.583 6.41503
0.8086 131.435 -1.64138
-27.9916 132.261 0.32694
9.57763 125.439 12.1608
-20.3937 128.162 9.57136
-7.34687 131.659 -0.934493
-19.8145 127.006 12.4279
7.32494 124.695 14.4269
-25.9913 128.935 8.51571
6.29235 127.094 8.63076
19.1732 128.748 2.74264
18.3337 126.196 9.27494
4.61543 128.567 5.27676
-19.2434 129.098 7.29165
-9.67002 132.798 -3.26729
12.1915 131.002 -1.80294
8.68894 128.108 5.91122
-7.65793 127.065 10.8025
21.9826 128.556 3.02577
9.40384 127.884 6.52913
-24.7781 129.053 8.37139
-25.8611 129.104 8.46642
-17.12 126.991 12.5323
18.9875 127.007 7.50534
-26.4162 129.257 8.26159
14.1951 130.828 -1.28603
-15.7781 127.132 12.1206
9.45348 128.726 4.66775
-19.8216 132.26 -0.00779294
-11.2759 126.769 12.5868
9.53702 127.981 6.66409
-3.59698 131.795 -0.985468
-2.45042 126.626 11.8109
-26.864 129.94 6.99172
22.3866 128.511 3.7454
-13.5382 133.892 -4.65569
13.098 127.247 8.21998
12.4034 131.105 -1.29274
6.50507 127.711 8.04177
9.81404 128.182 6.45551
-23.6931 129.364 8.1809
18.192 126.39 9.80993
4.2239 132.625 -3.79275
-7.80866 127.545 10.6038
-23.8354 133.557 -2.15742
10.9375 129.105 4.12115
-18.5381 129.021 8.44194
21.0562 127.876 5.80417
-33.9511 130.249 7.5802
20.0295 127.637 6.67245
-19.3621 132.835 -0.809442
-19.3163 132.947 -1.03112
8.04571 126.377 11.6174
14.3569 131.291 -1.44867
6.11732 127.155 10.1404
-21.0309 130.173 6.49897
-18.347 129.208 8.55674
-23.8703 129.856 7.77175
-23.3965 133.711 -1.86984
2.3231 132.27 -1.8296
9.24753 128.639 6.27966
13.4115 127.577 8.35113
12.3676 131.945 -2.40598
11.5119 131.121 -0.153908
5.57932 126.977 11.0274
14.3563 131.585 -1.63168
5.45667 125.78 14.1256
-0.421524 132.372 -1.48877
13.3155 127.947 7.66091
3.80672 129.48 5.25501
9.39388 130.69 1.46764
-9.49756 127.624 11.7709
-27.2595 133.192 0.344762
-24.7868 133.693 -1.24757
11.2554 130.462 1.81721
1.26747 128.368 8.45824
9.14472 130.864 1.13652
-5.98156 127.528 11.5951
-12.966 134.543 -4.94055
1.64774 132.506 -1.82464
-1.63968 127.549 11.0311
15.7731 131.074 -0.183459
-15.6168 133.851 -2.74304
-18.0548 129.47 8.56081
-10.2938 134.443 -4.93006
-5.95062 132.345 -0.238864
-21.1903 133.626 -1.31221
8.97516 130.923 1.24102
9.79162 131.767 -0.940129
-20.456 132.787 0.73091
2.4695 132.593 -1.91378
4.7272 133.338 -4.07069
6.15195 126.592 12.6861
-22.1755 130.446 7.06893
-11.292 134.952 -5.59718
-3.32609 127.589 11.7254
-26.1362 133.624 -0.124811
9.77303 131.808 -0.475959
5.30603 127.32 11.4286
-4.70441 127.693 11.9118
-23.6958 134.268 -1.76742
20.5826 129.864 3.1351
-1.29984 132.685 -0.84787
7.4956 133.66 -4.4642
-1.06031 128.194 10.4876
-19.4488 130.772 6.62441
6.41868 128.193 9.48144
-33.1997 131.44 6.90343
-4.41257 127.871 11.827
-23.1502 130.2 8.63601
16.869 131.236 0.480118
10.2246 132.203 -0.982371
9.39028 127.676 10.4428
3.18915 129.88 5.81033
2.48108 133.038 -1.96563
-8.00141 128.951 9.78347
22.3577 129.185 5.0143
-18.0031 129.651 9.48797
-13.3863 128.267 12.345
-24.4889 134.346 -1.267
-27.6273 133.654 0.937821
6.04219 129.876 5.75844
4.19535 130.283 5.01079
-14.1769 134.916 -3.94799
10.6713 132.327 -0.885329
5.82914 133.936 -4.22132
20.123 128.862 6.55738
-20.2318 134.497 -1.887
-24.7434 134.414 -0.931461
-22.9352 130.458 8.70516
-12.8769 128.714 11.6562
-8.91377 134.73 -3.90409
-12.6331 128.627 11.8741
5.47188 130.35 5.10676
-19.1202 133.974 -0.501613
9.82731 134.365 -5.3189
8.37204 128.027 10.7244
-16.7927 129.138 11.4611
21.126 129.44 5.4863
-18.8553 134.077 -0.406903
-19.1037 134.322 -0.970736
18.1598 127.914 10.0011
11.0635 132.318 -0.00269051
-20.8167 131.338 6.89227
18.6298 131.24 1.65412
14.1662 132.854 -1.67166
-11.0862 128.805 11.9571
-12.6482 129.439 10.6292
-21.0304 131.03 7.84094
-8.2913 134.713 -3.04849
20.0544 130.541 3.47244
-14.9293 129.42 11.2229
5.17235 130.943 4.64293
6.82616 129.501 8.01527
5.37988 130.855 4.85018
-31.9178 133.114 4.58207
-32.7012 132.785 5.56447
14.7937 128.153 10.5276
-19.2545 134.088 0.520791
-8.74956 129.754 9.87663
20.0555 129.575 6.48645
-19.3929 131.95 6.05936
-14.4533 135.675 -3.835
-28.643 134.105 2.07496
-27.6499 131.694 7.96098
5.51802 134.788 -4.37425
-12.9112 130.159 9.76455
-26.6408 131.621 8.06231
11.3285 132.837 -0.153518
-23.1955 135.293 -1.46584
21.2863 130.759 3.77463
10.837 132.941 -0.100418
-29.8809 133.847 3.32168
12.6619 133.892 -2.66285
11.6326 132.962 -0.194227
12.1722 129.757 7.75364
-32.0429 132.237 7.72954
-12.0994 129.982 10.6738
-1.26383 133.805 -0.26497
19.2961 129.671 7.24823
18.8089 131.849 1.94188
-22.8315 131.613 8.33314
-15.9957 131.127 8.60993
-24.4496 131.332 9.33281
10.976 133.078 0.066184
4.72988 131.615 4.59127
-10.4328 130.323 9.99765
19.4578 129.851 7.06464
-6.08353 134.421 -0.741955
-20.7821 135.72 -1.92369
6.22326 128.786 11.7033
22.2848 130.816 4.41647
-1.08973 129.734 10.4535
12.6622 129.868 8.22479
-23.1135 131.692 8.7294
4.82647 128.615 12.5285
1.47365 134.396 -1.21779
20.5808 131.286 3.91982
-32.2335 133.474 5.94553
-17.5127 135.532 -1.23063
6.63467 135.457 -4.36485
10.4003 135.618 -5.24399
11.5911 135.04 -3.92998
12.9626 134.259 -2.16532
-15.2761 132.358 6.55683
5.60717 132.078 4.35083
7.02296 129.187 11.3898
-31.797 132.961 7.38661
11.7241 133.874 -0.866837
-4.97738 130.037 11.0637
-15.9912 131.894 7.99055
11.5179 130.183 8.4815
-21.8782 136.228 -1.9057
6.63125 130.104 9.41426
-18.3586 135.394 -0.232337
12.0017 134.027 -1.00554
-5.06578 130.239 10.8909
5.91983 132.148 4.59865
5.40251 135.818 -4.45407
-32.0414 133.606 6.31943
19.0423 129.931 8.45864
-23.8023 132.069 9.11172
11.8288 134.08 -0.799463
7.13583 135.868 -4.60442
-5.03347 134.797 -0.217484
5.19545 129.677 11.2424
-23.1777 132.136 9.11899
-21.6911 132.742 7.42099
-31.5489 133.531 6.94952
10.8146 130.12 9.61031
12.7575 130.422 8.64485
-13.2418 137.131 -4.35508
-18.968 135.984 -0.649194
11.5537 130.546 8.67558
-17.9682 135.807 -0.314594
-7.15383 131.24 9.60245
-5.96972 131.008 10.0237
-6.69687 135.995 -2.10354
-30.7 133.451 7.69637
12.2433 130.767 8.43839
6.12653 129.72 11.9361
10.9001 136.03 -4.41419
8.20969 129.976 11.1007
6.38647 136.323 -4.48563
5.65425 130.608 9.8845
-11.5523 137.495 -4.87667
-31.6432 134.312 5.87747
-28.2196 133.767 6.81955
-31.6347 134.659 5.09319
5.96411 136.414 -4.50661
13.3027 130.542 9.13379
-12.6791 132.401 8.12045
8.18892 130.092 11.0172
-11.0737 132.287 8.22564
11.0261 135.965 -3.88222
-18.4163 136.027 0.147466
11.3564 135.661 -3.05584
18.0961 133.865 0.511164
-29.0984 133.877 7.10149
-27.4555 135.927 1.82383
-30.1984 135.275 3.83395
-24.7962 133.078 8.5841
10.9616 136.153 -4.00695
-19.9859 133.428 7.25819
6.70268 136.686 -4.57495
-3.11156 135.404 0.0319112
18.3056 133.981 0.67881
5.06762 133.168 4.55437
-29.9673 135.519 3.63742
2.82517 132.525 6.69465
-9.23202 132.675 8.05131
8.61164 137.056 -5.36823
-10.4735 133.248 6.80289
14.0563 130.646 9.88295
7.52758 130.504 11.2072
-22.6094 133.265 8.55935
-21.3869 137.13 -1.22242
12.2866 135.14 -0.817142
-4.36022 135.832 -0.193986
6.65024 137.064 -4.64532
-12.2102 132.973 8.37285
20.3779 132.995 3.78635
-15.8514 137.37 -2.07615
-31.1772 135.227 5.41045
-13.5782 134.101 5.77842
-17.5612 137.159 -1.21807
-23.1121 133.609 8.44037
20.392 133.099 3.77914
5.581 131.358 10.3504
-25.4059 137.079 0.491272
5.10592 137.45 -4.6641
-4.46849 136.236 -0.263814
4.27321 137.383 -4.33561
-22.9773 137.665 -1.22816
7.82741 137.484 -5.04707
6.67659 130.847 11.6883
-22.7438 133.83 8.3568
5.79066 131.365 10.5891
8.59447 137.622 -5.40378
4.88904 133.743 4.82707
19.7796 133.597 3.11889
-16.7874 137.667 -1.94066
-23.71 134.023 8.20171
5.40987 131.739 9.86711
-13.6367 134.623 5.32562
-16.9509 137.689 -1.86366
15.0806 131.43 9.44124
-5.57514 136.938 -1.42741
14.8266 135.717 -1.18014
3.7428 137.444 -3.92195
-23.7494 134.147 8.13935
3.63725 137.422 -3.84495
15.0668 135.733 -1.15109
-11.6166 134.513 5.61554
-29.1994 136.422 3.335
-8.12643 138.379 -4.47888
13.0386 131.635 9.4132
-13.5349 138.562 -4.1585
-27.7442 136.671 2.5411
-3.87984 136.397 -0.0873836
-5.91546 137.411 -2.22978
-19.9713 137.45 -0.264351
-7.11864 133.007 9.04439
-29.1095 135.316 6.37592
-25.1273 137.758 -0.159881
-4.59738 132.448 10.332
-14.6678 138.442 -3.15098
7.17018 133.868 5.34259
-14.4955 138.61 -3.37555
-18.7109 137.558 -0.0651513
-24.1902 134.823 7.56623
-0.0360181 136.608 -0.217119
15.4124 131.964 9.28838
-6.75791 133.42 8.77214
7.64394 131.984 10.3866
-25.5402 137.739 0.698249
11.2538 132.235 9.39642
-13.3681 139.124 -4.21987
7.312 134.302 5.03284
-7.631 133.922 8.07949
4.1974 134.337 5.40537
7.43502 134.185 5.42034
-13.8052 139.184 -4.00095
7.26185 133.251 7.9896
-9.21746 134.569 7.00183
16.1937 136.172 -0.516536
11.4707 137.461 -2.91372
-30.0897 136.265 5.86533
-21.5449 138.503 -0.858745
-9.59388 139.472 -4.93248
18.3634 135.709 0.620961
-10.813 135.292 5.74974
6.82103 138.604 -4.95801
-5.93577 133.913 8.6299
-11.8708 139.604 -4.68595
-28.7245 136.291 5.96173
12.2725 132.914 8.81206
1.87254 133.901 7.82288
-28.9864 136.416 6.00209
-24.0397 135.914 6.67135
7.60876 132.722 10.3524
-24.0162 135.979 6.62851
16.9229 136.321 0.101237
-4.33037 137.763 -0.450998
6.74756 138.911 -4.85343
-8.66493 135.064 6.94875
6.35766 138.931 -4.78276
11.8836 137.796 -2.64826
18.7061 132.836 8.79718
12.11 136.682 0.121912
18.2357 136.165 0.587247
-8.15352 135.046 7.08176
-19.1365 138.641 -0.355923
-16.679 139.225 -2.12067
-29.9719 136.749 5.91305
-1.30386 133.77 9.40153
-10.4043 136.085 4.9946
-15.1969 139.635 -3.18014
-23.7832 136.218 6.56096
-2.47188 137.873 -0.183758
-16.3455 139.098 -1.25244
7.67933 134.495 6.97121
7.88234 135.432 4.60807
-13.2329 140.038 -3.93745
-9.27498 135.74 6.25047
-2.40077 137.935 -0.181011
12.3974 137.455 -0.942544
14.2868 137.16 -0.431409
13.2588 133.396 9.15528
21.222 134.023 6.51686
21.1499 134.042 6.55774
-25.8578 136.764 6.36212
-17.2153 138.865 0.0500754
19.7618 135.203 4.05301
12.1169 137.077 0.458581
-13.4591 136.687 5.02097
8.05555 135.623 4.6811
14.3787 133.634 8.79299
-29.6435 137.346 5.67643
-13.5271 136.77 4.90305
6.92054 134.375 8.09911
-8.10552 135.876 6.47709
-23.9454 139.04 0.861301
15.332 137.491 -0.672972
-9.58817 136.767 4.61059
-29.6831 137.807 4.88189
3.92681 135.739 5.42351
19.3325 134.007 7.76089
12.7636 133.957 8.87219
8.15096 139.893 -5.08832
-28.223 138.281 4.1706
6.52681 134.582 8.61543
13.6939 137.68 0.00056592
-4.66271 139.319 -1.33728
3.8341 136.243 5.19714
-8.2852 140.998 -4.97903
-19.4229 136.507 7.81026
2.91917 139.641 -2.99939
-25.8821 139.194 2.13348
-18.4837 136.56 7.91883
11.2507 134.36 9.27622
-23.0905 137.477 6.32597
17.4342 137.487 0.664587
-1.95948 135.168 9.19971
-15.3668 140.656 -2.6275
-15.6251 140.555 -2.33479
-2.70623 139.02 -0.292721
14.6296 134.535 8.5381
-8.22368 137.129 5.26575
7.10993 135.355 7.57411
4.70376 140.094 -3.88991
-7.52238 141.15 -4.67316
2.84101 139.857 -2.88359
15.5016 134.585 8.51882
-26.3153 137.801 6.32776
4.80647 136.928 4.22256
2.01952 139.601 -2.04337
-9.29826 141.539 -5.25902
20.3836 135.707 5.21787
-16.6645 137.127 6.85433
-19.0313 140.178 -0.3851
-0.270792 135.357 9.17479
-16.1698 137.254 6.66654
19.8037 136.779 2.89783
-18.9358 136.911 7.97864
4.35478 137.048 4.47352
-17.5262 140.052 0.0572227
-4.36444 136.386 7.40689
3.70975 137.021 4.82858
-22.8057 137.867 6.52622
2.69955 136.602 6.19491
-27.6542 138.503 5.76299
9.21181 140.741 -4.94607
5.7353 140.653 -4.07719
16.7665 134.992 8.56142
-13.8976 138.187 5.04757
-29.0283 138.868 5.47693
12.3927 138.403 0.896126
-6.85666 137.881 4.90762
16.1592 135.25 8.41529
-16.2244 140.612 -0.424308
17.9523 135.078 8.65214
-2.9909 136.638 7.86733
8.32344 141.166 -4.96614
-21.7447 140.428 1.07359
14.7154 138.785 0.103409
-25.8109 140.172 2.3075
-8.13755 142.084 -4.82409
0.191547 136.392 8.28419
-2.10153 136.588 8.15368
-11.9182 141.835 -3.53925
-1.42343 140.091 -0.394415
2.30692 136.932 6.99761
-27.0662 139.584 4.48609
8.61816 137.295 5.24369
20.496 136.6 5.49969
18.8221 135.687 8.03299
5.60322 141.213 -3.84763
-1.50807 137.113 7.52561
-15.429 141.417 -1.20881
-12.2186 142.153 -3.25327
-26.3332 140.232 3.55198
17.1512 138.895 0.965325
2.34189 140.978 -2.14949
-13.4907 139.043 4.93156
-7.75988 142.639 -4.81406
-10.8684 138.853 5.16905
8.30036 137.407 6.13972
7.37912 136.657 8.27309
-5.84944 142.139 -3.41841
0.937159 137.27 7.81883
1.67121 137.167 7.98907
5.39869 138.578 4.01433
2.55962 141.274 -2.31338
1.81362 141.105 -1.59342
-9.8285 142.994 -4.66445
-10.4209 142.849 -4.17848
-0.592632 140.867 -0.388244
7.29449 136.719 8.95817
-11.0967 142.788 -3.61394
-24.1172 139.474 6.55891
-6.5685 142.831 -4.22404
-26.0824 141.013 3.26254
-3.41758 141.519 -1.07487
-22.4845 141.565 1.47354
-11.6554 139.843 4.32143
-25.5812 141.114 3.17074
-2.45355 141.368 -0.5555
8.66198 136.803 9.30271
-26.4869 140.887 4.02323
19.9127 137.267 6.62593
-27.4602 140.442 5.38172
-10.4302 143.236 -3.95148
-5.74098 139.53 4.6793
-9.73755 143.498 -4.48595
2.59719 138.154 7.16912
-17.8632 141.971 0.589565
19.8522 137.435 6.67968
-6.29931 143.223 -4.05636
-16.6027 141.895 0.772218
11.8541 141.19 -1.34308
-4.40619 139.418 5.37634
-4.29139 139.434 5.35142
-4.07917 139.452 5.31355
-9.41612 139.736 5.3525
-15.8752 139.535 6.81644
-22.725 141.934 1.79081
-4.68753 142.593 -2.26217
20.41 138.443 4.66068
-9.10916 143.959 -4.88809
-1.96636 139.497 5.29461
-20.4832 139.453 7.98874
15.0138 137.491 8.00143
3.2365 139.16 5.51946
10.244 137.631 8.40307
20.1269 139.022 3.62338
7.97981 137.762 8.48138
-2.21556 141.983 -0.625982
-23.5422 141.857 2.70461
13.9952 140.437 1.11778
-24.1757 140.21 7.08481
-9.61926 144.026 -4.32287
11.2517 137.701 8.57692
-26.6296 140.752 6.25386
-24.5354 140.325 7.0937
-26.5093 141.346 4.82707
-12.4837 143.684 -2.77043
5.01809 143.01 -3.35747
-17.4451 142.547 0.92898
-11.9037 143.828 -2.98742
8.38986 138.476 7.61659
3.62478 139.971 4.69659
-16.9376 140 7.53535
1.17017 139.314 6.77753
-3.30394 142.813 -1.28423
18.7421 138.059 7.7433
-22.4481 140.42 7.59243
-7.03994 140.656 4.89918
-6.28624 141.049 3.82052
-11.9651 141.089 4.52005
-13.347 140.822 5.429
3.56345 140.192 4.67454
2.18527 142.85 -1.70896
-0.584466 142.497 -0.422936
-6.15357 144.254 -4.0099
-25.1734 140.942 7.06856
-9.2955 144.773 -4.61243
-9.54389 140.901 5.11792
-26.3786 141.489 6.00135
4.21222 140.371 4.55304
12.2976 138.31 8.59179
20.5695 139.013 5.70093
-14.1562 140.995 5.62082
12.4168 141.64 0.315262
12.4744 141.579 0.524638
-15.5471 141.011 5.84772
1.98604 139.615 6.89169
-24.6116 142.58 3.22511
11.2643 143.192 -3.23582
-23.0661 142.724 2.81446
8.58623 138.762 8.38333
-22.9078 142.814 2.65516
-14.8006 143.655 -0.504358
-17.099 143.182 1.03108
-2.13659 141.231 3.85726
-7.52176 140.817 5.65273
9.42729 140.021 5.31381
0.458193 140.192 6.23068
-10.4357 144.857 -3.62628
18.9383 138.801 7.43644
-4.06791 143.936 -2.07794
1.71446 143.325 -1.31394
-1.21751 141.035 4.83077
4.47575 143.88 -3.00361
13.0711 141.509 1.76115
3.49142 143.859 -2.67476
18.5913 141.213 1.92888
5.09882 144.021 -3.1814
9.18123 139.843 6.96126
15.8357 141.96 0.801812
-4.04672 142.153 3.19174
18.0476 139.15 7.70346
9.40305 140.717 5.04558
-13.2675 141.861 5.40083
13.2561 139.222 8.36445
9.455 140.77 5.21458
-24.3121 143.332 3.52828
-15.2747 141.947 5.85843
-24.2995 141.94 7.19107
-22.9785 143.547 3.05702
9.23161 144.702 -4.26049
-11.4365 142.439 4.29522
7.34871 141.781 3.50801
-3.49553 142.617 2.93755
-10.9587 145.453 -3.0537
19.2619 140.049 6.22872
-11.197 145.324 -2.66871
9.17174 139.983 7.84274
11.8461 139.635 8.38219
17.8077 139.605 7.69641
6.27859 144.855 -3.65055
9.01826 142.032 3.16891
-18.8775 141.974 7.33894
15.6789 142.567 1.12923
-3.50616 144.919 -1.90284
-10.6178 146.056 -3.73436
12.8499 143.234 0.103758
-0.300669 144.322 -0.712222
14.8241 139.964 8.06579
18.4075 140.142 7.15707
9.36971 142.401 3.14544
5.77795 145.193 -3.31926
-11.0934 146.051 -3.04424
5.35469 142.408 3.81927
-11.5652 145.847 -2.32665
-0.908014 144.651 -0.759972
-6.86187 146.719 -4.73583
4.6599 142.634 3.87805
1.00111 142.388 5.0367
1.11747 142.416 5.04998
-21.7542 144.767 2.45027
13.144 143.281 1.39424
-6.93849 146.894 -4.8086
11.9452 144.462 -1.27917
10.5177 140.752 8.28369
0.857994 142.637 4.93315
-22.1548 144.783 2.79722
-20.0477 142.966 7.09072
-2.95083 145.559 -1.75574
-20.605 143.162 6.97696
-14.8047 145.198 1.19124
-19.2294 145.331 1.51415
18.9258 142.715 2.75541
-7.9068 142.994 6.16864
9.56772 142.696 4.51209
-22.3361 145.059 3.23184
0.236592 143.307 4.60956
-6.52075 143.063 6.24468
1.69317 143.103 5.1284
4.64916 143.415 3.9457
-0.220047 143.862 3.53584
2.76106 142.763 5.87307
17.9652 141.446 7.05586
0.608938 143.449 4.63538
-13.3277 146.123 -0.0916575
-18.5563 145.753 1.56209
-13.2218 146.23 -0.239588
12.2885 141.618 7.96924
11.8043 145.273 -1.07291
0.819737 143.615 4.62367
-2.06794 146.204 -1.40657
-10.3818 144.136 4.92908
5.78638 143.923 3.22381
8.05391 144.082 2.78453
9.71715 143.879 3.07667
12.4277 145.109 -0.361524
1.01932 146.01 -0.912828
-2.27312 146.517 -1.59273
-2.61593 146.634 -1.81186
-5.34415 143.774 6.07735
18.736 143.793 2.74602
13.8489 144.3 2.23012
-5.65481 147.847 -3.88691
10.3621 146.513 -2.68898
3.86066 143.883 4.83699
9.72719 143.059 6.14816
8.32968 144.568 2.68768
17.2968 142.294 7.19383
-14.6971 146.318 1.68917
-3.73573 144.225 5.41793
-6.30106 144.162 5.98092
-11.3614 144.937 4.76016
-7.22639 144.33 5.75342
-6.47501 144.231 5.923
11.303 146.247 -1.57741
11.4298 142.839 7.00886
-3.22006 144.351 5.28975
-4.48129 147.778 -3.04359
-10.3978 148.493 -3.88842
-17.0085 144.303 7.53542
-14.0512 146.965 0.613693
-6.69243 148.594 -4.38008
3.77056 144.308 4.87003
-8.42727 148.678 -4.23363
9.88771 144.205 4.65325
-9.75367 145.081 5.26016
-21.5269 145.168 6.76851
-15.3649 145.03 6.37078
9.90267 144.146 5.06704
2.70055 147.267 -1.58481
14.8144 142.905 7.64617
4.11739 145.248 3.35502
-6.66926 148.92 -4.26821
4.94436 147.666 -2.613
18.637 144.071 4.58766
2.08376 144.989 4.62437
9.94947 144.297 5.33128
-4.62506 144.797 6.19943
-5.40953 148.798 -3.63093
-18.9313 147.185 2.29751
10.0204 145.279 3.31279
12.3813 146.791 -0.623785
14.2524 145.555 2.20637
16.9819 143.611 6.70967
-13.6879 148.146 -0.320523
-14.6448 145.69 5.97078
-12.7333 145.889 5.35875
-13.7769 148.223 -0.214682
15.7777 145.621 2.22416
12.8639 143.862 7.0299
9.79296 148.013 -2.8586
-6.99547 149.44 -4.07692
-5.2607 149.125 -3.51865
-13.9244 148.189 0.0306747
13.0536 146.31 1.19022
-8.47581 149.602 -3.94433
18.5628 144.884 4.0829
-21.2291 146.751 5.06475
-15.2641 147.677 1.98568
-13.5954 148.637 -0.593176
-21.1607 146.783 5.15418
17.3551 145.884 2.39047
10.3638 145.468 4.73261
3.78494 145.971 4.63503
-11.772 149.708 -2.42123
-18.2956 146.005 7.76459
-0.535556 148.601 -1.1754
17.8737 145.657 3.63095
-19.7311 147.742 3.72947
12.0804 147.819 -0.8225
3.86573 148.721 -1.91997
8.86146 149.026 -3.36938
9.56546 146.927 2.36711
-15.4831 148.432 2.18534
-15.6243 148.368 2.41248
3.47901 148.965 -1.72254
-13.7289 149.344 -0.217281
13.0267 145.122 6.64663
1.15133 148.867 -0.989046
12.9784 147.272 1.51585
-2.44577 149.664 -2.27895
10.4252 146.907 2.98927
-18.2315 146.746 7.44202
-15.9039 148.469 2.82422
-20.0828 147.71 5.32909
15.1999 145.381 6.24901
16.8771 145.796 5.00037
-12.4915 147.364 5.3666
-14.1053 147.202 6.04954
-19.2337 148.272 4.10242
10.5447 148.917 -1.60741
12.2062 148.232 0.0909937
-10.0387 147.564 4.9845
-15.939 146.856 7.74665
