ply
format ascii 1.0
comment Created by Open3D
element vertex 1935
property double x
property double y
property double z
end_header
-11.2294 95.001 -7.88604
24.8403 126.954 -4.8174
14.7728 117.277 -4.23027
5.07798 100.279 10.372
23.4875 122.829 0.509745
7.12347 108.784 -1.65859
24.0351 121.883 3.25235
11.404 109.527 4.38353
19.4643 119.113 0.592897
15.1275 112.545 5.23388
17.1406 118.441 -2.08029
-8.13343 90.8882 5.29465
22.2126 127.736 -10.3531
20.6912 120.204 0.92856
-16.6287 88.0767 -3.84895
-3.61507 101.934 -7.0228
-18.7454 85.3296 -2.41417
12.7489 111.156 4.04834
8.9656 110.08 -0.397767
-17.327 87.4474 -3.65604
23.7675 122.732 1.86611
27.6257 130.963 -6.58049
-6.24661 92.0757 6.86522
-15.8462 89.2205 -4.25775
15.8509 112.59 7.04598
15.2542 112.994 5.36633
-0.98344 104.341 -6.43764
16.1646 112.186 8.44087
16.9312 118.925 -2.55751
23.9625 122.659 2.62858
25.1869 123.95 2.3555
12.9285 114.282 -0.840648
-3.75335 102.151 -7.06547
25.0823 129.155 -7.28611
15.6644 112.931 6.39372
27.5156 131.391 -7.17913
17.1658 109.539 15.1673
24.5397 123.24 2.69219
18.1647 118.449 0.601936
-3.22465 93.4727 9.85537
16.3955 112.109 9.23611
13.5401 112.291 4.1138
27.1139 131.514 -7.9159
-1.42323 104.165 -6.50453
-17.7129 87.3799 -3.5022
26.9421 130.374 -6.01324
20.562 124.002 -5.18868
9.17013 106.664 7.14594
-1.62393 104.129 -6.53965
16.6862 111.312 11.7184
7.15391 109.535 -1.24046
12.8833 115.061 -1.55379
26.0933 124.608 3.50427
24.0393 122.966 3.06734
-16.0824 90.224 -5.3985
6.21415 109.486 -2.60482
22.9903 123.183 0.966806
-6.1336 100.155 -6.51905
-14.1709 92.6809 -6.4843
23.1424 119.167 8.65456
-12.2864 95.0525 -7.55571
-0.157838 105.503 -5.9833
-1.43673 94.8105 11.4817
2.24443 107.227 -4.89439
4.35829 108.909 -4.35319
11.4718 112.912 0.557007
23.7266 121.945 4.97423
-16.2555 87.4972 -0.11613
-3.55615 103.006 -6.84223
5.29236 102.014 10.0764
-9.78783 97.8099 -7.91598
8.89872 106.711 7.64861
8.31421 105.504 8.86921
26.1859 126.01 1.81803
12.5731 114.909 -1.03577
-6.4384 100.242 -6.53645
22.0527 123.524 -0.558039
20.4351 127.27 -10.0882
12.4194 114.601 -0.559629
20.6976 124.165 -3.86643
20.9536 124.654 -4.27539
-13.5082 94.0001 -6.88972
18.0949 111.34 15.2607
-5.13301 93.6072 8.17989
9.27034 111.481 0.0514778
15.5475 119.553 -3.99986
-0.439244 105.811 -6.0702
26.0339 126.062 2.05761
23.4747 119.188 10.2955
16.2332 113.393 8.57628
4.84419 101.975 10.0647
9.89334 109.333 5.29056
21.8219 122.423 1.71143
22.8226 126.684 -4.35464
23.8672 122.925 4.31447
23.7564 122.564 4.82719
15.4393 114.478 5.47518
22.5757 120.584 6.46731
21.3802 115.407 13.9115
2.46504 99.5567 10.7487
16.6609 111.238 13.5967
0.237942 97.2657 11.2083
-13.1342 94.8508 -7.08766
21.7703 116.127 13.4741
-15.1361 88.7195 0.728104
-16.2837 91.2724 -5.84461
22.2768 123.21 1.48618
12.9772 116.973 -2.85022
9.11469 107.911 7.16825
5.788 103.637 9.34281
25.6073 125.976 2.30695
5.84035 110.197 -2.50965
22.4612 127.312 -5.44896
26.1097 125.359 4.38987
25.5079 126.488 1.35477
-3.19959 104.138 -6.66519
12.961 117.161 -2.95042
-0.928558 96.501 11.1974
23.7655 124.434 2.20054
20.9221 124.055 -1.8726
15.0109 115.085 4.48291
-15.775 92.1357 -5.98961
-18.8268 87.2492 -2.2474
22.2431 120.055 7.73059
25.4657 126.403 1.63904
9.59617 109.377 5.75096
26.1265 127.326 1.22467
22.5025 121.021 6.59983
24.2871 124.511 3.26546
17.3698 111.914 14.5273
22.9933 124.816 0.54151
8.90777 107.865 7.58784
-19.1277 87.4592 -2.78312
7.70681 111.313 -0.60567
18.2599 124.864 -7.3964
16.8519 111.986 13.7883
6.17557 110.477 -1.63981
11.8483 115.026 -0.268367
26.4472 127.794 1.25679
27.23 132.841 -6.6307
25.3647 125.837 3.01006
24.8066 125.711 2.31966
-0.732699 106.565 -6.17147
-0.165763 97.6601 11.1348
25.3316 131.753 -7.75006
17.8567 124.921 -7.93817
-2.36365 95.3857 11.7046
10.4355 113.413 0.61763
17.7201 120.778 -0.442443
19.6662 114.242 14.8572
21.1245 123.998 -0.49818
23.6079 125.355 1.25234
25.6971 126.028 3.58963
10.6982 113.733 0.579954
2.19403 108.732 -4.66951
8.40419 107.336 8.55214
5.71227 104.629 8.92926
6.7799 105.614 8.96165
-10.3257 98.9643 -7.99406
21.8306 123.708 1.56658
24.0014 125.504 2.02747
21.5994 124.219 0.296018
0.566048 107.91 -5.65042
21.6324 124.433 0.170386
18.131 121.761 -0.891542
-18.4993 89.1944 -3.71999
23.895 124.726 3.55303
-2.1469 105.818 -6.18303
23.7686 124.077 4.61005
16.9341 120.588 -0.647504
22.6775 123.885 3.11656
19.9722 123.174 -0.137118
4.98313 104.044 9.31813
25.8223 128.824 -0.440682
-18.8652 88.1689 -2.21428
11.5852 113.056 4.15693
-5.92427 94.5978 8.11538
-11.9323 97.7791 -7.8645
20.8136 124.165 -0.252239
-8.79309 93.2381 6.0081
23.426 124.326 4.09223
27.2395 132.93 -5.05101
18.7941 122.637 -0.603987
24.1178 124.643 4.82725
25.7316 125.826 5.42417
9.91348 111.401 4.94884
18.2184 126.586 -8.63812
26.1604 131.402 -3.90934
23.7099 124.998 3.6503
23.8484 125.541 2.91457
-12.9587 91.1658 3.10584
27.2226 133.018 -4.97273
21.646 117.873 13.2463
-10.6205 92.6228 4.46286
12.2893 114.299 3.93509
0.4512 99.5917 10.6682
-3.58813 95.7735 10.7724
-2.87452 95.8753 11.83
22.4945 122.085 7.12237
16.8773 113.517 13.3017
8.70089 108.823 7.98192
2.18312 101.672 9.95935
22.0197 120.6 9.25296
13.1718 119.688 -4.09763
26.7575 128.218 3.46097
21.8734 124.419 2.12072
24.6921 126.589 3.09082
-10.5086 99.8809 -7.98876
22.136 119.195 12.3877
5.00987 111.575 -2.71531
23.6379 124.754 4.92452
15.5892 116.383 6.61743
22.4587 122.132 7.89603
-18.6379 90.255 -3.72143
19.3455 124.303 -1.2558
8.29407 108.583 8.7155
24.4215 127.548 1.54071
8.85064 110.174 6.79686
-1.53418 107.329 -5.68143
21.4984 125.828 -0.272164
14.0368 121.171 -4.43679
1.23387 101.362 10.0457
-2.79652 96.7576 11.6514
22.3359 121.816 8.656
-17.9155 89.5253 -0.835359
10.8568 113.508 4.32939
16.3717 122.353 -2.39939
26.5999 128.269 4.25118
20.2708 129.609 -8.97673
-17.5314 92.4113 -5.30371
10.565 115.517 0.308166
17.6858 126.209 -7.03329
16.2233 122.972 -3.59082
12.5052 115.51 3.7364
8.26323 108.891 8.6669
22.3045 124.695 3.74087
-18.4695 89.9536 -2.16445
22.2099 126.75 -0.142293
20.4492 117.435 13.9383
-6.99394 103.635 -7.55616
17.6636 114.68 14.274
-16.1481 94.4227 -6.25291
17.4815 126.381 -7.40059
20.9256 118.104 13.6181
16.1363 123.126 -3.71606
-18.4626 91.0069 -3.9132
3.42412 104.126 9.40744
9.35564 114.513 0.519135
24.1844 127.853 1.42162
23.3855 125.861 3.75698
-6.7054 103.929 -7.3896
25.6177 130.454 -0.761481
23.5297 126.449 3.07724
11.294 114.507 4.09581
0.685331 101.388 10.0499
-18.288 90.2732 -1.93257
-18.5804 90.2421 -2.35436
22.6838 125.415 3.61791
20.1798 124.53 1.01759
-19.0918 90.244 -3.15715
26.1952 134.201 -6.35383
-7.42128 103.504 -7.4784
22.5953 125.63 3.37112
4.45569 112.351 -3.19757
18.3924 128.32 -8.59751
-18.9341 90.4369 -2.88791
-6.49616 95.7402 8.61535
-13.8946 97.4418 -7.03234
22.3573 125.149 4.13206
16.4335 122.898 -1.72925
23.5096 126.393 4.00393
-15.9651 95.317 -6.3911
14.4322 117.845 4.20839
20.3694 118.154 13.7612
11.7141 119.055 -2.60272
19.392 125.775 -1.7695
25.2551 127.49 5.16306
20.2595 118.121 13.8015
26.894 134.615 -5.04684
22.3751 126.184 2.70528
-16.3461 91.2422 0.654587
19.2259 124.97 -0.335386
12.793 121.115 -4.23927
21.0716 125.996 0.946828
-18.6605 91.5374 -3.66862
-14.9813 91.8181 2.26754
15.6689 117.003 8.43949
15.9548 123.796 -3.48892
23.3951 125.992 5.20679
21.9802 122.441 9.3648
17.3752 127.133 -6.98355
-4.43969 106.23 -5.8013
-11.5724 93.8673 4.6616
11.0841 115.448 3.88809
3.76211 112.891 -3.88297
-1.26292 108.984 -5.23571
24.9328 133.899 -6.08785
21.6405 131.79 -7.83694
4.15662 112.991 -3.23698
18.9526 117.178 14.3529
20.7741 124.878 3.39036
16.9954 124.5 -2.3143
26.5036 134.95 -5.21206
14.9093 118.831 4.53049
26.8952 134.835 -4.29791
18.6645 129.386 -8.34371
21.1176 125.85 2.30856
25.8806 129.094 4.53154
-9.42065 102.642 -7.19555
22.991 127.456 2.69855
23.8441 133.251 -6.40397
26.1007 131.745 0.201432
0.2457 102.464 9.71294
25.7201 133.297 -3.18915
20.6338 124.972 3.45277
-16.2385 91.9264 1.13952
6.9531 114.314 -0.214683
15.9172 123.964 -2.56981
-15.0008 92.4698 2.39561
14.5808 124.15 -5.06155
-0.0460615 110.612 -5.12093
25.9493 129.919 3.98156
17.4334 127.343 -5.74634
22.7793 132.995 -6.95119
22.2363 124.159 8.35535
25.7876 132.304 -0.283269
12.1399 121.739 -4.20014
4.10107 106.999 9.22082
18.1942 129.517 -7.9011
-6.65692 105.693 -6.65596
23.4566 127.795 4.2257
15.5765 119.872 5.31421
26.6889 135.332 -4.02668
22.6568 125.581 7.07801
19.1182 126.858 -1.2815
-13.2866 93.8057 3.97642
26.6477 135.4 -3.94518
-7.65371 96.7063 8.44876
25.5351 133.679 -2.62224
18.5794 125.393 0.7299
-16.7385 93.0944 -0.276939
26.0884 132.435 0.776377
-0.549979 110.853 -5.11491
22.5252 127.66 3.47436
5.96615 108.844 9.73932
7.80609 110.967 9.03319
20.6773 125.675 4.0622
0.627569 111.842 -4.73528
25.6854 134.065 -2.67527
6.97937 109.951 9.5764
16.0571 120.221 6.30645
-18.0851 92.855 -1.76724
19.4672 131.315 -8.10978
-5.47357 106.882 -5.86891
22.7143 128.098 3.42257
-11.5673 102.321 -7.80351
19.2366 119.232 13.8233
-11.6398 95.102 5.36277
6.26281 114.948 -0.433535
20.4357 126.725 2.2548
25.323 129.947 4.72402
-17.7458 93.13 -1.31262
20.0992 125.631 3.85162
-9.23985 104.761 -7.83173
9.0369 114.163 6.11601
20.8048 121.526 12.7872
5.40556 108.908 9.68002
25.2446 130.193 4.61961
21.1192 122.116 12.4716
-16.9673 93.7429 -0.492792
-3.36239 99.8979 11.4881
-10.3474 103.971 -7.80012
24.605 135.392 -5.72051
17.4503 129.764 -7.5507
16.8855 126.798 -2.94816
16.0738 126.852 -4.41778
17.535 127.437 -2.99479
22.103 126.376 6.78721
-14.1326 100.626 -7.77614
-8.21425 97.2887 8.44503
3.55772 114.527 -3.02408
4.17105 114.56 -2.03342
20.0737 126.075 4.0001
-16.2542 93.7378 1.25475
1.78233 106.294 9.01974
20.1956 126.413 3.60683
21.0682 133.024 -6.98806
15.9225 127.031 -4.75133
-16.1937 93.8016 1.39476
11.7784 122.901 -4.15264
-12.8783 102.06 -7.92636
-5.11773 107.958 -5.43829
17.8127 127.429 -1.92865
18.7185 119.776 13.6301
25.6975 133.039 1.33952
-4.81716 108.226 -5.2504
13.8259 120.685 3.74018
23.1409 134.903 -6.36622
-1.15979 111.405 -4.76716
21.3648 123.981 10.6334
-9.91709 105.043 -8.02388
25.2186 131.565 3.38152
12.3275 124.01 -4.72798
1.80335 114.028 -4.29483
17.0218 127.743 -3.34196
25.1059 131.109 4.32032
9.83402 119.928 -1.24328
-1.52081 111.231 -4.66831
22.1337 127.688 5.66833
3.2338 114.921 -3.1777
6.00655 116.044 -0.498396
18.6529 127.82 -0.469324
18.8474 128.877 -2.0358
-16.5336 94.5959 0.406441
-0.542726 112.33 -4.76016
16.8976 128.078 -3.82964
-12.1578 95.9335 5.63112
25.3761 132.961 1.90206
21.5615 125.442 9.18047
18.459 129.018 -2.62267
16.0188 120.597 8.64551
19.8542 129.66 -1.38262
17.8492 119.69 13.441
-15.8282 99.4251 -6.82157
-18.5329 94.4251 -2.27586
23.2452 129.855 4.17655
12.2845 120.049 3.45188
7.59052 112.754 8.80279
7.48484 112.51 9.12031
20.0357 129.315 -0.147334
5.54929 110.337 9.88882
8.66094 118.736 -0.159031
23.7618 135.966 -5.81072
-18.1821 96.2054 -4.52808
21.465 126.585 7.47533
4.05272 115.511 -1.89537
19.8157 127.072 3.81941
14.7693 127.308 -5.19508
16.4006 129.238 -5.9181
-16.8435 94.9845 0.133173
-5.88985 108.503 -5.88789
17.7871 128.859 -2.77118
18.0173 131.704 -7.54815
25.6697 134.529 0.340024
-17.1021 98.1238 -5.94324
19.347 129.906 -1.89927
25.0503 136.833 -4.8413
-4.56754 100.314 11.5817
14.2313 121.967 4.04346
20.1647 129.515 0.41868
-18.5466 94.6405 -1.71133
25.1465 135.075 -1.21839
-17.1421 95.1445 -0.141976
-0.927284 105.019 9.51161
21.2064 126.172 8.58547
-17.1862 95.2253 -0.146119
18.2067 129.502 -2.43677
-1.64939 112.044 -4.32974
18.3458 128.407 -0.182526
21.5316 129.208 3.83726
18.0186 128.116 -0.142727
-8.31046 107.399 -7.00976
-16.6992 99.2896 -6.35625
2.74105 108.958 9.18917
-16.4474 99.6883 -6.54934
8.80239 116.077 6.49663
-11.6557 97.0502 6.53394
18.2015 127.223 2.23497
-8.81812 98.4559 8.83791
16.5388 120.603 11.5546
18.1445 127.839 1.08278
19.7601 128.149 3.36124
21.626 129.076 4.95562
20.9276 126.976 7.62547
16.2313 122.886 7.14389
17.4759 129.535 -2.89308
21.3882 129.471 3.93274
0.819085 107.454 9.2296
20.7358 134.726 -6.68797
20.8657 127.187 7.33099
8.16896 119.189 0.347982
21.7182 135.663 -6.69009
26.1145 137.328 -2.19151
-12.3581 104.553 -7.77936
15.009 128.637 -5.16973
21.5061 129.143 4.98226
16.0425 123.51 5.98202
17.4292 127.515 1.04318
-13.4986 103.485 -7.69171
24.3567 132.308 4.11269
9.42223 117.832 5.16079
16.1423 129.095 -3.8866
-16.0264 100.799 -6.78731
22.6758 130.731 4.40813
-6.51856 99.9155 11.038
-5.23152 100.862 11.5508
19.0688 128.667 2.17238
10.3062 123.513 -3.31548
19.4012 128.981 2.25604
17.2096 128.472 -0.449534
8.55225 116.222 7.22055
18.641 128.591 1.80557
24.4206 133.293 3.13027
-17.4493 99.1429 -5.73484
19.5348 129.387 1.98603
14.9617 123.788 4.49385
7.79774 115.034 8.32801
16.1347 121.823 10.1176
-3.50951 103.109 10.9174
16.0657 130.231 -5.30803
17.6873 130.512 -3.01294
0.732579 108.026 9.2483
11.806 126.131 -4.92168
-10.8674 106.747 -8.04459
19.2235 130.144 0.45124
16.2018 123.437 7.67363
-0.407423 107.03 9.4528
19.871 125.298 10.5952
12.0444 126.574 -5.04738
19.9348 125.774 9.87802
9.998 123.515 -2.88172
-1.33551 113.571 -4.00098
23.6949 132.139 4.75048
24.5599 137.823 -4.13652
9.76075 122.877 -1.98818
-17.6184 99.2852 -5.47483
17.1821 132.627 -7.15382
6.88287 113.792 9.78595
10.8302 120.707 3.92922
17.2382 130.501 -3.0624
18.2214 131.475 -3.09222
9.17496 118.1 5.97683
-3.84639 111.558 -4.19726
-6.38992 100.716 11.3226
7.81991 119.798 0.645374
-7.62011 100.073 10.4271
-9.62245 108.002 -7.48197
-1.4433 113.792 -3.88692
1.76301 109.707 9.10402
2.1754 116.974 -3.47328
7.96898 115.933 8.30769
17.5072 122.464 12.6663
-17.1321 96.6779 0.83834
18.4249 123.254 12.8898
-18.292 98.5847 -4.5131
13.2426 128.612 -5.69735
14.8445 124.69 4.24594
3.98585 117.823 -1.68226
2.91224 117.325 -2.59952
19.5019 130.475 1.63608
10.109 120.132 4.55705
-17.4717 96.7001 0.428418
9.42167 119.175 5.18981
-3.50678 112.172 -3.9997
-2.17999 113.212 -3.64156
9.08708 118.394 6.18901
-18.3942 98.4794 -4.19668
15.9414 130.25 -3.67359
-17.3372 100.366 -5.68693
18.3569 130.844 -0.528048
25.202 137.408 -0.846766
22.4204 137.825 -6.28354
-14.4874 97.5663 4.61105
21.1375 129.747 6.52206
23.3572 132.728 4.9504
18.3669 132.572 -3.23738
-0.828755 107.802 9.37806
-5.29076 111.427 -4.81869
9.0424 118.755 6.21381
-2.24514 113.612 -3.51596
22.4495 138.086 -6.19322
-0.589761 108.136 9.36654
-18.0621 98.0276 -1.84809
15.9769 129.947 -2.22534
15.9703 131.973 -5.93443
8.1664 121.564 -0.0787438
-17.147 97.3103 1.20609
18.5491 134.909 -6.70546
-16.5274 102.185 -6.60941
18.1997 132.72 -3.2762
24.8984 137.15 0.0888882
17.5897 134.165 -6.78072
-1.07924 115.146 -3.78999
17.419 123.666 12.1938
-6.22632 111.356 -5.55336
-17.3002 101.069 -5.59755
18.8305 125.907 10.55
24.8519 137.352 -0.11081
-8.05057 101.092 10.2007
16.2663 132.534 -5.81221
12.8624 124.565 2.98131
4.22179 118.98 -1.50587
3.87809 118.853 -1.80958
-13.2039 98.7925 5.85192
14.5551 125.725 3.8889
10.83 122.226 4.02292
0.731001 117.048 -3.70383
-1.95421 107.324 9.51446
-5.09737 112.237 -4.81786
14.4217 125.729 3.80374
18.4842 133.298 -3.09549
-12.6088 99.1715 6.36417
15.706 126.169 5.23046
0.598418 109.963 9.2228
-17.5648 100.957 -5.24846
-11.8632 107.718 -7.81413
-5.92494 111.977 -5.43883
10.5365 126.736 -4.36572
25.0954 139.193 -2.32533
-15.3607 104.129 -7.03959
-0.230788 109.319 9.30683
-7.75672 111.12 -6.61131
8.82429 119.141 7.0999
-1.75818 115.07 -3.469
3.02528 112.369 9.62934
23.3265 139.253 -4.94307
7.87535 122.176 0.0162647
-2.38363 114.523 -3.26761
9.71806 125.948 -3.54299
-14.1088 105.909 -7.4264
15.1194 126.652 4.44073
-6.16585 112.387 -5.71986
-3.24544 106.471 10.1095
-13.8392 106.227 -7.44956
0.430612 117.351 -3.46302
-17.614 101.457 -5.07804
-17.8182 99.203 -1.25421
18.8068 136.559 -7.09219
-17.9863 99.2884 -1.60106
16.9707 134.109 -5.72051
17.0821 134.829 -6.79528
15.5813 132.088 -4.32265
16.0677 132.353 -3.94668
16.9588 131.449 -0.743549
16.4629 126.101 8.21361
5.12993 120.237 -0.363847
23.2915 139.612 -4.83731
-6.49851 112.524 -6.02058
7.9819 118.088 8.49654
-10.1263 110.143 -7.75919
17.0129 134.408 -5.8937
16.7623 132.886 -3.48623
-5.13966 104.45 11.3101
8.7185 119.452 7.56205
17.134 134.445 -5.49718
17.0422 125.005 11.6237
-15.5026 99.1197 3.53582
5.34552 114.816 10.5694
9.28126 121.419 5.31495
-1.68436 115.938 -3.25741
-3.57935 106.797 10.2608
-13.7699 107.042 -7.54826
1.10474 118.6 -3.33819
-17.9071 99.658 -1.08021
18.0642 133.975 -2.54116
4.36298 120.367 -0.984981
15.7966 127.508 5.4803
20.0482 130.285 7.69105
15.4766 127.471 5.06289
13.9981 127.111 3.22462
-4.68686 113.944 -4.31837
17.2354 134.874 -5.19729
-6.35878 103.862 11.5876
-18.3298 100.046 -1.80193
20.5647 132.107 5.84798
0.0105932 117.902 -3.11639
-17.3337 99.7849 0.639291
0.566924 111.741 9.27816
17.4943 136.444 -6.92867
17.88 135.045 -3.68668
17.9802 136.852 -6.77403
16.856 134.293 -3.94232
-8.8742 112.194 -7.35501
-12.4331 100.963 7.1441
21.5179 139.707 -5.87098
13.3357 127.32 2.8664
-15.0096 106.626 -7.56164
-9.76689 102.494 8.97214
16.0849 133.558 -3.68896
8.97918 121.363 6.53556
-16.4708 104.376 -5.60261
-9.93673 102.568 8.87107
2.34256 113.475 9.9248
17.206 134.185 -2.51369
14.0498 128.121 3.20536
-12.441 109.477 -7.82139
16.4653 126.376 10.8396
14.5858 133.571 -5.506
23.1903 136.888 3.17917
20.2353 139.113 -5.90031
6.84864 123.146 0.526715
20.816 133.661 5.16464
21.2304 140.064 -5.80553
-8.59306 103.589 10.4058
16.3871 133.719 -2.13554
-9.44433 103.376 9.42077
-18.4151 101.467 -2.28396
20.0585 132.55 6.447
-5.15866 115.18 -4.74707
4.38026 115.661 10.6371
9.09964 127.931 -3.74856
-17.7522 101.211 -0.608002
-18.5131 101.912 -3.17281
-16.8587 101.164 1.03143
-11.9889 102.13 7.57582
15.8095 133.68 -2.76635
-11.3399 102.503 8.00744
15.3692 134.374 -4.75288
9.20885 122.95 5.6514
9.47989 123.511 5.09167
-17.6383 103.268 -4.02574
24.6621 141.29 -1.49674
20.8381 139.998 -5.64704
-15.07 101.296 3.98675
-9.46486 103.568 9.44278
10.7482 125.613 3.55766
14.5581 129.176 3.58074
-16.8979 101.743 0.22194
16.972 126.976 11.8083
16.3009 128.178 8.57013
-9.33822 103.724 9.62071
14.0494 134.168 -6.16395
20.053 132.887 6.42318
20.7123 140.062 -5.54549
17.5093 136.215 -3.81794
-13.2495 102.011 6.35017
-13.3399 102.022 6.23198
16.9598 127.501 11.3107
12.5863 132.608 -5.38513
-16.0442 106.237 -5.90249
14.3553 129.544 3.27207
-9.19778 104.015 9.84572
-4.05889 108.455 10.5033
5.08808 122.725 0.0474972
16.5067 127.871 10.128
-11.5114 103.047 7.80464
-8.1765 114.203 -6.85989
15.2236 130.006 4.25035
4.74571 122.651 -0.141349
-8.40315 114.166 -6.95619
-17.3294 102.357 -0.482985
-12.3864 102.778 7.18836
24.2394 140.478 0.758909
20.9443 140.732 -5.25904
19.8907 139.804 -5.28628
-16.3686 105.995 -5.18054
-18.0051 102.401 -1.3043
0.210798 120.147 -2.70908
-18.5358 102.949 -3.16561
-17.6061 104.118 -3.71701
-9.49342 104.428 9.62393
-15.5674 107.808 -6.85927
-18.143 102.476 -1.47258
10.8378 126.791 3.43533
4.18538 117.022 10.0949
2.43113 122.08 -2.06365
3.83869 116.727 10.1672
-15.6767 107.728 -6.61324
6.68439 119.674 9.66599
16.0191 135.323 -3.01981
18.9425 132.408 7.31836
10.5149 131.132 -4.70684
18.9886 132.48 7.267
23.9943 140.529 1.25334
-12.6981 111.269 -7.65165
-1.7076 112.214 9.45169
13.1399 129.709 2.80706
23.2081 142.562 -3.53959
13.7238 135.339 -6.33042
13.3453 134.848 -6.07423
23.5682 142.72 -3.04808
3.26527 122.881 -1.32808
23.1802 139.781 1.72804
-8.05999 105.6 11.0261
23.6041 140.332 1.44799
-17.5129 103.581 -1.37376
-7.26182 115.898 -6.35915
-14.5236 109.674 -7.30161
7.47043 126.366 -0.35579
-15.5903 102.84 3.38735
22.7186 142.58 -3.94285
-7.05794 116.114 -6.26018
8.44822 129.048 -3.4852
17.8256 130.688 9.653
-8.32036 105.67 10.8983
16.7928 138.133 -5.67967
21.4698 137.401 3.67731
16.3064 128.758 10.6899
24.0769 141.752 0.224631
16.8928 129.482 10.4663
6.70074 120.563 9.43701
5.04548 119.011 9.52168
-15.1679 103.23 3.97585
-14.1832 110.365 -7.39511
4.99838 119.08 9.47659
19.294 133.843 6.88128
-3.7675 110.545 10.3073
14.6548 136.54 -5.80955
10.9607 132.536 -4.74302
24.0872 143.282 -1.99044
-15.2548 109.434 -7.08044
-16.71 104.054 0.341202
-11.72 113.006 -7.49145
-16.1247 108.14 -6.08388
11.1154 132.908 -4.89918
-8.11593 115.995 -6.70754
9.0996 125.083 6.13843
15.4854 131.83 4.69328
-6.99308 107.07 11.7271
-14.4927 103.711 5.17988
3.6702 124.039 -0.867732
-9.08398 105.944 10.5031
3.5324 118.293 9.43761
15.0278 132.063 3.86607
-15.7039 109.382 -6.87122
12.6254 135.227 -5.83147
-8.56727 106.384 10.8541
8.86361 130.739 -3.98984
16.2533 137.44 -3.59046
3.67915 124.23 -0.834046
-4.56967 110.275 10.7347
-15.8785 109.321 -6.74422
10.0895 132.22 -4.3792
9.29417 126.013 5.72881
-14.4715 104.177 5.20019
-5.72 109.152 11.2408
16.3586 137.969 -3.83503
-3.66912 118.831 -2.9462
10.6695 133.29 -4.87079
-7.82098 116.984 -6.52391
4.14132 124.756 -0.355872
18.5338 140.662 -4.86881
6.46139 126.688 0.16694
11.7981 130.145 2.98526
-16.0845 109.388 -6.50951
5.75116 125.974 0.369362
-5.5561 118.487 -5.1858
10.952 133.801 -5.02078
-4.93968 110.415 10.7211
-3.41401 112.246 10.1186
17.9079 133.137 8.31098
-15.3842 104.836 3.39702
16.4256 139.044 -4.95991
14.9702 133.202 3.35134
-15.8369 105.469 1.59964
-10.9377 106.168 8.66899
7.13266 128.268 -0.957368
10.9402 129.208 3.81654
15.2845 131.794 6.48913
-16.8224 108.391 -5.38198
-16.5586 108.953 -5.94815
-16.2588 105.802 0.363239
-9.01132 116.494 -6.83526
15.0222 133.152 3.76765
6.52854 127.313 0.0427366
14.8489 133.415 3.06695
22.9815 144.233 -2.68626
21.0929 139.363 3.02039
14.236 133.28 2.50321
18.3124 141.034 -4.69871
-10.0276 106.762 9.73305
-13.602 105.34 6.31032
18.791 141.419 -4.47682
10.1853 127.979 5.49971
-13.9934 105.467 5.57732
-5.24889 119.316 -4.84103
22.9792 142.025 1.72222
9.60073 132.897 -4.3688
-18.1236 106.597 -3.43056
23.2471 144.483 -2.22874
-5.71229 110.471 10.7417
6.83736 123.126 8.98234
18.0819 134.344 7.73401
8.24032 124.96 8.1384
1.30974 117.314 10.334
23.441 144.5 -1.65366
16.9552 132.551 9.25768
2.74219 125.022 -1.18411
-1.30346 121.492 -1.60761
14.9238 133.527 4.13802
-7.52114 108.527 11.6366
17.3549 133.362 8.6031
-11.7938 106.433 8.24376
13.518 133.186 2.49468
20.443 139.101 3.60468
-14.6883 106.243 3.86455
-6.90843 118.751 -5.61461
4.24366 121.39 8.60428
18.4762 141.779 -4.34031
1.47062 124.235 -1.15487
14.168 133.997 2.62297
-5.49153 111.368 10.5507
9.72127 127.929 6.2231
-16.9418 109.536 -5.53232
20.341 139.229 3.68653
11.1576 135.594 -5.24715
11.4612 131.218 3.34582
-12.5644 106.461 7.71094
-16.7406 106.555 0.520921
13.0446 137.849 -5.9573
17.8474 134.778 7.86147
15.329 132.149 8.39253
-6.38155 110.642 10.7984
-14.2141 107.224 3.73644
-17.7829 106.266 -0.503719
-13.9129 107.153 4.47273
0.376301 117.166 10.5848
-7.77768 108.987 11.6584
10.3627 135.076 -4.99934
-10.2032 107.781 9.95616
-16.0495 107.222 1.26233
6.4634 129.328 -0.787497
22.6193 142.917 1.88879
-18.2509 107.04 -2.07821
14.1679 134.877 2.3394
10.7874 130.048 5.43853
18.5177 136.11 7.56949
16.6942 140.836 -4.1579
-12.5802 107.794 6.58963
10.7001 129.957 5.7251
-2.3281 122.005 -1.82315
5.10603 123.067 8.95556
21.0742 141.267 2.87184
18.6211 137.163 6.25078
4.88464 127.659 0.243282
-18.2696 106.847 -1.13824
-11.8115 107.77 8.21407
-13.2096 114.626 -6.70995
15.2927 133.283 7.86798
18.5918 142.827 -3.8949
11.1068 130.971 5.06647
9.28153 134.625 -4.68861
-11.1973 108.241 8.89993
3.57958 122.539 8.04844
8.77013 134.245 -4.51413
4.84936 123.36 8.77579
-7.64821 110.336 11.3649
0.106236 118.144 10.385
11.0045 131.074 5.3076
8.01055 133.288 -3.84261
20.7243 141.495 2.98345
17.4672 142.376 -4.11187
12.9832 134.293 3.14345
3.41251 122.688 8.08758
2.51019 126.688 -0.706313
8.09817 133.75 -4.04957
3.87745 127.805 -0.362337
3.99482 127.92 -0.270983
-6.47868 112.251 10.549
0.0145835 124.683 -1.11907
-12.2672 108.867 6.88852
-12.243 116.179 -6.43805
14.8818 134.594 6.10531
-2.66429 122.588 -1.78783
-11.3682 108.694 8.84281
6.32003 130.934 -1.66228
-17.6958 110.127 -4.47092
-15.2322 113.517 -6.46276
-0.822297 124.188 -1.42862
-15.3723 108.388 2.70532
-5.42925 113.581 10.2033
22.3621 145.124 -0.113123
-7.13441 120.369 -5.0765
-8.79519 119.248 -5.84164
6.66988 132.209 -3.10134
18.0731 137.206 7.28127
15.2286 140.449 -3.38766
-1.22298 117.624 10.5721
8.18894 127.945 8.00898
-13.5663 115.528 -6.32503
10.9005 131.864 5.48653
10.9307 132.78 3.93866
20.2807 141.966 3.09131
-16.3651 108.44 2.20824
14.1787 136.51 2.93623
-10.9431 118.342 -6.60031
-17.8546 110.591 -4.10652
-6.39268 121.574 -4.64544
-17.7408 110.856 -4.30878
-1.19928 124.745 -1.36703
-0.84066 118.648 10.4461
15.6611 135.02 8.64982
-16.462 113.017 -5.80775
-6.33113 113.616 10.4735
14.8842 140.667 -2.84527
-13.4941 110.128 4.67747
21.9534 145.685 0.0447217
-0.944255 125.093 -1.22541
-11.5723 118.192 -6.63324
9.15043 130.233 6.65607
15.5813 135.408 8.2373
20.7991 143.14 2.98677
21.8805 145.969 -0.288924
0.492593 126.28 -0.68836
-15.9507 113.882 -5.94396
21.1998 143.714 2.79196
-12.7643 110.758 5.22959
-15.537 109.243 3.3442
20.5737 146.33 -2.8494
9.55678 131.072 6.36422
16.2033 142.173 -2.58227
19.6933 145.67 -3.0043
-10.7056 119.275 -6.50085
-13.0124 110.817 5.1244
15.2061 137.35 4.73746
-10.1196 110.899 9.98906
17.5398 138.2 7.28506
15.1197 136.615 6.07694
1.94391 122.862 8.87386
0.0382034 126.365 -0.747343
-17.9602 111.394 -3.91724
-16.479 109.159 2.7076
4.86349 130.684 -0.255037
15.6171 136.479 7.52765
20.9863 144.035 2.87563
10.3923 132.547 5.93967
16.7138 143.103 -2.53717
12.5176 141.034 -5.88163
-3.01302 124.409 -1.93117
10.224 133.268 4.42432
2.22083 123.754 8.29106
1.53367 122.674 9.22482
19.0113 141.713 4.23085
21.115 144.725 2.36502
10.1095 133.499 4.15159
-6.52483 114.449 10.6643
-6.04765 115.211 10.2046
14.9404 141.558 -2.18462
15.8825 137.122 7.56027
-1.38767 125.798 -1.13805
14.1752 137.897 3.29745
10.4486 134.278 3.70403
-8.62148 121.37 -5.09186
-10.1322 120.445 -5.96948
12.8137 141.526 -5.41921
10.2296 132.679 6.36407
-12.6277 111.827 5.58265
-10.3641 111.707 9.71428
-11.6117 111.374 8.28868
15.3235 138.003 5.50485
-11.3255 119.754 -6.51199
13.8084 138.054 2.95416
15.2978 138.192 5.2843
1.55103 128.574 -0.319524
-12.7321 118.542 -6.2886
-10.8223 111.886 9.17489
-1.22634 126.454 -0.961972
-4.87284 117.099 9.97538
-10.9415 111.96 9.05052
-1.99768 119.898 9.91149
2.69226 125.787 7.28828
15.2451 138.732 5.10765
13.3951 138.386 2.60603
11.5416 136.954 2.09541
15.6963 142.721 -1.35802
16.2678 138.565 7.32917
-9.94595 112.366 10.6427
15.8082 142.916 -1.28112
15.4154 138.498 6.23168
-16.8516 114.843 -5.43813
1.3383 124.02 8.81344
10.7355 135.93 3.11475
15.052 139.378 4.16883
10.6649 135.758 3.32594
-9.95591 121.35 -5.45405
-18.0468 110.322 0.953389
15.1054 139.311 4.45308
-8.87398 113.277 11.2539
-11.5273 120.571 -6.49607
13.1402 138.628 2.55906
19.7757 147.492 -2.29228
15.5273 138.766 6.48046
-11.7028 120.516 -6.4299
-17.3882 110.382 2.46776
-12.0936 112.885 6.98911
15.3621 139.256 5.56632
-7.75196 123.447 -4.87726
-17.9086 110.518 1.61278
-13.6097 112.612 5.1651
13.4036 142.984 -4.32978
-17.2677 110.578 2.72564
-10.3488 121.577 -5.56731
3.60595 127.36 7.63996
11.2862 141.914 -5.83367
-17.9078 110.621 1.67331
10.6099 135.766 4.29647
-2.21716 120.974 9.70583
-3.65338 119.586 9.87727
11.0014 137.487 2.29818
15.9599 139.917 6.33178
0.308358 129.384 -0.742626
-11.794 113.753 7.23449
15.5402 140.257 5.36223
-5.23153 125.733 -3.32732
13.6504 143.164 -2.96847
11.6209 142.603 -5.39459
-18.5568 112.75 -2.15232
16.4063 140.635 6.46511
18.0914 143.328 4.45544
-0.00670096 123.491 10.0129
10.279 135.439 5.78498
18.79 144.578 3.62484
-6.462 125.568 -4.62471
13.51 142.873 -2.1804
-14.3154 118.832 -5.52388
13.5137 142.991 -2.21184
5.64597 136.024 -2.86104
5.58913 129.95 8.24043
13.6547 143.851 -3.42905
14.7977 140.768 4.20118
12.4912 139.684 2.28033
5.41173 129.87 8.2455
-0.854505 123.178 9.8675
-0.951977 123.104 9.87934
-15.4979 112.602 4.32385
-8.42167 124.653 -5.58344
-5.07391 119.276 10.0855
10.8599 138.433 2.34917
4.8687 135.021 -1.61714
-11.5029 114.413 8.18948
14.4113 143.861 -1.50885
-17.5876 111.856 2.53075
-11.1586 114.558 8.55753
5.44208 136.159 -2.65424
-7.72572 116.061 11.6971
-17.4112 115.962 -4.62216
12.2578 143.771 -4.9326
-12.7616 114.042 6.85101
-13.1147 120.624 -5.72366
-18.0428 113.053 -0.233221
13.3092 144.434 -4.10992
-10.6074 114.986 9.03571
-7.15957 125.989 -5.18031
-2.11621 122.47 9.96348
-17.9684 114.439 -2.35436
-12.1685 122.091 -6.28148
10.8079 143.291 -5.73552
-8.55799 125.327 -5.78623
18.0748 144.809 3.97954
-12.1691 114.631 7.71711
-10.2722 123.658 -5.50027
-9.7828 115.059 11.1173
4.11021 129.679 8.05068
11.1928 143.684 -5.48504
4.77997 135.715 -1.72479
-3.027 128.463 -1.67438
2.23929 128.458 7.45043
-8.80123 125.443 -5.8355
-17.9884 115.547 -3.31892
10.598 137.728 4.94556
9.12449 142.076 -5.47958
-9.97861 115.35 10.9002
2.67231 133.107 0.054311
4.9418 136.444 -2.13354
12.7617 144.936 -4.32188
5.09778 136.879 -2.46559
-12.8007 122.299 -6.20404
-7.94395 126.475 -5.46621
-1.79231 123.653 10.2068
-17.2752 114.944 -0.0755777
7.9509 134.954 6.33675
-3.25647 129.03 -1.88769
-8.99617 125.854 -5.83191
10.0447 137.633 5.13719
15.2757 142.388 5.39614
-16.6339 118.194 -4.70752
-16.93 114.993 0.740914
-17.242 117.044 -3.47373
16.5911 143.543 5.70061
18.0044 145.907 3.84873
-17.0115 113.249 3.94712
10.7084 138.368 5.29794
0.803486 132.332 -0.465443
-1.79267 130.372 -1.24015
-9.14318 116.621 11.4401
0.131832 132.025 -0.841124
17.179 144.841 4.76726
-0.691102 131.414 -1.10801
-15.6736 119.673 -5.15193
-16.0531 119.268 -5.02189
-9.76914 116.243 11.2707
10.0306 138.101 5.0531
11.2626 141.022 1.82515
-2.42465 130.113 -1.46151
-16.8301 115.599 0.713012
-11.9769 115.667 8.8735
-4.83124 129.043 -3.35442
-5.77116 128.641 -4.17536
-17.0277 114.88 1.86096
13.8728 145.609 -1.32552
4.12698 136.529 -1.24264
18.4774 149.119 0.20162
3.84331 132.105 6.71744
11.1285 141.525 1.94858
2.96043 131.258 6.81634
-7.44648 127.997 -4.89686
-15.161 114.755 6.21103
9.02538 143.788 -5.57136
-15.5948 118.934 -2.00208
10.2861 139.239 4.98431
-1.01345 126.861 8.42331
2.18424 130.733 6.80775
10.0625 144.837 -5.56113
-16.1841 117.87 -0.941578
10.1134 139.183 4.91267
-13.4258 123.352 -6.17543
-17.6082 116.505 -0.697337
16.3331 148.261 -0.930641
9.09276 138.527 4.54347
18.2873 148.149 2.62504
-12.0407 124.375 -5.5485
-10.5908 116.903 10.6493
10.6157 141.422 1.96419
9.93536 140.275 2.90986
-3.39575 123.75 10.4401
8.99539 138.557 4.4929
7.00277 141.592 -4.44298
16.6881 145.536 4.86445
8.26118 143.123 -5.07025
2.55942 131.523 6.50685
7.38879 136.895 4.92273
-1.08943 127.4 7.84757
10.2994 145.316 -5.47433
-17.3008 117.075 -0.833578
-10.2147 117.275 10.9122
4.3988 137.936 -1.93648
0.126907 129.245 6.70469
-15.9402 118.946 -1.80601
-7.35841 128.766 -5.10396
-6.74059 129.271 -4.91206
7.85052 142.81 -4.80164
-17.0434 117.333 -0.591442
-7.20753 119.842 11.6406
-12.7809 116.246 8.75323
6.33505 135.648 5.86184
15.4622 144.178 5.88733
16.0872 145.194 5.09934
-0.36647 129.12 6.48377
-1.98738 126.403 8.73481
-1.8756 126.52 8.76335
14.7791 143.939 5.29187
-0.622425 133.063 -1.00824
-4.35527 130.558 -2.7639
14.7156 143.977 5.22429
-1.6151 126.835 8.84951
-0.752412 129.043 6.30411
17.5135 147.447 3.78371
13.3657 146.674 -1.73639
-16.1811 118.552 -0.592913
17.9747 148.945 2.05667
10.2728 140.2 4.99198
4.0245 133.724 6.20001
-1.30715 128.199 7.26411
-10.9023 117.534 10.5997
-4.0139 124.112 10.3584
3.13363 136.816 -0.667763
6.34007 136.693 5.02734
8.18793 143.957 -5.08907
17.1806 149.755 -0.276303
-3.58546 125.164 9.33305
9.38024 140.453 3.52191
3.79091 138.021 -1.45202
17.5019 148.086 3.50909
0.914933 134.683 -0.106279
-15.2556 122.272 -4.90946
-3.69452 125.777 8.54305
14.9975 148.269 -0.697521
8.41316 144.717 -5.27901
-15.4746 120.537 -1.73636
-8.35201 129.641 -6.18862
-17.6538 115.484 3.88968
17.1306 148.089 3.53823
-4.08743 125.611 8.50411
7.83987 139.298 3.79692
-2.22367 127.438 8.38191
-1.84254 127.706 8.54922
10.1797 146.488 -5.2655
-4.08125 125.91 8.10466
17.5538 149.16 2.44923
17.5207 149.46 1.91226
9.95901 140.708 5.03908
2.05675 136.217 -0.160241
15.7869 146.441 4.63529
-16.016 116.46 5.35192
-15.2899 120.015 0.0927152
9.44385 141.492 2.96432
9.78461 142.181 2.31142
12.3617 147.304 -2.6252
-9.43667 119.856 10.5237
-5.38518 131.41 -3.65582
-15.6415 120.15 -0.432557
-4.77822 124.751 9.70482
-1.62963 129.804 5.87866
-10.2003 119.467 10.2073
3.13703 138.061 -1.06102
-4.95549 131.781 -3.26219
-12.8537 125.723 -5.6315
-0.631143 134.492 -0.844365
11.8746 144.311 2.52919
5.10864 136.594 5.19638
10.6219 147.45 -5.18214
-14.5683 123.805 -4.82919
17.2071 149.702 2.03891
3.0491 134.616 5.56065
13.8322 148.839 -1.97739
-14.8822 123.272 -4.13286
17.1277 150.021 1.55504
4.20594 135.551 6.01094
-3.20148 127.845 7.50331
8.42402 145.671 -5.28867
-7.05822 131.48 -5.67684
-16.8125 119.827 -0.909936
-4.70104 126.261 7.9841
-7.86953 121.947 10.505
-3.9482 127.276 7.4837
-13.6059 125.485 -5.68342
3.12034 134.951 5.54896
5.32354 137.398 4.84358
-1.32913 130.751 5.8377
-14.186 124.529 -4.61512
-5.54162 124.462 10.2444
4.53398 141.13 -2.97335
-4.4898 132.781 -3.00561
-16.6123 120.354 -0.928128
-12.1137 118.862 9.49024
9.07724 142.145 3.03177
-16.6494 120.382 -0.95142
-14.4614 124.109 -3.96991
0.339156 135.917 -0.340384
0.0330514 132.322 5.73601
9.17589 141.919 3.77589
-12.1578 127.802 -6.71785
-16.4364 121.118 -1.74413
-2.43962 129.11 7.62575
15.0778 147.369 4.13046
-6.88935 132.236 -5.5629
-13.3305 125.752 -4.60586
-10.6764 129.476 -6.85872
-0.767415 135.463 -0.775078
14.6252 149.477 -0.11957
-5.437 132.744 -3.68328
-13.8793 125.873 -5.49639
-2.66097 134.217 -1.64127
-2.15577 130.714 5.63075
-13.8198 118.363 8.35454
13.3787 145.845 4.44739
9.07163 142.59 3.06439
9.09482 142.518 3.25885
-16.4476 121.099 -1.00947
5.05543 138.054 4.64504
14.0689 146.667 4.32693
12.4923 145.552 3.68096
-16.2388 121.04 -0.403767
-2.59665 129.935 6.64411
3.84431 136.676 5.3603
-16.818 120.552 -0.310178
-5.46145 133.116 -3.92293
11.7734 145.528 2.76002
8.65319 147.05 -5.2722
14.4564 147.406 3.97304
3.65517 136.558 5.46795
13.3896 146.208 4.42014
16.3941 150.818 1.11193
-13.7814 126.047 -4.99197
1.67875 137.98 -0.451586
-2.1353 134.92 -1.31033
-5.1438 133.343 -3.5251
-13.0722 119.431 8.44765
-4.07933 128.776 6.71194
-16.5158 120.353 0.944585
12.3445 149.315 -2.84583
-15.3009 123.773 -3.20432
15.7439 151.078 -0.252079
-3.63035 129.096 6.95641
-6.11642 126.105 8.3136
-15.8085 121.14 0.88606
12.7909 149.514 -2.18091
3.03655 140.088 -1.50413
-14.352 125.2 -3.81172
-16.376 120.345 1.84907
15.2285 150.846 -0.0453244
-16.3589 119.854 2.86707
-15.808 121.271 1.2585
-12.4976 120.311 8.69601
-15.5204 120.833 2.6475
-6.63788 125.881 8.63258
-7.49724 125.968 7.04071
-11.5776 120.829 9.49394
-15.3597 122.89 -0.689815
12.9533 149.703 -1.481
-11.6412 129.52 -6.45686
-0.554573 133.289 5.54474
9.39497 143.319 4.1586
-1.38521 136.077 -0.95023
-10.5536 130.563 -6.43819
-14.9717 123.073 -0.242838
-16.6125 120.353 1.98735
-15.8301 122.912 -1.34958
-15.5795 119.983 4.49189
-10.2334 123.181 7.76814
-3.86661 134.804 -2.63029
3.87326 141.917 -2.42158
-7.38169 125.143 9.15926
4.29758 138.598 4.45517
-15.3221 119.804 5.43735
5.31472 139.867 3.96613
-10.3895 122.905 8.25112
-15.6488 122.01 0.955852
-15.0561 122.794 0.583884
9.49525 144.176 3.37294
-15.5951 120.202 4.5272
-3.91263 135.071 -2.71868
-16.1983 118.426 6.81987
-9.26181 132.256 -6.61095
12.4445 146.78 3.87965
-7.66866 126.306 7.0888
7.54311 142.948 2.73234
13.0767 147.612 3.66562
-14.7547 123.597 0.203501
9.21441 148.8 -5.0548
10.371 149.555 -4.4483
11.5127 149.931 -3.11063
-15.9107 118.778 7.16349
4.66092 139.793 3.87881
-16.5003 120.904 2.40692
-16.6501 118.727 6.15059
12.1063 146.958 3.5233
-16.7542 118.651 6.18614
-15.3888 121.626 3.20022
-11.514 129.547 -4.67681
9.70229 144.232 4.63899
-0.456441 134.622 4.93056
-3.89438 130.877 5.97847
-3.89374 130.518 6.64851
-7.19522 134.442 -6.13296
-15.5449 122.316 1.82621
-15.7197 122.834 0.620898
-11.249 122.75 8.40384
-16.1693 119.598 5.81099
2.73495 141.256 -1.54862
-15.9169 120.892 3.92331
-3.60062 136.01 -2.71997
-17.1417 119.804 3.95012
14.8838 150.95 1.5848
-15.4658 123.402 0.274506
-15.8513 120.744 4.52021
-15.8348 121.059 3.97454
-17.6255 119.274 4.1997
6.20929 142.226 2.8672
-16.3209 120.248 4.74636
-15.1752 123.446 0.880933
-15.7445 120.307 5.70686
-16.7455 119.233 6.01219
-16.538 121.162 2.84501
-4.84704 130.468 5.76216
12.3629 147.676 3.63405
-15.3817 123.358 0.902945
-5.79884 135.583 -5.07932
6.66192 146.813 -4.37925
11.2692 150.401 -3.01724
-4.27557 131.406 5.25357
-17.2294 120.258 3.59252
-16.2962 123.946 -1.55245
-16.319 122.943 0.379017
-13.8414 125.279 0.34173
-16.447 122.929 0.410943
-1.05026 134.968 4.64415
-17.0077 119.915 5.05414
7.81217 148.434 -4.64676
-10.1873 125.64 6.46552
-15.1363 124.851 -0.509982
-17.0525 119.525 5.99026
8.73354 143.993 5.1799
13.8735 150.448 2.15351
-14.5154 120.527 8.69882
-15.0677 124.085 1.27872
0.843233 137.389 4.07752
-3.79883 137.03 -3.15303
8.24021 143.692 5.19164
-15.2227 124.952 -0.465494
-0.836547 135.735 4.33412
-18.7043 119.091 4.40167
8.18785 149.112 -4.59793
-17.767 118.574 7.09977
-16.5584 123.046 1.04182
4.65932 141.618 3.2639
-17.0957 120.09 5.60021
-0.71116 138.815 -0.709216
-14.0725 127.049 -1.89974
-17.4486 120.215 4.93305
-15.1371 123.408 3.1496
-16.9293 122.971 0.90531
-8.57572 127.526 6.93153
-14.8268 125.415 0.154402
-10.3317 132.14 -4.46425
-16.2939 119.469 8.62763
-17.6675 120.204 5.05583
5.44646 143.416 1.9854
3.16157 143.619 -2.2057
-17.5462 120.059 5.71231
-17.3928 120.771 4.72093
-2.44412 138.261 -1.76528
-1.23801 138.921 -0.886224
-15.0029 126.298 -1.22165
-16.1308 120.724 7.07175
-8.77902 127.736 6.79806
-8.29428 135.407 -6.40275
8.45032 149.961 -4.46119
-17.7166 120.54 4.79825
-15.5332 122.735 4.55405
-17.6818 120.593 4.89032
-18.028 120.171 5.07483
-17.3969 120.889 4.87335
-14.2374 121.811 8.59172
-19.0149 119.452 4.7708
-17.0039 120.821 5.73144
-15.4965 121.326 7.43732
-15.7269 119.988 9.53025
-17.7158 121.02 4.26352
-13.8093 123.047 7.22411
-13.7151 123.166 7.17044
-12.4917 124.331 7.13957
-15.7536 124.299 1.6572
-17.7562 120.595 5.02276
-3.73112 133.764 4.83076
13.0037 150.925 2.0903
-4.04513 133.62 4.85519
9.05703 147.116 2.56179
4.29499 142.634 2.65106
-16.6653 121.231 6.18629
-15.3604 125.526 0.583892
-18.1886 120.459 5.0506
-15.2788 123.9 3.7571
-16.1587 124.081 1.93541
4.31817 146.123 -3.4533
8.91081 146.656 3.61773
-3.62335 134.335 4.84988
-16.4919 123.295 3.2557
-10.6068 132.653 -3.8337
-7.55865 136.654 -5.95099
-7.62454 129.6 6.87966
-3.40573 134.687 4.843
2.49062 143.835 -1.83391
-6.19793 137.919 -5.72716
-1.8705 136.475 4.31692
-17.338 124.553 -0.217388
-3.30394 134.925 4.81625
-19.9377 118.893 5.80116
-16.6544 122.512 4.83616
-14.7014 127.404 -0.729926
-5.85092 132.136 5.72127
-16.5172 124.381 1.80206
-12.5818 125.268 6.95013
-15.8086 120.712 9.93813
-12.1613 125.706 7.03535
-6.52206 131.275 6.47826
-9.33907 135.281 -5.63096
-12.6291 125.191 7.24173
-20.5435 118.397 6.22685
3.25584 142.378 3.01735
-16.1937 122.587 6.13904
-16.1821 120.508 9.96262
8.52338 146.221 5.14168
7.69966 150.493 -4.0709
-12.2515 125.236 8.1964
-18.4752 120.033 7.22281
-1.08809 137.967 4.11024
-12.0422 125.708 7.90905
-6.20658 138.558 -5.58734
-13.343 130.116 -2.29518
-13.6157 124.263 7.95556
-11.3376 126.512 7.77861
-11.5594 126.264 7.88818
-11.7058 125.859 8.43994
3.68422 146.504 -3.09114
-14.6521 122.309 9.92947
-13.799 129.517 -1.74697
-11.6164 126.136 8.19408
-13.6828 124.504 8.05645
-9.36029 135.856 -5.24337
-14.0469 124.326 7.88071
-3.8352 135.528 4.79054
-7.05006 138.338 -5.80596
9.36064 151.791 -2.446
-17.1139 120.763 9.2611
-15.6652 123.608 6.57802
-14.1534 124.313 7.89924
-17.5305 123.037 4.50212
8.24997 151.608 -3.83099
1.53299 141.7 3.02422
-16.3283 122.745 7.26456
-3.92211 135.756 4.65073
-18.4793 123.828 1.70452
-14.6694 123.543 8.72726
-9.84825 128.522 7.95314
12.1438 152.973 0.770539
-9.86691 135.602 -4.91317
-6.90203 132.29 6.24277
-3.58924 136.432 4.33972
-15.1397 123.519 8.28639
-7.01574 138.779 -5.64633
-18.774 123.8 1.77702
-14.7671 128.157 0.65949
-14.2246 129.089 -0.0176113
-14.1493 129.269 -0.168876
-12.9314 131.139 -1.4917
-4.96214 139.95 -4.00261
-9.33632 129.396 7.89681
-1.90224 138.317 4.274
9.12403 149.73 2.19297
0.16765 140.833 3.23304
-14.477 129.54 -0.956774
-5.89584 134.175 5.22438
-16.9038 127.116 -0.619586
-8.1626 130.938 7.32044
-15.7399 123.39 8.34179
-11.2323 134.066 -3.42671
-17.5999 120.74 10.1233
11.7908 153.159 0.91674
-18.115 123.909 3.47261
-18.4197 124.61 1.68775
-16.3863 128.27 -1.53284
-19.4077 122.793 3.44717
-10.5045 135.642 -4.69731
-20.5076 119.21 8.44485
-9.83111 136.449 -4.86746
-18.2614 124.025 3.52015
-10.6747 135.597 -4.64378
-13.885 130.388 -0.570884
-15.5436 123.725 8.79321
2.29457 146.351 -2.18712
9.33379 150.51 2.25572
-12.8575 126.262 8.81197
-12.1341 132.792 -1.86449
-1.49184 142.382 -1.21922
9.63616 152.75 -1.08238
8.84424 150.194 2.33605
-19.3256 124.224 1.86152
-15.0902 129.719 -0.955961
-11.7534 133.627 -2.40738
2.9378 147.491 -2.72685
-11.1373 135.045 -3.93008
-22.2059 119.174 6.27327
-5.88649 135.292 4.60972
-11.9955 128.098 7.78209
-1.24228 140.479 3.46338
-13.9986 130.628 -0.224803
9.73566 151.617 1.82536
-8.54469 131.666 7.215
-14.6279 129.746 0.444983
-21.9737 120.773 4.34711
-3.97123 141.612 -3.05272
-7.05584 133.568 6.45437
-2.8307 138.977 3.82231
-18.8972 125.853 0.508201
-7.7013 132.999 6.59637
-15.1856 124.635 9.15209
8.27648 152.774 -2.30056
-10.0813 130.171 7.77388
-5.93304 140.899 -4.7161
1.0278 143.347 2.69938
-19.4952 120.676 9.28854
-15.5878 124.572 8.84013
-19.3037 124.877 2.06094
-16.133 129.406 -0.636719
-19.2971 125 2.09979
-7.0313 134.09 6.44107
-12.7265 127.724 8.40288
-17.2043 122.464 10.4391
-22.6183 120.032 5.69232
-18.6264 127.524 -1.21033
-0.0818643 144.827 -1.09151
-13.9789 131.2 0.189267
-3.84661 142.305 -2.86014
10.583 154.038 0.484613
-3.61137 142.503 -2.59397
-8.01003 133.25 6.84558
-15.2397 125.272 9.17097
9.65444 152.704 1.60235
-11.5839 135.478 -2.95675
-12.0844 129.314 7.65012
-18.1541 122.228 10.2727
-3.84713 142.814 -2.79295
-20.179 124.299 3.26257
-17.5468 129.119 -1.00767
-15.459 131.161 -1.13855
-13.4805 132.436 -0.0881663
-7.55577 134.553 6.20662
-10.7372 130.634 7.97394
-13.5647 132.303 0.144984
-3.08444 143.266 -2.04254
-19.4637 127.387 -0.761873
7.27863 153.145 -2.1618
-20.1347 125.508 1.70311
-19.6071 125.203 3.2655
-1.6223 142.212 2.91041
-20.0128 125.818 1.57791
-18.5717 122.631 10.1807
-2.46571 144.113 -1.60943
-1.1674 142.836 2.98796
-12.596 135.022 -2.02805
-10.7222 131.151 8.24782
-20.7748 125.212 2.01069
3.85749 150.991 -3.10469
-14.8906 126.107 10.57
-18.8146 122.759 10.1548
-10.633 138.377 -4.36811
-19.5505 126.274 2.67726
-16.21 126.207 8.49804
1.10257 148.103 -1.99667
-11.7513 130.708 8.01982
-18.8633 128.885 -0.762003
8.83941 153.189 2.04657
-7.99459 135.488 5.76949
-9.34534 132.883 8.25748
9.25246 153.87 1.58921
-2.70792 144.53 -1.70063
-19.4844 127.128 1.68983
-18.1695 129.701 -0.708704
-19.6916 127.255 1.19377
-19.3322 127.503 1.49724
-12.577 135.405 -1.10578
-11.7178 137.678 -3.7408
-13.7484 133.766 -0.00228282
9.40972 154.733 1.19076
-18.8332 128.548 1.08732
-11.8341 131.138 8.35335
0.198823 147.859 -1.70959
-13.5394 129.112 9.18168
-22.0641 124.75 2.77649
-22.9157 122.719 5.18782
-12.4444 131.055 7.94163
8.62771 154.055 1.89231
-6.43994 139.242 3.65966
3.42895 152.02 -2.84368
-9.97076 133.327 8.56827
1.82803 150.47 -2.59424
-0.2605 148.059 -1.60723
-20.1877 123.48 9.51374
-16.6726 127.663 7.90523
-15.7518 132.935 -0.144034
-21.4899 125.858 3.03731
8.3583 154.345 1.81831
-1.89718 144.224 2.88849
-19.6975 127.357 3.48195
-19.0397 130.286 -0.40936
-19.7257 128.039 2.70011
-18.0666 126.027 9.22233
-6.64117 144.33 -4.78689
-18.7539 124.857 10.2872
-12.1521 138.361 -3.10168
-11.3759 139.135 -3.18629
-9.98187 134.083 8.44273
-22.777 122.961 7.15813
-1.31604 147.608 -1.31734
-9.38589 141.841 -4.41277
7.73656 154.926 1.02083
-22.75 124.408 5.05024
-8.80132 135.988 7.65797
-18.2552 131.576 -0.355391
3.08934 152.758 -2.708
-8.74495 136.635 6.68532
-13.1632 136.092 0.206026
-15.2248 129.564 8.75006
6.85076 154.893 0.079042
-5.62788 141.729 2.95558
-8.8953 135.952 7.98757
-22.6983 123.385 7.61963
-19.3587 129.724 1.74876
-3.79165 146.524 -2.43057
-3.1866 144.389 2.51316
-15.7316 129.617 8.20457
-19.6614 129.148 2.36539
4.11105 153.849 -2.21016
-22.7255 123.583 7.47276
5.9644 155.04 -1.11058
-22.322 124.124 7.29488
-13.1424 136.486 0.362114
-12.3527 138.967 -2.63297
-19.9142 125.145 9.82126
-22.6147 123.686 7.94021
-20.8693 126.771 5.2731
-20.1947 127.887 4.56874
-19.7194 129.586 2.35441
4.3012 154.326 -1.91189
-21.3239 126.29 6.00131
-4.82492 143.499 2.74744
-11.0485 141.024 -3.31139
-12.6945 138.353 -0.974763
-19.8322 125.789 9.89235
-14.6936 131.975 7.64987
-12.7696 138.624 -1.20819
-0.424053 150.531 -1.90631
-19.468 130.721 1.96773
-0.0559639 151.101 -2.09991
-12.5957 138.423 -0.184174
-2.42889 148.74 -1.69676
-12.4958 139.745 -2.25135
-19.6983 126.5 9.88164
-20.0409 129.73 3.43702
-5.14374 144.222 2.47526
-12.6121 138.364 0.48078
-16.3229 130.932 7.96848
-12.9402 138.126 0.580569
-13.8073 132.878 8.80541
-4.02572 148.193 -2.4186
2.68067 154.255 -1.78871
-21.4024 126.734 7.66786
-9.31881 138.528 6.73808
-8.73175 139.6 5.80027
-8.97094 139.311 6.0162
-21.966 125.742 8.76881
-0.349714 151.868 -2.06766
-19.6783 132.155 1.21831
2.36463 154.323 -1.70987
-10.6105 136.752 8.44427
-18.2956 129.89 7.90285
-19.7349 132.026 1.60089
-9.66752 138.078 7.73093
-12.8853 140.424 -1.82049
-3.64214 149.194 -2.10423
-16.8664 135.187 1.00698
2.22644 154.417 -1.63249
-8.10303 141.285 4.8504
-20.3109 127.407 9.6205
-20.4122 129.96 4.8229
-7.1552 143.113 3.46453
-12.947 140.482 -1.48078
-17.8332 130.683 8.23273
-8.54502 146.234 -4.35849
-7.50124 142.741 3.90153
-5.58595 148.66 -3.56188
-17.8485 134.352 1.76942
-14.7627 133.295 9.01646
-4.23031 149.496 -2.42784
-9.81337 138.783 7.75426
-12.8849 134.866 9.70047
-16.216 136.21 1.65533
-13.3492 139.119 1.25755
-4.74165 149.531 -2.79473
-15.0691 138.245 1.21962
-20.8876 128.563 9.03286
-20.5417 130.673 5.83863
-19.7022 132.255 4.47784
-3.03498 151.388 -1.84107
-0.737326 153.854 -2.10555
-20.9329 130.363 6.4786
-11.5792 144.039 -2.08953
-8.57466 142.96 5.03206
-15.616 134.12 9.38396
-17.3584 132.801 9.24477
-16.3358 133.891 9.16748
-12.6735 141.554 1.44009
-21.3509 129.619 8.56229
-20.8443 130.966 7.00791
-19.8384 132.546 6.04925
-6.98367 146.252 2.89379
-15.1795 139.246 1.77876
-4.28036 151.615 -2.12146
-6.72112 146.735 2.74842
-7.98496 145.099 3.69838
-20.1914 132.192 6.63273
-13.0713 141.597 1.58314
-16.4502 138.286 2.30591
-7.75129 146.144 3.20815
-20.8513 131.301 8.11294
-17.6761 133.517 9.59684
-9.28461 143.22 6.21989
-15.6839 139.581 2.00962
-19.2019 132.58 9.05356
-12.478 143.018 1.60647
-11.8257 145.298 -1.40853
-20.5435 131.903 8.24468
-19.8544 133.955 5.66476
-9.99888 142.147 7.58892
-10.7096 147.223 -2.40775
-16.1143 135.472 10.0813
-9.64272 143.556 6.52904
-18.1613 136.451 5.15125
-10.2101 148.172 -2.69102
-11.7485 140.368 9.08228
-7.45414 150.747 -2.55847
-9.95224 142.809 7.76327
-19.9832 133.211 8.36968
-6.85832 151.403 -2.4788
-16.1754 139.862 2.76847
-6.96608 148.754 2.33543
-15.8025 136.429 9.86228
-9.35085 144.976 5.32887
-4.40001 153.592 -1.98904
-15.9671 136.515 9.83883
-17.7522 137.924 4.67289
-10.1184 143.58 7.40451
-6.8671 149.505 2.10768
-12.3503 140.582 9.18765
-5.01245 153.406 -1.73022
-13.5678 139.573 9.42464
-17.3691 135.98 9.5743
-12.607 144.116 3.00179
-19.7159 135.224 7.46239
-15.0477 138.642 9.34198
-17.1264 137.067 9.28073
-18.509 136.34 8.64575
-17.3146 139.733 4.57303
-5.77219 153.64 -1.08104
-11.2697 148.45 -0.779526
-10.6939 144.789 6.92073
-18.4552 137.888 6.5406
-12.4763 142.399 8.54104
-13.6866 143.923 3.69336
-14.4385 143.303 3.58669
-17.8751 137.363 8.67341
-10.4173 145.948 5.93934
-17.2195 138.059 8.87125
-15.5004 139.575 9.04195
-18.5473 137.924 6.91419
-8.80962 148.94 3.36709
-10.7306 149.542 -1.00259
-11.2944 148.755 -0.249971
-11.1904 148.939 -0.365732
-12.627 146.476 1.92338
-8.09815 150.409 2.49652
-7.8298 151.322 1.60921
-9.63405 148.029 4.60001
-17.1815 139.4 7.59314
-15.7958 140.229 8.80014
-14.4379 141.536 8.78735
-8.19994 151.542 1.21974
-11.7585 145.125 6.91187
-14.2224 144.264 4.53903
-9.98964 148.166 4.62267
-12.0816 147.656 2.02461
-13.1181 143.421 8.16287
-12.8841 146.281 3.34922
-8.38944 151.981 0.695127
