ply
format ascii 1.0
comment Created by Open3D
element vertex 1878
property double x
property double y
property double z
end_header
-10.1785 78.6257 -2.76727
14.4029 136.024 -3.6615
-3.10313 93.0775 -0.893884
14.1544 134.635 -2.77759
6.84579 113.743 1.31789
7.03648 107.559 7.97177
11.9023 128.03 -1.25754
-1.41923 97.6386 -1.46788
-3.56659 92.2052 -0.907583
-11.4083 84.8904 -11.5679
13.994 137.094 -5.38817
7.3195 109.648 6.7084
17.1768 141.992 -2.89954
9.71558 111.087 10.8282
7.5461 111.508 5.4575
2.07685 99.8075 4.60073
-11.3343 85.8298 -12.1562
3.50788 108.967 -1.17738
7.4309 122.54 -5.70691
-14.1207 82.7648 -15.4273
7.52734 111.469 5.57428
16.0823 133.49 3.32738
17.8211 143.224 -2.38951
-0.520961 109.81 -11.0605
1.25146 98.6977 4.12122
15.1633 130.535 4.28431
7.16729 121.136 -4.63967
-9.82935 89.5368 -12.0338
-1.70613 108.041 -11.8652
13.9065 134.695 -2.5686
13.7726 136.138 -4.30545
2.15369 112.685 -7.48852
11.6374 127.944 -0.951027
19.2264 142.589 1.87918
-2.56842 95.4746 -1.06341
13.2174 124.509 6.20622
7.02632 121.064 -4.54504
-2.65983 92.6324 1.61315
15.6142 132.325 3.91203
6.57401 120.117 -4.61979
-4.77229 87.5969 1.83355
7.96201 113.781 4.91232
12.7098 120.836 8.76125
5.62284 118.251 -4.89186
-12.9735 83.2632 -12.6181
-6.77883 96.3528 -11.4542
-7.11049 95.6717 -11.5295
17.058 137.421 2.2811
0.165375 97.1255 3.76953
-13.2406 83.0542 -12.9005
12.1559 135.637 -7.12859
-5.6191 100.874 -13.178
-1.71853 108.397 -11.7366
-0.746753 94.8007 4.06481
0.0196818 95.5237 5.10431
6.62328 115.156 0.659149
7.07006 109.202 7.62443
12.9916 123.424 7.01257
8.02155 114.56 4.46416
2.77181 113.438 -6.41305
1.87251 99.6163 5.37746
6.49372 115.148 0.497248
13.0288 124.183 6.47191
7.66809 112.839 5.50047
6.38195 120.002 -4.57347
6.96932 108.031 8.72466
-12.6585 77.458 -5.71221
-6.3131 99.2081 -12.8035
-6.58032 84.1449 1.61665
0.575222 97.7934 4.4295
7.06589 107.33 9.82351
-7.18321 96.0394 -11.5749
8.10163 126.823 -7.22038
0.0455453 96.1089 4.96954
8.4509 109.857 10.553
-1.76347 108.667 -11.6455
14.1022 136.977 -3.47859
-0.616111 95.9958 3.67317
-4.10379 90.3747 1.29144
-4.72039 103.581 -13.2097
14.049 128.022 5.51298
8.08918 116.076 3.7828
-8.02118 94.7604 -11.8815
0.208939 102.924 -1.14512
5.1156 117.526 -4.3938
-1.9656 93.1323 3.70735
15.543 133.277 3.82582
12.777 124.217 6.52991
-2.59903 96.4053 -0.945641
-9.11459 92.4344 -11.9024
12.6245 133.878 -3.36301
-3.49542 106.187 -12.6724
13.8506 137.103 -3.73391
12.5658 132.985 -2.5567
-5.81961 85.7484 2.42951
-6.39548 100.183 -13.2892
-2.53207 107.863 -12.0801
9.06938 129.763 -7.25684
-10.6023 89.9057 -12.5902
-1.62653 99.1962 -1.24926
7.19606 124.515 -6.27352
7.38941 108.987 9.68835
10.7453 133.212 -6.77284
-3.70102 93.7803 -0.528655
13.4337 135.03 -2.38936
16.1994 136.359 2.67743
8.24446 116.035 4.75897
-3.60789 106.278 -12.673
12.5184 121.841 8.8189
7.51957 109.618 9.56402
-9.11133 93.7733 -12.7248
-12.8882 77.289 -4.85703
-12.8844 84.6878 -12.2168
8.46814 128.629 -7.09091
13.2149 135.774 -3.30454
6.39379 116.366 0.450821
-3.47267 95.0114 -0.822172
-12.6557 85.1803 -12.0408
7.22203 110.061 8.70985
-2.94772 107.904 -12.1439
4.59819 117.14 -3.99798
-1.70506 99.8302 -1.06045
9.48173 114.015 10.4598
-11.8684 88.7114 -13.1991
12.1831 122.574 8.18441
10.1203 132.689 -6.58201
7.43449 112.576 7.33644
6.9783 117.916 1.00961
7.66398 110.784 9.70638
0.283779 113.384 -9.73952
12.0673 121.844 9.03978
-8.21003 97.2154 -12.8062
-4.73278 105.447 -13.0126
-15.4861 82.48 -14.6629
-16.1228 82.3749 -15.9765
13.4871 138.628 -4.19749
8.4557 118.659 4.20169
-0.68047 112.13 -10.2232
18.5105 143.504 2.49734
-7.45688 100.205 -13.834
18.6869 144.838 1.60796
-10.7445 79.976 -1.07755
3.42547 112.706 -1.15142
8.40473 118.082 4.99136
7.6484 114.625 6.7408
-7.4988 100.722 -13.9421
10.134 133.95 -6.64253
11.1545 136.996 -7.31455
-1.74893 100.856 -0.829206
3.1014 112.366 -1.17811
11.1339 137.002 -7.33215
5.32324 116.708 -0.404912
12.7019 135.668 -2.36931
8.50113 118.862 4.80532
4.11391 117.614 -3.96967
-12.4978 78.2947 -2.81639
14.8451 141.122 -2.76696
-10.8453 93.3442 -13.9645
15.9515 138.216 2.80501
-13.8636 86.2902 -13.6547
5.40999 120.613 -3.68593
0.974843 108.09 -1.28702
17.0248 140.542 3.14794
8.54416 120.979 3.30481
5.56819 117.857 -0.296506
11.8922 137.909 -5.78828
17.9281 146.503 -0.521013
-5.51806 105.268 -13.1177
1.43489 109.383 -1.24376
-5.69891 90.372 1.37175
-14.2168 85.4128 -13.1792
8.57864 120.136 4.44783
13.2475 139.12 -3.72576
8.0586 114.204 9.27442
14.7014 141.232 -2.39692
-12.9523 78.2974 -2.98959
-11.1352 93.8027 -14.2639
8.96641 115.744 9.9346
13.5383 130.983 5.29362
9.02033 132.214 -6.27571
7.61946 120.98 1.80483
13.76 139.99 -3.00486
6.25816 125.021 -5.2647
6.0987 123.396 -3.99634
12.3234 126.941 6.75082
13.2009 139.227 -3.48848
-5.59416 105.683 -13.0688
7.74626 115.694 7.56841
9.94235 118.293 10.0138
17.2141 141.57 3.46651
6.08967 123.741 -4.2471
-16.9123 82.264 -15.5929
-15.8362 82.7761 -13.5145
9.83349 134.943 -6.63534
-9.50008 97.6916 -13.7792
-0.284764 104.812 0.305852
10.8899 121.075 9.73431
-11.956 92.8344 -14.4535
9.04929 116.618 9.97364
8.71386 116.314 9.52047
-10.799 81.4165 -0.369684
-10.6089 81.6023 -0.113964
-0.235674 105.127 0.229654
-9.03282 99.005 -13.8074
-7.15951 86.8558 2.68458
-16.9048 82.2169 -15.005
11.0488 122.375 9.01796
5.1484 118.367 -0.497281
8.15408 115.758 9.00027
-5.34419 93.1137 0.677855
-5.20537 93.3885 0.757843
-12.4262 92.1285 -14.4491
8.56509 119.898 5.97923
10.906 123.459 7.84527
-3.00926 99.3003 0.0617916
-9.30566 98.6015 -13.6547
-4.7496 94.246 1.21874
14.7117 141.904 -1.64557
1.77842 111.66 -1.11945
8.52663 123.484 2.58588
15.4831 139.051 3.04273
0.522988 108.672 -0.941534
-6.65769 88.2515 2.97154
17.8441 146.571 0.981901
-11.4726 80.9945 -0.731139
-15.0425 77.9327 -5.85346
-6.44633 90.5093 1.36127
17.6424 146.726 0.511914
3.89649 119.343 -3.6579
11.2138 138.946 -6.41785
0.567489 115.644 -7.54612
-1.31818 113.695 -9.89289
-13.2978 79.0013 -2.65761
-2.8744 100.173 0.130273
11.0935 124.948 7.45945
11.497 126.006 7.33537
0.27267 115.59 -7.97444
17.1243 146.978 -0.622968
-15.3219 85.078 -13.2321
14.2239 141.267 -1.55103
7.64628 123.222 1.41263
-1.20383 114.192 -9.77698
-5.8355 106.727 -12.8822
-12.6824 79.8811 -1.72144
8.24009 119.21 7.01583
8.78568 124.348 3.14621
-12.8461 92.8529 -14.9221
17.1775 147.089 -0.191916
12.4284 140.631 -4.61455
5.65526 120.742 -0.275734
15.9537 140.906 3.22794
-17.2603 82.7947 -14.8975
-6.42057 105.895 -13.0874
-1.83587 102.63 0.690536
-12.9478 79.7686 -1.92421
-14.4228 89.4639 -14.9576
-3.44833 99.2919 0.408048
2.60575 114.744 -1.09788
8.11556 117.921 8.49423
-15.4297 77.3941 -5.03865
17.1554 144.241 3.09609
5.69344 124.873 -3.80037
-15.5437 77.4244 -5.12697
-12.7439 80.2285 -1.46261
-1.37655 103.679 1.22828
8.94907 123.53 5.20029
-5.49388 108.058 -12.474
-12.5485 80.5601 -1.19692
12.4304 141.138 -4.35262
-17.5583 82.318 -14.4177
17.0836 144.407 3.06174
4.81371 120.059 -0.77573
16.6158 142.998 3.49386
4.67722 119.931 -0.798863
12.2845 140.53 -3.90727
-16.7538 75.7525 -5.85365
-14.8693 89.8834 -15.4898
13.4779 134.425 5.11463
8.90168 119.466 9.57059
-4.61114 96.923 1.0864
9.27468 136.675 -6.71622
7.97984 125.788 1.19073
-10.6814 98.2487 -14.1167
-15.114 88.4118 -14.4263
-9.22461 85.4555 2.03347
-15.5376 87.2399 -14.182
7.74137 132.558 -5.96189
-11.3442 96.3191 -13.5449
-15.0941 88.9004 -14.7352
12.1254 130.837 5.89508
13.3076 133.718 5.77903
3.13585 117.288 -1.06138
-18.0946 82.5422 -14.8808
12.1975 141.062 -3.78362
-17.2602 75.7193 -6.10948
0.276042 110.299 -0.376281
-7.90411 88.0799 3.04302
8.74158 135.815 -6.39492
15.2156 141.051 3.2527
5.80374 127.739 -5.04055
-2.63692 102.11 1.24845
12.0866 140.833 -3.61921
-6.73877 106.902 -12.9068
-4.19884 98.7063 1.10496
-10.6435 83.8563 1.20644
-16.2225 86.6743 -14.1306
-5.91236 94.0777 2.1978
9.00818 127.673 2.91379
8.31326 121.139 7.87449
7.91439 127.153 1.00672
8.92283 137.226 -6.66485
-0.422572 116.99 -7.8673
8.21709 127.685 1.28608
12.0428 131.795 5.95868
-17.8908 75.5697 -6.53921
-14.1105 93.0722 -15.3241
-3.05201 101.712 1.45037
9.83407 124.759 8.02842
7.05275 132.175 -5.70148
-8.45104 87.4099 3.41517
-14.6585 92.1922 -15.5474
14.9186 141.128 3.45692
-16.259 78.1912 -5.20344
8.99979 125.837 5.19195
2.80447 120.997 -4.15993
-11.7804 97.124 -13.7246
10.5397 141.126 -6.42761
-17.9968 84.73 -15.5721
1.10339 119.07 -5.96999
-7.97665 105.573 -13.306
3.27939 121.782 -3.65847
-14.0366 80.2308 -1.90329
12.985 141.662 -1.2212
-8.82678 86.7836 3.54232
4.81462 124.849 -3.0897
14.3197 139.551 4.07391
5.37965 126.885 -3.74775
-1.89935 115.751 -9.31204
5.47191 127.51 -4.0488
-15.6124 78.7525 -3.73043
-2.52489 103.052 2.15354
-11.2703 99.4258 -14.2745
-13.028 95.1349 -14.0182
-8.11124 105.646 -13.2251
-16.7626 87.8911 -15.3337
12.2775 140.665 -1.34503
-5.15708 97.1639 2.09775
-7.08602 93.008 1.88048
-6.71117 107.976 -12.1302
4.47409 124.632 -3.04677
-11.6998 98.6446 -14.094
2.70658 118.423 -0.773996
-18.3633 82.8731 -13.5956
2.61793 121.59 -4.10598
-1.31227 106.67 1.77391
8.89993 127.893 4.14469
-17.9518 83.8792 -13.4898
-17.7673 76.4137 -5.61892
0.749809 119.631 -6.25624
4.02203 121.808 -0.813504
9.4831 140.188 -6.6259
-18.9391 84.0561 -15.7511
-3.82063 113.286 -10.1594
8.01272 136.58 -6.23707
-11.7417 84.1562 0.773666
-7.61295 91.1542 3.28747
5.94948 126.113 -0.482229
11.6087 140.958 -2.30066
-19.1246 83.1998 -15.136
-17.2507 88.366 -15.9818
9.19625 123.969 9.13195
0.673705 113.931 -0.373747
6.03028 131.528 -5.56987
-14.4118 94.0667 -14.9726
-7.20715 107.729 -12.0611
-1.25058 107.664 1.70292
4.91487 126.475 -2.90953
11.2264 131.839 6.29311
-0.712185 118.368 -7.47412
4.92124 124.493 -0.654737
-6.47212 94.5218 3.22308
5.93596 126.772 -0.381535
-19.6622 82.691 -15.0875
10.096 128.361 7.59553
-19.2761 82.1266 -13.5936
16.0263 146.507 3.12637
-18.341 85.9188 -15.2083
6.67661 128.385 -0.215186
-5.61129 96.9044 3.0317
-0.872886 109.657 1.17299
-18.4976 86.124 -15.7309
1.90313 117.936 -0.585779
4.66617 124.391 -0.644728
8.02923 131.298 0.210619
-18.0868 76.91 -5.38978
-18.6841 86.2933 -16.1085
0.0545222 113.111 0.109766
-12.335 98.8857 -14.0681
-1.17905 118.408 -7.78606
-13.4776 96.335 -13.9494
-19.979 80.3178 -12.8396
-15.2046 93.816 -15.3319
8.65525 139.94 -6.57444
-8.0992 90.6624 4.20704
8.71548 132.746 0.775939
-19.1906 84.7086 -15.1928
10.7019 131.327 6.85695
0.900664 116.026 -0.344953
0.972803 116.375 -0.401591
-18.2531 87.7213 -15.875
-14.1463 82.3499 -1.05615
-7.48562 108.154 -11.5241
12.5988 143.677 -0.869186
-0.501881 119.942 -7.18536
-4.85031 99.6974 3.06247
8.85374 132.344 1.92208
7.19439 136.658 -6.14249
-1.88719 118.194 -8.51834
-4.89874 112.893 -10.1331
7.50001 131.317 -0.0761476
4.34808 126.732 -2.7053
-10.3839 103.747 -13.5363
-11.6319 86.0085 1.35048
-19.7427 75.6938 -6.9087
10.8098 144.275 -5.23926
-19.2507 84.9186 -14.8513
8.94018 126.853 7.96348
-18.6249 87.4107 -15.8365
14.6152 147.737 0.187891
4.88425 129.731 -4.14188
13.0735 138.681 5.70548
14.5852 147.719 0.209919
-12.863 98.9042 -14.0152
-19.6314 84.7159 -15.3444
-4.62704 113.711 -9.86814
-18.6148 77.044 -5.34328
-0.369967 113.032 0.583984
-1.02318 119.667 -7.52254
8.91348 132.042 2.92633
0.189588 121.207 -6.23437
-19.0258 85.1338 -14.2699
-8.14207 92.1736 3.69048
12.2568 136.773 5.97835
8.44832 128.171 5.85024
6.49386 135.613 -6.04178
-16.7787 91.6915 -15.5194
4.7591 129.113 -3.40917
0.290281 121.475 -5.99549
-17.0158 91.0673 -15.3194
2.99829 122.098 -0.380677
-20.8753 82.5971 -15.6385
-17.6127 79.3644 -4.92041
-17.9437 78.6524 -4.96224
8.50552 140.899 -6.39622
8.74491 127.639 7.38184
6.98838 131.337 -0.247888
6.50684 136.106 -6.0588
-15.8079 80.9405 -2.11901
12.3578 137.494 6.05243
-5.42713 99.1082 3.65091
-2.56852 117.931 -8.55741
15.1539 149.426 0.664383
12.2345 137.262 6.12583
8.42116 128.531 6.14085
8.56293 130.001 5.03665
-11.6188 102.103 -13.3797
-10.2732 88.0696 3.7082
-20.223 82.1443 -13.0994
0.641056 116.799 0.17232
15.1184 149.546 0.727609
-0.878044 120.461 -6.88234
4.79147 131.737 -5.07681
-7.65631 94.1255 3.91432
-4.74355 101.275 3.51534
-17.0126 79.9567 -3.33948
-12.2764 86.6571 0.924293
13.1521 141.762 4.25257
-0.381383 114.018 0.936718
6.80598 131.779 -0.295147
-8.6187 107.801 -11.5956
-18.7989 77.9118 -5.05856
13.209 147.429 -0.905248
-13.9615 84.2695 -0.186731
9.908 132.082 6.84796
-14.3144 97.4003 -14.0263
-21.1362 81.3741 -13.5996
-3.58246 116.922 -8.78544
3.11883 126.728 -3.17573
-15.1001 96.0928 -14.3589
-16.2798 94.3361 -15.2957
9.84871 144.632 -5.56639
14.6193 146.022 3.99336
10.2163 145.318 -5.31768
5.97549 136.279 -6.01332
12.0839 145.395 -1.09665
8.87356 132.533 4.40801
-19.3358 87.7003 -15.5327
8.54642 142.486 -6.24184
9.54038 134.921 3.58828
12.0168 138.205 6.01968
13.971 144.334 4.46001
-21.1719 81.6462 -13.5574
-4.97229 101.355 3.93083
-11.6071 103.266 -13.1011
13.0769 142.71 4.2386
12.1132 146.331 -1.52801
11.1596 136.779 5.83408
6.71527 138.74 -6.30689
-18.972 78.4763 -5.07043
9.8473 135.585 4.03992
-7.261 110.517 -10.1609
11.7099 138.489 5.42529
11.8332 139.15 5.04947
-1.86582 110.454 2.27637
14.935 149.331 2.03642
-6.47494 111.892 -9.6658
6.81301 139.113 -6.35261
6.35818 132.142 -0.434328
9.5142 132.297 6.74493
12.7972 147.967 -1.35582
-3.81076 105.492 2.94556
-11.2388 104.892 -13.4584
0.342702 123.356 -5.31557
2.00447 121.944 -0.0610229
11.7725 146.04 -1.66185
10.2425 134.398 6.45407
-3.07119 107.012 3.27019
10.4221 135.719 5.60728
-2.4417 119.537 -7.73918
-3.76234 105.722 3.03553
-18.5602 79.7891 -5.01382
-17.6002 80.307 -3.27744
9.46628 145.001 -5.66082
-16.1161 95.5868 -14.9369
10.787 137.373 5.05352
-15.9989 82.5735 -1.66474
12.7814 142.766 4.30288
14.6893 149.477 1.98827
-21.7491 80.7496 -12.9844
-7.66055 110.323 -10.1484
-14.8688 97.969 -14.3015
11.034 145.671 -2.4674
5.72275 137.103 -6.03896
-2.09834 110.518 2.55607
-15.5939 83.3928 -1.28155
13.9927 149.304 0.797384
4.05864 130.629 -3.19619
-18.5577 90.1477 -14.6471
-2.41482 109.772 2.9669
-19.5346 78.6196 -5.18763
12.5102 148.29 -1.20349
-6.57961 112.566 -9.23501
-9.28584 108.507 -11.3743
-0.111189 123.878 -5.64801
5.26799 131.099 -0.461011
12.5389 142.998 4.39905
-6.51492 99.2272 4.4276
-21.5186 82.7382 -13.4981
-17.0034 82.0185 -2.3763
-6.00588 100.677 4.25958
11.8288 140.72 5.20703
8.01408 143.154 -5.96034
-5.47973 114.685 -8.48069
-21.8995 83.7329 -15.2094
-22.0305 80.8202 -12.4612
-9.43902 92.6818 4.60606
-21.5067 83.516 -13.7904
-21.2057 85.3864 -14.9562
-2.85977 108.966 3.62259
-18.9257 90.2183 -14.483
-23.5789 75.7726 -10.7339
-13.6993 87.3333 0.419289
5.90549 133.025 -0.163652
-2.24994 111.403 2.71312
-6.91445 98.835 4.60985
-1.30429 114.187 2.15733
-20.9701 86.7582 -15.4101
7.55087 142.713 -5.80043
-1.69932 122.143 -6.37247
-22.432 82.1583 -13.9477
10.5462 147.016 -2.88097
11.9373 142.191 5.15966
-18.7004 91.7408 -14.6432
-6.35708 101.413 4.02659
11.7773 141.766 5.37044
-22.6311 83.0838 -14.9527
-14.4725 86.7546 0.139387
-11.1475 107.095 -12.524
11.4996 141.566 5.07036
11.478 149.048 -2.44032
7.88955 144.164 -5.76622
-2.08706 121.936 -6.40525
5.52935 138.897 -5.78347
-15.3836 85.4524 -0.384965
-14.6279 101.195 -14.2743
-12.5143 104.846 -13.0325
-0.0120108 118.74 1.8215
-22.0342 76.5872 -6.58913
0.924607 121.882 1.00136
4.97694 132.034 0.187619
-15.5333 85.5453 -0.418804
-4.93762 106.145 3.40254
-12.5768 105.088 -13.045
-15.9608 98.8777 -14.5926
-17.2937 96.1838 -14.9311
-0.0538039 125.688 -4.74691
-18.3135 82.0306 -3.05346
-23.1917 79.0024 -11.1794
-23.1483 82.0625 -14.0976
5.7013 140.033 -5.63862
12.8661 150.368 0.479851
-16.3127 84.8853 -1.05255
0.374099 120.685 1.54068
-23.0722 83.0907 -14.6106
0.601391 121.427 1.41699
-5.25453 106.047 3.41129
13.0236 150.987 0.483875
3.4615 132.818 -3.09318
-17.8088 83.3234 -2.47522
-22.3943 85.2134 -14.8441
8.62056 147.031 -5.37946
-19.1446 92.5272 -14.656
10.7118 149.421 -2.95294
0.631104 121.836 1.49474
-16.1795 85.562 -0.797685
-9.19125 110.878 -10.0111
1.39657 128.627 -3.2996
11.1017 143.09 4.55357
-3.01885 121.571 -6.30255
-15.524 100.868 -14.3057
-22.3583 77.3493 -6.38338
-23.7844 81.721 -14.0068
-8.25728 112.273 -8.84056
-3.16126 111.287 3.9045
-19.3722 92.5439 -14.5445
-6.43171 104.222 3.56152
-13.7997 103.826 -12.9304
-8.52033 97.8947 5.09334
4.67875 138.447 -5.07317
12.8107 151.37 0.752411
4.32523 132.333 0.423495
1.76743 125.927 0.95102
-14.3576 103.258 -13.2722
-6.48914 115.58 -7.50316
4.65863 133.783 -0.0232592
-9.65916 95.8958 4.96913
-11.3469 108.87 -11.8337
-1.36322 116.717 3.22799
-5.60126 117.17 -6.89305
5.68782 141.438 -5.17233
-9.18822 111.668 -9.49548
0.95773 124.035 1.45752
2.69082 131.884 -2.35365
-11.9272 108.269 -12.255
-23.8711 82.7163 -14.1452
-24.5723 77.8576 -10.7234
-4.19183 120.165 -6.18541
-21.3831 88.6432 -14.1138
9.96621 150.012 -3.44577
-21.3589 88.8092 -14.0926
10.9502 144.771 4.206
-24.2909 82.0519 -13.9827
-20.1893 91.1833 -13.5993
11.4112 146.851 3.34209
-16.2197 100.963 -14.2226
-0.0552622 121.531 2.5421
-15.4982 102.569 -13.8535
-1.03632 126.106 -4.15041
-8.68307 99.5303 4.84745
11.4338 147.385 3.24274
-13.8511 90.9828 1.55647
9.0162 149.792 -4.65516
-22.2001 87.3529 -13.8697
-18.631 96.1754 -14.474
-16.5412 100.75 -14.2299
-21.3513 80.6892 -5.23871
-17.3434 99.117 -14.4301
-10.8957 93.768 5.70033
8.95816 149.827 -4.62433
4.31085 139.289 -4.76188
-2.93078 122.853 -4.93897
-13.3172 106.897 -12.7496
-16.8675 100.291 -14.2877
10.3786 144.796 3.91857
-15.7369 102.602 -13.8262
-3.01758 113.615 4.38923
-15.4136 103.289 -13.6004
-14.2152 105.029 -12.5712
10.091 144.709 3.67246
3.49203 137.127 -3.64793
-4.7822 120.189 -5.70703
-18.4074 85.3357 -2.12452
-20.6867 91.5353 -13.417
6.34414 145.019 -4.75648
-15.3095 103.809 -13.2744
-24.8751 79.7399 -11.1217
10.7327 150.901 -0.414095
3.21879 132.211 1.01106
0.212323 123.812 2.51391
-4.82894 110.297 4.47232
-5.14003 109.684 4.41993
-9.28023 113.428 -8.71959
-10.8195 95.932 5.28485
-3.40407 113.766 4.61216
10.5011 147.277 3.12706
2.00274 128.97 2.06804
1.74901 128.466 2.12752
-22.266 88.8733 -13.4185
-19.5191 95.7952 -14.0049
-23.2267 79.3282 -6.062
11.669 152.601 0.855989
7.73398 148.918 -4.40444
-5.85129 108.896 4.39969
-17.9254 87.0905 -1.51709
4.52419 141.908 -4.6229
-10.0167 98.5763 5.30571
-10.7402 112.065 -9.80502
-10.5747 97.1734 5.52146
4.34226 136.587 0.433148
-0.591388 128.415 -2.6848
9.27585 151.039 -2.62009
-10.4448 97.5336 5.56035
8.37333 150.578 -4.20923
-22.9202 87.8458 -13.3252
-6.03796 108.981 4.41521
-9.95915 99.3556 5.12168
-22.8311 80.6205 -5.67535
-13.005 93.0892 4.44856
1.7663 133.696 -2.13588
9.55022 146.598 2.86479
7.94694 144.516 1.27302
-22.7713 88.4042 -13.1411
-15.8086 90.9528 0.283349
11.3223 152.884 0.707027
9.2834 151.197 -2.22553
-21.9586 81.9849 -4.38076
8.59818 146.075 1.74804
-0.98947 122.384 3.45932
-17.1841 89.2335 -0.562856
5.75205 145.813 -4.3284
0.173072 125.969 2.72463
1.74315 130.63 1.6765
6.7795 143.353 0.631446
-0.824559 129.211 -2.69182
5.1769 140.292 0.118384
0.626607 127.222 2.72871
-16.9184 89.9854 -0.337631
-8.06392 105.884 4.15522
-13.5088 93.4583 4.08973
-6.78531 118.933 -5.88038
11.1149 153.222 0.957837
-9.86113 101.345 4.66821
-21.7621 82.7053 -4.01929
-6.35618 109.585 4.50794
-10.4556 114.009 -9.27624
-16.5773 90.7772 -0.0715281
-0.289044 124.951 3.24629
-24.7206 85.2852 -13.1905
-23.0154 81.294 -5.22962
-16.8086 103.559 -13.1952
-15.8213 105.368 -12.6879
-3.70874 115.512 4.98116
-1.52486 121.825 3.69479
10.8386 152.591 1.35199
-7.42253 118.324 -6.2516
-7.64313 107.298 4.26828
8.54334 151.768 -2.9346
-2.55029 118.865 4.54329
-11.7355 96.6786 5.62621
4.74971 144.536 -4.15984
-21.7028 83.523 -3.93
10.0951 150.616 2.0664
0.936443 129.404 2.31156
4.11819 138.551 0.501361
4.2224 138.885 0.429527
-17.2347 103.346 -13.2306
-9.40718 116.209 -8.117
9.13297 148.581 2.22396
-11.978 96.6262 5.66494
-7.16122 108.943 4.42882
-24.7224 85.4836 -12.3205
-17.5929 102.963 -13.3803
3.17398 136.43 0.857059
-25.0664 83.6053 -11.1088
-14.0104 109.655 -11.7074
-3.96647 124.999 -3.94164
-24.4646 80.8554 -6.89321
-19.0145 99.6585 -13.0085
-2.12889 121.437 4.06961
-7.96804 118.393 -6.26717
-11.2563 114.326 -9.69706
-0.155462 126.79 3.35368
-18.1343 102.536 -13.5283
-17.0423 91.5023 0.0132461
-19.6281 87.7506 -2.10618
-25.0544 86.3386 -13.0778
-25.0764 86.863 -13.367
-15.4932 108.222 -12.6952
-24.3547 81.699 -6.52573
-8.89406 106.348 4.39315
4.13664 140.404 0.338238
-11.8513 98.2836 5.8077
-10.5327 116.075 -8.91015
5.17207 147.052 -3.80311
-6.97329 120.47 -5.08745
-2.1246 122.422 4.14626
-3.43189 119.033 4.58291
-0.127358 128.078 3.19252
-3.95009 117.511 4.98216
7.39706 147.564 1.08036
-14.5708 94.9061 3.43872
-19.7092 99.4824 -12.7927
-17.1768 105.37 -12.8565
7.88896 152.566 -2.43652
-16.8323 106.169 -12.8098
7.46524 148.096 1.07819
-24.2821 82.7048 -6.46934
4.86306 146.933 -3.67846
-17.6113 91.7923 -0.0766474
-8.02556 119.584 -5.81652
-21.111 86.547 -2.80558
-2.72156 128.776 -2.76976
2.99267 142.224 -3.02395
-0.351729 128.277 3.27025
-25.4649 84.5492 -10.6029
1.48316 138.13 -2.20234
2.59146 137.257 1.21768
9.3146 153.858 0.0962034
-4.71664 116.287 5.41227
7.16459 148.057 0.973521
9.31439 152.373 1.62245
-13.7937 95.7948 5.09715
-3.31962 127.855 -2.86591
7.7739 149.187 1.29387
-25.1053 82.2471 -7.27843
-24.1569 89.2671 -12.105
-8.05945 119.957 -5.78311
-8.52093 119.421 -6.27662
-15.261 109.837 -12.0138
8.14258 149.999 1.58804
-2.0724 130.989 -2.85692
-25.2249 82.376 -7.39899
-21.1165 87.1547 -2.69376
-7.16894 121.562 -5.00135
7.83404 152.967 -1.93132
-19.4771 89.7438 -1.47198
-22.2538 85.4527 -3.55185
-21.8226 96.0454 -13.128
-6.06917 113.562 5.51278
8.20915 153.347 -1.32052
8.32747 150.576 1.73294
3.44773 144.502 -3.30667
-24.6505 88.6405 -11.979
-13.7874 96.1458 5.44061
-3.07629 121.821 4.42311
7.85713 153.16 -1.6955
-0.302579 129.92 2.79921
-5.324 115.582 5.6618
-2.72584 130.099 -2.81512
-8.39287 109.559 4.69608
-0.69879 133.883 -1.88573
-14.2239 96.2084 4.71031
-0.804821 128.298 3.47315
-7.25645 111.992 5.04327
1.82321 140.428 -2.50701
-15.6394 95.1784 2.64068
-15.6754 109.957 -12.0817
-17.9261 105.62 -12.8945
-19.6085 101.773 -12.912
-1.64125 132.617 -2.45454
2.86917 139.726 0.882711
-14.464 96.3538 4.4856
5.11011 145.18 0.682655
-1.38952 133.235 -2.22239
-21.5566 97.6888 -12.9777
7.44587 150.069 1.30602
-22.4751 86.0173 -3.37202
-4.30431 120.092 4.36145
6.70066 152.664 -2.85138
6.50383 152.504 -3.10758
-15.3174 110.995 -11.6858
-11.8674 116.467 -9.12401
-26.5434 83.6156 -9.96318
-13.0996 114.897 -10.2261
-18.0108 106.182 -12.7532
6.41022 148.485 1.07158
-22.7952 95.5991 -13.0435
7.15094 150.252 1.22592
-23.0554 86.0668 -3.96802
0.102591 133.514 1.79672
-14.6902 112.67 -11.3038
-24.9153 90.1085 -11.9966
7.82541 152.799 0.556697
-2.36022 132.694 -2.65579
-21.4227 98.9779 -12.7186
-24.7582 90.766 -12.1368
-22.5719 96.6007 -12.9254
-16.4279 95.5461 2.26801
-12.7793 100.456 5.89593
1.46961 141.462 -2.34023
-14.1234 114.124 -10.8116
-26.31 84.0618 -8.67739
7.16882 151.619 0.887201
-8.61922 111.159 5.09623
-5.46175 119.001 4.72449
-4.43725 122.068 4.14449
5.12503 151.125 -2.90397
-24.3593 85.91 -5.43337
-11.1368 119.054 -8.15008
-1.98935 134.28 -2.32737
1.31191 141.819 -2.27129
1.28707 138.112 1.40109
-5.5576 119.201 4.70861
-2.26953 133.934 -2.42477
0.718378 140.508 -2.06522
-4.8838 128.589 -3.00801
4.26147 146.129 0.487326
-5.54049 127.331 -3.22188
-0.519059 133.744 2.09616
-11.5465 105.313 5.17954
-2.31768 127.465 4.276
-20.1442 103.13 -12.2885
1.09811 141.834 -2.18726
4.38929 146.264 0.971024
-26.8091 86.2956 -10.6064
-9.88742 121.155 -6.53995
-3.48607 125.169 4.17186
0.984209 138.196 1.42815
-18.0451 94.6785 1.28985
-10.3231 120.594 -6.85644
-15.827 112.586 -11.4756
-17.7801 95.1681 1.48515
3.61974 146.035 -0.184203
-11.9669 118.569 -8.5071
-22.3501 88.9671 -2.69893
5.68006 153.155 -2.44281
-3.18044 126.238 4.19511
-13.5974 116.434 -9.68054
-13.3019 101.457 5.95322
7.90782 154.972 1.21448
-14.8592 114.734 -10.795
-11.5368 106.252 5.28567
-5.37157 121.673 4.13669
-26.6731 86.172 -9.2154
-9.53954 111.056 5.31903
2.35285 142.999 0.771825
3.21029 145.834 -0.0745535
-25.7103 86.602 -7.28104
-26.6403 86.4323 -9.10903
2.236 146.195 -2.44393
-1.96932 130.576 3.50302
-2.9671 127.613 4.18283
-24.5932 87.592 -5.40953
-12.0238 119.251 -8.13875
-21.4362 91.1056 -1.63541
-22.7345 89.3696 -2.86961
-0.00928587 140.773 -2.02587
-23.87 88.2419 -4.27684
-15.2927 98.3724 5.31105
2.26414 143.282 0.767057
1.26054 141.048 0.712275
2.39831 146.782 -2.39747
1.54352 141.808 0.653463
3.06791 148.767 -2.62049
-5.83969 128.853 -3.16366
-2.40089 135.939 -2.34037
1.60357 142.203 0.683004
-2.84803 135.249 -2.44605
-21.3807 102.329 -11.9806
-6.19809 128.673 -3.27363
2.56106 146.049 -0.487362
-24.9549 88.1874 -5.83444
-24.0314 88.8017 -4.26053
-24.3741 88.6838 -4.70495
-12.5013 119.466 -8.11051
2.62452 148.676 -2.56074
-9.48967 123.883 -5.54444
-24.3946 88.9658 -4.85668
-17.2122 97.4525 3.35207
-0.775973 140.704 -2.05413
-24.8132 89.5246 -6.00466
-20.5503 93.4937 -0.158041
-21.8003 92.3264 -1.85798
-16.5467 113.835 -11.2106
-4.51546 133.186 -2.83005
-5.48051 124.525 3.73504
-0.676623 141.591 -2.01627
-10.3956 122.801 -5.54311
-3.94088 134.66 -2.51761
1.33255 146.595 -2.23189
-10.6166 122.602 -5.64237
-18.9455 96.5094 1.3074
-26.3174 91.5763 -10.6102
-5.71382 124.651 3.67816
-22.8706 100.989 -12.0239
-1.24241 136.915 1.8383
-5.36657 125.646 3.72735
-9.55838 113.817 5.93068
-8.89536 125.954 -4.6428
-23.6821 99.4371 -12.0236
-9.14381 125.804 -4.98848
-20.9764 105.611 -11.9623
-1.853 134.975 2.59897
0.214578 141.567 0.766865
-15.2987 100.507 6.16738
-7.6906 118.39 5.81398
-22.6553 101.847 -11.9283
-12.9613 106.239 6.03202
-25.2114 95.7191 -11.5531
-25.9332 93.5727 -11.0656
-24.4516 90.7464 -4.77752
-11.2609 122.19 -5.87169
-17.5399 98.2115 3.66573
-5.63809 132.326 -2.96331
-17.5506 98.3033 3.69139
-18.7632 97.3307 1.97817
-9.12044 115.214 6.34179
-24.9815 96.8182 -11.6053
-21.6384 93.9247 -0.979338
3.03748 152.323 -2.65609
1.0043 145.606 -0.526754
-23.655 100.379 -11.8905
-22.9554 92.5873 -2.48142
-21.7705 103.992 -11.1145
-22.9466 92.6426 -2.4711
0.873445 147.287 -2.2514
-3.25543 137.716 -2.16932
-11.6437 110.276 5.99924
-24.1427 99.434 -11.7122
-24.6355 98.2572 -11.6154
-20.3664 107.993 -11.4974
-15.7768 116.766 -9.71133
-14.3324 103.717 6.69679
-26.4073 91.4641 -8.67752
-24.513 98.7519 -11.5636
-24.5279 91.6648 -4.48768
-6.94586 130.931 -3.33788
-16.5527 100.109 5.44936
0.12558 146.266 -2.26861
-20.4472 96.3476 0.458015
-7.06736 122.584 4.95968
-2.79012 139.68 -2.27351
-0.208518 142.739 0.772531
-5.46682 134.547 -2.98157
-10.4243 125.935 -5.72192
-19.4409 97.7246 1.88844
-25.6467 95.6216 -9.99952
-24.8553 98.698 -11.1954
-2.43533 136.632 2.39455
-5.7454 134.721 -3.26296
-7.63321 130.94 -3.81487
-14.6723 119.63 -8.57377
-6.93072 124.051 4.79651
-25.421 93.8886 -7.46163
-12.0715 122.89 -5.72826
-12.5428 109.809 6.28388
1.64182 151.357 -2.61407
-2.04892 142.559 -2.26519
-4.66538 137.738 -3.43469
-12.7021 109.543 6.27491
-25.6181 93.4286 -7.22953
1.79558 151.847 -2.65406
-25.2037 94.7109 -7.51787
-1.41647 144.143 -2.29297
-2.60534 141.703 -2.41279
-24.772 99.446 -11.0204
-4.0389 138.984 -2.88558
-25.4048 95.7297 -8.71185
-19.7216 98.0762 1.98292
-24.2908 100.937 -11.2175
-23.968 93.3628 -2.88156
-25.8908 92.7368 -6.65791
-5.62373 128.717 3.91165
-24.6191 92.8726 -3.75866
-24.1913 101.578 -11.3273
-24.6315 92.9563 -3.71955
0.172753 148.652 -2.36888
-25.4414 92.8162 -5.33647
-13.384 108.893 6.43907
-6.8261 134.355 -3.92411
-6.43306 127.729 3.60672
-25.6076 96.4367 -9.00779
-11.9506 124.287 -5.40971
-1.77237 141.916 0.425094
-20.8829 97.5508 0.992739
-25.3777 98.5171 -10.2085
-25.0482 99.7336 -10.6109
-25.0069 93.5515 -4.33289
-20.7417 97.7978 1.24088
-8.92164 131.094 -4.72036
-2.88009 142.902 -2.63532
-18.8763 100.171 3.46812
2.12459 153.922 -1.96168
-25.6893 97.0815 -8.93474
-1.42168 145.015 -1.0305
-23.2608 104.333 -10.4955
-13.4852 122.606 -6.28402
-12.868 123.411 -5.64961
-17.1646 102.126 5.74584
-2.48761 141.063 0.553389
-19.6586 99.4677 2.70529
-25.8302 97.4766 -9.42532
-13.1897 110.326 6.76314
-24.8453 94.3478 -3.96283
-7.61736 135.188 -5.10445
-19.2301 114.213 -10.7699
-17.0634 102.412 5.96926
-10.669 116.539 6.66113
-5.54989 139.008 -3.95376
-3.17608 143.297 -2.77327
-6.15371 129.677 4.0868
-0.449109 149.506 -2.55908
-25.2061 97.4506 -7.28133
-5.81598 138.939 -4.10145
-21.581 97.7762 0.831895
-8.61634 133.621 -5.19247
-9.62712 131.677 -5.55931
-9.43781 119.964 6.56041
-18.4621 101.658 4.42044
-12.6585 125.715 -6.25105
-7.24673 136.673 -4.7735
-17.7567 102.4 5.38984
-8.79799 134.131 -5.71494
-17.1527 103.075 6.11581
-8.51679 123.037 6.00428
-4.15953 137.745 1.38614
-4.21697 142.194 -3.17943
-24.1586 103.86 -10.5575
-9.07976 121.696 6.23773
-3.02222 142.508 -0.631863
-8.70983 134.932 -6.04093
-13.0085 112.061 6.93189
-14.9478 122.236 -7.5942
-22.9811 96.794 -0.583377
-5.8945 133.416 2.08026
-0.803541 150.049 -2.67439
-12.6539 113.272 6.86269
-25.1753 97.8566 -6.45287
-0.20375 151.407 -2.62405
-25.1359 97.2307 -5.72826
-8.92483 122.628 6.10679
-10.4299 131.351 -6.01276
-12.0857 127.603 -6.004
-21.4945 98.652 1.36155
-25.823 98.6039 -8.50154
-7.68194 137.003 -5.1973
-3.67664 141.669 -0.66561
-2.57391 146.27 -2.72577
-3.33797 142.549 -0.747231
-21.9115 109.052 -9.88387
-9.2317 134.515 -6.18448
-3.61841 144.225 -2.95199
-18.5701 102.265 4.65204
-25.4654 98.4295 -7.29096
-12.7055 126.829 -6.32567
-3.80949 143.985 -3.03266
-21.8204 109.534 -9.91026
-4.95356 137.078 1.34252
-5.13126 141.948 -3.92201
-9.09003 135.356 -6.2699
-10.6276 118.461 7.06713
-11.2342 130.143 -5.96289
-8.63376 124.314 5.87473
-5.42728 141.885 -4.16356
-11.7751 116.339 6.90321
-19.1476 116.396 -9.95473
-2.18371 148.153 -2.73444
-2.78392 144.708 -0.653977
-12.9957 113.573 7.05181
-20.9504 112.972 -10.5222
-13.9361 111.486 7.19989
-4.64501 140.598 -0.536041
-6.161 141.26 -4.63435
-5.25716 138.146 0.565168
-25.2296 101.259 -8.39637
-3.75552 143.024 -0.814015
-5.08236 139.103 0.109787
-24.7077 96.7886 -2.63145
-12.8939 114.252 7.05385
-25.6154 99.1385 -7.00715
-23.4863 97.7265 -0.687146
-22.9171 108.161 -9.60659
-14.4776 123.991 -6.04541
-17.8533 104.371 5.83967
-13.3068 127.774 -7.07831
-16.2595 106.904 7.01427
-19.2593 116.855 -9.74913
-10.6128 133.721 -6.73584
-22.1 110.486 -9.87521
-25.1806 102.822 -9.26162
-22.6625 109.084 -9.67897
-0.735762 152.419 -2.63557
-6.51939 135.082 1.41604
-8.51813 127.271 4.64877
-16.4121 121.574 -7.65689
-14.2352 111.723 7.18337
-13.141 128.493 -7.03126
-25.2237 102.553 -8.84512
-18.011 104.519 5.75163
-4.62796 144.625 -3.5578
-3.01888 147.776 -2.94134
-19.0686 103.285 4.66407
-2.71796 148.481 -2.90401
-12.5721 130.533 -7.50254
-1.23264 151.733 -2.63212
-10.2151 122.195 6.31209
-17.5364 119.925 -8.16658
-18.5649 118.323 -8.91824
-17.2702 105.818 6.53963
-11.044 119.745 6.98041
-5.90122 143.127 -4.5204
-10.2683 135.394 -6.76179
-13.7767 113.301 7.23849
-0.0335949 154.305 -1.9579
-24.9682 98.8587 -3.76748
-24.4107 98.2491 -1.79633
-4.73407 145.334 -3.64665
-12.8741 130.961 -7.51959
-25.078 104.691 -9.28353
-13.5406 114.731 7.19261
-7.68466 133.459 2.00612
-10.215 136.601 -6.84632
-14.4957 125.685 -5.67434
-3.50212 148.412 -3.11691
-25.6166 101.385 -6.88283
-10.3083 123.312 6.386
-11.1573 121.344 6.45382
-18.7687 118.973 -8.55955
-25.0341 105.093 -9.06182
-13.4144 115.657 7.09329
-6.8091 138.654 -0.609542
-25.0259 99.5067 -3.31435
-21.6059 113.979 -9.89939
-21.7204 101.684 2.16624
-24.9972 99.5595 -3.08101
-12.7317 117.458 7.22658
-22.5781 111.937 -9.82121
-16.4122 123.376 -7.03469
-3.52382 149.042 -3.03983
-16.3299 109.266 7.29535
-24.3171 99.6753 -1.42954
-21.1481 102.601 2.96204
-9.58633 138.325 -6.13745
-5.15531 143.701 -1.22415
-18.196 106.542 6.0675
-5.24317 143.873 -1.22368
-24.6598 107.188 -9.10223
-15.1406 125.844 -5.80264
-14.6689 113.722 7.37161
-3.12744 150.541 -2.81736
-9.35965 139.284 -5.757
-25.3874 103.866 -7.12863
-3.9329 149.117 -3.08046
-18.6321 120.135 -7.85931
-14.6412 114.027 7.38293
-19.1505 119.477 -8.3705
-5.26423 144.207 -1.16369
-1.72981 153.499 -2.27002
-19.2545 119.419 -8.43968
-19.0498 119.711 -8.20022
-25.1395 101.023 -3.44995
-20.4736 117.694 -9.26686
-24.9228 104.636 -6.41334
-24.5947 104.851 -5.72616
-24.3702 106.377 -6.66502
-24.8194 106.757 -7.94883
-10.1107 126.962 5.67554
-6.46205 145.708 -4.65674
-3.67392 150.399 -2.87211
-6.20994 146.257 -4.53159
-24.5289 105.199 -5.53876
-6.17788 146.344 -4.5084
-13.4634 117.911 7.18041
-18.2291 107.853 6.31592
-19.3433 106.449 5.26492
-14.8956 127.892 -5.88068
-24.2103 109.531 -8.90884
-20.2137 118.912 -9.05908
-10.2593 127.179 5.57329
-20.0403 105.9 4.68018
-5.38464 148.166 -3.87416
-24.547 108.983 -8.67294
-5.73021 147.793 -4.15694
-25.0446 103.977 -4.70519
-8.49315 137.149 0.252256
-16.1252 112.652 7.25374
-16.7731 111.264 7.23796
-8.37265 137.615 0.323349
-25.3291 103.414 -4.21803
-12.509 134.703 -5.97572
-24.0786 107.948 -5.65035
-13.8559 132.375 -6.55574
-15.4148 128.264 -5.98364
-21.5911 117.158 -9.04569
-6.95924 143.507 -1.67618
-22.848 103.851 1.52642
-12.255 135.992 -6.20686
-7.98634 140.219 -0.535015
-19.2816 108.029 5.71191
-8.06769 145.117 -5.52522
-23.6712 103.792 -0.0378996
-10.4287 129.842 4.58368
-24.5955 103.737 -1.73535
-11.6764 137.306 -5.59448
-10.5232 129.471 4.88128
-25.0164 104.562 -3.44818
-10.0088 134.735 1.04509
-17.5648 111.075 7.34662
-23.5557 104.345 0.396569
-24.1987 107.657 -4.37497
-24.7812 106.369 -4.32104
-15.9665 128.139 -5.72476
-24.7637 106.049 -3.77389
-23.8115 108.996 -4.49386
-21.6823 106.085 3.29863
-2.98708 154.305 -1.91737
-10.2793 134.716 0.936828
-24.4248 106.696 -3.53489
-22.9736 105.127 1.41456
-22.5968 105.487 1.93803
-24.5219 105.004 -1.97559
-12.8286 135.951 -5.92751
-24.0615 112.488 -8.25073
-24.0876 104.762 -0.43309
-8.60026 140.132 -0.0804783
-24.3399 105.447 -1.54575
-23.0255 109.801 -2.77488
-23.0019 109.817 -2.72415
-16.2558 128.662 -5.96307
-23.7464 108.155 -2.63292
-17.8104 111.813 7.35187
-7.42743 147.922 -4.84251
-13.5477 133.891 -4.81952
-16.7954 126.983 -5.36623
-22.8114 105.972 1.88316
-11.0559 129.917 4.95803
-10.7737 141.32 -5.54251
-17.2076 126.871 -5.84416
-20.83 108.325 4.37737
-9.026 145.379 -5.45921
-23.9579 106.541 -0.814259
-8.12264 147.242 -5.06773
-17.3879 113.308 7.58022
-24.0046 107.147 -1.43606
-19.3628 122.996 -6.58765
-20.8285 120.921 -7.79632
-23.797 107.708 -1.41596
-23.7578 107.729 -1.26041
-23.6152 108.164 -1.33443
-23.2621 108.662 -0.827112
-23.3882 115.825 -8.13847
-15.3545 118.671 7.50248
-21.4135 120.391 -7.8799
-16.8873 128.472 -5.4803
-20.472 109.754 5.07456
-5.46108 152.322 -2.90458
-21.2798 120.53 -7.37055
-11.5384 132.83 2.70483
-19.9196 110.453 5.8298
-18.5985 125.466 -6.09338
-5.20853 152.931 -2.65274
-19.207 111.363 6.73103
-12.1694 130.143 4.22241
-8.56816 143.004 -0.30133
-20.6007 122.082 -7.00691
-22.4281 108.653 2.23986
-18.3126 126.039 -5.48669
-9.57759 139.737 0.902447
-13.5073 126.484 5.12062
-12.2265 140.012 -5.39999
-20.887 110.208 4.55645
-21.9647 111.05 1.43203
-22.5352 108.366 2.82828
-14.3273 122.816 7.23532
-10.2692 144.754 -5.31148
-25.0541 110.196 -4.69936
-8.26808 148.737 -4.63184
-13.6056 125.512 6.37538
-11.6857 141.351 -5.02123
-19.4985 112.126 6.26411
-8.8926 143.058 -0.182444
-13.7072 125.613 6.19588
-13.6819 124.933 6.96253
-12.9057 139.172 -5.3496
-9.22267 141.676 0.611809
-22.9239 118.616 -7.61517
-22.4747 111.983 0.0433003
-23.1634 118.125 -7.61495
-20.9324 121.976 -6.32951
-18.0519 127.331 -5.06582
-15.961 119.4 7.83304
-13.8698 127.154 4.9199
-18.7704 125.663 -4.70615
-20.5708 111.907 4.89782
-20.1082 123.269 -5.33337
-19.7835 124.008 -5.26057
-7.67581 150.607 -3.9916
-12.9108 132.008 2.70719
-20.9503 122.43 -6.13358
-24.9503 113.847 -6.7135
-24.004 116.489 -7.02068
-11.4937 136.853 1.38339
-14.2918 136.408 -4.54961
-12.006 135.306 1.81681
-21.6355 113.297 1.75828
-23.5303 117.379 -6.55994
-21.5458 120.669 -5.26957
-11.8069 142.374 -4.58384
-20.1897 123.795 -5.25129
-6.717 152.406 -2.88296
-23.7141 116.832 -6.33446
-13.5797 129.464 4.34695
-15.9008 120.837 7.9775
-21.9434 111.937 3.02163
-23.1207 118.795 -6.21139
-13.1951 133.517 1.94178
-21.1235 122.803 -5.407
-12.0531 137.347 0.910296
-11.2698 145.068 -4.86112
-11.5804 144.417 -4.80721
-9.97625 142.04 1.26725
-18.8888 115.643 7.42748
-23.3737 112.994 -0.176373
-18.7759 128.01 -4.59775
-22.5916 114.061 0.583653
-18.8903 115.734 7.44465
-19.9854 115.22 5.50468
-11.9396 138.886 0.430262
-17.5831 118.53 7.87402
-13.227 134.707 1.73848
-25.0073 115.272 -5.77895
-10.8611 140.991 1.0092
-25.3075 114.145 -5.25872
-24.9421 112.062 -2.30239
-14.0516 132.331 2.80679
-17.9529 130.356 -4.14498
-20.5158 115.713 4.6515
-18.0772 130.131 -4.05187
-23.5283 119.17 -5.5907
-9.95911 144.027 1.28882
-15.8647 124.954 6.80443
-14.0999 133.465 2.44079
-22.5141 120.817 -4.15049
-24.9992 112.821 -1.72805
-9.1042 147.597 0.0825345
-14.1295 133.959 2.2214
-13.9649 134.527 2.13227
-24.3521 116.915 -4.0084
-12.8881 138.585 0.693438
-25.1546 113.003 -1.79237
-15.8096 128.149 4.55483
-15.8901 127.981 4.55352
-21.7346 115.972 3.34625
-13.3721 142.72 -4.11377
-11.9485 146.089 -4.20823
-25.0023 116.076 -4.0846
-17.4246 123.127 6.38994
-19.3402 129.111 -3.78981
-24.0671 118.449 -3.98041
-23.3812 115.221 0.904802
-22.5746 115.62 2.40969
-25.5842 114.042 -2.89543
-14.8546 140.108 -4.194
-16.5491 127.971 4.20622
-22.1038 124.192 -4.7353
-15.1077 132.6 2.92483
-7.5621 152.604 0.301232
-19.3378 129.511 -3.63621
-24.5235 114.747 -0.664168
-19.7713 128.472 -3.29504
-7.65332 152.784 0.25663
-7.51458 153.307 0.26852
-17.9349 125.744 4.03094
-21.5734 125.991 -4.51379
-23.5731 119.508 -2.49376
-9.74887 151.508 -2.59961
-19.2096 120.464 6.69692
-25.2555 116.391 -3.06127
-19.4498 130.602 -3.84582
-20.0723 129.217 -3.84582
-17.4083 127.571 4.02575
-20.0205 129.093 -3.47086
-13.2884 139.47 1.69123
-20.89 126.738 -3.03319
-24.7453 117.383 -2.45669
-25.4495 116.101 -2.77845
-22.1279 125.456 -4.48956
-20.0574 129.188 -3.32765
-22.6137 123.682 -3.52674
-16.6335 129.848 4.05937
-24.4453 118.227 -2.2415
-20.0388 129.146 -3.02381
-13.3032 144.538 -2.90951
-14.9181 141.38 -3.42376
-19.9721 129.485 -3.10734
-8.21861 153.427 0.0136281
-24.7816 115.677 -0.298833
-16.1889 138.976 -3.79663
-12.8073 141.799 1.18834
-12.5375 142.399 1.22639
-24.7303 117.833 -2.15027
-20.6829 128.001 -2.92079
-23.3897 123.245 -4.32208
-23.7239 121.695 -3.39675
-18.5346 126.735 3.56742
-19.9487 129.351 -2.22539
-19.0978 132.32 -3.23264
-22.6798 123.347 -2.42245
-21.4166 126.55 -2.69604
-10.1475 148.452 1.32622
-14.0568 138.252 2.55743
-19.1329 132.376 -3.16252
-22.8869 123.712 -3.08647
-18.8667 126.13 3.77387
-23.378 121.807 -2.18823
-20.5013 129.615 -3.34204
-9.08129 151.649 0.864423
-20.9398 118.694 6.56738
-22.9355 122.767 -2.046
-19.8767 130.178 -2.32763
-17.477 129.203 4.18003
-21.9103 126.206 -2.98882
-9.97763 149.258 1.37809
-19.1956 132.474 -3.00961
-14.8993 135.731 3.68839
-20.5662 129.364 -2.87946
-18.2768 133.967 -2.20929
-17.3188 136.311 -2.27777
-18.9829 132.193 -1.90666
-18.9108 132.912 -2.41195
-18.9422 132.461 -1.93539
-16.5312 137.899 -1.78233
-11.381 150.681 -2.72461
-16.0397 139.336 -2.02505
-18.8379 133.323 -2.37054
-21.8686 118.458 5.52289
-18.9401 132.943 -2.20804
-18.8668 133.289 -2.24472
-20.327 121.532 6.14109
-20.9877 128.656 -2.46223
-10.2505 149.299 1.59658
-17.6754 136.978 -3.04257
-17.9916 135.226 -1.91744
-16.452 133.315 3.55302
-15.291 136.527 3.02366
-22.3111 125.827 -2.31286
-20.3468 122.065 5.96365
-18.6765 128.132 3.77854
-19.0288 132.709 -1.59018
-23.5685 122.033 -1.32549
-25.779 116.908 -1.11238
-9.8476 152.973 -0.524669
-22.592 125.828 -2.58292
-24.4847 121.543 -2.60079
-17.7167 130.357 4.3015
-24.0678 122.894 -2.81062
-24.1897 122.645 -2.83931
-23.7126 118.362 2.53741
-22.7983 124.991 -1.97407
-12.9051 147.514 -1.60642
-11.8707 146.297 1.99427
-18.2132 129.769 4.03053
-18.0971 129.946 4.18942
-20.5483 132.149 -3.61562
-23.6325 123.232 -1.75445
-24.8317 118.177 0.64069
-12.47 145.149 2.1354
-25.8585 117.425 -0.769915
-19.0787 134.713 -2.42714
-10.1586 151.904 0.946868
-10.3918 152.592 -0.0934294
-10.2091 151.626 1.3222
-21.1136 122.245 5.68507
-17.6041 137.431 -1.33249
-22.3528 119.824 5.34978
-13.5652 146.085 -0.668927
-25.5677 119.362 -1.2599
-20.0219 133.927 -2.97619
-14.8848 143.89 -1.13205
-15.3162 138.317 3.46153
-13.6819 145.891 -0.287121
-10.5995 151.437 1.3216
-23.4268 124.972 -1.45407
-23.1877 119.889 4.18288
-23.6934 124.153 -1.17431
-14.9104 143.47 -0.0438106
-11.0181 151.603 0.779836
-12.2173 146.73 3.01131
-18.6529 130.336 4.6424
-23.505 126.307 -2.45975
-11.3395 152.129 -0.180184
-25.3571 121.417 -1.40018
-11.6455 151.891 -0.346828
-17.7741 132.863 4.5873
-19.0529 130.031 4.55955
-12.5772 149.863 -0.316594
-23.357 128.25 -3.38963
-16.5379 135.626 4.89962
-19.9625 129.065 3.76878
-15.6277 137.999 4.89493
-22.5251 122.064 5.05312
-19.2269 130.066 4.64747
-24.6262 126.005 -3.4777
-23.6211 126.421 -1.40555
-24.0049 126.731 -2.57003
-12.554 150.67 -0.0778585
-22.2417 132.232 -3.81127
-12.5586 150.722 -0.0469369
-23.7772 127.022 -2.0868
-16.3582 136.724 5.25551
-17.0942 135.248 5.26602
-16.5083 136.589 5.27954
-22.6717 122.865 4.88729
-14.3599 145.9 1.17479
-16.1847 142.703 0.218733
-12.5108 151.15 0.676724
-21.1882 134.587 -2.56915
-25.1632 121.91 1.03136
-26.4042 122.428 -2.32505
-15.4151 140.579 4.79958
-24.7808 125.718 -1.69731
-24.2051 127.172 -1.80194
-12.3206 150.88 1.82312
-24.6073 125.665 -1.17585
-24.0946 127.126 -1.44484
-24.3078 122.323 2.86247
-26.4384 122.834 -2.4919
-17.2523 141.501 0.0262471
-23.9025 128.031 -1.68288
-25.1006 125.603 -2.00667
-24.5195 127.442 -2.34775
-25.2846 126.393 -2.9949
-23.0132 124.397 4.22038
-17.7334 135.294 5.45935
-25.1665 125.596 -1.76793
-25.4048 123.726 -0.208336
-24.7045 127.982 -2.8413
-15.281 142.028 4.78341
-12.7312 148.844 3.87866
-13.1244 147.552 4.38968
-25.1474 127.054 -2.71073
-26.6636 122.067 -1.14748
-20.3209 136.79 -1.25935
-25.2452 122.391 1.81744
-24.4762 126.502 -0.491398
-25.4402 122.153 1.64665
-20.5586 130.313 4.85405
-13.9965 144.72 5.53416
-24.6912 126.265 -0.554909
-14.646 143.428 5.35693
-19.2285 139.291 -0.95647
-27.8384 121.318 -2.58646
-25.7463 126.539 -2.87467
-25.6698 124.779 -0.927981
-17.1572 143.017 0.393525
-14.138 144.405 5.96712
-24.6389 126.302 -0.0287794
-13.9808 145.325 5.44199
-25.318 126.784 -2.03196
-25.9713 122.093 1.3294
-24.4892 130.304 -3.43325
-27.9243 121.189 -2.21013
-15.6689 141.664 5.58726
-24.3496 124.865 2.54727
-16.4818 139.606 5.89196
-26.5305 123.257 -0.798416
-24.8972 123.101 3.15038
-22.7513 126.635 4.68105
-24.7337 124.96 1.91278
-23.5556 125.191 4.39697
-14.4618 144.548 6.03852
-26.429 122.926 0.186823
-13.4106 150.288 2.7482
-23.8167 125.506 3.65555
-24.0248 125.281 3.40364
-26.3525 122.866 0.524109
-25.3235 127.213 -1.44826
-15.6101 146.08 2.0153
-17.5371 143.236 0.471565
-23.3708 125.606 4.88228
-25.7301 126.732 -1.5328
-13.4059 149.587 3.96645
-24.7477 127.336 0.192378
-28.3476 121.72 -2.38824
-28.4455 121.952 -2.6203
-25.3951 128.893 -2.50568
-15.2059 143.54 6.24146
-22.5897 134.057 -1.17597
-27.5725 122.748 -1.22418
-21.2279 131.158 4.93617
-15.7217 142.842 5.98396
-16.4138 140.903 6.34988
-27.0302 123.487 -0.507038
-25.2822 130.009 -2.9793
-26.1353 126.597 -1.50949
-14.4638 146.269 5.64151
-26.6892 124.829 -0.964655
-23.923 125.611 4.64818
-24.841 124.447 3.70858
-20.5831 138.505 -0.544238
-14.2692 147.184 5.28865
-18.0042 138.098 6.01406
-26.2709 125.8 -0.494875
-26.7002 125.352 -0.675352
-14.53 149.139 3.62076
-16.0319 146.707 2.60733
-25.0182 125.337 3.41744
-21.0348 132.95 5.1124
-14.5327 149.12 3.98173
-15.5749 144.392 6.43416
-26.5084 124.959 0.965554
-21.7753 137.693 -0.788685
-23.5559 133.718 -0.847087
-27.3548 123.848 0.342432
-20.0711 134.936 6.06167
-22.1694 137.307 -1.10993
-22.39 130.403 5.2762
-21.7334 131.76 5.46248
-15.2828 148.93 3.15269
-27.4902 126.944 -2.6959
-15.2373 146.786 5.67808
-27.7049 124.006 -0.126215
-24.1086 133.206 -1.04047
-24.8833 132.542 -2.0011
-23.4551 127.997 5.92639
-15.1555 148.374 4.6526
-19.8686 141.659 0.625477
-29.3156 122.863 -2.21839
-23.2464 135.501 -0.883901
-16.5083 143.166 6.96272
-26.6696 125.078 1.72765
-22.3578 137.45 -0.711885
-16.8479 142.533 6.98574
-27.8493 122.824 1.49673
-22.2124 131.497 5.80584
-27.4804 123.219 2.06793
-15.4042 148.476 4.59001
-22.9977 136.844 -1.04223
-23.3067 129.341 5.85612
-22.583 131.041 5.90481
-29.2632 122.295 -0.443001
-23.6982 135.221 -0.213084
-20.2575 141.979 0.981777
-25.1159 126.387 5.47455
-27.9612 125.338 0.0180539
-22.466 137.911 0.155673
-19.2639 144.174 1.51556
-28.2099 125.185 0.201187
-26.9832 130.388 -2.06305
-18.6566 145.394 2.06218
-17.661 146.97 3.02142
-22.7387 132.792 5.80159
-18.1115 146.618 2.69879
-29.1307 125.792 -1.69242
-18.7673 141.137 6.8914
-16.8022 148.147 4.53975
-24.2766 129.102 6.55512
-26.6502 131.939 -1.55415
-26.1912 126.101 5.50656
-17.2333 146.38 5.82108
-26.1072 126.305 5.63231
-17.4609 146.193 5.91476
-24.4956 136.15 0.20335
-17.7289 146.125 5.90081
-18.6767 146.389 3.60343
-29.3495 124.23 1.63904
-25.502 128.356 6.42043
-18.004 146.515 5.50995
-30.9169 124.163 -1.2244
-18.8841 143.891 6.78031
-26.9749 126.596 5.50182
-22.1088 141.2 2.20085
-18.8348 144.428 6.67553
-30.4097 124.248 0.454219
-19.0437 144.113 6.7038
-27.8203 126.037 4.9446
-31.1025 124.595 -1.13051
-24.1198 138.351 1.59865
-28.4427 131.388 -1.17552
-31.0891 124.916 -0.631749
-23.0519 140.287 2.56399
-28.1612 126.228 4.99988
-30.6195 124.921 0.709747
-29.8555 127.957 -0.552096
-20.6738 142.29 6.60309
-21.1112 141.002 6.89429
-20.1089 145.205 5.05863
-19.8607 144.571 6.27629
-26.2505 129.702 6.64073
-31.2751 125.716 -0.768907
-31.8221 125.008 -1.18392
-28.6431 131.815 -0.58952
-31.0489 126.557 -0.575021
-20.8969 144.504 4.89403
-27.3582 128.048 6.50086
-22.4247 142.827 3.42303
-28.2909 132.762 0.653905
-31.645 126.419 -0.460932
-32.1686 125.307 -0.32695
-27.5599 129.226 6.62915
-30.9224 128.407 -0.217045
-30.6198 129.492 -0.51286
-26.9493 131.304 6.36026
-28.5298 133.014 1.07171
-28.9373 127.25 5.95981
-30.8271 125.738 3.68426
-30.6604 130.428 -0.607794
-32.0186 127.071 -0.167616
-25.9421 135.503 5.37152
-24.9084 140.046 3.41324
-28.5001 129.077 6.5985
-32.4671 126.738 -0.150863
-27.3279 135.527 2.92048
-32.9917 125.289 0.518644
-23.8469 139.999 6.83629
-24.1042 139.391 6.90013
-29.9941 132.304 0.480295
-26.3656 136.189 5.33357
-28.8159 129.329 6.58008
-27.1377 134.77 5.02352
-27.7621 135.5 2.95009
-24.1681 140.108 6.69723
-25.6288 139.128 4.35448
-24.4837 141.735 5.17788
-30.3883 132.654 1.07227
-31.1123 131.638 0.486918
-31.0686 127.021 5.33015
-30.6686 132.396 0.890862
-26.0059 139.267 4.75268
-24.7375 140.712 6.27083
-29.6965 129.233 6.51662
-29.623 133.652 2.54394
-31.5614 126.984 4.90594
-27.2452 137.693 4.19478
-31.8288 126.902 4.56804
-34.7039 125.097 1.00481
-33.0521 127.354 2.59706
-28.3418 136.143 4.97936
-34.2935 125.802 2.02811
-33.4475 127.534 2.2581
-29.3438 136.125 3.12657
-32.0204 127.552 5.54646
-33.7621 127.33 2.41094
-31.9144 132.22 1.83132
-29.4685 134.187 5.58514
-32.0215 127.88 6.09909
-30.1208 135.537 3.24999
-31.9964 132.491 2.29343
-30.786 134.42 3.34151
-34.5566 126.397 2.78365
-29.9248 135.943 3.9644
-33.6346 130.193 1.27531
-34.1008 129.498 1.4947
-31.1378 132.647 6.15693
-34.8864 127.807 2.99575
-32.4041 130.803 6.45776
-32.495 130.786 6.38822
-33.2623 132.745 2.78991
-34.3954 128.425 4.57508
-32.7976 132.515 4.35828
-35.2305 129.216 2.10813
-32.8116 133.41 3.91195
-33.1469 132.717 3.92636
-35.6097 127.023 4.4518
-33.694 129.718 6.19225
-33.329 133.503 3.34168
-33.3367 132.12 4.72366
-33.7882 131.866 4.95639
-33.9114 131.499 5.35355
-34.4614 132.054 4.23512
-35.881 130.403 3.29615
-35.5398 130.6 5.33787
-35.9428 130.694 5.15513
-37.5504 128.608 4.22126
-37.0409 129.299 4.71155
-38.5029 127.239 4.33077
-37.3245 129.482 4.96167
-38.1621 128.019 4.53163
