ply
format ascii 1.0
comment Created by Open3D
element vertex 1955
property double x
property double y
property double z
end_header
-26.3363 127.306 -0.150208
4.83749 92.5701 16.1717
4.24374 95.594 11.4788
-16.9003 119.199 0.403216
-12.1606 117.495 -3.92127
-19.0822 119.868 2.7351
-18.7599 120.024 1.94065
-9.41998 104.061 17.4549
-18.0239 120.223 0.415772
5.83344 103.798 -6.54303
16.0379 81.1301 20.4273
-10.7748 105.2 17.6688
-26.0351 127.436 -0.283059
-21.218 121.927 2.58731
-23.3135 121.993 5.83496
0.0465129 99.0596 12.186
-19.0052 120.154 2.50987
-24.7633 122.546 7.21295
-17.5512 120.401 -0.272161
-16.0817 113.184 11.2036
4.31855 95.9372 11.3833
18.9054 79.1153 20.1763
13.8852 83.3875 20.0959
22.2229 78.2837 16.5859
15.1217 82.2734 20.4028
17.536 80.5663 19.8985
-0.924399 99.2849 13.8732
-0.197934 99.3781 12.6101
22.206 87.9748 -1.61087
-18.6328 118.516 5.72319
8.77069 102.296 -7.32701
1.54881 107.906 -6.42621
-7.59032 103.557 16.656
24.788 82.7835 4.34121
-21.861 125.207 -1.70654
9.98473 88.6499 17.0016
22.6385 78.7714 15.5785
-23.2583 122.095 6.6596
0.995882 99.2078 11.456
18.7647 92.6141 -4.50147
22.5756 78.8706 15.788
11.5189 100.374 -7.51801
-10.4817 105.724 17.6825
22.9093 79.2183 14.7374
-12.7739 118.955 -3.81447
2.02041 98.8583 10.8343
-21.5098 125.201 -1.69536
-18.5638 118.062 7.23628
-13.1714 119.253 -3.71485
-12.7524 108.005 17.1425
11.83 100.23 -7.51392
18.2727 80.6679 19.6376
-10.9051 106.307 17.5568
-19.2648 120.351 4.17528
17.4368 81.5912 19.3757
-19.7861 121.913 2.1496
-24.9404 123.412 7.72078
-23.0018 127.313 -2.86169
-19.4057 119.827 5.68073
4.19093 97.2318 10.9592
-10.0308 105.729 17.6055
-19.7064 121.024 3.96385
22.085 88.8136 -1.65295
7.38277 91.2414 17.3798
-25.8855 124.667 6.96221
-18.5034 118.396 7.11072
-19.8684 120.853 4.64003
5.47412 95.8853 11.633
19.1038 92.7588 -4.31237
14.4197 84.2134 19.6104
18.2584 93.767 -4.72602
18.0766 81.3494 19.3438
5.72853 95.6647 11.8275
-18.0171 120.852 1.89512
-27.4809 127.646 4.17211
18.4364 93.6507 -4.61367
22.2748 79.3036 16.6765
-16.441 121.519 -1.77248
20.2854 91.5764 -3.55641
-3.20295 101.053 16.2708
-17.9097 121.238 1.34588
8.83564 90.3425 17.4589
-11.4743 118.643 -3.99587
22.2656 88.6927 -0.960928
18.1345 81.6836 19.1438
-19.5255 121.741 3.11275
4.51361 107.098 -7.54886
-19.2636 123.973 -1.56744
-13.9735 110.131 16.4176
-20.9361 125.923 -2.58946
-22.8165 127.497 -2.54753
-22.2181 127.151 -2.81586
12.1626 86.0499 20.5206
-6.83339 104.169 16.4702
-17.6562 121.394 1.01043
-17.5113 121.556 0.4801
17.3998 82.6472 18.8009
0.243694 100.392 12.4557
-19.6939 121.832 3.51979
11.8046 87.5394 18.4937
-15.3454 112.862 13.7534
-0.569554 110.502 -5.40886
-19.8173 125.255 -2.64991
5.68006 106.643 -8.01129
-15.7068 114.95 10.5333
-18.3787 120.774 3.69264
-19.7684 125.268 -2.66035
-19.1747 121.542 3.52958
-15.0077 121.9 -3.84066
-19.6113 122.156 3.11681
-21.8051 122.785 5.46444
-18.5875 118.956 7.63097
-8.08052 105.368 16.7581
-19.6864 122.085 3.49086
-22.6104 122.313 7.79415
-19.2378 121.59 3.76389
-7.64877 115.485 -3.16511
-0.0852941 100.687 13.0208
21.0087 91.3595 -3.00076
-11.4731 119.232 -4.05809
-16.348 122.249 -1.79104
-12.3753 109.063 17.1008
-24.8884 124.578 7.58697
7.67603 105.379 -8.06941
-19.2389 120.646 6.10235
-17.246 121.43 1.43906
-1.86843 101.016 15.7654
8.84302 104.435 -7.9967
-26.1156 128.045 3.13467
-17.3103 121.613 1.28044
-20.6513 126.755 -3.13076
24.131 85.8404 3.09198
-20.1908 126.363 -3.05525
-25.324 125.302 7.25443
-19.0335 121.181 5.041
-27.0155 127.94 4.98092
-0.977435 100.897 14.8331
-17.611 121.541 2.10302
-17.8719 121.485 2.69112
2.67066 108.92 -6.32194
-2.10563 101.365 15.8963
-18.9924 120.111 7.23445
5.4657 107.465 -7.8834
-26.0594 128.196 3.24221
-26.5069 127.311 5.66237
-19.1663 120.796 6.34379
4.66879 108.066 -7.63894
-19.2316 122.89 2.64644
17.1878 83.8117 18.8322
4.64824 108.202 -7.62087
24.1457 85.5918 4.2833
-27.0671 128.636 4.41449
-19.1321 120.957 6.34193
-17.6299 121.769 2.48463
19.7895 93.543 -3.72175
-19.1934 121.7 5.19367
-19.3079 121.881 5.10754
22.2119 90.713 -2.04211
24.0988 85.7485 4.43568
-19.32 120.994 6.86853
-17.458 121.888 2.19175
6.70211 93.6744 17.3229
-15.3383 122.273 -1.87147
-19.2798 121.478 6.06734
8.95463 104.946 -7.71303
-19.1744 121.281 6.33063
24.0075 86.09 4.19051
8.63608 105.27 -7.73524
-13.9989 122.508 -4.2641
11.3744 102.989 -7.69084
-5.77263 105.013 16.0865
10.7554 90.537 17.1946
22.5634 89.3845 0.412763
-2.97986 112.456 -2.60235
23.8597 86.9568 3.08574
11.9786 88.7502 18.7871
-21.2178 122.542 7.66762
-14.4723 112.396 16.3746
13.5944 86.6319 20.5638
6.90353 93.6834 17.9722
-5.00798 104.76 15.9858
-20.815 123.181 6.21159
-20.1093 122.366 6.64167
-20.4021 127.808 -3.26396
11.596 90.2558 17.1356
-16.9064 117.541 10.8053
14.8498 86.027 20.0989
-21.3067 128.423 -2.83329
-10.9268 120.301 -3.95213
-16.828 123.424 -0.430462
-16.3586 122.302 0.960536
-17.7919 122.163 3.64507
6.9555 94.7569 16.323
-26.3062 128.414 5.52541
23.4926 82.5724 13.2018
18.3234 84.297 18.2432
-19.4121 124.163 2.74604
-21.1294 123.641 6.51714
-19.5647 124.382 2.61361
-26.6316 129.382 4.44647
18.7258 84.2102 17.913
-3.59386 104.143 15.7938
15.4655 99.7297 -6.31529
-15.3508 123.156 -1.50731
1.31854 111.505 -6.00366
17.1906 97.7735 -5.26562
1.67202 111.328 -6.10342
-26.3246 129.711 3.84242
23.0972 82.5626 14.5422
-13.191 112.063 16.5154
24.2507 85.7127 6.71662
-19.783 122.484 7.23518
-13.8169 123.406 -4.12447
19.5943 83.9472 17.6598
22.3955 82.0151 16.8588
-7.11729 117.226 -2.97637
-16.0681 122.865 0.698066
-26.2499 129.818 3.78476
23.9953 87.1898 4.50211
-15.1325 115.614 13.126
23.004 82.5366 15.0785
-11.2118 121.216 -3.86564
-11.295 121.308 -3.88782
-18.958 121.986 7.26976
-25.3595 127.74 6.58204
-13.7564 123.573 -4.07132
-10.4898 120.588 -3.59113
14.097 87.3456 20.4858
-21.9474 128.862 -0.941892
-18.5046 121.636 7.35219
-15.1637 123.94 -2.40687
-18.2894 121.706 6.95152
23.6491 88.901 2.35207
24.2807 86.1676 6.59128
21.8998 82.9263 16.712
9.81907 92.4584 17.92
-20.7682 128.925 -2.60143
4.16789 110.461 -7.38529
21.1638 93.347 -1.96006
-21.6899 124.55 7.5107
9.47385 106.074 -7.10464
-4.39385 115.201 -2.19868
20.6569 83.9652 17.2977
16.4985 86.2474 19.6446
-12.8929 123.541 -4.35475
19.1888 84.9857 17.8025
-14.8429 124.117 -2.28522
-16.756 125.043 -0.976379
10.1106 92.5999 17.9282
1.93734 112.249 -6.49792
15.2692 87.0401 20.3275
-15.0116 124.204 -2.04554
-12.1267 112.068 16.6215
23.3822 89.7001 2.30134
4.23822 110.925 -7.50189
16.42 86.453 19.738
-17.3961 121.435 7.29735
19.1341 85.1943 17.8801
-15.1877 116.214 13.9832
-23.6781 130.145 1.02112
11.3915 105.088 -7.46528
-18.4985 126.975 -1.07846
-7.94957 108.715 16.896
-20.5506 123.899 8.14283
24.3609 85.7786 8.81957
-14.181 124.634 -3.45198
-15.812 125.147 -1.78296
6.61264 109.172 -7.27898
-15.3898 117.296 12.611
18.3917 85.7926 18.5524
23.2806 84.0745 14.0032
12.209 104.464 -7.15511
-16.7465 124.73 0.739798
18.7233 85.7381 18.2735
7.98156 97.1011 13.8327
3.14982 112.105 -7.00353
20.9777 84.4144 17.3547
13.9531 88.766 20.3761
-15.1675 116.445 14.2808
-20.3713 123.968 8.28564
0.259158 113.927 -5.63472
-13.7297 124.969 -4.23638
7.68028 98.6382 11.7834
-13.3461 124.293 -3.46149
-19.1434 123.707 6.99743
-6.29606 107.886 16.6287
5.08738 101.569 10.4016
7.86292 98.1619 12.5701
0.78712 113.86 -6.03726
-16.5797 124.973 0.658492
-8.97935 110.211 16.8032
-25.0691 129.35 6.10651
-16.8748 119.736 11.411
-19.638 123.802 8.14794
6.86279 100.186 10.6921
-23.0005 130.705 0.398495
-20.7683 124.371 9.03363
22.6077 84.439 15.7073
0.83677 103.744 13.8171
1.06743 114.027 -6.21196
23.9477 88.8241 5.34741
-17.8982 128.397 -2.93584
-13.5708 124.919 -3.21306
0.784024 103.932 13.8483
-7.95391 119.937 -2.54668
-18.8095 122.914 9.28159
21.1101 85.0489 17.5067
8.75025 95.1797 18.1927
3.17993 103.791 10.7021
8.1517 96.0433 17.5814
16.7872 87.5781 19.9363
-6.53826 108.917 16.6863
-17.7801 126.926 0.321242
21.5314 94.7567 -1.30145
22.456 92.2793 1.97104
22.1301 93.8658 -0.479769
6.65532 101.18 10.4963
15.72 102.269 -6.07521
-0.498704 105.249 14.3314
22.8762 85.7873 14.1024
-1.44235 105.911 14.7921
-16.9292 122.461 8.04733
-7.39935 110.096 16.4275
-17.8827 122.647 9.30096
5.38029 111.513 -6.77556
-2.82729 106.8 15.5203
-13.6099 125.662 -3.18409
23.0017 91.5243 3.27227
4.06408 104.072 9.76544
2.76913 104.256 11.5278
-2.4321 115.853 -2.24268
-16.9735 122.522 8.43264
22.1169 85.701 16.0048
-17.4329 123.144 8.012
8.3594 97.8144 14.994
-25.5726 131.707 4.8091
-15.6135 126.532 -1.31184
8.14264 97.104 16.7974
21.7034 85.4532 17.3083
2.39254 104.451 12.0816
-19.2871 130.356 -2.5864
2.22399 114.359 -6.5914
1.28922 104.736 13.3567
-16.8136 126.846 0.252318
-14.9083 126.4 -1.90482
8.16547 96.9087 17.4811
22.4105 93.0464 1.98293
-16.2788 120.443 11.8772
-19.0185 124.238 9.0494
24.2419 88.0502 8.71999
-17.4253 123.034 8.84366
-1.99392 106.848 14.9976
-13.3655 125.997 -3.32669
-12.9222 125.738 -3.53868
-17.0285 123.626 7.12489
20.974 96.5341 -2.11282
2.40967 104.676 12.1862
-16.6111 126.636 0.803249
-1.70803 115.79 -2.41592
7.11478 110.499 -6.28097
-16.4386 127.99 -1.8087
-4.35998 117.918 -1.80892
13.7803 91.7485 19.0729
14.0643 104.627 -5.99753
-16.7429 123.248 8.15976
-11.2701 124.895 -3.76687
8.62823 99.8664 12.1694
-22.9172 132.068 1.34252
-1.22929 115.98 -2.76728
-16.8275 127.511 0.273464
18.3105 100.056 -3.71893
-21.8381 131.902 0.0266103
6.71008 102.654 10.1299
-9.81352 123.672 -3.47056
22.1273 94.3588 1.21814
-16.5924 123.224 8.30078
3.61046 105.213 10.3721
24.2058 89.8522 6.68246
22.6607 87.141 14.4036
14.5739 104.531 -5.7564
-22.3775 132.162 0.853125
-20.5654 126.084 9.56728
-22.0077 128.271 7.70587
11.6839 107.499 -6.59893
-16.4344 123.831 7.4342
8.95504 96.9788 18.0496
-19.7564 131.683 -2.0835
24.1034 88.8493 9.30208
21.4295 96.4503 -0.86151
23.5723 91.5752 5.02274
8.27151 101.53 10.7121
16.8108 102.64 -5.12257
-16.5596 128.187 -0.0738341
6.64534 103.712 9.43301
6.59653 111.867 -6.0674
-17.4058 129.767 -1.66603
-13.4694 127.289 -3.19914
-23.0134 130.343 6.33775
-4.15976 109.398 16.1829
3.8733 106.054 9.71388
2.43279 106.088 11.9881
2.3124 115.913 -6.59782
-5.16242 119.746 -1.85694
-3.46029 118.166 -1.56814
-8.06734 112.617 16.4895
17.0441 102.684 -4.91282
6.3426 112.286 -6.06199
24.2165 90.5685 6.74044
23.4179 88.4456 12.0979
21.3617 87.4487 17.3207
21.8127 95.6915 0.899626
-20.5175 126.912 9.32303
-17.2026 123.884 9.81588
16.6013 90.106 20.0984
-20.599 132.708 -1.54812
22.2937 94.7301 2.09899
-1.11431 117.009 -2.81705
3.36988 106.34 10.4494
2.87524 106.369 11.2211
24.348 90.4984 7.06028
3.35081 115.373 -6.71657
19.16 100.138 -2.93966
-0.797984 117.048 -3.16493
23.4984 89.1226 11.228
-9.07101 113.73 16.5861
11.4183 95.7595 18.1942
1.38116 106.848 13.3337
3.50666 106.803 10.1041
-11.9528 116.587 16.285
-8.70382 113.771 16.4718
-5.55863 111.288 16.1733
5.62856 113.58 -6.18845
12.3538 95.2155 18.2319
-16.537 124.122 9.45712
22.5882 94.7801 2.70672
-22.603 130.818 6.48792
2.33901 106.987 12.0111
15.8046 104.737 -5.2536
3.01567 107.101 10.8095
-9.37366 114.632 16.4201
-21.422 129.428 7.65919
-23.8004 133.553 3.63686
18.8757 89.5095 19.286
-15.4614 122.105 12.1978
10.5866 110.138 -6.81697
-21.3873 133.864 -0.615185
11.1474 96.5258 18.4832
-24.0461 133.614 4.20578
22.0128 88.7134 16.0021
-16.7249 129.231 0.833678
10.4832 110.362 -6.84346
1.37345 107.496 13.3568
-5.60132 112.007 16.0053
-23.987 133.665 4.16924
3.82386 107.533 9.46331
-16.3914 128.954 1.01274
9.35781 101.423 12.2582
21.3767 88.7076 17.3179
-21.1749 129.461 7.84052
-4.93712 111.572 15.9406
18.5467 102.147 -3.76793
21.9415 88.8748 16.1641
21.5089 98.0625 -0.592498
20.137 89.1548 18.6824
-9.73143 126.54 -4.76631
-9.12654 115.088 16.2205
23.5705 90.7201 10.2369
-14.6906 121.181 13.5423
18.0268 90.4479 19.7147
-4.09978 111.071 15.8826
-21.1033 129.603 7.83476
9.57243 111.36 -6.61998
-2.09939 109.655 15.4295
7.04387 105.362 8.99601
7.73556 104.679 9.36708
-0.466104 118.244 -3.36543
-16.0928 130.271 -1.22259
-16.3987 125.293 8.84822
-15.5373 124.476 9.04233
24.0781 92.54 6.40428
9.39855 99.8169 16.1154
-8.6631 115.024 16.1143
23.2485 94.4446 4.15234
9.9575 98.2007 18.4121
24.1047 92.0767 7.38079
-4.34798 111.638 15.7788
12.6072 95.9747 18.6133
-17.528 125.734 10.3238
9.87862 100.924 13.7583
10.1261 98.3368 18.315
24.1285 92.6346 6.721
14.8291 93.8375 19.3963
11.0303 110.593 -6.46388
21.4976 89.4853 17.1036
-14.6578 124.218 8.83979
-11.9978 128.346 -3.22596
9.16868 103.058 11.1072
-22.1248 131.652 6.8276
1.8253 108.374 12.8388
-11.0466 117.734 15.7221
18.8783 102.754 -3.72689
9.64509 100.346 15.8126
-18.1957 133.097 -2.03588
-6.54614 113.977 15.8248
9.73145 112.051 -6.67456
-1.64966 119.241 -2.01317
1.69654 108.583 13.0154
-16.3233 125.332 9.979
-19.8082 134.09 -1.08935
8.80314 104.148 10.1715
-22.164 131.943 6.83559
-16.533 125.465 10.1783
7.10031 113.788 -5.50215
-1.67586 119.344 -1.9962
23.0227 95.728 3.489
0.101885 109.358 14.3115
4.39411 108.738 8.60304
-19.2644 128.096 9.67664
-5.43973 113.385 15.6442
-17.113 132.394 -1.93174
9.98734 100.956 14.6363
-15.9884 131.276 -1.49074
-7.12953 114.879 15.7442
12.8918 96.4248 18.8934
3.13709 117.951 -6.58467
9.89527 99.6557 17.5831
-14.9338 122.877 13.1755
7.92189 113.592 -5.60514
-15.7307 130.136 0.870448
-14.9112 124.194 11.039
-0.795395 119.463 -2.62332
-22.4674 135.441 1.75797
23.7093 93.2355 8.28394
8.42596 113.451 -5.75615
23.7346 94.4349 6.05651
12.3428 97.2187 19.0908
20.7023 90.6769 18.1615
-21.7698 135.229 1.38892
-16.6962 126.305 10.337
-23.421 134.09 6.27609
18.3353 91.9869 19.6428
20.4852 101.709 -2.34782
-8.12863 126.326 -3.38706
17.7329 105.266 -4.60849
3.89007 117.74 -6.16863
19.0218 103.835 -3.85624
-10.3816 118.44 15.5173
-14.8487 123.611 12.8132
15.5755 107.273 -4.80438
-23.4222 135.336 4.35199
-16.7624 126.872 9.91899
-6.42379 115.27 15.4947
13.5646 109.318 -5.23195
8.09369 106.508 8.9651
7.46839 114.629 -5.54654
-15.7111 131.41 -0.348395
6.0317 115.962 -5.74844
-19.2274 129.344 9.31458
-14.7278 123.528 13.2216
8.94871 105.327 10.0009
-23.7935 135.321 5.33816
4.27449 110.063 8.50534
-22.7898 135.9 2.63611
13.708 109.307 -5.18649
-6.80857 115.817 15.4024
20.9796 91.2754 17.6452
-6.15423 115.254 15.4634
-12.0381 129.764 -2.8015
-19.1175 129.363 9.36514
20.0981 91.5101 18.706
-1.71798 111.72 15.1519
-10.3806 129.61 -5.07104
-15.3361 126.012 9.79845
-1.49565 120.479 -1.8778
13.768 109.371 -5.18439
16.968 106.456 -4.68415
10.0594 101.411 16.2866
-6.66728 125.308 -2.49211
23.3028 93.2422 10.7279
7.13361 108.096 8.33024
7.69638 107.489 8.5972
9.6332 113.681 -6.30553
-22.6353 134.018 6.77881
3.77768 110.573 9.14276
10.184 101.184 16.8719
-12.137 130.124 -2.57834
-12.0075 120.394 15.878
-14.5729 126.06 9.18185
5.33536 109.851 8.16688
-20.5294 135.241 1.20946
-15.8613 126.655 10.1486
-15.1986 131.112 0.667606
-0.0190722 111.162 14.4206
-11.9773 130.306 -2.89921
22.8231 92.9842 12.5789
-6.9555 116.665 15.2003
3.14732 110.793 10.2122
-13.4352 122.066 15.3645
-0.235719 111.421 14.5405
17.1405 94.0759 20.0066
-17.5557 134.19 -0.906235
2.63621 110.922 11.19
17.8144 93.753 19.8184
-13.4117 124.937 10.4843
20.1087 103.651 -2.64607
22.312 93.3386 13.5936
-3.68511 122.958 -1.20674
16.1217 107.984 -4.41038
23.3153 94.2403 10.4658
-15.3842 132.001 0.561731
-17.8262 135.059 -1.33255
14.7238 109.651 -4.96828
5.29648 110.798 8.04926
-12.6926 131.136 -1.90139
10.9807 103.338 13.3464
21.3439 92.708 17.0214
7.11955 116.855 -6.28163
7.56644 116.49 -6.2827
16.7497 95.1145 19.8456
-1.73312 113.215 14.9672
-0.266733 121.321 -2.89292
-22.1657 136.61 3.17207
20.3104 103.095 -1.01693
-6.16778 116.972 15.0913
7.97292 108.617 8.39382
23.2156 97.2445 5.64799
9.28287 106.773 9.85502
10.1957 114.516 -6.3501
2.11053 121.084 -5.76765
-23.0451 136.889 4.49248
8.32841 108.402 8.54571
-23.0331 137.033 4.27764
8.73979 115.73 -5.9752
1.90097 121.363 -5.60531
-0.464258 112.84 14.6308
11.218 103.11 14.4976
7.93912 109.146 8.25227
3.28638 112.141 10.0193
1.23653 112.351 12.9449
-4.26602 115.932 15.0294
-14.4962 132.441 -0.0748211
10.6374 105.225 11.5741
-13.9308 127.421 8.85256
-9.67014 131.153 -5.12687
21.9713 100.965 1.83054
-17.163 135.211 -0.623513
6.30963 118.308 -5.98693
18.974 94.4309 19.3936
0.84862 112.841 13.5423
7.26565 110.435 7.83197
20.9041 93.8049 17.7591
-7.42514 119.002 15.1683
20.2727 104.509 -1.5635
-16.6235 129.854 9.31775
17.9312 95.71 19.096
-14.6789 133.184 -0.124022
20.1999 104.807 -1.94124
-14.7255 128.156 9.71434
20.335 104.055 -0.558376
6.05249 118.872 -5.89806
22.2399 100.771 2.72699
0.656268 122.242 -3.57478
11.1896 102.554 17.1441
23.657 95.9798 9.70601
23.1407 98.6367 5.45749
22.8971 99.3666 4.45693
14.0112 99.585 18.343
0.335666 122.31 -3.11238
11.4945 104.17 13.6512
3.38788 112.991 9.82506
11.9938 101.466 18.0697
-20.3513 137.131 1.90947
21.1047 94.404 16.9635
8.18363 117.299 -6.04225
22.613 95.1708 13.0977
15.2473 98.8471 17.9582
-21.79 137.776 3.13277
-14.9788 133.703 0.0357977
5.13831 119.826 -5.66337
-19.3412 136.868 1.28822
1.25634 113.441 12.9968
-2.09094 123.71 -1.24722
10.6309 106.631 10.9913
-14.7699 133.412 0.634087
-9.17835 131.703 -5.04425
-11.6755 132.433 -2.38114
-12.2245 125.062 12.623
-1.09292 114.69 14.66
-22.352 138.039 4.20893
3.74243 113.513 9.14812
-17.2176 131.192 9.0608
-11.7378 125.983 10.2216
-20.8645 137.528 2.83668
-21.8686 136.08 7.22483
-0.776604 114.527 14.5307
16.6457 109.534 -3.93479
20.2599 104.313 0.267222
5.50741 119.782 -5.56835
23.2298 98.7674 6.16429
-20.1466 137.587 1.71422
12.5209 101.61 18.0152
-2.87757 124.515 -0.986864
-15.1845 129.365 9.56711
-19.1374 133.554 7.92541
-13.1143 133.399 -1.46718
8.93986 117.327 -6.14956
11.8265 115 -6.18708
11.8188 103.952 14.9834
-11.415 123.151 15.686
3.61801 113.845 9.32253
15.3795 111.532 -5.09874
3.14685 113.892 10.1447
11.8512 104.032 15.0264
23.5719 97.0405 9.55858
18.8105 96.2583 18.7489
-13.3033 133.722 -1.25226
11.6207 105.687 12.3047
-11.9089 126.518 10.3305
-21.3763 136.018 7.61685
-5.68041 119.064 14.9167
20.5007 95.3361 18.2111
-4.96009 118.484 14.9347
-10.7833 123.163 15.4227
16.0703 111.109 -4.56281
22.9435 100.04 5.57285
-21.9971 137.398 6.47966
-18.2469 136.965 1.32833
0.206169 114.822 14.0776
5.25756 120.87 -5.61816
21.7884 101.914 4.39192
-4.92833 127.752 -2.0478
-21.5734 138.89 3.44871
23.0777 97.237 11.3087
16.9783 98.8362 18.0661
18.0035 97.7719 18.4584
-0.0110444 123.995 -2.70774
21.1846 102.877 3.60738
21.896 101.801 4.5709
-13.6875 134.751 -1.15929
7.00891 113.026 7.21108
-13.5947 134.765 -1.22252
22.7288 100.531 5.83741
-21.507 137.081 7.13078
12.2233 105.227 13.8425
22.0877 96.4844 14.6962
-13.4413 134.748 -1.29593
-21.9921 138.808 4.69956
21.8696 96.5781 15.1657
-10.9548 134.048 -3.63338
-16.7987 132.314 9.10995
-7.36345 121.776 14.3169
-3.36834 126.528 -1.17162
20.8583 103.888 3.2981
22.8378 97.1361 13.0606
-4.67961 119.576 14.4065
7.99371 119.059 -4.99436
-0.704503 116.276 14.3531
-10.056 133.956 -4.28372
-20.6 139.036 2.97482
6.29012 120.561 -4.91828
-1.4547 125.173 -1.25936
8.12457 119.14 -4.9921
-7.84377 132.572 -4.96632
-3.41862 126.935 -1.27005
13.8323 102.468 17.7984
-13.7046 134.952 -0.0166773
-11.2201 126.978 11.3132
22.9701 100.601 6.9595
-9.36376 133.914 -4.73176
11.4992 116.751 -5.45527
-11.0237 124.859 15.2759
15.6219 100.662 18.7232
-15.9454 132.101 9.39559
7.18684 113.895 7.02372
2.16267 115.807 11.6628
-14.937 131.34 9.47047
-0.619658 125.224 -1.86578
20.0457 107.82 -1.77245
4.42071 122.904 -5.47963
-12.4582 128.735 10.5324
20.1845 106.534 0.487892
20.2943 105.467 2.49342
-14.1363 135.679 0.0967815
-17.3648 137.819 1.24851
3.16822 116.167 9.82214
23.3702 99.5189 9.25012
-15.8658 137.355 0.0342757
13.2959 115.282 -4.63891
5.60579 121.912 -4.92066
22.7921 98.2151 12.8013
-6.9919 132.123 -4.10505
4.15387 123.462 -5.39112
12.4104 104.744 17.1572
10.3407 110.51 9.52317
15.2692 114.135 -5.30217
6.51081 121.089 -4.50963
20.1695 106.4 1.62059
-18.9903 135.902 8.43461
18.6969 110.397 -3.27719
2.03227 116.403 12.0547
21.6224 97.9068 15.9743
20.9027 97.7961 17.3444
16.4767 113.176 -4.95917
2.75691 124.902 -5.28093
-19.1075 136.139 8.45304
-12.9996 135.778 -0.556669
4.73626 116.605 7.61029
11.8921 108.668 11.443
1.7252 125.342 -4.05311
-15.8539 133.008 9.57561
-19.6212 136.771 8.47026
12.383 116.685 -4.5867
14.8127 102.982 17.763
2.26693 125.385 -4.82676
-20.7342 140.482 3.32338
-4.40517 121.326 13.7152
1.22398 125.522 -3.26585
22.9694 99.6271 11.3072
19.1918 110.395 -3.1607
-14.679 132.228 9.61277
-4.23573 129.397 -1.75517
20.1928 106.471 2.83017
-20.0758 140.512 2.51088
22.972 99.7544 11.2619
-17.9778 135.483 8.89345
9.2025 113.265 7.66891
-5.17708 130.601 -2.32637
4.86669 117.129 7.47757
-13.2122 137.53 -2.46449
-13.911 131.797 9.70462
-11.1161 128.189 12.1494
-16.5799 134.154 9.56293
6.66979 121.758 -4.10082
1.94679 125.778 -4.1753
4.37433 117.449 7.8539
0.510808 117.67 13.6704
16.9801 101.227 18.7137
23.0601 100.629 10.0825
3.62543 117.513 9.17128
18.6726 111.523 -3.54002
-18.37 136.255 8.78563
2.50586 125.899 -4.9381
-7.44974 134.425 -5.07653
19.8967 109.621 -1.58765
20.1155 107.308 2.51294
22.7773 102.219 7.98628
12.8716 108.124 12.6757
-20.5094 139.198 6.95867
-10.0086 126.208 14.9225
-0.0948985 118.476 13.8473
20.1218 107.838 1.73032
-5.4516 131.541 -2.44823
11.1605 111.047 10.0405
-14.5313 137.808 0.265052
2.87221 117.818 10.6233
-17.6306 135.828 9.16978
6.75708 116.699 6.63073
-0.566162 119.141 13.7773
-9.68753 126.643 14.1396
-13.5352 132.142 9.81914
-9.6596 127.13 13.182
11.1856 118.973 -4.72445
-4.63207 130.85 -1.9107
-19.8962 138.8 7.57028
19.7234 110.355 -1.69966
22.6126 102.951 7.88017
13.3601 105.939 17.0948
8.97852 114.744 7.3034
0.959159 126.789 -2.79922
-10.99 129.27 11.7047
17.1836 113.897 -4.12814
4.68264 124.737 -4.75235
6.24013 117.531 6.52964
13.1585 117.152 -3.77606
19.6952 110.352 -1.28243
19.244 111.807 -3.3344
2.98553 118.284 10.4745
13.0875 108.576 12.9274
13.9551 116.8 -4.193
-2.15839 128.655 -0.811965
-15.7327 138.998 1.26145
-20.5526 140.619 5.93831
-8.32414 135.887 -4.66457
22.7376 103.022 8.2396
18.1596 101.507 18.5149
-11.8138 138.068 -3.08805
2.01993 127.07 -4.25888
5.68773 123.97 -4.21794
18.5835 112.929 -3.83118
18.739 101.49 17.8084
-13.4405 138.135 -0.523785
-13.497 132.801 9.77938
-7.46677 124.979 15.0724
12.4359 110.032 11.6573
-9.23571 127.581 13.0235
-12.0446 131.474 10.1247
13.1602 108.631 13.4455
12.3567 110.354 11.4695
22.4312 103.895 7.65888
4.00259 119.068 8.33228
5.28934 118.807 6.91146
18.208 101.99 18.3163
19.4495 111.162 -1.06101
21.4749 105.947 5.67052
15.2726 104.749 17.9473
19.4298 111.167 -0.985758
-18.5527 138.162 8.48621
15.5357 116.131 -4.18951
11.5041 119.788 -4.61572
19.2864 111.774 -1.70132
-12.7371 132.892 9.45938
13.5565 117.792 -3.9584
-16.9427 136.615 9.12337
-11.4792 138.425 -3.07116
19.2138 111.965 -1.81494
21.9692 102.015 12.8076
8.17439 116.907 6.56148
-19.2778 142.044 2.72103
-5.4606 133.601 -3.21692
0.479755 128.12 -2.28337
-19.8252 141.939 3.95544
-8.98269 137.14 -4.30032
5.425 125.003 -4.1384
1.43368 128.207 -3.80302
-19.7669 142.062 3.86186
-2.83907 130.489 -1.12078
21.8974 101.696 14.1765
17.4145 103.308 18.3349
11.9921 111.972 10.4904
-3.66422 123.282 14.0482
9.04703 121.793 -3.48093
10.506 114.407 8.34947
10.4782 114.459 8.31138
19.34 111.622 -0.345552
0.87493 128.568 -2.99883
22.3662 104.046 9.38672
-2.60614 122.874 13.5847
1.19575 119.955 13.1381
-10.7777 131.326 10.7127
-6.087 135.321 -4.42412
16.0459 105.011 18.0178
-19.7704 142.003 4.87611
1.88022 119.958 12.2268
17.2578 115.532 -4.03367
2.8987 127.962 -4.67778
-6.47777 125.673 14.8762
0.0205882 121.203 13.0163
-19.7824 141.962 5.20355
9.176 116.765 6.9452
13.1469 110.423 12.7016
15.6379 117.429 -4.70357
7.62675 123.584 -3.49266
14.3215 108.128 15.4289
20.3398 108.606 4.85021
-13.5904 139.273 0.820214
-17.3253 142.188 1.3256
15.9529 117.731 -5.34652
-17.4233 138.454 8.71412
-19.6476 142.042 5.49858
2.74776 128.485 -4.41313
-10.343 130.887 12.0913
-3.33143 132.015 -1.33456
15.775 117.808 -4.82284
18.3273 114.82 -3.19972
21.2704 102.44 15.7509
10.7162 115.225 8.28297
-0.86754 122.629 12.9061
3.04753 120.863 10.0787
15.1544 119.056 -5.90553
19.7276 112 0.263898
11.9501 120.862 -4.1598
20.1979 110.72 1.97878
20.0366 111.355 1.06133
12.7344 112.132 11.3784
16.4643 117.549 -4.9372
19.3534 112.77 -0.436867
-11.0549 139.671 -2.91741
9.6537 117.072 7.02086
-13.2394 140.746 -1.40819
22.2594 105.831 8.30272
20.3638 108.94 5.42262
9.16934 117.769 6.65563
-9.04354 138.956 -4.54643
-19.071 143.113 3.71243
-1.05154 130.362 -0.832179
5.73587 120.883 6.40073
17.0045 105.294 18.0968
-10.2129 132.158 10.5653
9.03502 118.098 6.51539
-12.0096 134.389 9.22622
10.3938 116.462 7.52325
-16.8534 138.808 8.79659
17.0523 117.337 -4.65769
8.86644 118.487 6.35734
12.3815 121.135 -4.25587
13.9543 120.142 -4.80849
9.69465 117.632 6.87471
-15.0335 141.441 1.19738
13.3843 120.931 -5.28179
13.2108 121.29 -5.67065
12.0435 121.864 -4.86617
-12.6092 141.12 -2.02902
-2.43837 132.073 -1.0688
20.9052 103.668 15.8099
-0.868644 130.775 -0.999255
10.7573 122.812 -4.44387
10.4124 116.962 7.35584
-16.6661 139.015 8.74875
-14.2585 140.857 1.36503
1.83654 130.023 -3.79445
7.93727 124.602 -3.22751
-15.8578 142.415 1.0413
3.52542 121.829 9.26598
11.3333 123.044 -5.62282
-14.9326 137.518 8.99905
16.19 106.567 18.1518
16.4186 116.937 -2.05308
21.7619 104.006 14.1194
-1.14372 123.949 12.823
-18.2484 143.731 2.56132
-9.74853 139.964 -3.83337
-5.74336 136.408 -3.47038
21.9164 104.775 12.5553
-14.7241 141.538 1.20778
21.1658 104.27 14.8404
7.96922 124.808 -3.21514
4.12241 128.532 -4.1271
22.1684 106.598 8.80871
7.56306 120.537 5.70518
15.1647 107.717 18.0137
14.739 120.543 -5.8072
9.31668 118.673 6.49565
6.75577 121.199 5.78602
-5.99567 137.082 -4.03675
15.0183 108.25 17.3248
4.0205 128.755 -4.19358
3.77354 122.14 8.86445
13.4823 111.016 14.5373
1.55619 122.11 12.5025
14.99 108.372 17.1853
-17.2255 140.098 8.33975
1.95549 122.207 11.8162
-18.6982 143.713 3.96369
-14.7371 141.891 1.14621
-3.15685 125.706 13.4912
-8.30168 130.584 12.4678
12.431 114.33 10.2169
20.663 104.68 15.4453
21.6233 104.757 13.8242
12.41 114.432 10.1692
10.5888 117.437 7.38941
3.53068 129.597 -4.42778
12.1372 114.97 9.71561
-9.13139 131.552 12.2288
12.7219 114.046 10.6392
-0.32045 131.365 -1.45282
20.1368 104.822 16.4165
13.7125 121.95 -5.99469
-5.50893 127.443 14.4598
16.9475 116.739 -1.15253
21.844 104.963 13.539
17.6802 115.631 -0.170661
-15.8802 143.156 1.20018
-12.078 141.825 -2.35573
20.6609 111.637 2.74005
2.00989 122.634 11.7499
19.0967 115.228 -1.56015
-11.4196 135.093 9.54427
8.8986 119.828 6.12061
13.8322 110.689 15.6912
5.70966 127.522 -3.37532
21.3341 108.217 8.5058
-18.5659 143.662 4.92753
-15.6429 139.296 8.72051
-15.5447 143.224 1.05976
6.21841 122.306 6.10423
22.015 106.825 10.3576
-13.5395 137.144 9.56555
21.8485 107.68 9.00088
-11.0656 141.75 -3.04842
3.80837 129.785 -4.07505
19.0215 105.883 17.1833
17.7063 115.769 0.459649
5.24406 122.873 6.93208
-1.46418 125.52 12.7416
15.546 119.421 -2.88341
-17.012 144.324 1.89628
10.4289 118.528 7.12244
12.9997 114.247 11.1905
-8.83093 140.664 -4.14727
20.8809 110.65 5.48846
3.10734 123.153 10.1809
-13.4976 141.752 1.32108
-0.881527 132.384 -0.982422
19.7368 114.309 0.454942
-16.5796 140.689 8.44089
13.5629 112.936 13.1071
-11.7324 136.018 9.64783
-13.3976 142.084 0.728842
-3.4462 126.945 13.6995
5.25847 123.217 6.83971
16.6116 116.597 1.25519
-13.2331 137.496 9.44225
15.5322 108.905 17.8771
14.291 122.28 -5.70531
-17.1038 141.454 8.13095
21.1375 106.26 13.9943
21.8707 106.159 13.0214
-9.75538 141.493 -3.65147
5.31272 123.384 6.752
8.25736 126.54 -3.9898
3.20591 123.467 10.05
3.87734 130.214 -3.92009
13.4087 123.305 -6.02362
-17.3209 141.874 7.91416
18.4469 115.537 0.871924
-5.88635 138.616 -3.99144
5.23329 128.932 -3.3431
15.6152 120.128 -3.1599
9.96008 119.806 6.57964
20.2127 114.039 1.11769
6.83236 127.566 -3.22947
-12.4367 137.635 8.52837
-13.5896 138.221 9.31975
-3.71084 135.794 -1.91438
16.4097 117.013 1.64843
20.3767 106.86 14.7639
20.318 106.828 14.9328
15.572 120.682 -3.91907
-9.14376 134.435 9.58795
20.873 113.022 2.26369
6.45918 128.042 -3.13334
-5.55114 138.327 -3.40947
21.3238 106.851 13.587
6.26221 123.569 5.84826
9.33957 120.865 6.07776
20.9571 112.847 2.79299
-7.3834 140.63 -4.66826
-13.0571 143.13 -0.305715
-7.32342 131.116 13.5586
0.852213 132.447 -2.11829
-8.33946 133.298 11.0625
11.9144 117.524 8.70677
13.7048 113.273 13.9632
-2.81863 127.63 13.16
4.16884 124.147 8.58954
12.6042 125.158 -6.67844
-5.46552 129.831 13.4694
-8.35504 133.107 11.8739
16.3009 118.214 0.768681
-2.22343 134.763 -1.04171
13.1126 124.888 -6.69763
-17.5177 145.078 3.97141
0.946819 132.709 -2.04225
-1.76506 134.456 -0.948458
21.4874 109.386 9.68606
19.8575 107.634 15.6697
17.8176 108.82 16.7167
-6.62432 131.092 13.5043
17.2451 109.13 17.1218
21.721 107.68 12.7587
6.4053 124.325 5.64571
19.7819 107.865 15.7385
3.04464 124.729 10.4055
21.922 108.694 10.7457
-1.06897 127.08 12.5719
1.12097 132.891 -2.06974
21.3907 110.765 7.67646
15.749 119.225 0.572049
-5.33187 138.906 -3.15638
-7.07483 141.02 -4.37411
8.93153 127.901 -4.91743
11.9166 118.409 8.45536
-10.818 137.768 8.08129
10.4048 127.321 -6.07384
13.7084 114.417 13.3996
4.04182 124.901 9.00773
-3.11648 136.657 -1.93664
3.63311 124.918 9.66372
-6.42222 131.654 13.2013
7.88439 123.966 4.97841
21.3848 110.361 9.29624
12.0624 126.586 -6.73579
5.03685 130.794 -3.45501
-12.1082 143.93 -0.964957
-6.26234 140.51 -3.80849
1.98615 132.977 -2.65902
21.2303 113.346 3.98474
11.966 126.773 -6.73959
17.8067 109.634 16.6675
-5.5402 131.302 13.1228
-12.0389 144.168 -1.03362
-14.9611 141.841 8.17667
-8.0089 142.63 -4.47815
-11.4516 144.218 -1.90313
-15.657 145.759 1.96815
-11.1648 139.285 7.15932
-11.9917 144.298 -1.08513
18.6845 109.588 16.0163
-12.2236 144.415 -0.72184
10.6714 121.29 6.69956
5.7798 130.739 -3.48529
16.1051 119.904 0.65113
15.8146 120.289 0.390638
-8.97108 143.605 -4.27203
8.67953 123.891 5.14847
-12.4613 144.513 -0.110168
13.4627 115.685 13.4059
-13.0819 144.28 1.474
-0.726653 135.239 -1.08331
-7.50081 142.756 -4.52318
17.3569 110.663 16.9304
-9.73406 138.097 8.06864
7.35313 130.09 -4.05834
15.6876 120.956 0.056867
-16.6747 145.277 5.60851
8.94872 124.012 5.16097
15.792 122.723 -3.36333
-5.46072 132.111 12.8789
21.7182 109.565 12.3471
7.14952 125.645 5.07926
-6.14391 141.376 -3.60779
-11.5584 144.963 -1.7286
-11.1044 144.93 -2.39094
5.37945 131.633 -3.44722
17.6775 117.008 4.80505
1.37988 134.239 -1.8856
1.97782 133.976 -2.23904
2.01203 133.969 -2.25907
-12.4558 144.88 0.164206
21.901 110.057 11.596
15.2876 122.547 -1.65606
17.8674 118.569 1.86801
-11.1406 145.24 -2.32057
15.1852 123.587 -3.23281
9.6357 123.747 5.39806
13.0541 117.222 12.4233
-6.42201 133.829 12.0148
-16.2157 146.51 3.73548
7.1981 131.001 -4.19325
-12.7633 142.008 6.95605
15.0261 124.044 -3.35242
18.1919 117.762 3.73436
21.3936 113.516 6.71408
14.9751 125.201 -5.2164
-15.1748 143.822 7.69721
-6.21289 134.428 11.3459
5.08703 132.913 -3.93549
9.63921 124.296 5.27284
14.5429 124.712 -3.2878
17.4542 112.186 16.0576
-7.03264 143.506 -4.44827
-6.01099 142.222 -3.61092
1.40925 135.121 -1.93432
-4.76666 140.656 -2.52284
20.1744 111.251 13.6089
6.97842 131.805 -4.39154
6.02392 127.127 6.13179
-4.3114 140.265 -2.30732
18.0079 122.835 -4.79863
21.7249 112.871 8.3162
13.4622 116.686 14.3786
-5.25158 133.479 12.3633
-10.5261 141.118 6.34532
18.3653 112.14 15.3188
17.6421 123.039 -4.31791
1.44395 128.169 11.9476
21.9101 111.397 11.1164
15.6935 113.771 16.582
12.6784 120.353 8.8995
-8.33554 144.944 -4.3253
9.60119 125.011 5.10202
1.25979 135.68 -1.8807
17.6195 112.858 15.5537
21.8741 111.468 11.3811
-12.1437 146.003 0.135923
12.4623 121.119 8.18137
13.1293 118.642 11.9445
-9.26843 140.072 6.98985
-14.412 143.938 7.87336
-11.9919 142.694 6.39442
18.6874 112.371 15.0464
16.998 124.396 -5.23978
-14.6177 144.359 7.52485
-15.1154 145.2 6.71773
15.432 114.653 16.1389
-9.26884 146.104 -4.19416
-14.2995 144.054 7.83318
18.4758 112.761 15.0346
-9.41407 146.28 -4.02287
13.0901 119.668 10.7078
3.17198 128.466 9.86124
-5.34701 135.5 10.1213
12.524 121.483 8.30099
-10.8414 142.308 6.07637
-15.2325 146.656 4.83787
17.9928 113.288 15.2263
9.41931 131.155 -5.1388
-13.0016 146.733 1.14499
-2.50331 139.379 -1.5864
5.10513 128.185 7.6049
4.49783 128.43 8.114
12.4573 121.772 8.06263
6.33139 128.213 5.7151
16.0163 124.017 -1.75858
16.8112 122.624 -0.355619
1.46782 129.187 11.7867
-10.0864 146.771 -3.24922
19.0607 112.921 14.6734
11.5194 123.539 6.52478
-12.0262 143.522 6.21805
2.32418 136.098 -2.55678
17.9796 121.11 1.03998
-15.0129 146.985 4.73038
13.0393 129.463 -6.83084
-13.4325 147.375 1.6048
13.0119 119.898 11.6387
6.7798 128.686 4.95839
2.27034 136.411 -2.54221
-0.00671905 130.754 11.9756
12.8929 121.161 9.58765
-2.94346 133.069 12.3521
1.01166 130.039 11.7891
2.27088 129.407 11.0277
0.565204 130.429 11.8426
18.5012 120.777 1.46194
-13.4088 144.719 7.04311
13.0833 120.792 10.2345
14.8641 126.652 -3.78608
-9.57955 142.064 6.06119
17.8998 121.702 0.821378
-10.0639 142.877 5.66778
18.4392 123.858 -3.73118
-13.2996 145.228 6.47472
18.352 125.173 -5.93633
19.2242 119.808 2.9539
21.0996 115.054 9.08665
10.5239 126.038 5.15266
1.99514 137.182 -2.44526
-1.52346 132.737 11.7267
-7.02011 139.772 7.28609
15.0002 126.975 -3.56833
13.0654 121.204 10.6891
18.5385 114.499 14.726
11.8549 131.317 -6.56256
5.89481 135.083 -4.07684
-2.11027 133.519 11.8219
18.7089 114.587 14.5888
-13.9873 148.571 2.27226
19.2705 114.367 14.2262
19.3893 120.095 3.09898
14.083 118.606 14.5888
19.2416 123.749 -3.49666
15.4643 127.554 -4.59581
-13.4172 146.493 5.71535
13.0912 122.033 9.92358
-1.81949 140.692 -1.61274
14.6448 118.149 15.1699
1.64017 138.32 -2.26291
19.8103 119.656 4.23214
20.2414 116.661 9.31005
19.0548 123.497 -1.80558
18.473 125.349 -4.29122
15.1968 128.874 -5.74578
19.101 121.441 2.23969
-1.99677 141.197 -1.60951
-10.6394 148.892 -2.37327
18.8187 124.343 -2.78544
-3.47506 137.145 8.68002
8.07905 129.821 4.24106
4.43824 137.635 -4.7604
-13.8614 148.503 3.9539
14.1022 119.465 14.5182
4.74879 130.794 7.92595
19.0125 119.3 7.03089
-3.48528 142.928 -1.95413
9.35409 129.178 3.84279
-7.49856 147.406 -3.8418
-0.684254 133.949 10.9579
12.7124 122.547 11.2227
19.6537 124.549 -3.6958
19.0532 124.611 -2.79835
19.8889 120.374 3.97401
8.71192 129.801 3.96926
19.0225 124.811 -3.05121
-11.7755 149.182 -0.0464438
12.6049 122.237 12.2919
18.9369 124.999 -3.09688
20.5263 124.118 -3.94743
-11.9383 146.678 5.14143
3.41566 131.614 9.25727
4.77636 131.176 7.90659
-5.89397 140.352 7.5578
-12.2667 146.994 5.1222
15.555 127.909 -3.12295
-12.7571 149.219 1.69576
12.8516 124.062 8.63612
20.3667 125.156 -5.425
-10.1682 145.496 4.80268
-7.98249 148.132 -3.75585
16.362 128.54 -5.4416
12.8243 123.196 10.548
19.9604 124.156 -2.75187
13.3272 131.968 -7.00358
17.2334 127.238 -4.19774
6.87795 136.055 -4.40256
16.8964 117.767 14.554
20.7622 116.05 11.6902
14.4972 130.842 -6.51833
16.7419 128.117 -4.89421
18.8726 125.631 -3.56123
-12.9936 149.516 2.03781
-2.05796 142.292 -1.61899
17.958 124.305 0.643883
18.8178 119.888 7.7213
19.8788 124.221 -2.25513
1.45593 133.11 10.4566
13.6784 121.12 13.9416
18.7026 126.502 -4.40766
-9.80343 145.804 4.5423
0.240107 140.645 -1.71721
19.8917 124.86 -3.11976
-9.07834 145.1 4.79871
-4.57261 139.313 8.68773
5.59274 137.854 -4.79278
7.3319 131.605 4.40521
18.8853 122.973 2.43833
-2.54946 137.823 8.55221
12.6244 132.864 -6.37283
-1.96276 135.871 11.4258
2.13126 133.148 10.1451
19.7062 124.67 -1.88269
8.6969 130.98 3.76266
-6.55285 147.706 -3.67226
-5.96176 147.22 -3.68543
1.75644 133.525 10.1206
11.6852 127.507 5.66522
12.4858 133.101 -6.22536
14.0939 121.116 14.157
6.57406 137.305 -4.71163
-3.23677 138.804 8.21799
13.1948 132.827 -6.63969
-5.35153 146.762 -3.41893
5.13414 132.128 7.77288
2.34573 133.337 9.97183
12.9646 125.132 8.59077
-11.7672 150.355 0.141364
16.0827 129.923 -5.45592
11.3466 128.388 5.11575
21.2702 123.186 -0.89176
13.0442 133.065 -6.4889
-2.0766 137.381 9.64228
15.9564 130.006 -5.25028
-4.81458 146.22 -2.81042
17.5383 118.575 14.1268
15.6864 129.928 -4.58344
19.49 120.861 6.65128
7.96057 136.782 -5.23591
8.83026 131.455 3.63668
17.0618 127.365 -1.76848
-10.5168 150.341 -1.34652
4.99114 139.268 -5.09498
-11.1173 150.437 -0.527783
-6.30591 148.019 -3.55164
15.7026 128.979 -2.50698
18.3622 127.227 -3.38705
-11.1607 148.084 4.23781
16.0436 128.128 -1.33777
18.2427 126.371 -1.4942
21.9936 123.432 -1.899
-0.208188 142.033 -1.69088
21.1865 121.369 3.45798
10.3053 130.217 4.03842
18.7774 127.096 -3.52551
16.4537 126.562 1.24186
18.8105 126.353 -2.10564
19.2498 126.652 -3.28979
18.6443 127.447 -3.72183
20.4289 121.484 4.84197
19.3706 126.219 -2.47828
21.6285 124.33 -2.4735
12.6795 125.193 10.2863
15.6919 120.422 14.5939
16.5522 128.083 -1.44112
19.421 119.855 9.81146
19.2417 125.506 -0.693283
17.621 129.776 -6.21802
-10.9334 150.776 -0.346376
18.5451 125.636 0.396982
15.128 121.237 14.3165
20.8844 121.792 4.00508
-5.84147 142.639 7.13079
16.4324 129.197 -2.98402
18.9029 127.401 -3.50837
-1.06132 136.571 11.0908
6.64126 138.691 -5.28194
-1.33014 136.885 11.0329
-5.33485 142.116 7.49516
20.1051 126.012 -2.62258
-6.21858 143.257 6.74529
0.537466 135.76 10.3034
15.4333 130.894 -4.32766
22.3362 122.895 -0.102111
16.005 130.008 -3.5117
20.5629 124.899 -1.02215
7.41599 133.169 4.31745
2.39484 141.248 -3.0418
7.00103 138.869 -5.60552
-7.33661 145.333 5.10437
15.1207 131.44 -4.34801
12.0662 135.04 -6.30178
19.0546 125.273 1.13975
-10.8669 149.127 3.65238
13.4041 123.914 12.8588
23.2827 121.046 2.45656
19.6703 119.804 10.6676
18.2847 126.898 -0.625134
15.2088 131.861 -5.14809
-6.11814 143.737 6.48274
16.7373 131.025 -5.9682
13.0026 126.544 8.73486
18.8765 128.426 -4.28592
19.4594 124.577 2.16806
12.5428 128.11 6.59885
23.2468 121.117 2.76723
20.8747 122.209 4.50005
20.3762 124.045 1.80772
20.7414 123.857 1.6024
13.8138 134.106 -6.85772
10.8491 130.822 4.21727
14.6376 133.69 -7.34677
20.588 123.794 2.05435
14.1728 133.983 -7.07169
23.1884 121.051 3.19231
20.3785 122.141 5.65241
6.34382 134.276 5.12202
19.9432 123.744 3.40147
13.9664 123.546 13.5098
-3.91434 141.749 7.45511
-6.79355 145.346 5.21105
19.2946 120.204 11.3437
15.9292 129.854 -1.6508
-10.4163 149.39 3.37976
20.0519 123.304 4.32983
15.0728 132.251 -4.69893
18.5353 127.008 -0.226633
17.2511 129.496 -2.79145
16.5137 129.769 -2.07012
17.0395 129.73 -2.76287
16.7739 128.747 -0.450607
15.3067 122.476 13.9142
2.97517 141.984 -3.53054
23.562 120.999 3.50323
20.4615 122.582 5.51175
2.69489 142.184 -3.37372
-1.95637 140.637 7.12342
2.2815 142.47 -3.14115
-4.16385 142.639 6.9133
16.7537 130.126 -2.69996
18.9661 129.014 -3.98027
-3.90431 142.517 7.00104
6.12637 134.866 5.50394
9.19738 138.43 -6.24844
0.658583 136.977 10.3004
16.6155 130.193 -2.3285
13.0581 127.481 8.63476
15.9529 129.37 0.367098
15.6261 131.869 -3.84089
16.0636 131.173 -3.21126
17.3675 122.402 11.4926
15.9824 129.409 0.318444
18.988 126.091 1.8996
15.5986 122.72 13.8527
14.8026 132.459 -3.45802
-10.2395 151.681 0.190305
18.4374 121.227 12.328
3.92711 135.502 8.38499
18.2185 126.482 2.67426
18.2536 125.731 4.18614
-4.48579 148.341 -2.44462
0.43938 144.157 -2.33434
17.887 128.122 0.275266
20.5933 123.461 4.87901
12.68 127.487 9.96159
22.497 126.008 -2.99786
24.2822 123.619 -1.23754
-0.545448 139.52 8.2906
18.129 121.469 12.8009
14.4381 132.963 -3.23643
9.89507 133.448 3.18373
16.6678 131.008 -2.96081
-8.88389 151.508 -1.03929
19.1343 124.95 4.70619
16.1122 129.543 0.839003
12.6408 129.331 6.85927
13.6592 125.317 12.9191
10.0772 138.374 -6.24694
5.56363 135.208 7.15046
10.7611 132.77 3.47889
-10.0973 150.98 2.23131
-0.320273 138.78 9.96711
16.6547 127.108 5.01049
-7.35099 151.098 -2.24661
11.6318 137.47 -6.68963
19.17 129.747 -3.98222
10.9861 132.661 3.69585
18.7438 123.227 9.28495
16.1084 132.644 -4.48348
14.6163 132.779 -2.31735
16.4987 131.919 -3.67296
-0.655595 145.522 -2.07068
-3.02016 142.888 6.79388
24.5443 123.918 -1.20658
-9.84963 151.095 2.14977
15.91 123.6 13.3664
20.5376 123.675 5.77913
9.40712 134.189 3.59886
7.97279 140.631 -6.40485
12.0324 131.178 5.16723
-8.73073 149.786 3.03447
6.44482 135.872 5.28859
14.6032 125.304 12.4363
16.9093 130.618 -1.34066
-9.46337 152.252 -0.206866
14.6733 125.621 11.9294
-1.84966 142.25 6.70154
10.8673 138.49 -6.55101
16.766 129.918 0.363489
15.4607 134.495 -6.28731
9.92119 139.334 -6.60614
-3.75841 144.114 6.27118
12.9096 129.275 7.85466
25.1148 123.511 -0.723002
13.676 136.59 -7.32979
15.8302 133.16 -4.16714
17.3506 128.063 3.18008
24.4366 124.503 -1.39892
14.777 125.951 11.3894
20.2713 124.244 5.85316
24.1932 124.85 -1.58627
-0.161118 145.73 -2.22745
16.6353 128.036 4.62778
-9.39729 151.295 2.02621
16.917 133.245 -5.74093
14.5768 133.202 -1.80272
-7.44815 151.68 -1.70212
17.2022 123.956 11.7503
16.5756 128.31 4.47147
17.5836 129.788 0.0353476
-4.02098 144.868 5.96757
18.2221 128.598 1.31306
20.3975 124.035 6.55584
20.535 124.83 4.93617
5.49392 142.998 -5.50953
17.9137 130.763 -2.06899
1.52889 138.532 9.59035
19.5987 130.563 -4.05151
17.5596 128.911 2.45206
8.25116 141.361 -6.32295
-6.86421 151.813 -1.99568
20.1375 124.966 6.00599
20.4644 124.485 6.42284
14.7773 127.329 10.231
16.755 128.878 4.09014
14.765 133.916 -2.33659
1.85462 138.675 9.49671
16.8583 130.248 1.51518
17.478 130.151 0.731868
22.5879 127.598 -2.58227
18.4701 130.171 -0.854305
16.8801 130.469 1.19312
12.4468 130.61 8.08491
0.0559023 146.546 -2.43275
1.01709 145.985 -2.90234
17.1171 130.805 0.27218
6.60125 136.939 5.48064
17.7262 127.678 5.35087
6.3075 136.828 6.33337
17.6962 129.611 1.91785
16.1138 133.693 -3.27876
1.08155 141.278 6.46639
20.6016 124.893 6.4241
17.0022 130.615 1.27682
18.0896 132.009 -3.01985
21.3033 128.991 -2.36999
15.6195 134.024 -2.83896
11.8763 139.571 -7.37212
25.3463 121.669 5.35921
25.0532 125.132 -0.758522
12.1109 131.339 8.24313
20.2049 125.397 6.60094
16.9433 129.309 4.39499
2.99677 138.689 8.90974
10.6905 140.559 -7.0454
-7.4657 152.665 -0.941223
18.7651 125.267 9.34809
2.48848 139.142 9.14012
18.4969 131.2 -1.25406
5.89314 137.565 6.95019
16.5629 132.628 -0.70559
2.53257 139.332 9.07656
22.4082 123.806 6.80754
16.8356 129.979 4.00219
22.3794 123.86 6.82236
1.80877 140.999 7.18331
17.4976 133.603 -3.91186
5.35541 144.493 -5.19154
20.3733 125.501 7.07067
23.2832 123.224 6.7535
11.7091 140.236 -7.15644
1.40724 140.3 9.30384
26.2419 121.412 5.48472
16.9784 135.003 -5.59072
17.5425 126.071 10.5982
-1.70283 148.814 -1.9041
1.92248 141.818 5.68317
17.1377 130.748 2.53126
10.9988 135.643 3.07269
7.94227 138.108 3.30922
17.1518 135.057 -5.59795
16.795 134.761 -4.41896
27.2928 123.892 -0.399892
20.4939 131.024 -2.98005
25.1949 122.145 6.46961
20.0855 126.942 5.60487
12.0713 131.902 9.03215
6.59861 139.226 3.84832
18.2316 132.089 -1.17407
16.4464 135.926 -5.62752
-3.75973 150.97 -1.84256
2.08747 141.103 7.65515
-4.53729 151.8 -2.02866
11.2516 135.874 3.13753
17.2616 130.221 4.31017
1.66206 140.819 9.14734
25.0702 126.317 -0.640152
11.8655 132.793 8.23446
27.0021 123.999 0.72094
17.8238 132.04 0.117052
11.9233 135.063 3.86774
16.2198 128.778 9.01507
13.0188 139.849 -6.99371
15.7452 134.918 -1.94332
-0.77132 148.96 -2.23019
16.7114 134.579 -2.81644
6.69641 144.384 -5.44155
18.9017 126.549 9.13933
24.3241 123.173 6.91684
3.89962 139.677 8.25915
17.7057 131.44 1.85218
1.09986 148.029 -3.14479
26.5848 125.011 0.0285751
18.739 128.687 5.66412
27.2689 124.25 0.460401
19.1745 127.196 7.86963
-7.8149 153.909 0.192428
15.4065 136.108 -3.1
20.083 132.615 -3.91819
4.4427 139.613 7.90927
0.190179 148.821 -2.70919
13.8749 130.503 10.3583
20.2701 126.366 7.98955
-7.29524 153.824 -0.14513
6.93019 139.882 3.69774
20.6172 127.153 6.08582
20.8258 127.269 5.56986
-0.696965 149.51 -2.28288
16.1153 135.597 -2.67884
26.9788 125.026 0.147249
15.7544 129.612 9.47993
7.40879 144.499 -5.50453
25.2625 126.783 -0.313409
-7.12848 153.974 -0.118447
-5.93859 153.466 -1.04407
26.9297 122.119 6.07472
9.67055 143.126 -6.33418
2.50896 141.563 8.34835
17.4431 136.32 -5.61011
19.1189 134.409 -4.64844
19.0764 128.079 7.5581
19.5227 127.65 7.68503
20.4893 127.692 6.21213
-3.20728 151.859 -1.88361
27.4965 124.814 0.495869
7.11997 145.019 -5.33471
-5.31391 153.469 -1.38711
10.362 143.065 -6.49632
15.2022 130.758 9.36938
12.4997 141.534 -6.81388
11.8027 134.819 7.20082
15.3284 130.761 9.29467
15.6067 130.55 9.37761
7.46887 145.109 -5.35699
25.2935 127.411 -0.165027
25.8286 123.303 6.87471
17.4375 136.018 -3.93144
26.2779 124.029 4.8978
7.05906 145.504 -5.20651
15.7337 136.838 -2.54605
20.9366 128.212 5.64899
14.5525 131.917 8.90508
9.84517 139.21 2.59359
13.5975 132.564 9.38113
7.40487 145.454 -5.27142
-5.45283 154.038 -1.00113
6.75659 141.584 3.21652
16.7761 137.288 -4.66209
24.277 124.704 7.36634
3.08874 142.157 8.21372
3.91333 141.6 8.01158
7.81483 145.346 -5.41405
4.76613 147.443 -4.47899
-6.54666 154.625 0.0346711
-5.66462 154.309 -0.719651
26.5621 123.732 6.05266
18.9854 135.976 -5.0552
6.22613 141.03 5.87604
11.9753 136.581 5.29635
26.8161 125.099 3.42906
14.2001 140.404 -5.5419
1.95845 149.562 -3.34738
14.6845 132.752 8.67229
15.8752 131.704 8.77447
20.4326 129.518 5.76309
-1.87537 152.242 -1.79059
13.1282 141.908 -6.13683
-4.78042 154.453 -1.23947
3.82915 142.457 7.88754
25.0953 129.132 -0.826033
25.2615 128.846 -0.533667
25.9178 127.809 0.456661
19.584 130.09 6.38376
9.02275 140.797 2.94439
3.4821 149.108 -3.90672
12.0096 136.693 6.26388
-1.6324 152.413 -1.8465
-1.13807 152.167 -2.07098
20.0785 130.275 5.78074
7.08017 142.828 2.78874
24.0662 126.119 7.48131
6.92932 142.725 3.53964
21.3214 128.219 8.2538
12.5197 135.711 8.19691
4.59998 142.803 7.37966
25.5002 126.697 4.62243
15.9432 138.533 -2.62083
20.2381 135.244 -3.2385
14.7555 133.826 8.4735
0.611864 151.709 -2.887
7.2119 143.552 2.22678
17.84 138.069 -4.30112
8.96552 146.23 -5.6321
12.3585 143.392 -5.56781
24.1429 131.123 -1.03238
14.4096 134.332 8.49426
9.59745 145.929 -5.8916
21.371 128.657 8.35315
15.9419 138.916 -2.46348
13.4834 142.529 -5.35895
26.1645 127.638 3.07702
27.7806 124.493 6.85786
15.4299 140.463 -3.73698
24.2411 129.154 4.07636
14.6162 141.759 -4.4485
26.7227 128.745 1.00381
9.8671 142.457 2.01303
26.3496 126.701 5.74906
5.63466 149.406 -4.3223
11.948 140.454 2.81537
26.1169 127.182 5.43267
16.7341 138.967 -1.95714
14.7354 135.179 8.60236
25.9231 129.54 1.39102
7.72007 144.659 1.91805
-0.827976 154.073 -2.12838
19.2904 132.365 7.08455
13.9643 136.059 8.62478
18.8636 138.642 -4.19643
7.45664 145.058 1.9009
24.202 129.796 4.16597
15.6674 134.664 8.62817
16.6787 133.857 8.60335
5.51803 149.957 -4.18087
16.9266 139.351 -2.05529
18.5458 139.156 -4.13457
5.1794 145.327 5.61497
14.3313 142.548 -3.74415
24.1451 128.351 7.74187
21.4754 130.464 8.02135
16.9153 134 8.63581
28.0047 125.59 6.94455
12.5263 139.244 5.76299
4.37171 145.765 6.4715
11.5271 142.153 1.88739
16.1159 134.753 8.6731
10.2318 143.349 1.82009
20.4578 137.523 -3.43815
3.50391 151.775 -3.32543
20.282 137.979 -3.61207
15.5288 140.777 -1.23714
5.37517 150.807 -3.8916
3.70999 151.938 -3.32166
22.3851 129.968 8.68226
26.35 128.058 5.95837
21.47 131.256 8.03082
20.1288 132.554 7.73027
26.1762 128.293 6.20838
26.1033 127.689 7.53154
17.8792 134.307 8.14288
14.5787 137.166 8.03048
25.9678 128.527 6.41458
24.3574 131.341 3.6953
14.2541 137.788 7.68305
10.9135 147.337 -5.14137
13.8258 138.324 7.46817
12.1656 141.917 3.35951
3.81529 152.384 -3.22229
24.8006 129.584 6.67665
8.61567 145.879 1.59973
14.4344 142.814 -1.85817
10.2517 148.058 -5.11094
25.5658 132.418 0.433575
15.1172 137.483 7.65087
16.4707 136.007 8.31184
7.57943 147.139 1.44559
26.9173 127.935 7.15414
9.3051 149.069 -4.82178
22.0827 136.284 -0.858054
10.2072 145.07 1.51793
24.5895 132.786 2.00088
24.159 134.131 0.201242
14.881 138.275 7.27212
24.995 129.849 7.18157
20.1294 139.306 -3.08114
20.7506 138.786 -3.01104
14.5182 144.501 -3.88274
24.4257 133.181 2.03707
21.5039 132.192 8.80557
14.4244 143.831 -2.03205
21.7587 132.144 8.69073
24.5917 133.499 1.74472
14.1715 145.459 -4.28654
17.1854 136.524 8.0442
12.8079 141.776 5.19869
15.8525 142.566 -0.956639
21.1013 139.012 -2.51148
24.2232 132.543 5.06956
15.5076 142.858 -0.591682
12.1674 143.854 3.1881
24.8147 131.132 7.27823
15.0292 143.609 -0.680373
7.55851 148.541 2.11525
12.1904 144.078 3.21259
17.5719 136.974 8.18518
15.0403 139.73 7.19975
