ply
format ascii 1.0
comment Created by Open3D
element vertex 1935
property double x
property double y
property double z
end_header
15.2842 115.708 -0.59647
19.1353 123.262 -5.58559
21.7191 116.737 9.99098
15.2605 116.247 -1.43741
19.3226 116.616 5.70629
19.8919 121.626 -1.36087
-3.82902 95.726 -4.17909
20.2125 121.869 -1.12169
18.1376 113.842 8.02348
-12.2916 84.0697 -1.20252
-0.656445 99.877 -4.84677
22.0668 120.396 4.85596
-13.5079 82.7923 -1.37553
8.88374 108.936 -1.47171
16.0368 106.67 15.8045
14.6472 114.051 1.15366
14.6162 114.157 0.941041
20.1324 125.205 -6.56197
13.0661 109.092 6.3096
18.0009 117.67 1.74299
20.5373 122.232 -0.875564
2.85404 92.9486 13.2768
24.7853 124.575 3.40573
20.643 126.604 -7.6737
19.6414 124.036 -5.34985
20.655 126.144 -6.74748
22.0978 117.268 10.4711
-10.884 86.5362 -2.03578
23.0968 117.376 12.2034
-10.0515 87.5607 -2.04081
-6.18854 86.1041 7.68047
13.1521 110.2 5.13783
22.5047 121.434 4.60069
14.8944 116.711 -2.10508
21.8889 121.259 3.77494
23.8495 126.214 -0.57265
22.1297 121.491 3.89307
20.2509 117.163 7.39338
23.932 124.754 2.05678
18.0281 115.1 6.60114
8.90441 109.157 -1.02389
17.7391 115.605 5.26602
6.60542 108.136 -3.66376
20.3599 119.907 3.26596
21.1193 126.967 -6.78543
-12.664 84.1103 -1.03994
12.0381 106.641 9.13508
22.4641 121.782 4.25701
22.2315 120.61 5.78139
-13.9011 82.5309 -0.731636
17.1547 117.638 1.00885
20.927 122.934 -0.439647
19.858 123.981 -4.0831
18.6622 117.272 4.61129
16.6281 107.225 17.1168
-10.8343 86.9037 -1.86834
16.988 122.646 -7.28675
21.3638 126.911 -5.86233
19.3711 119.126 3.07395
18.4981 109.62 16.9647
24.6093 126.245 1.50592
-5.24613 94.8841 -4.01753
25.9876 128.182 1.02321
-6.84736 85.8829 7.68814
17.0659 110.314 13.3004
17.7021 112.404 11.1124
17.0808 110.215 13.513
-2.79276 98.2359 -4.67323
22.7891 124.579 0.96383
18.6328 124.888 -7.41523
23.2494 123.11 4.28351
15.6023 117.592 -1.22968
18.5775 121.044 -1.18045
21.162 117.364 9.73453
-0.730921 100.973 -5.09188
25.1154 131.195 -5.18406
6.29933 108.33 -3.56354
10.6541 105.343 9.61689
21.4277 121.557 3.67086
18.3392 117.044 5.18636
-10.2456 88.0351 -1.79527
18.4829 118.301 3.44518
20.4303 122.786 -0.150851
25.2692 130.639 -3.64117
14.0853 115.997 -0.999063
-0.411028 92.1631 10.3389
5.06282 107.22 -3.74049
5.38484 97.337 12.9816
-10.2936 83.3382 6.0881
23.3428 130.851 -7.46361
16.977 110.149 14.2048
16.287 118.109 -0.0312454
-1.22683 100.789 -5.00984
20.8364 128.402 -7.86677
22.6213 122.573 5.04088
22.2474 116.927 13.5393
-2.785 90.4549 9.21366
-1.64592 100.444 -4.86531
18.1717 121.485 -1.51342
25.5756 128.59 0.997617
21.3387 122.883 2.27883
5.56003 97.9756 12.9939
-10.4528 88.7658 -2.37984
24.411 126.411 2.45135
-10.9569 87.6898 -1.56227
17.8294 116.637 5.9164
13.8894 116.445 -1.17237
6.29057 99.0599 12.747
17.9915 115.578 8.12553
23.5161 125.434 2.57591
20.7178 121.794 3.20107
-10.4738 89.2156 -2.89793
3.56806 106.272 -4.02483
-4.61231 97.4633 -5.06275
-13.2088 82.0964 3.67479
21.7522 119.163 9.70882
2.85954 105.704 -4.20816
17.9891 115.83 8.07084
-5.90327 95.8584 -4.68571
18.6356 120.23 2.23408
5.58672 108.524 -3.40607
9.32366 110.465 0.524126
17.9854 116.454 7.2142
2.45472 105.509 -4.38033
21.669 118.89 10.2987
18.0302 122.051 -1.739
17.0418 123.999 -6.7566
-9.16676 92.2315 -4.68919
19.928 113.548 15.8123
-2.87632 99.4984 -4.55822
-6.6225 95.2788 -4.73716
17.8138 114.889 9.70007
13.6827 113.17 4.69111
13.3675 112.806 4.69113
23.3405 124.223 5.08826
0.433114 103.627 -4.7747
-2.26109 100.594 -4.91437
-10.8558 88.9262 -2.18953
4.54641 97.3876 13.2705
-11.9966 86.759 -0.752653
-1.08422 102.256 -5.23216
25.0978 130.326 -1.24936
-14.0633 82.2953 2.73116
21.7898 123.839 3.22674
5.16605 98.3756 13.1799
21.6745 121.514 6.82562
21.6245 123.369 3.73191
5.0317 98.2317 13.2124
-6.36155 96.1907 -5.06287
15.2033 123.104 -7.94274
17.2647 118.807 2.9652
7.93181 102.985 11.0619
22.1582 119.965 10.4466
16.5945 124.242 -7.06112
16.7841 120.592 -0.716234
16.7971 125.041 -7.92102
15.4273 122.329 -6.06924
3.83346 107.394 -3.68638
24.6942 131.141 -2.75094
18.209 126.974 -8.24368
-13.9908 82.5805 2.9683
10.3671 106.804 9.75151
5.46114 99.2269 12.7945
16.3318 120.761 -1.56816
16.5179 120.811 -1.26075
11.5634 112.758 2.46898
19.3691 122.015 2.2471
16.3464 110.745 14.9037
25.0729 127.259 4.62378
-3.06425 91.4514 9.56626
24.6104 133.153 -5.8468
21.9692 119.208 11.9734
14.6823 120.735 -4.31546
12.6516 114.076 2.68295
20.9288 123.419 3.28028
17.2452 122.489 -2.19202
-11.2476 89.6274 -2.69439
5.64407 109.598 -3.15031
-9.08644 93.6623 -5.0897
-13.3097 85.237 0.649436
19.6261 123.547 0.76449
17.6705 120.656 1.76794
21.8868 119.769 11.2161
-14.5766 83.421 1.29549
15.2399 120.402 -2.3563
12.8644 115.324 1.41094
18.8686 113.268 16.16
16.4083 112.51 12.8086
-5.71569 97.9887 -5.39139
23.0011 125.014 5.10993
17.9167 117.894 7.08166
6.80807 111.073 -2.83766
13.0119 113.778 4.53967
11.533 109.093 9.39511
16.0467 111.488 14.1234
21.7305 119.923 11.2249
-10.3515 91.8274 -3.86658
11.9183 110.042 8.73043
1.64161 106.198 -4.49282
20.4423 116.266 14.8104
-6.62584 88.5819 8.55164
17.3189 126.75 -8.07578
17.9806 112.21 16.8714
12.2703 112.067 6.3599
12.105 110.865 8.00528
-0.721093 104.053 -5.1267
17.3787 111.59 16.9445
16.035 121.845 -2.26632
-6.3201 89.0594 8.73435
16.7093 110.885 16.89
17.6567 119.153 5.26411
-10.9316 85.5178 5.88073
16.6257 114.032 11.7411
12.72 113.901 4.63758
16.6054 120.013 2.06525
-3.46349 100.913 -4.85198
22.2798 124.405 5.75511
16.0555 125.558 -7.89581
16.4005 120.544 1.00382
-13.9105 83.8478 3.29262
16.6912 118.972 4.15778
1.31129 106.416 -4.55692
21.3593 123.924 4.96065
-6.85636 88.93 8.60564
9.71226 112.477 1.70606
4.31612 99.2329 13.0367
5.31342 110.303 -3.04675
-13.1919 86.8062 0.126713
15.7645 111.707 14.5635
22.6178 125.275 5.49817
2.2283 96.4081 13.84
22.0165 124.111 6.26847
19.7421 124.676 1.06256
17.2279 116.295 9.96385
15.7831 110.973 16.0328
22.2593 124.883 5.73301
-8.53355 95.7807 -5.27981
22.5908 126.323 4.16198
13.7264 120.193 -2.64021
15.7207 122.3 -2.28535
15.9913 121.36 -0.20686
18.6615 124.078 0.452748
13.9834 120.628 -2.78492
24.1699 133.313 -3.98237
12.1752 116.705 0.371852
7.39724 111.706 -0.457157
-9.7912 94.3369 -4.70008
-0.167729 105.642 -4.79888
22.4428 133.24 -6.76422
-11.3244 86.3736 5.50323
22.312 126.008 4.76799
15.0576 118.304 3.57473
22.3615 125.999 4.90052
16.8749 116.263 10.3699
11.0568 109.972 9.58351
17.6218 118.59 8.04004
20.7432 124.683 4.07854
21.7321 132.252 -6.33218
14.4451 124.224 -7.08222
23.8037 132.32 -2.50336
16.9916 112.42 16.9831
14.264 123.749 -6.6026
15.4007 122.485 -2.38723
14.3115 117.616 3.63373
21.7614 126.087 4.06513
-12.2726 90.5708 -2.63716
16.4477 112.42 16.2651
7.84164 106.165 10.136
22.1317 126.474 4.22512
-15.084 84.5098 1.98599
3.46481 109.487 -3.48758
-12.8483 85.6474 4.39756
17.7598 119.954 6.59681
-13.6639 87.521 -0.17243
15.8334 122.786 -1.63272
-2.14494 103.789 -4.78944
17.6602 128.491 -7.42918
17.3879 118.196 8.83013
21.3016 125.706 4.12659
0.278673 96.0012 12.6319
18.1686 124.429 0.536811
3.65153 109.881 -3.3034
8.6912 112.914 1.34504
2.26085 97.8514 13.7367
2.86194 109.375 -3.74025
-13.6477 88.1208 -0.437471
17.5652 119.4 7.83871
-13.2092 85.8432 4.15218
8.19183 107.075 10.1791
-6.13101 91.0375 9.25565
4.10082 101.144 12.2748
18.8785 124.502 2.50896
11.6413 113.423 6.88141
21.9315 127.43 3.6575
22.6368 127.634 4.6716
19.2959 126.465 0.307635
-1.84084 95.1304 11.32
19.7544 121.942 8.64501
-15.1955 85.7156 1.34286
16.4973 127.977 -7.31187
12.0068 114.464 6.18615
16.5837 123.815 -0.3121
18.6159 126.106 -0.185479
6.00333 104.786 10.7219
22.0924 127.96 3.5349
-11.6773 87.7106 5.0935
15.825 127.318 -7.19589
17.0101 124.518 -0.357806
15.4934 114.053 13.8114
21.3395 127.229 3.49195
-8.66874 97.7551 -5.40358
20.5186 120.544 12.8955
16.137 121.25 3.44169
11.5963 113.77 7.0712
19.3326 126.757 0.670536
-10.8037 88.2532 6.20662
-15.2948 86.0785 1.27328
17.8439 129.706 -6.88766
12.9794 117.195 4.26105
23.9105 131.102 2.40172
12.9444 121.232 -2.30965
-6.04682 91.8202 9.58243
23.8022 133.038 -0.798797
19.7257 122.372 8.84501
19.9057 119.506 13.8883
10.371 110.764 10.0481
19.578 122.11 9.07204
5.57255 104.741 10.7949
15.2721 122.951 -0.453108
9.01049 114.17 2.12148
-10.5871 95.1048 -3.94263
13.6013 122.281 -2.26625
11.1862 112.589 8.94827
7.33219 107.198 10.4262
-9.61677 89.3079 7.42173
-10.1149 95.9175 -4.28505
15.0486 120.709 3.08043
7.30884 113.348 0.386822
12.4693 119.577 0.0506566
16.5185 126.111 -2.88478
18.1685 124.891 2.24879
13.5854 122.473 -2.35643
14.2315 119.671 3.4572
2.91741 100.75 12.8198
17.466 115.845 15.846
22.3442 135.128 -6.1345
16.5403 125.67 -1.70592
9.16685 109.602 10.4797
16.411 118.271 10.108
17.3103 120.655 8.00519
11.2487 113.803 7.66921
12.1866 116.193 5.5835
-10.1324 96.3121 -4.33259
-13.933 90.2087 -1.46939
7.61821 107.992 10.5381
18.7731 127.107 0.598325
19.8033 126.229 3.98801
19.6996 121.886 10.8928
-0.778182 96.9555 12.7261
11.0193 112.917 9.12375
21.3645 126.593 6.49455
20.1328 121.459 12.5226
13.1819 118.57 4.0951
-5.59502 102.258 -4.92574
19.3409 125.69 4.28094
15.0341 124.11 -1.30604
6.64379 113.629 -0.131742
4.51523 112.806 -2.7661
19.7705 126.231 4.31338
19.1638 127.401 1.26217
19.9062 132.945 -6.32138
-5.3388 102.878 -5.22632
19.0311 119.229 14.3833
23.5102 132.573 1.1908
19.4854 127.565 1.72039
22.0696 129.127 4.08606
22.3063 129.323 4.25596
9.71163 115.652 2.64606
2.93329 101.911 12.2602
10.7556 117.956 0.977349
-9.54558 98.069 -5.14579
1.05248 109.516 -3.65728
12.3499 117.631 4.61064
-14.7147 87.3474 2.6311
18.6309 118.863 14.6889
19.6516 125.825 5.33132
10.0367 116.179 2.83083
-14.0286 87.5933 3.76116
22.8532 136.051 -5.15654
16.8415 120.388 8.94662
-3.39681 95.6019 10.9378
16.7805 125.421 0.685407
10.9173 113.66 8.82447
13.9219 124.993 -3.92255
11.9626 121.042 -1.08889
19.6423 127.929 2.26734
22.8715 134.607 -2.43474
19.6304 121.363 12.9887
11.8429 121.397 -1.68485
-8.88807 91.3852 7.99649
20.1206 124.698 8.78858
-13.4965 88.4634 4.13568
3.86908 113.014 -2.84646
19.8116 133.754 -6.37557
23.158 132.221 2.5141
17.2652 123.22 6.01868
19.0872 132.98 -6.39856
-9.37233 99.1627 -5.29648
1.11641 110.364 -3.61912
-8.63614 100.056 -5.26389
19.4344 123.631 9.61657
16.3136 116.604 15.1729
15.798 116.155 14.9665
-12.5728 94.1277 -2.93488
17.5513 118.179 15.0482
-13.0753 88.9361 4.66155
-0.922409 97.9286 13.132
17.6654 118.478 14.9426
-4.01366 95.7407 10.8525
2.64868 112.022 -3.01735
-0.0555032 109.079 -3.30312
20.3226 126.062 7.81497
16.0944 126.805 -1.39273
18.7131 122.695 10.2707
-8.78482 92.0309 8.16247
-13.6434 88.8364 4.15006
14.314 122.235 2.89201
4.41056 114.189 -2.59325
19.3462 122.269 12.7075
16.5919 125.81 1.76296
-15.0538 88.898 1.84484
5.18327 106.876 10.9648
15.2643 116.563 14.3145
15.3805 127.29 -2.92299
-7.43309 93.2254 9.3498
17.6594 126.087 3.51578
-15.1757 89.096 1.48528
-6.07507 94.5235 9.95985
-7.27446 93.4017 9.51298
-1.77512 107.753 -3.21639
15.3502 127.68 -3.17518
12.8904 124.918 -3.3374
23.2561 136.762 -2.9589
15.9434 127.171 -1.19133
8.16022 111.025 10.3704
8.88317 116.643 2.60423
15.5528 127.908 -3.06242
20.2507 127.918 5.84197
15.796 117.269 14.7596
21.4945 130.713 3.67836
4.15776 106.003 11.0734
-11.4908 90.4993 6.64423
-11.9842 90.2081 6.19139
17.1083 131.707 -6.18372
-15.0487 90.3753 0.133083
16.0916 120.788 9.67937
-12.5485 95.3493 -3.08074
-9.13281 100.538 -5.0436
-11.9543 96.3402 -3.38256
-5.73264 95.3284 10.1618
1.91407 112.394 -3.10294
13.355 126.605 -4.52702
14.415 123.492 2.55863
18.6732 130.253 -0.370408
-11.0924 90.9845 7.12415
17.5045 119.804 14.4585
15.9395 130.828 -6.43274
13.3751 126.75 -4.6521
-13.1915 89.9361 4.90444
16.9709 128.12 -0.0607387
-14.1568 92.9828 -1.88109
16.0612 117.917 14.8772
15.8121 125.096 2.72231
19.7784 129.189 3.61026
18.7669 123.921 10.2834
15.2954 117.71 13.8285
15.4683 119.805 10.7695
-2.77156 107.287 -3.38949
-11.9015 96.7135 -3.48801
6.28336 109.277 10.5655
-10.6036 99.1739 -4.99882
-12.7864 95.4689 -3.03228
-13.9333 90.3262 3.20549
22.0924 133.049 2.01147
15.1392 119.297 11.2965
17.0387 119.57 14.5126
13.6599 122.656 3.18405
-15.1165 90.9952 0.19028
-2.85067 97.6531 12.6202
16.9632 125.927 4.27864
18.5425 123.95 10.5153
18.4306 127.161 5.07669
14.2675 123.884 2.54659
16.9702 124.349 6.91643
8.33999 112.097 10.5166
8.83885 117.44 2.83151
12.2469 125.139 -3.16831
11.1721 123.023 -1.73936
-9.88883 100.457 -4.88675
11.7 118.02 7.47223
-13.3757 91.1837 3.62075
21.4289 131.69 3.78509
15.543 125.702 2.37802
17.2317 125.673 5.75275
6.10919 109.832 10.4793
-15.3515 90.9602 0.606769
13.8948 128.61 -5.19684
14.9569 130.367 -6.04305
21.7805 132.256 3.83379
11.7723 118.591 7.10188
13.1937 127.376 -4.47092
20.9391 131.144 4.11848
23.185 138.528 -3.54691
15.1755 128.147 -1.82889
18.7255 135.258 -6.62689
-7.77968 103.411 -5.00736
9.8962 114.524 10.4467
3.0278 114.641 -2.75176
-3.12707 107.809 -3.29518
-6.21183 95.8805 10.3507
20.6451 130.883 4.29856
-4.89485 106.43 -4.31219
21.5329 134.706 -0.194666
13.9402 128.213 -3.99518
1.3037 103.4 12.554
5.0777 108.974 10.6556
21.3527 133.727 1.22032
-12.3989 97.2849 -3.43187
-10.977 99.8104 -4.77091
15.4088 127.153 0.784281
16.2132 126.772 2.93114
13.1724 122.875 3.54571
16.447 129.717 -1.36196
19.8619 136.924 -6.54442
13.2059 127.898 -4.4614
9.23379 119.315 1.98521
16.4547 129.611 -1.04633
15.875 126.72 2.58233
-5.06959 96.9494 11.3354
19.7949 129.392 5.69301
21.6422 132.83 3.65924
8.7461 118.304 2.8541
14.3743 130.144 -5.74098
22.0812 138.26 -4.26585
-15.0688 91.5836 1.33726
17.3669 129.547 1.06865
15.4268 126.664 2.11504
2.10606 105.372 11.6316
16.9348 121.281 13.9139
18.8213 131.333 1.12775
15.205 119.796 13.2143
18.8451 126.586 9.09584
16.8996 127.661 3.682
-13.1446 92.3311 4.2742
21.4059 135.489 -0.412424
-1.1871 110.537 -2.56821
19.3567 130.665 3.72175
17.1283 128.39 3.21581
15.0796 120.052 12.9525
2.13186 105.903 11.4889
16.1688 129.495 -0.287946
-14.0578 95.6051 -2.31053
15.836 130.028 -1.63334
5.43157 110.54 10.4217
18.4964 127.591 7.50087
11.6553 120.764 5.6672
18.2429 130.802 1.8222
10.5096 123.381 -0.74581
4.97044 116.676 -0.276992
-8.3821 104.279 -5.36721
18.7978 130.586 3.38083
18.3834 127.6 7.62706
12.5145 128.172 -4.43735
-14.7659 94.4239 -1.18181
-1.93974 100.179 13.7814
20.2076 138.272 -6.22644
17.5371 132.573 -1.9982
10.515 122.575 1.0274
1.08742 104.751 12.236
10.3705 122.32 1.24948
18.2803 126.853 8.89389
13.7703 129.044 -3.22294
11.6122 120.036 7.36149
-15.0877 93.9434 -0.745445
20.6302 134.151 1.55779
16.4842 128.429 3.0717
21.3321 139.186 -5.21348
12.8503 123.939 3.57389
14.6501 121.602 10.8031
-1.56888 110.889 -2.37277
15.4928 123.802 8.99284
15.0709 128.354 0.799007
23.1887 140.06 -2.79167
14.4978 128.596 -0.590821
13.9182 126.039 2.48025
20.6985 134.701 1.2454
18.4164 131.888 1.51431
15.8441 121.454 13.653
17.3768 135.742 -6.70502
-7.23068 106.199 -5.13318
22.2166 139.928 -4.18981
13.8922 129.516 -3.01619
14.2115 128.969 -1.49301
7.26461 118.695 2.08312
6.45234 118.331 1.17403
19.1046 137.794 -6.48852
-12.2302 100.017 -4.2909
10.6725 125.69 -2.63966
17.6738 132.667 -0.715961
13.6754 130.363 -4.50703
14.7298 128.77 0.173927
13.9573 131.241 -5.31455
4.70927 110.829 10.4932
13.6722 130.931 -5.17062
-15.2326 93.4511 1.05716
-1.3812 111.586 -2.18534
11.2705 127.125 -3.35934
3.15928 108.86 11.014
0.587735 114.142 -2.3908
18.7641 131.204 4.32532
17.6357 128.245 7.06276
3.89648 117.378 -1.29865
-6.01137 107.726 -4.29465
16.1599 134.627 -6.00709
14.5695 132.5 -5.50694
22.0472 138.169 -0.540352
-13.8736 93.9971 3.34371
-7.00733 97.3977 10.9108
4.64007 117.841 -0.23588
2.31073 116.427 -2.34636
11.0638 120.193 8.17135
22.881 140.336 -2.19031
13.9016 131.793 -5.27601
8.18189 120.097 3.02366
12.5662 129.797 -4.4349
-10.3098 103.622 -5.17435
17.198 136.602 -6.697
4.52405 111.316 10.4909
10.3233 125.876 -2.19212
17.3571 133.296 -0.888579
19.6382 139.146 -6.0619
2.52217 116.895 -2.28386
15.3932 131.801 -2.13932
16.3705 135.623 -6.46197
8.84418 116.393 10.6434
13.0179 130.664 -4.67042
-6.02765 98.5428 11.5328
7.25286 119.599 2.45654
-13.1397 99.4625 -3.42394
17.3328 126.122 10.9839
9.3074 117.255 10.2201
19.8571 133.415 3.96705
21.0305 136.753 0.776971
13.6256 131.478 -4.66475
-5.54806 108.735 -3.97939
-5.09228 109.155 -3.7551
2.2627 108.611 11.1132
5.96886 119.096 1.1695
-7.67418 97.4232 10.6658
17.0901 132.57 0.420737
18.5032 131.621 4.66175
19.8009 134.493 2.47539
16.11 130.495 2.00224
-10.8022 95.2161 8.40541
20.8522 140.414 -5.12586
16.6817 129.6 4.58424
9.08986 117.281 10.3397
-2.58756 101.535 13.8346
-12.2393 94.949 6.27751
17.0548 126.046 11.3455
16.3703 128.342 6.34971
8.27391 116.195 10.8652
13.5534 127.611 2.32928
8.97579 122.282 2.36461
16.7693 126.293 10.7412
-5.06847 99.8591 12.3854
10.7416 120.731 8.49648
16.4414 126.794 9.45285
15.8469 133.407 -2.41558
14.3479 133.414 -5.219
-14.9117 94.5512 2.60118
-9.8551 105.18 -5.0701
-2.19983 112.1 -1.80038
-3.4708 111.008 -2.42547
0.731616 107.099 11.9137
8.03058 116.229 10.9113
14.5386 133.871 -5.47012
-10.7531 104.041 -4.84083
15.8953 136.12 -6.50294
16.3592 132.279 0.684513
2.74972 118.155 -2.12325
18.7382 139.215 -6.06033
9.55783 118.708 9.94998
15.6522 124.164 12.6512
13.0469 131.187 -3.67905
13.332 132.361 -4.9682
14.4956 123.463 11.7369
-8.51385 97.6577 10.1649
9.56715 124.843 0.247736
-0.202959 105.729 13.0598
16.0949 126.681 9.90367
-13.4788 100.318 -3.25622
-15.349 96.0023 0.302868
14.4895 123.74 11.7391
14.6469 135.105 -6.46019
-14.0501 95.4342 3.73401
13.6593 130.944 -1.5233
15.1615 130.752 1.65615
12.2921 125.996 3.98438
11.5146 124 5.78775
-11.5942 103.433 -4.54835
20.4737 141.162 -5.1281
16.501 130.563 4.62085
15.0765 130.87 1.42362
13.6927 131.084 -1.51899
16.5824 134.351 -1.27543
15.6907 131.782 1.22494
14.5418 123.889 11.9033
19.2154 135.019 2.68986
14.3826 124.15 11.2363
3.45545 119.214 -1.37244
14.5104 134.643 -5.42793
21.8954 140.076 -0.261748
17.6677 131.774 5.24168
13.3921 131.431 -2.21897
0.293716 107.34 12.1974
-5.64495 100.542 12.1724
-1.03946 105.069 13.5536
15.5085 132.335 0.607765
14.042 131.388 -0.61228
16.2759 134.51 -1.42375
17.5015 131.401 6.01257
3.57657 112.417 10.5132
9.92538 120.691 9.24823
12.1618 126.445 4.14746
13.4603 133.784 -5.28543
7.70216 122.096 2.84876
20.4644 138.528 0.415143
15.6399 125.795 12.0396
15.6712 135.215 -3.11599
18.5427 140.103 -5.43435
-13.0552 102.503 -4.13464
16.5675 136.267 -2.88206
-11.4795 104.537 -4.33548
-12.0597 96.8207 7.12985
14.6257 127.044 8.61356
5.88779 121.129 1.67911
18.9905 135.895 2.48845
10.1526 121.887 8.64128
-15.4725 96.8889 0.745974
-3.53753 112.747 -2.43212
15.1253 134.832 -2.96189
14.532 135.357 -4.93747
12.6383 133.038 -4.73587
13.8263 134.611 -5.01712
-0.864425 106.244 13.3132
-6.8926 110.133 -4.26182
6.36114 116.177 11.0692
19.1006 136.582 2.03908
6.35041 121.676 2.1323
3.39157 113.12 10.4824
21.4459 140.508 0.180931
16.2993 136.542 -3.03603
13.7561 135.05 -5.27665
-5.46171 101.835 12.4014
10.3907 129.948 -3.26075
13.8937 135.251 -5.17376
14.3684 131.663 1.58215
-9.29848 108.37 -5.35194
14.6019 125.762 11.6734
-12.5929 97.2438 6.62448
-9.35667 108.374 -5.35515
15.2386 129.132 7.51634
12.2885 133.049 -4.42326
-8.13453 99.9741 10.7254
14.9266 126.06 12.016
9.03302 127.113 -0.848394
15.8802 131.403 5.23728
14.9791 136.082 -4.0303
16.7264 132.014 5.9178
19.7834 138.651 0.915557
13.9785 133.631 -1.86764
-11.1428 105.986 -4.49962
16.0389 135.907 -1.6178
18.2508 134.309 5.18086
-14.7347 100.401 -2.16065
-7.87979 110.148 -4.94352
21.3852 143.542 -3.74999
4.151 114.64 10.682
-2.65695 104.666 14.0313
13.0735 129.98 2.76089
14.5618 136.275 -4.64989
-13.0868 103.59 -3.84306
21.4999 143.723 -3.58552
12.3065 133.654 -4.59513
-2.89199 104.581 14.003
14.8864 134.445 -0.891138
13.0868 130.147 2.73151
14.5039 126.411 11.5158
-9.36251 108.974 -5.30729
-3.7403 113.767 -2.43965
14.8034 128.052 9.50163
0.245922 109.637 11.9305
14.0537 136.537 -5.65631
21.8038 142.708 -0.962943
-0.680299 108.063 12.8097
-14.0481 97.5385 4.67504
16.4958 139.178 -5.19073
-5.82954 112.493 -4.05572
12.6999 129.038 4.20992
16.249 134.486 2.07801
16.2137 134.918 1.39595
15.7936 136.412 -1.71332
14.6446 137.394 -5.46214
16.4016 135.197 1.47758
15.9364 137.206 -2.67029
-6.85372 111.772 -4.46722
-5.91626 112.653 -4.12036
11.3248 126.631 5.83502
16.1944 131.388 7.40498
15.7046 138.549 -5.18204
12.7311 135.326 -5.56108
5.07362 122.166 1.35228
0.482929 118.217 -0.917283
16.1029 131.564 7.13592
-15.6517 99.2473 -0.332683
16.146 134.999 1.78885
4.74684 122.203 1.0247
15.2693 137.376 -3.66985
-6.70502 112.312 -4.49258
13.73 127.477 9.58717
4.93926 122.357 1.30303
4.92102 116.388 11.0828
15.8888 130.756 8.49232
-9.31108 109.843 -5.24762
-4.24153 114.337 -2.93192
15.9291 132.24 6.48182
13.7451 127.482 10.1489
8.49786 121.992 9.22688
16.01 135.673 1.20462
6.00315 123.39 2.27961
-10.6321 99.8537 9.06349
17.7664 135.081 5.60931
18.7313 138.56 1.79989
14.7383 129.268 9.36706
14.1809 135.385 -1.6089
-11.2975 107.734 -4.84795
14.6041 129.16 9.43318
15.7448 135.611 1.22263
15.7345 131.266 8.2969
8.54751 127.699 0.485259
14.5204 136.653 -2.75952
-0.911548 109.175 12.8611
7.72876 121.676 8.95776
7.32752 121.332 8.839
-2.38943 107.014 13.7871
16.957 134.544 5.7002
20.5684 144.551 -3.6032
-0.819775 117.789 -0.587657
16.1259 136.115 1.74168
-7.26061 102.887 11.5156
1.65863 113.806 10.6782
-14.9979 99.4992 2.43864
14.4878 134.381 1.56941
16.1499 133.765 5.75651
8.91443 130.092 -1.98652
15.4389 131.879 7.48558
5.6025 118.887 10.0395
13.4335 132.313 3.04365
14.8207 132.642 5.14098
8.29183 127.291 1.51386
16.2697 134.059 5.76187
-15.5645 99.7259 1.33797
-13.238 99.4781 6.24473
10.3323 125.925 7.96738
8.34597 122.992 8.9829
13.6503 130.06 7.63108
14.2744 137.651 -3.53378
2.25163 114.865 10.8187
8.92539 130.594 -2.1312
7.79938 122.602 8.79402
15.5688 132.95 6.78738
18.3208 143.043 -4.37409
8.29014 128.274 0.723069
0.0723904 119.443 -0.431034
13.5551 130.415 7.33759
9.04702 131.18 -2.2935
7.50442 126.514 2.49098
0.785727 113.35 11.2147
-0.559023 111.131 12.312
11.5416 135.976 -5.13107
14.1048 130.62 8.65156
20.9392 144.839 -1.51851
-10.7213 110.187 -5.14377
9.40726 125.477 8.18744
-14.7531 102.939 -0.880298
18.2787 138.664 3.61487
18.3802 139.79 2.03055
10.913 128.013 7.16096
-11.296 101.431 8.37767
-4.8158 105.948 13.3827
-11.2328 101.577 8.41975
0.962431 114.312 10.8166
-4.71179 116.293 -3.17088
14.7862 134.578 4.06527
14.7145 138.596 -2.58816
18.1537 139.617 2.36617
10.5748 134.738 -4.03094
1.24576 121.614 -0.315046
-15.6852 101.156 0.887685
7.79271 123.811 8.62258
-5.36351 116.048 -3.62449
-3.76229 116.762 -1.73948
18.2775 140.16 2.04337
9.18244 125.771 8.23112
-12.2146 108.777 -4.59463
-10.462 111.19 -5.09916
4.06679 124.644 0.633203
4.5108 124.841 1.17014
15.2276 133.661 7.1409
13.4568 134.696 2.11631
10.832 135.709 -4.4778
-8.9482 103.587 10.4008
5.23499 120.666 9.50811
17.0168 142.792 -4.15367
8.89194 125.733 8.2977
-15.1825 101.428 2.39344
11.196 137.049 -5.57639
13.9693 133.292 5.84369
14.1122 136.09 1.60948
-13.7089 102.389 3.71996
3.9833 124.992 0.604506
2.69908 116.949 11.3143
-7.44031 105.061 11.4577
-1.93607 110.664 12.9121
15.8239 137.693 2.63096
14.8624 133.509 7.68502
3.4496 124.757 0.341016
9.56691 127.14 8.1107
11.3072 137.727 -5.82036
14.2013 134.406 5.13049
-11.0134 111.268 -4.95311
14.655 140.503 -3.8109
9.15067 133.351 -2.54735
-14.7312 104.569 -0.972805
15.8204 137.411 3.55576
20.5148 145.297 -0.367174
7.64725 129.903 0.483537
18.9593 142.232 1.9371
13.5919 133.142 6.57309
14.6952 134.353 6.78383
-13.8829 106.753 -2.47482
-7.0475 105.985 11.8618
7.22096 128.556 2.30098
14.0749 134.797 5.33892
14.2453 139.855 -2.56271
-12.8376 109.429 -4.33059
4.21102 120.418 10.114
17.2611 138.832 4.89336
17.676 144.456 -3.47817
-15.6912 102.942 1.02042
13.9538 134.652 5.67024
11.0742 131.249 5.76739
-15.1053 104.539 -0.381497
12.7826 139.671 -4.6889
6.95767 125.233 8.08114
6.16947 124.59 7.69582
8.45141 133.101 -1.81273
17.9159 140.382 4.30155
13.7324 139.627 -2.31958
-2.42379 119.58 -0.304535
12.408 135.927 1.2349
13.8169 134.691 5.99311
-14.1791 107.249 -2.3679
19.401 143.643 2.06966
5.72276 127.485 2.50523
5.40617 123.567 8.41483
-8.39759 105.837 11.1412
8.32359 133.496 -2.0109
13.8476 134.304 7.20089
14.7213 138.402 2.20045
-9.22427 105.414 10.6072
12.5794 140.515 -5.18069
14.0069 138.331 1.13111
3.55793 120.407 10.5166
12.8433 140.846 -5.14136
-5.25623 118.603 -3.13843
10.3584 130.795 6.63942
13.7202 140.322 -2.38301
15.1591 136.397 6.81087
-10.1075 114.154 -4.79592
-13.0831 104.579 5.18792
-1.33567 121.221 0.392173
-11.5282 112.469 -4.65268
-10.0485 105.152 10.0983
-4.62482 109.274 13.7177
-1.69766 113.761 11.9783
-6.02247 108.025 13.1247
-11.917 112.074 -4.58999
-5.24703 108.748 13.4926
-1.33211 121.392 0.425151
-3.39579 119.931 -1.06891
12.1933 136.02 2.40005
-13.135 105.099 4.73221
-14.5026 104.784 2.68509
-14.9844 106.538 -1.0718
13.0448 141.315 -4.52849
15.6589 143.394 -2.87636
15.3912 139.661 2.74447
6.45177 129.635 2.16024
-6.92445 107.781 12.3847
3.41934 121.029 10.4747
-14.935 104.708 2.2963
2.62205 125.992 1.05081
-0.134918 122.964 0.77877
13.4133 140.797 -2.54283
13.5967 135.597 6.38238
11.1873 140.293 -5.83042
-14.0433 109.56 -3.57677
-8.73597 106.746 11.1426
5.91012 126.318 7.42117
13.1877 140.78 -2.25114
14.5224 137.551 5.54906
5.69337 129.083 2.70462
1.01173 124.746 0.99604
-1.45153 115.497 11.4059
14.0441 141.711 -1.81232
-12.0048 106.853 5.60563
-10.2411 106.787 9.06257
-15.1795 107.367 -1.19672
12.073 137.936 0.736442
10.7666 140.364 -5.68702
15.4684 143.556 -1.94599
12.9155 141.763 -3.86361
16.9621 140.29 6.2135
14.3354 136.933 6.80021
-6.67122 108.756 12.8509
13.0585 142.125 -4.03517
16.2404 144.754 -2.24055
14.7353 138.274 5.64717
17.1582 140.781 6.17958
-14.6302 105.7 3.03092
-9.86154 107.758 8.78528
-2.09685 115.029 11.7176
4.99475 126.158 7.06598
12.1674 136.79 3.50207
15.5794 140.431 4.08734
12.0657 137.502 2.25325
-2.94673 121.999 -0.946965
-0.445926 123.865 0.788715
12.0074 136.464 3.93394
-8.58347 108.066 11.1199
13.2368 141.409 -1.64878
-12.8279 112.638 -4.16889
-9.23658 107.966 10.3024
-2.87548 122.185 -0.76987
-6.21466 119.514 -2.74827
16.0106 141.333 3.88211
18.9606 147.771 -0.862755
7.47221 135.526 -2.70903
12.1279 137.548 2.84758
4.25196 124.889 8.58064
15.507 141.112 3.53727
14.594 142.922 -1.11869
14.0878 142.527 -1.36935
-11.5617 108.139 6.04831
15.9629 140.77 5.15923
-4.82598 111.156 14.0217
3.03169 122.779 10.3597
-0.339921 118.395 11.1679
-3.97398 112.842 13.3901
7.71552 136.683 -3.16748
17.5897 147.749 -2.44057
11.1836 141.909 -4.87128
-10.346 116.398 -4.07794
0.418045 125.766 1.20364
-14.0459 111.788 -3.37524
6.40526 133.854 -0.479158
3.21975 128.829 1.84374
8.62085 139.07 -4.51973
7.62225 137.197 -3.32171
1.49567 121.655 10.4689
-1.69658 117.547 11.3741
13.4625 140.872 2.22525
-4.97907 122.069 -1.97775
12.9314 143.883 -3.46638
8.21186 138.883 -4.26864
12.4725 143.716 -4.03009
-6.74948 111.212 12.4903
14.376 144.213 -0.961794
-11.3117 109.416 7.03131
8.58597 132.543 7.15288
11.6345 139.207 2.14712
17.7334 145.818 2.97173
10.0638 142.114 -5.53269
10.5436 142.562 -5.26885
16.2581 143.201 4.58828
-9.76049 110.822 8.06348
-8.191 110.623 11.4629
15.3325 142.397 4.43043
-8.16027 110.74 11.4556
16.4141 144.168 3.66126
6.618 136.347 -2.10519
-9.52462 110.981 8.60614
15.9709 146.844 -1.38018
10.6961 138.046 3.10946
4.65616 131.626 2.1804
-15.1492 107.654 3.68523
9.59706 135.116 5.98053
-14.5052 112.542 -2.92766
11.587 139.38 2.9202
-9.28999 111.222 9.17709
-15.876 108.745 0.7724
3.76925 127.933 6.89438
-8.37981 119.997 -3.19853
9.59292 142.522 -5.6762
-4.24125 114.615 13.592
-5.82418 122.363 -2.02553
10.3429 138.175 2.93507
6.9044 138.082 -3.38262
17.8351 148.646 0.219118
13.4467 141.938 2.87187
-5.85344 122.482 -2.04636
-10.9642 117.8 -4.02235
-1.07281 120.237 10.9246
-13.4789 114.653 -3.51404
-8.47628 111.615 10.9575
11.8303 144.647 -4.31304
-3.5487 116.243 12.786
-2.74459 117.953 11.7331
-15.9415 109.349 0.752021
12.2515 142.171 0.787196
2.10006 129.734 1.82381
11.1321 144.464 -4.97239
-8.84578 111.854 10.287
-13.8372 114.487 -3.46162
11.2657 140.145 2.43398
-13.7645 108.958 5.78383
-1.30544 120.314 10.9446
6.41372 137.439 -2.21857
-11.9226 116.821 -3.39685
16.221 145.067 4.06497
-8.71982 112.019 10.61
-1.89465 119.549 11.304
2.29044 125.05 10.2876
14.007 142.548 4.03217
-10.9058 111.301 7.76545
3.23632 131.276 2.17883
-13.7634 109.209 5.89461
17.5747 148.683 1.07239
8.60994 135.425 5.9075
4.97969 133.797 1.70943
-14.7519 108.844 4.94997
-8.76564 120.778 -3.02929
8.65059 136.005 5.25433
-7.44186 113.115 12.019
3.16389 128.53 7.06095
-1.0865 121.306 10.8207
8.93058 142.872 -5.14885
-12.8589 110.095 6.89304
11.2963 145.38 -4.73811
9.96522 140.206 1.23048
5.71136 131.799 6.92806
-11.0383 111.843 7.75378
8.85059 137.536 3.69522
15.1845 147.4 -0.337469
-4.64897 124.916 -1.32478
-15.5935 112.333 -1.40978
9.82132 144.236 -5.12344
16.5577 146.74 3.66347
-14.8573 109.318 5.07369
16.1989 149.375 -1.201
5.99234 137.517 -1.18814
11.7087 142.901 0.896833
-12.8454 110.532 7.09759
16.9066 149.491 0.137144
8.48709 142.64 -4.67657
5.78466 132.556 6.74358
-3.49287 118.053 12.7834
-9.91442 120.768 -3.81159
10.5457 141.937 0.692121
8.58538 138.124 3.30326
2.64596 131.978 2.04898
-15.5839 113.019 -1.63119
14.0135 143.773 4.43949
6.28248 139.146 -2.6795
-14.1933 109.995 5.95467
-0.670722 122.815 10.8138
5.9733 138.058 -1.36686
1.14449 130.835 1.32965
1.49576 126.125 9.66522
-2.9092 119.612 11.9932
16.5498 149.678 0.000463238
7.00283 134.825 6.22192
-16.0092 110.299 2.52692
8.31016 142.988 -4.56206
13.2162 146.739 -1.35425
16.6512 148.276 2.72462
6.07563 138.979 -2.16904
4.3488 131.738 6.4052
15.0121 148.373 -0.435795
8.77183 144.09 -5.19794
12.9565 146.696 -1.49443
-5.25907 116.324 13.4861
9.88985 141.339 1.51874
-16.2332 111.03 1.41375
-14.0041 116.358 -2.85265
15.5611 149.88 -1.30132
12.3009 146.372 -1.70915
4.87646 136.061 1.0183
6.23718 140.069 -2.91281
-1.73189 122.186 11.1502
7.30788 141.721 -3.50068
-8.7549 114.651 10.1316
4.91856 136.316 0.869762
14.1595 148.295 -1.0911
7.67475 137.153 4.79614
9.92404 141.225 2.45455
14.0612 144.716 4.67461
6.57769 135.227 6.05156
8.05682 143.346 -4.34905
-10.7456 121.209 -3.96417
-3.2691 119.824 12.4754
-11.7885 112.87 7.6789
7.95 138.792 2.91902
15.8414 150.301 -0.682708
-9.47835 114.485 9.70583
15.2912 149.96 -1.0131
5.33259 137.947 -0.33672
7.86177 139.089 2.63603
8.58145 144.705 -5.08581
2.90187 131.179 6.19156
-14.8347 116.051 -2.76694
-6.82118 125.57 -3.0115
13.0176 148.384 -2.48763
5.74295 139.641 -2.04794
-0.951062 129.995 1.12008
-9.85549 114.41 9.61235
8.34403 144.476 -4.77652
10.4765 143.547 0.989978
-0.618557 124.402 11.1348
-14.1034 111.443 6.75743
-6.83715 116.349 12.5525
-2.99308 120.951 12.3953
1.04365 128.449 7.96579
7.92787 140.563 1.30292
-6.57148 116.606 13.0086
-4.18127 119.299 13.1955
-5.14646 118.174 13.2366
7.27917 142.966 -3.45693
15.5005 148.974 2.38054
12.5669 145.164 3.0353
9.30928 142.575 1.18134
6.89812 142.512 -3.27889
-5.32537 118.201 13.192
-4.54273 119.228 13.0428
7.46221 140.264 1.77126
-6.01887 126.758 -1.78145
-2.67287 129.288 0.518691
12.5931 148.983 -2.5926
3.83663 133.7 5.69171
7.8765 144.522 -4.20775
-8.86449 124.848 -3.88696
-9.08652 115.486 10.994
-14.1624 118.004 -2.634
8.08007 145.111 -4.51655
-6.76163 126.609 -2.53579
-7.59901 126.046 -3.16545
-0.950419 125.549 10.2974
13.7205 146.261 4.40822
6.96691 139.458 2.7112
-15.1917 113.516 2.9941
13.955 146.902 3.98817
4.94519 138.88 -0.00388337
2.11122 132.095 5.72998
-4.04645 128.771 -0.527023
-1.14663 125.709 9.96234
-4.58627 119.932 12.9421
0.233747 128.27 8.59251
-2.33867 123.51 11.4825
7.81659 142.206 0.357758
9.93204 143.212 2.736
0.929375 130.801 5.91831
-2.92025 122.559 12.0584
-15.5097 112.929 3.91864
4.25503 137.959 0.810717
1.76382 132.035 5.75255
10.1183 143.931 2.28398
-11.1052 122.751 -3.25541
-9.98356 115.587 10.5594
12.7732 149.489 -1.36475
-1.4283 126.84 8.58861
11.8305 146.543 1.65833
11.4856 146.436 1.49812
1.26077 131.901 5.79
5.19404 136.913 5.17065
11.4696 146.539 1.51063
3.70524 137.817 1.09992
-14.0528 117.825 0.0799876
4.92971 140.805 -1.18124
14.2343 149.355 2.59919
-9.17713 126.399 -4.41897
2.38463 134.179 4.90695
-10.7633 115.906 9.72342
5.93275 143.022 -2.71554
1.50353 135.045 1.87802
5.68778 138.696 3.89515
2.62701 134.585 4.87835
2.81238 134.863 4.87505
5.22172 141.998 -2.12898
10.001 145.532 1.22738
-13.5374 120.487 -2.63089
13.315 148.243 3.34881
-2.57451 126.285 8.97427
1.08299 132.554 5.73155
-13.6884 118.433 0.730866
-8.02857 117.797 12.5118
-0.223882 130.044 7.40061
-12.6172 114.812 8.75219
14.3341 150.623 1.56164
-8.61474 117.465 12.0849
-0.182612 134.084 1.09575
5.12553 138.239 4.50944
-3.31567 123.854 12.0098
-5.25889 130.021 -1.58248
-5.7891 129.739 -2.09925
-5.365 121.175 12.7219
14.066 150.602 1.66356
-1.71552 132.945 0.504345
-8.89918 127.771 -4.69352
1.751 134.345 4.82285
-7.10073 128.836 -2.94823
0.964741 133.079 5.57507
8.40466 148.047 -4.52452
-5.5446 130.183 -1.83841
-1.10093 129.651 7.51019
2.08326 135.199 4.54001
-0.948498 129.898 7.61685
-3.50487 131.733 -0.184697
6.61745 143.383 0.132462
-13.7972 117.218 4.22699
10.7251 147.664 1.20676
3.65334 137.419 4.51643
-3.74494 124.641 11.3586
8.24202 148.34 -4.28149
-14.0623 121.491 -2.53097
1.28052 134.999 4.59024
5.5855 142.282 0.952197
5.25711 141.151 2.18964
-14.694 119.247 0.102729
-14.0338 118.015 3.42811
4.16905 141.46 -0.10619
1.17044 136.965 1.59891
-10.89 126.172 -3.55674
-7.62988 120.386 12.0908
-14.567 120.196 -0.688559
-13.5332 115.984 8.22302
10.7434 150.819 -2.42457
-14.1078 118.671 2.81295
4.38502 139.753 3.63958
4.50021 140.288 3.1696
1.98214 136.828 4.09588
2.22655 137.113 4.10946
-8.87835 129.939 -5.21169
-13.8436 121.097 -0.203503
-14.9166 119.287 0.803416
11.6032 149.014 2.78445
-1.70272 131.712 5.73475
-3.14562 128.579 8.11577
-14.413 120.624 -0.203179
-14.0078 116.284 7.68986
10.4987 148.67 1.44131
-6.73747 123.701 9.41589
-6.30813 125.055 8.04046
-14.7624 116.358 6.30898
-2.511 134.405 0.340599
-3.11251 134.065 -0.135746
-2.21714 131.447 5.92323
1.4399 138.559 1.28011
9.30415 150.942 -3.93331
10.0047 148.753 1.00177
9.98447 151.106 -2.82804
10.1349 151.148 -2.52486
-12.8455 124.288 -2.35521
-4.5485 127.452 8.25852
8.63899 150.66 -4.49565
0.415027 135.663 4.36634
-2.12434 131.975 5.59141
-3.31097 129.247 7.79798
-0.52941 136.676 1.0258
10.9344 149.305 2.29702
-7.31509 122.953 10.6995
-1.38445 133.42 4.97233
10.9577 151.427 -0.904716
-2.53743 131.446 6.05364
-3.58314 129.334 7.54218
5.52843 146.122 -2.48107
-9.1341 130.62 -4.92216
-2.24411 135.378 0.536981
6.58978 147.82 -2.93416
-14.7086 119.924 2.13154
-10.4201 119.679 10.6711
-3.00863 134.936 -0.0966765
4.3808 144.422 -1.46453
4.36 142.798 1.21654
2.13366 138.724 3.63994
3.23568 140.059 3.57916
4.14214 143.93 -0.962336
-11.9583 127.037 -3.96604
3.99353 143.631 -0.639504
-12.5538 125.915 -3.15805
-13.9869 123.143 -1.3166
-10.6 119.972 10.392
-13.5097 124.082 -1.80703
-12.8658 121.816 3.26489
-13.4701 124.269 -1.80101
-14.3809 119.703 4.00964
-13.0975 125.17 -2.43515
-13.5507 124.228 -1.72604
-14.7523 121.106 1.14084
-6.08009 126.869 8.23071
-15.3744 120.209 1.45131
-12.7782 122.738 2.26692
-12.8209 122.733 2.2306
-13.0896 120.539 5.29394
-12.9072 121.627 3.88075
-13.8999 120.834 3.34076
-13.0055 125.089 -1.86514
11.0846 152.343 -0.494154
9.31534 149.359 1.0499
-3.47072 130.946 6.81543
7.70176 150.473 -3.77229
-12.7376 121.38 4.86504
-10.8035 129.173 -4.15048
10.5557 152.003 -0.740031
-13.22 122.246 2.69733
-3.6229 130.814 6.97066
9.40577 151.737 -2.3555
-12.8646 119.948 7.25372
0.407604 139.266 1.04602
-15.0124 117.869 6.6587
-6.14672 134.865 -4.19483
-10.7005 129.151 -3.52471
-14.3315 120.349 4.08591
-14.1865 120.951 3.39197
-14.8944 119.413 4.56647
-7.67672 125.786 7.89581
9.57981 151.932 -1.90145
-15.21 119.347 4.1557
-7.35463 134.026 -4.83631
-2.84695 136.741 -0.680491
-15.8865 118.483 4.32696
-3.52698 136.237 -1.13156
-13.1596 122.336 3.23796
-6.52682 134.822 -4.49489
-14.0523 120.085 5.26154
-15.9649 118.143 4.8228
-4.56672 129.889 7.52464
-14.7209 121.803 1.44491
-14.8055 119.528 4.99156
-13.8601 124.3 -0.932177
-12.853 119.188 9.34051
9.24636 149.939 1.19718
-13.6815 122.481 2.48908
-13.8011 122.461 2.32878
-14.4278 123.425 -0.403806
7.52621 151.109 -3.75973
-7.7142 134.263 -5.20248
5.08395 147.446 -2.23925
3.50255 144.722 -0.717821
-9.05178 123.815 9.55373
-13.139 121.656 5.39353
-12.0107 127.592 -2.11165
-13.5754 121.71 4.55368
2.55876 141.549 2.90742
-13.6926 120.653 6.133
3.17686 143.53 0.975893
-9.85032 131.13 -3.50942
-14.4935 120.538 4.93412
-9.17137 124.502 8.60696
-14.1746 123.057 1.55345
-6.47212 135.935 -4.80404
-15.7891 120.242 3.07838
-14.2198 121.288 4.4267
-3.5303 133.194 5.33069
-13.7684 124.857 -0.512432
-4.00594 131.637 6.98249
-14.565 119.795 6.33558
-14.0725 120.47 6.24834
-14.2933 118.959 8.32548
-13.332 124.216 1.5901
-14.2271 120.7 5.74468
-14.7707 123.277 0.532165
-13.7747 122.239 4.15987
-5.42973 136.557 -3.31809
-13.4371 120.09 8.34015
-12.587 119.343 11.1945
-1.56224 138.863 0.33287
0.687166 141.36 0.560042
-12.3825 119.733 10.9947
-13.7981 121.895 4.86269
-8.26984 126.503 7.8504
-12.3615 119.956 10.7896
-13.2283 125.877 -0.496228
-14.5968 119.232 7.77474
-12.2559 119.635 11.5747
11.0472 153.684 0.386686
1.97179 143.175 0.28642
-14.1726 122.956 2.70588
-12.6122 120.204 10.2291
-12.2498 120.497 10.5636
-17.266 116.981 6.85831
-8.07011 127.216 7.74685
0.666964 141.853 0.491775
-5.21112 137.154 -2.99432
-6.34843 136.893 -4.65924
-10.5847 130.499 -2.26262
-13.1261 125.096 1.84298
-0.223857 140.933 0.547304
-9.92178 131.586 -2.47801
-14.7088 122.153 3.91069
-13.9702 124.992 0.737913
-15.185 120.046 6.50564
-12.463 121.403 9.47619
-17.281 117.277 7.17804
-13.1473 125.284 1.99288
-12.889 120.119 10.9688
-17.5192 117.381 6.7675
-13.9159 123.144 4.30559
-14.7471 123.841 1.63977
-13.1455 119.844 11.2637
-14.1837 121.218 7.23316
0.221985 142.203 0.38856
7.46783 152.739 -3.00849
0.708279 141.252 2.881
-13.6847 120.554 9.34789
-14.2929 120.229 8.75239
-13.4055 119.838 11.1247
-14.8937 122.559 3.8738
-14.4119 124.369 1.84552
-13.3727 119.568 11.6563
-14.8318 122.617 3.92457
-13.1745 120.543 10.5016
-11.6883 121.656 11.5308
-8.04584 127.378 9.14293
-14.9401 123.696 2.06432
10.3451 154.099 0.541277
-13.6143 119.736 11.0592
-9.28973 133.995 -3.91839
-14.3141 124.637 1.89227
-13.9959 125.059 1.99147
-2.75721 139.822 -0.724576
-14.9951 120.561 7.4342
-3.84895 139.114 -1.61648
-13.5756 120.319 10.54
-13.4762 120.894 9.81048
-13.0392 121.256 10.1499
-14.2877 121.598 7.24667
0.276655 142.867 0.277667
-4.29976 133.744 6.48274
5.49436 150.816 -2.70604
-10.7761 124.732 9.08294
-10.6235 124.975 8.98037
-2.99291 139.952 -0.923248
-14.4602 121.565 7.2911
-5.19112 132.299 7.41687
-14.4612 123.323 4.47349
-10.151 125.009 9.94695
-13.0554 121.045 10.939
-10.3809 124.735 10.1719
-13.1381 126.575 2.0436
-14.9471 120.952 7.77402
-4.16881 135.101 5.28103
-7.29789 129.12 9.11239
-8.17284 128.049 9.23206
-13.8721 125.647 2.54768
-16.3708 120.806 5.77297
-0.825547 142.35 0.196909
-14.892 118.901 11.7208
-0.1701 143.158 0.173849
-14.3259 119.473 11.9482
6.37898 152.932 -3.22036
-16.6855 116.541 12.3235
-13.8874 121.359 9.84929
-14.7029 120.977 8.93457
-15.4014 120.287 8.74972
-15.3274 119.586 10.0899
-5.93626 139.288 -4.08095
-13.9948 126.601 1.43469
-10.8799 124.761 10.4111
-14.0575 126.814 1.06436
-16.8426 116.757 12.2645
-10.3967 132.659 -1.35166
-11.2065 131.306 -0.521989
-4.68217 134.347 6.92155
-14.0952 126.162 2.47537
-11.4644 124.76 9.75084
-2.03782 141.976 -0.371313
-18.0127 118.846 6.9992
-13.2345 123.278 8.89962
-14.2343 121.901 9.29857
-13.0834 127.654 2.11565
-8.43049 128.836 9.12322
-2.22171 142.049 -0.480467
-16.9139 118.013 10.8071
-12.4342 124.175 9.2783
-1.29512 140.622 3.67346
-5.83962 139.99 -3.86505
-10.6223 125.104 11.3635
-13.0837 123.545 9.2562
-18.3484 117.995 8.42289
-17.4206 118.17 9.89861
-12.5231 123.699 10.2052
-18.2058 118.11 8.57602
0.276727 143.552 2.20667
-9.01737 128.505 9.11937
-14.0308 121.62 10.9097
-2.59158 142.15 -0.698756
-3.29282 141.777 -1.42097
-12.5296 124.216 9.67014
-8.38548 137.45 -3.91914
-2.98614 142.014 -1.04192
8.55297 154.582 0.417238
1.8628 147.701 -0.933494
-18.5956 117.758 9.05218
-3.34351 142.057 -1.50334
-7.11903 131.203 9.2292
-17.2283 122.513 4.22901
-18.2487 117.813 9.9599
-14.7566 126.691 2.22881
-13.3193 121.992 12.6955
-17.3622 123.031 3.36844
-6.53093 132.469 8.55455
-0.824142 144.476 -0.172284
6.86253 154.153 -1.30909
-12.1884 130.838 0.52868
-15.0572 127.352 0.799525
3.58562 151.05 -2.37165
-12.7758 124.053 10.6112
-10.1629 135.639 -3.22786
-17.5128 122.661 4.04728
-12.8578 123.966 10.773
-15.3899 119.84 12.7994
-13.8906 128.077 2.32395
-6.1331 140.864 -3.77741
-15.347 127.106 1.22457
-15.2346 120.055 13.0139
-9.70463 128.477 9.9058
3.86732 152.011 -2.66619
-15.8589 126.648 1.50999
-17.6575 118.071 12.1698
-1.02803 143.503 2.36495
-5.83991 134.468 8.02346
-17.1023 125.398 1.54622
-13.5472 128.975 2.5058
-13.0486 123.93 11.7486
-0.312348 146.196 -0.31416
-16.5728 124.913 3.53999
-10.8973 126.374 12.0759
-17.5274 123.106 4.88314
-17.8167 118.092 12.5249
-13.3001 129.434 2.68519
-18.6391 118.166 10.9095
-12.8943 124.79 11.1156
-12.3262 125.39 11.5624
-18.4794 118.189 11.7972
-13.3596 130.48 1.57976
-13.1096 125.109 11.0173
-6.10503 136.053 6.53299
-6.26203 135.858 6.86718
-17.0108 125.17 3.9511
-13.231 131.348 1.20052
-18.2222 118.196 13.1554
-18.5145 118.468 12.2754
2.76788 152.458 -2.59296
-19.0845 121.828 5.87865
-19.1429 121.324 6.8356
-13.8907 130.934 1.25914
1.15776 150.402 -1.76439
-13.1 132.106 1.19213
-6.38936 135.773 7.9888
-6.41802 135.899 7.82157
-17.5974 124.227 5.62527
-5.72672 137.926 5.87585
-10.3549 130.39 9.44447
-8.19498 141.137 -3.90959
-5.6457 138.233 5.69441
-19.4725 121.946 6.11211
-0.44343 148.413 -0.822807
5.46313 155.483 -1.10439
-14.2371 131.294 0.958793
-12.8647 132.908 1.00243
-13.5501 131.1 2.65083
-14.3235 130.692 1.95861
-3.13449 145.841 -1.36868
-7.14296 142.874 -4.11941
-9.29038 139.881 -3.21418
-13.6025 131.397 2.55999
-19.3327 119.658 10.823
-17.2764 128.258 0.840112
-13.6227 126.696 10.3322
-18.6679 124.211 4.89625
0.427087 150.536 -1.66173
-18.6963 124.132 5.14126
-18.0541 119.998 13.1366
-16.9107 128.728 1.13466
-16.0751 122.358 13.1513
-6.41722 144.22 -4.02149
-5.74401 144.774 -3.55503
-17.9959 120.301 13.1568
-13.102 133.915 0.292605
-14.651 124.782 12.347
-3.75057 146.268 -1.93966
-19.5463 120.35 10.6531
-1.63506 148.219 -0.744862
-6.8866 137.06 7.60933
-18.9 126.496 2.05113
-18.1109 120.765 12.8922
-18.4387 120.728 12.4256
-13.9742 132.722 1.46485
-5.35271 145.735 -3.30547
-12.378 128.707 11.2013
-18.2986 120.984 12.5741
-7.62252 143.54 -3.90304
-15.6687 123.819 13.0389
-11.3083 138.22 -2.10385
-12.6175 136.481 -1.61572
-19.8071 121.559 9.07817
-3.23751 145.112 2.3803
-19.883 121.552 9.28073
-13.8695 128.161 10.0399
-11.0172 138.986 -1.87368
-20.129 123.894 5.44304
-17.9621 127.453 3.81556
-14.1352 133.23 1.7851
-1.72559 149.381 -0.920793
2.33496 154.534 -1.56703
-20.0047 124.12 5.75887
-11.9715 130.999 9.80192
-0.269007 151.737 -1.76781
-9.69613 133.106 10.7922
1.30607 153.828 -1.96434
-20.1773 123.987 5.99796
-20.1445 124.063 6.14801
-16.3374 124.352 12.9496
-7.35143 137.991 7.83982
-12.1674 136.872 0.552714
-8.41981 135.82 9.5591
-0.560836 151.958 -1.72706
-19.9104 124.458 6.6508
-5.9669 142.15 4.29003
-14.5427 133.548 2.07514
-6.80238 146.104 -3.65804
-10.259 141.437 -2.59394
0.450372 153.65 -2.16119
-1.81366 150.344 -1.04852
-7.326 139.113 6.92573
-6.28274 146.808 -3.54768
-18.3827 127.487 5.38062
-1.92572 150.669 -1.13266
-15.2758 128.082 10.387
-12.3579 132.038 9.59966
-12.1827 138.937 -1.2106
-4.3775 145.911 2.35126
-4.25988 146.131 2.27074
-10.1566 133.995 10.9816
-7.77512 145.861 -3.66053
-13.9386 135.388 1.7065
-11.0787 141.115 -2.11689
-4.68274 145.74 2.53781
-14.7816 129.744 9.9721
-19.0157 125.438 8.99713
-3.57977 150.002 -1.71606
-4.28535 146.829 2.1505
-4.9092 149.066 -2.65375
-15.8051 133.395 2.31109
-18.8017 125.457 9.59681
-5.9592 144.264 3.53334
-8.56466 145.713 -3.65281
-9.97083 135.262 10.7581
-11.219 141.631 -1.96507
-18.526 126.844 8.42921
-11.2841 141.606 -1.86417
-11.9049 139.041 1.13746
-4.91998 146.3 2.5818
-19.0286 125.088 10.3931
-18.6661 126.058 9.5569
-13.7018 131.849 10.2477
-6.64784 148.457 -3.18932
-18.275 130.325 4.2992
-7.14157 142.505 5.68503
-11.5877 141.705 -1.04963
-15.52 135.336 1.95396
-3.62389 151.534 -1.77254
-12.126 139.519 1.7196
-11.9216 140.454 0.608091
-15.6258 130.156 10.3595
-17.947 126.359 12.1868
-6.46644 145.06 3.60134
-18.222 131.864 2.7957
-11.9022 140.502 0.818062
-11.2133 142.587 -1.19815
-1.69204 154.183 -1.91484
-7.33738 142.916 5.79642
-12.0071 140.035 1.99923
-12.8213 138.904 2.47565
-18.9116 127.101 10.1704
-13.4513 133.376 10.4844
-9.78089 137.874 10.3038
-18.9985 126.966 10.5952
-8.14405 141.326 7.87745
-18.9468 128.123 8.96895
-11.9654 140.968 1.52229
-7.25831 144.276 5.09521
-9.6863 146.307 -2.80586
-16.8528 134.043 3.62268
-13.8508 138.406 2.73206
-18.9823 128.716 8.80398
-8.43947 148.247 -2.90676
-17.5364 128.683 11.8589
-6.52935 146.896 3.33349
-18.9036 129.049 8.92358
-10.6747 137.524 10.7563
-15.7735 135.55 4.39793
-18.1068 131.181 7.2019
-11.6055 141.938 2.1642
-18.661 129.811 8.73782
-14.8865 132.643 11.3292
-14.0425 138.742 3.07957
-15.8848 131.949 11.15
-9.98683 147.042 -2.20391
-8.11635 143.889 6.76807
-18.3661 130.834 8.59496
-18.4205 132.758 5.53034
-16.2144 131.977 11.2018
-18.9503 129.415 10.2462
-16.771 134.988 5.41908
-6.87869 151.189 -2.18478
-8.83768 141.948 9.17779
-13.8981 134.477 11.8834
-7.26364 150.885 -2.10793
-11.8813 137.346 11.2097
-7.80987 150.294 -2.03592
-8.31606 149.735 -2.04995
-18.4024 132.844 6.57951
-17.1616 131.525 11.1607
-4.55894 154.051 -1.60194
-11.2419 138.794 10.7506
-10.1481 147.838 -1.7729
-15.3144 138.405 3.81328
-16.6969 135.51 6.16857
-11.6735 143.258 3.08182
-6.47414 152.144 -1.50434
-17.9735 131.968 9.68187
-17.7952 132.864 8.63145
-16.7459 135.193 6.88767
-16.1018 137.039 5.15577
-8.67848 144.432 7.20487
-17.7947 132.481 9.45093
-12.1549 142.906 3.20855
-9.16034 142.956 9.01412
-7.8577 147.314 4.58246
-15.9779 133.572 11.8171
-9.2192 143.448 8.78099
-17.6172 132.742 10.3471
-16.6231 135.824 7.21396
-10.5182 148.16 -1.18835
-16.5448 136.352 6.67163
-14.8175 139.952 4.11868
-16.7824 135.603 7.58236
-16.415 137.189 5.85066
-10.3508 141.902 9.78676
-11.6333 144.613 2.95289
-17.5677 132.701 11.1125
-16.0545 137.985 5.38378
-14.4144 136.12 11.6057
-17.0926 135.183 8.068
-9.85961 149.364 -1.18848
-10.827 141.36 10.0384
-8.3363 151.134 -0.876662
-9.27469 144.688 7.89783
-17.3271 135.066 8.49359
-14.4166 136.737 11.393
-12.2185 143.718 4.34725
-16.3045 137.77 6.31888
-12.3374 139.804 10.666
-13.9534 137.719 11.1546
-10.6544 148.706 -0.367636
-11.5724 146.669 1.28826
-14.9479 136.799 11.1071
-8.08486 152.001 -0.251455
-16.4058 135.369 11.0875
-16.1603 137.972 7.37857
-11.8934 144.55 4.76276
-13.1505 139.497 10.6237
-11.2327 147.685 1.00372
-9.42332 146.447 6.51545
-16.1478 138.461 6.91254
-11.6824 146.777 1.87123
-15.5235 140.157 5.64506
-16.1068 138.603 7.1829
-11.1863 142.986 9.42908
-8.739 149.067 4.22982
-14.111 138.844 10.7407
-15.7135 139.951 5.93109
-15.9073 136.915 10.5845
-8.31767 150.978 2.10863
-15.6745 137.192 10.6391
-15.1397 138.039 10.6243
-16.6991 137.197 9.27399
-10.2289 150.066 0.624417
-9.4888 151.204 0.240454
-15.471 138.17 10.1608
-12.5064 144.451 5.64889
-7.72769 153.36 0.236636
-12.0032 145.357 5.22685
-16.5858 137.752 8.96494
-9.54636 149.499 3.32095
-13.3626 143.686 5.60589
-16.1149 139.068 8.16865
-14.9666 141.691 6.08618
-10.0389 150.583 1.41362
-10.1252 150.513 1.41634
-15.3417 140.212 8.35186
-11.344 147.605 3.91617
-11.5808 147.278 4.07219
-10.502 148.351 4.55345
-11.3156 145.812 7.28285
-12.2547 143.899 8.63038
-13.8983 143.599 6.11495
-10.8445 147.869 4.96967
-14.463 142.652 6.68686
-14.8282 141.468 8.24697
-11.8512 145.95 7.22324
-13.103 144.084 8.18056
