ply
format ascii 1.0
comment Created by Open3D
element vertex 1916
property double x
property double y
property double z
end_header
7.81233 96.5241 -3.69482
-19.4125 110.262 -10.7175
23.6719 98.0959 -21.8463
-2.56993 98.4871 1.32128
-6.46838 107.812 -16.5539
-11.4581 109.018 -14.7853
-14.5564 103.46 0.98763
32.3266 91.319 -13.5794
-17.1378 106.689 -4.03942
-10.8321 101.088 3.28276
6.95336 103.864 -19.3467
8.63592 103.489 -19.8741
22.8523 92.1243 -6.28213
11.7669 95.4543 -3.81043
-17.0385 107.421 -5.26529
-3.71507 99.3184 1.40662
25.0117 91.81 -7.41512
8.34917 96.8083 -3.74148
-1.56176 107.278 -19.0188
-12.4012 101.991 3.28333
23.4373 98.7128 -21.838
22.434 99.0537 -21.6975
30.8445 94.296 -18.2852
-13.8685 103.08 2.34938
26.5855 91.606 -7.93926
9.14373 103.745 -20.118
4.93151 98.1338 -3.15397
15.5879 101.788 -21.2778
-16.7092 105.91 -1.28804
-11.6147 109.696 -14.7553
16.3699 101.397 -21.0701
-4.73141 99.9667 1.63084
-6.20482 108.239 -16.2306
27.3105 91.6709 -8.28515
26.8888 96.6832 -19.1815
3.26858 98.6824 -2.19728
-17.8178 111.527 -12.7646
-8.94006 101.172 3.28714
-17.6805 111.595 -12.8714
12.1606 103.624 -21.5253
-11.8791 102.365 3.49999
17.5934 93.591 -3.0131
-13.1952 110.937 -14.7185
-11.9203 110.581 -14.8703
25.8632 97.795 -19.7154
19.2598 100.949 -20.9982
15.674 102.562 -21.4379
-9.43067 109.801 -15.112
-18.6962 109.369 -5.61817
31.5106 92.3256 -11.832
-4.61897 108.601 -16.498
22.2233 100.161 -21.3935
15.6737 102.816 -21.5012
30.8639 92.3611 -11.0097
29.3913 92.2353 -9.35357
3.78521 99.3192 -2.36481
17.9468 94.0342 -3.00486
-16.9065 112.25 -13.3808
32.5868 93.9001 -15.9535
32.5057 93.2729 -14.4015
2.12722 99.4163 -0.752786
32.5218 93.4425 -14.6829
20.3825 93.8485 -4.31919
-16.5751 108.449 -4.42745
-13.5662 103.952 3.38934
-7.26566 101.893 2.58886
24.8842 93.2299 -6.65097
-19.9077 111.63 -8.36307
31.0725 92.9308 -11.4837
22.3981 93.7075 -5.31963
-5.18164 101.544 1.7856
-1.23536 108.849 -18.7231
-13.8898 104.502 3.03394
16.9434 102.809 -21.2219
-15.6463 106.058 1.1662
8.61642 98.6639 -3.75505
-5.84122 109.627 -16.0139
2.38714 107.995 -19.5678
31.6356 93.3741 -12.2881
30.9014 95.916 -17.4812
-9.72957 110.968 -15.2385
25.5307 93.5598 -6.79316
-13.7822 112.463 -14.6882
12.6786 105.109 -21.7843
30.4973 93.4018 -10.8338
2.64197 100.08 -0.828132
26.202 98.7913 -19.3751
-9.21355 102.899 3.5691
2.47086 100.163 -0.583082
32.0642 94.8287 -15.2608
19.083 94.8847 -3.48573
29.3662 93.3645 -9.23959
12.8613 97.5203 -3.75498
-9.30125 111.276 -15.3481
14.5333 104.613 -21.6311
25.1785 99.8364 -20.2576
-5.75713 110.173 -15.8197
17.9216 103.073 -20.9404
32.1965 94.7312 -14.4219
-3.00121 109.51 -16.5209
30.95 96.1418 -16.5052
-13.0168 112.734 -14.8281
-10.0672 111.802 -15.3251
18.0925 103.123 -20.8828
6.41155 107.232 -19.6987
-15.9354 108.462 -2.02804
24.2306 100.902 -21.2125
-13.5707 112.995 -14.728
-6.35415 110.716 -15.7519
25.0791 94.3535 -6.42397
6.90411 100.242 -3.4041
23.8557 101.318 -21.2305
8.76981 99.7716 -3.74046
-3.70507 109.89 -15.7883
30.8056 96.9031 -17.0586
-6.73716 103.215 2.67217
21.1854 95.3282 -4.52255
23.4086 94.9488 -5.56266
31.4895 95.6739 -14.6444
-11.3277 112.756 -15.0105
11.8411 98.9439 -4.0435
-15.1702 106.916 2.14346
20.1551 102.886 -20.8225
1.38711 109.335 -18.6268
-15.6999 107.614 1.06853
5.11878 101.162 -2.8532
28.0994 94.4559 -8.18271
-7.73973 103.67 3.26507
-3.25686 102.579 1.74296
-12.707 105.371 3.93803
24.8049 101.212 -20.6951
16.7185 96.4092 -2.10257
26.5769 99.8891 -19.0516
-0.564116 110.248 -18.2917
12.6389 106.557 -21.6767
13.8016 106.093 -21.6283
28.2122 94.8122 -8.37007
30.7438 97.5032 -16.8469
-19.3998 113.882 -9.00373
0.827311 110.055 -18.4946
32.073 95.5375 -13.3225
-14.1858 114.146 -14.189
2.13895 109.671 -18.6787
15.5068 105.678 -21.6125
16.3291 105.338 -21.5464
-0.73906 102.169 1.48661
13.249 106.675 -21.657
25.2602 101.457 -20.2848
2.76056 101.573 0.102236
7.08512 108.804 -20.6155
-3.09943 110.665 -15.6202
28.2588 99.3352 -17.9123
1.09296 110.272 -18.4803
13.8287 106.61 -21.6137
-17.98 111.422 -3.52092
-17.0819 115.026 -12.6249
1.57042 101.963 0.700144
0.335934 102.233 1.21648
-19.1725 112.283 -4.29289
31.2602 96.8796 -14.2638
13.5501 99.3583 -3.77645
12.3123 99.9354 -3.97425
31.6087 96.4254 -13.4067
4.14476 101.982 -1.14965
5.79887 109.543 -20.1635
30.1895 95.7842 -10.3938
4.30472 102.104 -1.24757
-17.8166 115.396 -11.8962
26.0196 101.449 -19.5796
30.8887 97.8125 -15.5777
19.364 96.9225 -2.95104
15.5136 106.466 -21.6226
-5.15701 111.854 -15.1373
-14.5166 107.544 3.46066
26.7811 100.917 -18.8994
14.4974 99.1178 -3.45664
-15.4428 115.171 -13.3567
-15.589 109.604 -0.0843926
-2.86013 103.656 2.10964
-2.5755 111.268 -15.6754
30.0629 96.118 -10.231
7.87952 102.157 -3.91815
-9.50707 113.596 -14.4821
22.8418 96.803 -4.95261
18.5552 97.4348 -2.38162
20.7904 97.026 -3.35534
-13.0012 114.969 -14.0903
25.7591 102.149 -19.7148
-14.852 108.516 2.77399
10.0584 108.802 -20.6876
-15.0071 108.728 2.43869
-3.59681 111.683 -14.8197
6.33308 102.759 -3.02873
25.6898 96.4251 -5.88747
13.9052 107.706 -21.2137
5.23269 102.804 -1.81862
-13.9211 115.473 -13.7422
-1.55414 103.854 1.98764
22.4884 97.1671 -4.37575
18.7838 105.743 -20.9063
-2.95398 104.32 2.31517
1.93652 111.29 -18.2815
-15.8621 116.007 -12.9368
23.9093 103.72 -20.7127
-16.8516 111.998 -2.52025
5.12158 110.857 -19.9471
3.26562 102.99 0.0643474
-12.2937 115.262 -14.096
-10.3005 106.524 4.41425
-20.032 114.725 -5.72196
-12.6992 107.501 4.3907
13.7274 108.04 -21.024
7.16031 110.276 -20.1776
-4.9901 105.362 2.65302
-19.5435 114.948 -6.13824
-13.5191 108.15 4.29084
22.5667 104.853 -20.9993
-18.6416 116.375 -10.0003
5.42061 111.158 -19.8246
31.3994 97.5091 -11.7798
1.92017 111.813 -18.0544
7.87874 103.406 -3.94076
-13.2377 108.138 4.42183
30.6358 99.2216 -14.9835
17.2745 107.302 -21.3925
28.0966 101.504 -17.7291
9.92398 102.874 -4.21738
26.7881 102.368 -18.4624
22.3957 105.312 -21.0966
31.402 97.9167 -12.0864
-0.877098 112.634 -16.6707
28.4721 97.1428 -7.44119
-15.5544 111.518 -0.549026
-15.4324 116.809 -12.9623
20.9169 98.1828 -2.87418
31.1078 97.7118 -11.0973
-16.8539 112.759 -2.15233
15.7237 107.99 -20.8003
28.2161 101.64 -17.4414
24.6176 97.7783 -5.15077
-4.6753 106.005 2.67611
22.8423 98.0166 -3.87392
-9.49309 115.12 -13.9248
-8.94211 114.875 -13.8264
-17.8491 117.373 -11.4381
31.2768 98.4561 -12.3142
25.921 97.6685 -5.46069
17.9241 99.3726 -1.96631
28.6181 101.591 -16.8863
7.3415 104.329 -3.73452
13.4283 109.114 -20.368
22.3731 98.3492 -3.44298
0.544345 112.917 -17.3203
17.0924 99.9132 -2.21866
9.63597 103.746 -4.22939
18.777 107.461 -21.229
28.9464 101.477 -16.5004
2.55969 112.478 -17.8434
25.0884 104.101 -18.9652
-5.3068 106.677 2.89245
-3.44031 106.02 2.71253
4.57394 104.318 -0.606978
-13.6628 109.26 4.59875
13.1743 109.403 -20.299
6.8689 111.598 -19.6177
20.5163 106.964 -21.3313
-19.6377 115.813 -5.14295
-14.7777 110.801 2.1867
22.9543 105.495 -19.9775
-20.0205 115.582 -4.06771
-5.16488 106.746 2.90689
4.07811 104.4 -0.0565877
-16.7564 113.133 -1.24768
-18.6346 117.015 -8.52743
9.92907 104.004 -4.24245
-6.06659 114.506 -13.9704
22.6996 98.7509 -3.52368
-9.55135 107.899 4.73145
21.8674 106.394 -20.5064
-14.18 110.362 3.28028
-18.6136 116.262 -6.34822
-26.5722 116.738 0.0516986
0.00541291 113.585 -16.9464
15.0223 109.158 -20.3908
-15.4304 112.645 -0.552043
-3.76107 106.621 2.86246
-2.26422 106.051 2.88102
-1.37134 105.86 2.63941
6.19014 105.091 -2.47102
-26.4928 118.117 -2.77356
-18.4484 116.348 -6.02074
-18.5846 114.558 -1.70013
7.71376 111.744 -19.1932
23.9316 105.311 -18.9722
22.9483 99.0851 -3.5616
15.4215 109.309 -20.4482
-25.5922 118.007 -2.93832
27.5817 98.5892 -6.44207
18.0393 100.399 -1.90943
-16.1151 113.234 -0.469509
-15.3483 112.855 -0.189321
-24.5461 116.803 -0.795059
26.4343 98.9973 -5.79989
-9.19132 116.271 -13.3262
-9.3583 116.384 -13.3364
-28.3744 118.978 -1.95127
-5.57204 114.992 -13.539
29.7359 101.593 -14.6918
11.6141 104.146 -4.03258
-16.7581 113.671 -0.177705
26.8341 103.808 -17.1281
21.4188 99.8387 -2.83778
-5.01595 114.83 -13.4784
27.6486 98.9805 -6.4098
-13.773 110.614 4.45647
22.3992 99.7054 -3.25643
22.3628 99.7293 -3.23972
18.518 108.925 -21.0128
2.96318 113.688 -17.7707
-16.2831 113.635 0.0318312
28.5488 102.791 -15.7764
3.64371 113.635 -18.1591
-27.7605 118.155 0.123851
-11.2687 117.361 -13.1201
-17.7875 116.583 -5.32437
-7.08994 115.833 -13.3216
3.46142 105.618 0.782545
-0.710451 114.487 -15.9959
-18.5857 116.909 -5.26234
15.8759 102.511 -3.29171
5.3899 105.788 -1.23284
1.07002 106.109 1.97604
27.708 103.45 -16.144
10.5109 111.804 -19.7707
-28.2087 119.268 -1.56564
7.52793 106.086 -3.61817
21.1957 108.031 -20.6404
4.50822 113.761 -18.6096
3.16311 113.961 -17.8208
-9.48821 116.951 -13.1628
-4.66757 115.125 -13.2613
30.5476 100.507 -11.4217
-1.19066 106.876 2.89932
-27.8285 118.448 0.373875
13.6362 103.935 -3.75746
-1.55971 114.551 -14.5101
-17.9255 117.394 -6.0681
8.69206 112.309 -18.4322
27.7306 99.6809 -6.32523
-27.8251 120.001 -2.72591
18.5317 109.496 -20.7179
-28.2782 119.429 -0.939161
29.6325 102.362 -14.1124
-18.0982 115.398 -0.701459
-6.82555 108.996 3.8894
-14.4667 112.607 2.50501
18.9184 101.266 -1.65933
0.670473 106.756 2.33574
5.26689 106.379 -0.964318
-14.4423 112.72 2.36297
15.516 110.541 -19.917
2.76704 106.438 1.32495
4.53309 114.303 -18.5032
6.30672 113.564 -18.2908
29.9036 100.396 -9.2232
-6.72695 116.417 -12.8693
-14.3939 112.402 3.51704
25.5245 105.218 -16.31
-25.2524 118.23 -0.0856466
-17.6313 118.14 -6.807
9.70224 112.653 -19.058
-16.8597 119.742 -11.2173
-17.9963 117.77 -5.5852
-27.8823 119.816 -1.20331
16.5432 110.475 -20.1173
6.1161 106.88 -2.19457
-26.6928 118.327 1.21973
-18.7783 116.333 -1.38109
-17.2596 118.637 -7.9831
24.1109 106.228 -16.9615
-20.8075 117.301 -1.57932
-28.6177 119.551 0.440656
-11.8163 118.551 -12.5972
-18.6206 117.889 -4.81684
-12.2971 110.997 5.46992
5.72199 114.093 -18.1108
-1.88022 115.275 -13.8456
30.0719 101.896 -11.8557
-6.58239 109.542 3.96756
-24.7412 118.595 -0.460549
21.9291 108.48 -19.6025
-18.7367 116.753 -1.60569
-4.95158 116.141 -12.7477
-28.9042 120.036 0.141838
16.3938 103.703 -3.29426
21.3996 108.93 -20.0221
-19.6605 119.033 -5.92113
-17.0126 115.391 0.133816
-18.0332 118.424 -5.98396
-2.99328 115.563 -13.057
-17.6015 118.848 -7.26763
-19.7704 118.874 -5.32847
29.5408 103.04 -13.6359
-18.9478 117.368 -2.56655
-24.6495 118.744 -0.532927
-25.1689 118.793 -0.100982
-21.3388 117.878 -1.44867
-17.9468 118.937 -6.96513
26.1546 105.246 -15.3738
-19.2375 119.203 -6.2119
-10.9708 111.03 5.23368
27.9429 100.656 -6.25327
19.9426 101.989 -2.02029
-17.8596 116.092 -0.0895874
-3.28918 108.833 3.46738
11.891 112.664 -19.3319
12.3529 112.458 -19.2527
-1.69891 108.284 3.32536
-16.4606 119.434 -9.0871
7.18159 113.861 -17.7592
-19.67 119.315 -5.8213
-18.2537 119.477 -7.48445
-24.0242 120.364 -4.04851
29.7046 101.742 -9.83255
-3.38055 109.043 3.49058
12.4551 106.012 -3.84235
3.91497 115.471 -17.9022
-17.0088 115.814 0.473672
-18.659 119.498 -6.55527
18.0165 103.253 -2.26775
0.700311 107.944 2.6908
-29.6556 120.096 2.22507
10.0512 107.2 -4.10961
21.1781 102.008 -2.19111
11.2286 106.732 -4.01006
4.88244 107.63 -0.263951
-18.7616 117.011 -0.334036
-18.1397 119.563 -6.83592
10.5704 113.687 -19.3762
-8.39855 118.232 -12.561
7.41019 108.066 -3.30108
-28.7663 119.865 2.45179
-24.1991 119.402 -0.652762
-16.0747 114.97 2.29556
-19.7558 119.786 -5.49945
-18.249 116.743 0.245086
-23.5617 119.484 -1.22836
17.4793 111.286 -19.7339
-1.37533 116.12 -13.7051
0.131114 116.509 -15.9119
-21.3505 120.58 -5.65374
16.9265 111.502 -19.5749
9.39069 107.833 -4.00863
-11.1803 111.835 5.54966
19.3767 110.881 -20.1972
-10.2712 119.196 -12.3823
21.3222 102.323 -2.05391
22.9682 108.182 -17.1518
19.8879 110.758 -20.3244
2.73602 116.197 -17.2678
3.01302 107.994 1.56635
-19.4198 118.314 -1.87946
-18.3799 119.913 -6.46448
24.0102 101.858 -3.1837
-15.3778 120.909 -11.3918
29.632 103.06 -11.0793
12.0825 113.435 -19.1046
-18.8688 120.107 -6.24649
-19.893 118.723 -2.08683
-19.8541 119.839 -4.5592
-21.5671 120.998 -5.67998
14.9294 105.778 -3.68054
13.8555 112.889 -19.2074
5.70802 108.497 -1.45484
2.92029 116.37 -17.167
-1.65542 116.508 -13.2886
15.5669 112.333 -19.3185
-2.81966 109.753 3.53321
-22.2255 119.369 -0.999877
-19.0887 119.997 -5.26801
-0.413291 116.85 -14.9991
-19.3997 119.867 -4.63145
28.7446 102.872 -9.10585
-7.98331 111.273 4.98385
-13.6681 113.5 5.06334
19.0227 103.571 -1.69685
3.1013 116.474 -17.1184
-28.552 120.375 2.80563
-22.5982 119.414 -0.401101
-23.7609 119.917 -0.499745
28.612 104.781 -13.2222
-20.8395 119.894 -3.055
-24.7184 119.899 0.490122
29.2471 104.161 -12.2874
-18.8645 120.977 -7.32746
-18.333 119.963 -5.39167
25.4401 102.188 -4.11677
-19.017 120.333 -5.55145
-0.355615 109.215 3.3254
-0.396247 117.072 -14.8974
10.4561 108.156 -4.08815
-18.5633 120.262 -5.65548
4.71168 108.631 0.0951465
-14.1202 120.895 -11.1692
4.89398 108.698 -0.191596
-27.265 120.965 0.746634
0.908245 117.129 -16.0767
-24.9938 122.226 -4.13476
-20.8346 119.778 -2.24255
-1.6023 116.897 -13.0873
-26.9334 121.621 -0.879755
-16.9596 116.418 2.10384
-20.377 119.016 -0.810274
-28.7179 121.438 1.21562
-19.7173 119.622 -2.79492
-1.3534 116.924 -13.301
-15.0143 115.243 3.25416
-18.3023 120.306 -5.4972
-19.3235 119.717 -3.19227
-18.1176 119.75 -4.3501
-16.3565 120.506 -7.62776
-27.9702 120.517 3.03417
-19.0373 119.717 -3.26253
-19.0803 119.653 -3.0637
-8.81416 112.125 5.18452
25.0616 102.58 -3.62287
-28.5004 121.738 0.915275
3.39993 108.927 1.50944
-18.0046 121.312 -7.70115
13.9385 107.056 -3.75756
18.5041 104.628 -2.28897
-19.5236 118.963 -0.712515
11.8297 114.457 -18.889
-3.96627 110.915 3.8237
2.57551 117.222 -16.6651
14.4666 113.67 -19.2748
-18.9352 121.58 -7.0944
-14.8405 115.41 3.51847
24.1571 108.173 -15.2245
-17.713 121.199 -7.17981
-28.029 122.346 -0.316371
5.47655 109.447 -0.933136
19.0019 112.232 -19.6962
-20.2067 119.697 -1.11839
27.3321 102.749 -5.19674
-19.6072 119.533 -1.21203
-27.0169 121.556 0.86965
-27.5262 120.737 3.27427
-23.8569 120.556 0.375203
-19.2224 121.651 -6.41401
-16.205 121.284 -8.3203
-19.5853 119.57 -1.23597
5.54221 109.599 -0.995115
-13.1708 114.206 5.54572
14.2154 107.434 -3.71495
-22.238 119.875 0.767038
-11.5264 121.093 -11.8124
-22.3327 120.566 -0.681505
28.3733 104.353 -9.36437
-22.3282 120.337 -0.101768
8.88618 109.693 -3.82941
-20.1761 120.105 -1.43877
-5.46357 118.725 -11.6867
-16.0056 121.437 -8.24037
-22.3525 120.835 -1.01528
23.5349 108.97 -15.4203
28.4942 103.991 -8.36351
22.7729 103.49 -1.94819
-18.4105 120.669 -4.19486
-19.4616 119.621 -0.792056
-6.25662 119.138 -11.7048
-18.5243 118.954 0.0144718
4.35982 109.626 0.780774
16.1865 106.797 -3.46271
27.0941 103.194 -5.04792
2.34958 109.705 2.4937
-25.7241 120.785 2.53016
-17.041 121.033 -5.92458
0.850487 110.087 3.29876
23.494 109.207 -15.3598
-17.2191 120.773 -4.94892
-20.2435 122.751 -6.77846
-20.6066 120.95 -2.22758
-15.8037 121.592 -8.07583
-17.3651 121.067 -5.38334
-19.226 119.999 -1.17977
23.4041 103.694 -2.2189
2.91606 109.892 2.13015
12.9051 108.491 -3.72681
-17.8163 121.398 -5.60993
-20.6143 121.313 -2.83315
-16.9315 121.544 -6.72516
-7.26035 112.824 4.81252
19.7294 112.741 -19.6728
21.6605 104.133 -1.36624
-28.4711 123.726 -1.03134
28.4017 105.141 -9.86127
-21.0926 120.886 -1.13081
-17.8324 120.643 -3.44459
17.6493 106.423 -2.7958
15.141 114.506 -19.299
6.8525 110.606 -2.57593
-14.8274 122.612 -10.5944
-17.2214 118.311 1.65499
-20.2477 123.087 -6.65378
2.99264 110.171 2.1471
-13.8819 122.41 -10.8169
-10.4207 114.018 5.54988
-19.0535 120.127 -0.624494
-20.8576 121.211 -1.324
-27.8582 124.499 -2.52724
0.720973 110.674 3.49086
-17.6605 121.515 -4.88816
-2.89378 111.814 4.16233
-11.2867 114.388 5.89979
-20.5892 120.3 0.759016
0.0828631 110.956 3.7416
-19.122 120.127 -0.00629728
-16.2198 122.975 -9.24065
25.74 108.449 -13.7933
-20.6332 121.676 -2.10157
-22.2263 123.818 -5.60563
2.45613 110.578 2.63811
-25.424 121.271 3.33623
6.22535 111.009 -1.76218
-11.044 114.547 5.8234
-1.78268 111.665 4.07765
-13.7644 122.796 -10.8206
-17.1875 118.913 1.39654
-19.5625 120.306 0.342177
6.90685 117.007 -16.1982
-17.9255 121.18 -3.14446
-3.83003 119.1 -11.0796
-24.447 124.311 -4.28189
7.73365 111.145 -3.09146
-18.8102 121.064 -1.80111
-17.3014 119.256 1.0707
-4.92691 112.919 4.5047
12.4702 116.281 -19.2083
-20.5123 120.619 0.913185
27.5884 104.847 -6.30191
28.4825 104.955 -7.32555
21.8306 111.922 -17.3883
5.93162 111.302 -1.21418
-21.726 121.325 0.822892
-19.1225 120.436 0.523077
-0.517018 119.062 -13.2829
2.45582 119.045 -15.952
-15.9612 123.06 -8.3702
5.7658 111.342 -0.924017
7.31949 111.546 -2.76821
26.4284 108.464 -12.9562
5.90533 111.469 -1.14346
-16.7923 119.137 1.81333
-15.57 123.218 -8.67888
-22.9671 124.565 -5.00967
-18.2807 123.503 -6.80649
15.6905 108.673 -3.39197
-17.817 121.822 -3.17438
-16.1157 123.539 -8.66757
25.0066 105.038 -3.19342
-3.51449 112.929 4.60376
25.4269 105.039 -3.4853
-22.0769 121.525 1.68847
20.8706 113.523 -18.9115
-11.0294 122.69 -10.9721
-21.6711 121.435 1.69588
6.86804 117.81 -15.894
-15.0368 123.952 -10.1223
21.8695 105.515 -1.02181
-25.63 122.257 3.58773
18.3455 107.391 -2.06509
26.6314 105.411 -5.01543
-2.4187 119.564 -11.3339
-4.93342 120.275 -10.6389
-27.8171 125.481 -1.60786
-14.5119 124.087 -10.4868
27.9298 106.869 -9.28375
-24.4928 125.602 -4.81122
-1.4468 119.612 -11.9649
8.71618 112.028 -3.58929
15.6514 116.076 -19.3532
28.2351 105.765 -6.88363
27.7482 107.81 -11.1466
20.5392 106.507 -1.4772
-7.1507 121.301 -10.4596
21.7276 112.556 -16.5195
18.8251 114.836 -19.1011
0.799424 112.112 3.77652
27.1072 108.595 -12.0674
22.6839 105.813 -1.50286
-24.6264 125.895 -4.88384
24.8819 109.952 -13.0996
-27.6061 123.623 3.21468
9.63358 117.762 -17.2431
-6.71118 121.331 -10.4075
-15.9419 123.034 -5.72325
-15.9294 119.305 2.99954
-21.2231 125.332 -6.08101
10.2806 117.972 -17.7575
1.79294 112.253 3.3738
-19.7797 125.09 -6.73216
-3.13893 120.237 -10.6109
-25.4268 126.339 -4.38567
11.6896 111.502 -3.84317
-10.3787 116.065 5.81557
-12.5519 124.103 -10.8855
27.8862 107.575 -9.44138
21.4396 113.382 -17.0425
-7.69683 121.961 -10.2744
22.2004 112.634 -15.9232
20.0931 114.895 -19.2273
-13.4203 124.525 -10.7969
-15.9771 123.298 -5.48919
-24.2501 126.485 -5.29855
-21.3369 122.179 2.07306
-25.8603 126.428 -3.63776
9.67443 118.286 -17.1829
-9.49841 116.097 5.47682
18.0707 115.888 -19.254
-26.0139 126.449 -3.44824
21.3526 113.675 -17.0692
8.91544 118.491 -16.8339
-11.9184 116.774 6.26368
-19.2134 121.626 1.65721
-21.5681 122.412 2.07708
-16.7714 124.608 -7.33508
19.0945 115.589 -19.1652
-27.8262 124.703 2.70003
-7.81268 115.663 5.41337
-19.1535 125.528 -7.11292
6.88727 119.137 -15.9784
-5.56501 114.945 5.20495
2.43047 120.585 -15.2314
2.97868 112.701 2.71613
-4.62358 121.332 -10.3838
25.2102 106.58 -3.33717
-20.8861 126.409 -7.12178
17.0631 116.696 -19.1894
11.8292 118.369 -18.2329
26.155 106.858 -4.55641
12.3221 118.264 -18.2209
26.6913 109.278 -10.4608
-26.0697 123.907 3.82541
18.0406 109.073 -2.04752
2.82921 112.971 2.91202
18.6918 108.627 -1.46767
-28.1661 125.784 1.54119
-10.9553 123.975 -10.0069
-10.7828 116.993 6.1665
-7.87607 122.813 -10.0299
-26.1076 126.864 -2.67358
26.5406 109.468 -10.2419
-19.7538 122.352 2.19028
23.4537 107.04 -1.70616
-11.0356 117.202 6.32521
9.49317 119.208 -17.0119
-26.9891 126.506 -0.527354
-24.0898 123.455 4.04764
5.13143 120.111 -14.8392
-9.83914 123.842 -9.77089
-25.9844 127.075 -2.4509
-3.20263 121.518 -10.3128
23.9019 112.134 -13.2816
2.10037 121.364 -14.7018
-4.72649 115.439 5.39445
17.6368 109.999 -2.33547
15.0359 117.875 -18.2267
6.58406 114.211 -1.85943
-6.90734 116.423 5.40506
-21.9086 127.512 -6.61015
-19.1496 122.703 2.07315
-22.1091 127.562 -6.42984
-0.540499 114.526 4.46323
1.03907 114.101 4.12347
-18.7058 126.325 -6.2283
-0.35666 114.539 4.39815
16.6976 117.747 -18.6279
-15.748 125.866 -7.79344
-14.2781 125.886 -8.88547
-7.82891 123.742 -9.75864
8.72741 114.507 -3.32757
-0.452034 114.83 4.36677
3.569 121.623 -15.0904
12.0165 113.429 -3.74185
-11.6965 125.382 -9.83068
-20.292 123.496 2.55318
26.3253 108.416 -4.94846
-20.0149 123.168 3.2053
-11.496 118.352 6.6224
26.4381 110.248 -9.20763
26.4304 108.482 -5.0793
15.8384 118.359 -18.3412
-26.1856 125.508 3.6429
25.4518 108.352 -3.6725
-6.15226 116.92 5.38589
10.5665 120.089 -17.2777
-14.4589 126.19 -8.42626
24.1413 108.381 -2.19873
18.1362 110.616 -1.89334
-13.3823 126.527 -9.94154
21.2677 108.858 -0.51001
-16.6276 122.564 2.35063
21.1488 115.738 -16.3512
-16.4229 125.634 -4.96462
-26.9568 126.382 3.02933
4.11119 114.744 1.70996
-17.1049 122.943 2.24664
-19.7443 127.821 -6.68191
13.2851 119.264 -17.0145
21.566 108.935 -0.525097
26.0972 108.933 -4.55093
10.7714 114.595 -3.63365
-22.0758 128.641 -6.18582
-10.5721 118.706 6.46719
0.869624 122.593 -13.0418
0.667322 122.562 -12.7613
-18.2425 126.82 -5.34843
14.4621 113.118 -3.37047
-2.57767 122.704 -10.0191
-19.1246 123.389 3.58384
-8.41631 125.048 -10.0364
4.3299 122.024 -14.5867
15.9212 118.886 -17.8735
-22.6575 128.543 -4.56797
-3.68363 116.858 5.26732
15.0663 113.166 -3.24487
-20.9894 124.191 4.21283
-26.4391 127.901 0.70906
-15.1511 122.248 3.5547
17.1673 112.099 -2.3819
-16.5754 126.421 -4.72236
25.2338 112.948 -11.6231
5.77434 115.828 -0.501632
2.12523 122.93 -13.6793
1.5408 115.527 4.11499
9.03334 121.169 -15.8506
10.5506 115.33 -3.55358
-12.6854 126.986 -9.35577
-16.5247 123.544 2.17377
-9.2272 126.085 -10.4151
-14.4925 127.298 -8.3945
-16.6926 126.614 -4.76107
-15.7844 126.562 -5.4517
-21.5366 129.131 -6.15565
-17.3849 126.832 -4.58098
-9.65533 119.182 6.23412
26.506 111.359 -8.66055
-0.634961 122.953 -10.7315
-12.4752 127.144 -9.60452
-0.910931 123.024 -10.4973
7.21499 116.278 -2.12848
14.657 119.539 -16.4947
15.813 119.433 -17.2943
-16.7164 126.753 -4.46792
-12.5021 121.039 5.07544
4.79995 122.663 -14.291
-4.43959 117.835 5.44414
17.7134 119.288 -18.1999
20.2399 110.595 -0.283773
26.9544 110.211 -5.50277
-16.59 127.021 -4.73401
21.9054 116.475 -15.4053
-2.62897 117.458 4.80628
-3.03486 117.566 5.02424
27.0812 111.196 -7.6312
-24.4206 126.715 3.58074
9.43444 116.356 -3.3017
15.7766 113.739 -2.96829
-12.6664 127.844 -9.59416
-16.499 127.218 -4.51744
26.6529 110.512 -5.14244
12.234 120.947 -16.1123
16.3275 119.9 -17.2493
25.1101 114.094 -11.592
-16.6394 127.645 -4.87857
10.2896 116.438 -3.43635
6.35727 122.49 -13.8635
-14.4354 123.513 2.83543
19.6397 111.562 -0.54387
-16.2225 127.853 -5.59503
-10.722 120.517 6.45109
-26.7004 128.993 1.44207
11.254 121.646 -16.1647
-12.3513 128.381 -10.2082
22.6025 116.567 -14.725
-10.7106 127.918 -10.5464
-8.95006 120.099 6.06693
16.4392 113.902 -2.73668
-12.447 128.456 -10.1411
-25.8317 129.182 0.461144
-26.5997 129.135 1.35906
-24.7481 127.489 3.50259
17.107 113.535 -2.32663
-15.4645 128.045 -6.17167
-20.6868 129.99 -5.86822
-16.6955 124.348 3.6823
21.7319 110.969 -0.157357
11.1191 121.995 -16.0675
20.3938 117.866 -14.8572
-9.69633 127.851 -10.5257
-5.57544 119.457 5.32144
-26.6099 129.21 1.90245
17.8753 113.222 -1.61372
15.3938 114.798 -2.95509
20.8059 118.242 -15.8241
-4.00202 118.881 5.42727
2.51827 124.323 -13.1735
-25.3483 129.657 -0.0295058
25.2493 114.583 -11.2023
27.2779 112.064 -7.17855
-18.3931 124.996 4.71609
-16.6896 124.571 4.16641
24.3539 115.703 -12.7569
22.5687 111.158 -0.443113
-18.86 125.121 5.08843
-22.8571 130.165 -2.98461
-17.4216 129.544 -6.50741
-13.3285 128.834 -8.54932
-24.4677 128.13 3.28974
23.0385 111.354 -1.11629
17.1279 120.789 -17.6288
-16.0355 128.918 -6.12697
-23.8274 130.148 -1.84846
-16.3837 129.161 -6.32409
-11.402 129.23 -10.9836
27.0718 112.573 -7.44052
-16.0693 124.902 3.40911
-21.3198 130.319 -4.36627
22.5747 111.359 -0.441648
-12.1895 123.264 3.72293
6.09194 118.021 -0.782201
-18.7388 130.151 -6.07533
19.7602 118.16 -13.3348
-12.6429 128.903 -8.65545
-16.5321 124.871 4.29064
26.9784 112.873 -7.5547
26.9842 112.19 -5.94202
-18.9995 130.315 -5.91166
-9.582 128.56 -10.4361
22.7544 116.862 -12.7981
25.9324 111.912 -4.13288
-18.0413 130.06 -6.06974
-5.88636 120.369 5.38167
-16.0895 128.427 -4.02331
-11.7068 122.971 4.9932
-12.1662 129.577 -9.95111
1.01358 124.904 -11.0589
-13.2575 124.821 2.27162
26.6075 112.307 -4.90815
13.4032 116.79 -3.20122
2.71714 117.961 3.88163
13.4882 122.195 -15.7934
25.2483 115.107 -10.0656
-23.934 130.718 -1.24618
13.3471 116.897 -3.20045
18.7257 119.511 -14.2004
18.7188 113.672 -0.585461
-25.3242 130.605 0.387878
-0.51307 119.377 3.85878
-5.33976 126.856 -9.09296
19.3367 118.357 -11.8922
-15.7834 129.457 -5.46781
-4.20372 120.283 5.4499
-12.7663 124.9 2.57523
-19.5533 126.601 4.87199
-2.90013 125.956 -8.82856
26.6797 112.723 -5.07715
12.243 122.995 -15.6773
10.9003 123.41 -15.3818
16.9714 120.75 -14.7205
-18.3643 130.665 -5.39646
18.5751 119.559 -13.3743
-18.2374 130.631 -5.42062
26.9207 113.122 -5.98937
24.3019 116.055 -10.4078
23.7221 112.572 -1.73068
0.531207 125.516 -10.5735
26.5787 114.179 -8.04759
-20.5841 131.432 -4.99846
24.9477 115.627 -9.84127
2.41374 125.497 -11.9908
-17.2511 126.382 4.02163
18.4814 119.915 -13.6123
21.5013 117.514 -10.6558
5.8887 124.712 -13.1056
-10.3616 130.228 -11.058
21.0562 112.995 0.31562
17.6977 114.885 -0.995968
-15.1734 126.255 2.66261
-3.32617 126.494 -8.7185
-10.8417 130.368 -10.8481
-15.2916 126.15 3.15438
-25.049 129.966 3.21124
12.6138 123.212 -15.5344
22.4746 116.836 -9.72313
-12.5004 129.956 -8.14109
26.8063 114.064 -7.10666
-9.99479 122.896 6.09072
3.34726 119.038 2.99971
14.5698 123.146 -16.8116
25.4446 115.537 -8.92365
-10.7361 130.571 -10.7438
-15.599 130.161 -5.24586
19.8155 113.857 0.275475
-11.3247 124.221 4.68734
5.77203 125.066 -12.9053
20.5031 118.138 -10.253
-12.6147 125.539 2.90132
-20.6263 128.316 3.94587
-16.6383 126.917 3.76365
8.57095 124.178 -12.9167
1.66427 126.039 -10.8929
26.632 114.809 -7.55579
-15.3076 126.419 3.87483
25.2389 115.667 -8.18755
-9.70214 123.422 5.81239
-9.3475 123.237 6.00337
22.402 113.474 -0.329912
23.141 113.501 -1.04658
-18.9506 131.77 -5.00212
-10.8094 124.155 5.30172
24.0872 113.591 -2.0625
21.9526 117.479 -9.12091
-9.14043 123.218 6.01216
21.3039 118.001 -9.68324
2.20889 126.253 -11.3604
8.2671 124.491 -12.7421
-10.2968 124.149 5.09954
-20.0468 132.267 -4.82271
21.0119 113.92 0.347292
-13.6032 130.877 -7.39073
14.3347 117.954 -2.85925
18.0592 120.684 -12.2066
10.0665 124.332 -13.2556
-2.64184 121.569 5.00064
0.00480264 126.799 -9.5533
11.228 124.411 -14.2513
4.12219 126.421 -12.2858
-8.91878 124.372 4.69965
-7.96868 130.145 -9.59933
-10.7035 131.507 -10.2566
13.4517 118.92 -2.95204
2.25539 120.287 4.17209
17.2727 116.589 -0.858684
-23.6241 132.309 0.0470817
16.519 123.411 -15.8519
26.3023 115.161 -5.58116
-12.3714 126.55 3.41949
-7.83392 123.81 5.65686
-19.2364 128.811 4.56375
-4.4793 128.69 -8.6127
8.26447 121.031 -2.38766
-2.33148 122.17 4.77197
13.8532 119.12 -2.90577
14.2966 125.175 -17.3634
1.75042 127.139 -10.416
25.4329 116.286 -6.69253
12.2346 125.155 -15.2036
15.9616 118.074 -2.08595
-15.3406 131.113 -3.75178
23.947 114.889 -1.96951
-11.7977 126.57 3.68573
22.5336 118.735 -9.49554
20.0818 115.392 0.535195
17.1024 123.194 -14.8746
23.3472 117.766 -7.91717
4.97401 126.73 -11.9467
6.60109 126.121 -11.9817
-23.5159 131.49 3.12515
-16.9532 128.331 4.48477
15.8639 118.274 -2.14439
-2.82673 128.288 -8.25602
21.1737 120.244 -11.4884
23.5001 117.679 -7.62334
19.912 115.593 0.534593
12.6182 120.065 -3.00063
15.3807 118.825 -2.6127
-15.5602 131.643 -4.00687
-24.585 132.133 3.17953
-24.3296 132.689 1.66927
-18.6789 129.288 4.56557
16.3871 124.404 -16.1562
-24.1231 132.051 3.20431
5.94244 126.678 -11.7774
3.89247 127.518 -11.8383
9.73911 125.813 -13.0374
4.58334 127.315 -11.7756
16.3967 123.652 -13.9729
26.0201 116.34 -5.7102
-2.4656 123.113 4.74508
25.6784 115.88 -4.15547
19.2529 116.43 0.539936
22.258 120.017 -10.4804
6.67969 126.753 -11.7174
-6.37608 124.719 4.97931
23.3975 118.878 -8.50545
17.7633 123.738 -14.6081
-0.640794 128.365 -8.51926
25.7535 116.556 -5.07394
10.6667 121.565 -2.90163
-22.4967 131.798 3.67535
18.736 122.609 -12.6189
10.3058 127.056 -15.2205
-14.458 128.55 4.04452
-16.1929 129.362 3.79991
21.9021 120.691 -10.8435
24.3758 116.119 -2.30813
-14.8372 132.495 -4.45415
25.5733 116.662 -4.61253
18.6827 123.636 -14.4776
-19.3481 130.766 3.80593
8.44854 126.623 -11.9861
5.69155 122.158 0.934141
-10.6613 133.02 -9.0827
-15.6421 132.602 -3.48408
-6.20137 131.253 -8.93274
1.22251 128.555 -9.41783
-9.34769 133.233 -10.6184
23.9949 118.674 -7.20633
23.6867 118.875 -7.35212
-16.603 133.461 -4.37573
15.9796 124.878 -14.1732
23.6244 116.418 -1.48765
22.7603 119.628 -8.06033
17.2198 123.928 -12.9604
-6.08709 125.4 5.04413
-8.80444 126.697 4.56387
21.048 116.585 0.810022
24.8201 116.597 -2.64435
10.2515 122.411 -2.82517
21.7564 122.102 -12.5953
-5.6984 125.263 5.21498
-0.497274 129.057 -8.36574
25.3895 117.685 -5.57554
21.4591 122.343 -12.7923
17.8958 123.704 -12.6141
-2.79488 124.39 4.78889
-17.3448 130.518 3.89303
9.95132 122.66 -2.77942
-7.75405 132.512 -9.45607
-12.8965 133.129 -6.06722
-8.53254 133.132 -10.032
-22.4422 132.711 4.07459
16.2094 125.129 -13.6623
8.79191 123.211 -2.389
-12.3664 128.985 3.66282
18.5553 124.409 -13.8816
16.0971 125.782 -14.7244
10.6257 128.264 -15.4765
17.1239 125.349 -14.581
9.36903 128.105 -13.8207
22.9462 120.778 -9.03049
24.7295 118.618 -5.55379
21.5851 123 -12.8671
-24.1473 133.881 3.74616
9.26363 128.143 -13.4527
-0.916962 124.925 3.3586
-2.7128 125.29 4.20725
-23.3351 134.412 1.90248
-7.80369 127.315 4.24085
4.47426 129.05 -10.9879
22.2944 120.352 -7.05061
16.1664 126.617 -15.977
-20.4474 134.927 -1.74847
0.883004 124.082 3.99222
17.6605 125.269 -14.0873
-3.92464 125.944 4.18906
20.7689 122.956 -11.4265
23.8959 122.147 -12.3707
9.1995 128.539 -13.7418
9.04292 128.108 -12.5597
-15.6157 130.569 4.3325
8.3579 128.029 -11.7057
17.3248 125.668 -14.4078
9.05205 128.38 -12.946
-6.05961 126.618 5.02542
-4.38906 131.554 -7.91834
23.1075 119.924 -6.03162
-20.6591 132.805 4.14997
-0.404699 125.124 3.48964
19.7 124.41 -13.189
-2.88687 126.112 3.53389
-1.44435 130.307 -7.52824
15.4622 127.512 -16.4206
18.3198 125.162 -13.4805
10.025 123.819 -2.76143
13.9517 128.303 -16.7832
19.7375 124.418 -12.9978
22.2684 120.469 -6.11117
16.0532 126.847 -15.1786
23.8244 118 -1.69607
24.41 119.266 -5.13536
-0.965639 130.375 -7.69951
-21.2274 135.354 -0.710142
-10.6246 134.467 -8.33249
1.68603 124.202 4.28909
11.8947 123.298 -2.9082
-8.86318 134.547 -10.0273
-12.8234 130.043 4.08884
14.6385 122.044 -2.43471
8.96387 124.263 -2.32375
16.3593 120.691 -0.668522
-1.24243 125.869 3.42293
22.0499 122.433 -9.88053
-11.3849 129.719 3.88454
-6.28966 133.057 -8.49193
23.5995 118.287 -1.49281
-0.558749 125.651 3.51415
-16.5807 134.917 -3.32372
19.9864 124.525 -12.621
17.0263 126.697 -14.9562
-5.41839 132.57 -8.04501
-6.88513 133.505 -8.86005
22.3289 121.007 -6.5216
21.9678 118.277 0.22544
12.0356 129.319 -16.2812
-22.6677 134.07 4.44689
-8.33246 134.494 -9.64629
19.5426 125.669 -14.6329
8.59649 128.845 -11.9752
-5.4304 126.952 5.28373
22.9805 118.267 -0.488721
-10.0305 134.882 -8.86987
-15.1257 134.625 -3.59954
10.2827 129.562 -15.0617
-14.7185 134.661 -4.02671
2.18346 124.493 4.22808
-1.36299 126.229 3.47204
22.9389 122.425 -9.91976
-12.5208 134.945 -6.48197
-3.91915 127.251 3.577
24.1889 118.922 -2.77523
-22.2079 135.804 0.458546
19.0904 124.579 -11.1226
11.6293 124.019 -2.90142
16.8955 126.285 -12.9608
18.4924 125.875 -13.4526
2.04662 130.691 -9.50362
18.2682 119.808 1.02342
-14.4392 131.168 4.58436
22.7628 121.497 -6.96144
1.79967 124.971 4.28988
21.2411 118.852 0.765043
9.96614 130.007 -14.8453
23.6238 119.753 -3.47024
-20.3997 133.73 4.32815
4.74168 124.67 2.6888
0.00730844 131.12 -7.94223
13.8005 123.502 -2.82937
13.7799 129.479 -16.6624
6.16027 124.684 1.47494
-11.5938 130.63 4.02273
14.8007 128.173 -14.4052
8.05387 129.496 -11.2561
-9.85184 130.082 3.85536
-15.26 135.318 -3.14972
16.7197 127.716 -14.6648
22.4289 119.199 -0.0470063
-6.1948 128.381 4.92311
-2.19173 127.392 3.73897
17.5581 127.12 -13.6505
2.53549 125.375 4.23005
6.47773 130.121 -10.1976
-15.7644 132.261 5.22163
-7.83908 129.752 3.82325
-5.86966 128.774 4.33189
-13.8425 135.531 -4.04747
1.09719 126.196 4.01668
22.7711 123.374 -9.24344
3.15503 125.458 3.88884
17.5308 126.645 -11.9868
20.3531 124.514 -9.56946
20.0477 124.787 -9.87679
20.8538 123.874 -8.43343
19.5955 125.188 -10.3315
-16.9184 132.916 5.18445
18.4257 126.226 -11.508
7.51394 130.2 -10.7614
19.523 120.27 1.43681
-5.97077 129.219 4.03457
-5.38379 134.154 -7.96772
9.40638 131.114 -14.4183
7.69735 125.898 -0.68896
-22.8431 136.12 3.49869
17.5002 126.431 -10.8782
-10.2454 136.291 -8.33644
21.5371 123.507 -7.52581
2.30507 131.682 -8.93423
4.81171 125.72 2.68081
1.55087 131.905 -8.71518
-5.83147 129.555 3.55015
2.65222 125.902 4.28585
21.4351 124.121 -8.6822
-12.8515 132.036 4.35122
19.0984 126.103 -10.8565
22.4361 122.142 -4.68954
22.4445 121.976 -4.24464
-9.6492 131.195 3.75738
15.0731 129.061 -13.8078
22.2328 126.745 -14.9498
23.3874 125.621 -13.3364
-12.3633 136.566 -6.04556
-11.084 131.84 3.84219
22.5469 120.716 -1.01987
16.3387 127.322 -10.6404
0.917605 132.345 -8.18147
26.9934 123.3 -10.896
18.2282 127.135 -11.7454
17.4651 126.252 -8.96964
-22.5976 137.125 2.47229
20.3567 124.483 -7.44354
21.9255 120.526 0.351315
16.056 127.489 -10.3425
16.7436 126.807 -9.271
6.10204 126.341 1.6036
22.4991 124.207 -8.40254
-0.305728 127.86 4.04102
-8.04502 131.246 3.30814
10.1018 126.679 -2.56251
22.5492 120.902 -0.46763
-9.59145 136.974 -8.37192
20.0184 128.235 -15.1107
-17.7615 137.313 -1.54441
-1.20228 133.134 -6.96191
10.627 126.659 -2.66575
3.92737 132 -8.92315
21.8372 124.604 -8.04482
14.9485 124.697 -1.93693
-1.75781 128.847 3.81662
-8.93509 131.848 3.43753
21.418 124.704 -7.55539
-12.9805 132.963 4.73067
12.7845 131.658 -15.7421
16.5673 126.983 -8.30211
21.402 121.262 0.61086
6.58654 131.84 -10.3614
24.1285 126.061 -12.9666
-3.32713 130.245 2.77871
-4.09127 134.939 -7.15612
17.0006 126.801 -7.5261
9.71933 127.367 -2.14363
-12.3845 137.909 -6.39486
-18.9572 138.022 -0.605247
-0.720894 128.88 4.01752
22.1525 121.633 -0.0623051
-16.6862 137.836 -2.16471
16.7083 123.407 0.874468
20.2012 125.388 -6.89237
15.4585 128.876 -10.6095
-0.980412 129.165 3.82345
18.3653 126.249 -7.08676
3.33967 127.403 4.04128
22.2771 127.311 -12.992
7.92207 132.993 -13.0136
20.6141 126.204 -8.83353
-13.7394 138.197 -5.24483
17.2031 126.807 -7.06453
21.7929 127.509 -12.8794
23.359 124.404 -7.04514
-6.31935 136.812 -8.68031
23.1655 123.996 -5.83919
-10.5521 133.068 3.93293
16.0733 129.236 -11.512
22.6438 127.973 -14.5853
16.4561 129.472 -12.3566
7.57807 132.913 -12.1971
19.9085 125.887 -7.1138
22.903 123.821 -5.00307
6.97927 127.444 1.19126
16.62 130.35 -14.3625
-13.0812 133.687 5.1331
19.8077 126.076 -7.21513
18.3481 122.879 1.57621
-0.0570671 133.764 -6.80572
22.9813 123.966 -5.05703
0.289483 133.748 -7.01919
20.0939 129.365 -14.9201
22.9498 124.766 -6.70629
22.6042 127.986 -13.8639
2.14937 133.507 -7.90378
0.156564 133.871 -6.87747
7.10388 133.149 -11.5048
-14.4615 134.495 5.14824
2.1581 128.396 4.21951
19.0854 128.22 -10.8288
15.5839 130.131 -12.0121
8.75338 133.288 -13.1031
12.5227 127.352 -2.56447
21.8757 122.683 -0.143158
16.6455 124.342 0.817002
22.5255 125.411 -7.02867
18.3982 130.398 -14.8222
-9.89857 138.473 -7.67971
-5.1944 136.613 -7.6145
21.4015 128.262 -12.4583
13.1283 127.231 -2.45683
16.0987 128.275 -7.60221
-13.655 134.484 5.21188
22.1263 125.35 -6.29299
19.8378 127.76 -9.76693
-5.00473 136.571 -7.46501
19.7799 127.849 -9.79638
7.46285 133.875 -12.4691
22.9198 127.965 -12.785
-10.1336 138.748 -7.56279
-9.21261 138.576 -7.9806
-8.06779 138.397 -8.60135
22.5991 124.199 -3.62959
10.5418 133.441 -14.0319
18.9581 123.419 1.66951
19.4968 130.299 -14.7146
17.0327 124.277 1.58427
21.6637 128.73 -12.9358
15.0525 126.446 -1.55941
-11.3134 139.097 -6.80084
23.0788 124.712 -4.76421
18.9332 130.644 -14.7426
15.3875 131.866 -14.3253
-3.885 136.3 -6.97896
15.8147 130.969 -12.5701
20.3389 130.124 -14.7456
23.2115 124.887 -5.16823
16.0809 130.22 -11.0408
15.9021 128.758 -7.3881
-13.9305 135.182 5.26209
4.48426 128.787 3.35909
21.905 124.466 -2.34537
18.0369 127.511 -5.87568
-4.65894 137.022 -7.15608
-16.6524 139.06 -0.898688
-17.5052 139.284 -0.568062
8.57122 129.28 -1.13184
18.1213 127.614 -5.93795
-9.19186 134.603 2.82958
-12.0123 134.771 5.06017
-19.4963 139.922 0.0288439
20.3308 130.566 -14.6341
-1.84392 131.946 2.4642
8.38326 129.426 -1.00274
22.4839 124.98 -3.42487
25.3084 127.579 -12.0461
23.3806 128.678 -12.6834
7.64404 134.658 -12.1713
6.33702 134.572 -10.7356
15.1769 130.399 -9.06935
22.2872 126.311 -6.03879
11.8592 128.877 -2.44795
13.0579 133.963 -15.3623
20.2819 124.837 -0.733691
-6.01163 138.254 -7.86551
16.1149 130.238 -9.45726
5.77763 129.268 2.28454
27.8726 125.251 -8.54431
16.9032 130.509 -10.5848
26.3943 125.317 -7.19502
-4.60977 133.085 3.14422
21.9017 126.407 -5.5718
-17.477 137.054 5.72667
11.4033 129.225 -2.44389
8.56355 134.631 -12.4155
-8.27154 139.546 -8.43034
14.6013 130.675 -8.70397
20.1716 125.131 -0.900446
-10.4988 139.904 -7.15449
18.0355 124.855 1.75019
18.0214 124.862 1.76432
21.5098 127.068 -6.49224
10.7522 134.545 -13.9181
-20.7817 139.518 3.45936
16.8265 130.557 -10.0381
-20.5451 140.256 1.73877
-2.14473 132.683 2.5297
14.1461 128.236 -1.98051
14.6158 130.937 -8.64357
22.4726 129.324 -11.9819
22.8418 126.843 -6.51398
20.8788 130.64 -13.5286
15.8649 131.908 -11.8615
15.7428 127.211 -0.696647
-20.5526 139.87 3.22579
-9.86014 135.749 3.0315
20.1816 125.832 -1.38433
16.2075 131.683 -11.2898
-19.9104 140.608 1.0293
20.5742 128.078 -6.88126
16.5322 129.47 -6.41813
11.085 129.904 -2.41122
15.3954 132.811 -13.1126
14.0229 134.161 -14.8653
15.1818 133.314 -13.8669
14.6977 131.53 -9.21513
-3.95523 138.06 -6.95789
22.7171 127.347 -6.41278
14.997 128.226 -1.24813
21.3824 130.168 -11.5613
-14.2644 139.95 -1.66168
15.5771 132.53 -11.6495
-17.6402 138.2 5.62943
17.6306 132.896 -14.3226
12.1801 135.071 -14.334
17.1334 126.085 2.04534
17.2898 133.002 -14.1856
19.9978 126.677 -1.85621
-0.491132 136.552 -6.06763
20.0475 126.687 -1.89123
30.6589 125.098 -7.8585
17.9488 126.33 0.977704
16.7292 131.827 -10.6609
-18.6463 138.913 5.29869
21.073 126.825 -2.93535
-18.5467 138.881 5.34236
-5.76889 139.374 -7.47012
18.9121 126.711 -0.576038
10.5596 130.714 -2.24017
6.40512 136.144 -11.0273
2.69043 135.902 -7.04861
-18.5577 141.192 0.119201
25.0941 128.252 -9.73782
-1.54314 133.694 2.12205
0.73778 132.673 2.4304
-9.15208 136.459 2.68946
15.4561 133.025 -11.7776
-17.3156 141.08 -0.372515
-12.5944 137.016 4.80963
0.988498 132.697 2.4559
-0.483182 136.926 -5.96914
-10.3843 136.819 3.3899
-18.2794 139.126 5.46532
-2.63388 138.161 -6.57511
15.7933 133.15 -11.7142
13.4667 135.449 -14.8182
22.6708 127.4 -4.48999
17.8388 130.89 -8.07691
14.9239 134.49 -13.7463
22.7726 130.319 -11.0948
16.2965 127.477 1.5311
11.6975 135.789 -13.554
14.971 134.396 -13.3024
15.7915 133.699 -12.3796
19.6322 132.358 -12.7392
14.9019 133.506 -11.0484
20.7884 131.679 -12.1467
18.2279 130.942 -8.04193
16.469 133.956 -13.3285
-15.9888 141.35 -0.780003
29.1821 126.973 -8.64211
18.7542 131.097 -8.67427
25.9243 127.016 -5.70696
24.2126 127.287 -4.76858
22.7515 127.937 -4.93206
14.8209 129.435 -1.15008
29.9751 126.82 -8.85526
17.3465 131.194 -7.38065
9.91726 131.702 -1.73249
-3.27004 135.283 2.07318
29.5481 126.788 -8.07595
-14.6866 141.204 -1.00555
-14.6034 138.283 5.80447
2.42683 132.978 2.60386
-19.5409 140.786 4.56679
7.76286 137.03 -11.6937
-19.6667 141.682 2.63987
20.8023 128.134 -2.84536
-1.54002 135.075 1.70902
9.94569 132.022 -1.68847
8.39695 131.973 -0.15535
-15.2443 141.603 -0.883616
6.9666 137.378 -11.3853
26.6834 129.741 -11.6415
-3.90428 135.931 2.13523
30.4305 126.671 -7.75338
12.402 131.374 -2.12851
18.7092 133.492 -12.817
3.70161 132.57 3.09722
9.88772 136.758 -12.1809
0.0889838 137.917 -5.85469
26.116 129.34 -9.55435
10.427 132.274 -1.88784
24.5417 131.075 -11.8927
-17.408 139.969 5.83511
9.36209 132.453 -1.16026
15.5003 129.462 0.235584
8.0309 132.489 0.125229
-16.3269 142.402 -0.486776
-19.3842 141.964 3.39034
18.5093 128.353 0.378167
29.248 127.602 -7.59527
19.8612 133.271 -12.1739
-17.5642 140.321 5.70776
13.725 131.182 -1.6599
21.91 129.858 -6.05547
6.58764 138.135 -11.0765
30.1133 126.976 -6.65757
-12.8585 142.591 -3.59666
29.6017 128.33 -9.19799
12.3704 137.039 -13.3991
28.0678 128.698 -8.35023
3.04796 138.109 -7.30895
4.44496 133.152 2.97574
4.76012 138.489 -9.64244
21.6248 129.847 -4.9769
14.543 136.364 -13.6323
21.6534 129.599 -4.36782
26.4765 127.958 -4.95534
20.8794 129.611 -3.62691
14.8384 134.997 -10.5238
9.246 137.768 -11.7768
-0.958196 136.121 1.44751
3.83726 133.758 2.56637
15.2686 135.245 -11.2686
22.2626 129.879 -5.18945
14.3152 136.936 -14.3021
1.74053 138.541 -6.38729
17.9169 133.594 -9.64058
29.7898 127.661 -6.69032
18.1288 133.007 -8.42079
18.108 133.06 -8.51278
14.3609 136.991 -14.1666
27.0464 130.63 -10.9353
-5.61596 137.748 2.41386
-7.73354 142.792 -7.35796
30.1738 127.521 -6.48071
-1.71957 136.779 1.36721
-12.1337 139.751 4.07213
1.02481 138.931 -6.04654
-13.5153 143.048 -2.15965
-18.1854 141.763 5.15788
27.5014 128.176 -5.06488
-11.7961 143.431 -4.49881
6.39876 139.098 -10.9353
8.64629 133.494 0.106034
-8.93866 139.674 1.84543
2.90596 135.007 1.98445
25.2028 128.7 -3.74911
19.7856 129.824 -1.3844
-18.6861 142.901 3.4453
21.4408 130.758 -4.92612
8.38798 138.738 -11.5302
16.0696 134.901 -9.58721
13.5407 137.738 -13.8177
-13.5792 142.805 -0.769729
8.88959 133.639 0.0606792
-0.955747 139.924 -5.52658
17.7137 129.812 0.936353
-9.64627 139.876 2.66094
19.9815 130.123 -1.72953
-9.6729 139.95 2.68964
11.6693 133.632 -2.10042
12.05 133.53 -1.94591
-3.4775 138.15 1.53317
-11.5953 143.954 -4.47467
5.03792 134.371 2.59152
27.2367 128.633 -4.34157
27.6824 128.575 -4.58352
-15.4021 140.968 6.15517
-2.42083 140.911 -5.58877
-8.96208 140.296 1.91309
17.364 135.413 -10.8086
29.3925 129.512 -8.05607
-4.68424 138.333 2.66788
20.1905 134.928 -12.1829
-6.35535 143.066 -6.67533
9.05684 139.2 -11.5832
6.59935 133.733 3.38598
-12.2242 140.831 4.14864
4.99376 134.829 2.38117
29.0243 128.87 -5.69727
-14.1099 141.014 5.58547
19.9566 131.333 -3.05953
3.98825 140.123 -8.77631
19.9345 130.937 -2.00152
-15.4366 144.06 -0.132039
13.1749 138.556 -13.4432
16.411 130.797 1.65546
-18.0851 143.745 3.16373
9.69332 134.299 -0.265313
18.1275 131.046 -0.308556
-15.9501 141.874 5.76319
28.7974 129.02 -5.27677
28.6805 128.831 -4.52618
29.4028 130.054 -8.01687
26.9931 130.932 -7.80792
-17.661 143.207 4.53043
3.55542 135.997 1.88141
28.4738 129.441 -5.59395
14.7413 138.342 -13.6812
-11.8484 144.5 -3.57359
15.1879 131.915 0.986572
17.8063 131.302 0.0475061
2.32551 136.757 1.55957
17.6052 136.608 -12.0831
-7.27298 140.274 2.22247
15.8396 137.701 -12.9533
22.93 130.993 -3.79727
24.8521 132.783 -9.68089
-4.03477 142.45 -5.71468
22.3596 131.27 -3.84637
26.7758 132.748 -11.2639
9.56201 134.909 -0.470099
15.4153 138.074 -13.1784
0.79114 137.643 1.21538
26.6166 130.574 -5.74087
2.26352 137.036 1.5246
-17.7247 144.151 3.29028
25.7147 132.975 -10.4554
12.9145 134.221 -1.62881
12.0189 134.701 -1.89017
-6.0539 140.019 2.32141
16.2479 136.267 -9.33349
-12.4792 141.653 4.63416
-17.5738 144.349 3.0305
17.6672 131.64 0.344272
-5.3471 139.782 2.48006
22.6638 131.433 -3.52537
-6.71426 144.398 -6.63193
-3.594 142.69 -5.4591
26.7382 130.635 -5.14313
5.15722 135.96 2.28461
25.4592 133.247 -9.96233
19.1574 131.993 -1.26404
23.2948 134.223 -10.1938
19.6699 132.063 -1.77035
-9.82451 145.444 -5.89341
14.9185 132.807 0.882113
28.9431 131.299 -8.27227
-14.6049 144.865 0.0701867
-12.7344 144.851 -1.55928
19.2253 136.877 -12.1745
16.8678 132.088 1.15442
1.39573 141.445 -6.37377
-2.87268 142.673 -5.15879
-9.38467 145.684 -6.09496
17.1097 137.517 -11.2562
24.9835 130.767 -2.69067
-16.4033 143.783 4.94673
16.1838 132.449 1.47682
6.40398 141.487 -10.4703
28.4678 132.46 -9.61449
28.8748 132.37 -9.77591
26.7342 130.374 -3.09185
-10.581 142.31 3.32122
-13.5644 144.996 -0.175108
-8.25909 145.597 -6.35818
-2.00288 142.659 -5.02501
11.0934 140.623 -12.2344
22.8111 131.904 -2.66286
-13.8399 145.221 -0.0763322
-12.6174 142.586 5.01764
-10.8324 146.009 -4.5354
28.0752 132.98 -9.83276
-12.1782 145.719 -2.59308
21.0397 136.156 -10.6823
-10.9177 142.635 3.51426
3.14052 137.931 1.62187
16.1455 137.62 -9.33765
26.6327 134.122 -10.7708
26.8384 130.679 -2.93243
-5.07892 141.297 1.70168
-12.4757 142.881 4.92851
22.5738 135.504 -9.97071
25.2083 134.196 -9.30327
21.4551 136.144 -10.3686
13.2702 140.642 -13.2039
10.6114 141.239 -11.9317
7.45813 136.102 2.95695
12.0049 136.248 -1.53838
17.4116 137.361 -9.03092
-5.87 141.843 1.99697
24.3285 132.086 -2.78445
15.5158 133.495 2.02008
-12.2089 146.179 -1.97065
17.3497 133.35 0.816997
4.79625 142.495 -8.92856
-5.06541 144.887 -5.44272
-16.2215 145.373 3.81417
8.96343 137.206 -0.189008
-2.91809 143.916 -4.83315
-8.16274 146.514 -6.04174
-6.06869 142.34 1.81764
-3.91024 142.024 0.582876
16.4189 138.345 -9.46709
7.70688 136.589 2.65791
-13.6823 143.928 5.36057
1.97334 143.003 -6.81793
-0.358544 143.182 -4.96919
17.0415 137.978 -8.79424
20.349 133.859 -2.20157
25.1899 134.903 -9.05787
26.3864 132.939 -5.50756
7.86441 137.375 1.19524
14.4767 140.265 -11.5796
11.3471 141.809 -12.2831
7.31111 136.858 2.94775
15.453 139.762 -11.2371
-4.04494 144.813 -4.98667
-14.6941 146.553 0.82512
16.826 133.903 1.44821
14.3913 140.285 -11.1227
4.02413 138.713 2.06393
28.5649 134.225 -9.92868
14.9835 134.69 1.56858
-14.9466 146.692 1.09989
26.9304 132.427 -4.01214
5.36532 143.245 -9.3071
7.85183 138.034 0.832312
19.8269 138.549 -11.2912
-12.3834 146.699 -0.752049
6.74127 137.673 2.7655
20.6324 134.275 -1.87637
16.6112 139.513 -10.345
3.64981 139.297 2.15301
7.70386 137.754 2.2172
26.1506 133.856 -5.54445
12.0572 142.284 -12.2141
5.93795 138.385 2.461
24.6062 135.564 -8.06496
-11.6409 147.515 -2.66717
24.7049 133.421 -3.0614
-2.00904 144.61 -4.51654
15.912 139.973 -10.114
22.3572 137.068 -9.11823
-15.3305 146.732 2.996
16.5588 134.737 1.75212
16.2155 139.242 -8.39836
15.9163 140.056 -10.0051
13.1922 141.688 -11.2285
7.67622 138.058 2.33303
0.60926 141.331 1.21343
20.4588 134.8 -1.71035
5.65819 143.918 -9.35465
21.6155 137.823 -9.78619
-2.44638 144.996 -4.41802
-12.0584 147.411 -1.223
14.6428 135.944 1.05385
26.2633 133.405 -3.63902
-3.10937 145.382 -4.53876
26.7131 134.719 -7.03839
15.4907 135.239 2.14414
3.8118 144.107 -7.70276
21.2341 138.313 -10.1164
-11.5673 148.039 -2.42552
25.4692 136.103 -8.40282
13.6093 137.552 -0.906939
18.1496 135.212 0.437593
21.7321 138.148 -9.62337
16.6621 139.866 -8.96315
12.3644 142.829 -11.7361
1.62545 141.457 1.39179
17.8414 135.388 0.706799
14.8244 141.081 -9.62608
0.153267 144.99 -5.24385
8.00433 144.138 -10.264
-11.6614 145.889 3.78813
20.7221 135.508 -1.69025
0.205372 142.839 0.108158
22.7816 137.714 -8.58948
26.3197 134.572 -4.47237
4.57145 140.164 2.4751
8.13445 139.433 0.945989
21.674 138.679 -9.62832
-0.0250807 143.169 -0.206317
26.5946 135.581 -6.90895
17.6022 139.601 -7.93404
2.19376 145.172 -6.68124
26.3077 135.261 -5.65843
-11.1827 146.117 3.46582
16.9701 135.937 1.61607
22.9785 135.288 -2.17681
-4.69923 147.291 -4.62607
23.8056 137.179 -7.19585
2.26219 142.282 0.69324
26.3717 135.582 -5.74781
15.2319 136.801 1.66818
-3.75468 146.829 -4.17632
-11.7056 146.65 3.66302
-10.8913 149.316 -3.19175
11.6529 139.511 -1.0219
24.8335 134.975 -2.51361
14.1697 138.043 0.189079
-11.2316 146.63 3.49083
21.6005 139.469 -9.62986
-13.7107 147.791 3.34733
-10.5961 146.758 3.14959
-10.8983 149.578 -3.07611
-12.0599 147.209 3.59206
4.84478 141.001 2.61685
16.4122 136.922 1.92265
10.6693 144.723 -10.6778
25.2415 135.537 -2.45002
23.5068 138.467 -7.5078
18.3496 137.157 0.276834
16.9771 140.703 -6.64627
20.5796 140.53 -9.53771
8.80547 145.341 -9.86066
-12.6604 148.122 3.37292
7.51105 140.433 2.87954
-8.07873 149.664 -4.30311
14.4467 142.936 -9.11437
3.12743 146.579 -7.01607
12.047 140.485 -0.953389
7.76065 141.128 1.53425
12.1482 144.411 -10.0409
0.686408 146.946 -5.39826
22.5938 139.719 -8.58565
10.796 140.762 -0.201511
-11.3929 150.115 -1.63259
9.41749 141.068 0.403595
6.36933 141.238 2.93191
26.3863 135.908 -2.98511
11.8822 140.684 -0.780495
7.83774 141.357 1.44011
17.4839 141.354 -6.84067
26.0908 136.281 -2.75724
1.17686 147.428 -5.69023
-11.3609 150.406 -1.13391
