ply
format ascii 1.0
comment Created by Open3D
element vertex 1920
property double x
property double y
property double z
end_header
17.1803 105.266 -19.8551
-11.4883 109.7 -0.705454
-8.35393 106.463 3.56049
20.1025 96.681 -3.1218
-9.6373 107.275 3.08334
9.31944 101.676 -3.44169
36.6129 92.3599 -9.98347
34.7042 92.3329 -7.93539
-2.53581 104.799 1.72863
-1.42805 111.463 -14.4233
35.8651 95.7259 -16.443
-11.1624 109.416 0.331117
11.9303 101.578 -5.11288
-16.2035 113.527 -3.42201
-6.15586 105.843 3.89341
6.46561 102.35 -0.998492
12.8223 107.804 -19.8365
10.1992 102.171 -4.1884
10.1452 108.707 -18.9747
26.1547 95.1443 -4.29712
24.1096 102.694 -19.325
19.1493 105.051 -19.5903
31.3808 98.5379 -17.1368
28.5453 100.08 -17.7375
-11.6535 110.846 -1.22854
7.06611 102.524 -1.17173
-15.4983 113.291 -2.69946
31.0852 98.7769 -17.1147
-5.06514 113.605 -14.0327
5.51211 110.563 -17.8495
0.533352 111.906 -15.8001
-11.1863 110.07 0.431165
-5.31365 106.158 3.51695
26.425 95.3911 -4.23407
18.6927 98.9585 -4.47732
3.7787 103.843 -0.350485
15.9549 107.011 -19.9541
36.9321 95.7134 -15.5102
-2.00146 105.688 1.46954
8.89394 109.806 -19.0028
13.2155 101.89 -5.1689
-6.20593 106.573 4.0004
-16.268 117.423 -10.4688
8.64753 102.603 -2.05057
11.1489 108.857 -18.8322
2.47332 104.474 0.157735
-12.5467 116.818 -12.5232
8.00103 110.395 -18.7921
36.9726 94.0916 -11.1478
34.2 93.7702 -7.35768
-16.3421 114.359 -2.74564
-16.0219 117.457 -10.1319
36.1281 93.9606 -9.53303
-9.34493 116.156 -13.7626
17.0899 106.993 -19.8054
-4.65463 106.588 3.34143
19.7479 105.743 -19.4288
27.0753 95.7987 -4.19281
-4.04939 113.844 -13.5653
25.5263 96.3043 -3.67771
34.3246 94.0274 -7.39466
9.98795 103.146 -3.26584
21.2329 105.083 -19.1234
-20.0908 115.613 -0.795413
5.47614 104.204 -0.806732
5.71868 111.5 -17.6823
32.4673 94.5829 -6.32835
1.37006 105.573 0.493675
13.6821 108.794 -19.3734
-7.1926 107.722 4.38819
11.9493 103.499 -5.49917
5.68771 111.681 -17.6198
23.8594 104.298 -19.2728
3.33779 105.082 0.00206755
36.1943 94.8484 -10.1721
30.1027 100.605 -17.066
-7.6165 115.818 -13.2496
-5.36913 107.354 3.81482
19.6056 99.6782 -4.13696
6.42195 104.289 -1.08343
1.26045 113.232 -16.1675
25.5353 103.825 -19.3161
4.12916 105.133 -0.191813
35.0442 97.8516 -15.1105
-4.41516 114.693 -13.2585
9.84906 103.715 -2.73348
19.9333 99.8 -3.96649
-6.08142 107.971 3.99418
20.4157 106.423 -19.4126
16.9469 107.971 -19.3381
-19.8951 116.612 -1.359
-10.5721 111.102 1.72155
-1.63674 107.241 1.43155
0.0475311 106.731 0.88962
36.7916 96.8458 -14.0378
-15.7768 116.165 -4.44536
35.9622 95.6329 -10.371
-1.22347 113.625 -13.4399
8.88497 111.297 -18.3478
37.0331 96.2865 -12.7774
21.1177 99.1232 -2.87732
23.581 105.263 -19.3893
3.61876 105.637 0.181735
-14.6042 114.143 -0.613159
18.5514 101.183 -4.8271
-7.47182 116.42 -13.0362
-3.42644 114.583 -12.9698
-6.4143 108.45 4.09216
-8.90572 109.652 3.92138
28.5338 96.7254 -4.6574
-20.3552 117.167 -1.3973
-10.2398 111.001 2.35064
15.1872 108.981 -18.931
-19.1645 116.714 -1.41852
21.435 99.156 -2.61925
-9.43622 110.344 3.36542
-15.6753 117.671 -6.89349
19.9933 100.477 -4.03335
11.524 104.683 -4.96074
7.23434 112.407 -18.112
30.1456 101.838 -17.2666
-10.122 117.875 -12.761
26.7028 97.6309 -4.13518
9.29838 104.476 -1.95745
-3.44721 108.024 2.98378
-18.8671 116.902 -1.52531
-16.5031 117.352 -4.93794
30.4676 96.5316 -5.35876
23.3894 105.947 -19.5825
-15.3728 116.845 -4.68234
-21.8511 116.555 2.69097
-20.5191 117.754 -1.40094
24.6488 105.548 -19.6042
29.7383 102.408 -17.5875
-13.9775 114.373 -0.248755
-16.4283 117.763 -5.40892
28.2037 97.4594 -4.5458
27.0986 97.8258 -4.22518
-16.913 116.378 -1.60998
-15.0941 117.153 -5.17606
6.93386 105.345 -0.702528
-3.65266 108.364 3.22057
-8.02371 117.437 -12.9479
7.44416 112.745 -17.8545
-17.2509 116.635 -1.46023
-3.06438 115.208 -12.6239
17.0218 109.011 -18.958
-16.869 116.736 -1.87966
-16.4124 116.878 -2.65813
-16.8895 118.976 -6.93086
-18.3866 117.443 -1.89164
9.42984 111.916 -17.6455
-14.8876 119.341 -9.72876
-2.757 115.173 -12.5928
0.728473 107.64 1.04978
-20.1758 117.006 1.01371
19.9363 101.384 -4.24869
-2.44432 108.618 2.27335
10.0125 105.234 -2.68165
-20.2104 117.128 1.1104
-10.7612 112.888 1.16034
-10.1849 112.437 1.6374
-19.5978 118.492 -2.52336
-19.7123 117.77 -0.747362
-1.60817 114.923 -12.6967
14.9659 110.077 -18.5461
28.6815 103.648 -17.8145
34.2509 96.7911 -7.836
-15.2925 118.105 -5.81519
12.9753 111.116 -18.6908
2.29165 114.702 -15.9623
-20.1331 118.895 -2.58426
-21.3694 118.404 -0.187511
29.2968 97.8075 -4.87599
-9.14847 110.986 4.30676
5.00767 113.957 -16.9006
12.4223 111.312 -18.4053
0.302886 108.194 1.18788
-12.564 119.535 -11.532
5.56069 113.907 -17.1755
-10.5224 112.873 1.60276
35.4353 98.9963 -13.6309
6.84518 106.005 -0.377162
-19.7616 117.392 0.84908
30.222 103.029 -17.3597
-21.1921 119.03 -1.3976
-12.1169 113.723 1.45775
11.259 105.88 -4.48391
9.6359 105.62 -2.22567
9.01851 105.632 -1.5836
8.74149 112.703 -17.3393
18.2674 109.318 -19.2654
13.8457 111.017 -18.4959
6.32464 106.334 -0.13155
24.2326 106.596 -18.9787
4.82463 106.822 0.408216
-15.5774 119.371 -7.40546
-19.6165 118.663 -1.64008
-6.04691 117.396 -12.4498
-14.5668 120.409 -10.558
-20.5537 119.111 -1.44366
-14.3743 115.625 0.277672
12.8185 106.081 -5.5483
-15.8045 119.523 -6.94979
10.1525 106.084 -2.73354
8.98695 106.07 -1.48538
3.22105 115.263 -16.1913
-15.8749 119.749 -6.91501
-16.2456 119.099 -5.04647
-20.4802 116.801 4.52066
34.6744 97.9712 -8.79384
-20.4032 118.836 -0.180457
13.5382 111.618 -18.3509
-3.65485 116.567 -12.0706
36.075 98.628 -11.6716
-18.2866 119.474 -3.65176
-9.69802 112.533 3.43017
-20.0699 117.833 1.96524
-5.07784 117.325 -12.1758
34.7305 98.1367 -8.98446
-17.8397 119.353 -3.68171
16.5128 110.448 -18.3903
20.7824 109.116 -19.6928
-16.1728 118.791 -4.03745
-15.5364 117.294 -1.25364
-16.3417 117.767 -1.48508
-22.2649 120.334 -1.28206
-20.168 119.189 -0.795952
-16.6714 119.226 -4.42005
17.8859 104.083 -5.08212
8.57184 113.449 -16.866
5.54391 107.255 0.361557
9.84499 106.526 -2.35063
24.3935 100.031 -2.36917
-14.6491 120.872 -9.99418
-15.3014 119.994 -7.26054
-15.9995 118.9 -4.02071
-16.4349 120.376 -6.90389
-1.81137 116.127 -12.1247
-20.7013 119.08 0.417801
-21.0181 117.196 5.08837
-22.7372 117.84 5.44713
-22.1715 120.628 -1.37855
4.9365 115.231 -16.724
31.5167 103.202 -16.399
-20.7997 120.42 -2.27683
-15.208 119.139 -5.02264
-5.53657 117.968 -12.159
-12.5127 114.977 1.99156
-0.62533 116.092 -12.6719
-15.6435 119.023 -4.0133
12.7561 106.994 -5.49225
-20.6931 120.616 -2.37083
-20.3955 119.518 -0.133869
-24.5333 120.147 2.72299
-6.12693 118.486 -12.2174
-20.9238 117.975 4.05515
-2.23532 110.283 2.56702
12.1241 112.922 -18.0207
-14.2458 121.556 -10.7708
-18.2069 118.655 -0.0618804
13.1746 112.555 -18.0925
-7.63062 111.729 5.03026
-15.6268 120.516 -6.83052
28.8956 105.113 -17.0345
-16.2536 119.793 -4.31249
-14.7109 121.454 -9.56188
7.34557 107.461 -0.124448
-12.7946 121.221 -10.9551
35.4568 100.451 -12.7226
21.6102 109.655 -19.5897
-8.03862 119.636 -12.0627
-16.3379 120.17 -4.75781
11.7605 113.322 -17.7415
-9.59787 113.34 4.01806
-4.40833 111.113 3.88555
-16.2204 120.991 -6.47959
-16.9485 119.68 -2.69002
28.7003 105.446 -16.6655
-0.00544777 110.288 1.58339
-18.829 121.346 -4.43586
-7.58358 119.592 -11.8813
-22.0339 120.365 1.15739
-16.01 118.937 -1.70117
35.2183 100.905 -12.7728
-13.2149 116.136 1.91372
16.8084 111.503 -18.1246
-23.1494 121.844 -0.90487
1.76586 109.778 1.21181
-14.1991 120.789 -7.58867
12.3384 107.894 -5.22864
-15.3044 120.779 -6.41504
5.11257 108.557 0.650258
26.409 106.739 -16.8543
-15.2486 119.524 -3.49415
-17.1296 120.333 -3.35853
22.6308 109.599 -19.4204
-15.4182 119.315 -2.7474
-21.1644 118.146 5.86154
25.8449 107.094 -16.834
-22.8177 119.074 5.50857
0.179105 116.847 -12.8655
-16.1079 118.925 -0.972207
-16.0897 118.732 -0.483193
26.877 106.619 -16.6305
15.986 106.641 -5.56351
31.6006 99.3639 -4.85173
-8.76822 120.488 -11.8505
-24.4898 121.238 2.52707
-17.2065 121.64 -5.79509
1.49684 117.229 -14.7873
35.1831 101.165 -12.5045
-16.0972 120.043 -3.17609
-15.5387 120.791 -5.3938
-14.8383 119.727 -3.67305
16.3179 112.053 -17.9542
28.1922 105.982 -16.2132
-21.2345 119.061 4.41603
11.4687 114.041 -17.4767
-16.2085 121.208 -5.57836
-15.5284 120.038 -3.59564
-16.2394 119.234 -1.01045
-23.3542 121.162 1.86814
-6.17597 119.352 -11.5252
15.5972 112.457 -17.8906
-20.5171 121.97 -2.73173
-14.6552 119.979 -4.16954
-14.7312 120.404 -5.048
-9.98943 114.523 3.65671
0.33262 110.849 1.61341
12.173 108.573 -5.14613
-14.934 120.689 -5.09438
-13.9812 121.727 -8.4178
12.9555 108.444 -5.49007
7.10098 108.542 0.302068
5.73162 116.432 -16.2777
17.8099 111.873 -18.1482
-24.4189 121.61 2.76153
-14.5055 120.409 -4.55846
22.2676 103.263 -2.9455
30.3547 105.195 -15.5618
-14.0511 122.822 -10.3846
-22.1204 120.044 4.20191
12.1116 108.831 -5.11544
-16.2234 119.225 0.0947702
22.3757 103.257 -2.84204
-17.428 120.397 -1.25401
-17.8823 122.239 -4.93199
-16.7388 119.104 1.07804
-1.78172 111.814 2.47244
6.41311 108.989 0.60345
-14.8173 122.595 -8.59262
-16.5763 119.156 1.05984
11.1639 109.268 -4.62395
2.22028 117.821 -14.8888
15.4269 113.269 -17.9191
11.2508 109.334 -4.66113
-16.0789 119.292 0.544657
-3.07249 112.35 3.12057
1.03241 111.204 1.63214
2.57634 110.683 1.25783
-8.05609 120.944 -11.1729
-19.3418 120.559 1.29921
-3.68779 119.03 -11.1231
17.1051 107.239 -5.34024
34.8527 101.045 -9.31872
-15.6564 119.913 -0.746248
-5.91404 113.162 4.71761
8.67545 115.624 -15.7339
-12.8753 117.345 2.40437
-3.46547 119.025 -11.0311
28.9787 106.31 -15.0902
34.4809 102.708 -12.4435
24.6943 109.106 -17.044
-6.5157 120.363 -10.8775
13.2882 114.488 -17.6408
-10.165 122.339 -11.5491
22.8964 110.757 -18.8483
-23.7124 121.435 4.37445
5.22762 117.325 -15.7635
-10.815 115.709 4.34058
33.8676 103.487 -13.2986
-20.3201 123.376 -3.33037
22.6204 103.886 -2.65427
-16.578 119.685 1.29889
-15.7088 119.493 0.857868
-14.0542 122.896 -8.59654
-5.56305 113.394 4.45441
30.3249 101.139 -4.16294
-15.4199 119.402 0.852202
-8.68365 121.653 -11.1085
-8.27766 121.427 -11.0005
-3.93052 113.117 3.529
33.3343 101.036 -6.90884
10.7674 115.39 -16.597
-22.6039 123.839 -1.74241
31.1289 105.397 -14.4944
-17.5496 119.852 2.21512
-18.3944 120.387 1.90466
9.83806 109.693 -2.49246
31.8981 101.008 -5.17869
8.45672 116.027 -15.5218
-13.7337 122.841 -8.37898
23.2929 103.488 -1.98437
-17.5719 123.104 -5.01111
22.2141 104.482 -3.11983
13.006 114.927 -17.5526
13.5418 114.763 -17.5672
-21.4565 124.059 -3.03101
-17.5994 120.698 0.71955
-15.9938 121.2 -2.02293
-17.2932 123.188 -5.16502
12.1359 109.981 -5.04127
11.2485 115.618 -16.9963
-22.2921 124.105 -2.12388
-15.2574 119.765 0.643501
31.8087 105.245 -14.183
-19.4313 119.809 4.90835
-13.9596 119.069 1.04803
32.0898 101.28 -5.32766
-19.3996 119.748 5.09054
-18.8698 123.641 -4.32585
-14.287 123.613 -8.84334
-14.0741 119.195 1.03922
22.2269 104.821 -3.16976
25.0758 103.219 -2.38806
13.3134 115.175 -17.6459
11.3712 115.82 -17.0492
-13.7843 122.095 -5.64767
31.7165 105.433 -14.0293
9.63069 115.996 -15.5388
-3.87257 119.924 -10.7016
-7.77536 121.636 -10.6023
2.83004 118.768 -14.8783
11.8386 115.889 -17.4784
25.6979 103.179 -2.56916
-13.7871 123.574 -8.75625
-15.6302 123.013 -5.57542
-13.9549 122.535 -6.19136
1.9724 111.879 1.87453
-5.07672 114.089 4.07596
32.9574 101.683 -6.40151
21.9964 112.138 -19.0713
-15.2119 123.422 -6.81651
-9.09301 122.48 -10.8181
-3.51848 119.908 -10.6074
34.568 102.707 -10.1922
13.0822 110.24 -5.45162
-17.8456 120.13 3.61819
-19.4363 124.303 -4.23989
24.4498 110.354 -17.1619
7.60114 110.206 0.375023
-15.4634 122.946 -5.14002
-14.7793 119.794 1.40233
3.40501 111.609 1.51966
-3.99116 120.242 -10.5744
-12.8918 124.294 -10.7088
-9.3671 115.858 4.99645
8.98611 110.255 -0.903667
-8.23414 122.188 -10.4943
-4.5316 114.286 3.80684
-22.4038 124.415 -1.02758
-13.4097 124.349 -10.0479
-21.6334 124.78 -2.58894
22.8293 111.89 -18.5529
3.25304 119.087 -14.9712
5.93772 118.148 -15.5563
9.3426 116.559 -15.3264
-23.8271 122.831 4.23806
29.555 102.27 -3.303
-21.3765 124.994 -3.15849
10.3234 110.91 -3.36925
-12.8077 118.824 2.18108
-14.4403 123.15 -5.9777
34.1327 103.805 -11.3176
29.9605 106.871 -14.0518
28.4609 102.759 -3.00132
18.3141 108.234 -5.13426
-13.8429 123.051 -5.94793
-19.5208 125.111 -4.84573
-15.2663 120.641 1.13332
12.9413 116.331 -17.8171
-16.3973 120.718 2.18426
31.4389 102.55 -5.15634
2.37337 119.573 -14.2924
-14.904 120.479 1.45185
33.8778 102.978 -8.33374
24.4822 110.995 -16.9571
-13.4734 124.644 -9.33489
-14.0105 120.095 1.7288
34.0909 103.74 -9.8936
-23.137 124.714 0.737716
7.37699 117.922 -14.8943
24.713 110.92 -16.5402
-17.9437 121.479 2.92672
-11.6998 118.516 3.32271
-23.2078 124.167 2.20175
21.973 113.204 -18.8333
-13.2953 124.806 -9.25901
-6.09957 115.338 5.05692
-10.2719 124.023 -10.4073
26.2528 104.107 -2.11999
32.9565 102.972 -6.19612
-2.34959 114.601 3.5969
0.716526 113.551 2.86794
33.7842 103.833 -8.49985
28.3008 108.756 -14.1283
11.8702 112.017 -4.79094
28.4435 108.69 -14.1067
-20.9686 121.754 6.5164
-9.6712 117.518 4.74535
1.49074 113.481 2.7018
29.7416 108.027 -13.6505
1.98751 120.338 -13.3719
-14.9707 124.745 -6.07464
-7.96469 116.614 5.41789
-10.7653 124.807 -10.3736
15.971 110.734 -5.52119
16.6334 116.113 -18.3449
13.8188 117.219 -17.9841
-0.894462 114.538 3.26891
10.5636 112.592 -3.93244
24.1339 105.619 -1.86344
-13.3209 120.339 2.86625
32.0213 106.907 -12.7258
-13.3304 125.467 -8.78883
-14.7878 125.26 -6.76449
4.45312 112.837 1.9525
-18.422 121.49 5.57365
-10.6146 118.527 4.57245
-5.50265 122.734 -10.1871
-14.1103 125.595 -7.88422
-16.0843 121.293 3.96985
-17.9273 121.532 5.31155
1.49335 120.739 -12.6351
-15.547 124.874 -4.65273
-0.505894 114.637 3.36296
26.0048 110.514 -14.2776
18.7512 109.69 -4.98158
4.22017 120.467 -14.6422
-8.83089 124.424 -10.298
33.2198 104.215 -7.07925
8.58799 112.306 -0.30017
-2.99967 121.898 -10.2127
-10.9022 125.541 -10.2915
-16.3236 125.615 -4.8679
-12.413 120.17 3.56909
26.0177 105.258 -1.61336
8.41777 112.464 -0.0336422
23.9249 106.476 -2.18101
-13.6119 121.08 2.84611
30.8068 104.319 -4.22727
2.08312 114.078 2.87457
32.6117 106.676 -11.2956
10.9421 113.318 -4.27903
18.5772 110.231 -5.00026
21.6022 108.427 -3.96459
27.2823 105.081 -2.00714
-7.4883 124.201 -10.121
-14.8002 125.209 -4.80024
-3.94878 122.708 -10.1443
21.7615 108.454 -3.75251
-16.5173 121.689 5.13635
27.3067 110.357 -13.6751
26.8539 105.383 -1.7323
32.7236 105.178 -7.25191
-16.1334 125.895 -4.63302
30.1185 108.857 -12.9317
26.2552 110.982 -13.8264
-16.2645 122.174 4.04314
-22.4514 125.631 2.62892
10.516 113.806 -3.92844
-17.6539 122.226 5.65405
11.554 118.834 -16.3923
-14.0586 125.371 -5.08271
-10.0696 119.16 5.0656
0.574636 121.534 -11.0704
15.0731 112.661 -5.57245
25.5878 111.723 -14.0402
2.01393 114.739 3.19131
24.3713 107.118 -2.20815
19.3855 116.516 -18.5587
29.64 105.169 -2.99219
-14.313 122.07 3.38897
6.01076 113.607 2.02585
32.5546 106.199 -8.12884
-4.3178 117.234 4.37628
24.0388 107.595 -2.55294
-14.5948 121.949 4.1298
-19.0058 123.247 5.79689
22.585 108.52 -3.03704
-9.28049 126.053 -10.5149
-18.9928 123.258 5.78526
-16.5431 127.132 -5.53691
-2.96468 116.903 3.98508
-20.7637 123.913 6.24046
30.2681 109.313 -12.523
22.5691 114.967 -17.511
12.1142 119.363 -16.7628
-4.39209 123.878 -10.1769
-14.3549 126.264 -5.39749
-23.2518 125.901 4.51508
-5.21472 117.657 4.946
30.7532 105.429 -3.84201
21.0684 116.266 -18.558
1.54677 122.129 -12.0054
0.88662 115.596 3.60637
-1.74613 122.708 -9.8463
-15.8141 122.835 4.23445
-2.09074 116.849 3.9141
-4.99607 124.397 -10.1318
-7.88282 125.901 -10.6107
-5.66646 124.727 -10.1086
-14.5957 126.127 -4.16622
2.79162 122.282 -13.0884
-20.2799 124.223 6.04513
16.1144 118.056 -16.9865
-21.5225 127.11 0.925174
-10.7806 120.854 4.36034
-14.5786 126.998 -5.77535
-11.8147 127.763 -10.2537
-15.7199 122.907 4.82327
15.9744 118.216 -16.7623
-14.6659 126.867 -5.16524
-4.65121 118.06 4.72817
-11.8113 121.818 3.48082
-16.6665 128.343 -6.43181
-15.2988 123.002 4.3979
20.9349 116.799 -18.4011
31.4834 108.433 -10.0622
-18.5352 124.125 5.20912
-13.1519 127.483 -7.94605
-13.4412 122.486 3.78816
-12.1681 128.128 -10.3833
-9.034 119.711 5.66433
0.700635 122.509 -10.6105
12.4991 119.814 -16.4753
-0.372999 116.627 3.95475
-3.21948 123.983 -9.91697
-5.73304 118.352 5.61103
24.9037 113.511 -14.5982
-0.722795 116.854 3.94145
-2.24215 117.561 3.92522
-10.6422 121.268 4.18557
-11.2243 121.719 3.78901
30.8164 106.271 -3.86594
24.0977 108.517 -2.11705
15.3718 113.961 -5.51435
-21.8168 127.461 1.64647
32.5362 107.131 -7.4
24.5872 114.132 -15.1353
5.91514 114.895 2.20356
-22.3903 127.274 2.88014
5.01094 115.227 2.45816
-13.1977 122.701 4.0067
6.76095 121.49 -13.5647
16.7005 118.606 -17.015
27.2636 107.177 -1.59774
14.09 119.631 -16.3661
-9.86667 121.237 4.43604
31.1901 107.108 -5.15587
-11.6492 128.798 -10.9129
27.6557 107.301 -1.75681
2.85074 116.509 2.59271
-20.3628 125.608 5.55144
31.299 109.206 -9.6862
-18.6038 125.105 4.979
3.80869 116.272 2.26521
28.9316 111.095 -11.5342
10.4192 115.97 -3.76115
-19.3571 128.905 -2.88325
8.36393 115.506 -0.568869
-12.799 123.427 2.96008
-18.5531 125.127 4.96134
31.2973 109.25 -9.66604
25.9503 113.24 -13.3012
32.0788 107.51 -6.47353
-9.36 128.165 -11.2327
-6.53759 126.52 -10.3311
-11.0102 122.616 3.32256
-20.1064 125.855 5.31197
17.9099 113.432 -5.08712
9.00041 121.445 -14.2683
9.75781 121.237 -14.5472
-7.69591 120.409 5.24604
12.1315 120.808 -15.8958
-21.2022 128.596 0.425449
27.6869 111.976 -11.5243
-11.2728 129.107 -10.8272
-21.8031 128.364 1.69849
-14.5286 127.833 -4.45769
32.0575 107.888 -6.47073
8.19075 115.91 -0.352015
29.8327 110.823 -10.8227
10.3776 116.417 -3.68948
31.8339 108.757 -8.0728
22.6732 116.499 -16.342
26.692 108.08 -1.22775
30.9606 108.002 -5.28335
-9.97034 122.561 3.33307
30.6067 107.783 -4.31
-14.198 128.487 -5.67597
27.0121 112.861 -12.0772
30.78 108.035 -4.8935
-13.9624 128.413 -5.73026
20.7096 112.188 -4.06828
-20.8898 126.676 5.47702
-13.0194 129.009 -7.85988
19.5926 112.983 -4.56325
23.3062 110.103 -1.73056
-16.865 125.088 5.09696
-9.85253 122.792 3.18573
30.3798 107.909 -3.88179
-16.253 129.378 -5.09059
22.6652 110.672 -2.11798
-11.7752 123.977 2.68291
-1.05774 118.641 3.94902
3.40406 117.418 2.22495
-14.7373 123.908 5.96019
8.45696 116.621 -1.07931
-22.4437 128.52 3.39289
24.786 109.365 -1.03257
10.7406 121.744 -14.8955
15.3135 115.557 -5.38484
-12.0028 129.181 -8.52264
9.27853 116.976 -2.35292
12.6486 121.277 -15.5746
29.2393 108.334 -2.84066
-1.44325 124.821 -9.11616
8.31705 116.878 -0.918904
-12.9522 123.739 5.16316
-15.2772 129.348 -5.23645
29.4933 108.368 -3.05065
-13.3895 123.782 5.55922
5.74801 116.68 2.24393
17.2027 114.806 -5.16685
22.5267 111.152 -2.25568
9.43168 117.169 -2.58732
7.57288 116.572 0.744
20.9072 112.66 -3.85648
7.23054 122.893 -13.1538
20.6821 118.791 -17.5205
31.1859 109.005 -5.88729
17.6005 114.771 -5.08967
29.7007 108.58 -3.26213
10.334 122.086 -14.2714
23.4803 110.612 -1.43914
15.9014 120.216 -15.6078
19.7469 119.435 -17.7078
-13.4702 123.999 5.81743
-1.2553 119.367 3.98878
17.0192 120.058 -16.2063
-10.9918 124.368 2.56074
-16.9693 125.94 5.09859
-5.79929 120.662 5.86528
8.39702 117.397 -1.13744
-6.35865 127.832 -9.84719
16.6403 120.425 -16.4111
-19.0238 130.644 -3.31684
15.4152 120.614 -15.4709
-12.1472 124.889 3.01894
16.8186 120.609 -16.6227
16.2685 120.891 -16.6281
21.721 112.537 -3.10484
22.2276 118.259 -16.6237
5.42948 117.568 2.10703
-10.9126 129.851 -9.18871
17.7458 120.312 -16.589
-14.3154 124.714 6.14028
20.4226 119.616 -17.6551
-12.3362 124.617 4.50949
25.6873 115.773 -14.0816
13.0184 121.956 -15.2342
9.43557 122.626 -13.0773
-13.7541 129.045 -4.01925
27.1976 109.491 -1.17699
1.32882 125.012 -10.1812
15.7846 120.922 -15.5207
11.0471 122.584 -14.4627
30.7511 111.445 -9.14485
17.8624 120.474 -16.5649
5.07871 124.565 -12.8233
5.35989 124.488 -12.8891
-20.6895 130.069 1.03456
-14.385 129.664 -4.41419
-12.0908 124.737 4.4899
-22.1226 129.386 4.12739
-17.9896 131.049 -3.83221
20.1582 120.105 -17.7517
5.93177 124.41 -12.9984
18.26 120.587 -16.7776
-22.0035 129.549 3.93143
8.53677 118.226 -1.37982
22.5809 112.241 -2.02003
24.0375 111.13 -0.965184
18.2559 120.857 -17.2002
-8.90051 124.317 2.69353
-8.85814 124.338 2.7134
7.93405 118.222 -0.417419
-10.8091 130.533 -9.36839
-4.6579 121.329 5.38947
17.7463 121.534 -17.9288
-22.0089 129.616 4.20823
15.7506 121.403 -15.5659
14.6907 117.347 -5.19981
-8.80218 130.533 -11.249
29.5486 110.009 -3.53873
3.30897 119.269 2.13151
28.419 113.663 -10.6998
-9.86974 124.944 2.65401
27.4702 114.698 -12.0087
12.0242 118.374 -4.59273
7.99977 123.685 -12.5976
24.9074 110.908 -0.669677
25.4627 116.654 -14.2433
21.0247 113.917 -3.42927
30.3214 110.491 -5.08514
24.5114 117.359 -14.7197
-15.2433 130.947 -5.00382
0.894646 125.826 -9.68411
-9.11806 124.81 2.85852
17.0569 122.036 -17.4627
-5.14446 128.327 -9.1173
27.5226 114.999 -11.8829
-10.1064 131.18 -10.3182
-20.1986 131.264 -0.097973
20.6262 119.873 -15.7364
21.9639 118.771 -14.5754
-20.1754 131.755 -1.1324
-19.6757 132.069 -2.34785
7.88598 118.906 -0.418473
-11.1181 130.788 -8.10961
27.4376 115.222 -11.9273
-4.55153 121.922 5.46971
1.98236 120.101 3.05536
7.66633 118.897 0.0537125
22.6537 119 -15.4779
14.3256 122.605 -15.1521
-12.4132 125.985 4.47732
-15.2246 131.259 -4.63589
-11.0833 131 -8.21443
23.5199 112.319 -0.894504
27.9218 110.857 -1.97907
-7.23545 123.572 5.12224
15.0526 118.167 -5.20485
-5.45505 122.665 5.67598
-14.0581 131.054 -4.67752
-12.1986 126.244 4.40539
25.6956 111.477 -0.541383
-18.3453 132.592 -3.74061
-0.244225 121.139 4.12249
-15.0833 131.796 -5.02216
12.5469 119.377 -4.76381
-7.0734 130.478 -10.002
20.1134 120.349 -14.6028
15.5465 118.312 -5.23927
16.2724 123.236 -17.1666
25.0483 111.981 -0.419553
25.1959 117.801 -13.6572
18.2646 121.497 -14.9561
20.4975 115.591 -3.7464
9.89207 120.044 -3.03201
-14.5258 127.12 5.8133
17.6945 122.27 -15.9901
21.7442 119.095 -12.7524
-1.21693 121.8 4.59778
12.1071 124.006 -13.9563
-19.133 132.854 -2.17409
21.2364 119.259 -12.2607
5.25995 126.258 -11.9198
-17.7864 133.019 -3.69982
17.4039 122.905 -16.5071
-3.27041 122.631 5.23619
-18.4546 129.495 5.11195
-12.6574 131.773 -5.98139
23.8748 118.55 -13.0621
2.04961 121.31 2.92007
-7.38921 125.292 3.48413
-3.55052 122.796 5.26887
-3.97141 129.217 -8.85768
9.43827 124.647 -12.0835
11.6873 120.242 -4.31776
6.13402 126.076 -11.8938
-4.10974 129.348 -8.89794
22.8677 113.986 -1.35938
-4.5794 123.537 4.87677
18.8976 117.124 -4.44209
12.8059 124.279 -14.4935
20.4161 120.573 -13.8005
3.86858 121.205 1.65322
-15.368 128.168 5.51149
-13.0605 131.843 -5.17611
21.7952 114.947 -2.1585
-5.95093 130.607 -9.54749
-13.0652 127.261 5.36851
18.4516 121.973 -14.6702
15.6145 123.887 -15.962
-14.1537 132.185 -4.4896
30.4624 113.565 -7.44359
-2.71805 128.862 -8.44676
13.7561 120.012 -4.98029
23.5349 113.742 -0.616097
29.2365 114.807 -8.73477
16.5469 124.304 -17.4179
12.7351 124.572 -14.1293
16.6492 118.883 -5.09108
-19.7075 133.009 -0.128801
29.7345 112.94 -4.7371
-5.64004 124.831 4.3764
14.2987 124.75 -15.7248
20.731 120.202 -11.9059
-2.02238 128.781 -8.1649
-13.7146 132.213 -4.04406
-20.5619 131.133 5.53562
-8.13534 132.704 -10.7016
-6.57412 125.211 4.89561
9.67005 125.363 -11.986
18.2098 118.364 -4.62191
3.37346 127.522 -10.3435
-20.941 131.613 5.16168
-18.5181 133.481 -1.56774
28.9969 115.645 -9.36149
29.4855 113.22 -4.32043
14.0212 124.773 -14.8558
15.8332 119.653 -5.02141
-7.99053 132.766 -10.5953
1.10934 122.527 3.52673
-19.1463 133.333 -0.309943
-5.93568 131.461 -9.49741
-10.2676 127.264 4.56657
29.5202 113.361 -4.31137
1.87521 122.623 2.81918
26.9655 117.382 -10.8274
11.1516 125.286 -12.6959
13.8098 125.026 -14.8153
-1.39287 128.796 -7.89582
13.7061 125.567 -15.9205
0.462234 122.738 4.06139
12.1692 121.28 -4.49398
-11.333 127.842 4.54843
-3.56103 130.09 -8.51078
20.318 121.14 -12.406
19.7684 121.477 -12.5025
19.6672 121.544 -12.487
20.5287 116.974 -2.82735
-6.13254 125.62 4.6587
-1.55072 123.738 4.32477
-19.3987 133.502 0.329114
27.11 117.444 -10.4578
16.8825 124.936 -16.8168
27.3783 117.356 -10.1727
-6.6814 132.396 -9.71703
13.7846 126.181 -16.4124
10.0081 122.005 -2.97247
26.4728 117.754 -10.0494
13.113 125.886 -14.9654
15.76 120.368 -4.97419
23.3324 119.074 -9.74432
19.899 117.913 -3.58851
-19.2258 133.685 0.419392
-20.6366 132.595 4.38292
28.7965 116.47 -9.24195
-16.656 130.489 5.20516
0.012834 123.417 4.34221
25.5233 117.997 -9.32566
25.8843 114 -0.561622
12.8577 126.213 -15.1184
10.8496 122.075 -3.6023
11.9023 126.427 -14.5748
-20.4816 133.668 2.01852
-12.0952 128.774 4.68397
-19.9755 133.765 1.45576
28.4097 116.891 -9.18273
18.1689 124.147 -15.1928
9.9741 122.442 -2.89125
18.9828 122.848 -12.8217
-19.758 133.923 1.45685
28.8303 116.765 -8.89762
-16.2141 134.256 -2.8316
1.91042 123.834 2.48052
-14.85 130.307 4.81929
1.53326 123.85 2.91982
20.9633 122.674 -14.2057
20.6641 123.439 -15.6328
-12.7521 133.813 -5.18928
-9.45009 133.938 -8.75883
8.85997 126.797 -11.1493
24.9921 118.507 -8.63735
0.315572 129.305 -8.04283
18.0996 119.817 -4.51553
18.9378 123.396 -13.4685
-0.498072 129.592 -7.69197
23.7542 119.67 -9.79505
26.3218 117.905 -8.37575
19.8918 123.709 -14.9943
20.4962 122.166 -12.076
23.0547 120.581 -11.0695
24.8012 118.881 -8.9392
-5.34502 132.356 -8.90166
3.26764 128.938 -9.87769
25.3473 118.472 -8.26494
29.3963 114.945 -4.34114
28.7987 114.887 -3.57739
13.7471 122.165 -4.74333
24.2107 119.698 -9.6574
14.3772 127.058 -16.3694
28.1487 117.388 -8.27203
0.509843 124.526 3.73911
-17.6254 131.733 5.83201
28.2466 115.056 -2.92304
18.098 120.305 -4.51657
0.276441 124.613 3.87533
28.2578 117.354 -8.01895
28.7553 115.204 -3.59499
20.2716 122.81 -12.278
12.9356 122.772 -4.6182
21.0262 123.124 -13.6316
9.68042 127.261 -11.3937
29.8102 115.979 -6.05814
24.0885 120.498 -10.4635
0.0997051 124.935 3.91647
11.2523 123.374 -3.90223
2.95958 129.561 -9.49632
-8.10639 134.89 -10.2167
1.68734 125.128 2.24368
13.9371 127.835 -16.3253
-4.25288 132.475 -8.10643
22.6863 123.113 -14.2019
24.7262 115.971 0.0282447
9.11985 127.823 -11.0346
1.31648 125.394 2.56199
25.5231 119.599 -8.91999
12.3883 128.446 -15.5907
-13.1638 134.649 -3.66559
17.6664 125.402 -13.9212
-16.4504 132.179 5.53429
-18.4923 135.342 0.511364
-12.8269 130.623 5.51307
17.0275 126.558 -15.618
-5.05526 133.275 -8.40364
-16.9461 135.285 -0.771675
-18.6724 135.338 1.14158
20.3998 123.812 -12.4348
-7.40078 135.12 -9.79251
-6.00249 134.332 -9.27655
16.6315 127.096 -15.8231
24.7939 121.055 -10.328
14.8489 128.17 -16.3907
-15.3062 132.036 5.61129
24.13 121.687 -10.9232
-11.4049 130.44 5.46616
29.3684 116.721 -4.82941
-6.65333 129.042 3.87889
5.8193 124.137 2.34452
25.3847 120.705 -9.72656
8.31459 123.865 0.523818
17.6951 126.696 -15.5047
22.0776 118.048 -0.240931
19.5683 125.407 -14.4594
18.5332 121.381 -4.07999
18.8445 125.08 -12.8116
1.09911 126.513 2.1112
-5.21272 128.507 4.00344
-16.407 132.684 5.94331
17.1518 127.194 -15.749
5.28419 124.591 2.59813
12.0947 124.604 -4.35534
22.0197 124.065 -13.2023
-11.0749 136.082 -6.84115
-12.4848 135.503 -4.05064
20.1614 125.234 -13.894
-6.57906 135.284 -9.47328
-15.1409 136.178 -2.66238
25.1248 121.409 -10.0027
1.68218 131.128 -8.19495
27.5144 118.862 -6.53745
1.12365 131.271 -7.85256
23.0528 118.024 0.0950105
9.79395 129.428 -12.3279
-16.5124 136.112 -0.640796
13.4552 124.546 -4.68565
21.5764 118.986 -0.158475
16.5141 126.986 -13.2471
16.9568 127.901 -15.7411
18.4674 122.105 -3.89442
-16.5582 136.248 -0.408933
19.4214 126.974 -15.8594
20.4376 119.989 -0.907149
-9.53649 136.532 -8.0649
7.18397 129.93 -9.84861
-12.9957 136.095 -3.26088
0.161902 131.934 -7.13827
24.3652 117.976 0.0235934
9.89481 130.142 -12.9662
20.8235 127.129 -17.2157
-5.17398 135.069 -8.78891
-6.57827 130.11 3.96529
-2.9614 128.506 4.05393
9.4126 129.981 -11.8856
18.7487 122.098 -3.33288
24.4103 123.567 -12.3671
23.4509 118.431 0.358258
-16.8537 133.584 6.92942
-9.6101 131.24 4.94027
-12.8962 132.149 6.34549
13.521 125.17 -4.68244
-0.212729 132.322 -6.93048
-12.4253 137.307 -5.81334
-1.83413 128.853 2.74799
25.1404 121.922 -8.96604
19.1142 126.102 -12.2348
-16.0899 136.821 -0.762889
-6.48205 130.487 3.9015
8.34334 130.002 -10.1145
28.0507 118.155 -3.1135
-14.7533 133.17 6.31203
7.54285 130.268 -9.77136
24.7929 121.735 -7.88009
-16.5303 136.834 -0.0521475
12.2461 130.595 -15.1463
10.25 130.792 -13.5486
18.5689 127.569 -14.6571
17.1253 127.581 -13.0785
2.58213 132.048 -8.40564
1.98668 132.228 -8.14756
28.1892 119.027 -4.59736
-13.9083 133.027 6.45197
13.5842 125.612 -4.66431
1.70379 132.375 -7.92573
16.3976 128.57 -14.2306
-9.70912 137.412 -7.73276
-11.5356 137.712 -6.53915
9.09944 130.69 -11.5586
4.59306 131.557 -8.92265
20.8083 126.25 -13.3243
-7.77366 131.424 4.07028
-4.22654 135.096 -7.90245
-14.6319 137.222 -2.11646
-19.4707 136.795 3.86767
19.6804 128.269 -16.6032
20.7562 126.258 -13.0155
-4.6754 135.62 -8.38671
17.4605 123.99 -4.37785
10.7517 131.275 -14.1385
26.4393 120.971 -6.5955
10.0661 126.022 -1.39819
-2.62228 130.02 2.45146
-6.45323 136.917 -9.35583
20.7654 128.273 -17.3867
8.11481 130.788 -10.0878
20.6063 126.56 -13.086
7.26261 130.957 -9.48699
10.541 131.462 -13.9468
6.50279 126.136 2.33717
-6.67581 137.197 -9.42785
-14.1175 137.421 -2.33366
19.9195 126.282 -11.622
18.8013 127.237 -12.5358
19.5954 121.939 -1.24412
-15.8769 137.514 -0.480877
2.67364 132.61 -8.11085
4.59812 127.108 2.4996
26.4656 123.888 -12.4495
-12.8877 137.742 -3.87492
19.1753 122.748 -2.36559
7.89145 126.287 1.10024
19.0614 122.931 -2.57945
-3.91519 135.464 -7.63711
17.4128 124.449 -4.24586
4.62065 132.105 -8.59575
13.6592 131.194 -15.7243
-15.5415 134.272 7.09583
19.4009 127.873 -13.9555
22.4424 125.457 -11.5282
27.5268 119.96 -4.15459
3.079 132.671 -8.12311
-0.139857 129.657 2.10901
27.496 119.972 -3.98277
16.8156 125.029 -4.60448
-9.28666 132.53 4.94269
-6.91161 137.666 -9.16189
21.3811 126.215 -11.7761
0.601576 133.349 -6.78902
3.86026 127.813 2.5215
22.5263 125.48 -11.183
2.63369 132.994 -7.9064
22.8219 124.914 -10.0698
10.8122 127.385 -3.4052
-5.37256 136.903 -8.54144
25.3508 122.943 -7.98244
7.96139 126.795 1.04981
14.422 126.428 -4.69347
-2.66373 130.899 2.55434
-17.2432 135.596 6.77491
9.14643 126.931 -0.375862
16.4609 125.539 -4.59491
23.4637 124.687 -9.75942
12.0928 131.896 -14.4994
18.5327 129.338 -15.2009
2.67309 128.596 2.78448
-13.3235 134.066 6.69529
22.5171 120.762 0.494688
19.6367 127.297 -11.3829
-10.0452 133.126 5.69072
-18.4342 138.161 2.78169
4.03774 132.895 -8.11052
-3.40757 135.806 -7.15343
2.84049 128.654 2.80103
-18.5156 136.944 5.70245
24.116 124.849 -10.0789
24.7128 122.799 -5.99041
25.9118 124.186 -10.2441
15.0779 131.602 -15.9456
10.1275 127.374 -1.1527
-5.73858 132.546 3.2407
14.342 127.028 -4.65133
-16.1358 135.637 6.90609
4.50697 128.273 2.7213
22.661 128.963 -17.3208
7.89079 132.493 -10.2693
23.297 124.981 -8.79801
19.0647 123.939 -2.09742
20.1452 126.95 -10.0283
26.7751 124.774 -11.6902
24.7953 123.361 -6.42873
19.0327 124.076 -2.14901
18.9686 129.291 -13.921
9.25714 133.119 -12.6718
18.7437 129.112 -13.1427
-4.64081 132.665 2.62338
26.4082 120.94 -2.26182
0.481264 130.757 1.79846
14.4446 127.336 -4.62422
-13.7535 138.573 -1.463
5.21418 133.262 -8.62545
23.6638 128.704 -17.0397
-2.75428 131.959 2.50346
-6.10147 138.435 -8.83635
4.06253 133.46 -7.81877
25.7983 123.788 -7.88818
5.38055 133.292 -8.71848
25.4516 122.014 -3.43193
26.0958 120.998 -1.72817
18.2784 128.122 -9.97141
0.0125092 134.731 -6.35948
-11.6176 134.583 5.86963
23.7954 128.838 -17.1436
-5.13858 133.085 2.72501
25.2513 124.678 -8.93464
24.7824 123.14 -4.89543
-9.61596 139.666 -7.44182
18.979 129.468 -13.3478
23.4123 129.201 -17.2554
-4.33321 132.938 2.58519
16.7672 130.503 -13.3314
18.1416 129.018 -11.2804
21.1633 126.286 -8.12776
19.0969 129.537 -13.4143
20.335 126.802 -8.38359
-14.9999 135.883 6.97013
19.2243 127.503 -8.77156
10.5523 128.16 -1.34016
18.0655 129.113 -11.1138
18.9745 127.658 -8.65782
19.1441 127.549 -8.57867
-18.186 139.286 2.85178
17.5219 130.128 -12.5791
-8.43123 134.338 4.52883
11.6847 133.408 -13.8388
23.6944 129.683 -17.5826
-7.19635 139.52 -8.43883
-2.54816 132.681 2.42324
18.4679 130.003 -12.8924
-14.2904 136.02 6.83284
-15.1677 139.483 -0.169691
12.3761 128.849 -3.99534
25.9812 128.757 -17.6127
1.24583 131.46 1.59574
-0.404364 135.625 -6.13812
-17.0018 137.549 6.4208
-5.90432 134.016 3.16486
25.8778 122.041 -1.9302
18.1696 130.025 -12.242
-12.9232 139.43 -1.86101
24.906 124.252 -5.82452
19.2754 127.536 -7.56848
-7.87367 139.982 -8.24595
21.1933 123.117 0.592077
-4.83597 133.786 2.85576
-18.0949 139.354 3.69538
22.1635 127.328 -9.9508
-9.1937 134.531 5.65118
23.6917 130.026 -17.6293
22.8363 126.83 -9.39574
18.347 130.062 -12.1346
-6.19391 134.447 2.93444
9.95178 134.024 -12.5339
25.8674 124.816 -7.74479
25.7192 122.153 -1.50055
13.1188 133.642 -14.8215
-17.6635 138.391 5.76632
-3.5616 133.534 2.48758
-8.49637 135.175 3.89036
-6.74529 139.72 -8.25483
-12.767 139.677 -1.91883
-2.85356 133.416 2.29396
27.5617 124.885 -9.26601
7.49689 134.502 -10.7068
16.9176 127.458 -4.1802
24.5172 123.587 -3.09905
21.6827 128.047 -10.3716
24.8396 123.759 -3.80163
9.75839 128.988 -0.335918
25.8951 128.38 -15.3234
27.2173 124.978 -8.90534
27.6551 124.986 -9.24148
17.3369 131.584 -13.7348
-17.5274 138.695 5.63719
10.1489 129.054 -0.609132
-13.819 139.883 -0.755922
25.4696 128.769 -15.4114
12.0833 134.176 -14.0856
22.6308 127.025 -8.43846
22.578 126.421 -6.96362
6.79066 129.417 2.32994
19.5548 131.663 -15.8107
25.2177 128.995 -15.4802
-8.75253 140.727 -7.56121
10.4423 129.188 -0.786676
9.86503 129.264 -0.334774
-8.16734 135.591 3.69938
5.11721 134.991 -8.45316
0.319708 132.619 1.93962
25.839 128.829 -15.3328
11.6128 130.062 -3.55787
21.3548 127.266 -7.05673
18.8682 130.303 -11.3533
11.1723 134.642 -13.2836
24.3237 126.305 -7.6712
10.8587 130.16 -2.57252
25.3247 125.955 -7.69801
16.538 131.513 -11.3846
-5.10808 135.064 2.63568
17.2323 131.751 -12.4514
19.3707 130.173 -11.0067
12.3379 134.781 -14.0942
17.5519 131.121 -11.0428
7.16089 135.428 -10.2521
18.74 126.577 -1.85605
-15.4869 140.955 0.288824
21.5937 127.684 -7.25631
7.30943 135.518 -10.532
7.69519 135.705 -11.2538
20.6465 124.695 0.691106
-9.99222 136.124 5.90415
-3.04507 134.545 2.47252
-17.3581 140.675 3.14294
11.2216 135.094 -13.2085
16.523 131.236 -9.81576
-17.5599 140.457 3.93009
25.6997 126.078 -7.39737
16.489 131.361 -10.0216
16.5918 130.886 -8.90259
-4.81982 139.742 -7.22417
20.4774 129.825 -10.4048
21.572 127.641 -6.50871
-0.980891 133.959 2.10518
-2.85571 134.693 2.39575
21.4917 124.575 0.698958
-3.30153 138.896 -6.67387
17.3797 131.988 -11.7944
15.9709 129.296 -4.20725
-13.3837 140.921 -0.717677
3.91342 132.262 1.39062
6.22155 130.743 2.50337
16.3634 132.33 -11.4617
3.68801 132.384 1.37872
2.7083 136.295 -6.50566
21.4109 132.207 -16.2416
0.390682 137.045 -5.81568
25.1454 126.396 -6.73283
22.2968 127.533 -6.39869
17.0202 132.997 -13.3725
-6.20835 140.91 -7.68055
11.0647 131.094 -2.87224
24.6174 125.3 -3.47437
21.0708 129.044 -8.37811
16.0881 133.872 -14.2439
-6.43311 136.64 2.67036
-12.4719 141.954 -3.29061
25.038 126.711 -6.64423
12.0269 135.524 -13.457
18.0495 128.191 -2.8572
24.3814 127.596 -7.88088
1.61931 137.063 -6.09543
24.3273 127.065 -6.3018
17.6977 132.277 -11.4246
-2.45315 135.327 2.2033
20.0456 128.86 -5.81782
18.9848 131.53 -10.8084
16.2544 132.565 -10.3781
20.2272 128.875 -5.95685
-12.6591 142.168 -2.69222
22.7742 127.988 -6.41837
18.2824 132.081 -11.1746
-0.546277 138.136 -5.76708
-6.0345 141.303 -7.39376
11.1872 131.769 -3.20463
24.6536 127.684 -7.58312
19.3225 130.844 -9.33082
22.3649 128.338 -6.64759
12.9105 135.739 -13.8662
16.1576 133.369 -11.7527
30.8138 126.695 -11.4722
24.6602 127.787 -7.62765
22.7205 128.179 -6.51761
18.543 132.041 -11.0359
11.7718 135.99 -13.1096
8.85393 136.606 -11.5034
23.0674 128.324 -7.04125
10.1233 136.248 -11.8822
23.0387 128.185 -6.64923
16.3021 132.534 -9.69943
-8.03086 137.619 3.57514
-10.504 137.748 5.81744
24.1858 125.292 -1.12075
-12.7887 142.111 -1.69699
26.6662 130.277 -14.9103
19.0989 126.987 0.39342
25.5689 127.32 -6.95811
20.5932 130.206 -8.42215
17.8318 129.002 -2.83984
20.425 129.693 -6.93094
-8.92232 142.714 -6.62371
18.2521 131.602 -8.96685
19.939 126.815 0.235816
20.7509 129.112 -5.82747
17.6935 132.966 -11.4538
-10.9263 138.043 6.17238
-9.56752 142.852 -6.12572
-9.00658 142.795 -6.55146
17.1375 134.167 -13.4922
19.8802 129.488 -5.60743
20.0092 130.755 -8.62583
1.4747 134.73 1.41327
23.2722 131.73 -13.9789
19.6987 133.476 -14.3072
-11.9446 142.707 -3.04315
22.7071 132.155 -14.3223
24.0239 126.047 -1.70339
-2.51336 136.25 2.14809
20.612 129.414 -5.75536
18.3719 131.868 -9.0613
3.95696 133.863 1.17162
4.21409 133.75 1.1741
24.1405 126.431 -2.25476
4.22216 137.509 -7.18214
-1.01385 135.878 1.94322
-0.763935 139.058 -5.56222
0.526556 138.516 -5.55367
20.4797 129.66 -5.66793
17.2975 130.006 -3.19236
19.6804 131.113 -8.14423
18.9868 134.07 -14.1714
-3.00001 140.375 -6.00234
17.7024 132.998 -10.2091
-12.5943 139.102 6.7858
29.7185 127.464 -9.81772
26.9585 130.682 -14.3319
14.5951 131.76 -4.14625
17.9456 132.974 -10.3113
6.23845 138.071 -9.94442
19.7536 127.732 -0.0789325
19.8015 132.15 -10.1946
19.5418 130.239 -5.56219
-9.64263 143.526 -6.07841
-7.0906 142.952 -7.25535
-4.36412 137.906 1.50372
17.2771 133.179 -9.72212
-5.2484 138.262 1.69077
23.8181 132.035 -13.7253
24.2668 128.778 -6.58199
21.1256 128.263 -2.01394
24.0976 129.43 -7.6763
15.9839 134.694 -11.3881
18.7122 128.36 0.3283
22.5016 128.302 -3.23622
20.5207 130.463 -6.13803
-8.07989 139.054 3.47935
-14.92 140.853 6.36863
27.8133 130.24 -12.9383
20.25 128.401 -0.96242
-15.8903 141.773 5.40903
-11.4925 143.634 -3.26543
12.8914 133.099 -4.00129
18.7262 134.881 -14.0027
-3.45164 137.874 1.80513
-0.439574 136.525 1.81369
12.9192 133.114 -4.01146
21.1963 133.649 -13.6446
17.6145 129.496 -0.508242
15.1813 132.168 -4.01875
19.6216 128.38 0.163387
-10.6808 144.099 -4.70781
-7.03627 139.344 2.44909
-0.589452 139.945 -5.42039
-7.06167 139.422 2.46183
25.4447 128.443 -5.5847
3.33926 138.926 -6.81323
-10.3876 144.245 -4.92098
-15.2364 143.633 1.60806
18.938 133.148 -9.30216
-2.92543 138.003 2.00038
6.17979 134.434 0.864594
-12.6847 143.295 -0.0487712
28.918 130.073 -12.1828
-10.7938 140.148 5.40078
-15.0529 141.815 5.94962
-9.45689 144.516 -5.90406
-14.861 143.819 1.27786
25.6493 128.684 -5.4711
22.986 133.195 -13.0412
17.8553 135.849 -13.6345
5.81263 135.001 0.7777
-10.1284 140.358 4.82894
1.37515 136.765 1.2986
16.6964 134.344 -8.6662
25.1284 129.355 -5.80843
4.59368 139.718 -8.4277
19.8328 129.325 -0.206325
17.0012 135.94 -12.3663
-8.14067 140.367 3.28768
11.9798 134.078 -2.85006
28.2865 131.683 -13.7996
2.05012 139.981 -5.95111
-12.1502 144.119 -0.875051
-11.7383 140.719 6.46573
0.529144 137.434 1.45344
16.6279 134.683 -8.51312
-14.9988 144.166 2.18771
-15.4647 143.773 3.82956
-11.1667 140.905 6.01225
5.92243 135.651 0.629264
-2.21402 138.68 2.20561
-1.28739 138.395 1.9362
32.4495 128.463 -9.62823
24.3149 130.894 -6.79825
-10.6676 145.406 -4.19382
10.5623 134.897 -1.86576
-11.5499 141.173 6.4573
7.00129 135.471 0.620184
14.5722 134.1 -3.94637
-9.86204 141.373 4.47909
32.6307 128.54 -9.58624
20.8607 130.21 -1.38346
8.02245 135.026 0.733757
21.8839 134.918 -13.1488
21.3719 130.287 -1.99998
12.9627 138.87 -12.986
-1.95418 139.037 2.05551
-9.9903 145.755 -4.9663
27.2037 129.408 -5.5991
1.80573 137.877 1.02823
-5.05053 140.534 1.98592
28.5944 129.427 -6.93357
8.30265 140.444 -11.336
29.7027 130.891 -11.3743
27.35 129.455 -5.63071
-0.0873688 138.611 1.50077
22.1047 135.082 -13.0929
28.9317 132.276 -13.644
-8.63156 145.768 -5.99859
-9.46502 145.961 -5.52083
17.2976 136.406 -11.0281
0.355311 141.425 -5.11597
7.74115 135.636 0.575478
22.8244 130.709 -3.48829
26.4756 129.725 -4.95703
-5.33258 140.962 1.87018
18.2012 131.251 0.0552241
11.9745 135.161 -2.40425
17.3096 132.399 -1.46527
-7.32623 141.732 2.45761
20.5861 136.137 -13.2557
9.47023 134.792 1.18308
-9.31031 142.046 3.87136
-1.55294 142.451 -4.9662
18.3781 136.522 -11.7608
33.2673 128.854 -9.34012
-14.8982 144.466 4.22848
23.9019 131.88 -6.6324
10.6833 140.048 -11.6688
5.08336 137.189 0.592599
12.8912 135.596 -3.61181
32.946 129.014 -8.8734
28.0919 129.849 -5.72705
29.0811 132.583 -12.9137
33.8899 129.022 -9.68676
18.3759 136.818 -11.6362
3.64071 138.046 0.716668
16.6186 136.887 -9.84624
23.1348 132.313 -6.03198
-1.45591 142.828 -4.86845
-14.6544 144.876 3.97337
17.8171 136.63 -10.285
24.6943 134.42 -12.2189
22.1085 132.052 -4.16723
29.6966 129.988 -7.16775
4.67883 137.804 0.624728
25.0997 131.393 -5.50984
-1.75921 140.231 1.78623
14.6619 139.699 -13.7339
21.9707 132.26 -4.16429
19.3851 132.066 -1.06274
18.1863 137.331 -11.6691
9.89433 140.98 -11.4727
5.45514 141.856 -8.90963
-0.392824 139.984 1.41849
9.80171 135.646 0.925424
25.2217 131.428 -5.1767
29.0907 132.838 -12.1207
-8.90199 143.028 3.44155
-11.0708 143.084 5.61975
-13.88 145.876 2.2185
-10.1167 147.08 -4.28986
29.0754 132.841 -11.7757
24.3097 135.149 -12.1706
-8.43602 143.166 3.05733
4.04655 142.253 -7.59518
3.39668 139.059 0.697246
18.0813 132.765 0.192572
-2.92561 144.356 -4.74167
27.0818 134.743 -13.3788
10.9834 137.144 -2.38719
0.597551 143.058 -5.18901
31.1614 130.238 -7.0578
31.7533 131.392 -10.1734
29.189 133.391 -12.1048
30.1631 132.665 -11.3545
31.6017 130.768 -8.451
-10.9975 144.092 4.65815
-4.08074 142.251 1.82782
18.4269 138.347 -12.1899
-12.1562 144.432 5.16307
25.0319 135.406 -11.9639
-10.3395 147.638 -3.7653
20.6736 137.647 -12.4507
11.0132 137.526 -2.2662
-0.0327311 140.974 1.1666
9.74138 136.809 0.706851
18.5294 138.11 -11.187
25.9393 135.09 -11.8336
16.3759 134.934 -1.63303
18.4411 137.599 -9.74522
16.3543 134.981 -1.55611
22.2681 133.534 -4.16063
-12.8543 146.74 1.59442
17.5745 138.086 -9.65614
1.5998 143.639 -5.95513
33.9145 131.27 -10.6159
20.6313 138.033 -12.3313
17.6193 138.567 -10.0372
34.1484 131.318 -10.3563
14.4342 137.162 -3.52787
30.9016 132.469 -9.57741
-11.0215 148.022 -2.22736
30.4717 132.415 -8.93866
17.1318 138.786 -9.85262
15.0723 136.963 -3.57086
3.27305 140.155 1.22453
32.4638 132.221 -10.3277
-0.430747 144.432 -4.5801
28.8144 134.95 -12.7432
29.2985 134.188 -11.3751
27.4535 135.545 -12.5665
3.32876 143.955 -7.00955
9.86125 138.462 -1.03748
18.472 134.416 -0.561891
16.5899 134.898 0.274133
29.1592 132.949 -8.05234
16.4984 140.372 -11.9753
15.457 137.074 -3.36796
27.5464 135.714 -12.5786
29.6518 132.223 -6.70865
1.64926 144.504 -5.96259
11.5366 138.505 -2.2898
16.3228 140.464 -11.6431
2.85244 140.744 1.48339
30.7683 134.06 -11.6855
6.64902 139.317 1.12165
29.332 134.056 -9.99457
27.4089 132.309 -4.00444
-6.81469 148.082 -5.05344
17.2347 139.34 -9.60984
0.199704 144.913 -4.83522
27.9681 136.077 -12.8621
31.3301 133.701 -10.8381
6.152 144.275 -9.23633
27.2485 132.577 -3.97003
9.99929 138.77 -0.375436
13.5013 142.206 -11.6169
21.5821 134.645 -2.57462
15.5433 137.416 -2.64829
29.4545 132.52 -5.64331
29.7952 134.991 -11.5914
-12.2697 147.07 3.78257
30.6297 134.707 -11.7111
28.6937 132.524 -4.72943
18.7826 140.139 -11.9674
33.9427 132.586 -10.134
-8.73927 149.043 -4.03341
-11.5439 148.536 0.0468013
28.9778 133.612 -7.19524
29.5077 135.497 -12.0053
17.0255 139.703 -8.7677
22.6431 134.806 -3.29764
-11.1923 146.806 3.94181
18.4671 135.339 -0.0490432
18.6079 140.268 -11.4315
-5.04027 147.929 -4.72255
20.2802 139.794 -11.994
15.0419 141.485 -10.4857
27.3548 136.582 -11.8608
-11.369 147.009 3.94536
8.64798 139.47 0.722447
-10.0832 149.484 -2.93081
-10.8569 149.396 -1.93352
-11.0369 146.976 3.86097
4.67961 145.079 -7.8474
-9.31011 146.482 3.25404
7.71707 144.684 -9.88526
33.0483 133.352 -9.8415
17.4734 140.349 -9.87089
3.70259 145.271 -7.03014
18.2517 139.88 -9.48065
28.8142 133.194 -4.83132
8.99247 139.585 0.85904
3.47295 145.464 -6.88376
24.0476 137.893 -10.605
3.50035 145.472 -6.89754
25.6978 134.049 -3.45646
1.01417 142.74 1.90634
17.5148 139.837 -8.19009
31.3534 134.49 -10.0692
0.025776 146.274 -4.76617
24.0544 134.763 -2.91078
13.9768 142.678 -10.685
13.1069 139.726 -2.9829
9.9973 139.332 1.15181
15.6953 141.624 -9.73378
30.6126 135.938 -11.9538
29.1138 134.116 -6.00079
20.1378 140.615 -11.5613
9.65535 140.225 0.138322
-8.27649 149.865 -3.55133
28.2198 135.413 -7.73956
-2.28058 147.365 -3.86387
24.5308 135.108 -3.13097
27.4942 137.466 -11.5196
29.1125 134.343 -5.91851
-4.88044 148.807 -4.22486
30.5254 136.438 -12.1132
29.8576 136.483 -11.3304
19.2482 136.456 -0.388372
17.6292 136.84 0.402252
9.66741 140.793 -0.459703
30.1922 136.721 -12.0746
2.96673 146.484 -6.51423
28.1767 135.659 -7.52514
-8.37921 150.144 -3.23822
10.6361 140.668 -0.872377
2.31801 143.273 1.83449
10.1603 145.187 -10.5071
26.0249 137.784 -9.80094
23.4258 139.169 -10.2805
29.926 136.743 -11.3467
29.6137 137.275 -12.1056
18.0606 140.585 -7.85274
10.8289 145.1 -10.7353
22.805 139.683 -10.5492
17.2238 141.321 -8.58509
-11.0052 150.197 0.0395941
6.95079 146.168 -9.04963
18.7677 136.977 -0.111304
22.8619 136.287 -2.64126
-4.8691 149.304 -4.00319
19.6415 137.07 -1.07974
4.66341 146.813 -7.67282
8.04949 141.23 1.64115
-9.99388 148.748 2.9126
6.01854 146.591 -8.48469
18.4326 140.989 -8.29452
2.79049 147.2 -6.42734
28.3118 135.45 -5.52156
14.3175 140.607 -2.94382
10.0762 140.893 0.816503
28.8215 135.469 -5.84696
-9.35659 150.832 -1.91047
2.27144 147.491 -6.11575
6.38539 142.862 0.375982
9.62194 141.882 -0.654729
21.0498 137.345 -1.8734
13.3351 141.151 -2.67774
-4.00093 149.257 -3.40395
-10.3617 150.221 0.909013
16.1498 139.038 -0.556544
-10.0079 149.756 1.80901
29.1421 137.414 -9.97958
23.7929 139.761 -9.83613
6.94843 146.855 -8.81113
29.2381 137.491 -10.0804
28.2901 138.395 -10.9474
15.2825 143.289 -8.58468
16.8224 141.84 -6.68283
-6.2918 150.88 -3.54239
-8.36657 151.296 -2.11264
20.2382 138.1 -1.1738
10.0328 142.21 0.10474
10.3788 141.608 1.26245
20.0736 142.383 -10.2824
14.866 141.25 -2.35524
1.95784 148.584 -5.81582
-9.40186 151.57 -0.890157
24.5224 140.09 -9.04716
27.7153 137.685 -6.75092
-7.13075 149.641 1.65874
9.99813 142.745 -0.0552212
12.2998 145.78 -9.27193
28.5667 139.021 -10.4394
20.458 142.561 -10.0011
24.8927 137.655 -3.32165
16.1671 142.865 -6.25272
15.8854 141.136 -1.30038
18.0865 139.546 0.161666
9.02189 147.694 -9.03752
15.5636 143.642 -6.41359
25.1459 140.284 -8.37635
18.8137 143.226 -8.46243
18.0507 142.938 -6.86247
-2.59793 150.563 -3.15845
-0.132069 150.028 -4.4459
-7.839 152.182 -1.49555
21.5645 139.143 -1.56538
-5.93473 151.98 -2.68466
17.2699 140.071 0.867663
14.79 142.433 -1.72173
17.1842 140.272 0.962628
16.5254 140.984 0.0476852
15.1411 144.603 -6.39985
18.3062 143.436 -6.91817
4.76409 149.44 -6.73152
-0.775063 150.765 -3.97421
12.169 144.205 -2.00821
10.6171 144.713 -1.45057
-5.93645 152.464 -2.01522
24.9081 141.261 -7.92981
18.6555 140.449 0.355498
24.1034 141.983 -8.45809
27.1222 138.948 -4.38897
25.2599 139.198 -3.05799
8.74802 144.735 1.18301
3.15133 150.398 -5.81428
15.5013 142.618 -0.636908
9.51676 145.17 -0.282039
10.3129 148.435 -8.53634
1.60311 150.844 -5.05226
7.7232 149.269 -7.543
-5.82007 152.773 -1.66333
20.3489 144.173 -8.51476
14.6087 143.638 -1.36016
26.7207 139.413 -3.91901
16.5039 142.136 0.603946
10.2006 144.525 1.61602
10.2343 148.785 -8.13606
16.8049 142.063 0.58458
17.9875 141.613 0.507193
-0.0232539 151.863 -4.24584
13.9007 147.193 -7.78138
9.81153 145.196 1.14973
-6.66027 153.522 -0.797771
2.62786 151.372 -5.25438
19.6069 144.983 -7.95644
1.07114 151.814 -4.61734
15.7339 143.182 0.119065
25.8074 141.869 -6.9489
14.8936 146.389 -5.77328
17.8723 145.076 -5.74269
9.20245 146.67 -0.457728
17.6296 145.235 -5.35741
-6.22343 153.847 -0.591962
1.92085 151.945 -4.5564
27.7388 141.169 -6.2536
18.3163 145.568 -6.66581
24.0586 143.488 -7.70685
22.0126 141.805 -1.14636
15.5246 144.119 0.202159
18.1356 142.994 0.174388
18.7393 142.74 0.152692
17.7127 143.259 0.185848
-4.57427 153.987 -1.54125
14.1444 147.813 -6.23123
12.3507 146.685 -1.46998
13.7047 148.362 -6.67168
-4.54749 154.266 -1.44684
8.92118 147.547 0.477188
25.4324 143.15 -6.20498
24.081 144.26 -7.32773
11.0123 147.422 -0.923688
-0.0202721 153.305 -3.05964
18.9108 146.624 -6.65235
18.2619 146.767 -6.08569
3.98927 152.439 -4.28567
12.0962 150.036 -6.91416
22.5121 142.952 -1.30463
9.89822 151.031 -6.80373
2.25007 153.056 -3.33973
12.8639 149.595 -6.12284
17.9479 146.987 -5.20858
26.7636 143.034 -5.16688
22.558 143.242 -1.28854
