ply
format ascii 1.0
comment Created by Open3D
element vertex 1911
property double x
property double y
property double z
end_header
1.98395 106.805 7.93403
-24.6216 101.496 -13.0612
-7.19469 107.571 -4.91338
-37.84 90.2684 -4.71336
-15.1611 107.762 -15.0408
7.29749 111.957 3.36627
-1.8484 108.284 0.218504
4.32702 117.614 -12.538
-15.4527 107.689 -15.0542
-33.4921 92.0812 -3.10638
-7.77986 111.706 -14.3668
-25.2625 101.334 -13.1354
-34.4465 95.2289 -11.067
-38.6896 91.8059 -8.79299
15.7534 121.906 -7.73763
15.38 120.451 -5.01316
-2.67425 104.834 6.95762
-31.5961 97.6913 -12.7567
-37.2641 90.7902 -4.5601
5.83306 115.227 -4.96851
6.65549 115.104 -3.69338
-25.7552 101.288 -13.2293
-13.3046 109.02 -14.7721
12.2242 120.576 -8.62775
-37.7507 93.4465 -10.5693
7.41891 114.989 -2.22356
-24.0359 102.445 -13.367
11.8715 118.262 -3.86403
-20.6845 97.1254 2.39636
-9.35544 111.146 -14.272
-31.4213 94.0268 -3.95586
5.71457 115.272 -4.74294
7.28364 113.983 0.0113973
8.29449 114.509 0.109309
-5.8671 109.047 -5.27674
-9.14862 111.335 -14.2773
-33.3472 92.8625 -3.62285
-18.997 105.547 -13.7014
6.46193 114.911 -2.93224
6.73219 115.045 -2.86746
-39.2267 91.547 -7.9086
-17.5723 99.2656 1.87597
9.86865 119.572 -8.70711
-30.7855 98.757 -13.0971
-1.56597 108.678 1.16887
10.38 118.376 -5.2979
-39.1345 91.1381 -6.51703
-6.31294 109.006 -5.26076
6.68605 114.429 -1.15279
-30.8782 98.7925 -13.0601
8.3378 116.008 -2.52605
-16.1268 108.113 -15.2067
15.9344 121.203 -4.44546
-30.2959 99.2936 -13.2743
11.7547 119.088 -4.87633
-1.70752 108.175 2.43243
-32.6115 97.4553 -12.0032
13.6391 118.435 -1.04742
14.0058 122.206 -8.80957
14.5416 122.505 -8.76226
8.14032 116.347 -3.1415
-23.363 103.51 -13.6768
-2.75916 114.552 -12.4629
-8.91836 105.923 -1.17522
-13.3854 102.462 0.955248
-29.5473 100.047 -13.4577
10.774 117.891 -2.91624
12.9618 121.937 -9.02463
-35.6409 95.2808 -10.3946
-4.95139 113.629 -12.7446
-12.6983 110.211 -14.7695
-19.1718 106.155 -13.8216
15.6353 120.317 -1.95145
-20.5988 97.8316 2.7379
-1.5264 110.075 -0.589107
15.1553 122.655 -7.55964
-2.05961 111.248 -3.66322
-8.05266 107.182 -2.11702
-20.359 105.403 -13.2891
0.512655 107.354 8.02922
18.5727 125.631 -9.58865
-38.5881 91.9307 -6.08908
9.15654 119.52 -7.74404
16.5065 123.505 -7.42432
16.5599 124.774 -10.0708
16.8648 124.764 -9.67411
7.81737 114.932 0.700414
7.91942 114.289 2.2447
-11.3855 104.508 -0.0611183
1.93759 117.652 -12.3913
11.9178 118.127 -1.20013
11.4546 119.771 -5.32173
-11.7475 104.235 0.144275
-39.2848 92.6452 -8.30814
-11.9044 110.985 -14.7125
-39.1558 93.4108 -9.7649
-39.2334 92.6775 -8.20867
-39.0178 92.3776 -7.28089
-35.1708 96.0968 -10.6557
-14.3588 109.853 -15.1431
7.37289 113.848 2.86806
-1.85481 107.297 5.8554
-1.42909 109.285 2.14966
-34.0542 96.9844 -10.9617
-39.0907 92.784 -7.95228
7.9033 114.465 2.3692
-24.4151 97.5304 -0.215454
9.74812 117.136 -1.10243
5.71453 119.989 -12.243
-34.2158 94.3136 -5.0701
18.095 123.759 -5.20016
13.1454 122.738 -8.99385
7.91646 117.649 -4.26561
14.1144 119.758 -1.26254
14.4726 119.84 -0.965711
0.106969 107.72 8.07375
2.48506 109.268 7.61805
3.01371 118.856 -12.6234
6.57721 117.215 -4.67902
-30.2424 100.451 -13.1987
10.0538 119.744 -5.90482
-32.9738 94.8688 -4.3594
8.92972 117.918 -3.27025
-38.8111 93.1062 -7.58284
6.9158 117.567 -4.84303
-22.2196 105.198 -13.4496
16.1109 120.453 0.272149
8.98301 119.951 -7.34141
-1.0845 116.878 -12.9201
-39.2204 93.7297 -9.13424
10.5728 120.101 -5.64645
-31.802 99.5698 -12.7059
5.98137 120.565 -12.1848
16.8161 124.763 -8.0568
17.4468 123.432 -4.34932
-8.12111 113.594 -14.1944
0.736428 117.957 -12.7924
9.01577 118.201 -3.17692
-15.5096 102.375 1.34443
-19.3713 99.775 2.33032
18.5 124.404 -4.93906
-33.1741 98.7832 -12.3357
-20.541 98.7675 3.17878
-35.6244 94.0616 -5.02395
10.3787 117.715 -0.237363
15.2188 123.215 -6.22824
5.46254 111.632 7.16467
9.9493 121.638 -9.13893
-32.5951 95.3437 -3.90971
-8.59948 107.329 -0.64331
8.26799 118.533 -4.33884
10.6111 121.087 -7.01382
7.71938 115.199 2.28338
9.53721 119.984 -5.88696
16.1691 121.076 -0.124174
9.34664 119.809 -5.68709
-5.00237 114.967 -12.6353
-17.8292 108.885 -15.0806
8.28363 119.879 -7.07234
18.4796 126.66 -9.35497
-1.68593 109.319 3.75942
-16.1343 109.693 -14.7169
6.97406 118.299 -5.08943
6.92111 119.427 -7.46749
-24.7282 98.2158 0.0267845
15.3827 121.026 -0.565392
-36.8205 93.716 -4.90204
9.53184 120.891 -7.29755
-32.7455 95.5882 -3.88348
-22.9663 98.8324 1.13933
18.44 126.327 -8.08541
6.29596 112.683 6.88358
-11.8662 105.692 -0.110402
11.8261 123.121 -9.04108
-27.8318 103.03 -13.6832
4.92217 111.77 7.38701
18.4745 126.172 -7.33648
10.6543 119.039 -1.32062
-33.0868 95.7339 -4.02286
18.6964 125.645 -5.7799
9.47656 117.545 0.601074
-4.97206 115.505 -12.5999
-33.2903 95.7244 -4.15112
10.6281 119.516 -2.16857
-28.6534 97.1606 -1.52585
7.88459 114.846 4.66256
-15.7558 103.211 1.15362
-34.4073 95.5322 -4.93068
-3.86424 116.182 -12.4833
10.5919 121.015 -5.21652
-1.87045 108.824 6.12484
7.45818 121.587 -10.2216
18.5921 126.901 -8.159
-26.0106 104.522 -13.9435
11.1318 119.368 -0.706203
14.7749 120.927 0.375076
18.2245 124.91 -4.02073
19.1425 125.789 -4.78458
-30.3427 101.732 -12.9307
9.05279 119.452 -3.31614
18.6708 127.01 -8.01096
16.3587 123.526 -3.24479
-1.27623 110.414 3.74978
8.34735 121.197 -7.89146
-28.476 97.505 -1.28474
-26.7646 98.1229 -0.529341
-12.3545 112.711 -14.5646
-9.74962 113.965 -14.0828
-9.27544 107.849 -0.0605844
-35.0298 98.6032 -11.4133
18.4477 125.255 -4.03088
-28.7497 97.5289 -1.3813
3.71236 111.583 7.73051
-19.5806 108.791 -14.6964
-0.886792 113.879 -2.83823
7.89611 119.972 -5.25548
-29.0686 97.5018 -1.52751
-22.5083 106.686 -13.3969
-3.98885 113.178 -4.87385
10.203 120.874 -4.2705
9.68419 122.716 -8.89128
-0.6858 113.211 -0.826315
7.45046 115.076 5.1733
-21.8315 107.283 -13.6501
-7.38623 115.506 -13.8747
-7.46879 109.868 -1.63317
-0.832568 112.08 1.68205
8.77832 121.818 -7.77505
10.0892 121.214 -4.78328
18.9569 127.326 -7.24318
-3.18049 113.768 -4.7904
16.0689 123.751 -2.91895
5.64552 122.214 -12.3187
-4.96045 116.345 -12.4581
6.08763 119.975 -6.78783
9.15419 122.181 -7.79632
-1.50675 110.289 5.14646
17.3803 124.788 -3.33304
14.1214 121.162 0.593074
18.1437 127.136 -7.46205
-1.31507 110.714 4.5607
19.7074 126.59 -4.28997
-8.20171 109.027 -0.123042
-7.65332 109.738 -0.983599
-20.6418 100.481 3.44061
-0.317832 109.923 7.76318
-0.64602 114.82 -3.21936
3.52132 112.106 7.80651
16.9249 122.99 0.529085
19.4898 127.158 -5.41393
17.8233 126.946 -6.96821
-23.9717 106.62 -13.6382
-2.87979 114.388 -4.71672
-32.66 97.0734 -3.37876
7.56382 116.07 4.4774
-18.2017 110.214 -14.2926
-27.5448 104.686 -13.6772
-30.583 102.559 -12.7072
-18.9495 102.198 2.3501
16.2072 122.806 0.612239
-2.15602 118.543 -12.5762
7.34709 116.387 3.76463
15.0107 122.753 -0.663716
-7.44941 110.291 -0.97045
11.4579 120.547 -0.049596
8.77818 120.99 -4.18483
0.820884 110.981 7.9232
-0.499718 114.668 -1.68378
-0.553462 113.966 -0.175295
6.6728 123.389 -11.8078
19.5997 128.109 -6.23749
17.1111 126.268 -5.03854
-34.2323 97.0506 -4.11998
6.70151 123.595 -11.8504
-37.2794 96.5964 -6.83435
16.6634 123.235 1.14656
-14.8898 105.545 1.10463
-0.751467 119.647 -12.305
-4.98175 113.638 -4.37773
-14.9135 112.526 -14.0723
-26.3293 106.074 -13.9506
-30.6147 98.3801 -2.23796
-14.66 105.797 1.16643
7.01378 122.242 -8.135
10.4467 120.239 0.45718
-4.09225 118.06 -12.5632
9.19281 121.612 -4.02002
7.24426 116.197 5.42305
-5.94031 117.226 -12.8763
10.4901 121.621 -2.27769
-7.59095 116.736 -13.7636
-14.4013 106.044 1.22199
6.97501 116.018 5.80944
-29.2231 98.8919 -1.17751
-0.227579 116.029 -2.98191
18.2978 126.561 -3.24005
9.3107 121.874 -4.02676
7.95684 118.439 1.83359
10.7409 121.793 -2.04863
-0.743056 119.973 -12.1324
-38.1734 97.4521 -8.86055
-0.468501 114.747 -0.373337
-33.1296 101.862 -12.2672
4.73546 123.094 -12.1315
0.619819 120.708 -11.9538
19.2673 127.253 -3.34743
-24.3156 100.472 1.68666
-2.67792 115.58 -4.55467
7.14842 116.473 5.54808
-8.4846 116.63 -13.877
-31.9006 98.4148 -2.79207
8.67598 122.305 -5.15451
-29.6408 99.0319 -1.31642
-38.03 96.9801 -7.07069
13.851 125.834 -6.36034
-37.6467 98.5279 -9.76359
-9.57516 109.362 1.01048
1.08622 112.259 7.79209
-13.9877 113.738 -13.8351
12.9233 125.856 -7.24281
-38.1056 97.8609 -8.67655
-25.8263 100.497 0.621538
-17.9578 104.302 1.99117
4.49321 123.367 -12.0518
15.2017 123.428 1.03563
-33.9981 101.776 -11.9565
-16.6285 105.353 1.5237
-0.42507 114.431 1.58378
-36.3069 97.667 -5.79513
-33.0262 102.493 -12.2928
-10.6492 108.897 1.18233
-17.9423 111.532 -13.4748
-20.6879 102.141 3.69297
8.71055 124.097 -8.11353
-23.6919 108.43 -13.6335
-0.408098 114.152 2.43146
-0.0828091 120.863 -11.7296
-6.62538 112.591 -1.68869
-0.778069 112.013 6.7446
16.5721 126.931 -4.52447
7.37406 122.883 -6.89274
-19.7322 103.091 3.07819
-38.245 97.4576 -7.25126
-26.2558 107.271 -13.8901
8.42546 120.779 -0.858377
1.09547 112.763 7.75353
-1.42423 116.83 -4.14106
9.90865 123.198 -4.05806
-9.73141 109.74 1.27647
10.7081 121.52 0.652996
19.5758 128.835 -4.41779
-22.9797 109.281 -13.853
9.24723 121.132 -0.193704
11.0033 121.822 0.56294
-9.07009 110.238 1.23831
-29.7718 99.7072 -1.12789
3.68699 123.407 -11.821
19.9301 128.261 -2.47441
-16.9198 112.42 -13.0263
-26.0831 100.934 0.83893
-15.3152 113.44 -13.2315
-36.2956 100.489 -10.6271
19.2806 128.665 -3.99241
-14.4769 107.138 1.67481
-30.3073 104.857 -12.734
-7.94942 111.325 0.572501
19.4498 128.056 -2.3481
16.3284 124.9 0.72823
8.25636 123.021 -5.04985
-30.3763 99.6646 -1.43492
8.23687 123.106 -5.22575
7.93715 124.756 -9.18351
-6.65774 118.464 -13.2485
-6.63153 118.504 -13.2396
8.78124 125.685 -10.0031
-12.3005 115.679 -13.8563
2.54588 114.079 7.89646
-29.4676 105.728 -13.0947
-0.247091 115.792 0.833989
8.96654 124.948 -7.72213
8.08921 119.754 2.53707
-4.53393 119.527 -12.3698
12.558 122.865 1.36266
16.6646 126.348 -1.19797
-11.5666 109.181 1.67386
10.8267 122.436 0.302907
-30.5927 105.129 -12.6789
-34.2584 98.8071 -3.34024
-35.8006 101.409 -10.8363
-23.6168 101.923 2.97004
-5.76848 119.164 -12.7211
-19.5384 111.878 -13.6828
-17.2065 112.859 -12.8921
-35.742 101.523 -10.8592
3.76872 115.135 7.84905
-36.6809 98.5599 -5.53447
-0.392823 113.366 6.69608
8.4412 126.301 -10.6091
-7.31868 118.713 -13.349
-37.1593 99.702 -8.42007
6.26433 118.09 4.68718
8.27099 125.211 -8.37106
-1.83827 120.977 -11.5096
4.11806 115.491 7.7619
7.09153 119.009 3.76943
18.3294 128.723 -3.63782
10.2729 122.391 0.354174
12.2193 126.666 -6.56038
17.0282 128.822 -5.37082
9.01688 125.297 -7.38381
-26.3751 108.412 -13.8257
8.86952 126.223 -9.47129
11.9339 122.823 1.71053
-25.9656 108.675 -13.8049
18.3509 128.84 -3.50055
-24.8425 101.889 2.39711
-0.119618 116.121 1.66055
7.4194 122.278 -2.4593
-16.8949 113.344 -12.6814
-33.8141 103.416 -11.7348
-9.85786 110.681 1.78731
-14.3504 108.044 2.04339
-21.4653 111.453 -14.0884
11.9033 126.762 -6.5098
-12.4485 116.281 -13.4783
8.17629 122.04 -0.717577
8.03144 120.143 3.33125
8.71173 122.474 -0.903221
9.42022 122.27 0.409944
7.76535 122.018 -1.01398
20.4964 129.512 -1.7297
-14.0949 108.33 2.13215
-6.13655 119.714 -12.9224
-25.167 109.423 -13.781
-21.0388 103.51 4.19804
-35.8185 99.2511 -4.58736
-3.90628 120.619 -12.0849
-33.5865 103.821 -11.7943
-31.2187 105.52 -12.5342
7.13675 122.328 -2.10337
4.80745 116.664 7.50453
10.7795 123.342 0.305554
8.18916 124.868 -6.18241
-33.39 104.129 -11.8532
8.57097 125.045 -6.00282
-13.7833 115.696 -12.9732
-32.9602 104.503 -12.0254
3.30067 124.676 -11.5804
-6.87881 119.69 -13.1396
-24.2129 110.298 -13.8816
9.07394 125.11 -5.27134
-13.326 116.105 -13.0404
10.8019 123.122 1.3143
-26.3981 102.084 1.64785
-0.529987 122.444 -11.0127
-12.2806 116.904 -13.3041
-17.298 113.848 -12.7688
-35.6526 100.577 -6.31092
-13.6425 115.98 -12.9155
9.42053 122.989 0.0613844
16.7353 127.262 -0.204406
-17.9036 106.619 2.4138
9.8179 124.521 -2.58944
-10.9448 117.94 -13.6214
-0.283766 115.26 5.30422
-29.1166 101.555 -0.101845
-27.6084 101.982 0.895766
6.79578 122.787 -2.328
-35.6678 100.502 -5.71533
7.26587 124.327 -5.07436
-12.433 116.991 -13.1686
8.94213 122.865 0.274817
9.01391 123.004 0.139286
-13.9666 115.986 -12.6313
-22.4545 111.904 -14.0692
8.99456 123.193 -0.117937
-7.07175 120.146 -13.1109
8.70983 123.596 -1.25575
-23.4119 111.576 -14.2553
17.5964 127.343 1.60569
-9.01145 119.306 -13.4254
0.721747 115.437 6.95944
4.74719 126.191 -11.4584
-19.8529 113.281 -13.402
-35.4143 103.192 -10.4475
8.84301 125.385 -4.63516
-28.7275 102.005 0.339852
18.044 129.801 -2.97027
-34.1982 104.32 -11.3749
-16.4657 108.011 2.30157
8.08123 126.49 -7.88555
9.03817 127.114 -8.01934
5.7925 118.477 6.93767
6.64924 122.906 -1.66829
-22.8793 103.674 4.10343
-6.54071 120.706 -12.9697
7.99918 126.216 -6.98723
8.54762 128.166 -10.5572
-31.9622 101.261 -1.48541
-30.2355 101.717 -0.319675
-12.3411 110.461 2.5508
-0.114483 116.273 4.87404
-35.7147 103.027 -9.83145
-19.4935 106.01 3.54832
5.65578 118.514 7.1111
18.596 129.335 -0.622428
12.2143 124.113 2.98475
-19.3737 106.179 3.42607
8.06439 123.435 -0.585557
11.1029 124.97 -0.121257
0.51093 118.678 0.648064
14.1351 125.129 3.28633
8.70316 123.845 -0.530632
-12.9903 117.29 -12.6643
6.54517 123.398 -2.04139
-35.0608 102.132 -6.57142
16.0478 126.592 2.70103
-17.2992 107.999 2.49423
3.95179 126.295 -11.3479
8.89577 122.361 3.29695
7.51178 125.833 -5.96455
-35.0379 102.186 -6.49385
-28.8592 102.432 0.603202
16.5053 130.518 -5.05561
8.32208 126.263 -5.77749
-26.7279 103.047 1.93469
18.8832 130.575 -2.22299
7.76187 126.319 -6.48629
4.23854 126.583 -11.348
0.968369 120.832 -2.77425
-5.26825 117.03 -2.06926
-10.0354 119.476 -13.2014
11.2028 125.239 0.238092
-7.72986 120.744 -13.129
20.08 130.486 -0.289471
9.21388 128.057 -8.26977
8.70978 127.076 -6.7421
-13.1873 110.419 2.76513
7.77209 123.623 -0.286341
0.151875 117.612 3.54053
8.77066 127.158 -6.70612
7.48563 123.315 0.146366
-1.39899 123.344 -10.7448
8.9497 126.286 -4.4542
-35.5391 102.741 -7.58272
14.1786 129.763 -5.61039
1.42837 125.015 -10.8645
-33.9228 101.433 -2.73331
-3.38997 122.759 -11.7069
8.58928 126.675 -5.56582
9.7795 126.324 -3.29385
7.5708 123.621 0.0975493
11.0263 124.796 1.77752
14.8409 126.246 3.29821
-29.2972 102.71 0.599973
6.86815 125.786 -5.41749
20.6556 131.332 -0.431137
18.4602 130.935 -2.20388
8.74496 126.366 -4.08523
13.5426 125.671 3.37222
7.39517 126.8 -6.58011
-14.5239 110.186 2.92052
-35.5449 103.97 -9.22161
-34.6738 102.672 -5.3054
0.186474 117.502 5.07712
8.44948 125.892 -2.97629
8.12587 126.161 -3.93902
16.1683 131.176 -4.92574
-5.65312 116.985 -0.704206
-4.15622 123.008 -11.9846
-23.5218 104.716 4.1821
0.297574 118.072 4.29941
-32.2084 102.336 -1.16811
11.3403 129.485 -6.96201
8.10642 124.635 -0.343957
7.54039 124.072 0.198143
19.2916 131.476 -1.52804
10.1464 127.306 -3.57893
-29.4053 109.367 -12.842
-21.462 114.053 -13.3063
-7.9572 114.402 2.52931
0.409326 118.647 3.53036
0.664991 119.539 1.96739
8.12635 126.494 -4.02775
13.3707 126.269 2.9415
9.22062 129.032 -8.13762
-17.5934 108.932 2.87949
18.1237 131.642 -2.83543
18.1387 131.968 -3.51289
-21.3208 106.089 4.59624
8.49334 127.184 -4.72318
8.89707 127.504 -4.90047
-0.391746 121.754 -3.72453
6.77964 126.53 -5.29884
13.4046 126.47 2.95041
-35.6958 103.971 -8.11207
9.11568 129.002 -7.80285
8.54009 127.629 -5.47434
9.55649 129.031 -7.27584
1.10388 122.156 -2.61951
9.38144 129.742 -8.986
9.3913 128.98 -7.31321
7.98161 126.837 -4.30498
1.66025 120.942 0.848202
0.601943 119.4 2.92452
7.19587 124.306 0.329223
8.43383 127.156 -4.26215
1.57396 120.877 1.03318
-19.6056 107.573 4.13118
-22.0781 114.196 -13.3319
6.95561 124.322 0.210328
-29.9259 109.422 -12.4557
-0.751018 121.803 -3.70938
7.89083 123.088 4.07596
-5.11614 118.122 -1.00791
7.51 124.773 -0.0341948
8.77289 128.523 -6.62104
-24.6742 112.908 -13.4045
1.39639 126.419 -10.7967
5.74176 120.991 6.46143
-25.2596 112.6 -13.1916
-8.13343 114.929 2.76108
10.1376 127.564 -2.40714
-30.0653 109.55 -12.3552
-14.9526 110.958 3.16843
2.08031 122.404 -0.903588
12.2038 130.683 -6.45974
2.10768 122.555 -1.08387
17.6818 132.816 -4.34188
1.79637 122.897 -2.16059
-30.4532 103.703 0.194935
-10.0643 120.915 -12.3513
6.55464 124.524 0.139252
-33.0948 103.166 -1.84964
6.12451 125.458 -2.41236
8.175 125.849 -0.739684
6.58847 124.534 0.22141
-6.38055 116.636 1.59126
-34.3165 104.052 -5.17051
18.8317 131.021 1.14548
15.9684 128.776 2.53698
-28.3462 110.937 -12.8214
17.4734 132.856 -4.46017
15.6894 128.731 2.51325
8.14285 125.976 -0.708525
8.9549 127.684 -3.41509
6.50537 126.897 -4.68578
1.39871 126.834 -10.738
7.03141 124.893 0.409929
4.87676 120.641 7.06608
0.409533 126.212 -10.5194
8.21978 128.667 -6.27153
-3.41084 120.55 -2.80531
8.74486 127.494 -3.05581
-7.46502 115.777 2.67608
6.22632 125.232 -1.16032
-24.0973 105.771 4.21963
10.4414 128.647 -3.33296
8.35601 126.711 -1.64544
10.2221 128.266 -2.74324
11.2414 130.79 -6.94928
14.7663 128.443 2.57133
5.91296 129.559 -10.6834
-4.68791 119.199 -1.08066
20.4352 132.852 -0.0384909
7.78472 126.719 -2.15297
-34.055 107.003 -10.4015
9.24456 127.137 -1.19557
-33.1479 107.831 -11.0068
6.05613 125.812 -2.11876
6.91763 127.131 -3.86837
7.16446 123.584 4.20426
-28.5116 104.73 1.62089
9.92714 129.65 -5.62655
-6.13149 117.315 1.67422
4.294 120.623 7.23146
-34.7371 106.152 -9.00929
-5.57171 123.904 -11.9599
14.0533 127.966 3.24972
-23.4404 106.256 4.67232
9.51899 131.089 -9.07713
-18.3589 116.886 -12.1795
-20.4448 107.927 4.79988
2.42153 123.426 -0.897214
9.39246 127.546 -1.29948
9.04177 130.083 -7.25667
12.8175 127.632 2.73024
-17.0774 110.649 3.25501
-8.43377 122.611 -12.2349
14.7964 128.881 2.54914
17.6025 133.598 -4.24148
10.9684 127.396 1.17574
6.34329 123.125 4.955
6.68604 127.314 -3.73845
1.13367 119.76 5.96552
7.89379 126.607 -0.65147
9.83692 126.692 1.54434
12.9352 132.076 -6.38374
18.4492 131.28 2.10823
9.06308 129.896 -6.26203
1.6926 127.794 -10.6845
7.93189 129.328 -6.38538
-7.52221 116.404 2.8967
-27.7846 112.146 -12.6284
6.83602 125.763 0.102358
-27.1969 112.518 -12.6673
-13.7205 112.808 3.22576
-26.4677 105.754 3.05683
-17.873 117.431 -11.8715
1.22245 124.029 -2.87097
-0.608449 123.38 -3.66308
9.70072 130.389 -6.26952
-27.3021 105.601 2.58507
-22.6174 107.083 5.09423
10.7087 131.189 -6.6449
-32.0437 104.566 -0.952775
12.3964 127.903 2.6273
-31.7545 109.278 -10.8229
7.21212 124.605 3.48336
-7.03867 123.718 -12.0218
1.32278 121.617 2.81783
-30.0727 105.105 0.380341
9.52465 126.418 2.40464
-28.0063 112.22 -12.5952
6.45998 123.794 4.38192
2.65104 124.007 -0.72244
-22.8781 107.054 5.0356
7.05622 124.503 3.69118
-9.93501 115.158 3.27022
16.2927 133.711 -5.0106
9.97075 128.956 -2.32913
2.77968 124.09 -0.517751
7.34872 125.027 3.04484
5.82092 123.286 5.09336
-33.2983 104.906 -2.67604
10.9647 127.88 1.49175
-6.46643 117.616 2.54338
18.6125 131.835 2.41702
-8.79262 123.063 -11.9687
-10.3474 122.106 -11.5794
2.1677 120.715 6.90098
-14.3819 119.287 -10.2158
-32.104 105.175 -1.05795
7.24245 128.55 -3.7719
9.08199 126.338 3.32032
8.52945 130.311 -5.93559
-22.5012 107.774 5.27804
-29.9391 105.774 0.629316
12.391 132.79 -6.36402
5.72711 130.909 -10.419
-14.3131 113.332 3.39971
-18.2827 110.922 3.93107
10.2552 130.335 -3.42593
11.2084 131.639 -5.044
-28.7383 106.17 1.68001
-4.58286 120.374 0.474809
-9.44102 123.212 -11.4892
-5.7298 119.141 1.98378
10.9531 131.815 -5.16465
9.82559 132.458 -7.9356
2.49761 125.678 -2.10428
-15.5419 112.918 3.62415
-16.4697 112.423 3.59927
4.13393 122.631 6.59661
11.4248 132.263 -5.31818
-29.4901 112.369 -12.0292
-13.4806 114.316 3.36702
-5.03395 120.026 1.32324
7.62974 132.118 -9.50527
-32.662 106.059 -1.98584
1.37002 125.668 -3.02739
-30.2107 111.703 -11.2277
-23.8001 116.221 -13.0577
2.58238 124.11 2.20161
10.0493 133.282 -8.60185
2.34133 126.059 -2.29343
11.2768 132.676 -5.75121
-1.63597 123.979 -2.49953
18.5518 135.433 -2.72125
-31.2039 106.361 -0.232481
-28.7982 113.24 -12.2513
7.05238 132.162 -9.55328
-32.568 106.457 -2.00112
19.3178 134.627 0.217262
-19.2754 118.479 -11.7987
-6.58272 125.39 -11.1821
-31.794 106.563 -0.953338
3.67592 123.12 6.42084
-17.2857 112.612 3.85694
-6.88309 118.697 3.39224
-11.9105 122.174 -10.3359
18.8683 135.431 -1.4882
-28.3552 113.858 -12.2636
-20.435 110.208 5.39374
-20.705 118.051 -12.0028
-29.9283 107.002 0.805458
-0.646448 125.167 -2.89564
6.87416 132.4 -9.41119
5.74099 125.619 4.04226
-7.48712 125.102 -10.9698
-24.7108 108.291 4.67063
-4.18086 121.74 0.603788
18.1377 133.232 2.90563
-22.266 109.289 5.632
-4.86593 120.893 1.70496
7.77655 126.964 4.00279
10.9035 132.238 -3.58848
-28.6448 113.843 -11.9102
12.1376 133.701 -5.13834
-26.8956 108.039 3.01518
-33.597 108.486 -6.0653
-6.08376 119.775 3.02342
5.55313 125.8 4.1666
8.93269 131.935 -5.02571
-30.3115 112.34 -10.3606
-3.00046 123.572 -1.38167
-21.2587 110.139 5.63988
-10.2245 123.853 -10.6696
12.3958 134.103 -5.28815
8.34523 130.938 -3.31029
-5.92271 126.424 -10.9354
-8.21953 125.079 -10.7604
10.4358 132.204 -3.32051
18.2158 133.79 2.78013
18.6686 136.355 -2.15102
-31.7876 107.708 -1.29729
-32.9247 107.972 -3.15344
-3.5426 123.063 -0.0614585
-7.61673 125.681 -10.6164
-8.55485 118.62 3.7797
19.1151 134.937 2.11366
15.6978 132.611 3.06954
3.37558 127.634 -1.15704
4.47419 125.471 4.93777
17.2154 133.384 3.29517
-2.30003 124.675 -1.56337
-26.8548 115.833 -12.3112
16.2129 136.276 -3.99648
-1.26542 128.984 -9.43257
18.0151 136.787 -2.8299
-33.4981 109.804 -7.0253
-24.5342 109.346 4.96337
7.5757 127.768 4.14257
-19.7629 111.771 5.57233
-32.9472 108.799 -4.05366
-3.73599 123.064 0.663669
3.65245 125.048 5.55122
5.21053 126.522 4.44408
19.9119 136.053 1.72643
8.38265 128.718 3.69337
6.86608 133.778 -9.02982
-31.7794 108.704 -1.5974
-4.0428 122.842 1.56982
-1.56602 125.825 -1.70112
-29.8894 108.879 0.626139
9.82819 133.087 -3.3639
5.4743 126.999 4.59153
-17.759 121.079 -10.76
4.32013 128.627 -0.0990087
0.463298 130.697 -9.30816
-19.9953 120.172 -11.3929
18.0116 137.506 -2.59143
15.4895 133.564 3.0261
-11.5554 123.928 -9.05076
-7.75096 120.316 3.48608
-32.5889 112.097 -8.95004
-22.7358 119.242 -12.3651
17.143 137.385 -3.04316
-8.6232 119.909 3.64128
9.4872 130.119 3.60085
-5.87623 121.635 3.33337
-31.7436 111.24 -5.43544
2.85992 126.116 4.50973
2.3726 129.121 -2.57085
4.60544 128.845 0.862386
-4.52579 123.152 2.36567
-23.5387 110.994 5.59641
10.9445 134.687 -3.72257
3.5644 129.94 -2.35121
0.157836 131.195 -9.16317
6.7393 128.809 4.1505
2.13688 129.263 -2.47185
-3.96445 129.315 -10.0127
-8.97663 126.523 -9.88951
-31.1476 110.307 -1.64289
-19.7944 113.288 5.77916
-8.78285 120.507 3.53928
14.8071 137.358 -4.1739
7.16635 129.378 3.8763
3.78165 133.518 -9.28844
-9.02081 126.593 -9.84727
9.57762 136.536 -8.70183
-32.0566 113.317 -8.92201
7.79168 135.707 -8.88637
2.25327 129.627 -2.40627
-25.8738 110.878 4.02849
-19.8979 113.478 5.78479
-27.0097 110.772 3.05231
18.7292 136.654 2.69
-27.0057 117.669 -11.8845
-5.60041 122.781 3.27972
-12.3926 124.36 -8.45307
-4.64216 129.363 -9.82397
3.10781 126.599 5.72964
-13.5947 123.777 -8.53159
11.2079 132.27 3.36361
-8.40784 127.289 -9.67069
-18.0307 114.948 5.4492
-20.5535 113.33 5.9632
-22.9983 120.221 -12.0472
4.08613 130.826 -1.99453
11.9346 132.857 3.226
12.6082 133.267 3.16307
-2.35203 126.343 0.025237
4.8145 127.977 5.28371
-32.0005 112.94 -6.9892
12.9551 136.782 -3.91646
6.9814 129.811 3.96544
19.1968 137.508 2.16135
-9.70896 120.528 3.86623
-8.671 121.435 3.34942
-27.3012 111.173 2.91219
-24.874 119.404 -12.016
10.7847 135.332 -3.05221
-8.35111 121.75 3.2939
-17.0831 122.828 -9.7228
-30.3803 111.424 -1.14381
0.412878 132.414 -9.15975
4.72575 131.188 -1.19605
9.9609 136.99 -7.39105
-30.8488 112.788 -4.49909
-17.6859 122.747 -9.99127
-30.6788 112.878 -4.34503
5.99224 129.476 4.60254
18.7362 139.222 -1.03707
-0.644387 128.35 -0.944173
-29.6058 111.802 -0.208952
-1.78513 131.499 -9.04145
-10.544 120.485 4.27577
9.36638 137.521 -8.47314
-24.5346 120.046 -11.8384
17.1709 136.466 3.4322
-30.0352 112.88 -2.93653
2.91108 128.052 4.38491
-13.3995 124.577 -7.999
-12.5916 118.89 5.43544
-10.2431 120.822 4.12602
4.72737 135.377 -9.19663
-5.39799 123.968 3.43166
11.1168 136.048 -2.60864
-3.51481 125.603 2.3271
-18.1873 123.029 -10.0107
10.0254 136.744 -5.35432
8.25886 131.493 3.98769
-26.5455 112.072 3.74182
9.61382 137.555 -7.52323
19.6606 138.988 1.69522
0.430534 133.062 -8.9124
9.2769 132.081 4.08395
1.92955 134.191 -9.44867
2.64365 134.673 -9.57365
-29.5629 113.235 -2.198
2.99976 134.892 -9.53017
-3.38697 131.228 -9.2972
1.13692 130.398 -1.912
1.91829 130.88 -1.99797
-29.3975 113.029 -1.4235
-29.1846 112.666 -0.34722
3.55601 135.367 -9.44372
-23.4544 121.093 -11.3779
-6.50053 129.556 -9.00048
-29.1481 114.288 -3.36997
-3.06261 126.554 1.84597
11.0894 133.743 3.58471
-3.38828 131.515 -9.175
-1.72532 127.947 0.640233
3.4322 129.124 4.45153
-28.5079 113.554 -0.695026
15.252 139.176 -2.89215
-20.6797 115.012 5.84007
-21.6315 122.366 -11.1107
-2.45386 127.412 1.37732
-3.12205 131.853 -9.09868
-20.0473 115.509 5.80568
-31.1046 116.085 -8.80829
9.95584 137.618 -5.46413
9.95619 136.317 -2.60329
-2.26321 127.655 1.32337
-16.9101 117.692 5.17671
-27.2199 113.648 1.38956
7.99563 132.137 4.24149
2.53465 135.258 -9.21916
-18.0261 116.991 5.5073
-9.16523 122.746 3.81696
5.41918 133.588 -1.76354
-10.3313 121.975 4.32381
11.4409 134.473 3.78281
-26.066 113.339 3.99448
-10.4058 127.535 -7.71875
-14.2298 125.649 -8.15577
4.47058 131.359 2.30502
-19.1509 123.736 -9.97241
18.0327 138.84 2.68493
5.62257 130.809 5.015
-7.26282 129.798 -8.5042
-2.76894 127.476 2.06879
-21.581 122.932 -11.051
-1.59886 128.567 1.20686
-31.8843 115.054 -6.33591
4.0355 136.554 -9.21785
5.71361 132.739 1.16703
-21.6933 122.959 -11.0162
12.0254 137.839 -2.15777
9.07551 138.951 -8.1822
-26.45 113.699 3.38823
-26.5273 113.734 3.27889
7.04271 138.052 -8.52941
17.2863 138.282 3.56596
-4.16817 126.434 3.15904
16.4453 137.775 3.70457
-4.41025 126.31 3.2405
-24.315 121.658 -10.9753
3.04265 136.114 -8.91679
-25.8091 113.96 4.1085
2.95479 136.222 -8.86498
-10.0423 122.817 4.45722
-19.266 116.984 5.88451
-10.1511 128.231 -7.43475
-24.4507 114.322 5.45631
0.829291 131.28 -0.470128
17.4297 140.973 -1.24224
-18.3157 124.599 -9.1912
9.04697 139.463 -7.89571
-3.02614 127.833 2.80955
15.0821 140.378 -2.34855
17.1042 138.782 3.6331
-24.6457 114.79 4.9474
4.19909 131.294 4.34913
-19.3525 117.364 5.9155
-17.0373 118.759 5.71028
6.62908 138.53 -8.40702
-26.2838 121.253 -10.8007
9.12281 139.767 -7.69462
6.44773 134.933 -0.353031
0.100012 135.042 -8.35927
-14.5678 126.786 -8.26147
-12.9351 121.267 5.78336
-19.0526 117.803 5.91846
6.5269 135.065 -0.309555
-23.589 115.344 5.84628
0.944697 131.768 0.0856916
-28.8702 115.884 -1.76877
2.40854 136.626 -8.56886
-22.7863 115.283 7.10984
-9.71444 129.171 -7.05781
9.13225 139.99 -7.56277
-29.4518 119.171 -9.38957
5.45783 133.225 2.78526
13.6269 137.268 4.06043
-16.703 125.928 -8.33265
14.3246 137.742 3.91979
8.12263 133.862 4.8217
-0.563389 130.652 1.22301
13.2677 139.943 -1.76135
2.1023 136.733 -8.29344
-1.13518 135.018 -8.35095
17.5418 142.084 -0.838777
6.97763 135.681 0.233745
-14.2042 121.207 5.85118
18.0691 142.066 -0.0801588
-17.1924 119.476 6.04714
-21.1128 124.933 -10.5139
-13.6692 127.979 -7.98972
-14.6671 121.057 5.88074
4.50607 135.143 -1.22938
17.7582 140.795 2.7083
17.7154 142.258 -0.521487
8.49012 140.379 -7.67358
2.72815 137.509 -8.3584
-21.9507 124.676 -10.578
-3.05864 133.892 -7.40301
-15.6366 127.209 -8.215
-1.19104 130.804 1.672
-5.26258 132.828 -7.59424
15.3596 139.05 4.09355
5.58098 136.009 -1.21397
-3.89985 133.569 -7.40139
-23.6688 116.706 5.21974
-13.6559 128.399 -7.92733
6.74601 135.691 1.15719
-12.7411 122.636 5.82608
18.6249 142.553 0.909743
17.078 140.456 3.59433
-1.54809 135.255 -7.77412
-16.9796 126.806 -8.21419
-23.5076 124.12 -10.1067
7.14555 136.297 0.938424
17.7325 141.523 2.55072
5.62697 136.483 -1.138
-30.5117 119.15 -7.58863
11.2753 137.547 3.57981
17.9561 141.908 2.29367
0.816972 133.164 0.47006
-28.6364 121.145 -9.35085
-14.8157 128.618 -8.54696
-8.80341 126.604 3.21105
16.3283 140.337 4.07057
-30.9608 117.603 -4.23454
-17.1571 120.595 6.20844
-24.5417 117.769 3.37199
-18.3521 126.725 -8.53383
-10.9683 130.106 -6.76653
-25.363 123.67 -10.0384
-27.5654 122.383 -9.88695
12.2468 140.628 -0.847415
9.71143 141.303 -5.3834
-8.35266 131.581 -6.27943
6.42791 135.649 2.95599
-23.5768 118.251 4.1926
14.3252 139.512 4.38201
-0.431845 136.811 -7.75353
-20.4189 126.655 -10.0477
-13.3074 123.308 5.97658
10.2588 140.267 -2.01641
-30.0228 117.843 -2.18967
-14.7827 129.366 -8.55384
6.6828 135.768 3.81514
-23.2166 118.04 6.10286
10.2664 140.963 -2.6922
-10.3827 131.127 -6.51676
13.4517 139.49 4.48991
-28.6542 122.01 -8.74837
-18.2719 120.785 6.6355
11.7303 139.039 3.82613
-24.446 119.273 2.65149
-10.077 126.298 5.00755
-16.6942 121.934 6.46236
-10.3468 126.054 5.25639
7.29688 136.662 3.82404
11.0015 138.912 3.46139
17.3143 142.765 2.8021
-6.6515 128.881 3.83042
17.1371 142.615 3.02323
13.9264 142.601 -0.85832
-17.676 128.553 -8.91646
16.2317 141.736 3.95442
-4.03719 130.477 3.79261
3.40025 139.852 -7.51687
6.23047 141.559 -7.76895
-29.2596 121.792 -8.02903
-6.22293 133.841 -6.06092
10.4026 141.679 -2.76394
4.84761 137.914 -1.32851
-6.75108 129.038 3.81975
0.106137 133.991 1.44656
0.617641 138.324 -7.31832
-28.6458 122.444 -8.49759
7.78431 137.149 4.09547
7.79521 137.211 4.03406
-8.82311 132.559 -6.13006
4.13554 137.709 -1.36195
2.67651 136.632 -0.750339
13.0319 142.246 -0.281059
-6.83771 133.65 -5.87083
-20.0946 127.874 -9.38792
-16.0927 129.929 -8.93772
9.76485 142.788 -5.29929
12.6248 141.998 -0.0596092
-17.771 129.115 -9.19176
-1.75202 132.693 2.64582
-28.1063 123.16 -8.83649
-29.2257 122.145 -7.56249
-30.6229 119.711 -3.88089
2.97635 140.03 -7.01944
-29.7674 119.226 -1.59684
16.4629 142.826 3.57004
8.33465 138.431 3.25463
-12.6683 125.25 6.35389
7.18892 142.768 -7.41574
-28.8356 122.409 -7.10657
-2.61133 132.435 3.15332
-10.5347 132.347 -6.31208
-2.38896 132.616 3.07861
-15.1946 130.772 -8.56884
-28.5589 119.724 -0.758425
-6.6964 129.962 3.93699
-17.8934 129.756 -9.18173
-28.4374 122.662 -6.61921
2.58502 137.337 -0.5347
-28.23 122.884 -6.49451
17.0295 144.96 0.829637
-30.1478 120.099 -2.73706
-19.5981 121.06 8.20249
-20.3911 120.726 8.11882
9.56875 143.863 -5.62987
14.152 143.764 0.290951
-28.0529 123.51 -7.16081
-16.2737 130.987 -9.02531
-8.80691 133.848 -5.87641
10.2357 144.002 -4.59825
3.14371 138.244 -0.723422
-29.8593 120.347 -2.07025
-4.22721 131.972 3.98123
-0.719146 134.537 2.71962
-23.0457 120.735 5.50806
-16.7655 123.417 7.35401
-18.9471 129.584 -8.70624
3.13405 141.014 -6.5638
9.17385 139.37 4.41558
-25.5709 125.089 -6.93532
-10.7208 127.7 5.58378
-25.5501 125.177 -7.01045
-25.5477 125.112 -6.85633
-25.5056 126.129 -8.9761
8.88246 144.12 -6.07234
-28.4353 122.203 -3.95841
-27.8338 124.308 -7.74344
-11.9798 126.744 6.3718
16.6784 145.378 0.892688
-1.64354 134.169 3.05936
16.2851 145.484 0.443718
-0.21302 135.309 2.51707
-5.9867 135.712 -5.38292
5.34144 140.088 -1.01387
-3.06298 137.421 -5.4741
-12.0323 127.012 6.33614
8.94315 139.811 4.16953
-5.33582 131.797 4.18581
2.56973 141.087 -6.32749
-17.7386 123.177 7.86104
15.2481 143.619 3.72689
-29.8176 121.23 -2.61983
-28.2104 123.589 -5.72156
-5.56518 136.144 -5.33129
-3.67722 133.127 3.62776
-14.2318 132.792 -8.45588
-4.24128 137.009 -5.31056
-16.0301 132.425 -9.69284
-15.7222 132.506 -9.482
-28.4098 123.185 -4.51105
9.40433 140.639 3.92947
-2.98308 133.939 3.48243
-25.2955 125.761 -5.91818
-26.6205 124.557 -4.892
-2.26674 138.466 -5.3441
7.53367 144.669 -6.85457
1.48029 140.923 -6.07815
-12.5863 133.829 -7.78849
-6.62625 136.013 -5.20247
-2.34564 138.468 -5.31105
-18.0669 131.62 -9.59114
-27.5983 124.441 -5.59377
-27.2143 124.426 -4.97027
-13.3861 133.849 -8.45239
0.398935 136.72 2.18147
-15.2014 125.553 7.60037
2.81849 139.264 -0.171604
-19.6019 122.782 8.32887
0.926117 140.859 -5.90603
15.525 144.907 3.15829
8.41874 141.628 1.60888
-25.4122 126.265 -6.32198
-21.5362 122.344 7.0953
-11.5552 128.433 6.12363
-24.2926 127.294 -6.88627
-8.31242 135.763 -5.61161
1.55506 138.058 1.49845
-24.7682 126.531 -5.60115
5.13334 141.233 -1.00521
-5.56202 133.206 3.49787
-4.1374 134.081 3.36438
8.91464 145.636 -5.70126
-25.8983 125.616 -4.63448
-7.79293 131.804 4.11833
8.34564 142.364 0.901123
13.7792 145.624 0.531391
5.87524 144.431 -6.54302
8.98503 141.477 3.7173
15.662 146.4 1.19594
10.1669 145.157 -2.76597
-1.86221 139.465 -5.05933
-8.47801 136.07 -5.76036
-25.8103 125.919 -4.76695
-24.6962 127.311 -6.35676
-25.9045 125.825 -4.46377
-18.2974 124.217 8.39319
5.26168 144.265 -6.46015
-23.8113 122.281 5.94583
11.947 145.176 -0.167193
9.86108 142.399 3.45407
-17.2147 125.062 8.17163
-18.3685 124.32 8.41043
-8.83769 136.335 -6.02503
-27.0958 122.396 2.0129
-9.45776 131.284 4.25654
-24.1952 127.755 -6.09516
-23.7444 126.278 -2.30783
9.88958 145.653 -3.3568
-23.4724 125.257 0.303833
-19.6369 131.587 -8.7027
-10.1567 135.936 -6.53925
-24.6121 127.947 -6.74316
10.7057 145.488 -1.68908
-5.93171 133.966 3.11635
-24.4707 125.03 -0.0645224
-23.6389 126.381 -1.87007
-28.0341 123.876 -1.76827
-24.924 127.386 -5.51917
-8.65695 136.729 -5.96854
-21.9109 130.305 -8.10149
-3.49446 135.458 3.29112
6.84302 142.87 -0.203563
-0.88942 140.702 -4.93738
-28.4206 123.622 -1.40133
10.9523 145.881 -1.67523
-19.553 132.078 -8.90304
15.2742 146.707 1.86593
-21.5598 123.787 6.75661
-18.7671 132.924 -9.73448
-23.8696 126.454 -1.87022
-21.221 130.751 -7.98606
12.8448 145.861 0.790064
-24.4253 125.012 0.605904
-5.90437 137.846 -4.68226
11.656 146.1 -1.10331
-23.6625 126.556 -1.73933
-24.1206 127.636 -4.61862
-22.4632 129.502 -6.65329
-24.3049 128.307 -6.29646
-18.6482 132.666 -8.85229
-21.7642 130.539 -8.00609
7.90821 143.357 0.383066
-25.0451 127.362 -5.06124
-3.79082 135.559 3.23756
-15.1137 127.277 7.44105
-3.27156 135.946 3.07344
-11.7919 130.368 4.84717
-23.2662 127.615 -3.19139
-18.5854 133.088 -9.36829
-14.2979 128.17 6.62005
-22.9204 129.739 -7.31948
-14.6506 127.818 6.99487
-25.4427 123.034 4.28558
-24.851 127.295 -4.08375
-25.3805 127.198 -4.49919
-23.882 128.143 -4.71286
-4.38876 139.009 -4.53051
-12.1541 136.602 -8.76798
-15.1204 127.557 7.32808
-24.5837 127.548 -4.2312
-24.28 127.902 -4.51423
-25.2074 127.702 -5.20879
-21.5439 130.876 -7.6384
-24.5783 123.325 5.14646
-18.0999 133.898 -9.93399
-21.107 124.214 7.53118
-11.7859 130.904 4.38545
1.60498 139.682 1.67178
-20.238 132.138 -8.61257
-14.8733 135.782 -9.94115
10.1497 146.447 -2.52242
9.69361 146.599 -3.37569
-25.6757 127.386 -4.75023
-23.9654 127.451 -2.68712
11.3713 144.184 4.15188
-24.907 127.377 -3.61455
-26.1842 123.424 3.46314
10.6603 146.749 -2.26462
-23.3566 126.5 0.45586
3.9106 142.175 -0.29679
-25.2259 127.084 -3.0468
-12.472 130.09 6.01794
13.6158 145.558 4.24658
-23.2566 128.445 -3.53227
-24.8379 127.908 -4.28871
-24.4865 127.3 -2.51135
-25.4809 127.509 -4.16999
1.78332 140.24 1.48564
-23.836 128.301 -3.84365
-10.0948 137.771 -7.60486
12.8326 145.184 4.32453
-11.9387 131.102 4.69566
-6.69465 138.792 -5.62645
-5.13592 139.187 -4.54316
-24.1262 126.403 0.0800315
-9.83008 137.856 -7.3071
-24.2417 127.49 -2.34646
-24.8059 128.541 -5.31749
-24.1709 128.302 -4.00408
-3.9699 136.417 3.04325
7.88864 144.294 0.402395
7.84233 147.059 -5.68038
-25.3501 127.721 -4.08531
-24.8951 127.686 -3.43874
14.7442 147.255 2.48191
-25.0342 127.68 -3.52648
-11.6116 137.703 -8.87755
-1.225 138.596 2.02269
-15.6714 128.514 6.34107
8.58307 144.689 0.80477
8.71489 144.739 0.880181
-23.197 128.665 -3.15338
-22.9213 124.75 5.73173
-24.1286 129.108 -5.23547
12.3461 147.233 -0.0832573
-6.10685 135.586 2.78288
-20.055 132.609 -7.64263
9.4221 147.447 -3.87242
-9.67931 138.284 -7.22475
12.2741 147.397 -0.209534
-17.8811 126.599 8.20787
-21.1934 131.851 -7.06621
7.39915 147.269 -5.6662
-25.1654 128.154 -3.8357
-4.00249 136.98 2.83694
-27.0758 126.614 -2.74098
-21.5524 131.575 -6.78898
-24.0442 128.605 -3.33541
2.35297 141.507 0.884121
0.676565 140.145 1.8642
-3.5275 137.565 2.50995
-21.2742 131.829 -6.67005
6.74483 147.09 -5.54844
-23.6905 129.439 -4.24647
-20.2522 132.664 -7.04881
-25.3121 126.121 1.21052
-27.006 126.695 -2.07486
-10.9512 138.88 -8.96892
-17.8221 127.251 7.97925
-3.76939 140.767 -4.27554
-25.1722 128.653 -4.06225
-25.2778 128.112 -3.0076
-27.9657 125.404 -0.391471
-24.1737 128.72 -2.97166
-25.6613 126.57 -0.0825444
-24.2328 128.355 -2.19496
-27.7233 125.1 0.680479
-12.2009 132.037 4.58864
-26.8068 127.118 -2.5645
-27.3243 124.626 2.26833
-21.6423 125.346 7.66442
-24.9962 127.081 -0.159006
-13.4277 138.052 -9.89705
5.09027 146.318 -5.21506
-18.6048 127.152 7.6397
-25.6774 125.144 3.40171
-21.4271 125.454 7.94666
10.6258 145.51 3.49176
6.7077 144.967 -0.0765091
-25.9241 127.013 -0.890163
-24.4224 128.66 -2.60094
-25.1316 127.081 0.0171162
-28.1421 125.444 -0.0544259
13.2879 147.1 3.48619
-25.0321 128.868 -3.65599
-25.3823 127.999 -2.17684
10.3685 145.572 3.29506
-23.8285 129.593 -3.73009
-14.6977 136.867 -8.39991
11.5321 146.031 3.74141
9.3595 148.267 -3.76495
-6.72064 140.186 -5.80238
-25.1062 127.433 -0.506486
-25.4394 126.34 1.49201
14.1335 147.868 3.02912
13.5978 147.478 3.30191
-2.6047 138.972 2.14806
9.06433 148.532 -4.3961
8.50033 148.582 -5.11968
6.8028 145.282 -0.00628961
-1.90333 142.251 -3.98323
-6.78172 140.457 -5.86218
-24.6713 129.032 -2.82331
6.95675 145.507 0.0478528
-24.0705 130.719 -5.67004
-15.7846 136.146 -7.29297
-23.3316 125.785 6.10286
-20.2017 133 -5.78896
-22.8397 130.371 -3.27841
-23.9913 130.106 -4.00478
12.6401 147.378 3.23205
-24.2332 130.098 -4.24776
11.2634 148.573 -1.05344
-20.5466 127.494 5.95026
-7.03187 140.581 -6.02868
-26.0268 128.84 -3.66091
6.58269 145.474 0.0297602
-8.72526 135.593 2.83585
-23.9245 130.251 -4.11917
-24.9488 125.955 4.08122
-12.9139 138.86 -9.3032
-9.50902 140.033 -7.67003
2.8509 143.053 0.962611
-15.7651 136.224 -6.93378
-12.8191 132.104 5.7053
-27.347 126.436 0.337336
6.34996 145.525 0.0342428
-17.9229 134.866 -6.444
-10.4662 140.222 -8.96242
-11.7143 139.636 -9.0425
-22.7131 132.288 -6.45937
4.38322 146.624 -4.51112
-26.8362 128.879 -4.04202
5.60915 145.251 -0.00493011
-14.7209 137.721 -8.43818
-26.1162 127.23 0.530879
-24.5347 126.08 5.00678
-20.0261 128.524 5.23382
-4.29509 141.844 -4.47788
-26.837 129.017 -4.10159
-26.2999 127.801 -0.755937
-3.48804 142.157 -4.09745
11.6896 147.396 3.21721
8.78691 146.749 1.15905
0.708767 144.481 -3.77692
-25.6944 129.282 -2.96539
-27.4597 126.602 0.730932
-5.25862 138.209 2.71854
-25.8388 126.907 2.19658
-23.1411 131.321 -4.06514
-11.8949 134.122 3.62736
-14.2364 132.108 5.22239
-19.8987 128.997 5.07506
-8.16283 136.863 2.37307
-23.3448 131.163 -3.77102
-14.9313 137.993 -8.23423
7.33365 148.864 -4.60329
-26.7738 129.809 -4.7527
-27.1738 126.398 2.2144
-22.798 132.61 -5.89278
-26.848 130.273 -5.73382
-27.3601 126.312 2.32051
9.31693 149.594 -3.4921
-22.2649 132.181 -4.15415
-8.41633 136.963 2.38021
-27.0143 129.182 -3.34164
-10.9862 140.668 -8.73771
-22.185 127.643 5.94605
4.8113 145.514 0.0563391
-24.5154 132.16 -6.71207
6.96125 148.836 -4.5077
-26.7723 127.177 1.57259
-5.5134 138.622 2.6778
-26.983 126.558 2.69675
-15.9244 136.898 -6.29718
-9.29799 136.444 2.82786
8.48618 147.268 1.08125
10.6983 147.795 2.7099
8.18739 149.7 -4.48922
-12.954 134.1 3.69022
-25.362 129.987 -2.51222
9.23508 147.53 1.63723
4.8095 145.736 0.133872
-8.13149 137.672 1.97117
-25.2458 130.579 -3.48664
11.6353 149.604 0.274655
-2.79743 140.639 2.19676
-8.32546 142.085 -7.63473
-28.2177 128.342 -1.97678
12.7763 149.394 2.40123
-22.5362 131.665 -2.18271
-8.75328 142.154 -8.15067
-17.697 130.584 6.21342
-23.1699 131.86 -3.24104
-26.9601 127.72 1.19614
-2.04207 141.324 2.10631
-7.37069 138.26 2.3031
-27.2808 129.154 -2.19601
-7.92497 138.146 2.076
-21.4942 134.129 -5.74477
-16.0884 137.272 -5.9645
-19.891 134 -3.47221
-19.8235 134.44 -4.3304
-27.842 126.455 3.34102
-7.7449 142.669 -7.37541
-25.8595 131.037 -4.19157
-28.3579 126.365 2.93465
-23.7764 133.654 -7.30798
8.31722 147.833 1.0922
-26.5658 131.536 -5.97202
-21.6406 133.01 -3.12193
-27.9861 130.747 -5.94366
-27.1844 128.514 -0.088143
-27.3909 127.96 0.940606
-27.6282 127.244 2.22228
-24.9413 133.103 -7.21793
-22.9489 132.386 -3.12161
-14.6021 139.2 -7.72052
-27.4269 127.251 2.65469
5.0899 146.611 0.274901
-25.154 127.166 5.63766
10.3056 150.167 -1.07845
-13.2012 140.073 -7.82429
-25.0387 132.105 -4.94802
12.8391 150.745 0.831209
-29.1568 127.747 -0.405424
-17.0234 131.503 6.34955
-26.5864 131.644 -5.66426
12.044 150.591 0.367189
8.15934 148.087 1.07844
-6.53007 143.351 -6.49734
-24.1535 128.084 5.27009
-24.908 132.942 -6.12914
-27.0737 128.127 1.73504
-19.9438 134.503 -3.4231
-22.7917 134.363 -6.5942
2.10821 144.503 1.79594
-28.4385 126.611 3.40449
0.589016 143.767 1.69653
0.266716 143.642 1.64433
-22.2423 133.324 -3.38403
-4.74799 140.464 2.51048
8.96852 150.553 -2.68408
-28.0655 128.301 0.528014
-21.7081 133.714 -3.44949
-23.8607 128.606 5.07655
-15.6726 138.828 -7.12478
-26.5424 127.795 3.70534
-3.5582 141.331 2.34649
-29.3107 129.965 -4.32902
-29.6693 129.06 -2.77946
-15.432 139.296 -7.56427
9.93574 150.683 -1.29896
-24.5846 133.213 -5.42033
-27.8036 131.858 -6.3998
-28.1049 127.591 2.59079
-27.5384 131.987 -6.29354
-29.7704 129.405 -3.3381
-20.837 134.2 -2.79058
3.00847 147.744 -3.04
-26.8487 131.93 -5.09318
-19.0617 131.214 6.02232
-27.6489 127.857 2.83127
-11.283 141.981 -7.83551
-29.0869 126.896 3.3038
-22.9777 129.656 4.81336
-30.5166 126.811 1.80612
-26.7092 131.882 -4.48606
6.66894 150.284 -3.67199
-29.4843 127.024 2.79872
-10.8344 142.307 -7.6594
-23.0306 129.529 5.30864
-29.4255 126.919 3.18438
-24.4117 128.726 5.41274
-30.4735 128.191 -0.797145
-25.2557 128.329 5.31018
-10.7892 142.426 -7.57691
-26.5097 130.104 0.0398224
-29.1913 127.371 2.80732
5.31229 147.729 0.677931
0.112823 146.645 -3.20134
-13.6517 140.922 -7.57399
-14.4985 135.389 3.66162
1.86253 147.61 -2.93652
-3.76687 142.064 2.28094
-18.888 136.022 -3.01976
-21.1114 134.584 -2.60462
-8.07188 144.11 -7.32613
-27.8372 128.943 1.56069
-27.8145 128.554 2.47731
-30.753 126.832 2.63902
-25.3362 133.136 -4.45587
-27.5513 128.348 3.27497
9.09114 151.198 -1.6565
-25.1191 128.688 5.56813
-24.1196 129.227 5.65513
-21.5457 134.474 -2.60016
3.41554 146.513 1.73371
-15.3598 134.512 4.91493
-27.4776 129.424 1.30975
-17.2812 133.137 5.71327
-25.8881 132.928 -4.35074
-17.08 138.03 -4.67918
-14.74 135.378 3.96639
-1.07482 144.012 1.92214
-3.87768 145.476 -4.62329
-26.6387 129.036 3.47401
-21.4009 136.148 -5.56214
-5.38327 145.18 -5.63058
-7.13677 144.885 -7.09958
-4.48765 145.563 -4.99202
1.66182 148.076 -2.93568
-3.99205 145.797 -4.73619
-0.537151 144.673 2.00545
-25.024 134.1 -4.91255
2.20151 145.973 2.60947
-16.0454 139.575 -5.71656
-18.4503 132.937 5.82561
11.0949 152.055 0.402904
-17.7128 133.444 5.82657
-15.0921 135.608 4.36503
-13.7283 136.858 3.32342
-8.22004 140.625 1.90798
-18.8247 137.275 -3.57725
-14.9174 141.213 -7.35639
6.67462 149.65 0.690296
-16.0173 139.844 -5.71192
-15.1236 135.728 4.38412
-28.186 128.434 4.29422
-5.09631 142.39 2.21283
-12.1578 138.437 2.26685
5.22754 150.376 -2.4484
-20.6406 137.456 -5.95335
-29.3921 128.454 3.1424
9.02768 152.156 -1.39799
-31.3498 129.396 -1.20827
-11.7703 138.957 1.93411
-27.4382 129.029 4.43222
-30.3721 128.022 3.03769
-26.7371 129.266 4.86899
-3.52886 146.672 -4.6184
-30.7819 127.682 3.45011
9.08629 152.27 -1.2862
-31.0537 130.331 -2.56315
-27.8377 128.8 4.76624
-10.6434 139.712 2.1478
-2.01133 144.521 2.23499
-11.0277 143.55 -6.66275
-18.9201 133.299 6.0437
-30.6069 128.268 2.79508
-5.42678 142.771 2.16125
-28.8376 129.124 3.27872
-28.2972 128.62 5.09432
-3.85105 146.896 -4.79985
-10.4698 139.906 2.35483
-24.9856 129.892 6.47793
-18.4588 138.177 -3.49748
-29.8819 128.915 2.84229
-5.06434 146.775 -5.62583
-8.03543 145.808 -7.03733
-17.5184 139.528 -4.93851
-21.4426 138.141 -6.51336
-20.2004 137.989 -4.59559
-22.1 131.908 6.34992
-22.0705 131.942 6.409
-31.0777 128.297 3.47672
-16.2638 141.167 -6.32597
-5.13183 147.135 -5.69442
-23.8416 130.717 7.29433
-26.7516 134.091 -3.58464
-7.79416 146.279 -6.87793
-14.4177 142.424 -6.58287
6.35782 151.953 -1.80767
-0.294959 148.906 -3.27811
-14.8808 137.523 3.68234
-11.6295 143.992 -6.31265
8.97558 152.324 0.771071
-10.3981 140.484 2.87678
-16.7055 135.735 5.51127
-19.9212 133.437 6.58308
-20.8668 132.832 6.77103
-8.95819 146.093 -7.13169
-9.73574 140.949 3.16738
-1.33735 148.868 -3.76394
-21.7208 132.829 6.30278
-28.5089 133.162 -2.57748
-27.0992 130.135 5.77252
-18.2605 134.946 6.30634
-23.2335 137.953 -6.26079
6.30124 152.441 -1.54538
-26.003 130.68 6.34586
-24.8807 136.552 -5.04654
-23.45 132.219 6.22303
-3.10655 145.292 2.68943
-25.3081 130.838 7.12457
6.57803 152.828 -1.45758
-22.3109 138.67 -5.94662
-27.3325 134.725 -3.44873
6.44675 152.836 -1.45819
-2.86521 145.426 3.38545
-7.62603 147.388 -6.69746
-31.1854 131.628 -1.15236
-0.781026 149.87 -3.68226
1.12811 150.659 -3.05177
-31.0638 131.991 -1.75668
-22.723 138.599 -5.92576
-13.1664 143.897 -5.76622
-28.0819 134.084 -2.62758
-7.94651 142.685 3.28014
-29.8611 130.172 4.07395
-4.79998 148.647 -5.46419
-19.0351 139.77 -3.44666
-2.71695 149.446 -4.52292
-13.7414 140.084 2.68225
-11.1381 145.732 -6.4329
-21.7202 134.459 5.28694
-17.439 141.459 -4.61172
-6.66311 148.291 -6.30015
-21.6159 134.592 5.28384
-27.332 135.474 -3.59397
-14.3046 139.924 2.66791
-4.50256 149.083 -5.26443
-8.42988 147.608 -6.79579
-25.8096 131.638 6.76143
-21.5628 134.734 5.24757
-5.72548 148.712 -5.82777
-3.77002 149.418 -4.97156
-24.2161 138.303 -5.68616
-7.80883 143.138 4.03027
-12.1836 141.346 2.61087
-3.66658 145.673 3.65688
-29.4521 131.602 2.76005
-27.5386 131.19 6.02568
-1.17939 150.618 -3.95612
-16.9996 141.352 -3.10361
-5.89735 148.863 -5.857
-20.3735 135.351 5.98252
-24.4854 132.967 6.35885
-8.87218 147.769 -6.75822
-13.5174 144.73 -5.80942
-16.9678 137.655 5.41355
8.34319 153.46 2.1997
-7.35318 143.573 4.56239
2.66507 152.465 -2.54497
-5.04224 145.237 3.82835
-3.00554 150.227 -4.52305
-23.8714 138.814 -5.14403
-28.315 135.341 -2.97898
-14.2961 144.496 -5.73381
-13.9828 144.705 -5.77411
-9.67471 142.591 4.37683
-26.794 133.647 2.98187
-11.7553 146.313 -6.19119
-16.8449 142.252 -3.39154
-30.814 133.488 -1.33397
-19.2189 141.324 -4.18004
-27.3662 131.925 6.35887
-11.2791 146.808 -6.34911
-6.77495 149.223 -6.0834
-30.6251 132.569 1.26532
-30.0342 134.306 -1.76472
-30.3372 132.588 1.62002
-8.47201 143.382 4.86625
-18.6308 141.802 -3.95009
-27.2811 134.296 1.8579
-26.6221 133.552 4.47057
-21.5389 135.917 5.5514
-29.1994 135.217 -2.23082
-25.6025 133.647 5.71322
6.0037 154.73 -1.23221
-19.1509 141.914 -4.08819
-26.2754 133.911 4.72285
-23.536 135.678 4.28049
-30.1086 134.736 -1.67438
7.17497 154.76 0.33607
-24.9565 134.553 5.24744
-20.4864 136.646 6.27146
-28.748 134.438 1.02495
-15.902 143.991 -4.05786
-4.17288 150.896 -4.61496
7.06127 154.922 0.48224
-6.56273 150.119 -5.68437
-17.366 139.088 5.27046
-20.3708 136.939 6.40433
-24.7524 135.543 4.10358
-5.93719 150.45 -5.32005
-16.3605 144.309 -4.545
-9.91377 143.794 4.48685
-14.0057 142.362 2.60321
-6.7952 150.243 -5.72335
-7.6835 144.897 5.36597
-6.66413 150.622 -5.51676
-22.014 141.004 -3.24549
-21.7832 136.975 5.83846
-22.7954 140.729 -3.37341
-15.9863 144.439 -3.01596
-21.9569 141.166 -3.17975
-29.181 136.469 -1.51411
-28.299 137.11 -1.82759
-18.5252 138.981 6.49366
-19.5422 138.475 6.44862
-18.2827 143.433 -2.73717
-22.2677 137.529 5.47281
-25.6196 139.725 -3.06819
-21.8304 137.864 5.86
-27.6789 137.988 -1.54408
-29.1444 136.992 -0.978373
-13.9076 147.611 -5.2647
-13.8975 143.776 3.10834
-1.62817 153.386 -2.813
-16.8588 144.529 -2.12454
-17.6436 140.728 5.32483
-8.78679 150.771 -5.60549
-28.9852 137.364 -0.738945
-13.737 147.996 -5.23877
-17.9992 140.435 6.11108
-18.7493 144.126 -2.73208
-27.7546 138.36 -1.00997
-16.1427 146.208 -3.86158
-21.9177 142.548 -2.9248
-29.1434 137.449 -0.452272
-20.6255 143.51 -3.22692
-19.7407 144.047 -3.29978
-17.8356 144.751 -2.20044
-25.4292 140.59 -2.42884
-15.7508 146.686 -3.85205
-14.9636 143.293 4.77951
-10.086 146.141 4.55063
-11.0891 150.2 -5.4972
-28.6054 137.778 0.219969
-5.73194 152.478 -3.81106
-11.4814 146.335 2.72329
-16.2076 146.275 -2.7554
-28.4082 138.305 -0.292757
-27.3136 138.188 1.45944
-11.1514 145.968 4.32819
-24.7538 141.154 -1.80397
-23.6112 138.905 4.63288
-17.7109 142.078 4.97682
-25.1228 139 2.82215
-27.0458 139.619 -0.762891
