ply
format ascii 1.0
comment Created by Open3D
element vertex 1915
property double x
property double y
property double z
end_header
10.2813 111.326 2.70404
8.1988 106.456 5.38522
11.0124 112.46 2.72008
-8.98283 79.7619 8.01946
20.6466 123.692 6.75681
4.77289 98.53 9.77093
20.1555 127.007 1.0794
13.8632 120.013 -1.92579
11.6586 105.089 14.7412
16.2542 120.242 2.73253
19.7687 123.412 5.55343
-12.347 77.3194 4.77414
-12.8705 77.9132 2.88972
-12.6319 80.0305 0.395867
20.5684 123.587 7.06723
-12.7019 77.5997 3.85356
4.17624 107.716 -4.08552
8.27112 107.782 4.29646
20.4848 127.199 1.93359
10.725 105.943 11.997
16.1923 120.566 2.56902
12.1419 115.187 1.87201
-8.27399 80.9785 8.33849
5.12964 100.179 8.76253
19.5245 124.062 4.55141
-12.6633 81.2619 -1.04579
1.51669 91.5005 13.6749
17.2119 113.64 14.6224
16.7424 112.848 14.8032
-5.29339 84.6053 9.47476
21.6691 125.285 7.34551
-5.83585 94.3143 -5.37026
15.6182 119.659 2.89196
10.9118 105.588 13.1572
15.2033 121.124 0.065043
10.5856 105.791 12.3038
11.924 114.083 3.33096
14.9496 119.712 1.66052
9.77134 111.338 2.92091
7.79313 110.966 -0.616536
-12.6874 81.5376 -1.06218
17.0824 121.92 2.98575
16.1891 122.697 0.0560553
-0.254659 90.2959 12.1424
16.2036 122.747 0.0778728
-12.7879 81.7353 -1.42898
16.1588 122.741 0.0614353
15.1508 110.545 15.2842
-0.324221 103.061 -5.95386
21.536 125.469 7.39109
22.6783 130.715 2.31243
16.9277 121.996 2.84409
13.1896 112.483 8.65795
-12.0257 77.3848 6.54969
-5.29224 95.9675 -5.91607
-5.52247 95.6604 -5.89384
22.8567 128.504 5.99484
12.9682 115.852 3.66996
-12.9895 78.0868 3.76579
2.34634 106.528 -4.95882
13.1071 112.357 8.97717
11.303 113.567 3.55092
-1.53586 89.6415 11.0638
-13.3586 78.7571 2.17902
9.41401 111.994 1.9867
14.6867 120.076 1.38618
11.1197 114.14 2.48022
19.4651 130.802 -3.91992
19.0732 121.585 8.37136
1.34069 92.2603 13.4346
6.37616 102.77 8.99834
17.3461 123.204 2.63244
20.378 124.623 6.95387
18.0195 129.16 -4.27026
-4.86431 86.0188 9.88829
20.4517 124.531 7.45639
17.2712 123.531 2.3327
6.82082 103.92 8.62357
16.5129 113.714 14.702
14.0174 109.59 15.4169
11.3103 105.989 14.9806
19.6431 123.836 6.88388
-12.5145 78.0634 5.75682
8.6225 111.923 1.3086
1.22739 92.9414 13.0031
-9.76834 80.5735 7.90382
16.2077 113.478 14.7604
12.0484 108.148 13.7803
-8.82412 91.2505 -5.23013
17.8514 116.328 14.1769
-8.2443 82.4714 8.46305
6.57531 103.817 8.77784
-8.61501 91.7719 -5.41231
1.22076 93.0225 13.0679
22.0989 132.466 0.206267
13.8152 123.42 -4.01646
-11.0202 79.4422 7.21053
12.9468 120.967 -2.3071
12.0269 107.375 15.1581
5.48295 101.797 9.60222
5.34551 101.605 9.59134
9.62599 112.778 2.56553
17.1122 124.241 1.73844
18.4337 125.682 2.43502
0.514716 105.369 -5.52709
21.8443 135.144 -3.80916
18.3843 118.664 12.4331
-7.27901 94.5739 -6.18122
14.7957 122.254 0.150853
11.8625 107.489 15.1413
18.7464 123.944 6.04723
13.5478 117.303 4.81217
16.4212 123.935 1.36776
7.09999 105.542 8.27924
20.0732 126.005 5.98923
23.3657 135.448 -0.592351
-13.9012 79.6554 1.81376
1.7475 94.5688 12.9449
0.869977 106.184 -5.28087
0.531198 105.753 -5.34584
15.368 123.837 -0.429797
17.6369 123.113 5.36925
-2.87307 101.088 -5.58928
20.2364 125.627 7.27784
13.3329 109.822 15.4727
9.25511 112.651 3.09956
-1.71273 90.9068 11.3504
21.8149 135.503 -3.39933
10.7709 114.609 3.4846
11.0843 116.73 1.15862
5.24883 101.798 10.3205
16.0883 124.011 1.15071
17.1147 125.213 1.57185
-11.5263 80.1487 6.53375
17.4942 125.696 1.72092
6.76247 112.362 -1.45823
15.6582 124.818 -0.794703
-0.342236 104.899 -5.46883
2.07528 96.1338 12.0431
-13.629 79.1625 3.8068
-13.9688 80.5662 1.15442
-13.7281 82.432 -0.934991
7.01714 105.97 8.42091
13.4295 122.193 -1.33881
22.211 131.842 3.08525
18.095 119.689 11.8643
9.13871 113.28 2.54042
12.0743 120.374 -1.46141
12.8624 118.158 3.31156
15.4509 124.735 -0.655187
-13.2884 79.1227 4.86685
-10.9385 87.9899 -2.81388
14.6305 123.6 -0.643332
18.2866 124.324 5.96804
-8.93831 92.9188 -5.49724
-13.0611 79.6159 4.93239
6.47975 105.551 8.43624
19.1699 125.771 5.91754
4.69125 101.388 10.7137
1.30332 107.463 -4.84029
20.3433 127.214 6.36467
15.9782 128.454 -4.36081
21.7721 130.214 5.10672
21.0924 135.819 -4.19261
-13.1037 79.8638 4.75841
18.0403 124.965 4.98706
11.4992 110.55 11.9981
-1.81359 103.601 -5.51933
8.90031 113.002 3.2444
-3.66661 100.902 -5.44798
20.5559 135.35 -4.38593
15.3973 114.448 14.6493
-10.318 82.2409 7.36106
18.1885 123.946 6.93449
0.901103 107.161 -4.81433
13.5212 117.52 6.48722
9.93394 115.04 2.64225
19.979 134.602 -4.34604
1.38314 95.8412 12.3244
-4.79514 88.831 9.60301
-1.38746 91.796 12.4781
17.0299 117.321 14.2157
3.6461 99.9463 11.3199
14.7345 123.821 0.353894
10.7583 117.405 1.29019
12.336 118.741 2.71577
19.5833 127.288 5.61525
11.4422 108.862 15.0424
4.46796 102.029 10.4366
1.02704 95.612 12.5086
-8.46369 84.8611 8.22414
-2.18673 91.6697 11.5327
-4.8312 89.3096 9.54895
19.3927 125.674 7.89547
-7.75102 96.4015 -6.4887
6.52253 106.392 8.78431
18.5327 126.102 5.63219
2.50813 109.837 -4.2796
10.3218 116.866 1.84741
19.0189 126.99 5.4601
13.5438 124.213 -1.80908
13.808 125.131 -2.56405
2.1196 97.8869 12.0573
11.4372 110.065 14.0504
18.3486 125.022 7.07804
18.9248 134.022 -4.41287
7.74232 109.371 7.5131
19.3736 134.763 -4.49806
17.6095 124.84 5.94469
-11.9439 81.9431 5.92698
-5.11107 100.206 -5.86591
14.3891 114.017 14.7363
18.4101 125.269 7.095
13.7611 124.106 -0.818974
13.2495 120.116 3.80491
14.8917 124.853 0.590208
18.8215 134.15 -4.45699
11.2481 120.836 -1.17071
22.6729 136.814 -0.287286
10.9122 117.923 2.27967
-2.18384 104.237 -5.27645
12.8689 123.947 -2.19331
21.3194 134.701 -0.0179484
-13.5004 85.0917 -1.33633
17.7766 126.554 4.36609
16.9306 120.268 11.6145
12.0523 119.633 2.46999
17.8562 126.946 4.08519
11.353 112.272 11.6062
13.6078 125.966 -3.08512
14.5224 125.129 -0.00238264
16.2129 120.383 10.2135
11.241 120.826 -0.644588
3.00852 100.59 11.1943
13.6001 120.242 5.14605
-14.9338 81.7401 0.982299
17.8797 133.03 -4.12413
-0.353965 93.7437 14.0347
11.2109 111.797 12.3014
16.9788 119.922 12.7949
13.4072 121.025 3.95142
-8.14518 97.0442 -6.36304
3.91339 103.014 10.0865
8.89024 115.272 3.03844
3.86257 112.344 -3.16073
18.5999 125.622 8.48241
-7.97551 86.9448 8.60582
13.2717 121.507 3.36909
10.9866 121.277 -0.981523
11.2524 111.585 13.3124
4.13633 112.847 -3.102
14.0583 126.777 -2.39159
-7.87676 97.908 -6.59942
17.6917 123.657 9.54848
13.4484 125.935 -2.4044
19.138 127.48 7.13255
17.6341 123.612 9.56948
13.7268 124.61 0.111648
12.8241 125.326 -2.74662
2.4071 100.214 11.4285
18.7762 126.478 7.94354
11.5585 120.074 2.16875
13.5894 120.577 5.6741
16.5119 131.662 -3.95898
18.7141 128.002 5.81605
18.4863 127.992 5.41306
8.50158 114.925 3.40842
20.9849 131.917 5.03567
14.7486 127.414 -1.25483
11.2646 122.904 -2.0009
16.8359 127.379 3.1267
4.44902 105.137 9.19807
-9.42126 85.8207 8.10498
-13.3184 82.5008 4.79349
-9.20291 95.748 -5.50739
12.6229 121.555 2.85801
15.6749 124.562 4.87903
7.8878 113.294 4.83076
5.58021 114.393 -1.43478
-14.9593 82.736 1.19115
11.477 123.657 -2.36006
-14.5001 85.1462 -1.24644
15.2077 127.208 0.293827
-7.13806 88.717 8.85307
-11.1109 83.8195 7.63719
15.698 124.601 5.05814
21.248 138.46 -3.09408
2.5943 101.711 10.6221
17.2883 128.805 2.54605
-1.00854 107.017 -4.21935
14.4532 126.579 -0.0678401
-0.622704 95.3135 13.2605
6.51667 114.555 0.693441
14.6975 127.07 -0.102248
-9.59667 95.4462 -5.28665
14.3976 126.596 0.0412325
-11.447 83.9 7.36076
12.7876 126.297 -2.82221
8.8092 116.224 3.27561
15.8673 120.951 11.2262
-15.0649 84.7234 -1.07857
-15.3377 83.8661 -0.405585
6.10172 114.619 0.175807
12.2583 125.765 -2.92151
11.3353 114.032 11.8258
-12.6553 83.384 5.88471
14.8705 124.946 3.71058
11.8829 113.018 14.5639
17.5558 125.071 9.18055
-9.8406 95.4439 -5.16124
5.97216 108.083 9.49516
-15.3285 84.2017 -0.498931
11.048 123.717 -2.18651
14.8944 127.69 0.138256
15.7173 121.512 10.6583
17.8755 128.408 5.35092
6.52625 115.013 1.03411
12.9102 119.753 7.59928
12.8952 114.665 14.8008
6.01817 114.925 0.285899
21.5417 137.474 0.348681
-10.1611 95.2592 -5.03122
18.9377 129.726 6.05569
-11.004 93.9179 -4.80256
-5.22781 103.212 -6.0811
17.8393 127.293 7.29276
-7.29125 89.6793 8.89488
20.7204 138.977 -3.29129
21.9333 139.688 -1.80176
9.32581 118.592 2.17636
15.4977 119.335 13.8499
-7.53287 100.245 -6.50116
20.208 131.783 5.91031
18.1852 129.118 5.52445
14.8677 131.071 -4.00688
0.967153 110.723 -3.65526
15.7325 128.919 0.959734
-2.25092 94.1471 13.2386
-15.2987 84.5762 -0.019819
14.3454 128.654 -1.43183
13.3985 128.547 -3.12278
21.1021 136.51 1.46226
8.08949 115.314 4.72307
16.6591 123.949 10.1454
7.41098 115.857 2.57741
18.5051 129.571 5.99645
-5.90511 102.484 -5.84466
14.1256 126.161 1.84522
0.616371 110.369 -3.54186
1.65249 112.034 -3.7642
-2.94729 94.0223 12.3184
19.8714 134.198 2.38092
4.7228 115.574 -2.378
9.11047 118.683 2.26711
8.65677 117.215 3.49145
15.8275 128.943 1.63068
5.72876 115.323 0.183599
16.6879 126.599 6.77806
6.94064 110.935 8.92062
17.3475 135.829 -4.92892
22.3488 139.553 0.126354
11.2975 114.001 13.6142
7.12706 111.45 8.71084
6.98514 111.139 8.8821
5.05817 115.244 -0.902972
22.169 139.14 0.467284
11.3434 116.348 10.4953
-12.0965 92.8647 -4.46458
15.8649 125.942 6.22789
14.4286 118.203 14.3102
15.0758 119.418 13.9292
-3.03225 94.3198 12.3256
15.7336 129.454 1.1559
13.963 117.523 14.4685
17.8159 128.173 7.3433
13.2952 127.548 -1.06969
-3.69645 93.9935 11.591
15.9293 133.863 -4.43728
13.4665 123.002 5.89225
-5.23703 104.619 -6.48589
17.5351 129.351 5.34666
15.6024 130.412 -0.0915894
17.2698 129.644 4.44033
-15.2691 86.1131 -0.804364
16.4454 128.869 3.88568
8.29473 117.087 3.86502
-1.57921 95.943 13.5392
-13.178 91.4737 -3.97156
-15.2586 85.6719 -0.0161421
-12.5707 85.2124 6.19414
15.5534 122.767 10.88
15.0401 128.95 1.05863
4.39148 115.985 -2.46087
11.8446 127.509 -3.44613
-13.2997 91.291 -3.8679
22.0428 139.512 0.549976
-15.1202 85.0757 1.26799
13.4352 129.841 -3.3728
11.7684 127.438 -3.36517
1.98999 113.388 -3.45931
2.89344 105.485 9.6376
16.4136 129.587 3.30662
16.7708 131.292 1.6323
11.1096 115.009 13.0663
19.6254 134.552 2.90605
14.9135 129.798 -0.0518431
16.0916 128.724 3.90204
16.5796 127.452 6.70974
11.0709 115.136 12.9377
16.4432 130.406 2.36829
-15.2464 86.2571 -0.288522
16.4346 127.425 6.59109
13.7546 128.409 -0.258516
15.2571 127.844 3.65021
17.2602 136.522 -4.52355
12.354 124.84 2.07124
18.8924 131.498 6.12824
13.4838 130.314 -3.29701
-14.051 90.0933 -2.95611
17.1184 128.861 6.27668
15.8217 126.95 6.32356
11.39 127.199 -3.10357
2.44603 114.31 -3.21306
13.5125 127.03 1.54127
13.6857 130.284 -2.70803
12.995 129.331 -2.76993
16.4196 129.442 4.14131
14.93 122.325 11.1777
21.0017 140.813 -2.52939
11.5468 118.502 9.72689
-11.4344 86.6408 7.61425
16.8142 129.477 5.28837
-1.86215 96.5725 13.5402
16.0519 128.085 5.78862
8.03351 116.857 5.23092
16.9089 130.974 3.51246
8.02329 118.131 3.44453
13.5259 126.271 3.2375
19.7491 135.71 2.69196
12.7273 122.413 7.0996
16.9847 128.222 7.68205
12.3186 117.032 13.9788
15.6422 124.155 10.7602
16.9034 130.063 5.00344
2.94241 115.375 -2.91991
-5.83686 105.317 -6.73702
16.2153 128.801 5.42244
16.5504 128.856 6.04547
15.0111 121.536 13.2583
12.626 122.319 7.25025
-6.98465 103.494 -6.41072
-1.86709 96.9747 13.4081
13.4724 127.569 1.66212
2.50267 105.809 9.9418
16.5931 129.041 6.06324
14.2861 127.127 4.06672
-6.57087 104.434 -6.62971
13.561 125.924 4.35955
18.9024 132.602 5.91036
15.1764 131.809 -0.633318
18.59 133.875 3.5426
16.3826 133.483 -0.392546
13.6991 130.779 -2.05097
9.57585 123.739 -0.440932
10.7484 127.04 -2.70486
9.40025 121.255 2.78374
14.489 129.135 2.09831
-13.0839 93.6433 -4.35383
13.8426 130.377 -0.976365
-7.38455 103.478 -6.52362
14.1863 133.694 -4.87289
-2.34505 108.813 -3.63455
-15.368 88.258 -1.29219
5.082 110.159 9.77899
-13.3688 87.0986 4.48757
-1.39688 109.917 -3.18132
-3.07108 95.9855 13.1244
-10.4368 88.5581 8.52147
14.6119 134.551 -5.1004
-13.4701 87.276 4.17369
-9.64763 100.35 -6.44982
-11.357 97.0922 -5.29385
-9.94205 99.981 -6.4695
-14.306 87.279 2.55513
12.4725 126.73 1.79046
16.3033 132.755 1.14462
14.3036 128.77 2.72037
15.5175 133.035 -0.790045
18.4788 134.262 3.60911
19.5322 140.62 -3.14434
21.3512 140.108 1.34468
13.1317 129.683 -0.741365
6.78269 113.805 8.71134
-3.10317 108.517 -4.14377
12.0924 130.528 -4.03568
12.8026 124.219 6.43226
7.84622 116.795 6.80458
13.5638 127.026 4.08076
8.51059 120.547 2.96339
13.0209 127.661 2.17351
4.19508 117.093 -0.970296
13.3086 125.71 5.68403
6.0611 118.22 1.43568
-0.702443 111.417 -2.81027
-11.98 88.0179 7.29168
-4.99538 95.2818 11.4687
-13.2601 94.4026 -4.28732
-9.05906 102.191 -6.67805
17.9965 134.11 3.78582
-3.45078 96.4405 13.058
4.33835 109.985 9.89697
13.182 120.196 13.6328
14.2538 121.889 13.483
12.8829 131.627 -3.14109
-13.0733 94.9459 -4.54548
-7.87046 104.215 -6.91268
1.40056 114.932 -3.01434
13.1223 129.937 -0.118904
12.9425 120.035 13.5803
6.77792 114.313 9.03341
0.685641 104.621 10.2364
6.86627 118.771 2.90348
15.1705 133.974 -1.44091
14.4435 133.698 -2.53345
12.2184 119.187 13.4873
13.0783 129.307 0.919769
-0.11368 103.241 10.7224
13.2147 133.28 -4.39195
8.32896 120.133 4.21134
-15.3631 88.4212 0.418037
13.8118 128.581 3.62203
4.76534 117.894 0.241689
16.1373 129.912 6.62102
5.74019 118.589 1.34193
-14.1151 88.3575 3.32536
15.7758 134.397 -0.291093
9.28828 125.35 -0.796185
11.3351 118.73 12.8125
10.6635 119.125 10.8752
14.5818 125.809 9.52114
11.4106 121.656 8.90301
14.5095 133.953 -2.04197
12.4939 120.195 13.3978
10.9184 120.4 9.87296
7.10739 115.681 8.73098
-7.72394 105.278 -7.04327
-15.1938 89.703 -0.341744
18.6537 136.394 3.17274
-15.3691 90.6105 -1.8721
9.04371 124.45 0.42754
20.9745 143.13 -1.43312
10.8711 129.926 -3.4688
-3.95141 109.162 -4.52475
-4.57061 96.4106 12.3082
13.602 122.165 13.2676
17.1102 132.534 5.80898
5.3109 118.754 1.07021
13.1377 126.765 5.86061
-2.59213 98.6788 13.3052
8.1538 121.506 3.14865
-5.60946 107.705 -5.49343
-15.3608 90.9412 -1.74964
14.2323 126.621 8.67018
12.9393 129.914 1.3758
17.3085 133.367 5.49338
15.1925 134.152 0.0426153
13.3853 127.795 5.34032
10.6951 120.004 10.8679
13.4411 128.451 4.54777
-7.26449 106.357 -6.70835
0.782065 115.13 -2.51132
11.784 128.174 1.72048
8.87943 125.146 0.058706
13.4585 129.785 2.91607
3.17282 118.283 -1.91618
16.221 138.49 -3.66065
-14.7836 92.9259 -2.8983
17.8142 135.694 3.59307
8.7567 123.162 2.73468
-10.8602 101.377 -6.73136
-14.8325 91.0443 -0.0844686
8.86399 124.328 1.60474
-7.18728 106.777 -6.52581
14.0777 133.96 -1.1713
-14.855 91.3808 -0.351432
-14.7519 90.2584 1.45319
7.71011 118.636 7.4958
13.6541 125.469 10.0491
14.1733 132.084 1.74306
14.9579 136.295 -2.55461
3.24047 110.5 9.90439
-14.4871 91.1715 0.939295
12.2966 133.562 -3.94961
-13.3224 89.5677 5.68355
13.4173 129.258 4.48785
7.90201 122.282 3.0632
13.3048 131.146 1.72224
12.8142 127.304 6.18687
8.72594 124.189 2.22217
10.6202 121.316 10.1967
13.3756 129.205 4.70396
18.2635 137.576 2.92272
-13.0783 89.7413 6.24424
-14.5738 89.5369 3.4686
5.716 120.105 1.92892
11.1302 120.722 12.2477
13.5468 130.513 3.36078
8.37289 122.388 4.23411
5.9113 120.236 2.21746
11.8306 129.267 1.65613
8.77322 123.47 3.70403
12.3813 134.338 -4.26313
-11.9973 100.007 -5.75018
13.7164 132.096 1.72888
-6.77562 107.907 -6.11827
-14.8862 93.8436 -2.81844
14.0723 136.302 -3.38065
7.14537 117.757 8.68617
4.53226 120.126 -0.0408712
18.0482 141.552 -2.57647
-14.792 89.7975 3.20054
5.21746 114.085 10.1557
12.821 131.961 0.475429
13.5643 132.841 0.780982
4.54994 120.339 0.0346343
4.88217 113.738 10.0831
-15.0783 93.4543 -2.25467
14.8332 135.146 0.231704
13.1836 124.596 11.8004
13.8909 136.368 -3.42093
11.0294 123.614 8.79408
-14.7549 92.0938 0.412228
13.5352 133.339 0.25968
-11.3209 102.05 -6.55193
6.95155 121.535 3.56781
-14.6172 90.4272 3.26546
-0.129408 115.158 -1.87359
-0.40196 114.71 -1.75783
12.0711 134.626 -4.20456
-1.46539 104.207 11.0529
-0.705123 105.608 10.6656
12.1124 126.691 7.18054
9.11204 128.686 -1.7892
5.27158 120.745 1.59274
13.9315 135.423 -1.3805
-6.99464 96.2747 11.0424
-11.4276 92.1634 7.74813
12.1604 135.065 -4.45098
14.4 135.128 0.184071
9.03531 124.935 3.62284
-7.17838 108.484 -6.35993
13.5935 134.7 -0.744163
1.10447 108.809 10.2755
-4.78174 98.2444 13.1949
17.7974 138.261 2.96425
4.81046 114.298 10.2455
10.7035 122.243 11.1285
13.8582 137.268 -3.65865
8.31166 125.512 1.70563
13.1926 136.703 -4.10827
10.5265 123.357 9.50959
-3.22551 100.644 13.4112
10.5266 131.984 -2.64393
-14.5478 90.9361 3.92407
13.0772 136.786 -4.15565
8.89011 125.038 3.92364
7.21521 119.4 8.50217
16.198 134.769 5.25695
10.9939 124.965 8.49098
12.8785 130.007 5.22449
-13.8984 91.0366 5.4163
16.4485 135.295 5.20335
8.44646 124.162 4.54184
10.7519 124.494 8.82999
8.15203 122.727 6.00614
-11.3903 92.8813 8.08822
-13.5846 91.1008 6.13598
8.33196 128.106 -1.16633
-6.61401 97.1735 11.9693
13.1758 133.351 1.45416
-13.213 91.51 6.50255
2.94497 120.308 -1.02357
10.7338 133.066 -3.05424
2.91776 112.578 9.97179
20.3578 145.156 -0.201479
5.20257 121.636 1.95045
14.1467 137.084 -1.48338
-6.51331 110.115 -5.78097
-6.88365 109.82 -6.09873
-4.48177 112.087 -4.35262
14.7753 138.519 -2.08689
15.3075 140.021 -3.07102
19.8502 145.26 -1.06634
6.32449 117.967 9.80016
10.6408 129.827 1.91254
-12.5332 101.882 -6.16838
13.8282 130.063 8.16618
11.4474 135.338 -4.18743
8.86538 125.725 4.15884
-0.245273 107.886 10.7809
13.1305 132.086 4.02166
13.7684 134.586 1.80608
-13.9054 99.2832 -4.81988
-9.40062 107.23 -6.74811
12.5502 130.733 5.1968
-8.30926 108.919 -6.82183
7.02148 120.261 8.77441
-0.230987 108.371 10.6997
6.32825 123.107 3.32198
13.1786 132.996 3.4817
14.7914 133.127 6.64676
13.896 137.103 -0.832018
16.6541 137.808 3.87246
-15.3422 95.5109 -2.0379
7.40921 124.884 3.16985
13.9149 137.49 -1.28384
11.0687 124.145 11.7783
8.48566 125.306 4.85413
-8.17519 109.345 -6.75076
13.2649 133.87 2.62787
7.96542 127.81 0.326081
-15.3458 95.6865 -2.12064
19.3774 142.601 2.8746
3.56483 121.974 -0.410526
-13.8659 92.3267 5.74394
11.1686 126.943 8.22069
-13.1798 92.6767 6.669
9.74822 128.214 3.50252
10.6038 124.849 10.0519
13.7344 138.819 -3.29928
12.0923 137.328 -4.5581
1.55253 111.854 9.90854
15.816 141.565 -2.83634
5.41085 122.769 2.46322
14.2635 132.681 6.66232
3.44383 114.373 10.4161
-10.3188 106.31 -6.44863
-6.12964 98.7374 12.9336
12.9643 137.873 -3.21848
-5.91525 112.074 -5.51108
17.6157 143.73 -1.87321
-3.61687 114.074 -3.51203
7.91076 127.116 1.75566
19.5572 143.488 2.5351
11.5318 129.053 6.68878
10.9814 136.138 -4.44416
13.5744 137.502 -1.03709
13.5619 137.641 -1.12497
-6.63678 111.756 -5.97853
0.630382 110.921 10.1737
-3.44251 102.983 13.0653
3.90603 122.5 0.591809
5.51887 123.374 2.73188
-12.1179 94.0336 8.02108
16.5307 138.81 3.70044
3.56276 122.563 0.0420104
-3.26784 103.855 12.5372
7.71752 128.228 0.644218
10.4469 125.647 10.0307
-3.63803 114.656 -3.38242
-8.74875 109.722 -6.87248
12.3203 128.999 9.21689
15.1506 135.55 5.76894
13.1683 131.673 7.23423
-1.95665 115.912 -1.55483
12.447 134.351 2.02073
-14.4753 93.9778 3.91384
18.8613 142.942 3.19111
19.6546 146.04 0.440552
16.3288 138.421 4.44565
7.61728 127.469 2.04062
16.8237 139.869 3.46238
-5.79998 100.064 13.4543
-8.06932 111.017 -6.63072
12.48 138.845 -3.71062
-10.9328 106.944 -6.64312
7.48901 128.823 0.336989
5.76603 119.868 9.51435
6.98219 122.366 8.52548
12.059 129.268 9.20914
-14.0654 93.8082 5.74837
13.7818 139.223 -1.25797
-2.30452 116.165 -1.69116
10.1389 130.455 3.71795
-15.5487 95.6618 0.181379
19.3547 145.749 1.15724
3.9405 116.862 10.381
-15.4227 97.4646 -1.98737
5.43586 119.786 9.41092
13.7898 139.764 -1.70715
-14.706 100.03 -4.01523
8.51584 126.924 5.67271
-15.4171 97.8086 -2.31806
3.95745 117.062 10.2993
-14.239 94.4564 4.90551
16.7287 140.483 3.44004
-9.36644 109.972 -6.9708
6.82717 126.41 3.08101
11.3222 133.781 1.89046
-15.1667 95.6417 1.44963
7.89475 124.922 7.43052
-15.0264 99.5823 -3.60472
15.0362 141.839 -1.60893
-14.3185 94.9888 4.3768
7.53855 130.492 -0.950541
16.1937 143.589 -1.63731
-14.2318 94.8561 4.82741
-4.94345 115.042 -4.60682
13.0113 135.346 3.57924
14.8792 136.439 5.91445
11.9748 139.686 -4.65001
-7.17179 99.6768 12.655
-14.923 99.9937 -3.74255
11.9541 134.792 2.27787
-15.4064 98.865 -3.09339
-8.5031 111.468 -6.73313
18.9131 146.584 -0.0503755
-14.4811 95.4942 3.65912
3.98216 124.177 1.03712
7.04686 127.3 2.97792
6.96276 127.252 3.00841
0.215154 112.495 10.0745
-3.66198 105.035 12.6782
1.63124 114.263 10.495
-7.4642 112.877 -6.26596
-10.6869 96.8618 9.80747
9.59638 135.609 -3.33533
3.3701 116.911 10.3993
18.7825 144.718 2.78025
-12.1547 106.429 -6.6223
10.3123 129.07 7.6794
14.5034 136.098 6.40998
-11.436 96.3863 9.35262
-2.90253 116.771 -1.90435
15.5047 143.186 -1.38553
11.0995 129.474 9.00069
10.6895 128.886 9.03063
10.5151 128.912 8.65633
12.2128 136.878 0.867846
-5.95421 101.573 13.5335
16.2462 140.758 3.78795
13.6641 134.573 7.32128
12.2392 134.747 4.19337
17.0267 145.197 -0.733291
-15.529 96.8408 0.818018
-2.8292 117.173 -1.78883
14.9368 142.372 -0.85805
-15.6157 99.2282 -2.42412
13.0654 136.327 4.06128
-4.10721 105.036 13.1372
11.5578 136.359 1.0157
-2.70044 117.487 -1.58201
-9.78608 98.5727 10.6903
-14.8793 96.4659 3.22323
-12.6109 106.349 -6.06621
11.8891 134.406 4.63854
3.04919 117.681 10.168
12.2377 137.283 1.36583
7.24931 125.326 8.0752
12.8635 139.856 -0.934925
-8.11929 100.146 12.176
-7.90557 100.403 12.3479
17.8858 147.18 -0.819018
11.0974 131.025 8.15704
12.2027 133.203 7.38746
-13.4972 104.557 -4.89543
9.25158 130.517 5.20874
-9.26157 99.4266 11.293
-6.27986 102.233 13.5303
-12.6882 106.828 -6.16263
-11.5523 97.6131 9.27834
15.1241 138.777 5.8832
12.559 137.572 2.32829
11.1066 131.595 7.84197
9.08747 130.417 5.37937
-14.3082 96.4246 5.48138
17.3668 146.853 -0.789342
2.13723 116.444 11.0333
-6.79884 115.257 -5.58914
5.0064 122.045 9.09659
-15.4336 97.5702 1.73045
8.14231 134.884 -2.62502
7.61745 126.807 7.89539
-14.9616 97.1045 3.51752
-12.8214 106.934 -5.99421
-8.91156 113.067 -6.56522
8.30821 135.506 -2.82775
8.2579 128.69 6.80561
-14.8462 102.295 -3.34079
-14.8296 102.434 -3.30062
12.3 140.958 -2.04069
8.83247 130.587 5.53462
-0.122453 121.527 0.0567251
4.37726 126.702 2.08479
-11.0909 98.7507 9.86469
7.3432 133.616 -1.57526
13.4986 139.018 3.47682
-9.27281 100.34 11.4451
9.0075 131.194 5.34469
-3.96308 118.296 -3.06725
12.7065 136.99 4.7553
-12.9608 107.578 -6.0661
13.1673 138.144 4.42533
-5.94356 117.088 -5.00502
9.52199 132.962 4.34535
15.1594 140.573 5.28505
17.7897 146.544 2.24452
-11.781 98.8709 9.02298
17.7523 146.583 2.25009
15.0522 140.004 6.05567
4.02342 122.216 8.61561
-14.8073 97.8439 4.49349
-14.6163 97.7571 5.01246
3.30925 120.894 9.16803
-13.2096 97.9857 7.70031
8.37018 137.156 -3.38514
9.41104 132.701 5.19423
5.87115 125.117 8.81877
7.55044 128.461 7.6037
4.91384 123.66 8.98367
8.24811 130.603 6.0429
9.06882 133.964 2.97091
9.10014 133.762 3.38843
-2.73188 111.325 11.0364
7.59574 136.131 -2.78358
4.79452 123.849 8.92775
-6.39896 117.469 -5.03182
2.66588 120.445 9.47302
-4.04241 119.644 -3.19355
13.2397 139.42 4.3976
-15.3143 100.18 1.25511
9.14266 133.54 4.32912
-15.6276 100.415 0.440419
-11.0405 112.087 -6.63353
8.14316 137.811 -3.59507
16.0889 143.963 4.06182
-10.4828 100.753 10.612
-12.5052 99.4608 8.35809
-9.46089 101.7 11.4999
0.284469 123.538 0.616878
13.8928 138.791 7.07402
17.3366 147.174 2.28842
3.44214 127.551 1.50549
3.05478 127.166 1.42388
-15.0693 99.1687 3.88259
12.2427 142.622 -1.48075
-15.2664 99.4521 3.13533
-12.6243 99.6874 8.28039
-11.2853 100.532 9.851
6.17282 126.662 8.7639
3.51527 123.19 8.21754
2.19347 126.171 1.27674
9.24725 140.784 -4.85705
13.76 138.879 7.24137
-14.8866 99.3382 4.34408
14.024 144.261 0.186518
12.8777 139.127 5.22596
9.71853 137.706 0.992014
-9.93272 114.276 -6.22688
4.71325 129.238 2.7323
12.6286 137.464 7.45335
6.23548 127.25 8.78326
-15.476 101.872 0.0761779
2.03218 120.48 9.76527
12.4264 137.746 6.69699
-15.0775 104.779 -3.18974
0.904315 118.202 10.7143
12.7998 138.507 6.42313
-14.8358 102.058 1.1981
-14.7745 102.066 1.31493
-13.8224 108.239 -5.44045
11.0797 140.293 0.554099
-13.0621 100.14 7.84047
-9.62121 114.955 -6.07446
8.22346 139.52 -4.14547
-4.11959 120.8 -2.97662
-15.1134 100.823 2.70893
-14.834 102.89 0.402148
-15.8573 102.558 -1.22196
-14.9578 102.936 0.106148
-14.6492 103.049 0.625311
-4.21282 120.778 -3.01179
6.7021 128.738 8.27748
9.84835 138.574 0.826615
9.47001 137.862 1.07406
-3.40663 121.661 -2.39107
-9.95189 102.723 11.0681
12.2997 144.536 -2.36657
-14.6705 100.315 4.84939
15.561 144.531 4.46274
13.9864 145.228 0.233049
-9.00571 116.169 -5.89792
-7.57296 104.884 13.0538
9.32257 137.664 1.40622
14.3003 145.597 0.422666
3.20413 124.13 8.0157
14.0748 140.641 7.02126
6.00052 134.555 -0.870978
13.7101 141.227 5.61817
-0.645572 116.526 11.1534
13.8533 145.319 0.190333
-9.03255 103.786 12.0129
3.49755 129.039 2.1221
-14.4637 100.727 5.29023
16.3051 148.685 0.656438
11.215 140.769 1.41053
-5.5192 119.982 -3.54956
-3.52321 112.311 11.5425
9.20487 137.428 2.23682
-7.96834 117.959 -5.48704
9.87511 143.5 -4.85822
-15.0193 106.628 -3.73236
-3.11497 113.514 11.0549
-14.243 101.136 5.7531
10.0541 143.815 -4.7005
4.49365 130.303 3.02043
-14.7403 103.843 0.991887
-14.8627 107.286 -4.07561
-6.83219 106.603 13.4681
-10.8214 114.564 -6.00727
-9.65653 116.24 -5.8298
-3.39478 113.439 11.2229
-13.4799 101.901 6.93635
5.96569 135.893 -1.20411
10.0849 140.747 0.475997
5.4082 133.174 1.638
-14.2762 101.836 5.62527
14.5257 147.176 0.716833
14.4548 147.139 0.66128
15.3278 145.495 4.79697
15.5837 146.067 4.5416
-9.58226 104.827 11.4758
14.293 144.154 4.88863
16.1853 147.822 3.59316
-12.6414 112.88 -6.21668
13.3009 142.082 5.8091
12.7968 145.623 -0.196883
3.19093 125.965 7.93461
13.8928 147.16 -0.00347754
-9.05229 105.268 12.1562
-3.46862 123.41 -1.95118
11.2622 145.82 -3.38899
13.4393 142.233 6.18648
-14.9652 105.053 0.413327
-7.66238 119.317 -4.69054
2.57931 125.463 7.70048
-9.97701 104.888 11.0377
-2.04732 123.963 0.375725
-15.2688 107.794 -3.91479
-2.69662 115.669 10.8675
5.53836 129.212 8.6945
1.60162 122.949 9.601
-14.4307 104.559 2.70775
15.9747 148.531 2.99837
-14.9724 108.885 -4.50822
6.97793 140.19 -3.62292
-7.5914 107.243 13.1418
-14.0817 111.128 -5.65951
-1.80163 124.602 0.528241
-7.33627 107.627 13.2841
-7.83579 119.572 -4.65909
-8.90377 105.973 12.449
-11.6372 114.93 -5.85801
-6.97138 108.127 13.4848
-8.81294 118.886 -5.51452
-14.3685 104.208 3.91203
11.7199 145.674 -1.0832
12.9928 147.916 -1.59697
-13.9734 103.649 5.86084
14.7543 149.385 0.218468
-6.96066 120.658 -3.71927
10.7542 142.956 1.23765
14.1245 145.112 5.12332
11.6378 146.081 -1.31217
8.43921 137.976 3.61566
7.01385 133.593 6.95687
-4.30497 114.083 11.3307
15.1591 147.994 3.36126
-12.7258 104.056 8.24255
-13.3296 107.013 2.90815
8.51108 140.268 0.802254
-9.4849 118.749 -5.68839
-8.44616 107.285 12.7376
1.45644 124.237 9.17335
4.00022 132.674 2.55784
13.3597 144.419 5.19822
4.64668 129.3 8.70807
5.73619 138.465 -1.94632
12.4423 148.172 -1.87707
3.93539 128.676 8.30621
-13.6847 106.013 4.19713
-16.0274 105.944 -0.389365
-12.7771 104.521 8.32497
3.81165 132.686 2.56906
-13.3099 104.302 7.57491
9.80618 146.598 -4.62638
-15.4619 109.349 -3.81954
-2.01554 118.307 11.1721
0.2369 128.396 1.52667
-3.77963 124.691 -1.48229
10.0545 143.267 0.72588
1.52981 130.146 1.82357
15.2151 150.142 1.71196
8.79175 141.741 0.45446
3.1422 128.195 8.03671
-0.381445 121.161 10.7684
-13.4441 106.234 5.18481
-16.1014 106.694 -0.900534
12.638 148.657 -1.04662
-12.8158 107.418 5.04684
-15.9865 106.312 0.112185
-12.7077 107.624 5.011
8.00476 139.251 2.8332
2.02905 131.155 2.01684
14.2046 147.899 3.35186
-13.0483 105.198 7.80951
6.66083 136.436 4.19667
4.39331 134.719 1.96907
10.8607 144.534 1.46505
-13.1749 106.399 6.13899
7.90761 139.49 2.70251
6.54593 134.934 6.37535
-0.273262 122.079 10.6313
6.41447 135.274 5.73418
1.6553 127.238 7.39787
0.407086 123.249 10.4946
11.0529 143.9 3.13867
-15.1903 106.923 1.54358
-13.0445 106.163 7.05128
-12.7904 106.793 6.7689
3.34566 133.267 2.48434
9.49971 143.721 0.384871
-0.00626848 129.366 1.29618
13.0426 149.234 0.00648712
6.58835 137.649 3.18759
-11.994 108.137 6.80903
-4.89786 125.043 -2.54524
-8.93196 120.877 -4.8628
-15.9581 109.18 -2.66816
-5.51848 125.002 -3.49228
-13.3146 115.345 -5.74326
-14.8192 112.776 -5.13158
14.1493 149.476 2.48827
-16.1297 107.486 -0.21999
14.3824 150.62 1.50053
-7.09865 111.71 12.4384
-12.0251 108.983 6.22913
10.435 148.118 -2.98125
3.49286 129.965 8.48667
10.0185 148.204 -3.90754
4.46293 136.644 1.20251
0.174131 123.947 10.4147
-4.31004 125.766 -1.394
-8.16118 121.949 -3.88997
11.8747 149.356 -1.45853
13.7394 149.138 2.73052
-8.67746 109.473 12.862
0.403128 130.988 1.16334
7.51162 140.764 2.00327
6.49085 143.23 -3.56415
-10.7443 119.653 -5.56931
9.00752 147.868 -4.784
6.01302 142.309 -3.02829
12.6587 149.685 0.238125
10.8326 145.136 2.99034
3.07874 134.485 2.18055
3.25516 130.419 8.31237
10.4525 149.144 -3.41152
-10.2779 108.416 11.6457
4.38471 132.161 8.22146
7.4243 145.513 -4.43546
6.83317 139.963 2.25996
-10.423 108.409 11.4958
8.05671 143.141 0.388017
-3.24348 127.42 -0.472601
5.57428 138.01 2.68678
3.19413 130.807 8.05829
-4.13586 118.094 11.1476
-13.1352 116.728 -5.36179
-7.96247 111.462 12.8842
4.6797 139.055 -0.105508
4.60474 133.412 7.7836
-2.95359 128.142 -0.242211
-0.553657 130.865 0.874766
0.252979 127.23 7.86615
7.05636 145.714 -4.26185
-1.00773 123.579 10.5867
1.63939 133.42 2.16694
0.205688 126.664 8.9515
-0.878606 123.938 10.5907
-3.39694 128.424 -0.776866
8.31847 144.688 0.303162
-4.3543 118.772 11.0257
12.2233 148.357 3.27764
8.20835 148.022 -4.51214
-0.357151 125.412 10.1983
-12.6371 118.548 -5.23327
9.51988 149.869 -3.87839
8.21059 144.994 0.338735
7.42733 143.849 0.385758
10.4729 147.27 1.87536
0.658592 128.894 7.8226
9.23608 146.455 0.588695
-11.6357 120.311 -5.27781
-13.1499 110.513 5.5687
-3.46278 120.968 10.7427
3.94031 133.775 7.8619
-3.56653 129.113 -0.927656
0.193355 133.104 1.19394
-0.704374 132.163 0.722722
-11.6785 111.645 7.22456
-2.46755 122.59 10.7277
8.04658 145.166 0.374372
-11.5807 111.26 8.03351
-16.6151 110.204 -0.829936
-12.6846 111.198 5.8601
-9.75695 122.856 -4.364
-0.891274 125.474 10.193
11.5628 148.474 3.24577
-1.22039 124.821 10.4671
-16.2636 109.588 1.18341
11.3124 150.678 -0.273808
-13.75 117.891 -5.31679
-11.8258 112.312 6.5725
9.65631 147.543 0.917258
-8.05523 126.039 -4.87137
0.888351 130.538 7.20696
6.3866 142.734 1.25812
-1.46196 125.032 10.2106
5.15961 143.713 -2.63169
1.81348 135.542 2.10805
8.2425 149.353 -4.22983
-10.3769 122.762 -4.84948
5.0603 140.892 1.31196
-11.5861 112.064 7.92271
-8.50262 113.049 12.956
-7.20908 127.056 -4.23303
-11.6781 112.761 6.84957
2.51326 133.241 7.05084
4.48247 136.502 6.48667
8.30391 149.609 -4.19174
4.51921 137.721 4.92168
5.1795 144.073 -2.6934
11.4364 149.273 2.87597
-11.6452 112.733 7.15847
5.61017 145.104 -3.18367
6.0544 142.935 1.02112
-13.827 118.592 -5.40048
-12.0915 112.808 6.44717
3.02015 138.426 1.247
-16.1483 109.833 2.34139
-8.54882 126.525 -5.65028
-8.36862 113.778 12.8239
-9.45036 124.793 -4.92321
4.351 137.869 4.9857
-11.5009 112.344 8.55671
-16.3339 110.247 1.63606
-1.0668 126.631 9.84734
-16.2894 110.16 1.88802
11.3909 149.827 2.67218
11.9418 151.38 1.87751
4.14327 138.739 3.75865
3.45982 139.997 0.578338
9.59836 148.438 1.2595
-16.4543 112.631 -1.51034
0.452992 135.067 1.50439
-16.1699 113.248 -1.5891
-4.22272 130.665 -1.63942
-13.3723 112.368 5.47825
-16.3398 110.51 2.01376
3.91462 136.526 6.8734
7.16601 145.732 0.559106
-7.26834 116.205 12.6992
-5.28402 130.215 -3.01311
-4.18286 130.838 -1.57965
-10.7055 113.789 9.1686
-6.02434 118.905 11.637
-5.95232 119.141 11.6283
-15.2165 117.466 -5.01346
7.95894 147.229 0.543542
-16.2124 114.67 -3.01611
-15.3068 117.173 -4.62883
-14.7132 117.529 -3.81708
-6.51475 118.312 12.082
0.0512763 135.566 1.21671
-0.597449 134.952 0.803138
-12.2632 122.656 -5.71878
-4.89193 131.071 -2.4695
2.53076 135.41 6.67629
-5.15489 131.001 -2.80769
2.49029 139.314 1.17287
3.64836 137.704 5.91754
-15.6438 114.045 -0.225529
-6.41421 118.894 12.0193
-2.23496 127.15 9.13855
-9.81144 114.017 12.1986
2.81729 139.539 2.08935
-1.5762 130.11 6.41848
-11.612 124.169 -5.58365
-14.9515 118.561 -4.51014
5.30083 147.2 -3.23723
-5.54581 120.897 11.7511
10.4114 151.093 1.92066
-0.408199 136.082 0.949217
-10.2674 115.258 10.2124
-3.2456 126.181 9.29717
3.26005 138.394 5.39781
8.48416 151.842 -2.89611
-9.46394 128.416 -6.61735
-4.91143 122.494 11.2511
4.39123 143.492 0.642091
-1.79112 130.568 6.28307
-6.70012 131.652 -5.2256
-3.61731 133.443 -1.39356
9.89792 150.87 1.81455
2.79884 141.617 0.329608
-3.80782 124.358 11.199
-9.01094 115.926 12.5766
-4.86741 132.522 -2.41204
-16.4516 112.997 1.42939
-16.0034 115.477 -1.04817
-8.60529 116.67 12.7262
-3.69854 133.924 -1.58195
2.76289 139.468 3.89326
-3.86151 126.491 8.77604
-13.2935 122.67 -5.16198
7.0419 148.305 0.44059
-14.9714 117.276 -0.782322
-15.5609 112.841 4.32364
-15.189 117.223 -1.1199
-4.7906 133.798 -3.16558
10.4253 152.777 1.27014
-4.73171 133.898 -3.10689
-4.00519 134.257 -1.95817
1.94272 139.657 2.6396
-15.3583 117.005 -0.756392
-12.572 124.286 -5.2254
-15.9014 115.673 0.179541
-13.7847 121.07 -3.10339
-8.47927 117.718 12.6703
0.625145 139.063 1.24208
-1.02487 133.496 5.78302
-10.5788 128.359 -6.47639
-13.9928 120.819 -2.7879
-7.52767 132.657 -6.20364
-2.5568 135.977 -0.587825
-8.08781 118.8 12.3818
-14.547 119.963 -2.5276
-14.875 117.133 0.826484
6.86361 151.661 -3.34951
-0.816746 134.451 5.24656
-11.5368 126.459 -5.37406
3.35384 145.049 -1.05641
-11.7241 125.806 -4.80122
-4.90463 125.412 9.87641
-7.36623 133.101 -6.01407
-15.5481 113.711 4.72694
4.4096 148.005 -2.64725
-10.7312 116.794 10.6393
7.49453 150.49 0.424004
10.1866 154.147 0.84141
4.1846 147.752 -2.4236
-12.3462 115.678 9.09795
-10.0615 117.056 11.8714
-15.4331 116.133 2.19867
1.27171 140.184 2.55171
-2.73241 137.158 -1.37781
9.49318 153.918 0.0956027
0.914155 141.041 0.706318
-11.15 116.735 10.3824
-6.72828 134.47 -5.62991
2.04888 139.183 5.84503
-12.1346 126.668 -5.60348
-7.00775 134.302 -5.80208
1.30693 139.965 3.31094
-14.1434 122.002 -2.98503
-1.06858 135.459 4.93055
-4.14745 136.361 -2.6096
0.926188 140.405 2.14531
3.01601 145.673 -0.972227
-3.8088 129.932 7.41797
-14.4445 122.365 -3.71431
-9.28417 118.981 11.731
-3.31493 130.441 7.7789
-14.2184 122.864 -3.92564
1.00854 138.24 5.63511
-9.19964 119.136 11.702
1.11496 138.329 5.74842
-8.08551 120.449 12.2695
-6.07184 123.881 11.6607
-14.2521 119.841 0.545483
-15.7054 119.054 -1.30571
-2.64067 138.041 -1.24598
-0.167795 140.244 0.73701
-1.5135 138.772 0.162807
-9.15301 131.535 -5.2948
-13.2002 120.124 2.60049
-15.1787 118.12 1.39035
7.0352 153.024 -2.18886
-5.85845 136.639 -5.49376
-0.586867 140.096 0.584475
-14.549 120.856 -0.774526
-13.7157 124.061 -3.53027
-12.6248 126.187 -4.26816
-14.9688 120.232 -0.624999
-11.3958 117.474 10.6575
0.975619 138.969 5.74529
-14.3231 119.791 1.54525
-13.8695 116.595 7.16116
-3.99409 130.956 7.15332
-10.5126 129.926 -4.80368
-16.159 115.153 4.55735
-14.5142 120.019 1.14546
-4.16436 131.325 6.47185
7.27504 153.618 -1.54882
-15.9552 115.372 4.92874
6.58245 153.18 -2.23909
-15.5983 115.503 5.51518
-0.568703 138.198 4.29967
-13.9264 120.426 2.10061
-13.5227 120.795 2.5659
-15.0853 116.378 5.63469
-5.52049 137.809 -5.01179
1.03619 141.613 3.20297
8.40329 153.987 0.923819
-14.6895 120.2 1.28645
-12.6563 126.958 -4.08966
0.991901 141.414 3.60435
-15.3729 119.268 1.38846
-0.224811 142.148 0.324586
-14.9749 121.979 -1.44453
-14.0192 121.353 1.45732
-7.46234 126.154 8.20405
-3.01459 134.738 5.2018
-5.25806 130.23 7.03239
-3.01298 134.801 5.20214
-9.24722 132.623 -4.48007
-2.08109 136.668 4.58523
-15.9436 118.133 2.41841
-4.38517 138.814 -2.98493
0.899525 141.554 4.0512
-1.23047 138.145 4.5431
-3.13604 134.916 5.22478
-4.71554 132.186 5.8624
-5.86492 129.712 7.00941
-15.4999 120.848 -0.232355
-9.51531 121.264 11.5903
-15.5895 119.923 0.9967
-5.15854 138.987 -4.48515
-9.39545 121.449 11.6804
-5.49374 130.624 6.71997
-13.8164 117.597 8.07001
-0.931283 139.186 4.01626
-15.483 122.218 -1.83403
-10.7268 120.271 10.8242
-8.64331 134.643 -5.24275
-14.2591 121.114 2.38496
-4.84619 139.258 -3.91649
-16.2271 119.486 0.854215
-9.34968 124.49 7.96343
-10.7215 130.77 -3.66983
-14.2076 123.501 -0.520307
-14.6617 122.508 -0.0182814
-14.3105 123.049 -0.0153652
-14.6117 122.121 0.741309
-2.79917 136.548 4.6632
-14.6527 122.252 0.627661
-14.5749 118.494 6.15385
-15.5917 122.367 -1.39006
-14.7529 118.484 5.89433
-15.0731 120.858 1.92429
-14.1269 125.371 -2.51955
-9.59771 123.839 8.98971
-13.408 118.507 8.72058
-9.62693 124.434 8.12909
-16.5266 118.39 2.54429
0.0544489 142.49 2.52036
-14.1619 117.982 8.00222
-15.8013 122.084 -1.15623
-0.0645785 144.074 0.0855697
-5.85796 139.109 -4.77845
-14.9565 122.329 0.326841
-15.9612 117.959 4.4545
7.03243 154.61 -0.153398
-15.7955 122.154 -1.12957
-15.9088 120.312 1.33317
-15.4622 120.485 2.0323
-14.8951 118.673 5.8451
-6.72723 138.412 -5.1421
-11.2626 120.9 10.3716
-12.7438 128.76 -3.78488
5.82394 154.158 -1.53535
-14.5845 123.276 0.272794
-14.9297 123.77 -1.13865
-16.0765 117.4 5.60544
-11.6745 120.883 9.91065
0.69714 142.881 4.31605
-4.99121 133.859 5.40243
-13.2598 119.922 8.13645
-7.78819 128.32 7.52963
-15.7384 117.873 6.11259
-15.2177 118.374 6.50665
-5.71177 132.684 5.83634
-15.6643 121.25 1.61191
-6.55181 139.178 -5.01239
1.73798 148.574 -1.22297
-15.6796 121.309 1.58043
-0.218148 144.942 -0.0395357
-13.8851 125.674 -0.774082
3.64095 152.628 -2.8814
1.28776 147.764 -0.784507
-15.2003 122.54 1.03206
-16.2038 118.497 4.73926
-16.2086 119.624 3.15278
-16.478 119.313 3.05701
-13.8043 120.21 7.30415
-5.0134 134.31 5.49774
-3.19235 137.929 4.17203
-10.151 133.694 -4.10227
-15.2659 120.546 4.03581
-12.009 121.339 9.61869
-15.4377 118.638 6.5601
-16.0311 117.899 6.40836
6.96552 155.214 0.873003
-14.1266 126.48 -1.78254
-15.3406 124.053 -0.788596
-11.2698 122.106 10.4689
-17.1812 119.125 2.52924
-1.36289 141.391 3.58688
1.811 149.604 -1.50202
-16.8054 120.766 1.07562
-16.3109 119.696 3.63449
1.49819 149.111 -1.24453
5.56102 155.066 -1.29753
-5.07699 134.958 5.45489
-17.3524 119.128 2.67737
-14.5019 125.543 -0.53544
-13.3965 128.646 -2.63044
-6.64618 131.433 7.40229
-15.2403 123.462 1.02492
-15.7151 121.351 3.12885
1.00656 148.481 -0.897476
-14.3194 125.85 -0.321758
-15.0035 125.471 -1.14649
5.31936 155.152 -1.35175
-17.4652 120.308 1.16816
-3.15559 139.029 4.10488
-15.5016 119.506 6.42149
-14.3177 125.997 -0.307754
-16.9974 121.187 0.997688
-14.0676 127.184 -1.43584
-10.5981 133.835 -3.64195
-14.9467 125.867 -1.26346
-16.3606 123.428 -0.710673
-15.8165 120.091 5.15113
-14.2034 126.349 -0.311919
1.51994 150.146 -1.66011
-16.2565 119.252 5.58638
-0.568631 143.571 3.43375
-14.778 125.531 -0.215625
-16.4738 119.778 4.47945
-9.83406 127.676 6.98275
-2.66008 143.822 -1.10426
-2.92 139.772 4.17748
-16.4822 118.107 7.14903
-16.6176 120 4.19429
-15.8582 120.848 4.66517
2.69222 152.999 -2.67175
-16.435 124.314 -1.37597
-15.2921 120.398 6.54521
-16.2699 118.702 6.99515
-17.4314 121.366 0.83859
-16.0538 121.053 4.13777
3.92987 154.396 -1.85696
-14.0091 121.081 8.47547
-17.944 120.777 0.851517
-13.2147 130.016 -2.45183
-0.836857 143.834 3.45466
-14.7178 126.333 -0.165884
-0.077921 148.078 -0.730038
-11.4853 126.16 6.89642
-2.97212 144.422 -1.44896
-3.74042 143.902 -2.24436
-16.4503 120.147 5.26542
-2.11528 145.389 -0.799151
-15.6875 120.822 6.0951
-5.92338 135.739 5.13946
-15.9263 120.724 5.83724
-14.3326 121.091 8.63288
-16.434 121.23 4.31251
-7.82874 131.278 7.86213
-16.1967 121.11 5.11835
-16.2589 120.925 5.25553
-3.60591 144.515 -2.11387
-17.0408 119.872 5.17279
-8.59127 139.242 -4.87178
-16.8903 118.905 6.88993
-0.993641 144.44 3.51233
-16.4051 120.814 5.28885
-11.355 133.787 -2.68428
-13.67 122.959 7.94572
-15.3179 126.662 -0.625355
0.190572 149.579 -1.16958
-7.994 131.361 7.87987
-16.2101 120.64 6.18407
-7.85087 131.732 7.67888
-10.1744 128.086 8.12014
-3.16135 145.221 -1.63789
-5.09275 138.608 3.89534
-15.7252 121.052 6.89537
-1.85875 146.622 -0.710403
-11.8624 126.407 7.35648
-8.80929 130.199 8.2753
-15.9628 126.098 -0.627604
-13.6985 123.575 7.6567
-19.8476 117.523 3.59843
1.53226 152.971 -2.50272
-8.58127 130.701 8.34298
-3.86953 140.618 4.00605
-2.58986 143.276 3.01379
-17.5162 119.195 6.53637
-13.336 124.768 7.33863
-17.0375 120.636 5.5828
-14.7869 128.022 -0.250967
-2.75433 143.288 2.94523
-12.2229 125.489 8.83325
-18.7836 121.622 0.835888
-2.41936 146.753 -1.08141
-9.83713 138.38 -4.34886
-19.9168 118.224 3.48414
-12.7354 132.388 -1.68106
-14.0549 123.646 8.01262
-17.2506 125.413 -1.01813
-15.5031 120.989 8.85729
-14.5594 128.903 -0.334846
-13.3345 131.368 -1.25787
-12.8545 132.412 -1.6266
-16.4884 127.311 -1.65315
-15.6306 121.187 9.02261
-16.9153 120.465 7.44051
-7.43087 135.289 6.02745
-8.75535 140.583 -4.20391
-21.1142 117.511 3.07506
-16.8641 127.53 -2.24072
-19.1234 120.758 2.74145
-12.5346 126.126 8.69914
-5.36518 145.393 -3.75888
-13.3816 131.802 -0.97882
-14.0728 124.181 8.40479
-14.3886 129.55 0.315667
-18.202 123.808 0.607822
-3.47092 147.036 -1.82534
-14.3535 124.064 8.3949
-4.28004 141.977 3.78107
-6.77567 137.034 5.72105
-16.1457 122.287 7.37224
-19.2482 121.319 2.46019
-20.5032 119.059 3.1519
-5.21106 146.151 -3.63332
-7.129 136.73 5.90406
-14.3597 124.564 8.34536
-9.66055 140.07 -3.78299
-10.9287 138.124 -3.60231
-4.03269 143.223 3.38711
-20.1436 119.905 3.35052
-13.1954 133.609 -1.62954
-4.90351 146.834 -3.28164
-21.7963 118.138 2.71565
-22.4225 116.901 3.2302
-16.2398 129.238 -1.44508
-20.2738 120.085 3.33359
-10.7545 138.726 -3.4688
-5.38891 146.853 -3.76658
-0.757525 152.1 -1.64382
-13.9564 132.24 -0.651434
-3.76948 148.042 -2.01297
-22.5139 116.923 3.60049
-15.3238 130.827 -1.24939
-12.2566 136.637 -3.09798
-12.777 135.536 -2.60067
-13.3587 125.833 9.9806
-3.93761 144.435 3.01855
-13.1328 126.995 8.8205
-0.689246 152.716 -1.85869
-13.3289 134.295 -1.74489
-2.2901 149.905 -1.12654
-2.98171 149.228 -1.48293
-21.2402 119.56 2.99733
-8.89996 142.71 -4.38432
-1.17182 152.097 -1.4727
-10.7199 131.231 8.53443
-10.4662 140.02 -3.31727
-17.1809 120.871 10.0228
-12.4217 128.849 8.57594
-6.95728 145.881 -4.2284
-15.0637 124.925 8.85755
-20.5562 117.606 8.17949
-15.3864 123.487 10.5143
-14.6828 125.149 9.61046
-20.3977 117.881 8.17994
-7.64526 145.289 -4.40628
-19.5931 123.518 2.13879
-22.579 115.617 7.30058
-14.9342 132.375 -0.68613
-6.87456 146.522 -4.07618
-20.0571 122.4 2.99818
-19.1873 119.921 8.33473
-2.74637 150.692 -1.41106
-6.27539 142.202 3.36385
-15.4787 125.047 8.77961
-14.3249 133.456 -0.714435
-10.855 140.264 -3.20587
-11.6589 139.042 -2.86604
-15.373 125.375 8.8664
-8.43575 144.815 -4.38688
-15.1323 125.58 9.12472
-13.5774 127.489 10.0559
-6.07534 143.304 3.15235
-12.59 136.567 -0.679363
-16.2005 132.078 -1.68999
-13.2798 135.539 -0.38327
-22.108 116.748 8.25343
-20.2839 118.877 9.05908
-22.936 117.531 5.75378
-17.6631 121.751 10.7895
-16.985 130.978 -0.875939
-23.2421 116.963 6.28638
-11.0884 141.418 -3.23275
-19.185 128.002 -0.806074
-19.3702 119.874 10.3448
-11.7792 140.219 -2.60627
-18.7744 129.022 -1.12119
-11.1508 141.682 -3.23577
-17.6882 122.553 10.7627
-7.72046 140.955 5.22423
-19.0672 120.878 10.4374
-21.2904 118.362 9.49193
-22.6439 119.246 5.48092
-16.6374 124.571 10.37
-22.4623 121.044 3.39159
-14.633 134.827 0.106384
-21.1651 124.765 1.00554
-10.0328 144.143 -3.52774
-12.1723 139.393 -1.10139
-21.258 124.492 1.41061
-6.94944 143.685 3.82215
-22.735 119.363 6.03498
-15.135 127.674 10.0618
-12.8759 138.064 0.0566109
-8.02905 141.449 5.30484
-22.2249 118.577 8.55666
-12.5391 140.212 -2.13041
-14.1373 130.347 8.75138
-16.6371 127.242 8.10078
-21.3479 124.904 1.72198
-11.1437 134.736 8.93302
-14.8282 135.791 -0.116289
-22.3241 119.106 8.52619
-15.6295 127.777 10.0463
-22.1549 123.353 2.89457
-16.7502 127.63 7.97628
-14.4563 136.737 -0.131068
-18.4768 123.411 10.6968
-17.8839 124.332 10.6955
-18.2029 123.98 10.6965
-9.80352 137.712 8.61507
-19.0698 130.357 0.165939
-22.6947 122.35 4.23361
-21.1064 125.658 2.96204
-7.82019 144.019 4.39985
-8.56951 142.144 5.58802
-23.0491 119.549 7.8316
-10.46 137.262 8.75666
-20.8714 126.072 3.2989
-19.7556 122.937 10.0887
-12.474 140.793 -0.107386
-14.0857 132.529 8.38772
-22.8501 120.85 6.98841
-13.4202 138.875 0.885351
-6.48031 147.724 2.76837
-8.67417 142.715 5.55917
-16.4992 135.37 3.26151e-05
-11 145.09 -2.44416
-9.74992 147.414 -3.13564
-17.1263 134.642 -0.16617
-6.02844 152.168 -2.10299
-20.4369 127.166 3.85911
-17.4403 134.45 -0.158381
-9.04075 142.393 5.90341
-22.6318 123.944 4.09802
-16.332 130.606 7.87114
-20.9818 126.362 4.35317
-19.7407 129.922 1.8837
-22.5116 124.315 4.1309
-21.4511 125.802 4.30433
-13.2301 140.133 1.17488
-18.1697 128.021 8.28547
-17.8561 128.724 8.08427
-21.2205 126.25 4.88794
-6.12024 152.721 -1.51447
-21.4385 123.096 9.20232
-10.1922 147.82 -2.54678
-8.04934 150.705 -1.84736
-9.04235 144.165 5.51344
-21.8197 125.619 5.54046
-11.5517 145.551 -1.4595
-12.0712 143.634 0.264781
-19.7346 131.044 2.35653
-11.3633 146.064 -1.64511
-9.93962 148.722 -2.37034
-6.30882 153.14 -1.11449
-19.7472 132.092 1.07466
-16.396 136.72 1.46473
-6.29006 153.373 -0.955994
-8.72798 145.868 4.67544
-15.005 133.571 9.25357
-21.3327 124.406 9.2185
-7.34885 152.147 -1.25428
-7.06109 150.137 2.28103
-11.7414 145.678 -0.911754
-8.26075 151.149 -1.33929
-20.1975 130.204 3.80497
-18.5762 133.877 1.94919
-8.03767 151.466 -1.26223
-10.7654 148.045 -1.8696
-10.4532 141.88 7.81615
-12.1434 144.54 0.715289
-15.0811 139.708 1.61132
-20.0532 130.904 4.07616
-20.9155 125.853 9.49763
-18.587 134.113 2.68851
-6.48681 154.003 -0.399777
-18.058 135.018 2.70951
-22.0153 125.375 8.26669
-8.70176 147.789 4.0659
-15.9087 139.15 1.69131
-13.1517 137.62 9.6051
-19.1661 130.168 8.06787
-21.8522 125.615 9.02698
-20.4552 127.213 9.70325
-9.23598 146.985 4.86989
-18.6337 134.487 3.32312
-21.7648 126.474 8.26863
-20.5086 130.571 5.23481
-7.78332 151.173 2.25762
-12.9259 143.581 2.48495
-18.5648 131.282 8.52496
-20.8304 127.303 9.50467
-10.4149 143.672 7.75701
-9.78944 146.195 5.5834
-6.8679 154.351 0.0489084
-21.5911 128.058 7.13347
-9.86215 146.226 5.62594
-10.8467 143.161 8.33098
-8.45499 152.067 0.674131
-13.4281 143.436 2.72557
-11.0364 143.276 8.28369
-20.2074 129.57 8.8433
-20.8387 130.543 6.191
-17.4692 137.696 3.05554
-20.1385 131.997 5.64144
-18.9951 131.604 8.62714
-15.6429 140.844 2.44255
-14.8184 142.119 2.40445
-19.9665 132.423 5.63238
-21.7557 128.136 8.19461
-9.03566 152.324 0.143246
-16.8 134.353 9.68364
-10.4704 146.466 5.78465
-9.88264 148.013 4.81421
-17.0422 134.27 9.65782
-13.7717 143.651 3.20108
-17.9613 133.217 9.39811
-13.5077 139.661 9.43619
-18.807 135.257 4.78207
-16.4625 134.923 10.2255
-21.1845 130.331 7.03416
-10.0915 147.954 4.90387
-16.2441 135.348 10.2157
-10.0788 150.192 1.95139
-18.0732 137.27 4.27542
-10.6736 149.73 1.92036
-11.2519 149.598 0.961715
-10.6001 147.623 5.17964
-20.4431 132.095 7.07354
-11.0103 149.537 1.87606
-11.4052 149.358 1.44207
-12.285 147.517 2.56793
-12.622 147.055 2.62422
-14.7052 139.245 9.48024
-12.7009 142.817 8.54366
-11.3098 147.123 5.68881
-20.6922 131.871 8.14886
-15.9704 137.98 9.47741
-11.7687 146.391 6.25781
-20.0384 133.969 6.85425
-15.6449 142.61 3.68382
-17.9523 138.382 5.00785
-11.7926 148.353 3.93287
-18.5475 134.761 9.401
-18.8549 134.464 9.34908
-13.4383 143.299 8.25054
-17.5454 136.796 9.21029
-19.9617 134.377 8.2269
-15.8014 143.221 4.31119
-19.4752 134.8 8.75481
-16.2216 142.493 4.62904
-18.7095 137.742 6.28362
-12.8372 146.61 5.86123
-16.0042 139.944 8.85168
-13.1585 146.098 6.0891
-14.5602 142.443 8.41976
-18.8964 137.441 7.18794
-18.9689 137.146 7.53725
-16.7993 140.561 7.69337
