ply
format ascii 1.0
comment Created by Open3D
element vertex 1946
property double x
property double y
property double z
end_header
-9.95926 127.316 -8.16908
-15.4356 148.617 1.47599
-14.8674 90.4268 11.1556
-14.5706 121.522 4.58599
-7.32367 110.295 -11.3336
-9.93498 127.59 -8.09065
-15.526 83.2878 14.2692
-14.6182 122.063 4.6518
-5.06793 97.7712 -14.5231
-10.2546 129.729 -7.65946
-15.1226 121.79 5.98493
-9.08154 124.309 -9.48111
-16.0766 118.081 9.1796
-15.4705 82.9221 14.4339
-10.9955 137.972 -6.98717
-15.7699 116.212 9.10794
-9.84589 128.212 -7.92959
-12.6787 145.997 -4.19958
-15.5631 129.735 6.0798
-16.7474 114.44 11.9408
-3.64378 86.2106 -15.3339
-14.7041 89.9435 11.5497
-7.33409 111.559 -10.8931
-3.53532 85.5144 -15.3818
-12.7009 146.167 -4.03936
-16.0609 124.765 8.41734
-4.90957 99.9036 -14.6211
-3.06003 80.6471 -15.476
-12.2133 145.825 -4.96089
-16.1791 146.936 4.77335
-16.0497 147.175 4.41753
-16.7224 136.527 8.16099
-14.8697 96.4686 11.2132
-14.9111 87.6512 13.0485
-15.2204 82.1976 14.9149
-15.2728 98.6204 12.0317
-5.2131 106.105 -14.4231
-9.72868 129.568 -7.52769
-5.49306 107.67 -13.8768
-16.0407 104.449 13.1132
-3.36995 87.1789 -15.1862
-16.5631 112.01 13.0559
-9.33907 128.205 -7.97279
-11.3345 142.943 -5.58318
-3.37908 89.218 -15.1801
-11.4276 144.055 -5.50853
-3.58577 93.0017 -15.3274
-15.4947 147.945 4.06686
-16.5356 142.725 7.81859
-3.20188 89.4665 -15.1827
-16.4728 142.947 7.74945
-16.3754 145.277 7.06689
-11.5306 146.295 -5.19739
-16.2372 120.365 11.5298
-14.0874 91.3523 11.8172
-14.9415 98.722 12.6537
-16.0958 123.92 10.806
-7.66427 118.986 -9.25165
-14.6805 81.8363 15.3209
-16.2141 114.322 12.9929
-15.1634 148.379 3.91217
-14.6624 82.207 15.2364
-16.2306 143.3 7.66416
-14.1701 78.4963 14.8567
-16.0794 114.696 12.8425
-14.3119 87.8844 13.5607
-8.01747 124.559 -9.08409
-14.6747 130.427 6.41794
-15.9742 124.095 10.8718
-12.1986 148.416 -3.13302
-9.15267 135.487 -8.24268
-14.4666 84.3859 14.7833
-11.0232 145.039 -5.30646
-14.17 88.3675 13.3017
-7.48666 118.906 -9.15301
-15.172 101.089 13.4496
-14.0297 89.0458 12.9148
-8.7841 131.471 -8.21447
-4.44455 106.769 -14.318
-12.0877 148.61 -3.14423
-14.4659 80.5425 15.7274
-14.6933 131.139 6.79848
-14.171 96.2945 12.1525
-15.494 134.351 8.33222
-13.7628 90.6347 12.4116
-15.7441 138.102 8.34265
-3.73724 103.059 -14.9242
-14.326 149.439 2.71895
-2.61063 92.3114 -15.5672
-1.82654 79.124 -14.9963
-15.5953 115.641 12.4884
-13.6815 78.7493 14.8165
-13.6856 94.3084 11.882
-3.0354 96.8678 -15.1069
-15.7392 113.625 13.4125
-8.39797 130.857 -8.05369
-15.3872 135.459 8.53543
-14.1335 86.5524 14.7322
-2.60918 93.8494 -15.3514
-13.7911 95.5028 12.2425
-13.8809 129.683 5.98985
-12.1574 149.474 -2.01784
-4.42308 108.998 -13.4996
-5.28562 111.372 -11.7946
-15.0452 103.364 14.1036
-15.2341 108.619 13.7515
-15.5353 122.079 12.0238
-6.85833 118.662 -8.90642
-13.9879 85.0024 15.2749
-13.3817 92.3008 12.4065
-11.8028 149.843 -2.3431
-8.29773 134.139 -8.09544
-10.0615 144.315 -5.57438
-3.42383 105.162 -14.6802
-15.3354 144.207 7.67099
-14.9167 106.792 14.0767
-15.178 114.607 13.2699
-5.72047 114.269 -10.2351
-15.3273 124.357 11.8206
-2.18726 95.7531 -15.4696
-14.93 124.644 10.823
-6.94658 121.991 -8.54472
-12.2077 150.572 -0.78093
-2.53672 98.91 -15.0374
-14.914 136.625 8.70703
-13.6211 81.4215 15.9644
-15.183 116.796 13.1951
-1.4983 86.1469 -15.0869
-15.1333 124.669 11.7155
-11.9505 150.653 -1.13124
-0.998375 81.4792 -15.2212
-7.66096 129.814 -7.7657
-5.12524 112.849 -10.845
-1.37951 86.1238 -15.067
-15.149 118.865 13.0424
-13.501 78.901 16.6878
-7.88989 132.891 -7.50782
-6.1812 118.329 -8.81279
-14.6222 125.028 10.9753
-14.5513 106.607 14.3252
-3.01977 106.086 -14.2712
-13.3111 81.6259 16.0407
-13.1819 149.813 2.78693
-11.1986 150.69 -2.25266
-11.3484 150.76 -1.85173
-13.2028 78.3376 16.5336
-14.978 117.183 13.6558
-13.7491 147.932 4.83553
-1.01604 85.4867 -15.0369
-3.88325 111.136 -12.755
-14.1263 146.403 6.11026
-8.80283 143.54 -6.49765
-0.559391 76.4737 -14.3109
-14.3819 125.612 10.827
-11.422 150.935 -1.33652
-0.998567 86.6084 -15.0321
-13.3214 97.7221 13.5999
-11.2035 150.907 -1.74848
-13.2243 85.8201 15.6802
-0.383576 77.947 -14.7367
-4.78113 113.835 -10.574
-7.4688 131.935 -7.29483
-8.01208 138.209 -7.06631
-5.24493 115.459 -9.61691
-1.86549 100.434 -15.1879
-6.74925 124.228 -7.51845
-2.12083 103.055 -14.9997
-1.36658 95.6578 -15.4704
-12.9257 78.7654 16.5802
-5.06124 114.886 -9.88108
-13.1433 84.9933 15.9431
-13.211 129.457 7.68534
-11.9024 150.996 0.388086
-14.4581 114.319 13.7319
-2.0185 102.631 -15.0511
-1.1061 92.7444 -15.4285
-5.0795 115.243 -9.71438
-5.48234 116.834 -8.99901
-13.8487 104.052 14.4967
-13.9169 140.655 7.74015
-14.0965 107.578 14.5351
-6.92179 130.348 -7.58384
-0.160227 81.3161 -15.039
-13.7348 136.613 8.31824
-8.66159 145.741 -6.05092
-13.8314 127.473 10.4109
-5.9816 121.83 -8.02752
-13.6703 140.887 7.65374
-12.8221 85.9155 16.0038
-7.59598 137.052 -6.71652
-12.7073 127.401 7.88855
-0.41677 88.3949 -15.3071
-14.2505 119.267 13.3557
-12.4422 90.7038 14.3317
-6.12655 122.859 -7.49061
-13.5719 141.134 7.63355
-6.37437 124.458 -7.0969
-12.963 132.563 7.856
-3.55117 113.418 -11.9432
-14.1295 124.262 12.3811
-0.383312 91.3459 -15.4788
-13.3143 136.408 8.20339
-13.655 106.627 14.809
-13.0419 99.6335 14.6508
0.165463 83.3595 -15.0623
-14.0303 126.054 12.2217
-13.2409 137.875 8.01838
-10.9026 151.723 -0.370733
-12.203 91.6581 14.3096
-0.570083 96.3012 -15.5346
-7.35545 137.063 -6.27754
-12.5369 148.663 4.48116
-13.9298 118.61 13.6585
-4.96958 118.093 -8.57253
-1.53841 105.242 -14.6214
-11.0398 151.581 0.306215
-13.6062 108.328 14.9189
-11.3599 151.26 1.21483
-2.02256 107.384 -13.652
-0.820752 100.068 -15.2497
-12.7798 147.179 5.6597
-2.72556 111.292 -12.583
-7.81644 145.199 -6.26567
-7.29685 139.661 -6.49746
-6.897 132.778 -6.14722
-7.32722 140.291 -6.48939
0.204321 89.0876 -15.4877
-5.05109 119.701 -8.17994
-9.93139 151.35 -2.00229
-0.968758 102.487 -15.0452
-2.49993 110.738 -12.776
-13.6728 120.639 13.2191
-2.44796 110.77 -12.7484
0.656672 81.8266 -14.9917
-7.98441 146.897 -5.70064
-7.10809 136.985 -5.91554
-13.5457 121.959 13.04
-13.6457 125.357 12.651
-4.20353 117.234 -9.32373
-12.2346 130.379 8.21734
-2.75739 112.887 -12.0484
-6.82293 135.761 -6.23002
0.538429 88.3928 -15.4291
-13.4329 124.056 12.7913
-12.9474 105.751 15.068
-12.1655 130.015 8.60022
-12.9942 106.857 15.1757
0.781763 84.6622 -14.9483
-12.73 104.538 14.9857
0.745125 87.0078 -15.2533
1.18942 78.2891 -14.7048
-5.75441 126.139 -6.43921
-5.38101 124.403 -6.95451
-11.8374 84.548 16.7193
-11.3066 150.712 2.88844
-11.4286 150.222 3.29638
-11.3435 150.432 3.125
-6.25485 131.164 -5.88639
-11.7195 84.8452 16.8916
-9.38078 151.767 -1.58842
-11.443 149.345 4.05028
-11.591 148.711 4.56158
-7.07593 141.902 -5.37427
-11.3585 82.902 16.5133
-1.45967 108.997 -13.1148
1.66461 77.5372 -14.7758
-11.8239 147.214 5.69224
0.219367 99.8563 -15.2261
-5.50184 127.155 -6.07917
-6.22503 134.308 -5.56806
-12.9217 123.095 13.4
-6.96452 145.095 -5.61172
-11.0948 81.8728 16.6924
-11.5792 95.473 15.3313
-11.0665 82.028 16.6641
-2.52805 116.243 -11.0394
-7.11411 147.523 -5.39092
-11.4366 131.827 8.36467
-7.39781 148.816 -4.90062
-11.4479 87.1604 17.0111
1.06407 93.6841 -15.3998
-11.5151 96.0337 15.5513
-6.78128 142.829 -5.1241
-12.04 128.016 10.855
-11.5529 139.425 7.5172
-0.233528 106.093 -14.3664
-1.65134 112.28 -11.9645
-0.0151414 104.908 -14.5652
-11.5956 97.9218 15.6691
-11.4328 95.7891 15.7371
-3.0612 118.376 -9.39268
-5.08501 128.826 -6.30345
-12.131 127.741 11.5159
-10.4187 78.1908 16.6742
-7.09335 148.746 -4.88924
-4.85612 127.193 -6.35356
-5.96251 136.279 -5.32028
-1.01967 109.999 -12.6297
-1.47141 112.744 -11.9106
-4.65451 126.477 -6.52118
-7.85376 151.228 -3.22893
-1.549 113.779 -11.8161
-10.3083 78.4879 16.7301
0.92935 99.0065 -15.1483
-11.2313 94.8256 16.1558
-11.9404 107.525 15.5145
-2.47912 118.004 -10.0495
-3.86226 123.762 -7.68554
-10.9341 137.146 7.51849
-3.4301 122.181 -8.23578
-11.1614 94.8492 16.3369
-11.0449 135.613 8.33631
-10.9021 147.155 5.79916
-6.42961 146.21 -5.16576
2.2128 86.6987 -15.3276
-11.4218 128.588 10.7749
-12.2704 119.572 14.6741
-0.892163 111.58 -12.0756
-4.76066 129.216 -5.72639
2.9032 78.9861 -15.2593
-9.93706 78.4102 16.954
-12.2727 117.469 15.4992
-10.3629 136 7.24756
2.2703 89.7094 -15.4391
2.45425 87.1011 -15.399
-3.71317 125.674 -7.12189
-0.48232 111.072 -12.2602
-12.1243 117.707 15.5219
-0.323572 110.638 -12.4047
-5.19585 135.498 -4.90981
-0.0733472 109.564 -12.7516
-10.0094 80.1436 17.6422
-5.53172 139.439 -4.76519
-10.2444 136.919 7.51896
-10.2653 146.841 5.69116
-11.0261 99.8896 16.5039
3.3381 79.0652 -15.2828
-10.2166 145.392 5.92797
-5.74909 141.999 -4.55725
-11.9632 118.086 15.5108
-10.0781 135.019 7.6259
-9.36589 151.552 2.71591
0.732047 107.144 -14.0184
1.70691 99.3018 -14.9339
-10.684 94.3144 16.9267
3.59874 76.3431 -15.183
-11.6715 111.46 16.2402
-10.3722 141.51 7.30667
3.54166 77.8444 -15.2817
-9.54471 78.6067 17.2074
-5.10612 138.254 -5.11624
-3.87564 128.112 -6.24143
-9.72838 78.802 17.7335
-10.4019 87.1196 17.9049
-4.57152 132.903 -5.27355
-7.18739 152.351 -2.35063
-0.158571 111.575 -12.1279
-9.94122 147.302 5.49059
2.70294 91.7079 -15.4503
-10.5038 130.181 10.3497
-0.401781 114.075 -11.7049
-11.5862 115.403 15.928
-11.6129 118.284 15.4835
-4.15565 131.995 -5.64242
-5.00492 139.277 -4.72406
-1.71248 120.837 -9.3745
-9.62873 78.6911 18.4027
-10.3906 94.5827 17.2859
-9.06288 78.2215 17.1329
-1.19034 119.052 -10.1356
1.30935 106.253 -13.9109
-5.07759 140.526 -4.48482
-10.1625 90.5468 17.7141
-2.97439 126.465 -6.99453
-10.2872 94.0076 17.4525
-5.34777 143.675 -4.27399
-10.3727 97.8718 16.9491
-9.38973 81.1544 17.7801
-3.58096 129.749 -5.84412
-9.6862 133.091 8.78377
-10.4177 106.567 15.8062
-8.5609 152.139 2.53798
-9.3897 134.941 7.88174
-10.2895 98.7255 17.1252
2.49431 99.1426 -14.8026
2.40369 100.518 -14.7711
2.74145 97.6278 -15.06
-5.31291 146.568 -4.1751
-8.61169 78.2806 17.0385
-10.8012 123.47 14.1383
-5.25389 147.305 -4.20091
-0.603232 118.457 -10.2361
-4.0955 134.763 -4.61073
-2.94446 128.798 -6.32221
4.65899 76.3896 -15.2776
-10.4562 108.993 16.299
-3.30266 131.615 -5.82025
-8.73137 146.074 5.10965
4.95103 74.9789 -15.3524
-9.03822 78.1424 18.9309
-8.94218 140.656 6.82557
-10.2048 108.218 16.2104
-8.73748 80.1584 17.8909
-9.76683 92.1833 18.1984
-9.13314 84.4071 18.1062
0.533596 113.944 -11.5734
-0.958705 120.806 -9.14607
-10.6377 126.093 13.9786
-9.04469 144.558 6.59521
-9.23757 133.535 9.21776
-8.77765 139.263 6.98588
3.84439 91.641 -15.4314
-9.19669 142.596 7.45889
-9.19125 86.016 18.1948
-8.97106 134.258 8.49186
-10.2072 109.133 16.3822
-9.45767 88.548 18.5608
3.85748 93.1007 -15.3637
-9.69193 95.934 18.0055
-4.8332 147.003 -3.79914
-6.24376 153.425 -1.42485
4.40232 86.9806 -15.2859
1.01256 113.078 -11.7372
3.14141 100.549 -14.6354
-9.62294 103.611 16.6659
-10.1319 111.204 16.4938
0.982696 113.57 -11.6165
1.95793 109.229 -13.1548
-10.2389 122.855 14.6906
-9.51935 96.4887 17.9724
-7.9739 148.156 4.43367
-0.677701 121.49 -8.61158
-8.17712 144.402 5.76688
-1.42653 123.553 -6.95209
-10.2012 112.925 17.0035
-7.76158 79.0339 17.4694
3.99033 96.5943 -15.1099
3.46199 100.782 -14.5813
-1.91726 127.797 -6.29008
-9.36576 103.357 16.9632
-9.32205 98.6636 17.7497
-7.59613 78.6423 17.2785
5.41882 79.0753 -15.214
-9.84232 123.665 14.401
-1.84837 128.005 -6.24034
-9.00771 90.6046 18.7435
-8.16438 139.342 7.41216
-7.8037 144.1 5.63128
-4.41707 147.887 -3.47191
-7.49871 146.833 4.68903
2.48007 109.062 -13.0055
-9.5676 117.106 15.7697
-8.1514 136.421 8.62633
-4.12437 147.078 -3.39814
-1.66204 128.695 -5.99451
3.46544 103.892 -13.9997
0.882814 115.662 -9.56851
6.23503 74.8232 -14.9616
-4.27528 150.046 -2.93929
-8.68291 132.14 11.5089
4.71074 96.1906 -15.0321
0.610701 117.554 -8.8443
-9.07259 129.599 13.0927
-8.79499 99.2282 18.2248
-8.8558 100.928 18.149
-0.580745 123.722 -6.77426
-8.7559 108.065 16.5933
-9.16679 124.794 14.5064
-8.42435 91.5704 18.972
-7.75494 134.74 9.14791
-9.03331 128.65 13.5221
3.81899 105.123 -13.9988
-2.56422 137.414 -4.19036
-8.13608 88.0905 19.0705
-7.23983 81.2106 18.1521
-8.55959 103.293 17.501
-9.01875 123.558 14.8103
-9.13798 121.212 15.5996
-8.87301 129.027 13.4934
-7.37925 142.832 7.23042
-3.42884 146.259 -3.23173
-8.46352 107.344 16.707
5.30357 93.1427 -14.9024
4.47356 101.301 -14.3495
-8.2555 93.5437 18.9001
-8.30659 105.869 16.7104
-0.680918 125.367 -5.9639
0.419771 121.612 -7.90154
-4.42738 154.161 -1.82114
-6.86975 81.1734 18.1368
-8.83127 126.287 14.4722
-8.8052 123.376 14.9669
-8.13069 95.0132 18.7219
-6.29598 145.025 4.7363
2.62826 111.398 -11.0939
-1.54341 133.017 -4.74046
-2.74707 141.842 -3.40652
6.17268 84.6614 -14.7445
6.56503 80.8518 -14.9906
-0.402388 125.14 -6.02485
0.249268 123.054 -7.24184
-7.29578 138.329 8.69379
-7.67369 88.88 19.1116
-6.14727 144.897 4.68406
-0.847784 128.125 -5.33309
-6.76556 77.471 19.1286
-1.62242 134.571 -4.42176
-3.24716 148.56 -2.93332
-8.70405 112.643 17.6035
-8.03872 97.5528 18.8535
-8.48356 119.886 15.9689
2.78421 111.849 -10.4021
-0.484459 127.372 -5.17263
5.76719 95.9033 -14.7754
5.81639 95.9893 -14.7576
-8.2437 124.484 14.9565
-7.70059 104.577 17.4217
0.421979 124.056 -6.49026
-8.0813 109.763 17.4327
7.36151 75.1295 -14.4654
-1.21423 133.665 -4.19228
6.60392 86.6491 -14.7555
-1.51265 136.555 -3.91213
-7.71794 103.673 17.8081
-5.8881 78.4648 18.0359
-6.31228 140.839 7.43424
5.4794 99.7078 -14.1134
-6.41169 139.386 8.08037
-7.85972 116.605 16.1053
0.949033 122.139 -6.89391
6.74871 87.8287 -14.7226
-0.979426 133.545 -4.0284
-7.80388 109.423 17.6055
3.66326 110.4 -11.0702
-2.01828 143.277 -3.07819
5.05394 105.673 -13.4959
7.36678 80.3576 -14.4422
-7.25138 104.994 17.4821
-0.0792313 128.375 -4.79046
-3.17011 153.769 -1.86455
-6.05309 140.089 7.94737
1.07614 122.668 -6.48891
-6.50174 134.421 10.3729
-7.5641 115.06 16.7019
5.24153 105.664 -13.42
-7.09798 105.339 17.4566
-0.576393 133.021 -4.02119
4.17115 109.508 -11.3783
-5.45892 80.1375 18.4263
-6.41686 86.9183 19.5927
-5.14301 142.542 5.90351
-7.0651 97.0976 19.3313
-4.88148 145.1 4.95173
7.55745 83.8012 -14.396
-7.44146 113.542 17.4206
8.05366 75.5044 -13.9732
-5.86438 137.358 9.0724
6.95075 91.7709 -14.1993
6.94005 92.5508 -14.2895
-4.84051 142.344 5.63526
-6.12905 134.374 10.3953
6.82945 95.1616 -14.443
-1.30659 141.733 -2.97444
-5.46383 140.098 7.72447
-4.55271 143.01 4.90729
1.7983 121.042 -6.68157
5.9938 103.588 -13.7545
-2.50776 153.396 -1.95758
-5.8903 136.945 9.6412
1.54724 122.588 -6.10289
3.82505 112.2 -9.80345
-6.86818 99.861 19.2973
-1.98937 150.335 -2.30588
-5.86628 134.933 10.3415
-0.489008 135.873 -3.196
-1.62633 147.949 -2.5893
0.584669 128.701 -4.43105
3.23175 116.231 -8.61835
5.09411 108.269 -11.6857
-1.98211 151.419 -2.16917
4.35566 110.679 -10.2247
-4.95211 77.35 19.318
-2.12264 152.849 -2.0313
-6.75839 121.198 15.5374
-6.75377 125.97 14.6498
-0.720254 139.297 -2.88099
-4.00194 143.861 4.57334
-5.66901 85.9583 19.7637
0.875556 127.736 -4.46714
-1.89914 151.936 -2.12811
-2.07298 153.594 -1.99235
-6.12323 130.877 12.4401
-1.60809 150.075 -2.38327
7.57952 91.0408 -13.9289
6.20594 105.743 -13.0772
-6.44629 101.676 19.2621
-4.77191 137.781 8.23625
-6.3766 103.234 18.7965
8.53594 77.2593 -13.4162
-5.79646 90.7413 19.9387
8.53725 82.8551 -14.2587
2.71698 119.811 -6.64218
-6.49767 113.952 17.5104
4.23097 113.594 -9.11709
5.83304 107.406 -11.8829
-4.57687 77.0807 19.8386
0.000291333 137.843 -2.9016
-6.12281 106.022 18.457
5.79377 108.024 -11.5933
8.79879 82.4488 -14.1838
1.84436 124.945 -4.88548
0.904101 131.424 -3.68819
-6.25161 115.146 17.24
4.10076 116.772 -8.8642
-1.42012 153.969 -2.03999
-3.98597 77.9186 19.0231
2.02013 124.847 -4.85737
0.0933943 140.353 -2.98974
8.7467 84.3915 -13.8966
7.9346 94.4942 -13.7864
-6.14005 109.681 18.4283
7.43594 102.156 -13.9055
-6.10148 114.457 17.5281
-5.21552 89.9163 19.9851
5.85257 109.518 -11.2687
0.59623 135.251 -3.03555
6.42785 107.288 -12.1539
-3.746 138.1 7.53222
8.86999 86.5753 -14.0141
-5.59313 129.908 13.86
0.710379 135.94 -2.99131
-5.58293 122.315 15.3091
-4.01624 137.697 8.49576
9.24149 78.1962 -13.2511
-0.69089 151.463 -2.39884
-0.042796 145.117 -2.78173
7.95716 100.429 -13.8883
7.95686 100.682 -13.9104
9.34183 81.1124 -13.6367
-2.60917 143.55 4.38722
-0.770438 153.981 -2.15159
4.51591 117.465 -8.3723
-5.41215 105.036 18.7589
-2.65321 144.069 4.59333
7.2316 106.372 -12.8457
-4.99036 95.1168 20.0193
2.39838 126.591 -4.36152
-5.2448 98.9237 19.9714
9.33098 85.4141 -13.7679
8.68379 92.6219 -13.4456
-5.27747 101.049 19.7604
3.41305 121.719 -5.72918
-4.87173 94.3937 20.1746
-4.80945 94.2536 20.2237
1.72014 133.745 -3.51788
-5.10497 118.812 16.3912
-5.15805 107.313 18.7486
1.37624 136.518 -3.01383
7.4368 107.261 -12.5128
-5.03698 102.947 19.6075
9.1497 91.1075 -13.4537
-3.70772 84.8855 19.8133
-4.86856 99.5141 19.9302
-5.20002 115.03 17.8505
3.21737 124.238 -4.78679
-2.55332 138.701 6.86789
8.80479 99.0462 -13.8716
1.986 134.329 -3.52996
-2.12882 141.257 5.46233
-4.88481 109.292 18.5528
9.9343 84.2957 -13.6171
3.92477 121.451 -5.6558
7.67256 107.872 -12.3491
-4.4673 127.466 14.2964
10.1742 81.9479 -13.5183
8.43138 103.554 -13.2677
4.37405 119.705 -6.17298
9.01157 97.7157 -13.5447
-4.91865 112.748 18.5159
1.00218 147.787 -2.79623
0.32786 153.696 -2.2178
9.57618 91.088 -13.3539
2.09098 137.072 -3.33386
10.327 83.0463 -13.6009
-2.89954 137.39 9.07751
-4.27278 130.471 13.8359
-4.36085 100.032 19.8638
6.90276 113.58 -10.7609
-4.46389 108.653 18.5504
-4.65717 110.28 18.7512
-4.71179 112.659 18.5408
7.18 112.348 -10.9946
-3.02797 82.9717 20.0331
6.43464 115.142 -9.65693
-4.09239 128.543 14.1287
2.88182 131.821 -3.87621
-3.03594 136.295 10.0477
-3.46201 87.222 20.4384
-4.11285 129.776 14.0576
9.53844 93.4183 -13.0649
2.77818 133.987 -3.76609
-4.2271 118.263 16.6966
6.38671 117.05 -9.45679
7.92819 108.65 -11.623
9.45184 98.0977 -13.3198
-4.06291 108.146 18.6811
-4.32976 111.436 18.7482
9.71868 93.946 -12.8816
2.16106 141.84 -3.13149
-3.4913 91.0289 20.7152
8.23692 107.919 -11.709
7.79588 110.89 -11.0022
8.01278 109.218 -11.202
-2.38936 81.5989 20.182
9.78873 96.1436 -12.9032
-3.90675 109.335 18.7902
2.63926 140.151 -3.36868
-2.26783 81.2064 20.1359
2.82053 138.953 -3.48491
9.89866 94.9284 -12.7291
6.84363 117.454 -9.36611
-3.47885 128.819 14.2323
-3.53924 122.584 15.59
-2.77291 86.3719 20.5659
4.9419 121.866 -5.38706
-3.06757 133.012 12.4684
3.09768 137.614 -3.73019
2.49639 142.832 -3.17767
-1.76893 145.23 7.06209
-1.34809 137.899 7.43956
-3.85617 111.85 18.7113
-3.83934 114.004 18.2683
4.37036 125.705 -4.37231
1.80346 150.928 -2.74116
-1.50364 142.538 7.26094
9.86541 101.525 -13.2701
-3.27328 96.4622 20.4943
8.80313 106.759 -11.5606
-3.2619 96.9383 20.4173
-2.81795 89.0068 20.8239
-3.69464 113.885 18.3007
-2.5017 134.564 11.4409
-1.54562 143.191 7.42221
11.3541 80.7595 -12.8042
1.36063 154.211 -1.81125
5.26229 122.053 -5.32726
10.9158 88.8745 -12.9771
-1.9206 77.3261 21.2146
8.07651 114.571 -10.7066
-3.32979 117.881 17.1903
10.6064 92.4629 -12.7007
7.86241 115.526 -10.2143
-3.21375 116.835 17.2142
-1.62439 78.2991 20.605
-2.79626 93.9457 20.6815
4.41206 129.992 -4.10607
6.72765 119.394 -7.83922
-2.4098 133.395 12.3773
1.6488 154.382 -1.68341
-3.15982 106.617 19.3768
2.35708 150.862 -2.77416
-2.99049 121.302 16.1907
4.72779 126.929 -4.11042
-1.22733 144.165 7.49626
11.8511 75.2343 -11.9853
-1.93486 135.446 10.9962
-2.62544 131.62 13.4783
-2.781 130.106 14.2205
2.73234 148.277 -2.93379
-0.948321 140.433 7.81118
11.4065 86.2541 -12.6942
-2.6779 97.9072 20.2431
-2.88677 117.528 17.0701
-2.02817 134.636 11.7185
-2.89511 120.106 16.7074
3.98551 138.272 -3.78099
10.0917 102.992 -12.2087
8.86722 110.14 -10.4595
3.24401 145.423 -3.10391
-2.03055 88.3258 20.9915
3.39563 144.689 -3.18741
-1.09933 78.4415 20.6424
9.39685 106.719 -10.8652
5.22785 126.838 -4.26774
11.1249 92.4756 -12.3339
-2.39333 117.52 16.6331
-2.54452 119.344 16.6679
-2.44918 101.855 19.7872
5.10906 130.869 -4.48908
-2.31698 117.596 16.5641
5.17979 131.097 -4.56034
-2.55202 106.863 19.3533
-2.51724 106.769 19.3994
10.8313 101.133 -12.7648
-2.11948 130.986 13.909
-0.864879 135.628 9.93163
9.34352 109.054 -10.4489
-1.15484 135.551 10.858
3.81625 144.76 -3.25686
5.54701 128.156 -4.40356
-2.31217 114.343 17.9121
-0.90392 77.5468 21.4124
-2.0455 127.71 14.7588
8.18677 117.165 -8.7369
10.9001 101.933 -12.5951
-2.32083 113.532 18.208
12.442 77.5136 -11.6332
11.8912 89.0992 -12.2986
11.5766 92.185 -12.0803
2.90895 153.753 -2.14036
-0.524846 79.3406 20.5709
-0.602408 77.9481 21.141
6.66937 122.67 -5.43529
-0.843045 76.7557 22.0719
5.77983 131.54 -4.83283
6.4888 123.907 -5.02125
-1.74004 128.385 14.6981
9.81523 108.85 -10.3378
-2.05583 109.212 19.19
-1.25744 88.2975 21.1882
12.6283 80.3465 -11.8328
8.15092 119.392 -8.0699
5.33197 135.389 -4.07762
4.30478 144.952 -3.32254
-1.079 87.1588 21.1422
-0.137897 136.878 9.47126
-1.1693 133.597 12.6873
8.61003 117.084 -8.55312
-1.46661 119.851 16.0525
5.69636 134.419 -4.55504
-1.64859 102.521 19.8655
-1.41098 98.9823 20.0186
-1.43496 99.6774 19.9802
0.00143741 141.104 8.55061
-0.123843 78.5611 20.782
-1.48628 121.872 16.1605
-0.320864 81.5176 20.9945
11.7174 96.8527 -11.9077
-0.501101 84.2379 21.0753
-1.52135 104.276 19.8384
-0.230862 81.9767 21.0125
-0.101481 135.187 10.619
7.78066 121.046 -6.34225
13.043 77.1144 -11.0746
-0.768838 118.044 15.6082
6.97724 127.469 -5.4073
6.07164 136.891 -4.9268
8.99369 116.961 -8.36001
6.05433 137.284 -4.84388
8.11215 124.746 -7.56449
12.6184 87.7622 -11.7274
7.91195 124.851 -6.98525
12.9141 83.7281 -11.6409
-0.873948 125.865 14.8415
-0.843448 127.405 14.4899
-0.656822 92.438 20.7534
6.46904 136.364 -5.29202
4.88082 147.157 -3.34976
4.53622 150.101 -2.9826
-0.875672 113.337 17.501
13.4829 75.2689 -10.9799
0.267432 80.6761 21.1225
5.42604 143.43 -3.63139
12.681 90.682 -11.6659
-0.656712 128.75 14.3758
-0.0167606 134.79 11.6399
4.95949 148.192 -3.29922
6.35068 139.775 -5.13906
5.3964 144.891 -3.7041
-0.481117 116.118 16.4352
-0.165985 86.6267 21.3062
13.1047 85.9421 -11.4727
8.86298 126.076 -8.41175
8.63998 122.042 -6.97665
5.49495 145.808 -3.61193
-0.273081 112.923 17.0281
-0.172252 113.024 16.8771
8.34994 126.638 -6.94628
-0.0525956 133.612 12.7067
11.6695 104.726 -11.0244
8.88626 121.105 -7.1713
7.13482 134.406 -5.31847
-0.242325 130.229 13.9846
-0.0502414 132.005 13.1914
-0.499099 109.603 18.5783
0.15114 134.221 12.3302
-0.563937 108.846 18.9562
0.643468 77.3294 21.962
-0.594161 104.463 19.9078
6.99187 140.315 -5.75324
4.7203 153.18 -2.5094
1.33112 140.677 8.33166
13.0274 90.9899 -11.3708
9.96378 123.5 -9.88683
-0.000570981 90.7602 21.2212
0.558613 134.574 11.5107
12.944 91.8568 -11.237
13.6999 81.1464 -11.0454
0.595292 123.287 13.6761
1.55003 142.918 7.69382
0.757235 122.586 13.5393
6.97273 140.958 -5.34415
13.7135 82.6037 -11.0574
9.75885 121.007 -8.45896
10.5835 114.332 -9.18679
0.202542 130.738 13.5946
11.4019 107.787 -9.96428
13.7009 83.5503 -11.0874
7.68472 139.212 -6.63312
1.56399 146 7.40572
0.752613 114.013 15.5123
9.39206 127.423 -8.56821
7.61136 135.737 -5.68028
-0.32294 107.351 19.5429
0.64322 119.911 14.8402
0.346045 90.0245 21.2878
0.83666 84.7407 21.0723
12.8342 97.5619 -11.2633
1.58776 137.527 9.2216
0.510476 92.667 20.5521
7.91914 133.232 -5.58943
13.4926 88.8206 -10.9793
14.0132 81.3365 -10.8181
11.5834 110.747 -10.2353
0.546195 130.264 13.582
10.3832 122.242 -9.35603
10.278 126.433 -9.86677
0.699221 95.7798 19.84
5.7482 151.021 -3.21622
0.679654 92.7216 20.5144
0.187819 101.322 20.1401
13.3807 92.1056 -10.9686
8.18883 139.94 -7.07263
1.05802 119.584 14.6153
9.32467 129.28 -7.72943
0.638082 97.6501 19.966
0.311522 107.654 18.8872
13.5175 91.5362 -10.9454
8.34405 133.938 -6.02107
0.842431 92.5386 20.5709
1.26074 127.861 12.9251
12.8568 102.418 -11.1478
10.9347 121.09 -9.89773
12.877 102.007 -11.0391
10.2267 119.371 -7.706
1.34938 127.617 12.8884
2.04862 136.141 9.53772
10.2705 128.224 -9.3223
8.61702 139.382 -7.24644
1.00614 88.9613 21.3249
0.953509 90.0104 21.2858
1.73617 81.2423 21.0499
12.7675 104.642 -10.8565
7.59508 143.936 -5.39276
10.3683 128.545 -9.36867
1.21852 93.86 20.0541
1.63803 126.953 12.7558
7.08765 146.103 -4.45847
1.83323 117.189 14.1333
9.01226 133.7 -6.8866
1.92545 114.463 14.4469
0.953339 99.1331 19.8603
10.6739 128.213 -9.88524
1.32938 130.614 13.0159
1.86708 78.4141 21.6229
14.0845 87.7462 -10.6021
14.1843 86.6387 -10.6175
0.929601 107.743 18.4294
9.04617 134.013 -6.78762
11.0296 116.3 -8.31933
7.66381 145.135 -5.37041
10.7946 129.224 -10.1289
1.71345 129.326 12.5085
6.20189 152.752 -3.103
7.0322 147.739 -4.20122
1.21824 90.1492 21.2714
2.64466 139.322 8.38259
8.77184 141.24 -7.22975
14.4806 82.4996 -10.2978
2.13516 115.906 14.1669
12.4395 107.605 -9.90276
11.1219 117.165 -8.41626
0.887166 107.007 19.1002
2.25568 124.997 12.3091
8.33587 143.895 -6.41403
14.4336 83.6991 -10.1475
2.41154 124.428 12.1382
2.38679 116.095 13.7944
2.96247 145.211 6.92506
1.62656 133.959 12.3915
2.66336 136.751 9.28545
2.12738 128.981 12.1137
6.36365 152.956 -2.9681
11.6537 117.195 -9.34939
9.9415 132.507 -7.97668
11.8003 117.007 -9.62136
2.11717 78.1777 21.9256
2.87604 120.505 12.0311
9.60836 135.083 -7.51652
8.29691 145.803 -6.18844
2.74708 116.254 13.2968
11.3915 116.003 -8.19178
3.23697 142.902 7.04453
9.75665 134.951 -7.68416
1.90689 133.529 12.2074
9.82784 137.324 -8.21802
2.11163 131.537 12.1603
14.3495 90.5954 -10.5153
10.9985 131.431 -9.82524
12.4248 113.939 -10.0322
10.1707 133.523 -7.94103
2.03813 96.8327 19.4187
14.294 93.0074 -10.3576
3.53025 142.367 7.13321
2.15165 86.9003 21.1012
11.0307 131.87 -9.55676
9.63018 140.902 -7.73519
10.3906 133.076 -8.14026
3.40799 120.508 11.6699
14.8625 82.531 -9.64011
12.1554 120.565 -10.0326
14.7838 86.145 -9.95109
7.56868 149.981 -4.03454
2.22423 93.6812 20.1083
12.9659 112.625 -10.2559
3.05058 112.569 14.4823
14.8018 87.3727 -10.0168
12.6558 114.298 -9.77392
3.61998 120.022 11.6664
2.56136 133.603 11.7508
2.50478 134.488 11.7711
14.9775 82.5529 -9.3963
3.61931 146.195 6.89941
9.89947 141.986 -7.77785
12.297 115.613 -8.73596
6.87471 153.23 -2.34626
3.87383 121.335 11.2033
11.2905 132.594 -9.3948
12.1 116.035 -8.25963
3.55205 114.194 13.5736
8.03393 150.133 -4.37645
13.8857 105.242 -10.3977
11.1496 134.567 -9.0368
2.58224 93.5672 20.1779
11.8928 130.207 -9.90565
13.293 112.704 -10.0549
11.8586 131.975 -10.0897
11.871 131.506 -10.024
11.831 132.272 -10.0358
2.26628 105.21 18.9703
2.49616 90.6071 21.1895
11.3989 133.647 -9.13818
14.7397 94.2637 -9.94418
2.70334 88.858 21.1237
2.41239 101.224 19.6297
11.4852 134.504 -9.29156
12.0233 131.099 -9.98244
12.4718 125.834 -10.0116
2.98791 95.9371 19.3523
14.0519 106.075 -10.105
4.44782 119.365 11.4295
12.7906 121.075 -9.51334
15.2151 90.8017 -9.80476
15.3134 89.1572 -9.73195
15.8402 76.7758 -8.68035
4.11583 127.76 10.902
4.59892 145.873 6.31057
4.56885 117.616 11.7884
3.3487 107.747 16.7069
15.4262 82.3275 -8.54245
4.84928 145.431 5.86812
9.81395 146.127 -6.50611
13.3453 114.57 -9.31743
15.7657 78.7644 -8.46984
2.99949 90.7566 21.185
3.63319 108.263 16.2919
4.76316 146.06 6.407
4.58351 146.534 6.85189
15.2433 92.5394 -9.44478
4.83529 143.206 6.92192
13.2033 116.506 -8.74219
12.3045 134.035 -9.79609
5.20307 121.76 10.2806
5.00488 146.005 6.28203
4.23577 110.405 14.9805
4.23558 110.207 15.0723
4.29742 110.637 14.8464
13.1353 119.147 -8.76926
4.85293 141.158 7.70993
13.9998 112.69 -9.6597
13.1621 121.536 -9.24026
16.0087 78.8814 -8.22538
14.862 100.664 -9.48395
12.7444 124.612 -8.70709
15.2891 95.7228 -9.52204
4.62426 138.3 8.98516
14.9026 100.469 -9.4177
4.66056 129.977 10.5256
14.9242 101.082 -9.5436
4.29992 133.747 10.7478
14.8712 104.579 -10.0164
14.0921 109.994 -9.09168
5.40558 141.069 6.79195
5.46046 141.102 6.65668
11.6879 138.451 -8.32869
9.43034 149.993 -4.88783
5.47786 142.759 6.38281
4.94312 130.045 10.1304
5.6338 140.844 6.39501
13.0118 124.019 -8.78967
5.12053 135.09 8.81966
4.2538 107.959 16.1576
5.66099 127.633 8.91695
13.0063 129.925 -9.81472
10.1779 147.803 -6.15734
15.6148 92.7944 -9.05879
5.8062 139.928 6.46354
4.97786 131.275 10.2753
5.31877 139.331 7.97131
5.56081 130.561 9.05588
5.74029 133.97 7.99794
16.4778 75.5298 -7.64411
12.9928 131.222 -9.50476
5.96866 138.662 6.7901
5.20269 133.239 9.75347
4.27229 77.3639 22.7263
4.33022 80.3303 22.0802
12.7189 122.917 -6.89529
5.93855 133.465 8.04596
12.8515 135.501 -9.5088
4.3664 80.6124 22.0851
5.62687 131.477 9.30109
6.29334 130.935 7.80219
6.02101 134.992 7.71395
16.0151 91.6231 -8.95344
6.40366 142.553 5.37963
6.15019 133.793 7.69028
6.45525 145.588 4.75913
5.11888 109.737 14.9036
5.98648 118.837 11.0273
13.5893 127.128 -9.4453
14.6788 112.615 -9.35732
12.9903 135.6 -9.43177
5.43051 111.03 14.1674
13.2672 121.928 -7.37251
13.6627 120.698 -8.10364
14.8743 111.723 -9.41394
13.5813 129.126 -9.46879
12.5264 137.629 -8.4224
6.40174 121.764 9.92094
16.4522 89.6398 -9.00228
4.35201 91.0765 21.0335
6.7507 126.796 8.33773
14.5471 116.193 -9.06188
4.23042 103.323 19.1021
8.29024 153.933 -0.615211
6.84959 132.753 7.09208
13.9114 116.6 -7.39448
7.6869 154.885 0.884605
6.94471 138.681 5.85086
6.61324 134.974 7.4634
4.45596 102.974 19.028
7.06498 137.399 5.99368
13.7516 120.324 -7.4182
7.00544 128.934 7.80062
6.18588 113.716 12.7963
7.10015 126.045 8.20419
16.3217 92.4213 -8.29883
7.12509 128.646 7.78697
16.2976 94.2872 -8.48159
14.0753 116.241 -7.08133
16.2595 95.8847 -8.57645
16.8845 75.4584 -6.17535
6.94066 121.546 9.86392
14.9374 113.875 -8.60047
5.76832 108.238 15.3326
13.9742 127.34 -8.69455
16.6269 85.5475 -7.3223
17.0351 77.2312 -6.74038
5.69716 107.5 15.7788
13.4454 120.474 -5.93707
5.02931 85.4911 21.778
7.55952 148.241 3.56146
7.42789 133.087 6.77877
6.358 111.078 13.653
17.0873 77.3037 -6.62953
12.2492 142.344 -6.90875
6.93917 118.479 10.8602
15.0897 114.663 -8.72467
5.75412 106.612 16.259
17.0237 80.9364 -6.92079
5.17133 94.9029 19.9887
10.7742 149.244 -4.29322
7.52697 133.451 6.83216
7.6235 126.102 8.03668
6.98393 116.943 11.4005
14.2774 116.192 -6.51092
11.988 146.164 -6.4773
7.87769 146.572 3.73583
17.0055 75.2189 -5.44773
16.6739 93.4375 -8.0036
12.8474 139.759 -7.24995
14.0303 125.696 -7.47655
14.0567 127.386 -7.64192
9.35629 153.254 -0.808153
16.6485 96.0571 -8.07918
14.7761 115.797 -7.07397
6.03203 76.3334 22.3173
8.26696 148.946 2.99627
7.24313 114.637 12.0997
8.34139 147.238 3.35819
8.9313 154.47 0.552238
16.9217 93.3187 -7.72394
15.8958 111.807 -8.6603
14.3644 127.447 -7.76872
5.95371 100.647 18.2955
15.6133 114.631 -8.43596
7.68535 118.071 10.7756
13.2421 128.916 -5.1136
8.63449 154.891 1.48116
7.43866 113.696 12.3103
5.7319 103.733 18.5102
8.52709 133.149 5.95984
8.55544 131.546 6.20177
13.9557 128.305 -6.59984
6.33309 78.4787 21.9019
8.55275 146.704 3.42279
7.93783 120.542 9.93232
14.0734 128.887 -6.93422
8.4858 154.111 2.30234
8.43112 133.874 6.29087
8.58161 138.936 4.97302
10.1199 152.283 -1.37909
5.85571 94.4081 20.2922
16.9055 97.7141 -7.87839
14.7318 128.404 -8.23795
14.4854 129.311 -7.71286
14.4821 132.698 -8.3005
13.7794 129.848 -5.99027
16.356 110.057 -8.64685
7.54275 111.747 13.015
14.5482 134.453 -8.71734
14.2813 136.773 -8.47783
5.92246 90.7308 21.1206
6.34295 98.1726 18.7129
17.5414 78.819 -5.4626
16.6237 102.438 -7.65273
6.49956 81.5452 21.5799
16.6028 105.493 -8.1371
17.1545 95.1797 -7.42026
14.5991 124.122 -6.41507
15.1478 115.294 -5.99918
14.5196 117.321 -4.7448
16.4158 110.284 -8.10655
10.6395 151.822 -1.57236
16.1764 111.895 -7.74402
14.6024 116.842 -4.75416
16.5608 109.165 -8.15464
17.7099 78.5369 -5.13966
6.43625 104.322 18.073
9.20869 142.332 4.01049
13.5893 126.478 -3.83476
14.7858 131.06 -7.64597
8.13548 113.15 12.3655
6.64228 97.3425 19.1408
13.4778 127.249 -3.51692
16.3719 110.877 -7.59112
6.76805 105.729 17.3473
17.3044 98.5722 -7.45612
15.2104 129.513 -8.10169
16.2783 113.27 -7.63313
16.0063 115.459 -7.34287
7.03906 82.8747 21.2207
8.88685 122.181 9.1549
10.8064 151.938 -1.27786
15.6988 115.504 -6.55537
17.1993 100.343 -7.40586
17.8656 81.3232 -5.42999
14.3629 118.064 -3.65356
14.864 127.221 -6.60976
15.2931 114.961 -5.33724
17.4677 93.2782 -6.58908
8.5419 115.015 11.6439
9.65715 144.437 3.31298
9.3465 127.056 7.38968
14.3986 117.812 -3.36273
9.72067 138.827 4.34846
6.682 91.9636 20.8205
7.08654 100.88 18.1282
13.6095 143.701 -6.21415
13.3025 145.377 -5.75706
8.13421 110.433 13.7653
16.9871 102.928 -6.87822
13.3073 145.395 -5.73796
17.0208 105.104 -7.32193
15.606 127.108 -7.92235
16.3971 112.678 -7.14622
14.8035 120.301 -4.54513
13.7958 143.242 -6.38334
16.2689 114.738 -7.0772
15.2741 126.066 -6.74133
7.41701 82.3318 21.1486
7.45899 83.4401 20.8837
16.8806 108.807 -7.39544
16.8053 109.365 -7.21304
13.0294 147.438 -4.99545
7.33966 105.838 17.1516
13.8638 125.825 -2.88885
16.1483 123.286 -8.04806
16.8001 109.521 -6.94645
17.7047 90.1044 -5.49876
9.17372 117.632 10.5727
9.33341 121.024 9.53176
17.9236 86.5733 -5.33681
9.28245 119.865 9.91781
7.11813 94.7618 20.1061
15.4367 132.949 -7.71417
16.81 123.762 -9.2829
15.5058 132.822 -7.74473
7.91994 81.3872 20.9455
14.002 125.349 -2.55316
7.52236 85.9141 21.1023
18.1704 80.9159 -4.42538
7.28998 93.5626 20.3871
17.4025 101.386 -6.23927
8.85367 111.036 13.2969
16.5843 126.091 -8.74887
17.823 95.3186 -5.96728
14.7737 138.752 -6.58467
17.3876 101.683 -6.04035
18.1178 85.8296 -4.79298
9.86856 123.043 8.73442
17.4902 120.781 -9.73508
8.29382 78.7365 21.2141
18.3285 79.286 -3.81776
8.26706 83.2748 20.5106
16.3947 123.096 -7.2234
18.0025 90.0853 -4.945
7.8858 99.9776 18.4009
15.0779 123.91 -4.06941
11.0079 153.413 0.47902
16.666 121.173 -7.50244
15.8578 126.424 -6.47288
8.35878 83.457 20.4241
10.6682 135.985 4.75675
17.5733 124.338 -10.1859
12.3916 150.651 -2.21799
16.7088 121.252 -7.396
8.61128 79.0337 20.9015
15.151 127.936 -4.57654
15.271 123.704 -3.99621
15.7071 123.778 -5.02581
18.493 120.353 -11.2897
11.1364 153.58 0.744179
18.6719 120.453 -11.7503
8.73806 77.935 21.1028
18.081 91.2348 -4.66239
10.9053 150.383 2.06757
18.3896 83.0877 -3.79483
10.2995 122.469 8.90207
10.4723 124.533 8.11308
18.3503 86.629 -4.32935
8.17805 105.147 17.5167
16.1429 132.11 -7.36375
11.4135 153.224 0.455795
14.987 128.475 -3.69882
13.34 149.337 -3.55109
11.1025 139.864 3.82709
17.9942 124.576 -10.3107
18.1703 91.8189 -4.48819
15.8003 118.726 -3.64459
16.9776 113.036 -5.44793
10.0969 115.746 11.2377
8.42178 100.16 18.4604
14.248 125.351 -0.84303
8.20631 90.6519 20.8413
14.5563 128.572 -2.17703
15.1728 139.695 -5.78254
16.7157 114.097 -4.74927
14.3269 128.192 -1.41737
18.3349 97.5436 -5.53945
17.6211 102.988 -4.72271
9.37401 78.1493 20.5789
18.5045 88.8988 -4.1887
17.4181 130.212 -9.28078
17.3361 110.798 -5.36438
11.4298 146.273 2.63175
15.862 117.812 -3.00869
10.0131 112.207 12.7173
18.1041 100.604 -5.24055
19.1741 75.9833 -3.22007
8.42429 93.5158 20.2765
8.55526 97.598 19.2259
18.9267 119.146 -10.718
10.8817 122.959 8.66219
8.59916 97.7805 19.1513
11.8107 153.119 0.679908
10.9567 123.491 8.45491
11.1534 126.968 7.30578
19.1256 77.1338 -3.04965
18.6599 87.9616 -3.91001
9.54463 108.284 14.9562
15.7678 136.277 -5.83558
18.3672 118.846 -8.99049
18.0467 127.838 -9.83572
9.85808 78.657 20.0515
11.7229 151.523 1.59121
13.5998 149.801 -2.66889
14.596 127.311 -0.845456
15.9974 127.369 -4.34214
11.6283 140.775 4.05181
15.9364 135.951 -5.75094
19.0714 79.7868 -2.80862
17.5225 107.754 -4.24722
10.5625 113.638 11.9873
18.8802 82.3598 -2.79695
15.926 138.246 -5.97365
11.9871 151.847 1.27011
16.4208 124.042 -4.49638
16.3099 136.312 -6.51218
17.1611 121.242 -5.74378
16.579 128.586 -5.56831
9.07655 100.524 18.465
16.6764 126.354 -5.35885
15.8264 131.042 -4.10712
19.5007 76.1094 -2.80276
15.9969 138.637 -5.93064
16.4294 119.498 -3.37022
16.4859 122.645 -4.09946
16.2562 135.614 -5.97665
16.3892 135.399 -6.23473
19.8076 122.38 -12.243
10.8705 115.435 11.3556
13.3874 150.516 -1.57796
16.8817 131.118 -6.58246
10.0117 108.41 14.8656
18.9991 82.4636 -2.58808
18.2799 101.068 -4.32076
12.3722 152.541 0.681949
19.4788 124.32 -11.6683
16.4757 117.924 -2.9067
19.2374 79.0564 -2.35203
14.888 145.472 -4.07842
14.8287 128.577 -0.696699
18.9527 89.0376 -3.43082
14.6302 126.04 0.388186
11.3589 119.841 9.81776
15.104 125.026 -0.466178
18.8601 96.4092 -4.39369
17.8499 106.65 -3.79009
17.8945 106.036 -3.64901
11.9133 127.462 7.22247
15.443 143.379 -4.58585
19.0322 86.7528 -2.77223
15.8793 127.703 -2.66227
16.7636 134.937 -6.2394
19.3848 79.382 -2.20002
12.2958 149.819 2.10396
17.042 132.118 -6.34154
19.5654 77.7977 -2.30446
14.7918 125.991 0.61398
15.6126 143.072 -4.66844
17.3074 133.563 -7.0826
19.6967 124.825 -11.3335
16.6547 122.494 -3.28278
16.8714 124.126 -4.06933
19.8227 75.7845 -2.23565
11.5496 118.889 10.2242
17.083 133.856 -6.39992
16.8262 119.228 -2.96892
19.1589 88.049 -2.78207
15.7317 124.356 -1.09285
16.7076 135.87 -5.69287
19.0376 95.1403 -3.70307
16.9725 122.219 -3.69264
11.0489 78.9106 19.351
13.5974 151.082 -0.679286
12.3973 138.527 4.84247
17.6295 119.899 -4.64966
17.9401 107.23 -2.97115
18.4565 118.747 -6.41512
11.0947 79.7879 19.3403
12.2751 128.143 7.23817
16.0071 140.915 -4.46211
20.5556 121.497 -12.0939
16.9101 131.545 -4.81815
18.9421 130.037 -9.59467
10.0119 101.906 18.1999
17.7271 113.609 -3.24018
9.92484 94.4024 19.8739
19.7623 80.0074 -1.75647
10.0968 93.0727 19.8972
18.2369 105.648 -2.69524
12.1426 120.688 9.64491
10.1181 93.9071 19.8116
16.5747 116.174 -0.411957
16.9487 114.942 -1.0922
18.3421 109.78 -3.53914
17.2572 119.14 -2.58881
18.2328 106.445 -2.58256
16.4569 124.34 -1.53297
18.9722 100.225 -3.16821
16.4335 123.204 -1.1462
12.6859 136.455 5.70675
11.17 107.501 14.9836
15.2038 147.123 -2.58651
10.3633 101.595 18.2538
18.5847 103.818 -2.63115
17.0824 114.858 -0.980529
19.3777 94.417 -2.80041
16.4495 123.471 -0.943473
19.4076 96.0825 -3.09055
18.4769 105.107 -2.47886
11.4332 85.7162 18.7803
17.4871 120.537 -2.90298
15.9696 144.215 -3.60745
19.4049 118.548 -7.24151
12.8208 143.116 4.5355
10.5365 103.551 17.7658
20.0005 126.825 -10.2419
17.6652 135.764 -6.11518
10.5227 102.091 18.1424
12.7947 127.435 7.69191
18.5333 119.413 -5.06313
17.4683 137.259 -5.795
12.449 119.729 10.0606
17.103 138.201 -5.04545
19.3554 99.2895 -3.24561
17.8097 135.329 -6.21951
16.7645 115.69 0.116044
16.5149 142.397 -4.32467
11.703 110.38 13.7497
15.5115 126.423 1.21262
18.5709 105.336 -2.3048
17.6149 120.76 -2.83877
16.6952 140.905 -4.34412
20.3282 76.6681 -1.20395
11.6624 86.182 18.6136
12.9308 141.807 4.92786
17.1287 116.786 -0.78409
17.5082 120.287 -2.29746
10.6336 97.5151 19.2212
15.3042 147.651 -1.90423
13.3851 148.999 2.65391
17.7979 124.73 -3.67816
18.8394 103.827 -2.30018
10.7011 97.3666 19.2331
11.3199 106.161 16.0292
17.6905 120.776 -2.50956
17.8442 121.226 -2.77293
20.4679 75.5843 -0.647191
13.1442 141.131 5.17968
19.8578 89.7619 -1.77401
11.6928 89.4353 18.6709
17.8042 121.042 -2.55429
18.8048 118.861 -4.54478
13.2461 139.051 5.52584
12.7814 118.35 10.64
12.3043 83.6059 18.4271
15.9167 126.465 1.32596
20.0123 129.267 -9.39183
20.6616 126.64 -10.4579
12.3739 111.81 13.056
12.1041 87.7453 18.3422
17.8799 119.722 -2.0948
18.6018 135.891 -6.96245
19.3586 134.094 -8.48959
17.5702 122.86 -1.86152
20.0019 88.584 -1.33211
18.8811 119.092 -4.32303
13.5678 146.564 3.72756
16.8883 143.03 -3.86319
20.0117 89.3747 -1.42891
17.593 124.164 -1.96197
21.4158 124.089 -11.4365
18.6492 113.202 -2.43604
17.0976 123.203 -0.4496
11.2638 99.3654 18.6603
12.696 80.718 18.6524
19.8925 93.8723 -1.74388
19.0972 104.888 -1.72594
12.5981 86.1843 18.1736
16.6994 125.674 0.465855
20.0571 92.6391 -1.49627
21.7848 122.705 -11.4324
18.1672 139.045 -5.48732
12.2335 91.0604 18.4277
17.9235 123.23 -1.837
19.2172 136.305 -7.54215
12.0317 92.5289 18.6891
16.1362 126.928 1.95652
12.6381 108.164 14.2405
16.6395 124.978 1.07458
18.7489 113.233 -1.91413
20.1723 130.843 -8.79568
19.4659 118.018 -4.55521
12.7122 107.207 14.3815
13.5554 142.634 5.56261
18.9235 108.549 -1.34465
12.2522 91.6859 18.4915
13.6017 141.124 5.81447
13.3904 119.422 10.5443
14.364 149.485 2.45949
12.1987 92.9192 18.6506
15.7988 149.398 -0.883167
21.8016 124.938 -11.1899
13.2198 84.5625 18.0051
12.9601 88.8474 17.8402
14.7613 150.484 1.70931
16.5084 147.296 -2.01013
18.257 118.397 -0.840677
13.1597 87.0763 17.9067
12.025 98.4531 18.7361
22.2698 122.272 -11.3043
20.4759 86.5878 0.0440895
16.6564 127.148 1.86738
20.9868 75.4615 1.04571
19.185 108.385 -0.70894
19.3366 109.728 -1.32337
20.3107 96.6474 -1.24574
13.2801 111.059 13.555
22.0163 125.486 -10.9566
16.3004 148.769 -1.12354
19.4401 110.394 -1.54801
20.9582 129.687 -8.9859
18.0702 121.702 -0.257338
17.5731 145.906 -3.60622
12.2962 99.2465 18.474
18.646 121.508 -1.56675
13.6931 84.5998 17.8297
13.2883 109.449 14.2096
16.0091 150.113 -0.287779
13.9107 119.408 10.7865
19.8706 137.111 -7.42996
14.5116 145.951 4.31156
18.565 119.283 -0.642789
12.9254 93.6785 18.3561
16.9797 127.553 1.82695
19.4579 119.149 -2.72321
13.6138 89.1886 17.5539
19.4726 109.446 -0.855032
17.436 124.486 1.4263
19.4275 108.905 -0.575136
20.4767 95.2107 -0.535054
18.4487 114.324 0.906026
13.0638 93.699 18.288
14.2084 125.247 9.46396
16.7162 128.203 2.66531
16.5483 128.986 2.97077
18.4109 143.031 -4.33235
20.5477 95.0169 -0.38269
20.7442 86.0682 0.849294
16.4355 149.886 -0.466246
13.9975 132.059 9.01851
14.3064 125.145 9.63132
12.7783 100.936 18.0413
18.4295 116.212 1.05506
17.9038 123.566 0.97561
14.4331 79.3494 18.044
19.9454 104.497 -0.463905
19.9765 104.342 -0.468498
18.7375 118.916 -0.0423725
17.802 146.36 -2.89788
13.1625 104.364 16.695
22.5567 125.532 -10.7102
18.3024 124.681 0.19351
16.6609 130.393 3.21215
19.7569 139.508 -6.19872
13.6753 105.676 15.4371
20.8375 93.2555 0.00373103
21.454 77.4616 1.466
17.4164 127.994 2.05577
20.8168 133.448 -7.38298
18.4112 118.065 1.54563
14.4645 132.618 8.66863
21.3845 75.9706 2.27216
14.527 125.555 9.97464
14.4257 89.0772 17.1591
14.3609 123.813 10.7384
14.5314 126 9.89989
16.6022 129.184 4.20507
13.5475 95.926 18.1812
15.0811 78.7252 17.7098
17.1485 129.608 2.90334
17.1711 128.617 3.05961
14.5871 126.636 9.88702
14.2707 113.964 13.1083
19.0518 114.05 1.2085
15.2937 76.4454 17.7205
13.6854 96.1888 18.0039
14.5673 119.093 11.499
19.8411 112.789 -0.417991
21.5115 82.9487 1.12601
14.641 131.606 9.01734
14.7963 85.3486 17.4334
15.3621 144.296 4.87794
21.5435 76.9902 2.25442
18.0756 146.657 -2.31013
13.8144 97.9938 17.6429
20.3395 118.115 -2.37183
14.3266 111.836 13.8399
21.0786 88.8297 1.41442
21.611 77.2365 2.39029
17.6898 147.834 -1.23268
16.8384 129.209 4.43144
14.5074 113.733 13.3584
15.6324 143.381 4.93473
15.5201 78.8274 17.4785
18.0875 126.562 2.05383
23.4028 123.568 -10.5652
21.1411 135.096 -7.0863
21.0015 98.4289 0.239067
17.9801 127.912 2.29871
15.8009 76.9958 17.43
15.6984 131.331 7.4097
21.1123 136.952 -7.00344
14.8975 92.1188 17.0204
20.2145 110.016 0.369168
21.4151 85.4636 2.03928
18.307 126.715 1.95722
17.5655 127.23 3.77802
17.7387 148.843 -0.748151
14.8216 106.561 14.6221
14.517 95.5051 17.5055
14.1431 100.603 17.4839
20.7094 102.963 0.678712
14.7646 93.6143 17.2801
18.7043 120.787 2.33671
21.673 75.8614 3.47319
14.2067 100.218 17.476
21.2295 95.5209 0.869355
19.121 123.491 0.849253
21.6405 75.722 3.64968
21.1989 92.3558 1.62164
14.9312 121.638 11.7108
15.5919 141.013 6.39781
18.387 120.834 3.30186
19.1438 114.433 2.6464
21.1494 91.1071 2.07853
18.741 124.351 1.77221
15.6502 140.513 6.41179
18.0164 127.884 2.92224
19.2142 122.272 1.01934
18.8273 118.257 2.74641
16.3534 136.293 5.52259
15.696 140.768 6.35344
22.2297 130.339 -7.90569
19.1775 116.247 2.40748
16.1494 137.744 5.92366
20.6762 117.218 -1.42547
22.0135 131.773 -7.51545
23.4931 125.129 -9.82314
22.2082 130.942 -7.71948
16.4821 130.875 6.63732
16.4276 78.7129 16.7255
21.4419 88.533 2.3766
16.203 134.169 6.83276
16.4977 148.229 3.42981
15.6083 91.6529 16.4266
16.4477 133.493 6.43718
16.3959 137.644 5.82681
15.8088 87.1603 16.8866
16.1289 83.9101 16.741
21.4553 95.9272 1.28444
15.2202 116.771 12.8717
22.8229 129.038 -8.35455
21.5304 88.5798 2.55497
20.674 105.394 1.52236
15.8914 129.911 8.85466
23.3436 126.481 -9.03157
16.9737 125.817 7.06282
19.4367 123.804 1.31467
16.7266 133.635 6.2152
16.0491 89.8038 16.2324
18.764 126.471 2.52051
21.0698 102.427 1.34988
17.9943 127.95 4.20266
20.7891 117.526 -0.704409
15.9805 129.178 9.07067
17.163 134.894 5.06913
23.8781 124.724 -9.69716
15.378 112.003 13.9439
16.7335 129.715 7.20635
15.3848 111.666 14.0256
22.0484 83.4579 2.76983
16.6316 144.747 4.6569
15.2415 105.215 15.6301
15.3792 126.432 11.2618
21.6488 93.8223 1.85042
18.5734 148.115 -0.752098
16.3104 129.2 8.59258
15.8149 94.377 16.5486
17.3535 131.699 5.63663
21.5611 138.087 -6.06249
23.3834 127.309 -8.54325
17.4345 148.382 2.38553
16.7213 140.55 5.82506
17.7785 80.3548 14.6217
21.4365 99.6181 1.86282
20.0086 122.564 1.08021
24.1271 124.629 -9.48652
21.9486 82.1789 4.00995
16.9069 125.062 8.44033
20.7415 110.982 1.56213
15.6952 111.943 13.9753
18.2177 132.442 3.81869
19.6175 116.478 3.37677
18.9879 118.967 4.49957
17.3512 129.124 6.66715
21.6996 95.3591 2.30281
23.4444 127.925 -8.19778
19.8525 145.489 -2.56555
17.0845 144.608 4.54675
15.8986 122.023 11.8076
20.0367 144.915 -2.8315
20.8422 119.13 0.148633
16.1205 125.682 10.6995
20.7002 110.208 2.22881
18.9276 124.568 3.93241
15.9689 125.864 11.0852
16.4218 93.8458 16.0567
15.9365 113.462 13.5612
22.2217 80.6962 4.16791
16.8002 90.4127 15.8504
18.6675 124.505 4.80154
17.2096 143.528 4.8303
21.3243 101.549 2.61145
19.8445 125.2 1.83565
20.7447 110.301 2.47422
21.2354 102.166 2.80977
18.3695 148.336 1.22461
21.1139 103.398 2.98683
21.6812 98.2354 2.59222
17.4695 146.174 3.99641
21.8983 82.2884 5.14121
17.7393 137.037 5.13179
16.1479 99.5405 16.2343
17.1087 88.586 15.919
23.5076 128.97 -7.68827
19.0063 81.4635 12.5628
23.0202 131.06 -6.83213
22.2643 137.171 -6.10755
21.1772 118.715 0.118973
19.9253 115.885 3.80576
16.6681 97.5747 15.444
16.7916 97.4508 15.2605
16.0487 103.138 16.0979
16.1022 103.239 16.0306
16.4831 98.6215 16.0747
16.8496 97.7714 15.3442
20.5937 123.109 1.20191
18.6373 123.719 6.00771
21.8024 97.7817 3.08345
21.3753 101.804 3.39119
16.6925 98.3696 15.7753
21.6045 140.493 -4.36533
18.4204 136.475 4.41382
19.3287 147.926 0.0557263
19.3504 147.919 0.00784083
20.8245 122.748 1.12337
18.6798 121.989 6.67217
18.1213 138.005 5.04446
16.9707 98.3263 15.4678
19.8544 81.3246 11.5147
18.6753 122.017 6.76915
17.9996 87.3817 15.0478
19.5685 130.83 2.97985
22.2915 86.502 4.60791
17.7069 89.8139 15.453
20.0717 82.4384 10.9938
17.8137 89.3807 15.3135
21.923 84.2953 6.0422
17.6707 124.044 9.1093
18.7528 84.8032 13.8694
19.4291 133.24 3.13119
22.2629 87.1593 4.82434
18.5887 121.898 7.43534
19.9758 83.1197 11.3476
17.0847 99.1662 15.5606
20.2236 117.5 4.26136
23.8351 129.532 -7.0241
16.7776 110.687 14.1886
17.2651 98.5759 15.275
20.4145 146.177 -1.59203
20.5505 145.823 -1.85103
21.7002 119.3 0.320146
16.8532 119.806 12.3098
19.6886 76.4775 13.5163
19.7513 131.232 2.98911
21.9007 83.7826 6.65113
18.7386 86.0301 14.1088
21.7254 141.272 -3.81646
21.9026 83.8738 6.6468
18.7545 86.0582 14.095
19.4975 84.6 12.5621
22.9438 134.093 -5.41845
21.5099 121.284 0.614276
19.9386 77.8402 12.8017
21.462 142.292 -3.22947
18.4146 88.3372 14.6545
21.3192 101.824 4.88135
21.4568 105.571 3.93839
18.8296 120.915 7.61497
21.2752 112.686 3.09071
22.1065 88.7426 5.60375
22.0334 87.1894 6.18243
17.1732 121.505 11.8719
23.4416 131.758 -5.67991
25.1065 124.944 -8.50462
21.9312 141.418 -3.63367
17.1501 105.155 15.1693
17.2386 112.812 13.6849
19.3655 119.862 7.07144
24.3004 129.051 -6.86505
21.2827 76.7287 10.6425
22.4195 140.21 -4.21857
17.5127 102.987 15.1343
21.4579 111.407 3.71371
21.9752 86.5475 7.1461
18.3131 98.3065 14.057
18.819 97.0683 13.0362
20.2666 133.447 2.54489
22.3111 93.7916 4.97759
19.8046 118.906 6.51258
20.7158 115.896 4.85084
21.6854 91.3487 7.09876
18.6488 143.104 4.84613
17.7793 122.13 11.0014
17.6446 107.192 14.2195
20.7 83.6961 11.0788
18.8915 145.057 3.97012
21.3653 112.167 4.10928
21.6385 143.572 -2.49564
19.8744 86.6202 12.7302
18.0224 101.133 14.6245
21.1857 77.3937 11.2502
21.1771 145.467 -1.64829
17.6186 116.464 12.7424
22.5036 120.177 -0.0580087
21.3162 78.0529 10.9564
20.5305 85.1017 11.6037
21.7092 92.3552 7.35712
22.0102 83.3027 8.34234
23.6748 132.703 -5.18333
19.8629 137.424 3.43718
18.1314 120.93 10.998
