ply
format ascii 1.0
comment Created by Open3D
element vertex 1945
property double x
property double y
property double z
end_header
-15.2182 107.451 7.91903
-3.93966 99.9421 -11.9733
-15.8667 127.31 -7.66618
-17.4288 118.005 4.11395
-15.1044 107.378 7.94133
-17.7886 129.876 -5.28836
-19.3946 123.491 4.17183
-2.7971 96.1657 -10.9794
-25.0773 136.774 6.02084
-4.95988 104.524 -13.077
-0.163688 78.1385 -1.1868
-12.9853 121.733 -8.97273
-12.8771 102.716 7.41127
-22.5375 131.584 5.03459
-13.3893 104.08 7.52459
-17.4328 118.245 4.73008
-6.13262 107.883 -12.7525
-24.7816 137.214 5.58837
-19.8187 124.512 5.03113
-18.849 132.039 -3.65101
-21.938 137.145 -0.785506
-7.13621 90.8134 4.84958
1.31169 75.3311 -1.4198
-23.0102 137.886 1.39659
-15.5625 110.692 7.58356
-9.8448 116.251 -10.6294
-4.0079 103.041 -12.8118
-18.1149 131.774 -4.63979
-11.7205 119.761 -9.14606
-21.9385 130.168 5.78644
-22.18 131.558 5.16722
-24.6489 137.201 6.05807
-18.194 130.845 -3.46898
-17.1483 130.993 -5.95307
-16.3475 115.169 5.96107
-5.4576 107.316 -12.7501
-8.20321 93.9287 5.31485
-2.54812 82.1731 2.28663
-15.873 114.328 5.6781
-13.8245 124.795 -8.20774
-19.8801 134.976 -2.84705
-12.0325 102.098 7.32254
-3.69952 102.906 -12.8221
-0.202712 78.8822 -0.16016
-22.1708 138.078 0.0550421
-2.06602 96.6626 -11.089
2.1272 79.04 -5.6158
2.80573 76.4926 -4.94817
-13.3877 124.209 -8.25921
-17.4705 119.559 5.37403
-6.94963 111.124 -11.9509
-23.3592 134.778 6.14078
1.89949 80.7004 -6.11549
-17.9511 131.313 -3.51967
-18.0826 131.799 -3.62138
-14.7327 128.199 -8.29286
-13.5943 125.062 -8.00543
-11.6805 102.243 7.32179
-24.167 137.772 5.81021
1.36474 77.3579 -1.53609
-6.63466 110.937 -11.9309
-11.393 120.274 -8.86608
-9.80163 117.485 -10.0519
-2.50414 100.225 -12.1159
-22.3918 133.644 5.51125
-14.466 128.284 -8.29835
-16.2714 115.916 6.70594
-11.7698 121.652 -8.74491
-18.084 123.616 4.38
-3.34063 104.107 -13.1499
-22.8147 138.685 2.49488
-19.4731 126.785 4.99576
-17.0145 132.081 -5.28569
-3.82787 106.114 -13.4219
-12.9493 106.032 8.04643
-5.08974 88.2465 5.07083
-18.0334 133.812 -3.97448
-9.6886 98.7533 6.9178
-17.9037 124.111 4.17527
0.762006 78.7379 -0.187279
-0.648491 94.976 -10.8832
-1.84312 98.9582 -11.5402
0.187282 90.5639 -8.90577
-18.2045 134.231 -3.68153
1.33594 85.4743 -7.12671
1.98146 82.8195 -6.33014
-17.2623 119.824 6.66229
2.47702 75.8876 -1.42631
-13.5446 107.798 8.49399
0.456635 89.6171 -8.51669
2.39676 81.5065 -6.0142
-18.0019 134.064 -3.82436
-1.30416 81.7927 2.42915
-13.8082 108.475 8.62016
-23.5409 137.371 6.49225
-17.7847 133.751 -3.84444
-10.6515 101.885 7.18657
-12.9847 125.395 -7.72396
3.93191 76.7226 -5.02034
2.93709 75.2817 -1.37814
-12.6379 124.808 -7.81676
-14.5219 129.096 -7.11257
-10.8914 102.718 7.35428
-6.82778 113.247 -11.2863
-16.2843 116.458 8.09701
2.05024 83.9326 -6.62867
-11.9718 123.539 -8.12714
-1.48794 99.9129 -12.1389
-14.8045 111.431 9.12119
-16.4221 117.26 7.90285
-14.1652 129.17 -7.58054
-14.216 110.316 8.95734
-16.3141 117.052 8.06596
-0.884544 97.6707 -11.1932
-0.526269 81.3989 2.16697
-1.09455 82.384 2.81091
-19.7804 129.613 5.70842
-7.62982 115.501 -10.5043
-10.6981 103.209 7.47641
-17.4309 134.441 -3.70067
3.29655 75.6306 -1.17827
-5.94928 92.2764 6.05321
-23.0016 139.847 4.86238
-16.7772 133.602 -4.24623
-18.5423 128.122 4.76327
-14.6076 112.633 9.03021
2.90716 76.9238 -1.01878
0.560931 80.4221 1.48012
-20.4051 133.069 5.11368
-0.0425923 96.8578 -11.171
-17.415 135.644 -4.05358
3.62097 80.6495 -5.54398
3.33566 76.2339 -0.98913
3.82655 80.1009 -5.4232
3.24738 82.5006 -6.12036
1.03855 92.8628 -9.81149
-16.743 123.335 5.46964
-13.9351 130.456 -7.25831
-13.4968 130.842 -8.55111
-0.947594 101.824 -12.7249
-3.0048 107.949 -13.2107
-9.85925 102.876 7.33747
1.12168 93.1541 -9.90001
5.60233 75.5553 -5.04075
-22.5842 138.273 6.64402
-16.5358 123.373 5.42272
-16.7274 121.993 7.1447
-12.0325 126.118 -7.37487
-21.4676 141.134 1.73486
-16.648 122.151 6.96846
-14.7721 114.688 9.06595
2.56804 87.5626 -7.97589
3.63053 83.203 -6.42585
-15.5935 133.504 -4.95157
-4.46012 111.502 -11.8728
-21.4866 141.22 2.27415
-19.2551 138.862 -0.886581
-3.8282 110.61 -12.3954
0.607339 97.8192 -11.4631
-20.2643 134.409 5.75129
-2.59401 108.436 -13.094
4.29567 81.6394 -5.96059
-11.7142 126.644 -7.48732
-2.52387 87.3516 5.09652
-0.363518 102.149 -12.7898
2.6501 89.58 -8.86693
-16.6837 135.507 -3.4007
-5.1485 93.062 6.49872
-6.53734 116.077 -10.1774
1.74979 93.7131 -10.1778
-9.5949 103.9 7.66734
-17.1463 136.298 -2.7407
5.17231 78.8061 -5.13758
-13.8588 113.39 9.49311
-8.05746 100.948 7.0124
-21.5798 137.42 7.05592
-21.5291 137.324 7.07217
-13.7494 113.601 9.49962
-20.736 135.944 6.58834
-8.49481 120.118 -8.3319
-14.8261 117.208 9.06256
-0.828309 85.204 4.05711
-2.40613 87.8625 5.45343
-10.3296 124.471 -7.73884
-1.27653 86.0773 4.38916
-15.7017 120.561 8.35481
-20.4765 141.695 1.21764
-7.41686 99.4566 7.30456
-0.288699 84.2873 3.85466
-2.87514 89.0028 5.86238
-9.19099 122.204 -8.08049
1.58192 81.1668 2.36459
-12.7843 112.184 9.19692
-13.5586 132.869 -6.69966
-10.4128 125.315 -7.49826
-6.62097 117.487 -9.51501
2.62447 92.8859 -9.76994
-20.6326 142.387 1.7832
-2.05563 87.9193 5.64869
-15.6069 136.511 -4.73105
-12.1252 111.339 8.97182
-18.8889 133.486 5.60061
-1.53163 87.1378 5.25673
5.25297 82.0498 -6.21082
3.5187 78.871 0.625978
-14.5556 118.137 8.96347
-11.385 130.362 -9.07823
-20.6326 136.6 7.20057
-11.174 128.562 -7.9638
-15.353 121.784 7.7672
-10.638 108.026 8.72218
0.774682 101.985 -12.6657
-16.3221 128.172 4.68572
-19.7986 141.853 0.968812
2.6807 95.3611 -11.1194
-11.8595 111.517 9.0361
-16.2791 137.168 -2.87211
-19.3179 134.948 6.31784
-9.1257 105.246 8.22367
-16.1788 137.174 -2.93182
-15.1989 121.092 8.74997
0.878755 83.7143 3.55868
-8.1695 103.629 7.53577
7.41387 75.7514 -4.7328
5.06407 76.9804 -0.287859
-8.89893 105.116 8.16668
-12.0443 112.618 9.21265
-11.0993 131.032 -8.986
-3.79326 113.907 -11.0695
-7.7993 121.162 -7.95421
0.65039 84.734 3.97285
-7.20466 120.123 -8.31836
-6.86243 101.483 7.10353
5.44587 76.8387 -0.265395
-20.8531 139.856 6.71236
-4.22128 114.924 -10.5906
-16.1442 129.341 4.89612
-14.4603 122.306 7.08893
-12.9437 133.903 -6.51527
0.0640744 86.1535 4.52777
-6.37528 118.973 -8.79938
-10.8163 131.089 -8.83568
6.87857 79.4155 -5.36741
-12.5985 115.197 9.24411
-13.6514 117.754 9.66351
-11.237 111.857 9.17284
-9.70085 126.673 -7.22263
-14.9015 138.388 -5.17388
-18.6583 142.145 0.412787
1.19122 103.767 -12.794
-3.17325 92.9568 6.93474
-14.3839 121.166 8.81602
5.23008 78.1144 0.227192
6.73332 81.0708 -5.84076
-14.2371 123.378 6.64451
-14.2335 123.347 6.67497
3.54766 95.7763 -11.0701
-13.7468 118.719 9.56951
-19.4648 143.436 1.51578
-8.85852 106.71 8.5414
-11.4963 133.258 -8.26668
-18.3228 142.022 0.154064
-10.3553 110.384 9.11394
7.46643 78.6923 -5.10687
-14.6637 126.842 4.98034
-15.2591 139.314 -4.42336
-13.9725 119.974 9.4241
-14.6231 138.813 -5.35836
-0.37006 87.4358 5.83963
-14.4548 138.294 -5.28919
-7.95703 105.197 8.21469
-17.3216 133.084 6.15188
-19.3981 143.785 1.77893
6.32057 84.8034 -7.23641
-7.87789 105.368 8.29283
0.435837 86.5847 5.12198
-13.563 119.16 9.68246
6.5254 84.3081 -7.13647
-10.273 131.441 -8.57076
-7.04068 121.9 -7.69448
-13.9074 121.73 8.57398
-13.633 137.432 -5.65288
-8.07163 124.581 -7.48079
3.88268 81.1913 2.23224
2.71269 100.679 -11.9446
-6.44706 121.073 -8.15716
-1.83145 113.362 -12.2544
-0.878794 89.414 6.3488
-12.6972 136.338 -6.64717
-13.8695 123.1 7.6353
7.28517 82.2551 -6.47725
0.604828 107.436 -12.6634
-3.59671 116.019 -10.2024
-7.83546 124.362 -7.5038
7.36668 82.0395 -6.37612
-4.62065 118.005 -9.39473
-2.08995 114.071 -11.8364
-8.59474 126.348 -7.1819
-2.82866 93.9986 7.39146
-5.47909 101.167 7.38826
-13.4327 120.408 9.33016
-8.69395 126.636 -7.14257
-7.84335 106.235 8.57898
-13.7413 124.615 6.56504
3.3659 99.425 -11.658
2.23801 84.6564 3.96315
8.46269 78.1034 -4.89382
-0.666338 111.343 -12.3322
-4.8229 99.6063 7.63271
-3.07499 94.914 7.60939
-10.8703 134.426 -8.36366
-10.3741 133.607 -8.76784
-10.7514 134.417 -8.53136
5.70837 91.2837 -9.60019
0.527022 108.67 -12.5427
6.65544 87.1946 -8.19404
6.10437 89.7 -9.0726
-9.60073 111.096 9.23972
-13.1942 120.828 9.22424
-19.8026 142.044 6.30355
3.68124 82.6508 2.86584
-1.46002 114.022 -12.1414
3.17139 101.249 -11.8954
-13.5771 123.79 7.82056
-15.089 140.156 -2.78375
-11.9468 136.428 -6.8819
-2.80822 116.136 -10.6622
0.621761 87.5101 6.15897
-2.31767 93.9936 7.48927
3.44563 100.616 -11.7511
-1.23436 113.801 -12.1981
-18.247 137.577 7.09142
-15.8229 132.782 5.65699
-9.06777 110.485 9.1864
5.93392 79.3047 1.1426
2.69878 103.769 -12.4421
-7.57888 107.31 8.59298
-5.10942 120.67 -8.7515
3.14636 102.316 -12.0839
-1.66414 114.97 -11.7916
-11.2287 135.973 -7.57704
3.49518 83.6266 3.41279
9.96336 75.7796 -4.91904
-3.81554 98.2592 7.86879
6.20115 79.1026 1.02835
-0.663264 90.958 6.83497
-7.86321 126.73 -7.227
-9.16309 131.38 -8.20519
7.2744 77.2725 0.239622
5.83209 93.0426 -10.0453
-19.2674 143.903 4.6431
-2.02264 94.0624 7.56295
6.87143 88.5736 -8.50296
-0.4852 90.7714 6.84183
-5.47825 103.413 7.66997
0.460453 110.366 -12.2361
-6.80244 106.113 8.61015
-3.75765 118.771 -9.44157
-0.511333 91.2138 6.9687
5.60934 80.477 1.94373
3.3849 102.65 -12.0696
5.48795 95.9163 -11.1251
-19.1048 143.312 5.42727
-9.49528 113.153 9.13
-11.0963 117.73 8.91494
-3.20711 97.7072 7.98335
-0.619637 113.909 -12.1491
5.20158 81.3945 2.44855
-0.517148 113.644 -12.1344
-4.49692 120.637 -8.81631
-1.20264 93.217 7.34615
-16.6817 143.455 0.0160124
-12.7518 122.474 9.03939
-6.19303 105.535 8.38526
-13.4571 129.866 4.40037
-15.1312 141.336 -1.55422
-9.06578 132.9 -8.44593
-6.39096 106.07 8.59618
6.29689 79.925 1.5877
-18.8073 144.432 4.47089
7.56375 88.1304 -8.32466
-1.01297 115.31 -11.7952
-7.41728 108.845 8.86416
-17.4701 144.783 1.2487
4.10264 83.808 3.63102
-12.862 127.689 5.37957
-14.6841 141.578 -2.3157
2.7437 85.8223 5.29046
-11.0036 119.058 8.81664
-16.5373 136.868 6.39089
-3.24009 99.2108 7.91429
-18.1494 140.642 6.93144
9.39183 80.8902 -5.75412
2.98403 85.649 5.21238
8.60361 84.51 -6.92274
-17.9166 145.592 2.26261
-14.8437 142.095 -1.88175
11.0221 75.8136 -4.94825
8.51952 85.3382 -7.23242
-11.1647 137.791 -6.55051
9.88388 79.3189 -5.12419
-2.76806 118.962 -9.717
7.56204 90.6732 -9.32959
-1.48672 117.19 -11.0475
-10.6128 137.211 -7.0348
-8.48382 132.934 -8.29155
-16.7252 137.862 6.80776
-11.9528 122.643 8.84579
9.82339 80.3799 -5.49816
-10.9597 137.767 -6.58787
-14.966 134.493 5.68932
1.74139 88.276 6.79117
-4.72746 104.24 8.10873
6.56321 80.7376 2.05651
-17.0772 138.896 6.98423
-6.11319 125.708 -7.25667
7.28308 92.7508 -9.98218
-8.03456 131.96 -8.09904
-16.4068 144.706 0.472558
7.73037 91.1264 -9.46789
4.66845 101.949 -11.6635
-12.3468 127.103 6.4424
11.0207 77.2918 -5.03166
5.9666 98.2355 -11.3195
-1.99552 97.4047 8.08408
-12.1571 140.522 -5.42105
-12.8716 131.817 3.9208
-10.8178 138.415 -6.56375
7.78011 91.804 -9.68349
9.37738 84.192 -6.81734
-16.3988 138.251 6.69216
-5.78582 125.56 -7.16137
-17.7705 145.568 3.57216
-9.63344 117.698 8.89636
5.72134 82.8589 3.16074
-0.636969 94.6195 7.86648
-16.6875 138.991 7.0154
3.64634 106.81 -12.6465
-1.57713 97.095 8.11036
9.85645 83.3251 -6.70282
-7.04494 130.245 -7.69684
-3.6406 103.002 8.03393
3.40038 107.891 -12.705
-16.1108 145.229 0.638168
5.32093 83.7484 3.78125
-12.1173 141.082 -5.02552
0.451906 114.984 -11.8294
-11.7772 127.187 6.29456
-4.52125 123.483 -7.41755
-8.14677 114.622 8.81855
8.09379 92.271 -9.84542
1.9595 111.412 -11.968
1.47858 90.6428 7.25822
-1.85708 98.7173 8.10339
8.04256 93.428 -10.2379
-12.3667 132.762 3.62322
-15.9547 138.919 6.72226
-15.4046 144.828 0.365792
-16.5536 140.316 7.02296
-16.2345 139.545 6.97219
-1.56816 98.7098 8.10439
11.0596 80.0181 -5.21763
-2.11706 120.482 -9.40639
-11.5865 128.882 5.55527
-11.5354 130.295 4.21163
-1.23482 98.0429 8.108
-1.48926 98.7434 8.10454
11.8716 77.9217 -5.12772
10.9145 81.0459 -5.59265
-8.30091 135.646 -7.87189
-10.4537 139.847 -6.46408
-6.02919 128.95 -7.34528
-5.77957 128.355 -7.2818
6.42464 100.08 -11.316
2.36027 90.1097 6.93779
-2.5822 102.21 8.06524
-11.6638 131.801 3.71445
1.99617 112.816 -11.6816
1.71044 91.7273 7.33875
-13.5088 135.806 4.7548
-7.43936 133.19 -7.19924
1.17408 114.921 -11.4705
-11.7099 142.221 -4.94999
11.0944 81.8725 -5.96419
-8.50386 117.717 8.93982
-10.6094 124.588 8.00044
-13.8275 136.466 5.24407
-7.44285 115.223 8.72449
9.13387 91.0227 -9.11071
3.72518 109.448 -12.3489
-7.63109 115.732 8.84151
-13.9876 136.74 5.5611
8.88928 92.9182 -10.0165
10.4179 76.4886 0.689799
-8.92971 119.595 8.62084
9.47844 89.6245 -8.49497
9.91908 77.7105 0.982943
-16.7434 146.362 3.91041
-7.04078 114.626 8.73279
6.26056 84.1361 4.05089
-3.55253 124.424 -7.84134
-15.0184 139.021 6.37018
8.27601 81.1443 2.09927
-10.8588 130.212 4.40334
10.1717 77.4405 0.957018
3.96402 87.5878 6.82221
-11.3504 133.479 2.91131
6.08566 84.6071 4.50153
-10.8907 131.474 3.66684
-11.0886 132.531 3.22293
-10.0978 124.887 7.7175
-15.0418 146.342 0.730637
-4.04689 125.646 -7.06768
10.6369 86.4089 -7.36759
9.49531 91.7609 -9.32909
-11.2466 133.344 3.29535
13.2582 76.8222 -5.04407
3.66045 110.795 -12.0237
11.7736 82.1192 -5.97796
-11.4999 143.695 -4.85888
-10.2679 141.609 -5.93278
-8.90301 121.479 8.37114
-15.2575 140.601 6.7751
9.79878 91.0478 -8.93613
11.2889 84.5428 -6.55024
-2.88371 105.337 8.62193
-11.5041 135.092 3.0268
-9.81745 141.485 -6.34669
-11.38 143.952 -4.80927
-12.9737 145.799 -2.65382
13.527 77.2374 -5.19062
-13.6508 145.58 -0.788919
-15.917 143.257 6.54115
-10.7751 142.872 -5.12078
11.1145 85.8493 -6.89678
-10.486 133.079 2.78454
5.18789 86.5835 6.45181
0.213855 98.2304 8.01395
-10.9658 134.398 2.84297
-10.1215 131.994 2.9893
-4.89976 111.305 8.72427
2.04702 94.0551 7.50641
-5.20818 112.205 8.79066
3.3693 91.3953 6.75142
-5.85919 131.363 -6.24201
-15.4089 141.984 6.93216
-14.1376 140.135 5.57124
-4.32908 109.88 8.84524
7.1249 102.98 -11.8934
-8.71295 139.985 -6.718
-3.47825 126.429 -7.161
0.866719 97.5759 7.78101
-14.3406 141.062 5.73287
-9.79992 131.932 3.03859
-12.4609 138.96 3.28251
11.1662 88.4071 -8.19075
13.4587 79.1973 -5.55513
11.5269 77.0382 0.927793
-10.2431 133.562 2.89515
-7.27104 136.976 -7.02597
14.1894 76.9381 -5.1826
-9.94478 130.265 5.12113
-0.00568255 121.034 -10.02
11.5539 86.372 -7.00242
-15.1562 142.795 6.65234
-8.67633 140.667 -6.69094
-7.20173 137.018 -6.94671
-6.20056 116.107 8.87531
-11.9435 138.391 3.00576
11.4122 77.5233 1.11588
-8.09412 139.542 -6.92765
7.55214 103.127 -11.9901
13.0952 80.7723 -5.41292
-7.84587 121.563 8.27892
0.208131 100.021 8.13449
-10.1194 143.542 -5.39597
-2.79679 107.333 8.87732
-14.0886 141.534 5.67491
4.28264 111.362 -11.07
-3.79847 110.519 8.63471
3.04792 114.141 -10.4684
-13.5493 141.3 4.97516
8.80718 99.781 -11.3785
-1.73315 105.481 8.39771
-11.773 146.814 -3.80561
-6.68044 136.369 -6.6591
-9.58007 130.827 4.96139
9.05491 99.3609 -11.3083
-11.7624 146.899 -3.76919
3.51665 93.2762 7.14561
-7.28769 138.675 -6.9433
-2.91774 127.28 -7.23663
-14.3908 148.001 1.78024
9.56124 98.3477 -11.2295
5.29122 109.989 -11.2572
5.86332 108.816 -11.5764
6.19315 108.128 -11.7131
-14.1292 147.857 1.45699
13.9056 80.2911 -5.51275
-7.10831 138.762 -6.79688
1.82124 98.1602 7.5742
-14.3996 148.301 2.06828
-9.05904 143.286 -6.06782
-6.61611 137.082 -6.36053
-6.98097 138.408 -6.6371
-9.62494 144.177 -5.44767
-11.6494 140.24 2.73598
-2.9192 127.86 -6.96996
10.4903 95.9645 -10.6387
-8.67602 132.364 2.70253
15.0994 77.5468 -5.41851
-7.94685 124.487 7.90047
10.7469 94.6251 -9.96449
-10.5805 137.907 2.4613
5.50469 110.061 -11.0477
-0.651354 104.523 8.21403
-11.8153 147.845 -3.22659
-0.76499 123.991 -8.32439
12.1115 89.1976 -8.28571
-7.15751 122.159 8.31553
-1.7022 126.096 -7.89011
15.4765 76.6478 -5.22716
-0.354297 103.925 8.23975
-3.71671 112.647 8.57042
5.64829 89.8594 6.43476
10.8704 94.6563 -9.93231
10.6288 80.8656 2.63343
-0.282573 103.933 8.22562
9.53172 100.392 -11.6151
-1.66129 107.288 8.77597
-3.32514 112.165 8.46033
3.01729 96.4948 7.39983
-8.0039 126.603 7.10173
15.3893 77.7886 -5.31232
2.9725 116.337 -9.50455
3.45773 115.094 -9.55493
8.23358 105.126 -12.0754
2.53212 97.9271 7.55936
7.84021 85.9432 5.59435
12.2764 78.7418 1.48786
-1.30594 126.11 -7.72916
-10.7906 147.811 -4.30206
-7.17776 140.794 -6.63945
-8.31124 131.211 4.36232
3.85399 95.1316 7.23837
1.88306 99.9662 7.71402
11.5099 93.8163 -9.50147
15.3315 78.7761 -5.37527
-0.721975 106.34 8.44572
12.1761 79.4324 1.87808
3.32583 116.219 -9.29018
12.8584 89.1696 -8.10875
5.59329 111.189 -10.1907
0.241683 123.559 -8.36929
-8.59837 144.625 -5.84655
-8.79741 135.418 2.68987
0.421869 104.384 8.03576
-0.496483 106.583 8.48035
3.49635 97.0058 7.44607
-1.02147 107.78 8.6991
-8.43603 144.744 -5.91421
15.6775 79.1545 -5.41599
-7.85598 131.675 4.18627
12.3044 79.6841 2.08543
-1.58752 128.074 -7.33395
-12.5521 144.028 4.60114
-12.773 144.421 4.77866
-6.96547 125.109 7.93689
-7.91912 134.257 2.25982
-4.11539 116.452 8.80953
0.906285 103.894 8.02887
6.98613 109.015 -10.5922
-12.1316 143.914 3.94149
-7.43451 133.339 2.12085
4.62448 114.235 -9.49718
15.2646 81.1215 -5.65319
-3.94438 116.351 8.79194
7.94631 107.321 -11.1152
7.94351 107.352 -11.1045
-13.6544 147.969 4.28968
-4.49781 134.246 -5.25978
9.67832 103.892 -12.1038
14.5104 76.0467 0.790199
13.5023 88.0108 -7.15631
-6.15844 123.178 8.40463
-13.582 148.203 4.08893
-6.92729 126.867 7.01493
7.23366 88.6594 6.99758
-8.12848 135.128 2.7039
-8.90945 146.664 -5.47288
-9.12045 138.493 2.122
9.871 84.1948 4.74811
-11.7052 143.92 3.49934
16.0403 79.302 -5.35593
-12.6033 149.816 0.837899
6.17616 111.51 -9.91282
6.10799 111.686 -9.88976
1.49516 122.959 -8.78706
4.55978 96.2646 7.20599
-7.06631 133.339 2.37942
-5.84039 123.113 8.43429
-4.38834 119.168 8.49828
-6.90278 133.93 1.58337
-6.4387 126.843 6.69746
-0.131105 107.723 8.51839
9.89527 104.344 -12.0288
6.70357 92.0693 6.13042
7.63889 109.028 -10.7257
-10.0603 141.917 2.24022
-9.71999 148.693 -4.40274
3.55836 117.712 -8.61143
-9.94063 149.025 -4.06216
5.22891 95.7389 6.75245
-12.686 147.188 4.24139
5.71 113.513 -9.4887
2.5613 121.248 -8.81238
2.61897 101.962 7.93342
4.76405 96.9528 7.26933
-9.46815 141.148 2.29689
11.562 100.282 -11.4873
4.95792 115.306 -9.01376
-9.93744 142.764 2.11784
-11.3548 145.165 3.35836
12.6639 95.1289 -9.47404
-4.31369 120.527 8.32224
10.7117 102.93 -11.6106
7.71552 89.8335 6.89838
14.6486 86.3564 -6.30736
9.66605 106.147 -11.7895
-6.67152 132.188 3.95662
-6.04596 141.927 -5.96222
5.99949 95.271 6.32934
13.2256 80.1294 2.559
-4.3881 136.904 -5.37911
2.15376 103.983 7.89086
-5.52746 127.301 5.71037
-7.30314 135.995 2.32901
17.2221 77.9432 -4.74772
8.11281 109.617 -10.8564
0.805198 125.549 -7.51393
3.21606 120.576 -8.666
-6.05263 142.394 -5.87139
7.7894 90.8933 6.4048
16.404 81.8229 -5.81795
-7.28314 136.807 2.11276
14.3678 90.1511 -8.10605
6.96405 93.8481 6.05998
2.66919 122.005 -8.31635
1.12329 125.427 -7.5555
-10.9397 145.83 3.05142
-3.04714 118.287 8.49072
7.33514 111.886 -10.279
-4.2221 121.762 8.25362
-7.09822 136.487 2.21562
-7.97863 138.968 2.14227
-0.871634 129.992 -6.69018
10.6466 104.509 -11.4929
13.3774 80.5568 2.9131
6.09011 114.436 -9.30084
18.0219 77.2393 -4.81986
12.7552 81.8109 3.62028
15.2512 86.6416 -6.40014
12.5292 98.9083 -10.65
-7.68063 138.888 2.10722
-0.652828 130.116 -6.55477
-5.81025 135.578 0.903036
13.7254 94.3119 -9.05845
1.11254 108.512 8.19718
-3.76542 136.884 -4.99724
-4.72799 126.244 6.5089
-5.42065 142.035 -5.53306
4.40269 118.917 -8.41183
-2.05099 116.999 8.414
-4.13058 124.416 6.88707
3.28293 103.525 7.76057
-4.52347 126.201 6.42066
8.15864 92.2978 6.13257
-0.923166 114.413 8.23221
2.35986 105.893 7.9871
8.23086 92.1619 6.16118
11.6196 84.2056 5.14928
-9.20517 150.293 -3.40219
-4.28604 139.053 -5.09549
7.33272 94.909 6.07582
1.61856 108.116 8.02185
-9.62922 145.526 1.97912
3.28045 121.975 -7.82403
-2.10989 133.418 -4.97371
18.5991 77.4834 -4.88941
-5.15237 135.886 0.308104
-3.00631 135.606 -4.44254
-5.70026 136.316 1.30375
-9.05953 150.579 -3.1719
2.76404 123.836 -7.60506
-0.766553 115.343 8.2169
-2.79591 121.328 7.84311
-1.37524 132.756 -5.33233
1.44986 126.845 -6.79582
8.28109 93.8872 5.90065
12.2628 102.797 -11.005
6.73977 97.5338 6.54753
2.89544 106.86 7.50849
15.2183 92.0238 -8.37555
-8.13409 143.228 1.95951
4.48161 103.361 7.04555
0.663287 128.881 -6.13383
-8.1092 150.168 -4.04481
11.6742 104.511 -10.7788
8.31599 94.4972 5.89321
-2.83845 124.316 6.19257
2.87593 107.53 7.42147
-7.80733 149.808 -4.23132
7.28803 97.2176 6.2434
4.1895 104.802 6.93154
1.37497 111.65 7.58938
-1.30723 133.451 -4.86366
5.01401 103.037 6.72513
15.679 91.44 -8.20704
-7.85404 143.259 1.97921
6.78573 98.4859 6.65302
-0.59162 116.721 8.15535
15.5264 79.7733 2.4855
-1.4902 119.33 8.0337
6.43915 117.791 -9.20671
-8.90615 151.436 -2.35026
18.0685 82.6456 -5.8165
-5.26734 144.7 -4.87489
-3.35837 139.194 -4.51183
-9.48173 148.252 2.05821
8.32129 114.34 -10.1916
-4.67045 137.146 0.473892
0.0371081 115.902 7.88675
15.4132 93.3019 -8.52789
4.27523 106.081 6.54733
0.348623 115.388 7.68957
6.80845 99.1095 6.69272
-4.0859 131.184 4.41922
-8.39171 145.935 1.75706
9.11527 93.9576 5.91897
-9.15993 147.937 1.93098
2.95814 109.369 7.07538
5.3789 103.522 6.4991
-3.99733 136.219 0.19675
18.5108 80.862 -4.49437
11.6205 106.305 -10.4318
-6.2928 148.301 -4.78795
-9.22773 148.461 1.96383
8.82757 95.3296 5.79358
-7.26417 143.343 1.92504
-1.39679 121.123 7.47264
11.0333 108.218 -10.4411
15.2382 95.3235 -9.07083
-3.69176 130.323 4.98759
14.0261 83.1085 4.47098
10.8274 109.157 -10.3528
-3.83301 133.72 2.73227
1.2107 115.136 7.09149
-2.31538 137.622 -4.14346
0.14817 117.288 7.76352
-4.99952 138.357 1.6909
11.7082 107.055 -10.2167
5.69743 104.667 5.95756
4.11373 108.435 6.41131
-9.41036 152.276 0.0932299
5.57876 105.106 5.91458
2.52321 127.433 -6.27761
-1.87165 125.009 6.15766
15.9338 93.972 -8.56976
-2.91673 128.66 5.57242
4.89393 122.243 -7.15606
13.6218 84.3625 5.30986
8.00029 98.6787 6.10405
10.2971 91.519 6.93861
19.5603 80.2889 -4.97968
16.8536 89.8462 -6.91706
9.4893 114.309 -10.8531
9.84929 93.7549 6.15963
-0.278589 133.574 -4.64832
8.72184 97.343 5.71556
14.0688 101.992 -10.8235
5.68869 105.59 5.69996
-8.44994 152.23 -1.57963
1.97797 128.862 -5.72221
20.2907 78.8309 -5.20027
14.6086 83.077 4.45657
1.82669 115.064 6.7112
3.79013 110.112 6.45137
0.0933259 133.162 -4.87629
15.2693 82.23 3.84785
-4.54753 138.536 1.44388
-7.09922 145.281 1.5955
7.60011 100.542 6.15468
-4.84697 139.295 1.76385
0.285208 118.967 7.40287
14.0471 84.3061 5.26797
4.72668 123.509 -6.81646
-1.4058 137.018 -4.08584
1.34468 117.103 6.88229
-7.85929 152.197 -1.98822
-0.605008 135.372 -4.34816
18.7491 83.8819 -4.97812
0.953182 117.972 7.15546
20.7891 78.345 -4.9211
1.50003 117.019 6.7708
13.8471 84.9475 5.73942
4.95117 108.96 5.7559
-7.76663 152.241 -1.98933
15.2458 82.9279 4.29139
-2.81845 132.929 3.26499
10.5482 93.0971 6.51712
-2.75678 132.345 3.72152
-3.01829 138.62 -0.956786
5.06169 109.298 5.58568
5.15292 109.097 5.54659
5.41383 108.598 5.41851
7.61101 119.137 -8.85876
-4.9998 141.033 1.7106
19.9655 81.3592 -4.98424
20.7209 79.7593 -5.30304
13.2396 105.896 -10.3563
0.496846 133.601 -4.52953
11.1622 91.0005 7.50462
1.62556 131.553 -5.21919
1.32141 118.627 6.77621
6.06035 107.923 4.98272
13.0748 86.9567 6.8666
19.0444 84.4313 -4.78828
14.138 104.24 -10.48
9.00201 99.5476 5.66294
12.921 87.4329 7.05713
-2.81712 142.669 -3.94498
-4.78258 148.031 -3.95624
-2.35912 133.793 2.74613
6.92702 120.338 -7.33553
11.5866 111.445 -10.4084
7.03229 106.3 4.76242
10.6068 95.6357 5.69367
6.22785 121.952 -6.88691
-4.10386 141.672 0.240138
3.37308 115.255 5.67913
14.273 85.4061 6.0631
16.058 97.8479 -8.89775
16.6519 96.0649 -8.63154
-0.821282 126.401 6.00753
0.653937 121.385 6.93922
-3.77389 145.822 -3.86358
-6.71181 152.296 -2.5776
4.60318 112.609 5.39671
-8.08067 152.616 0.491626
-3.91697 140.774 1.03041
2.4653 117.815 6.06228
3.42639 128.528 -5.4716
2.69323 117.441 5.90167
-3.96265 146.712 -3.77712
16.7622 96.3133 -8.59687
7.67703 105.645 4.68707
9.83787 99.026 5.37129
7.80943 105.469 4.67965
-0.931902 138.992 -3.85341
4.32264 127.113 -5.82413
2.90145 130.257 -5.19025
-4.02223 141.473 1.31253
18.1167 91.9701 -7.58912
-5.5765 151.045 -3.3001
-1.74588 136.612 0.359115
8.25958 104.635 4.70402
0.687757 123.33 6.23969
-0.223741 137.536 -3.93334
20.1476 83.3074 -4.55451
2.61627 131.256 -5.07085
-1.6445 132.475 3.87541
11.1092 114.809 -10.6151
11.9942 91.7083 7.41229
6.98928 108.775 4.38972
14.7038 105.071 -10.4485
1.84239 121.351 5.66386
1.08352 134.69 -4.13354
3.59485 117.093 5.28546
6.96114 109.136 4.34015
8.84082 119.593 -9.14255
-1.20705 129.801 5.56939
8.45592 104.806 4.62012
15.7251 101.926 -9.80223
2.85753 119.5 5.13412
-1.38578 136.517 0.533415
12.4608 112.072 -10.7009
5.98454 112.446 4.19488
13.4783 108.453 -9.846
18.9003 90.4097 -6.86644
1.29685 123.727 5.48063
18.4669 80.282 2.96231
9.92846 100.645 5.31038
6.40698 111.592 4.09327
-1.21115 133.369 3.06987
4.71626 127.451 -5.68145
-2.6707 145.005 -3.5834
14.143 107.168 -10.1462
19.0515 89.7475 -6.52227
19.3992 88.5201 -6.03595
9.72285 101.578 5.31147
-1.02491 134.876 1.60502
9.16814 103.805 4.73293
-2.64538 142.448 -1.07422
0.629672 125.644 5.9341
1.00854 125.144 5.62789
-0.139349 127.992 5.86292
4.42857 117.311 4.49407
0.80546 125.629 5.79433
-2.25075 141.496 -0.804224
8.49109 106.671 4.29116
-1.55402 140.219 -1.26325
3.61082 131.015 -5.36541
-0.528153 129.54 5.62547
15.6407 104.493 -10.4823
9.36753 104.202 4.51873
18.5604 93.3015 -7.48961
-0.518952 140.67 -3.88892
-2.26128 142.522 -1.39592
-7.35532 154.333 0.305955
1.92831 134.99 -4.37594
19.2606 79.9916 2.7814
5.01735 128.001 -5.51175
7.66308 122.328 -6.76893
-1.15199 139.645 -1.09976
-7.16106 154.142 0.44344
8.98611 106.067 4.33972
6.01464 126.031 -5.83315
10.3722 118.089 -9.13522
11.581 97.8727 5.61606
22.002 82.417 -5.35416
3.83991 131.667 -5.48967
13.2754 112.327 -10.7119
4.16861 130.937 -5.49269
-2.9912 147.906 -3.39167
3.9421 131.67 -5.51975
2.89853 123.111 4.43034
-5.17463 152.894 -2.49904
2.50101 134.887 -4.72846
9.6184 120.57 -8.92383
-3.2141 148.86 -3.26092
-2.71432 147.716 -3.35904
15.2539 87.4789 6.89731
12.4449 114.577 -10.0446
3.37417 133.675 -5.35256
10.43 118.813 -8.95137
20.8436 85.9053 -4.64994
16.6103 103.769 -10.1796
14.544 108.853 -9.71272
12.1337 97.3798 5.99256
14.1876 110.291 -10.0227
-4.93083 153.182 -2.33336
21.3889 84.8385 -4.69401
-2.91097 148.822 -3.23119
11.082 101.879 4.72311
-4.55105 152.566 -2.50299
16.2518 105.611 -10.3248
-0.420383 140.213 -1.26468
11.0251 102.671 4.5964
17.7265 84.5194 4.68891
3.9158 122.701 3.93499
5.1171 120.042 3.44402
-0.299273 143.021 -3.75316
19.0323 95.8814 -8.08026
9.34823 107.997 4.15077
16.1021 87.1652 6.41054
6.51022 127.081 -5.65598
2.12172 126.848 4.83651
0.612727 130.533 5.19549
5.59725 129.549 -5.6336
-0.083377 138.622 -0.123433
0.694269 130.484 5.18149
2.97674 125.178 4.43838
1.7444 127.663 5.17855
14.171 90.4608 8.39787
5.78677 129.475 -5.67697
17.5217 102.195 -9.46853
13.6247 114.021 -10.5927
9.91511 121.432 -8.28788
6.3436 117.623 3.4186
21.7852 85.5166 -4.88084
9.66571 107.898 4.18411
19.336 96.199 -8.04502
11.4245 102.972 4.65031
19.1693 96.9733 -8.26443
8.48583 124.652 -7.2503
0.174028 143.406 -3.78245
3.10111 126.205 4.30341
21.8946 79.0059 1.22906
11.6907 102.482 4.80439
-0.903782 146.063 -3.4412
22.5681 84.8523 -5.28662
9.11698 124.808 -8.38805
16.3842 107.166 -10.098
1.26762 141.2 -4.19403
24.3279 79.1515 -4.36211
5.74311 131.631 -6.19963
7.50509 126.736 -6.0543
2.23205 139.45 -4.70972
-3.57172 152.525 -2.43297
14.8216 90.5563 8.34884
19.0374 98.6127 -8.51976
20.6181 91.4623 -6.00663
9.664 109.897 3.86586
20.7558 89.3772 -4.29119
13.6451 94.7662 7.71853
6.18113 120.336 3.13542
16.8372 106.795 -10.034
1.52368 141.518 -4.25556
11.7226 119.198 -8.77531
3.23309 138.2 -5.36841
22.1805 87.0279 -5.31527
10.2964 108.22 4.14629
7.27667 117.403 3.28933
-0.75796 146.886 -3.38867
6.50022 130.521 -6.1652
24.493 80.7426 -5.10743
3.02048 138.827 -5.1952
1.9043 130.37 4.84948
20.3357 93.9457 -6.65447
1.52756 131.583 4.82902
0.546726 144.281 -3.78802
0.483446 142.105 -1.68274
18.6236 101.913 -9.16367
0.397864 142.976 -2.00711
-1.41054 149.115 -3.02713
10.8359 122.893 -8.95211
12.9938 100.285 5.63497
12.0951 119.376 -8.72381
5.78738 122.845 3.05875
0.181585 145.868 -3.68063
22.2722 79.6686 2.00951
9.51583 112.481 3.60031
15.5583 112.492 -10.4824
21.2433 90.2711 -4.3888
-2.9682 153.12 -2.16836
1.50245 136.613 1.71256
20.3966 82.7153 4.24223
24.3857 82.918 -5.00427
-2.45479 152.426 -2.35257
0.90298 142.931 -1.97039
23.6826 78.8215 0.389821
-1.50785 150.527 -2.79274
17.6392 88.1904 6.525
11.4361 107.44 4.35764
-1.1506 149.898 -2.97818
2.03444 135.278 2.29598
10.1813 126.71 -9.29208
1.56342 143.944 -4.0395
19.1655 102.624 -9.33528
1.23413 141.911 -1.39907
21.2642 91.3374 -4.39441
23.5962 85.3034 -4.59802
22.2976 89.1886 -4.85245
12.8572 119.305 -8.79021
7.97683 130.802 -7.31165
5.01082 126.381 3.52577
10.9917 126.026 -10.1703
25.2069 81.9494 -5.1336
8.3857 129.963 -7.37224
8.86296 128.651 -7.3048
19.731 84.9118 5.20452
20.7545 95.7919 -6.59605
19.0875 86.1622 5.70772
9.08899 116.037 3.29274
20.8862 82.9503 4.479
13.3667 119.882 -9.75777
14.4605 117.718 -10.3901
13.1532 121.288 -10.4013
7.5413 132.847 -7.14574
20.1914 84.613 5.11237
13.6829 120.069 -10.3615
12.1235 124.971 -10.8669
11.2795 110.403 3.82956
14.5847 118.538 -10.941
3.73621 131.118 3.71397
13.5605 121.314 -10.7765
20.5047 99.4713 -8.05246
18.7313 106.045 -9.56305
1.46516 143.549 -1.62755
5.91057 137.505 -6.80014
22.332 81.6088 3.30789
18.3947 88.5658 6.50555
14.9542 117.862 -10.7739
22.2875 81.7741 3.39269
3.73465 131.458 3.77833
22.0493 91.4005 -4.3465
2.95142 134.792 2.80334
14.6971 118.51 -10.5532
12.8373 123.274 -10.2994
15.0897 117.871 -10.8683
4.61042 140.383 -5.82649
-0.616926 151.136 -2.87336
12.6221 124.384 -10.6483
16.018 114.426 -9.9531
5.14272 128.382 3.44687
6.37186 125.824 2.83752
8.83156 131.195 -7.56979
15.875 115.133 -9.97725
-0.801526 151.818 -2.71415
6.54241 125.74 2.73755
11.3975 127.672 -10.3124
2.40548 145.287 -4.33031
3.36385 132.891 4.23213
14.3144 101.567 6.00167
1.69284 147.185 -3.99865
4.45915 141.75 -5.56198
13.0379 124.508 -10.7015
24.0804 86.568 -3.64034
18.4228 108.784 -9.6607
13.2622 106.169 4.74102
2.0155 146.853 -4.16628
11.5707 112.042 3.66825
6.25063 138.783 -7.03319
20.8386 100.753 -8.17508
4.65673 130.944 3.5969
10.9629 128.915 -9.34454
11.9244 127.968 -10.7263
16.0818 116.231 -10.1466
14.5241 101.715 6.1142
2.18821 146.913 -4.20042
15.4602 96.1593 8.78957
15.0419 119.303 -10.1112
6.38321 139.303 -7.16276
2.11073 143.931 -0.990863
11.7945 112.465 3.65038
24.4641 86.4144 -3.36845
3.08871 139.505 0.647608
10.5559 116.368 3.24038
26.05 83.7282 -4.65357
16.6168 115.306 -9.90445
24.5408 86.3425 -3.32071
10.9521 115.411 3.32275
12.368 111.055 3.86555
21.8896 95.2244 -4.70619
23.0879 82.7881 3.29338
24.2032 80.821 2.39674
7.91611 136.169 -7.47609
16.222 117.394 -10.5722
6.66902 127.939 2.80151
12.1249 128.711 -10.6541
16.5074 116.387 -10.2197
23.492 82.3629 2.98298
10.7436 130.947 -9.26103
21.0389 85.9196 5.94483
22.13 94.9398 -4.40543
15.6183 118.047 -9.17583
4.33386 144.017 -5.23898
16.4209 117.354 -10.3877
6.53509 128.828 2.89167
19.4633 89.42 6.90538
7.03455 139.968 -7.83826
4.20788 134.486 3.55221
6.15329 141.075 -6.59943
11.3723 130.759 -9.83979
13.4052 108.92 4.4343
10.1758 119.583 2.81204
2.93299 142.939 -0.482595
12.0834 129.834 -10.4574
13.1957 127.853 -11.3206
27.4326 81.4186 -4.30834
16.4299 95.9068 8.95515
22.7715 93.3592 -3.58499
7.29192 140.298 -8.03363
9.4864 134.283 -7.95146
14.0487 125.58 -11.083
3.66867 140.461 0.336773
7.01281 128.954 2.50232
15.749 118.13 -8.51077
-0.380985 154.251 -2.05507
19.3316 90.2189 7.42821
15.635 118.183 -8.11732
22.9814 93.1967 -3.63752
20.1148 106.012 -7.96407
25.2981 86.1699 -2.87704
27.3073 82.7959 -4.5985
17.0221 95.0377 8.96365
4.97831 144.153 -5.41549
2.68987 148.665 -3.95099
6.53645 141.596 -6.81928
4.83508 134.503 3.36723
11.1344 117.976 2.99309
24.1009 91.3549 -4.26846
12.7711 112.701 3.77586
7.74618 128.397 1.92846
6.31926 142.07 -6.54805
7.12588 141.15 -7.5767
25.6565 80.5622 1.61728
4.21447 137.977 2.0436
13.4403 110.554 4.24522
12.7069 130.348 -11.0716
3.14361 143.941 -0.420275
25.0886 88.2851 -3.5278
6.75774 130.417 2.91149
8.63996 126.356 2.03202
10.1841 134.473 -8.51972
9.05323 136.972 -7.97771
6.2371 132.025 3.01219
26.653 84.9952 -4.01057
5.63684 143.809 -5.79871
3.8085 147.289 -4.52122
5.13091 144.964 -5.40195
18.4792 93.0645 8.3921
14.5667 125.383 -10.4607
18.3346 113.933 -9.327
10.5696 134.283 -8.76546
9.05757 125.998 2.00557
13.4502 129.385 -11.2252
21.9865 101.409 -6.93966
18.1172 114.468 -9.16623
8.08603 140.682 -8.33892
12.4648 131.739 -10.8105
3.51827 148.338 -4.24105
1.25627 152.95 -2.89256
12.1659 116.523 3.1679
13.8801 128.494 -11.1996
16.6028 98.0163 8.925
17.8156 116.216 -9.71634
4.79604 137.546 2.41283
7.05943 130.997 2.81124
3.78829 148.09 -4.3589
4.45574 146.918 -4.79466
15.8461 120.92 -8.90527
15.992 118.59 -7.20983
27.8414 83.4293 -4.37607
19.7709 109.408 -8.01141
6.7341 133.201 1.97354
17.7761 95.5593 8.79155
15.5247 105.106 5.79096
13.8653 111.506 4.25291
6.09195 134.84 2.33568
15.7119 122.931 -9.87345
27.108 79.6553 1.00956
5.68349 135.61 2.6865
12.5377 116.533 3.24729
20.708 105.386 -6.22117
25.7338 88.4768 -3.32018
24.1941 84.1882 4.04678
5.20712 136.915 2.78018
11.1474 120.879 2.78852
23.8469 84.3218 4.80489
5.14486 146.355 -5.16211
4.52626 147.543 -4.74181
22.9974 85.6168 5.77041
16.825 117.368 -7.30865
25.6466 82.2891 2.47868
12.3571 117.375 3.18411
16.0146 119.244 -6.87938
14.2818 128.685 -10.9904
19.7503 109.939 -7.49472
13.6605 130.531 -10.9967
4.5755 147.921 -4.71267
24.7522 92.5816 -3.89899
26.1385 82.0296 2.07881
19.17 112.108 -7.69799
4.58416 148.084 -4.69468
17.5931 116.423 -7.69595
25.5465 90.3115 -3.66948
3.69408 149.708 -3.94293
27.9499 84.4307 -4.10809
17.2822 98.0805 9.12005
13.6444 113.911 3.91643
9.8193 126.589 1.92037
6.4067 135.533 2.16884
19.4494 111.393 -7.43489
18.1003 116.547 -8.6569
16.2334 120.83 -7.82661
13.1952 115.99 3.54618
8.55722 130.892 1.48857
21.8081 103.232 -5.55232
16.2289 120.192 -7.19035
19.3849 93.6412 8.47572
20.82 106.723 -6.2005
25.6079 90.892 -3.66666
25.1577 92.3968 -3.87281
23.4661 98.4941 -5.16954
12.283 119.171 3.09718
6.1163 136.747 2.30763
14.6532 128.837 -10.8036
25.8444 83.5467 2.30294
15.2752 124.173 -8.14636
15.3732 122.76 -7.13938
14.8207 110.638 4.80131
21.1271 90.9904 7.32612
22.5672 102.284 -5.65898
14.4163 130.303 -10.8276
21.4037 105.141 -5.29053
25.3349 92.7784 -3.74694
17.2087 100.175 8.90926
29.0734 82.9954 -3.97176
11.8282 121.863 2.72324
23.3927 86.5902 6.2613
5.3726 140.813 1.43433
21.1852 105.98 -5.34191
7.96813 144.221 -7.42942
15.536 109.065 5.40157
21.162 106.356 -5.42911
7.01282 136.544 1.64693
21.2153 106.318 -5.32356
10.8245 139.295 -9.57939
17.2577 100.64 8.94407
11.9389 136.933 -9.99984
20.3647 109.278 -5.72514
25.3711 93.432 -3.65512
5.7464 140.956 1.11518
12.3294 136.213 -10.1353
15.9407 122.776 -6.89375
26.3072 90.7173 -3.28924
15.2601 126.198 -8.02601
4.77527 149.994 -4.06122
6.36992 147.524 -5.6547
9.59264 130.617 1.4818
18.035 99.0382 9.21262
4.22044 151.158 -3.63824
17.3846 117.923 -5.60566
6.00138 141.148 0.918086
12.9661 119.698 3.24706
17.5589 117.302 -5.40699
9.6544 142.428 -8.63897
24.2911 96.7589 -3.24062
28.0347 86.4827 -3.09013
14.2289 115.598 4.00074
15.6037 125.853 -7.92251
18.7344 97.9206 9.03387
28.2425 86.4822 -3.31284
27.086 87.3066 -1.3131
28.849 85.3044 -3.69074
16.2806 123.24 -7.09107
16.3368 108.076 5.95831
5.33724 149.777 -4.40282
5.39858 144.017 0.484461
7.39032 146.743 -6.46884
25.689 93.9054 -3.45352
21.9877 105.112 -4.4375
24.3688 98.6663 -4.27776
20.0924 95.525 8.4794
4.55103 151.428 -3.61101
25.3578 95.02 -3.32789
20.7962 109.437 -5.09129
14.8089 114.508 4.56305
23.073 89.2019 7.22235
24.4923 86.6935 6.09944
13.0139 121.15 3.18092
8.64267 134.549 1.8406
20.6943 110.99 -5.93565
16.8068 120.957 -5.42609
9.48253 132.794 1.49138
4.94355 151.1 -3.74106
19.4236 121.97 -12.3802
10.7691 141.561 -9.08195
17.3179 118.708 -4.53706
12.2976 138.919 -10.2596
19.0154 115.424 -5.56431
7.64831 147.209 -6.45883
17.187 106.492 6.73996
5.85364 150.037 -4.49377
17.4939 104.661 7.69178
16.2145 126.937 -8.52909
30.0684 83.7389 -3.32733
24.1502 101.386 -4.692
18.2253 122.961 -9.53347
25.4515 86.2022 5.47009
9.36861 145.148 -7.95031
28.1544 87.6129 -1.97062
14.8205 133.012 -10.0945
5.45213 151.125 -3.83322
27.4835 90.0734 -2.46514
9.93615 133.009 1.48296
26.6861 85.4097 3.75596
15.1638 115.379 4.81941
3.39336 154.708 -1.60714
17.9102 103.919 8.48683
30.2313 83.948 -3.04573
21.1855 95.2287 8.41696
18.9712 115.88 -4.27902
17.0098 108.396 6.85202
11.1072 130.398 1.60525
16.6139 126.879 -8.24415
17.8579 119.906 -4.97034
23.2638 104.204 -3.91524
18.8874 101.035 9.13164
27.5765 90.9753 -2.48278
17.8412 124.529 -8.74779
15.7089 114.068 5.35551
19.3116 121.975 -9.90554
16.4721 128.367 -8.78174
29.05 87.4469 -2.72313
19.5458 124.375 -12.4057
15.8301 113.908 5.45392
18.1748 124.428 -9.17629
18.6571 116.609 -3.44587
17.8688 106.518 7.22836
15.3854 132.375 -9.3754
18.2617 123.989 -8.82407
20.9305 113.57 -5.94465
7.15282 149.805 -5.09335
17.9793 124.93 -8.80629
18.4453 103.271 8.95326
17.1946 125.348 -7.27621
17.3352 108.171 7.31677
18.408 123.785 -8.74149
16.0868 113.138 5.98604
11.5666 130.256 1.78073
16.3329 129.358 -8.57685
14.6262 136.086 -10.4123
15.6462 128.625 -6.23537
17.8593 122.451 -6.02443
17.3885 124.559 -6.68458
15.9532 114.299 5.62736
26.1209 96.3853 -2.58228
18.1017 121.302 -5.41364
7.4561 149.88 -5.19147
17.0477 127.394 -8.14992
24.6584 89.2335 7.14424
11.1835 132.426 1.32698
9.11652 138.379 1.01873
20.8455 122.573 -12.741
17.5925 126.906 -8.82333
18.4206 123.646 -7.92097
15.3809 129.067 -5.49669
14.5713 120.57 3.81551
27.1683 94.1789 -2.79772
28.7662 86.0186 0.570243
27.0051 94.7392 -2.82198
25.9607 87.2705 6.11798
16.8451 129.599 -9.24819
29.9348 85.7448 -1.77397
30.0494 86.6749 -2.78997
20.5013 98.7138 9.15953
18.309 106.511 7.53486
29.0709 85.7465 0.389249
18.4938 126.562 -10.2204
27.4626 93.6618 -2.66272
29.6795 84.8792 -0.227858
14.2433 122.047 3.71067
15.3917 134.53 -9.80894
28.9825 86.7017 -0.111892
14.4468 137.809 -10.3529
28.176 91.1127 -1.9825
16.2334 131.246 -8.75485
9.07833 148.274 -6.6711
27.0026 95.3467 -2.62395
22.684 107.798 -3.25523
15.9922 131.614 -8.18266
14.8427 120.346 4.36493
24.1159 91.4147 7.75153
21.8461 112.219 -4.95454
22.6075 108.083 -3.08131
16.8512 111.941 7.06699
30.8487 84.9149 -2.25653
20.4756 99.9691 9.06064
25.1339 89.5997 7.15534
18.843 120.657 -4.95453
29.0333 85.1132 2.02118
23.3627 106.459 -3.20595
7.37827 145.292 0.635778
15.3919 129.657 -4.56928
21.5584 113.892 -5.32609
13.1751 127.32 2.66913
15.612 129.902 -5.1523
21.6852 97.6635 8.62301
10.6492 136.374 0.936032
12.1883 131.174 1.92847
17.9379 129.595 -10.1623
23.3623 106.878 -3.08837
23.5109 106.531 -3.10406
14.8724 120.933 4.70744
14.6281 121.779 4.55884
21.6492 98.0092 8.78977
17.3397 111.128 7.51617
23.352 94.1076 8.21262
6.22988 148.303 1.33764
19.5127 118.747 -4.03623
17.183 130.694 -8.94593
5.2075 154.671 -1.63874
17.1413 111.945 7.51773
19.0733 105.478 8.61183
30.508 84.6201 -0.0635537
23.8258 93.2872 8.0973
29.4245 87.4382 0.0556279
17.6067 110.594 7.72027
16.1536 129.812 -5.55907
16.6919 113.66 7.22486
16.3375 127.21 -3.70807
18.2311 124.747 -6.00154
15.9145 132.597 -7.37274
19.6153 103.597 9.15833
18.2113 108.469 8.22794
11.0139 136.193 1.07105
15.8177 132.413 -6.86058
13.052 129.109 2.52186
23.8891 93.6027 8.08972
16.0286 117.09 6.1398
9.3568 140.708 1.2755
17.7176 110.542 7.86707
23.5759 94.3974 8.17059
29.8402 85.0163 1.70098
15.806 132.656 -6.75628
16.8809 132.058 -8.72757
24.6406 104.445 -2.93126
22.6508 108.979 -2.13693
19.331 105.446 8.74314
14.9374 121.467 5.14507
17.5359 131.533 -9.65798
7.45213 146.7 0.84463
16.9244 130.672 -7.43425
18.7587 123.924 -5.76764
28.9565 90.0552 -0.198255
17.2841 130.479 -7.923
16.1174 128.436 -3.38349
9.84768 139.951 1.3617
17.3265 132.259 -9.40343
17.9094 124.866 -4.34168
15.8517 133.372 -6.89755
18.0782 131.435 -10.4263
27.7298 95.9184 -2.14344
10.4882 148.054 -6.98755
7.83937 146.423 0.774011
22.7782 109.72 -2.36453
14.1969 126.373 3.33754
18.0819 131.732 -10.3939
16.8428 133.294 -8.79268
16.1511 117.657 6.4183
29.2314 86.1212 3.24417
18.429 124.442 -4.68988
30.5001 84.8515 1.43838
22.1403 98.7494 8.98381
8.26498 145.747 0.74443
26.2743 101.15 -2.7489
16.7074 134.339 -9.12194
13.2928 142.666 -8.33836
14.3206 126.19 3.55894
14.3471 126.08 3.60755
19.7247 122.083 -5.52755
28.7621 92.6194 -1.12296
24.1326 106.725 -2.45738
6.16006 154.137 -1.47525
25.9918 101.865 -2.52638
16.0605 133.998 -7.11695
28.797 92.648 -1.07321
16.4141 135.819 -9.52116
17.5978 133.108 -9.9265
17.4144 113.082 7.96242
16.0767 134.033 -7.06649
14.973 122.403 5.72688
29.0078 88.7276 2.08126
18.0635 128.141 -6.471
9.22526 150.897 -5.47558
31.5634 84.408 -0.0739002
29.2973 88.2084 1.9691
24.9124 93.2323 7.91823
31.61 84.7108 -0.336914
20.1397 117.139 -1.49111
16.0667 133.944 -6.50196
17.2701 114.049 7.98256
9.1006 144.577 0.711165
19.4027 107.555 8.75601
18.6102 124.503 -4.09319
21.4463 121.03 -7.72319
18.0966 129.865 -7.51466
14.9163 123.737 5.34372
25.8746 102.916 -2.19481
19.0855 126.006 -6.28758
15.2457 122.043 6.19318
18.2221 128.228 -6.07075
18.9256 131.952 -10.9117
21.793 123.349 -10.1452
25.3085 93.1348 7.85579
25.6864 103.72 -2.18645
17.8065 131.968 -8.23609
17.0518 129.799 -4.56772
17.8838 129.503 -6.16057
30.8181 85.4957 1.75355
19.8872 106.855 8.84395
32.9995 83.1071 -1.07883
29.795 90.3883 0.131575
23.2639 110.837 -2.29114
17.2552 115.161 8.06751
23.444 98.1819 8.36263
23.6765 97.8378 8.11971
28.8987 93.843 -0.595918
17.3881 131.597 -6.35875
16.8851 127.134 -1.26958
30.8562 85.556 2.11207
18.3641 125.086 -2.90957
26.1326 103.053 -1.963
31.2847 84.3198 2.22522
9.63388 150.932 -4.85124
25.9233 92.5441 7.66722
21.5727 126.666 -11.7326
21.6517 126.331 -11.5385
11.818 137.874 1.4983
17.4616 126.607 -1.93282
32.5111 84.1725 -0.35576
9.19303 151.602 -4.22186
26.8793 101.411 -2.10025
17.2291 135.591 -9.03251
13.6493 131.392 3.03545
9.45867 145.329 0.801527
14.8359 126.672 4.46189
18.5295 111.65 8.89203
30.2692 89.3056 0.783912
22.9912 113.78 -3.32347
28.6145 92.0072 2.41189
21.3371 124.302 -8.5427
18.1842 126.112 -2.71677
28.7908 96.1292 -1.49657
18.5265 111.899 8.88035
16.7027 118.075 7.82444
29.8793 89.8956 1.44622
20.4615 122.824 -5.04033
19.7251 108.286 9.32734
11.5219 139.671 1.34285
17.7044 134.449 -8.61045
18.6547 125.105 -2.70472
17.0787 129.64 -2.93652
21.2691 122.326 -6.24934
30.2356 90.2887 0.547148
31.2827 85.3249 2.41143
17.9154 130.798 -5.69176
20.7497 120.562 -3.41573
15.2072 124.799 5.97063
28.918 92.2134 2.14529
19.9152 108.159 9.42511
16.9594 137.384 -8.96979
7.52335 153.982 -1.20758
21.286 128.538 -11.3469
23.0726 100.469 8.87384
31.7324 84.0316 2.85152
10.1155 150.817 -4.36388
21.2384 104.649 9.6682
32.5166 83.6527 1.537
21.6189 121.821 -6.03621
17.3335 129.904 -2.91396
12.8564 136.587 1.83481
17.4629 133.996 -6.66664
33.2914 84.0933 -0.375247
15.3725 124.002 7.00718
7.84393 153.847 -1.23488
15.2393 126.475 5.20647
19.7273 132.869 -10.7415
15.5484 140.707 -7.74627
28.8312 93.5941 2.13655
22.1552 125.754 -10.0449
26.1475 105.044 -1.40763
26.5795 93.4915 7.61919
21.9886 121.58 -5.94015
11.7755 148.807 -5.54532
13.8971 133.076 3.1709
29.5161 92.8276 1.50336
27.2661 102.272 -1.39693
17.6313 132.677 -5.18169
15.122 127.288 5.38326
18.2004 126.309 -0.981919
21.8341 126.529 -9.6632
18.6085 128.321 -3.62918
22.124 126.525 -10.3048
13.6519 134.393 2.73636
30.1173 88.6571 3.85025
19.0083 112.422 9.2802
32.0775 84.3846 3.0928
18.5834 133.523 -7.8875
22.0267 127.695 -10.8519
9.65923 152.087 -3.00739
17.0966 136.551 -6.92378
15.7122 123.306 7.84448
16.9415 119.358 8.41496
28.6542 90.5126 6.06202
17.8759 129.814 -2.78616
17.8111 136.623 -8.51042
28.172 91.5022 6.51474
17.6179 128.324 -0.697448
17.6087 130.015 -2.14135
8.47212 153.628 -1.21424
17.6248 128.682 -0.952727
33.6432 83.7615 0.500583
29.0325 90.2629 5.66983
17.3886 136.321 -7.02005
12.9056 138.208 1.9446
29.6122 90.6998 4.04219
19.1203 125.738 -1.74632
23.4717 113.966 -1.71337
26.2139 95.6257 7.81874
17.7035 128.159 -0.440402
17.706 129.488 -1.5869
17.7969 127.817 -0.345823
17.8571 127.407 -0.122335
21.8146 117.454 -0.731105
28.0176 92.1644 6.70149
30.1735 93.0278 0.930231
17.7157 128.686 -0.812777
19.8513 125.481 -3.02403
21.6342 124.632 -6.46555
26.4121 105.458 -1.0059
16.4735 139.95 -7.64671
17.7206 129.781 -1.69345
18.0915 132.649 -5.04652
13.4476 135.388 3.52805
28.3242 91.9854 6.46827
19.35 135.279 -10.045
11.0612 145 1.03496
21.1074 123.135 -3.46702
22.8247 121.632 -6.18229
14.3431 130.28 6.25999
17.9317 127.591 0.226448
21.172 128.301 -7.94961
19.0755 135.367 -9.14196
20.0153 125.033 -2.36692
13.3089 147.734 -6.34564
17.0346 138.156 -6.66185
33.4879 83.2808 2.42038
18.4254 131.424 -3.98108
21.6769 118.779 -0.610485
10.5595 151.436 -2.88152
13.4424 136.433 3.4629
28.2229 101.051 -0.364824
26.7866 104.485 0.0361617
15.6786 125.293 8.01898
24.5741 110.885 -0.293737
18.6123 131.933 -4.57924
13.4797 136.108 3.89324
9.44296 153.057 -1.35653
20.8069 125.68 -4.20058
21.5011 129.075 -8.76649
20.1261 124.916 -1.92127
19.3239 114.141 9.33688
17.7555 136.888 -6.7359
33.3628 83.8141 2.76359
18.6157 133.182 -5.51344
21.4416 122.797 -3.0872
14.0111 133.126 5.39991
28.0351 93.8183 6.80307
13.4072 137.947 2.78257
18.5403 131.472 -3.60384
11.277 145.644 1.13497
28.9001 99.0681 0.277067
21.6416 121.889 -2.51977
24.772 110.211 0.291711
18.7369 132.171 -4.53642
28.6066 94.5077 5.03711
28.8512 99.3624 0.263648
28.5425 94.9281 4.85501
20.9765 125.032 -3.47305
23.0611 105.13 9.07076
27.074 96.0869 7.61514
9.6452 150.925 1.03631
22.0363 121.696 -2.58479
19.0861 127.022 -0.237545
21.6366 120.154 -0.24248
22.3147 116.724 1.24452
28.6899 100.429 0.563611
22.7748 122.09 -4.33738
21.8984 122.431 -2.34218
27.3233 103.724 1.22274
21.1486 120.248 1.45153
18.7862 136.88 -7.42818
17.4768 138.931 -6.12352
26.5635 98.8739 7.36105
21.3341 132.69 -9.71107
21.7291 123.203 -2.37168
21.444 132.514 -9.78759
19.9479 136.389 -9.59712
8.70482 153.762 1.74551
10.6153 149.331 1.14509
26.6293 99.1121 7.22972
14.8262 131.917 6.61465
12.8792 149.728 -4.25677
13.699 137.925 4.09152
22.1359 121.519 -1.40048
19.147 137.063 -7.79416
20.538 134.956 -9.22185
10.4666 152.816 -1.05574
16.7327 124.899 8.50091
21.4624 120.969 0.951812
23.8823 114.711 0.732777
29.2858 98.6533 2.02353
21.6016 123.882 -1.83699
26.6072 106.284 1.72059
19.0625 128.122 0.479924
20.8584 125.231 -1.21761
26.5311 100.754 6.78757
26.5936 100.575 6.80562
21.5499 123.312 -1.09902
20.8908 134.187 -8.97445
23.0923 124.788 -5.92072
18.8526 138.13 -7.48103
28.1189 101.49 2.61645
22.1788 121.33 -0.681413
23.4198 107.627 8.33747
25.9121 102.066 7.33575
15.8666 129.393 7.15935
13.9035 137.409 4.80792
19.7611 116.42 9.31698
22.4868 109.693 8.79764
20.848 125.262 -0.83836
22.0416 111.362 8.43552
14.1699 135.42 6.08525
22.5493 109.975 8.54779
14.0045 136.959 5.15403
26.536 107.564 1.37517
28.0822 97.574 6.48431
28.4194 97.8147 5.48592
10.8476 150.178 1.25481
28.5043 97.5064 5.61212
14.4017 134.853 6.24886
27.1459 99.8578 6.76532
21.9792 130.041 -7.32085
27.323 99.3731 6.81123
17.3557 125.128 7.81633
21.0738 120.687 3.01762
23.6242 108.04 8.02491
28.7344 98.5253 4.32301
21.034 125.55 -1.05895
22.9073 127.283 -6.92393
26.1331 102.306 7.20188
22.2187 121.514 -0.294633
14.8026 146.68 -4.70709
24.1603 106.742 8.04101
26.8194 106.187 2.33521
16.9417 141.794 -5.41813
15.0043 146.449 -4.88432
22.2081 122.618 -1.08023
21.4155 120.043 3.03651
12.4158 146.076 1.58895
29.6034 97.9094 3.18444
17.6268 124.424 8.24486
15.4679 132.469 6.33326
23.1115 110.209 7.74516
20.2741 137.184 -8.94603
19.867 117.45 9.17176
23.2639 116.462 2.09863
29.3271 98.7717 3.29193
18.0518 125.205 6.77539
19.7775 127.961 0.402615
27.5812 100.092 6.42526
14.8283 147.03 -4.39081
22.1305 131.35 -7.86278
27.5318 103.594 3.6087
27.347 100.823 6.46745
18.3576 139.91 -6.35084
11.1609 150.59 1.34542
21.1228 120.996 3.68651
20.8605 116.403 8.31386
26.4308 104.501 5.71544
25.9661 106.129 5.39686
27.0714 101.864 6.51072
