ply
format ascii 1.0
comment Created by Open3D
element vertex 1946
property double x
property double y
property double z
end_header
-5.76361 103.879 -6.21315
0.692941 105.173 -6.30959
18.1418 99.8813 14.8572
8.69799 106.37 -5.45561
-5.38011 97.7629 9.13137
4.36663 99.3654 9.73882
12.1975 102.366 6.08991
10.9568 101.912 6.66898
28.2248 104.042 9.73597
17.8152 101.656 10.7866
26.1198 105.327 5.6549
27.9683 101.177 16.909
27.493 100.873 17.4866
17.7046 100.503 13.9213
-19.1236 100.613 -3.3723
27.4605 104.948 7.71587
-0.720236 99.0277 9.15094
28.3612 103.785 11.1769
-11.4067 103.36 -6.14564
19.1577 100.473 15.3073
23.2017 106.208 3.11401
25.5286 101.058 16.8766
10.5627 102.087 7.49166
0.290748 99.5046 9.11138
-3.47217 98.3929 10.0963
27.1928 105.465 7.08272
-8.60364 103.951 -5.87004
17.0601 107.842 -3.46271
19.2905 100.596 15.3771
-5.52861 98.3348 9.39554
23.7395 106.305 3.53157
-6.36341 104.739 -6.42722
-9.09629 98.4751 7.78064
23.6029 101.166 16.7574
16.3736 108.042 -3.4619
17.2281 103.474 8.23029
28.4156 102.625 15.6551
-3.35574 98.8873 10.0859
-1.18218 106.195 -6.83821
-1.9847 105.99 -6.61486
-11.9575 104.202 -6.67274
19.8355 108.793 -3.11173
6.81303 101.243 9.40964
-15.1728 99.2357 4.11185
-11.6731 104.266 -6.5395
18.0443 101.613 13.9287
28.5788 104.124 12.7296
3.98957 107.285 -6.43081
5.54912 101.094 9.51384
24.5925 101.644 17.0463
-12.3107 104.305 -6.58897
20.5835 108.803 -2.17302
-2.35088 99.6216 9.7013
-14.2436 99.2679 5.02965
22.7423 107.369 2.50563
27.0692 102.655 16.1548
27.6148 105.692 9.00657
-18.9065 101.97 -3.50794
-1.04853 100.349 8.88517
18.8573 101.654 15.0271
-5.78485 99.2025 9.58583
-6.37085 105.403 -5.88266
27.5227 103.106 15.6582
28.2397 105.079 11.2325
27.2374 106.211 8.00453
-17.5544 102.54 -3.76521
18.8075 109.199 -3.17319
18.2186 102.521 13.0397
-14.173 99.637 5.12589
-15.3018 99.8887 3.98641
24.296 102.03 17.2091
28.768 103.955 14.6677
21.7111 101.928 16.3722
13.1917 104.665 5.69502
-9.08842 99.455 8.16821
17.008 109.103 -3.33834
-15.0378 104.03 -5.65516
22.1473 108.304 1.19271
17.5913 109.304 -3.30198
-3.35562 99.9495 10.0155
27.299 106.401 8.49815
28.4784 105.304 11.7428
-16.4216 103.752 -5.33031
16.0156 109.21 -3.61596
1.81483 101.472 8.79074
-10.8042 99.6944 7.32195
-9.87763 105.439 -6.32538
11.0896 108.854 -4.85331
3.05095 101.776 8.84282
-15.3816 100.342 3.8804
14.5778 105.278 5.83204
-15.4236 100.419 3.83382
24.964 102.633 17.294
21.8002 108.777 0.738195
28.7 105.052 13.1298
-15.6694 100.521 3.59709
-15.4753 100.485 3.77818
15.1936 105.409 5.9815
21.3011 109.212 -0.241396
-18.8967 101.992 -1.21608
15.5659 105.591 6.13565
-12.3555 100.19 6.42658
2.29699 108.111 -6.05648
8.71228 108.77 -4.66192
9.80267 109.13 -4.98499
23.2619 102.923 16.6185
27.1188 107.235 7.93355
19.6814 102.811 15.4413
-0.0517585 101.833 8.65332
28.5558 105.239 13.6387
3.7754 108.629 -6.17905
-8.41212 100.299 8.69001
16.3169 110.101 -3.74267
-10.819 106.167 -6.49348
13.6517 109.893 -4.23745
21.2104 103.221 15.6911
1.07165 102.304 8.65769
8.11396 103.404 9.24425
4.77277 109.203 -6.45995
-4.39965 100.791 10.0436
27.6763 106.909 10.0389
28.37 105.761 13.1994
27.3087 107.471 8.6851
11.8276 105.35 6.7117
2.22588 102.778 8.58715
9.25592 109.613 -4.80033
-12.2282 100.885 6.67928
19.5279 111.117 -3.62364
25.2321 103.737 17.2601
28.4395 106.673 11.6496
-18.9076 103.034 -1.33651
-12.8107 101.149 6.1995
-12.9284 101.191 6.0704
19.6824 103.678 15.2981
6.07429 109.726 -5.82383
14.1654 110.704 -4.42202
14.6974 110.836 -4.46926
7.43916 103.995 9.04773
17.331 106.563 7.4559
19.6179 103.851 15.2717
24.7404 108.974 5.12048
17.4189 106.649 7.53576
0.702032 103.128 8.53189
4.60643 103.729 8.9033
20.8932 110.878 -1.02515
11.0179 105.563 7.55783
14.93 107.175 5.55043
16.3055 107.156 6.2637
18.4518 111.777 -4.08278
18.4554 106.433 9.07605
13.7912 111.162 -4.63722
-16.0663 105.889 -5.51685
-10.343 101.566 7.8961
15.3408 111.544 -4.61867
19.578 111.927 -3.57191
20.3779 111.521 -2.11317
17.8382 106.947 7.98244
-18.4361 104.492 -2.88195
25.0115 109.235 5.81532
5.44007 104.328 8.90268
6.64121 104.578 8.88983
-12.0095 101.854 6.92236
-14.1115 106.733 -6.03699
20.6593 111.503 -1.53192
0.788148 103.669 8.46455
-5.49388 101.813 10.1169
-5.19368 107.99 -4.90896
15.9009 107.58 5.93974
-3.17153 108.387 -4.8803
-6.18218 108.087 -5.5193
-0.67821 109.363 -6.00461
-3.15999 102.613 9.71955
7.73067 110.361 -4.22705
-10.8563 102.018 7.6673
-9.85369 107.595 -5.36628
1.38552 104.178 8.46456
23.4361 105.294 16.1937
21.7849 105.204 15.7401
19.4686 105.377 14.4674
7.1217 105.319 8.90912
-14.2843 102.832 5.04965
-2.82214 103.265 9.42643
-2.21101 109.273 -5.00375
18.2388 107.744 8.34197
6.47501 110.851 -4.74206
-13.1402 107.505 -5.59156
12.7696 112.285 -5.16187
-19.1889 105.187 -2.59628
27.2683 107.52 13.4614
26.9579 106.701 15.3436
-0.532938 110.22 -6.03455
19.5982 106.247 13.2619
8.31854 105.825 9.24714
9.66648 111.882 -4.9989
12.5204 112.58 -5.3251
27.7478 108.514 11.8245
-3.73959 109.202 -4.50519
6.97015 105.735 9.02004
-17.1957 104.794 0.0748283
1.06918 110.678 -5.79488
-16.3715 106.921 -4.6362
19.5986 105.927 14.61
17.7939 108.424 7.65334
-13.2118 107.979 -5.68816
25.8593 110.131 7.27983
19.5003 107.679 10.3946
25.7692 110.268 6.97412
28.0661 109.345 10.3776
-4.57683 109.399 -4.58019
-7.75362 103.089 9.61513
13.2471 108.855 5.24528
-11.2277 108.694 -5.75873
-15.1537 103.964 4.03094
-5.71003 109.553 -5.2356
19.9165 107.541 11.6536
-12.9695 108.369 -5.70218
15.7612 109.227 5.59403
-11.3257 103.429 7.24909
21.2333 106.229 15.6158
-8.88145 109.341 -6.02031
23.4673 112.407 1.62974
-9.0334 103.354 8.80864
-6.56745 103.328 10.0663
2.32966 105.615 8.60263
10.0851 112.743 -5.04694
9.52012 112.578 -4.78895
2.78054 105.832 8.6664
22.586 113.089 0.144522
25.0089 111.702 4.73283
15.5528 109.628 5.43994
6.33348 111.909 -4.43515
-5.92013 109.924 -5.25039
7.78872 106.611 9.42896
15.9308 109.734 5.56031
19.857 106.956 14.2354
-16.29 105.248 1.64706
-5.01805 104.005 10.0617
-15.0697 108.771 -6.24499
7.06291 106.651 9.33451
10.7724 113.282 -5.19313
-18.0652 107.365 -4.06862
26.7945 108.738 13.5299
16.983 114.125 -4.25522
23.3474 113.192 1.01386
-14.8517 104.589 4.38216
27.7614 110.222 10.4457
18.1331 109.476 7.91353
18.5552 109.284 8.58803
4.76695 112.424 -5.52989
21.7136 113.665 -0.544499
10.3657 113.4 -5.04687
18.8738 109.293 9.087
26.7292 109.137 13.1755
-18.4828 107.536 -3.95683
26.6985 111.071 8.49194
20.3256 108.107 12.8643
-14.0395 104.699 5.27203
27.6902 110.818 9.71685
20.2737 108.552 11.829
22.3528 107.124 16.4526
-18.7908 106.769 -1.83762
25.51 112.258 5.33542
-16.3875 106.128 0.887556
10.1032 108.098 8.3945
1.14517 106.397 8.46181
-18.5716 107.687 -3.83402
-11.7931 110.127 -6.58934
-9.53804 104.424 8.48359
-6.13843 104.367 10.2485
16.9638 114.707 -4.33499
18.4178 114.945 -4.21296
20.0049 108.923 11.4522
2.49881 106.774 8.66498
0.283795 112.256 -5.79344
22.8985 114.021 0.436338
16.8391 110.544 6.20393
0.90703 112.497 -5.86401
-9.45446 104.647 8.60059
18.3145 110.106 8.17047
-10.1151 110.651 -6.34437
15.1502 114.6 -4.19161
20.682 108.013 14.5972
11.0873 109.331 6.94231
-10.7245 110.781 -6.62476
7.04375 113.086 -3.94721
-17.1679 109.123 -5.46658
16.8107 115.207 -4.56514
20.4548 108.973 12.4854
-9.99188 110.843 -6.25796
0.952507 112.785 -5.9035
-14.5992 105.658 4.38013
15.739 111.07 5.26587
-14.6026 110.192 -6.68757
-16.5827 109.537 -5.94902
21.6293 107.948 16.0135
-1.50957 112.05 -4.79227
15.6792 115.075 -4.18754
20.4349 115.186 -2.11945
-1.91984 106.518 8.81496
5.62545 113.335 -4.38238
10.9266 109.68 7.1176
-18.4425 108.633 -3.87929
-17.67 109.39 -5.07764
-18.5403 108.645 -3.60035
-0.330517 112.992 -5.66097
-9.97085 105.508 8.33472
10.8166 109.898 7.24121
8.99879 114.259 -4.18526
-17.6798 109.566 -5.07689
-14.5165 106.679 3.73456
26.4797 112.846 7.74678
15.6039 111.88 5.10595
20.2002 109.754 12.5924
-6.06358 105.688 10.3772
25.917 113.542 6.01984
19.6078 116.11 -3.20307
8.32969 108.728 9.68304
-18.98 108.406 -2.23115
5.01644 108.247 9.42812
-6.38475 111.993 -5.05063
27.0781 111.856 11.0994
20.0432 115.797 -1.85741
19.1994 110.99 9.75541
-10.854 111.999 -6.61179
18.0187 116.7 -4.67543
-18.9993 108.574 -1.88927
-12.508 106.258 6.88286
21.943 109.053 16.302
0.693536 108.248 8.51064
17.2789 116.971 -5.14182
3.99613 114.568 -5.37502
11.8003 111.605 5.55815
2.72573 108.473 9.05759
15.0388 115.969 -3.59499
-13.0335 106.914 5.65775
-13.2876 107.045 5.22266
-18.271 108.122 0.264901
-19.0281 108.823 -1.78738
-9.10777 112.36 -5.73307
24.4878 110.379 14.8166
22.0215 115.429 1.32126
20.8148 110.055 14.0703
21.6603 109.491 15.872
16.4084 116.568 -3.91041
16.6663 112.742 5.61468
-4.7664 112.667 -3.9474
-10.8646 106.653 7.99233
0.0153352 108.547 8.48841
15.5377 112.955 4.92031
14.7723 116.231 -3.39045
-11.162 112.662 -6.69434
4.12122 114.943 -5.16346
-12.9232 107.431 5.35957
11.1466 111.333 6.99358
-4.41199 107.356 9.82884
9.54737 115.84 -4.50199
5.19473 109.388 9.49052
22.3083 115.559 2.34355
-18.0301 108.647 0.840818
-12.314 107.52 6.31679
17.5725 117.018 -2.8227
-12.8996 112.878 -6.78162
23.5871 110.8 15.4077
19.2218 116.207 0.119294
-18.8378 110.134 -2.58858
19.6866 111.906 11.3134
-11.9858 113.261 -6.7283
-15.0868 112.604 -6.42868
15.1245 113.898 4.60815
2.38945 109.728 9.05824
4.91042 110.058 9.47034
8.56297 110.72 9.57424
15.0368 117.875 -4.91307
3.43017 109.912 9.24599
2.25753 109.799 9.02795
-7.46662 107.486 10.195
16.8234 113.978 5.58339
-14.0008 109.082 3.36342
6.96962 110.411 9.96638
13.2849 113.728 4.7931
19.5066 112.689 10.5535
-10.7898 107.974 8.10069
-9.23354 107.707 9.52583
2.46347 116.127 -5.65429
4.11234 110.345 9.34557
22.9818 115.965 4.35806
10.3834 111.952 8.43562
3.83998 116.259 -5.11508
-15.9493 112.93 -6.09902
-15.4542 109.355 2.92232
-17.3064 112.389 -5.27768
20.0634 111.849 13.7213
14.9455 118.524 -4.96642
8.96947 117.154 -4.37254
18.616 113.837 8.33618
11.6591 113.601 5.70515
4.72586 116.307 -4.08992
16.2588 114.823 4.98541
-14.4297 109.659 3.51346
-1.01626 110.1 8.70673
16.7125 118.255 -2.71055
13.6561 117.978 -3.45232
17.5032 114.766 6.24544
-5.79843 114.507 -3.95072
24.2286 112.922 13.9819
-11.477 108.748 7.62518
26.4576 115.674 8.36197
12.5531 114.41 4.99697
3.3382 110.972 9.1905
-4.53591 109.175 10.0513
23.1932 116.359 5.35139
7.17179 117.192 -4.1365
19.6923 113.176 11.7752
19.3308 113.801 10.2184
25.3233 113.988 12.55
-11.802 109.556 6.14931
18.5548 114.535 8.07538
1.919 111.159 8.92212
-19.1365 111.412 -1.46145
26.1835 114.925 11.0509
9.02979 117.83 -4.06792
23.3121 112.826 14.8774
21.3591 112.301 15.2763
19.0802 114.295 9.44685
-18.8968 112.008 -2.33617
8.94401 117.971 -3.98838
17.1163 115.647 5.68764
-0.0424166 111.166 8.7007
12.2994 115.074 4.86826
7.96073 112.238 9.82273
-14.3219 114.596 -6.29173
-18.3691 112.84 -3.82064
-8.22589 115.27 -5.03458
-11.9948 110.244 5.62858
15.6574 115.962 4.55634
24.8939 114.517 12.4993
21.8266 122.593 -8.75216
13.4898 115.709 4.27331
25.1826 120.766 -2.68756
15.1148 120.241 -6.04371
-12.0338 115.253 -6.24305
14.8597 116.154 4.17412
-9.47389 115.589 -5.72977
4.03105 111.935 9.54655
7.46916 112.445 9.96696
17.0799 119.248 -2.23294
-6.27217 115.517 -3.89631
20.7856 117.624 3.57318
21.3139 122.629 -8.45991
17.5981 118.806 -0.78683
20.224 121.775 -6.81999
22.8048 117.591 4.751
17.0705 119.534 -2.59957
-3.60008 115.888 -3.10971
-11.9961 110.751 5.6078
23.6948 114.455 13.299
10.748 114.119 8.09584
5.22889 117.892 -3.73493
-13.7633 111.061 4.20352
-18.9773 112.11 -0.786839
20.8285 122.645 -8.00265
-11.0607 115.922 -6.32195
-3.41341 116.074 -3.08712
19.8674 119.105 0.59274
-16.1806 114.924 -5.92775
-12.6144 111.316 4.62822
26.364 121.091 -1.16207
-18.0505 111.546 1.69901
-8.4437 109.866 10.3867
-14.1365 111.426 4.05393
13.7635 120.072 -4.12363
17.9151 119.144 0.152753
-11.2843 116.217 -6.18273
18.6795 115.629 9.29165
-14.0085 115.661 -6.00433
-4.01081 116.401 -3.01503
7.98251 113.492 9.80058
24.9924 117.663 7.50735
-10.5701 116.588 -6.29299
25.8592 117.747 8.03532
-12.3815 116.224 -6.03043
11.4185 115.814 6.18041
23.7096 124.652 -9.771
-17.1059 111.926 2.60527
-14.0523 115.979 -5.92277
17.2352 117.326 5.40523
8.66543 114.026 9.53235
13.5689 121.249 -5.82435
-5.62588 116.675 -3.50263
-0.988354 112.53 8.87849
-12.0677 116.549 -6.10689
25.7052 116.95 10.5504
16.6254 121.233 -4.19599
23.1936 115.189 13.7185
4.49919 118.817 -3.8438
23.6054 122.069 -2.90645
4.07378 118.927 -4.23816
19.823 114.909 13.0099
-3.1832 111.984 9.48674
-12.4091 116.585 -6.06964
-8.43329 110.625 10.4872
18.3552 119.985 0.0609726
22.6054 119.874 2.32761
18.3638 116.504 8.64072
6.23758 113.618 10.1056
26.1064 122.051 -1.27602
-18.1505 113.527 -0.872105
-2.16887 112.468 9.20955
-16.101 112.27 3.23876
-5.86278 111.553 9.7745
-1.93351 117.564 -3.10528
-14.743 116.277 -5.85899
13.2991 117.557 4.14997
-7.34329 117.264 -4.73764
11.1927 116.112 6.76556
5.55088 119.125 -3.24129
-9.60912 117.335 -5.83121
-18.531 113.156 0.344547
23.1569 115.734 13.5715
2.83433 119.377 -4.83747
12.8404 117.646 4.2185
-18.2546 112.839 1.57523
-10.6524 117.477 -6.15989
19.144 122.301 -4.08223
12.8315 121.092 -4.00972
-5.63192 117.422 -3.53223
3.21897 119.7 -4.73764
-18.3668 114.838 -2.84731
21.2404 122.586 -3.37754
22.3607 124.786 -8.24265
3.64836 113.816 10.0331
-8.29049 111.343 10.5731
19.3577 121.091 -0.418932
12.6302 121.102 -3.48016
18.3208 121.019 -0.588834
13.0724 118.17 4.08588
15.807 122.483 -5.17354
18.1353 123.074 -5.48076
19.1135 121.253 -0.530093
17.174 120.911 -0.472999
-17.5179 114.316 -0.438081
24.4999 125.714 -8.8456
-0.879357 113.701 8.83692
9.28342 115.502 9.15409
19.759 115.752 13.4578
18.9212 116.495 11.2651
18.2915 123.369 -5.86989
13.6243 118.63 3.82621
20.5517 122.759 -2.96479
24.8954 117.919 11.0081
-2.15751 113.691 9.00227
24.3544 119.489 7.14891
-0.641831 119.123 -3.51872
21.0992 122.338 -1.27541
-16.7724 116.984 -5.73406
-18.1012 116.031 -3.99823
22.0157 121.955 0.15534
-17.5309 114.41 0.435398
-14.5385 117.434 -5.58477
22.0608 121.655 1.1864
20.3432 123.119 -3.16662
21.6542 122.213 -0.306511
-10.2238 118.439 -5.87175
17.9284 123.756 -5.74208
28.3407 124.163 -1.85485
22.5823 120.405 4.72564
-5.19883 118.326 -3.01329
24.6153 126.349 -8.77835
11.8154 122.627 -5.55399
21.4001 122.943 -1.8449
4.48049 120.636 -3.99329
22.9572 122.229 0.721199
7.53365 115.573 9.913
-1.47395 114.265 8.93274
17.9789 122.157 -1.31577
11.7595 122.674 -5.47332
16.2701 122.541 -3.00515
11.7522 122.674 -5.42845
17.476 123.665 -5.1825
12.8111 118.947 4.27312
19.5535 123.395 -3.48299
17.7713 122.221 -1.39626
25.968 123.912 -1.69017
24.8275 126.629 -8.86287
24.9391 118.989 10.0508
23.141 117.725 12.3217
16.2391 119.694 4.38362
17.9565 124.381 -6.29377
23.8431 126.926 -9.57306
24.846 119.197 9.90048
-12.4358 118.7 -6.18867
14.3579 119.795 3.65858
16.2406 123.693 -5.0253
3.65118 115.123 10.2059
19.5234 123.451 -2.78738
27.0441 124.58 -1.94142
24.6954 118.895 10.9308
22.7107 117.878 12.58
-3.42209 114.354 9.08904
-1.46412 119.575 -2.77154
27.634 124.15 -0.447672
-13.4122 113.952 5.506
11.4794 122.822 -4.61492
-17.5599 114.533 2.25283
15.4887 124.162 -5.98962
19.5154 125.466 -7.16511
18.9255 123.961 -3.7193
0.781103 120.716 -4.1111
23.6632 127.036 -8.93657
-1.57022 114.935 9.06588
-1.94886 119.628 -2.57391
-11.3219 114.224 6.38074
17.4887 123.037 -1.82395
22.4525 122.606 1.5654
23.9481 127.144 -8.85691
18.3336 118.054 10.8929
-16.9236 114.628 2.93045
9.25018 121.66 -2.11011
14.3864 124.4 -6.39077
15.0575 124.502 -6.32741
15.7903 124.262 -5.36528
-1.50971 119.885 -2.65094
19.5635 123.918 -2.65286
-11.6329 114.31 6.41231
22.1383 122.628 1.72106
-13.759 118.862 -5.69721
-3.76916 114.75 9.10584
22.5205 120.869 6.39289
-10.3094 114.207 7.46637
19.8439 117.402 13.7232
17.2148 124.909 -5.93236
-15.2265 118.736 -5.68534
15.8527 123.691 -3.3262
9.64986 122.192 -2.5327
-0.784745 115.448 9.20309
6.59523 116.566 10.0357
22.3306 122.846 1.94696
18.5134 125.747 -6.91876
-16.6935 114.846 3.4929
17.8483 125.514 -6.56144
26.0297 126.448 -5.01817
18.9688 124.129 -2.56782
24.4793 119.99 10.1867
-5.73629 114.371 9.91913
-10.788 114.471 7.32239
10.0122 122.868 -3.585
13.6504 124.821 -6.61136
0.209277 121.052 -3.58614
20.3607 117.744 13.9508
22.6372 123.093 1.90727
-11.1969 114.606 7.06234
-16.1788 118.096 -3.8256
17.5972 123.977 -2.5207
-4.73849 114.978 9.22997
-7.13581 119.873 -3.89179
22.3124 127.088 -7.86418
11.191 118.968 6.93914
5.90963 116.724 10.0671
21.4203 123.111 1.66894
-1.67769 120.475 -2.47058
-6.97971 114.109 10.7399
3.48177 116.374 10.0779
-8.02688 114.061 10.4139
23.3015 123.216 2.58161
22.1489 127.071 -7.41954
20.4354 123.882 -0.288918
8.70264 122.392 -2.08194
26.2704 126.675 -4.41081
17.3589 120.94 5.60142
24.0121 123.724 1.90774
-1.19638 120.775 -2.56741
1.6141 121.844 -3.8794
15.5947 124.882 -4.81276
23.0076 123.335 2.46502
-7.89188 120.244 -4.31048
12.0701 124.812 -6.21635
21.2668 118.438 13.7465
26.4269 125.503 -1.19223
26.7834 125.41 -0.664964
18.257 124.762 -2.91155
-7.97144 120.41 -4.33614
0.308292 116.194 9.96538
16.1694 125.14 -4.6094
-14.1705 115.141 5.83681
26.2104 127.187 -4.92248
-10.4877 120.462 -5.47358
5.72788 117.344 9.77411
17.3661 125.065 -3.76326
17.7897 124.687 -2.56826
22.0741 127.23 -6.80911
-15.5148 118.109 -1.91349
19.5125 124.028 -0.0765672
28.0596 125.815 -0.420588
20.9907 123.752 1.47109
17.3396 124.697 -2.40738
-2.22967 116.177 9.42986
-9.11978 114.641 10.0817
26.408 125.609 -0.275937
11.0928 124.925 -5.71677
-9.51277 114.963 9.16159
19.6783 126.882 -6.49053
-6.54954 114.903 10.7161
23.8001 123.659 3.44195
22.3431 122.03 6.77368
17.0013 126.185 -5.84126
21.2876 127.184 -6.24027
16.6937 125.198 -3.44514
19.9267 124.363 0.119182
22.6641 123.875 2.60762
-5.88712 115.43 10.094
27.0441 126.033 -0.593486
21.1063 123.813 2.10039
11.1345 119.944 7.00898
15.1338 126.247 -6.54146
28.991 126.295 -0.194318
21.3935 124.103 1.7076
-7.0165 121.104 -4.15632
15.2538 124.974 -3.27222
23.0454 128.219 -7.52861
23.3846 120.553 11.5208
26.4163 125.5 0.824721
20.4849 124.469 0.59705
14.3861 126.327 -6.79647
-17.4693 116.242 3.14854
-9.35382 115.201 9.49277
14.522 122.163 3.52275
-16.4344 117.422 0.964683
5.1432 123.155 -3.00216
26.168 127.171 -3.06249
20.2483 124.734 0.202712
21.8334 127.691 -6.27824
-15.5915 118.721 -1.62395
18.59 127.182 -6.45422
-12.5908 121.071 -5.93328
-12.9611 120.965 -5.818
10.6913 119.91 7.85017
19.8272 119.39 13.3987
-15.3458 119.022 -2.07211
15.2944 126.217 -5.38968
23.4218 124.217 3.38295
25.8569 126.755 -1.62379
15.4088 126.53 -5.84276
26.2797 128.082 -4.49449
-14.2559 120.8 -5.45726
15.2697 126.12 -4.7519
-15.7427 119.544 -2.99833
19.206 124.96 0.0342027
-16.1626 119.511 -3.06158
24.921 128.932 -7.03429
13.589 126.816 -7.01792
16.8075 122.651 4.71411
-14.6678 120.821 -5.41633
17.3878 127.077 -5.84616
-16.049 116.516 4.55048
-15.8598 119.718 -3.22189
22.4643 124.443 3.03589
23.2578 121.965 9.55229
-15.8707 119.149 -1.71025
-17.1019 116.63 3.97506
-3.82337 121.801 -2.52176
-16.5839 117.502 2.15076
-15.5574 118.34 0.584023
14.8847 127.148 -6.77543
22.4027 122.7 7.68517
-15.4601 119.562 -2.19725
-14.3868 116.422 6.01558
15.2424 125.905 -3.45501
-3.38876 117.171 9.32324
24.6356 129.666 -8.23729
-15.93 118.143 1.20126
20.5193 119.956 13.7467
22.2102 122.592 8.06916
28.355 126.969 0.205612
-19.3188 116.401 4.00441
-8.97246 115.854 10.2388
22.8204 124.71 3.30549
23.1348 123.816 5.67219
8.88635 119.676 9.20081
23.7241 124.678 3.8541
26.0042 129.12 -5.97012
-5.63274 116.631 9.97667
27.2299 127.305 -0.913193
26.4427 126.672 0.310754
26.0855 126.103 1.64707
-15.1944 116.624 5.71857
23.9322 129.608 -7.93272
23.5527 124.818 3.71486
8.92005 119.825 9.19453
18.9859 125.276 0.499079
9.23539 119.926 9.09756
15.6095 126.354 -3.59756
-11.3389 122.035 -5.54234
13.4258 123.177 3.21128
-18.8333 117.092 3.18127
-15.8388 121.068 -5.1588
1.77386 118.456 9.50256
-16.0533 117.281 4.08788
17.7622 127.761 -5.87613
-16.1475 119.539 -1.43735
9.02709 124.747 -2.48882
-13.75 121.815 -5.84793
26.377 127.637 -1.43283
17.9025 125.752 -0.619543
16.2255 123.612 3.92561
12.7988 122.926 4.07087
22.9715 125.383 2.85191
12.2406 127.205 -6.59681
25.3754 129.942 -7.06671
-16.7497 117.648 3.55042
-10.8907 116.649 8.79391
0.818067 118.436 9.87305
12.6171 127.463 -6.7754
11.0156 121.593 6.90009
17.6544 121.364 10.5606
-15.4627 120.276 -2.18039
-17.5571 119.427 -1.0059
-17.4766 118.329 1.75455
-15.0098 119.887 -0.711092
-17.1634 119.088 0.25844
-16.4712 119.881 -1.30175
16.5164 127.085 -3.54693
9.67425 120.694 8.98118
-15.5321 117.811 4.33585
9.7655 120.744 8.9537
22.7119 122.734 10.1009
24.5564 130.43 -7.92765
-17.8614 118.811 0.920869
5.05199 120.167 8.31541
7.30577 120.166 9.37279
-15.045 119.975 -0.459837
22.7719 125.666 3.23683
20.9627 126.009 1.58923
-12.9555 122.782 -6.28457
-3.49462 118.33 9.07541
-9.77158 116.878 9.72332
10.3297 121.292 8.27874
-12.291 117.078 8.13906
-8.7316 116.799 10.5264
20.0907 121.276 13.1178
-15.8347 121.789 -4.87901
13.28 123.911 3.51122
-10.5332 122.761 -4.74491
20.5592 126.687 0.161383
-12.7212 122.914 -6.07306
26.1704 128.486 -1.60195
12.1143 127.802 -6.45886
16.0201 127.755 -4.50559
23.6823 126.066 3.22925
25.9769 128.513 -1.68808
9.03762 125.984 -3.35227
-8.14491 123.126 -4.28118
1.24799 119.235 9.65478
16.401 127.574 -3.74491
22.2186 125.877 3.23971
2.72024 119.91 8.9503
12.2795 123.405 4.86866
-8.44417 123.315 -4.49536
24.1035 130.441 -6.74712
-14.2667 117.636 6.82888
-16.3494 119.907 0.288308
-16.85 119.543 0.961215
-16.3909 119.327 1.86614
-12.3908 123.182 -5.72517
-5.07112 123.642 -3.34334
-6.21621 123.763 -4.14808
-16.0225 119.622 1.47625
-15.9787 121.512 -3.14513
26.3973 127.667 1.55899
15.6811 127.248 -2.37513
23.72 125.574 5.49081
18.7887 121.772 12.5811
9.20472 126.729 -4.04194
16.5629 124.862 4.17135
12.3626 123.818 4.81881
23.6475 125.617 5.67051
-19.0843 119.504 0.813395
-0.696174 119.505 9.44203
-15.7704 122.393 -4.66563
2.68658 120.361 8.96488
-15.2783 120.241 0.908622
-16.2448 120.335 0.268077
23.1813 126.66 3.13562
-13.3451 123.559 -6.19816
7.2824 121.272 9.10122
-20.9768 118.015 3.96395
-21.8413 117.101 5.85036
17.3669 124.789 5.24188
-16.5064 119.485 2.58901
19.1234 129.517 -5.40518
7.57183 121.46 9.02322
22.1135 130.244 -5.6415
-10.5256 117.808 9.71518
-15.6403 120.583 0.549682
19.9333 129.715 -5.29022
9.63368 121.988 8.91713
8.33977 126.224 -2.0138
16.9301 128.988 -4.76957
20.0974 127.553 0.279544
-16.3194 120.028 1.81374
22.862 125.324 7.1619
-16.2521 120.188 1.6394
9.99384 128.074 -5.48065
-17.1796 119.974 1.79222
21.444 123.071 12.1859
21.3942 130.368 -5.70278
-19.6751 119.587 1.64111
26.522 131.846 -6.91928
-15.7717 121.134 -0.30617
17.4307 122.879 10.9429
26.8663 128.385 1.88474
20.8409 126.765 3.22003
25.0418 127.528 3.32648
23.7914 127.532 2.81534
1.21978 120.502 9.57958
18.462 126.668 2.49442
25.0851 127.617 3.33004
-15.7363 122.989 -4.30592
-15.0384 121.51 -0.331431
21.219 126.951 3.20374
-3.86266 124.417 -2.24694
-15.3378 123.129 -4.41884
23.5704 127.727 2.42358
18.8804 122.706 12.6005
-17.1511 120.042 2.37025
17.5147 126.842 1.83991
-10.1078 124.645 -5.5736
15.4494 129.036 -4.39725
-15.8447 121.277 0.260765
26.1717 129.709 -0.856408
-18.4158 119.218 4.21348
7.51452 122.25 8.94357
-17.3182 119.664 3.73825
17.5346 129.79 -4.88872
21.9214 124.389 10.4573
-21.1207 119.271 3.01108
19.3791 123.071 12.5561
-7.96685 125.038 -4.98618
17.9387 127.01 2.29714
13.0832 130.024 -7.34132
-15.2111 121.119 1.40263
-15.3861 123.369 -4.18773
-2.63223 120.379 9.10361
16.263 127.344 0.838416
-21.7851 118.911 3.82742
-17.0153 120.697 1.69269
15.595 126.33 3.08116
13.2783 125.588 3.84852
-16.5566 121.144 0.904768
-15.6001 122.134 -1.0354
-19.3211 117.275 9.19383
-3.95965 124.875 -2.26638
21.7758 124.897 9.74161
-14.5586 122.394 -0.992327
-15.0014 122.114 -0.487595
21.9764 127.859 2.68861
20.3992 123.648 12.3085
-16.3916 121.835 -0.340107
-13.4248 119.578 6.65292
19.7208 128.377 0.517479
16.3065 129.719 -4.32869
-14.3564 124.218 -5.10514
-6.53056 125.318 -4.15008
7.33031 122.696 8.80393
3.10695 126.644 -2.83425
1.90186 121.486 9.31606
-15.6649 121.39 1.37164
17.1371 124.28 9.56799
16.5446 127.601 1.1904
20.9873 127.417 3.72932
-16.2584 121.346 1.2897
19.6612 128.588 0.25632
17.1979 123.997 10.41
10.6438 129.263 -5.56551
-15.3583 119.728 5.74102
14.3837 129.499 -4.35471
22.9327 128.403 2.33461
20.5667 127.618 3.17397
27.0321 129.042 2.74084
-15.1223 123.744 -3.87971
23.4356 128.121 3.38457
15.1997 128.16 -0.548625
14.7711 128.398 -1.31859
12.187 130.175 -6.87909
17.2113 126.322 4.98547
18.8985 130.993 -5.67934
1.9582 126.578 -2.72537
-19.856 116.949 10.8035
21.741 125.051 10.2896
-6.10476 125.521 -3.70752
18.8539 127.506 3.12369
-22.6381 118.268 6.49518
-16.6585 121.276 1.90784
12.1838 125.288 5.5258
17.033 126.553 4.6944
9.56561 123.394 8.98071
-15.1169 121.737 1.62673
-6.31551 125.678 -3.8808
-12.2349 119.969 7.50803
-11.6924 125.349 -5.43721
22.4116 128.62 2.44707
-15.3646 121.202 3.12319
-15.5027 122.688 -0.581562
21.502 132.057 -6.33386
13.4641 130.941 -7.25599
1.70815 121.922 9.42043
17.4341 126.082 6.5321
8.04467 128.042 -2.64653
7.23203 123.319 8.57768
-23.6654 118.756 5.39046
25.7699 131.1 -1.8725
-18.2199 122.178 -0.437521
13.9735 129.178 -2.61448
-14.5291 124.663 -4.72203
12.9054 126.038 4.68668
11.2341 124.812 6.92062
-2.27841 121.372 9.08626
-11.8131 120.105 7.81326
-17.3085 120.777 3.67527
14.505 130.221 -4.63655
25.287 132.825 -6.007
-23.8112 118.53 6.25942
-11.3165 120.08 8.28145
27.153 132.936 -5.32673
19.4944 128.426 2.30279
23.5847 128.569 3.86339
5.16845 127.427 -1.79005
-24.2279 118.767 5.78355
3.85581 123.291 7.78261
22.626 127.888 5.31123
-14.7833 124.78 -4.43776
-23.2481 119.374 4.93228
20.3673 124.878 11.7433
10.0522 129.892 -5.23145
22.5137 129.221 2.2856
18.5651 129.918 -1.22547
27.6837 130.308 2.13169
14.0085 129.784 -2.93111
-22.5814 119.888 4.36187
-14.4807 120.834 5.86093
17.0153 125.603 8.83492
-14.1229 125.181 -4.62254
-12.6713 125.884 -5.60386
-15.0085 123.49 -0.795655
-15.7187 124.159 -2.74333
27.9254 130.564 1.8843
0.123887 122.275 9.31189
-15.9649 121.024 4.95289
-10.2166 126.87 -6.67783
15.2113 131.351 -5.76306
15.0501 131.103 -5.1267
2.97547 123.312 8.39149
-6.98186 126.632 -4.32025
-16.0044 121.023 5.31826
-17.4578 121.103 4.47819
20.2226 128.945 2.81099
3.67241 123.868 7.62384
25.8066 133.873 -6.55634
8.51644 129.83 -4.64651
4.57001 128.003 -1.97543
-10.6006 120.67 8.98643
-22.4371 120.335 4.29624
-14.0385 126.054 -5.78327
23.3767 129.432 3.35744
-14.9814 120.91 6.41878
0.37317 127.252 -1.99483
-23.5707 118.48 8.40518
27.1119 131.038 1.19705
15.112 131.679 -5.93387
-13.6031 126.181 -5.8061
-11.9281 126.575 -5.99167
16.8391 125.499 10.063
17.4109 127.206 6.16821
-7.48785 126.902 -4.64099
-14.5977 121.267 5.94109
-12.9953 126.184 -5.36074
7.23112 124.52 8.18678
-12.9971 126.335 -5.69239
3.69038 124.155 7.45772
18.4328 125.223 11.7189
10.755 131.066 -6.1156
-14.1341 126.136 -5.58281
20.8357 126.845 8.97692
14.0158 132.307 -7.60546
26.2327 133.955 -5.9238
21.4177 127.492 7.7171
-16.2538 124.115 -1.52728
2.19258 123.378 8.8831
18.5213 129.885 0.52143
22.6467 129.016 4.61586
-17.2353 120.949 5.91982
11.4263 126 6.95
25.7527 134.166 -6.34607
19.4023 128.779 3.92872
-18.3216 123.285 -0.0936562
17.14 130.877 -2.21581
18.4845 131.957 -4.23778
-21.9828 118.803 9.23913
-16.4224 120.501 7.69692
15.2669 129.605 0.172749
-22.8906 119.086 8.27818
23.2076 130.047 2.83992
22.1313 133.509 -6.14139
-17.5594 121.269 5.50458
-15.518 121.115 6.83913
-23.6982 120.188 5.34047
17.4745 125.777 10.8349
-19.7233 118.863 10.6233
-20.2812 119.338 9.30822
-4.81677 121.948 10.1161
17.0658 129.646 1.42452
17.3596 127.919 5.83298
16.9472 132.113 -4.64657
19.5523 130.893 -0.393302
-14.0266 121.691 6.60761
17.462 127.482 7.16013
-23.0815 120.74 4.8349
-21.5308 121.609 3.56358
15.1783 132.279 -5.52709
-13.6042 127.037 -6.05924
15.6452 132.136 -4.93363
17.4034 130.262 0.500556
4.29642 128.761 -1.90272
-8.90164 127.817 -5.72309
19.4564 131.139 -0.615185
18.3009 130.369 0.823172
15.2052 129.127 2.43197
24.9444 130.444 3.74345
-11.7984 127.917 -7.11216
23.9561 133.686 -4.59201
27.2318 131.411 2.52237
17.7506 133.26 -6.42315
-7.21972 127.714 -4.42613
-24.1917 120.353 5.77357
-9.25651 128.098 -6.27269
10.1339 126 7.99892
10.2286 126.057 7.9079
-19.7363 119.235 10.7188
-15.5478 125.026 -1.53301
16.4927 128.994 3.72823
-5.00511 122.332 10.1736
19.5902 127.913 7.92851
15.6945 130.15 0.646413
18.6637 133.622 -6.38606
1.11261 128.606 -2.18096
26.9822 131.599 2.53357
-23.6027 120.907 5.27145
-11.1075 121.85 8.78419
18.4539 133.666 -6.444
19.5884 130.078 2.93094
5.60673 125.545 7.5508
13.8525 129.01 2.91662
-8.02594 122.405 9.00206
-23.2708 119.431 9.28286
-14.6584 126.245 -3.43163
-2.22635 127.869 -1.59714
9.85943 131.7 -5.37479
-23.4238 120.511 6.62501
-19.9783 120.306 8.76266
13.0275 128.414 4.24183
20.735 134.067 -6.04367
14.2293 133.424 -7.40149
-11.5489 122.067 8.50529
-14.7281 125.126 -0.465584
22.5437 129.897 5.1857
-2.06307 123.366 9.84474
-19.9119 121.093 7.11185
18.9603 133.963 -6.35026
10.328 126.586 7.77471
-19.4806 119.508 11.3204
-15.2621 122.189 6.70874
11.8381 127.402 6.54536
-22.1094 121.919 4.20549
19.0481 128.066 8.5463
-8.48897 123.103 7.99273
-10.2417 128.993 -7.16816
-17.3947 121.241 8.58936
15.5717 133.14 -5.2397
21.707 130.98 2.93162
11.0977 127.29 7.16772
-13.4665 122.671 7.07591
-18.8155 121.57 7.30374
-19.6308 120.266 10.1443
14.6802 132.788 -4.5971
26.1526 131.916 2.90166
-19.5086 121.232 7.86768
14.2916 132.572 -4.23657
21.2837 130.468 4.25782
-17.417 121.415 8.46813
-8.4546 123.477 7.60587
16.125 131.805 -1.39709
-13.2575 122.955 6.66185
4.00416 129.626 -1.63304
18.1762 133.457 -4.4199
3.11522 126.007 6.90213
-19.6105 121.112 8.44472
-19.2998 119.711 12.0374
19.8125 134.546 -6.17373
-0.209895 128.951 -1.6438
-15.4701 122.326 7.64081
17.1039 128.048 8.88937
21.6894 130.125 5.93129
-22.465 120.443 9.18237
7.27623 126.437 8.37028
17.6193 133.335 -3.69099
15.5502 133.248 -4.41113
3.81244 129.877 -1.59968
14.1757 130.228 2.45703
11.2739 133.189 -6.10973
3.35136 126.444 6.82935
16.7929 127.68 10.1027
9.68681 132.618 -5.32281
-16.9914 121.489 9.6717
5.92974 126.607 7.81871
15.0908 130.658 2.1949
17.1318 128.686 8.03058
26.5296 133.322 1.02977
-18.3018 121.735 8.62159
-5.85757 123.487 10.1341
-8.5273 124.296 6.90377
-15.112 126.425 -1.34619
-15.354 126.197 -0.897269
5.51091 130.453 -1.62534
16.0938 134.368 -6.28514
13.6279 130.126 2.99447
18.2054 132.593 -0.915386
26.2323 134.731 -2.41804
12.1673 133.834 -6.67465
6.33078 130.89 -2.09438
0.15084 129.572 -1.73632
17.6405 133.18 -2.44893
17.354 133.634 -3.65944
-11.7668 129.235 -6.35542
17.5446 132.975 -1.86115
-19.1938 125.263 -0.00626937
-17.4639 122.453 7.70656
25.985 134.111 -0.651288
-16.1514 121.988 9.54043
-19.4681 120.432 11.8664
-1.31644 125.222 8.60923
-18.5292 120.724 11.6411
-16.6618 122.233 8.82614
25.4236 135.515 -4.16748
17.1627 132.846 -1.43229
16.8222 133.471 -3.11089
17.4685 128.242 10.057
-9.03936 130.114 -6.89052
26.2026 134.877 -2.12367
16.8057 128.186 10.098
-7.23413 124.41 8.22961
-19.3133 125.513 -0.0877566
-14.9351 122.574 9.46642
-7.30567 130.095 -5.36
-7.07267 124.574 8.39137
-11.2662 124.278 7.18805
5.97224 131.273 -1.94983
-17.6748 121.184 11.8441
-13.2785 123.279 8.78073
-16.7409 126.473 -0.641125
-3.44006 124.855 9.54046
14.4724 135.273 -7.68948
16.9078 134.275 -4.07377
-13.9332 128.357 -3.85538
25.1454 132.891 3.24295
-5.23957 129.982 -3.76427
7.17322 127.322 8.56179
-23.6461 122.688 5.62212
17.0637 135.002 -5.59135
9.34709 133.329 -5.06809
5.28837 127.399 7.6173
-4.63544 125.009 8.91864
9.67464 133.506 -5.27907
26.1501 135.154 -1.58608
10.6301 133.935 -5.79338
15.2368 132.848 -0.957031
-12.5668 124.465 6.73538
23.6428 132.642 3.5933
-20.4057 125.462 0.706172
25.7605 136.2 -4.15352
-23.6065 122.434 6.72433
-13.7919 124.154 7.13396
25.1135 133.511 2.27947
-13.7808 124.166 7.17362
16.829 134.547 -4.05666
-19.1404 120.639 13.4162
-13.5091 124.031 7.75041
6.24725 131.981 -2.55331
0.888146 126.819 7.65801
-21.6312 124.463 3.09172
-16.5641 123.267 8.52131
-0.0381769 126.232 8.96526
-14.8376 127.006 0.194253
-3.39852 126.082 7.80476
21.0698 131.66 5.51434
24.7582 136.319 -4.17415
-14.4211 128.016 -2.00553
-11.4105 124.935 6.97329
-1.10165 126.298 8.44353
11.799 129.593 6.55453
-15.5037 127.266 -0.442661
-6.68861 125.888 7.0678
26.4669 135.053 0.042389
21.2181 131.65 6.01295
17.5641 129.552 9.48209
-15.3446 126.892 0.716373
-20.7078 125.619 1.35096
13.5591 135.924 -7.97409
27.1076 136.388 -2.76268
14.5246 134.369 -3.66536
7.484 128.086 8.5552
-12.5166 124.149 8.91394
-7.79133 131.081 -5.90587
-0.41919 126.53 8.75898
-18.1379 121.668 12.4436
1.48808 131.141 -1.62553
10.7341 129.292 7.2518
3.611 127.997 7.12148
-21.764 121.206 12.0082
21.1598 131.807 5.98844
7.22193 128.166 8.51425
-14.3467 128.52 -2.25379
-2.5312 126.779 7.61765
16.655 134.988 -3.58866
-15.6047 128.064 -1.54115
16.9478 131.338 5.59559
-14.7179 127.523 0.279028
-6.79631 131.238 -5.14224
-19.1651 127.195 -0.703317
-2.18726 130.733 -1.42874
-10.6169 125.457 7.68908
-11.4693 130.667 -5.4824
9.595 134.665 -5.47652
-22.7325 122.225 10.0652
15.9708 135.437 -4.3307
16.108 135.196 -3.61888
17.9657 136.794 -6.50516
9.69588 129.459 7.74578
-15.4225 124.254 8.83333
16.748 132.033 4.83153
-14.3959 129.109 -2.48422
23.0719 137.29 -5.09682
20.9508 137.304 -6.06489
2.81529 128.564 7.03445
-19.4545 121.919 13.0663
-14.0869 124.297 9.72977
-14.8678 124.466 8.95844
1.9708 131.884 -1.30763
-21.3199 126.178 1.85848
24.0081 133.778 4.3401
-14.22 124.161 10.3477
-2.05945 131.244 -1.36623
-11.2395 131.163 -5.36047
-3.6609 131.495 -2.59387
11.8806 136.377 -7.31777
8.07573 129.218 8.53077
6.44159 129.032 8.31172
17.8917 130.886 9.09629
16.359 131.268 7.49199
-2.82833 127.794 7.1288
14.9783 137.042 -7.18827
-15.4248 128.975 -1.43766
-5.86248 127.031 7.86539
-10.5464 126.387 7.2786
12.5263 131.785 4.8234
-13.8377 124.474 10.5082
-11.5646 131.002 -4.46083
15.2739 137.144 -6.88883
-20.4559 122.343 12.8235
-15.1948 128.398 0.420706
16.8152 136.427 -4.33812
13.8784 133.241 2.23659
-0.503628 128.492 7.30588
-13.4436 125.119 9.57012
4.50381 133.26 -1.98736
10.6726 130.854 6.82624
0.575516 132.277 -1.32608
-14.4468 124.688 10.3151
16.0001 136.501 -4.50988
13.1688 137.372 -7.92923
-2.3955 128.334 7.06374
16.5598 133.143 4.19338
15.5655 133.702 2.36131
-21.2904 126.289 3.45003
-5.29718 127.592 7.76222
-21.9797 122.961 11.3995
16.06 131.758 7.6799
-3.26391 132.161 -2.28565
-7.58179 127.689 6.70457
16.8671 137.013 -4.79291
-13.4784 124.949 10.7025
-17.1145 123.714 12.0512
-22.7631 124.879 6.61061
12.9794 137.63 -7.88517
-22.7296 124.703 7.292
19.8635 138.274 -6.04076
14.9783 134.203 1.71747
-6.44004 133.014 -5.14954
20.6963 133.659 5.92336
11.483 137.311 -7.3355
-8.10834 128.105 6.21523
6.02974 134.619 -3.18309
15.8255 131.934 8.00342
-6.65885 133.21 -5.47274
-22.14 125.6 6.05588
-1.46484 132.481 -1.18636
-5.45815 132.839 -3.88843
-15.1044 129.294 0.326269
-3.29553 129.008 6.68923
11.995 132.554 5.12955
-2.91612 132.675 -2.04992
23.3703 138.718 -4.58529
11.988 132.369 5.76918
-8.70209 128.17 6.45578
16.054 132.55 7.28583
7.18857 135.803 -4.82762
5.46225 130.292 7.97786
15.7064 137.09 -3.94439
-2.92098 129.315 6.56033
-8.50025 128.288 6.50141
15.8168 134.372 2.91247
16.5416 137.687 -4.80563
-0.897714 129.758 6.55495
22.855 135.222 4.22407
-1.42732 129.207 7.68448
-16.5279 125.096 10.7575
-21.8052 123.823 11.4368
15.975 132.666 7.37629
15.3803 137.938 -5.80308
-22.1383 123.961 11.1164
23.8888 138.793 -3.83444
-22.1635 125.125 8.28266
15.8779 137.381 -4.08622
4.0948 130.505 7.31143
23.5134 138.923 -4.2954
-19.3768 123.908 12.6896
5.70124 130.614 7.94239
-20.2294 127.893 2.72616
-0.815813 130.416 5.67041
11.7372 138.312 -7.84131
-13.9452 125.984 10.4855
3.8123 130.813 7.04512
6.34153 135.836 -4.0446
-21.9737 124.54 10.5934
-17.5441 129.665 0.098011
16.8569 137.642 -3.46267
5.43658 130.956 7.67051
-4.94119 129.512 6.3925
-16.6659 125.617 10.5303
-2.11244 129.755 7.27349
6.53725 131.062 8.12327
-21.9176 124.724 10.553
-4.29142 133.733 -3.08734
-21.611 125.566 8.9231
-14.8576 130.747 -0.628424
24.1398 139.23 -3.29106
13.427 134.617 3.06199
18.0133 139.16 -5.9473
6.53478 136.431 -4.49154
17.0549 138.877 -5.50499
-1.06065 130.933 5.59263
19.5862 134.609 6.20629
-16.7345 130.573 -0.785783
-14.8983 131.09 -1.15671
20.2417 139.58 -5.59316
15.8924 135.379 2.72047
2.86746 134.463 -1.09458
-7.2995 129.523 6.31603
-18.4903 129.752 0.588781
22.6414 136.47 3.2749
-0.924503 133.736 -0.984827
-13.5848 126.715 10.3786
-15.1306 126.613 9.93567
15.6288 138.073 -3.83422
4.7356 131.57 7.08819
-3.95692 134.013 -2.90954
1.83233 134.221 -0.716817
-2.19089 130.413 6.96202
22.1045 136.231 4.01582
6.95116 131.733 8.01281
-20.7169 127.164 6.41716
1.90271 131.648 6.0117
-2.87046 130.522 6.65791
22.4926 136.682 3.38953
-15.2912 126.869 9.88841
-5.02624 134.519 -4.09182
-12.1964 127.492 9.84448
-9.86305 134.269 -5.6532
25.5845 138.337 1.03901
23.6 139.98 -3.86496
16.1213 139.154 -5.18456
16.0713 134.511 6.29761
4.99915 132.185 6.92972
7.25363 132.219 7.9344
-11.4493 133.518 -3.86531
-16.8754 131.411 -1.07264
-8.76408 135.084 -6.26258
2.45203 132.231 5.9869
-17.799 130.593 0.575133
17.6783 139.856 -5.57739
7.05775 137.813 -5.49324
-6.93371 135.484 -6.06752
1.83292 132.296 5.86423
-16.0711 131.712 -1.03119
-4.86372 130.932 6.12479
11.8552 139.762 -7.71448
2.94878 135.415 -1.11537
8.31565 132.71 8.04738
16.3025 135.901 3.94329
-1.13126 131.944 5.62264
-9.40807 135.115 -5.75628
3.35879 132.722 6.12374
21.4023 140.801 -5.28067
15.1887 136.642 2.09605
-13.1286 128.115 9.97717
-2.98296 131.935 5.36878
15.492 139.431 -4.35253
11.8778 140.093 -7.65477
-9.68974 129.648 8.07879
11.1527 139.97 -7.42988
-6.79801 130.781 6.79395
20.952 140.916 -5.16852
21.2066 136.993 4.58927
-3.88349 131.882 5.49808
-4.32238 131.737 5.66041
-21.1963 126.765 10.0511
20.5409 136.809 4.86324
-7.33133 136.107 -6.34321
-20.1601 126.302 11.8019
17.5667 140.449 -5.33151
10.9718 134.778 5.5695
-0.843905 135.231 -1.03752
7.11785 133.21 7.68248
25.9397 140.674 -1.84951
25.3593 139.543 0.723203
-7.79013 130.714 6.96694
10.9508 140.161 -7.32133
9.52285 133.787 7.69775
1.5938 135.783 -0.84745
25.5508 140.4 -0.99203
9.99588 133.945 7.63541
1.16185 133.048 5.77481
11.9855 136.448 2.47233
-1.33939 135.427 -1.18619
7.16398 138.929 -5.77547
17.7987 135.813 6.91872
20.5376 141.187 -4.99163
2.72565 136.251 -1.11803
-7.99653 136.206 -5.9731
-17.8747 127.75 10.3614
18.9163 136.346 6.56046
-2.72545 135.743 -2.01237
15.8409 136.564 4.70873
-2.56334 135.762 -1.8568
-12.5854 129.259 9.49758
12.3909 137.015 2.23183
-14.4676 132.874 -0.0595845
17.369 136.046 7.03873
25.3946 140.852 -1.02118
-2.57689 133.158 4.84687
-11.7068 134.901 -3.68119
-15.823 128.794 9.45194
10.0789 140.422 -6.99586
11.4056 136.704 2.83674
7.41164 133.966 7.72658
20.0882 141.51 -4.79518
20.1909 137.564 4.94577
-4.09114 136.351 -3.37667
-5.3997 136.501 -4.3287
-15.1162 129.104 9.51505
5.84591 134.179 6.96489
-4.70247 132.774 5.51066
-14.7512 129.248 9.52568
-14.7884 133.292 -0.384825
18.3863 141.656 -5.10066
11.4716 136.429 4.52385
13.8557 138.124 1.5284
-1.08337 136.352 -1.07885
6.70097 139.684 -5.5139
-20.7558 129.11 7.67237
13.2009 137.935 1.83355
15.7437 136.395 6.81216
2.47828 134.35 5.69016
-8.73816 131.328 7.8912
4.91651 134.491 6.54955
19.0939 137.755 5.21034
-20.1781 129.938 6.17252
14.9587 141.24 -4.91564
-20.2654 129.895 6.61199
-20.525 129.594 7.3226
15.0231 140.521 -2.91429
-14.1141 134.383 -1.41122
-16.1 129.58 9.4678
-14.5862 134.192 -1.06001
4.4757 134.828 6.271
24.3339 142.365 -2.87177
-19.558 131.005 4.58759
-15.3524 129.887 9.31432
24.2567 140.714 1.21708
-4.08581 133.804 4.9946
16.0589 138.511 2.86998
-4.77618 133.725 5.02525
18.2549 137.617 6.32476
-1.6921 136.993 -1.35267
-15.5085 133.72 0.309166
11.5237 136.686 5.68909
-14.5019 130.326 9.19624
-20.6505 129.622 8.0739
-19.6067 130.998 5.23154
6.38455 140.258 -5.30101
25.099 142.256 -1.27292
-14.0131 134.78 -1.09685
22.8678 140.503 2.10093
-14.2875 134.921 -1.37076
22.0506 143.066 -4.35186
-19.573 131.152 5.57274
6.53817 140.565 -5.34941
24.6035 142.831 -2.44302
-20.3079 130.213 7.71619
15.8938 137.911 5.78495
-11.8769 136.457 -3.46694
1.89245 138.187 -1.27636
21.5 143.153 -4.29591
1.77091 135.571 5.20949
7.7824 141.314 -6.04431
-1.22305 135.182 4.84181
-4.84204 134.448 4.97228
-1.67223 135.145 4.92463
24.7405 142.514 -0.796344
-10.0309 137.598 -4.84783
-20.1431 130.567 7.72857
24.6319 142.379 -0.20153
0.719494 138.26 -1.02518
-1.17477 137.948 -1.09717
15.8953 139.044 4.23439
20.9106 143.439 -4.09784
-7.66247 138.684 -5.69576
11.1817 137.863 5.26815
-19.9287 132.657 3.69226
8.92554 137.06 6.45609
23.8491 143.771 -2.92772
22.7854 141.633 1.95861
13.0415 139.714 2.17468
10.6748 138.564 3.9139
-10.7789 137.967 -4.55914
-5.0837 135.15 5.15915
-11.3116 137.742 -4.10346
16.2749 138.759 6.29456
14.216 142.847 -4.48659
-19.7126 132.946 4.06679
24.427 143.935 -2.35462
-19.7229 132.943 4.09337
-6.12606 139.332 -5.2215
-18.9778 130.543 10.3914
14.2572 143.475 -5.86131
-8.78611 133.291 8.43731
2.34527 139.534 -1.68162
4.53599 140.758 -3.61037
14.2303 143.04 -4.61777
-14.9695 135.38 0.599652
-16.1683 131.287 10.0971
-18.6544 133.718 2.99143
15.9448 139.901 4.39008
14.2518 143.312 -4.77117
16.8169 142.899 -2.54638
7.10458 137.532 6.11178
-19.326 132.412 6.37551
14.8579 142.618 -2.6357
-2.24817 139.086 -1.87353
-11.304 138.21 -3.87195
-15.5353 131.793 9.93094
-12.9424 136.611 -0.654729
-3.62873 136.439 4.49158
2.73344 137.336 5.37511
-12.571 137.973 -3.27285
-5.2474 136.039 4.91917
-2.89717 139.445 -2.32919
14.6844 143.2 -3.35731
10.0719 143.855 -6.90287
3.86343 137.441 6.02755
-20.0912 131.143 10.3798
10.4003 138.747 6.06446
19.8153 141.06 4.77447
-2.94499 136.858 4.49979
12.6196 144.158 -6.10243
10.182 144.012 -6.81262
-11.8713 138.436 -3.38388
-11.0485 138.783 -3.85229
15.8582 141.156 2.86571
-19.6384 131.909 9.04777
10.5241 139.527 4.42611
-15.6739 132.324 10.077
23.5408 143.559 0.774966
8.0525 143.385 -5.97703
16.8183 143.828 -2.9145
13.3391 141.126 2.1539
1.42955 140.417 -1.57969
16.5704 143.636 -2.38794
-15.899 132.37 10.2473
2.35124 138.001 4.98701
8.36284 143.676 -6.11946
13.3163 141.277 2.08669
-13.0122 137.231 -0.181389
-13.3143 137.693 -1.44476
16.8303 143.991 -2.8377
-5.69958 140.489 -4.66517
20.1502 141.695 4.43548
4.198 138.043 6.0559
14.5978 144.025 -3.76378
4.05729 141.892 -3.29386
9.44377 138.917 6.58567
-6.92895 140.608 -5.16806
-13.2003 138.326 -2.45082
7.00333 143.42 -5.45898
7.61038 143.663 -5.74797
3.02554 138.378 5.2848
-5.19278 136.96 4.94834
-19.3813 133.651 6.51838
-19.6723 131.838 10.9613
-9.65197 140.083 -4.58086
-0.202478 140.627 -1.25073
8.96237 139.096 6.80469
-7.31282 140.929 -5.23453
9.14027 144.566 -6.46942
-0.725315 138.218 4.60044
9.47715 139.46 6.37362
-18.7998 132.384 10.7473
-19.0786 132.91 9.43788
-19.2984 134.176 6.22992
14.9172 144.712 -3.57038
9.37464 139.709 6.34399
10.1739 140.119 5.73061
-12.4483 139.225 -2.56366
-9.11444 140.726 -4.67221
-16.5957 136.059 3.30851
19.1115 142.307 4.6492
-17.6759 135.44 4.37889
15.8143 142.225 3.45656
9.54904 139.952 6.15499
-2.49527 141.047 -2.06909
12.6621 142.366 1.78748
-18.0854 135.009 5.53147
5.97296 143.879 -4.93535
-11.8264 139.651 -2.73621
14.991 142.695 2.28324
16.5801 144.731 -1.94788
20.8923 146.232 -3.44998
-17.9938 135.158 5.67955
22.2405 144.25 2.16517
21.7243 146.306 -3.02037
18.3822 142.634 4.6372
7.10549 139.748 6.47748
-18.6598 134.894 6.48102
10.3735 140.855 5.43551
-11.8132 140.006 -2.73163
18.0531 142.696 4.75889
3.73526 143.244 -3.15617
14.0465 145.985 -4.91733
6.35539 140.097 5.98814
22.0202 144.589 2.32098
-2.54689 139.336 3.80896
16.6828 145.331 -1.91569
-18.3565 135.245 6.64669
7.2192 145.073 -5.50129
19.119 146.257 -2.85174
15.6998 142.881 3.94747
-16.2637 137.195 3.0599
-2.61378 141.895 -2.05971
22.4412 146.312 -1.21056
-11.0128 135.621 9.47391
15.2264 145.79 -3.2552
18.9588 143.483 4.17559
-3.76967 142.096 -2.92974
19.7768 146.665 -3.11886
10.6174 146.23 -6.26105
5.34065 140.409 5.64936
10.5988 146.306 -6.25791
14.8636 143.614 2.36106
21.965 145.117 2.01415
-17.6819 136.13 5.71397
16.3955 142.781 5.28227
16.6237 145.667 -1.68938
0.422311 142.551 -1.54447
6.13102 140.557 6.14015
7.41281 140.384 7.28153
-3.28683 139.83 3.77973
-18.5087 134.209 10.5245
-6.9092 142.731 -4.9546
-16.9892 134.366 10.9541
19.4785 144.19 3.8411
10.14 141.848 5.3126
-17.814 135.955 6.79561
-9.84622 136.774 8.54603
14.033 146.467 -4.02716
-13.7652 135.212 10.668
-4.00385 139.887 3.74574
13.0533 144.124 1.29412
10.1011 142.879 2.98348
-18.9291 135.219 8.27828
3.54613 144.215 -3.19526
2.66976 141.001 4.5626
-13.8141 135.364 10.7833
-15.561 138.434 2.43064
-13.6511 139.182 1.49829
10.7656 143.728 1.7342
-12.5424 140.339 -0.730737
-1.94262 140.396 4.1256
15.5018 143.693 4.24102
-8.02118 138.029 7.23525
-12.8852 139.739 0.778033
-16.9643 137.457 4.48203
15.7856 146.268 -1.88174
-11.9508 136.143 10.068
-8.66904 137.404 8.54311
19.2232 144.655 3.73463
-12.7484 135.868 10.4651
9.44164 146.828 -6.05374
9.55726 142.012 5.83765
-4.09643 140.253 3.81928
0.32961 143.359 -1.60058
-8.28143 137.794 8.17236
-16.9549 137.663 4.53517
12.1392 144.585 1.22227
-11.4532 141.929 -3.12617
-11.1738 136.908 9.5229
-6.42492 139.439 5.54091
21.117 147.858 -2.19625
7.12405 141.208 7.63266
8.85547 141.995 6.63913
-5.71915 143.683 -4.19389
-12.4626 140.708 0.0719201
-18.4603 135.966 9.15924
-17.25 137.806 5.22665
6.16075 141.554 6.96721
-10.4262 137.677 8.79439
-15.0436 139.348 2.56257
-12.5956 141.01 -0.370803
1.42099 144.491 -2.04208
-17.7916 135.932 10.0933
1.74721 144.674 -2.22216
9.4799 142.922 5.69857
19.1348 145.761 3.26706
2.77275 142.003 5.06984
10.6708 144.962 1.54205
11.9583 147.85 -4.92952
-4.19624 144.063 -3.03845
-5.16139 144.169 -3.74816
20.6588 146.968 1.70818
-12.8707 141.544 -0.551057
20.49 148.443 -1.85795
-4.28759 144.264 -3.09059
21.0111 148.4 -1.39439
-1.81359 144.269 -1.66205
-15.8704 136.568 10.7139
20.9417 147.815 0.290733
10.9559 148.327 -5.58285
20.8143 147.869 0.397209
2.9318 145.958 -3.08733
-14.8375 137.019 10.6149
-2.41233 142.099 4.00684
4.96987 142.49 6.67524
-16.5691 137.008 10.1785
-12.3426 142.28 -0.790353
-17.3583 137.029 9.81545
-13.1331 137.926 9.66327
14.4357 146.031 2.63117
-7.89167 140.213 6.64754
-14.7227 137.409 10.4412
2.41157 146.055 -2.74963
19.9256 147.636 1.63782
-13.6907 141.024 2.22188
2.53738 146.182 -2.8375
-14.6312 140.676 2.72395
-7.91958 140.404 6.66665
-13.569 141.161 2.184
-7.55518 140.623 6.34297
-17.4243 138.182 7.797
-15.113 140.542 3.19897
17.1805 148.678 -1.65402
-10.0297 139.159 9.0487
-14.0706 138.075 9.97613
-7.42873 145.306 -4.62555
1.58371 146.175 -2.41592
8.43968 148.697 -5.35877
-6.45033 141.628 5.18914
18.1567 147.139 3.13708
6.29711 148.225 -4.77977
17.6019 149.234 -1.91185
12.5766 149.068 -3.82784
-6.3543 141.983 5.05812
6.46558 148.483 -4.78772
14.1689 147.358 1.60632
19.0225 148.092 2.19315
-4.48399 145.795 -3.11687
7.62908 143.677 7.73347
16.1843 148.987 -1.15893
19.0253 148.29 1.89023
-10.2813 139.799 9.23952
-12.4041 142.443 1.85727
-5.41955 146.111 -3.85135
-14.9265 141.326 3.54059
9.39612 145.76 4.01799
-16.3167 140.519 5.27111
3.49255 143.698 6.73167
-12.1216 143.258 0.591899
16.9424 149.749 -1.8017
0.675877 144.06 4.62369
-16.2195 138.759 9.89213
-5.31189 146.45 -3.73643
-15.9367 138.846 10.0134
3.18811 147.956 -3.4162
15.7823 149.372 -0.963199
1.40716 147.283 -2.49029
1.77596 144.135 5.46385
-16.1608 140.856 5.17946
-8.04137 146.27 -4.33217
10.9613 149.959 -4.3592
-16.2649 139.411 8.96832
-8.84195 146.261 -4.30431
12.7294 149.978 -3.30603
-12.8847 142.814 2.49304
-11.8767 143.339 1.98477
14.8217 149.624 -0.890251
14.0483 149.984 -2.1204
13.5223 150.051 -2.38314
9.36129 147.595 1.73302
-9.37707 146.473 -4.22645
-6.77433 147.042 -4.17336
-15.3841 141.837 4.77201
8.59143 147.061 3.17018
14.0954 148.656 1.87746
-1.76137 147.186 -1.71023
17.1617 150.44 -0.772864
9.04991 147.862 1.90953
0.837146 148.056 -2.36212
-7.17046 143.278 5.68114
-15.8526 141.369 6.45443
16.5869 149.034 2.8098
-11.8416 144.327 1.1629
-11.5657 140.942 9.6764
0.356484 148.058 -2.21619
-3.65472 145.084 3.23335
-15.6518 141.786 5.8345
-8.2014 142.723 7.06466
5.91423 150.053 -4.26427
-9.7492 146.855 -3.65138
-4.6297 145.011 3.36388
-7.87736 143.204 6.47736
