ply
format ascii 1.0
comment Created by Open3D
element vertex 1931
property double x
property double y
property double z
end_header
2.21089 81.5745 -9.7915
-25.5682 126.504 -4.84829
-36.7894 136.653 7.06181
-17.3566 115.834 -9.44903
-26.9388 125.874 -1.01969
-26.426 114.047 12.4771
-29.0502 128.411 0.490096
-30.5834 131.738 -0.241563
-28.91 128.041 0.704318
-20.0856 119.706 -8.1177
-27.33 126.738 -1.05291
-29.1363 129.058 0.135218
-26.4714 114.468 12.4016
-28.3954 128.073 -0.14339
-27.5465 126.736 -0.300331
-28.8282 127.724 1.30014
-6.6715 80.1083 11.9661
0.110179 87.4265 -11.7844
-14.1392 91.0984 14.6512
-4.9106 97.5587 -13.3496
-2.83053 93.7203 -13.1281
-22.0604 105.686 13.9186
-28.1097 127.954 -0.401628
-26.9223 126.421 -1.0689
-14.852 92.3355 14.824
-2.0226 92.1473 -12.722
-21.6038 122.146 -7.21513
-20.9532 121.082 -7.30933
-1.30941 90.7606 -12.4937
-36.7894 139.744 4.20321
-26.4385 119.219 7.07518
-26.3876 114.81 12.4176
-10.6608 86.6325 13.0651
-31.2464 133.778 -0.386253
2.17634 82.7777 -10.003
-8.93454 104.502 -12.6867
-28.3622 129.111 -0.741228
-29.5668 128.072 3.1793
-0.534757 89.5812 -12.3609
-26.274 126.695 -2.26002
-30.8532 129.458 4.28872
-28.3006 129.109 -0.807623
-31.055 134.042 -0.76747
1.80057 84.0336 -10.3557
-29.3367 127.831 3.23673
-28.0461 126.954 1.56001
-19.8162 120.147 -7.85157
-27.2451 127.934 -1.30302
-29.2543 128.272 2.72364
-29.216 128.153 2.84065
-3.84803 76.4211 11.637
-27.0259 118.926 9.55555
-25.2246 127.476 -4.91018
-26.2456 127.99 -3.27563
-30.8268 129.887 4.45794
-25.4432 127.181 -3.88911
-9.00681 84.8388 12.7759
-28.866 127.089 3.77277
-28.4192 127.923 1.81299
-28.4064 125.196 5.26556
-16.2731 115.521 -9.13791
-29.9548 128.359 4.77445
-25.8964 126.712 -2.00337
-29.2351 128.931 2.53279
-26.7368 117.734 10.9415
-25.2791 113.318 13.2379
-29.8776 133.241 -1.3516
-12.784 110.901 -10.8373
-28.0847 128.651 0.517926
-29.723 133.233 -1.57519
-25.1446 127.935 -4.94269
-29.7188 133.537 -1.89912
-27.0903 121.378 7.43725
-19.8071 103.071 14.2362
-21.4732 106.553 13.5623
-4.63888 98.6135 -13.1808
-13.97 92.4097 14.799
-0.623006 90.9507 -12.4026
-26.9166 119.082 10.0001
-10.4372 108.132 -12.2677
-26.9545 119.35 9.79411
-28.1926 128.235 1.55025
-29.3952 128.11 4.34735
-33.3078 133.015 6.82798
-29.1823 133.021 -2.09898
1.24061 86.7848 -10.9916
-18.7229 119.547 -8.04745
-30.5704 135.455 -1.81482
-26.8902 128.731 -1.46567
-25.0808 113.586 13.3408
-27.719 128.543 0.609964
-9.65156 86.7144 13.0643
-6.20483 81.4821 12.0377
-26.6216 127.88 -0.785027
-34.2761 139.255 1.82703
-36.35 140.121 5.37449
-27.1916 122.806 6.96036
-28.1116 124.869 6.49761
-3.38084 97.5941 -13.4979
-26.7654 128.206 -0.469979
3.09947 83.0974 -9.65393
-29.1969 134.282 -2.59775
-21.817 108.216 13.6028
-32.5641 137.28 1.21253
-26.3043 120.854 7.90537
-28.0555 124.732 6.92981
-35.9868 140.388 4.829
-9.40589 107.713 -12.4873
-25.8278 126.91 -0.462295
-27.0981 128.658 0.193598
-36.3842 140.272 6.07795
-26.6594 121.394 8.26555
-30.791 136.366 -1.24665
-9.09187 107.423 -12.636
-0.252227 91.6497 -12.3543
-10.8622 88.8351 14.1914
-24.5575 128.53 -4.92444
-27.1488 129.716 -0.713581
-26.7208 121.506 8.51415
4.95687 78.1544 -6.7519
-26.2398 129.019 -1.73175
-22.8022 126.416 -5.93431
-24.4081 128.115 -4.53214
-3.10244 77.566 11.6581
-18.2505 102.081 14.3118
-28.2701 133.126 -2.24441
-26.1566 120.711 8.52595
-17.59 100.799 14.5332
-27.5522 123.566 8.06693
4.08969 81.342 -8.52942
2.13891 86.3562 -10.4495
-29.2573 128.811 5.38423
-26.995 129.396 -0.221939
-12.1464 111.709 -10.5454
1.22251 88.9338 -11.4583
5.1734 78.005 -6.54425
-28.2525 133.337 -2.2353
-13.6485 94.0511 14.6163
-16.1693 117.374 -8.66577
-31.0653 131.495 6.28205
-16.8699 118.39 -8.37024
-28.9285 128.328 5.57407
-28.129 133.304 -2.21109
2.45825 86.0617 -10.2635
-27.7979 126.249 5.85483
-30.1586 130.909 5.23965
-18.105 102.489 14.1916
-17.442 101.249 14.406
-28.5611 129.053 4.28476
-2.76403 77.7633 11.6566
6.18584 74.7669 -4.0539
-26.3805 119.173 11.8771
-23.4412 112.717 13.5447
4.88016 79.641 -7.12799
-5.85418 82.763 12.3507
-13.1334 93.9608 14.3941
-15.6147 98.2158 14.5384
-25.682 129.677 -2.24537
4.20901 82.1671 -8.5022
-18.3074 120.846 -7.33503
-1.49655 76.1774 11.3341
-24.0524 129.052 -4.93548
-28.4673 129.361 4.35871
-4.22435 100.663 -12.8788
-30.8584 131.744 6.6776
-13.4276 94.9003 14.3949
-25.4099 129.286 -1.99647
-30.3149 131.251 6.29301
-27.9056 127.396 5.88752
-1.72439 96.9087 -13.3358
0.515654 92.2282 -12.2572
-14.9596 116.351 -8.3795
-28.0493 127.76 6.01125
-19.9363 123.78 -6.65693
-25.4599 130.418 -2.80955
-25.4809 129.508 -1.57917
-13.1513 95.1366 14.2446
-25.4958 130.708 -2.76347
-9.57008 110.199 -11.9655
-33.5255 136.66 7.4754
-27.6961 134.453 -2.45706
-27.123 123.916 9.34861
-32.1536 134.272 7.51468
-1.21849 96.6492 -13.2227
-34.7869 140.886 5.08869
-32.4143 139.187 2.04303
0.0230423 93.8298 -12.3657
4.35032 83.0773 -8.47149
-14.509 97.7724 14.4423
-25.3488 130.451 -2.26965
-18.311 105.29 13.5266
-13.9317 115.699 -8.84328
-9.89635 89.7392 14.4936
-25.8825 131.263 -1.99661
-16.886 102.463 14.0565
-34.6692 140.743 5.56872
-26.5762 123.119 9.75273
2.27043 89.0305 -10.8247
-27.3786 134.934 -3.05869
-23.0786 128.725 -4.65425
-17.1499 120.585 -7.365
1.57869 91.0156 -11.5191
-2.17348 99.2203 -13.4192
-4.32664 102.417 -12.6676
-33.4242 141.147 2.75008
-13.8176 97.4157 14.3061
-17.6207 104.691 13.6221
-25.8692 121.846 10.3617
-11.1651 93.1092 13.9485
1.08813 92.5615 -11.984
-20.6784 126.018 -5.9673
-7.57628 108.315 -12.5581
-23.925 116.221 13.2196
-28.0082 129.127 6.20137
-27.6547 128.023 6.80163
-25.4375 131.587 -2.41872
-1.83675 78.6737 11.6755
-33.9665 141.609 3.84614
-1.7948 99.1 -13.4664
-28.792 136.997 -1.55559
-17.469 104.836 13.576
-31.7597 134.908 7.62354
-34.0097 141.478 4.45251
-15.432 100.704 14.4619
-4.95233 104.183 -12.5879
-13.8233 98.1182 14.1861
-10.3999 92.2944 13.9733
3.51699 87.0449 -9.75766
-13.5349 116.192 -8.59808
-25.3485 119.893 12.5438
-24.0095 130.833 -3.83434
-30.4718 138.238 1.0745
-16.9136 121.028 -7.11356
-3.54465 102.143 -12.8184
-27.2316 127.523 7.39655
-16.922 104.492 13.6085
-22.3777 129.14 -4.97683
-7.63706 88.297 13.4457
-25.2442 131.739 -1.94368
-32.2526 140.508 2.48722
-25.9255 122.036 11.5995
-28.2462 130.517 6.23466
-6.49944 86.5823 13.2843
-9.8187 91.97 13.8947
-33.5533 141.786 4.02316
-28.4695 130.76 6.64961
-14.3721 99.9545 14.1003
-22.8873 129.556 -3.91806
-12.8934 115.926 -8.76663
-25.8466 133.103 -1.81781
-15.1661 119.125 -7.74756
-27.6752 129.705 6.45108
-29.7311 138.125 0.616691
-27.7435 129.799 6.66903
-25.7167 122.628 11.2004
-0.00899269 96.8378 -12.8047
-4.64732 105.026 -12.7932
-11.8785 96.2772 13.7445
-25.6149 133.087 -1.72654
-15.823 120.285 -7.15005
-16.4467 104.713 13.5177
-23.5998 131.169 -3.60082
-25.3031 134.163 -3.56241
-24.9212 132.862 -2.68996
5.63903 82.798 -7.16994
-24.3339 132.135 -2.95665
-7.26682 109.526 -12.1086
-18.5124 109.016 13.0263
5.76489 82.4677 -6.93851
-24.554 119.853 12.9469
-8.25816 111.065 -11.595
-31.9335 141.146 2.70729
-10.5018 94.9632 13.2042
1.48376 94.2613 -11.9013
-24.8119 132.789 -2.26878
-29.8269 133.672 7.6368
-14.2492 118.703 -7.62977
-29.8489 138.894 1.34305
-0.576759 99.3236 -13.2777
-9.04604 92.6982 13.3858
-12.8266 99.2649 13.5012
-24.4533 132.851 -2.70119
-0.389064 99.0898 -13.2324
4.16489 88.1151 -9.54143
-3.99509 84.3708 12.8697
-5.09533 86.0122 13.2616
-2.63367 102.962 -12.9869
-9.32949 93.5587 13.1909
-6.1525 108.914 -12.6314
-18.0969 124.308 -5.59318
-16.3695 106.118 13.1637
1.51222 76.2576 11.3457
-20.2771 128.2 -5.45977
-8.18446 111.735 -11.3837
-5.48526 108.146 -12.8068
-24.4111 133.223 -2.61944
-1.75322 102.076 -13.2112
-23.5631 132.276 -3.08034
-32.2098 142.287 3.34785
-13.2249 117.884 -7.6525
-31.2003 140.745 3.17943
6.75645 81.4217 -5.89748
-14.7366 103.364 13.7486
-13.0269 100.672 13.4
-7.5011 111.165 -11.5502
-19.8462 127.878 -5.27758
-13.7779 118.968 -7.35485
-12.1373 116.786 -8.20403
0.531524 78.5147 11.6586
-20.6573 114.42 13.3927
-8.40826 92.9939 13.2537
-19.8444 113.085 13.3068
-8.36732 93.0599 13.2204
4.84701 87.9539 -9.1843
-3.00068 105.213 -13.3525
-11.4422 116.223 -8.54659
-27.4571 131.532 7.42868
-28.4212 138.932 0.530755
-20.1623 128.968 -5.05716
0.470679 79.1673 11.6734
-1.37398 102.622 -13.2281
-23.8904 120.978 13.0421
6.31246 84.0643 -6.9679
-27.6322 132.143 7.42196
-12.5731 117.85 -7.63055
-14.1213 103.255 13.7699
-15.6514 106.468 13.1921
6.61145 83.2264 -6.41431
-13.4894 102.294 13.7282
-23.8665 134.473 -3.42183
-15.5557 121.863 -5.89075
-5.78275 109.924 -12.3588
-21.4852 116.886 13.3223
-24.2384 134.086 -1.92044
3.05024 93.4758 -11.016
-20.5412 129.57 -4.23489
-14.872 121.199 -6.20804
-17.7303 125.202 -4.93692
-8.22957 94.0502 12.9076
-20.1837 129.475 -4.82524
-26.3273 130.768 6.94937
-17.9314 110.909 13.2959
4.30712 90.5852 -9.88641
-28.6555 139.635 1.19175
-18.4454 111.807 13.4788
-23.2885 133.468 -2.74253
-7.32218 91.8336 14.0869
-6.06597 110.771 -11.9757
-8.79511 95.7895 12.4923
-27.5544 132.972 7.39074
-2.20314 105.213 -13.356
1.43593 78.5821 11.7318
-19.5198 128.77 -4.61668
-10.1271 116.266 -9.49785
3.10149 76.2407 11.2515
-20.7671 130.889 -4.38001
-22.1739 119.274 13.0425
-16.48 123.978 -5.10702
-31.6254 143.338 3.90292
-16.9114 124.585 -4.88245
-3.3923 86.009 13.3942
6.54014 85.0451 -6.92289
-5.81625 110.981 -11.9677
-6.96446 112.498 -11.3141
-31.4358 143.543 3.54565
-14.5179 105.857 13.3344
-9.60633 98.0033 12.4467
-14.9022 122.12 -5.77952
-20.1897 115.89 13.4265
9.7125 74.6298 -0.577986
-5.54364 110.849 -12.0898
8.25181 80.1227 -4.11527
-16.399 109.567 13.1703
-8.02296 95.4046 12.4847
0.963522 100.31 -12.9749
-29.6174 139.129 5.60441
-5.34672 89.6497 13.9973
1.63967 98.8162 -12.4451
-17.0179 125.315 -4.61189
-28.8208 136.265 7.52759
-20.1446 130.472 -4.16877
-27.4461 134.06 7.45977
0.418699 81.5472 11.7975
8.19173 81.1632 -4.38982
-9.36635 98.4878 12.3837
-23.9609 124.194 12.4468
8.7166 79.3991 -3.23279
7.71765 82.8653 -5.32353
-28.9171 136.999 7.42833
7.09829 84.9169 -6.39273
-29.0998 137.645 7.16433
-16.5666 110.718 13.2692
-19.7343 116.225 13.3602
7.81336 82.8982 -5.25153
-23.964 124.805 12.0837
-5.82496 91.1935 14.2759
-6.59869 113.185 -11.1815
-28.1753 141.157 1.22718
-12.6232 120.109 -6.54775
-3.78413 109.356 -12.422
-24.0446 137.749 -3.43636
-25.6102 139.541 -2.20551
-4.72884 110.859 -12.1437
-9.17526 98.9058 12.3431
2.8406 78.4197 11.5879
-6.03975 112.711 -11.4336
-23.5856 124.268 12.5793
-23.926 125.565 11.7494
-15.8334 124.729 -4.74771
8.25516 82.3268 -4.5666
6.79068 87.164 -7.28146
-23.4552 135.586 -1.32615
-15.9274 125.004 -4.59551
-24.3861 127.085 11.2252
-2.85339 108.342 -12.3781
-24.9052 132.307 5.94862
-23.6601 125.236 12.0947
-10.4191 101.407 12.7917
-13.6937 122.218 -5.7134
10.6177 75.3747 -0.542494
-28.6852 139.816 5.29874
-24.3028 131.337 6.28004
-23.3754 137.03 -2.75134
-13.3957 121.994 -5.85483
-5.90014 113.304 -11.2844
-4.08361 110.714 -11.9661
4.0506 95.363 -10.6116
5.27854 75.869 10.9508
-24.4012 132.274 5.77878
-19.4215 117.673 13.1055
2.03195 100.72 -12.5724
-13.2657 122.235 -5.83137
-5.4389 92.9642 13.3571
-18.4626 129.618 -3.59184
-30.0568 143.183 4.902
-28.2328 142.721 1.60326
-24.5041 139.582 -2.60477
-11.0991 103.556 12.8062
-23.0491 136.337 -1.7042
-7.96926 98.8125 11.9443
1.02409 102.93 -12.6271
0.310256 104.524 -13.025
-26.9767 136.156 7.21068
-24.0843 127.713 11.3767
4.23298 95.5933 -10.4788
3.18053 79.4314 11.7764
-4.99862 92.1604 13.8956
4.96279 76.9275 11.0702
-5.50701 93.9029 12.87
-7.37501 98.0178 11.8851
-25.7054 141.294 -1.66962
-18.4415 131.607 -5.42735
-19.3196 118.364 12.9845
2.96219 99.4917 -11.9796
-16.0279 126.451 -3.92477
-6.66624 97.1049 11.9816
-5.06028 93.6023 12.9653
-15.125 111.075 13.2601
-17.3901 115.113 13.2301
-0.333347 85.6549 12.5701
-24.0342 132.906 5.7764
4.51805 95.6732 -10.2552
-2.92329 109.989 -11.7383
5.85876 76.335 10.8351
-15.1307 125.531 -4.27898
-19.4005 132.684 -3.83128
-28.4195 143.251 2.84189
11.1036 76.8109 -0.973202
-6.89547 116.306 -10.6119
-22.3971 137.027 -2.47383
-23.5584 128.061 11.1506
-12.8186 122.889 -5.7051
6.75136 75.2277 10.6578
1.13065 103.857 -12.4821
-25.0946 141.261 -1.62146
-23.4392 127.98 11.2864
-27.511 139.793 5.54582
-17.5004 116.095 13.0681
-25.3626 141.607 -1.34598
-28.0897 140.817 5.6671
4.35106 79.2795 11.2534
-13.2873 109.11 12.8238
-13.0715 123.432 -5.33544
-16.2893 127.632 -3.4634
-10.5355 120.412 -6.97141
-19.1912 119.697 12.7593
-22.3938 137.397 -2.14041
2.94723 100.939 -12.1211
-22.3806 137.59 -2.32495
-22.1144 125.044 12.6652
-10.2998 104.301 12.6765
-19.0374 119.684 12.7326
5.15947 78.5409 11.0151
-17.3841 131.792 -5.69304
-13.8956 110.558 13.0612
-26.7661 138.282 6.8055
-16.8993 129.792 -4.10388
-16.0864 114.485 13.149
-1.25154 88.1201 13.5893
3.96334 80.6181 11.643
4.15104 98.5298 -10.883
-17.0844 131.461 -5.38801
-22.7346 127.123 12.2917
-12.0003 107.882 12.7788
1.12564 85.3082 12.1766
6.93716 76.3581 10.6335
-23.7365 140.206 -1.52637
9.11046 83.9726 -3.43013
-15.8998 114.623 13.0767
0.470963 106.748 -12.7494
-10.9406 105.977 13.0078
-6.81345 117.528 -10.1186
9.1228 84.1249 -3.47477
-24.3601 134.872 6.70808
-12.9696 124.311 -4.99926
-20.7585 124.014 12.3651
-7.2942 100.769 11.8699
-1.05924 108.937 -11.748
-21.3694 125.139 12.4289
-1.08532 88.5173 13.6469
-26.6832 140.257 5.48174
-25.2374 136.917 6.55376
-17.4911 118.377 12.6664
-3.2149 92.4438 13.6977
-7.82624 119.252 -9.39021
10.9512 80.0352 -1.73577
-19.7985 135.494 -3.40024
11.7151 77.8958 -0.733762
12.5578 74.6424 1.45658
1.12002 105.862 -12.2397
-20.3989 123.85 12.3731
-22.2861 139.093 -2.33281
-16.0752 115.922 12.8004
-22.461 139.357 -2.23329
-15.4015 127.894 -3.40936
-4.50943 96.3592 11.8839
-21.8873 138.334 -2.18548
-15.9912 128.783 -3.19996
-13.2765 110.887 13.0416
-17.9189 119.573 12.5412
-26.7743 140.779 5.63299
-23.2548 140.311 -1.43512
9.42062 84.1777 -3.10665
2.03713 84.8541 12.1837
9.77237 82.9581 -2.18983
-25.2608 137.532 6.61136
-14.917 114.265 13.016
-4.87867 97.9004 11.4481
-21.5669 138.387 -2.28422
-24.3961 136.467 6.30448
-16.2341 130.753 -4.35252
-4.30816 96.7907 11.6922
9.33061 85.4288 -3.77627
-18.2942 134.097 -3.84527
4.62174 99.2511 -10.5678
-4.30854 97.1846 11.533
-17.581 133.873 -4.91622
-17.1643 119.08 12.5137
-16.5278 132.589 -5.46134
7.03877 93.5643 -8.351
-24.1261 136.609 6.33237
-2.6386 93.1475 13.3534
-10.9084 108.319 12.5944
-9.2708 105.71 12.3941
1.29972 106.903 -12.0321
-10.9555 108.522 12.6043
-1.23423 90.3444 13.9448
6.26438 79.8828 10.5963
11.2147 80.7849 -1.21545
-15.6366 129.654 -3.19801
-0.686808 89.6328 13.7904
-27.8318 145.708 3.52399
-20.9835 138.769 -2.75603
-8.50834 120.923 -7.82195
13.1565 75.3515 1.40579
-16.7854 119.139 12.4687
8.75957 88.3023 -4.95139
-3.5799 96.5368 11.7525
-21.5731 127.931 12.0878
-7.4519 120.213 -8.91239
-20.3947 125.851 12.2672
9.40193 75.1966 10.1203
6.97786 94.7032 -8.64547
-1.92755 92.1196 13.9961
-23.6776 142.327 -0.708851
-23.1871 135.444 6.75519
-17.8313 134.854 -4.15426
3.26789 103.627 -11.3814
-26.71 145.079 2.56705
6.72657 79.8844 10.4417
-14.9513 116.342 12.5214
-20.8744 139.466 -3.08512
-20.4868 138.693 -2.96104
-5.06784 116.873 -9.38088
9.8519 85.699 -3.25939
7.54883 93.497 -7.81501
12.8215 77.5379 0.449889
-1.45458 111.8 -10.6162
-10.3304 123.514 -5.77882
0.184078 89.4189 13.5179
0.983882 108.785 -12.0128
-21.7229 140.457 -1.71453
3.25087 85.2479 12.2504
6.09747 97.6497 -9.24546
-17.6914 135.272 -4.00433
12.5709 78.9298 -0.166465
-14.1441 115.685 12.5293
3.83094 103.36 -11.2772
-8.84698 106.71 12.1893
-20.6924 139.366 -2.39116
-3.2673 97.603 11.4209
-14.3849 116.323 12.4603
-8.5965 106.498 12.0308
13.0671 77.4041 0.905902
-17.6505 135.406 -3.95186
0.153972 110.591 -11.9607
-14.1583 128.748 -3.27668
-13.7372 128.105 -3.39121
-20.8911 139.659 -2.07536
-14.9008 130.208 -3.22648
-1.23814 112.19 -10.5887
-3.11633 97.7623 11.3791
-8.04102 121.916 -7.72064
-7.20856 121.222 -8.66245
-21.1275 131.02 9.49608
9.3822 88.4706 -4.2441
-4.27072 116.478 -9.12932
-9.61985 108.374 12.5567
-22.7587 142.548 -1.01346
7.33214 95.7562 -8.59725
-11.2926 111.178 12.8382
6.38729 81.5983 10.9967
5.53662 82.5584 11.7501
-8.96789 107.787 12.1976
-5.35686 102.339 11.0927
-2.40383 114.018 -9.72693
7.42737 95.7162 -8.47242
-25.7603 142.336 6.096
-13.8298 128.898 -3.2045
-1.09198 112.477 -10.5581
1.38495 89.0855 13.0803
-20.778 129.382 11.4959
-20.9474 130.98 9.97683
-8.53888 122.897 -6.9567
-8.1254 122.521 -7.37363
-7.19255 105.852 11.2058
-24.3512 144.733 0.508253
-15.4669 119.603 12.2772
-14.8112 131.352 -3.59065
10.872 84.5017 -1.49775
-13.288 128.566 -3.25139
2.43467 88.2143 12.4698
-1.14513 93.6258 13.6124
-8.24353 107.648 11.7202
-10.5383 125.209 -4.89589
5.39246 83.6257 11.8732
-8.80428 123.603 -6.56415
-16.348 121.54 12.5311
13.3397 79.0628 0.495271
3.3677 106.013 -11.0047
9.407 79.1502 9.05453
-0.553762 112.829 -10.8078
-9.88057 110.39 12.4775
-14.2012 130.658 -3.11634
-14.1817 130.665 -3.11339
2.62178 88.5395 12.4674
-17.1663 123.406 12.4469
5.31286 84.2527 11.9696
-5.44989 120.215 -9.04411
-25.8611 143.49 6.66452
-17.5573 137.369 -3.75309
2.87221 88.3532 12.4178
-13.2886 116.911 12.3003
-1.2559 113.721 -9.89642
-20.0437 129.474 11.6241
-6.16125 121.501 -8.68537
-20.3547 131.824 9.45362
5.30023 103.263 -10.9458
-12.6371 115.989 12.378
-2.69696 99.9253 10.6444
-22.5012 137.967 6.71388
-13.1491 129.447 -3.04275
-8.39437 124.091 -6.75785
-16.8477 136.721 -3.90622
5.89852 102.04 -10.4604
-0.190192 113.139 -10.9345
7.69179 97.3035 -8.50277
11.9008 75.5179 9.29744
-6.34054 106.642 10.5628
6.16085 101.451 -10.1606
-24.508 146.302 1.12181
10.4067 88.3561 -3.14269
-1.54823 97.6838 11.5676
-6.61605 122.63 -8.20743
-14.9566 120.68 12.3893
9.54639 80.316 9.08084
13.625 79.9448 0.676225
-19.5575 140.733 -2.23995
-13.0586 117.632 12.2112
-13.1559 130.113 -2.97657
-10.8448 126.958 -4.05856
-8.72776 125.016 -5.98676
14.0262 78.5978 1.92065
14.5673 76.8285 3.03472
-25.7079 147.4 3.39224
-13.5049 131.245 -3.03295
-23.3549 145.798 0.409101
-8.69761 110.762 11.8505
2.04136 110.521 -11.1821
-19.7978 132.915 8.63345
7.56686 98.6889 -8.54875
-19.7517 132.563 9.0048
-17.2619 138.872 -4.1702
-20.2728 142.1 -1.58951
8.47339 96.4127 -7.59909
10.8047 78.9288 8.97997
15.229 75.0719 4.1658
10.4003 89.5738 -3.25238
-18.2362 140.555 -3.97199
-11.6107 115.635 12.4333
15.0468 75.7235 3.8068
-0.865344 96.9347 12.2161
12.3822 83.0215 0.645133
-8.06843 124.903 -6.58598
-7.77126 124.487 -6.69109
-19.1166 130.068 11.113
-15.9885 137.365 -4.68983
-17.6037 126.974 11.6855
5.19471 105.257 -10.879
-9.55662 112.589 12.1563
-7.21607 109.531 10.8549
-0.73102 114.851 -9.81138
-3.79291 104.277 10.0116
-10.7112 127.658 -3.78848
-22.4531 139.427 7.19966
-10.8869 114.762 12.5629
-25.291 144.403 7.29401
11.7237 85.9221 -0.894716
6.88977 101.774 -9.96456
11.9433 84.4732 0.431048
2.39411 110.575 -11.0541
10.7646 89.2405 -2.88253
-13.3457 131.833 -3.08746
-25.7677 146.063 6.3498
13.5983 80.4171 1.88569
-7.94592 125.129 -6.51123
-14.8596 122.086 12.3028
13.258 82.0945 0.610196
-1.22471 115.829 -9.57171
-13.3457 132.225 -3.48094
8.85346 82.0651 10.2346
-10.2995 114.089 12.3763
-18.6457 129.411 11.6209
9.52417 93.5927 -5.17454
-5.79444 108.247 10.0278
-9.86176 113.769 12.1679
2.62174 110.629 -11.0561
6.77617 84.8342 11.7927
11.8027 86.2838 -0.896538
-18.539 131.612 9.09517
2.02757 112.013 -11.3893
-4.87688 107.085 9.73043
-21.4574 144.674 -0.654243
-11.2715 116.384 12.2489
3.66614 89.8087 12.6999
15.3624 75.4352 5.03705
12.1663 77.8527 9.01566
6.27774 85.8354 12.0213
13.8691 78.0481 5.22207
13.8251 78.4166 4.86389
7.35507 101.606 -9.71795
8.19786 99.0749 -8.41398
8.08991 99.4416 -8.60455
15.1382 76.5533 4.35574
13.0052 80.5143 4.10404
-13.8121 121.132 12.262
-6.41159 123.88 -7.1934
-0.615106 98.6399 11.3952
-6.69353 110.051 10.5241
8.22164 99.1983 -8.45103
-24.9416 147.77 3.69889
-4.47855 106.987 9.63238
11.7031 87.4789 -1.43153
-7.82383 111.55 11.274
-3.91145 120.632 -8.28984
7.51704 84.5231 11.5134
-25.32 147.084 5.62163
-4.03547 120.968 -8.375
-17.8706 129.035 11.7808
-9.17557 113.736 11.8295
-1.25093 100.978 10.3739
0.920955 94.6704 13.5187
14.947 76.619 5.37026
-17.075 127.763 11.7985
-10.1172 128.165 -3.71084
-6.23899 110.073 10.2149
-6.88981 124.78 -6.52974
1.37203 94.0657 13.5844
10.2297 82.0462 9.2312
-23.485 142.934 7.42054
-7.55962 126.011 -6.22691
9.15499 97.4988 -7.30009
9.01929 98.0588 -7.62809
-17.9823 142.6 -3.89466
8.01752 101.368 -9.33163
-11.4608 118.33 12.0791
7.74555 102.161 -9.60736
-9.46537 115.067 11.8734
13.7461 79.606 5.23565
13.803 82.5766 1.47428
-21.786 140.87 6.97351
1.40444 114.695 -11.0431
8.69335 99.7834 -8.14356
1.33468 95.2656 13.4342
13.7969 82.5551 2.06552
14.7402 76.933 6.97964
1.24812 95.4783 13.4128
-18.2342 134.549 7.53439
12.9024 81.9802 4.86651
9.59041 83.4667 10.2441
7.13307 104.321 -10.1654
4.01027 91.2169 12.8263
-20.362 139.089 6.66741
-1.75788 104.109 9.45876
-13.9387 123.642 11.8427
14.0977 77.3043 8.19355
-21.9062 141.61 7.01634
-5.76708 110.901 9.90076
-16.0302 140.85 -4.77526
9.39416 97.9613 -7.01673
-2.38395 119.457 -7.93664
-18.3261 136.603 5.5651
5.50652 107.444 -10.2017
5.15672 108.158 -10.2927
-4.64492 123.36 -7.73992
4.01358 91.522 12.8342
14.8922 76.79 7.40332
-12.5622 135.148 -4.99553
-15.5043 140.273 -4.89855
-24.3087 146.772 6.34732
9.27684 98.7726 -7.30118
6.78987 105.634 -10.3206
-11.9506 132.59 -2.88546
13.6049 79.5082 7.1798
12.8518 85.2598 1.72931
-16.6675 129.627 11.0926
-19.747 139.01 6.20017
-4.78807 110.178 9.32078
-17.6593 143.6 -3.97149
-12.4663 121.583 12.0183
12.9253 80.3292 7.79394
-14.8418 139.415 -4.84056
7.83699 103.512 -9.75024
-5.73575 111.523 9.85511
-16.6684 142.384 -4.49397
-9.1267 128.653 -3.8372
1.741 115.294 -10.9467
4.25369 91.6807 12.7635
-10.5305 130.349 -2.84755
3.85975 112.003 -11.4528
2.23509 114.83 -11.3274
-6.94861 113.133 10.7487
11.5499 91.2917 -2.32367
-13.5958 124.216 11.6772
10.3961 95.8024 -5.1476
12.7628 87.4982 0.0843908
-23.5778 146.258 6.54483
-5.10777 111.51 9.35912
-17.361 143.921 -3.94547
-22.9564 148.785 2.21031
-9.274 129.43 -3.49366
-11.2042 120.386 11.8978
13.421 81.4087 6.60351
13.0532 86.6165 1.00848
12.9856 83.1035 5.57568
-23.5765 146.941 6.23397
-1.04748 104.936 9.26351
-11.2392 132.664 -2.78159
-11.8453 135.546 -4.98305
4.12788 112.85 -11.6126
-15.5694 141.868 -4.63435
7.84161 87.3479 11.8488
-17.4288 137.199 5.26817
4.47144 92.6945 12.7655
-0.91502 105.042 9.24216
10.3538 97.0905 -5.38552
10.9626 83.8685 9.65305
10.7962 95.7159 -4.54518
-0.0268184 103.193 9.80608
13.135 87.5049 0.688233
6.96142 89.1855 12.0841
-1.44103 106.575 8.93992
13.8871 80.9184 7.39415
-15.5798 130.017 10.7927
11.1888 94.4718 -3.47265
-23.4661 148.428 5.33995
-8.12763 129.236 -4.20664
3.28964 95.081 13.1979
-3.37699 110.46 8.72067
-18.0591 138.71 5.83453
-17.1733 144.887 -3.71755
13.0928 88.1689 0.572632
-2.13317 108.365 8.7256
-22.5171 145.969 6.67813
13.6453 84.2704 4.32225
-8.45926 117.617 11.2049
-16.2603 133.653 8.37615
11.0012 95.9951 -4.31239
13.4471 87.0377 1.46094
4.33147 113.252 -11.0356
8.95822 102.909 -8.28472
1.51131 117.653 -10.2011
-3.62917 124.103 -6.96789
-0.0683369 119.186 -8.63229
13.5366 81.7525 8.06818
-13.0322 125.625 11.6652
-23.1055 148.226 5.70281
12.7893 82.4719 8.93493
-15.4624 131.235 10.2395
4.92844 93.3627 12.7906
-21.5818 144.861 7.20005
12.5437 91.5524 -1.05137
-7.45067 117.241 10.7413
-18.1253 140.688 5.02488
-15.0751 130.723 10.7219
-5.61134 127.172 -5.39765
9.35057 101.966 -6.76793
-21.6942 149.491 2.10102
-12.7433 126.167 11.5668
-19.6724 142.17 6.86112
-13.2619 140.531 -4.93954
-13.4157 140.863 -5.00681
-15.9776 144.58 -3.9657
-12.7732 139.795 -5.00047
-8.22563 119.005 10.8686
-18.4911 140.567 6.56787
11.3258 96.6868 -4.02112
-5.32145 115.114 9.46628
-8.29466 119.232 10.9062
6.01893 92.7599 12.502
-16.8315 139.131 4.90092
-21.7411 149.654 2.57874
-22.5019 148.406 5.77886
-16.3741 138.428 4.83534
13.7206 88.0481 1.76534
12.7731 83.7811 9.10189
-2.58884 123.588 -6.62876
-21.8257 146.632 6.72236
-22.1737 149.577 3.8565
-22.1804 149.551 3.91449
2.61234 98.9319 12.5651
-10.9263 123.954 11.1193
-20.4531 149.326 0.708877
1.14899 119.204 -9.03
8.29976 89.6414 11.9592
4.83884 95.3139 12.5758
-2.61769 111.976 8.2719
11.8408 95.6242 -2.84416
4.02851 115.292 -10.1597
-13.0096 141.129 -5.0344
10.4018 99.8104 -4.82685
14.0565 85.8663 4.45923
12.6598 92.6888 -0.918109
8.95907 106.091 -9.3389
-5.37776 127.968 -5.18253
-4.91053 115.587 9.11344
9.18652 105.289 -8.70666
14.3218 86.8328 3.00352
-2.776 112.665 8.26538
-13.7163 142.662 -4.96365
14.0298 86.1553 4.60833
6.86861 111.102 -10.6176
13.2784 90.9879 0.305489
10.4151 100.147 -4.60957
-13.8347 130.05 11.1571
14.0031 86.3745 4.65423
-14.4761 132.229 10.0148
0.0314332 120.516 -6.99823
2.00659 103.276 10.035
5.60268 95.2753 12.2482
6.2406 94.2297 12.3156
-10.5369 124.841 10.9682
-13.9863 131.517 10.2719
-11.118 125.866 11.1237
0.597169 107.186 8.76297
13.0332 92.8367 -0.409126
-14.0095 143.669 -4.41656
7.33343 110.979 -10.4165
13.6026 87.2377 5.32034
-5.10632 117.122 9.19665
-18.2639 148.134 -0.488692
-18.7172 143.124 6.83881
-21.5296 149.05 5.63073
-5.95512 130.037 -4.71374
4.01914 98.3734 12.9253
-14.6601 145.352 -4.51024
-21.3527 148.722 5.87415
3.84808 98.8615 12.7073
3.97775 98.745 12.7675
-21.0709 150.101 3.79198
11.4505 98.6156 -3.28628
-7.92525 121.366 10.7352
9.73188 89.7802 11.5112
-0.156598 109.939 8.14323
-17.0511 147.153 -1.09575
-0.0787535 109.802 8.1711
-20.824 150.305 3.2342
7.35059 111.927 -10.5471
-14.3313 135.665 7.31385
13.5122 85.7604 8.46127
14.3819 87.8776 3.96747
8.35557 109.52 -9.58441
13.3947 88.313 5.66923
-1.43881 112.726 7.87009
3.98395 99.4398 12.599
4.0643 99.2578 12.6537
0.00552152 121.942 -6.52377
-13.8547 134.729 7.9939
-20.7838 150.087 4.13491
6.69662 95.4365 11.9336
4.9263 115.649 -9.18571
-17.8904 144.287 5.08911
-15.1294 140.345 3.99689
-0.541681 123.08 -6.30177
-16.6362 143.652 3.28928
1.96001 106.418 8.99408
-17.5413 148.415 -0.426323
-9.88326 138.45 -4.74568
9.35563 91.3416 11.6687
-12.1475 142.94 -5.31264
1.49231 120.534 -7.26756
0.926963 121.12 -6.74611
-8.9817 136.041 -3.58775
-16.4431 143.761 3.10676
13.7241 89.0842 5.10767
-6.66845 132.041 -3.62436
0.42429 121.91 -6.50309
-13.3702 134.591 7.93262
3.97183 117.841 -9.05942
-8.81615 135.634 -3.22623
-6.89404 132.384 -3.38455
10.0382 105.942 -7.47593
7.30212 113.114 -10.3851
-20.4309 150.376 3.91836
-2.36943 115.545 7.76321
7.96095 111.977 -10.1401
1.72593 120.646 -7.22904
-12.7904 133.192 8.82641
-13.6924 136.735 6.47508
-7.69219 133.542 -2.6169
-11.6606 142.805 -5.31553
-15.3264 147.279 -2.864
-16.0603 144.024 2.75422
9.26199 92.3463 11.5875
9.66667 108.468 -9.13394
10.6648 90.2056 11.2576
3.91847 118.531 -9.04335
-4.10427 118.528 8.40057
-11.0217 129.282 10.178
-13.4691 136.026 7.20039
13.2328 87.8157 8.74881
-13.9567 138.585 5.19654
-12.2895 132.322 9.35336
7.78838 95.2132 11.5825
13.9425 89.8287 4.91734
-9.0694 125.673 10.6788
-5.33881 120.316 9.21517
4.4551 100.435 12.5383
7.09514 96.2217 12.0865
11.1441 89.9956 11.0276
-15.7702 143.773 3.15109
10.4717 103.505 -4.11427
-2.73574 117.276 7.58713
-5.41187 120.653 9.23201
-13.2397 137.195 5.94306
-7.70817 123.899 10.3731
10.1744 106.162 -6.47527
-19.5272 150.854 2.88582
13.6155 89.1418 7.0918
-0.559203 124.653 -5.88609
12.5546 88.7381 10.0268
9.7178 109.202 -9.06031
-11.7064 131.829 9.57804
-10.8937 142.496 -5.31856
-9.6439 140.076 -4.95666
-11.8411 132.402 9.33576
8.67681 94.6818 11.4018
-10.3486 129.379 9.92649
4.97901 117.65 -8.87882
9.98389 108.325 -8.21192
10.5858 103.909 -4.05406
9.6462 93.1503 11.3646
14.3635 90.4966 4.39707
7.95026 113.408 -9.90622
2.82263 107.274 8.84878
3.60426 120.273 -8.84767
13.3285 89.0387 8.76267
-19.1845 148.121 6.52408
10.5374 105.422 -5.28532
-12.0787 144.9 -4.89573
0.441832 112.885 7.4742
-9.56125 128.285 10.2068
-17.9486 150.777 0.670047
-19.0906 151.062 2.90225
-6.15143 123.15 9.3435
-19.2276 148.829 6.07731
-15.4517 145.196 2.40219
13.3837 89.5337 8.52134
-13.8294 140.144 5.24049
11.4583 91.0663 10.9207
2.82949 108.098 8.6402
-11.4026 144.37 -5.21681
-6.99657 124.439 9.84222
-0.120064 114.411 7.34975
11.516 91.0778 10.8878
4.59747 119.271 -8.89986
-6.18596 123.48 9.34609
0.224649 113.92 7.332
-5.15124 122.232 8.75369
9.73516 94.0712 11.2191
-5.86847 123.211 9.14177
4.81294 102.522 11.5476
14.0033 91.3556 5.42948
-14.9617 148.673 -2.39574
-4.50323 121.556 8.37376
-11.7473 134.814 7.77384
-11.2794 144.537 -5.23575
-7.95088 126.102 10.3353
-16.8549 146.372 4.72922
4.32999 105.117 9.66367
12.7734 90.0331 9.95961
7.15082 116.193 -10.0006
-11.6272 135.352 7.34276
-18.9062 150.109 5.08202
10.3277 107.48 -5.79448
-5.54054 133.28 -3.15333
5.58156 101.141 12.4063
-8.76431 140.04 -4.44381
-14.7002 144.826 2.61558
-8.79203 140.247 -4.51371
9.43261 112.06 -9.24604
10.8279 105.392 -4.01187
10.5488 106.71 -4.98804
1.47121 112.629 7.49578
12.6046 100.069 -1.13589
-14.8332 145.745 2.17508
-7.89117 138.607 -4.08749
-9.11165 141.467 -4.94311
4.10167 121.048 -8.38642
7.66513 116.068 -9.94212
2.37392 122.534 -6.40355
3.66714 108.021 8.7707
14.5277 93.4523 3.18753
-14.4959 143.953 3.89556
6.79498 117.93 -10.2198
14.8457 91.9976 4.32961
-10.3034 132.319 9.23402
11.8386 92.1643 10.7982
-2.87609 120.716 7.5225
10.6484 106.784 -4.63078
-13.0087 140.285 5.44495
14.3428 94.9925 2.01059
-11.643 137.969 5.4124
-7.00726 136.232 -2.44863
7.44708 117.835 -11.134
6.77676 118.309 -10.1737
6.57265 118.423 -9.82405
5.01477 120.12 -8.50311
13.3721 98.6762 -0.0368152
-15.518 149.893 -0.443139
-8.18323 128.62 9.89934
5.82447 102.252 12.1501
12.5146 101.576 -1.51361
-2.41103 120.701 7.30066
-5.48792 134.189 -2.63
10.3747 109.687 -6.79813
-18.0573 150.921 4.12862
-14.9846 146.7 2.71226
-10.2894 133.427 8.91402
-11.3489 137.803 5.82879
9.23662 96.8536 11.7166
9.87657 112.374 -8.84672
6.90093 118.856 -10.3614
7.53616 118.329 -11.0304
-9.61971 132.317 9.06375
-2.17035 130.074 -4.2603
4.81119 106.825 9.30279
1.35255 124.939 -5.52056
13.63 98.6955 0.297047
-3.17725 131.823 -4.08406
11.332 94.1465 10.9381
-9.80142 144.608 -5.38662
8.66199 98.1134 11.9615
-17.7335 149.916 5.36583
5.07644 120.797 -8.20788
4.84849 121.758 -8.85427
-14.2844 146.589 2.14244
-8.54576 130.693 9.33185
13.677 92.9614 7.64539
14.8884 93.095 4.8514
4.2905 122.933 -8.95142
-9.18029 132.049 9.08068
14.4215 93.0038 6.0331
10.6437 95.6844 10.9689
13.3069 99.9596 -0.0994001
9.1027 115.689 -10.2542
10.932 108.775 -5.66893
-9.32 144.011 -5.10351
1.81442 114.558 7.11158
7.99466 99.8419 11.8676
9.37035 97.4222 11.8887
11.1183 107.798 -4.72656
11.1345 107.348 -4.13358
10.2887 112.397 -8.52999
12.8231 101.958 -1.0915
13.3452 93.0858 8.75585
-13.3583 144.754 2.97941
14.2293 97.618 1.41458
10.3624 112.331 -8.29764
11.6536 94.5493 10.8705
-12.4147 141.74 4.96197
-5.52317 126.69 8.64834
8.26662 99.9343 11.7933
-13.2675 150.352 -3.59095
-7.69985 141.052 -4.16197
-15.5699 151.396 0.205599
-16.5164 148.759 5.59823
14.3989 97.2509 2.14505
10.5735 111.752 -7.40697
-1.49435 121.515 6.8248
-9.6846 136.176 6.53227
9.95217 114.753 -9.68207
-15.281 148.379 3.66038
-6.27671 137.964 -3.03124
-16.3026 148.68 5.5782
13.144 101.864 -0.572156
-7.96638 131.065 9.24242
1.80119 125.753 -5.41655
9.85764 115.041 -9.65263
13.311 101.392 -0.294304
-1.41349 121.595 6.79487
8.11792 117.591 -8.88797
-9.03781 133.649 8.62383
-2.20099 131.815 -3.94824
14.4668 94.027 6.54575
-3.0258 124.088 7.46673
7.01925 102.8 11.9352
3.9657 111.439 7.91938
-6.88729 140.153 -3.93972
2.74413 114.306 7.17018
6.22631 122.443 -10.4279
-12.7831 144.974 3.09156
1.276 117.42 6.63089
13.7627 94.1529 8.36178
-12.1204 150.092 -4.48372
14.4088 97.9074 2.33593
-0.638613 129.764 -4.31248
-10.0587 147.412 -5.628
11.6179 106.407 -2.08029
12.9763 102.935 -0.742866
11.8706 95.6604 10.7665
-7.99765 132.119 8.99702
12.537 104.242 -1.19259
4.26358 111.366 7.98939
4.50253 110.752 8.24236
4.37504 125.058 -9.15377
11.9573 95.7943 10.6091
14.7718 95.9491 4.33276
1.96978 116.664 6.61424
-6.86021 140.8 -3.95633
-10.5037 148.585 -5.60309
-10.0886 147.888 -5.61664
4.46895 111.193 8.08923
-14.5214 148.661 3.08426
14.53 95.2007 5.99221
12.612 104.288 -1.06265
-12.9119 151.066 -3.33219
13.6042 101.595 0.175048
-0.518277 121.271 6.57154
-7.8147 143.114 -4.48835
-0.509148 130.17 -4.34795
14.3307 98.7985 2.1614
9.08599 115.64 -7.16431
-8.64006 145.332 -5.24799
-4.5488 135.852 -2.42565
13.9385 95.7211 7.02828
1.648 127.213 -5.01849
-15.9479 150.663 4.26097
-3.68699 134.708 -2.62495
14.546 97.6621 3.53045
14.4743 98.5175 2.7851
-12.2123 145.191 3.25128
-2.71947 133.689 -3.16621
0.86306 128.692 -4.72706
-15.0571 149.83 3.91321
10.2288 114.35 -7.20922
-11.4294 141.769 6.04204
-10.4106 141.069 4.69641
6.68091 123.548 -10.7513
-14.1446 149.18 2.9575
-0.207932 121.879 6.42517
2.71907 126.601 -5.74772
-2.88797 134.147 -2.86778
11.7563 110.565 -5.53351
-5.10152 129.122 8.40067
14.4552 96.5456 6.18702
-12.7207 151.666 -2.83462
1.02645 120.171 6.29679
1.9575 118.642 6.36067
14.4364 97.8074 4.98662
8.94351 116.814 -6.52425
5.67997 125.486 -10.1369
-11.9581 145.01 4.11955
2.49004 117.768 6.42901
6.86443 124.24 -10.9802
-9.26175 140.458 4.03976
3.56286 126.751 -6.88789
7.51953 122.359 -10.0573
14.3131 99.4884 3.44965
-3.58516 127.43 7.83928
0.487602 130.531 -4.79642
-6.73266 142.835 -4.23703
4.88978 126.224 -8.96619
-10.139 149.708 -5.30965
0.377787 130.839 -4.79856
12.4336 106.122 -0.381498
7.54136 105.71 10.7845
13.8598 96.9087 8.05051
-13.4595 152.349 -0.949133
14.3384 97.1862 6.81321
-7.44978 144.903 -4.75718
-7.72292 136.569 6.16541
-11.301 145.962 2.41313
-7.421 135.553 6.83871
12.7536 105.526 0.107848
-5.10957 139.389 -2.85001
13.1987 97.5699 9.05943
-10.2001 141.815 5.26267
-10.0321 150.025 -5.19916
13.9881 102.835 0.900512
8.83921 118.415 -7.1122
-3.77995 128.594 7.79997
12.854 98.21 9.23891
2.32553 119.268 6.2478
4.99889 113.547 7.59691
-2.98912 135.864 -2.55263
-5.19211 130.842 8.50481
14.218 97.6396 7.47719
-11.0665 145.786 3.01778
-5.77771 142.161 -3.94875
-12.2056 152.683 -2.92914
12.706 107.12 -0.692611
-8.50003 140.613 4.07821
3.48021 128.093 -6.30712
9.82176 114.829 -3.69794
4.91211 127.066 -8.12992
0.212838 123.854 6.11705
9.21333 120.364 -9.07728
3.97773 127.637 -6.67843
-8.22917 140.396 4.12402
-3.99253 138.184 -2.31847
-9.90476 142.31 5.49487
-6.92793 136.427 6.35074
9.07345 119.034 -6.90222
12.6847 110.581 -4.25921
-13.8251 153.212 0.739812
-7.72173 139.384 4.55874
3.01787 119.127 6.25174
-5.28449 132.074 8.34469
-13.9292 151.755 2.82609
-1.96548 135.213 -2.72068
4.38758 127.572 -7.08179
11.0866 100.891 11.3426
-9.79118 142.401 5.4477
2.65983 129.584 -5.77143
-7.30309 137.956 5.55026
9.19391 119.791 -7.72015
-5.59129 142.813 -4.01392
8.47004 123.806 -10.8261
-8.29638 141.297 4.01263
4.21422 117.137 6.67472
3.58778 118.52 6.33646
14.3572 100.595 5.10588
-2.45768 128.443 7.25582
-9.95582 142.897 5.80649
2.04604 131.047 -5.63306
11.3199 113.024 -3.43064
9.29804 117.402 -4.37487
9.09413 122.096 -9.72486
-11.4114 149.882 0.619828
14.3895 99.5724 6.70413
-13.3326 153.453 0.404024
14.2318 102.442 3.5245
14.373 101.129 4.9105
4.13386 128.809 -7.00877
13.3859 105.628 1.58149
8.48018 121.656 -7.46967
8.93118 119.412 -5.61067
5.98244 127.575 -9.24362
-2.54023 129.32 7.16665
4.97566 128.012 -7.54467
-0.747321 134.822 -3.49792
-13.2337 152.659 1.62087
0.938045 124.43 5.71711
7.28895 126.917 -10.8827
9.16506 105.218 11.886
-6.16907 136.892 6.11755
-9.84852 151.852 -4.27038
8.72232 121.383 -6.9816
5.2017 128.155 -7.6927
8.76942 122.532 -8.29362
-3.24285 131.104 7.27255
14.5725 100.419 6.49161
2.98285 121.408 5.76926
-4.74763 133.214 7.99638
-9.40723 151.584 -4.47254
13.2037 111.137 -3.6417
0.483122 125.853 5.8293
-6.48533 146.769 -4.84649
4.75216 117.824 6.58119
-9.72773 145.732 3.62834
0.288117 134.518 -4.27532
4.16013 129.905 -6.90739
-6.39564 146.882 -4.83863
-8.42575 143.093 4.36513
-5.38595 144.772 -4.273
3.87397 120.223 5.9916
-6.70078 147.913 -5.14501
7.21019 111.768 9.29467
1.16549 125.488 5.49781
5.59263 128.656 -7.98022
5.04331 129.207 -7.4514
12.4295 101.919 10.2641
12.1347 102.272 10.5334
13.5237 109.104 -0.806718
-9.54806 152.327 -3.99556
-2.86165 131.684 6.97517
-8.05847 143.225 4.01563
6.83906 128.274 -9.65759
10.7206 115.589 -2.37099
-0.685648 128.453 6.57639
2.682 123.487 5.4174
-10.5914 153.544 -2.85639
14.6632 101.894 6.15015
14.5155 104.935 3.13467
11.6809 113.552 -1.2186
14.1527 102.692 6.83234
-6.08693 147.903 -4.9372
10.9347 115.336 -1.65091
1.86912 125.814 5.217
-4.31388 135.077 7.2204
13.5388 103.064 7.98446
13.8333 109.677 -0.605189
8.10689 110.665 10.6331
-2.57618 132.53 6.8428
14.8429 104.131 4.17711
4.11398 131.823 -6.57576
-9.53666 150.788 -0.271422
6.26987 129.867 -8.71799
-9.61617 150.924 -0.20155
10.7253 118.936 -4.85688
14.7024 105.037 3.7607
9.06358 126.811 -10.7973
13.1749 103.317 9.36057
11.6202 104.78 10.9407
2.26074 125.975 5.10935
14.1206 107.485 2.21061
-7.89412 151.701 -4.52981
6.58679 116.11 7.96569
14.9469 104.323 4.3834
0.705827 136.395 -4.15119
9.82024 122.306 -6.52913
14.9618 103.858 5.12304
1.14484 127.847 5.56757
13.8176 104.474 6.94656
-1.30144 138.844 -2.57425
-0.379039 129.948 6.41016
-3.04616 134.239 7.13171
11.2065 118.383 -4.25172
13.166 104.078 9.17238
7.04077 115.162 8.79594
11.7111 116.586 -3.07303
7.46286 129.822 -10.0601
7.40446 114.316 9.2842
12.1506 117.887 -5.43192
8.43625 128.829 -10.7435
11.4432 118.008 -3.90564
-8.66952 145.209 6.25064
12.3051 105.284 10.0142
12.6551 105.004 9.66065
9.12209 125.708 -8.23503
0.154414 129.97 6.01434
0.161395 137.606 -3.41534
9.12558 109.893 11.357
-3.47055 144.336 -3.67562
-4.17293 138.092 5.56764
6.65952 130.87 -9.04063
14.7256 104.939 5.47273
12.753 105.17 9.50724
13.9612 110.956 -0.205484
13.1248 104.972 9.07361
10.7089 120.997 -5.45181
-5.56776 142.156 3.79605
-4.54721 146.969 -4.36523
4.70276 122.959 5.21674
-2.07104 133.639 6.78633
9.40883 125.33 -7.87399
13.9797 110.935 0.0274171
-5.16963 148.556 -4.75875
13.7232 105.532 7.33067
-2.69948 142.857 -3.05462
9.6486 109.301 11.5894
5.22491 132.092 -6.9453
-9.91579 154.064 -1.0755
5.97666 131.817 -8.03713
-4.01202 146.271 -4.13869
-6.95965 144.499 4.47645
12.1483 119.878 -6.59882
5.94565 131.911 -7.95952
-4.40829 147.227 -4.36584
7.52157 130.699 -9.86965
2.19907 128.111 5.04782
11.833 106.698 10.5751
9.86098 126.275 -9.05401
14.6706 107.697 3.48593
-8.95293 152.898 -0.974746
12.4169 119.839 -6.54975
-1.58136 133.868 6.73803
9.95742 125.514 -7.93752
11.9031 107.211 10.4713
7.74969 115.284 9.56425
9.50031 128.449 -10.4742
9.17733 111.469 11.2053
-6.86404 152.243 -4.28836
0.598193 138.542 -3.47133
5.03267 133.216 -6.49811
12.1256 120.31 -5.94795
14.6932 108.447 3.1437
11.4484 121.586 -6.02625
11.5441 107.747 10.903
4.50067 125.033 4.87973
7.30837 117.033 8.66088
14.6355 106.512 5.8057
12.1085 107.511 10.0644
14.3422 110.872 1.07477
5.89238 121.662 6.11366
12.1167 121.279 -6.84265
12.2863 107.57 9.75468
12.3655 119.433 -5.03622
-4.05272 147.799 -4.34569
10.6606 123.841 -6.72448
-3.67912 147.074 -4.15412
-6.17016 144.704 4.19907
10.9336 122.286 -5.27528
11.1137 122.137 -5.46966
11.4877 108.33 10.7997
12.721 116.555 -1.845
12.397 118.292 -3.12015
11.1072 122.083 -4.999
4.22114 126.365 4.70607
7.67737 131.612 -9.25949
-8.00786 153.767 -2.50225
11.0173 123.235 -6.08254
11.0866 122.091 -4.7776
10.0117 124.156 -4.98716
-4.51305 149.383 -4.56168
11.1171 122.019 -4.67996
10.3133 110.502 11.3754
-2.0432 144.172 -3.26233
10.8421 122.498 -4.38099
3.47579 136.927 -6.1252
-2.7861 138.781 5.21343
3.72156 127.806 4.62875
11.8341 121.009 -4.45775
11.8253 109.441 9.95318
15.0105 108.114 4.68171
11.147 123.834 -6.33279
10.7699 110.224 11.3233
7.76894 131.99 -9.02874
10.6828 125.738 -7.4445
2.88441 137.665 -5.18347
13.4213 117.582 -3.27421
10.3477 111.333 11.1517
7.74164 117.541 9.1588
6.59556 121.226 7.11739
13.464 108.301 8.18634
-6.39014 145.681 5.20828
3.36856 137.407 -5.75567
8.85933 114.491 10.6336
2.75922 130.116 4.62501
10.5449 126.483 -7.71568
12.7118 121.832 -6.65719
15.1078 109.606 3.24531
-1.28848 135.864 6.49088
13.206 118.106 -3.01846
-0.91796 135.468 6.24188
11.895 121.077 -3.8237
13.4243 108.719 8.17444
9.62199 125.599 -4.33931
15.0715 110.702 2.35345
7.08957 120.224 7.94453
-0.854799 142.829 -2.70382
13.5041 118.008 -3.22109
-2.479 139.565 4.94867
0.743738 140.403 -3.05924
-2.78413 140.34 4.70978
14.3315 111.953 2.57897
10.6896 125.192 -5.64465
6.17123 134.358 -7.12955
13.7477 108.988 7.74892
1.16349 132.922 5.58821
-8.43435 154.777 -0.533647
6.56464 122.462 6.87992
12.9272 122.62 -7.06094
2.11056 139.254 -4.0594
9.8937 113.453 10.9458
0.580461 134.227 5.59119
14.6861 116.28 -2.80201
-0.215335 142.498 -2.75676
-5.46073 152.52 -3.66101
-4.81711 144.971 4.28155
12.4406 120.574 -3.06104
2.52889 131.916 4.52311
13.0577 119.501 -3.00523
11.1248 127.099 -8.13036
0.240363 135.238 5.53509
13.5505 114.046 2.88106
0.00689785 142.479 -2.79784
10.7783 126.954 -6.97213
-1.54863 138.698 5.34777
-1.79669 146.388 -3.58607
13.8118 122.116 -7.47213
10.8682 126.917 -6.97375
-3.20203 143.23 3.46855
11.1559 127.171 -7.88036
11.4102 125.398 -6.01342
-5.15276 145.458 5.30721
11.0428 122.625 -1.65468
15.5304 119.915 -8.04844
13.6933 118.103 -1.72319
-4.62131 145.107 4.73671
7.11512 122.108 7.69661
14.7932 116.469 -2.02204
8.48091 133.213 -8.96487
11.2006 122.45 -1.5663
13.8132 122.443 -7.23306
6.97494 134.89 -7.67688
14.33 122.282 -8.01792
9.63458 132.294 -10.1532
0.463985 142.555 -2.86906
-7.19973 154.343 -0.758241
-4.40481 145.062 4.67792
15.4696 120.606 -8.28232
10.2625 131.143 -9.92677
14.5619 122.101 -8.07216
12.9074 119.267 -0.941203
-3.96754 151.641 -4.1921
13.0315 117.426 1.1555
4.75207 138.499 -6.79854
-5.00095 152.763 -3.17993
10.0671 131.716 -9.92464
15.7831 120.436 -8.37731
-3.90099 145.197 3.84158
11.0463 113.268 10.8847
13.8093 111.141 7.61541
11.8333 125.848 -6.25173
15.0827 112.245 3.51601
6.94882 135.608 -7.62443
-4.7928 152.738 -3.18305
-2.7923 150.181 -4.32732
11.6677 127.366 -7.47967
10.794 127.879 -5.95769
13.8705 118.867 -1.3171
-0.561774 138.856 5.42898
3.3752 132.969 4.14965
13.7381 123.668 -6.88235
9.93753 132.934 -9.99405
9.6 133.319 -9.72846
10.6296 124.74 -1.35985
6.87187 125.935 5.34155
4.07406 139.656 -5.51732
10.8527 114.495 10.8981
0.72711 143.403 -2.77259
8.47664 134.756 -8.93214
4.45687 131.429 3.92426
10.4019 128.564 -5.44423
10.9644 127.291 -5.07919
13.6109 118.132 0.555938
0.864998 143.293 -2.80058
16.3686 120.805 -8.69012
3.25479 140.358 -4.33917
8.98393 134.323 -9.21443
10.3427 124.972 -0.604989
14.7679 111.914 5.97294
-3.03717 145.468 3.22773
10.2571 128.865 -5.14927
13.3398 119.973 -0.795411
8.78063 119.389 9.8825
0.0157539 138.245 5.73481
3.46826 140.413 -4.44537
13.0025 123.028 -3.6838
12.9064 124.194 -4.89716
12.9625 113.268 8.52904
7.64548 123.288 7.76144
10.6704 125.412 -1.41104
14.088 124.232 -7.34594
13.3714 117.185 2.92713
-2.27592 150.518 -4.15649
12.404 121.832 -0.615907
7.66915 123.509 7.61965
14.5503 114.628 3.69561
13.5392 118.366 1.28024
-0.0972608 146.128 -3.29219
16.4929 120.616 -7.81539
6.01476 129.267 4.33788
14.1924 119.331 -1.08338
14.8347 113.572 4.72479
12.1136 127.207 -6.20331
8.15102 136.233 -8.64515
12.0713 114.649 9.50883
9.97159 117.52 10.5706
13.9866 124.954 -7.22177
13.9396 125.011 -7.16101
12.3148 127.89 -7.1601
4.478 140.365 -5.49857
12.4567 123.321 -1.75537
6.56564 138.22 -7.33892
9.89481 134.298 -9.70157
11.2046 128.83 -5.7398
14.8139 117.842 0.0278188
0.396286 138.769 5.54892
5.04613 140.198 -6.28477
11.3134 127.398 -4.03545
12.7574 125.556 -4.84772
13.3847 123.976 -4.15928
4.7302 132.852 3.71983
12.7311 125.034 -3.91871
13.118 118.93 2.8077
13.6596 121.53 -1.56086
12.626 122.704 -0.742887
11.7839 127.595 -4.93811
12.6502 127.582 -6.75483
14.5793 114.064 5.78294
13.0224 122.486 -1.16669
17.1737 120.448 -7.66225
15.7976 116.855 -0.154422
4.25112 133.742 4.10137
10.2004 127.465 -0.926185
2.67629 136.336 4.47008
10.6193 126.17 -0.096073
13.5168 120.797 0.277038
10.8302 125.48 0.350176
15.4089 117.609 0.182133
17.6323 120.812 -8.58518
13.8696 121.806 -1.56228
13.4038 126.869 -6.75646
11.0333 128.232 -3.27834
13.086 119.038 3.69558
1.09665 139.116 4.99861
11.9711 128.885 -5.96922
10.8816 128.416 -2.94671
14.373 126.133 -7.68126
10.7836 127.498 -1.55355
14.4638 120.117 -0.432494
13.0685 122.747 -0.644632
2.40032 137.421 4.43541
14.4279 119.919 -0.0507705
12.7601 128.14 -6.56171
3.94917 141.867 -4.2645
14.3056 114.608 6.90862
11.0676 130.073 -5.12465
3.35999 135.898 4.43348
11.8386 129.663 -6.23817
-4.13084 154.317 -1.97744
6.81997 139.642 -7.5672
14.0638 121.817 -1.2781
14.503 119.239 0.961604
17.5035 119.938 -6.36564
7.94439 126.669 6.13343
17.9216 119.666 -6.85751
14.538 120.487 -0.500534
15.9387 117.315 0.418456
11.9284 127.723 -3.68214
13.2141 128.058 -6.79387
10.9701 128.482 -2.4387
3.13794 143.148 -3.47471
9.25371 137.127 -9.27261
9.85949 136.35 -9.5527
14.1004 115.504 7.01496
12.9601 128.208 -6.13837
-4.11751 154.635 -1.61358
11.7364 129.574 -5.08864
3.50729 136.875 3.89394
12.9846 127.936 -5.65894
10.9597 134.591 -9.32016
13.0068 118.851 5.71192
12.3034 130.05 -6.53866
-0.57816 144.778 3.30789
12.5473 130.384 -7.39812
11.2885 125.974 0.817107
12.7911 129.756 -7.09721
12.8151 128.219 -5.24627
4.65485 135.613 3.61339
12.756 128.293 -4.9202
-2.88937 153.864 -2.40737
13.1239 118.865 6.08657
11.5055 118.6 9.94553
13.9952 122.694 -0.492765
11.3287 134.369 -9.116
-0.940347 146.085 3.11246
4.98993 135.499 3.30714
17.8313 122.345 -8.25213
11.9828 125.484 0.591517
1.43801 147.21 -3.17424
15.6459 125.996 -7.67073
2.43748 139.841 3.94738
14.8712 127.352 -7.63534
8.01405 128.688 5.71568
12.8784 119.797 6.17288
13.2753 123.428 0.860922
5.65951 134.913 3.34262
2.52115 140.049 3.86188
9.66103 122.866 9.65542
14.6802 121.879 0.0110045
13.4444 128.903 -5.92227
12.5251 125.133 1.02559
13.3573 117.857 8.2268
17.5357 123.584 -7.92495
14.7259 121.861 0.413671
12.3215 130.083 -4.46138
11.1733 120.531 9.83615
8.41512 128.233 6.43432
13.3417 118.063 8.2926
12.8303 129.17 -4.31641
13.5633 130.112 -7.02221
12.5454 118.917 9.1106
17.5152 123.931 -7.81242
4.24197 144.107 -3.86481
6.51803 134.184 3.50848
14.6737 121.389 1.68083
19.389 120.067 -6.7881
13.1541 125.129 0.536615
6.81405 133.654 3.7935
14.7524 122.799 0.250432
8.32862 127.649 8.2659
-1.70126 153.931 -2.37893
12.3862 119.834 9.1532
12.7959 133.144 -8.13821
6.71476 134.496 3.43356
10.2109 123.269 9.82192
17.5185 124.587 -7.66627
12.5216 126.28 1.11855
9.34904 139.583 -8.31968
2.96514 146.677 -3.13083
12.3935 120.279 9.01094
6.38678 135.597 3.26207
16.7704 126.118 -7.58807
11.9164 121.05 9.23163
7.85973 141.7 -7.40271
13.7908 124.378 1.24022
16.268 119.633 1.88008
13.7811 124.179 1.73632
17.5272 117.602 1.87164
6.09961 143.673 -5.47595
13.8722 121.673 4.91907
10.0535 125.434 8.59123
8.33838 131.176 5.25171
7.34177 134.227 3.69792
16.7686 119.248 1.85972
5.85895 137.49 3.10944
8.07565 132.468 4.51528
11.3893 124.995 6.58246
7.20697 134.983 3.36348
14.1124 124.555 1.31846
10.4798 125.705 7.79482
8.4709 130.457 6.36478
8.48647 130.539 6.23243
14.5972 130.711 -7.15179
14.399 122.28 3.7261
0.910581 146.557 3.06901
9.48811 126.601 9.1357
10.1649 139.072 -7.58576
19.956 121.716 -7.31898
12.8272 122.488 7.30181
14.6425 122.632 3.24332
4.98678 139.499 3.42359
18.3458 124.799 -7.33163
10.5141 126.588 7.59012
13.2997 122.605 6.64084
13.5723 126.539 1.36344
11.8149 126.182 5.69856
3.21645 148.43 -3.09114
1.01048 147.174 3.40646
13.4003 123.832 5.34185
16.1228 129.285 -7.30158
17.828 118.854 1.98573
1.78142 146.166 3.17408
20.6806 120.91 -6.64185
5.49428 139.55 3.35144
6.55217 137.977 3.06465
13.9406 124.229 4.13708
15.7456 130.298 -7.26245
13.065 135.206 -7.36539
14.598 125.576 1.27814
14.2016 132.032 -5.79268
9.78982 141.113 -7.1827
6.88324 145.174 -5.7565
6.56505 138.724 3.03949
15.0495 124.363 2.61115
5.55871 146.436 -3.94058
15.6441 123.358 2.72699
4.40659 148.146 -3.31174
14.1655 127.165 1.43665
13.861 126.076 3.54138
16.3418 122.578 2.52128
13.5767 133.993 -5.47558
8.50032 132.931 6.93119
20.89 121.826 -6.19706
19.8539 123.87 -6.46322
10.4737 128.597 8.1017
13.1922 135.865 -6.74493
9.81506 129.96 7.93141
11.1378 128.092 7.38165
7.96784 144.959 -6.46054
15.8398 131.216 -6.57607
14.0583 134.02 -6.1215
14.3459 133.032 -5.45549
11.1944 128.269 7.28856
17.8028 120.662 2.3934
14.227 133.707 -5.76728
5.53752 147.271 -3.53607
