ply
format ascii 1.0
comment Created by Open3D
element vertex 1937
property double x
property double y
property double z
end_header
7.52986 83.3155 12.1765
-16.9176 103.809 20.4187
-19.9528 119.495 -1.41931
-26.4493 118.845 11.4847
-29.8556 127.91 1.82265
-12.9439 101.191 18.0988
-27.3255 115.401 19.1874
-33.546 130.217 4.69149
-24.5401 110.661 22.5729
-31.7384 131.297 -0.296027
1.38767 100.168 -5.51937
-24.7631 122.951 1.74921
8.31292 81.6297 14.3438
-28.1481 123.384 7.1058
-32.8753 131.683 1.25048
7.20159 84.6711 11.2082
-1.20583 87.9905 20.5764
-33.3444 130.889 3.57474
-30.5585 131.208 -1.93589
6.11755 81.5378 18.7965
-30.3904 128.204 3.0864
-26.7488 121.143 8.86102
4.59533 95.3331 -2.35169
-15.6773 116.051 -2.01859
-0.154915 102.503 -6.28751
7.16575 84.5549 11.8548
-4.60703 92.1073 19.8919
-11.1128 112.058 -3.11606
-11.7334 100.504 18.1907
-5.66833 108.322 -6.25905
-6.72893 109.169 -5.73699
-17.4941 104.489 21.7459
-23.5617 122.855 0.705743
-15.258 103.759 19.1018
-19.303 105.374 23.5564
-8.04232 110.45 -5.46421
-29.4658 127.907 2.60585
-27.8732 123.796 6.94355
-27.4916 122.657 8.34932
-23.4399 123.06 0.418419
-26.2895 119.567 11.6568
-26.1759 127.734 -2.74194
-27.463 118.907 15.0688
-19.2354 119.91 -1.40961
7.6999 87.7197 6.32654
-14.2058 103.419 18.318
-0.92365 88.3853 20.6674
-6.1333 93.5199 21.2237
-27.3174 129.365 -3.13371
-26.8833 127.281 -0.277676
-9.08035 96.163 22.0029
-27.5831 124.092 6.59815
-22.1628 109.488 22.3153
-24.7293 124.918 0.155961
0.00765993 103.09 -6.19772
2.83973 99.2658 -4.58705
7.4886 84.9938 12.0358
-4.62275 108.249 -6.70513
1.94021 100.676 -5.27014
-8.86012 96.498 21.4515
-8.79283 96.7913 20.8649
2.74083 99.5903 -4.68018
-32.8759 129.829 6.65531
-27.677 118.941 16.3901
-26.5307 121.71 9.62791
-25.5663 124.734 2.63546
8.13853 87.3074 7.32619
-25.4595 124.869 2.23325
-25.2256 126.496 -0.933201
-9.25036 98.4182 19.416
-27.2979 122.967 9.10101
-32.7621 132.575 2.1884
-5.32679 93.5249 20.953
-4.35997 92.9612 20.2999
-25.9437 128.442 -2.66321
-19.902 107.439 23.0883
2.40873 86.3332 19.8118
-4.53325 108.731 -6.71193
-17.3154 105.338 22.179
-27.5531 123.949 8.17152
-23.2343 111.692 21.7632
7.57566 89.3917 5.3299
-27.6318 125.853 5.04315
-29.7937 129.045 3.40585
-26.699 125.875 3.38965
6.54057 93.6319 -0.0978879
6.99166 92.9239 0.436269
-10.7439 101.294 17.7822
-26.3524 127.775 -0.288144
6.24321 94.3356 -0.510421
-29.9863 128.834 4.48761
-19.5425 107.402 23.057
-18.0439 106.071 22.7471
-21.5759 110.25 21.8104
4.67606 97.2848 -2.68984
-8.5986 112.459 -5.2603
-21.2487 109.943 21.8849
-18.6951 106.651 23.0492
7.33198 83.5157 16.6305
-22.8502 124.523 -0.517379
-29.6744 132.221 -1.65695
-19.9201 108.371 22.485
-26.6887 129.082 -1.37673
-22.4192 111.56 21.4635
-15.5207 105.465 19.7091
8.04931 88.6424 6.8134
-8.01089 96.9978 21.1268
4.75596 84.6892 19.682
-22.5981 111.906 21.4705
-22.3198 124.214 -0.436779
6.64178 83.0788 19.2351
-22.9622 112.274 21.5469
-20.9571 123.605 -1.76583
-27.4881 126.441 5.01707
-32.8243 131.982 4.97159
5.56054 96.0457 -1.34965
-30.7409 132.838 -0.211354
-2.19749 91.5873 20.4236
-15.709 105.747 20.138
-22.2038 124.289 -0.415271
-23.9822 125.413 0.834456
-15.3993 105.762 19.7167
-26.0559 129.409 -2.27204
-25.9524 121.115 11.9855
-31.4888 129.967 6.58388
-18.24 120.763 -1.13173
-32.1884 133.668 1.44106
-19.2536 108.271 22.4566
7.85402 83.9969 16.2019
3.03091 100.98 -4.69755
-26.5882 129.267 -0.779531
-13.153 116.07 -1.83964
-27.0789 131.199 -3.17873
-1.08819 90.6011 20.8592
-23.3902 113.277 21.5339
-4.24616 109.683 -6.53393
-31.5311 130.271 6.59284
-24.8955 127.168 0.109652
8.16726 85.8914 12.6359
6.99232 94.3333 0.0773912
-2.68489 92.8092 20.2707
-25.3186 128.342 -0.918343
-9.90509 101.861 17.5277
-26.8919 126.803 4.6667
-23.0871 125.73 -0.255003
-25.9147 127.11 2.45663
-23.4055 125.26 1.20775
-25.8426 127.129 2.468
-31.4831 130.557 6.62307
-12.2425 115.572 -1.8137
1.79508 88.4453 20.3462
-22.5848 125.481 -0.33987
-8.08123 99.4598 18.9752
-23.7895 125.578 1.70778
-4.68912 110.67 -6.59102
-24.8616 127.398 0.498111
-24.3945 127.83 -1.05895
-25.827 126.641 3.60574
8.67306 87.315 10.156
-26.7881 120.4 16.2203
1.96579 88.429 20.3017
-26.1822 118.303 18.8397
-13.9103 105.752 18.6863
-24.9166 126.852 1.82239
-25.0053 128.577 -0.99259
-24.0562 127.172 -0.2114
-30.6043 133.854 -0.0763284
4.49685 99.7928 -3.64117
-8.41447 114.098 -5.33473
7.67078 93.2647 2.11662
-31.6271 131.188 6.64866
-23.9028 125.691 2.3571
-24.0206 125.751 2.50213
-18.4421 108.802 22.0047
-26.7971 131.624 -2.70286
-1.54203 107.398 -5.84505
-25.7404 127.409 2.75133
-15.5547 119.172 -1.14668
7.49254 84.6853 17.5489
-27.332 127.172 6.09336
-24.6614 116.149 20.4976
-23.9631 125.859 2.34656
-29.6393 129.561 6.16909
-8.12634 114.103 -5.47666
-13.5949 105.97 18.507
-22.1474 125.869 -0.722028
-26.0033 127.23 3.8346
-7.03371 97.3531 21.8058
7.3257 94.9788 0.174125
-21.1028 112.314 21.0603
-23.0715 125.92 0.928082
-18.9025 123.105 -1.62887
-26.2147 127.864 3.28505
7.94234 91.8253 4.77755
-25.4875 131.178 -3.73346
1.47965 89.3796 20.6509
-9.39676 114.663 -3.82771
-12.7093 105.871 17.5101
-26.6883 120.322 17.4848
-31.8221 134.567 1.95264
-22.1052 126.342 -1.11477
-15.6941 119.657 -0.95239
8.7906 87.4711 11.1372
-23.1359 126.394 0.758057
-25.0318 129.348 -0.962751
-31.2813 134.912 0.588508
1.24785 89.7977 20.8222
-6.2126 96.8216 22.0269
-19.358 110.844 21.2081
-26.2791 128.214 3.41469
-23.8542 126.99 1.19987
-22.5068 126.867 -1.00356
-7.20088 99.2399 19.654
-12.2454 116.682 -1.64468
-28.0079 128.364 6.355
-27.1283 128.304 4.88853
5.30081 86.0764 20.2459
-24.3615 127.193 1.90446
-9.31663 114.96 -3.78304
-18.4951 109.994 21.3326
-31.6902 133.716 3.75839
-24.9772 130.396 -2.47871
-22.0693 113.952 20.9728
-19.8036 124.825 -2.01837
-4.20492 95.2384 21.5394
-4.62458 111.728 -6.39922
-26.3533 124.44 10.4655
1.9571 104.144 -5.00379
8.98222 87.8775 10.7232
8.7068 90.0347 7.48863
8.04218 92.5348 4.33943
-19.2415 124.237 -1.85441
-24.6785 130.887 -3.66681
7.92421 85.2759 17.3417
-8.77661 115.226 -4.81252
-31.3544 132.892 5.00491
-2.14934 93.9084 20.576
8.93538 87.855 11.2479
-26.1927 128.527 3.50822
-15.2039 107.465 20.4863
3.86267 88.0388 20.0989
9.43899 85.1753 15.0829
-24.1558 129.123 -1.12024
-13.9469 118.624 -1.15896
-23.8669 127.303 1.57484
8.71758 90.4785 7.30018
-14.7236 107.453 19.8194
-23.3482 127.091 1.1505
-11.6156 116.611 -1.62471
-25.8921 128.524 3.26938
-28.7999 130.178 5.62324
-18.0881 123.281 -1.57312
-28.2923 130.162 4.83078
-29.2274 134.287 -0.664833
-31.1584 132.77 5.46203
-1.1847 93.125 20.734
-30.221 130.897 7.11309
-26.3768 124.798 10.8883
-1.4569 108.566 -5.52815
9.15056 89.2308 9.10695
-22.9675 127.29 0.539132
-11.6165 106.209 16.9087
-21.531 127.152 -1.73961
-9.19416 115.56 -3.69299
-24.3693 129.531 -0.708192
-11.0531 116.475 -1.85735
9.09713 86.3191 14.5489
-25.5193 123.365 12.2061
-28.8156 130.05 6.49985
-21.2232 126.39 -0.698792
5.01114 100.969 -3.44714
0.565471 91.4188 21.2337
-26.3857 124.912 11.3214
-28.7636 130.042 6.72175
8.4664 92.6441 5.16392
-25.7335 132.346 -2.52507
9.25811 88.5941 10.8511
-4.63482 112.831 -6.39637
-15.4473 120.618 -0.500943
-4.12625 112.17 -6.10998
-26.9437 128.099 7.16137
-28.6455 130.758 5.61477
-7.48073 115.341 -5.52058
-28.0081 134.088 -1.31508
-13.5165 107.673 18.8568
9.26307 85.943 15.9252
8.29348 86.1127 17.3736
-17.6656 123.637 -1.32095
-9.09065 116.123 -3.59922
-27.3416 130.009 5.08442
-26.1217 128.035 6.42839
-29.4801 130.968 7.40968
-29.9974 135.978 -0.353827
-25.6754 123.039 14.5065
-25.4625 120.721 18.2088
-22.8219 130.35 -3.28872
-22.9898 130.089 -2.50693
-29.0081 132.059 4.86634
8.15724 96.1333 0.733374
-20.7158 126.93 -1.05145
5.25525 87.8276 20.4154
8.79385 92.5179 6.03292
-27.1335 128.82 7.31667
2.9413 104.41 -4.15064
-22.7478 128.419 0.257379
-25.6399 129.864 2.93686
-27.2846 130.313 5.13854
-27.3226 134.281 -1.6693
8.48382 94.8695 2.6899
-27.1373 130.078 5.38144
8.44476 95.3669 2.02427
-22.8782 128.206 1.07074
-25.0461 129.415 2.88089
-22.9279 128.286 1.10366
-22.8689 131.029 -3.71681
-23.1096 128.73 0.732311
-20.3845 114.416 20.7824
-5.7886 99.5254 20.5351
-5.81084 99.5933 20.4617
-6.47903 101.536 18.2847
-27.0602 129.254 6.97068
-20.2065 114.281 20.7615
8.67982 94.1802 3.92136
-30.6652 136.544 0.976026
7.16224 86.8613 19.6427
-21.0601 127.443 -0.155081
-20.3163 127.222 -1.02089
8.80429 94.242 4.13563
-14.2037 108.673 20.3051
-21.5109 128.833 -1.5664
-14.3977 108.782 20.588
-22.5817 129.056 -0.0159494
-8.46419 105.089 16.4088
-16.4623 110.709 21.0025
-14.7976 108.965 21.1083
8.1581 97.0928 0.652138
-26.515 129.51 6.7911
-27.1435 129.263 8.3866
-5.60545 115.391 -6.11059
9.56196 88.2931 13.941
-23.9854 119.962 19.0656
-30.4935 137.151 0.893405
-25.4975 124.21 14.5367
-5.01351 99.0387 21.6189
-25.8811 125.948 12.3603
-18.1184 113.151 20.8297
-19.848 127.854 -1.65649
0.699877 109.101 -5.85571
-26.0361 127.385 10.3861
-26.1735 129.34 7.29478
-20.2202 128.418 -1.75714
-26.3956 129.38 7.66912
-22.2666 130.829 -2.20172
-2.14693 111.938 -5.40313
-23.3315 119.42 19.6329
-29.059 132.358 7.39703
-5.01563 115.388 -6.17412
-27.0833 130.193 7.75901
6.95766 100.79 -2.06729
-17.3274 125.29 -1.13105
9.55688 89.3469 13.2786
-25.3769 128.121 8.55908
-12.5015 109.025 18.7444
9.89373 91.3666 9.44164
-26.5909 129.32 8.93579
8.99837 87.7025 17.5643
-15.8378 111.437 20.8323
-2.31216 97.0976 21.6363
-8.58998 107.059 15.5953
-27.5544 130.636 8.60415
9.99865 91.3105 9.73535
-28.7384 134.218 4.55907
-1.61291 111.929 -5.2854
-15.1121 110.891 20.7519
-15.859 111.691 20.7418
-14.9783 110.829 20.6901
-15.018 110.867 20.7013
-22.1086 131.07 -1.71639
-26.8596 132.347 4.70599
4.3387 90.9134 20.8553
-25.8891 135.221 -1.97417
-4.88713 101.165 19.7516
-26.4807 132.139 4.62302
-16.1388 112.313 20.6014
6.94369 101.747 -2.39499
-20.0787 129.332 -1.91832
3.56623 106.097 -3.88751
-11.5522 109.148 17.9569
-1.61648 96.8371 21.5958
-1.78956 96.9971 21.6472
-24.8382 129.029 7.32706
-26.9723 130.403 8.81299
8.70125 88.3872 18.0193
9.67801 93.2471 7.84133
-25.5713 135.309 -2.06634
-26.4913 132.116 5.14429
-28.2568 137.154 -0.450657
2.0803 93.2767 21.6326
-14.0918 110.834 20.1334
-7.05732 106.092 15.776
-25.2971 128.243 9.95471
-22.6602 130.851 0.69269
-25.8003 127.429 12.2945
-6.8361 105.894 15.7622
-5.37076 103.536 17.2494
3.77518 91.9921 20.9368
-26.6255 132.372 5.26343
9.7706 93.1572 8.22909
9.26792 88.7422 16.8198
-25.1972 128.358 9.82763
-19.7095 129.527 -1.95033
-22.4592 131.005 0.422812
7.7264 101.076 -1.56398
-2.91861 98.4114 22.189
-29.6812 138.265 0.869259
6.22606 103.456 -2.95607
9.87553 90.9347 12.2902
-18.0598 127.853 -1.84165
-7.77953 107.526 15.1763
3.23311 92.7295 21.2381
-22.656 130.661 1.67389
9.38156 96.3844 3.91519
8.04275 89.1653 18.9586
1.17293 94.7822 21.55
-24.914 129.463 8.0413
-23.1289 134.035 -3.09467
8.18283 100.627 -1.06205
10.2148 92.2556 9.88466
9.81394 94.0425 7.49462
-21.1472 131.806 -2.64489
-25.0628 128.997 9.27563
8.46875 89.3076 18.2939
7.7705 89.5048 19.2677
8.60382 99.1444 1.00272
-4.32132 116.586 -6.15204
-16.3757 125.851 -0.649068
9.52891 96.2844 4.42152
-21.2648 130.511 0.152223
-21.875 131.289 -0.0267627
-21.0139 130.749 -0.577703
7.81228 101.739 -1.69572
-13.4681 111.518 19.5022
-19.0517 128.912 -0.721739
-18.6636 129.444 -2.34182
-4.09129 101.892 19.5185
5.39991 91.4299 20.7679
8.2257 89.7242 18.6979
5.79259 104.722 -3.02881
-27.3776 135.054 3.77336
-22.0799 120.646 19.4097
-2.10388 114.265 -5.23615
-20.6815 130.763 -0.59239
-24.4859 129.352 8.71358
-19.9181 118.313 19.7508
9.66938 89.9834 15.983
-18.1114 128.894 -1.89551
-24.848 128.736 10.5511
-7.91625 119.299 -3.36459
-24.7107 124.996 16.8565
-27.2341 135.055 3.88834
-12.2156 110.852 19.0857
-7.58843 119.279 -3.8871
8.56182 100.543 -0.205743
-1.00583 97.702 21.9653
0.143827 112.221 -5.35967
6.08331 104.693 -2.9144
-26.7166 131.914 8.64363
-4.69863 104.43 16.9807
-18.6513 129.322 -1.24535
8.58893 100.702 -0.228705
-24.2602 129.461 8.71603
9.73456 90.2751 15.97
-21.2529 120.238 19.4487
3.37689 108.646 -4.5471
9.73471 96.8463 4.64088
-23.7456 135.775 -3.03958
10.3915 93.1526 9.95953
-29.0521 138.898 1.1442
-26.4342 131.863 8.73477
9.72494 90.4099 16.0111
8.47315 90.4919 18.1535
5.04186 92.4035 20.994
-22.4457 122.151 18.5479
-21.7594 133.63 -2.6454
3.77551 108.311 -4.38765
-1.68663 114.48 -5.29047
-14.6794 124.852 -0.0268134
-7.05514 108.555 14.6933
-18.5446 117.246 20.262
-24.1011 129.666 8.61635
5.63065 92.0625 20.7363
-28.5073 138.727 0.807808
-1.3316 98.8601 21.5021
-27.7248 136.697 3.01324
-24.7695 136.652 -2.10338
-17.3455 129.529 -2.96682
4.6803 107.325 -3.83893
3.09138 94.5819 21.2015
-5.15773 118.729 -5.96801
9.89532 97.0292 4.95365
8.98156 99.3056 2.64114
-3.58549 117.13 -5.78137
-20.7743 120.458 19.3522
-3.82318 117.544 -5.92193
-24.1351 130.084 8.70395
-1.24232 114.609 -5.4334
8.75159 100.043 2.0049
-11.8249 122.626 -0.307814
9.02015 99.3522 2.81976
-24.4039 125.696 16.9504
1.87782 95.9832 21.5316
6.8439 91.6616 20.2163
-20.3352 120.16 19.3933
-21.1083 132.975 -1.49197
-3.39102 102.982 18.9398
-11.3522 122.357 -0.48058
-23.5012 136.488 -3.27359
-23.6687 129.451 9.40848
5.02288 93.266 21.0548
-16.569 128.585 -1.66817
8.03648 103.318 -1.79028
-21.6564 122.083 18.8694
-24.4418 128.062 13.5456
-24.0785 137.208 -2.93867
8.90577 101.299 0.393628
-20.9284 132.924 -1.11395
-0.313174 114.13 -5.36497
3.91293 94.6767 20.9479
7.61161 91.7953 19.363
-14.3813 125.68 -0.0581723
-2.74058 101.612 20.9677
-16.6518 130.002 -3.42691
0.689734 98.1565 20.9127
-2.84264 102.127 20.3933
-0.511146 114.606 -5.50965
-18.6375 131.34 -2.09471
-5.06515 119.529 -5.84027
10.4987 95.3724 8.30876
-9.35225 111.372 16.0803
-22.1291 133.106 1.18881
-1.01992 99.9264 21.1262
-24.2903 127.301 15.2668
10.334 96.8163 6.2026
-17.5398 130.237 -1.92951
-0.707612 115.056 -5.64564
-28.0914 138.62 2.53897
10.6662 94.7526 9.52729
-10.8741 122.778 -0.51932
-7.48873 110.822 14.2761
-26.1471 135.301 5.17667
7.6403 92.5489 19.1435
-15.3914 127.916 -0.972043
-3.28714 118.245 -5.6728
-24.9913 133.081 7.50943
-26.8091 137.171 3.67491
-14.7095 127.004 -0.287685
-23.9175 127.996 14.5229
4.97809 109.095 -4.38821
-6.96703 121.151 -3.92508
-20.6365 132.504 0.933786
-16.0489 130.38 -3.59216
-22.8385 137.14 -3.13598
-5.1381 108.698 14.6203
7.21363 105.742 -2.39865
-10.611 123.079 -0.514268
4.05213 95.8434 20.5866
-2.02706 117.229 -5.72202
-4.63601 108.111 14.9672
-1.45184 101.221 21.2826
-17.3215 118.579 19.5871
0.30448 114.905 -5.628
-16.9318 130.413 -1.66685
-0.97546 116.417 -5.88043
8.68683 92.8282 17.9218
-21.4146 124.139 17.4912
-24.859 138.763 -1.773
-10.6623 112.734 18.0657
-25.2582 134.245 7.01214
7.7331 105.56 -2.15968
-24.0239 129.999 12.2882
-20.3188 133.684 -0.769373
-25.0989 139.105 -1.5997
-22.8958 130.712 9.11388
1.63473 113.843 -5.51598
9.43188 99.8392 4.87184
-12.3983 114.167 19.2472
-0.146795 115.96 -5.76873
-7.90626 112.413 14.39
-3.54658 107.171 15.7178
11.003 93.4516 13.5421
-24.0348 138.369 -1.7635
-9.3705 122.873 -1.02405
-15.3242 116.936 20.0422
-27.5369 140.679 0.651851
0.0515118 100.453 21.1876
9.59681 99.6293 5.57528
0.781448 115.197 -5.67618
-11.2516 113.585 18.7273
-1.37026 117.556 -5.90163
-8.08293 122.233 -1.99392
10.9176 92.8838 15.0407
5.27168 110.009 -4.62683
-14.6976 129.273 -2.24113
9.23054 103.427 -0.181701
-19.8662 133.532 -0.348457
-23.3983 128.762 14.3194
10.9088 93.0257 15.0207
-21.6471 130.365 8.52808
-25.8759 137.52 3.72781
-14.3512 128.116 -0.5056
-3.92378 108.502 14.9609
-25.261 139.769 -1.1565
-14.5863 128.618 -0.860315
-9.01855 113.133 16.1093
-2.97287 119.486 -5.76976
-1.72215 103.507 19.8209
6.96158 94.5381 19.9598
-1.84473 104.535 18.3646
9.33456 100.737 4.94144
5.56501 110.169 -4.56883
-15.4222 131.158 -3.33784
-23.5091 129.774 13.6047
-5.92571 122.048 -4.46283
0.583616 100.583 21.2208
-7.15776 112.764 13.9174
-20.0843 133.75 0.602112
-9.41374 113.418 16.8594
-5.62355 111.304 13.7411
4.52005 111.638 -4.92779
7.21016 107.431 -2.4049
2.63617 98.9163 20.635
0.429429 100.856 21.2304
-21.3537 130.102 9.49131
-4.09209 109.428 14.5305
10.9412 94.2273 14.0507
11.043 94.6113 13.2049
9.38729 104.069 -0.168704
-5.39378 122.089 -4.96296
-10.8657 124.868 0.026411
4.55932 97.3707 20.2132
-10.8323 124.848 0.0115361
-23.1228 129.061 14.8757
-26.9463 141.246 0.557756
9.26125 104.985 -1.22212
1.50985 115.566 -5.72953
-5.52119 111.714 13.6267
-17.6016 132.827 -1.36981
9.43556 104.342 -0.219964
-24.8517 137.469 3.82139
11.3686 95.5228 11.8688
-8.31521 123.524 -1.47076
-22.5211 133.208 7.20377
-6.25709 122.673 -3.63956
6.60402 109.681 -3.96399
-19.7616 135.582 -1.71791
9.79286 100.745 5.94098
-6.13671 112.913 13.3501
11.2115 95.4263 12.7448
-21.4316 130.066 11.0867
-20.3985 130.131 9.14556
8.75501 106.299 -1.66707
-26.4383 139.533 3.66391
8.01998 107.265 -1.98004
-22.6234 134.314 5.95709
-22.7206 128.606 16.1733
-14.4501 131.298 -3.35051
-8.96935 114.27 16.5187
10.6593 94.3926 15.9371
-16.7028 120.981 18.8578
11.4387 96.4835 11.0417
-18.852 124.235 17.252
10.7916 94.8565 15.2319
11.2555 95.7968 12.7639
-2.84425 121.036 -5.79299
4.77774 98.3295 20.0899
1.35291 116.578 -5.51457
11.3795 97.052 10.499
-19.3452 134.951 -0.304571
9.72127 104.47 0.612523
-20.9456 131.532 8.59348
7.61188 108.801 -3.00692
10.3615 94.848 16.3842
2.50986 100.335 20.9817
-16.4177 121.096 18.8163
7.4876 109.156 -3.28173
-19.2886 135.163 -0.476556
-3.6895 110.734 14.0626
-21.9741 134.121 6.18212
-19.6811 126.019 16.2505
3.85463 113.858 -4.73387
-20.5165 127.319 15.6151
8.73176 95.4972 18.5561
-25.4434 139.251 3.74983
-0.510874 118.769 -5.32179
-0.677397 105.341 18.3731
-8.44439 114.857 15.752
-13.4384 130.147 -1.87837
9.9673 95.2073 16.9666
-21.2814 130.022 12.603
10.8614 98.8712 9.14953
4.74341 112.85 -4.20408
9.68199 103.905 2.65167
-19.8646 136.486 -0.95908
-4.92801 123.263 -4.68705
-16.9542 122.509 18.2158
2.53366 100.96 20.8214
-20.0484 130.071 10.7729
-0.49858 119.083 -5.15881
-9.96976 115.825 17.772
-5.1534 123.519 -4.25345
9.9918 102.01 6.01125
3.1847 100.579 20.7508
9.55748 103.206 4.76096
8.46141 96.2745 18.8018
11.5424 97.5723 11.0512
-20.6502 130.539 11.4869
9.74248 106.205 -0.570609
9.76727 104.483 2.47793
-0.190219 105.397 18.7571
-15.8937 133.215 -1.43387
-15.8249 121.6 18.6845
5.04889 113.059 -3.89658
-1.40729 108.616 15.557
11.4696 97.483 11.8511
-8.68399 115.615 16.4882
3.44257 115.35 -4.78901
-23.6202 140.803 -0.529706
11.1935 98.9621 9.86238
7.48879 97.2594 19.4812
-15.8546 121.945 18.5864
-12.8927 131.468 -3.08537
-25.5494 142.535 0.368333
-25.2936 142.492 0.00329113
-12.4876 129.632 -0.499154
-20.855 134.531 6.03313
10.1348 96.6527 16.3817
-25.0108 139.763 4.43345
2.12337 117.377 -5.28328
10.7824 96.4289 15.6925
9.34247 97.0932 17.1201
1.232 118.2 -5.01083
9.91962 106.388 -0.0150195
-12.4 129.671 -0.485548
2.77504 116.816 -5.29156
6.30058 98.7522 19.889
-8.76521 116.157 16.6713
9.79443 106.003 1.04556
-21.2848 130.976 13.4446
10.0001 103.078 5.89774
-4.05381 124.048 -5.35362
2.82698 102.133 20.4578
9.73437 105.965 1.40577
-17.8081 134.996 0.359908
-25.0186 140.021 4.55972
-1.8989 121.906 -5.36767
-20.0036 132.362 8.96552
-11.2562 128.41 0.198011
-21.676 130.678 14.9688
-23.513 141.549 -0.438598
-14.649 133.595 -2.42495
-18.5119 135.665 0.993781
-7.58043 116.481 14.7812
-17.9769 135.345 0.623423
9.06153 97.7127 17.692
-2.49113 122.976 -5.48815
-24.4483 142.539 -0.102203
-24.7388 140.018 4.86338
-17.8307 126.822 15.4499
-2.93774 112.734 13.3117
-18.4847 135.947 0.831423
7.06249 99.2476 19.0586
-18.4878 127.946 14.9965
-14.8861 133.961 -1.90056
-9.95797 117.573 17.782
-4.8628 115.354 12.5631
6.4512 99.6923 19.5424
-22.5428 137.283 6.13753
-22.214 140.94 -0.783992
2.35835 118.108 -5.08072
4.80566 101.024 20.3332
-23.0626 138.092 5.85898
-19.4874 131.445 11.0201
-7.32558 126.113 -1.49505
-3.01721 123.919 -5.34526
10.3113 103.449 6.39333
-15.2133 123.121 17.9906
-1.22617 110.602 14.6881
-18.248 136.362 0.401244
11.3979 98.6343 12.8953
-15.6376 123.824 17.5969
-12.5667 133.085 -4.02918
-1.79449 111.571 14.1004
-19.6382 134.486 6.32758
5.91307 100.265 20.0708
-13.5709 121.223 18.617
6.13626 113.557 -3.33208
4.06066 116.192 -4.18576
-19.4544 138.514 -0.807302
11.2735 101.147 9.09955
-11.9649 131.579 -2.16361
-3.37064 114.223 12.6298
-13.7984 133.82 -2.73749
9.34802 98.3397 17.542
9.86394 108.33 -0.77313
-12.4197 120.183 18.6858
9.78434 105.816 3.85184
-11.6965 119.513 18.6646
9.81781 105.207 5.00402
-16.2654 125.256 16.9343
-2.04931 112.547 13.5556
8.74235 98.6195 18.4984
9.80827 98.4144 16.9926
-0.796983 110.61 14.8007
-17.943 136.867 0.000617526
10.0927 104.73 5.72847
-19.3432 132.154 10.8431
1.89411 105.156 19.8318
-13.694 122.081 18.4
-16.9586 127.411 15.0393
8.90201 98.8445 18.3652
-10.5328 129.383 0.142161
-5.65793 126.233 -3.11869
11.621 100.771 10.265
-9.95014 128.653 0.453827
-17.1076 136.5 -0.21833
1.20792 107.061 18.194
-11.268 119.766 18.481
-1.9447 123.789 -5.1488
3.03763 118.541 -4.93842
9.06015 99.084 18.24
11.2261 99.853 13.0327
-7.72473 117.913 15.6442
6.37864 101.046 19.7037
9.61632 110.224 -2.07723
-18.1701 137.249 0.756939
1.83394 105.783 19.6852
-0.0710591 121.498 -4.21593
9.92953 108.437 0.573608
-8.29719 127.697 -0.172023
-19.2548 132.091 11.8477
-4.4682 116.644 12.2028
-19.0325 139.508 -1.36802
-18.3727 137.69 0.625624
9.96924 106.155 4.67499
-21.5664 141.647 -0.514194
3.89716 117.742 -4.51715
-2.81607 125.107 -5.16247
-11.8722 133.575 -3.62573
11.0968 103.113 8.18788
5.8548 101.714 20.0397
10.126 107.591 2.1631
-21.1718 137.391 6.4781
8.57679 99.9856 18.2501
10.769 100.185 13.9727
-22.6276 143.08 -0.693585
11.2511 102.857 8.54916
-18.3131 134.156 7.14395
-15.1175 136.271 -2.26859
-18.23 129.945 14.3368
-23.9387 144.084 0.0754325
-11.9294 121.186 18.4387
6.26519 101.659 19.8438
-17.279 138.097 -1.20908
4.17949 117.813 -4.40286
-1.05072 123.397 -4.73224
10.0765 108.478 1.29037
6.67794 114.922 -3.81512
11.5279 102.371 9.33183
-14.3135 124.508 17.2286
-13.7591 123.616 17.798
-14.0906 135.968 -3.08034
-5.94755 118.377 12.9565
1.75371 120.069 -3.75282
9.65391 99.6478 17.6363
-17.9965 134.098 7.32367
-15.1001 126.277 15.7665
-18.4719 138.59 0.397789
-6.70756 127.554 -1.49179
-13.9432 136.013 -3.20347
-6.47885 118.637 13.6863
10.028 99.8138 16.8744
10.1129 109.727 -0.501664
-23.1686 140.404 5.82879
11.293 101.092 12.4758
10.1883 106.214 5.55032
-18.3245 132.255 11.42
-18.1934 132.03 11.6027
-10.8457 131.98 -1.45652
-0.488603 112.374 14.0935
-17.4586 137.806 0.292749
-1.13182 113.471 13.3672
-1.62016 114.306 12.8785
5.81157 102.626 19.9
-24.14 142.384 4.52085
-5.87411 127.556 -2.42016
-5.94008 118.748 13.0399
-14.5136 125.954 15.8876
1.52362 120.761 -3.65633
-13.6603 124.368 17.4035
-9.58567 120.109 17.5761
-17.9884 132.065 11.8773
-11.6919 134.645 -3.8933
7.59308 114.773 -3.84883
10.5029 105.533 7.13002
-23.3559 141.354 5.53998
11.1919 101.594 12.7742
-9.0814 129.534 0.534511
-17.6109 134.141 7.83497
-13.8382 125.317 16.4327
8.42237 113.657 -3.12129
-22.754 140.596 5.94971
-2.64103 126.262 -5.09984
-17.658 132.692 10.7194
-3.06246 116.967 11.9057
0.914497 121.966 -3.83861
10.4708 109.06 1.48879
-11.5703 122.344 18.0966
6.29901 116.465 -3.62171
0.0942913 112.682 14.1214
3.46168 105.852 19.9734
-10.387 121.347 17.9176
-12.0164 123.039 17.9437
6.38464 116.494 -3.68234
11.2787 102.393 12.113
1.35534 121.703 -3.69043
-11.5371 135.309 -4.16179
4.8562 104.615 19.9937
-10.1895 121.469 17.8085
-1.82808 125.859 -4.82901
10.4477 101.061 16.3446
-5.58324 128.368 -2.36062
-16.9537 134.891 6.83563
1.25964 111.517 15.1909
-10.8817 134.836 -3.5927
-19.6796 141.971 0.0164151
-2.88109 118.059 11.5745
10.7141 101.616 15.8897
7.8739 102.861 18.863
-17.9175 132.496 13.5586
-14.9935 138.879 -2.70647
0.300675 113.797 13.6497
-13.8901 138.132 -3.22721
3.36824 120.59 -3.64026
8.40356 116.206 -4.97324
8.37958 116.293 -5.06918
-10.1655 134.246 -2.91019
-9.9412 133.502 -1.92445
8.35465 115.608 -3.54103
11.2808 104.855 9.95669
-16.7219 135.018 7.90223
-23.4797 144.555 3.48492
-22.7954 145.505 0.68579
10.3876 102.5 16.0225
8.19284 116.901 -5.03795
11.0047 106.798 7.51659
-4.43309 128.93 -3.25867
-16.3987 133.104 10.9793
10.9843 106.346 8.42435
9.72578 113.844 -2.35932
1.06729 123.506 -3.5662
-10.3153 135.244 -3.53664
2.35975 110.652 16.7256
-15.6906 130.388 14.8659
-20.4714 144.164 -0.511844
-16.9495 134.835 9.41236
2.78406 122.383 -4.19683
8.62868 116.232 -3.97694
-5.01973 129.442 -2.46426
-20.3402 144.137 -0.477549
10.7947 102.788 15.6476
-4.76648 120.852 12.2399
-13.9339 139.269 -3.3517
8.97518 114.653 -1.58684
8.45784 117.342 -5.25699
-19.8617 143.81 -0.300613
-16.2996 141.074 -1.86719
-0.864496 117.383 11.6835
-13.358 128.284 15.1793
-8.82882 122.568 17.0211
-16.5642 134.774 9.68232
0.679694 124.63 -3.5888
1.23736 124.027 -3.51288
-0.903 126.693 -4.30208
2.71779 122.875 -4.11346
-3.55156 129.251 -3.92605
-16.1203 131.432 14.9144
-16.0301 133.474 11.1996
10.4074 113.16 -0.786351
9.98338 113.007 0.353665
9.97428 112.76 0.824665
-16.496 140.605 -0.145244
7.61595 118.609 -5.0071
5.08642 107.006 19.8146
-8.79521 123.013 16.9657
-7.7019 131.433 0.357305
1.25068 114.719 13.53
-15.8884 133.551 11.6567
-16.6396 140.758 0.513676
-17.2008 138.627 5.29737
-13.4995 129.225 15.0537
8.65902 117.893 -4.93315
-5.56972 130.516 -1.36534
9.30165 114.436 -0.0323017
10.9163 111.592 2.08075
10.0155 112.707 1.78612
-16.1903 135.934 8.41473
9.32761 114.422 0.0754485
11.589 107.531 8.05286
10.788 111.803 2.08431
-17.2565 141.733 0.379558
-5.67869 122.084 13.8396
4.30672 109.031 18.7076
11.8952 104.535 13.0866
-18.3935 143.074 0.397988
-10.8201 126.857 15.0506
-2.89098 129.747 -4.17379
-15.2244 136.144 6.88878
-15.3223 132.474 13.5024
2.71485 112.754 15.468
-15.4057 133.008 12.7766
-2.68828 129.694 -4.27352
-12.8385 139.844 -3.6483
-15.3863 133.057 12.7596
-2.45617 120.819 10.8955
5.38259 122.396 -5.8387
-9.24605 135.979 -3.22416
-5.33253 130.947 -1.46936
6.09704 121.719 -5.83332
6.38102 121.45 -5.83011
8.67053 116.414 -1.10178
-22.0573 144.703 4.85403
-16.8057 141.728 0.634208
-6.46933 122.793 15.143
-16.1094 136.218 9.17368
-16.9973 139.74 4.68935
-12.6854 129.727 14.4341
-17.6998 140.139 5.31236
11.019 105.006 14.9728
-19.6973 141.826 6.06275
-10.6789 138.138 -3.65365
-2.3665 121.293 10.7585
7.38597 106.869 18.4292
-17.2203 140.166 4.6389
-17.463 142.678 0.770276
-19.5088 141.819 6.07957
-14.5555 136.195 7.01878
12.0492 109.163 6.35762
-13.4248 130.834 14.4751
-7.38764 123.8 15.8951
4.74486 123.642 -5.51839
2.7724 114.043 14.7935
10.0375 113.312 3.05171
11.8291 106.434 11.9046
6.4999 107.865 18.9999
8.79904 106.266 17.6587
-0.609477 119.887 10.8748
-14.4531 136.215 7.32336
-12.8287 130.644 14.1688
11.8314 105.299 14.0926
9.20267 117.544 -2.45805
4.64768 123.968 -5.44329
-5.26748 131.756 -1.16748
-14.9053 133.385 13.4345
-18.0734 141.176 5.57945
9.24168 118.63 -4.14341
-15.6047 143.072 -2.09388
8.7504 119.738 -4.89478
-12.8318 141.081 -3.20364
4.22782 124.697 -5.20828
-14.0292 142.159 -2.67464
-5.79428 123.86 14.4577
-16.089 140.215 4.47049
-14.6201 138.902 4.12921
-7.24002 124.632 15.7346
-2.25867 130.93 -4.14751
5.3449 124.041 -5.74129
-13.2481 131.81 14.113
2.26863 126.214 -3.94662
8.90379 116.689 0.735208
9.81286 113.96 3.95658
-9.58611 127.471 15.2818
5.31095 124.194 -5.71112
5.92277 109.286 19.1482
-5.23331 132.357 -0.909822
9.56722 118.553 -3.43243
-14.9404 136.903 8.61214
-9.87368 138.78 -3.72334
0.956951 118.855 11.5369
-4.94915 132.328 -1.27668
-1.81527 130.925 -4.43863
-8.21756 125.694 16.2002
7.01448 108.533 18.8112
-19.5309 143.209 6.08669
9.53597 118.357 -2.6769
-4.65268 132.397 -1.60988
8.44291 120.724 -4.7505
-15.4686 142.817 -0.292744
-13.2209 132.429 13.8374
9.51611 114.475 4.37221
-9.43366 127.84 15.1573
11.0777 112.363 5.44311
-14.9958 136.344 10.5573
-10.45 129.852 13.7277
-18.5392 142.662 5.95852
-16.3081 141.751 3.61716
-21.3881 146.995 3.62598
-9.91554 139.351 -3.60162
-15.4806 143.487 -0.799915
0.959032 128.103 -3.52046
-13.6274 137.382 6.57467
-7.8877 136.43 -1.93508
-18.4284 142.872 5.76973
-21.2693 147.169 3.39531
5.76971 124.635 -5.86801
9.66406 119.623 -4.1201
-6.15301 125.058 14.8801
5.62388 110.766 18.6742
8.37484 121.741 -5.35633
8.33162 121.842 -5.436
-5.1521 133.114 -0.80327
-16.5081 142.26 3.67896
-7.5209 136.016 -1.53662
10.0085 114.171 5.17797
-2.24871 131.827 -3.53722
-8.42133 138.016 -3.01503
-1.52974 123.419 10.0583
-21.0054 147.285 3.54393
12.5265 110.15 8.01674
-20.6195 146.084 4.95229
-7.34362 126.399 15.4057
-20.9035 147.664 2.73582
11.6106 111.937 6.58101
-13.3877 139.211 3.98185
5.06083 112.226 17.9678
7.00776 109.687 18.9141
10.3327 113.731 5.9215
-6.551 125.896 15.0551
-16.5076 144.589 0.38759
6.61784 124.505 -6.13887
-13.1583 137.769 6.30535
-13.0173 134.452 11.8305
9.24852 118.365 -0.109835
12.3146 107.352 13.57
5.22486 112.057 18.1064
-11.508 141.742 -3.4869
-10.0264 140.441 -3.8472
-9.75005 140.187 -3.81375
-20.5386 146.377 4.77631
10.4779 108.469 15.2164
-13.1543 139.532 3.60554
9.96563 119.479 -2.92633
-19.1542 144.445 5.88114
10.3024 115.344 3.68309
-13.5723 137.365 8.30851
11.3391 120.344 -6.64936
3.11968 117.669 12.8302
-19.9164 145.408 5.91599
12.4649 109.143 10.9422
-9.32047 140.103 -3.83488
4.47811 114.452 16.0758
10.2892 115.184 4.55447
-8.93423 129.188 14.7018
8.22379 109.817 17.6386
0.514554 130.06 -3.7217
11.444 119.928 -5.68837
10.7543 121.154 -6.58282
-0.795267 123.555 9.98742
-17.1557 143.96 3.86044
-19.9029 145.783 5.69325
-6.70192 136.162 -1.23019
-13.3392 140.431 3.33526
12.5222 117.722 -3.53654
11.6949 119.887 -5.76787
10.106 120.006 -3.04155
2.54803 119.212 11.9173
3.88753 116.229 14.747
8.18941 110.248 17.5488
-0.412 123.609 9.95388
-13.65 144.611 -2.7804
2.02728 129.034 -3.74146
-15.0253 143.006 2.70636
-4.12544 125.877 12.9742
12.8319 110.03 10.2195
-18.6926 145.318 5.36684
-0.600236 124.129 9.81738
9.44788 122.587 -5.48557
11.0377 116.027 3.10067
11.8808 108.922 14.0697
-12.2241 143.787 -3.31853
-20.0163 147.516 4.2152
-5.31559 134.794 0.0241594
8.24669 110.891 17.3132
-8.46867 129.659 14.679
12.2996 111.866 8.41262
11.711 119.507 -3.8282
10.7504 122.21 -6.71335
11.514 120.632 -5.32322
7.63357 125.189 -6.26326
6.67245 112.058 18.351
-17.3566 144.841 4.49185
-14.4129 142.645 3.0385
-4.21864 126.427 13.0145
-4.57648 126.626 13.3298
8.13731 111.175 17.4174
-5.96562 136.065 -0.583044
6.51359 126.43 -6.06879
7.6352 111.44 18.0409
3.0306 119.768 11.8152
-7.60979 139.033 -2.62255
11.2955 121.877 -6.5334
-1.95187 133.306 -2.6523
12.2031 109.465 13.4812
11.8276 112.506 9.00907
-12.8181 141.237 3.28947
12.9398 109.966 11.7065
-19.5586 148.439 3.09896
12.8841 109.959 11.8924
3.38456 119.78 11.9372
-12.7566 138.116 8.99927
7.70992 112.026 17.9353
3.41748 129.552 -4.75303
6.055 127.461 -5.84226
-7.2405 129.593 14.3156
11.6103 116.337 3.5709
12.5045 111.816 9.88396
-9.83755 133.454 12.4109
13.0356 110.468 11.3829
-6.77476 138.538 -1.90814
-10.3208 134.086 12.245
11.8847 110.091 14.1744
-18.2705 148.931 0.699344
10.2861 119.957 -0.105325
-13.881 143.682 2.15817
11.6845 115.01 6.22866
0.871121 131.975 -3.88377
11.6232 114.472 7.3088
-12.2401 137.322 10.3619
9.97123 121.055 -1.15391
7.33556 112.798 17.9618
9.75735 122.554 -3.27233
12.9617 110.693 11.6277
5.91712 114.59 17.563
-10.3302 143.647 -3.84156
-8.42108 131.635 13.6507
-12.4574 145.624 -3.32017
9.44976 122.67 -2.60804
10.1927 120.897 -0.803522
-3.74546 127.536 12.6934
6.17023 114.481 17.6492
-7.77035 140.977 -3.44666
12.0061 120.577 -3.40534
12.0772 115.385 5.57782
-4.30273 135.701 -0.245933
-11.8923 138.548 8.44909
-11.2782 140.627 3.74117
7.71411 126.824 -6.25605
12.1355 115.632 5.2918
-12.0018 141.721 3.23895
-8.21686 131.905 13.5583
4.93118 117.301 15.4945
-12.6086 146.239 -3.35538
13.7177 119.017 -3.14333
-5.60797 129.142 13.9113
11.0409 123.394 -5.90908
0.258447 126.024 9.01135
13.0451 118.9 -1.48013
-13.6927 146.926 -2.02112
3.11767 131.077 -4.57814
9.64086 112.448 16.164
-4.96585 129.346 13.4428
12.835 121.945 -5.5714
-12.0654 142.557 3.24256
12.2781 114.989 7.54898
5.93424 116.247 16.7904
-10.7132 140.571 4.33162
2.86141 131.715 -4.46863
11.521 123.127 -5.05302
13.7748 120.41 -4.14939
-12.197 143.883 1.87942
6.81391 115.553 17.2161
12.2883 115.231 7.99785
5.26111 118.333 15.2085
-13.0654 145.296 1.23703
-11.8884 143.061 3.06832
-10.7173 141.716 3.35641
-16.573 147.088 4.6027
-1.91621 128.388 10.8642
-4.5514 137.803 -0.664553
4.03894 131.246 -4.62692
-5.84467 139.68 -1.52308
-17.7874 149.759 2.40146
-7.82545 133.501 12.8578
10.6571 124.755 -5.07179
11.0555 112.888 14.9069
6.18853 116.948 16.5751
-1.82536 128.535 10.7998
-10.1254 145.757 -4.22882
10.0839 125.801 -5.75232
-8.43867 134.547 12.2949
14.4083 118.67 -1.05776
-8.75288 135.038 12.1747
-7.59626 133.385 12.9846
13.8897 119.484 -1.36052
11.6382 120.238 1.40354
1.90645 133.366 -3.96332
6.52982 129.622 -5.73081
14.5193 118.654 -0.955844
-13.5287 146.126 1.59437
-8.15536 143.905 -4.14417
9.96531 113.842 15.6992
-17.6142 150.011 2.26728
7.62886 115.303 17.4164
13.3875 122.386 -5.22754
4.93498 120.875 12.5795
-7.11157 132.895 13.3537
-8.73166 138.749 6.09567
10.2947 123.912 -2.17601
11.9347 116.396 8.00863
11.7485 123.661 -4.19455
-13.4937 146.364 1.63035
13.0133 113.488 11.3256
-13.6397 146.477 1.79003
14.3687 118.444 0.344249
-3.38831 129.997 12.2322
13.1602 113.366 11.5446
3.95925 123.469 10.5546
7.1687 129.665 -5.96561
14.1885 121.217 -3.83724
12.5701 122.431 -3.0287
-1.38553 136.211 -1.95597
-1.2727 136.158 -2.05164
-8.88579 140.784 3.55836
-8.67102 138.925 6.43091
-6.34303 132.643 13.2035
3.0453 125.214 9.38501
14.2704 121.186 -3.63885
-5.98197 141.241 -2.20637
-3.98526 130.832 12.3322
11.8307 117.085 7.90275
2.88584 133.386 -4.41705
4.64028 122.55 11.3705
-13.7957 146.912 2.0569
12.4449 114.994 10.6005
-9.64896 141.796 3.61898
8.91919 128.473 -6.48156
-14.9045 147.45 3.24159
13.1049 113.824 11.5146
0.0568482 135.958 -3.58131
-12.9264 146.537 1.34824
11.8828 121.353 0.831408
-11.2958 147.962 -3.85169
-3.07046 130.501 11.85
-13.144 148.69 -1.7334
-16.1034 148.569 3.86198
-16.9724 150.122 2.73206
10.6879 124.583 -2.43125
0.431074 136.219 -4.22235
5.35899 131.519 -4.78722
12.7651 121.577 -0.731991
-8.28961 136.703 10.7667
8.914 115.847 16.2093
12.5221 117.331 7.20587
-10.769 147.911 -4.21822
-9.32621 143.386 1.10297
-5.52833 132.764 12.78
13.7341 120.573 -0.478114
7.75577 116.694 17.0068
-7.85573 139.414 5.53078
-7.92094 140.472 3.81117
11.6563 122.66 -0.313241
-2.53373 137.527 -0.705662
-2.63584 130.547 11.631
-6.08435 133.447 12.7803
-12.6018 149.056 -2.66482
-13.1041 148.96 -1.5466
14.1091 119.365 1.14663
12.8901 117.401 6.83434
12.8367 121.353 0.064692
11.2314 126.138 -5.34463
-16.2204 150.708 1.17482
10.2649 115.421 15.246
3.65704 125.636 9.32398
12.2003 122.166 0.0663092
15.1125 120.408 -2.08903
1.14047 128.942 8.13623
-6.69738 134.618 12.3256
-13.7172 148.985 -0.0583241
-1.83233 137.437 -1.26665
12.7669 114.802 11.9463
5.55506 121.295 13.5938
-1.36111 137.223 -1.71696
11.2871 122.831 0.646782
-7.46505 135.758 11.8049
-5.24005 141.249 -1.57372
13.9921 119.778 1.29893
-15.8995 149.12 3.88337
15.1114 118.101 2.2354
9.8339 115.884 15.5688
-10.1056 145.411 -0.0405826
-7.35075 140.08 4.3281
13.2439 117.606 6.5998
-8.41343 146.246 -4.31071
13.3474 120.67 1.19499
-6.489 143.538 -2.9921
-7.40297 140.851 3.36003
5.65336 121.447 13.7386
5.78388 132.032 -4.89319
7.04534 118.631 16.2115
-7.3813 141.823 1.74665
9.91642 125.417 -0.722967
14.2258 122.693 -3.67352
12.2291 121.661 1.75679
5.59156 122.115 12.9132
11.7748 124.363 -2.08012
11.0435 126.91 -5.10062
-3.26733 138.842 -0.190068
-5.20933 133.62 12.3866
14.7931 121.569 -2.42026
12.8479 115.677 11.3356
-16.1177 150.823 2.16632
11.5413 118.248 9.35841
3.57638 134.383 -4.41023
-7.32931 139.965 5.4535
-9.73572 145.7 -0.142721
5.45047 132.605 -4.58837
10.4625 116.162 15.118
10.0401 126.434 -1.92434
12.3703 123.398 -0.812034
12.7646 115.975 11.416
2.09828 129.026 7.86728
-0.703401 137.712 -2.12434
0.84203 137.388 -4.28716
9.75106 125.999 -0.44668
-6.81833 136.521 11.0021
-4.50751 133.622 11.9084
10.9148 125.745 -1.94449
17.0801 117.425 1.47673
-11.329 149.651 -3.5459
10.7061 126.359 -2.53955
11.8632 121.716 3.56238
11.9688 118.794 8.59007
0.865052 137.625 -4.23987
9.69965 126.237 -0.268299
-0.323213 137.822 -2.4106
13.6663 124.885 -4.97109
-11.9742 147.767 1.26705
-15.3745 151.434 1.16483
-0.168206 131.144 9.21709
14.0413 119.52 4.06686
10.0947 124.568 2.3787
10.6292 128.73 -5.79057
13.0988 122.381 0.869335
10.6796 127.077 -2.94775
-14.444 149.478 3.16297
11.5899 118.243 10.8488
13.5366 118.484 6.93649
2.69969 136.056 -4.20002
-4.12644 134.065 11.5149
11.905 127.393 -5.59594
-6.13525 140.587 3.84913
15.8692 121.329 -2.08392
11.6006 126.256 -2.99073
-4.25805 141.526 -1.09221
-7.45698 146.63 -4.14995
11.7188 119.047 9.51785
11.8831 126.552 -3.78564
12.6808 124.234 -1.15063
13.6661 119.967 4.5363
-6.87062 145.849 -3.64631
-0.8239 131.838 10.1614
12.4525 119.237 8.32862
-6.11382 137.341 10.1689
13.4988 118.8 7.36562
9.66663 127.2 -0.37063
12.2598 121.972 4.07545
-3.69695 134.394 11.1048
-5.62478 136.511 10.9877
15.4695 118.853 3.89834
6.73467 121.545 14.9568
12.2686 117.282 12.4974
1.39454 138.171 -4.32263
7.27708 120.694 15.6277
-11.9119 148.529 1.64383
13.7477 120.846 3.85311
3.7805 128.712 8.0879
11.064 117.576 14.4136
4.7673 135.058 -4.6484
5.63705 125.61 10.2539
-2.77704 140.455 -0.451194
6.07702 123.628 13.002
-14.2466 151.717 0.642368
6.19848 123.059 13.9164
11.7476 122.876 4.29555
-4.79217 143.34 -1.64168
-6.52805 140.961 5.61654
13.4112 123.725 -0.0987595
12.3544 127.828 -5.32501
2.9005 130.217 7.4841
8.74475 131.746 -5.63816
-6.96225 141.004 6.49162
9.966 128.255 -1.65499
8.18358 120.112 15.7403
5.79282 125.701 10.3273
11.2671 128.596 -4.50271
-4.70709 143.428 -1.61039
18.0105 117.641 2.53421
-0.47694 132.606 9.72675
10.8117 118.133 14.6789
-6.99709 147.254 -4.04543
12.5173 122.333 4.33975
9.69926 128.101 -0.491288
9.05006 131.776 -5.70312
10.7371 118.31 14.7908
-11.0071 151.07 -3.14332
16.1165 122.692 -2.38794
12.2353 122.38 5.13389
13.9787 120.718 4.98312
11.6607 123.054 5.0982
-4.94734 137.153 10.3847
-5.75333 141.193 4.83118
12.6693 127.942 -5.11866
-6.71681 147.234 -3.86529
11.8443 119.896 10.4233
10.7067 130.535 -6.00919
10.1932 126.436 2.09235
3.06019 130.816 7.27364
5.16715 127.861 8.83135
12.2544 122.979 4.61815
13.8633 123.72 0.451293
13.6638 122.441 3.07565
10.9129 118.717 14.5679
9.66522 128.286 0.178685
8.83446 120.384 15.5393
14.537 120.512 5.17498
14.0158 122.522 2.61748
13.8616 123.117 1.90407
10.1694 129.063 -1.73081
12.0756 129.344 -5.60748
-0.894005 133.607 10.319
18.1089 120.682 -1.2626
8.9794 132.794 -5.84737
12.0601 126.369 -0.178233
-5.72612 146.251 -2.85677
-6.84089 148.013 -3.90061
14.3533 123.148 1.38365
-0.901499 140.496 -1.34871
14.1454 120.338 6.75649
13.3242 123.882 2.09074
17.9967 121.188 -1.55351
6.10009 126.824 10.0719
-5.41065 146.09 -2.56868
12.4559 126.372 -0.285969
7.07829 123.734 14.1057
0.37002 133.567 9.0792
-12.657 152.285 -0.103126
11.2984 128.313 -1.32599
12.3577 123.427 5.3557
11.3004 119.713 13.79
0.830953 133.594 8.4283
-3.88028 144.132 -1.32947
13.3198 128.37 -4.72793
4.7739 130.018 7.86284
11.801 127.539 -0.373257
11.7161 121.05 11.0813
11.0105 131.58 -5.96308
17.662 118.761 4.42609
6.54299 135.694 -5.02126
11.2294 124.545 6.01208
-5.76664 141.096 7.72893
6.88998 124.799 13.6265
10.8942 126.902 2.83044
0.645789 134.08 8.83746
11.0488 121.138 12.7649
-6.92223 149.174 -3.74832
-5.75105 142.024 6.68037
0.966767 140.676 -2.99678
14.4871 121.68 5.81843
5.76344 137.155 -5.41437
12.9282 123.502 5.54474
-3.80961 138.811 8.96359
-6.10641 148.313 -3.44791
-4.89429 140.115 8.65931
11.4296 121.573 11.7063
-3.96546 142.571 2.84582
-1.21265 135.641 10.1116
11.5873 126.134 3.76643
-2.20104 136.676 10.2353
-4.23302 142.193 4.35981
13.5012 126.692 -0.373274
11.1228 121.7 12.6358
8.25473 135.256 -5.77182
7.45557 124.82 13.9162
-8.93583 151.493 -3.0753
10.0933 133.679 -6.20358
16.0721 120.707 5.65123
15.7623 121.077 5.57382
13.534 123.116 6.08959
12.6014 126.22 2.40951
12.8193 121.772 9.77864
6.28978 137.325 -5.47147
6.14476 129.256 8.85673
13.7706 123.012 6.07022
7.06092 126.248 12.5011
11.9635 131.17 -4.82198
1.82693 140.944 -3.63512
-3.29868 139.128 8.75181
-2.69281 138.071 9.54673
-5.17041 142.449 6.41803
17.325 124.091 -1.91673
-4.53077 146.756 -2.11022
12.2985 126.765 2.75919
-2.65995 144.483 -1.09995
4.72396 132.266 6.92129
-4.53035 147.076 -2.15003
-11.0966 151.736 1.61834
1.84426 141.369 -3.51053
12.1338 131.381 -4.57626
10.271 122.671 13.9458
10.4284 131.383 -1.49225
-8.44392 151.745 -3.03255
-2.06118 137.827 9.75765
15.0926 127.67 -3.31482
-3.81946 142.652 4.61353
12.4986 128.285 0.353057
12.2618 128.751 -0.0260834
3.95232 140.14 -4.89232
12.2577 122.722 10.5286
3.07778 134.345 6.8486
16.5395 121.021 5.9201
16.1637 125.986 -1.91716
9.69395 135.219 -6.3695
10.6048 122.811 13.6227
9.31276 124.407 13.1642
12.9459 131.152 -5.05377
13.2449 129.343 -2.40428
-3.68569 146.417 -1.7022
-11.1292 152.315 1.38934
11.8701 127.595 3.17148
12.6867 128.55 0.0517321
-3.95897 146.843 -1.88595
13.3174 127.13 1.44127
12.4667 127.424 2.45637
9.67072 124.522 12.5651
7.19617 137.477 -5.53369
12.4648 125.402 6.05392
14.1617 122.838 7.47965
12.2917 131.702 -4.57677
-7.14518 151.196 -3.58243
12.7851 130.315 -2.97178
6.9855 129.077 9.61205
14.4619 129.344 -4.24538
8.51619 125.144 13.7545
8.42037 125.186 13.8832
15.579 127.423 -2.79644
-3.97911 147.129 -1.95761
7.49592 137.393 -5.55632
11.0926 123.175 12.7545
-0.893215 137.592 9.32922
4.18764 140.504 -4.82641
12.7496 123.192 9.94462
18.6099 124.045 -2.0134
-9.45542 151.114 1.25695
10.826 132.03 -1.85531
11.5934 129.934 0.564092
18.4303 124.344 -1.97243
12.5653 128.292 1.68113
14.3719 123.744 6.3877
14.1784 123.46 7.41458
-1.36195 138.335 9.48754
-0.283213 137.608 8.87172
10.6937 125.123 10.9234
11.8004 130.006 0.469812
13.3423 125.635 5.56999
11.0733 131.85 -1.12944
18.3857 120.169 6.0993
9.55939 126.186 11.5377
-6.98876 151.808 -3.35758
4.30788 134.953 5.95735
-9.83507 152.499 0.814221
12.1138 133.443 -5.39075
-2.68785 141.095 7.88624
13.3393 127.974 2.04132
11.3126 125.635 9.77346
8.11571 137.956 -5.93074
-3.65425 143.221 6.04302
14.4289 124.819 5.69412
19.1998 124.435 -1.91915
13.8535 128.401 0.842773
10.9907 126.294 9.73189
5.74719 133.402 6.7817
10.7802 135.711 -6.26731
7.0519 129.481 11.3221
-6.04019 151.308 -3.14057
14.0926 129.801 -1.69675
14.1815 125.379 5.84862
7.84487 138.636 -5.85229
7.30216 130.38 9.58236
0.684312 143.573 -1.47097
16.4034 127.824 -2.23464
12.2978 125.829 8.72065
14.1695 124.278 8.1111
14.6435 130.989 -4.29784
7.95276 138.852 -5.92835
20.1033 124.05 -1.93469
10.4589 136.486 -6.19188
13.5255 129.264 0.879378
12.501 133.768 -5.07025
21.0433 119.217 5.05808
-3.16324 148.197 -1.90271
5.65813 134.407 6.28065
20.3333 119.217 6.41127
15.2545 124.083 7.07642
7.27315 131.485 8.52841
15.0434 124.492 6.78405
12.9928 131.249 -1.25241
-2.71686 147.697 -1.66526
9.4733 127.672 11.3193
-2.70035 143.089 6.34071
7.30197 130.342 10.6901
13.4979 130.044 0.100211
13.6961 130.683 -1.29865
12.7538 133.674 -4.77005
11.7693 132.964 -1.73495
-2.796 147.996 -1.74568
-8.35289 153.465 -1.20346
3.39486 136.949 6.55624
12.7492 133.929 -4.80726
20.7556 119.513 5.92892
14.4566 125.613 6.67823
20.5451 119.522 6.4787
6.18189 134.347 6.44944
4.38473 136.693 5.65217
0.60095 144.782 -1.46938
14.5142 126.312 5.73117
3.1998 143.367 -3.62805
22.4432 122.161 -1.21631
-3.95916 150.043 -2.24509
6.67048 140.809 -5.20828
19.4786 120.657 6.88868
13.2474 126.328 8.2193
6.45592 141.013 -5.11245
3.95181 143.163 -4.00707
12.9518 132.631 -1.7655
6.56954 134.507 6.45588
-7.75326 153.643 -1.03761
7.56447 131.842 9.44709
11.3239 136.497 -5.38009
9.09733 128.903 12.0173
18.983 126.296 -1.17078
12.0659 127.356 9.45002
10.3553 138.011 -5.98712
2.66872 138.714 6.67456
11.0565 137.015 -5.39891
10.1845 138.416 -6.26327
13.96 126.808 7.18704
13.3509 133.868 -4.00743
8.53698 129.813 11.7105
16.7636 129.531 -2.41221
6.87725 134.639 6.45786
13.8734 126.735 7.74917
7.5994 132.649 8.80812
11.6516 136.213 -4.6448
23.0501 120.436 2.58462
13.479 134.047 -3.86064
6.66576 135.469 5.92108
22.6273 119.991 4.25213
-0.675709 142.305 7.23503
-1.09727 144.551 4.08689
14.4902 127.159 6.47916
1.98526 139.825 6.90234
11.0772 128.475 10.3559
-1.54195 144.368 5.35898
7.85498 140.993 -5.62584
0.168903 146.536 -1.29798
12.5577 127.77 9.13802
-3.45857 150.83 -2.24857
5.23085 143.077 -4.33545
12.1876 135.844 -4.13246
9.30978 129.68 11.8305
15.3342 126.436 6.81748
7.7515 132.374 10.142
18.3214 123.453 6.82418
11.7522 136.65 -4.2873
8.64843 140.815 -5.9461
7.46118 141.754 -5.39421
16.2275 131.314 -2.78522
0.369814 141.685 7.64163
23.9971 120.774 1.7642
23.4681 119.445 5.10316
18.362 128.287 -0.828778
12.9103 129.267 7.34231
7.34654 142.461 -5.29251
12.7745 129.478 7.7587
6.75507 137.027 5.43625
13.8783 134.871 -3.46486
10.4111 139.835 -5.83203
4.93559 139.086 5.34835
13.8937 134.943 -3.48848
8.35282 132.561 10.6752
0.176734 145.201 3.44838
0.537503 142.965 6.69383
13.0555 136.001 -3.57203
24.2114 121.613 1.54136
2.05325 141.711 6.34023
7.35601 136.646 5.71842
24.5116 121.726 1.11311
21.7281 123.413 3.23535
24.4752 121.765 1.17976
0.586725 143.359 6.47016
21.7129 125.879 -0.856423
16.3132 126.707 7.56539
9.65889 131.735 10.7785
10.133 131.595 10.1786
3.2731 141.129 5.94046
13.6889 135.831 -3.29912
20.8287 122.474 7.14753
11.6835 138.837 -4.88454
4.39827 140.341 5.58314
8.49084 133.434 10.417
20.5143 127.579 -0.875758
17.261 131.548 -1.9425
15.022 128.89 6.86906
7.73755 136.933 5.98576
13.3459 136.005 -2.33658
13.7086 135.598 -2.20195
12.2729 138.197 -4.12816
21.2727 124.631 3.37661
17.1604 132.077 -2.15326
24.1441 123.385 0.505831
14.3994 129.684 7.06555
12.1002 131.116 8.82964
17.0801 126.53 7.95765
-3.91062 153.932 -1.9884
22.4878 124.053 2.69988
20.7564 127.894 -0.846196
21.0763 127.737 -0.993043
12.5342 136.504 -0.898854
4.49124 146.23 -3.35615
1.13236 144.254 6.16095
10.706 140.785 -4.8397
17.8783 131.415 -1.39518
-1.48397 151.802 -2.04558
3.25133 142.618 5.48333
8.23359 136.829 6.78416
15.7761 128.763 7.32475
0.788486 145.888 4.56355
2.33553 148.061 -1.96762
-3.85329 154.52 -1.77621
20.4726 128.705 -0.483466
22.3228 122.401 7.21901
8.51572 136.142 8.18548
18.687 130.226 0.250526
7.55157 139.01 4.99969
22.0762 125.926 1.84324
7.56367 144.896 -4.97395
18.9884 125.926 7.55524
20.9487 124.955 5.83625
21.0248 126.265 3.42624
22.3695 125.89 1.67712
11.9356 132.471 9.02853
21.3088 123.707 7.60196
12.8787 138.183 -2.33379
-0.611277 151.888 -1.9343
-3.17441 154.523 -1.82257
15.0785 130.252 7.6854
13.794 131.566 7.74779
20.5248 129.299 -0.3536
21.3544 123.854 7.65311
9.32184 143.646 -5.04573
18.6525 126.622 7.84918
6.62241 140.869 4.73576
20.8211 126.798 3.80211
13.3763 137.172 -0.842397
12.2051 139.801 -3.18236
19.6557 130.215 0.155626
-2.08699 153.875 -2.00694
8.94756 136.984 7.72869
14.1486 136.912 -1.45988
1.24605 150.361 -1.65268
-0.0545192 151.849 -1.84488
1.79887 145.854 5.36119
12.5194 132.801 8.84918
7.1068 140.889 4.50579
7.80131 140.171 4.60389
17.7843 133.794 -2.12944
17.2942 134.774 -2.88209
17.722 134.079 -2.2863
1.63553 150.336 -1.68414
16.6503 129.247 8.09322
12.0452 133.433 9.0826
9.06089 137.7 7.07276
6.68592 141.798 4.49815
0.750804 151.504 -1.71549
22.0213 128.763 -0.171115
20.098 126.576 7.16659
18.3614 128.706 7.31862
11.9863 140.051 -0.978642
20.7638 128.308 3.93931
10.378 144.031 -4.68924
22.6637 128.237 0.845171
8.23233 141.032 4.62943
14.3306 133.024 7.63329
-0.636599 154.047 -2.03465
8.56745 146.191 -4.76254
3.83004 145.752 4.65792
6.42533 147.91 -3.6664
14.0777 138.538 -0.830253
3.80758 146.098 4.59398
9.35536 139.641 5.92377
20.9128 131.018 0.459869
21.4915 130.558 0.223951
21.9105 129.319 1.66253
11.2585 136.519 8.45208
6.59588 143.874 4.04079
11.7886 136.228 8.042
9.26278 140.361 5.58438
10.2086 137.631 8.72831
10.857 137.215 8.52287
20.7098 128.964 5.26703
1.92743 152.493 -1.89021
12.3163 142.958 -3.92578
8.38564 142.591 3.9277
20.1507 129.09 6.33851
10.3681 137.75 8.85867
19.1747 130.003 6.61505
20.5157 128.885 6.22967
7.9771 147.806 -4.17559
13.8526 134.921 7.78507
8.55767 142.5 4.11381
17.2026 137.177 -2.04712
16.7665 137.755 -2.09503
11.0887 137.711 8.23768
20.6729 129.488 5.35857
12.3325 142.04 -1.49244
20.5799 130.008 4.86272
3.51904 151.551 -1.99648
9.90148 140.369 6.25793
