ply
format ascii 1.0
comment Created by Open3D
element vertex 1937
property double x
property double y
property double z
end_header
14.4735 118.641 -2.51108
16.9503 119.894 -0.990365
-18.358 90.7225 0.397122
-13.8589 92.0763 4.9318
3.78815 106.711 4.25644
17.4541 120.631 -1.35249
-6.68761 94.8473 10.9977
7.27417 106.7 9.85887
-17.918 96.0249 -8.72959
16.8129 120.11 -0.961792
14.5449 118.636 -1.63653
3.2176 105.668 5.85326
-9.72539 102.661 -8.54558
-16.1967 97.7082 -8.93457
8.36605 109.635 6.50519
-9.42714 94.0277 8.9407
-19.6307 94.5301 -8.04988
8.26717 109.357 6.95343
-0.577924 101.312 8.81167
14.1466 110.276 14.4903
-21.6061 92.2089 -6.42387
15.7076 113.574 10.5988
-4.60984 106.143 -6.77636
-13.964 100.24 -9.95851
4.66645 103.908 12.2042
5.29007 105.425 10.2458
17.1014 120.877 -1.2273
-20.9388 91.6418 -3.87057
-20.7787 91.0751 -2.39791
6.14352 110.469 2.17272
15.6157 113.39 11.3949
10.4989 116.582 -2.82081
18.3973 122.446 -1.6822
13.5737 115.921 3.44689
15.5139 113.479 11.2946
4.3315 111.199 -1.8027
14.9779 114.182 9.18729
2.9887 111.458 -4.30279
17.0345 120.05 1.04533
9.4762 106.367 15.8456
2.8789 105.764 6.66298
3.60669 107.319 4.80392
3.58742 111.077 -2.53221
6.43679 103.997 15.7254
17.2674 121.493 -1.23587
4.65408 104.108 12.9663
-20.3979 91.7868 -2.35807
-20.3131 91.3596 -1.39075
9.72346 116.154 -2.37402
6.83278 113.431 -1.46654
5.10307 105.784 10.759
9.68305 106.982 15.6966
12.6694 119.617 -4.17535
-0.636452 102.657 7.96163
6.17595 111.167 2.13256
7.2881 108.626 8.86148
4.36771 109.382 2.8635
1.65744 105.006 7.24198
-7.38099 95.8272 10.9274
10.6001 117.784 -3.54085
-8.95547 95.0415 10.0034
-17.3092 92.4848 1.89047
4.7885 111.956 -1.21609
-16.0009 92.9859 3.08903
-20.8957 93.0715 -4.71501
-19.8005 95.5975 -7.87758
-8.53861 105.106 -8.64391
1.024 104.7 7.2385
-12.3807 94.2395 6.57097
-6.62204 96.8471 10.6445
16.7207 121.601 -0.863326
15.3944 116.259 7.49271
-16.842 98.7486 -9.04697
14.0899 115.12 7.68156
8.67006 111.739 5.75862
17.0542 122.436 -1.85911
-10.8979 94.8335 7.97048
13.993 120.72 -3.23665
-1.93042 102.012 8.16281
10.3667 108.252 15.4106
13.7307 115.9 5.81522
13.7681 118.408 1.20595
9.75605 107.87 15.4495
12.3568 120.214 -4.41891
7.08535 105.936 15.1294
18.4967 123.293 -0.664919
-4.57498 99.4138 9.57177
7.42515 106.304 15.1006
4.04972 109.411 3.78629
14.0538 119.069 0.745201
1.49396 111.756 -4.73171
-7.45606 105.968 -7.50114
-17.3461 98.6926 -8.86794
-14.0456 101.748 -9.629
-5.19287 98.8707 9.8724
-15.8516 100.329 -9.59616
14.5289 113.938 11.6265
13.847 118.828 1.06525
14.4059 115.502 8.415
-3.30877 108.491 -5.73587
14.6737 118.313 3.4117
14.9509 118.315 3.87572
18.2952 122.938 0.149797
17.8878 123.618 -1.81396
-0.979906 110.364 -5.48372
4.59929 105.708 12.4321
14.183 121.195 -2.6488
18.2407 122.357 1.46432
13.665 115.035 8.52752
-8.84371 95.7239 10.8041
11.1062 119.321 -3.72617
18.0074 123.723 -1.43322
18.9624 122.746 1.98169
5.53146 106.677 12.1681
6.83264 106.39 14.831
-5.42283 99.133 9.76937
2.9337 112.374 -2.86893
14.8423 118.778 3.43711
-5.02249 99.6883 9.4277
13.5698 117.753 3.47609
8.11999 113.987 2.25596
-10.8521 104.472 -9.01509
-13.0557 94.894 6.26242
4.27518 110.45 3.21945
15.5477 121.561 -0.629475
12.1877 110.877 15.0043
-10.2343 95.7757 9.24656
8.75448 108.129 15.0364
13.3995 118.025 3.25213
7.33052 107.268 14.6976
4.82575 113.45 -1.21767
17.2355 122.044 1.55623
-17.1419 99.6471 -8.81207
16.2836 119.324 5.5189
4.64425 113.463 -1.21215
16.8887 121.729 1.93737
6.58786 109.508 9.56504
8.93555 117.794 -2.78845
9.21835 118.245 -3.19748
19.1799 122.223 4.70662
3.02235 108.239 6.723
5.73193 114.82 -1.81251
-12.9257 95.5019 6.55823
-8.73676 96.4241 11.4049
16.1995 121.581 1.61564
14.0388 114.773 11.5372
-18.7106 98.6105 -8.41073
-0.0398615 111.98 -5.10049
13.0712 118.561 2.7302
9.00173 115.251 2.79557
5.35168 114.613 -1.68445
-6.8942 107.373 -6.81406
15.5841 122.867 -1.66112
-9.40441 106.284 -8.62493
-14.4033 102.856 -9.76235
13.0822 118.947 2.19224
-14.3692 102.965 -9.77225
15.6858 117.873 8.44108
3.54841 109.651 5.39959
6.33249 113.597 2.1273
-5.17531 108.426 -5.77779
16.4121 118.634 8.28272
-5.71842 108.126 -5.92396
9.34507 109.584 14.9218
17.5464 122.555 2.60159
-10.657 105.986 -9.39591
17.7266 123.094 1.91407
2.79248 108.37 7.11814
14.344 122.924 -2.8592
13.7302 121.258 -0.477038
17.0668 120.359 6.59551
5.34455 107.49 13.2287
-12.4465 104.888 -9.62701
16.2803 118.788 8.43427
9.37418 109.936 14.8428
-11.8085 105.43 -9.56215
16.7461 123.398 0.471603
16.3803 124.474 -2.14596
16.8177 119.618 8.0543
2.11159 107.945 7.77333
-17.9792 94.5802 2.23917
-19.0465 99.1381 -8.28996
-9.20774 107.017 -8.09125
6.45091 110.653 9.4836
5.85186 116.046 -1.90168
-2.44054 104.071 8.4095
-15.0869 95.6313 5.04532
15.5881 122.323 1.28366
1.1279 113.73 -4.66639
14.5729 122.879 -1.26379
17.3701 120.616 7.60242
13.087 123.204 -4.13664
14.3131 123.824 -3.35799
15.2813 118.471 8.72139
13.7479 122.186 -0.910237
-1.60007 112.156 -5.45659
17.6916 122.67 4.39275
14.4922 117.257 9.96608
19.4077 124.439 3.77771
5.22821 108.244 13.0283
16.5574 120.897 6.24527
6.21727 114.799 1.8847
18.5696 124.458 2.6921
16.378 119.698 8.55486
18.6153 123.801 4.19249
14.4545 123.3 -1.36191
16.3883 125.274 -2.1498
-20.6188 95.9356 -3.15193
4.82692 107.632 14.0589
16.4997 123.158 2.26024
-1.44653 105.619 8.24256
-10.9573 106.88 -9.08767
8.38842 119.133 -2.55066
-10.4482 97.4817 10.0418
-18.6457 100.337 -8.38155
7.83561 113.896 6.83546
5.10018 108.515 13.043
4.76475 107.732 14.0449
13.8193 121.782 0.931778
13.6893 115.034 13.8719
15.8235 119.356 8.88082
-11.5672 97.1532 9.14732
16.4443 123.346 2.31065
1.98899 114.494 -3.09077
-19.7214 95.6398 -0.408534
8.14072 116.999 1.82733
19.7873 123.673 7.26261
1.16981 114.727 -4.50285
14.108 122.144 1.43069
17.2507 121.667 7.39154
-16.8494 102.636 -9.11412
-14.9337 96.5382 5.78817
6.98212 113.044 8.11161
3.07681 114.831 -1.45581
4.26496 113.093 3.79996
-6.95437 109.285 -6.40591
15.8924 121.837 5.05213
8.55407 119.731 -2.33528
8.42995 119.628 -2.32063
19.8134 125.61 4.04103
-21.2835 97.0916 -4.9424
16.2323 125.896 -2.05869
16.9706 121.236 8.18977
9.31732 117.837 2.80499
-14.3749 104.996 -9.36464
14.1732 123.888 -1.23204
-12.1001 97.4398 8.97839
15.3585 122.299 3.73293
-12.2117 97.4305 8.90399
13.725 124.004 -2.0442
16.3105 122.1 5.72258
15.2357 123.834 0.698397
-11.5019 97.726 9.51465
0.893209 108.305 8.44663
11.3817 113.706 14.5349
16.2673 122.302 5.48828
5.51631 109.232 14.0502
-9.63289 98.4301 11.2888
18.1171 125.548 2.14246
-20.9157 98.5671 -6.51234
10.1949 112.931 14.559
13.8841 124.277 -1.62424
18.2967 124.422 5.03005
12.995 123.185 -0.855542
14.5034 124.064 -0.167831
22.2602 124.785 10.7221
2.90439 111.147 6.94752
16.2782 126.558 -1.96006
21.3825 124.967 9.15744
16.2513 123.338 4.27486
0.121438 108.082 8.65464
5.34555 109.981 13.2145
-10.7011 108.213 -8.53758
17.8591 126.384 0.951824
12.053 124.581 -4.64089
13.3015 123.961 -1.46957
-20.628 99.4761 -7.08529
18.1738 125.877 2.49455
20.5292 126.184 5.63755
11.0531 123.779 -4.54092
19.9039 124.526 8.04686
14.7371 123.997 0.969895
13.6611 125.765 -4.0429
10.6832 123.578 -4.45997
-9.66233 99.0739 11.2905
16.6522 123.454 5.37372
-8.53142 109.585 -7.17438
16.0769 123.264 4.8911
-18.4086 101.898 -7.649
-16.6775 96.9926 4.77915
16.2461 122.882 6.14136
-14.8326 105.619 -9.02065
-12.1726 107.987 -9.37576
-8.07573 110.005 -6.84085
2.96977 116.188 -1.5058
-2.4852 106.442 8.9118
3.04212 112.023 6.74336
-9.98395 99.2527 11.1537
19.2028 126.926 3.14937
-2.75917 106.264 8.92401
-20.3488 97.4471 -1.43734
-15.7239 105.048 -8.92837
-5.02821 111.562 -4.78367
10.5837 124.074 -4.52945
13.2319 124.417 -0.987631
8.58011 121.197 -1.99095
20.2839 125.235 8.56476
13.3716 124.478 -0.80511
13.625 125.303 -2.00525
14.0767 124.361 0.549433
14.0116 124.167 0.909649
13.3557 119.078 9.84753
5.41409 111.394 12.3309
1.10196 116.219 -3.8129
15.1924 124.057 3.06143
-3.45372 112.818 -4.26976
11.9658 115.708 14.3574
6.8889 119.597 -1.17344
19.2543 127.283 3.32929
15.8573 124.746 2.9519
5.72375 111.041 13.7398
9.65796 113.863 14.4387
-20.8034 100.134 -6.6736
14.2491 125.87 -1.69168
9.54903 119.621 3.11646
-3.966 112.527 -4.27606
2.0268 116.293 -2.18457
-8.74803 101.116 10.5089
14.2864 124.764 0.754507
17.1868 123.277 8.2037
4.94522 118.305 -1.29328
7.62859 115.862 7.70564
-2.7879 113.732 -4.44195
17.4473 127.697 0.210864
7.39501 120.372 -1.28193
22.1038 128.196 6.6066
6.52075 119.516 -0.957683
13.4644 125.431 -1.52624
16.8074 122.939 8.59278
-9.0973 110.181 -7.21753
22.3328 128.175 7.12759
19.7742 125.388 8.56628
-20.6842 98.0732 -1.74883
19.5967 125.55 8.05009
-15.7619 105.811 -9.05549
13.2534 118.761 11.3204
15.2535 127.095 -1.73975
19.5755 125.466 8.23452
2.8874 112.577 7.1371
-14.5354 106.822 -9.00229
22.289 128.462 6.7968
-18.258 97.5449 3.29937
-17.3166 97.7991 4.3515
18.206 124.469 8.25931
5.74666 112.938 11.1558
-15.9126 98.1941 5.90194
13.3811 127.225 -4.56487
16.3605 123.236 7.93044
2.52723 117.051 -1.64809
-18.506 97.7394 2.91558
12.9457 124.931 -0.579954
20.4595 127.306 6.65776
-2.22794 107.75 9.12943
17.1805 123.9 8.22273
13.5421 125.655 -0.822983
17.4104 124.087 8.30481
-20.9481 98.8128 -2.68673
-12.492 99.3649 9.51919
14.4222 127.047 -2.0505
-20.8058 100.06 -4.8448
-6.4054 104.605 8.92866
-11.7791 109.503 -8.98924
20.4561 124.756 11.9964
0.497453 117.058 -4.3499
2.22871 117.277 -1.94328
3.15325 113.666 6.6011
-16.4774 98.5401 5.25875
7.3178 116.32 8.09214
-8.57624 111.111 -6.71844
5.38064 117.674 2.42817
-20.8651 99.5732 -3.50652
14.8967 123.446 6.28128
-1.6441 115.72 -4.61298
19.5848 126.153 8.43289
-9.67017 110.711 -7.4522
3.41476 114.506 5.75994
13.8322 127.683 -3.4521
12.6631 125.618 -1.17743
-18.3091 103.957 -7.65063
-5.05089 112.973 -4.37385
-15.0528 107.363 -9.16079
18.1396 124.421 9.77888
-19.5183 98.4571 1.22184
-4.56683 106.474 9.13413
15.3815 123.274 7.82571
22.6774 129.677 6.82674
18.1358 124.503 9.83946
-16.9631 105.813 -8.88146
6.56515 113.105 13.8758
12.7838 127.563 -4.46272
-5.6258 105.785 9.0277
-13.6386 108.778 -9.33965
-8.5437 111.551 -6.70616
20.5987 127.012 8.98584
-5.9558 112.664 -4.77353
8.43498 118.329 6.80073
11.8409 126.913 -4.53173
-6.3113 105.338 8.96849
18.9941 124.29 11.8296
19.3419 126.268 8.53931
-14.7634 99.3837 7.31034
-3.59695 114.106 -3.79921
-13.7852 99.6101 8.40769
8.65214 123.634 -2.90055
9.54223 120.511 4.57745
20.3234 127.089 8.74386
9.71152 121.634 2.70235
-18.4081 98.7233 3.16163
7.63258 113.989 14.3561
14.9735 123.766 6.88473
9.24646 119.797 5.66971
18.4905 126.175 7.81586
17.1771 129.448 -0.541016
-11.0449 100.873 10.7463
9.76113 121.589 3.17034
-12.6107 100.221 9.64627
-20.0594 99.0927 0.158977
-4.14753 114.035 -3.87971
18.4874 128.751 3.05744
20.7 127.347 9.30431
3.69767 115.717 5.24681
-19.3609 99.052 1.46709
5.86477 114.64 10.7577
-3.34127 107.991 9.31796
6.41516 113.763 13.4278
-8.29371 112.172 -6.53994
7.51418 117.491 7.95217
-19.3091 103.474 -6.86925
17.1607 129.705 -0.45831
14.7185 123.571 7.74383
11.1583 126.962 -4.44118
-20.7535 100.612 -3.27176
-3.51741 108.06 9.33893
4.04353 116.587 4.63801
3.83957 116.203 5.06558
9.76841 121.884 3.34474
17.7471 129.229 1.67437
-18.2933 99.3008 3.35546
14.7311 123.978 7.20552
13.3791 124.511 4.08583
-2.8685 108.686 9.36973
3.82913 119.531 -1.18582
20.6861 130.151 4.63163
13.9038 121.89 10.1467
-20.9894 101.051 -4.08146
8.99879 122.118 2.09632
14.2358 128.122 -1.348
12.7225 126.084 0.284293
-14.4575 109.144 -9.30956
4.39059 117.674 3.69182
-16.7795 107.122 -9.00053
-9.38351 112.173 -7.2101
11.8494 118.682 13.4737
-4.49984 107.674 9.3363
3.7162 119.741 -1.21302
14.7328 124.236 7.33984
12.6112 126.018 0.543704
7.28828 122.643 -1.23436
16.2011 124.987 8.22454
-8.64945 112.664 -6.81222
-1.98179 116.602 -3.99238
9.33241 125.848 -4.156
11.3254 118.273 13.7478
8.47839 124.834 -3.41378
6.66351 120.805 1.5936
6.16685 114.497 13.0961
-7.68633 113.13 -5.96612
3.63358 116.254 5.7294
-1.34872 110.419 9.26408
13.9247 127.42 0.188214
12.9966 124.626 4.17024
8.80636 125.321 -3.73127
-14.4907 100.588 7.87807
19.5908 126.941 10.1853
14.4329 127.496 1.06998
12.3496 126.962 -1.1352
15.8072 125.07 8.01758
-20.1744 100.207 -0.0368737
20.442 129.423 6.93706
-7.07612 106.096 9.16128
-9.97875 112.33 -7.49514
18.4459 125.838 10.8566
-20.57 100.76 -1.58893
12.6745 129.203 -4.69065
9.20011 116.808 14.1666
9.3509 116.956 14.1527
6.3223 115.053 13.1145
16.8483 130.584 -0.547033
14.3831 127.529 1.53742
3.32274 120.156 -1.43258
13.9242 127.357 1.21411
14.1259 129.527 -2.68207
-6.70399 113.971 -5.04643
9.66465 122.184 4.71087
14.0773 128.33 -0.229704
-10.1636 112.569 -7.57861
19.2191 130.259 4.17741
11.9022 128.849 -4.45452
-20.8877 101.958 -3.57938
1.35763 113.544 8.82755
-19.1662 100.66 1.67801
18.3162 126.529 10.2239
-20.3317 100.737 -0.274332
17.7678 130.242 2.20276
5.24423 121.673 -0.762846
-13.5536 101.503 8.97887
-3.12088 109.761 9.30142
14.0005 128.657 -0.579141
6.89532 121.83 1.55938
18.4721 128.189 7.36334
20.5137 130.222 6.64645
16.4175 125.604 9.26577
17.8022 130.391 2.19547
-20.7338 102.143 -3.31313
5.42633 120.216 2.60778
18.1263 130.454 2.63086
20.3638 131.16 4.772
-7.79661 106.124 9.2736
-4.35818 115.479 -3.44932
6.62611 115.75 13.2909
14.746 130.38 -2.41763
13.22 130.022 -4.04714
17.0652 125.712 10.4042
18.6616 128.043 8.38206
-2.18897 117.342 -3.51292
-20.6309 102.316 -3.20614
8.28776 125.816 -3.51689
18.9588 130.573 3.9829
18.0089 126.298 10.8412
-0.056722 112.534 9.30123
21.0692 131.147 6.30644
18.0802 126.459 10.8371
13.9274 129.917 -2.28063
4.1765 118.527 4.57046
-20.2985 101.882 -1.41559
-20.2733 101.27 -0.159119
-6.95597 114.602 -5.15034
-20.2626 102.639 -2.70549
7.55638 124.715 -1.96737
19.6136 129.658 7.34804
12.4278 125.267 4.64115
10.4889 128.205 -4.06429
13.2059 129.376 -2.07666
-1.71356 118.106 -3.47696
-4.19741 116.015 -3.24869
7.32352 116.791 13.411
-17.9145 101.423 3.80344
13.8882 130.251 -2.3481
-4.86091 109.181 9.29356
16.859 127.293 8.18368
-6.83212 107.663 9.18261
13.7255 128.095 1.73296
-20.2672 101.648 -0.166746
-10.4352 113.458 -7.64252
6.12383 116.943 11.5759
-6.72064 107.826 9.16506
16.6928 126.552 9.54223
14.8844 131.291 -2.44418
20.4115 129.293 10.1349
6.24142 116.947 11.9217
5.5905 121.24 2.5932
2.6351 121.095 -1.73577
-1.16819 119.007 -3.56117
15.7694 130.03 1.58736
13.2197 124.837 7.69712
11.0931 120.83 12.1648
13.5676 125.483 7.00771
11.6394 126.699 1.62743
2.55007 116.131 7.94224
-19.244 106.081 -6.72011
-10.918 103.875 10.7802
0.663355 114.054 9.18432
9.22912 122.749 5.79438
-18.4753 107.083 -7.20332
16.3242 127.534 7.66051
6.38155 118.481 9.68245
-14.6571 111.262 -9.30122
-5.72505 108.958 9.21757
14.0753 128.737 1.86263
10.9592 120.882 12.2681
8.03014 120.915 7.61246
14.0573 126.104 7.08048
-18.6897 102.142 2.30977
18.3133 129.117 7.94153
21.6259 132.893 5.80518
-14.8252 111.238 -9.28884
7.92059 124.222 1.16116
6.01894 123.646 -0.692805
10.0403 125.218 2.63283
12.5392 130.896 -4.4467
10.038 124.838 3.47482
13.4211 127.908 2.8299
13.641 129.722 -0.348645
9.64619 125.164 2.24725
-12.848 112.82 -9.03024
0.822285 120.841 -3.16478
14.2983 127.385 5.30773
17.2535 131.964 1.06003
7.38893 117.806 13.1779
-7.81156 107.52 9.35061
4.1449 119.472 4.87645
13.8654 128.141 3.31661
13.7583 131.979 -4.31064
15.538 129.691 2.9406
6.19288 117.95 11.1332
19.3422 129.277 9.74857
-19.3999 102.504 1.04401
3.003 117.433 7.20933
7.38458 125.997 -2.51835
9.05675 119.026 13.6961
13.7174 131.657 -3.56047
-3.73713 117.283 -2.99832
19.4787 128.983 10.8457
17.2035 127.198 10.8113
19.9548 130.081 9.5482
18.7796 130.155 7.56185
12.5438 125.678 6.53391
15.5428 132.498 -1.85445
-5.55859 109.901 9.22251
8.64131 122.633 6.74829
19.3541 132.528 4.36541
18.4369 128.374 11.0442
15.3815 131.791 -0.307366
-13.1564 113.215 -8.9667
0.244058 121.075 -3.21375
-20.2302 105.065 -4.2089
-19.5733 103.138 0.616222
10.1136 125.742 3.28411
8.61341 122.758 6.77814
12.6775 123.952 10.8405
12.2108 123.401 11.1958
8.99207 123.426 6.11596
17.8128 128.045 10.9826
-4.87742 110.689 9.15842
12.7512 127.623 3.91485
6.1446 119.146 10.0558
11.538 128.474 0.441066
19.2368 133.322 3.11308
7.47137 127.042 -3.1142
16.3369 133.713 -2.14892
17.1527 127.665 10.9092
21.8917 134.043 5.98596
12.0378 123.369 11.2901
11.6331 128.97 -0.205994
16.6567 133.969 -2.03212
8.31001 128.283 -4.0396
8.19508 125.516 1.1701
1.28832 122.086 -2.89219
13.9316 131.727 -1.77736
-13.1025 103.913 9.91396
2.24072 117.101 8.35722
-19.9549 106.869 -6.52186
-15.3441 103.56 7.17389
14.6261 132.254 -1.58347
13.3302 128.245 4.27718
19.6092 129.943 10.8436
-20.0361 105.447 -3.67022
8.4965 123.108 6.92378
8.40551 128.648 -3.93866
-3.05693 118.779 -2.71692
6.21002 119.143 11.1314
-4.12965 111.899 9.06591
6.83246 120.786 9.01456
9.8024 125.237 5.01791
12.6617 130.953 -1.5891
13.9697 129.307 3.67876
4.53348 121.402 4.25574
13.7873 132.739 -3.2349
15.5113 132.447 0.128945
12.5411 132.19 -4.0151
-6.0575 117.145 -3.91269
13.0188 126.776 7.36377
11.6743 129.733 -0.486192
15.709 128.651 7.95675
7.2428 127.563 -3.18656
15.577 132.493 0.309443
-15.2478 112.515 -9.15694
13.6681 133.349 -4.27249
0.354691 121.858 -2.68964
-19.083 108.538 -7.25405
8.17604 126.157 1.28644
7.52884 122.11 8.16354
4.47066 121.511 4.52967
4.3194 121.187 4.93212
-4.13149 112.213 9.12442
11.1054 123.133 11.805
13.4683 126.556 8.9447
18.2421 135.127 -0.106059
-20.1991 107.407 -6.50855
15.6447 132.734 0.522719
10.8797 123.057 11.8826
-17.9278 103.799 4.22261
13.7008 128.844 5.23565
-6.24488 110.705 9.21517
10.1397 130.758 -4.0278
-18.5837 109.551 -7.86175
-16.6833 104.25 5.4455
11.4112 127.909 3.53437
14.7309 127.714 9.16826
-4.52738 118.325 -2.76301
12.731 125.776 9.83852
2.28126 123.478 -2.07455
-5.41794 117.928 -3.35127
6.62447 119.904 11.7754
16.3826 134.756 -1.7821
-20.9798 106.214 -4.83867
-4.13865 118.688 -2.62688
10.6877 123.156 11.9727
14.8633 133.114 -0.782376
8.2592 129.344 -3.80254
-19.6907 105.49 -1.15493
13.1313 130.088 2.60755
6.50791 120.106 11.6346
1.30068 123.171 -2.44329
-17.2071 111.515 -8.76114
7.31915 128.83 -3.90949
7.29398 120.508 12.2522
6.42044 121.026 9.97271
-7.1767 117.679 -4.81534
18.4167 130.688 10.0804
17.1165 129.46 10.502
-19.0376 104.824 1.70848
6.96585 125.841 1.66803
1.80782 123.791 -2.43805
-19.3496 104.959 1.05572
-9.27446 108.357 10.3348
-19.326 105.984 -0.750583
12.6584 128.051 6.55724
12.1358 130.02 1.94691
14.4593 128.185 9.17808
-18.5313 110.426 -8.04791
6.8326 128.24 -2.77618
4.55185 122.69 4.44357
-4.35535 119.156 -2.62476
2.57249 124.392 -1.82215
13.1413 127.377 9.11793
19.825 136.388 2.0831
14.4406 133.308 -0.237861
17.7368 130.553 10.2988
14.4952 134.861 -3.10866
-15.1801 113.878 -8.86674
17.6723 130.479 10.4686
0.853592 123.416 -2.18792
-6.41136 118.432 -3.87109
4.9163 123.66 3.75257
12.9823 128.486 7.09614
8.94454 122.412 12.5878
-8.62481 109.654 9.92306
11.9825 131.863 -0.885575
15.3363 130.221 7.61441
-20.6821 107.731 -5.11346
19.4534 136.794 1.37163
-2.15317 121.233 -2.27349
6.55936 122.032 9.9148
19.76 136.812 1.92436
4.30105 122.685 5.149
-7.64385 110.915 9.38416
1.24835 124.073 -2.22291
13.14 131.832 1.38209
1.19688 124.046 -2.2102
-4.5596 113.5 9.34073
21.2999 135.634 6.96674
-9.12015 109.413 10.2279
-6.07029 118.931 -3.48059
15.3382 134.667 -0.480084
-12.0688 116.515 -8.10764
8.19847 130.56 -3.60301
-17.4872 112.389 -8.56705
19.5633 137.072 1.60249
20.3075 136.544 3.80831
9.82391 124.049 11.7264
14.1723 135.443 -3.59838
-2.53932 121.176 -2.07133
15.21 135.01 -1.08434
-9.37291 109.31 10.373
15.1117 130.438 7.71867
14.9238 133.991 0.544613
-9.63531 117.87 -6.63956
5.4722 124.957 3.29352
14.3652 135.503 -3.22901
-14.1488 106.093 9.24668
-6.43721 119.012 -3.76588
-12.5893 106.695 10.5546
15.9934 130.351 9.47691
17.3417 131.206 9.93631
7.24884 127.338 1.64513
10.5232 125.875 9.63611
9.99983 129.849 1.10049
13.064 128.127 9.29336
-20.9284 107.647 -4.16874
9.69534 127.548 5.22878
-18.7981 107.798 -1.02922
-16.3883 105.996 6.29203
10.2725 129.567 2.32692
13.5737 135.809 -4.52318
-6.53748 112.563 9.16533
-18.5099 106.435 2.36052
12.5086 134.876 -4.26286
-17.6394 105.829 4.9409
-7.6563 118.952 -4.91154
12.4157 131.967 1.33727
7.03925 130.214 -3.68783
-14.4529 106.447 8.82858
-15.1011 114.905 -8.61748
-16.5291 106.151 6.19108
9.52433 124.946 10.5313
9.5083 132.246 -3.68206
-20.9834 107.639 -3.66727
15.5995 136.108 -1.53585
-2.40948 121.76 -1.8874
-18.4166 106.745 2.2594
-6.01891 119.623 -3.28726
-2.79568 115.625 9.86632
20.986 136.059 7.46005
0.168324 124.103 -1.87266
-8.66822 118.832 -5.42078
-1.90575 116.718 9.41723
9.42957 125.682 9.77573
-8.39507 119.019 -5.22792
3.82457 122.815 6.59131
-3.91934 121.107 -2.24294
10.149 133.461 -4.08249
-5.75848 120.058 -2.97721
14.1289 134.255 0.636256
9.49961 132.861 -3.88472
-1.52381 122.971 -1.91298
12.2156 128.383 9.21332
9.36555 125.958 9.65729
-12.8027 107.652 10.4878
16.6571 131.468 10.447
-5.79139 113.951 9.28888
-3.32292 115.654 9.87725
-5.48965 120.463 -2.79975
14.2298 134.727 0.453071
-8.02276 119.504 -4.85228
6.81887 124.111 9.52143
5.49148 128.555 -1.20216
8.75134 125.4 10.056
1.37675 120.32 8.41175
-20.1645 108.243 -1.82899
20.3833 138.345 3.28261
4.59539 124.804 4.91307
-20.8941 108.321 -2.98268
15.1797 136.188 -0.516598
13.6912 130.476 8.28405
10.3022 130.652 2.62143
14.5066 135.64 -0.446928
19.7381 135.786 7.48995
13.476 134.599 -0.0240936
19.3711 134.826 8.81252
-21.0065 108.992 -4.25902
-5.92269 114.229 9.30332
20.3519 137.618 5.09235
-17.2017 107.886 4.06241
-7.76588 119.932 -4.5557
10.4332 127.699 8.95111
-2.74445 116.688 9.70353
8.0553 129.662 1.42613
-0.195165 124.616 -1.70736
-5.27361 121.02 -2.67404
4.15487 124.236 5.89474
-20.6328 110.073 -5.44315
5.6054 129.26 -1.54205
10.3479 131.231 2.07574
-2.00473 117.721 9.01044
-17.2303 109.053 2.04634
3.29595 123.111 7.09233
1.0319 120.704 8.26926
10.393 130.858 3.22551
-18.1951 109.102 0.69708
-2.66471 122.975 -1.87697
-15.3922 107.776 7.74081
15.041 136.966 -1.25362
12.0101 136.37 -4.71647
8.14728 125.726 9.95828
15.7013 131.632 10.3945
-15.4361 116.066 -8.19986
6.5673 128.237 2.72855
14.6349 136.548 -0.764281
-11.0963 119.114 -7.16225
-20.65 108.725 -1.94656
-2.74324 123.172 -1.88057
19.0072 135.767 7.79777
-16.8214 107.802 5.97567
-11.5447 109.704 10.6124
8.44478 130.649 1.24678
9.65689 131.721 1.08661
18.5841 134.54 9.62544
1.33685 121.293 8.33927
-18.7222 113.37 -7.73184
-16.8035 108.531 4.73525
-15.2135 108.152 8.21851
-3.14839 123.086 -1.85576
10.4295 128.452 9.05233
-19.0946 113.106 -7.38742
16.1828 132.683 9.94101
-18.3986 109.453 0.859686
5.56429 127.134 4.13538
17.246 133.656 9.81597
6.28122 131.782 -3.72302
-10.9699 119.507 -6.84971
13.1791 136.975 -2.88733
-3.45553 117.037 9.78877
7.39774 125.629 10.1836
19.6954 139.611 2.29588
0.979141 126.615 -1.72458
8.65441 129.039 5.69627
10.7428 132.681 1.97895
-15.3421 108.527 8.17202
13.6619 131.732 8.62165
-7.32744 121.23 -3.84191
7.17694 133.068 -3.9304
8.13575 134.018 -4.26449
8.82631 131.869 1.10671
8.19139 128.685 6.35498
19.2236 136.319 8.86748
7.29312 126.91 8.48141
10.3146 132.155 3.07676
-10.6382 120.021 -6.19716
12.386 137.698 -4.41213
-21.006 110.427 -3.72113
-16.6853 110.134 3.66699
6.66415 129.24 3.16691
13.8797 136.698 0.0153162
7.45918 127.523 7.92852
8.99795 128.239 8.97802
9.26477 132.482 1.15809
-16.5963 110.142 4.04187
-17.9213 110.231 1.81622
-16.5923 109.241 5.86919
19.4147 137.524 7.39994
6.66086 129.372 3.29041
-16.2653 109.151 6.7049
13.0398 136.54 -0.489505
-16.0392 116.965 -7.9886
15.1621 132.76 10.2694
-4.10802 123.579 -2.09253
14.4802 137.974 -0.861764
-0.535773 126.218 -1.52721
14.3055 137.814 -0.677058
-3.44877 124.09 -1.81932
6.94213 126.618 9.59602
-8.12105 121.516 -4.125
20.7273 140.522 4.35721
3.36158 125.154 7.04264
-5.082 123.331 -2.66291
8.32449 129.879 5.73184
6.62507 126.7 9.25123
-4.46327 123.709 -2.30394
6.66047 126.539 9.66249
16.4756 139.388 0.234451
10.4868 134.182 1.02294
-16.3108 109.923 6.18461
-9.7298 121.019 -5.06309
20.9653 140.643 4.99579
10.7911 134.249 1.49022
-16.2514 110.31 5.63803
4.36408 126.784 5.97264
0.00453015 122.523 7.51314
-2.46195 120.021 8.59574
11.5022 131.451 8.31761
13.9252 138.041 -0.69678
-4.08745 118.256 9.59538
12.9495 137.186 -0.406352
0.97551 123.232 8.02912
-13.1735 120.02 -7.77282
4.35416 130.787 -1.19113
-15.5867 109.935 8.08487
11.867 131.98 8.32841
13.8137 138.289 -0.760314
-1.23395 121.875 7.5832
9.16885 132.015 4.38389
-2.64837 125.593 -1.67174
-19.6008 114.559 -6.82128
7.22639 127.952 9.25567
13.1157 138.881 -2.69157
3.40503 130.037 -0.662186
-20.9158 110.86 -1.53119
14.5554 133.849 9.46475
6.00979 129.513 4.56818
-8.10032 115.585 9.53875
-4.31673 124.647 -2.12832
3.05606 125.846 7.1986
4.67673 127.941 5.85728
3.37326 130.321 -0.764747
9.48077 132.866 3.91194
-6.2996 123.951 -3.49232
-14.8279 119.208 -7.59698
13.3016 137.769 0.558702
1.25522 129.064 -1.35124
9.26097 132.712 4.14551
7.27954 135.604 -4.58593
16.5055 140.43 0.527175
7.94329 129.098 9.14896
-18.4332 111.445 2.11264
13.3934 139.517 -2.49535
20.3776 141.863 3.94617
2.66063 129.942 -0.674992
10.576 131.845 8.0717
1.76789 129.466 -1.06718
-21.1227 111.984 -2.95005
19.4395 139.123 7.99117
14.1681 139.17 -0.374557
20.7174 141.852 4.78157
5.00658 132.894 -2.39346
-11.1303 121.692 -5.7149
13.6055 139.979 -2.33675
-15.5147 111.397 7.55875
13.765 139.965 -2.00386
13.4368 139 -0.632769
-15.282 111.448 7.89175
-18.7545 116.575 -7.53268
3.30058 126.889 7.08858
2.22622 125.866 7.51229
-13.323 111.852 10.3881
8.21921 131.66 5.6828
-8.37912 116.25 9.67807
15.9097 135.775 9.86085
2.21183 125.953 7.52201
9.70368 138.421 -4.8066
-2.67668 121.498 8.71869
-3.30044 126.396 -1.77637
-12.4609 112.736 10.4204
1.43865 125.355 7.78361
-0.25707 128.825 -1.61036
-1.74558 127.562 -1.47408
-20.806 114.093 -5.12548
14.0272 134.948 9.00117
-10.4849 114.908 9.62595
11.4099 139.969 -4.73181
9.13328 133.545 4.21108
6.79131 132.059 3.43503
-5.63252 125.257 -2.82675
8.32496 130.732 8.48188
17.9098 138.331 8.7516
20.1657 142.689 3.82047
6.54432 135.972 -4.4622
20.3268 142.659 4.1885
3.9622 132.192 -1.12948
-5.53132 125.366 -2.75053
7.53626 130.719 7.42125
-20.6631 111.935 -0.236811
16.7869 137.267 9.29788
20.4655 141.791 6.30371
-7.4818 117.429 9.84585
4.57344 133.353 -2.08037
-6.71786 125.014 -3.5689
10.5056 135.364 3.34961
-16.4914 119.214 -7.59343
5.83846 130.946 4.68924
2.16526 126.523 7.56764
13.3931 140.93 -2.80843
-3.5019 121.16 9.13964
-8.72489 124.118 -4.73708
6.80447 133.1 2.20095
1.34071 130.382 -1.06152
9.17234 138.778 -4.92296
5.26093 134.849 -3.41151
-1.43077 124.317 6.62839
-16.4093 119.562 -7.58714
-9.7009 123.637 -4.89603
7.80748 134.108 2.27396
-20.1031 115.24 -4.78055
20.293 143.19 4.35057
-7.39956 125.276 -4.15371
-6.93709 125.445 -3.66926
13.744 135.746 8.83119
9.398 139.366 -5.00319
-4.33883 120.8 9.5664
-21.2839 113.467 -2.71749
10.2309 135.606 3.78897
9.29879 134.604 4.33968
-5.02905 126.51 -2.40328
-19.3347 113.011 1.44463
11.0628 136.681 3.12928
7.57489 131.862 7.04536
-15.3617 112.991 7.79299
9.54041 134.927 4.22924
-19.9969 116.099 -5.48731
-20.6165 112.802 -0.0333463
-21.2575 113.637 -2.4818
-4.97996 120.619 9.58911
0.459985 126.097 7.47838
12.765 140.519 -1.23475
-14.7049 112.87 9.47436
9.01876 132.993 7.66272
-5.31786 126.728 -2.64104
-0.707093 125.548 6.92216
7.93268 132.834 6.43996
11.8176 141.275 -3.70366
4.26747 134.377 -2.1014
4.47254 130.731 5.38744
-12.435 114.43 10.5699
-14.3065 113.259 9.99289
8.62666 134.151 5.40068
-11.5069 123.635 -5.71276
-15.7726 114.259 5.83073
-15.1101 121.499 -7.19883
-20.7009 114.449 -2.23407
-5.30274 127.149 -2.71189
-15.2432 114.233 6.84732
11.3651 141.46 -4.30903
19.3029 143.992 3.23594
0.468943 126.688 7.35602
-15.3142 113.636 8.06246
0.146987 131.029 -1.39094
-17.512 119.952 -7.55756
3.73575 133.947 -1.42257
-18.6662 114.04 2.26692
-15.1952 113.634 8.52144
19.8359 143.315 5.78436
-14.7056 113.426 9.75018
14.6402 137.478 9.1047
-2.90242 128.865 -1.63456
3.98649 134.546 -1.84607
-5.16264 127.606 -2.66748
12.8574 141.834 -1.83047
-16.236 121.196 -7.3422
-19.9812 115.536 -2.20852
5.07657 131.905 5.33518
7.15838 138.897 -4.97812
-19.8651 115.694 -2.23811
6.36963 134.242 2.87523
18.8303 141.735 7.89873
-12.7519 123.593 -6.37523
-17.2682 120.427 -7.29691
5.69966 132.626 5.15653
11.3606 141.849 -3.845
-15.0571 113.949 9.02631
12.0513 140.22 0.49497
9.95389 138.306 1.00621
9.83702 134.718 7.86555
12.8967 140.9 0.656809
18.466 141.456 8.34147
-10.5565 125.631 -6.35819
-9.62535 126.124 -5.83502
-2.40783 129.81 -1.5087
15.2566 138.999 8.50741
-4.74613 128.498 -2.42158
-20.6739 114.283 0.299097
-20.3833 115.481 -1.48406
-8.55917 119.319 9.61553
6.54346 134.922 3.01834
11.9173 140.552 0.554535
0.63415 132.186 -0.861508
-2.33485 126.068 6.41204
-13.2264 115.206 10.4679
-2.98692 124.758 8.0509
-17.8128 120.411 -6.72641
-15.1638 122.923 -7.43649
-14.6442 123.488 -7.6115
4.60997 136.79 -3.23527
-19.3574 114.692 2.14107
-0.160356 131.941 -1.24608
4.09349 131.712 5.91414
9.12614 134.971 7.47897
-14.9487 114.69 9.20641
-9.09674 119.18 9.66366
-12.5846 124.497 -6.15351
-3.80269 129.379 -1.85532
-3.37733 124.492 8.41566
-4.86159 128.973 -2.47727
-8.88259 119.57 9.67515
-3.3193 124.803 8.27514
-19.503 114.899 2.18378
9.6238 135.679 7.67685
18.8 143.594 6.73732
-15.8238 122.897 -7.33005
-19.8369 118.107 -4.25359
-17.8789 119.51 -3.86759
12.4314 142.563 -1.08767
-7.53896 121.132 9.39725
18.6753 143.711 6.75868
5.912 139.215 -4.53149
3.026 131.136 6.6606
14.6373 143.123 1.58057
-11.6046 117.468 10.4057
-18.1003 119.471 -3.67224
-19.8953 117.841 -3.1794
10.0418 139.807 1.09816
8.57564 135.674 6.88683
-15.0675 124.072 -7.63166
-15.0044 124.141 -7.64396
-8.22721 120.782 9.59179
-6.60661 129.163 -4.06387
5.09027 138.635 -4.05856
9.74929 137.687 5.12216
11.1432 139.8 3.21149
4.84326 133.477 5.75349
-0.367208 132.811 -1.06658
8.96039 136.487 6.52061
5.78531 134.691 5.10841
12.123 138.435 7.81602
12.6505 138.678 8.18846
-11.2356 118.351 10.2976
-19.4358 117.643 -1.03159
12.5079 142.438 0.908344
10.3568 137.378 7.41764
8.56722 142.026 -4.43256
-1.69445 128.13 6.63784
16.7913 145.207 2.50859
-12.5665 126.187 -6.52652
-19.3497 117.864 -0.971096
18.3282 144.511 6.3496
-2.22491 131.992 -1.52378
4.96717 139.075 -4.00653
11.2554 138.366 7.29309
8.9933 136.806 6.81762
3.27732 132.464 6.36435
7.00097 137.723 1.99263
-8.11771 129.207 -5.13622
-11.7173 127.539 -7.44022
-10.9534 128.332 -7.7392
11.0579 138.422 7.22554
-18.3919 116.204 4.23114
-4.98412 124.498 9.38872
-3.29733 131.63 -1.76744
11.6704 142.863 -0.0825628
13.0674 139.884 7.99031
9.98671 141.027 1.04093
-10.6399 128.973 -7.85101
-1.26132 133.178 -1.30124
2.9826 132.731 6.24892
9.70855 138.226 6.13504
0.727488 130.686 6.7383
-20.8049 116.654 0.240159
17.9372 144.673 6.60653
-13.8054 117.145 10.3448
9.90548 138.705 5.68015
-4.08632 126.673 7.17489
9.11806 140.84 0.452018
3.12843 133.186 6.01055
-3.95621 131.618 -2.04901
4.70894 139.562 -3.84756
-15.0855 125.257 -7.03023
-12.1432 127.996 -7.72872
18.0424 146.574 3.52955
-10.7107 119.932 10.2883
15.307 142.307 7.64158
5.61465 140.608 -4.26205
-1.39727 129.307 6.82876
-0.868914 133.801 -1.0121
17.9207 145.33 6.06297
7.01255 138.862 1.65936
10.4731 139.778 5.35824
-4.51261 126.042 8.55422
11.1811 142.128 1.95745
7.73266 139.863 1.02735
-5.68787 124.928 9.02189
-4.35585 126.515 8.05672
-19.8321 118.392 -0.379247
13.3232 144.049 1.79229
-16.6943 123.858 -6.03772
-20.676 116.747 1.5946
-18.0629 121.033 -2.62361
-13.3711 127.038 -6.78369
-16.6086 124.159 -6.18694
11.1101 142.434 1.80088
-12.8207 127.972 -7.60844
-16.4371 124.129 -5.7795
-1.02395 130.291 6.44939
-16.8736 123.749 -5.59908
4.3851 139.924 -3.64265
12.5112 140.716 7.62858
-7.28514 131.262 -4.96719
6.7813 138.814 2.44209
17.466 145.44 6.37448
-1.16316 130.486 6.25109
-20.3055 118.161 0.200603
-6.23768 125.045 8.9267
2.76517 134.038 5.60486
10.7428 140.776 5.11551
17.229 145.201 6.71834
-1.31449 134.259 -1.09378
-7.56211 123.544 9.96877
-17.9346 122.86 -4.90917
6.7333 139.004 2.53679
-18.0174 121.756 -2.76089
0.0167156 132.245 5.15341
-2.18608 129.951 6.30508
-4.94898 127.56 6.62611
-6.55306 125.131 8.85457
4.37073 136.536 3.87849
10.9653 141.728 4.13406
-18.1797 117.77 5.11771
16.961 145.348 6.6531
-10.1993 121.501 10.4344
-16.6452 124.176 -4.87029
4.49509 136.842 3.77867
0.2778 135.697 -0.487898
-15.7659 117.961 8.84986
7.52712 140.778 1.03666
17.4435 146.703 5.09083
11.5018 145.689 -2.25851
-3.51018 129.186 6.29482
17.5153 146.932 4.80193
10.1479 139.852 7.03973
-3.28314 129.389 6.30888
-16.0287 118.034 8.44211
-11.0211 130.287 -7.47893
2.29567 134.459 5.31464
1.87331 134.067 5.45491
-18.1729 121.69 -1.90328
8.49757 142.001 0.585005
8.60272 142.114 0.606558
6.59837 142.855 -3.96699
-14.2087 119.229 9.40529
-5.07359 132.886 -2.8174
-0.771003 135.321 -0.736691
-14.4111 127.623 -7.1657
3.307 136.266 3.84947
-4.41903 133.313 -2.38871
2.43381 135.285 4.55129
-16.3422 125.257 -5.40971
-1.4265 132.161 4.75288
-16.2747 125.625 -5.7784
16.0422 147.691 2.04839
11.2307 144.902 -0.0765216
-8.97174 132.279 -7.19701
-20.0327 118.797 1.74676
-4.87186 133.387 -2.75671
-7.37942 125.416 8.914
-0.859383 133.01 4.39537
-14.3467 119.695 9.19985
6.5307 139.817 2.92476
10.5456 141.153 6.68604
-10.1581 131.834 -7.64281
-8.28796 124.303 9.9684
-1.10838 133.027 4.30636
2.27785 135.953 3.96001
-19.5504 118.589 3.64431
13.4999 143.603 6.92429
11.0268 145.463 -0.472056
15.763 148.126 1.83621
10.9453 146.399 -2.35885
-14.6185 119.921 9.03648
11.0508 145.564 -0.463325
10.6235 142.504 4.89313
-5.47187 128.983 5.9883
12.7243 146.022 1.47028
10.4736 141.827 6.1008
-5.47762 129.12 5.80796
15.6477 145.787 6.57457
4.9211 138.792 3.39566
-12.8906 129.135 -5.76743
-11.7069 130.817 -7.14389
-18.6854 122.224 -1.28738
-16.2562 126.276 -5.25966
-7.10964 126.895 7.91257
-17.7638 124.909 -4.87508
-10.2827 132.155 -7.20549
7.18515 142.037 1.01829
7.12124 141.98 1.07929
-10.8729 122.692 10.4396
-18.8539 122.389 -1.48037
-2.19647 132.945 4.20003
-20.4753 120.154 0.457589
-4.33924 130.88 4.92638
-5.64778 134.232 -3.59824
-16.4115 119.658 7.86585
11.4796 142.921 6.45937
-6.18671 127.924 7.98013
-20.0724 119.465 2.64099
-18.1072 123.962 -2.96202
-20.3587 120.662 -0.0610704
-18.8333 121.871 0.016384
-13.3983 129.217 -5.65724
13.9161 144.936 6.64903
-8.20368 133.853 -6.4951
-15.9013 120.058 8.28815
-12.1196 130.946 -6.89464
-5.80667 128.913 6.97436
-8.29739 133.865 -6.56499
-18.8463 123.967 -3.84202
-15.1523 127.788 -5.42854
1.58935 139.116 -1.13115
13.4488 146.981 2.23977
12.146 147.356 -0.523588
8.02629 143.451 0.661294
-6.38883 128.136 7.83826
-14.9289 128.144 -5.56245
1.1219 138.726 -0.934352
10.64 146.902 -1.78599
-18.6227 123.057 -1.29283
-18.3061 123.326 -1.27173
-12.1192 122.493 10.1055
-2.56461 136.065 -1.19178
-10.1933 132.714 -6.61597
-13.3261 129.604 -5.46405
-18.9541 123.649 -2.67959
-19.0496 119.863 4.57208
7.38848 143.183 0.720993
10.0206 145.298 0.802137
-19.0825 121.136 2.12211
1.33933 139.264 -1.08309
8.74234 144.425 0.564447
14.9533 148.862 1.68954
-13.4784 121.666 10.0202
11.0711 143.872 5.36074
-17.8276 124.918 -3.0968
11.2121 145.593 2.27859
-20.4664 120.392 1.60063
-17.8015 124.867 -2.82899
-20.9968 120.995 -0.310494
-19.0318 122.046 0.744455
-14.9358 121.147 8.93042
-15.1129 128.306 -5.16371
-13.6696 129.622 -5.45256
-17.029 120.771 6.54363
-17.7462 125.202 -3.10881
-6.09872 135.501 -4.83256
-18.0926 124.492 -2.2131
-8.51483 127.156 7.64293
-13.4423 121.992 9.95418
-13.6181 121.868 9.97338
-20.3597 120.655 1.82931
-21.0388 119.591 2.83928
-18.2569 124.058 -1.46534
10.649 147.542 -1.73629
-18.493 124.915 -3.46739
-12.2236 131.38 -6.15727
2.37666 138.286 3.45649
-5.19023 131.428 4.9216
-21.0043 119.869 2.58241
-13.2356 123.274 8.2035
7.21836 145.916 -3.6838
-20.3805 120.106 3.2358
-20.1174 120.818 2.27675
-12.301 131.385 -5.95838
-19.1841 123.026 -0.439082
-19.2457 122.725 0.156901
-20.5621 120.99 1.50071
13.0147 145.594 6.3542
-20.2883 121.251 1.58878
-10.5149 125.346 8.98707
1.96243 138.229 3.56005
12.6005 145.405 6.31738
-20.6619 120.473 2.68868
-20.7221 120.618 2.33257
11.8651 145.242 5.72336
15.3941 149.101 3.77111
-2.61416 137.379 -1.59158
6.38458 145.636 -3.49685
-18.6889 124.336 -1.36142
3.2863 143.073 -3.22531
-7.74949 129.106 6.69881
-21.8366 121.964 -1.45776
-5.12311 136.637 -3.74266
-20.0469 121.503 2.40641
-19.9528 120.958 3.66587
-20.5407 120.743 3.16957
-19.3238 124.395 -1.99132
-18.6173 121.368 5.04586
10.7181 147 1.25164
-20.1358 121.84 1.78414
0.889569 140.334 -1.16868
6.19677 142.215 3.52219
-16.9887 121.784 7.01794
-19.0934 124.871 -2.18361
-13.6168 125.056 6.17803
-19.3144 125.35 -3.30943
-13.7337 130.672 -4.85401
-3.75487 137.719 -2.8352
-14.8192 123.324 7.80065
4.21712 144.601 -3.68996
-19.0703 124.178 -0.475001
-6.56379 136.91 -5.59695
-18.9025 124.423 -0.590013
-20.6471 123.095 -0.717983
-18.3848 123.817 1.55179
-12.4282 131.909 -4.81331
14.8882 149.197 4.45242
9.62955 149.324 -4.02355
-18.067 126.503 -3.09171
12.8773 149.169 1.44978
-20.9485 121.662 1.88293
-20.567 121.561 2.69481
-4.43232 137.771 -3.4131
12.7066 149.223 1.28332
-16.5769 128.05 -3.4738
-4.62885 134.196 3.39915
-19.9241 124.24 -1.12531
-11.5037 126.36 8.02558
-22.6022 122.168 -1.24166
-14.9913 130.232 -4.96753
-5.27295 133.56 3.84119
-15.7655 129.044 -3.78092
-21.417 120.446 4.11007
1.06149 139.893 1.56643
-19.6674 125.434 -2.83009
1.35802 139.624 2.62264
-19.857 124.101 -0.427617
-19.2559 125.201 -1.59851
-18.0917 125.683 -0.684964
-8.43077 129.791 6.56775
-20.171 122.348 2.66244
-17.3449 127.746 -3.3743
9.22975 149.54 -3.99368
-11.2609 126.634 8.43002
-20.6581 121.157 4.33979
-19.0902 125.465 -1.57088
-19.5147 125.189 -1.67331
14.276 149.151 4.82198
-1.85742 137.446 2.26746
-6.23359 137.869 -5.38335
4.42027 145.586 -3.61495
-11.2812 133.901 -5.51088
-18.6593 125.614 -0.966693
-19.7845 121.479 5.35963
-15.6277 129.639 -3.96209
11.7023 147.625 3.98283
-20.7364 121.188 4.50941
-4.39915 138.424 -3.35334
-17.6538 122.595 6.70144
-18.9579 126.425 -2.78706
5.13568 143.079 2.67949
-1.2565 138.448 1.73984
-19.2367 125.51 -1.29941
-23.6845 120.888 0.749974
-11.0544 127.434 7.8587
-11.9338 133.183 -4.69925
-21.2043 121.818 2.88905
-0.214103 139.641 1.17384
-4.74361 138.47 -3.64657
11.932 147.725 4.53589
-19.1455 125.557 -1.11232
-17.4003 127.957 -3.01103
-10.876 134.776 -6.01445
-17.8671 128.097 -3.91696
-17.9996 126.925 -1.83069
1.80713 141.193 1.55087
-4.4267 135.821 2.24473
-20.252 125.36 -2.23296
-20.6968 125.246 -2.67013
-20.1286 125.764 -2.73128
-20.1239 121.457 5.65406
2.35753 143.897 -2.68512
-20.3906 125.57 -2.70554
-16.9383 123.534 6.71927
0.758268 141.936 -1.27486
-20.5074 123.815 0.671583
10.0641 148.425 0.829715
-15.8545 129.777 -3.55687
6.39052 144.499 2.75953
5.68175 147.07 -3.33903
-16.4021 124.738 5.45792
-19.7472 122.375 4.81326
13.2395 150.691 1.52579
-18.5314 122.587 6.3508
-23.8067 121.887 -0.528997
-19.8781 121.79 5.83346
-19.7931 122.606 4.37821
12.3976 148.799 4.03565
11.5562 148.679 2.99388
-8.42873 131.281 5.48586
12.6631 150.47 1.30997
-19.5018 126.784 -3.10161
-20.6821 125.708 -2.85606
11.6302 148.733 3.11793
-18.6155 123.227 5.28763
-0.609903 141.009 -0.976798
-21.3966 122.014 3.35054
12.9386 150.796 1.26822
-18.2725 123.215 5.96834
11.4591 149.078 2.37283
-20.0319 122.359 5.01141
-16.1764 125.115 5.79546
-21.0397 123.7 0.962549
10.0897 150.433 -2.14463
-6.90011 133.859 3.63913
-17.841 123.981 5.69527
-22.0281 124.104 -1.10672
-22.1551 124.155 -1.3456
-8.43466 131.774 5.3763
-3.58697 139.712 -2.43393
-18.5028 128.735 -4.46203
-18.7794 123.345 5.6051
-12.4622 127.763 7.02673
-16.4709 129.52 -2.63668
-22.2666 124.1 -1.15103
-21.5955 123.676 0.770985
6.63876 145.835 1.99403
1.26473 143.38 -1.66084
-21.3409 120.945 6.59131
-12.2514 134.049 -4.56043
-8.63584 132.173 4.78663
-2.9353 140.297 -1.98365
3.22259 143.015 2.40341
-21.5877 120.953 6.57589
-16.3554 130.091 -2.96809
-16.8453 125.022 6.14583
-3.24377 138.236 1.88526
12.0105 150.179 2.61445
-19.2634 128.533 -4.36044
-14.2421 127.237 6.05319
-13.4327 127.632 6.56331
-12.075 134.643 -4.92167
-20.1267 122.266 6.62482
-17.1526 129.442 -2.58913
0.192365 141.521 1.21169
-13.0501 127.956 6.84751
-22.7665 124.556 -1.49073
-21.4808 126.673 -3.57036
-16.9863 129.59 -2.04849
-14.1544 127.615 6.24902
-19.722 122.856 6.81066
-18.5937 123.841 6.68632
-19.9436 128.107 -3.69186
-23.2974 121.519 3.97482
2.61521 146.072 -2.99753
-21.0961 121.836 6.97528
5.43659 145.089 3.44672
-20.3457 121.943 8.0338
8.52462 151.118 -3.39896
-8.70927 133.331 4.27996
-4.78652 141.009 -4.43115
-5.89301 140.462 -5.06385
5.3115 148.504 -3.10987
7.96293 148.902 0.29886
-17.6664 129.059 -1.27608
-23.1092 121.073 5.73868
-9.16945 132.816 4.86282
-21.7618 126.135 -1.88559
-24.1816 123.877 -1.27024
-18.7007 124.382 6.41931
-22.5934 121.689 5.59082
-22.9288 124.928 -1.20828
11.9576 151.93 1.03795
-1.50747 142.214 -1.13762
-20.6918 122.776 6.64255
-8.70151 133.642 4.35926
-8.72016 133.672 4.28208
-3.66251 138.875 2.1082
11.7104 151.626 1.48994
-16.03 126.618 6.6349
-4.73042 141.603 -4.56255
-7.70307 139.654 -5.34883
9.30776 151.398 -1.47413
3.50204 147.628 -3.251
-25.0155 122.648 0.616075
-18.851 129.983 -3.88249
2.86807 143.922 3.10688
-23.2198 121.757 5.38251
-9.72228 132.659 5.41914
-16.7268 130.403 -1.15532
-15.459 127.595 6.49993
-21.9725 127.348 -3.24084
-2.34016 140.759 1.57831
-25.1658 121.965 2.34638
-17.6642 129.85 -1.20776
7.26399 151.061 -3.32433
-18.7332 124.98 6.7665
11.3506 152.125 1.2621
-8.91587 134.164 4.43737
-23.799 121.055 6.62735
-20.1843 129.784 -4.63239
-13.3601 134.782 -3.6369
4.82899 149.163 -3.01226
10.3246 152.015 0.106866
11.0426 152.514 0.382011
6.30124 150.53 -3.15455
3.04641 147.949 -3.08406
-16.9992 130.99 -1.51024
-12.3609 136.361 -4.63629
-5.16094 138.381 2.76475
-22.0687 127.278 -2.17617
-5.49868 141.92 -4.63532
-25.3566 122.765 1.64117
-6.61178 137.422 2.5753
-21.2669 129.202 -4.4145
9.32292 152.161 -1.00044
-2.8206 140.987 1.83979
-18.9786 130.632 -3.33928
-19.158 125.1 7.34829
-12.2437 130.824 7.1139
-11.1574 132.026 6.51066
0.492314 145.694 -1.767
9.89534 152.545 -0.227519
-1.70141 142.503 1.13865
-7.01644 137.503 2.52135
-22.2684 122.33 8.09639
-24.5044 121.505 6.24343
-19.2458 130.729 -3.36711
-24.792 125.125 -1.09045
-20.4681 130.323 -4.28349
11.1572 153.201 0.983531
-23.6854 127.087 -2.91381
-24.6337 121.705 6.12927
-3.29363 141.009 2.0858
-9.97934 134.392 4.51959
-19.7123 125.145 7.35425
9.87046 152.549 0.623488
-23.4219 127.537 -2.88967
-25.143 125.29 -1.18406
-15.4581 133.675 -2.26247
-19.3269 125.558 7.58123
-20.6116 130.57 -4.177
-10.6233 133.556 5.74904
-17.3494 127.024 8.03019
-9.89171 134.908 4.427
-25.6479 122.731 3.44223
-12.2515 131.789 6.96213
-25.5685 124.538 0.221022
-24.4026 126.681 -2.06328
-19.6864 125.649 7.35759
4.59252 150.494 -2.8133
-12.4575 137.904 -5.05799
-22.4488 128.998 -3.35152
9.56388 153.53 -0.623142
-25.2126 122.564 5.03235
-13.0068 131.159 7.481
-24.8047 122.427 6.05836
-18.0881 126.647 8.42927
-3.06012 142.152 1.97328
-13.0281 137.522 -4.53054
-13.7091 136.687 -3.93796
-20.2807 125.91 6.75692
-17.7096 127.226 8.32326
-7.82176 138.238 2.5046
-4.725 140.781 2.5837
7.66669 153.16 -1.89884
-14.5498 135.416 -2.24303
-25.697 125.905 -1.15414
9.28489 153.824 -0.470119
0.603437 147.725 -2.18769
-7.70177 142.378 -4.77456
-13.6392 137.438 -4.2485
-17.8224 127.931 7.83389
-21.5298 124.574 8.56232
-15.9982 130.135 6.53191
8.09593 152.217 1.41734
9.43436 153.627 0.824095
-18.3647 127.124 8.77445
-9.78704 136.375 4.29616
5.63787 152.468 -2.75688
7.9481 153.673 -1.36968
-19.5831 126.557 8.35823
-25.8952 123.926 3.60258
-11.229 139.975 -4.37491
-16.1325 130.549 6.46939
-23.4195 128.106 -0.0382945
-26.094 126.388 -0.887306
-5.47884 144.763 -4.22262
9.24532 154.003 1.00288
5.17659 152.693 -2.64132
-0.824296 147.465 -1.58553
-13.5962 132.44 7.7359
-14.1607 132.156 7.43939
8.00705 152.914 1.92707
-14.4251 137.755 -3.78394
-20.0264 127.137 8.11126
-11.0269 135.99 5.04374
-14.1774 138.068 -3.90855
-21.442 131.538 -2.59797
-25.8218 125.213 2.86026
-14.4882 137.406 -2.95855
-24.1926 127.789 0.520424
-24.951 124.382 6.02174
-10.0543 137.076 4.73249
-18.7489 134.09 -3.03981
-20.0997 127.666 7.39321
-21.2925 127.045 6.7959
-4.17214 145.994 -3.17226
8.83871 154.621 0.660346
-24.1727 127.925 0.777589
-4.97921 145.872 -3.90002
8.7049 154.209 1.54118
-21.3184 132.348 -3.02248
-14.1528 137.589 -1.89828
-2.06245 147.109 -1.43027
-6.03974 141.768 2.74585
-14.1099 138.681 -3.76187
-18.8798 128.646 8.36107
-9.11926 139.257 3.23181
-21.4688 127.817 6.19354
-21.9203 131.5 -1.63986
-10.9462 136.987 5.09123
-24.4416 127.97 1.51641
-20.1866 133.935 -3.38208
-15.5337 136.655 -1.26681
-23.0626 125.905 7.91587
-23.9996 128.284 1.82798
-5.12709 143.408 2.18358
-19.0023 129.302 7.95552
-11.8344 136.273 5.661
-0.289032 149.536 -1.97852
-20.3995 129.312 5.96078
-24.7764 127.278 3.16192
-22.1091 127.799 6.35705
-22.9166 126.584 7.57049
-22.6925 131.086 -0.754703
-17.5322 135.948 -2.08694
0.445157 150.745 -2.43366
-2.27494 148.206 -1.60376
-6.82401 146.121 -4.61764
-0.977639 149.325 -1.64051
-10.6874 138.154 4.98477
-25.2703 127.056 3.72478
-11.6534 142.267 -4.18015
1.69082 152.25 -2.4895
-8.9659 140.851 2.95762
-8.96087 144.954 -4.80375
-25.0497 127.595 3.72759
-23.3188 130.79 0.279727
-7.41213 142.353 2.78876
-21.2708 129.898 5.31826
-22.8859 131.358 -0.052245
-10.3623 143.709 -4.40654
-25.5907 126.536 5.24228
-5.90093 143.896 2.51757
-20.993 134.312 -2.51865
1.33496 152.346 -2.48149
-20.7584 130.637 5.149
-10.6282 143.723 -4.32826
-13.5532 135.282 7.58183
-8.9157 145.409 -4.82092
-10.4211 144.024 -4.36157
-11.4124 143.223 -4.22329
2.38623 153.366 -2.19515
-14.4352 134.779 7.66959
-6.92495 143.453 2.66991
-21.0581 130.807 5.11133
-18.6398 132.244 6.22431
5.30764 155.437 -1.24221
-18.7993 136.334 -1.71111
1.52677 153.093 -2.32864
-13.8189 140.893 -2.59654
-22.1253 133.759 -1.64365
-14.4054 139.728 -1.00954
-21.4357 130.997 5.06959
-2.51664 149.915 -1.63881
-20.6409 135.143 -1.13666
-6.86302 147.852 -4.22632
-12.5491 142.839 -3.38264
-4.69988 148.965 -2.9773
2.38213 154.106 -1.78928
-18.1788 133.436 6.16308
-9.92179 145.663 -4.58377
-6.98673 147.948 -4.21141
-20.6153 135.288 -0.845756
-4.23661 149.38 -2.53671
-22.7523 130.497 5.19376
-11.7398 139.408 5.36802
-19.8161 133.002 5.7974
-11.2222 145.004 -4.02953
-7.42186 148.265 -4.16458
-23.6621 132.014 2.05367
-18.558 133.883 6.47492
-9.12842 143.212 3.16872
-0.244818 153.252 -2.20818
-16.0102 135.414 7.80487
-16.3039 135.196 7.93836
-19.9991 133.299 5.92876
-20.1804 136.303 0.00570918
0.193257 153.933 -2.06872
-17.9779 138.681 -0.775024
-22.7144 134.027 0.970529
-4.36762 150.606 -2.31643
-11.6001 140.975 5.26523
-13.6826 138.155 7.49089
-1.46414 152.769 -1.73138
-22.7386 133.892 1.72176
-13.2712 138.844 7.04526
-11.5906 145.67 -3.5469
-19.9555 137.014 0.240182
-14.2801 137.912 7.50737
-0.0981516 154.251 -1.97985
-3.37253 151.601 -1.92607
-14.0291 142.999 -1.87062
-14.0574 142.32 -0.58372
-15.248 137.248 7.64699
-17.3842 135.381 8.03224
-16.6729 140.614 -0.272797
-23.4549 133.513 2.99037
-17.6031 140.113 -0.43384
-14.1663 138.811 7.54009
-14.3465 138.746 7.55898
-21.0148 134.096 6.42166
-23.7855 133.423 3.72468
-12.8714 145.368 -2.36028
-24.8718 131.949 5.17398
-17.1794 136.649 8.12601
-9.44222 145.561 3.30057
-11.9489 142.681 5.40977
-22.931 135.419 2.51642
-15.2596 142.878 0.102016
-14.8314 139.342 7.66823
-13.8941 140.419 7.27241
-11.6564 143.276 5.23595
-12.2116 142.615 5.69774
-3.1734 153.731 -1.66087
-23.329 133.714 5.63751
-23.5381 134.291 4.2588
-12.3505 142.571 5.84956
-14.1796 140.202 7.60483
-19.8062 135.995 7.7352
-16.4561 138.728 7.8655
-21.474 137.427 2.5661
-4.31041 153.717 -1.97298
-7.26187 151.552 -2.34518
-9.62113 150.178 -2.48015
-12.4047 147.569 -1.71175
-23.3027 134.77 6.10482
-22.4044 135.393 6.55322
-23.4612 135.572 4.57862
-8.88185 150.848 -2.06423
-8.64572 148.665 3.02993
-12.0686 144.93 5.26152
-7.73454 149.957 2.32574
-11.8297 148.802 -1.72476
-16.2181 140.435 7.78514
-15.2233 144.521 1.49128
-21.6596 136.808 6.60209
-22.0688 138.169 3.6787
-11.8862 149.021 -1.38478
-8.63795 151.719 -1.31962
-13.5751 147.31 -0.0989998
-11.7965 149.354 -1.16758
-9.61964 151.395 -1.21249
-18.4618 140.214 7.2633
-11.8992 146.757 5.00689
-12.6395 145.987 5.3782
-8.13541 152.793 -0.684373
-21.078 139.765 4.34352
-21.233 139.311 5.07374
-18.1726 143.567 2.16618
-15.8906 142.826 7.29962
