ply
format ascii 1.0
comment Created by Open3D
element vertex 1864
property double x
property double y
property double z
end_header
-4.10894 99.1802 -2.71366
-0.825685 98.8352 5.3277
6.76572 117.491 7.71554
-9.75785 94.9591 -12.4659
-7.10784 90.4377 -2.43759
-13.2363 85.4258 -12.6942
-4.32946 92.0305 2.86629
10.1941 143.716 -5.89254
-6.23244 93.511 -2.76965
-6.52482 90.4127 -0.87404
-7.79775 101.665 -13.236
3.55783 123.741 -4.81223
6.30961 121.254 3.76151
4.3393 118.789 1.18058
10.6697 130.764 6.13915
5.85775 121.528 2.49575
6.40926 119.176 5.77024
6.43796 119.422 5.64485
7.19158 136.972 -7.15224
1.59613 118.748 -5.16524
6.31867 134.149 -6.77963
7.83064 139.29 -7.42856
-1.16832 99.8331 4.22145
-6.49308 92.5775 -2.26557
3.24346 117.162 0.230776
-5.47142 96.052 -2.6958
3.75243 126.476 -6.26799
-10.6331 93.3648 -12.5823
5.89808 122.05 2.55525
-6.20266 92.0864 -0.996725
6.5464 120.056 5.78495
10.5827 131.231 6.02339
12.9066 139.663 4.62652
-1.47684 99.0057 4.62347
3.63425 125.668 -5.49863
12.3118 137.257 5.32297
9.7423 127.999 6.99765
-8.62543 98.9788 -12.1383
7.7661 121.245 7.96738
2.83562 116.781 0.0671411
-8.39255 100.912 -13.1865
-5.38984 91.0554 2.13545
-4.97441 98.1265 -2.75957
0.123052 110.901 -1.34797
13.0146 146.202 -0.336899
-9.50235 82.8804 -0.696069
-1.99583 105.774 -2.0387
-7.07349 90.6619 -1.39055
7.8098 139.905 -7.28587
-2.28038 97.0076 4.68069
12.5753 145.431 -0.602525
-5.77877 90.6159 1.77636
13.2419 146.748 -0.103968
-0.130464 116.607 -6.51698
-5.59748 93.786 -0.402879
8.46571 123.134 8.36186
9.61357 127.788 7.22114
5.99292 123.257 2.55476
6.75171 121.536 5.84993
12.2818 137.729 5.48253
-6.85836 91.0525 -0.767264
-8.25968 88.772 -2.12002
6.83935 124.205 3.975
-5.41117 97.6022 -2.71946
8.16403 122.861 8.30051
-11.4744 91.7672 -12.072
8.08473 122.805 8.21337
-2.69186 98.3775 3.20965
-11.1762 92.9517 -12.2217
7.05587 123.202 5.57545
9.9088 144.941 -5.73994
-8.32893 85.6494 0.684345
-2.64663 97.406 4.2998
-3.45774 95.6578 3.93634
-4.30265 93.5989 3.66034
-10.3059 95.6438 -12.1831
-9.14042 84.0809 0.256351
-1.87177 107.323 -1.91387
12.6119 140.51 4.60281
-3.16608 97.8316 2.9912
7.23939 123.856 5.86574
-8.61283 103.268 -14.3615
3.54582 127.78 -6.08376
-10.8334 94.7125 -12.4467
-6.43578 90.5893 1.40175
-5.78224 109.509 -12.7116
-9.97225 82.9011 -0.418265
-7.57448 89.1993 0.0322262
3.52022 119.886 0.659308
-7.47764 91.3154 -1.4624
14.1017 145.441 4.34848
-3.56767 96.1716 3.76021
9.24019 144.228 -6.05011
8.3539 125.059 7.83993
-6.31811 95.1133 -1.80566
7.24604 123.712 6.41261
-5.99143 93.8253 0.117292
12.7861 142.007 4.30795
3.67057 120.461 0.790635
-8.27699 86.6356 0.787004
6.45862 137.615 -6.88666
-16.1747 82.4182 -14.2291
-6.4504 94.9303 -1.65099
-4.92025 95.5044 1.49545
-12.912 81.1295 -5.32159
-4.18725 96.6461 2.3548
6.0862 125.984 2.16877
4.04334 130.834 -6.63336
13.3726 148.482 0.676362
10.1554 146.649 -5.36581
7.39961 140.759 -6.8871
-3.1092 105.316 -2.1389
5.53419 125.184 1.73575
6.56707 126.964 2.6952
6.30424 126.647 2.36179
0.894811 115.225 -0.727185
-0.2208 118.86 -6.37883
3.38144 128.357 -5.79138
1.53284 121.736 -4.62258
5.65247 125.695 1.79397
-13.6884 79.7906 -5.51435
-6.79746 93.7936 -0.923767
7.46942 125.579 6.26703
-10.0487 83.4546 0.0493264
-4.59875 95.5289 2.85939
-7.42775 91.9135 -0.782154
-9.65337 101.751 -14.2004
-9.0391 85.1972 1.10536
-15.3011 85.1097 -13.56
-13.0498 80.7924 -4.65722
-16.7066 82.5485 -14.7209
7.58731 125.504 6.79633
-4.59536 96.0398 2.67404
-10.3777 83.087 -0.132562
-7.51116 92.007 -0.776539
-7.65844 91.619 -0.778202
5.99893 137.523 -6.78852
2.17012 118.797 -0.179789
-1.75722 116.545 -7.5537
-8.45776 90.3147 -1.46917
-16.7627 83.3593 -15.2108
5.0389 134.777 -6.58028
12.1459 141.395 4.73811
0.510549 115.142 -0.832066
-7.19129 108.523 -13.4722
-10.9813 96.166 -12.0917
8.75108 144.84 -6.0658
10.0531 147.185 -4.94031
-13.758 87.6932 -11.4771
-10.1917 99.0024 -12.4316
-13.8669 87.4787 -11.4477
-14.0997 86.6414 -11.2908
13.3265 145.747 4.16327
7.03764 127.38 4.65067
6.66027 128.626 2.73742
-8.83044 86.2974 1.46743
0.0565955 114.42 -0.989844
-6.87469 93.7129 -0.0722032
-4.285 103.811 -2.24336
-9.62069 84.8394 0.993991
4.61727 134.068 -6.34363
-5.69579 94.1049 2.63271
-10.4427 99.5014 -12.9967
11.409 148.694 -2.39778
-7.86958 92.576 -1.09224
-16.2107 84.9775 -14.4211
-7.94906 90.341 0.619739
-10.6907 98.2223 -12.3536
-10.08 102.991 -14.8808
7.94523 127.673 7.06112
-10.0616 103.038 -14.8696
-1.76231 117.51 -7.26284
-17.1967 83.7987 -15.5052
-0.144806 120.376 -5.74176
-7.30817 95.0618 -1.55066
-6.17362 111.042 -12.1079
-1.75443 117.746 -7.21582
-4.74372 102.936 -1.89268
6.94142 128.454 4.4402
10.9706 138.174 5.85303
-10.618 101.925 -14.8294
-5.75137 100.337 -2.00519
4.25623 125.362 0.780572
-13.8342 89.9361 -12.3322
6.06969 129.467 1.73375
-4.42415 114.62 -10.5978
3.21455 130.44 -5.73755
-13.2709 91.9215 -12.5201
-11.6517 96.3194 -12.3545
13.2353 150.254 1.41891
5.24745 137.348 -6.63861
10.9359 138.924 5.47646
3.88224 124.817 0.631788
-14.6539 87.3908 -11.8319
6.82443 131.078 2.4343
9.72351 148.067 -4.8738
6.1821 130.086 1.83783
-8.81798 90.6266 -0.640087
-14.9144 78.9527 -5.25334
11.3341 149.009 -1.7001
-0.973613 119.88 -6.43429
5.84021 139.616 -6.80074
-7.3415 96.4933 -1.94219
-8.52027 91.5755 -0.563509
5.69731 129.499 1.38741
-7.36153 96.5861 -1.97315
-15.3397 86.1969 -12.1183
2.64997 127.465 -4.04322
-3.86013 116.152 -9.95131
-5.70361 112.527 -11.1836
2.40093 121.85 0.166718
-17.9252 83.0723 -15.4451
-8.40774 107.983 -13.725
7.27306 128.923 5.85011
2.59184 127.415 -3.87333
6.99281 129.887 4.49175
-9.41865 86.787 1.75942
-12.945 93.7785 -12.3705
3.08464 131.441 -5.92274
-9.19369 91.7375 -1.68406
10.6114 149.357 -2.8611
11.9142 149.46 0.138531
7.28372 129.687 5.70714
5.07983 129.145 0.996187
-6.29625 100.479 -1.9295
-15.2679 87.1999 -11.9359
10.0053 149.177 -3.94571
-4.51965 115.776 -10.2579
6.79928 142.693 -5.97416
-1.95245 112.208 -1.22139
-3.72648 117.098 -9.47475
-12.2617 97.9094 -13.6
-11.0883 84.0519 0.775766
8.53751 133.054 6.28774
5.48036 130.595 1.17631
-4.86076 104.256 -1.27223
8.40453 146.892 -5.46605
8.74409 147.779 -5.38383
-4.78931 104.416 -1.16316
7.69149 131.673 5.57037
5.76919 140.558 -6.32256
-11.9759 82.8017 -0.0419927
8.30404 133.313 5.80342
2.51129 128.9 -4.14645
4.58459 129.024 0.657765
9.51226 138.918 4.0371
-12.7689 96.4298 -13.0888
-9.69132 90.9709 -1.27898
4.66579 137.962 -6.54372
9.17355 136.876 4.99801
8.0147 135.793 3.17158
-14.7373 90.7287 -12.9428
8.22426 133.473 5.60567
-14.9185 80.0086 -4.43643
-13.1114 95.7317 -13.2238
-14.6287 80.7765 -4.33846
7.52509 132.247 5.05514
-6.12676 112.966 -11.0561
7.68872 135.242 2.9839
9.13191 138.452 3.82673
9.01785 137.431 4.43326
5.38592 131.569 0.844862
8.37578 137.242 3.19757
-11.1864 84.4071 1.07292
10.128 149.866 -3.17228
-6.7749 112.175 -11.6199
2.16424 123.593 -0.0256152
-14.5717 80.5923 -3.65693
-16.4474 86.2064 -12.7396
-2.80994 118.968 -7.76422
5.1872 140.032 -6.33133
-0.528269 122.596 -5.28216
-13.6811 94.4271 -12.8257
-0.931422 116.343 -0.991313
10.8241 149.85 -1.12102
1.41088 122.297 -0.347701
-2.87029 119.153 -7.79911
7.2165 145.023 -5.55462
4.34083 129.639 0.552826
-13.9851 96.0394 -14.5694
9.61751 140.273 4.25384
-2.20958 120.705 -7.30637
11.8533 148.115 3.04752
-14.0676 95.2205 -13.98
3.02574 133.607 -5.62295
-1.35284 121.824 -6.04612
-13.505 98.0188 -14.7816
-0.481096 117.977 -0.688089
-18.3161 84.887 -15.1804
2.75547 132.601 -5.23022
-0.338938 118.556 -0.651045
-8.1452 110.632 -12.4549
7.09683 136.222 2.1857
-14.8011 92.7545 -13.2402
-0.421721 118.412 -0.676956
5.05509 132.163 0.798749
-10.2789 106.58 -14.0237
5.93726 134.454 1.01444
3.59253 128.5 0.500646
-10.3631 87.3759 1.99448
-14.5346 93.9296 -13.2647
-4.59667 106.873 -0.60321
10.8147 144.588 4.46685
6.77852 144.852 -5.20219
-6.55871 102.474 -1.34971
-14.7415 94.0498 -13.5751
-10.0738 92.2399 -1.05383
-14.978 95.5591 -15.3459
-16.0028 90.6485 -13.6607
-11.9457 103.813 -14.9536
-8.4036 110.682 -12.2936
-16.999 86.8087 -12.6768
-10.212 92.1926 -0.94485
2.8467 134.267 -5.11081
10.2751 143.588 4.64826
5.37979 133.819 1.30586
-10.6933 87.5926 1.95606
-15.4139 94.6968 -15.086
-16.3714 90.7758 -13.9949
8.55711 140.211 3.61465
6.72181 137.012 1.99948
-8.82989 110.347 -12.4335
-9.02671 95.8072 -0.790165
-3.05138 120.901 -7.59488
-10.7171 87.9104 1.83757
6.54942 136.896 1.83378
2.83729 128.068 0.506879
4.0101 131.183 0.697494
-13.9034 82.0206 -0.577861
-8.14143 111.778 -11.7636
-13.8144 100.461 -15.6392
-16.9847 79.6738 -5.7932
1.23209 128.468 -3.45367
-15.8868 94.1864 -15.2452
-6.5868 103.208 -0.676847
3.31546 136.852 -5.25269
-9.16621 95.9587 -0.468235
2.84861 128.77 0.584569
-16.9921 78.7488 -4.50955
-17.2794 90.9391 -15.2235
0.00234698 121.823 -0.176916
-17.9949 88.5791 -14.8199
-6.68584 115.333 -10.4303
8.44926 141.228 3.7011
5.9674 137.085 1.38389
-10.2919 91.3697 1.12409
5.62774 143.634 -4.85278
-10.1156 109.05 -13.0934
-18.0034 89.3565 -15.2697
-9.1109 110.682 -11.9852
-14.6358 81.704 -0.873129
8.61218 141.952 3.80869
-17.443 78.9925 -5.11887
7.17716 147.83 -4.35694
-14.911 97.8976 -14.8507
5.90011 144.533 -4.60753
2.27975 133.796 -4.18605
2.99909 136.823 -4.86255
-9.7435 109.903 -12.4539
-10.9255 108.042 -13.6709
0.511876 123.888 0.10781
-13.6378 102.016 -15.0288
-0.240315 122.112 0.00992385
-20.2754 85.4374 -16.6496
8.79415 143.739 3.78177
-9.49153 96.37 0.113599
-20.1241 86.5982 -16.7391
3.77575 140.36 -5.15515
-19.5258 78.837 -8.81118
-3.08998 123.202 -6.94966
-9.31184 97.6239 -0.311393
-8.52488 112.802 -11.0568
-9.59618 96.1794 0.259418
-13.5111 84.2 1.03406
-18.3583 92.1166 -16.8683
-19.4169 85.7527 -13.9989
-6.2305 104.964 1.10058
-17.9996 93.0133 -16.6443
-19.559 85.6316 -14.1599
-20.9647 85.4686 -17.3316
-19.8848 78.5462 -8.98278
1.38175 132.222 -3.41433
-17.5279 94.8817 -16.7975
-4.965 109.825 0.420704
-8.12321 101.391 0.0184394
2.38519 130.243 0.774977
-13.5185 84.6164 1.30397
0.905338 126.528 0.449216
3.06731 138.687 -4.52373
-4.16389 112.992 -0.153781
-18.5737 79.2983 -5.97147
9.71573 152.782 -0.293729
-19.1253 89.7341 -15.7429
-13.7973 84.4909 1.20224
-6.03006 106.222 1.43366
-11.1083 91.1144 2.10645
-19.6091 87.1227 -14.6046
-4.4575 121.545 -7.50438
-18.9609 91.2165 -16.4092
-9.20751 112.277 -10.9238
-18.9763 91.3921 -16.5317
-19.1767 90.194 -15.9133
3.0519 132.91 0.927625
8.34051 145.229 3.18578
-19.7966 86.9827 -14.5618
-19.8148 87.0143 -14.5897
1.2175 128.261 0.677555
-3.98903 122.836 -7.02117
-9.75036 111.439 -11.0858
7.98823 144.803 2.98901
-13.1904 85.884 2.12755
6.72589 142.121 2.2726
-20.6425 85.304 -14.8055
-20.7906 85.1235 -14.9668
0.987277 127.906 0.765894
-9.66417 98.2552 0.344627
-10.0606 96.4755 0.916435
-8.1961 102.135 0.627284
-10.1663 96.0613 1.06184
-12.472 88.3072 2.16255
8.83496 152.878 -1.28539
7.10544 150.998 -3.76978
7.24229 143.9 2.53159
-20.6535 78.8604 -9.0622
-17.4962 96.2845 -16.0524
-7.84626 103.094 1.04799
8.32796 152.742 -2.12796
6.42092 142.38 2.08786
-18.5633 79.9992 -4.74354
-3.74939 115.748 0.41638
1.74436 130.536 1.14096
-14.2668 104.024 -14.475
-11.75 90.7377 2.5736
5.29004 146.432 -3.57423
2.08966 137.467 -3.61948
-8.35186 115.12 -9.62918
-4.48766 122.776 -6.88865
8.60299 153.193 -1.35034
-18.1286 95.8308 -16.5915
-13.2435 86.6375 2.60248
-6.05887 108.219 1.64468
-1.64012 127.996 -4.38931
-4.96985 112.52 0.662606
-20.6015 86.6258 -14.5511
-21.3508 86.5696 -16.2586
-6.1306 108.084 1.71303
-0.551476 125.064 0.82006
-6.50267 106.819 2.02938
-4.6644 113.816 0.575742
-21.4869 86.8426 -16.6071
-17.5915 96.901 -15.7665
5.91196 148.711 -3.48538
2.65299 139.911 -3.74614
-10.4287 111.483 -10.865
-17.8355 96.6852 -15.9936
-12.0136 90.7364 2.71702
-0.952343 129.699 -3.60774
6.55048 143.985 2.18864
-4.0871 115.704 0.762202
0.964805 129.301 1.35362
-0.679837 125.176 0.945842
0.541754 128.188 1.32921
-20.7751 88.1557 -15.591
-20.9734 86.5544 -14.6575
8.32245 153.415 -1.24316
2.07427 132.126 1.75669
0.890867 129.262 1.41211
8.81266 150.791 2.17336
3.34686 142.65 -3.92479
-5.52984 111.493 1.12253
-10.8353 95.7908 1.75835
-21.9289 86.0904 -16.2443
-17.0657 82.3544 -1.63911
6.79852 152.149 -3.44095
-5.90041 121.03 -7.46072
-13.3042 107.24 -13.3945
-13.1872 88.3225 2.64071
0.00862249 132.473 -3.00795
5.08801 147.411 -3.45647
-21.8582 86.7172 -16.3883
-20.9506 90.3835 -17.2872
4.9389 147.056 -3.41312
-5.69752 121.619 -7.28599
6.90688 145.722 2.37039
-21.0661 90.457 -17.533
3.53744 137.348 1.44793
-1.00092 130.237 -3.32642
2.35552 139.937 -3.46375
-5.39919 112.548 1.08534
9.39946 154.536 1.03823
-14.3814 105.81 -14.4281
-6.3457 108.785 2.06064
-11.6115 110.159 -11.4519
-0.572814 126.243 1.25367
-13.2875 107.594 -13.1088
3.52519 143.876 -3.67838
3.99734 144.994 -3.37896
8.31122 150.509 2.25533
6.23026 144.737 2.15707
-3.96901 117.199 1.10614
-5.09557 114.13 1.12674
-8.46385 116.402 -8.70436
-12.5135 92.9863 1.30519
-7.47989 106.308 2.103
4.67811 147.365 -3.40802
-23.0577 85.1991 -16.89
5.69973 150.551 -3.34563
-20.9729 92.1693 -17.5255
-11.3761 95.7586 2.1365
6.18852 145.495 2.24194
-13.8382 107.478 -13.2694
-15.2275 104.714 -14.2361
-2.2746 122.825 1.23167
4.75728 148.393 -3.40355
-9.63378 101.128 2.13623
-5.84863 112.555 1.55473
-22.2924 89.3189 -17.7382
-13.6294 89.2633 2.74602
-6.757 109.106 2.54952
-23.2552 79.2329 -11.4565
-3.73683 126.319 -4.62305
-19.9761 80.9053 -5.03488
2.69013 143.061 -3.33899
-6.47788 110.746 1.96116
-3.68741 126.517 -4.53133
-22.424 86.7048 -15.4704
-13.9732 88.4452 3.04241
-13.1131 90.799 3.21354
-12.7641 93.8169 1.554
-13.4348 90.15 3.02862
-8.28377 117.93 -7.90561
-8.39315 105.583 2.15657
1.12046 132.074 2.55018
5.46782 145.003 2.04281
-11.7125 111.476 -10.5008
-16.5721 84.9643 0.175081
-5.97255 113.153 1.80135
-23.0747 86.4964 -16.2997
7.01004 153.906 -1.4598
0.971819 138.751 -3.00609
-1.00925 133.252 -2.93096
2.57356 137.452 2.01928
-6.38715 122.251 -6.37426
-11.0123 98.0316 2.8865
-22.8388 87.2126 -15.9723
-14.2938 108.054 -13.0879
1.29439 134.198 1.98688
-23.7414 85.4329 -16.4195
-6.84982 121.487 -6.57487
-6.9811 121.24 -6.61948
-12.3838 95.2676 2.30004
8.29165 154.937 1.44149
-12.5876 95.0388 2.11087
-17.274 103.107 -15.6514
-12.3296 95.381 2.44072
-19.0587 98.4615 -15.9472
-0.979922 134.017 -2.92027
-1.6361 126.278 1.98893
-18.656 83.5113 -2.52131
-9.90517 115.583 -8.5901
-8.65896 106.256 2.16006
2.60702 144.354 -2.9926
-23.1761 87.2756 -16.2258
-23.3043 87.6724 -16.846
-2.06592 125.243 1.99879
-4.17913 126.838 -4.27854
5.31873 152.32 -3.08142
6.69384 151.144 1.17546
-9.32141 116.86 -8.02532
2.42252 143.971 -2.90454
-7.7298 120.147 -6.92099
-9.3255 103.995 2.80015
-15.6825 87.5196 1.59579
-24.1069 87.2267 -17.9517
5.21769 152.407 -3.07795
-24.6788 79.8464 -13.1299
2.07835 137.121 2.33648
1.63046 142.371 -3.05177
-13.5097 109.842 -11.6535
-24.4913 79.6311 -12.373
-24.5865 79.7157 -12.6589
1.14179 134.918 2.12941
-14.6928 88.7342 3.32364
-19.0993 99.519 -16.0015
-14.6636 89.0746 3.24132
-17.0723 104.062 -14.8712
-23.8757 88.8543 -18.2085
-25.0024 84.3774 -17.1146
-20.6539 96.7822 -17.1706
-13.3635 93.8789 2.59666
-2.76188 131.665 -3.83898
-23.8939 87.0855 -16.5116
1.97985 144.2 -2.99631
3.28195 142.159 1.81326
-24.9713 79.8074 -12.8214
-1.67668 127.339 2.54657
3.83919 150.01 -3.28384
-3.01586 131.411 -3.91026
0.625741 141.007 -3.21818
-5.48795 116.614 2.68461
-12.5134 112.291 -10.2277
-6.661 113.328 2.73969
-16.5474 105.513 -13.8745
-24.1752 87.2675 -16.6465
-25.2194 79.8717 -12.9464
-10.2565 116.474 -8.1195
-22.0972 82.2676 -7.53976
-7.08544 122.507 -5.64372
-18.9339 101.687 -16.2291
-9.40452 118.15 -7.3779
1.84212 145.088 -3.25616
7.08022 155.078 0.807935
1.62083 137.54 2.68447
5.42843 153.834 -1.90032
-24.7544 79.9033 -11.479
-11.2155 100.258 3.49853
-24.9267 87.1558 -17.7038
0.682223 135.286 2.60974
-0.289399 139.474 -3.14029
-3.6932 130.814 -3.95323
5.25508 149.988 1.17807
6.40456 155.065 -0.335214
-25.822 85.3151 -18.1808
-26.1607 83.6767 -17.599
0.640637 142.437 -3.31944
-5.2436 118.178 3.03818
-24.9751 79.9833 -11.6107
-11.5869 99.5648 3.70168
-17.1468 87.5111 0.650954
5.17242 153.883 -1.98422
-13.2044 112.076 -10.4489
-25.6781 86.0401 -18.1213
-12.562 113.14 -9.73456
5.74489 154.903 -1.31045
1.42459 145.088 -3.30058
-10.477 103.792 3.06763
-25.3312 79.9926 -12.0972
-10.5131 103.761 3.07596
-2.90172 125.513 2.92249
-16.4451 107.179 -13.7201
-18.9705 85.7182 -1.75107
-17.7243 87.2875 -0.0344905
-4.0377 122.52 2.91041
-2.68337 126.41 2.90874
-7.74251 111.349 3.54715
-2.21668 135.167 -3.24668
-13.0595 95.9048 3.9124
-21.478 97.3582 -17.0602
3.70617 145.661 2.12011
-3.4 132.862 -3.96771
4.14554 153.097 -3.0091
-20.4635 99.6689 -16.4532
-25.1979 87.37 -17.3327
-12.8345 97.194 3.67332
-24.8091 87.7595 -16.6993
-7.26787 113.267 3.43653
-10.8047 116.848 -7.83159
-26.0858 80.0432 -13.1872
-18.8948 86.251 -1.33985
-23.7353 81.9108 -9.10796
-0.14703 141.955 -3.45006
-5.9741 126.636 -4.40103
-4.20956 122.644 3.13082
0.130623 135.151 3.0056
-5.37088 119.15 3.37631
0.42302 136.068 3.06097
-0.497317 141.427 -3.55283
2.14884 149.224 -3.77632
-14.5059 93.2642 3.58976
0.595698 136.623 3.09792
3.58109 152.497 -3.07417
3.36462 152.122 -3.19893
-0.78547 140.989 -3.66534
-27.3522 80.9399 -16.2471
-12.5023 98.8541 3.86242
-23.9681 91.7026 -17.2016
-20.1554 101.495 -16.3571
-23.0873 82.8786 -7.75534
-23.1445 82.8439 -7.85971
-15.8439 109.303 -12.6671
-2.31143 136.668 -3.54346
-3.38198 125.431 3.29478
-22.4734 82.98 -6.34517
-8.26894 111.04 3.83567
-22.884 94.8953 -17.1696
-11.0531 104.214 2.97532
-20.547 85.3053 -3.63384
-0.0177847 135.291 3.16737
-10.3303 118.602 -7.18905
-13.8541 112.642 -10.3755
-13.3234 97.1956 3.74459
-25.3848 87.4557 -16.4714
-3.46595 134.434 -3.8381
-1.88223 138.492 -3.48025
-25.1513 80.9027 -10.3193
-19.9528 102.715 -16.1167
4.2709 154.406 -2.03929
-4.8789 122.001 3.50289
-26.1742 80.553 -12.1616
-3.81166 134.111 -4.0286
-9.26853 121.182 -6.1135
-25.7863 80.6776 -11.2708
-20.2813 102.267 -16.2207
4.14552 154.405 -2.01736
-4.64973 132.105 -4.14526
-24.6085 91.4346 -17.2443
-6.60979 126.884 -4.21573
-24.9368 90.7934 -17.3592
-9.95095 108.684 3.22602
-22.5352 97.3371 -16.9907
-0.717694 143.375 -3.87198
-11.3709 117.73 -7.62122
-12.0856 102.449 3.45922
-27.7529 80.4805 -15.071
-27.5864 80.5573 -14.6546
-25.9109 80.9567 -10.9884
-10.829 107.326 2.63888
-15.6136 110.649 -11.3862
-14.4165 95.0131 4.51954
-3.92184 135.211 -4.18977
-27.746 85.3514 -18.7313
-18.9057 88.869 -0.800235
-27.4804 81.6272 -14.8632
-16.233 110.234 -11.8861
-23.037 84.4245 -6.39508
-10.161 120.769 -6.28284
-0.962765 144.418 -4.2511
-16.2658 110.261 -11.8735
-21.1158 86.5228 -3.52823
-17.5926 108.242 -13.2726
-17.8938 90.3445 1.04039
-17.8808 90.4209 1.05991
-12.7782 116.469 -8.5715
-7.25584 126.893 -4.21181
-7.89551 114.768 4.40201
-7.83829 125.761 -4.60528
1.04174 142.484 2.50228
-20.6065 87.2541 -2.52813
-9.66189 122.239 -5.78436
-16.8544 91.7642 2.71739
-27.8749 85.1824 -17.6833
-1.97666 142.761 -4.51186
-3.13545 139.03 -3.94095
-7.03072 117.894 4.50554
-20.8122 87.5707 -2.59717
-14.1155 98.4653 4.12242
-2.57519 131.522 3.91203
-20.4068 88.2713 -2.0249
-4.60115 125.599 4.18831
-2.13196 133.045 3.9217
-21.3437 87.3849 -3.32073
-25.2522 83.6061 -9.31999
2.39234 153.64 -2.39473
-11.8706 119.25 -7.27655
-18.1108 91.6387 1.00671
-20.5108 104.665 -15.4642
-25.4246 92.1029 -16.5643
-24.1717 84.5059 -7.19171
-28.2998 83.1024 -15.7367
-1.91959 134.085 4.0712
-13.6278 100.993 4.0533
-18.067 109.123 -13.1702
-13.1675 103.057 3.43323
-27.6547 87.5482 -17.6832
-1.62956 135.873 3.50767
-22.6082 86.7269 -4.95336
-17.2999 92.4426 2.80486
-15.8876 112.664 -10.638
-25.6123 83.7904 -9.47907
-7.1289 118.964 4.83439
-13.4393 117.418 -8.75055
-13.3214 103.117 3.44018
-18.3443 108.977 -13.2039
-7.46787 128.91 -4.13633
-26.4129 90.4047 -16.6477
-28.3619 81.5011 -13.8271
-4.08435 138.855 -4.3363
-16.0201 94.0779 4.83277
-4.19373 138.663 -4.38506
-22.5001 100.698 -15.9044
-9.70243 124.381 -5.38292
-2.38638 144.71 -4.99886
-20.5022 89.6013 -1.79856
-18.6888 108.661 -13.3391
-13.9106 117.162 -9.12086
-20.2349 90.2012 -1.53767
-25.1247 84.6368 -8.37049
-21.1758 104.521 -15.5731
-9.83168 112.752 4.31601
-14.9651 115.603 -10.1523
-21.3009 88.7786 -2.73483
-15.7004 113.992 -10.4581
-7.96599 117.442 4.90697
-24.941 94.7683 -16.2051
-29.152 84.797 -17.815
0.0191064 150.866 -4.03315
1.28632 146.717 2.45195
1.35254 153.114 -2.71047
-6.4556 121.756 4.99904
-25.7828 92.5292 -16.2005
-26.3561 83.7352 -10.1217
-0.341856 150.434 -4.15883
-21.2419 89.2947 -2.50888
-20.4832 105.99 -14.6154
-0.706244 141.839 2.23674
-18.7561 109.314 -13.2261
-28.6123 81.9044 -13.6303
-2.5727 134.427 4.07212
-12.0282 108.719 3.19704
-0.616068 150.158 -4.24417
-5.45468 125.731 4.71519
-13.3025 105.414 3.15575
-23.2521 87.3713 -5.27348
-10.7323 111.858 3.93968
-26.1953 84.3571 -9.61234
-2.30143 136.46 3.39628
-16.0033 114.525 -10.6305
-15.8443 97.2308 4.2598
-24.0948 86.4686 -6.1624
-20.6592 90.919 -1.67366
-7.31151 132.297 -4.62914
-12.1383 109.176 3.25437
-18.2894 110.587 -12.387
-13.4473 119.131 -8.06072
-4.03108 142.746 -5.4878
-6.13596 124.132 5.06445
-7.68499 119.877 4.97764
-2.98746 145.457 -5.19381
-19.1817 93.1062 0.300034
-1.51295 140.409 2.57772
-20.8235 90.9787 -1.76982
-14.543 101.829 4.04422
-7.85849 131.33 -4.62126
-15.6144 98.523 4.46488
-25.6715 85.517 -8.38903
-6.28428 136.428 -5.06297
-6.45679 135.826 -4.95066
-12.9839 107.736 3.05122
-25.1408 96.6852 -16.3481
-25.058 96.8653 -16.3
-6.17587 138.024 -6.05092
-7.22469 121.639 5.12407
-18.6988 93.6028 1.43318
-9.18101 127.611 -4.42565
-10.4352 113.459 4.44974
-17.4769 94.049 4.01856
-9.023 128.204 -4.46532
-6.53754 136.944 -5.6726
-10.7757 113.056 4.27197
-13.3575 120.046 -7.62104
-17.7434 112.47 -11.5039
-9.28852 128.126 -4.50168
-7.01947 135.843 -5.52997
-25.7669 95.5465 -16.0835
-13.4185 120.395 -7.48554
-27.3747 90.8682 -15.7927
-25.9018 95.0707 -15.8054
-18.0393 112.195 -11.5178
-16.7237 115.386 -11.0306
-28.4011 83.5536 -11.9151
-9.41092 116.883 5.22933
-16.9798 115.168 -11.1522
-7.62348 135.363 -5.7611
-25.2573 97.7437 -15.9729
-1.14559 151.422 -3.81952
-1.2285 143.953 2.23166
-22.9857 103.202 -15.1032
-17.8107 94.6828 4.19172
-11.1267 113.504 4.34195
-16.9631 96.851 4.48035
-18.7555 111.474 -11.8327
-26.5035 86.0193 -8.89329
-17.3433 95.5101 4.80876
-29.008 85.7869 -14.548
-25.3676 97.8451 -15.9287
-22.6468 90.6115 -3.48603
-6.03175 140.925 -6.20404
-17.7624 94.9895 4.38977
-5.7385 141.708 -6.12178
-1.47709 151.207 -3.91283
-17.409 95.953 4.62785
-19.9882 109.927 -12.8735
-29.7624 84.4134 -14.6397
-9.63884 117.513 5.27389
-4.50405 132.658 4.77221
-9.73968 129.973 -5.32023
-12.9191 122.359 -6.4104
-0.341808 146.01 3.62437
-26.4817 95.0498 -15.5031
-12.0284 124.285 -5.7141
-16.5927 116.918 -10.2703
-26.4899 95.3858 -15.6474
-26.0305 97.1746 -16.0525
-23.6324 90.1752 -4.56905
-1.72834 151.36 -3.82941
-16.6675 99.0452 4.609
-5.45658 130.097 5.26274
-6.26143 127.65 5.42328
-17.7499 96.0838 4.6486
-8.59737 121.237 5.29212
-22.8147 105.59 -15.161
-5.87096 128.896 5.42689
-29.5983 88.5228 -16.8538
-25.5947 87.6148 -6.62769
-12.1222 113.002 4.02052
-6.61386 126.982 5.41681
-10.0068 130.736 -5.6796
-16.4978 100.017 4.64642
-9.97763 117.699 5.32016
-1.52661 152.186 -3.43391
-8.16472 122.944 5.27148
-24.215 90.0304 -5.10308
-3.89688 147.675 -5.18251
-9.30082 133.108 -5.77388
-24.4072 101.55 -15.1117
-29.5028 89.0913 -16.7086
-10.1342 117.458 5.358
-20.4151 94.7323 0.147053
-10.698 116.239 5.20645
-5.05171 145.466 -5.72696
-15.5132 119.269 -8.41536
-16.9712 117.435 -10.2267
-27.4131 86.7883 -9.26828
-6.24319 129.105 5.41336
-24.9332 101.045 -15.2476
-7.58789 125.526 5.33011
-15.1106 120.178 -7.79325
-11.0641 116.086 5.15688
-9.36377 135.039 -6.60022
-16.6394 118.154 -9.61965
-14.1307 109.454 3.54264
-16.7747 100.777 4.61287
-20.5452 95.2598 0.392999
-22.8269 92.7698 -2.89518
-19.7535 112.274 -11.7826
-10.8795 130.137 -5.69009
-19.7415 96.021 1.85334
-9.61832 135.529 -7.10906
-8.16812 124.867 5.26256
-21.8754 94.1188 -1.38877
-4.89106 136.048 3.76126
-30.3057 85.4535 -13.9965
-11.7183 115.364 4.96563
-5.0442 135.661 3.91325
-18.7958 96.7997 3.85528
-26.2078 99.1432 -15.5643
-16.8854 118.59 -9.5975
-18.1054 116.895 -11.0132
-10.0732 135.432 -7.45803
-27.1488 87.9286 -8.14963
-27.6987 87.4635 -9.05772
-4.94429 137.042 3.46458
-18.9691 97.1099 3.73937
-30.4789 85.6159 -13.7559
-9.95493 120.757 5.39613
-4.66563 138.949 2.76882
-10.5362 134.305 -7.16909
-2.2864 144.994 3.43526
-11.4778 130.28 -5.92107
-11.1523 132.484 -6.95573
-13.2678 113.302 4.12877
-28.4543 93.4847 -15.0762
-7.55106 128.137 5.37521
-21.1677 110.836 -12.232
-14.9609 109.296 3.68585
-10.9966 134.02 -7.46712
-26.0662 100.935 -15.2948
-27.7794 88.1292 -8.65489
-23.8302 106.166 -14.2256
-28.9396 92.4238 -14.812
-14.7066 122.846 -6.54736
-30.6491 86.0095 -13.4365
-12.6728 127.515 -5.51446
-20.4555 97.0324 1.64666
-9.44939 139.251 -7.5011
-17.5475 119.081 -9.7946
-25.279 91.4597 -4.97292
-20.3687 114.128 -12.1654
-28.2972 95.4734 -15.3063
-11.6718 133.359 -7.63763
-26.6944 90.0667 -6.88922
-30.3946 88.2067 -14.014
-11.8771 132.925 -7.55332
-20.3492 114.546 -12.1764
-26.1358 101.637 -15.0688
-6.49655 146.379 -5.97475
-22.2352 110.026 -12.7664
-13.8013 125.471 -5.57627
-28.4034 88.614 -9.17195
-30.6193 87.0603 -13.0966
-28.7475 95.0246 -15.2418
-27.4903 89.6898 -7.82521
-27.9479 97.5554 -15.4385
-11.2711 119.611 5.56439
-25.2864 92.1092 -4.55023
-5.81927 139.159 2.27385
-9.35623 140.917 -7.38373
-23.5848 94.4346 -2.19472
-26.4824 91.2001 -6.29862
-12.5839 131.757 -7.28064
-13.2232 128.347 -5.92239
-29.6189 87.8759 -10.7442
-4.76662 142.279 2.56153
-14.1547 125.666 -5.62342
-26.8752 91.0597 -6.78084
-12.9835 129.993 -6.40144
-8.03356 129.883 5.39872
-14.7903 124.586 -6.05238
-13.8213 114.689 4.55701
-15.0672 111.715 4.24587
-22.4632 111.52 -13.0189
-28.9793 89.3167 -9.82873
-5.14774 150.621 -4.57642
-26.0035 92.4374 -5.26376
-30.6102 87.6193 -12.0061
-19.8791 99.0024 3.91213
-18.7221 101.101 5.02904
-22.3566 112.52 -12.8058
-29.3786 89.6632 -10.2942
-26.158 103.771 -14.442
-14.3837 127.145 -6.13018
-13.0838 133.744 -8.41621
-8.18737 145.371 -6.53744
-20.3855 116.863 -11.5087
-29.5776 89.6736 -10.5213
-30.2535 92.7545 -14.6012
-25.0921 106.113 -13.5464
-30.7107 88.4403 -12.0015
-26.0395 104.489 -14.288
-27.7123 91.674 -7.53473
-20.5295 116.932 -11.5465
-28.7777 91.0769 -9.37427
-8.81768 129.834 5.41634
-10.3304 125.094 5.83584
-21.5572 98.4667 1.62409
-9.78961 127.231 5.43872
-4.33595 144.413 4.12762
-24.6115 95.0121 -2.52025
-10.7502 140.271 -7.29333
-29.2772 91.3014 -10.1817
-27.6124 101.459 -14.6728
-23.622 111.082 -13.2129
-30.8095 89.693 -12.248
-25.8427 94.6851 -4.69022
-26.5427 104.259 -14.2945
-25.2966 106.73 -13.4079
-23.0456 97.692 -0.548022
-7.92346 136.53 2.79263
-17.7252 106.707 4.60914
-7.5185 148.512 -6.11065
-22.0101 115.157 -12.4984
-25.2758 107.118 -13.4906
-25.2821 107.238 -13.5081
-14.7214 115.253 4.74994
-27.9964 92.7516 -7.77627
-11.0581 140.188 -7.248
-30.212 90.7694 -11.2259
-20.6466 100.066 3.67421
-14.0275 133.84 -8.82781
-15.4854 113.764 4.5812
-8.43692 135.625 3.13501
-25.3016 107.931 -13.5636
-9.10896 130.934 5.47082
-18.667 121.786 -9.24301
-15.4643 114.292 4.60889
-9.47327 144.954 -6.77321
-30.379 95.3304 -14.3864
-13.2399 119.444 6.02271
-15.6635 128.59 -7.30189
-25.3763 95.9357 -2.98072
-26.2883 95.4945 -4.73958
-14.1554 134.39 -8.51011
-17.6145 108.672 4.76322
-13.8862 134.942 -8.30425
-19.4224 120.636 -9.43603
-30.4529 92.0441 -11.5216
-9.95834 144.522 -6.81641
-28.8622 100.317 -14.3012
-21.3565 118.097 -11.4081
-12.7975 137.914 -7.66465
-8.20238 149.001 -5.90752
-29.6789 98.197 -14.1365
-24.3523 111.367 -12.5112
-4.89156 153.98 -1.96152
-22.9187 99.7032 0.942149
-16.6875 112.496 4.98504
-27.5739 104.493 -13.9156
-26.0936 107.356 -12.7682
-24.746 110.953 -12.5245
-9.89267 145.966 -6.58086
-18.716 106.863 5.19159
-5.3992 153.541 -2.20224
-9.59254 135.455 2.97932
-26.3695 96.5317 -4.1457
-29.9033 94.1519 -10.4936
-10.8892 128.406 5.85408
-29.3629 97.0102 -11.3184
-30.3373 95.4028 -12.1966
-22.2192 100.974 2.52799
-22.1778 101.022 2.60799
-25.0318 98.3453 -1.85805
-29.95 98.4783 -13.5351
-22.7385 100.713 1.73913
-30.3078 95.2699 -11.556
-23.2574 100.261 0.912605
-18.3552 125.299 -8.29601
-10.0432 135.323 3.05852
-23.4648 100.247 0.655804
-7.76326 142.041 2.91302
-18.0588 125.934 -7.8142
-13.183 122.711 6.38845
-16.7329 130.723 -8.64713
-27.8226 95.9134 -5.7617
-12.0256 142.096 -6.94187
-26.1218 97.4609 -2.88726
-29.1027 95.1243 -7.95923
-29.4088 96.5141 -9.79741
-25.8899 109.167 -12.0057
-8.09435 141.663 2.89191
-24.8143 99.2118 -1.17897
-29.9553 94.9139 -9.68668
-13.2688 122.843 6.40718
-7.02396 143.593 3.90769
-22.4727 118.327 -11.3998
-16.0437 132.864 -8.34595
-8.66259 140.719 2.54062
-29.3862 96.7716 -9.71028
-26.3165 97.5625 -3.12028
-29.9352 95.1542 -9.53609
-29.0951 102.06 -13.2734
-25.4439 110.69 -11.775
-29.4994 100.553 -12.8923
-17.0091 128.873 -6.95374
-29.4236 98.6729 -11.0267
-16.2995 116.481 5.11115
-17.3866 127.766 -6.80851
-23.3918 101.225 1.17476
-29.2676 101.773 -13.0887
-24.7933 99.7579 -0.80666
-21.0768 120.958 -9.63426
-25.4385 99.108 -1.67861
-15.4258 118.52 5.94641
-12.469 142.247 -6.83448
-8.95978 150.343 -5.29689
-14.8854 135.672 -7.03217
-17.2887 131.218 -8.85412
-17.857 127.523 -7.09994
-16.6984 116.225 5.07452
-27.8773 106.222 -12.9074
-22.4549 102.561 2.97396
-17.523 128.372 -6.87884
-22.2718 102.767 3.31605
-14.6883 136.937 -7.19813
-10.1615 148.531 -6.17521
-7.69451 143.365 3.94924
-18.7856 126.7 -8.20141
-8.57721 141.702 3.3877
-13.7707 123.312 6.4807
-20.5299 122.727 -8.86866
-13.3421 140.771 -6.87507
-7.87425 143.307 3.9625
-12.9199 125.733 6.7168
-6.09448 154.206 -0.876551
-29.1474 99.763 -9.88306
-29.973 99.8634 -11.8822
-18.6206 127.172 -7.8065
-29.774 99.9125 -11.374
-12.5072 142.954 -6.40801
-10.9104 147.474 -6.28668
-7.10033 144.792 5.06075
-28.9657 97.5951 -7.15847
-12.1604 144.134 -6.20772
-6.75407 153.82 -1.49486
-16.6364 133.359 -7.57521
-8.13539 143.382 4.13845
-17.5239 130.906 -7.60455
-10.3079 149.268 -5.87895
-17.8107 130.173 -7.63681
-20.3071 107.554 5.43586
-11.3776 134.898 3.76528
-29.2612 98.1381 -7.74173
-14.5438 138.814 -6.84398
-27.4054 108.581 -11.9758
-11.4363 134.775 3.88099
-27.0648 109.205 -11.6593
-11.4943 135.614 3.10086
-28.3827 106.805 -12.6771
-17.9305 114.666 5.62713
-26.1391 112.342 -11.6148
-25.9293 100.509 -1.18581
-24.6439 102.099 0.602028
-9.18172 141.898 3.96151
-24.9342 116.208 -11.6367
-14.8823 138.907 -6.82273
-16.3016 119.41 6.13929
-29.8198 101.17 -10.5128
-24.2139 118.149 -11.409
-10.0835 140.255 3.61355
-15.4605 137.468 -6.73989
-28.4246 107.61 -12.3603
-28.7554 99.8103 -6.57334
-28.6993 106.851 -12.2838
-23.0918 121.075 -10.7913
-17.7613 131.446 -6.77139
-25.9858 114.251 -11.7476
-8.80526 152.472 -3.06456
-18.2843 130.541 -7.13641
-10.8345 139.325 3.18786
-24.5973 102.926 1.06801
-14.7751 140.138 -6.75202
-19.0575 129.161 -7.68642
-13.324 128.517 6.37166
-10.9058 149.646 -5.50363
-12.7395 145.274 -6.0631
-20.1975 110.161 5.69254
-19.1075 113.26 5.70689
-19.2858 112.747 5.72802
-27.1992 111.017 -11.4527
-23.2541 104.636 3.17461
-13.3414 143.482 -5.79599
-15.8904 121.812 6.2773
-9.3323 144.608 2.78858
-23.9772 104.108 2.08696
-20.423 126.565 -8.12766
-25.2618 102.642 0.383831
-8.27137 144.841 5.33311
-25.8234 115.4 -11.5011
-12.6633 135.53 2.94803
-11.7936 148.375 -5.67146
-19.5363 129.005 -7.77851
-28.7844 100.619 -5.91806
-17.4347 118.566 5.89734
-22.9415 122.303 -10.1117
-16.7808 120.235 6.2308
-9.79221 143.55 3.34274
-10.7103 150.712 -4.74225
-29.0713 101.423 -6.98273
-22.7237 122.847 -9.73567
-10.5218 144.939 0.733046
-14.6315 126.134 6.71938
-19.6412 129.203 -7.63466
-29.3195 104.559 -9.90753
-28.1568 100.654 -3.90174
-18.6209 116.352 5.64791
-18.7818 115.957 5.73857
-20.6277 110.94 5.75609
-10.746 143.177 2.3361
-13.3955 135.755 2.29308
-13.7306 144.427 -5.7168
-28.1066 101.273 -3.63387
-9.56252 152.709 -2.71093
-24.1025 121.034 -10.5865
-14.3716 142.745 -5.70631
-17.7923 119.126 5.98579
-19.9191 128.799 -7.05334
-22.013 108.385 5.16288
-19.6964 114.308 5.70148
-28.4205 109.919 -11.1597
-26.0855 116.456 -11.0145
-13.7837 145.016 -5.74074
-18.4104 133.02 -6.58787
-13.5593 134.469 3.64495
-29.2518 106.772 -10.2567
-29.319 106.053 -9.80777
-11.7656 139.152 4.02386
-22.7673 107.782 4.35272
-16.1014 139.199 -6.06394
-8.54667 153.882 -0.416225
-10.641 142.817 3.86902
-8.67527 153.647 -0.484492
-26.3953 116.088 -10.928
-23.4395 123.18 -9.84069
-20.8652 127.969 -7.68811
-26.8953 103.379 -1.42692
-12.3942 148.702 -4.92022
-28.7958 109.429 -10.867
-17.6559 120.457 6.21922
-15.4833 125.866 6.84097
-29.426 105.167 -8.77759
-12.0087 140.387 2.98701
-28.8803 102.436 -5.17619
-28.9565 108.461 -10.2523
-20.0416 114.632 5.7576
-20.439 128.904 -7.04278
-9.40139 151.412 0.428302
-20.3368 129.371 -6.96278
-28.9232 107.549 -9.00477
-28.547 109.333 -9.52364
-16.7798 138.18 -5.73178
-15.4568 128.503 5.46337
-14.1439 135.638 2.67229
-28.1794 103.024 -3.17623
-17.1951 137.121 -5.6112
-12.2104 142.999 1.292
-14.2193 133.816 4.25855
-11.2645 142.462 4.07798
-18.0126 135.109 -5.64958
-14.2973 133.053 4.84916
-27.4986 114.207 -10.5746
-19.1666 133.31 -6.81153
-14.6921 134.7 2.65131
-26.2236 105.074 0.158431
-10.2558 149.828 0.659382
-27.574 114.361 -10.4601
-23.691 108.432 3.65797
-27.2882 115.209 -10.4401
-21.6136 127.455 -7.25468
-11.3829 146.779 0.792754
-18.164 120.99 6.28177
-28.1917 112.591 -10.3222
-9.97193 153.704 -1.59243
-16.8395 124.453 6.64224
-23.3084 109.214 4.18204
-18.6824 120.039 6.10382
-28.2438 104.088 -3.1291
-15.8623 129.249 5.18513
-20.9259 114.359 5.73523
-17.097 138.753 -5.50127
-22.0828 127.221 -7.62675
-21.6439 128.114 -7.33496
-12.4196 142.358 2.55336
-15.1267 134.81 2.63097
-26.4179 118.309 -10.2484
-21.6796 128.229 -7.28015
-21.142 114.159 5.70532
-27.6794 105.191 -2.20871
-23.8026 123.766 -8.51038
-23.4066 109.626 4.19916
-19.9568 117.239 6.01893
-22.1974 127.201 -7.50219
-24.2326 108.609 3.1939
-22.1833 111.494 5.73864
-18.918 120.351 6.17089
-17.8823 122.913 6.52569
-16.508 128.151 5.52092
-13.2692 142.933 0.961332
-15.4407 132.133 4.84997
-15.2763 133.966 3.80169
-22.2844 127.556 -7.27368
-16.7079 127.549 5.92971
-19.9568 133.354 -6.53012
-22.0574 127.698 -6.74811
-14.7107 138.361 1.72583
-26.8802 106.565 -0.4584
-28.4175 113.65 -9.83524
-22.324 127.509 -7.00873
-26.9819 117.884 -9.93258
-28.0807 114.757 -9.91452
-15.8867 133.264 3.50995
-13.1429 143.959 1.0804
-15.0584 136.515 2.80604
-23.7154 125.224 -8.17621
-24.9851 122.393 -8.77529
-28.9007 112.23 -9.53915
-22.1835 127.591 -6.34945
-15.8055 133.73 3.59676
-11.6474 152.719 -2.12439
-18.6221 136.779 -5.26068
-27.8247 116.292 -9.68647
-29.2521 108.799 -6.80678
-28.6508 110.016 -6.38117
-25.9619 120.997 -9.17138
-28.9548 109.067 -6.28019
-11.0315 153.594 -1.0908
-28.9885 108.958 -6.25
-28.0557 106.844 -2.24958
-26.9756 107.644 -0.362644
-14.7044 139.895 1.78775
-17.3508 128.419 5.10719
-26.4755 120.032 -9.40482
-28.7572 113.527 -9.34247
-20.0885 119.439 6.255
-28.897 110.579 -7.11561
-28.4776 109.602 -5.30683
-20.4678 118.545 6.19897
-13.4432 144.278 1.39806
-17.4324 128.624 5.08717
-28.6703 107.622 -3.85845
-22.0494 129.657 -6.54988
-23.5875 126.021 -7.12164
-24.455 123.538 -7.08284
-11.0057 151.914 1.25277
-11.2287 152.534 0.234833
-13.8678 143.313 1.76856
-26.0849 109.273 1.34826
-28.076 108.158 -2.24033
-14.5869 147.267 -2.98646
-20.3715 134.453 -5.94089
-13.9944 148.626 -2.43329
-27.4462 108.424 -0.636652
-27.9591 110.985 -3.95389
-28.0149 117.238 -9.25564
-27.6537 111.324 -3.43814
-18.4106 139.983 -5.47418
-23.4365 112.896 5.31725
-27.7289 118.217 -9.15755
-17.7321 141.402 -4.88038
-26.9146 111.681 -1.71957
-21.4848 117.332 6.43136
-27.9446 110.094 -2.69934
-27.5619 110.841 -2.39503
-26.9422 111.099 -1.06633
-27.4343 110.613 -1.74649
-14.1204 143.74 2.08951
-13.428 146.313 1.60431
-13.2265 146.865 1.62649
-28.8014 112.52 -6.45395
-25.012 124.598 -7.51542
-18.6503 138.968 -4.46678
-25.0099 124.105 -7.07278
-27.0885 109.83 -0.0739433
-17.4746 131.321 4.75981
-29.1477 113.767 -8.10971
-23.1625 114.051 5.77742
-12.5785 152.566 -1.30811
-12.2759 152.639 -0.544373
-26.4241 113.332 -1.07472
-28.8626 115.31 -8.32203
-20.718 120.461 6.73401
-12.5204 152.658 -0.718015
-27.0155 113.694 -2.44681
-22.4107 130.865 -5.87437
-19.0192 138.877 -4.54886
-19.0308 138.953 -4.59132
-29.1744 112.872 -6.78559
-23.9879 114.001 4.55275
-14.2442 148.708 -1.35514
-23.1127 129.608 -6.34467
-18.7763 127.636 5.6026
-19.3536 124.569 6.88755
-13.5463 150.529 -0.955274
-26.3175 114.503 -1.05757
-27.7979 113.412 -3.60281
-24.2267 127.535 -6.85203
-28.6194 116.956 -8.34209
-29.1414 114.962 -7.77045
-22.7558 116.608 5.92124
-25.9913 112.858 1.45804
-13.4681 151.061 -0.736656
-13.036 152.357 -0.731995
-21.87 133.546 -5.87744
-26.3937 113.568 0.170216
-16.4533 138.848 2.57676
-24.0457 114.762 4.74665
-22.7798 130.738 -5.53671
-23.9066 114.854 5.07976
-13.3607 151.573 -0.581914
-23.4398 115.741 5.55326
-23.1811 116.349 5.67954
-16.7199 144.037 -2.0939
-22.2704 132.839 -5.77323
-22.3676 132.803 -5.9706
-25.7955 116.469 -0.372478
-15.8752 145.893 -1.32968
-13.6033 151.169 -0.323503
-23.2865 130.472 -5.75027
-23.1028 131.028 -5.77079
-22.1587 133.172 -5.30941
-18.5141 133.078 3.40851
-23.6276 130.017 -6.0084
-25.518 114.892 2.14929
-18.9803 130.353 4.70427
-19.6381 126.326 6.52383
-23.7025 116.299 5.4148
-21.4195 121.218 6.74494
-28.1228 118.777 -6.97327
-19.9934 128.833 3.91842
-29.6088 114.325 -6.65492
-25.8365 115.063 1.67692
-19.7981 126.542 6.39299
-22.427 132.599 -4.82838
-24.4064 117.094 3.48315
-21.1279 136.411 -4.75475
-22.2114 134.151 -5.37405
-29.4025 115.503 -6.76619
-19.9754 128.475 4.6747
-23.4492 130.99 -5.60044
-19.6052 128.406 5.62525
-23.1864 132.922 -6.51334
-18.5623 134.616 2.9922
-25.2168 125.64 -5.18635
-23.3571 130.565 -4.79609
-23.4295 130.825 -5.01899
-26.8154 122.408 -5.98126
-21.5388 122.247 6.61332
-15.169 145.034 2.70978
-23.5194 130.662 -4.982
-13.353 151.249 1.87219
-17.5084 137.333 3.69403
-21.1102 136.809 -4.34149
-24.2721 117.089 4.65104
-25.3959 125.143 -4.66895
-17.9588 136.724 3.31128
-20.5725 127.58 4.78907
-28.9234 118.117 -7.01747
-16.6056 145.852 -1.07063
-15.2449 145.125 2.75441
-20.4414 127.53 5.21658
-13.4856 151.146 2.08928
-20.6368 129.236 3.53013
-22.5867 133.574 -4.67716
-22.4547 133.777 -4.48408
-13.5562 151.295 1.91428
-16.2453 142.428 2.96382
-24.4027 118.505 3.6545
-26.9141 122.199 -5.33029
-17.5785 138.579 3.04593
-22.2986 135.83 -5.7917
-22.0043 122.276 6.20735
-27.1063 117.172 -1.4206
-19.9194 131.035 4.03193
-26.4963 125.51 -6.72109
-15.4618 145.142 2.97084
-16.7209 146.379 -0.884138
-15.6647 148.255 0.188883
-27.5579 117.294 -2.02274
-20.5806 130.071 3.87264
-16.0143 144.122 2.99706
-17.7084 138.908 3.40444
-26.3202 126.044 -6.04235
-14.4993 148.388 3.45804
-17.248 141.057 3.08759
-14.296 149.589 3.21695
-21.9881 124.264 6.17901
-29.1237 116.216 -3.88632
-20.5705 139.823 -3.36894
-18.2517 144.254 -1.53556
-21.252 129.826 3.45013
-20.0689 141.326 -3.24831
-22.1236 125.522 5.18051
-20.1197 133.364 3.58136
-20.5501 132.253 3.84883
-18.0525 145.441 -1.19101
-23.093 136.214 -5.32212
-18.7544 137.481 3.90607
-26.9586 124.604 -4.57174
-14.6211 150.946 2.7149
-15.7224 145.855 4.39173
-25.7609 128.469 -4.66917
-17.7342 140.964 3.96545
-27.3462 124.618 -4.98174
-24.8844 131.374 -4.78269
-22.6857 127.878 3.344
-18.0013 146.264 -0.910607
-24.202 134.795 -5.95306
-22.7502 126.217 4.86011
-25.934 129.162 -5.04637
-26.0604 127.632 -4.06894
-22.9525 124.467 5.89764
-22.8684 138.02 -5.00305
-28.7482 118.633 -2.60736
-19.9593 135.966 3.73067
-15.2397 149.558 3.7883
-18.1979 146.565 -0.615411
-18.9445 138.235 4.63049
-25.976 130.093 -5.14813
-15.3482 149.688 3.69843
-20.3017 142.796 -2.23203
-28.1757 119.07 -1.00783
-27.7951 124.767 -4.73209
-23.4973 137.799 -5.35419
-17.2832 144.028 4.14091
-25.8463 131.076 -5.20042
-17.7236 147.522 0.257676
-21.9222 131.856 3.52225
-26.9519 120.65 1.03596
-26.2173 129.049 -4.21628
-23.625 137.69 -5.18702
-21.191 133.943 3.70365
-29.2702 120.241 -3.91154
-23.3212 138.289 -4.90742
-22.0694 131.854 3.50856
-21.6189 140.989 -3.03315
-25.9268 130.091 -4.02779
-25.7966 131.896 -5.22055
-25.6417 132.288 -5.1705
-16.4042 150.233 1.70859
-16.5136 149.936 1.70809
-16.7214 145.375 5.02063
-17.1798 144.623 4.59607
-21.2168 134.329 3.66104
-29.3849 120.16 -3.58293
-26.0618 120.943 3.62171
-19.4146 138.556 4.64488
-19.728 137.704 4.62867
-23.6405 127.721 3.73005
-25.1641 122.515 4.48636
-15.871 150.322 3.26086
-22.5546 131.586 3.22156
-18.7989 146.693 -0.481927
-21.8995 140.965 -2.91051
-16.0578 149.946 3.43982
-17.6717 148.517 1.17148
-29.3757 120.235 -2.86257
-26.9985 129.221 -4.6566
-23.2884 131.046 2.66255
-27.4127 126.24 -3.04238
-26.1404 121.773 3.68853
-25.2731 123.719 4.15128
-26.6809 131.619 -5.44851
-28.9835 121.842 -2.73441
-26.3991 129.804 -3.01913
-27.8627 128.184 -5.10057
-27.7104 121.469 1.04105
-27.34 128.618 -3.97829
-28.8309 123.688 -3.36373
-23.6719 130.98 2.79443
-19.9642 139.267 4.70466
-28.4728 124.521 -2.94915
-25.5085 124.807 3.81247
-23.1449 131.837 3.58308
-28.0739 128.193 -4.93007
-26.7594 128.839 -2.35656
-20.2638 145.427 -0.829895
-26.6651 123.143 2.70164
-26.8025 123.116 2.41436
-27.2437 128.691 -3.25907
-19.6246 140.529 4.88691
-27.8283 126.674 -2.70612
-20.6183 145.047 -0.928616
-27.6215 129.115 -4.15125
-17.1595 149.415 3.70635
-18.3144 148.859 1.47946
-17.8059 145.334 5.66983
-23.1488 132.344 3.95831
-26.6614 134.198 -5.68251
-26.1184 135.383 -5.35748
-17.793 145.955 5.49293
-18.3846 148.974 1.59732
-24.2479 139.558 -4.12981
-26.9064 133.982 -5.7338
-22.9572 133.789 3.80362
-28.1151 128.308 -3.79021
-27.3894 128.622 -2.20423
-25.0078 129.502 2.68874
-25.6982 128.02 2.33353
-27.8624 128.554 -3.20063
-18.1067 146.19 5.48017
-17.9671 149.907 2.88141
-26.1272 127.444 2.3469
-28.665 126.895 -3.0806
-27.7311 129.08 -2.66171
-26.361 127.301 2.09116
-26.1093 127.788 2.44773
-21.2264 145.489 -0.524116
-27.4772 129.766 -1.9634
-25.4303 137.281 -3.37417
-28.2428 131.325 -5.01573
-21.0235 139.835 4.95132
-28.429 128.793 -3.03075
-22.3164 143.675 -0.912874
-28.4424 129.692 -3.68938
-29.3336 127.114 -3.59304
-28.259 128.88 -2.46278
-19.771 148.422 1.32356
-25.9572 136.726 -3.45529
-18.5613 148.907 3.88421
-29.2997 124.848 -1.29131
-27.8092 126.288 1.2728
-29.3715 125.957 -1.94438
-27.7959 127.687 0.366448
-28.3644 132.904 -5.31644
-28.7161 125.21 0.408114
-25.8686 137.713 -3.06188
-26.6368 128.243 3.01949
-26.1706 129.369 3.26333
-29.6258 127.304 -3.00797
-19.1381 148.391 4.1604
-22.7975 137.376 4.95805
-29.2766 128.988 -3.19982
-23.8191 142.042 -0.934526
-29.4051 125.349 -0.185975
-27.5989 127.486 2.4481
-28.3502 126.368 1.71463
-25.7324 131.01 4.03276
-30.219 126.995 -3.10726
-27.9738 127.952 1.39108
-30.2584 125.558 -1.93988
-24.3846 141.277 -1.17685
-26.9883 128.643 3.31638
-28.232 126.912 2.16987
-30.8345 126.315 -3.44236
-26.3265 138.227 -2.71578
-29.2549 132.178 -4.52399
-21.988 140.702 5.6264
-21.349 142.687 5.4883
-25.3157 140.331 -1.85666
-27.4689 128.825 2.66092
-29.8967 128.617 -2.87657
-25.9382 132.047 3.76881
-22.797 139.118 5.31101
-27.5374 128.351 3.21791
-23.4004 138.265 4.75674
-28.4573 130.083 -0.269184
-26.441 130.685 4.26184
-28.3228 128.275 2.0652
-27.2333 129.801 3.47824
-30.2638 127.108 -1.15153
-20.8355 146.503 5.08325
-32.0283 125.088 -3.46151
-24.5914 137.79 3.71605
-31.4051 125.919 -2.40076
-26.8193 138.517 -1.96185
-32.1928 125.355 -3.56559
-30.6823 128.486 -2.58031
-31.1092 125.807 -1.2327
-24.4751 138.429 4.02345
-22.895 141.161 5.62677
-21.3191 146.701 4.86747
-25.8226 140.966 -0.935494
-30.8001 128.349 -2.01991
-31.7452 125.634 -1.90153
-26.9266 138.949 -1.61489
-23.7814 139.974 4.95381
-30.5954 127.828 -0.95088
-28.1185 136.486 -2.19974
-27.7293 130.405 3.85184
-25.7413 141.376 -0.584136
-29.5812 134.888 -3.93768
-32.9204 125.024 -3.57509
-24.4262 139.488 4.47342
-27.0504 138.928 -0.937177
-24.004 145.09 1.23726
-30.9731 128.607 -1.45654
-27.5264 131.321 4.51099
-22.2645 146.799 4.04335
-30.3483 127.896 1.34857
-27.5652 131.729 4.78311
-27.6411 131.732 4.77501
-27.0704 133.542 4.68205
-29.9963 128.212 2.22564
-28.5716 136.9 -1.5965
-22.7731 145.838 4.67896
-31.7625 130.125 -3.35566
-29.944 135.118 -3.16111
-31.9139 129.657 -3.24762
-26.0647 138.268 3.51407
-32.529 126.112 -1.48258
-31.7626 130.696 -3.31042
-34.2636 124.243 -3.80046
-27.3165 139.833 -0.177292
-23.1917 146.152 4.45431
-27.346 139.953 -0.108026
-27.3051 134.778 4.45401
-27.6671 139.279 0.391537
-32.8493 128.363 -2.40606
-28.9454 131.293 4.52792
-29.1402 137.423 -0.752867
-25.2548 145.19 1.95574
-27.8397 135.212 4.24314
-24.222 145.559 4.17364
-31.6656 134.114 -3.67797
-27.3683 141.38 0.404447
-28.8108 132.163 4.86253
-32.9969 129.185 -2.37443
-33.7628 126.577 -1.93914
-32.4068 127.116 0.837952
-26.5036 143.406 1.32544
-24.8687 143.521 5.09318
-32.1248 129.365 -0.0935541
-27.3989 142.055 0.577331
-34.6222 125.421 -2.57744
-32.3165 132.929 -3.34389
-26.2666 141.197 4.56301
-28.3965 140.017 0.845111
-33.813 127.058 -1.09214
-28.0001 138.438 3.52905
-29.2975 133.439 4.68092
-33.6837 129.341 -2.13004
-32.1393 128.534 2.25682
-26.1709 142.612 4.83121
-26.9722 140.949 4.39595
-26.2554 142.681 4.76611
-33.1604 132.151 -2.74337
-30.281 131.701 4.5808
-33.8164 129.763 -2.10803
-33.3069 129.086 -0.26078
-33.1753 129.215 -0.00270861
-27.8209 142.036 1.95887
-28.904 137.906 2.91167
-33.3654 131.882 -2.58702
-28.292 138.944 3.51476
-27.4592 143.532 1.82906
-32.8823 128.241 1.86191
-33.4305 132.276 -2.66631
-28.5462 139.067 3.3526
-28.6715 140.86 1.59182
-31.5565 136.26 -1.3758
-26.8145 144.073 3.46122
-26.7317 143.44 4.26646
-29.4045 139.994 0.893263
-28.4528 140.57 3.85542
-29.2877 139.472 2.89361
-36.1668 125.655 -1.63089
-35.0164 128.178 -1.00035
-33.3591 129.075 2.17292
-29.6057 139.465 2.67001
-32.4505 130.649 3.64109
-31.8452 136.974 -0.164175
-36.0486 126.737 -1.2965
-35.0839 129.161 -0.710903
-35.0052 128.853 0.230987
-35.2851 129.274 -0.455896
-32.2617 132.448 4.4988
-35.7489 128.964 -0.632108
-35.0334 132.52 -1.84213
-34.0105 130.089 2.88376
-35.4454 131.538 -1.5589
-32.2436 133.974 4.45184
-35.6974 131.455 -1.44056
-35.0612 133.948 -1.97021
-31.0396 140.373 2.23565
-31.7152 137.571 3.08221
-36.2897 129.111 -0.461064
-36.4182 130.354 -1.32419
-34.2504 135.881 -0.787327
-33.1999 132.742 4.36237
-35.3468 134.092 -1.78495
-31.1974 141.139 2.26964
-32.1838 139.479 1.41328
-32.5088 135.583 4.2374
-31.615 140.873 2.197
-32.8535 137.154 3.56792
-32.8264 137.742 3.39
-32.6872 139.245 2.4986
-37.0777 130.113 -0.0968994
-36.6026 133.069 -0.919711
-34.8479 136.749 0.404573
-36.3607 131.033 2.18067
-33.8804 137.384 3.34734
-38.1594 129.329 0.429125
-34.371 137.076 2.94932
-38.1713 129.106 0.662767
-34.6216 137.094 2.6048
-35.0721 138.06 1.33835
-35.4796 137.243 1.52452
-35.5932 136.239 2.13489
-38.6918 129.502 0.794647
-35.8643 136.683 1.54852
-38.3292 131.667 0.163252
-38.2913 131.261 0.61066
-38.6773 129.395 1.33606
-38.8121 130.026 0.598769
-36.6381 136.7 0.773804
-38.5741 130.875 1.0814
-38.7944 129.79 1.63034
-38.6735 131.159 1.05269
-38.0957 134.599 0.00694441
-39.1741 130.949 1.8372
-37.3573 133.829 3.75426
-37.3448 134.139 3.67342
-39.1322 131.251 1.96324
-39.0842 131.423 2.1411
-39.0412 132.33 2.15597
-38.6309 134.79 1.11817
-39.1799 134.159 0.813524
-38.6905 133.212 3.05471
-39.9286 132.156 1.31637
-40.2113 132.219 1.65779
-39.8881 133.54 1.47608
-40.5228 130.976 2.1808
-39.7981 133.208 3.35067
-40.3939 132.695 3.22149
-40.3226 134.158 2.97987
