ply
format ascii 1.0
comment Created by Open3D
element vertex 1932
property double x
property double y
property double z
end_header
-36.5573 136.385 4.08438
-42.2689 141.979 8.06108
1.21601 84.6883 -1.15376
-8.37479 105.836 -11.0755
-37.3204 137.613 4.05629
-25.5536 125.219 -2.80391
-16.3374 96.1219 19.1167
-31.5942 125.987 8.66464
-26.1153 110.993 18.5465
3.05671 76.73 6.59104
-27.9559 128.47 -2.07488
-34.1442 134.634 2.0577
0.850551 86.8211 -2.94722
-23.8873 107.076 19.7201
-35.2503 133.466 6.08529
-37.4519 138.392 3.75928
-34.9241 134.868 3.51083
3.27381 77.7787 4.99564
-36.4898 135.185 6.38191
-30.9888 130.154 2.21135
-31.219 124.376 10.8226
-29.0433 129.215 -0.450179
-8.36297 87.0371 16.2595
-0.864037 92.3594 -6.70275
-37.39 138.856 3.3576
-3.71484 82.0091 13.7766
-34.6331 134.661 3.59353
-41.203 142.985 5.45437
1.09568 86.6733 -2.69207
-2.72167 96.649 -8.83059
-32.6416 131.53 4.0724
-17.9267 100.484 17.405
-40.8907 140.924 7.9676
-19.2165 118.108 -4.68755
-30.2092 130.111 1.14764
-11.5791 110.566 -9.82855
-33.9297 132.684 5.23633
-33.3949 132.231 4.79169
-3.65967 98.8736 -9.66886
0.310078 88.936 -3.85428
-21.5586 120.988 -3.74515
-35.8468 136.796 3.53485
-30.4865 119.659 16.641
-33.0094 131.866 4.70297
-9.81714 89.2477 16.9035
-13.9568 113.446 -8.58947
-1.6866 94.9936 -7.90843
1.59468 77.0839 10.5288
-29.8512 118.602 17.1663
-9.1206 108.027 -10.7164
-33.2352 133.977 2.59595
-1.98452 95.8071 -8.18791
-23.7695 123.942 -2.75567
-9.28418 88.9294 16.6046
-32.6569 134.074 1.45361
-13.0462 92.983 18.7987
-20.835 105.024 17.9923
-29.729 130.655 0.306282
-30.1603 130.955 0.836551
3.29673 78.2736 5.86485
-32.4453 131.999 4.1913
-13.1352 112.786 -8.62581
0.252588 78.7794 11.6496
-28.8487 130.385 -0.841303
-37.48 137.541 6.95132
-34.1232 135.632 2.72203
-34.36 135.947 2.79701
2.64159 78.3011 7.57085
-1.93532 96.2277 -8.18736
1.84203 85.063 -0.259444
-12.368 92.4608 18.7029
-23.3521 108.124 19.4154
-32.4634 134.615 0.976458
-17.2927 100.969 17.0476
2.08596 83.5354 1.56033
-26.2478 128.193 -2.72501
-31.2346 131.02 3.7136
-30.9841 124.635 12.1818
-33.8046 135.672 2.50506
-31.589 131.82 3.3937
-2.75331 82.3105 13.4903
-31.5152 131.797 3.31934
-33.2546 133.08 5.18924
-19.098 103.596 17.4466
-35.7607 135.946 6.37054
-32.2664 134.537 1.15399
1.90594 78.3162 9.68787
-32.0889 134.064 1.47976
-16.1676 115.967 -5.94706
-5.55599 103.972 -10.9751
-4.83826 102.804 -10.7213
-26.6275 128.89 -2.39686
-24.7132 126.278 -2.61831
-12.0816 92.6221 18.6504
-22.4207 107.567 19.1783
-41.2475 143.93 6.93316
-28.8571 118.335 17.3654
1.92715 86.1162 -0.852341
-32.0941 133.831 2.30001
3.48112 79.6973 4.99403
-8.87017 89.6042 16.5855
-31.5272 132.945 2.40866
-30.3712 125.826 10.0576
-19.3259 119.838 -4.30025
-8.40226 108.255 -10.5602
2.10841 85.2506 0.0974649
-35.026 138.528 1.88583
-37.4327 138.119 7.43964
-32.6868 132.901 5.0179
-13.2251 113.848 -8.31038
-31.6509 133.349 2.32212
3.28378 79.6102 5.7665
-40.2421 143.895 5.24064
-18.7158 119.069 -4.29255
-4.52792 102.704 -10.5752
-8.41958 89.1911 16.4888
-20.5255 121.267 -3.63725
3.28657 79.6574 5.7336
-33.6379 136.366 2.23324
-39.5263 140.717 8.28643
0.903819 79.3945 11.0904
-7.70289 107.416 -10.5389
-13.4526 94.9198 18.9656
0.625944 79.8413 11.1308
-30.848 124.944 12.7637
-28.01 130.204 -0.482026
-30.3323 131.904 1.98965
-13.8312 95.6695 18.9288
1.22739 88.8817 -2.56401
-25.9439 128.795 -2.53666
-10.3985 91.4703 17.9079
-21.1307 106.853 18.4927
-24.8607 113.055 17.5448
-2.41553 82.9585 13.5401
-29.9002 131.537 2.03083
-30.8077 125.098 12.968
-32.343 132.451 5.80269
-12.8786 113.867 -8.23213
-34.5023 139.154 0.896138
-19.472 120.676 -4.06434
-28.1575 118.068 17.5608
-25.1663 113.825 17.4188
-25.0435 127.636 -2.254
-18.6191 119.591 -4.12032
-16.775 102.1 16.7023
-30.498 126.545 10.692
-24.2966 112.574 17.5488
0.99886 90.3967 -3.50075
-30.1467 122.264 16.1446
-6.72673 88.0336 16.0513
-36.7741 138.076 7.717
-38.1979 143.065 3.65603
-34.5583 135.784 6.41829
-31.1849 132.497 4.09568
-16.4439 101.979 16.6403
-23.4999 126.066 -2.60319
-3.08529 101.298 -9.894
-20.3671 122.01 -3.31606
-36.7683 138.205 7.82337
-22.7232 109.983 18.5544
-35.9058 137.269 7.41572
-24.9572 114.18 17.3221
-40.4373 144.483 6.69616
-11.8894 113.384 -8.48464
1.14425 90.7566 -3.53336
-14.4866 99.3264 16.8626
-31.9411 135.62 1.86604
-32.5672 132.932 6.9697
2.15881 87.8129 -1.28048
-23.9569 126.959 -2.38039
-28.0339 118.948 17.3232
-18.6299 105.362 17.1133
2.70842 84.1491 2.89973
-22.6091 110.574 18.2006
-31.7649 131.688 7.44181
0.37128 94.3534 -6.36838
-17.1786 103.779 16.733
-8.42568 90.948 16.7649
-28.5564 131.591 1.18266
1.97099 88.855 -1.53695
-31.8063 133.169 5.90158
0.680977 93.787 -5.78201
-31.6229 133.16 5.55885
-29.9537 133.577 1.54844
-28.7297 131.965 1.29886
2.5094 80.3664 9.41787
-13.6685 98.7956 16.9189
-0.366874 96.4016 -7.18027
-28.1204 119.984 17.0294
2.5547 81.311 8.07807
0.564841 94.2778 -6.05562
-32.5214 133.523 7.08847
-38.9507 144.547 4.88544
-29.5764 132.541 2.41539
-12.5598 96.5552 17.8996
-12.2776 95.658 18.5842
-37.194 143.153 3.26257
-29.0313 132.345 1.63884
-3.22333 102.71 -9.96081
-5.42479 87.7269 15.7062
-18.3808 105.845 17.0255
-16.9896 119.06 -4.37037
-9.19089 92.0896 17.4752
-30.1846 133.173 3.05527
-10.7221 113.127 -8.92704
-29.5905 133.253 1.74894
-4.40213 104.706 -10.0512
-0.46545 96.9439 -7.23628
-32.5994 133.75 7.37295
-31.4958 131.424 8.42718
-35.3576 137.514 7.88201
-26.445 130.868 -1.13127
-13.7214 99.6531 16.548
-31.525 132.236 7.51688
-12.329 114.985 -7.85885
-16.4677 118.767 -4.61674
-5.71497 107.223 -10.5735
-19.1447 107.218 17.2025
-30.8639 132.764 5.46779
-23.0419 126.842 -2.34193
-31.7515 133.761 5.95938
-4.54923 105.258 -10.1205
-31.8963 133.479 6.68887
-31.9445 134.064 6.04779
-7.56704 90.9315 16.4344
-12.2753 97.1738 17.4638
-33.6727 140.289 1.01853
-32.1078 133.748 7.20381
-7.96015 110.313 -9.70097
3.08185 84.57 3.72214
-21.718 110.948 17.9128
-13.5709 100.155 16.2781
3.09747 86.0435 1.81007
-7.43297 109.643 -9.63078
-25.8431 117.407 17.5282
-32.5759 134.671 7.17314
-8.34767 92.1143 17.0555
-24.8311 116.209 17.3392
-28.4564 132.987 1.21939
1.50539 92.2857 -3.33854
-1.81974 85.0355 13.7548
-39.1472 144.785 6.8056
-14.899 102.728 16.0226
-29.6627 124.648 15.6956
-2.03664 85.3334 13.9717
1.11971 82.2235 11.841
-32.4809 135.151 6.79772
-28.2784 122.438 16.0568
-35.5762 142.914 2.39192
-31.1066 131.239 9.60158
-4.45265 106.012 -9.94483
-25.1311 116.951 17.4257
-31.4549 134.144 6.45896
-22.3282 113.019 17.3699
-16.3835 119.609 -4.07914
-38.8391 144.793 6.87888
-6.09834 90.2931 15.9545
-32.4795 140.239 0.226289
-32.2941 135.337 6.80109
0.921696 82.8096 12.1303
-30.0647 127.46 13.3204
-28.5502 133.407 1.89203
-35.8208 139.413 8.46577
-21.7448 126.182 -1.93048
-31.0816 132.761 8.12441
-25.082 131.058 -1.85292
1.45045 82.4938 11.8161
-27.6793 132.913 1.17339
-32.3199 135.39 7.36194
-37.8853 145.474 4.67141
-27.9103 133.374 1.09525
-27.4662 121.86 16.3994
-33.3707 136.73 7.69691
-29.8522 126.829 14.3648
-6.47011 91.2139 16.1835
-1.16083 85.3461 13.4742
-21.3854 125.88 -1.77186
-37.8885 143.341 7.89412
-2.59238 103.773 -9.34903
-31.9748 140.267 0.0208776
-10.0417 94.9843 18.4367
-3.73204 105.483 -9.35189
-31.829 134.74 7.53228
-12.4914 100.413 15.9096
-10.4357 95.6472 18.4282
-2.34163 103.515 -9.34159
-5.51597 108.659 -9.99572
-2.75456 87.0764 14.6804
-0.999547 100.715 -7.99454
-13.2079 118.195 -7.2128
-1.5682 86.1532 13.9588
-33.673 137.576 7.96257
-25.6936 131.679 -0.0372122
2.49993 91.111 -1.05087
-9.56936 114.26 -8.6441
-34.9769 143.658 2.58004
-16.117 106.469 15.9722
-7.47001 93.0422 17.0242
-1.09111 101.83 -8.44602
-35.0019 143.802 2.65018
-35.1373 139.81 8.59065
-29.7899 128.849 13.1265
-19.4819 110.398 17.9047
1.92604 83.5869 11.455
-23.7938 117.278 17.242
-25.5041 120.42 16.3771
-24.6721 119.208 16.3976
-25.0106 132.172 -1.01546
-7.03064 93.0638 16.8773
3.20273 90.103 -0.0874461
-24.7881 131.933 -1.07797
-17.8107 109.091 16.7002
0.274615 99.217 -6.76852
3.74294 86.6466 3.75985
2.13096 93.6248 -2.68562
-13.2961 103.479 15.343
-9.10624 114.115 -8.25777
-27.382 134.692 0.619558
-15.7855 107.064 15.6027
2.34899 83.7218 11.0623
-14.0646 104.617 15.5848
-29.4305 139.313 -1.45557
-37.075 145.817 5.22629
-23.8937 118.426 16.6733
-21.0548 127.159 -1.45165
1.00135 84.7606 12.661
4.27375 84.1463 6.77135
1.89037 84.2199 11.6036
-12.7209 118.933 -7.02653
-12.422 102.708 15.1945
-25.1033 132.305 -0.253669
0.891589 84.9354 12.7245
3.14551 90.8636 -0.218933
-1.23648 87.1617 14.0723
-2.90021 88.9264 15.0329
-24.9045 132.409 -0.676987
-32.4394 137.342 7.95419
-12.6022 103.097 15.1725
-5.5548 92.1493 16.0981
0.508589 99.4998 -6.7549
-30.4396 134.927 7.33658
1.03033 84.9296 12.6908
-33.5168 143.396 1.88801
-4.15588 108.469 -9.6045
-14.3493 119.813 -4.4653
-16.7346 108.743 16.0613
-24.9239 120.717 16.1551
-37.0013 145.673 6.06098
-27.0952 135.171 0.432037
2.26692 94.6821 -3.24506
4.2327 85.3237 5.94319
-11.5929 101.997 15.1887
-29.1339 128.22 14.6443
-25.9834 122.417 16.3176
-13.3356 104.659 15.2388
-10.9452 117.433 -7.67495
-26.3546 134.717 -0.141023
-30.0923 140.578 -0.646608
-7.25537 112.374 -8.01463
-19.3951 112.379 17.1214
-27.9767 136.613 0.754858
-30.6696 135.571 7.79311
-21.128 128.049 -1.30305
-26.7157 135.124 0.293351
-11.0098 117.676 -7.60116
-13.3882 119.863 -5.73693
-34.3463 140.438 8.65626
-30.2842 135.035 7.90386
-24.378 132.503 -0.556562
-8.58948 114.402 -7.63774
1.42002 85.4231 12.4985
-26.0864 123.357 15.9785
-18.4377 111.187 17.3167
-19.0911 112.354 17.0418
-23.2293 131.663 -1.51889
-13.5776 105.572 15.2846
0.193392 101.769 -7.7712
-32.4571 143.219 1.39811
-19.0937 112.555 16.9755
-14.5704 120.803 -3.91062
0.589682 100.967 -7.31366
-36.3849 145.86 5.96667
-19.0099 125.536 -1.29254
-26.8079 135.384 0.964604
0.148227 86.9667 13.4275
1.27902 85.8238 12.7554
-36.175 144.926 7.00019
-12.781 120.057 -6.33143
-19.3646 113.292 16.8082
-17.905 124.45 -1.81395
-3.35193 108.043 -8.78407
1.38965 99.2811 -6.2433
-10.5806 101.596 15.3225
-6.01263 111.859 -8.54071
-14.3685 120.877 -3.93257
-2.69714 90.2299 15.1644
-4.04395 109.637 -9.34383
-10.0216 100.56 15.8237
-28.5987 128.54 14.8484
1.16096 100.292 -6.8052
-22.9434 119.304 16.2712
-10.4788 101.763 15.2413
-12.0675 104.516 14.6624
-7.92633 114.128 -7.28168
-14.7715 108.357 15.0184
2.10606 98.4137 -5.85834
-27.4713 137.118 0.847401
3.06951 85.6453 10.2107
-11.8689 119.698 -6.80831
-14.5257 108.222 14.848
-30.758 136.878 8.09416
-34.8162 143.219 7.57382
-26.8746 125.993 15.4543
-1.07804 88.9876 14.266
-31.3498 137.844 8.16118
-30.2851 136.331 8.11396
-26.4679 136.019 0.70394
-35.9107 146.234 5.88746
2.90708 95.4645 -2.87174
-11.2664 103.969 14.461
-9.83177 117.229 -7.05231
-23.1731 132.554 -1.02516
-35.1224 144.683 6.66229
-29.0577 134.841 7.98766
-2.68913 90.97 15.2496
-19.8087 127.447 -0.71059
-28.5618 130.01 13.8179
-7.63822 96.558 17.6877
-15.1308 122.411 -3.12285
-5.60172 112.404 -8.66936
-18.2566 113.082 16.5987
3.62836 92.7309 0.0380669
-31.188 138.06 8.23013
-33.6968 141.616 8.47316
-7.04441 96.1535 17.5623
-3.40752 92.3424 15.4375
-22.6156 120.244 15.9006
-10.2612 103.047 14.6598
-28.3686 130.471 13.4841
-9.12936 116.701 -6.86821
-29.4699 136.291 7.66852
-5.24015 94.5628 16.358
-25.8386 136.497 -0.0714312
-22.2411 132.144 -1.29805
-30.3121 142.707 0.513384
-4.82588 112.291 -9.29453
-18.2502 113.66 16.537
-16.7188 124.557 -1.8954
-11.0945 119.909 -6.90982
-30.0681 137.047 8.1812
-35.3698 146.845 5.35546
0.883026 88.0346 13.2232
-28.5742 134.813 8.26191
-33.2479 145.895 2.43794
-16.6497 124.614 -1.90874
-26.6602 127.366 14.9052
-7.02319 96.7071 17.5395
3.82227 86.9299 8.97161
-22.65 121.087 15.6406
-33.6638 142.786 7.91499
-9.93164 103.28 14.5447
-24.1222 123.569 15.4158
-33.5096 146.406 2.6896
-7.10833 114.613 -7.05775
-20.0164 116.64 16.7688
1.82493 87.5981 12.5444
-28.9174 134.193 10.4968
4.89172 87.189 6.83252
-17.2251 125.582 -1.47217
-29.2066 142.337 -0.274079
-3.555 93.4817 15.6219
-22.1942 120.866 15.6302
-33.1816 142.213 8.34953
-30.7715 138.671 8.42265
2.96958 98.3811 -4.36542
-27.6911 130.371 14.0409
-26.8372 139.863 -1.07889
-8.0162 116.144 -6.5011
-17.1246 113.233 16.507
-34.1562 146 5.60583
1.12092 88.7647 13.323
-25.6246 137.708 -0.247139
-17.0945 125.984 -1.32609
-26.6842 139.86 -1.03751
-10.5568 120.38 -6.91028
-27.855 131.615 13.0536
-34.7062 147.313 5.15145
-16.8863 125.83 -1.38937
3.11278 98.3635 -4.04513
1.79609 88.3572 12.7608
2.15149 88.2151 12.2647
-26.1609 137.732 1.09477
-10.1629 119.981 -6.96308
-8.11978 100.535 16.2104
-26.9326 140.333 -0.918506
-6.89656 115.13 -6.81819
2.87149 99.3578 -4.78577
-9.32073 118.674 -6.65854
-27.3135 129.78 14.9191
-27.7682 134.641 9.03766
-14.0618 110.402 14.8776
-25.1101 137.527 -0.432387
-30.4429 138.991 8.52978
-16.4914 125.669 -1.53333
-2.0323 109.186 -8.20491
-34.3967 147.254 5.09971
3.23511 98.3079 -3.74956
-26.2829 139.914 -1.2515
-33.3474 145.407 5.72931
-14.34 123.765 -3.08034
-26.2886 140.085 -1.34242
-27.3269 130.486 14.3417
-33.9636 146.677 5.27628
-32.0431 146.034 2.25247
-33.8225 147.762 3.51103
-22.0096 133.559 -0.877336
-34.3385 147.617 4.81789
-27.3589 135.313 7.71806
4.95047 91.4301 2.71836
1.36713 104.236 -7.85183
0.792685 105.322 -8.15129
-12.7322 122.426 -4.26731
-9.45848 104.689 14.0034
-7.11719 98.9217 17.344
-21.1968 132.293 -0.476283
1.49945 89.2942 13.1671
3.96408 95.8491 -1.07601
-22.0433 133.962 -0.924739
-30.6519 139.911 8.49026
-6.60536 98.4221 17.2841
-28.0942 143.115 -1.18966
-7.59835 100.712 16.1557
-25.0577 138.485 -0.905612
-27.2256 135.672 7.53408
-1.51768 92.6137 15.0576
-1.56874 109.213 -8.17329
-29.9575 139.193 8.32418
-9.72083 120.056 -6.55347
-14.9422 111.912 15.7073
-27.2067 142.073 -1.36671
-28.4024 143.6 -1.0306
-7.62764 101.206 15.7454
-25.2704 139.8 -1.84056
-10.482 107.341 13.3485
2.05295 103.645 -7.34644
-23.0666 124.909 14.7129
-5.21081 97.2728 16.7578
-7.73394 117.195 -5.99578
5.0225 91.0805 4.41335
-26.1311 129.6 14.5974
-30.3081 145.095 1.49338
-14.3388 111.978 15.2073
-17.5869 115.922 16.4489
-4.15497 96.3845 16.28
-18.6447 117.728 16.2695
-8.50907 118.8 -5.99383
-20.5624 133.636 -1.95651
4.37455 95.7173 -0.0767165
-31.8792 143.999 6.8999
-8.29589 104.229 14.1433
-7.13888 101.602 15.6615
-26.611 142.911 -2.20031
3.5607 99.3376 -3.16374
-16.087 114.398 16.2755
-12.7493 111.306 13.7515
-25.1514 139.402 -0.109543
-8.44549 104.945 13.8878
-4.48594 97.4168 16.3162
-13.3574 124.325 -3.1625
2.36821 90.0169 12.6494
-11.915 110.62 13.2408
-26.463 136.058 7.53483
3.31379 89.7797 11.152
-14.1336 112.627 15.067
-9.27303 106.841 13.1961
-29.221 140.269 7.53971
-4.94509 98.299 16.4519
-19.8058 131.778 0.197894
-6.27333 116.594 -6.38213
-2.47928 95.5193 15.4585
-18.5766 118.879 15.869
2.92735 102.094 -4.88247
-26.902 133.346 12.7733
1.74197 105.858 -7.63441
-22.8756 137.772 -1.58485
-10.8985 122.967 -5.48412
2.34198 104.828 -7.3103
-8.14949 119.073 -5.64664
-9.01645 107.069 13.1226
-25.9226 135.788 7.8134
-19.4996 132.274 -0.496874
2.86137 103.618 -6.32792
-30.3481 141.989 8.31722
-19.1508 131.213 0.364947
-25.7415 134.657 9.14059
-30.6928 142.668 8.09961
3.71665 99.7101 -2.5392
5.56467 92.0854 4.4907
-24.3441 140.57 -1.90018
4.95199 90.67 7.82165
-24.1325 140.307 -1.76451
-26.4282 133.158 13.1132
-10.7079 123.361 -5.46092
-12.5894 112.539 13.6626
-30.7298 143.762 7.2141
4.92395 96.006 0.776299
-26.3382 133.185 13.0657
-21.645 125.317 14.4759
4.38409 98.2874 -1.24737
4.92687 96.1503 0.674589
-13.4067 113.285 14.4704
-24.3219 139.421 0.283029
-32.7593 148.985 4.27476
-26.1932 132.379 14.0876
-8.19825 106.567 13.3105
-31.4371 146.113 5.70026
-11.2181 123.868 -4.70349
-22.9697 138.793 -1.35055
5.4345 93.9635 3.05551
-25.8477 143.271 -1.69096
-12.5796 112.921 13.672
-1.79258 96.1453 15.0205
-1.9135 113.529 -9.13447
-6.26257 102.747 15.1828
-31.1578 147.888 3.11106
-24.1127 140.975 -1.6868
-19.0144 121.533 15.1832
1.27342 107.92 -7.54793
-31.0757 145.965 5.97457
3.95172 99.9462 -1.63581
-0.0306529 110.481 -8.21887
-25.4208 143.091 -1.55435
-6.92932 118.769 -5.50133
-2.4948 97.4283 15.3813
-9.40586 122.736 -5.83882
-28.6664 146.607 0.384318
-6.97507 105.398 13.6149
4.93472 97.5725 0.0241412
-3.68121 115.903 -7.96948
5.1775 96.8148 0.6675
-20.6769 135.853 -0.825787
-19.8823 135.502 -1.92218
5.48871 95.1167 2.53385
-3.28864 98.519 15.9735
-18.1408 131.475 0.309708
-25.8076 137.6 7.55828
3.04911 92.3739 11.5992
-12.4191 113.717 13.5808
-10.7559 124.413 -4.89154
1.05322 108.819 -7.3411
-18.4454 133.876 -2.2609
1.98841 92.7846 13.455
-25.3716 134.545 11.3019
-4.629 100.256 16.7001
-15.4424 116.709 15.9126
-23.0697 140.051 -1.09781
-14.6368 127.707 -1.14883
3.51923 103.833 -5.0066
-25.5922 133.237 13.7837
5.26184 97.0429 0.968987
-13.0307 114.496 14.2171
-21.0668 137.351 -1.2838
-17.2716 119.729 15.7205
-1.94668 97.5894 15.2357
-5.26764 118.183 -6.7878
-25.5835 133.541 13.6608
-9.66296 123.744 -5.41978
-14.6679 116.18 15.6177
3.5289 103.632 -4.21193
-20.7109 125.976 14.4922
-15.2577 117.102 15.7948
-25.2744 133.748 13.218
-11.4521 125.628 -3.91119
5.59359 96.5866 1.78981
-24.9705 136.883 8.37253
-29.7558 145.412 6.2767
-16.9872 120.012 15.6727
4.68341 99.2282 0.204961
-23.7961 131.442 13.759
-24.8698 133.058 13.8599
1.75649 108.977 -7.18097
-23.2451 141.39 -1.02794
-13.0953 115.554 14.3655
-16.7761 131.108 0.192823
-30.5114 148.889 3.62877
-20.8166 137.997 -1.07001
-6.58908 120.114 -5.26064
-4.90914 118.636 -6.64218
-1.96711 115.758 -8.56326
-5.97248 119.71 -5.84708
-15.119 129.31 -0.33995
-22.8377 141.219 -1.1459
0.747764 111.85 -8.50936
-5.86505 119.715 -5.89442
-15.6126 118.627 15.7785
-16.4501 119.9 15.7382
-24.8656 137.54 8.36612
-7.12615 120.887 -4.80168
3.53367 106.575 -6.67949
2.90879 93.627 12.8608
-26.8765 146.537 0.0120429
-5.11338 119.118 -6.2801
-19.5825 137.211 -1.83774
-13.0427 116.076 14.3996
-29.5376 146.167 6.20415
-24.7727 134.198 13.2409
-7.92784 122.785 -5.39885
6.10733 95.8593 3.49461
3.88215 93.5641 11.4047
3.92444 105.347 -5.23106
-5.28823 105.457 13.6507
-15.2589 118.729 15.6187
-17.3072 133.585 -0.92655
5.85607 93.9403 7.04329
-9.16494 124.617 -5.05077
-29.5272 146.573 6.16066
4.07896 102.418 -1.05705
-27.2883 142.429 7.47815
-6.57268 120.647 -4.5899
-23.0394 142.622 -1.45115
3.92138 106.05 -5.62533
-6.43593 108.321 12.6017
-10.1258 114.114 12.1291
6.1631 95.2929 4.9959
-29.3924 146.692 6.13886
5.98213 94.6418 6.30893
-15.6395 119.812 15.686
3.9477 103.6 -1.96547
4.33821 102.211 -0.695955
-8.92467 112.835 11.7588
-10.9627 126.852 -3.62242
-6.44586 120.879 -4.50198
6.21372 95.5353 5.01355
-3.20354 118.353 -7.5852
-23.7512 136.234 9.71758
1.14114 112.777 -8.67835
-4.79901 105.893 13.441
6.06093 95.0234 6.36157
-25.8312 146.501 -0.14086
-5.52025 120.364 -5.31066
-4.16499 119.207 -6.43531
-6.40722 121.187 -4.55912
-19.9662 128.121 13.8049
-16.1142 121.438 15.3022
-9.0752 125.196 -4.52635
-11.8624 127.673 -2.17888
-10.0472 114.933 12.0357
5.30575 94.3122 9.48653
-23.8992 144.909 -1.35772
1.93875 111.854 -8.21854
2.97896 95.2813 12.9891
-16.1418 121.748 15.2741
-21.0509 130.559 13.0975
6.22262 97.5945 3.26637
-13.0067 128.87 -0.995172
0.921445 113.792 -8.36605
-24.3094 139.162 8.0862
-3.44297 103.417 15.3777
-21.0073 141.699 -2.06693
-1.45887 100.588 15.4478
-21.5741 142.833 -2.37379
5.06856 101.813 0.364668
-11.5643 117.126 13.2317
-29.0459 150.293 2.81067
6.43779 97.49 3.89115
5.10839 95.3453 9.74068
2.57717 96.4692 13.4228
5.19676 95.3406 9.608
-16.2082 134.365 -1.08187
-16.3248 123.207 14.8913
-16.9896 124.431 14.563
-20.6515 130.876 13.0814
0.692545 98.4072 14.7025
-11.8973 117.664 13.6351
6.35251 96.34 5.9575
-16.8336 124.27 14.566
-11.2644 117.246 12.951
-10.1596 127.305 -3.44826
4.94555 102.637 0.0925233
6.22442 95.8996 6.93526
-27.1906 148.853 1.47825
-0.074738 115.273 -7.20903
-20.8284 142.627 -2.80805
-1.18147 117.076 -7.41498
4.82746 95.8204 10.1682
-22.8519 135.299 11.8902
-20.7021 142.746 -2.95631
6.44265 97.2737 4.95906
-5.34995 109.56 12.1059
-15.6582 133.215 0.117295
4.45299 107.452 -5.13983
4.63078 95.9671 10.6749
-16.0468 135.847 -2.7089
-20.2514 130.796 13.1291
3.22522 96.5387 12.8415
-23.076 136.655 10.8076
-28.0582 150.216 2.07633
-1.66169 101.997 15.4805
5.65218 101.271 1.45088
-12.9683 119.426 14.3935
-5.59276 110.438 11.8796
4.8522 103.629 -0.0932616
-15.4553 133.312 0.122508
2.60128 112.463 -7.83595
-18.2024 127.872 13.5055
-5.0247 109.709 12.0409
-23.0157 137.375 10.2967
-5.63652 122.153 -4.06575
-10.4851 117.75 12.2494
-4.13529 120.679 -4.98238
-26.764 149.307 1.49478
-14.5364 132.201 0.312238
-20.386 131.786 13.2389
3.40354 111.66 -7.5536
4.39711 109.442 -6.47815
-22.841 138.897 8.3654
4.50109 107.91 -4.28434
-25.2512 148.418 0.247634
-3.47122 107.688 12.5769
3.05944 98.0603 12.6632
6.5838 98.8679 4.33283
0.993204 99.8029 14.578
2.58458 98.3818 13.3259
-15.7606 137.266 -3.47515
-28.6756 149.552 5.96894
6.55088 98.1349 5.76675
-2.40779 104.856 14.8941
1.74889 99.1816 14.3183
5.06921 104.415 0.155143
-15.5645 137.246 -3.35734
-4.13859 121.149 -4.25952
2.41387 98.8062 13.6822
-21.3822 144.383 -1.24248
-22.3477 139.273 8.05461
-5.29828 111.834 11.4551
-2.37406 105.385 14.4977
-22.1722 138.225 9.19539
-10.6457 129.463 -2.24892
6.19576 98.042 7.26059
-15.3581 124.39 14.7201
6.58562 98.4442 5.89415
-23.6109 141.648 7.48776
-23.5347 147.315 -0.626761
-25.2797 149.337 0.364444
0.783168 115.835 -6.28346
-20.0353 143.614 -2.2731
5.82761 97.3523 9.41707
-14.5731 133.967 0.113285
5.70813 97.4177 9.67841
-20.5023 143.933 -1.5534
-17.1052 140.252 -3.38972
-5.38961 123.374 -3.73863
-14.4399 123.629 14.6127
-22.5259 140.798 7.17332
3.48323 98.8751 12.4859
-11.7434 120.492 13.6152
-21.9445 138.499 9.45282
-2.90561 108.536 12.3111
-16.6456 139.958 -3.45763
-22.8792 141.712 6.97158
-13.0306 132.115 0.229321
-26.6343 147.273 7.0106
6.13279 98.8814 7.45689
-3.64778 110.206 11.8249
-18.2053 142.195 -3.09321
-16.2121 127.482 13.4974
6.69643 100.614 4.06557
6.43581 99.3294 6.48345
-0.117447 102.926 14.9785
-14.3063 134.743 -0.376703
4.13535 98.8705 12.0368
3.07504 114.354 -7.55586
2.63187 115.073 -7.49441
-16.7386 140.595 -3.36733
-21.504 138.894 9.11624
6.65113 100.096 5.55116
-24.578 144.331 7.87587
-3.25972 121.474 -3.94652
-15.7998 127.581 13.4442
5.86561 98.6548 9.48132
4.62796 98.9035 11.7088
-20.6071 136.866 10.4327
-2.01148 120.849 -5.41089
-6.08717 125.568 -3.60274
-23.6595 148.998 -0.239116
5.32145 106.095 0.483219
-4.40086 123.274 -3.58635
2.29672 116.907 -8.43113
-10.4876 120.943 12.5651
4.99012 110.117 -4.17908
-1.23863 106.337 14.021
-5.19184 114.645 10.6075
-27.1302 151.312 4.33615
4.00818 99.8488 12.4258
-14.8023 138.951 -3.71874
-4.90883 114.178 10.7406
-17.5492 143.088 -3.8092
-5.50043 115.425 10.3764
-14.0066 137.192 -2.62065
-20.7117 138.484 9.62361
-20.8146 140.717 6.71669
-2.82886 110.808 11.6469
6.51368 103.526 2.66125
-11.6049 132.227 -0.182096
-16.3265 129.536 13.3965
-5.20422 125.093 -3.2576
-22.621 148.9 -0.585612
5.56356 106.29 1.18201
-17.9215 132.093 13.4482
-14.3161 139.097 -3.75106
-3.90312 113.428 10.8921
4.94359 99.8344 11.7807
-10.2516 131.456 -1.30168
2.9879 116.039 -6.90938
-19.5405 136.587 10.7919
-17.211 143.634 -3.91199
1.71016 117.996 -6.90305
0.609847 104.004 15.0775
-17.6038 132.092 13.2978
6.93412 103.092 3.41197
-19.6013 137.286 10.1302
-11.3138 122.981 13.1611
-13.5564 137.641 -2.81113
6.48814 101.108 7.19227
-18.4213 145.606 -3.72332
-24.7106 151.458 1.18786
5.10075 112.922 -6.17214
-17.4611 132.337 13.203
-3.729 113.946 10.7364
-10.8236 122.852 12.8907
3.6131 116.314 -7.71391
5.83503 106.229 1.89373
-9.43413 121.739 11.6533
6.13044 100.027 10.0579
-1.43565 109.212 12.7696
-15.4106 141.2 -3.37034
-24.4215 151.439 0.899542
6.98691 102.8 4.48207
0.506878 104.763 15.1447
-26.016 150.004 6.36371
-14.6654 128.522 13.1712
-26.2785 150.819 5.8116
-17.7709 133.058 13.2694
-6.09359 127.614 -3.15267
-23.506 151.017 0.114949
-4.25523 115.519 10.2979
-0.90605 108.508 13.2641
-17.3779 132.859 13.113
-21.2271 148.551 -0.794091
3.58779 101.964 13.5222
-19.0376 146.196 -1.88884
-13.3558 126.818 13.68
-6.60102 119.594 9.98479
-13.0661 126.419 13.821
-7.51915 129.675 -2.19578
-9.88432 123.04 12.0377
-10.5931 123.628 12.6844
-19.2506 146.444 -1.53633
-5.97835 118.838 9.91531
-18.2731 135.204 12.3908
6.72861 101.3 8.50577
-24.9507 152.148 2.40585
6.73932 101.406 8.38853
-18.2617 146.392 -3.24266
-22.5536 145.038 7.53299
-14.8522 141.497 -3.39648
-24.5564 148.118 7.41203
-17.5634 133.869 13.056
-22.7709 150.882 -0.12471
-17.2437 145.287 -3.6573
-24.9244 148.937 7.07676
3.6733 115.662 -5.18356
4.06355 116.121 -6.60579
3.58682 116.23 -5.76589
-1.08648 110.319 12.3696
-1.51977 122.452 -3.77887
-19.1374 141.243 6.2959
6.26066 107.488 1.32499
7.02574 102.791 6.45241
1.94717 120.18 -7.43767
-13.9661 128.967 13.1468
6.33008 108.063 0.67495
-0.346837 121.819 -4.88763
-25.5244 151.818 4.95886
2.3631 104.13 14.5069
-17.2906 134.159 12.866
-0.489112 122.058 -4.60046
5.54501 102.13 11.0011
0.735858 122.407 -7.28034
7.19971 104.326 4.84917
4.87949 102.402 12.419
-3.24641 116.067 10.0724
7.204 103.102 6.73839
6.54353 108.13 1.05535
-2.09452 114.079 10.5767
-2.65485 124.53 -2.97084
-20.1419 143.639 6.30269
-17.0641 146.238 -3.51406
-20.267 149.101 -0.913355
-1.4824 113.097 10.9446
5.1639 114.394 -4.60222
-15.1276 132.174 12.3824
5.19674 102.584 12.0467
0.495801 121.975 -5.51577
-23.4011 152.342 1.14151
-13.5859 141.316 -3.59824
-15.2993 144.24 -4.05349
-18.4076 138.269 10.7875
-10.954 134.762 0.429775
-18.5648 142 5.99221
3.16212 120.472 -8.59552
-9.2545 133.311 -0.980259
6.85254 110.271 -1.80029
-18.3383 141.8 5.8885
7.04572 102.481 8.78875
6.70905 102.582 9.35107
-19.2146 143.483 5.37526
1.92195 105.686 14.9075
-3.88338 126.67 -2.57057
-19.079 142.815 6.11152
-4.28226 127.302 -2.53786
-23.5389 148.595 7.30932
-20.369 145.008 5.88941
6.43232 111.959 -2.75236
-12.1599 127.874 13.3154
3.61764 118.002 -5.38595
-8.89237 124.706 11.0542
-8.72343 133.305 -1.3025
7.26432 103.022 8.45401
1.40884 107.438 14.3548
-5.46504 129.287 -2.16613
-15.7988 134.086 12.4561
-11.3974 137.353 -1.20247
-1.28013 114.115 10.6194
-17.6654 140.541 7.32243
-5.09597 120.696 9.36951
-22.281 152.301 0.399945
5.95218 103.839 10.3465
-8.10303 124.345 10.53
4.34266 116.259 -3.71176
-18.4613 148 -1.24532
-11.2656 137.353 -1.12051
-20.9462 151.191 -0.592104
4.40992 104.393 12.8804
4.00119 104.746 13.2304
7.14051 106.862 3.80027
-17.7074 147.868 -2.46429
-0.812835 124.258 -4.05833
4.06064 115.297 -1.50432
-14.903 133.473 12.1068
-6.58011 122.989 9.68077
7.21142 110.83 -1.6813
7.19755 109.792 -0.184056
-5.53632 121.706 9.39923
-21.5336 151.984 -0.116361
-10.7772 127.359 12.3521
7.13606 103.654 8.77137
-12.4619 141.351 -3.74348
-2.34055 125.699 -2.61394
-15.6576 134.885 11.9924
-7.82143 124.538 10.3632
2.59117 122.126 -7.65951
-6.28513 130.918 -1.66436
-14.6921 144.964 -3.97761
-15.621 146.314 -3.92055
7.73644 104.502 6.67004
-9.4491 126.309 11.515
-4.84843 129.21 -2.04311
-12.0996 141.118 -3.77165
-12.7636 142.053 -3.6825
2.68032 122.283 -7.67989
-10.1109 127.248 11.8509
-1.20425 115.37 10.2739
4.4026 115.625 -1.40713
-18.9432 145.594 4.85788
0.23407 112.354 12.0109
-17.6148 143.125 5.6864
5.14681 114.16 -0.573318
1.66586 108.856 14.3759
-21.8866 152.972 0.962661
-15.6936 136.885 10.8262
7.89336 104.488 7.74631
6.67814 105.136 9.50014
7.70596 105.604 6.73535
-12.9333 131.98 12.2653
-16.9992 142.036 6.52465
-13.3072 132.839 11.8989
-9.67218 127.811 11.4801
6.99425 105.056 9.07378
-13.1004 132.578 11.9989
-17.2205 143.457 5.21207
5.61923 105.389 11.6486
1.38124 109.959 13.9798
-14.9529 135.933 11.1863
-10.8319 129.174 12.1841
7.7344 108.337 3.22507
-2.06753 118.376 9.35204
-5.78468 123.953 9.27216
-23.0393 151.824 5.7325
-14.0196 145.518 -3.94974
-16.2777 141.422 6.53119
-7.14058 133.625 -1.35167
0.474572 125.771 -5.93389
-21.3287 153.136 0.648216
-9.92082 128.637 11.559
-19.6802 151.706 -0.643104
-2.6407 119.896 8.98161
-22.7817 153.23 3.69095
7.73257 107.982 4.42833
-3.72552 129.239 -1.78877
-16.5611 142.346 6.35908
4.31449 119.213 -4.04192
-20.7552 148.226 6.97723
4.06414 119.08 -3.28132
-20.3385 147.538 7.13069
4.98024 115.156 0.419963
4.0858 120.046 -4.50276
5.03448 106.715 12.3054
-11.1156 141.851 -3.68529
-13.5076 134.679 11.3905
-20.1634 147.98 6.65805
-9.47161 137.335 -0.333318
-0.28434 126.366 -3.87243
0.0746159 115.641 10.5246
3.37488 124.63 -8.86184
-13.2587 134.759 11.3345
-14.4182 136.794 10.879
-22.4879 153.174 4.54087
-17.7961 147.65 2.65451
-3.75822 122.757 8.72783
-11.2332 142.751 -3.88856
-18.1638 148.229 2.75645
4.53298 122.634 -8.06863
8.12393 108.954 3.78372
6.25618 113.306 1.55423
-18.9952 152.032 -0.715701
-2.66074 128.947 -1.9541
-19.4634 148.777 4.90679
4.749 121.031 -6.06575
6.56393 112.819 1.77339
-16.9106 149.941 -1.90709
0.406041 126.599 -4.82397
-18.6683 151.786 -0.797456
-8.77308 128.98 10.881
0.394122 126.642 -4.76595
8.17377 110.584 1.76167
-0.793976 126.983 -2.74851
5.32221 107.378 12.2085
-8.834 129.084 10.914
-16.1437 144.507 4.35706
1.13604 126.485 -5.98262
8.05402 108.157 5.55719
7.79928 111.354 1.76825
-10.0246 140.518 -2.4198
-4.06027 123.938 8.68513
-2.75742 122.165 8.52929
-12.9805 146.371 -4.29566
-17.6784 148.534 2.36944
8.17192 110.363 2.68969
6.38097 113.332 2.36767
-17.0637 147.878 2.32842
-12.5744 135.028 11.1461
-16.2488 145.598 3.90455
-7.90167 136.084 0.139209
4.97695 119.24 -2.75774
1.00489 114.867 11.6706
-15.8234 144.467 4.84052
-20.6849 150.302 6.91194
-11.0119 132.539 11.9882
-9.69524 140.903 -2.43734
-17.686 148.971 2.73817
-15.6712 144.515 4.90565
4.81431 120.466 -3.5639
-10.1897 142.405 -3.40081
-10.5704 132.335 11.7782
-21.4223 153.243 4.85084
-1.52357 121.429 8.53419
4.48664 124.438 -8.0948
2.4435 126.972 -7.39395
-10.989 144.437 -4.14816
-13.2066 148.036 -4.42942
6.65538 108.383 10.3685
-13.9538 139.419 9.33863
-19.7787 150.329 6.03896
-3.53761 131.87 -1.46326
-8.88448 140.204 -2.08825
-15.1147 150.15 -3.20283
-20.1838 150.491 6.84674
8.54794 116.609 -4.82558
-16.0009 147.804 2.00686
-0.866019 121.035 8.53273
-11.1796 134.247 11.3315
0.61336 127.754 -3.85214
6.08639 118.668 -2.30863
4.15097 124.381 -6.34649
6.09142 118.751 -2.32589
-2.08899 130.561 -2.02288
6.1128 118.748 -2.31277
-0.470833 120.682 8.60201
1.52765 115.363 12.0188
8.08388 108.329 8.38843
8.6986 109.59 5.36346
-3.04466 124.918 8.19383
-14.9655 144.973 4.62561
-12.6478 137.795 10.1194
5.06771 125.164 -8.68181
-15.7452 147.463 2.94972
5.9679 109.647 11.3397
-6.05889 135.539 -0.215029
-1.43156 122.894 8.16001
-3.3074 132.597 -1.59671
2.05528 114.6 12.6751
-15.9549 149.178 1.25679
4.17109 110.723 13.8371
-9.61431 132.811 11.2478
8.49293 117.78 -4.89581
0.921674 118.121 10.278
-3.63684 126.312 8.1706
-14.3577 150.526 -3.73954
7.58727 112.516 4.54386
-14.7139 145.409 4.47981
7.5524 109.133 9.54503
4.77708 126.43 -9.05048
5.83157 120.949 -3.46358
4.94234 125.146 -7.51039
-2.86718 125.621 8.00061
4.83668 123.885 -5.46854
8.32595 111.593 4.632
-17.7707 150.26 4.147
4.92117 125.141 -7.35796
-11.1707 146.97 -4.82817
8.39501 111.511 4.74662
-14.5704 148.037 0.825561
7.26059 116.631 -0.0749909
1.49754 116.896 11.4879
-16.5429 149.876 2.41157
7.31927 115.354 1.75785
-9.27139 143.301 -3.25309
-8.3403 141.198 -2.20432
-10.9007 135.765 10.8069
2.88473 113.533 13.6145
-11.775 148.261 -4.95213
-6.26912 136.756 -0.0955111
0.461076 129.584 -3.80432
0.719908 129.41 -4.08648
9.0166 118.818 -6.30904
-14.186 147.996 0.589274
0.990843 119.073 9.94626
-7.67895 139.936 -1.48183
-15.7125 151.514 -1.14219
-11.0658 147.461 -4.93357
-14.9464 149.067 0.845683
-9.55008 133.772 11.2219
-10.7344 135.856 10.7748
5.669 122.505 -4.29729
-7.46984 138.999 -0.298964
-13.1319 150.39 -4.58473
-17.3792 150.584 4.13541
8.28754 119.275 -4.66238
-3.33235 127.351 7.99953
4.03914 128.085 -8.22984
8.4632 119.41 -5.14844
8.00927 119.211 -3.85347
3.58065 113.228 13.7467
-17.2425 153.78 -0.191976
9.02956 110.661 6.22968
-16.9269 150.652 3.6506
-0.0484238 122.808 7.96006
7.58457 117.642 -0.494094
-8.68241 133.607 10.6684
5.52487 125.49 -7.26006
-11.8023 149.547 -5.28173
-1.34713 125.13 7.63558
-10.3733 147.48 -5.13206
-0.310609 123.508 7.81298
5.7574 123.64 -4.90464
-14.1996 146.134 4.70288
-14.0076 145.773 5.00438
5.13259 127.424 -8.71974
-12.6007 150.66 -4.75611
1.02418 120.616 9.39653
5.02881 125.612 -5.81685
9.79734 119.478 -7.02492
-16.1115 153.104 -0.770569
-17.6891 151.104 5.33732
4.0227 128.659 -7.92977
8.71783 118.33 -3.02296
-1.37586 125.669 7.50665
-13.7534 145.394 5.36953
-12.3032 141.77 7.68272
-12.2424 141.934 7.34067
-13.8834 146.136 4.99342
8.08994 116.48 1.35277
0.0025349 131.975 -3.61261
5.36561 127.787 -8.70432
-1.14998 125.935 7.39397
-5.19091 130.616 9.18181
-4.08412 129.478 8.53656
5.24441 112.636 13.0047
9.26325 117.569 -2.23004
-5.59139 131.19 9.30282
4.8066 113.119 13.2796
8.66101 110.998 8.41709
-8.81076 145.603 -4.07061
-6.68585 132.935 9.40872
8.25648 120.857 -4.45869
9.37159 117.512 -1.99043
8.85543 120.857 -5.57888
-18.3313 153.752 4.37602
-12.1232 144.181 5.12456
-11.5836 142.018 7.24919
9.44936 117.459 -1.6477
6.19392 126.955 -8.07094
5.94984 125.751 -5.82128
6.7589 123.317 -3.94514
7.53256 112.191 10.1438
5.91698 127.785 -8.4331
-3.34825 135.853 -0.593213
-13.4933 147.623 3.83012
1.59661 121.427 9.52236
-10.7485 140.321 8.51934
11.4741 119.464 -8.04119
-5.56158 138.928 -0.226516
-12.8958 147.397 3.03078
3.94262 130.123 -7.4332
2.07513 119.802 10.968
4.02778 130.095 -7.5438
3.01744 130.527 -6.02877
-1.09263 134.17 -2.64114
6.99778 121.718 -1.81013
6.27402 113.416 11.53
-17.3383 154.268 2.97207
-8.89288 147.607 -5.04142
10.5592 120.923 -7.65611
6.09463 126.301 -5.98511
6.24069 123.038 -1.69353
-7.89763 135.506 9.98607
-12.3036 152.169 -4.33871
12.2254 118.852 -8.08354
-10.2833 140.203 8.45868
-9.51884 148.969 -5.43589
6.02829 126.493 -5.92421
-13.4419 147.522 4.74404
9.32856 121.663 -5.91329
8.86837 121.458 -4.64165
7.07131 123.574 -3.82678
-2.11551 129.176 7.42042
6.89665 121.828 -0.857488
9.82171 117.236 -0.43219
8.10647 116.244 4.51894
8.52983 117.912 1.30685
5.72417 123.866 -1.24947
-2.37459 129.492 7.58627
4.75541 130.275 -8.19807
13.0627 117.951 -8.00099
-1.0263 127.945 7.04775
9.918 121.821 -6.90672
1.3683 123.594 8.31116
-5.21973 132.757 9.0306
-2.99151 130.316 7.87888
-1.46658 135.259 -2.21537
6.38724 128.132 -8.29682
-7.80486 136.163 9.81087
9.49045 122.264 -6.35473
6.53756 122.32 -0.292508
-16.8238 153.867 3.58782
9.59735 117.273 0.525002
6.83086 127.299 -7.84741
1.43707 123.801 8.2606
9.50744 122.393 -6.38854
-6.75282 143.606 -2.64211
-9.32139 139.362 8.65074
-11.1999 147.176 1.53961
-9.51699 139.749 8.61056
0.170579 126.656 7.06467
-3.23941 131.056 7.99814
8.62494 118.472 1.21893
-7.77186 136.529 9.71205
-7.47948 136.238 9.58072
-14.9982 154.239 -0.155159
-6.43415 143.317 -2.42821
-13.8913 151.704 1.20178
-16.5036 153.918 3.52164
-16.5333 154.53 2.74004
8.6646 118.677 1.16586
-3.31684 137.498 -0.48816
-2.34386 136.499 -1.09242
-15.4105 154.788 0.20856
-12.0308 149.694 0.408268
3.61126 118 12.7093
5.48218 125.451 -1.63889
9.56867 122.876 -6.34648
8.24965 116.681 5.12572
-12.326 147.13 4.81042
-12.2601 153.261 -3.9329
-0.0323011 134.88 -3.32943
7.53736 121.013 0.567263
8.73945 118.512 1.62581
8.89152 113.861 7.86369
10.093 122.596 -6.91083
5.60127 124.569 -0.335459
-1.93843 130.227 7.28675
-12.9957 151.244 0.575159
8.894 118.314 1.71234
8.61245 113.564 8.98359
2.45592 121.41 10.6656
5.64876 124.293 0.0633923
8.67678 117.932 2.95519
8.25972 113.805 9.66502
7.36916 124.695 -3.80738
8.24421 120.081 0.884636
9.10358 119.046 0.597332
7.91661 117.364 5.48509
2.56726 121.457 10.8037
-7.09439 146.009 -3.76828
7.69286 117.908 5.26596
9.03287 123.259 -5.02299
-9.70776 142.913 6.10058
-14.2537 152.386 2.19707
-3.24159 132.161 8.0049
-6.79457 136.632 9.1681
-5.48028 142.3 -1.50242
-13.8909 154.136 -0.737575
2.14452 124.037 8.48749
7.15803 114.942 10.9353
0.322716 135.326 -3.6154
1.13601 126.543 7.07882
-2.39069 131.519 7.44716
5.51161 125.216 0.0225979
7.79939 117.73 5.95602
5.49116 125.351 0.00306565
-15.2392 153.655 3.03312
0.806155 127.401 6.84885
-9.54217 144.142 4.87629
5.22655 131.296 -7.53915
1.74824 125.971 7.26113
8.80866 119.295 2.08619
-2.2273 131.785 7.33522
2.61891 123.457 9.09545
-6.02961 136.36 8.8366
-6.84298 146.696 -4.00645
-9.14452 141.75 7.74952
8.96536 120.38 0.446733
-7.79149 139.321 8.43245
7.33782 127.689 -6.44353
8.68228 115.073 8.53908
5.72608 124.603 1.23723
2.90838 121.771 11.0623
9.41056 119.736 0.54476
2.3889 133.6 -4.37998
11.5263 122.758 -7.95509
7.91766 118.538 5.44898
3.97692 119.327 12.4925
-9.91753 152.132 -4.92129
-2.94977 138.839 -0.555115
-11.5566 147.931 4.4541
7.11875 115.78 11.2028
8.15998 120.774 2.07853
-10.8804 153.337 -4.35091
10.8824 117.003 1.81581
1.42756 135.168 -4.19819
-6.59326 146.902 -4.0166
-0.357815 136.932 -2.81669
-10.3269 146.635 4.15322
1.21807 135.555 -4.05646
12.9267 121.2 -8.03298
8.78891 115.898 8.02784
-8.06276 150.168 -5.37002
-1.06183 137.554 -2.05194
6.94778 124.202 0.241416
9.15613 124.67 -4.9053
1.12536 135.903 -3.95398
5.67454 131.715 -7.43931
3.16427 122.427 10.9396
-3.20435 139.926 -0.520377
-3.55103 140.423 -0.471093
-6.56307 138.565 8.54079
4.06371 133.149 -5.76232
8.02848 126.731 -4.82983
-1.44689 132.364 6.8849
6.36207 128.088 -3.23043
8.76251 116.472 8.21715
-12.115 154.886 -2.67461
9.72312 120.286 0.916116
7.47799 123.012 1.73512
0.837265 129.412 6.462
14.1536 120.223 -8.05432
-14.2557 155.4 1.14322
-0.341977 137.68 -2.65921
7.98042 127.486 -5.49711
8.73215 116.543 8.38735
-2.7876 139.853 -0.583908
-13.9445 155.008 1.37394
3.69902 121.714 11.7983
-5.09792 144.936 -2.68782
6.47326 126.838 -1.11155
-2.48578 133.704 7.75836
0.527374 130.32 6.33387
6.5483 126.844 -1.21447
-8.51978 145.392 3.88079
7.62162 123.219 1.76164
8.19222 116.701 9.78217
9.11669 121.761 0.808833
3.17466 124.657 9.06381
5.21459 119.232 12.5029
14.9441 119.528 -7.84174
5.9721 118.358 12.343
7.19188 123.962 1.95949
8.04972 127.08 -4.19172
9.35408 126.18 -5.51591
-3.19623 141.266 -0.778951
-11.4598 152.718 0.255019
4.62318 133.484 -5.87246
-4.23871 143.49 -1.62165
7.11811 124.188 2.07725
7.72157 128.896 -5.71903
6.60594 128.564 -2.92209
-6.9324 140.834 7.88619
7.58753 128.302 -4.41726
2.49314 127.784 6.94323
4.90793 133.573 -6.171
9.27199 120.978 2.59792
-8.00582 144.859 4.71777
8.79966 124.989 -2.04176
8.06962 119.431 7.30674
-7.77019 143.684 6.00737
-2.04016 134.226 7.47831
4.80144 133.834 -6.02826
7.61406 128.025 -3.63327
-12.7578 155.149 0.311597
-4.09851 136.749 8.3319
-12.2725 155.097 -0.444794
11.2425 125.497 -7.32964
-12.2187 153.908 1.17057
-12.5156 154.409 1.13342
11.7813 124.848 -7.46703
1.43832 137.607 -3.90045
7.78884 130.893 -7.53343
9.60099 120.834 2.90951
8.40723 127.115 -3.45224
9.58226 120.302 3.71555
9.38864 121.312 2.76827
4.98861 120.972 12.3673
0.780625 138.24 -3.08786
-9.71359 154.214 -3.86411
7.29635 124.768 2.44038
6.34325 126.559 1.90755
-11.8284 154.857 -0.348004
15.3324 119.652 -6.85406
3.40398 126.785 7.96866
11.597 125.685 -7.37163
8.09947 118.308 10.377
8.09043 118.895 9.63978
8.3919 123.832 2.07959
3.79342 135.721 -5.13695
9.22412 127.85 -5.26109
6.21176 127.457 1.60067
-5.02022 139.697 7.69765
7.92674 120.184 8.54533
-11.5622 154.454 0.6231
6.42897 127.83 0.978169
8.03778 119.092 9.97099
10.8548 126.954 -6.89967
10.1232 120.507 3.73588
8.40238 124.109 2.24024
12.4182 124.977 -7.2618
-0.092117 133.914 6.09474
-9.39228 154.486 -3.60457
-11.1569 155.648 -1.5283
-3.08471 143.816 -1.50676
-8.27955 153.467 -4.29857
-4.50707 147.52 -3.65536
6.13709 134.462 -7.23847
1.76129 131.503 5.98536
8.80372 123.211 3.2435
-9.05752 154.44 -3.68066
5.05047 122.734 11.8396
8.70326 126.788 -1.41034
6.87262 128.232 0.359938
-2.94417 137.625 7.45974
8.36217 131.471 -7.21543
-7.55348 153.042 -4.57831
-4.33302 139.825 7.57674
11.4007 119.595 3.53986
0.185218 134.346 5.97261
9.29087 122.888 3.38932
12.3885 125.691 -6.94288
-10.6058 154.803 -0.206855
10.1962 121.499 3.72254
10.1629 128.57 -6.13269
8.09109 130.168 -3.99108
4.55446 124.457 11.4335
14.6761 122.573 -6.80169
1.1759 139.647 -2.69494
15.2915 121.142 -5.81762
10.2546 121.899 3.57573
11.7377 127.257 -7.01499
6.18692 135.631 -7.26048
-6.12092 144.573 5.69199
9.06982 127.834 -2.1067
-6.12151 144.747 5.48492
9.08891 127.366 -1.4448
-5.10647 142.246 7.04489
10.1557 129.138 -6.02518
15.0203 122.071 -6.07817
-1.97569 137.784 6.97112
7.23473 121.412 11.0726
8.43862 128.118 -0.727094
-4.19814 141.138 7.12092
-3.11942 146.592 -2.78262
9.50947 129.905 -5.39011
9.42582 121.718 6.31282
6.02733 136.255 -7.04321
-4.30539 141.434 7.04247
-7.81038 154.188 -3.57814
9.6946 128.46 -3.5051
15.8644 120.053 -4.41595
5.15531 136.983 -6.1082
4.30423 127.963 8.35929
-6.3848 152.875 -4.60692
-5.36357 143.803 6.14769
-9.74909 155.757 -1.59056
-0.652681 142.277 -1.29065
1.618 140.027 -2.81584
-1.36395 137.705 6.65165
9.59175 130.279 -5.46513
10.484 122.768 3.38643
12.7377 119.202 3.88929
8.77278 125.627 3.11125
3.37292 139.55 -5.24225
10.5417 123.041 3.27686
9.33504 128.037 -1.09335
-5.04502 151.931 -4.94212
4.39719 127.516 9.97093
9.56523 124.997 2.8843
-5.32399 146.308 3.72439
15.7683 121.083 -4.35654
8.61145 122.413 8.61392
-3.1435 140.735 7.1601
9.66502 130.92 -5.28351
-3.21507 148.801 -3.82062
-4.58539 151.593 -4.89733
9.91474 124.046 3.93097
7.09439 124.949 8.52301
7.0037 125.044 8.65783
4.57913 127.37 10.462
10.1951 129.456 -4.06111
-5.11804 146.74 3.32394
10.1756 129.326 -3.7649
9.43843 128.386 -0.874723
15.6718 121.695 -4.31981
9.99399 124.6 3.39917
7.48294 124.973 8.08644
-8.26383 154.375 -0.752796
3.2113 140.2 -4.47862
5.34311 126.044 11.084
-4.86854 146.017 4.32549
0.134703 137.279 6.2896
13.2114 126.616 -5.71078
-4.4047 151.961 -4.87154
-2.58338 148.179 -3.27049
-2.60372 148.281 -3.31936
4.67239 129.698 7.88212
-1.05693 145.039 -1.64262
-1.63228 139.804 6.95191
-6.62866 154.023 -2.69252
-6.1082 153.615 -3.17185
-3.81214 143.752 6.1129
9.775 124.268 5.53201
12.2253 121.327 4.61447
0.24523 137.905 6.06042
9.33412 131.668 -3.92014
-1.87103 147.24 -2.61919
-6.25641 153.809 -2.78825
4.72345 130.046 7.97552
-2.6294 141.821 6.74134
9.53113 131.773 -4.20351
-6.88553 154.302 -1.96609
10.4985 125.045 3.41597
10.3851 125.651 2.89102
1.31038 137.132 5.52847
-6.94465 154.39 -1.60392
4.23595 132.501 6.12551
-7.06322 154.494 -1.34126
-3.24963 143.907 5.8688
9.9381 131.03 -3.2201
3.94655 140.853 -4.6431
2.4291 136.345 4.88837
4.81757 130.639 7.98477
-4.68079 148.151 2.98391
5.06248 129.116 9.88831
9.01036 135.122 -6.44631
-3.51335 146.885 3.38277
10.8406 124.979 4.64047
10.2727 126.724 3.43835
9.96132 132.364 -3.82168
1.26551 138.685 5.26477
10.859 124.848 4.99293
10.9301 125.582 3.91353
-2.33247 143.887 5.6747
3.19167 142.147 -3.15585
1.85508 143.319 -2.00974
-2.18363 143.764 5.72172
7.44682 127.651 8.63163
5.04861 131.683 7.97593
7.62936 127.602 8.43214
9.88303 134.534 -5.97175
2.88923 142.574 -2.77568
9.82265 132.998 -3.58122
5.60757 129.741 9.81234
16.858 117.369 4.08511
14.6956 126.496 -4.27624
1.15753 144.503 -1.60565
-0.513062 147.62 -2.46942
6.03971 129.169 9.96804
3.83751 136.085 4.7857
12.0108 123.852 5.15008
15.7295 118.581 4.89141
4.50418 134.94 5.2256
6.57227 140.232 -6.42748
1.64265 144.167 -1.74843
1.0184 145.075 -1.72412
7.03344 128.367 9.38351
13.0934 122.636 4.94512
5.0298 133.175 6.79413
10.8682 131.885 -3.45099
2.9476 137.806 4.62157
9.58391 128.597 3.87267
-2.48228 145.663 4.91396
10.8636 132.365 -3.92781
4.85833 141.727 -4.66214
9.9797 126.738 6.02788
7.56898 139.368 -6.68509
-2.20416 151.913 -4.08656
8.5955 137.044 -5.36069
7.72764 128.563 8.36919
5.31373 131.381 9.43432
4.9904 134.445 5.90146
6.81837 129.33 9.32747
-2.3163 147.19 3.19574
9.91183 135.111 -5.03611
18.7583 120.113 -2.16972
9.15 136.229 -4.84929
10.8649 132.366 -2.91381
-4.03699 153.994 -2.30754
13.8736 122.415 5.16718
0.173282 142.456 5.35545
6.24812 141.613 -5.87175
7.65962 140.088 -6.51548
11.5215 132.077 -3.136
10.7936 133.237 -3.03995
3.29537 144.051 -2.73515
15.5068 126.638 -3.4372
9.26117 136.792 -4.66928
-4.43394 154.609 -1.4386
12.4073 131.907 -4.27245
5.11672 135.361 6.00513
9.94373 129.545 4.22425
7.99764 139.997 -6.39541
6.01787 131.831 9.34165
1.06312 142.211 4.98541
-3.19821 153.887 -2.61269
11.4761 127.24 4.6308
10.711 134.499 -3.8417
4.77496 137.24 4.57584
0.0305068 149.618 -2.92757
1.00313 142.715 4.87087
16.3547 125.398 -2.44556
-2.24963 153.347 -3.279
11.9474 125.998 5.89398
-0.500793 144.713 5.30977
5.48823 133.175 9.21825
4.65265 143.875 -3.96594
15.7588 120.818 5.61156
6.16728 142.815 -5.50917
7.19718 131.349 8.54653
6.43895 132.586 8.69403
4.22743 138.976 4.36596
5.4941 134.929 7.705
5.81294 143.556 -5.0918
15.9494 120.994 5.77422
16.8068 125.348 -2.01174
3.3768 145.38 -2.45108
2.22909 142.057 4.8315
4.36593 139.46 4.23729
9.15326 139.47 -5.54963
7.76826 132.129 7.69005
7.45837 132.516 7.96808
9.39165 139.008 -5.16202
18.4162 118.868 4.66223
8.94415 131.308 6.82144
8.55795 140.494 -5.25967
2.20697 142.906 4.6612
15.2987 122.706 6.05033
8.45898 140.768 -5.11128
0.096134 146.05 4.77752
12.5904 133.765 -3.65535
14.3147 124.409 5.98555
18.8157 119.19 4.0673
12.1697 134.139 -3.18667
16.2958 121.659 5.96762
14.6249 124.112 6.07537
1.19205 150.134 -2.76624
2.37431 143.416 4.53495
10.4701 136.996 -3.14444
10.1849 137.523 -3.26957
3.55661 141.735 4.60511
5.07176 139.92 4.05261
1.10682 151.046 -3.37689
16.8219 127.035 -1.95597
2.21111 143.984 4.45109
4.94445 140.289 4.06471
12.3154 128.059 6.09726
1.28917 150.853 -3.15323
6.19904 136.01 7.59517
3.7172 141.899 4.51046
1.32012 145.568 4.58091
4.75452 140.838 4.16027
14.7157 132.407 -4.51967
14.7238 124.747 6.267
14.1819 133.454 -4.72846
3.50472 147.662 -2.46999
14.9048 132.374 -4.31021
12.4411 134.957 -2.83011
0.0679864 153.221 -2.76059
16.5195 128.721 -2.07515
20.0032 123.188 -1.45678
7.67559 134.243 8.46129
17.9112 122.285 4.16226
9.64302 132.59 6.89719
20.5677 121.926 -0.536068
16.8836 124.184 3.96113
5.42481 141.299 3.86312
18.6547 121.403 4.69779
10.3287 138.776 -2.51545
18.2615 122.729 3.70878
12.6701 135.493 -2.62237
14.7545 125.869 6.61701
6.75795 137.214 7.21864
12.4864 129.931 5.9314
20.759 121.173 1.23057
2.14563 146.515 4.11889
1.54723 147.368 4.1657
17.3883 124.987 2.96178
20.6363 121.844 0.688412
6.78087 146.152 -4.82579
10.735 138.338 -1.96096
8.85606 134.314 7.65489
15.0723 133.485 -4.01088
1.44369 147.679 4.21224
9.68927 133.928 6.5397
20.7966 120.746 2.35662
16.5773 129.926 -1.77531
9.78253 141.762 -4.30584
10.8153 133.056 5.90701
12.1735 131.135 5.83585
10.4598 133.666 5.96787
18.7502 126.227 -0.690626
10.116 141.41 -4.1976
0.25392 154.323 -1.91654
18.7669 122.672 4.56781
20.4372 124.224 -1.06058
19.1227 122.172 4.63976
14.5253 134.877 -3.71317
18.5062 126.793 -0.502956
14.994 127.398 5.98137
9.94351 134.693 6.31805
2.52582 147.502 3.94269
18.8945 123.873 3.42715
15.2006 134.528 -3.47952
17.5403 126.39 3.45483
20.5603 122.985 2.06351
7.63439 138.287 7.45654
19.2351 123.639 4.21943
3.56868 151.745 -2.88317
2.58361 153.29 -2.99224
19.7462 126.385 -0.471719
1.34684 154.391 -1.72675
7.50121 140.435 5.22719
14.8432 135.875 -3.40761
19.4395 124.086 3.88675
7.34147 141.463 4.69846
19.3229 127.426 -0.126342
4.84222 150.59 -2.78551
4.69007 146.509 3.4485
14.7443 136.411 -3.08987
8.72889 137.919 7.46211
1.9585 154.403 -1.63824
19.4295 125.932 2.39391
15.4305 135.639 -2.96009
14.8464 136.591 -3.06317
10.7523 142.863 -3.39434
12.3407 133.942 5.88279
18.159 127.212 3.37272
11.0782 141.056 -1.41697
17.4552 131.062 -0.205309
16.3344 128.517 5.72031
5.52141 150.658 -2.99032
17.4378 131.378 -0.479466
9.94022 137.126 6.93171
10.897 142.518 -2.63246
11.5364 135.111 6.47372
13.2865 138.161 -1.37944
9.84263 145.23 -4.20542
4.29267 148.157 3.39431
14.3048 137.716 -2.26956
16.7867 134.172 -2.38928
18.6851 129.245 0.62429
10.8904 143.569 -3.06374
8.50042 148.155 -4.57297
11.0953 142.431 -1.73311
19.9955 126.511 2.28576
21.1852 124.39 2.94345
11.052 143.125 -2.24567
9.65503 146.2 -3.48851
18.0208 131.015 0.719272
10.8865 144.319 -3.23477
21.5558 125.629 1.12557
10.0752 145.723 -3.41222
9.4994 146.621 -3.42905
14.9924 131.993 5.84883
8.21424 149.16 -4.18645
11.2323 142.945 -1.63839
6.57714 146.933 3.06999
17.5529 134.024 -1.36353
11.7799 141.995 -0.624716
14.4628 139.058 -1.75576
7.75922 145.374 3.20645
5.9024 152.697 -2.99347
11.2693 144.022 -1.77385
12.5708 140.915 0.0412467
4.22299 150.361 4.00272
