ply
format ascii 1.0
comment Created by Open3D
element vertex 1950
property double x
property double y
property double z
end_header
-16.9164 119.422 7.66883
-14.0573 121.615 -0.547992
-15.5871 130.726 -2.08619
-13.7213 130.453 -6.38945
-3.21901 97.1164 -12.5711
-20.1976 137.494 5.43165
-11.562 125.49 -8.57608
-13.6148 131.593 -6.94124
-13.3744 119.723 -0.597807
-18.6018 138.986 1.07079
-6.18231 108.898 -11.7633
-17.5371 122.428 8.05709
-15.3165 131.178 -2.39642
-17.7309 137.359 -0.0791064
-13.2734 103.089 8.91581
-19.7145 132.275 7.75158
-15.0758 134.245 -4.65471
-8.78233 116.62 -9.76395
-15.4705 134.367 -3.68683
-12.5144 130.887 -8.86715
-13.0399 120.939 -1.82055
0.569282 76.9256 -9.47817
-13.1982 118.588 0.187063
-6.61363 80.0788 6.55525
-15.1039 131.073 -2.10016
-14.6697 131.276 -3.11828
-14.1014 108.508 8.67231
-19.7535 133.786 7.83701
-13.9375 117.974 2.8246
-4.96208 76.7519 4.85992
-15.174 132.101 -2.23409
-19.6269 133.456 7.87402
-19.1122 131.365 7.83956
-15.5507 119.107 6.31741
-7.30997 82.3338 7.58217
0.959401 77.5428 -9.66753
-17.2982 138.203 -0.256839
-14.8707 132.033 -2.56842
1.2002 76.525 -9.3884
-6.19228 80.1126 6.53707
-11.6424 130.774 -9.41145
-7.35541 82.766 7.88619
-13.5157 132.869 -6.04491
-13.8336 109.723 8.09679
-15.4178 119.44 6.40321
-12.5419 132.554 -8.13401
-10.693 125.676 -8.63269
-4.01183 106.067 -13.5436
-15.3446 134.401 -2.30041
-16.2784 136.602 -1.25708
0.990107 80.01 -10.4849
-4.65173 108.029 -12.9185
-12.9441 116.692 2.27261
1.83038 74.7526 -9.4433
-15.0795 134.13 -2.54368
-14.6559 131.772 -2.17604
-15.2257 136.021 -3.23764
-13.4646 120.589 1.4459
-9.99367 95.2343 7.699
-13.4669 120.735 1.43411
-15.3549 135.55 -2.45224
-19.2253 133.759 8.08442
1.06449 80.5114 -10.5001
-8.20136 117.753 -9.45237
-0.539012 89.4376 -11.6531
-15.1612 134.81 -2.2627
-11.6948 100.044 9.40589
-11.4784 99.3886 9.27372
-12.9167 113.535 4.63766
-0.405971 89.121 -11.6431
-17.7126 140.806 0.738822
-1.22493 94.8254 -12.7616
-11.49 132.139 -9.32177
-8.44354 91.0111 7.11252
-8.29735 90.393 7.14506
-16.1872 121.905 8.15759
0.51817 84.9842 -11.0957
-13.0075 111.211 6.71538
-12.7228 111.603 5.80128
-10.8192 97.943 9.08415
-6.96315 83.4956 8.08592
-17.0838 126.03 8.1503
-0.803638 92.8452 -12.2588
-13.7329 117.961 4.71333
-5.75374 111.807 -11.1262
-9.17403 123.902 -9.74707
-8.59028 92.3361 7.06984
-16.7834 125.306 8.17473
-0.0759888 89.2862 -11.6609
-14.8519 120.156 6.49801
-17.3384 127.783 8.14597
-15.6626 120.875 8.06531
-6.76619 114.892 -10.1064
-12.4968 117.615 2.30724
-10.0107 96.4014 8.55086
-10.7627 130.133 -9.09125
-12.998 119.406 2.57244
-13.3117 110.484 8.519
-2.33448 102.471 -13.5023
-11.842 102.059 9.86645
-1.01587 95.7417 -12.7422
-14.0966 120.46 4.87916
1.90229 78.09 -9.54804
-12.8541 115.24 4.93566
-4.45025 78.4665 5.79906
-16.2077 139.482 -0.822399
-0.386084 92.4849 -12.1641
-12.2771 118.237 1.94147
-9.89576 126.49 -8.58755
-14.7391 139.755 -4.44471
-8.37861 92.7958 7.31424
-8.68403 123.166 -9.38675
-16.4625 125.499 8.22403
-15.0167 139.481 -3.36511
-14.8694 140.07 -4.03034
-3.52415 77.0573 4.78542
-13.1718 115.446 6.13675
-18.8542 137.046 7.48669
-12.6288 106.41 10.0449
-10.5257 131.105 -9.31311
1.45466 82.937 -10.6379
-6.42148 83.4351 8.23498
-3.29815 107.771 -13.3146
-8.49001 122.462 -9.15778
-6.59443 115.74 -9.8721
-12.0599 103.842 10.317
-12.7466 107.01 10.1746
-7.35325 88.8314 7.63336
-0.519736 95.6698 -12.7836
-18.6685 140.453 5.50506
0.352499 90.3099 -11.7205
-12.3237 112.786 6.17068
-14.8379 140.048 -3.44423
-1.797 102.527 -13.4944
-13.1706 109.568 10.1096
-1.1204 99.1126 -13.066
-11.5262 134.01 -7.85151
-12.0058 135.796 -7.70647
-12.8843 137.721 -6.6538
-17.9724 133.533 8.15198
-6.86391 87.2055 7.94475
-12.0658 113.12 5.63439
-14.9135 138.139 -1.79568
-12.4417 116.086 4.93175
-17.1192 130.021 8.26443
-3.87923 78.5543 5.8076
-12.7217 111.076 8.57775
-12.7084 107.775 10.4864
-6.95244 87.8806 7.97915
-12.3264 118.479 3.44054
-12.9076 138.149 -6.46418
-4.0283 79.2086 6.03003
-15.653 124.357 8.26065
-4.27597 79.9268 6.26891
-3.81059 110.571 -12.5526
-5.65176 82.8251 8.08004
-11.9585 119.726 2.19514
-1.16792 101.267 -13.3699
-12.2053 120.003 2.68571
-15.7746 125.37 8.30839
-7.92754 121.719 -8.66036
-12.9511 138.707 -6.2347
-17.9466 143.359 3.24084
-12.796 115.206 7.00436
-15.5071 124.461 8.29052
-6.34738 116.9 -9.5723
-3.09346 109.096 -12.9522
-17.9719 143.103 3.61225
-7.54891 120.639 -8.72045
-12.4068 121.074 2.86658
-12.7366 121.029 3.79672
-12.1977 113.065 7.2003
-17.0925 131.746 8.32509
-5.65997 115.52 -10.0371
-6.01207 116.789 -9.63232
-3.9787 112.02 -11.7709
-11.9322 119.204 3.43762
-13.3382 121.934 5.54189
3.33166 76.5449 -8.76059
-10.3522 101.076 10.3924
-13.083 123.108 4.37118
-6.83476 90.7727 7.85021
2.88238 81.1079 -10.1755
-8.30745 126.624 -9.15593
-13.0129 121.897 5.03885
-11.802 120.205 3.10683
-14.2525 142.556 -3.81465
-12.8988 122.792 4.36546
-13.8058 141.61 -4.27102
-9.38828 98.3955 9.95643
-17.8546 137.158 8.18185
-11.7218 119.591 3.44728
-12.723 122.037 4.50246
-13.9082 142.153 -4.21191
-2.24996 77.4468 4.86251
-12.4555 121.953 4.02689
-11.824 120.672 3.30431
-7.06399 121.207 -8.57434
-0.374903 101.365 -13.3578
-9.36524 98.6525 10.0904
-16.6425 132.403 8.32817
-0.236516 100.718 -13.2751
-9.95378 100.606 10.4767
-13.0781 117.647 8.28877
-7.35967 122.514 -8.42949
-12.9522 121.367 5.93624
-15.773 128.38 8.80041
-9.05893 130.941 -8.94302
-1.94602 77.5571 4.58634
-0.183072 101.357 -13.3299
-6.10846 88.0254 8.79773
-6.47851 120.398 -8.8885
-10.6376 103.724 10.9254
4.03354 75.7771 -8.5386
-3.73453 81.487 7.06347
-11.1396 106.112 10.9397
-5.94181 87.9234 8.91746
-7.22891 124.261 -8.86102
1.82953 91.1585 -11.7172
-13.0574 119.388 8.19271
-4.66009 115.76 -10.115
-4.54427 115.517 -10.2177
-4.96685 84.6524 8.64597
1.87487 91.1029 -11.7138
1.06427 96.3982 -12.7832
4.05968 76.4976 -8.55905
-17.4621 142.269 5.83574
-17.1216 135.423 9.00888
-12.0425 111.133 10.7566
-12.7147 124.16 4.88104
-17.129 144.053 4.15092
-17.3133 138.212 8.00584
-12.1041 119.34 6.28936
-4.161 114.937 -10.4799
-13.0728 123.806 6.07958
-12.4966 120.731 6.47128
2.15838 90.4756 -11.6851
-9.85164 136.077 -8.75225
-12.978 119.791 8.28102
-11.7535 111.852 9.89922
-1.34975 107.641 -12.9246
-12.1456 114.944 9.15235
-5.69801 88.2665 8.95683
-3.11375 113.443 -11.8554
-12.2374 115.134 9.46169
-4.5766 116.435 -9.895
-12.8985 142.853 -4.78955
-2.20177 79.0266 6.08069
0.535016 100.89 -13.0914
-4.75321 117.217 -9.64916
3.30889 84.5993 -10.3615
-15.2515 129.474 8.88688
0.0190173 103.773 -13.3369
-12.7326 121.255 7.61825
-2.01672 78.9487 6.00203
-2.31617 112.205 -12.4495
4.59627 76.0732 -8.37157
-4.90888 117.992 -9.4196
-15.8491 145.108 1.56172
4.64301 76.0087 -8.34818
-6.47268 122.429 -8.08662
-6.76029 124.375 -8.48183
-9.61889 136.603 -8.58344
-5.62446 89.9771 8.67382
-8.07953 130.081 -8.51165
-12.7796 122.678 7.2814
-5.05442 86.6987 9.30813
-5.03582 86.6891 9.30728
4.16361 81.6677 -9.9343
-5.99428 121.879 -8.38234
-4.08497 116.594 -9.9681
-11.7624 141.095 -5.32518
2.75682 90.9457 -11.6754
-1.45359 78.8638 5.65407
-16.7809 143.256 5.77139
-4.9843 119.379 -9.08982
-9.293 136.745 -8.60139
3.90254 83.8847 -10.123
-3.60963 116.166 -10.4795
-10.9481 108.9 11.6743
4.23281 82.6742 -10.0602
0.900266 101.964 -13.0778
-8.20637 132.995 -8.8285
-9.91791 105.663 11.1304
-4.98054 87.9544 9.43031
-13.8632 127.612 8.15893
-15.7097 133.814 9.08003
-11.9741 125.264 4.95317
-1.33621 79.059 5.77956
-14.0253 127.102 8.90247
-15.5476 133.377 8.98663
-2.252 114.119 -12.1715
4.00792 84.2366 -10.1371
-10.4251 107.707 11.5618
-12.4809 125.307 6.40569
-12.2467 143.733 -4.79481
-15.5095 145.612 2.08559
-16.2071 145.025 4.16489
-11.7441 123.299 5.87794
-12.8807 144.2 -3.36711
5.08873 77.1307 -8.34312
-4.87908 120.425 -8.97447
-16.2594 144.528 4.85908
-12.4065 120.876 9.23863
-16.342 139.705 8.02917
-14.5271 131.206 8.70267
-9.29131 137.909 -7.84527
-11.114 112.241 11.4974
-12.8769 144.671 -2.91609
-7.94412 133.6 -8.47845
-11.7441 116.222 10.809
0.843108 105.107 -13.3048
-16.0191 144.83 4.77992
-2.34333 115.753 -11.6073
-3.20847 117.346 -10.381
-9.16367 105.097 11.2678
0.957031 104.997 -13.2763
-11.6943 126.817 5.02255
-2.22898 115.889 -11.6496
-6.19323 127.455 -8.45321
3.4048 92.8515 -11.8162
-5.92045 125.885 -8.19717
-12.2439 122.023 9.46356
-9.03769 138.392 -7.73999
-8.44871 137.345 -8.39134
-11.6813 119.615 9.73791
-15.8286 144.618 5.42657
-8.78393 138.348 -7.91872
2.0941 100.838 -12.5948
6.05204 76.1233 -7.90602
-3.32047 85.8555 9.31894
-14.8429 146.403 2.5138
-6.14485 128.354 -8.21929
5.81017 78.4084 -8.41055
5.79245 78.9408 -8.54526
6.18627 76.167 -7.87507
1.81193 103.48 -12.934
-3.08303 85.6447 9.28547
-15.0687 145.939 3.62328
-9.97139 141.74 -6.31943
-0.317201 111.168 -12.0917
5.77301 79.9235 -8.84446
-11.3628 127.457 5.40537
-11.6935 121.064 9.93436
-14.0064 146.463 0.896841
-4.27579 89.9027 9.90582
-11.1977 123.668 7.3667
-1.30366 81.4347 7.70011
-8.69609 105.976 11.5142
0.166451 79.4311 5.28721
4.59165 89.9699 -11.5418
-10.4212 114.045 11.0996
-2.80374 85.4025 9.2452
0.805721 78.0924 4.7137
4.70354 89.9765 -11.5378
-9.22494 140.758 -6.94711
-13.391 146.187 0.0667515
4.13913 92.7574 -11.7152
-11.3626 146.023 -4.67632
-2.9434 119.526 -9.79151
-13.4746 131.278 9.05726
-4.2544 90.5131 10.1804
-14.851 137.432 8.87715
-13.7579 132.377 9.13753
-11.1174 117.714 11.322
-8.70175 139.627 -7.15154
-9.85566 111.962 11.6403
-4.81813 124.192 -7.63307
-14.1072 146.879 1.86951
1.89781 105.192 -12.9833
4.22702 93.9725 -12.1325
-9.56155 110.379 11.9458
-15.3048 143.54 6.78582
-13.6384 132.321 9.21184
-1.67495 117.392 -11.2545
-0.137449 112.322 -12.041
-5.95572 129.903 -7.99881
-10.6929 124.047 6.90631
-10.3975 114.909 11.5226
-6.65537 100.166 10.9533
-4.91318 93.8764 10.4707
-10.7869 145.614 -4.97797
-11.0878 146.488 -4.7051
-6.61858 132.279 -7.34869
-7.05101 134.953 -7.79769
-4.47762 124.135 -7.78395
-10.3524 115.177 11.6874
-3.57725 122.041 -8.67999
-5.79996 98.0044 10.6422
-1.13145 82.9267 8.25791
-9.08208 142.347 -6.71484
2.6432 103.221 -12.6394
5.56303 87.4503 -10.631
-10.5931 145.906 -5.07019
-1.00808 82.584 8.18589
-9.1631 109.932 12.3121
6.44527 81.2735 -9.08393
-13.0107 131.827 9.05196
-13.7259 147.288 2.02897
4.87116 92.965 -11.7259
-10.4304 116.746 11.7821
6.40407 82.8608 -9.59049
-11.726 147.885 -2.96998
3.26061 101.02 -12.3576
-1.69898 84.7409 9.23165
-0.228151 115.132 -11.8473
-11.7906 148.115 -2.74915
-12.151 147.884 -1.69326
-10.015 115.393 11.8794
-12.314 131.269 8.39614
-10.9114 120.946 10.9888
-4.44752 125.644 -7.42794
-10.8198 122.239 10.0454
-6.09204 101.323 10.8098
7.02683 79.1134 -8.25206
-6.94539 103.924 11.416
-5.90309 100.139 11.1874
-1.89369 85.7109 9.83595
-14.4854 142.558 7.64636
-4.07813 93.1449 10.8914
-10.0949 126.802 6.11346
-13.7282 147.741 2.8678
-7.81554 140.485 -7.28117
-3.37255 90.3311 10.9179
-8.41976 142.167 -6.72594
6.72761 83.2463 -9.50598
6.04404 87.9358 -10.5012
5.96419 89.9865 -11.198
-12.7177 147.764 0.882357
-1.78279 86.2431 9.81873
5.60837 92.1868 -11.5249
-9.73253 124.009 7.42291
-2.06019 121.155 -9.58049
-5.47056 130.68 -6.71883
-2.20251 121.937 -9.53208
-3.25402 90.762 11.1043
2.53467 77.9381 4.43224
2.56914 77.5938 4.59933
1.96537 109.638 -12.3961
-9.95379 123.176 8.78128
-13.1904 148.042 2.30101
-11.2989 148.957 -2.81623
-4.76871 129.3 -7.29346
3.29852 104.331 -12.4762
2.647 77.8759 4.42694
-13.8644 140.652 8.5178
-1.93885 87.7586 10.0581
-7.79465 141.787 -6.72763
-7.48092 107.708 12.3187
2.51537 78.8255 4.92848
-3.98157 95.6307 11.0277
4.51118 99.9677 -12.1268
-8.55337 112.854 12.2381
-8.75004 113.775 12.3244
-10.5613 149.03 -3.52894
2.91694 108.39 -12.8129
-9.67893 124.204 8.73174
2.33738 79.5516 5.30644
-5.1747 101.429 10.9834
5.89131 94.9315 -12.1332
-0.530947 84.8685 9.37653
2.16257 110.926 -12.18
6.53302 90.9719 -11.2435
-2.11488 123.5 -8.97458
-12.9936 148.135 3.45574
3.10809 108.471 -12.7325
-2.78226 91.8513 11.211
-5.20468 132.302 -6.24774
-7.94734 111.267 12.5906
5.08111 99.1877 -12.0796
-5.6569 134.595 -6.40275
1.0997 114.375 -11.1491
-3.21932 93.6524 11.3422
2.91427 76.6602 6.24979
-9.09396 124.889 7.67223
6.25638 94.593 -12.0387
-11.4679 132.937 9.02573
-12.9968 140.32 8.55479
-4.32996 130.008 -6.50426
-4.92667 132.028 -6.15482
5.49758 98.6 -12.0981
-3.29464 95.3586 11.188
-2.19717 125.259 -8.6999
5.24802 99.8192 -12.0728
4.5804 103.444 -12.5162
-0.90257 87.605 10.0467
-6.05978 106 12.013
-12.0304 137.192 8.59583
-9.43182 129.045 6.9881
-1.41158 89.1198 10.5867
-2.05016 125.235 -8.6223
-1.49346 123.311 -8.85182
-4.03499 130.218 -6.57669
1.07698 115.882 -10.69
8.43846 80.2617 -8.00007
-9.37938 121.811 11.4605
-3.59092 128.773 -6.60261
-9.1696 120.797 11.606
-5.10681 104.339 11.3687
-9.92619 130.764 7.90022
-6.04083 139.038 -6.24999
-12.5406 141.678 8.09063
-8.87017 125.586 8.52233
7.32905 91.8776 -11.3475
-7.44137 112.184 12.8587
-10.4242 132.706 8.27556
7.19221 92.9989 -11.5919
1.85176 81.9625 7.83853
-7.91118 115.077 12.5216
-5.69383 138.263 -6.24433
-3.2095 96.8052 11.6657
-12.4751 146.537 5.55035
-12.5435 144.449 6.97304
5.32685 102.574 -12.251
-9.24605 124.661 10.5433
-9.12758 125.471 9.79153
-11.989 140.772 7.93913
-9.11522 129.76 7.33715
-3.17134 97.1335 11.7898
8.59318 83.511 -8.91699
-7.65524 114.621 12.7457
-5.97732 140.749 -6.26128
-10.0321 133.271 7.92809
-7.06207 111.83 13.214
-4.33526 133.3 -5.72672
7.68517 92.7922 -11.5012
8.8053 83.4868 -8.84955
-11.056 150.662 0.696667
-4.16558 133.125 -5.84569
-11.8707 147.861 4.47865
-11.2621 138.683 8.29942
-8.49204 128.573 7.40499
9.48467 78.0321 -7.00498
-10.3935 134.854 8.73073
-8.34068 128.041 7.69951
1.36675 84.8145 9.06808
-6.6356 111.299 13.2424
-8.60368 126.745 9.12934
-7.06046 113.348 13.1153
-11.5091 141.785 7.53136
-4.19985 104.359 11.4004
-11.9493 143.629 7.61078
1.90095 83.7168 8.65148
6.53009 100.218 -12.1103
-0.419438 89.4246 11.123
8.07274 92.2636 -11.1295
-10.2021 138.126 6.95757
-11.2693 148.79 3.40457
9.54033 79.9034 -7.42821
-10.5051 136.674 8.60003
-8.65108 125.057 10.8079
5.00308 78.657 4.68715
-7.30669 117.391 12.3186
-10.8449 141.309 7.13585
-4.4846 106.076 12.0186
-3.54345 133.162 -5.89854
-3.97243 134.156 -5.35034
-7.55892 148.471 -4.87632
-3.30306 102.973 11.1843
5.19146 77.2774 5.36445
3.89009 80.5145 6.68825
8.13004 95.1714 -11.9195
-2.16629 96.9817 12.1241
-0.566332 91.5961 11.3935
-3.00081 102.161 11.3083
-9.47985 135.758 7.73656
-10.5062 143.947 5.52127
-10.3935 142.172 6.39504
-3.59185 104.681 11.5043
9.06862 88.4372 -9.90492
-9.64435 135.658 8.416
1.54132 86.8885 9.3812
-7.74549 121.55 11.9709
5.67503 75.9082 5.70588
1.86324 85.9509 9.19728
-9.99654 141.415 6.24198
-1.99862 130.905 -7.01864
-1.38709 95.5383 12.1017
-8.0861 124.313 11.7986
-8.82713 134.49 7.75976
-8.90455 137.159 6.46473
-1.73631 96.9952 12.2248
8.59835 94.4946 -11.4378
-9.69053 141.859 5.71173
1.82398 119.456 -9.34486
-2.37902 100.464 11.8872
-7.99643 150.705 -3.39757
-8.03279 124.856 11.6184
-8.84965 138.926 5.55999
-6.51726 116.64 12.7795
0.755787 89.0722 11.0119
-8.87264 135.181 7.89579
10.3543 81.6588 -7.92412
-9.75635 143.884 5.07846
-9.28569 141.041 5.64341
4.78737 80.4253 6.50066
-7.9049 124.841 11.7628
-2.24089 132.461 -6.38509
10.8275 77.8135 -6.60736
7.27034 102.869 -12.364
4.24683 81.7713 7.23527
-7.78672 124.787 11.8377
-3.49294 106.339 12.0556
-6.71759 148.923 -4.62959
-8.4687 139.075 5.34482
-8.57477 139.925 5.1277
2.75665 116.694 -8.87011
3.24389 84.8455 8.37727
2.16581 119.555 -8.99816
-0.79373 128.864 -7.14088
-8.44614 140.046 5.04526
4.97582 110.539 -10.5254
0.499103 91.4485 11.4262
-8.5881 141.564 4.71572
-9.18072 152.495 -0.140697
10.1079 87.1917 -9.31195
-0.958614 130.041 -7.07392
-9.45696 146.603 4.06647
-8.77597 142.757 4.646
9.241 94.2546 -11.0304
-4.11073 140.196 -5.00712
-5.48606 145.994 -4.97396
-0.24746 127.508 -6.95756
-6.12384 148.607 -4.68539
-4.04405 109.509 12.8802
2.55229 87.1419 9.77233
-7.50803 151.516 -2.83805
-4.75374 143.657 -4.98586
-1.44131 100.178 12.1197
-8.631 143.68 4.48817
10.7369 84.4941 -8.43276
10.5742 85.8984 -8.82166
-7.5934 136.603 6.16911
-1.45497 100.61 12.041
-6.2587 149.321 -4.3961
3.67103 115.748 -8.92183
9.44226 96.2931 -11.6964
8.31393 102.937 -12.5349
3.55064 116.8 -8.86744
7.2879 106.309 -11.8511
3.90619 85.5656 8.36932
2.7136 120.056 -8.62749
2.02776 88.7211 11.1362
10.6346 87.7891 -9.23657
-4.21326 111.445 13.2289
-3.09196 137.881 -4.73523
-5.95312 149.494 -4.28224
-5.23847 147.061 -4.58582
8.3929 103.486 -12.5744
-7.00046 134.956 6.72724
8.55385 102.884 -12.571
-8.76746 149.06 2.92421
-6.93314 136.243 5.87061
-3.0176 138.047 -4.63483
3.19834 87.0198 9.86331
-2.4813 136.117 -4.5793
3.14765 87.1709 10.0415
0.970479 93.3058 11.7999
7.10519 107.563 -11.3429
5.14479 112.985 -9.68957
12.173 77.8958 -6.40447
3.07666 119.746 -8.32024
-8.35349 151.805 1.00059
5.24241 83.6207 7.31849
-5.76372 121.527 12.2115
12.1909 78.3269 -6.50862
-1.09606 103.007 11.6926
0.73075 127.435 -6.67753
7.32249 107.911 -11.3924
-3.11184 140.1 -4.52193
-1.77063 135.252 -4.97769
0.326598 96.2766 12.472
-6.38623 136.48 5.62219
5.39009 83.9397 7.38337
-2.43287 108.195 12.6395
11.4886 86.1486 -8.47624
7.40418 108.581 -11.4038
6.91684 80.3684 6.11112
-7.03951 152.588 -1.63928
-5.17599 148.863 -4.012
-7.67229 145.397 4.12503
-0.144141 99.13 12.5411
8.50716 105.727 -12.305
-2.59765 109.016 12.9178
-5.77585 133.484 6.52572
-7.57638 145.987 3.92509
-6.03868 126.336 11.5958
-5.66568 132.511 7.1555
5.88838 83.945 7.26719
-6.62266 139.998 5.35481
9.04765 104.738 -12.3367
-0.736628 133.667 -5.19055
11.7605 86.8913 -8.50552
-1.63957 136.553 -4.4586
2.94523 122.313 -7.361
-4.16668 116.982 13.0422
8.07676 78.8683 5.28401
-6.63597 140.914 5.26693
-5.49658 130.932 8.29292
-0.251924 102.649 11.9601
9.39248 104.028 -12.2335
8.07662 108.662 -11.6753
1.20563 95.7999 12.4862
13.1223 78.0544 -6.15251
11.9103 87.3664 -8.53572
-2.11821 138.669 -4.00767
-5.20119 132.665 7.08672
-1.00847 105.669 12.4799
2.58476 91.6462 11.902
-6.86638 153.558 -0.785489
11.6691 91.0051 -9.69197
12.1566 87.047 -8.35096
-6.43414 144.539 3.80924
3.53908 89.1948 11.6766
8.72396 108.074 -11.7866
-6.44012 145.205 3.68402
-3.04378 114.974 12.9004
2.20378 94.0559 12.2168
10.506 101.322 -12.1717
11.7274 92.1336 -9.82107
-3.5728 117.014 13.0488
-5.42026 136.269 6.42955
-1.88989 139.427 -3.94069
1.22709 129.576 -5.73352
-1.27917 137.219 -3.99748
-5.37975 136.079 6.63579
-2.35903 141.748 -3.98502
-5.41402 139.074 5.18628
-5.20123 138.244 5.17358
-3.8753 147.907 -3.62929
-3.41608 146.17 -3.68912
11.7579 92.9889 -9.8594
11.3106 95.9021 -10.4433
-0.0279165 104.017 12.4804
-4.52282 123.045 12.493
0.68087 101.613 12.2138
3.69679 122.391 -7.06752
4.36031 88.1828 11.0947
11.2985 96.4716 -10.5661
1.46448 97.9245 12.6313
2.14709 95.5008 12.4077
11.5164 95.2153 -10.1754
8.0673 81.4121 6.40309
8.93272 79.4633 5.47209
3.50351 91.4765 11.9654
-0.407408 136.189 -4.25083
7.73353 82.8454 6.82265
-4.39277 123.966 12.577
-5.91293 146.838 3.10189
-1.66192 141.048 -3.83575
-1.13403 138.892 -3.80103
-4.5319 126.471 11.6873
-3.02857 146.525 -3.53492
11.5344 98.124 -10.9543
-4.73353 138.868 5.14457
-4.56019 135.007 7.1755
-2.96858 118.063 13.1632
8.96195 110.206 -11.1907
-4.6023 137.855 5.8981
-4.50686 129.837 10.2996
-4.49906 129.908 10.3097
13.7426 83.0547 -6.91981
-4.57179 137.002 6.50495
6.71384 117.462 -9.65809
2.23102 98.0932 12.4883
-3.50035 149.344 -3.14452
-5.31638 146.197 3.17562
9.02917 81.2432 5.84637
8.9711 110.865 -11.0822
11.4922 101.508 -11.7836
-0.887351 110.473 13.1681
-5.10995 145.057 3.51722
4.16593 123.564 -6.49566
9.43025 109.143 -10.9467
-4.51795 139.777 5.29223
-0.93296 111.335 13.0187
4.8097 90.1436 11.327
6.72604 117.971 -9.32801
10.1238 106.677 -11.0682
-4.06935 130.496 9.86089
3.45318 95.0861 12.0458
5.86255 87.3858 10.6361
-4.25101 137.265 6.49595
12.9489 92.1122 -9.18616
14.7144 79.5268 -6.05479
-3.77944 133.751 7.64498
7.65064 116.469 -10.148
-4.41975 153.585 -2.14928
-3.38196 123.812 12.634
8.38448 114.902 -10.7381
-1.76434 145.272 -3.46573
-3.93947 135.713 7.40095
-4.11676 153.196 -2.22571
4.64514 123.524 -6.35464
4.04902 125.41 -5.9613
4.52411 92.9647 11.7136
-2.47015 120.574 12.9057
14.9928 79.7537 -5.99159
7.15069 118.517 -9.20649
13.8274 88.2197 -7.92684
9.77535 81.6762 5.72024
9.10711 83.1572 6.51743
1.9652 102.744 12.6694
15.2368 77.8669 -5.15374
8.26539 85.0997 7.65938
-0.714968 142.396 -3.5547
13.2733 93.2201 -9.13046
7.82916 117.67 -9.98396
5.28562 122.483 -6.48153
11.4049 104.402 -10.9007
-3.07519 151.152 -2.63904
-4.06167 144.763 3.69403
-3.29308 134.319 7.87959
-1.40618 117.456 13.0744
8.7884 115.76 -10.7226
5.54867 92.1154 10.9248
-3.20654 127.842 11.5944
8.08748 117.699 -10.0168
9.17414 114.935 -11.0241
-1.56515 118.699 12.9303
2.97081 100.389 12.4841
13.454 93.7897 -9.19979
1.00175 107.816 13.0374
0.241442 111.136 13.0272
6.00519 90.7949 10.7553
14.8445 84.5208 -7.11884
5.14644 123.705 -6.14862
2.85406 131.455 -5.04451
4.5077 95.4949 11.7383
12.8837 98.9231 -10.5884
10.8253 80.0325 5.37303
-2.99857 127.954 11.4515
16.02 76.16 -4.8953
-3.37137 138.518 6.28604
4.09997 97.5383 11.8011
9.89113 82.8153 6.22252
6.32092 89.3681 11.149
-3.00474 127.474 11.8346
13.535 94.638 -9.36211
1.4162 107.312 12.8492
4.69362 125.722 -5.6768
9.54898 83.8996 6.67783
15.1446 84.2954 -7.05301
4.41413 126.851 -5.47494
-2.89546 134.026 8.29062
-2.34581 124.751 12.5331
2.71594 133.478 -4.81369
3.01462 101.953 12.6861
3.01417 102.003 12.6842
10.9138 108.801 -10.4067
15.0361 86.2014 -7.35444
4.38603 98.0098 11.7639
9.33457 115.878 -10.4953
0.95065 110.447 13.1332
5.51782 124.266 -5.86496
13.3222 99.268 -10.4057
5.07103 125.708 -5.56953
10.3928 113.521 -11.4599
-2.4128 126.64 12.295
-2.40509 127.386 11.8564
-2.20658 131.438 9.04172
16.2676 78.0067 -4.96196
4.96116 97.1034 11.5854
9.63677 84.8997 7.36059
14.7635 90.7774 -8.44284
10.0535 84.0252 6.92307
15.3559 86.3991 -7.3423
7.10859 90.5961 10.3592
10.4705 83.3318 6.47681
14.9756 89.261 -7.77066
3.60636 101.972 12.5518
16.7291 76.8812 -4.82471
7.82954 120.192 -8.15695
-1.65763 124.498 12.4432
-1.66083 124.56 12.4299
11.4658 80.9562 5.69108
14.7094 92.2696 -8.54673
-2.60465 143.445 4.05896
2.4636 136.52 -4.14464
13.1352 76.5947 4.50648
16.6542 78.0925 -4.91702
9.24261 117.477 -9.5892
7.66546 88.5706 10.9687
0.613299 143.371 -3.36191
6.62817 93.8195 10.7565
11.7155 81.2725 5.80181
6.62077 94.0948 10.838
-1.53746 129.181 10.4437
2.82664 136.46 -4.34192
10.7308 114.436 -10.8037
5.83491 125.919 -5.52527
-2.10312 153.417 -2.06956
16.5199 80.8946 -5.46031
12.3863 106.912 -10.3984
1.8764 110.866 13.0597
10.0878 116.325 -10.0156
13.6527 103.097 -11.0149
0.72836 144.412 -3.32985
12.3045 80.35 5.56468
-1.32774 129.161 10.5622
2.8034 137.575 -4.34399
15.4691 91.4632 -8.24243
12.339 108.014 -10.1796
6.01799 126.373 -5.40515
6.46485 95.9626 11.2564
8.45896 120.855 -7.96844
17.4298 77.5949 -4.79846
9.026 120.25 -8.97113
11.4048 113.71 -10.8303
16.8767 80.5398 -4.97489
8.58004 88.1393 10.8434
-1.58626 153.437 -2.11847
5.19082 130.153 -5.10705
7.93865 123.019 -7.63776
-1.07765 152.008 -2.44581
5.30951 129.889 -5.14167
4.76515 131.963 -4.96753
2.56165 110.204 12.9709
-1.12684 137.191 6.55237
-0.963555 127.447 11.9023
-1.19479 134.222 8.56837
4.18472 134.858 -4.88182
7.37609 95.1987 10.2695
14.4202 100.628 -9.87433
16.5245 86.7773 -6.92428
3.24231 108.562 12.8681
-0.510573 151.287 -2.63232
0.733726 119.506 12.7435
-0.973668 136.175 7.31316
16.1379 90.2576 -7.76879
8.58377 123.994 -8.80344
7.41921 124.915 -6.46876
15.1008 96.7008 -8.84935
2.24784 113.06 12.9755
4.02779 136.433 -4.82716
11.6406 83.6846 7.11799
2.26938 142.118 -3.73819
4.6737 105.077 12.1907
9.19141 123.684 -9.40428
9.13269 123.52 -9.15718
4.71331 105.165 12.2028
7.97097 125.646 -7.53325
3.71688 138.459 -4.57136
6.88692 127.29 -5.78136
5.97473 130.459 -5.35608
2.05523 143.835 -3.49911
1.07787 120.002 12.6723
-0.349066 128.552 11.2912
11.2246 85.4394 8.09117
9.71778 87.666 10.4842
3.80581 138.653 -4.54911
18.071 78.9032 -4.74354
1.6531 117.654 12.9007
5.99237 101.311 11.8597
-0.18361 127.266 11.8956
9.05738 125.046 -9.26886
16.097 93.397 -8.0969
-0.196617 131.756 9.456
12.098 114.29 -10.1213
5.38205 133.628 -4.95024
15.0271 100.921 -9.5204
9.41774 125.049 -9.76519
14.3143 106.035 -10.5805
15.5234 97.9635 -8.79096
18.1917 79.6773 -4.71772
4.78069 106.518 12.4649
10.4991 87.4171 9.59775
10.3685 122.753 -10.3758
3.37587 111.694 13.0216
18.6121 78.35 -4.63445
-0.242256 153.788 -2.32981
3.31848 112.237 13.005
2.35988 116.557 12.8946
6.59238 101.279 11.4625
12.1208 84.3313 7.82061
0.975791 123.174 12.5158
4.47083 108.339 12.5864
4.19033 139.18 -4.51548
17.6675 83.7277 -5.15531
14.7749 78.1104 5.36396
9.58587 93.2694 9.30825
6.7096 131.711 -5.87089
14.6908 78.4502 5.47911
14.6163 106.434 -10.492
18.3197 80.9841 -4.66554
15.4865 101.375 -9.51081
7.01565 131.071 -6.02806
6.84818 131.698 -5.92694
10.8834 121.567 -9.82318
2.04919 147.491 -3.20678
11.2465 118.782 -8.89639
17.0951 91.8729 -7.57161
10.4211 121.776 -8.59965
12.2311 115.531 -9.3921
10.5205 121.673 -8.71143
17.193 91.6333 -7.54685
11.9763 85.8086 8.57222
17.6688 87.8619 -6.44227
10.0574 89.2284 11.3282
0.648521 133.505 8.74901
0.598802 136.683 7.05795
7.66484 130.514 -6.56682
6.1242 105.101 11.9741
6.90111 103.146 11.2312
6.79678 133.48 -5.99955
0.759457 137.097 6.62562
14.9483 106.843 -10.3973
7.79935 130.47 -6.64717
0.744897 138.341 6.08132
1.82175 122.867 12.4286
0.856168 133.007 8.97967
5.03511 109.828 12.2747
0.937326 153.069 -2.69909
19.1766 79.5241 -4.53504
2.20874 121.608 12.45
0.950901 136.799 6.92815
19.0034 80.7876 -4.62769
3.32809 145.133 -3.64237
11.73 118.93 -8.8316
6.75645 104.939 11.3767
6.34391 106.259 11.6407
18.3742 84.6409 -4.94012
16.1376 102.315 -9.6996
11.6912 120.267 -9.24772
0.660459 142.49 4.87325
3.71389 144.708 -3.80349
1.12818 135.05 8.31692
14.1644 113.339 -10.8441
12.0672 119.243 -9.10275
13.1761 117.424 -10.6051
10.6764 90.5011 11.0282
16.7049 99.0027 -8.53795
4.70405 113.575 12.3754
13.706 115.119 -10.3933
3.84591 145.326 -3.73661
4.04645 116.526 12.5086
12.8314 85.8632 8.84645
1.78331 127.516 11.7193
8.82832 102.298 9.15986
19.9889 78.3075 -4.11896
12.6483 120.898 -10.8532
3.69417 118.066 12.6389
17.9658 92.4856 -7.20432
7.3047 106.292 10.7767
18.3242 91.0369 -7.14427
0.950367 143.615 4.7875
12.9641 121.055 -11.4005
11.1058 92.1265 9.91476
10.6254 128.559 -9.92091
7.21669 136.604 -6.21621
11.1679 91.8738 10.0495
3.92058 118.116 12.5619
5.76172 140.461 -4.72535
2.7143 150.505 -3.07024
11.9817 125.789 -11.3292
9.18508 131.026 -7.54171
18.5722 88.7639 -5.91186
17.6288 96.5563 -8.11423
15.392 80.7626 6.45969
1.99366 128.312 11.644
15.0514 111.783 -10.4629
20.3845 78.5832 -4.03652
12.0346 126.562 -11.4143
7.41042 108.109 10.5029
14.5587 114.3 -10.4213
9.35689 132.042 -7.90658
14.3059 84.1688 7.71337
6.09572 140.568 -4.83417
17.6884 97.8683 -8.32813
5.44355 142.647 -4.39531
8.94943 105.398 8.60753
9.19495 104.593 8.49066
16.012 79.9804 6.13486
19.9183 82.1982 -4.64274
14.1689 117.707 -11.0614
7.4898 108.844 10.3046
16.8573 104.623 -9.91313
15.4511 111.078 -10.1012
12.9308 122.616 -10.6009
14.9021 113.979 -10.3575
9.33944 105.191 8.29904
9.49422 132.912 -8.07629
12.7624 123.746 -10.6501
2.33954 132.373 9.7676
2.37521 130.26 10.9823
9.56405 104.755 8.22847
13.6551 86.0447 9.09426
20.9658 76.5579 -3.20904
20.0562 82.7858 -4.51025
15.2211 113.476 -10.3561
19.0059 88.2795 -4.97045
2.84046 127.527 11.7687
4.73665 146.683 -3.90056
11.7802 90.2233 11.6473
6.97729 112.174 10.6774
19.1058 89.4337 -5.66532
16.4094 108.307 -9.89094
9.84602 133.182 -8.27391
21.0689 77.6574 -3.47525
8.40673 109.102 9.193
16.0325 81.0568 6.84071
11.9176 93.9748 9.42021
18.2159 97.7009 -8.0121
9.66664 133.711 -7.97229
7.04507 112.673 10.5596
5.10556 146.531 -4.12985
19.1862 88.6729 -4.93648
9.99212 105.672 7.67194
11.5773 98.4149 8.0669
9.54939 134.214 -7.63533
10.3551 104.046 7.84147
14.1986 119.025 -10.1442
17.601 77.7999 5.40301
12.3059 129.156 -11.3597
4.1885 149.461 -3.26992
6.88238 114.506 10.3901
5.43548 119.698 10.9364
6.64374 115.529 10.4582
6.16663 117.235 10.6919
8.70548 137.948 -7.37676
2.83781 133.948 9.23187
7.07216 142.646 -6.06575
2.32081 142.461 5.61124
4.95828 148.053 -4.01638
6.25537 117.369 10.5735
16.2188 81.524 7.07477
11.8887 98.1765 8.01772
2.9259 133.848 9.29994
20.7 82.7383 -4.40406
10.4992 104.911 7.60476
5.66243 120.372 10.4651
4.2001 124.334 11.7767
18.8317 95.3415 -7.05442
7.84348 113.449 9.3463
8.1216 141.261 -7.34521
16.8217 80.3971 6.64563
12.9901 89.0423 11.0167
7.95142 113.501 9.19096
10.5039 133.625 -8.63379
15.9633 83.3329 7.16344
7.3751 143.027 -6.35683
8.17143 113.186 8.95917
9.39707 110.214 7.70286
7.47908 115.367 9.39895
6.51395 118.237 10.1147
7.96985 114.409 8.96617
6.08133 121.195 9.66948
7.98023 114.527 8.92476
18.048 103.407 -8.97436
6.14338 121.747 9.40699
5.34349 148.628 -4.12893
5.26108 124.217 10.1838
5.01041 124.848 10.5776
8.12815 115.234 8.55609
21.7545 78.7921 -3.48164
3.33433 138.597 6.79239
7.48384 117.988 8.65068
10.0712 110.688 6.57515
7.22015 120.129 8.10714
10.6729 134.878 -8.80142
4.4137 151.482 -3.16318
13.3448 127.993 -11.2701
5.35866 124.593 10.1423
7.86679 143.424 -6.80139
20.0026 88.4765 -4.58211
6.97913 121.342 8.14719
9.2877 112.956 7.38238
10.3445 136.394 -8.69433
17.0088 109.996 -9.64903
2.53376 144.371 5.73914
9.81837 138.181 -8.38038
11.5233 104.513 6.97566
3.65276 131.307 10.6772
8.50213 115.783 7.86403
11.2861 133.866 -9.32499
9.16285 114.68 6.93703
8.51119 142.332 -7.43719
11.8875 102.865 7.14281
13.0116 93.0396 10.127
9.72068 112.692 6.79237
6.98444 122.454 7.81349
5.93606 124.116 9.41927
18.9148 100.103 -8.22443
20.0524 88.9322 -4.52832
5.43261 125.1 10.151
12.3602 100.815 7.33498
3.87506 133.849 8.90965
10.8916 108.698 6.39221
12.557 100.015 7.36249
9.50374 113.546 7.01318
7.7908 120.795 7.04757
7.3408 122.316 7.26547
11.4403 134.238 -9.50235
16.9236 82.1468 7.25611
4.02094 130.153 10.9412
9.21719 141.45 -8.1552
19.2885 96.522 -6.68382
14.4135 123.084 -10.0899
11.7188 133.858 -9.75016
17.2242 110.827 -9.80547
10.2145 139.272 -9.13629
14.7867 119.807 -9.01279
4.29471 135.128 7.66121
8.23547 143.994 -7.03495
13.2431 93.5881 9.95132
13.1503 95.5513 9.12812
3.72689 138.923 7.01788
13.7578 126.864 -10.3567
19.59 95.4088 -6.28563
13.0895 97.123 8.59438
13.8575 89.3315 11.2408
8.86934 119.173 6.15031
14.9285 87.0705 10.004
13.384 91.6255 11.1452
4.80306 127.827 11.2641
9.42062 117.79 5.84802
7.18646 123.776 7.82973
13.6626 126.488 -9.46742
17.0391 83.4463 7.26072
22.0881 81.6522 -3.90644
22.0854 81.7055 -3.92145
4.03698 138.438 7.22683
17.5963 110.72 -9.7477
16.4949 116.592 -10.3534
7.6556 123.603 7.17251
19.2235 101.04 -7.85871
17.2692 83.1938 7.27136
8.57541 122.376 5.8361
8.01604 123.713 6.42724
4.83208 134.024 8.22087
4.44999 132.456 10.0564
18.6511 104.609 -8.26951
6.07182 126.515 9.68752
5.33047 152.023 -3.22927
4.68173 135.779 7.75112
13.1811 100.381 7.53587
12.9966 101.822 7.177
8.6492 122.762 5.66679
9.96535 118 5.2268
17.4901 82.7615 7.28832
18.6572 104.966 -8.27712
16.7394 84.507 8.21836
7.44557 124.538 7.74858
19.7948 97.7758 -6.81458
4.87364 135.432 7.81113
8.43136 124.229 5.72689
22.2998 82.1808 -3.71847
14.3885 128.025 -10.9118
20.4317 92.832 -5.27636
14.2469 123.193 -7.68309
5.10648 130.277 10.4827
13.5943 98.0954 8.49855
13.0908 103.011 6.9578
13.0964 133.356 -10.5762
13.7464 96.4544 9.18509
13.6727 97.605 8.75041
15.2448 120.556 -8.31118
9.60787 121.572 4.83266
20 97.3913 -6.48039
15.74 86.8478 9.98358
18.7624 79.5331 6.86569
6.60584 127.028 9.02026
4.56763 138.176 7.55203
12.401 136.629 -10.5665
19.8123 100.399 -7.58973
8.73983 124.994 5.16701
11.5902 112.821 5.28943
19.2744 78.6292 6.43011
13.3592 132.808 -10.4524
13.712 99.2285 8.09015
14.6718 121.794 -7.16817
14.1613 92.9325 10.7543
13.4941 132.543 -10.4468
13.8131 98.7616 8.32343
7.29681 126.514 8.21774
4.9745 137.439 7.59252
9.968 121.839 4.49671
19.3336 78.8199 6.56414
9.0773 125.111 4.84986
11.4996 139.495 -9.30655
15.0258 121.244 -7.32703
8.35908 125.874 6.24922
11.5568 139.364 -9.29017
7.28192 149.717 -4.78001
4.584 140.333 7.23386
11.3673 115.709 4.95342
5.01263 154.322 -1.8425
12.444 110.531 5.47377
8.34705 126.194 6.40711
10.2714 121.533 4.44642
9.82377 144.463 -7.68616
9.63405 124.553 4.39889
18.613 81.317 7.53688
18.1724 83.5074 7.41026
17.9157 112.426 -8.53374
7.16175 128.605 8.35081
9.57844 145.53 -7.28021
22.8607 82.3839 -3.11312
19.3267 103.754 -6.83873
21.2039 91.2112 -4.14595
18.5671 82.4534 7.4085
15.6965 118.683 -6.51544
16.7981 116.123 -7.70873
19.9537 101.568 -6.96002
23.2185 81.1968 -3.1292
15.3703 119.758 -6.24428
13.6212 134.001 -10.2092
10.0819 124.328 4.02382
20.6359 96.7364 -5.69902
21.0143 93.0964 -4.45228
10.1815 144.337 -7.68543
19.3221 104.39 -6.84199
13.112 136.756 -10.4195
15.1124 121.25 -6.26341
6.21523 130.954 9.83634
11.9381 115.527 4.83111
10.4507 143.848 -7.88182
14.6011 94.9906 10.2608
9.5286 146.447 -7.09339
5.4982 138.904 7.08771
13.3944 136.149 -10.4735
15.4436 120.03 -6.00229
10.4943 123.685 3.93737
7.61424 150.645 -4.56392
16.8527 87.2713 9.7555
8.93136 127.809 5.62829
9.1386 147.908 -6.48088
14.7832 94.1605 10.8472
20.3287 78.3794 6.4739
11.1153 121.304 4.25358
14.6247 98.3892 8.95863
11.3253 142.314 -8.35174
20.9742 77.3387 5.77584
17.228 115.904 -7.33813
10.4445 125.748 3.62798
6.70146 134.622 7.85262
20.0673 102.651 -6.17236
12.2386 117.187 4.51883
11.5386 120.812 4.18898
15.6835 90.4929 11.6206
14.4596 132.126 -9.43532
14.5658 131.727 -9.33383
14.943 97.1457 9.79925
11.2119 123.217 3.83247
23.0882 84.482 -2.60355
24.3672 78.8126 -2.38774
19.7586 104.545 -6.03162
17.7162 121.792 -11.0145
19.3171 107.853 -6.84061
16.5503 117.822 -5.78083
17.3774 123.069 -10.7954
7.39817 131.777 8.55578
13.6748 110.578 5.60806
14.5142 104.667 6.98392
19.5674 107.208 -6.76592
9.95122 147.679 -6.69886
5.2592 143.209 7.30259
12.5263 117.842 4.33928
22.3441 90.6366 -3.80857
7.34993 132.1 8.75535
15.1641 97.9299 9.53821
10.7437 127.357 3.35777
5.78397 141.725 7.19146
5.32175 143.506 7.39684
16.9306 123.026 -8.99659
6.85746 138.486 6.58628
18.5857 113.225 -7.35398
19.3149 84.0629 7.72478
24.0833 82.1587 -2.77363
17.8249 123.502 -11.4059
16.2287 90.5313 11.5492
19.3008 120.918 -13.364
15.2065 127.318 -7.03824
12.5352 141.075 -8.47902
14.9826 102.86 7.63749
15.0885 101.71 8.06129
8.80597 150.937 -5.07642
7.33595 136.252 7.03633
15.2096 100.915 8.34101
16.9891 123.641 -9.098
9.19995 150.339 -5.54124
9.6716 132.166 3.82639
16.9508 116.739 -4.90673
8.77227 133.294 5.42978
7.23254 137.547 6.7528
15.8545 92.5071 11.7954
12.0711 122.383 3.75939
15.2484 129.572 -8.09374
16.5615 125.63 -8.99702
19.3874 121.29 -13.351
15.8067 129.002 -9.08303
15.4321 127.294 -7.17804
18.7059 122.634 -12.2569
14.8564 129.904 -7.08828
7.41391 133.481 8.95831
14.5646 129.903 -6.34559
10.8406 146.816 -7.04156
15.859 127.817 -8.27018
11.2083 128.088 2.90284
6.36759 140.982 7.24963
17.9877 121.309 -9.65049
13.536 115.16 4.74822
17.4892 125.55 -10.8636
15.8302 128.26 -8.38944
5.72177 143.31 7.55275
7.4988 137.123 6.84562
14.4885 130.06 -6.05497
10.2493 148.658 -6.45725
18.0674 115.263 -6.14143
9.07986 130.523 6.91199
15.7972 125.124 -6.2466
14.3763 110.206 5.85049
9.7675 149.848 -5.74582
17.3923 122.607 -8.45333
12.7322 141.972 -8.22534
19.1908 112.519 -6.92159
19.067 86.351 8.4998
16.9781 117.832 -4.53414
16.5128 126.823 -8.55463
11.3628 129.009 2.72638
9.30093 134.125 4.80844
13.4296 117.536 4.36368
19.4533 122.455 -13.0948
15.8947 128.077 -7.64716
11.2435 129.848 2.64725
15.6273 131.071 -8.65792
17.1604 125.845 -9.35409
8.67625 133.225 7.03042
13.1958 118.979 4.265
11.4118 129.376 2.66079
15.5933 131.462 -8.70471
6.26777 143.269 7.18757
6.42183 155.228 0.000501482
8.94589 132.56 6.981
21.1862 79.6375 7.77787
21.2082 79.5776 7.76044
13.5148 117.908 4.35415
14.9899 130.078 -6.23726
18.6807 114.841 -6.33809
15.2068 129.635 -6.42281
22.5676 93.5266 -3.46168
13.0818 120.703 3.99369
16.7752 122.954 -6.25919
10.9238 132.135 2.68315
9.44677 136.711 3.64053
9.66445 134.773 4.25444
18.1103 115.595 -5.10087
15.7225 131.812 -8.6543
19.8559 122.263 -13.1855
19.7611 109.537 -5.59549
15.8499 125.201 -5.11165
16.109 96.1839 11.0269
8.88023 132.557 7.71789
15.211 130.465 -6.45384
18.334 89.013 9.98828
10.0665 136.178 2.91966
13.6387 118.756 4.32227
9.57348 137.156 3.59003
8.96429 138.395 4.39032
9.21253 135.692 5.35477
9.19829 135.61 5.45064
16.1392 98.3117 10.1174
15.0103 110.175 6.02751
15.6951 132.619 -8.54076
19.9043 109.961 -5.65435
20.4592 83.8311 8.09463
18.1723 121.903 -8.3264
17.0966 128.402 -9.45331
14.8759 137.592 -9.33818
17.866 122.214 -7.67432
20.1541 84.9357 8.28711
8.78737 134.558 7.28162
14.4003 114.872 5.0368
22.251 99.8596 -5.34621
16.7347 129.252 -8.8949
24.555 84.2301 -1.90347
16.4834 130.598 -9.03732
16.709 129.386 -8.86803
15.2197 109.642 6.18387
15.1257 128.414 -4.31681
22.4103 99.268 -5.12675
10.4261 136.399 2.59791
16.2556 124.731 -4.83465
18.5944 89.2391 9.99756
15.8084 130.685 -7.11458
9.37548 151.606 -3.54228
17.6665 123.035 -7.19709
16.9402 126.771 -7.46725
18.4565 121.964 -8.36158
8.71851 135.749 7.41577
16.2134 103.092 8.08756
9.4436 136.339 5.39575
16.4818 129.864 -7.95677
15.865 133.678 -8.64117
8.86903 140.144 4.64767
10.8536 135.625 2.49846
15.2788 132.994 -6.73496
17.7361 116.895 -3.38562
11.0065 134.983 2.69242
25.535 82.5344 -2.34753
17.3669 92.3588 11.8503
18.8144 89.4329 10.026
21.9786 79.7449 7.95135
16.538 131.925 -8.94644
9.71094 138.731 3.78401
16.4465 130.329 -7.74152
15.7566 125.827 -3.43959
19.5478 125.531 -12.4879
22.7632 97.7123 -4.23896
18.0349 122.844 -7.24352
15.8314 133.905 -8.21398
8.72446 138.239 6.67795
10.6941 137.204 2.50106
14.7939 115.709 4.9701
18.6538 127.723 -11.3223
9.39122 152.072 -2.84873
9.3895 139.828 4.23212
24.9868 84.6332 -1.62422
7.92523 142.939 6.21916
18.9481 127.406 -11.6034
16.3761 129.552 -6.57314
26.4224 78.6338 -1.42179
20.4706 123.097 -12.5556
17.43 93.7884 11.7768
19.544 120.826 -8.96585
16.0168 129.233 -5.2288
7.2295 144.184 7.52986
15.5583 131.956 -5.58401
16.7263 129.896 -7.19062
19.0464 121.69 -8.07263
8.94415 145.266 2.91602
16.0793 129.301 -5.19483
20.7662 121.948 -12.3363
12.8499 146.319 -7.04807
16.1107 134.567 -8.13162
11.5798 136.048 2.0527
20.7201 122.496 -12.3506
15.5163 126.648 -2.08327
19.7955 114.445 -5.44314
9.35785 137.215 6.85187
16.4614 107.125 7.01339
8.9649 139.65 6.47477
26.5682 79.4446 -1.57633
10.5744 150.385 -3.61656
9.82521 140.988 3.6343
14.8841 117.789 4.74291
20.5338 112.115 -5.71067
8.32864 143.016 6.16341
17.1359 96.5457 11.611
8.99992 144.942 3.45571
20.7817 122.587 -12.2871
16.4743 125.272 -3.29799
16.0603 110.474 6.28484
20.8297 107.946 -3.84081
13.5832 126.275 3.22968
13.9167 124.496 3.45869
9.59621 136.287 7.16172
14.7154 140.283 -7.50162
10.6318 139.21 3.05494
20.0495 88.7757 9.28329
17.8604 93.7145 11.8181
22.9127 100.717 -4.47535
8.94016 148.175 2.17657
12.3808 134.107 1.93442
16.5699 131.044 -6.44337
26.8488 78.6894 -1.20881
17.7607 94.5625 11.7839
9.38034 145.927 2.53165
16.9125 133.738 -8.71246
14.5389 121.303 4.2542
20.7684 108.968 -3.76057
16.2587 110.421 6.4048
12.33 147.918 -5.66651
19.5844 121.061 -7.77925
9.30436 141.541 5.45412
20.5973 113.435 -5.76728
16.1328 134.847 -7.19297
15.3474 139.144 -7.76066
19.3672 90.5042 10.5658
16.4186 129.679 -4.8171
16.5214 129.054 -4.68064
15.9898 126.387 -1.83761
16.2423 111.365 6.23733
22.1932 81.7947 8.88188
17.2786 133.507 -8.98787
17.3471 133.456 -9.04966
13.5823 128.525 2.9571
9.37997 143.975 4.26022
8.52069 149.079 3.40926
19.8975 90.0043 9.86167
22.24 103.597 -3.66824
15.7846 127.387 -1.70215
12.2851 135.687 2.02651
15.7647 128.176 -2.08308
9.75822 138.204 6.73717
16.2797 126.114 -2.09098
9.10766 142.043 6.16818
20.097 89.9299 9.68847
26.6026 82.6242 -1.91053
8.88988 147.442 3.76363
16.247 125.916 -1.68557
15.8462 127.681 -1.71507
20.8319 87.5734 9.3658
8.45647 148.69 4.19406
16.1906 129.719 -3.63227
19.6716 90.6616 10.5304
12.3178 136.436 2.00965
9.52604 143.751 4.60243
8.27108 152.51 2.60125
23.7193 97.8693 -3.4096
15.7772 115.95 5.4752
21.531 107.189 -3.45575
16.4411 111.859 6.26268
8.66325 151.425 2.34707
17.6171 131.03 -7.64294
14.2988 143.895 -6.95648
16.8884 126.087 -2.96376
16.6948 133.47 -6.75069
26.0797 84.7468 -1.43793
19.0587 118.435 -3.80059
21.0654 112.441 -5.21312
18.0433 95.8129 11.7534
14.015 127.46 3.29614
15.361 119.023 4.91741
10.8908 150.896 -2.60465
18.6781 131.592 -10.3865
9.72237 140.24 6.4058
16.0881 114.52 5.80421
14.2274 126.59 3.39075
16.241 126.972 -1.71372
17.2318 134.543 -8.44171
16.0274 127.359 -1.34881
21.0868 124.278 -11.8345
11.1672 141.717 2.29267
8.8567 151.827 2.10742
19.055 116.517 -2.25929
16.9357 127.308 -3.17957
17.3616 107.421 7.28597
27.2282 81.2546 -1.53928
9.04009 154.396 0.487271
16.3845 129.971 -3.2188
13.8174 145.753 -6.06217
21.3994 123.582 -11.5866
17.676 105.537 7.93311
11.7652 150.053 -3.38236
14.3603 144.354 -6.39314
17.8718 129.408 -6.28752
22.5654 104.605 -3.37244
9.30716 151.789 1.66819
17.8113 101.358 10.1545
16.3396 138.187 -7.50451
23.1687 81.2883 8.75653
22.8752 103.265 -3.20236
9.57018 150.86 1.68149
8.98607 153.11 1.83133
21.5349 108.463 -2.90697
17.3706 125.352 -2.52795
17.5259 125.251 -2.83544
22.7242 82.4926 9.23142
9.74591 144.44 5.05226
18.1283 124.208 -3.63345
22.278 84.6978 9.18344
16.3688 127.985 -1.41134
16.9903 125.765 -1.61562
19.4012 116.321 -2.02073
23.1409 82.1614 8.63816
17.943 101.232 10.3438
21.8603 122.198 -11.2547
16.565 126.628 -0.910157
16.6787 113.793 6.236
16.4667 127.513 -1.16387
14.5123 127.623 3.54332
19.5184 130.926 -10.5306
17.9793 101.1 10.457
23.775 80.3894 8.34513
14.9473 125.49 3.77874
14.2981 129.026 3.37248
17.9334 128.121 -4.93965
17.7257 128.12 -4.41466
14.5652 127.71 3.57075
19.6401 118.814 -3.61196
19.7325 115.952 -2.1548
18.1237 125.914 -3.9766
21.305 125.611 -11.5385
11.7709 150.354 -2.62164
23.6246 101.475 -3.22721
17.7163 125.165 -2.43059
25.9577 88.7846 -1.43327
21.6533 108.907 -2.58219
22.7101 83.9731 9.27351
15.1674 143.173 -6.54484
18.8221 124.089 -4.40921
23.5739 101.776 -3.05094
17.4334 125.847 -2.00724
18.046 106.416 7.76252
22.4784 84.9857 9.36444
9.95664 144.646 5.50761
15.6989 121.231 5.06257
18.8915 123.891 -4.19642
17.216 135.775 -6.92438
20.1753 121.473 -5.84665
16.633 115.531 6.20157
12.7438 140.185 1.48316
16.9972 126.398 -0.844118
18.0633 125.161 -2.64655
23.6129 82.7273 8.44189
22.4022 85.9023 9.57159
15.7372 141.343 -6.142
19.1692 126.62 -5.9797
16.7589 127.249 -0.439905
17.8902 132.88 -6.43063
19.2055 96.1292 11.6299
14.2645 131.367 3.32091
19.8115 122.807 -5.1956
14.0224 146.803 -4.94986
10.7126 149.707 1.45273
26.0623 90.4754 -1.67385
26.2885 87.8015 -0.591304
12.5149 142.277 1.46438
22.1012 87.4891 9.87458
19.2366 125.504 -5.0821
21.8233 113.507 -4.39907
13.9992 133.555 3.0722
15.6348 142.238 -5.90989
22.2403 122.472 -10.5232
21.8505 124.984 -11.0217
18.5317 102.851 9.87641
28.1312 81.5524 -1.16838
19.2792 125.271 -4.8679
19.947 122.517 -4.87051
21.8701 113.434 -4.29134
22.0326 109.574 -2.43244
19.3573 133.773 -9.89204
26.3579 88.8872 -0.973047
23.378 104.631 -2.80413
20.194 121.371 -4.70501
19.3287 124.975 -4.60044
19.7432 123.121 -4.47077
27.751 84.1378 -1.42924
13.7761 136.932 2.08283
18.8175 100.14 11.0859
22.2448 123.593 -10.7373
15.0148 128.804 3.86347
13.8738 135.893 2.60391
24.9982 79.903 7.88523
18.2 135.106 -7.43768
13.9579 135.693 2.60251
13.511 149.25 -4.08891
26.6105 87.0669 0.00679421
15.4604 143.913 -5.6283
22.3015 108.675 -1.86459
19.8345 95.661 11.6609
18.4454 107.658 8.1267
19.9908 121.47 -3.60842
24.0912 102.201 -2.43876
11.9121 151.672 -1.17419
15.3062 128.07 4.2857
22.3231 88.8006 9.91158
16.2323 121.011 6.30207
21.8704 113.949 -3.30908
13.8383 136.536 3.25353
21.1253 114.954 -1.95887
21.3803 114.603 -2.36625
22.6427 87.8814 10.0091
11.5142 152.785 -0.399697
12.5327 145.515 1.35485
15.8037 143.761 -5.47132
16.9343 117.943 6.68865
13.9579 135.319 3.96667
17.5235 127.299 -0.0585555
13.9221 138.5 2.2435
16.6992 119.285 6.62563
14.564 146.791 -3.99417
22.4433 111.57 -2.80382
20.5119 117.448 -1.49209
19.5977 135.232 -9.44787
13.6503 140.024 2.30846
15.9776 122.769 6.69595
17.7288 127.23 -0.08675
14.5241 133.911 3.87912
12.6865 150.858 -1.35588
13.6533 149.838 -3.08551
20.4941 122.675 -4.02647
22.6312 109.518 -1.60842
18.2959 137.308 -7.091
19.261 102.208 10.834
14.8435 146.626 -4.06237
19.7073 99.2894 11.4582
12.7866 145.439 1.65487
19.0564 125.216 -1.87406
19.5756 100.081 11.412
17.2524 117.002 7.32655
19.2789 102.675 10.6787
19.2733 102.947 10.5726
19.6455 99.913 11.4555
25.4595 81.2969 8.06976
11.5846 153.433 0.251809
22.2488 126.216 -9.93694
21.977 127.356 -9.90259
26.9593 90.9919 -1.01244
13.8769 135.395 5.18882
19.3785 135.82 -8.39526
14.8133 132.882 4.42226
21.8889 114.469 -2.1367
15.5756 128.929 5.0235
15.3333 130.414 4.77451
19.9553 135.171 -9.21285
18.0565 112.923 8.27332
18.2896 138.232 -6.86621
13.957 137.777 3.94527
17.5402 115.87 7.90507
13.6831 141.047 2.76923
17.3244 117.467 7.53419
15.9895 144.397 -4.73632
15.4314 130.121 4.93602
15.563 145.921 -4.41814
21.031 131.559 -9.38003
20.6712 122.683 -3.36542
15.1708 131.853 4.74188
20.7343 122.55 -3.29774
13.9775 133.989 6.55321
21.4684 115.34 -0.850891
15.7455 128.785 5.3101
14.091 133.598 6.61242
16.3755 122.482 7.48592
19.946 124.341 -2.19709
12.1266 150.657 1.62614
20.0258 124.407 -2.42318
18.137 113.398 8.53487
21.5959 129.936 -9.36915
12.0254 152.818 0.738587
26.7444 94.0334 -1.08811
18.0727 113.927 8.54636
23.5153 88.2636 10.1559
14.0132 138.072 4.53095
15.7784 129.047 5.46408
14.3021 133.137 6.7184
15.9961 127.671 5.85155
12.2111 150.854 1.67272
22.9366 122.785 -8.193
17.3246 118.754 7.79289
20.277 100.532 11.2107
21.3306 96.5125 10.9946
18.4788 112.534 8.72138
24.9876 84.5817 9.04091
14.964 147.754 -3.02839
14.0518 140.736 3.27872
16.6939 121.74 7.84095
17.0432 142.806 -5.12014
14.1295 140.483 3.32695
25.0551 84.6324 9.02299
17.3218 141.49 -4.98031
21.1771 132.216 -8.96741
17.6075 140.875 -5.2007
16.542 122.647 7.97013
29.4065 81.1499 0.682382
19.2628 126.79 -0.899653
19.99 125.392 -1.78689
27.6661 89.2226 0.460511
16.2822 125.045 7.48997
24.1304 87.7585 9.98214
13.5198 151.154 -0.812396
25.3601 84.7626 8.75013
23.4249 109.625 -0.798709
21.7139 115.534 0.00235238
24.0785 107.174 -0.882021
21.9474 95.127 11.2641
26.9076 96.0397 -1.19568
15.2674 147.758 -2.68211
22.3294 127.727 -8.27056
22.3881 127.187 -7.99273
15.013 132.837 6.76062
23.0869 123.892 -7.6675
21.115 99.3056 11.3446
15.0418 148.807 -2.45812
28.6175 84.3978 1.73367
13.1064 152.74 0.0325141
23.6321 109.381 -0.527123
20.6363 124.566 -2.00658
20.531 124.619 -1.74248
27.2353 95.1039 -0.86507
13.9178 151.02 -0.692777
23.0049 120.958 -5.38732
21.7758 115.875 0.54053
14.5219 149.899 -1.45983
20.0671 125.815 -0.951308
20.4733 137.237 -8.52723
21.8687 131.646 -8.66615
16.4197 125.767 7.99545
18.1977 141.444 -5.3127
15.1548 134.332 6.21952
21.4126 121.19 -1.37519
21.077 124.47 -2.41493
17.7451 142.922 -4.93199
21.2173 100.952 10.869
27.666 92.7163 -0.0309038
21.7743 121.812 -2.49415
21.1561 124.19 -2.26832
15.7469 133.406 5.58857
13.344 152.073 0.695695
13.4312 148.76 2.42772
16.4726 126.615 7.84036
22.4113 129.14 -8.05021
18.0377 131.349 1.31918
22.4253 97.1068 10.4847
20.0078 127.098 -0.936441
28.756 84.7286 2.30766
16.4891 125.669 8.50687
21.5654 99.7403 11.1358
25.1242 105.684 -0.900278
25.1598 87.2577 9.74145
19.8801 109.509 9.73591
23.9522 109.033 0.11251
27.36 81.5413 7.79686
17.3565 121.743 8.92793
22.1462 131.451 -8.32633
23.2903 93.8386 10.6265
28.7621 84.8509 2.5278
23.8119 92.2882 10.2805
25.3248 87.1195 9.68075
15.2418 135.568 6.23161
28.7041 85.9929 2.1177
27.1873 84.428 6.73483
21.4913 133.726 -7.83635
25.3415 105.119 -0.659118
19.9487 127.98 -0.606692
30.3699 79.5829 2.01628
20.9289 121.522 0.768573
20.908 125.78 -1.62195
23.8014 92.8821 10.3461
23.3997 121.002 -4.91436
22.0962 116.275 1.00894
18.4408 130.496 1.70902
27.6788 83.8387 6.21127
22.2925 115.772 0.874371
13.7427 148.744 2.63645
21.9702 118.197 0.324424
20.8156 121.01 1.52736
27.352 97.5762 -0.831669
14.2729 151.641 -0.208969
23.3328 126.149 -7.46851
27.8696 93.773 0.254637
20.8655 106.429 10.0248
18.538 130.397 1.85921
27.3702 97.7603 -0.733531
28.5472 90.7772 0.467325
16.4716 132.282 5.95653
21.555 122.613 -0.779395
16.8186 131.661 5.54217
26.5808 101.218 -0.609243
