ply
format ascii 1.0
comment Created by Open3D
element vertex 1949
property double x
property double y
property double z
end_header
16.4394 92.222 -2.95346
-0.860135 99.2191 12.622
-18.1692 112.167 17.0871
18.6788 78.829 18.4511
-14.5221 107.928 19.0051
-9.06323 103.763 17.7658
-10.0246 114.99 -1.64087
-23.1296 123.01 5.15188
15.7994 93.1775 -3.5043
-20.5131 121.914 3.01848
-21.2429 121.77 4.54689
-8.92598 103.858 17.704
4.92977 104.64 -6.71868
-7.12271 102.025 18.1775
-20.5058 121.932 3.13638
18.5156 89.2568 -0.332272
-26.5414 125.707 6.15045
19.4834 84.2763 7.44417
3.56447 106.016 -6.80182
11.4308 84.4477 20.562
-5.33637 111.097 -1.52926
8.68476 86.333 21.6191
-22.3352 122.679 4.99486
-24.1326 128.239 -2.4171
-22.4087 122.747 5.02282
-21.3747 122.422 3.93877
-2.50741 109.853 -3.74813
-17.6686 122.191 -1.64754
-5.23888 111.125 -1.50583
-19.6401 121.212 3.4892
18.4215 88.6182 1.46282
-10.5698 105.496 17.9162
-13.305 107.621 18.5195
2.47777 95.0005 16.0746
15.982 80.7866 20.3562
17.6798 79.5347 19.991
18.4258 88.6958 1.64804
18.8658 86.5417 5.00834
-14.6231 108.825 18.8447
-4.77984 101.911 15.502
-18.253 113.026 17.051
-16.6697 122.288 -2.89996
4.28658 91.8892 19.3154
20.1206 80.7166 13.9931
-19.0612 121.695 2.22923
-25.1266 124.861 6.37851
18.8526 80.1978 17.2164
19.1452 85.7921 6.26793
14.2599 82.9172 19.7458
8.34332 87.3889 21.3015
-18.4138 121.398 1.98931
-18.5933 116.21 12.0184
-26.6127 126.723 5.67941
-27.4463 128.479 3.81894
-20.0943 125.597 -2.93521
-20.2042 123.068 2.03763
-25.1426 124.677 7.28217
-19.8408 124.896 -1.89009
19.3762 85.456 6.96364
-6.93127 113.238 -1.44742
9.42725 101.803 -7.14122
-18.6155 123.064 -0.445013
0.577065 99.076 12.6878
-21.9778 122.433 6.37667
-24.7448 124.658 6.85146
19.6901 84.2911 8.80107
18.1358 79.9648 19.5336
-21.2676 123.233 3.87271
-1.24519 110.031 -4.59021
3.39892 107.229 -6.91717
20.2015 81.6118 13.2062
-20.8506 127.146 -3.94883
-21.9518 123.457 4.82901
-18.8627 122.569 1.37575
19.1598 86.2595 6.36425
-18.7891 123.87 -1.12639
-18.5748 114.056 16.8911
-22.7343 128.377 -2.94465
12.2999 99.0974 -6.14502
-27.1163 128.316 4.49523
-21.2633 122.339 6.03339
-5.59874 112.417 -1.33157
-18.9585 122.806 1.37445
-20.8936 121.708 6.65412
-16.7923 112.05 17.9586
-24.2507 124.322 7.41895
-19.7861 118.865 10.2398
-19.4479 122.602 2.69827
12.8972 98.5062 -5.78964
-14.2959 109.513 18.7102
-14.3695 121.169 -2.95558
-21.2294 121.982 6.8949
18.9902 80.9939 17.0086
1.40874 98.8652 12.8126
11.1987 100.58 -6.58348
14.1975 83.8196 19.8445
7.43038 90.5675 18.4528
-6.42309 113.409 -1.27779
-21.267 124.258 3.05564
-13.014 120.066 -2.76406
-22.1421 123.725 5.51792
-21.6755 123.822 4.5714
5.88434 91.7073 19.0843
-4.70085 102.79 15.9294
12.523 85.0836 20.5991
-18.2834 122.73 1.17875
19.559 85.8781 7.52582
-18.4151 123.921 -0.741275
9.69932 87.306 21.4512
1.87225 98.7667 12.986
-6.57434 113.841 -1.21702
-11.7579 119.068 -2.32255
-2.41775 111.482 -3.59669
-19.5484 126.287 -2.85343
3.13633 96.5111 15.3473
-16.5127 122.839 -1.36161
5.33501 106.544 -7.03728
-18.4857 116.672 13.4812
-4.76508 103.05 16.2443
13.5781 84.6078 20.3764
-19.6321 126.935 -3.75793
-19.626 126.93 -3.75491
-20.9781 124.016 3.99127
-19.2981 118.291 11.9391
-18.2423 123.485 0.469639
8.20595 104.116 -7.09288
5.52062 106.474 -7.0195
7.70349 90.7115 18.9169
-20.1036 122.936 4.71454
1.86698 99.2664 12.7764
-4.6228 112.485 -1.20188
-18.0398 123.273 0.868578
-18.7807 125.527 -2.0859
-22.4387 125.911 3.27748
-20.7877 122.315 7.31719
-13.4742 109.889 18.5502
8.99714 103.792 -7.23974
17.7819 92.3598 -0.336984
6.34704 92.127 19.0562
-21.22 123.097 6.82408
-27.0648 130.003 3.60311
7.71544 91.1368 18.7356
-24.578 125.667 7.62093
-18.6366 116.004 16.0642
-26.4786 130.922 1.20107
8.0581 90.6746 19.3119
-18.6779 125.631 -1.79994
-22.5084 124.207 7.30341
8.29882 104.533 -6.91868
-17.8309 123.807 0.310286
-8.78417 106.621 17.501
-0.2261 101.787 12.3832
17.274 82.868 18.8349
-24.3411 125.61 7.78956
1.55397 100.223 12.4107
-13.2319 110.072 18.4787
8.24249 104.615 -6.88357
6.50046 106.126 -6.81758
-12.8103 109.712 18.5189
18.7726 81.7966 18.5178
-20.8259 129.009 -4.21631
-21.1349 123.687 6.31531
19.4611 83.4343 14.5553
2.59828 99.2068 12.9929
-3.03657 103.6 14.1625
10.8473 87.38 21.541
-14.8569 123.491 -3.4547
1.60728 110.195 -5.84402
-3.8614 103.665 15.4602
-6.96397 115.219 -1.02342
19.5672 83.5469 14.3216
-22.9334 124.794 7.58687
-21.7755 126.282 2.8875
20.553 83.9327 12.0855
17.4263 93.9573 -1.4695
-20.2735 128.913 -4.39935
-24.1868 125.872 7.79424
20.5666 84.1959 11.6769
-21.5291 125.81 3.56413
-10.1859 118.588 -1.64731
-18.5272 117.469 14.3464
-13.9374 111.344 18.2631
-21.3268 123.805 7.24287
3.7229 97.0104 15.946
-3.51615 103.866 15.1184
9.08587 89.588 20.97
-18.442 117.677 14.03
3.49662 96.299 17.8373
-14.9346 112.43 18.1957
-19.6418 119.936 11.9713
-10.9695 119.675 -1.89625
-20.7859 129.365 -3.7592
19.8402 85.922 10.2871
-19.5469 119.782 12.1819
-14.1834 123.701 -3.74178
-16.0149 113.984 17.4874
18.1894 83.1533 18.5518
-15.7638 124.507 -2.59052
8.52719 91.3473 19.246
-1.2534 112.847 -4.78816
18.9944 89.5108 5.34747
-12.6409 121.93 -2.89516
-18.503 117.916 14.3367
11.4436 87.6571 21.41
-22.0146 124.544 7.82763
-20.6184 123.395 7.71121
5.05728 94.2563 19.8733
12.2252 87.2236 21.1714
-14.3195 124.003 -3.61529
-10.0697 108.806 17.8228
16.0728 84.8378 19.4186
18.6129 91.87 2.0762
-22.5444 130.476 -1.97665
-21.0338 124.477 6.77851
-23.7565 126.217 8.0343
-18.3149 118.675 13.2048
-21.6644 124.269 8.36546
-20.7877 123.818 7.84714
-22.9004 130.851 -1.77637
-18.5529 126.558 -0.935391
8.88553 105.483 -6.83384
18.4612 92.9332 0.849278
-20.8923 123.608 8.65694
-21.0094 124.272 7.61224
-24.6845 131.657 -0.01884
4.90429 94.8471 19.8773
10.085 89.5261 21.2682
10.2334 89.4198 21.3127
-12.281 111.148 17.9609
-24.4134 128.185 6.45639
-21.8241 124.935 8.27135
7.6869 93.1951 18.8974
-12.9925 123.191 -2.98396
-7.36737 107.408 17.2856
-22.1727 125.298 8.34468
-13.0084 112.047 17.9784
4.20662 97.8197 16.0982
-10.9389 120.816 -1.83048
-0.132216 113.28 -5.60125
-6.13088 116.073 -0.830019
-13.246 123.645 -3.18455
13.5512 101.172 -5.43067
20.1501 85.2026 13.6906
3.42788 110.7 -6.30784
-11.9063 122.166 -2.33237
-0.115349 104.319 11.5989
-14.7425 113.957 17.8003
14.4709 86.9325 20.0117
19.9703 86.7283 11.3004
-5.94245 106.82 16.6415
-16.1327 125.863 -1.99238
-0.267639 113.667 -5.42635
-19.108 120.556 13.0209
9.75221 105.52 -6.58609
-15.4013 125.608 -2.4862
-18.5103 127.995 -1.77876
-19.852 124.041 7.93897
-18.9799 123.8 6.95155
-18.2931 126.466 0.841965
20.1099 86.5647 11.9372
-3.38208 114.557 -1.49136
-19.93 123.873 8.51361
3.60928 100.918 12.4806
19.9836 87.5023 10.463
-19.5062 124.247 7.18639
-23.8735 128.254 6.95345
-21.696 125.422 8.68373
-19.3613 121.55 12.2281
-20.3926 130.621 -3.00835
7.94061 93.7917 18.9947
-1.94002 105.23 14.0009
18.3104 93.7853 1.89351
4.48262 96.8776 19.0427
2.47909 112.176 -6.26379
-19.6593 124.027 8.23986
16.7952 97.2326 -1.97095
-17.9793 128.381 -2.61582
-16.6876 126.59 -1.40121
-14.6363 125.913 -3.50778
13.39 88.1481 20.7672
-12.8294 124.024 -2.93417
-8.19513 118.936 -1.03528
12.9439 88.4942 20.9231
15.7021 98.8331 -2.84112
-16.4523 116.541 17.2972
-17.8756 128.179 -2.0935
-2.66544 105.548 15.0813
-8.55679 109.38 17.6884
-15.5159 126.216 -2.27766
-8.42321 109.297 17.6568
-1.74291 114.906 -3.90093
8.88484 93.0898 19.3936
-16.4211 126.685 -1.47301
-15.8626 126.418 -1.87634
-19.4089 124.192 8.21107
-20.7512 124.901 9.13522
20.1086 86.9122 12.6969
-17.5362 128.057 -1.91779
-0.180947 105.425 11.7164
9.99306 91.9048 20.1841
18.5587 93.0693 3.81376
-2.86449 106.102 15.0254
17.6651 96.6679 -1.32413
8.90709 93.3596 19.3874
19.8753 89.5691 8.35975
-19.0316 123.71 8.94187
18.1723 94.7497 1.69804
-8.62732 109.927 17.7041
0.191676 105.668 11.0912
-1.80818 115.3 -3.62262
-11.6574 112.634 17.698
2.17258 103.817 11.3003
-1.02479 115.138 -4.57462
-17.4209 128.788 -2.95071
4.88069 99.1481 15.5811
17.8829 96.1256 -0.25727
-13.7151 125.584 -3.0249
-18.4448 123.944 7.90284
-19.0969 123.291 10.2111
-22.6441 127.115 8.93854
-23.4365 128.796 7.12787
-19.8873 131.299 -3.4349
-1.80117 105.842 14.2635
-12.5107 124.519 -2.81274
-18.9135 130.509 -3.37044
-3.77979 115.937 -1.13842
-18.3398 128.029 0.357882
-18.7519 128.251 0.642694
4.97385 110.666 -5.71324
-7.42321 109.318 17.3832
-1.58435 115.55 -3.93427
-25.4541 133.468 2.09764
5.53902 96.6238 19.7242
9.85027 106.718 -6.28468
19.9989 88.1188 11.7366
-19.0324 130.748 -3.34135
-19.2854 131.054 -3.46547
-24.6104 131.557 4.56226
-18.5834 124.146 8.46997
-2.25381 115.586 -2.56151
-0.897582 106.218 12.7849
-12.7242 114.026 17.7994
10.825 91.3927 21.1641
19.45 91.5168 6.65066
-4.05112 116.419 -1.00571
-22.7865 132.906 -0.780769
-17.3462 129.051 -2.56815
-10.3304 122.32 -1.48279
-17.7762 119.568 16.0717
-15.9255 127.28 -1.37869
4.87274 98.2537 18.5077
7.50729 109.073 -6.09414
19.9725 89.6432 9.62798
19.0484 92.768 5.3155
-11.4241 123.893 -2.37971
-18.7508 123.026 11.3962
-15.5834 127.239 -1.68484
-6.3102 118.59 -0.847798
-5.95056 118.236 -0.764678
-3.61203 116.451 -1.13067
-6.87196 109.565 17.1775
-0.0872536 106.662 11.4361
-4.33059 108.186 15.8139
19.3348 92.4045 6.22462
-13.1455 126.212 -3.22342
-18.4615 125.052 7.81198
-21.4212 126.863 9.33385
-19.767 132.154 -3.28898
19.7171 91.5006 7.50179
-23.031 129.578 7.15162
5.22983 100.86 14.0882
2.61019 104.96 10.8269
8.60429 109.063 -6.52338
-18.1598 124.777 8.61221
8.08697 95.6682 19.6146
-18.858 124.416 10.4805
20.0641 88.4468 13.3175
-13.1917 126.711 -3.15595
19.998 88.1239 14.0805
16.1415 88.3485 20.071
0.591788 115.869 -5.67078
-20.505 133.152 -3.03703
9.78228 107.939 -6.02778
18.6526 87.6877 17.2005
15.4892 88.9065 20.2103
7.82152 109.807 -6.19338
16.9355 87.9231 19.686
-1.44747 107.51 13.5036
2.66086 114.311 -5.95439
-12.0801 125.863 -3.13715
17.9681 87.6943 18.6148
-19.6331 125.744 9.81678
17.5207 98.7588 -1.14977
-17.8836 121.861 14.2849
20.0065 91.4243 8.55301
-18.8295 124.841 10.3857
11.4832 92.2012 21.3358
-7.5907 120.988 -0.929659
-18.9149 125.151 10.0454
-22.2466 134.223 -1.41444
18.2399 97.609 0.0884414
-14.7762 128.134 -2.28172
5.66997 99.9433 16.6941
-16.6831 128.771 -0.185936
14.9392 103.04 -4.37538
5.84922 111.631 -5.36284
1.38123 115.873 -5.8752
-4.76517 109.582 16.2512
-5.9946 110.364 16.8367
-17.1904 130.1 -1.25024
3.87619 113.849 -5.69263
8.14783 96.4031 19.9165
-5.67813 110.35 16.7231
15.8689 89.4895 20.0955
-0.807286 117.351 -4.34554
-18.3161 125.94 8.60439
-7.48255 121.428 -0.864169
19.8233 90.9971 10.8638
7.91599 110.763 -6.21673
2.41251 115.499 -5.88973
-6.56693 111.221 17.0072
-18.1079 123.639 12.9439
-13.4131 117.4 17.0256
-17.6474 131.165 -1.71016
4.35044 104.772 11.2579
7.87319 96.9484 20.0978
18.309 88.9678 17.7845
-7.85508 122.119 -0.865488
-9.74336 124.629 -2.36744
19.9144 90.9181 11.6214
7.0022 98.0264 19.7614
6.85553 111.739 -5.57189
-9.35969 124.148 -1.90023
-17.0414 130.571 -1.15577
18.4309 98.4185 0.322213
-6.17252 111.421 16.8506
-3.7768 109.889 15.7637
-0.518937 109.001 12.0426
-4.01689 110.086 15.8959
5.10498 104.022 12.1405
-13.2726 128.27 -2.68268
18.928 96.8263 2.82455
19.8649 89.986 14.1103
10.3601 108.823 -5.35668
7.28321 98.2174 19.5977
-25.1895 135.417 3.83016
-1.07345 118.087 -3.65344
2.20064 107.908 9.97687
4.14587 105.727 10.8616
-25.135 135.519 3.70468
17.4778 89.5779 19.0998
19.3929 94.7121 6.34523
-0.617327 109.328 12.2678
15.2352 90.9769 20.4495
-19.3393 127.307 9.78042
19.758 91.9908 11.1596
-9.30649 114.62 16.9814
16.6575 90.0925 19.8796
17.7594 100.337 -1.11184
-22.2482 131.539 6.80582
18.2061 89.8033 17.9467
-16.5819 130.79 -1.11951
18.914 97.4624 2.47708
-23.2797 135.871 0.510353
1.28751 117.468 -5.73192
-2.87773 118.689 -1.11052
2.72045 107.825 9.95074
6.09112 102.901 13.6415
11.6178 94.2599 20.7553
-16.798 122.132 15.8109
-12.5981 128.354 -2.79246
20.118 90.9697 12.9836
-18.0436 133.098 -2.63514
-14.9996 120.285 16.3349
20.0619 91.1901 12.7316
12.5371 93.3126 21.3072
-1.46309 109.831 13.6794
-4.17722 111.015 16.0053
15.1147 91.5561 20.5979
19.2977 96.0607 5.23841
5.73339 113.592 -5.08289
16.3375 90.7946 20.0448
-16.0806 125.375 9.06108
8.86859 97.4082 20.1487
11.9917 107.82 -4.50836
10.4873 109.553 -5.25669
19.8392 92.2483 11.6657
15.7464 104.107 -3.71168
-13.6783 119.471 16.3219
-19.1565 128.378 8.74663
-17.8474 124.837 13.2063
-16.6497 130.833 0.0409969
-20.4169 129.163 9.44056
-17.1091 130.792 0.966955
17.2161 102.167 -2.30918
16.5671 90.8956 19.9466
-20.9442 130.16 8.71432
-9.67726 115.819 16.9273
5.5319 114.108 -5.04713
-3.76931 119.921 -0.509746
-16.4911 130.661 0.49267
-2.35307 119.189 -1.37317
1.01173 118.475 -5.59867
18.8294 91.2837 15.8106
16.3369 91.2411 20.0639
-8.82343 115.294 16.7732
-16.5377 122.437 16.2691
-12.2061 129.237 -3.59587
-14.0897 120.453 16.0504
17.8594 101.193 -0.819504
-0.847134 119.404 -3.84783
17.6473 101.682 -1.28503
-22.5291 136.414 0.314672
-16.6586 125.738 10.6
11.0321 95.8672 20.6526
-16.2807 126.38 8.82239
-17.3804 125.142 12.9884
19.461 96.1798 6.16286
9.96047 97.0366 20.3144
15.7446 91.9003 20.3811
20.1083 91.9246 13.1107
19.3579 96.8637 5.11486
2.57082 117.46 -5.59065
-15.4988 125.403 9.52196
1.84543 109.992 9.72363
1.25707 118.756 -5.69039
-2.09331 110.973 14.4674
-15.7487 131.106 -0.578015
15.1466 105.544 -3.88435
-4.39473 112.189 16.0606
7.23709 100.277 19.0855
10.247 96.936 20.3679
19.6377 95.489 7.60765
3.17436 109.01 9.74932
1.75968 118.6 -5.8402
-14.0959 121.016 15.9956
2.04113 118.456 -5.73053
-6.18308 122.929 -0.474732
4.68766 115.956 -5.41367
-1.29138 119.937 -2.92981
-24.0273 137.46 1.95262
-22 133.298 6.40778
14.2152 93.5341 20.8886
-17.185 133.547 -1.92437
11.9091 95.8185 20.7177
-0.504945 120.086 -4.11204
-2.52719 120.289 -1.13191
20.214 94.3041 9.84497
-9.52675 127.818 -3.59899
-15.2869 126.039 9.43723
1.011 111.325 10.0026
-12.6779 130.095 -2.42232
-12.5796 130.129 -2.59277
20.201 94.4942 9.85768
-10.3169 129.279 -4.66074
-3.54512 112.43 15.7236
13.871 94.2725 20.8807
-10.5916 118.499 16.1725
17.6711 102.514 -0.724015
-21.9683 136.856 0.744242
6.90799 104.674 13.2481
12.4928 109.389 -4.75172
-4.8234 113.522 16.2069
17.2528 103.95 -2.43908
-3.67986 112.799 15.7969
0.0939643 120.342 -4.55664
11.8809 96.6789 20.2338
-14.8339 125.938 9.84541
11.3985 97.3273 19.9551
6.81122 105.157 12.9041
-4.0986 121.968 -0.481368
17.5324 92.5384 18.8254
6.9813 104.92 13.1565
-13.4512 121.613 15.7835
-10.3617 129.805 -4.65955
9.01789 99.8385 19.3436
-19.7482 135.92 -0.472652
-12.1988 120.421 16.0453
19.5193 98.0162 5.44454
-2.39552 112.528 14.6549
19.425 93.2774 14.5431
17.7379 102.717 -0.302151
-20.2514 132.069 7.81911
-16.5152 132.374 1.08276
19.7749 93.3923 13.9313
-10.3414 118.878 16.1317
-23.9091 137.32 4.21127
19.7603 97.0294 7.30196
-4.44054 122.569 -0.401295
8.55159 114.044 -5.88872
20.2698 94.7042 10.924
5.78042 107.417 11.2319
-11.8791 130.936 -3.52636
7.00933 115.401 -5.68847
-14.9426 125.669 11.5308
-17.9273 135.654 -2.20015
16.4731 93.4478 19.8328
-13.4168 131.363 -1.60141
-18.5055 135.89 -1.59456
-13.5698 122.293 15.7636
-16.5907 133.795 -0.71882
7.11695 105.526 12.9543
-14.6309 126.488 9.78822
18.1577 93.341 17.5174
-4.1631 122.708 -0.39421
-16.9314 129.048 9.2384
-9.63295 118.948 16.0903
2.36252 119.987 -5.68541
-4.23868 123.044 -0.353177
-3.17649 122.214 -0.53206
13.9982 96.1909 19.7576
-0.196842 112.903 12.0018
4.69923 118.124 -5.80314
-10.1097 119.542 16.0846
-4.10976 114.367 15.8711
-15.8092 133.001 0.490332
7.95826 102.35 18.5053
18.5308 101.1 3.37974
-3.94031 123.092 -0.357233
-15.3511 127.97 9.42873
-4.28302 123.394 -0.311436
18.8135 100.531 4.2444
-20.5748 137.66 0.0490075
20.0929 95.0316 12.4758
8.16655 102.21 18.8197
-11.5867 121.544 15.4121
19.8934 98.0174 7.39243
-19.8821 133.289 7.32103
-5.6419 116.015 16.0865
-9.36526 119.352 16.0472
18.7926 94.5871 15.7964
-10.2844 120.214 16.0157
-15.4543 133.298 0.130575
11.3674 112.813 -5.96822
-10.1263 120.086 16.0704
-5.05929 115.674 15.9995
-8.28584 128.481 -2.61966
19.1761 100.005 5.1888
-15.3091 133.343 -0.0286758
19.158 100.051 5.19944
8.29449 104.228 15.3906
-14.2735 126.158 11.742
-16.5155 134.684 -0.46253
8.21161 102.568 18.6865
18.4788 94.7009 16.4707
-0.215927 113.588 12.1366
20.0177 95.2325 12.9899
-18.9095 136.739 -0.133171
-15.4414 128.723 9.14297
-15.6004 133.84 -0.150229
-10.8451 121.291 15.4868
2.15708 121.064 -5.61612
-14.5873 126.371 12.2036
-14.081 132.973 -0.969853
-15.3907 126.221 13.9145
-15.3907 126.236 13.9068
-15.7973 134.063 0.15627
-11.9687 132.107 -2.41477
1.10455 114.103 9.6528
-9.51794 131.335 -4.9196
-6.99872 117.892 16.1201
-20.6074 138.455 0.186515
7.45628 107.113 12.4507
-14.1343 126.565 11.8527
-9.1191 119.935 15.9896
-5.76121 125.742 -0.41437
1.82315 113.886 9.30116
-3.66284 123.912 -0.360252
9.71054 101.774 18.9222
9.99273 114.847 -5.91036
0.0306578 114.272 11.6862
17.8257 104.35 0.777888
-9.18586 120.181 15.9272
-8.82595 119.935 15.9572
15.9835 95.9965 19.7585
-14.9985 128.821 9.7472
2.94312 113.456 8.78587
-7.75239 128.961 -2.48993
6.18275 109.617 10.6578
19.836 95.8292 13.8819
1.52498 114.46 9.40621
19.5221 95.6414 14.8319
-10.1251 121.695 15.2279
19.1113 95.6221 15.5975
-22.1345 139.655 1.74122
3.7978 112.962 8.79297
2.71196 113.89 8.86798
4.14031 120.312 -5.42208
-15.4561 134.759 0.0381715
20.1094 97.2255 11.3701
-3.74646 116.136 15.5258
-6.13811 118.07 15.9141
-18.8454 133.497 8.14055
19.679 99.6341 7.75611
-3.56205 124.571 -0.297825
-15.2177 127.589 13.5381
11.2585 114.207 -5.26276
-13.8692 127.739 11.0929
14.6452 110.499 -3.87537
19.7506 96.3213 14.2346
-1.31606 123.548 -1.82088
3.02981 121.714 -5.54216
-15.0735 127.173 14.3105
3.03295 114.181 8.69127
-19.8443 139.036 0.199251
13.2196 112.702 -5.21662
12.8428 99.8131 19.5463
7.29661 108.966 11.6263
-7.68126 120.264 15.4735
1.766 115.374 8.99636
7.23299 118.14 -5.21334
-18.7113 133.84 8.40766
-10.7216 133.131 -3.48113
3.44877 114.276 8.48212
4.48609 113.193 8.82051
17.9657 105.692 0.533068
13.851 112.29 -4.86416
20.2044 98.6254 10.2135
-1.7789 116.055 14.0604
17.9094 105.524 1.15881
-2.45084 124.478 -0.575869
-14.6271 126.894 15.0844
-8.876 121.844 15.0464
-22.496 140.015 3.60827
-18.4302 133.759 8.60959
12.1004 113.732 -4.48267
-6.44871 119.368 15.7148
-7.73858 120.817 15.2051
14.3633 99.0918 19.2999
-13.8711 127.951 12.0683
17.9692 105.835 0.770353
20.1546 98.5413 10.8184
2.10601 123.207 -5.25619
-1.3048 116.229 13.5055
18.0496 106.415 -0.178792
20.0637 98.4039 11.6403
-6.40631 119.74 15.5647
3.91362 114.445 8.37917
3.11606 115.176 8.38254
-13.5326 128.241 11.5921
19.1203 101.803 6.97807
-14.5406 129.898 10.1769
-11.5226 134.577 -3.551
9.1662 117.24 -5.34798
-8.22831 132.051 -4.16818
10.8486 115.544 -4.85868
-8.92167 122.671 14.633
-12.2398 134.979 -2.79596
19.8243 98.1601 13.1696
16.3629 97.9323 19.3962
18.8457 97.6419 15.8535
6.92076 111.017 10.5878
7.71735 118.694 -5.09014
12.238 114.178 -4.0862
-6.51467 120.496 15.1948
-0.484021 124.573 -2.40595
-15.4666 136.504 0.209472
-3.02677 117.578 15.049
-8.16679 122.423 14.5681
17.9759 106.701 0.721372
6.19228 119.811 -4.16476
-14.4124 130.543 9.91502
10.8779 103.602 18.446
-18.2501 139.005 0.554056
19.2982 102.036 7.58154
2.87168 123.398 -5.12238
-14.181 137.08 -2.47085
-4.86657 127.828 -0.527626
12.237 114.507 -3.92523
-15.4769 136.852 0.213509
-14.4784 137.137 -1.9512
11.8129 115.038 -4.06984
16.1805 98.6833 19.3515
-22.0326 140.693 4.04671
17.8547 107.43 0.297272
-15.2857 136.818 0.250295
19.2524 102.473 7.34399
-3.38551 126.511 -0.137265
-2.6126 117.882 14.7455
-6.97494 131.044 -2.62259
-1.66069 125.546 -1.01099
-3.05673 118.227 15.0112
9.24944 108.151 13.4902
-20.6759 138.082 7.14303
14.3181 113.33 -4.33379
5.78303 120.797 -3.99665
-20.1632 137.628 7.55032
-5.29438 120.452 15.1087
-15.5292 137.915 -0.572589
17.8993 108.307 -0.453717
-5.73776 129.76 -1.43689
-7.405 132.311 -3.38963
-17.4671 134.756 8.76506
-0.412503 117.653 12.5228
-13.5046 130.07 11.0818
-20.7954 138.969 6.51829
-12.875 127.77 14.4556
-19.7732 141.48 0.314909
-15.9858 133.495 9.00122
4.64632 122.372 -4.35721
-2.96377 126.916 -0.232221
9.97231 117.79 -4.44935
-11.1714 136.146 -3.73583
1.92354 125.186 -4.9038
-6.67997 131.485 -2.38919
-13.9618 137.217 -1.0455
-0.529838 118.007 12.6883
-17.4461 139.42 0.651768
-12.4298 127.202 15.2299
-7.27608 132.623 -3.43379
-12.6852 137.181 -2.95769
2.66368 117.676 8.14222
10.0843 107.543 14.8674
10.2102 117.702 -4.30725
-2.54862 118.857 14.6843
6.25703 120.923 -3.76075
-4.69137 128.906 -0.55191
0.969336 118.163 10.1867
-1.05374 118.277 13.365
-6.65891 131.673 -2.39768
-5.57527 130.167 -1.36552
5.41076 121.851 -3.97584
17.857 106.494 4.28925
17.6633 108.813 0.286622
-11.4302 126.484 15.4913
16.4295 100.466 18.108
7.42294 120.196 -3.89907
-9.57725 125.134 15.0856
6.41476 114.145 9.16104
12.895 103.248 18.8383
-0.518072 126.209 -1.90904
18.7298 99.8223 15.6919
9.7031 108.865 13.7441
10.1546 107.804 14.9888
-6.65852 132.053 -2.45865
-21.0168 140.592 5.41343
-6.21206 131.49 -1.90674
-3.80659 128.552 -0.384324
1.33825 118.673 9.65908
3.99685 117.304 7.87232
-1.73078 119.058 14.1356
13.2927 115.26 -3.61703
-0.159847 126.443 -2.20178
-1.78044 119.14 14.1912
-4.83849 121.777 14.328
7.53689 113.028 10.2048
11.2123 117.28 -3.79411
-2.79774 127.782 -0.172894
-18.3127 137.14 8.03775
-21.1047 141.253 4.97307
-7.975 124.333 14.9096
0.305036 118.947 11.4858
-18.2586 141.311 0.438264
-13.0128 138.51 -2.90634
-14.8766 134.104 8.49621
18.429 106.252 5.63098
-16.1757 135.153 8.87957
7.57171 120.781 -3.54494
-7.16346 124.096 14.7275
18.7136 105.754 6.24917
2.63939 125.876 -4.73
-2.4523 120.077 14.6375
19.2765 104.68 7.46172
16.2934 112.906 -2.96777
-16.8691 136.248 8.31153
7.63814 113.685 10.0422
-5.51217 131.423 -1.36509
17.3094 111.293 -1.49576
18.8616 101.016 15.2277
11.4342 117.748 -3.71967
-18.1719 141.794 0.349264
18.3025 100.819 16.7447
17.7779 108.551 3.17002
14.8594 102.601 19.207
0.214395 127.303 -2.70635
7.64929 121.087 -3.36261
-16.2496 139.982 0.898097
-1.32316 127.806 -1.00886
15.884 113.781 -3.08012
0.636841 119.726 11.061
0.631442 127.62 -3.50726
-6.79306 124.474 14.6842
-5.71648 123.74 14.3143
15.5909 102.644 18.5932
19.7007 103.858 9.59464
13.5975 116.887 -4.66939
-17.566 141.876 0.327341
-1.87511 128.5 -0.611556
-1.23062 128.16 -1.04157
15.7856 114.321 -3.31628
4.32582 124.945 -4.08119
4.79495 118.291 7.61581
3.33097 125.992 -4.34516
-5.23175 123.764 14.0726
-6.43444 134.289 -3.56364
9.37259 111.988 12.194
-9.51914 127.317 14.8411
19.5866 104.958 8.55189
2.52132 120.298 8.12613
-17.5667 142.302 0.249724
11.4131 107.786 16.8631
15.5171 115.182 -3.74531
-12.3841 132.753 9.64549
0.228249 128.292 -2.88297
-7.54793 125.724 14.8293
18.7216 106.671 6.96515
-17.2697 142.104 0.282378
4.22452 125.382 -4.01794
18.4507 101.801 16.5904
0.281501 120.602 11.5502
12.6013 105.7 19.0326
-2.96859 122.18 14.0202
14.2976 117.303 -5.30253
-8.50711 136.841 -4.05224
0.636948 120.707 11.003
8.52455 121.469 -3.43034
18.7695 102.367 15.4423
-10.8125 138.823 -3.69681
11.688 107.715 17.2734
-13.6547 134.911 8.3722
-9.67176 128.143 14.501
-20.0614 143.663 2.68664
11.3387 108.439 16.6242
12.8326 118.225 -4.1596
-4.32554 123.89 13.6736
7.15271 122.815 -3.27785
-15.9016 137.021 8.45027
2.49934 127.732 -4.63209
-12.2933 132.346 11.2548
15.8025 103.679 18.3749
6.23001 117.712 7.99176
10.6569 120.2 -3.98712
-19.0631 140.716 6.88325
6.73263 117.221 8.29153
18.9876 106.478 8.17673
-19.4832 141.49 6.46222
16.9663 114.109 -2.47152
15.8523 115.68 -3.53567
12.6278 106.545 18.9711
-9.94421 129.248 13.9084
19.448 105.06 10.6322
-6.44697 135.794 -3.8998
-3.07756 130.977 -0.46329
19.1838 104.549 12.1408
6.14637 118.491 7.70966
15.5847 116.414 -4.01761
14.2452 117.44 -3.66469
-0.668705 121.958 12.65
15.9859 104.214 18.2734
-19.0605 141.404 6.74052
-5.34956 125.548 13.7855
-3.77995 131.89 -0.66513
-0.372757 129.532 -1.84552
9.26552 114.147 11.1712
-6.27391 126.47 13.9949
8.2966 123.48 -4.54767
13.6688 118.995 -5.04954
13.7292 119.078 -5.12164
19.2835 105.024 11.998
-11.3636 140.124 -2.87922
-3.02907 131.505 -0.502644
3.97167 121.244 7.15102
18.4538 108.728 6.5981
-0.648681 122.477 12.5487
18.4451 108.547 6.99801
-15.0175 137.267 8.70644
-19.0819 142.08 6.52946
-15.391 142.054 0.529619
-5.66975 135.222 -2.75747
14.1245 106.326 18.5667
14.9884 105.589 18.5527
-7.00086 137.37 -4.33947
17.2352 114.706 -2.01029
9.72539 123.196 -5.45492
-11.2839 140.524 -2.95697
-7.38137 127.693 14.6461
-10.1863 139.957 -3.60449
11.031 110.452 16.5228
17.4195 114.354 -1.31293
6.71284 118.943 7.87324
-10.9311 140.387 -3.01063
-5.68137 126.868 13.6282
19.5799 106.163 10.6054
-3.0916 132.207 -0.567767
-16.5453 139.642 7.81229
17.6078 113.919 -0.587063
17.6184 104.965 16.1566
4.98508 126.556 -3.31703
-5.33639 135.203 -2.36849
6.5483 119.35 7.66082
8.76654 116.129 10.0232
17.3166 114.727 -1.44631
13.0249 120.757 -5.60644
-11.3846 133.291 11.4395
17.2706 114.87 -1.53361
9.21299 124.139 -5.41461
-10.9158 133.639 10.2592
17.7528 113.374 0.740162
16.2797 105.571 17.8097
18.7695 109.806 5.77764
15.0214 106.57 18.0985
17.669 105.432 15.8685
0.182312 123.225 11.5949
0.938633 130.574 -3.39587
-13.6185 141.978 -0.586104
9.18408 115.884 10.4903
8.19635 124.924 -4.68514
16.6096 114.951 0.0686938
14.2449 119.499 -4.51691
17.0823 105.481 17.0472
-10.1413 131.37 13.7048
-14.346 138.349 7.64529
-16.1624 143.907 0.280734
14.3163 119.086 -3.7172
-17.2422 144.838 0.692407
-19.016 144.795 3.73772
15.5061 115.612 1.18809
9.0651 116.532 10.1489
-13.8227 142.476 -0.43224
17.2388 115.323 -1.0652
-9.68152 140.549 -3.61712
16.3073 106.22 17.5822
-16.6878 140.716 7.6917
10.826 112.677 14.5958
-0.996894 124.071 12.8696
17.7442 106.121 15.4347
9.99695 115.17 11.5651
-1.03401 124.239 12.9093
7.13324 119.73 7.82194
-3.23432 125.956 13.3723
-5.49066 128.055 13.3707
-8.6689 140.295 -4.24481
10.9899 112.25 15.6873
-10.5349 132.8 12.9367
2.76963 130.122 -4.04466
4.87763 122.537 6.71791
4.95107 122.456 6.74942
18.9157 108.491 9.7738
9.39699 125.104 -5.52668
9.77621 124.934 -5.73666
7.78824 126.021 -4.45385
11.2993 111.741 16.4966
4.94036 122.614 6.69715
-5.87709 128.535 13.5469
8.76373 117.781 9.45639
-10.7104 141.819 -3.26676
11.4452 111.521 16.7775
15.406 107.675 17.4558
14.3187 120.674 -5.06407
-18.0703 145.621 2.04387
12.7042 109.794 18.171
14.3719 120.543 -4.68176
17.5477 114.255 1.87195
-9.75877 134.345 9.52576
-7.44009 130.124 13.6099
14.0532 108.742 18.0429
-16.982 145.483 0.695115
17.2816 114.475 2.01886
7.34954 126.559 -4.05971
15.8286 115.516 2.57392
15.1073 116.285 2.3538
3.2383 124.04 7.54234
19.4159 107.793 11.1673
-6.15062 129.121 13.6123
-9.5829 141.33 -3.51569
6.88793 126.926 -3.69599
12.5712 110.498 17.727
-5.2097 128.697 13.1273
-5.47788 137.326 -2.567
-11.9398 137.829 7.25836
0.141797 132.089 -1.96874
12.935 122.434 -5.08201
6.70697 121.422 7.19509
18.8973 113.01 2.77791
-16.8926 142.25 7.43998
4.14706 124.017 6.73794
-10.334 142.263 -3.39747
7.09646 121.107 7.35454
19.6809 107.103 12.7654
19.5354 106.967 13.2935
-8.45276 131.721 13.3889
14.263 118.799 -0.00238216
11.1096 113.864 14.462
14.7885 117.347 1.8781
14.5162 119.004 -0.671734
-15.7373 141.599 7.20378
-9.92061 134.307 11.2389
9.80434 117.266 10.5444
-16.9831 146.003 1.31119
8.04771 120.212 8.15025
11.3136 125.019 -6.2485
19.3081 111.223 6.41756
-16.2363 145.838 0.527755
13.8838 109.798 18.1337
13.9013 121.999 -4.71131
-9.66809 142.277 -3.52878
15.7851 115.861 3.75225
17.2459 108.213 15.6595
-17.3186 143.53 6.83737
-9.38589 133.4 12.6755
-17.3441 146.219 1.8919
15.6359 116.675 2.58608
9.2084 126.804 -5.6552
19.1757 109.005 11.167
16.3169 115.545 3.73922
9.4116 118.45 9.74687
-13.5856 140.653 6.30722
-10.1255 136.695 7.99443
5.45649 123.818 6.34174
10.1678 117.158 11.0281
6.21329 123.002 6.66258
17.1226 114.853 3.97289
0.477893 125.701 11.2501
-16.671 146.184 1.32475
17.9712 108.394 14.7496
3.17981 125.394 7.62774
0.747498 132.792 -2.12125
-16.8615 143.46 7.10516
17.1028 114.866 4.35793
-2.16407 134.543 -0.511639
-5.81733 139.556 -3.84028
7.18903 122.217 7.07284
-2.47713 127.58 13.0889
19.2226 108.243 13.4065
-10.1328 137.721 6.89807
1.3208 125.775 10.3169
10.3177 117.079 11.8473
14.3219 119.777 0.177268
5.12942 129.972 -3.61385
-4.8141 138.045 -2.24025
2.84935 132.466 -4.48259
14.3507 119.847 0.118222
-10.2667 143.529 -3.38419
6.82237 128.789 -4.09538
-11.3636 144.304 -2.99646
19.0607 113.129 4.95369
17.1917 114.763 5.10561
2.60742 125.829 8.56499
5.8182 124.294 6.21263
-1.15988 134.14 -0.635452
2.80871 132.638 -4.34532
19.4384 112.324 6.15477
19.2911 109.923 10.9294
11.2345 114.901 14.9907
2.15766 132.819 -3.43623
-6.14612 140.408 -3.82191
16.9716 109.394 15.9451
9.5767 119.364 9.5364
10.8313 115.86 14.0264
11.2416 114.987 15.0276
18.1102 109.195 14.52
1.50303 126.275 10.0983
-1.49504 134.675 -0.581315
0.201906 126.878 11.3298
16.7546 115.212 5.76912
6.38332 124.131 6.30959
4.99426 125.508 6.1026
-3.84834 137.626 -1.92578
-14.4103 145.606 0.693274
5.32373 130.5 -3.64979
14.0258 121.201 -0.611587
11.8386 113.978 16.6133
14.9509 110.981 17.0831
-9.55433 138.242 6.66213
16.3503 110.211 16.2091
-0.215081 127.375 11.6016
18.0246 114.166 6.11309
16.0973 116.606 4.7629
11.6419 114.534 16.0422
15.8309 110.621 16.464
19.4352 109.981 11.7022
17.0369 110.052 15.5952
-5.58148 140.38 -3.58519
10.5789 116.988 13.4407
-13.2095 145.048 0.34631
10.5763 117.076 13.2979
16.2679 116.84 4.32461
-16.3041 147.016 1.99402
-5.58993 131.587 13.1677
-11.3434 140.519 6.01376
-1.51017 135.378 -0.603474
-8.55171 135.199 11.4009
-5.14184 131.324 13.063
9.06172 121.216 8.4486
-16.5975 145.308 5.90135
19.5369 111.58 9.23129
3.31095 133.43 -4.74506
11.2344 127.222 -6.17259
19.3208 112.818 7.45971
0.117151 127.868 11.2421
-6.76449 142.251 -4.18521
-7.2132 142.78 -4.39248
-7.05103 133.411 12.9059
0.515235 127.837 10.8288
8.74881 129.28 -5.39653
-4.47588 131.247 12.8728
-7.67651 134.37 12.4018
14.2636 124.575 -5.52093
1.16936 134.326 -1.99344
-15.9995 147.449 1.89631
19.5919 111.02 11.3451
15.5356 123.116 -4.51146
-12.0034 146.129 -1.90932
15.3772 112.305 16.0739
-7.13172 136.04 9.00056
-10.4933 145.702 -3.42689
-15.6678 144.972 6.54118
13.5721 123.85 -2.36776
-3.44339 130.966 12.5534
13.5058 113.525 17.1613
10.7732 128.279 -5.87456
16.9826 115.373 8.04563
-11.4406 146.224 -2.58614
10.7299 118.496 12.5907
19.6339 111.529 10.8808
7.2506 131.013 -5.024
19.7208 112.256 9.48475
13.4286 124.07 -2.12746
-4.85648 132.227 12.9334
-0.101671 128.853 11.3772
14.3938 122.966 -1.57635
-1.50539 129.532 12.4913
18.9999 111.095 13.0491
10.6688 119.229 11.7426
15.6086 123.647 -4.62132
16.1313 122.956 -4.1824
17.0909 115.647 8.01269
9.38418 122.398 8.17867
7.31464 125.315 6.17985
16.2216 122.648 -3.58498
17.9281 114.662 8.57933
17.7374 111.614 14.6602
13.8279 124.622 -3.20568
9.20378 122.839 7.90661
-1.10531 136.549 -0.630409
18.6474 111.432 13.6695
-10.7168 141.69 5.77601
11.3194 117.135 15.2338
-10.2831 146.283 -3.46821
-6.96566 135.04 12.088
-5.33898 141.921 -3.43655
17.2446 118.468 3.06636
-4.35569 140.579 -2.50979
1.11176 129.093 9.93312
10.6327 119.984 11.2262
-12.0685 143.268 5.27846
17.0031 122.349 -3.70817
17.918 111.875 14.4171
-13.111 144.111 5.50475
7.01943 131.851 -4.88756
14.7483 123.198 -1.32821
9.15125 123.402 7.66036
8.46219 124.404 6.95073
7.78279 125.436 6.22902
19.8755 112.854 9.77755
17.6059 115.307 8.97866
16.5519 120.198 1.62002
16.6642 122.855 -3.47757
18.5221 121.366 -3.71275
-13.8835 147.609 0.862702
-6.443 143.749 -4.20037
-9.39325 146.361 -4.14299
-6.54732 135.251 12.0299
-3.19484 132.061 12.4546
13.2338 127.687 -6.56639
-6.05959 136.417 9.11552
17.491 112.683 14.6884
12.5768 128.261 -6.27808
-3.54588 140.146 -1.80559
1.79375 135.935 -2.64876
0.248185 136.698 -1.40903
3.45128 128.863 7.95862
-10.0871 142.087 5.68462
-2.54509 139.09 -1.16573
15.7728 113.851 15.7463
17.9104 115.323 9.4601
4.25473 129.065 6.42982
14.4629 126.55 -5.66248
3.3765 129.04 8.10265
-5.46674 136.697 8.50153
-9.88846 147.124 -3.64946
5.4988 128.543 5.70599
10.1138 122.636 9.16147
14.4576 114.913 16.4423
15.16 114.551 16.0978
17.7121 115.864 9.43402
-6.95886 138.371 8.1903
-10.6613 143.464 4.87813
-5.51624 136.751 8.99236
16.9823 123.249 -2.99887
10.2353 130.711 -5.76123
-13.3601 148.053 0.965239
15.4629 114.607 15.8252
11.1796 119.099 14.5378
7.23023 132.971 -4.85491
9.92135 123.353 8.71758
15.4999 114.661 15.7661
14.0592 126.074 -3.10346
10.0779 123.208 8.97898
17.6958 123.36 -3.80296
1.40545 130.788 9.35747
-12.418 145.424 4.91359
5.36928 129.315 5.67144
13.9406 116.252 16.0358
2.29925 130.443 8.83818
-13.8627 148.784 1.30728
-12.8002 148.084 0.86778
9.56067 124.771 7.49952
-4.28318 142.38 -2.50463
4.95338 129.769 5.82671
-5.63591 136.083 11.6058
16.3431 125.625 -5.19727
-11.581 148.33 -1.3659
12.9991 117.213 16.2011
-12.269 148.197 0.0789773
-13.4696 146.754 4.81665
6.87376 128.694 5.03038
11.1628 120.002 14.1988
14.4606 125.905 -2.29849
9.79702 124.59 7.90868
0.247474 138.091 -1.49687
-6.39436 138.847 8.15404
-9.70264 143.442 5.0824
-6.77568 139.598 7.51808
-0.983394 139.019 -0.957026
8.92821 126.22 6.6281
17.3912 124.256 -3.63888
-9.2449 147.868 -3.67556
0.807305 138.059 -1.96269
10.9674 120.667 13.7619
1.44 131.567 9.19813
-12.1958 146.069 4.65401
-6.46494 145.714 -4.06263
16.9812 125.712 -5.43422
-13.2777 147.12 4.67375
-11.1629 148.9 -2.10228
-13.181 148.913 1.2273
-5.68749 144.996 -3.59582
15.6452 126.933 -5.09881
10.4205 123.977 9.11711
-5.44691 144.704 -3.34413
-12.6741 146.883 4.60708
10.4358 131.961 -5.73451
-14.2875 149.293 2.8064
16.4288 115.774 14.6518
19.1844 123.787 -4.89548
16.4479 122.988 1.15183
7.81682 128.398 5.48288
3.92531 130.853 7.34062
17.8746 117.952 8.44222
-0.323801 139.175 -1.09316
1.07007 138.58 -2.25126
16.2428 124.015 -0.0837025
14.9227 117.083 15.165
-0.0527209 139.188 -1.31559
18.1918 117.28 9.50014
-10.8834 145.904 4.19727
10.8547 123.672 9.93885
-4.1335 143.472 -2.25764
-7.08754 146.981 -3.92347
9.18242 127.03 6.52083
17.8803 121.171 3.13016
3.18436 138.381 -4.69567
16.9517 119.37 8.12634
15.4864 125.797 -1.47184
-4.50433 138.719 7.50126
9.95918 132.883 -5.47611
16.3438 124.531 -0.335047
8.57544 133.785 -4.76283
1.84073 138.963 -3.17863
15.3142 127.832 -4.57512
15.543 127.47 -4.21344
-3.52431 136.17 11.1634
2.07611 139.074 -3.45358
4.27508 131.547 7.07191
-4.08332 137.937 9.03833
-2.06196 141.675 -1.24146
18.6983 120.26 4.45747
5.68216 131.42 5.1712
-1.87537 135.522 10.1364
12.3289 131.722 -6.23818
17.3259 119.115 9.13986
5.23128 131.895 5.39862
-6.96962 147.642 -3.78721
0.116084 133.872 10.267
16.0153 117.544 14.5093
8.55676 134.463 -4.79322
11.8322 121.268 14.5247
18.0973 116.581 12.9248
-2.35703 142.262 -1.24064
18.2338 116.722 12.4812
19.3839 123.592 -2.28139
-9.53232 145.726 4.22411
1.32954 133.359 9.3947
4.32046 138.474 -5.11019
7.64973 130.322 4.81053
13.1975 131.499 -6.57549
14.9697 129.026 -4.77109
18.2372 119.912 6.91911
-3.8094 144.223 -2.02427
19.7941 123.272 -1.8643
15.2026 127.32 -1.81925
19.832 122.915 -1.23075
19.0284 120.054 5.50083
3.40291 139.345 -4.7056
-4.15567 137.471 11.348
-0.414679 134.942 9.88966
9.88617 133.901 -5.22639
15.2336 128.265 -3.4946
17.2383 123.896 1.36444
17.033 117.39 13.9199
14.8482 129.424 -4.79836
15.0622 128.157 -2.76228
0.434497 140.679 -1.96327
-8.49229 145.042 4.66612
16.2123 127.228 -2.86526
8.79132 134.908 -4.87746
-6.35288 147.693 -3.69008
7.91196 130.501 4.87946
-6.15342 142.088 6.55975
16.5193 120.068 10.2527
16.7149 126.899 -2.84063
15.0687 126.546 0.600575
16.3853 125.863 -0.212974
-10.0242 150.305 -2.16553
-2.81686 143.503 -1.36178
15.7101 125.906 0.889634
7.91371 130.718 4.82473
14.7118 126.945 0.705156
-2.60526 138.973 6.94015
15.0445 128.982 -3.59869
18.4854 121.864 4.03047
17.9154 122.729 3.36074
-7.36863 148.858 -3.61803
4.12161 139.539 -5.17096
1.65589 140.713 -3.20715
5.30502 132.996 5.2099
3.82408 133.168 7.40236
18.0492 118.417 11.4511
15.7156 125.794 1.55453
-11.1418 148.499 3.56311
-6.00074 142.64 6.04159
20.1673 123.615 -1.58777
16.5111 127.448 -2.68939
15.262 127.689 -1.05352
0.739791 134.973 9.44754
19.1761 121.265 4.55894
0.675422 135.071 9.41906
14.6301 129.56 -3.3436
17.3325 128.368 -5.56965
-11.002 148.642 3.46698
19.3128 125.204 -2.89039
20.2381 123 -0.265395
6.57708 137.868 -5.38224
20.2533 124.245 -2.53674
16.4593 120.356 11.0543
8.78281 135.749 -5.00997
-12.0545 150.068 2.76172
4.59352 139.671 -5.36028
20.1282 122.744 0.598949
20.7872 121.875 1.13889
20.7042 121.476 2.05784
16.6609 125.276 1.66372
-3.52617 138.283 10.7905
17.9741 127.65 -4.92739
10.9669 125.517 10.7624
16.4843 125.296 2.10644
20.4205 123.473 -0.941218
3.50548 134.056 7.27891
18.0185 124.71 0.734581
14.4536 131.265 -5.51604
-10.6384 148.768 3.33114
18.129 121.049 7.57144
17.0189 119.868 11.6265
16.6303 125.177 2.36148
10.1219 135.074 -5.30411
17.5076 124.827 1.66214
15.0895 129.152 -2.41235
21.3655 122.267 0.0772585
19.9787 125.244 -3.19125
13.5688 121.317 14.7851
-11.268 151.36 -0.260995
14.0757 128.916 -0.236982
8.80064 136.208 -5.1344
5.67416 139.113 -5.29539
14.4949 127.537 1.79001
21.3994 121.308 2.01043
-4.34801 141.84 6.25185
2.23886 141.264 -3.58333
16.1262 119.639 13.8953
-5.31887 147.829 -3.29636
-9.49028 147.84 3.62798
15.9973 125.238 3.77102
20.0752 123.263 0.758264
0.041407 136.602 8.99102
16.9818 124.746 3.13668
1.51403 141.831 -3.2093
-8.34762 146.782 3.86941
21.9537 123.373 -2.51384
3.03248 140.998 -4.01943
19.8674 123.398 1.02927
13.0366 133.282 -6.13543
8.42036 131.56 4.75048
-6.9243 149.525 -3.39655
-3.35431 145.484 -1.74332
19.5521 123.386 1.6886
17.8125 128.547 -5.04167
21.7762 124.026 -3.14004
-2.38974 139.55 7.88702
-2.55516 139.512 8.25765
1.56338 135.535 8.89552
-8.43375 147.107 3.8057
17.9298 128.388 -4.7924
19.0252 126.239 -2.53295
19.4651 121.744 5.15743
20.0513 121.649 4.38249
16.9147 119.895 12.8748
17.678 123.759 4.40259
15.3971 129.328 -2.23176
19.9543 122.319 3.40828
-2.5711 138.711 10.087
17.5316 126.18 0.236182
14.1181 129.021 0.591835
-7.06788 145.716 4.48316
11.768 134.636 -5.98463
18.5313 123.19 4.23655
19.9343 122.201 3.76376
21.7656 121.768 1.55297
18.425 123.152 4.54743
11.1229 126.944 9.63136
15.0446 129.959 -2.49566
-7.09825 150.003 -3.27266
-2.89431 141.206 6.28614
3.81002 141.08 -4.55591
-1.68551 139.794 6.97205
-2.91519 145.417 -1.5076
16.1875 128.879 -2.19514
15.8099 129.246 -2.14051
3.09109 135.308 7.71476
14.6597 131.048 -3.45005
17.4588 124.203 4.72578
17.5657 129.511 -5.35313
14.8107 128.965 0.252479
15.6326 121.906 12.1177
18.4597 124.736 2.22103
17.3074 122.21 8.92561
-9.67767 149.262 3.04478
5.9329 134.313 5.39666
15.4953 121.206 14.1871
16.1701 125.78 4.56295
14.1743 122.394 14.2912
18.3399 125.761 1.10204
16.4433 128.473 -0.826206
4.90448 135.391 5.4433
10.7617 126.591 12.2423
16.986 125.151 4.69261
-2.74911 141.818 6.21144
16.8541 125.214 4.81571
16.8348 125.734 3.90852
-2.77149 141.882 6.20206
6.92126 139.939 -6.15778
14.0302 132.14 -3.31349
10.9736 128.264 9.13691
14.4564 132.723 -4.9512
10.2983 130.286 6.57769
-10.365 151.677 0.790848
14.7463 130.17 -0.469086
10.9416 136.509 -6.01085
23.628 120.558 2.89308
19.1923 127.387 -2.39794
16.1529 128.74 0.216312
11.0105 136.659 -6.07084
3.08493 142.718 -4.21419
13.9686 123.459 13.8431
-5.25225 149.472 -2.99019
-3.06086 142.698 6.08336
14.9225 122.681 13.8397
17.0095 125.228 5.64585
22.6891 121.58 3.06537
19.2228 123.147 5.91778
13.5315 132.488 -2.10443
-3.76422 147.648 -1.80724
19.7237 127.015 -2.00798
3.63929 136.35 7.21734
15.0528 132.29 -4.07349
10.3439 128.936 10.0285
22.4662 121.116 4.58021
14.2768 130.622 0.379626
6.58789 134.833 5.25844
19.7966 127.033 -1.99963
0.250114 144.483 -2.2526
4.5132 136.376 5.86916
-7.42486 151.276 -2.18338
1.84134 137.652 8.05012
0.188063 144.606 -2.19882
-7.57647 151.378 -2.00496
16.3693 130.074 -1.77345
-0.953251 139.347 9.61186
-5.59287 150.171 -2.94673
2.71151 137.004 7.99242
10.9979 129.552 8.21945
4.3859 136.529 6.11794
15.6986 123.367 12.0242
11.5838 126.906 12.2316
8.31103 134.27 3.87361
17.1008 127.683 1.66312
-8.93355 150.233 2.59712
4.77544 136.551 5.51522
15.2609 127.975 4.25125
14.9781 130.651 -0.257302
11.5944 127.1 12.0183
-1.03803 139.607 9.5622
16.4562 130.268 -1.9189
5.06458 136.624 5.0862
-9.73763 151.259 2.2215
15.5845 129.294 1.37962
0.64776 144.682 -2.5799
15.7437 123.538 11.9861
8.05096 134.757 3.77409
17.6856 130.998 -5.08254
13.9607 124.938 12.5187
15.3158 130.593 -0.298683
16.5672 130.394 -1.9588
-0.537977 140.881 6.78339
23.0958 125.279 -3.17214
14.0975 135.143 -6.69963
19.7333 123.219 6.48381
17.2864 123.606 9.82442
4.97237 136.928 5.30361
-0.973371 141.529 6.58299
14.473 124.605 12.7334
15.8406 127.293 5.51095
17.5707 123.618 9.53984
0.353203 140.907 5.79971
12.0871 137.177 -6.6604
16.5346 126.505 6.00223
-6.46525 151.528 -2.57531
14.2142 126.002 10.9448
14.7978 132.789 -2.71088
16.4363 124.293 10.6126
4.78967 137.305 5.56227
19.7205 124.123 5.52761
19.3001 124.013 6.45059
16.6222 131.159 -2.4206
14.3433 126.173 10.7082
21.0865 122.621 6.20381
17.8732 123.874 9.22036
12.2954 127.863 11.0122
-1.10143 140.661 9.33321
11.0274 130.634 8.02814
9.15572 134.395 4.13175
-8.90881 151.957 1.19515
15.5696 129.184 3.26805
-5.64655 151.159 -2.66021
17.1741 129.118 0.896593
18.6358 130.664 -4.24013
19.3461 124.438 6.28176
16.517 130.496 -0.284177
15.8876 128.62 4.29385
-8.67785 151.991 1.26866
21.9043 122.082 6.58971
14.0296 136.179 -6.72706
-0.642341 140.616 9.29869
21.9547 122.07 6.59403
11.3158 128.819 11.5938
17.0177 126.694 6.13367
7.74123 141.342 -5.8862
0.575067 140.937 6.75822
18.7869 130.491 -3.86305
-8.31822 152.81 -0.669896
18.8319 124.919 6.61587
12.2902 137.951 -6.90041
-1.74225 147.557 -1.61296
15.9038 128.374 5.15847
19.3523 124.781 6.31812
18.0716 126.046 6.08247
2.57697 145.112 -3.9148
11.3973 138.832 -6.72493
13.6424 136.928 -6.82959
10.1621 139.871 -6.48949
11.5371 138.816 -6.78048
15.201 131.473 1.0032
20.1336 128.455 -1.51767
6.67435 137.459 3.97334
5.46767 143.497 -5.25265
9.73429 140.399 -6.44131
18.3706 125.777 6.64627
0.0721333 146.853 -2.34009
19.5747 124.643 7.06834
15.9398 129.126 4.80156
16.1661 133.834 -4.36948
14.9445 135.794 -5.9513
15.9456 129.153 4.88046
15.9298 129.579 4.19653
18.9019 125.094 7.75085
16.1444 127.069 8.64332
-8.12091 152.659 1.00033
19.6984 125.345 6.09399
4.4946 144.587 -4.72539
4.65755 139.105 5.31326
15.3924 135.37 -5.47853
10.7603 133.369 6.03957
1.94637 146.342 -3.53467
24.7748 121.242 5.75242
5.24223 144.292 -4.99697
17.1856 126.111 9.26963
16.7544 130.665 1.60318
15.1352 133.884 -1.72887
10.336 132.122 9.52539
18.9185 126.294 6.28618
16.1077 131.557 1.10994
-7.6498 153.425 -0.421292
17.0246 130.034 2.49646
20.0138 124.983 7.02446
2.61275 140.151 7.49282
17.7301 127.255 6.6583
16.0346 133.168 -1.54161
13.9733 137.433 -6.11009
0.556424 147.529 -2.73177
11.4102 130.944 10.4131
15.7047 133.462 -1.39641
-0.026993 142.297 8.16466
16.3785 133.145 -1.82789
17.4917 126.879 8.178
16.9451 130.884 1.72421
16.4261 127.758 8.60891
16.3187 134.988 -4.73879
12.2785 130.174 10.99
19.0556 126.444 6.83517
-2.43234 150.026 -1.68847
7.0179 138.705 3.86049
23.863 122.128 7.09904
19.5821 126.391 6.27747
4.41869 140.135 5.67988
26.1184 124.12 -0.199248
19.213 126.479 6.85159
16.3723 134.931 -4.12623
2.50446 141.277 6.98418
10.4699 135.448 4.75002
-1.16677 149.257 -1.8083
12.8032 139.278 -6.25101
21.1921 129.163 -1.12464
10.636 134.624 6.20873
17.555 131.155 1.27471
23.5914 127.675 -2.06455
8.81814 137.898 3.35651
-7.48863 153.848 0.595822
15.835 134.385 -1.51899
19.4549 127.147 6.08478
-3.23132 151.525 -1.78425
14.1687 137.805 -4.92206
24.6965 122.015 7.1911
17.86 127.72 7.85753
19.7142 126.913 6.30441
6.97646 144.309 -5.11491
8.00731 143.596 -5.41081
14.5986 135.998 -2.10479
12.0526 140.543 -6.36421
9.57985 142.514 -5.93437
19.3235 127.529 6.06078
18.9445 132.776 -3.11705
25.9963 123.259 3.03557
16.0809 134.93 -2.35788
6.7507 144.621 -5.02297
18.9635 128.001 5.88568
10.5362 135.043 6.80223
10.3725 142.307 -6.13826
8.74322 138.779 3.22637
24.5082 122.568 7.49919
17.1545 129.411 7.07513
15.0619 137.301 -4.21819
2.42342 148.154 -3.49961
16.319 135.965 -3.6919
-1.2867 150.583 -1.81373
10.4712 135.778 6.51252
19.5792 128.043 5.96364
26.4311 121.384 7.07668
16.5717 129.693 8.02641
10.6086 136.799 4.71972
15.2488 137.338 -3.94764
12.8847 140.521 -5.97922
2.27598 144.331 4.64197
22.1993 124.864 8.11619
10.5501 136.263 6.09561
9.20129 143.781 -5.71462
19.2852 128.464 6.29638
5.05704 142.119 4.31847
-1.11217 151.012 -1.93868
2.30141 144.349 4.9159
16.3121 130.347 7.99487
9.04522 144.141 -5.62033
19.4422 128.702 6.07419
16.2136 136.19 -2.36385
14.6369 131.759 8.6183
10.6412 136.42 6.53913
20.3304 126.876 8.39317
2.61416 144.52 4.74483
26.5253 125.295 1.11765
15.6218 136.348 -1.35378
15.0049 138.175 -3.72228
16.0568 136.605 -2.44479
17.5734 130.6 6.29082
15.2835 137.138 -2.07622
18.6469 135.053 -3.5492
18.6811 135.023 -3.50095
14.9952 137.214 -1.40344
23.3218 124.778 8.10105
26.2686 123.495 5.66841
18.896 129.517 6.90946
16.0158 137.255 -2.78599
5.88124 142.924 3.40387
26.4356 123.822 5.2096
11.6528 134.978 9.02246
10.8835 137.808 5.06429
10.9226 137.685 5.36125
14.1632 133.143 8.62115
18.8393 135.413 -3.37545
14.3787 139.841 -4.24379
25.8812 124.256 5.90839
10.769 143.91 -5.65413
19.277 134.853 -2.64386
3.33055 149.502 -3.606
24.5013 129.339 -0.891974
15.6505 132.241 8.37331
26.5454 125.065 3.9546
5.78055 148.08 -4.28886
4.43644 144.056 5.51071
26.9129 123.898 6.00269
4.88736 144.028 4.86103
14.8166 138.1 -0.44116
26.0248 124.126 7.16204
7.77623 146.807 -4.84636
21.8957 131.732 0.00606596
-0.589825 152.809 -2.17984
26.9222 123.295 7.66762
26.5111 123.961 7.24416
9.42362 141.504 2.79661
13.0592 142.343 -4.62591
2.67556 150.82 -3.24254
15.1247 139.24 -2.01816
25.7779 127.13 3.16404
25.2932 127.309 3.71403
6.06239 144.664 3.14267
14.8848 138.823 -0.414139
15.5377 133.544 8.50808
25.8858 128.286 1.26823
24.7874 128.181 3.30516
-0.766207 153.711 -2.13057
20.1038 129.76 8.1549
17.3162 132.419 7.85885
9.58632 142.031 2.71297
18.2164 137.701 -3.42605
14.4865 134.535 8.71932
3.21513 150.999 -3.27692
6.2533 148.883 -4.17225
10.8587 140.525 3.98934
22.8845 132.073 -0.0380098
26.8084 124.448 7.81723
11.5829 137.909 7.85696
14.118 141.202 -2.41366
27.1858 124.693 6.86206
20.305 135.313 -1.4211
7.3409 148.386 -4.40002
-0.00398879 153.858 -2.23495
25.7082 129.459 0.836108
24.0493 129.384 3.73114
16.625 139 -1.81498
13.4395 143.104 -4.17012
25.5968 129.949 0.607284
22.2639 133.024 0.504093
13.5862 141.826 -1.41459
23.1139 132.547 0.179604
19.5896 131.399 8.18132
25.5653 126.087 8.22329
17.8195 138.997 -3.06911
15.5582 134.872 8.45381
14.679 135.816 8.20061
9.82556 147.122 -4.90409
8.75622 144.221 2.35266
11.6843 139.304 6.85782
15.5428 139.905 -0.630442
22.1601 129.08 8.85555
15.6261 135.279 8.18839
14.0258 136.986 7.79697
25.4721 126.589 8.33386
16.2807 139.802 -1.02607
11.9004 145.562 -4.53169
14.2036 143.065 -3.65535
20.8955 130.329 9.10652
6.14449 146.627 3.12566
9.50706 144.297 2.30497
14.1342 141.833 -0.654445
25.9646 127.156 7.25176
24.9916 131.245 1.64509
20.8338 131.061 8.90016
21.7949 134.588 0.727516
21.0545 135.957 -0.514658
4.98085 151.692 -3.28556
23.8679 128.616 8.644
25.2193 127.99 7.6123
26.3717 126.586 8.36309
25.6046 127.673 7.65061
24.1451 131.815 2.38686
3.68848 152.843 -2.91995
21.1181 131.434 8.32347
16.4038 140.561 -0.872704
11.7842 141.044 5.96247
13.8667 143.206 -1.36735
24.4121 132.004 2.14824
11.7717 141.446 5.8495
10.2076 148.403 -4.55731
13.109 139.369 7.56533
14.0868 138.57 7.57467
21.0243 136.929 -0.795439
22.6497 134.499 1.20161
25.0402 128.655 8.68976
7.33339 150.885 -3.55895
24.7334 132.883 1.31068
24.066 129.646 8.51264
12.0107 147.069 -4.09657
16.9419 141.524 -1.87775
22.6251 131.019 8.39107
2.90502 154.06 -1.9999
21.1983 137.11 -0.441766
18.5383 140.316 -1.8037
17.6756 141.21 -2.03116
19.1985 139.74 -1.77557
4.0729 153.512 -2.46616
9.08656 146.734 1.94691
6.39603 148.603 3.04502
11.8901 142.074 6.23171
24.5017 133.299 1.76511
18.7109 135.61 7.14261
15.1269 142.487 0.251869
11.4332 148.057 -4.04102
18.5796 135.755 7.15523
13.727 145.848 -3.57673
13.9679 144.997 -2.26889
12.6004 141.323 6.97143
16.8053 142.241 -1.64827
20.4501 138.959 -1.4595
20.2156 134.425 7.44316
11.6501 143.242 5.20691
23.02 133.874 3.90967
6.24983 149.044 3.41484
18.7973 140.609 -1.46355
16.5658 137.784 7.58284
14.9158 139.19 7.68629
21.4297 137.611 0.0336267
