ply
format ascii 1.0
comment Created by Open3D
element vertex 1951
property double x
property double y
property double z
end_header
0.837097 77.0115 -0.496417
0.26245 90.728 -9.62652
-12.2029 128.582 -9.10782
-4.49177 87.0593 4.85633
-3.40301 106.772 -12.9388
-13.2531 129.295 -6.91557
-9.68042 122.583 -10.2089
2.64289 80.7431 -7.17015
-6.52706 92.668 5.43346
-5.58973 110.949 -10.8853
-4.4923 108.803 -11.8252
-19.5314 139.479 0.249087
-3.03409 106.153 -13.1591
-17.3827 135.993 -2.08669
-15.0327 119.048 5.42513
3.175 78.4705 -6.44137
-16.2928 134.373 -3.12607
-15.2872 117.362 7.6721
-20.3652 134.145 6.79896
-13.2359 112.714 6.51242
-8.31547 118.349 -9.47696
1.09448 89.0481 -9.01683
-16.6688 123.693 6.52294
-13.3542 130.907 -6.8143
0.234344 94.1228 -10.6206
-15.1235 118.644 7.08471
-13.2589 131.287 -7.06802
-15.9171 134.151 -2.88439
-6.44243 114.322 -10.0845
-10.88 103.78 8.73816
-19.724 133.567 6.8071
-0.820618 99.9846 -12.1368
-11.4305 105.342 8.96523
-13.28 113.265 7.28383
-8.16641 97.3699 7.45228
-5.18531 90.5573 5.62962
-10.3092 125.022 -8.80084
-8.99092 122.475 -9.81431
-4.60612 110.816 -11.1603
-15.9228 123.538 5.92974
-0.846505 81.5698 2.54411
-1.30506 102.905 -12.8079
-2.26181 106.234 -13.1051
2.10805 76.0777 -0.187572
-11.0139 127.188 -8.41095
-19.1268 132.402 6.85229
-20.0366 141.811 1.80977
-20.9641 139.333 5.93023
2.25403 75.7195 -0.0533699
-20.6983 140.304 4.67571
-20.2937 135.432 7.5358
-20.7676 139.804 5.47594
4.87528 75.446 -5.75843
-5.07778 112.603 -10.7925
2.3995 86.8432 -8.66285
-0.559422 100.691 -12.3131
-20.1834 135.424 7.54775
-14.4007 116.282 8.59598
-1.58211 104.893 -13.0819
-6.77241 95.5477 6.50471
-15.249 135.712 -4.3661
-10.2696 103.482 8.76134
-6.20934 115.35 -9.83542
4.55328 77.2524 -5.89347
-7.72234 119.147 -9.0413
-16.5311 125.838 6.83892
4.8788 76.3584 -5.80841
-4.27259 111.353 -11.0331
-15.1224 119.753 8.27579
-11.3135 130.545 -9.09378
-5.89709 114.93 -9.89841
-13.8882 134.424 -5.94997
1.57038 91.6359 -9.6391
-18.5484 132.371 6.89787
-15.6282 136.185 -2.83501
5.41129 75.2086 -5.68453
-4.69637 113.062 -10.8106
-3.36927 87.6098 5.70594
3.08701 86.4196 -8.6777
-4.49572 112.603 -10.8728
-16.4042 137.992 -2.15034
-15.3324 122.844 7.07351
2.92116 87.242 -8.81881
5.45704 75.4052 -5.68831
-16.3115 126.365 6.79599
0.331886 99.3579 -11.9077
-12.3492 132.707 -7.48672
-18.0098 140.919 -0.351115
-4.22457 112.249 -10.9341
-10.3219 127.881 -8.3785
-15.2079 122.848 7.13953
0.72798 97.6109 -11.2206
-13.3021 134.336 -6.23355
-20.0005 141.656 4.12039
-0.29043 102.977 -12.7989
-9.59791 125.974 -8.28044
1.56923 95.5458 -11.1661
-9.93478 126.825 -7.94412
4.00281 83.4416 -7.51688
-13.4671 135.543 -6.21194
-11.7107 109.147 10.0047
-9.03509 102.793 8.66479
-14.6442 119.902 8.79915
3.95328 84.4762 -7.90267
5.03991 79.0879 -6.28396
-18.5627 134.145 7.30496
-19.7997 141.912 4.24589
-14.4982 138.078 -5.35914
3.3522 88.0093 -9.07524
-19.2242 143.063 2.13873
-3.80104 90.1601 6.3846
-18.3339 142.64 0.410006
1.97163 94.3325 -10.5109
-0.198202 104.228 -12.9302
-15.4195 126.426 6.1552
1.20725 80.7714 2.0352
-3.70893 90.2096 6.45315
3.85253 75.0169 0.336428
-14.5796 120.65 8.91599
0.260015 103.21 -12.8027
-19.1209 143.18 2.46118
-19.6884 141.319 5.45068
-8.17922 102.103 8.41366
0.236723 82.6663 3.46545
-12.4684 113.708 9.7632
-5.8918 96.5532 7.41978
-7.20533 121.313 -8.55198
-18.648 135.586 7.7742
-19.037 136.903 7.72709
-14.9131 139.817 -4.31817
5.68495 78.8196 -6.1605
-19.449 142.173 4.7538
-3.28305 90.084 6.60287
-3.90204 114.11 -10.3867
2.79773 92.6837 -9.72319
-1.47175 86.8646 4.931
-14.0571 124.883 5.48575
2.97538 78.8481 0.590342
-7.20292 100.708 7.95158
-17.4002 133.053 7.30838
-13.2961 137.193 -5.51021
-9.28901 105.647 9.41988
-7.86048 125.295 -9.1404
-11.2749 133.805 -7.59277
-19.0233 143.18 3.62026
-11.5037 134.489 -7.53557
-3.10669 112.9 -10.8178
-4.41214 93.8757 7.03506
-7.12563 101.004 8.02127
-13.0327 116.881 9.82351
1.38634 81.6801 2.79414
-16.7977 131.871 7.31172
-19.3011 141.409 5.99425
-1.2582 109.801 -12.4194
-9.29552 106.163 9.59556
-4.4976 116.203 -9.54155
-0.50212 107.76 -12.4881
1.30331 102.086 -12.3371
-1.03112 109.665 -12.4631
-14.636 140.717 -4.08549
4.18075 77.6834 -0.0839531
0.942311 103.96 -12.6745
-0.130495 106.917 -12.3987
-4.65207 95.1811 7.42273
1.27965 102.626 -12.392
6.25933 79.3841 -6.24608
-11.9844 136.598 -7.0086
-13.7326 120.662 9.52798
-5.89115 120.133 -8.63655
-12.1156 114.795 10.2933
2.83461 96.562 -11.1631
-11.0239 112.182 9.7385
-11.1654 112.582 9.79944
-18.6781 143.638 3.76289
-4.54109 117.06 -9.30656
4.46097 77.6297 -0.12041
-8.35811 104.896 9.30451
-13.189 124.261 5.86995
-16.2391 142.992 -1.21774
-3.84783 93.931 7.23106
-15.0026 128.766 6.87121
-10.3058 110.617 9.8531
-8.84164 129.114 -7.91727
-18.3416 144.251 3.09434
-0.169988 108.492 -12.3904
-5.95 121.068 -8.35342
4.42371 90.5304 -9.41059
-15.9483 142.934 -1.44527
-10.4038 134.641 -8.17692
3.87635 92.6627 -9.64274
0.450239 106.804 -12.3925
-11.916 115.381 10.4349
-12.1712 116.244 10.4014
0.53145 106.74 -12.4143
3.83186 94.7554 -10.8057
-18.623 141.824 6.28166
-16.0901 132.281 7.73009
4.03968 94.126 -10.5469
0.792494 85.0642 4.20983
-7.10207 126.071 -8.68517
-12.9067 122.283 8.06426
-4.61019 118.674 -8.85698
-18.3375 140.63 6.92552
-4.98288 119.927 -8.72325
-14.7555 129.844 6.92286
7.53493 77.3466 -5.51862
5.7393 87.4543 -8.98279
2.08954 102.807 -12.1129
-1.62689 89.8613 6.7404
-1.96983 90.8414 6.81723
0.725437 85.8071 4.37294
4.33632 92.9543 -9.71843
-0.625183 111.188 -11.9841
-1.29031 113.153 -11.8682
1.18782 84.7716 4.17751
-9.22973 133.779 -8.90511
-5.50371 100.42 8.02852
5.22763 77.8278 -0.0178429
-8.08191 128.951 -7.85424
3.11902 99.1909 -11.3826
-18.2493 142.225 6.23875
1.91479 83.4141 3.72965
-2.95536 115.941 -9.8057
-10.1356 112.161 10.224
7.66111 77.9339 -5.62323
0.710316 107.794 -12.1635
-7.48561 127.745 -8.07707
3.70114 97.0742 -10.9747
-13.8113 128.09 6.7032
-11.4528 115.938 10.5369
-7.79869 128.406 -7.77317
-7.21534 127.414 -8.20506
7.10356 81.8652 -6.89953
-9.94044 135.961 -8.1597
-17.6 139.416 7.41565
-11.9044 139.508 -6.17216
-16.2329 134.825 7.78308
-12.5372 140.47 -5.17952
5.9678 88.5684 -9.06051
7.88994 78.4528 -5.74535
5.50444 90.7193 -9.50891
-11.0518 115.854 10.4804
-7.07626 127.627 -8.05667
-16.7779 136.764 8.02107
-16.5886 145.266 1.04161
-12.1459 119.654 10.3555
-7.48606 106.195 9.75455
-12.0794 124.757 6.33892
-5.25146 122.152 -7.85017
-12.2098 122.495 8.45864
-8.37995 133.184 -8.83521
-16.0692 135.606 7.74754
7.4474 82.5747 -7.17753
-7.21116 128.459 -7.7338
-1.74759 115.614 -10.7345
6.02779 90.1526 -9.50279
-2.44228 116.797 -9.88523
-5.01909 101.601 7.99747
5.73869 91.2385 -9.57119
-13.2902 143.009 -4.2464
1.52228 86.0928 4.50683
7.7069 82.273 -7.01794
-9.79051 136.939 -7.58189
-7.63174 131.605 -8.59053
-17.4867 143.714 5.50832
0.000462265 88.6663 6.47261
-2.29986 116.979 -9.90986
0.765139 110.129 -11.8161
-12.2501 126.597 6.59162
7.5233 84.3029 -7.70138
7.75349 83.4012 -7.47025
-16.3695 137.878 7.85348
-16.8917 145.499 3.22143
8.6642 78.1909 -5.54143
-17.1898 144.761 4.51905
-17.1454 144.882 4.32422
-3.88864 120.79 -8.52388
-1.58884 116.504 -10.5639
9.18184 76.5026 -5.24513
-9.06419 136.676 -8.13797
5.77665 93.5716 -10.0505
7.21849 75.3551 0.604123
-5.56233 126.232 -8.29815
-17.0804 144.428 5.09188
-14.306 133.171 7.34937
-15.0264 145.125 -0.137885
-14.2528 133.057 7.35703
1.30425 109.893 -11.6927
2.57859 107.016 -12.4289
-0.976355 92.3148 7.38509
0.654542 111.78 -11.5081
-10.8577 118.7 10.5335
-15.3562 136.52 7.50232
4.85168 81.164 2.25286
-1.85979 117.627 -9.95367
0.627536 88.7086 6.47443
6.69841 90.8146 -9.57352
-16.231 145.854 2.43467
5.55529 95.9424 -10.7817
-13.576 144.394 -2.72249
-14.82 145.097 -0.296856
4.62634 81.7903 2.42859
0.410286 89.2596 6.68793
-3.98215 100.91 8.17252
2.7945 85.3656 4.08669
-15.0894 136.261 7.33939
-9.547 137.992 -7.07371
-4.29766 102.082 8.18874
6.08523 93.8476 -10.1311
-16.4673 140.467 7.5327
8.3385 83.3633 -7.30833
-8.62305 112.101 10.8399
-13.533 132.224 6.99345
-7.60095 133.999 -8.44775
8.51456 82.6968 -7.08558
-4.9045 103.631 8.65159
1.27353 110.801 -11.5567
-11.4143 125.02 7.74688
-0.049287 90.9427 7.06497
-1.5987 94.3916 8.09266
8.93005 80.4152 -6.14003
9.03657 80.1346 -6.04149
-15.9827 139.482 7.71175
-11.7156 127.966 6.49272
6.8816 91.6135 -9.61893
-8.26068 136.463 -8.24056
-10.544 141.037 -6.05157
9.25546 79.9873 -5.95005
-5.2282 104.947 9.28093
-11.108 122.251 9.94966
-2.54733 97.8037 8.5565
6.98728 78.7935 0.616983
9.15874 81.1662 -6.35438
-6.49223 107.881 10.2347
5.89501 96.9512 -10.7389
7.49915 77.7633 0.301132
0.818443 113.791 -11.5869
-11.3074 124.847 8.72327
-12.255 144.791 -4.41685
-6.77209 132.362 -7.77714
-7.91118 136.489 -8.14374
-3.51874 101.932 8.22106
-10.7716 121.607 10.2692
-4.68628 104.491 9.05082
-2.92385 99.8618 8.43922
-3.45692 122.588 -7.71515
-15.3539 139.3 7.71415
5.24903 100.033 -10.8938
-14.265 136.681 7.21239
-15.8603 141.411 7.39783
3.20496 108.102 -12.1953
-16.1515 144.257 5.89766
-15.7969 141.339 7.44143
-1.10272 118.652 -9.92912
-14.7212 146.711 0.803439
9.45785 81.8884 -6.5962
1.54596 112.493 -11.3773
-12.3475 132.765 6.00968
5.72535 98.9507 -10.7611
-11.815 130.86 6.43747
-7.40777 136.022 -8.02372
-3.55386 103.02 8.50132
8.87934 75.2709 0.714695
-15.3068 140.735 7.65785
-10.7344 126.834 7.52635
-3.4668 123.901 -7.43032
6.69818 97.0847 -10.7774
-3.23349 123.512 -7.57876
-1.1736 119.85 -9.51427
2.82168 87.1964 6.2583
-8.9245 140.338 -6.78135
-6.894 135.546 -7.90124
4.8425 104 -11.4078
-2.59766 122.832 -8.25601
-7.31061 136.895 -7.83932
7.60108 94.1722 -10.238
-5.54738 130.614 -7.06557
-8.9 118.386 10.3734
-3.2315 103.329 8.60716
1.87693 113.488 -11.3594
-3.67211 104.307 8.9301
-5.5431 130.697 -6.99701
-10.5451 126.982 7.81083
-15.3165 146.412 4.18856
-14.6801 147.442 1.89356
7.81542 93.8136 -10.1255
6.30704 82.3948 2.38859
-7.34983 113.672 10.7513
-12.213 146.892 -3.25683
6.98494 81.1044 2.06259
5.8981 101.47 -10.9611
-14.2322 147.468 1.42583
-14.5225 140.538 7.4967
-2.43199 123.595 -8.10227
-7.87013 139.174 -7.16614
-7.52231 115.097 10.623
3.89466 86.5118 5.62502
-10.8544 131.076 6.29472
-7.74882 139.113 -7.2401
9.20345 77.0483 0.45252
-10.1935 127.997 7.33733
1.70162 114.953 -10.8677
-13.1521 137.45 7.12887
9.54791 76.0177 0.644412
-12.9586 137.386 6.83057
7.59646 96.9197 -10.7449
-5.02411 130.458 -6.56238
-2.13793 123.768 -8.25002
-2.59644 103.213 8.7218
-13.6413 139.411 7.03256
-4.18035 128.667 -7.12057
11.4787 77.8714 -5.10527
7.50058 97.4982 -10.6889
-12.2587 136.781 5.94595
-0.332526 96.6077 8.70724
-5.20304 109.242 10.579
-11.9824 147.698 -2.97117
-13.3279 139.299 6.76922
10.1513 85.1011 -7.17888
12.0476 76.2559 -4.83529
0.482593 94.7341 8.40804
6.67073 100.691 -10.8293
11.1808 80.0786 -5.5009
6.11678 103.214 -11.3262
3.43896 111.586 -11.4274
6.3086 102.683 -11.1445
-11.6127 147.773 -3.35757
-9.56368 127.105 7.74544
-3.1875 126.46 -6.90565
6.11122 104.275 -11.8616
7.52281 81.7914 2.17953
-12.5223 147.879 -1.15029
-12.9684 139.66 6.32148
7.245 99.6303 -10.7821
-1.42568 101.512 8.45086
-3.71224 127.741 -6.34796
-9.51806 127.894 7.46434
-8.30712 142.427 -6.60194
3.33188 112.571 -11.2053
-0.476983 98.3931 8.81522
2.1368 115.246 -10.3444
-12.248 139.148 5.41367
8.93519 94.5716 -10.5032
-11.0909 136.108 5.05943
5.65931 85.2971 4.59145
5.4373 107.593 -12.0597
-4.93933 110.241 10.5704
-12.1805 139.421 5.32675
7.18645 83.4024 2.56082
-11.0282 136.348 5.03958
4.72306 86.6913 6.01309
-4.78077 110.214 10.5576
9.78836 78.3478 0.594172
6.1725 106.108 -12.2384
1.4237 94.173 8.3451
-10.9393 136.707 5.01103
-9.87219 132.969 5.52796
8.35667 97.8594 -10.6529
3.24826 113.558 -10.6265
-13.8903 145.72 5.34124
9.37207 94.4177 -10.3266
-6.88116 140.187 -6.99776
9.85389 78.7805 0.745305
2.21973 116.293 -10.0266
-8.3776 143.862 -6.11555
-13.3961 148.72 2.07889
-10.7045 136.761 4.95539
1.87519 93.7849 8.28793
-3.80764 129.832 -5.97748
-0.544397 100.96 8.57621
3.63782 113.069 -10.5816
8.6254 97.8207 -10.655
-11.5001 149.175 -2.45777
-9.95203 134.453 5.24401
9.19503 96.2696 -10.7077
-0.896321 124.047 -8.15642
-12.6418 148.985 0.536052
5.35854 109.267 -11.5789
-5.56224 135.979 -6.2274
1.37998 95.4968 8.55389
-4.95466 112.555 10.445
-4.83681 133.326 -5.84154
-6.94301 118.86 10.4019
12.0057 81.7746 -5.97771
-10.3249 136.47 4.87384
3.77553 89.8114 7.40706
-10.9843 149.139 -3.21851
-6.06106 137.954 -6.27069
7.47331 84.3352 3.07334
1.9679 94.4799 8.35711
-3.86608 109.935 10.4757
-11.6384 149.581 -1.62299
7.27283 84.6337 3.60087
-8.90296 132.449 5.15648
-2.74704 107.164 10.0756
-11.2563 149.688 -2.50289
-8.14705 127.764 7.3851
-9.38476 147.841 -5.09386
-5.96221 138.861 -6.23688
1.57797 96.5309 8.54493
-13.1907 147.131 4.58793
2.65015 93.86 8.1574
-8.80744 133.574 4.79769
-8.60979 132.796 4.95307
-2.91865 129.477 -5.98554
13.5748 76.8952 -4.56198
9.32478 81.7846 1.77614
-9.06568 134.779 4.5894
8.96331 82.4184 2.17441
-8.65043 133.055 4.95923
-7.69011 125.852 8.24374
-5.25237 136.722 -5.94228
10.3911 92.8106 -9.20112
-11.3554 141.784 4.67049
12.2894 83.6814 -6.58936
9.48875 97.8058 -10.7797
10.8216 78.9651 0.69487
4.16037 113.151 -9.7869
-9.25899 136.281 4.28864
13.8364 76.4547 -4.39164
-8.23263 132.102 5.10554
-6.17904 119.186 10.2093
-12.7673 146.336 4.92046
-0.321802 124.474 -7.76381
-8.68437 133.784 4.94145
9.97938 81.1308 1.26524
-9.35997 136.701 4.33867
-10.1038 139.485 3.97526
0.203872 123.364 -8.0117
7.10271 106.57 -11.4061
1.41952 98.1047 8.74854
-11.1433 142.293 4.50536
11.6801 88.5789 -8.19813
-2.7799 130.533 -6.17791
11.0621 79.0516 0.736968
-7.32497 124.078 9.71722
12.8539 82.4552 -6.08371
10.58 93.709 -9.36608
-12.4781 148.752 2.94482
-10.404 150.008 -2.92577
-12.4349 148.836 2.82545
-7.89617 132.106 4.96239
11.5521 77.877 0.665629
5.16288 89.5312 6.9253
-9.13635 137.321 4.02337
-5.8919 140.701 -6.24879
11.429 90.6493 -8.54346
9.81628 82.2951 1.8187
-5.02781 116.906 10.5299
3.47534 94.3639 7.918
-7.95658 133.813 4.65937
-8.24393 136.374 3.48525
-2.11109 108.948 10.2909
-3.48791 133.297 -5.23719
-3.14913 112.415 10.1462
-3.43449 113.294 10.1543
-4.39937 116.007 10.3654
9.05948 84.2484 2.96771
6.09865 88.1798 7.07579
-4.76509 138.1 -5.62919
3.0777 96.5678 8.05186
-7.10235 131.625 5.18771
-10.2093 150.715 -2.13095
-11.6126 149.753 2.06982
-1.67501 108.608 10.2745
5.18582 91.784 6.99794
14.7465 77.2319 -4.48238
3.92142 115.882 -8.57857
2.34038 98.4885 8.62581
8.95283 104.8 -11.9428
8.37802 85.5826 4.34634
5.01564 92.2369 7.20885
-3.41188 133.958 -4.94389
12.2536 90.6357 -8.5863
-1.78427 109.793 10.0935
-9.17073 140.965 3.58186
8.06293 106.834 -10.9197
-6.00166 143.451 -5.7094
13.6701 83.7968 -6.3486
-9.29347 141.948 3.39681
10.1342 83.4237 2.42136
-6.11638 123.608 10.0422
-3.5347 115.461 10.2045
9.41178 84.6302 3.28224
13.5735 84.465 -6.43052
10.6593 99.412 -11.0318
-7.54431 137.138 3.13472
6.6773 88.9533 6.6747
-5.48053 122.082 10.018
13.9677 83.1358 -6.07488
-7.54727 137.563 3.08037
-0.66767 107.462 10.0323
10.7703 99.6365 -11.1047
10.8564 82.5199 2.00619
1.71702 123.521 -7.92001
8.06852 86.2585 5.79009
11.6249 95.4825 -9.74696
15.3854 76.7321 -4.17633
6.45788 90.6406 6.32258
-4.63246 139.664 -5.13627
13.0203 77.8607 0.729322
15.3977 77.1736 -4.32835
-10.5919 146.713 3.82079
-9.36336 144 3.10459
7.01636 89.3359 6.4543
-6.311 130.191 6.66301
-0.842902 109.095 10.0538
14.0498 76.1259 0.172017
-7.46114 138.531 3.15844
-8.7312 142.406 3.19449
-7.34882 148.637 -4.6947
8.57788 107.473 -10.7601
-10.3495 147.464 3.40311
14.1506 84.6831 -6.27732
14.4521 83.3871 -5.97571
8.5374 107.752 -10.6518
-2.35468 114.539 10.0323
1.2856 125.438 -7.03177
3.1302 99.7427 8.43452
-0.000180457 107.46 9.93255
-10.6111 149.387 2.93053
11.4337 100.077 -11.3589
4.68446 116.926 -8.32508
12.2642 94.6197 -9.00694
-10.3826 150.3 1.91213
7.68635 89.0252 6.32368
10.2566 104.701 -11.8114
-7.80428 140.534 3.45607
13.043 92.23 -8.76083
3.59801 120.465 -8.07682
1.44797 104.978 9.01489
-6.4749 136.857 3.22964
3.92579 119.624 -7.93447
-0.774405 111.154 9.7938
-5.24833 125.44 9.39414
-2.88951 135.958 -4.33833
7.90786 89.0749 6.24703
12.4536 81.1936 1.5636
15.46 80.6186 -5.12298
12.1541 97.1459 -9.99463
6.34245 93.3344 6.83908
5.7739 94.6198 7.26807
-5.251 125.955 9.29054
-5.42734 144.892 -4.91906
15.788 79.7326 -5.01098
4.44504 118.505 -7.93802
1.13928 126.761 -6.4048
16.3362 76.8329 -3.92384
-8.72043 145.385 2.70042
5.19026 117.186 -8.5491
-9.55232 152.195 -0.529622
-5.41141 132.439 5.04974
6.41309 114.147 -8.83718
13.8679 90.4465 -8.23799
-8.43585 151.328 -2.22909
-7.45087 141.246 3.23389
-8.51965 145.279 2.67958
-1.53187 114.446 9.93579
-9.60798 152.469 -0.201908
8.56159 87.8441 6.52296
-4.50152 142.73 -4.81237
12.323 97.8106 -10.1023
-2.81352 118.588 9.88233
14.5101 77.4021 0.515529
6.40808 114.428 -8.82232
7.7435 111.828 -9.95733
-5.20807 132.728 4.78735
13.9918 78.7887 0.819585
-3.10712 119.798 9.79561
10.2602 106.236 -11.4721
-9.78419 150.62 1.93152
-9.06762 152.129 -0.923119
-9.33749 148.404 2.61866
13.6434 92.2288 -8.57882
-2.54435 118.114 9.91774
7.70566 91.9279 5.83092
-4.75245 127.807 7.76415
-9.32989 148.879 2.49789
-2.33798 117.719 9.95178
-3.13701 120.313 9.87863
2.84926 124.044 -7.16376
-4.57072 127.953 7.47351
-3.09095 138.874 -4.37155
5.43267 118.18 -8.53538
14.086 91.4061 -8.34025
12.8742 96.5617 -9.41451
-9.04544 148.702 2.45666
-4.36457 126.747 8.33172
-6.91364 150.465 -3.85659
6.18693 95.7034 7.33522
0.913673 129.004 -5.7714
3.16973 123.677 -7.01737
-3.64769 122.559 10.0845
0.791013 129.48 -5.78007
8.76682 89.8379 6.12393
-4.1515 126.465 8.55491
1.92398 106.694 9.43761
-4.5246 135.136 2.82373
0.894484 109.683 9.63525
-7.22927 151.337 -3.16277
0.0294687 132.145 -5.46973
12.8564 99.5561 -10.765
-1.31953 135.072 -4.48661
9.08222 111.285 -10.8365
-5.26338 147.284 -4.42148
10.4975 107.385 -11.0479
15.5517 77.2669 0.206516
-8.14569 147.563 2.38162
8.86684 90.9543 5.86804
-6.33616 150.347 -3.83704
-3.56258 124.706 9.44578
-7.78836 152.176 -1.71596
16.6681 81.4184 -5.12616
-6.38317 141.864 3.00668
9.54943 87.7877 6.99642
15.0006 79.0753 0.871521
16.9334 80.5899 -4.85901
-0.943034 135.132 -4.46188
-4.75634 146.557 -4.16499
-6.52823 143.207 2.67557
-3.47501 125.971 8.79278
7.3842 95.6232 6.41944
13.8183 95.5957 -8.81486
5.1265 100.55 8.05639
-3.84505 134.128 3.45577
0.915367 111.573 9.62011
-3.91677 144.193 -4.03292
-1.90852 137.602 -3.70243
-2.61653 140.197 -4.0047
0.920779 111.818 9.61478
13.1829 100.804 -10.9532
14.702 92.8869 -8.31349
-4.83318 147.533 -4.05283
13.8181 81.9998 2.23224
-0.404862 134.451 -4.46535
-3.10133 126.295 8.29729
4.6637 102.215 8.44132
6.00905 98.9991 7.72879
6.35707 118.682 -8.29463
-4.52033 137.561 2.98688
6.61354 97.6035 7.40032
8.05115 114.864 -9.31929
9.65369 88.7726 7.05682
13.6814 97.8834 -9.51611
-3.26679 128.586 7.15775
-3.58691 136.414 1.94574
-2.73023 124.688 9.04695
-8.1417 151.504 1.24309
-5.5041 142.295 2.14732
-2.81852 126.285 8.23764
-0.756409 117.895 9.85803
-1.83718 138.697 -3.62193
-4.9246 141.362 1.72068
14.4621 81.2972 2.03775
14.8245 93.7411 -8.33198
14.7469 94.2071 -8.43916
15.5873 79.4879 0.970367
-4.20292 139.167 1.91971
3.78621 125.078 -6.1889
16.622 77.4197 0.125852
17.4645 81.3277 -4.86147
13.0796 83.9087 3.57893
1.78646 110.986 9.55845
-8.08508 153.737 0.0964442
-3.00358 129.341 6.89873
2.11565 129.282 -5.17605
-1.37967 120.645 9.81798
5.69848 101.27 8.00879
-2.41425 125.962 8.38427
15.8461 90.1159 -7.33823
-4.49108 141.946 1.01818
-2.34936 125.431 8.68496
-2.95231 131.095 5.79961
17.1138 84.395 -5.83094
-6.36504 152.339 -2.44774
-5.1145 150.003 -3.52956
1.13484 113.872 9.58846
-0.111207 117.421 9.89216
12.7674 104.119 -10.4256
-1.84199 140.382 -3.64472
-0.523782 119.144 9.67891
-7.43283 150.966 1.53838
3.5739 107.473 8.98223
14.1327 83.0739 2.81423
-3.69249 141.053 0.431642
9.31723 94.2877 5.6546
7.31714 98.8183 6.97354
-7.57179 153.858 -0.113916
17.0663 86.0859 -6.15728
-0.0262399 117.993 9.83696
8.9933 95.7615 5.64094
2.88243 109.883 9.28886
1.31101 114.377 9.57635
-2.71076 133.014 4.74741
-2.86632 144.228 -3.40521
18.1012 80.3094 -3.82823
-0.913286 138.473 -3.41654
14.8314 82.427 2.68048
16.1469 92.1484 -7.89751
3.44697 109.387 8.99369
5.95929 103.254 7.797
18.1626 81.532 -4.43467
16.4442 79.5756 1.16567
9.82182 115.055 -10.4973
10.0967 114.554 -10.6949
10.8608 111.784 -10.3545
11.0024 111.147 -10.1624
6.71612 120.203 -6.84682
16.5578 90.5187 -7.284
3.28745 110.255 9.03855
0.720846 134.878 -3.79372
2.44323 112.74 9.29143
7.95165 99.7911 6.5242
4.94826 106.725 8.33018
10.2511 94.3339 5.38458
6.35563 121.628 -6.41182
-1.77043 142.663 -3.3315
18.9944 79.3438 -3.74518
16.7858 91.2416 -7.62797
-0.447845 138.921 -3.33767
18.171 84.2744 -5.28504
14.5157 102.632 -10.7727
0.705417 118.856 9.56577
16.9655 90.2907 -6.9839
0.134409 137.541 -3.37161
-6.73823 154.409 -0.0449507
-0.517297 124.501 8.28534
9.32957 97.4864 5.74471
2.24571 114.753 9.31861
-1.49798 135.143 2.57776
0.403547 137.185 -3.3648
2.81059 113.558 9.18253
19.1364 80.0159 -3.69833
4.89298 108.638 8.23171
-1.86481 144.252 -3.13958
19.3007 79.8987 -3.74029
19.1283 80.3314 -3.66298
2.226 115.611 9.28666
15.8829 96.7557 -8.61323
5.97344 106.641 7.38003
10.1621 96.5746 5.22932
19.7387 78.9016 -3.88546
4.19392 110.733 8.49387
1.74423 117.261 9.3456
5.0322 126.182 -5.34504
15.412 99.5669 -9.39826
-0.951905 128.327 7.39485
4.5875 110.122 8.29552
-1.21945 138.545 0.243105
6.97219 104.994 6.71637
0.692393 137.37 -3.3624
1.85004 134.401 -3.80205
0.406716 122.501 9.17251
11.34 93.1926 5.82501
-1.10961 131.543 5.81293
3.77091 112.948 8.64907
-1.04781 133.637 4.2244
10.7922 115.807 -10.1232
-1.39177 144.222 -3.09454
4.30642 128.917 -4.76325
12.1702 112.65 -10.8418
6.93343 106.34 6.52732
-1.13632 139.713 -0.0550777
18.8376 84.1649 -4.59315
4.37337 112.049 8.29617
5.87878 108.519 7.44481
-0.673232 136.541 1.44333
-0.171265 127.063 7.5768
4.79255 111.23 8.04139
7.60503 105.146 6.10693
11.4147 94.2311 5.48584
7.34016 122.075 -6.3242
14.8358 84.8845 4.67551
12.717 88.3623 7.04392
3.29658 115.186 8.72043
0.938328 122.069 9.07691
15.1198 84.4937 4.39955
20.5533 78.0998 -3.53169
7.30248 106.291 6.21167
6.89148 107.169 6.55304
4.56196 112.691 8.13312
12.4728 113.231 -11.0259
-0.277325 128.633 7.39509
8.382 104.775 5.45662
14.7798 105.531 -10.3305
-0.510438 132.903 4.90148
8.06496 105.598 5.62345
6.79505 124.16 -5.68004
18.3616 89.8248 -6.42827
9.37164 102.491 5.19343
18.892 87.7594 -5.73777
2.56732 119.198 8.84253
8.43229 121.209 -6.59127
6.25253 126.227 -5.23492
18.2903 91.8854 -7.3011
12.2153 93.3423 6.04551
5.17891 129.145 -4.82957
14.1038 108.079 -9.74335
18.2121 92.3582 -7.35174
0.0798997 134.495 3.25915
-0.703755 145.045 -3.02144
1.88568 121.842 8.80165
10.3016 100.272 5.47064
9.70355 102.948 4.97296
12.402 93.1971 6.14799
0.200403 129.33 7.34451
-3.55492 153.098 -2.07397
5.36448 129.539 -4.94666
17.7122 81.6228 2.79565
3.24527 119.056 8.34221
2.83875 136.255 -3.95983
10.5105 100.614 5.35402
18.9295 89.8758 -6.31588
0.162166 131.732 5.97608
11.0023 99.8621 4.91372
18.6351 92.0341 -7.18522
3.47099 118.982 8.11917
7.88343 108.781 5.5251
13.9754 88.1764 7.00478
10.7553 100.621 5.17321
18.1442 94.9441 -7.94757
-2.82707 152.11 -2.18548
1.94768 139.521 -3.78229
19.8903 84.7619 -4.07685
2.7665 137.508 -4.09727
13.6695 88.9827 7.54663
5.39804 114.981 7.13134
7.47345 110.321 5.79824
7.74577 109.8 5.56542
17.7245 82.5033 3.00067
9.33905 106.531 4.55446
3.97231 135.189 -4.71514
-0.00791865 145.249 -3.01706
12.186 97.6048 4.80378
4.92027 116.764 7.29186
17.7657 97.3432 -8.2186
1.58561 126.161 8.00523
21.9591 77.7358 -3.00745
14.5474 87.9062 6.86308
8.67352 108.693 4.78837
21.0765 82.1291 -4.1539
3.13627 121.787 8.03297
1.6978 141.318 -3.61879
5.02131 117.167 7.15435
3.15638 137.893 -4.42236
15.2304 107.85 -9.88032
1.57403 141.735 -3.52462
16.433 104.925 -10.408
0.868257 130.861 6.62834
21.4007 81.8665 -4.26825
19.228 80.1164 2.30728
9.83753 106.639 4.1911
0.701468 138.105 1.63462
14.9072 87.6864 6.8343
13.2286 93.8003 6.21164
14.8196 109.594 -9.77056
12.6289 115.814 -9.32804
3.59397 121.988 7.44253
9.23358 124.736 -8.06578
6.29856 115.376 6.18522
20.6012 84.422 -3.80289
9.40191 108.56 4.18669
0.661383 145.05 -3.20908
13.1115 95.1118 5.78686
13.3545 114.604 -9.82066
6.30203 115.67 6.13255
18.9026 94.6534 -7.53225
20.7804 83.9619 -3.723
1.70911 127.98 7.64337
16.0792 86.1497 5.80152
3.07299 139.363 -4.35693
1.30518 133.182 4.64109
17.8552 99.1378 -8.38697
3.80404 122.373 7.0808
9.37775 125.13 -8.29262
5.21667 118.641 6.64666
3.28039 139.012 -4.47814
14.0823 114.023 -10.7683
0.827131 139.822 0.818259
20.7596 84.4422 -3.77173
4.72113 120.476 6.60895
8.97274 125.812 -7.59173
21.7043 82.4798 -4.36219
9.02258 125.836 -7.69737
10.9886 120.849 -8.42844
6.08384 117.134 6.12502
14.2535 114.006 -10.8108
10.5175 123.627 -9.33849
11.7978 101.92 4.44308
14.497 113.524 -10.8696
5.24339 134.707 -5.23192
12.8568 98.4747 4.77816
9.13649 110.735 4.16515
16.0877 86.8033 6.18786
22.7382 79.2003 -3.68728
8.23551 113.39 4.44419
15.633 87.6202 6.78394
19.2426 81.4063 3.00244
10.5361 123.406 -8.74186
9.85276 125.645 -8.83475
1.87469 143.475 -3.57976
17.731 102.001 -9.2198
8.69889 112.465 4.20274
22.6904 80.1005 -4.05063
1.79451 134.566 3.58316
1.2861 138.624 1.76137
0.029949 148.547 -2.84199
16.701 106.731 -10.1402
7.34168 116.007 4.95183
1.84603 143.945 -3.53082
21.2123 78.2713 1.16981
1.02549 146.155 -3.26416
22.4205 81.5406 -4.1863
18.8365 97.8248 -8.234
7.16102 131.094 -5.9812
2.14198 133.514 4.17372
14.7727 113.923 -10.6875
20.3977 88.9935 -4.69201
7.33298 117.187 4.65181
14.7533 89.9213 8.08885
14.2142 115.11 -9.98154
2.51892 128.677 7.34486
16.3964 87.2389 6.37988
7.63942 116.641 4.52061
12.8174 101.043 4.26516
20.4379 91.7079 -6.50729
5.50812 136.358 -5.44713
18.2494 84.578 4.26242
13.4229 98.3507 5.10273
19.4855 82.2221 3.17426
11.6321 121.955 -8.84443
1.7806 145.454 -3.54481
16.0027 109.528 -9.60021
1.08411 147.158 -3.19596
8.10103 129.988 -6.54223
18.4806 84.4281 4.09932
19.838 95.1151 -7.28486
8.59146 128.943 -6.6732
17.1753 106.877 -10.0165
6.40197 121.202 4.67227
2.46573 132.84 5.05389
19.1193 98.9395 -8.33452
11.7812 124.482 -10.6142
0.103261 150.344 -2.7945
1.7648 140.108 1.21008
13.6033 117.459 -9.40767
19.2455 98.7815 -8.32302
14.7243 115.191 -10.2215
5.33771 123.749 5.5066
10.2774 111.507 3.28954
3.37685 142.798 -4.42405
6.90535 134.453 -6.32773
1.69363 146.79 -3.41873
9.20185 128.505 -7.10557
4.58023 140.027 -5.00273
9.32309 114.845 3.19243
5.22446 138.546 -5.35213
21.807 78.5699 1.61331
4.48072 126.155 6.06384
15.9132 112.271 -10.3742
12.0102 124.917 -10.7761
0.381516 150.587 -2.85008
13.9107 98.2817 5.39427
2.65261 131.738 6.33295
3.61825 142.958 -4.54178
2.61218 145.194 -3.86735
13.1047 121.301 -10.2987
0.317164 151 -2.81177
23.8613 79.9304 -3.8472
13.3456 101.602 4.44449
7.84938 132.81 -6.54371
2.61876 136.682 2.92804
3.32124 144.034 -4.36205
14.5077 117.942 -10.739
13.8161 119.374 -10.1951
16.9109 109.216 -9.70433
12.0605 107.122 3.4539
17.6031 107.406 -9.92713
3.51859 129.155 6.81853
17.8847 106.67 -9.88255
6.85125 122.572 4.12674
2.70422 137.288 2.63361
18.6211 104.317 -9.739
22.3721 85.5349 -4.14331
10.4491 113 3.02505
7.9053 120.271 3.46466
5.20372 125.897 5.56671
-0.514455 153.84 -2.28749
16.6427 110.455 -9.52311
10.8629 111.894 3.13012
9.2116 117.198 3.00287
14.4612 96.9184 6.19223
8.83287 118.172 3.18882
10.7605 112.403 3.06693
5.46288 125.77 5.39457
7.1261 135.864 -6.17387
18.2753 106.354 -9.83318
18.651 105.154 -9.77047
23.0302 84.7976 -4.44858
15.052 93.0894 8.14099
22.1977 87.8224 -4.59981
20.77 94.7903 -6.56794
3.55036 133.951 4.15914
21.1002 81.2188 3.21932
20.3445 83.2182 3.61685
15.3817 116.096 -9.98247
4.85274 142.149 -5.00004
8.14929 121.366 3.2362
2.47536 141.354 1.29691
1.89216 149.161 -3.30975
6.94435 137.97 -6.6698
4.99863 128.221 5.61626
19.9722 84.3073 3.98125
23.0571 85.6398 -4.35974
3.62089 131.261 6.61086
11.8124 128.225 -10.4625
12.8003 106.978 3.64233
16.6336 113.275 -10.3111
22.796 87.0281 -4.6139
6.37122 125.539 4.75347
14.1202 122.094 -10.8333
14.8167 98.1915 6.06685
15.569 93.0595 8.25181
17.7955 88.4431 6.61458
15.2343 95.3558 7.3985
1.98117 150.008 -3.28606
21.9304 80.3482 3.10796
21.4261 93.6858 -5.89586
5.68178 128.284 4.85946
3.97609 132.618 5.5915
4.77404 130.008 5.71807
9.61728 132.298 -7.54293
16.9136 113.317 -10.2234
5.28984 129.259 5.20781
3.73039 137.733 2.3791
10.0302 118.093 2.59108
13.11 107.358 3.6646
9.60769 132.69 -7.56893
15.5732 117.965 -10.1801
21.4803 82.018 3.55449
22.8905 79.2119 2.39438
22.3639 79.9938 3.0855
6.70765 126.527 4.45806
24.8573 82.1208 -4.35556
21.4551 82.411 3.69812
15.2041 118.943 -9.63591
1.42514 152.641 -2.87801
3.06525 148.77 -3.78274
17.727 89.3506 7.27733
2.72782 149.604 -3.56724
4.43051 134.436 4.11974
14.1833 104.211 4.33112
3.23915 148.535 -3.87235
16.0784 117.355 -10.2638
4.62266 145.573 -4.7638
2.06923 151.519 -3.09046
14.3901 103.842 4.48467
13.2507 108.702 3.53115
15.3758 98.4087 6.45398
4.57109 135.67 3.38444
6.44404 128.387 4.5661
9.86538 134.196 -7.77739
11.4267 115.926 2.64148
16.8875 115.624 -10.0554
5.68673 130.738 4.94238
22.5235 80.723 3.61281
17.4333 113.888 -9.86316
15.5589 98.4657 6.58533
21.9662 92.3808 -3.90489
21.1741 99.8839 -7.8107
4.17395 139.664 1.8987
21.8281 82.5993 4.01018
18.2007 89.5516 7.28839
5.1978 145.649 -5.04066
25.94 79.3338 -3.05307
23.5743 87.728 -3.90612
16.4392 93.6614 8.5279
21.5745 96.4461 -5.82936
14.4974 124.442 -10.6271
17.9984 90.0462 7.74508
25.6088 81.9829 -4.07541
7.54944 141.657 -7.23395
9.01597 124.824 2.29755
5.02262 133.675 4.96532
5.16157 146.168 -4.96561
14.3199 125.513 -10.6919
16.6871 93.333 8.56178
12.8784 112.504 2.9747
7.948 127.238 3.40047
11.6043 117.234 2.47886
24.7524 84.2754 -3.31728
9.826 135.977 -7.76714
13.1138 130.158 -11.0658
7.78841 127.553 3.67962
24.2001 86.5726 -3.65778
8.53355 140.575 -8.09977
20.8505 102.226 -7.73207
14.3895 106.825 4.07743
5.23132 135.01 4.08656
12.6689 131.328 -10.7363
4.27005 148.734 -4.18587
3.32288 150.886 -3.45878
12.1713 132.567 -10.3136
7.25511 128.886 4.2661
15.1377 104.035 4.79849
11.5225 118.347 2.37476
16.7155 94.2745 8.65336
23.7381 89.3791 -4.19989
23.927 88.2961 -3.7947
16.2712 96.4264 8.151
20.2891 105.312 -8.25362
23.8589 88.8019 -3.96945
12.5468 132.416 -10.7609
17.324 117.15 -10.1773
24.4825 79.0873 2.26443
22.5673 93.4108 -4.09336
11.1286 134.677 -8.77239
10.1421 137.064 -8.26129
12.5456 132.733 -10.5955
24.0614 88.5147 -3.75275
18.6176 112.9 -9.5492
4.88162 148.674 -4.51703
14.4482 126.494 -10.1211
16.4756 96.4162 8.32022
17.3189 93.3912 8.71914
26.4324 81.9071 -4.03226
13.2449 113.471 2.94414
6.38058 131.977 4.98204
21.1152 86.2594 5.37291
15.9134 118.933 -7.48749
10.5841 136.89 -8.68655
2.08639 154.248 -1.79363
13.6943 112.018 3.23335
11.0192 136.194 -8.98418
14.6587 127.227 -10.6821
20.3929 88.1546 5.90393
25.5081 84.4339 -3.37405
10.4837 137.71 -8.75914
5.39094 138.713 2.64944
6.552 145.967 -5.6915
15.9601 121.429 -9.08553
20.1343 107.713 -8.40807
23.7131 91.0534 -4.0229
26.8561 80.6279 -3.41047
4.93644 149.257 -4.29787
23.6911 81.0301 3.85493
16.4223 98.9595 7.30482
18.8148 112.997 -9.17878
11.3689 136.475 -9.41734
20.7633 104.854 -7.2496
23.6937 81.2548 4.01662
24.9821 86.2782 -2.89207
11.3985 136.617 -9.48126
24.8144 79.5988 2.72037
5.73374 137.826 3.12925
18.8229 113.672 -9.19741
14.7389 125.511 -8.59289
5.61842 139.116 2.61352
27.292 79.2278 -2.58295
13.9028 113.053 3.16445
7.25677 132.648 3.83139
20.013 89.737 6.65259
23.7895 81.4658 4.06976
6.03123 148.177 -5.19269
15.8197 123.626 -9.49611
25.4752 78.8789 2.12403
6.13806 136.395 3.78297
15.9724 122.953 -9.1901
24.4035 90.3561 -4.04675
22.9526 83.2777 4.89025
15.5271 123.201 -8.28529
6.19045 148.062 -5.27994
7.57835 132.292 3.64546
4.47252 151.303 -3.54168
12.5095 118.871 2.40504
13.22 116.417 2.61595
17.4026 95.5249 8.83063
12.5786 118.748 2.43216
20.3089 89.7285 6.53384
7.90971 132.324 3.12798
7.85245 131.808 3.71355
10.2385 140.891 -8.93154
11.1427 139.191 -9.74361
13.6578 115.095 2.90129
4.86382 144.665 1.01503
8.71377 144.011 -7.60725
26.9128 83.1279 -3.82083
25.8769 85.094 -2.75028
10.4227 126.954 1.67169
20.2995 108.938 -7.83583
21.6247 87.0379 5.95412
7.90597 134.003 2.33746
8.39909 132.248 2.52726
8.56109 144.834 -7.39379
19.2855 113.008 -8.28355
12.1394 121.485 2.16976
8.6265 132.241 2.23058
16.9983 99.3623 7.83568
27.2383 83.1614 -3.75872
23.6892 93.6145 -3.39395
20.4776 90.3275 7.02213
27.6319 82.1442 -3.64705
22.0078 87.0095 6.0982
15.8651 123.672 -7.60513
14.7591 131.01 -10.487
27.8145 81.8098 -3.51609
9.76781 130.945 1.43376
13.1527 119.141 2.51962
25.089 81.2731 3.50409
7.98576 135.448 2.34461
20.1064 110.565 -7.16483
21.0289 89.9053 6.64925
19.0609 93.5107 8.63104
25.5934 89.1127 -3.24062
8.66691 146.325 -7.17095
16.8777 119.178 -5.62894
15.7186 126.227 -8.29738
15.0332 112.917 3.63353
7.56085 136.235 3.39193
19.4388 114.636 -8.09917
28.0575 82.1586 -3.49677
5.87542 142.712 2.56065
7.14345 138.199 3.07147
5.7004 143.882 2.16277
8.04712 147.885 -6.4218
25.8376 80.6578 3.32997
18.1061 97.3883 8.80449
16.2266 108.777 4.59683
4.47545 153.919 -2.28393
11.2605 141.808 -9.01823
18.3612 122.511 -10.981
24.4435 93.9257 -3.35824
22.9302 102.167 -6.04713
20.9887 108.513 -6.23799
11.8629 126.591 1.51334
14.2403 117.54 2.89849
17.3174 103.893 6.15229
17.2225 104.846 5.774
16.9287 106.434 5.24678
13.7115 119.753 2.62361
20.1804 112.458 -7.11236
10.5713 131.378 1.16557
23.896 84.7591 5.66205
16.809 122.53 -6.43409
13.8504 120.012 2.68865
20.4044 112.286 -6.88147
11.1917 130.34 1.10693
18.0011 122.638 -9.11548
17.2891 124.789 -9.06589
24.1927 96.6001 -3.43985
16.4357 110.064 4.70231
24.12 99.3622 -5.29776
27.1227 79.8566 2.63449
13.4129 138.478 -9.97947
9.78622 146.488 -7.45459
14.1142 137.093 -10.4597
10.1978 133.436 1.68064
22.5254 104.14 -4.94977
6.21087 145.464 1.91976
12.4016 140.732 -9.11586
16.2681 129.562 -9.64649
24.208 99.556 -5.29181
17.7064 126.738 -10.8272
6.01382 152.994 -3.30417
20.0258 121.803 -12.5213
19.7942 122.005 -12.1204
29.1149 81.7157 -3.05464
17.6432 105.562 5.8113
19.9196 94.6127 8.85803
6.30122 145.646 1.84314
16.939 125.062 -7.54568
16.0011 128.654 -7.99141
18.0181 102.703 7.29512
18.4493 125.738 -11.5105
24.1048 100.879 -5.70281
27.1465 80.4122 2.90185
19.9859 123.017 -12.9467
25.1498 94.7707 -3.31195
5.98061 147.327 1.68454
11.5184 131.197 0.98518
25.3732 94.2033 -3.33177
8.72381 139.152 1.53281
18.5295 99.6824 8.72779
20.0523 115.223 -6.84804
12.2896 128.266 1.53534
14.2618 120.472 2.87085
16.8961 109.536 5.06153
17.7158 127.458 -10.7281
7.48944 143.412 1.41222
7.16072 144.233 1.57508
5.5638 153.794 -2.00509
11.8066 130.491 1.15417
25.5372 94.1026 -3.35185
23.6799 87.1066 6.50711
15.5748 130.478 -7.71498
15.7245 130.963 -8.41252
8.35801 141.046 1.33209
15.2121 128.398 -5.18985
18.3935 100.756 8.65556
5.38548 154.274 -1.74351
25.7914 84.0567 3.99094
19.1739 125.316 -12.0962
15.2639 129.966 -6.33337
4.98242 155.289 -1.37844
27.2369 86.9275 -1.44049
18.1028 118.964 -4.46277
9.30971 148.742 -6.52418
18.4186 101.717 8.17735
15.1642 130.132 -5.93518
15.3935 134.357 -9.6902
8.0781 150.799 -4.98446
18.0757 127.744 -10.9408
15.4306 130.907 -7.09053
18.6614 122.78 -8.45484
8.39008 150.431 -5.31436
16.6835 128.844 -8.34441
15.9356 132.037 -9.03243
17.3891 123.996 -6.25035
24.8043 97.6463 -3.52339
7.68258 151.573 -4.43253
16.4175 113.266 4.43464
19.0766 116.319 -4.20889
16.621 112.516 4.59626
24.8285 98.4123 -3.99433
16.7638 129.26 -8.62817
15.3118 130.888 -6.40571
17.9668 126.498 -9.27766
14.9977 130.232 -5.10037
17.9786 122.362 -6.07204
15.0919 130.47 -5.45759
27.081 90.0224 -2.68948
18.7691 127.081 -11.5435
20.2613 96.4204 8.63726
16.1998 131.297 -8.64753
18.6203 118.459 -4.37472
16.1452 114.741 4.39904
15.8865 133.317 -9.18979
18.3263 105.514 6.53512
16.6728 125.554 -5.00185
13.0014 128.194 1.70985
25.2405 96.6982 -3.05217
25.0187 98.23 -3.67052
22.3953 106.851 -4.08812
15.4347 130.307 -5.6349
15.7895 132.479 -8.11763
9.54781 139.413 1.41023
19.9491 115.465 -4.68744
10.238 137.995 1.02961
13.6118 126.405 2.0232
19.221 99.9486 9.13792
9.84368 149.075 -6.49127
5.8187 154.802 -1.32771
10.7248 137.054 0.793882
17.4782 127.374 -7.71856
15.5412 129.49 -4.72307
12.0829 132.966 0.848936
18.1843 123.834 -6.51745
17.8451 125.14 -6.71207
27.7013 81.998 3.34142
8.90514 143.067 0.945371
18.8639 103.19 8.23074
22.9291 91.8004 7.38358
16.3487 126.48 -3.75083
14.3666 124.602 2.4501
7.81882 152.645 -3.61136
14.6984 123.496 2.67249
27.7953 89.4105 -2.12968
19.1952 117.956 -3.72518
28.7835 80.026 2.79601
16.6617 130.411 -7.28834
23.4432 105.409 -3.92076
7.85615 147.148 1.0258
17.5924 111.171 5.67759
28.4999 80.9459 3.10289
28.026 82.7269 2.94327
23.4357 105.686 -3.84243
20.7662 115.068 -4.73518
22.1012 110.684 -4.51784
16.7197 129.732 -6.41076
22.7691 92.8693 7.85918
28.0381 88.5682 -1.33942
19.7872 100.632 9.00382
20.2712 99.1539 9.13853
21.5308 114.528 -5.71779
19.5536 118.951 -4.38295
17.0984 125.435 -3.54706
16.9744 128.998 -5.99615
19.2899 123.158 -6.96499
12.7278 144.243 -7.64915
12.4563 133.908 0.994873
24.644 88.5675 7.05116
26.9226 94.5134 -2.9495
28.1455 88.064 -0.847616
20.6965 125.32 -11.8163
28.956 87.2174 -2.01862
28.1835 83.5951 2.64866
25.9331 97.8244 -2.97895
19.0727 105.2 7.63836
8.36354 152.578 -3.47457
15.855 133.824 -6.72016
19.1184 104.912 7.87824
25.7702 100.076 -4.17976
26.8594 85.3096 4.6479
16.6028 116.652 4.84758
23.9266 90.8029 7.43899
17.4386 112.489 6.12184
21.0614 114.998 -4.42272
19.7491 118.846 -4.22436
16.798 129.693 -5.57665
17.5385 129.209 -6.92738
11.7082 137.153 0.836816
17.6493 128.393 -6.39554
27.9777 84.7062 3.07393
13.6373 130.533 1.85408
21.1076 115.087 -3.97085
14.1347 128.418 2.3491
20.9867 115.207 -3.7036
20.762 121.347 -7.86868
15.6915 138.339 -8.8909
25.8269 101.063 -4.07013
12.1644 136.559 1.01367
18.7409 108.258 7.28846
18.2132 110.779 6.67452
8.32606 148.819 0.84262
7.87993 149.807 1.16844
16.883 129.726 -4.70624
15.7125 138.474 -8.64511
24.578 90.3854 7.54134
29.4341 81.9418 2.52473
16.7589 126.645 -1.83605
26.2992 99.3568 -3.40762
27.3958 95.1282 -2.71937
28.2986 84.8355 3.0965
18.2474 132.981 -10.1836
18.1419 111.299 6.84315
20.4122 116.305 -2.38993
18.9266 124.687 -5.32033
27.7573 94.0631 -2.65189
12.6477 135.714 1.16704
20.4329 123.693 -7.97564
14.9521 126.593 2.99706
17.6413 130.771 -6.60023
18.7535 132.406 -10.5048
15.3139 123.807 4.32723
28.535 91.2915 -1.98494
23.5907 107.93 -3.0649
14.9047 140.854 -7.8456
20.9977 124.971 -10.0483
18.1101 129.432 -6.56492
21.5552 98.5046 9.15137
22.2101 97.3514 8.57723
16.6637 127.688 -1.66482
25.5985 102.377 -3.27381
27.4357 95.7843 -2.53743
22.7531 112.788 -4.50267
14.056 143.815 -7.78437
26.6983 98.4916 -2.82875
17.2741 130.142 -4.79858
18.095 134.081 -9.77234
18.2964 129.941 -7.03604
8.6676 153.192 -2.07052
20.1433 120.765 -4.29995
26.5284 100.487 -3.7717
30.6171 86.4977 -2.63722
11.515 149.02 -5.46355
18.4469 124.912 -3.27873
14.7766 128.245 2.89203
29.8909 85.7685 -0.195945
23.0147 111.373 -3.61932
18.8612 109.446 7.76728
28.8579 90.0087 -0.983714
8.40654 150.255 1.25171
28.8978 91.11 -1.69323
30.074 82.1585 2.45636
27.0253 97.796 -2.34879
30.095 86.9871 -1.2509
26.8017 100.157 -3.5017
17.2819 126.774 -1.37884
17.3252 126.646 -1.36505
13.3046 146.696 -7.25802
8.68811 153.472 -1.48875
17.2486 127.767 -1.96772
20.7996 124.776 -8.08111
30.6482 86.7627 -2.10351
29.7638 83.3418 2.65121
10.0015 151.747 -3.16775
19.5012 132.265 -10.6341
21.078 116.011 -1.74514
16.0261 121.496 6.03034
24.0874 93.5702 8.44249
28.9084 85.3672 3.32734
26.9698 99.9141 -3.25817
20.4056 121.736 -4.49693
28.2166 85.9545 4.60946
14.8406 129.017 3.18517
14.5923 130.152 2.95853
15.599 123.523 5.78018
18.4423 125.616 -2.59092
17.6545 130.519 -4.46663
32.0421 82.3824 -1.44062
19.6783 125.999 -5.62921
20.8474 121.798 -5.05541
20.1948 122.582 -4.10254
26.5584 101.539 -2.97124
23.3633 96.8132 8.28018
15.4568 126.516 4.18358
27.3112 98.7246 -2.53108
8.77798 153.765 -0.909514
27.5511 87.056 5.99442
17.8636 128.439 -2.91595
25.5367 90.9827 7.78157
14.8929 143.372 -7.32883
23.4517 111.759 -3.22064
22.191 99.7566 9.0584
21.8685 100.989 8.8953
18.7658 130.734 -6.70327
24.671 93.0971 8.33631
18.9705 127.061 -4.3014
18.0667 126.377 -1.62176
29.9538 86.5115 0.944022
21.0873 116.289 -0.950607
16.9505 136.842 -6.96613
32.1155 82.8221 -1.28763
10.2118 147.444 0.884288
32.0886 82.9566 -1.28055
17.5956 134.884 -6.89406
11.9085 149.502 -4.60592
26.9803 101.007 -2.96544
20.4345 127.298 -7.70039
23.5403 111.817 -3.10833
8.305 152.402 1.80869
17.1501 137.928 -8.00649
17.7587 135.34 -7.44422
17.5122 128.013 -1.13529
12.2298 141.534 0.983791
18.8196 128.018 -4.2079
27.9224 97.2123 -1.98379
30.9422 85.5611 -0.153338
17.8197 129.693 -3.00978
14.108 145.778 -6.59539
12.0638 149.491 -4.59923
19.9496 124.071 -3.67711
29.9904 85.349 2.38921
20.9904 127.571 -8.81611
11.1458 145.317 0.899715
20.5734 123.44 -4.6037
28.7474 94.4258 -1.58851
18.1426 131.4 -4.89568
17.1277 137.857 -7.46774
20.9854 129.792 -10.4055
31.1824 81.371 2.80035
17.7359 116.277 7.81248
19.3373 127.944 -4.92671
27.7469 98.3025 -2.01742
29.0877 86.6151 3.86278
19.0077 130.968 -6.42587
25.3008 92.5622 8.29277
18.0237 115.489 7.90401
17.7547 116.381 7.8829
16.2666 140.352 -7.0596
26.3281 90.5876 7.57596
8.07402 154.389 1.68867
30.4661 83.3516 3.33493
19.7808 126.219 -4.3066
15.8151 141.738 -6.79161
27.8205 98.9915 -2.25825
20.5674 127.833 -7.25434
15.8405 123.695 7.1938
18.4371 133.926 -6.85432
30.6748 83.067 3.40183
27.4457 100.891 -2.68623
8.31203 154.125 1.69689
15.529 127.972 4.74366
15.767 125.046 6.44045
30.2638 85.4812 2.554
19.6784 125.707 -3.34868
23.0854 99.1429 9.08388
25.5088 106.331 -2.22497
16.0514 141.269 -6.70408
16.6163 140.06 -7.10807
16.5674 121.186 7.61905
19.2573 135.272 -9.62854
15.5004 128.228 4.77189
22.087 115.578 -1.08035
25.8119 92.2258 8.11355
11.1537 151.246 -2.60238
14.9587 128.943 5.61844
27.7291 88.3024 6.7121
15.2289 129.62 4.52956
13.7376 136.918 2.44721
30.5612 83.7133 3.57823
16.1715 122.828 7.59284
30.8838 87.5626 -0.0739845
15.0768 129.818 4.86944
14.5302 132.654 4.05832
20.9661 122.465 -3.36431
21.3052 121.52 -3.38207
10.8135 148.432 0.893992
18.6422 130.93 -4.17545
27.1526 89.8547 7.33372
19.0296 130.837 -4.99299
30.2246 89.4072 0.39667
14.0298 147.13 -5.67246
24.2709 110.2 -1.2847
30.9681 83.193 3.6824
33.0078 82.9314 -0.958344
21.2876 122.731 -3.82976
27.054 102.675 -2.0448
20.9438 123.105 -3.22375
11.6244 150.964 -2.55479
14.3015 132.471 5.37118
10.1864 153.262 -0.850507
14.987 145.087 -5.94223
25.5196 94.2551 8.37428
24.0009 112.92 -2.41355
13.3231 149 -4.88906
9.29148 154.409 0.523332
26.8365 103.669 -1.88823
13.1885 140.956 1.79126
20.752 124.016 -3.07255
18.1139 136.978 -6.80194
22.0336 118.464 -1.77417
18.8408 114.725 8.74093
18.6789 126.996 -0.343869
28.3071 99.8567 -2.26036
19.4904 126.036 -1.4631
16.5686 123.097 7.80991
28.7656 88.365 5.64224
13.7704 136.723 3.95321
13.768 136.536 4.161
10.4335 153.205 -0.777087
11.7262 151.139 -2.24378
13.7805 136.463 4.22257
25.7085 94.4426 8.34154
14.407 146.774 -5.20643
20.1459 110.696 9.04645
22.1013 118.661 -1.73284
32.344 85.4921 -0.461614
19.4427 113.191 8.83558
22.947 121.798 -6.13986
21.4942 129.817 -8.87213
26.0182 93.7082 8.26769
31.2234 83.9419 3.4776
24.3591 98.6286 8.58422
9.49717 154.498 0.769614
30.7251 88.974 0.965502
13.2886 141.257 2.05729
28.1008 101.087 -1.99976
19.1109 136.288 -7.81569
21.4182 127.904 -6.82404
18.8346 127.209 -0.120319
20.1942 111.124 9.1113
12.4107 150.551 -2.83203
25.594 95.6833 8.37584
21.0719 124.03 -2.75306
29.5009 96.3133 -1.35732
22.1887 116.961 0.12626
30.0529 87.3039 4.37145
31.5174 85.555 2.25186
21.9988 120.947 -2.39276
16.7837 123.655 7.92067
12.9418 143.589 1.68088
33.5896 83.2687 -0.768598
31.812 85.117 2.044
20.6771 124.537 -1.9033
20.812 133.367 -8.98015
18.5126 138.127 -7.15599
26.5123 93.841 8.17171
28.1819 89.9916 7.21193
25.3623 97.5562 8.11434
11.9879 147.93 1.01366
13.9718 139.74 2.67417
14.0992 135.894 5.46399
18.3691 138.692 -6.82049
11.0752 150.715 1.2491
13.8211 149.571 -4.25124
17.1966 123.228 8.0977
31.7825 84.424 3.42318
21.9268 106.797 9.62254
16.4822 125.531 8.1397
31.9135 83.6495 3.86672
32.199 84.8733 2.32943
19.9941 113.383 9.35518
29.8817 91.6813 2.74586
14.0582 140.018 3.04262
29.4403 98.3485 -1.31501
16.3957 127.163 7.44323
17.5373 122.577 8.27699
20.5595 111.809 9.45112
16.6329 143.235 -5.46175
11.0002 151.793 1.32853
12.3768 147.703 1.26719
24.1733 101.538 8.89175
21.9697 123.619 -2.91871
22.2505 122.365 -2.55867
14.0822 138.7 4.2478
32.1218 84.7376 3.14447
31.6256 86.3184 3.30238
32.6235 85.6466 1.4816
14.0484 149.777 -3.86963
30.6056 87.6565 4.78691
14.2713 137.497 5.15203
32.3882 84.994 2.80663
28.044 103.193 -0.88442
25.1225 111.606 -0.382655
18.6237 139.721 -6.63091
21.2003 125.174 -1.51119
20.2734 114.152 9.28975
32.6676 85.9267 1.67219
23.9913 121.725 -5.3247
22.3575 121.624 -1.32184
25.4224 110.086 0.37493
15.6363 146.657 -4.59591
15.0369 147.521 -3.76712
20.843 125.948 -0.884305
30.6519 92.4389 1.6904
14.2732 139.157 4.59751
15.7654 146.519 -4.62606
24.2615 102.849 8.91595
15.971 131.482 6.55863
21.8015 124.472 -1.87245
30.7895 92.4436 1.52088
17.8335 127.493 5.26525
17.6809 124.013 8.35917
13.1097 146.786 1.74411
11.2912 153.927 0.561327
31.6506 90.7082 1.01411
28.0281 103.667 -0.354806
33.6775 84.2601 1.23923
30.8205 90.1892 3.46695
32.4947 86.0848 2.68634
14.1932 140.936 3.83373
21.5967 125.148 -1.54404
25.1894 112.247 -0.0981868
17.0621 143.69 -4.99453
22.059 132.876 -8.49906
30.9652 93.0635 1.10495
22.2749 129.053 -5.99868
18.2894 125.634 6.15844
17.8349 124.783 7.9109
23.7748 124.688 -6.10214
22.4039 122.38 -1.05338
16.7279 131.603 5.33137
21.1311 135.781 -8.36196
14.5603 138.013 5.53833
19.3755 118.803 8.93837
27.8711 94.1009 7.91012
26.9942 106.522 0.403883
29.2869 100.47 -0.367771
17.7456 128.308 5.57739
21.6268 125.485 -1.46851
21.3806 121.253 2.45945
29.1681 100.875 -0.261412
18.726 140.782 -6.25261
32.3642 86.162 3.52256
32.2832 86.4264 3.52864
18.0973 124.357 8.08443
28.7737 102.043 -0.0604217
14.4598 140.146 4.54042
16.0025 146.931 -4.34188
17.0543 131.713 4.93117
31.0729 93.7754 0.934495
21.3998 125.988 -0.933337
23.4553 116.481 1.54132
21.3995 126.114 -0.940923
34.0217 84.3175 1.39936
15.7536 134.945 5.75298
23.6105 126.919 -6.67503
12.074 153.111 0.540398
14.2612 141.366 4.43399
18.8202 121.999 8.58217
25.5285 101.015 8.89068
20.9456 114.835 9.20444
25.7152 100.706 8.78985
17.0917 132.522 4.72568
30.5899 92.0884 3.90743
28.8068 102.256 0.301837
30.2904 95.4131 2.07286
21.7163 120.443 3.16797
21.4542 121.456 3.0377
14.7654 138.337 5.93634
19.4482 120.415 8.66514
14.4224 140.871 4.83337
14.3242 141.356 4.7147
19.564 130.525 0.625845
17.6365 131.26 4.64671
20.5995 116.374 9.19027
21.2338 137.132 -8.32721
14.385 141.164 4.86136
22.1359 124.64 -0.758976
23.1662 128.644 -6.27478
14.4578 140.944 5.04387
31.1451 95.3335 0.647527
21.5389 135.88 -7.78501
21.6288 135.407 -7.56963
21.0588 116.148 8.72151
21.7035 126.607 -0.880816
19.0312 124.591 7.06126
24.5334 105.056 9.07164
28.0713 103.901 1.58855
16.2389 135.138 5.61311
18.0709 130.923 4.60505
30.7623 90.4382 5.7085
24.2095 115.998 1.60991
16.3361 147.394 -3.90812
28.0251 103.883 1.97887
35.0762 83.4395 1.04194
19.8659 127.147 3.44217
29.7463 92.6268 6.72323
26.0316 102.043 8.28671
17.9816 132.124 4.2248
34.3727 84.4869 2.05702
20.4213 129.383 0.548722
24.2464 106.666 9.02592
14.7483 140.428 5.53928
30.0976 95.5096 3.87714
13.8368 146.823 2.91161
21.1902 128.322 -0.25532
14.4997 143.115 4.22571
22.7261 112.615 8.25939
28.2722 96.043 7.8858
21.4953 116.748 8.01859
23.683 128.63 -6.34762
21.5526 122.248 3.66929
29.0851 101.794 1.56698
30.327 92.1651 6.08503
16.8097 136.571 3.94582
13.3865 149.935 1.79805
19.061 131.271 2.72939
28.306 96.209 7.89109
17.7988 144.339 -4.30224
20.0388 126.633 4.05255
19.9827 121.24 8.38861
16.8676 135.995 4.40661
22.6237 124.149 -0.109845
20.4095 127.232 2.8092
29.0422 95.5915 6.72828
30.8416 92.1783 5.09367
21.6995 127.051 -0.0984859
30.3211 92.5998 6.0449
13.564 149.32 2.1344
21.8929 123.66 2.16085
21.9743 123.803 1.92091
24.8783 121.64 -3.28717
23.8324 110.309 7.96556
22.5513 113.975 8.26468
22.5172 115.403 7.30593
19.9764 129.495 2.48638
29.3117 94.7176 7.23224
27.9632 98.0861 7.88123
30.2957 93.5036 5.90128
