ply
format ascii 1.0
comment Created by Open3D
element vertex 1954
property double x
property double y
property double z
end_header
-13.18 119.619 2.18273
-11.9018 116.706 6.3642
-6.3363 118.395 -5.08181
16.4983 104.674 -9.83876
-17.3426 122.883 1.62382
28.4944 93.5785 -4.36862
-13.9563 122.282 -1.84615
-20.8698 123.147 6.33441
-12.8653 120.982 -0.730167
-17.7419 117.719 12.988
25.4943 89.0924 9.35499
-13.2811 121.088 -0.272405
18.9951 93.6143 9.52607
-4.67018 109.889 10.2998
-12.8731 117.836 5.8966
32.1561 90.1768 -2.31657
34.1909 88.102 -0.905422
31.6826 84.6483 9.77206
19.632 102.301 -8.96521
25.1802 97.2682 -6.64999
-12.6329 122.967 -4.78076
-18.4388 118.236 13.3143
21.4252 100.602 -7.93306
-0.641355 106.911 10.9781
-12.0179 123 -5.53984
-13.9489 119.013 5.38883
-12.141 117.182 6.57213
-12.6836 117.747 6.20322
-20.7579 122.687 7.75386
-19.7326 120.277 11.2253
18.6602 103.357 -9.38064
-7.09265 113.33 7.2924
-5.58869 111.284 9.35191
19.3781 94.4607 7.85966
-14.236 118.811 6.47858
0.774095 106.082 10.919
-2.6722 108.502 10.9942
-12.8317 121.253 -0.438068
-11.9601 117.09 6.85253
3.14858 104.892 10.0907
-20.57 123.803 5.56662
-19.0211 123.692 3.57081
12.5877 100.896 4.73312
-9.40695 121.335 -5.37748
38.236 84.3074 1.81934
-16.2218 119.966 7.38475
31.1803 85.3492 9.98765
7.2598 111.658 -9.35547
18.4886 103.808 -9.45908
-1.85221 108.098 11.0725
-20.7616 123.477 6.8515
-13.1663 123.357 -3.78195
29.9752 93.0004 -3.73241
-15.4753 120.417 5.63159
7.09166 103.163 8.50641
13.2094 107.693 -9.51694
9.96248 109.824 -9.18209
-15.488 123.139 0.274423
-20.4044 123.958 5.68509
24.6249 98.5549 -7.08468
-16.3937 120.155 7.77901
-12.8832 119.823 3.42498
-14.1331 120.287 4.36203
23.672 91.0276 9.8091
24.0322 99.1666 -7.326
-14.7615 119.448 7.05819
-16.1181 120.511 6.87094
31.8852 91.3519 -2.56124
22.8913 91.5585 10.0151
19.6293 103.168 -9.00758
38.5772 84.2941 2.36501
-13.7418 120.126 4.44842
-0.107347 107.361 10.9648
36.4522 85.855 2.39044
-5.85532 112.206 9.39268
-20.387 122.858 8.53762
-14.5853 122.809 0.468231
-13.5207 119.612 5.59219
-12.8586 121.254 1.29439
19.7836 95.3036 7.49583
-14.0121 123.423 -1.35504
19.8127 95.1923 7.83577
13.485 101.625 3.8246
39.6344 83.5475 3.19106
-15.8784 120.452 7.61915
25.135 98.7361 -6.93987
17.8029 98.7766 3.54189
24.3201 99.5064 -7.26238
-8.59152 121.458 -4.77063
17.5845 99.0166 3.45974
5.50383 104.85 9.02336
-14.9136 120.33 6.74419
25.105 90.9216 9.30945
17.2183 105.646 -9.44177
19.5373 94.5244 9.96823
-6.66652 113.84 8.17658
21.8185 92.7586 10.3647
-17.3457 124.99 0.82092
-16.1811 120.11 9.1992
36.4216 83.871 7.66329
26.2584 88.5415 12.7955
-5.97776 119.71 -4.51985
1.40128 115.346 -6.19586
26.8745 97.2517 -5.84382
-9.43147 116.079 7.8991
-12.4725 122.148 -0.0530771
-13.3671 123.023 -0.446915
-15.6902 120.677 7.71549
38.9545 84.4138 3.32391
-13.8465 123.341 -0.284568
-12.2468 124.081 -4.07962
27.3327 97.0037 -5.62752
30.3339 86.9131 10.704
11.0641 109.87 -8.43637
24.5483 99.79 -7.21314
23.8103 91.9172 9.96476
-20.1876 123.945 7.80613
11.9554 102.078 6.31791
-15.9191 119.237 11.3522
-13.0081 119.555 6.60222
-6.56188 114.155 8.37681
12.1842 109.355 -8.75365
33.9785 85.0891 9.54641
-13.1652 120.477 5.01475
-14.6427 120.492 7.12381
0.59292 107.989 10.8962
-3.62682 118.425 -4.28632
-13.9342 120 7.35588
-10.2925 117.301 7.88689
-19.1891 125.27 4.73064
-19.0637 126.37 2.30166
38.6369 84.9526 4.28162
-10.4879 117.944 7.53283
-16.2151 125.159 1.03105
-12.6965 125.109 -3.85981
12.7044 102.65 5.54029
-13.3139 124.825 -2.36284
3.64186 106.757 10.1892
12.5398 102.683 5.82405
-15.0765 121.451 7.19595
19.5614 105.108 -9.19067
-15.6929 124.965 0.932845
-15.1509 119.567 11.2045
-14.0251 123.897 0.742579
-9.57405 117.016 8.44193
-12.4655 125.602 -4.87491
21.0027 94.4268 10.7298
26.2582 99.0213 -6.12862
34.4392 90.3129 -0.024084
19.0865 99.0753 4.20009
-2.0673 117.901 -3.86152
7.66355 105.005 8.60856
-5.66694 113.805 9.79248
34.863 89.8781 0.43291
-18.8462 126.453 2.93783
-16.756 126.205 0.437204
-13.5159 124.236 -0.0422832
18.761 99.6528 3.83682
26.3676 99.176 -6.0286
12.3622 110.485 -8.86083
8.39022 105.019 8.23629
-10.2599 124.628 -4.93811
23.6547 93.3195 10.307
-14.9473 121.195 8.8609
38.9867 84.8594 5.61586
-16.1553 126.051 0.750643
-19.319 125.013 7.52337
-12.5362 120.332 7.37212
20.4588 105.028 -8.78748
20.1381 98.1523 5.76454
-5.15437 113.643 10.4795
-10.5543 125.063 -5.10076
1.40376 109.013 10.5234
4.12791 107.52 9.87073
19.4689 99.5106 4.27769
2.1902 117.016 -6.65041
4.95617 115.78 -8.09928
33.2518 92.5716 -1.34329
-6.72669 115.572 9.14202
30.2498 95.4364 -2.86115
36.6958 87.9139 3.35611
9.4 112.505 -7.65636
-13.6321 125.419 -0.925792
19.8662 96.7205 9.58287
35.6405 89.7855 1.24006
5.81811 106.776 9.46743
36.7499 87.9734 3.48073
31.0367 94.8892 -2.4324
29.7046 88.8516 11.8855
-18.3867 126.62 3.91593
33.8194 92.2095 -0.815103
2.77629 117.168 -7.18311
37.7618 85.5363 7.20183
-13.7583 125.448 -0.278995
32.0907 88.0196 10.3037
-5.27331 121.411 -4.16944
31.2834 88.3088 10.928
-1.60236 118.57 -3.61987
12.5185 103.768 6.40026
-3.16534 119.829 -3.84318
-13.7161 125.638 -0.498573
18.1236 101.345 3.38293
25.3505 92.6658 10.8044
-4.50681 120.959 -4.04904
5.2156 116.074 -8.00575
-0.547676 111.027 10.6061
8.39857 105.872 8.29413
19.963 97.1913 9.41191
-18.426 126.258 5.23081
20.5812 105.712 -8.87309
-14.5742 121.803 8.80736
10.3268 112.302 -7.55423
-4.72138 113.989 10.6815
-4.66571 113.962 10.6955
10.658 112.134 -7.60572
34.7425 91.304 0.376415
6.04571 115.575 -7.95653
19.1834 100.56 3.84849
-6.16511 115.621 9.52904
21.1954 95.616 11.0889
20.5034 105.995 -8.97731
33.6609 87.7095 9.58144
-11.9871 121.534 6.19341
34.1544 92.3563 -0.477091
-13.0696 125.021 0.688219
2.7927 109.327 9.98118
-7.64959 116.839 9.65797
-0.255782 118.311 -3.97037
-10.9202 126.242 -4.82498
20.0668 97.4567 9.48562
31.0494 88.8497 11.3042
23.3974 94.5574 10.674
8.65642 113.777 -7.41838
-18.0714 127.054 3.93474
26.3657 91.4388 12.8503
17.2276 108.371 -8.52965
19.644 100.569 4.07433
-18.6193 124.719 9.84536
-10.775 126.998 -5.99161
22.9702 95.0143 10.8662
-10.0618 126.46 -5.87641
-18.3176 126.843 5.24213
31.6051 88.9279 10.9925
-9.65099 119.54 7.78141
10.2624 112.981 -7.42372
20.1771 100.022 4.88579
-13.454 126.26 -0.282907
30.4444 89.4713 11.8855
16.766 109.039 -8.41553
10.9559 112.829 -7.77204
21.3125 106.005 -8.68291
38.2988 86.9201 5.92326
9.33743 106.373 7.82945
-3.31515 121.029 -3.92842
2.40487 118.168 -6.29221
-13.7197 121.901 9.30326
-17.8187 128.474 1.79213
-14.5989 127.43 -0.655368
35.9767 90.644 1.80857
-0.38574 111.924 10.6149
29.6525 97.53 -3.16526
27.1307 100.444 -5.49397
36.1123 87.1763 8.7577
-4.69937 122.219 -4.13226
20.1559 107.05 -8.86999
-9.5557 126.696 -6.24874
-4.87133 115.074 10.8139
22.7452 95.5672 11.0048
24.1317 94.8892 10.4184
37.0149 89.0939 3.73957
33.6355 88.5408 9.75549
20.7551 99.0614 6.7797
32.3495 89.0794 10.523
-12.1599 121.902 7.52296
-2.71761 113.533 11.2133
-15.0173 127.879 -0.348759
35.3317 91.7189 1.2115
-5.24234 115.616 10.775
26.6855 101.452 -6.04996
-14.728 121.698 12.2159
-13.9241 121.621 11.3905
20.7385 99.2197 7.3385
-5.2119 123.286 -4.35684
23.4396 95.7166 10.7995
11.8788 113.356 -8.63413
21.657 106.58 -8.69699
-11.5073 122.104 7.42431
-16.3137 128.608 1.04006
35.9442 91.422 1.8977
-12.9159 122.206 9.30111
37.7286 87.5419 7.46563
-16.4444 123.068 12.785
-18.0162 124.438 12.348
-5.93667 124.283 -4.69638
8.74828 115.113 -7.04449
-7.13704 118.031 9.85134
5.68362 109.33 9.30514
-11.4678 122.445 7.18077
21.9737 106.663 -8.61213
-2.02644 113.928 11.0718
20.9368 100.094 6.35435
-17.6127 128.74 3.28114
36.9312 87.8203 8.55771
7.84647 115.938 -7.07708
2.90012 111.201 9.74311
12.6272 113.521 -8.95168
-4.55256 123.492 -4.41752
3.37479 111.08 9.56778
-12.1442 122.532 8.56525
-10.6382 127.691 -4.11736
36.7014 90.7764 3.37994
-10.6933 122.351 7.02934
-2.56328 114.658 11.1281
3.50084 111.193 9.49823
-18.2043 126.554 9.35268
-4.05708 115.792 11.1053
30.1564 91.0556 12.5015
-10.4763 128.113 -4.79174
5.82241 109.837 9.15349
-17.3345 129.522 2.23306
20.8685 101.098 5.45641
19.9158 102.69 3.58245
27.6533 101.643 -5.32052
36.6323 91.0606 3.44214
-18.2421 127.149 8.61797
-18.3594 126.01 11.1923
-10.5665 122.524 7.11933
-17.9911 128.547 5.53506
18.5361 104.201 2.82906
2.52734 112.134 9.76566
36.3991 88.9433 8.50341
-5.53104 124.971 -4.82684
34.5685 94.1719 0.467362
36.4126 88.6988 9.00932
13.0878 106.581 6.14735
-5.1796 124.794 -4.75267
36.0907 89.5334 8.02729
-11.9485 122.461 9.83458
-9.75711 128.814 -6.30416
13.2554 106.661 5.91608
7.35924 116.934 -6.57341
17.8352 110.357 -8.19349
9.73633 108.096 8.14466
-12.2943 122.726 10.012
-5.0982 117.45 10.4596
36.5132 90.0853 6.59881
34.9381 93.9255 1.04206
-7.95946 127.542 -5.93315
33.2024 96.1382 -0.895089
9.55574 108.337 8.27319
29.549 100.133 -3.62042
-12.8702 128.78 -1.16681
3.09012 120.111 -6.38722
16.2353 106.976 1.59318
-9.96706 122.687 7.21367
-16.4968 124.711 12.4838
-10.4045 122.749 7.74977
15.9471 107.199 1.63766
27.9319 93.1756 13.1496
20.765 100.211 9.12044
19.0642 104.509 2.86832
-5.44033 125.481 -4.71627
-9.96264 122.983 6.95506
27.3956 93.7937 12.9345
36.4196 91.0566 5.56384
-11.5817 122.841 9.63446
-17.7002 129.497 4.87648
17.2033 106.471 1.77071
29.7043 100.261 -3.48186
-12.2818 129.304 -2.40089
-12.8646 129.116 -1.14918
9.64298 108.722 8.22498
36.0512 91.2597 5.97159
-9.66642 122.685 7.5168
36.3916 91.5773 4.89536
32.5584 91.2679 11.0952
-12.3424 123.678 9.44203
2.98982 120.516 -6.14831
36.0351 92.5095 3.65968
0.483188 121.085 -3.6008
21.9324 98.6255 11.4701
-0.36434 115.079 9.93377
14.8891 107.789 2.89854
17.1442 106.822 1.68247
-9.21208 122.71 7.12091
23.4653 97.7783 11.154
-11.6782 123.193 9.75393
9.65524 116.489 -7.16634
-10.1356 122.557 8.94019
16.4625 107.454 1.56183
13.9369 107.658 4.86284
19.5973 110.043 -8.12675
-18.4063 127.777 10.2904
26.3954 95.7795 11.3205
-9.53056 123.262 6.8189
34.2133 90.578 10.7211
34.5348 95.202 0.813923
27.5955 102.934 -4.91733
25.3539 105.071 -6.04818
20.8479 100.178 10.4915
7.42738 110.501 8.70615
2.70902 120.926 -5.7977
-10.4612 129.217 -3.78295
-15.9491 125.182 12.3783
2.62304 120.964 -5.69346
14.9042 114.175 -9.35078
9.05069 117.249 -7.15618
28.117 102.557 -4.53053
10.7901 116.181 -7.45445
1.43476 121.167 -4.17535
34.7733 90.7214 10.1252
-12.3039 124.081 9.71284
7.0546 111.028 8.60368
21.3609 99.8224 10.9363
-10.2215 129.832 -4.88577
4.5381 120.374 -6.76156
-17.5632 129.687 6.0936
14.55 114.737 -9.53021
-10.373 123.249 8.98675
33.5545 96.9183 -0.268441
-14.7122 125.49 10.7478
35.248 93.7069 3.90085
35.541 91.7404 7.51301
27.6771 103.253 -4.70544
13.3327 108.265 5.68688
35.5191 91.8381 7.54278
35.4713 92.2714 6.84665
-13.6916 125.362 9.91519
-9.42097 123.166 8.30687
8.87733 110.209 8.4895
30.7468 92.8419 12.5542
-11.697 129.971 -2.25269
2.51228 114.382 9.19652
19.1447 106.006 2.46475
13.2868 108.605 5.73732
12.4905 116.137 -8.49789
30.2774 100.809 -2.68634
-11.1643 124.02 9.51634
-17.9864 128.901 9.37106
21.3618 103.111 5.58016
12.8847 108.752 6.24234
22.6253 109.084 -8.2949
16.8277 113.622 -9.17307
-13.4697 125.784 9.54582
17.2009 108.179 1.44005
10.8262 109.628 7.7054
-1.75448 117.215 10.3217
-9.18141 123.742 7.66723
-1.8047 117.291 10.3535
12.6943 116.419 -8.68517
1.64675 121.967 -4.0538
4.28744 121.236 -6.34305
8.91984 118.36 -7.08781
-16.1399 126.577 12.1616
-5.69429 127.334 -4.39674
35.1583 91.8081 9.47867
35.4178 91.8368 9.05647
25.1335 106.306 -5.58854
-1.21424 123.62 -3.05648
-7.91283 123.694 6.44199
-3.53878 118.635 10.8275
-15.8399 127.06 11.3602
24.1581 107.967 -7.09815
15.2455 115.281 -9.21726
25.4756 106.043 -5.01014
26.7769 96.9459 11.7392
10.5289 110.335 7.81088
19.3264 112.004 -8.1931
20.584 111.091 -8.10095
-16.2416 127.263 11.8472
-2.6752 125.129 -3.20945
7.31167 119.484 -5.89963
-8.61213 124.048 7.77973
-8.68576 124.355 7.4432
33.4661 97.9046 0.94916
-9.2599 131.097 -5.43637
25.2257 106.677 -5.11182
28.0665 95.8611 12.9239
-14.714 127.291 10.2108
21.8935 103.395 6.41326
35.155 93.6523 7.36997
31.2137 93.951 12.4484
9.82328 118.529 -6.9965
-10.9268 124.548 10.5711
26.9226 105.142 -4.14422
34.7484 92.8408 9.82814
23.5141 99.9915 11.3928
-15.473 127.777 10.6701
31.1177 94.1514 12.483
-16.3475 127.92 11.7939
33.5901 97.7905 1.61278
13.6675 116.862 -8.71698
34.9978 93.0496 9.30136
-3.42218 126.348 -3.47494
19.2924 107.505 2.38181
14.3317 116.449 -8.76796
14.2313 111.034 2.46935
-5.64767 121.713 9.31773
35.0495 95.3855 4.61513
15.9945 110.417 1.33343
30.5205 94.661 12.6789
-17.6367 129.576 10.6348
-13.3947 131.586 0.46964
0.82584 117.138 9.55837
28.9684 95.5927 13.1432
-8.17981 131.411 -6.63506
19.4118 107.553 2.47754
27.1283 105.212 -3.81028
9.13459 119.268 -6.6202
25.7923 106.438 -4.31982
-5.87508 123.251 6.90314
15.9507 115.521 -8.68569
24.2812 99.6146 11.8601
31.2839 94.4274 12.4305
4.35351 122.463 -6.10474
-16.1632 128.318 11.4584
-17.642 132.11 5.87495
25.0924 107.419 -5.07539
1.8547 123.169 -3.81325
21.6091 104.853 5.2796
2.56041 116.273 9.35184
2.79161 122.862 -4.43933
-12.4151 126.625 9.8818
-8.04564 124.377 8.2009
34.9204 94.409 7.6948
-3.78051 120.152 10.788
29.6851 95.5743 12.9466
-12.8541 131.466 0.764077
-4.95071 128.405 -4.29012
21.3788 105.526 4.69309
10.9559 118.809 -7.45795
35.0247 95.8435 4.9015
-8.22753 125.6 6.29079
-17.0978 131.332 7.38961
19.3889 108.093 2.4283
13.6254 111.236 4.32133
11.2835 111.381 7.56427
20.2943 112.765 -8.19183
6.54249 121.481 -6.22489
20.36 107.115 3.29783
-8.03228 124.718 8.17417
27.0532 105.682 -3.35963
-12.7205 131.746 0.589515
-13.0866 127.648 9.5066
16.0261 115.922 -8.36114
-3.95287 120.661 10.7688
31.5296 94.9967 12.3548
1.70182 117.455 9.39799
13.5061 111.549 4.59856
-4.93995 123.427 6.9299
22.1924 104.6 6.43332
-7.31842 131.592 -6.30025
12.8306 111.355 6.13795
-12.0058 126.964 10.0176
-12.6629 131.937 0.801709
-6.37753 124.954 6.07734
-8.21135 132.237 -6.10005
9.50061 119.845 -6.22594
-10.7299 132.158 -2.24512
20.8568 112.864 -8.16797
12.0147 111.704 6.9522
26.6356 106.382 -3.13086
16.5469 116.053 -8.29625
-15.5672 129.405 10.6206
13.8158 112.314 3.29676
22.0904 105.246 5.85172
22.0042 103.283 10.0103
30.8772 102.573 -1.26634
-13.1442 132.557 0.769124
22.1387 102.972 10.5094
30.1622 103.377 -1.83831
18.7915 109.548 1.90923
21.1024 106.982 4.03791
6.78937 114.907 8.44545
34.1933 98.0587 3.51276
26.0592 107.223 -3.51829
22.0655 104.202 8.40891
23.979 110.33 -6.85485
-2.10929 120.186 10.5376
28.2817 97.6612 12.9205
-9.07664 132.461 -4.47992
18.5914 109.943 1.78199
17.3387 111.16 1.19051
34.648 97.3541 4.54155
-16.107 129.914 11.1388
24.9979 101.012 11.1408
-6.19027 131.035 -5.37019
29.5713 96.9195 12.9749
33.1462 100.15 1.24676
19.4836 109.178 2.44635
-13.6689 133 1.45752
-16.7948 131.814 8.41393
22.3526 103.197 10.6483
5.24784 116.122 8.87607
-12.6069 132.762 0.552183
19.6886 109.031 2.62064
-7.09931 126.183 6.10691
18.1191 110.691 1.50814
23.1119 111.696 -7.63337
-0.30335 125.733 -2.64371
13.5537 112.76 3.98657
-7.20504 126.415 5.99046
33.5365 95.3474 10.9634
-8.15175 132.931 -5.88944
-12.1939 132.763 0.41661
-13.3746 133.165 1.3103
-12.594 133.429 -0.305
-11.7661 127.905 9.8167
34.112 96.8355 7.34744
-16.8825 130.751 11.4395
32.853 100.835 1.08071
22.4956 104.854 7.77584
-7.35027 126.159 7.30852
20.2925 108.76 3.12661
18.0409 111.206 1.40656
12.6981 112.789 5.89072
28.0621 98.7028 12.6224
31.5942 96.3668 12.3462
-4.5102 124.762 6.26539
12.1961 112.76 6.78136
29.4007 104.703 -1.47848
-13.1657 129.2 9.70802
10.5362 120.255 -6.08172
32.4315 96.0927 11.8485
28.3729 105.603 -1.70986
19.0289 110.387 1.96848
15.8893 117.295 -7.4727
-16.6862 131.351 10.6492
13.9771 114.189 1.65792
20.5802 114.748 -8.94205
-4.60219 130.168 -4.2186
22.278 104.723 9.15873
-6.77956 132.613 -5.82244
29.3546 104.956 -1.23576
10.9464 113.559 7.6821
6.5117 116.148 8.7867
33.2846 96.1688 11.1559
21.574 107.745 4.42875
2.16108 125.345 -3.55059
-5.6649 131.602 -5.01248
13.3718 119.382 -7.35318
27.4682 100.098 11.8078
-6.70782 126.922 6.17364
0.829961 120.273 8.92763
-10.6198 134.079 -2.79941
8.1258 115.454 8.47551
7.76852 122.452 -5.31605
-6.1405 132.31 -5.4443
10.7109 114.04 7.69422
13.8732 114.82 1.58536
25.4287 109.274 -3.64063
22.4131 113.63 -8.20022
-2.30846 128.5 -2.99652
-8.44094 127.407 8.09588
12.7022 120.142 -7.44284
33.9 99.7885 3.67781
-12.1176 129.501 9.25268
-12.2439 133.768 0.750718
-3.95782 124.874 7.05158
32.5344 102.082 1.20274
7.82281 115.855 8.60402
5.50971 117.415 8.79278
-5.47352 131.804 -4.82525
34.1196 99.2065 4.89556
33.9541 99.7961 3.94201
-12.193 129.716 9.16638
-0.629234 127.291 -2.46362
-6.26154 127.14 5.9936
11.1768 114.098 7.62388
23.9651 111.614 -5.68775
14.8933 114.665 1.13637
-6.37078 132.967 -5.64612
-14.2757 134.817 2.03323
-10.1024 128.103 9.78055
-10.1915 134.757 -3.66602
33.7074 98.2161 7.92918
16.0012 114.165 0.829256
7.73105 116.208 8.55595
28.1631 100.46 11.3956
11.5846 120.929 -6.60082
-5.61616 132.294 -5.05391
28.7441 99.9928 11.6127
8.79591 115.673 8.42448
-16.4275 132.563 10.2799
33.4784 100.88 3.27602
-12.3547 134.234 1.02815
-3.64847 124.268 8.88236
12.3157 120.99 -7.36841
11.4711 114.385 7.40463
32.2038 102.88 1.10332
10.7742 114.68 7.8159
30.2399 104.9 -0.167637
33.4153 97.8916 9.86588
-8.22776 134.877 -5.48808
16.2028 114.657 0.718581
28.3093 107.097 -1.19894
30.0289 105.321 -0.0354396
19.4623 111.716 2.16168
12.7752 115.126 4.83614
-2.89011 124.022 9.19799
16.846 118.354 -7.59095
-9.37064 135.21 -4.31149
13.6411 116.169 1.54136
33.7208 99.8069 6.14159
23.5219 112.879 -5.90658
-12.0233 130.44 9.32432
8.2667 116.753 8.13402
10.7883 121.61 -5.00549
22.9482 106.46 8.49248
-0.720734 128.396 -2.29389
24.5569 111.494 -4.07946
17.8938 113.646 1.11299
31.1582 104.614 0.560391
33.312 99.1929 8.57546
-0.271856 122.501 9.27415
12.2088 121.544 -6.71376
30.5217 99.6774 11.6841
31.6927 104.114 0.965156
3.69727 119.998 8.76919
25.4368 110.442 -2.9104
-4.80634 132.422 -4.31385
-4.68826 132.283 -4.14402
12.5931 115.653 5.02224
20.1915 116.932 -8.3879
33.6143 101.081 4.80675
11.0605 121.778 -5.03465
-3.66661 131.366 -3.44927
-15.3433 135.152 5.62711
-2.09958 124.396 8.74495
17.9059 118.456 -7.82968
12.5482 116.105 4.85797
14.5407 120.586 -7.07644
32.6081 99.5107 10.1014
15.1921 116.493 0.467151
-3.06621 125.717 7.90361
18.8512 118.334 -8.49886
-1.58226 124.889 7.53335
-5.14289 133.585 -5.09814
-8.08489 135.698 -5.17689
26.5664 109.678 -1.81739
4.53208 126.461 -4.40852
24.4782 112.217 -3.90951
23.4194 113.781 -5.51528
-13.7064 131.797 11.1745
-1.43299 124.491 8.48914
21.9792 116.06 -7.84902
9.55757 123.147 -4.46238
15.0629 116.886 0.446254
22.5099 109.301 5.26816
-5.83018 128.375 7.18174
17.6296 119.478 -8.36343
26.2204 103.596 11.7731
-6.15852 135.041 -5.87696
4.72477 126.686 -4.42458
-0.698077 123.802 9.37278
12.634 117.203 3.82335
12.0615 116.592 5.96525
10.6666 116.794 7.56368
4.97413 120.494 8.25276
12.8161 117.573 2.97835
2.8194 121.921 8.4787
28.5191 102.429 11.3757
18.6284 119.29 -8.83502
33.0529 102.677 4.40028
-13.8524 136.101 3.5674
-5.31509 128.651 6.56807
25.003 111.885 -2.76491
32.0867 99.8713 11.6904
20.0957 112.827 2.50207
22.9118 107.234 9.93509
27.8898 109.093 -0.999441
26.41 103.942 11.6995
33.4021 101.459 6.81712
-10.3297 137.231 -3.3995
-3.10775 127.289 6.62131
4.07613 121.304 8.55477
16.7655 121.231 -9.49542
33.3546 101.989 6.0182
0.823763 129.011 -2.42705
-1.13659 125.74 7.08899
-11.7137 137.665 -2.00303
8.9805 118.43 7.55913
21.3151 111.593 3.80519
33.0835 101.029 8.48065
33.3173 102.179 5.8571
7.50336 125.32 -4.2292
0.114078 129.538 -2.22265
22.3713 116.251 -7.05527
27.288 103.448 12.0549
14.5521 121.718 -6.94572
12.8603 118.424 2.23395
-15.1003 136.432 5.85547
-1.04676 130.553 -2.30797
22.2867 116.571 -7.1969
-15.3875 136.184 6.98369
-0.173264 124.888 8.22208
14.3587 122.067 -6.8433
-8.39059 137.043 -4.68368
8.25948 119.604 7.02184
32.9812 102.178 7.26487
22.6811 116.183 -6.51449
17.7598 119.978 -7.19288
30.2792 102.032 11.6044
-13.395 132.86 11.4157
10.0941 118.144 7.74258
12.3895 118.666 3.54018
-9.09077 131.187 8.85847
-2.84821 127.912 6.57662
0.105419 130.097 -2.12248
32.0529 104.953 3.33125
20.0642 118.337 -6.77905
-0.178388 125.807 7.12536
16.7999 117.246 0.326467
32.7585 102.765 7.0021
-6.30959 129.949 7.63176
20.2767 118.399 -6.82583
9.06121 124.939 -4.04201
8.08126 125.637 -4.04409
11.8156 118.466 5.38067
30.8316 102.031 11.7177
-1.62069 127.4 6.5389
20.4627 118.43 -6.79557
-8.47396 131.033 9.07913
9.63367 124.757 -4.12251
23.1075 110.391 5.95138
8.38311 120.366 6.74023
-11.5274 136.988 1.41356
13.7958 124.352 -9.16172
32.1613 104.793 4.49837
6.92429 121.297 7.0988
13.9574 124.399 -9.27265
32.032 101.993 10.5451
14.1217 122.963 -6.56016
8.06982 120.82 6.57154
14.2974 119.386 0.607432
11.6599 125.091 -7.25487
18.3949 116.312 1.04871
11.9598 119.298 4.298
14.7891 123.704 -8.7551
22.2316 111.871 4.80476
13.1648 125.063 -8.95431
21.0369 118.111 -5.9621
13.7012 123.508 -6.40901
-15.3629 136.733 8.39357
32.339 102.58 9.6214
1.35461 125.414 7.51546
-7.39022 137.936 -5.42773
-15.6876 136.623 9.19341
26.4179 111.85 -0.604424
23.0976 111.003 5.98098
-11.6279 138.981 -1.24757
-14.6951 135.114 11.1261
10.6552 124.872 -4.3777
13.544 120.237 1.02461
29.306 109.382 0.593302
-2.20061 129.107 5.80776
31.6841 105.578 5.18796
31.384 106.334 4.09919
10.3824 119.582 7.30643
12.1991 120.591 2.68342
-11.5707 138.857 -0.467638
12.3435 126.066 -8.63073
27.9274 110.793 0.241203
10.1119 125.503 -4.13224
-11.0941 133.345 10.4345
22.2413 112.663 4.84552
19.22 116.417 1.52737
11.6801 126.187 -7.5679
30.6438 103.921 10.6815
-6.11036 131.144 7.95339
30.461 108.033 2.62962
32.1206 104.471 7.58941
12.9634 126.129 -9.0347
16.4749 119.239 0.135899
-14.7051 138.417 5.83244
-12.1457 138.081 2.84813
3.56142 124.414 8.37095
31.1914 106.424 5.41119
-4.10204 135.858 -3.98493
-7.64829 132 9.02508
23.119 117.517 -5.53738
-12.433 134.206 11.4897
29.9878 109.088 1.832
-1.43603 133.264 -2.36031
10.8086 125.789 -4.49944
26.9767 112.028 0.396594
-15.0347 138.767 6.21062
30.7436 107.812 3.6507
6.10846 123.651 6.72296
4.44234 124.358 7.68782
-5.7269 131.774 7.19696
22.608 117.668 -4.6934
9.16544 121.447 6.97363
2.95241 125.259 8.12292
-0.807996 129.176 5.53532
26.0216 114.099 -2.19436
-1.8808 133.908 -2.53115
31.8438 104.449 9.18916
29.8217 109.512 1.78214
-15.0062 137.239 9.58687
10.8585 120.669 6.33861
-11.5428 138.431 2.27056
14.9992 125.509 -9.48066
23.7403 117.169 -5.00113
25.381 107.881 11.6837
-5.16759 132.201 6.18545
-4.08667 131.707 5.74471
24.1514 110.368 8.761
-2.5545 131.013 4.9789
19.0195 117.709 1.18228
20.6004 118.658 -2.94608
22.4121 113.405 5.18917
-10.9314 139.054 0.743375
18.0545 122.562 -7.23482
30.0126 109.229 2.82727
7.01465 123.885 5.96963
-8.36663 133.028 9.42837
-13.8139 139.086 4.94834
-4.60206 137.136 -4.29701
30.1898 108.892 3.43195
-14.4152 139.194 5.66023
-3.30057 131.532 5.35458
20.1081 119.477 -3.66795
16.2496 120.483 -0.0858751
-15.0035 138.546 7.99663
-1.48917 130.726 4.56945
21.4849 115.007 3.78878
31.329 106.89 6.24637
10.5649 127.063 -5.08595
16.6519 120.279 0.0378259
-12.837 135.495 11.3798
-13.6005 139.352 4.66499
20.5436 116.332 2.65779
29.8103 110.059 2.19482
29.7836 110.185 2.11657
-9.02825 133.569 10.1439
13.391 122.322 0.906736
-4.90116 132.639 6.15447
-6.06758 132.576 8.01499
26.8173 113.622 -0.534035
-2.83623 132.197 4.27565
18.472 122.422 -6.38017
4.95591 125.487 6.84899
-11.5047 140.81 -0.785475
-11.3629 140.235 0.309155
26.7725 107.84 11.6955
-12.3366 135.551 11.315
10.1559 121.71 7.29086
11.1 122.12 5.11662
31.3756 105.941 9.03764
-12.122 135.471 11.2877
-2.23721 131.972 4.27949
-3.012 132.641 4.10927
22.7889 118.135 -3.31856
14.767 122.268 -0.202459
-2.62035 135.97 -3.18536
1.89096 132.394 -2.32143
31.6654 105.999 8.82528
-3.13585 132.81 4.07508
3.08215 131.741 -2.66353
18.5521 121.936 -4.82309
30.3656 106.409 9.94744
19.3766 118.351 1.37372
23.1194 112.021 9.04849
-4.98939 133.096 6.42841
14.6294 127.353 -10.0476
21.2826 122.713 -10.0764
22.8506 113.423 6.67093
-11.9606 139.742 2.94776
-0.513053 130.991 4.51662
21.4934 122.501 -9.77912
-13.167 140.143 4.08621
1.9109 128.724 5.75649
18.5267 122.102 -4.45817
15.9573 126.575 -9.73151
6.84259 129.724 -3.04922
-11.7779 135.891 11.1498
18.3793 119.809 0.71067
17.1491 124.382 -6.84792
10.2929 122.53 6.87564
20.6741 123.757 -10.563
9.46337 128.387 -3.84498
12.2574 123.348 2.46503
-4.08707 137.921 -3.816
28.6805 107.442 11.5453
-8.72808 134.624 9.89001
-8.07162 134.608 9.00256
-1.82568 132.878 3.62713
-10.7005 141.849 -1.90722
29.3243 111.482 2.65611
21.1617 120.071 -3.10322
31.0153 108.056 7.31722
17.5732 125.013 -8.00703
-1.90885 132.911 3.90937
-3.98159 133.459 5.79406
-0.107519 134.454 -1.80744
-4.40475 133.583 6.16744
22.9073 112.838 9.30499
30.6824 107.723 8.60226
22.7204 114.269 6.72365
20.5115 124.127 -10.2501
12.2205 129.068 -8.42149
-12.9129 140.82 3.74413
-8.12647 141.571 -4.62109
15.9488 125.494 -6.37555
10.2637 123.015 6.87378
26.6648 115.461 -1.26253
-8.55027 134.91 9.63917
16.5101 122.096 -0.167396
27.4052 108.54 11.8768
-12.8109 140.929 3.62083
7.84599 129.749 -3.20052
-0.0861786 131.728 4.21683
-10.6864 141.976 -1.37078
30.2405 108.647 7.95236
2.68169 129.425 5.1362
-7.92289 141.7 -4.70033
10.0686 129.303 -5.22492
21.1182 123.785 -9.81235
21.2231 120.592 -3.25309
28.5512 108.223 11.503
-7.96711 135.183 8.93709
21.2819 120.585 -3.25537
10.6043 123.428 6.3271
-11.4601 140.775 2.67824
1.03651 134.137 -1.69531
27.5483 108.941 11.7818
30.478 110.229 4.94124
24.9328 117.387 -1.69138
26.3498 116.56 -2.03543
-10.6477 142.242 -1.28001
14.1798 124.272 -0.195857
20.1519 124.119 -8.40024
-5.27527 134.816 6.32038
24.1824 117.833 -1.3095
18.4006 123.829 -5.23819
-14.0854 140.536 7.33549
-2.26326 133.858 4.01041
18.2675 121.094 0.60683
18.8814 123.264 -4.63588
21.4726 120.903 -3.51624
19.1051 125.568 -9.56378
18.481 125.427 -8.36553
28.234 113.416 2.16992
-11.0239 142.093 0.0802156
18.1064 126.204 -9.33244
-3.27148 134.754 3.94085
-9.89919 142.802 -2.8437
28.8225 108.945 10.7422
-2.62594 137.918 -3.21472
-5.44603 135.524 5.79579
22.5899 115.289 6.90459
27.1304 109.769 11.6656
18.1367 126.943 -10.4288
15.8293 126.735 -6.64285
-7.16423 135.563 8.40505
2.82603 130.148 5.10856
-13.0843 138.867 10.2251
5.23398 128.238 5.88544
-7.12601 135.759 8.39071
10.6038 124.577 5.79402
-3.0058 135.183 3.73749
17.9032 127.507 -10.6202
-8.78486 136.248 9.9093
29.2534 109.492 9.9108
17.1915 125.883 -6.25043
9.56082 124.972 6.69924
12.0492 130.365 -7.8992
-0.549381 136.25 -1.77715
-3.26203 138.897 -3.28373
9.51417 131.146 -5.75274
-0.910537 133.833 3.76253
-9.68469 136.818 10.2862
28.8335 113.083 3.41818
23.2451 113.569 10.5447
25.0013 117.749 -0.507345
23.6673 113.181 10.76
20.3471 119.618 2.37712
-11.1053 142.095 1.668
-10.5144 143.25 -1.51713
8.52102 131.004 -3.84399
-5.71598 136.07 6.3154
19.6753 126.17 -9.93138
16.163 128.253 -9.07485
-0.884316 133.981 3.76184
27.0243 116.514 -0.649707
26.4033 111.011 11.5307
21.4183 121.959 -3.6529
10.2037 125.11 6.05409
14.0388 130.407 -10.2302
10.5398 125.09 5.77464
1.12345 132.27 4.68265
30.3934 111.122 5.8507
20.7794 124.516 -7.67213
7.26394 131.886 -3.26419
7.80602 131.606 -3.45332
22.164 116.858 6.14727
29.506 112.678 4.15356
-12.0997 142.273 3.49668
22.6868 122.444 -5.96027
8.87958 131.446 -4.49262
-1.71685 138.035 -2.67021
-2.73616 135.886 3.22866
29.3552 111.509 6.90989
-7.03703 136.415 8.35737
24.2267 113.158 10.946
18.846 126.128 -7.77509
28.4314 114.165 2.95178
18.3734 122.4 0.588559
28.4446 110.707 10.0147
-9.23459 143.997 -3.60907
28.7351 111.124 9.01358
16.4392 127.366 -6.49459
-10.0914 144.04 -2.39839
21.7229 123.708 -6.56194
1.0454 135.86 -1.62518
6.12656 133.03 -3.10112
16.094 128.302 -7.74326
4.27856 129.965 5.9178
28.2531 114.763 2.59675
-9.27966 144.194 -3.54113
-9.62622 137.752 10.1512
8.64108 132.21 -4.75202
-13.4346 141.501 8.01664
18.8122 126.824 -8.35825
-12.6108 142.814 4.17902
12.161 131.522 -8.31252
20.5489 120.245 2.68368
19.6096 121.486 1.512
-6.09397 137.393 6.09565
7.94528 127.239 6.66974
21.5465 118.441 5.11394
-7.04036 136.996 8.36578
28.0131 115.656 1.64206
28.0732 115.442 2.03608
18.8976 122.412 0.989049
-2.31087 136.31 3.0991
27.9806 115.866 1.3826
21.8745 122.764 -3.82967
23.3478 120.908 -2.11292
15.5424 129.941 -9.28116
18.1539 127.803 -8.64743
21.4427 118.915 4.83271
12.7102 126.054 2.82219
20.4641 126.21 -8.54616
21.9677 116.764 8.63374
22.5587 115.547 10.354
24.5887 113.719 11.1733
18.0582 128.322 -9.0817
-1.16445 135.649 3.60649
17.1851 129.365 -9.83725
1.44223 133.588 4.19565
-10.1683 144.813 -2.04842
17.5605 129.418 -10.4507
27.2332 117.037 0.951076
-4.47811 141.751 -3.95824
11.3661 126.351 4.78154
5.94181 129.517 6.24534
-11.1226 143.091 3.06301
27.9347 112.696 9.03665
-12.5949 143.495 4.52831
6.33433 134.063 -3.2974
19.0547 125.885 -4.87198
21.3742 117.67 8.64784
23.3648 122.873 -4.77463
17.1743 125.078 -0.347372
24.6424 121.891 -4.49471
22.7358 115.931 10.4819
16.68 128.534 -6.56071
23.221 115.514 10.6714
19.9601 127.94 -9.92053
25.7044 118.242 1.65519
16.5041 129.41 -7.89765
16.247 126.134 -0.744133
18.7116 126.686 -5.37309
27.6965 113.487 8.77753
15.9504 130.436 -8.89646
24.5495 120.159 -0.251165
19.3582 129.192 -11.1739
17.1396 128.423 -6.29363
25.5708 114.336 10.5821
20.5029 120.272 5.7387
18.2634 124.513 0.326113
-9.92843 145.641 -2.24976
28.324 116.434 2.57583
4.30566 135.651 -2.14841
18.1846 129.752 -10.0465
24.7123 120.262 0.0134159
-10.6092 145.158 -0.0503353
-0.390294 136.343 3.29873
20.7166 127.424 -8.81897
10.464 127.569 5.63447
22.2117 124.809 -5.61522
16.5856 129.7 -7.51304
16.5597 129.66 -7.33666
2.22746 134.225 4.04236
10.5958 127.666 5.50977
12.1451 133.328 -8.26854
24.8307 119.28 2.21328
9.81265 127.922 6.1919
24.5657 122.521 -3.96835
12.4295 133.291 -8.49528
25.9545 115.077 9.3026
-2.25878 138.323 2.42358
16.8636 130.19 -8.18928
23.6529 123.734 -4.75303
2.70708 134.089 4.24509
18.8361 130.277 -11.1364
18.0912 125.279 0.164243
20.9386 119.123 8.66786
22.0807 117.829 9.77188
16.5752 126.865 -0.738829
17.7336 130.204 -9.12562
-6.64558 139.681 6.57852
6.02209 131.483 5.12023
2.47502 134.572 3.94092
5.25041 132.33 4.66366
24.2864 121.843 -1.26231
-1.36731 138.06 2.5211
27.6641 115.097 7.75225
-1.38314 138.118 2.50719
16.6428 129.59 -5.98284
18.4802 128.133 -5.5933
0.101906 136.802 3.12954
19.6586 121.481 6.35191
6.60309 131.061 5.54622
-11.9699 144.639 4.50874
5.96291 135.812 -3.17301
25.423 115.924 9.50894
4.37553 136.455 -2.18577
16.2398 131.049 -8.17203
8.2091 135.098 -4.88185
19.7173 122.414 4.49959
-10.3305 144.862 1.88171
18.9287 127.798 -5.25294
-6.94299 140.064 6.92703
2.04183 135.515 3.36985
-10.3394 145.142 1.49664
25.6398 116.033 9.26734
-4.1648 143.302 -3.45147
17.122 129.572 -5.9944
-7.14291 145.744 -4.07937
19.4604 121.563 7.09488
16.5909 130.658 -7.3711
5.43951 136.35 -2.95991
6.28172 136.013 -3.43263
22.8536 124.453 -3.56959
18.4778 131.491 -11.6006
18.3491 131.589 -11.5866
23.875 123.356 -2.68155
28.0912 117.806 2.62516
17.6483 128.529 -4.23423
-9.40704 140.907 9.44141
18.7235 129.887 -8.48802
-7.88121 140.159 8.78591
-5.30191 144.595 -3.89748
19.8731 126.838 -3.79643
26.4374 122.262 -3.87921
5.04209 136.799 -2.795
9.93904 129.134 5.8726
22.4465 125.301 -4.2801
24.8683 120.882 1.39377
19.886 126.852 -3.61574
27.352 115.965 7.9175
22.5396 127.194 -8.08719
13.4216 128.894 1.58901
26.1209 122.548 -3.68974
19.1419 123.157 5.12416
-9.68832 147.155 -2.39895
13.6202 129.82 -0.469123
-0.716439 140.705 -2.07804
16.9717 130.571 -6.7884
14.3391 129.461 -0.730033
21.816 125.724 -3.80236
19.0185 122.983 5.84321
8.078 130.578 6.07786
21.4132 128.405 -8.6162
16.9372 129.957 -5.31351
-10.343 142.062 9.19722
2.29584 136.246 3.08928
10.8785 129.336 4.8888
-4.43077 140.946 3.1798
16.6007 130.978 -6.68873
-3.42393 143.268 -2.95118
7.06215 132.065 4.89675
-11.1946 143.347 8.14789
17.5093 130.029 -5.86355
22.9573 124.724 -2.82822
24.5023 122.626 -0.759829
17.1667 127.764 -0.681316
-0.629453 138.645 2.73314
9.63174 135.634 -5.86468
18.6172 127.626 -2.3939
11.6618 129.695 3.38649
27.3704 118.798 3.1072
11.2799 129.642 4.09458
7.21028 132.118 4.88687
17.0295 130.526 -5.982
22.2564 126.375 -5.00992
27.7614 116.694 6.86637
13.3063 129.334 1.88759
-1.15066 139.274 2.49213
18.7098 130.697 -8.53168
18.4075 126.668 0.16503
15.8538 129.203 -1.33323
8.01469 131.282 5.69795
-11.0278 145.702 3.63625
17.3546 130.381 -5.84552
22.2281 127.781 -7.52593
11.2576 129.891 4.09591
15.8972 131.106 -5.05682
19.3075 130.277 -8.20064
25.1454 123.552 -2.84366
15.7402 131.811 -6.1722
24.3026 122.788 -0.0174286
11.6102 135.375 -7.48161
19.3646 124.134 4.3613
15.4378 133.299 -8.70879
1.99781 139.46 -1.95115
19.2892 124.181 4.47949
22.8379 127.836 -8.00692
20.6966 127.315 -3.83544
23.8254 118.66 9.36992
19.0446 124.207 4.91004
-8.74652 141.832 8.9399
3.83722 138.605 -2.54458
21.5414 127.902 -6.07737
-11.428 145.068 6.26112
21.1019 120.848 8.99298
-11.427 145.121 6.17651
-4.87429 141.786 3.57649
-1.54827 139.951 2.55211
10.8447 130.184 4.80584
23.8037 118.968 9.0971
-10.1431 146.095 2.49692
18.1046 129.741 -4.68106
27.8378 117.619 6.15961
18.5877 129.433 -4.6852
-8.11443 141.619 8.83666
20.0915 126.907 -1.64637
23.2791 124.65 -1.57341
21.7686 120.276 9.55723
19.0806 129.16 -4.63788
14.3188 130.668 -0.869181
-1.22677 142.225 -2.07575
23.8562 124.449 -1.81246
17.2592 128.512 -0.614113
-10.074 146.276 2.4384
8.7718 136.893 -5.47768
24.6826 123.401 -0.779781
15.5922 132.654 -6.60803
17.3378 130.976 -5.68032
18.8292 124.686 5.07711
19.0044 127.588 -1.00127
11.2987 130.636 3.90263
22.5962 127.15 -5.21841
21.2163 126.188 -1.23113
22.3539 120.18 9.45166
6.31953 134.228 3.82841
-1.64865 140.473 2.63218
18.4261 132.779 -10.4927
-9.77092 143.362 8.4485
15.4063 133.792 -8.16397
18.5899 131.776 -8.61253
15.827 133.056 -7.25362
18.0111 133.519 -11.3202
-4.31103 145.26 -3.21334
-2.53993 141.247 2.47519
18.1951 133.4 -11.2542
18.2562 132.283 -9.03337
25.701 121.044 3.27843
15.9691 132.76 -6.6534
17.656 130.4 -4.22656
21.902 125.756 -0.755964
18.26 133.433 -11.2034
2.05064 138.038 2.71675
-5.45061 142.675 4.04834
15.3996 133.197 -6.55691
12.5524 130.65 2.76478
18.3151 128.52 -1.14047
7.18952 133.912 3.90133
27.4897 119.55 4.07089
18.7616 127.395 0.609432
22.7401 125.215 -0.614921
16.6965 131.692 -5.08971
12.2056 130.93 2.99064
24.4753 119.758 8.19255
22.295 125.515 -0.243386
19.0612 125.697 4.04402
9.91611 131.474 5.45454
13.0302 130.767 2.4613
25.7641 123.5 -0.989981
1.18522 141.314 -2.05254
10.5082 131.369 4.88237
5.0385 136.093 3.22766
22.3729 126.399 -1.83958
16.0616 130.616 -1.37501
-10.746 145.641 6.46981
24.7131 123.832 0.107933
17.6938 131.917 -6.30691
15.59 133.127 -5.65282
-8.18464 143.141 8.10428
26.7775 120.635 3.87743
10.8171 137.298 -7.22383
15.7649 134.567 -8.61234
22.2162 126.628 -1.64787
15.0659 134.205 -6.85018
25.9224 121.546 3.42031
11.8751 131.53 3.23702
-6.95154 143.404 6.0439
24.0077 126.337 -3.59059
13.5089 131.867 0.227008
15.608 133.192 -5.42213
-7.69424 148.561 -3.24372
18.8475 127.983 0.772047
19.3484 131.917 -7.9891
23.0366 128.789 -6.89948
18.7157 128.172 0.618046
-10.2564 147.798 2.19008
25.7796 119.966 7.26898
5.19119 136.497 3.0951
21.2945 127.552 -1.74202
3.1034 140.867 -2.76485
13.5218 132.362 -0.35757
-3.42075 143.089 2.09418
19.1428 124.638 7.4007
21.7544 126.982 -1.10505
5.32904 140.025 -4.12343
19.6288 129.71 -3.55239
20.8965 127.946 -1.75403
15.9039 134.895 -8.716
-4.67207 143.758 2.77081
19.1105 126.76 3.33589
-0.294361 140.825 2.53269
22.2159 126.355 -0.173157
7.55127 134.857 3.56817
-10.332 146.332 5.8514
3.66447 140.912 -3.19134
5.07085 140.374 -4.03895
19.7356 131.853 -7.67785
13.6132 137.478 -10.1593
24.6121 126.47 -3.45052
24.8636 124.677 -0.119982
17.9597 126.494 6.09765
10.1863 138.657 -7.47534
23.0897 126.208 -0.5313
23.2487 126.114 -0.556637
9.7852 132.893 4.9624
27.6258 123.097 -0.653406
18.096 132.909 -6.97175
25.8681 121.68 4.80768
7.68429 135.149 3.46229
22.6921 129.087 -5.70741
11.852 132.244 3.48919
22.579 122.161 8.74229
21.1229 127.472 -0.020296
17.8166 130.951 -2.27924
-1.54099 142.474 2.04726
14.8652 132.668 -1.45877
-7.84161 149.261 -2.71311
3.41078 141.55 -3.1294
19.3937 133.9 -10.2279
14.2684 137.574 -10.3522
23.5881 124.743 2.53748
24.5298 121.549 7.84048
18.0061 131.406 -2.92327
-1.11282 142.501 1.9765
22.7353 130.81 -8.41659
3.70428 139.112 2.09442
5.79448 137.274 2.85195
23.8717 125.639 0.667522
-8.13443 145.445 6.25122
16.2391 135.9 -9.17025
25.7277 124.526 0.457714
24.3172 123.213 5.20494
12.8688 133.872 -0.106419
18.826 132.951 -6.77656
14.0918 138.088 -10.3099
8.15667 135.763 3.0187
15.0173 137.373 -10.0802
15.9376 136.525 -9.60071
16.0931 135.104 -6.9139
15.8771 133.999 -4.29932
23.5349 130.317 -7.71531
22.3088 127.261 0.345889
5.70646 141.758 -5.34933
-0.812804 142.841 1.8137
23.7842 125.258 2.38311
0.645914 141.654 2.18646
23.0012 126.791 0.511944
-6.53494 145.793 4.16848
23.1477 124.76 4.55111
-5.02954 145.502 2.69167
18.6715 133.642 -7.06877
18.5496 133.516 -6.62064
25.7752 127.141 -3.9276
19.215 132.625 -5.66291
18.3587 134.059 -7.31089
23.8412 122.744 7.94628
19.8694 134.075 -9.45888
-5.15252 145.722 2.73574
24.1257 126.094 0.763892
-2.91946 144.643 1.82311
-1.20316 145.339 -1.99843
15.1373 133.665 -1.62169
24.0768 123.746 5.92357
24.0442 125.645 2.12317
20.13 128.986 0.968988
12.0946 134.762 0.771198
23.2416 124.315 6.12074
20.1206 134.009 -9.20066
18.3477 131.724 -1.92822
-0.0200566 144.735 -2.0641
19.7225 129.397 0.906049
15.8119 135.412 -5.74764
23.5234 131.255 -8.22855
17.0265 135.464 -7.4625
18.5497 132.317 -3.0862
18.041 129.381 3.68203
12.614 133.701 2.71471
22.5094 124.077 8.17043
17.4573 134.345 -5.51818
17.1161 135.473 -7.24363
21.3548 132.452 -7.14912
23.7131 130.589 -6.70189
20.934 125.411 7.89648
17.5393 133.481 -3.64929
28.3932 125.676 -3.25289
-4.60567 146.16 2.33632
23.1493 124.504 6.76523
17.0068 136.018 -7.89322
-8.13257 150.593 -1.4372
3.54994 143.466 -3.66718
17.8793 129.129 5.04107
20.7746 129.221 0.692431
12.655 133.674 3.38131
23.4402 124.354 6.93369
19.5922 134.892 -9.0456
19.3823 135.091 -9.12578
-8.4485 150.719 -0.945245
19.0212 130.866 0.167771
5.24223 143.289 -5.31876
17.0573 136.281 -7.94806
19.6312 132.139 -3.13439
-7.04278 150.601 -2.46545
-5.66448 147.112 2.77021
17.7074 132.168 -0.261933
18.6546 132.259 -1.70493
25.8498 125.902 0.959128
9.98725 136.308 2.51793
1.13305 142.805 1.99159
22.3659 125.824 6.17073
2.11028 142.156 1.94347
4.23245 143.747 -4.32398
22.5709 126.028 5.53156
24.1355 130.637 -6.09352
16.5786 131.124 3.78344
24.7637 126.954 0.539963
17.0379 136.719 -8.25563
24.1589 126.377 2.76055
24.0627 126.342 3.00738
20.1091 128.625 4.11132
18.2748 130.397 3.13886
18.6823 136.247 -9.38854
17.0619 137.06 -8.61084
14.407 135.064 -0.709236
17.1872 130.299 5.06383
18.7343 131.799 -0.213445
23.9854 127.589 0.910564
23.7363 132.077 -7.90247
19.0839 129.44 4.18914
24.9109 130.289 -5.90568
18.8929 132.616 -1.99177
17.2286 136.667 -7.78527
22.5664 129.078 0.0882894
4.55343 144.174 -4.81603
-7.63554 148.555 3.77089
21.6875 126.198 7.32061
2.87814 142.138 1.89686
29.1125 126.217 -3.20635
4.01815 144.45 -4.38115
20.3472 130.695 0.313098
25.8322 128.87 -3.82936
22.5362 126.528 5.70227
23.3291 128.386 0.775198
-9.28398 151.175 1.0987
-8.43459 149.94 2.46877
17.2922 136.785 -7.60495
18.907 132.707 -1.49681
23.3296 126.91 4.01004
17.1637 131.661 3.21691
25.7396 129.403 -4.49615
16.8566 137.711 -8.62524
-7.74964 151.381 -1.07249
-7.31054 149.054 3.10295
17.0576 137.379 -8.05554
-5.11089 148.261 1.90119
19.8165 135.748 -8.363
6.79406 144.102 -6.59352
-8.23879 150.37 2.2373
17.8288 132.944 0.390113
-5.45513 148.535 2.01524
13.5828 136.554 -0.837222
21.2932 130.621 0.227738
22.3876 126.968 6.16517
16.7754 138.19 -8.62619
0.111799 146.864 -2.35262
0.937021 146.48 -2.73748
14.5422 136.164 -1.19829
26.2438 128.251 -1.82279
24.4642 128.154 1.11136
2.72052 146.016 -4.00612
-5.46815 148.924 1.8576
21.688 129.284 2.98416
22.7424 127.809 4.61405
24.5263 128.22 1.21886
25.0361 129.658 -2.43067
23.9482 129.521 -0.541238
25.9232 127.273 1.33342
-7.67024 150.521 2.13766
17.5418 132.578 2.65574
29.8619 125.787 -1.15528
3.46823 146.051 -4.58553
-5.1775 151.073 -2.39235
26.6636 126.991 1.16859
19.2056 130.729 4.36892
28.4792 126.273 0.174155
24.2014 128.681 1.40936
2.61621 143.612 1.97715
26.565 128.853 -2.17925
-1.411 148.411 -1.90647
1.16716 147.189 -3.10359
17.0097 137.587 -6.15064
-7.64148 151.302 1.29063
1.92456 146.994 -3.66144
15.981 133.637 3.43341
22.7819 129.2 2.76214
28.7252 127.659 -2.60711
18.6048 138.319 -9.79373
17.5129 131.876 4.95989
5.38799 145.716 -5.81686
-6.51665 152.046 -1.59561
13.0115 141.919 -8.82081
12.5501 138.107 -0.345461
16.7314 135.35 -0.703677
21.9923 134.495 -6.24839
23.423 129.548 1.85186
19.8365 130.997 4.21362
-7.6651 152.522 -0.175247
27.0987 129.094 -2.28055
17.0233 133.824 2.56285
-6.9394 151.281 1.35003
-6.05728 150.55 1.57618
16.0088 134.116 3.49119
25.4857 131.944 -5.69712
-2.85737 150.064 -1.95069
24.833 131.339 -3.4965
8.03859 144.991 -7.17842
28.764 128.092 -2.43721
23.6606 130.721 -0.456008
17.1591 138.48 -6.93078
16.8881 135.522 -0.463824
17.3894 133.859 2.2968
16.7775 135.78 -0.741804
16.1578 136.649 -1.59008
17.6913 134.118 1.47967
3.9323 146.911 -4.88186
16.2128 136.656 -1.57308
8.89729 140.114 2.00782
24.4029 129.367 1.87615
18.963 132.006 4.41261
29.1084 128.141 -2.23993
29.5173 128.2 -2.8766
6.11365 142.358 1.92169
23.7867 131.047 -0.264724
18.5386 132.613 4.14671
24.6759 133.603 -6.64563
20.7856 131.221 3.85134
13.8484 142.123 -8.39128
19.5061 132.051 4.08662
-7.4745 153.071 -0.0573092
28.0054 128.593 -0.989839
19.7196 131.957 4.05561
27.1144 128.657 0.25246
24.4563 129.85 1.64265
15.6964 135.338 3.0719
13.3525 142.736 -8.49347
17.2239 135.972 0.0271291
12.9331 138.046 1.96163
17.2917 135.903 0.17201
24.5571 134.092 -6.55288
15.9693 137.662 -1.4253
25.0704 132.263 -3.40411
13.6648 139.127 -1.01539
7.99669 146.057 -7.00584
16.6085 140.201 -7.26138
-7.61757 153.539 0.369001
24.204 131.507 -0.193064
24.4256 130.55 1.4513
22.4169 132.358 0.748147
19.0847 133.346 3.5646
2.23798 148.864 -3.85119
26.3699 129.463 1.22796
14.9252 139.032 -1.86069
6.93388 142.747 2.04527
24.1498 131.507 0.275105
27.8649 129.379 -0.707147
17.5076 139.222 -5.90511
23.1214 131.836 1.172
5.85189 143.583 2.02339
12.4877 139.15 1.61175
8.27101 141.79 2.53439
28.3581 129.541 -1.16204
18.3626 134.191 3.73146
21.4455 136.909 -6.16395
-7.40476 154.004 0.475033
17.6095 134.954 3.44707
14.5321 139.663 -1.71568
-5.97356 153.672 -0.836655
8.58621 146.438 -6.98881
25.2732 134.23 -6.02732
13.8768 139.94 -1.02899
16.0919 141.134 -6.55378
19.7861 133.693 3.44522
15.1155 142.203 -7.12304
-3.12842 152.501 -1.90522
11.5978 140.295 1.93934
6.5429 143.835 2.10561
8.58911 142.005 2.91222
26.8261 130.489 0.255231
22.0275 133.622 0.764845
27.977 130.624 -1.58896
24.7917 135.134 -6.18614
9.22333 141.651 2.89924
24.6591 131.571 1.3304
16.1002 137.833 0.958395
27.0724 131.09 -1.02108
25.6804 132.139 -1.13469
12.4786 144.503 -7.41439
15.3929 139.701 -1.66227
9.16618 146.755 -7.00818
11.2832 141.457 0.817924
21.5988 137.794 -6.46936
10.2736 141.519 2.34182
24.4642 133.578 -1.63701
17.1242 140.373 -4.84156
26.164 132.307 -1.27213
20.7266 139.455 -8.02506
26.7869 131.13 0.408972
8.53641 142.609 3.29056
1.96282 150.702 -3.68934
21.4965 138.591 -6.96775
24.3753 134.995 -3.62102
-5.32584 154.571 -0.8114
24.5009 135.09 -3.86551
11.7345 142.37 -0.206861
21.4021 133.862 3.31167
7.99455 143.37 3.33674
24.7095 135.23 -4.04952
26.0116 131.508 1.69109
3.63892 150.169 -4.27088
24.7112 132.641 1.27204
14.8272 143.01 -5.6985
12.5007 141.993 -0.256622
21.7206 134.13 2.58418
14.4913 143.928 -7.04574
21.6611 138.878 -6.88652
12.095 141.312 2.03746
23.816 133.623 0.971938
26.2189 131.687 1.57694
15.9577 138.987 1.45701
13.2781 145.096 -7.11498
15.6652 142.251 -4.6928
17.6445 142.019 -6.99665
1.83938 151.443 -3.37748
9.53018 142.806 3.22586
11.9804 141.826 1.91594
19.4736 135.77 3.56522
16.3455 139.611 0.215056
25.0989 135.955 -4.8286
23.539 134.072 1.29915
8.4213 148.36 -6.15626
5.98048 149.644 -5.20924
12.6922 145.986 -7.09184
12.6491 146.096 -7.08128
10.7732 144.259 -0.541796
17.842 137.204 3.93757
12.003 143.825 -1.03243
12.7755 146.229 -7.04876
11.7374 144.008 -0.962665
20.7359 141.139 -7.98425
9.21708 148.436 -6.30339
15.2237 142.116 -1.93061
10.2006 147.99 -6.59777
18.7624 136.895 3.88118
16.3673 140.596 -0.0584346
25.4981 133.371 1.67143
16.8121 138.75 3.46061
26.0942 134.711 -1.60243
12.296 142.613 2.15915
16.1492 139.811 2.45036
13.9824 145.939 -6.91415
11.4425 147.761 -6.95958
15.9521 141.829 -1.13241
14.6747 144.837 -5.25611
9.59766 144.129 3.59194
10.7723 145.422 -0.724961
11.9003 147.678 -6.91302
25.5221 135.048 -0.666079
26.16 133.29 2.09398
16.3282 141.2 0.20512
11.6144 143.514 2.44356
20.8024 141.962 -7.53895
7.71876 150.106 -5.34721
14.7898 144.933 -4.78756
10.1889 144.125 3.48703
10.9281 145.791 -0.834002
4.94823 151.642 -4.06922
5.23561 151.55 -4.1378
19.9181 137.501 3.53032
22.1703 140.676 -6.19935
24.2578 137.228 -2.13225
10.3256 149.177 -6.40329
23.649 135.328 2.79654
13.5501 144.613 -1.64913
14.9652 143.813 -1.94242
14.6442 145.826 -5.58902
20.0566 137.725 3.35096
15.6515 142.906 -0.514711
10.5168 145.904 0.761917
24.9316 138.202 -4.21601
18.8591 139.017 2.9263
13.598 147.375 -6.57749
17.5295 144.541 -6.35545
9.86563 145.035 3.72787
9.92005 146.771 0.193272
17.4838 144.601 -5.90869
12.1596 148.557 -6.29579
15.3086 145.374 -4.22821
18.1634 144.423 -6.26276
16.71 144.166 -3.62075
19.0268 143.933 -6.35859
24.4408 137.975 -1.80845
22.7762 140.788 -5.16021
15.2264 143.83 -0.467182
22.6402 136.982 3.03343
5.01518 152.612 -3.54027
17.1182 144.692 -4.47827
11.6464 145.268 2.28068
16.8207 144.407 -3.33434
9.61628 150.726 -5.7306
2.83649 153.909 -2.30096
14.7271 145.167 -1.18091
22.7468 138.279 1.4111
3.93583 153.562 -2.74714
17.3097 145.544 -5.48247
14.5957 145.462 -1.36989
5.86448 152.686 -3.55236
24.5183 137.504 0.72113
20.7621 138.898 3.40879
16.6496 141.995 3.06533
17.225 141.606 3.09834
15.9282 142.923 2.3744
14.9689 146.829 -4.11554
15.8278 143.244 2.12137
8.41551 151.768 -4.61258
16.7936 142.193 2.97204
25.1737 137.76 0.131297
25.0395 137.768 0.335758
15.5655 146.377 -3.60092
21.4279 143.748 -6.52391
20.6068 139.441 3.50754
19.5787 140.286 3.33697
7.76593 152.318 -4.14963
8.76599 151.895 -4.56816
17.0661 142.43 2.86501
24.327 140.679 -3.86068
14.8455 147.471 -4.01766
11.5657 150.247 -4.93841
15.1189 145.08 0.576957
11.1384 150.509 -4.61001
24.7492 140.159 -2.76154
8.07016 152.496 -3.70487
5.85317 153.538 -2.59713
8.90494 149.774 0.809365
24.2247 139.274 0.455404
24.8574 140.561 -2.96401
25.2449 139.051 -0.304705
15.7808 144.96 1.32345
24.4674 140.216 -1.44413
10.2637 151.361 -3.79344
24.6557 140.092 -1.10569
12.7304 150.218 -4.56785
18.5426 146.509 -4.93447
14.8012 148.575 -3.628
7.81369 152.941 -2.36635
19.3185 142.24 2.96661
20.605 145.577 -5.70448
18.74 146.574 -4.93182
21.3149 141.36 2.04153
19.3593 146.551 -5.42544
24.2491 142.406 -3.73092
11.5326 151.068 -2.79055
24.5199 142.327 -3.48441
21.0752 141.915 2.40452
23.164 144.139 -4.93823
23.7249 143.693 -4.44102
7.87758 153.538 -1.03063
20.1926 147.086 -5.45675
13.0606 149.812 -0.427309
17.327 147.978 -2.53786
7.8893 153.795 -0.777822
7.91274 153.789 -0.76641
22.8376 145.381 -4.87306
22.891 145.348 -4.83775
13.6055 149.771 -0.463179
12.8848 151.043 -1.92332
14.7283 150.309 -2.70481
23.8977 142.677 -0.274671
24.575 142.447 -0.754732
7.66608 154.341 -0.430846
9.09016 152.683 1.20792
24.3699 143.343 -1.64167
13.4544 151.084 -1.75763
11.8093 151.207 0.429692
22.849 145.933 -4.54683
14.4817 150.856 -2.55055
15.1665 149.471 -0.651702
24.0787 144.539 -3.28972
24.4274 143.249 -0.896634
16.6339 147.805 1.15846
19.5265 148.585 -3.87111
11.5271 151.959 0.813425
10.2975 153.039 0.797681
17.6498 147.686 1.37619
11.9654 152.99 -1.1317
16.885 148.566 0.992151
13.0584 152.443 -1.39213
16.7744 148.782 0.750884
19.8463 146.392 1.41665
17.0724 148.435 1.282
17.1213 148.368 1.37414
16.2401 150.042 -0.449368
18.3867 147.708 1.26488
23 146.66 -3.1925
10.0294 153.817 0.908741
11.0717 153.81 -0.243357
22.9582 145.621 -0.582341
22.9436 145.687 -0.665806
9.86616 154.396 0.525752
15.1889 151.523 -1.21494
17.4011 148.751 1.32346
21.9756 145.795 0.952917
18.2161 150.464 -3.13206
