ply
format ascii 1.0
comment Created by Open3D
element vertex 1850
property double x
property double y
property double z
end_header
8.5405 152.334 -2.05193
-4.74989 93.2017 4.43586
-0.0111546 109.191 5.46411
-2.64965 107.928 -0.0618672
4.02016 123.592 5.86354
0.64087 111.026 5.92533
4.11784 123.738 6.07227
1.83666 115.601 5.87056
3.00421 127.096 1.21807
3.46505 120.812 6.43297
-8.98361 104.85 -13.2116
2.63324 118.184 6.16339
-3.23005 105.682 0.163545
-3.21481 106.208 -0.0978982
9.86878 151.684 1.87249
-7.5031 88.499 1.0892
4.7225 142.716 -4.67996
5.24354 127.851 6.26206
-13.0972 86.4465 -10.9998
-11.3358 95.927 -12.7959
-0.381339 117.262 -0.198049
4.4591 131.836 2.02792
1.68121 132.628 -5.19212
7.38224 141.584 2.75217
-13.3614 86.2539 -11.2535
5.7841 145.991 -3.92039
-2.24104 110.997 -0.460343
5.13726 134.688 1.94311
1.20005 121.883 0.795558
-1.91054 102.392 5.98176
-5.98515 91.9286 2.97198
4.85273 134.625 1.35074
2.36333 126.305 0.761022
-3.59746 106.694 -0.783771
2.44803 126.841 0.707748
3.78822 131.142 1.18936
9.83112 153.296 1.37182
5.16501 135.949 1.44497
-9.34964 86.1396 -1.15501
8.67564 153.075 -1.16492
-8.29522 87.7042 0.442266
-14.1135 85.0741 -11.8713
2.59719 127.663 0.744369
5.43074 132.368 4.58836
3.93088 141.318 -4.84502
-9.44726 86.6332 -1.46992
5.41088 137.088 1.59904
7.98831 144.524 3.05074
-5.25622 116.491 -10.6394
-14.6937 83.8195 -12.1386
-2.12647 113.011 -0.809597
-3.83587 107.219 -1.15965
0.228909 120.481 0.0595643
6.44265 140.53 2.05037
-7.68405 111.445 -13.0752
4.78285 133.418 2.8055
-1.64525 115.337 -0.928287
5.56283 146.283 -3.67245
6.44476 140.917 2.04384
-10.294 101.167 -12.4561
-9.28421 87.2577 -0.935257
-2.08875 114.162 -1.04063
-14.4293 85.5266 -12.0786
-4.83605 95.0174 4.91694
-4.72724 104.711 -1.0926
7.85628 145.268 2.92479
-15.2776 83.1401 -12.4178
-0.222696 126.832 -4.4821
-5.01606 94.7121 4.92508
-2.50898 104.556 4.59845
-2.77046 121.908 -7.27271
1.6589 127.146 0.0774839
-2.51491 104.538 4.75665
4.6182 136.831 0.947763
-2.09092 123.358 -6.46534
0.748183 130.183 -3.94598
-5.8374 93.7522 3.90944
8.62674 149.895 2.29234
-5.58537 103.052 -1.4789
-2.21352 115.19 -1.20905
-5.50736 104.991 -2.44016
-5.80657 102.967 -1.80811
-4.79662 107.129 -2.06595
-5.2149 106.164 -2.32982
-11.7977 97.2055 -12.3766
3.84061 135.77 0.274948
3.11829 140.843 -4.63964
-1.33335 118.598 -0.845229
-4.01599 110.492 -1.96552
-13.2799 92.3279 -12.493
7.21877 145.405 2.43091
5.21909 139.78 1.31227
2.37158 138.045 -4.36874
-6.51341 102.353 -2.50888
-0.375874 127.874 -4.24092
3.81039 143.171 -4.06284
-2.94623 114.263 -1.54143
-6.62528 101.982 -2.42161
6.76461 152.553 -3.01427
-3.20647 122.321 -7.33627
-0.653871 121.42 -0.572298
1.98675 136.955 -4.26013
-11.3341 83.8133 -1.80942
-10.4665 105.43 -13.7078
-5.48041 106.616 -2.4337
-9.41088 109.497 -13.7854
6.15387 151.181 -3.34602
0.0757605 129.289 -3.69147
-4.92372 97.695 4.84103
5.9797 150.769 -3.37515
-5.47485 95.9031 4.76684
-13.5567 92.3222 -12.3985
-13.2261 93.9313 -12.6187
-8.44275 90.7225 1.05201
-14.4067 87.0757 -10.8674
2.18409 138.228 -4.10687
4.78555 140.102 1.05212
-4.50807 102.841 2.93422
1.23645 134.967 -3.92452
-5.64261 96.3088 4.69086
3.30465 142.768 -3.95991
-6.6391 103.498 -2.38594
-7.34764 115.16 -11.6854
-15.5 85.4412 -11.9153
-9.99776 108.942 -13.9224
1.49763 136.283 -3.9683
-11.1203 104.237 -13.5525
-10.4359 107.661 -14.1136
6.09152 144.849 1.62518
4.19413 145.305 -3.22391
6.5932 146.409 1.87868
1.77428 131.711 -0.159482
6.95339 147.483 2.09239
6.75761 153.31 -2.17216
4.34696 145.984 -3.07086
3.67059 138.071 0.491495
4.64522 140.985 0.969761
-5.78593 96.7942 4.60368
-9.83566 109.91 -13.7103
-0.26879 125.668 -0.740302
-3.60824 123.173 -7.1407
-5.22248 120.435 -9.24677
2.44501 134.081 0.394293
-14.7237 88.4657 -11.1747
5.04702 149.437 -3.1312
-5.77997 108.169 -2.37538
-16.6534 83.4271 -12.4838
-5.87388 102.098 1.38284
1.53797 131.952 -0.163642
7.29341 149.784 2.1219
-4.30896 102.44 5.01778
-1.925 120.783 -1.15444
-5.05995 102.473 3.2106
2.76318 142.106 -3.70746
-8.75994 92.02 1.15071
-15.686 85.7829 -11.4876
-5.25285 120.875 -9.09665
-11.8769 84.7355 -1.419
-4.95077 99.8947 5.43339
3.41263 138.525 0.472267
-4.53301 101.399 5.47689
-16.2801 85.3603 -12.4319
7.33168 151.49 1.50568
-9.59079 111.577 -13.2698
-2.14025 127.043 -5.21578
-6.19659 96.9398 4.60496
-9.14338 112.648 -12.7126
-5.34925 110.599 -2.17951
-4.11034 123.309 -7.45579
-2.53821 119.624 -1.26061
-5.75527 120.309 -9.44886
-10.7082 109.177 -13.9078
-10.9615 108.443 -14.0277
-12.3504 102.631 -13.5279
5.34151 145.085 1.55973
-7.39458 95.059 3.55267
0.0512768 133.072 -3.16013
-10.8258 109.32 -13.8975
-11.8752 87.5797 -2.23476
-6.21706 101.809 2.21733
-6.94758 101.55 0.668591
3.43232 145.526 -2.8482
-11.8164 87.0385 -1.5332
-7.83192 103.061 -2.32834
-13.9016 95.8258 -12.2078
-2.03456 122.956 -1.16349
6.43181 151.733 0.557849
0.322906 134.801 -3.16203
-9.13904 98.4227 -2.30185
-14.8504 91.798 -11.7687
1.25657 133.548 -0.0346427
-16.9915 85.3219 -12.6436
-11.8342 86.6859 -0.99135
6.39446 151.024 1.15189
-7.86628 100.695 -0.4264
5.60209 153.577 -2.21584
0.335065 135.451 -3.09094
6.91574 154.899 0.19814
2.46279 143.454 -3.06338
0.871428 133.124 -0.165676
4.80899 145.163 1.50157
3.01713 145.394 -2.87162
1.25586 139.159 -3.02242
-13.52 97.9062 -11.818
-6.64489 109.117 -2.37447
-8.80225 101.761 -2.72887
-13.0793 86.4447 -3.05279
-5.80631 112.017 -2.12336
-17.0821 85.8396 -12.2914
-10.3648 90.9996 0.583211
5.02515 146.402 1.6871
-0.548697 128.959 -0.373418
5.3391 147.41 1.82905
-6.2438 121.327 -9.10849
-15.6048 90.2486 -11.4577
-8.16723 100.425 -0.0817965
-14.2437 96.2655 -11.9737
2.67057 144.856 -2.72958
3.94634 143.584 1.21186
0.878953 138.457 -2.84817
-12.5706 87.6233 -2.18879
3.13995 147.252 -3.02144
-12.0103 86.8468 -0.213795
-13.127 85.5172 -2.0251
-6.44089 100.975 4.04914
-15.5407 91.0687 -11.3545
-13.3246 86.6316 -3.10699
-13.2527 103.682 -14.0222
-13.4837 101.049 -12.8595
-1.04298 132.158 -3.06557
5.53029 149.059 1.86213
-6.15323 121.943 -8.68115
-5.67963 122.885 -8.12259
-15.9146 90.032 -11.3235
-11.8788 109.132 -13.9921
-15.6873 90.9214 -11.2953
-9.85047 113.89 -12.1492
4.93526 153.633 -2.28277
-10.7991 96.6422 -3.12742
-12.0369 87.603 -0.222153
0.513961 133.704 0.101749
-11.7339 88.8885 -0.253661
3.25816 142.664 0.972694
-0.0532386 132.104 -0.0984347
-6.81571 110.376 -2.22512
-6.47144 111.512 -2.12644
-11.7511 89.4523 -0.5024
-7.00615 99.5333 4.45676
-4.95762 124.862 -6.97295
-8.57121 95.3918 3.6105
5.10067 148.96 1.7345
-11.7265 88.9512 0.203336
-5.22119 116.091 -1.68361
-9.3381 98.5623 -0.182256
-7.78164 100.567 2.27791
-9.36102 115.819 -11.4618
-0.935199 133.828 -2.73057
2.04659 145.06 -2.81098
-13.2923 105.924 -14.2967
-10.9316 97.6906 -3.11694
-9.01292 94.9256 3.32843
-0.393913 131.895 0.0647569
-7.2293 99.9452 4.38355
-12.2019 88.8405 -0.357285
-1.37359 132.89 -2.84384
-17.2485 86.7426 -11.068
-13.1477 86.661 -1.11541
-10.9008 96.386 -1.99745
-13.416 106.067 -14.3057
-11.7916 111.181 -13.5223
-1.66749 128.593 -0.401669
-17.8227 86.4117 -11.9235
-8.82681 105.47 -2.6012
-9.88076 115.414 -11.5868
-18.4809 84.6818 -12.3229
-10.1469 93.1012 2.34034
-12.8169 89.6664 -1.82281
-8.80872 105.895 -2.58746
-3.26548 129.032 -4.22294
-7.65756 99.7779 4.23347
-5.07934 125.612 -6.27404
4.31025 154.229 -2.23458
-8.7893 106.209 -2.57734
-14.4191 102.848 -13.9629
-11.7374 90.4442 0.643672
-13.0666 87.024 -0.312311
-12.2476 90.4031 -0.475598
-10.8123 113.86 -12.2781
-12.2386 90.0177 -0.185528
-13.4281 85.765 -0.25336
-14.8557 98.3474 -11.8766
-13.5796 86.484 -1.02786
-13.5241 85.7821 -0.411069
-2.05246 128.265 -0.335391
-12.9589 108.972 -14.0868
-13.9797 105.701 -14.3536
0.136976 135.053 0.652081
-3.12714 129.73 -3.74346
-6.52511 123.521 -7.82857
-9.57757 99.03 0.778282
-0.0957316 134.764 0.432193
-12.1984 95.01 -2.74236
-12.7686 109.974 -13.8613
-3.72989 123.434 -0.787894
-9.52071 104.385 -2.32433
-6.90219 123.073 -8.05455
-9.19256 96.2027 3.99599
-8.62697 119.596 -9.70999
-9.04124 97.3596 3.86024
-15.035 102.714 -14.0595
-5.62055 118.254 -1.43937
3.0678 153.074 -3.1393
-11.554 98.4672 -2.84699
2.61342 144.712 1.31868
-18.1394 87.0132 -11.1612
-4.48076 127.889 -4.78077
-16.6551 92.8692 -11.317
-12.3052 93.1894 -0.979018
-13.1366 90.7135 -1.30827
-11.9218 91.3801 1.21042
-17.0929 90.358 -10.5882
2.32513 150.952 -3.13494
-9.13755 98.8152 3.16789
-6.13497 117.285 -1.52141
-11.8649 112.766 -12.3238
-7.80105 111.955 -1.94276
-16.4793 81.3058 -2.92545
-13.7042 88.4906 -0.831702
-9.52491 98.6478 2.64369
-12.6699 93.2651 -1.35546
-12.5298 93.4019 -1.09684
-1.07034 137.795 -2.34156
-3.42489 126.06 -0.352857
1.26731 147.989 -3.29964
-0.932404 138.507 -2.42849
-9.95707 98.5903 1.78216
-2.89305 127.713 -0.113613
-13.3532 110.078 -13.8786
-11.367 95.8279 0.258458
-15.7435 98.6422 -12.1237
-9.53858 98.3514 3.13459
-10.0185 96.1292 3.42681
-0.220156 141.73 -2.58566
-2.99576 127.68 -0.0768365
-17.5834 89.671 -10.4961
-5.73389 126.136 -5.62473
-13.5227 88.5542 0.0812341
-15.548 101.031 -12.9237
-11.3405 95.9361 0.611586
-13.1871 91.0648 -0.656305
-1.70654 131.393 0.815638
-10.3438 116.868 -10.5724
-2.37987 129.843 0.315196
-6.911 115.939 -1.55617
-16.3311 96.3196 -11.4729
-10.7165 94.7171 3.15087
-13.0942 94.8762 -2.67193
-13.3195 92.5635 -1.69941
-2.14959 130.574 0.541625
-14.1478 89.1416 -1.43791
-16.8502 81.2156 -2.67391
-20.8907 83.2969 -13.7652
-2.07937 135.437 -2.24497
0.12994 144.523 -2.78787
-12.8015 94.3425 -1.26391
-0.0190124 143.878 -2.62755
-5.59047 127.03 -5.07985
-2.80928 129.099 0.299266
-13.2582 95.1571 -2.70106
-4.82589 128.593 -4.09556
-6.46189 125.427 -5.97422
-11.163 94.4758 2.87501
-10.7771 103.254 -1.79767
-11.3353 101.81 -2.1971
-15.7809 86.9529 -3.07305
-13.3128 92.6473 -0.823594
-16.285 84.0917 -2.29008
-1.05483 141.03 -2.5677
-17.0032 95.9105 -11.636
-11.4707 96.529 1.38832
-17.0544 95.6121 -11.482
-3.42019 128.23 0.279078
-13.4228 92.7604 -0.74728
0.986109 150.541 -3.56452
-1.99966 137.726 -2.37023
-16.9739 98.4289 -12.7829
-14.8378 108.58 -14.2279
-6.74439 125.718 -5.8237
-12.8769 92.1277 1.34097
0.168828 140.17 1.56412
-15.4979 87.0249 -1.63602
-14.1564 90.3437 -0.535241
-13.9827 90.9676 -0.511656
0.474211 141.573 1.47781
-16.9069 83.36 -2.50388
-4.03431 127.019 0.198057
-11.8313 115.2 -10.9074
-7.28409 116.782 -0.953068
-14.1938 93.2191 -2.28062
-12.3304 100.247 -2.35768
-4.99602 129.428 -3.613
-20.4059 86.0911 -12.5653
-16.7659 84.3418 -2.62905
-9.92751 106.867 -0.768125
-9.19899 109.782 -0.904497
-11.8579 94.5908 2.58938
-15.3387 87.1907 -0.987835
-12.3882 100.292 -2.33151
-9.91969 119.573 -8.92381
-17.0021 82.7005 -1.96075
-16.9319 82.6919 -1.66361
-1.77449 133.987 1.55423
-8.75738 122.35 -7.70785
-11.9243 115.303 -10.7607
-14.1846 110.566 -13.1213
0.510321 150.73 -3.79199
-6.34917 127.173 -4.98502
-16.5188 83.3682 -0.939522
-14.9441 85.9386 1.22258
-12.1414 101.599 -2.18007
-9.26733 110 -0.69384
-8.35088 113.965 -1.01457
-13.159 112.745 -11.809
-14.9327 109.403 -13.9011
-16.3168 105.03 -14.3189
-16.9717 84.8634 -2.76772
-16.4029 84.9449 -1.42973
-14.8005 92.6882 -2.60082
-14.6394 93.2319 -2.54042
-10.5699 105.926 -0.947105
-6.97414 126.298 -5.51535
-19.1452 89.0478 -10.6219
-16.0368 85.8822 -0.997335
-17.8211 97.4342 -12.8238
-8.8485 112.182 -0.755835
-0.749935 138.202 1.85557
-14.9151 92.4502 -2.52296
-17.3979 100.199 -13.4668
-13.6818 94.2418 -0.542449
-15.7814 86.657 -0.613662
-21.9192 83.4481 -13.3267
-19.2702 89.8573 -11.0994
-15.9703 86.4277 -0.869585
-15.7309 86.6948 -0.456144
-7.79474 124.799 -6.10024
-12.8432 99.9482 -2.08929
-12.9488 113.762 -11.2908
-18.1251 95.3792 -11.8031
-17.4397 84.5502 -3.04232
-12.4443 114.941 -10.7608
-16.3413 84.6319 -0.424282
-17.7116 99.7265 -13.5574
-8.8256 112.756 -0.557794
-8.55645 114.109 -0.732936
-16.6693 85.7321 -1.81755
-13.2722 98.9102 -2.14488
-6.35667 127.918 -4.33214
-11.5846 104.396 -1.62293
-0.637914 147.97 -3.55125
-12.9787 95.5598 0.809466
-15.9319 87.1351 -0.827223
-12.323 95.3128 2.56657
-16.8438 84.8625 -1.27382
-12.6398 101.377 -1.8453
-17.0113 85.9168 -2.2744
-15.5551 86.7464 0.720866
-16.4554 88.1869 -2.35935
-14.4992 89.8216 1.33753
-16.9932 86.0359 -2.20759
-17.6573 102.017 -14.1481
-13.216 94.0812 1.75066
-16.7352 83.9079 -0.0810603
-19.7069 88.3051 -10.1108
-8.95073 123.33 -6.89628
-12.3136 115.867 -10.1273
-15.0896 87.9421 1.38482
-14.8004 88.9432 1.50376
-15.0528 91.9021 -0.990118
-14.2904 91.907 0.915219
-14.1778 96.2061 -1.53073
-18.7744 96.618 -12.8511
-7.53117 118.562 0.0233923
-3.35957 137.814 -2.41681
-15.9857 88.0307 -0.459805
-17.0092 83.2439 0.266936
-15.0988 89.5953 0.780406
-14.4441 93.5366 -0.19223
-18.9177 95.6616 -12.3327
-14.2143 96.5885 -1.55275
-14.0631 93.6067 0.758479
-9.14359 113.137 -0.0477117
-14.5298 95.4096 -1.48284
-19.2126 94.4945 -12.0362
-0.880086 150.573 -4.25378
-0.903138 150.486 -4.23825
-15.8113 109.561 -13.5542
-11.7302 105.067 -0.677996
-3.71429 130.974 1.99037
-20.4307 87.9634 -10.339
-16.9405 107.278 -14.3823
-17.6837 85.2489 -1.82425
-22.7218 83.3687 -12.7568
-19.6547 93.7288 -12.0912
-14.0663 113.239 -11.2743
-2.63746 143.185 -3.10089
-17.4047 85.1209 -0.894168
-0.693297 143.028 1.76032
-18.7915 99.1548 -13.3288
-16.84 84.6793 0.844815
-20.8413 87.2974 -10.5077
-3.6048 138.732 -2.36228
-17.2053 83.5497 0.767142
-15.2635 111.189 -12.5405
-4.18831 130.122 1.89509
-22.0225 86.0511 -12.4403
-8.231 117.391 0.443707
-1.0366 142.043 1.84056
-3.84403 138.213 -2.40614
-18.6171 101.215 -13.9736
-17.041 85.079 0.435246
-8.56327 116.585 0.416681
-16.263 90.3335 -1.00431
-18.7558 100.953 -13.8694
-13.4965 115.092 -10.2994
-17.4461 106.649 -14.3012
-16.3656 86.4596 1.49673
-14.0202 114.093 -10.8059
-8.41291 126.51 -5.24343
-11.097 106.889 1.17712
-8.37204 117.797 0.769016
-3.28532 142.654 -3.1128
-23.0526 84.2513 -12.7924
-13.3002 115.858 -9.81265
-7.62132 120.373 0.987713
-3.66799 140.631 -2.59977
-7.38278 128.653 -3.76074
-13.6733 115.221 -10.147
-10.6678 109.025 1.1648
-13.3549 116.072 -9.63799
-4.97488 136.405 -2.62735
-8.83561 116.797 0.824824
-14.8794 112.999 -11.2203
-9.75827 113.734 0.693186
-9.47437 124.921 -5.84203
-15.5989 92.9547 0.191259
-21.1619 88.7388 -10.3834
-3.70537 142.406 -3.17408
-8.6008 126.896 -4.86438
-9.22311 125.796 -5.48525
-3.96958 141.248 -2.86343
-20.8672 93.9752 -12.8455
-2.86114 137.458 2.36809
-11.0993 121.57 -7.08645
-11.9508 119.729 -7.88207
-7.82642 120.864 1.43779
-19.5233 101.042 -13.8001
-13.2556 103.354 -0.0993785
-4.33631 140.362 -2.63974
-21.571 89.1054 -10.7951
-23.5918 85.2721 -13.1747
-7.91178 128.941 -3.69603
-20.7227 81.856 -3.93334
-14.3014 100.299 -0.442535
-10.8763 109.954 1.65594
-16.0444 89.8971 2.26886
-15.8717 93.281 0.635913
-15.6943 92.7782 1.40612
-21.8666 90.6637 -12.0704
-21.832 88.2347 -10.3146
-19.1865 82.6762 -0.279546
-4.61653 141.445 -3.34651
-7.60169 130.458 -3.36725
-17.9324 108.611 -13.8538
-19.1447 104.548 -14.1124
-17.8904 108.736 -13.7946
-2.8851 139.578 2.36847
-17.0943 87.1313 2.3145
-21.1725 81.6423 -3.94421
-4.93063 131.877 2.55617
-14.3171 101.122 -0.0349972
-24.1682 84.1985 -12.7614
-1.77946 152.86 -3.38614
-10.3715 113.581 1.48883
-13.2669 104.238 0.708956
-8.32291 120.68 1.97765
-4.12447 146.191 -4.36693
-7.73721 131.081 -3.24048
-6.28707 128.298 2.13755
-24.0139 85.3615 -12.6777
-3.73399 148.23 -4.61319
-22.2449 92.2522 -12.8256
-3.84185 147.928 -4.59368
-18.8809 106.37 -13.823
-5.72311 137.644 -2.42636
-22.2539 92.552 -12.9256
-6.34225 135.796 -2.64132
-17.8997 109.723 -13.489
-12.4231 120.681 -7.32982
-22.2775 93.1612 -13.1305
-7.5426 132.244 -3.00058
-1.87133 147.222 0.949036
-13.4215 104.354 1.00019
-10.3359 114.582 1.92096
-9.97413 126.514 -4.85331
-22.7375 89.7226 -11.5431
-1.60032 154.034 -2.34439
-12.2982 121.427 -6.92799
-16.9566 89.1514 2.86424
-15.3954 115.458 -10.4416
-11.3276 110.995 2.33446
-15.2094 99.6718 0.349226
-15.5572 97.9167 0.679501
-18.6982 84.8914 1.58862
-15.2139 99.7126 0.368306
-23.9694 86.3474 -12.0137
-23.1203 87.0675 -10.4328
-18.4102 109.543 -13.6576
-21.8079 97.0778 -13.7028
-9.87786 116.742 2.39752
-24.6608 85.0345 -12.5911
-5.45863 132.442 2.93282
-22.777 93.4287 -13.3827
-15.8978 97.402 0.699568
-20.6153 102.936 -14.1874
-6.48408 137.252 -2.3955
-11.7176 123.403 -5.94718
-13.3719 119.923 -7.60676
-8.32778 131.778 -3.0922
-6.78859 138.49 -3.59011
-21.8297 82.1384 -3.1135
-10.0724 116.891 2.67186
-24.7992 85.7702 -12.5435
-25.0625 84.7573 -12.3765
-21.2962 100.573 -13.5221
-22.8173 81.0698 -4.47158
-7.01286 139.436 -4.2675
-10.1106 117.175 2.81876
-19.9529 106.176 -13.7487
-16.8524 93.1599 2.328
-19.7311 107.158 -13.6362
-4.81981 137.221 2.7879
-23.481 88.4534 -10.4745
-6.83686 129.49 3.04796
-12.6626 109.017 2.32117
-15.1715 117.431 -9.15852
-21.6147 82.6159 -2.02438
-22.9054 96.3334 -13.9714
-16.9079 96.3759 0.501254
-11.6722 112.432 2.69715
-17.1735 92.2395 2.61242
-23.6566 88.8272 -10.8142
-16.0075 98.2248 1.55855
-23.7564 90.0327 -11.8008
-23.7456 90.2388 -11.8894
-23.6861 90.8435 -12.1286
-10.4098 127.69 -4.04867
-16.9747 114.55 -11.3101
-22.2079 98.4476 -13.4402
-6.13383 144.611 -4.63443
-5.4408 135.332 3.12273
-14.1464 104.416 2.27926
-14.9437 102.361 1.84199
-2.69705 154.109 -2.26467
-12.1912 124.237 -5.55826
-14.5827 103.633 2.10498
-7.78135 138.066 -3.8892
-20.1975 106.944 -13.5458
-5.28714 136.91 2.96411
-12.089 111.645 3.00712
-24.9754 86.3644 -11.5834
-7.43226 128.742 3.20393
-17.1852 93.2874 2.83024
-7.6099 140.339 -4.68003
-18.5275 112.175 -12.6698
-5.96899 134.353 3.3448
-23.3659 96.786 -14.0055
-24.102 93.7555 -13.7852
-21.9351 102.132 -13.9904
-4.75404 151.585 -4.70898
-11.0267 127.476 -4.13052
-8.14068 136.918 -3.26422
-22.1982 100.761 -13.5924
-21.9416 102.595 -14.1501
-5.50307 149.93 -5.1507
-10.8238 117.065 3.4998
-8.33598 137.471 -3.72401
-24.3803 90.6912 -11.9357
-4.79487 140.602 2.86493
-18.7283 112.6 -12.5002
-9.13067 133.312 -2.8197
-12.3501 112.08 3.26874
-15.6114 101.283 2.44477
-4.76254 141.099 2.72136
-12.0975 125.653 -4.91685
-6.35315 147.664 -5.29463
-18.0435 114.075 -11.6396
-26.1688 85.832 -12.8084
-11.0176 116.846 3.5965
-6.72478 145.963 -4.99051
-25.6762 86.5555 -11.8457
-14.8863 103.811 2.98351
-11.1253 116.753 3.64682
-11.4772 115.631 3.58518
-4.06586 153.201 -2.91507
-4.57636 143.39 2.26953
-23.8438 81.3215 -3.82235
-26.0272 86.406 -12.3854
-20.577 85.2616 1.53303
-17.8268 93.3502 2.98615
-21.695 83.4848 0.0762108
-25.8762 85.8857 -11.5518
-18.1318 114.631 -11.5313
-24.3147 95.6873 -14.0827
-9.30373 123.787 3.94928
-23.7028 81.2607 -3.02359
-17.0408 117.196 -10.3146
-11.7523 115.387 3.71315
-17.6167 96.8823 1.66501
-26.0083 86.0635 -11.4971
-21.0046 107.668 -13.4257
-24.6707 95.0594 -14.0636
-14.4311 107.942 2.40114
-10.9947 129.697 -3.45359
-11.8756 127.585 -4.04405
-24.9676 94.3679 -13.9877
-7.90402 144.029 -4.83351
-26.3763 86.3484 -11.8252
-5.33863 152.526 -3.85641
-25.2525 91.2772 -12.0388
-21.1699 85.5683 1.56563
-26.5904 86.4612 -12.0545
-5.22658 146.252 0.6177
-24.8752 81.5317 -4.63042
-15.4779 120.943 -7.59384
-5.55124 152.469 -4.04393
-23.7384 81.9224 -1.97755
-7.56556 147.599 -5.70178
-5.38273 146.148 0.640096
-22.5973 105.182 -14.2325
-8.74928 128.259 4.18213
-8.11579 145.102 -5.23063
-9.54389 139.815 -5.21567
-10.1452 137.978 -5.46082
-7.79015 147.002 -5.63922
-18.5783 95.3188 2.04648
-18.6295 115.774 -11.2814
-16.9232 99.1868 3.63857
-14.2283 123.749 -5.82679
-23.286 103.453 -14.3807
-6.68694 137.744 3.3758
-11.11 131.524 -3.23247
-7.46139 134.11 3.89912
-10.6802 132.99 -3.01574
-11.5752 130.247 -3.38021
-10.335 138.253 -5.51635
-25.8977 93.3447 -13.8212
-6.51121 151.615 -4.91356
-16.6958 119.51 -8.50693
-10.4098 122.956 4.45124
-24.4503 81.7565 -2.57759
-21.7931 108.289 -13.4013
-20.9916 111.022 -13.2265
-7.0934 150.731 -5.39343
-16.2751 120.563 -7.89557
-18.6098 96.4874 2.21108
-12.24 128.885 -3.50684
-10.5852 134.798 -3.33808
-15.8265 104.577 3.70291
-19.0613 92.4237 3.80837
-9.63531 126.357 4.4756
-16.4979 120.233 -8.06794
-17.9864 118.076 -10.2024
-26.1788 88.3072 -10.591
-13.1232 127.047 -4.21318
-14.9598 123.218 -6.14847
-19.272 115.453 -11.483
-13.4031 126.505 -4.44393
-8.50454 131.12 4.43775
-6.23265 143.575 1.86077
-25.1548 98.3083 -14.1177
-25.1652 98.3139 -14.1176
-12.2029 118.081 4.36086
-15.9329 105.929 3.28895
-12.1504 130.21 -3.38037
-17.615 98.4323 4.1474
-26.3211 89.7048 -11.1738
-6.6408 141.338 2.77013
-23.1644 106.391 -14.1073
-19.8236 91.0424 3.96431
-27.276 86.9541 -11.224
-18.9011 95.7003 3.33687
-8.90186 147.269 -6.0907
-16.6947 102.628 4.18119
-21.6689 110.789 -13.1327
-11.2637 134.392 -3.37031
-16.7573 102.447 4.20599
-22.3549 108.645 -13.3112
-10.6046 124.884 4.59453
-8.56268 132.825 4.39221
-20.567 113.919 -12.2214
-11.146 138.902 -5.71671
-18.9075 95.41 3.91521
-17.2139 101.472 4.2877
-22.5455 108.894 -13.2515
-26.8712 89.5962 -11.1095
-9.87963 144.285 -5.63786
-27.0041 90.8641 -12.0866
-7.29226 141.155 2.77347
-11.8818 133.509 -3.30179
-27.5255 86.7319 -10.5044
-20.6981 114.397 -12.0376
-18.1929 98.3414 4.46552
-28.1182 86.9465 -11.8407
-12.1045 133.925 -3.64388
-27.5175 91.6932 -13.3396
-18.1602 119.593 -8.91339
-11.8179 138.472 -5.86307
-25.2222 101.494 -14.099
-25.3551 82.9072 -2.28444
-6.92683 153.199 -3.55391
-19.3125 95.5098 4.19292
-25.3398 101.21 -14.0309
-24.5325 104.326 -14.08
-14.8609 125.908 -4.73148
-12.4315 134.043 -4.08854
-19.1099 97.3518 3.69707
-7.62827 142.502 2.05635
-26.289 81.6548 -3.32091
-10.3379 128.776 4.50001
-13.3772 130.021 -3.43395
-13.5841 129.458 -3.54219
-16.5933 108.282 3.00767
-24.0632 85.3976 -0.0683481
-22.011 112.728 -12.8142
-7.45651 146.014 0.674647
-20.6005 116.067 -11.3952
-19.6279 94.9733 4.71276
-18.9195 119.335 -9.39616
-22.6029 111.607 -13.0859
-17.0413 107.284 3.29787
-26.4378 99.8041 -14.1294
-19.8855 96.5773 3.82634
-10.8696 145.132 -6.02496
-12.7966 121.281 5.01496
-8.40014 142.778 1.69497
-26.0068 101.962 -14.1382
-10.8475 129.851 4.43545
-24.6057 106.696 -13.6831
-9.96774 132.99 4.5598
-24.0908 108.314 -13.4467
-10.7038 130.644 4.39864
-16.4903 111.201 3.19058
-24.7308 106.557 -13.6733
-10.8794 146.478 -6.07684
-15.1708 115.3 3.86669
-15.4915 114.478 3.64476
-9.24113 151.324 -5.25297
-17.6927 106.577 3.49781
-10.9584 146.381 -6.07072
-15.0238 128.118 -3.9665
-6.7725 154.207 -1.0156
-24.954 106.38 -13.6642
-18.4883 102.151 4.77463
-9.31248 138.162 3.67764
-14.2718 118.398 4.58267
-21.7254 91.4847 4.22132
-13.0722 122.194 5.12369
-27.7951 82.0718 -4.25883
-20.3848 95.8791 4.63954
-24.4262 108.624 -13.4091
-18.2733 104.347 4.2715
-25.1329 86.3183 -0.520121
-16.2219 126.1 -4.7102
-14.2954 135.732 -6.30205
-9.92093 135.72 4.26531
-25.8882 103.886 -13.5398
-9.44888 138.746 3.55336
-17.5875 123.614 -6.2196
-18.3829 105.065 4.04165
-11.944 128.191 4.5361
-11.8136 144.771 -5.94065
-27.3535 82.9279 -3.17839
-29.4071 89.8267 -12.5998
-21.2159 93.1254 5.08046
-16.3798 126.148 -4.69872
-12.382 143.024 -5.98129
-19.0027 121.639 -7.85236
-15.9871 115.176 3.7344
-19.1221 101.771 4.98537
-9.60146 142.248 1.61977
-27.0794 83.8236 -2.52045
-10.0502 151.196 -5.2231
-24.8596 87.7525 0.398246
-11.5784 130.754 4.47831
-21.2598 93.9179 5.11382
-22.6849 91.4748 3.37338
-10.9227 149.61 -6.07858
-16.8233 113.237 3.39576
-12.5952 143.455 -5.91944
-23.6673 90.7115 1.76789
-23.6732 112.339 -12.3216
-11.3266 148.796 -6.15769
-18.9427 122.517 -7.33505
-16.584 126.886 -4.4564
-11.3426 132.357 4.63705
-16.6156 126.872 -4.47454
-26.1318 86.1867 -0.950058
-11.6896 131.374 4.55145
-12.256 145.522 -5.91515
-9.47207 146.233 0.346292
-11.3943 132.56 4.66318
-27.8797 99.9165 -13.8019
-28.9557 95.021 -12.964
-7.96247 153.301 -0.209215
-10.3479 141.754 1.64862
-25.8806 87.6753 -0.600234
-10.482 139.041 3.15583
-15.9041 133.444 -6.21227
-30.7957 87.589 -12.238
-28.0964 84.0153 -3.38955
-14.9982 119.723 5.05945
-19.3254 104.658 4.43382
-31.0187 87.3266 -12.3732
-25.874 107.971 -13.3161
-8.06969 154.061 -0.297337
-15.0546 136.715 -5.81478
-15.9985 133.92 -6.2271
-26.4596 87.3222 -1.12731
-26.6057 87.1097 -1.30968
-18.8773 108.304 3.66532
-11.2598 150.681 -5.37765
-15.3052 119.888 5.16043
-29.5461 82.9808 -5.1682
-16.4364 131.785 -5.26798
-29.1879 97.1827 -13.5103
-22.9011 117.487 -11.5376
-14.9659 121.442 5.21038
-31.3199 88.2313 -12.6315
-20.1548 102.558 5.10776
-28.0279 101.694 -13.3106
-10.3917 147.23 -0.270199
-28.1429 85.4287 -2.85745
-20.0886 122.626 -7.6021
-29.2935 98.058 -13.7651
-11.7429 150.226 -5.3645
-13.2126 145.181 -5.61171
-14.8711 122.511 5.17237
-16.649 117.138 4.39309
-31.6564 88.2583 -13.0104
-15.631 136.305 -5.57923
-22.7248 118.511 -11.03
-12.4942 148.464 -5.70257
-11.1098 142.594 1.471
-24.0569 93.9854 1.90806
-15.8205 119.649 5.15084
-17.8546 127.332 -4.72522
-16.7729 130.196 -3.9561
-29.2935 84.7303 -4.54663
-16.7076 117.467 4.51872
-19.9683 105.648 4.34782
-25.1225 92.4204 0.520546
-11.4497 141.675 1.60143
-21.9787 96.6953 5.52256
-31.8458 87.522 -12.3195
-15.7205 136.722 -5.38612
-11.7936 136.821 4.03338
-31.4634 80.9074 -7.03004
-22.3862 96.0534 5.11225
-25.456 111.411 -12.2605
-11.0666 144.276 1.22099
-11.929 136.309 4.33051
-25.0908 93.4254 0.491955
-30.2847 83.4028 -5.47804
-31.6833 87.8534 -11.7038
-31.0339 81.8569 -6.18901
-14.4793 125.142 5.64911
-15.1818 140.068 -5.66776
-16.8132 134.781 -6.10299
-9.3805 154.786 -1.17827
-26.0089 91.4457 -0.0646787
-14.0301 144.146 -5.44968
-29.4568 99.3932 -13.4274
-32.094 80.7085 -7.57391
-17.0257 134.165 -6.00541
-22.7478 119.445 -10.2086
-12.2032 138.468 2.91801
-31.1486 93.0209 -13.2004
-22.3115 120.179 -9.51025
-27.508 106.491 -12.9481
-13.4523 131.656 4.6925
-31.0629 93.806 -13.1403
-12.3307 139.993 2.04596
-22.8883 96.4434 4.9466
-27.0665 108.24 -12.7848
-12.4055 139.27 2.42859
-18.0099 116 4.0952
-27.0206 90.4174 -0.965136
-17.1736 134.714 -6.01332
-31.1006 82.8362 -5.84307
-22.4823 97.2899 5.5669
-21.4927 101.223 5.44955
-20.1357 108.411 4.04701
-13.1122 148.846 -5.24321
-30.6673 95.4097 -12.7242
-28.6668 88.267 -3.16355
-31.1347 83.3818 -5.89732
-19.0303 127.393 -5.32346
-25.0928 95.4904 0.854539
-28.6979 88.3273 -3.18241
-11.0608 150.179 -0.767345
-10.1104 154.045 -0.952643
-11.8871 143.756 1.51826
-10.246 154.624 -1.31513
-17.4285 118.51 4.87268
-22.4418 121.115 -8.90767
-17.4381 118.525 4.87795
-18.4249 132.038 -6.29536
-14.5945 145.013 -5.4251
-12.5084 151.167 -4.38767
-16.2711 139.5 -5.8562
-25.3018 95.9167 0.752985
-27.5734 91.2153 -1.58609
-28.3158 89.8853 -2.49956
-10.4307 154.71 -1.52863
-12.6177 141.463 1.84656
-27.3263 91.6785 -1.23676
-17.0101 119.927 5.29729
-33.3044 87.0565 -12.6071
-12.0936 148.809 -1.58901
-14.1771 147.019 -5.44585
-32.3548 82.0257 -6.99308
-19.4333 127.849 -5.45929
-25.9422 95.3389 0.0220179
-33.6863 86.6611 -13.0106
-16.5706 139.012 -5.78053
-12.3067 152.216 -3.83446
-30.7902 98.2342 -13.2785
-22.0172 122.896 -8.01511
-25.8801 114.555 -11.8441
-33.9963 86.5992 -13.1079
-13.4003 138.025 3.23933
-21.6153 104.627 5.1571
-33.3329 87.9261 -12.2043
-13.4109 136.693 4.16624
-18.7081 131.118 -4.9852
-28.6268 90.8947 -2.72937
-25.5645 96.862 0.809644
-28.1485 107.36 -12.2321
-17.9313 118.913 4.95679
-22.284 101.791 5.60383
-16.9638 121.529 5.6125
-30.5142 100.283 -13.2274
-17.019 138.058 -5.18024
-24.6407 118.857 -11.0639
-11.2719 151.27 0.128941
-27.8563 92.7765 -1.7603
-29.2248 104.486 -12.6665
-18.8866 129.938 -4.28481
-18.8067 132.619 -5.81565
-26.632 112.864 -11.8289
-16.7068 123.061 5.50967
-17.0021 121.806 5.61521
-28.5453 91.8658 -2.62608
-27.6122 93.4539 -1.38678
-33.2451 89.2389 -12.1793
-22.9116 100.139 5.72859
-22.7955 100.661 5.69632
-14.3351 133.916 4.54186
-32.5713 83.3226 -6.53028
-18.4398 118.415 4.74586
-31.1851 99.1268 -13.4383
-33.2407 91.5307 -13.4309
-22.4257 102.296 5.67586
-12.7766 147.282 -0.311279
-28.1638 93.1598 -2.06799
-19.4232 115.461 4.53449
-17.157 122.182 5.63781
-14.2494 134.826 4.43291
-32.7624 92.6857 -12.7902
-33.2352 82.6624 -7.28147
-19.7986 129.233 -5.13547
-34.5407 87.0183 -13.2296
-29.4584 90.8911 -3.45319
-11.054 153.012 0.554951
-31.0866 86.9589 -4.72388
-14.3912 134.897 4.4096
-28.0605 93.9915 -1.84677
-16.8798 141.835 -6.00621
-34.1442 88.9344 -13.1448
-33.3941 92.0475 -13.2698
-17.4625 122.184 5.6847
-15.1849 130.769 5.70972
-13.7369 146.421 -0.954316
-34.2396 82.0946 -8.55565
-19.7741 115.355 4.7257
-22.968 101.883 5.801
-32.3717 86.0254 -6.51691
-13.9243 146.281 -1.18527
-30.6434 89.1825 -4.31473
-27.8562 95.3766 -1.57258
-34.2528 82.2471 -8.45536
-12.9542 152.333 -2.66311
-23.8873 122.048 -9.28614
-14.3022 149.361 -3.92572
-14.4834 148.888 -4.02072
-26.9243 114.043 -11.3525
-20.9917 111.356 4.72897
-15.8315 145.75 -5.19633
-14.4358 136.826 4.02116
-24.2895 99.8254 4.33051
-28.3274 94.701 -2.07411
-28.0056 95.4421 -1.70643
-34.3946 86.8379 -11.5192
-33.2732 92.9461 -12.7667
-13.7388 150.719 -3.23141
-15.4768 130.082 6.02808
-34.5374 89.2145 -13.3403
-19.756 130.809 -4.58743
-13.9482 148.047 -1.72476
-28.8988 94.2239 -2.70095
-34.6354 90.0013 -13.7595
-13.9646 144.228 0.826899
-22.4998 105.723 5.31792
-35.5094 85.7309 -12.9624
-15.2857 133.116 5.0019
-29.4589 93.3826 -3.30763
-19.6569 131.837 -4.66844
-34.5022 87.3359 -11.4936
-17.8951 138.735 -4.84984
-33.6456 92.8055 -12.9542
-12.9728 152.95 -2.19577
-30.8615 103.243 -12.8323
-35.2838 87.6058 -13.0827
-18.1196 138.21 -4.5216
-35.6411 87.4761 -13.7686
-19.3956 133.402 -4.4436
-31.8158 100.777 -13.1377
-29.6433 107.314 -12.1146
-20.2221 115.965 5.02121
-17.69 142.238 -5.87883
-20.788 130.291 -5.54558
-26.9809 97.8801 0.653388
-28.8644 109.624 -11.5022
-16.8486 144.471 -5.10107
-28.0712 112.498 -11.3043
-23.8377 101.764 6.0217
-28.1158 112.456 -11.2635
-17.9568 124.167 5.63446
-14.7115 145.343 -0.273326
-17.2852 143.857 -5.43853
-35.4671 83.1156 -9.49611
-17.1904 126.906 6.10758
-19.6468 134.318 -4.56417
-15.7489 137.601 2.7797
-17.0593 144.884 -4.98728
-13.268 150.086 0.84927
-35.292 86.7484 -11.0102
-23.8509 103.06 6.0027
-25.4242 121.576 -9.74995
-28.2591 97.3736 -0.831315
-15.5413 143.207 0.0257368
-29.9752 107.956 -11.8262
-28.3325 97.3494 -0.873026
-33.0336 98.0583 -12.6104
-13.745 152.473 -1.42768
-26.386 119.371 -10.3625
-20.3358 118.146 5.0624
-13.7642 149.701 0.423808
-18.7079 139.149 -4.60202
-31.8792 90.6538 -4.7589
-35.356 88.0681 -11.4129
-32.3509 89.8757 -5.32561
-35.8602 85.452 -10.8501
-32.9314 88.8744 -5.99039
-17.9174 126.39 5.8683
-36.5375 84.7521 -11.9546
-16.219 138.063 2.48339
-31.147 93.5067 -4.50829
-35.8809 86.9359 -11.5943
-23.4204 126.071 -6.9729
-16.8566 131.262 5.59695
-36.143 88.1187 -12.8223
-36.4103 84.6893 -11.2042
-14.2214 151.734 -1.258
-16.6677 146.792 -3.92786
-22.3339 111.326 5.54435
-24.0216 104.141 6.16068
-16.3302 138.617 2.43111
-13.5676 153.715 -0.676858
-13.8251 150.015 1.12707
-26.0308 101.406 3.33696
-29.3947 96.701 -1.67811
-35.4228 92.164 -13.1403
-19.5153 137.373 -4.17502
-35.4043 91.4239 -12.5981
-17.0582 137.131 1.93287
-34.6349 93.9496 -12.3596
-26.6645 120.049 -10.0112
-20.9399 133.736 -5.07793
-37.043 84.641 -11.9672
-21.2369 116.454 5.67453
-27.9809 99.2951 0.648503
-18.8775 142.462 -5.40759
-29.6739 110.343 -10.3939
-13.7904 150.617 1.74731
-37.0096 84.7174 -11.3349
-18.6333 126.393 5.88794
-16.5301 143.484 -0.10174
-30.8836 95.4297 -3.45213
-13.5724 151.456 1.9046
-28.5022 114.405 -9.97532
-33.7678 99.156 -12.6978
-20.7125 120.006 5.44147
-18.0282 144.072 -3.63543
-26.8553 120.739 -9.67976
-23.4523 127.899 -6.11315
-34.1946 89.3856 -6.91778
-34.68 95.5755 -12.0898
-16.8529 143.298 -0.00737398
-16.4248 147.975 -1.97072
-22.9171 111.806 5.94423
-16.4591 145.54 -0.429157
-36.2237 89.1408 -11.3784
-16.5491 145.289 -0.397941
-29.6157 97.8238 -1.02927
-32.5018 93.8364 -5.244
-17.8067 137.337 1.9962
-23.2735 110.719 6.14728
-28.7428 115.278 -9.90527
-28.6557 115.685 -9.954
-33.9695 90.5573 -6.40909
-23.2246 111.142 6.12763
-18.8319 127.208 6.2988
-18.6544 127.61 6.4991
-30.4496 97.2142 -2.16638
-17.4738 136.736 3.45068
-29.7485 111.758 -9.88255
-17.6708 137.966 2.28251
-21.1969 135.892 -4.78664
-30.4169 97.5436 -2.04616
-17.9554 136.222 2.86664
-21.4864 135.034 -4.86709
-17.7951 136.207 3.3107
-29.7281 98.346 -0.825503
-25.4683 104.404 5.55678
-22.7468 130.702 -4.85222
-27.0208 121.696 -9.24974
-27.3366 120.814 -9.41891
-17.828 136.68 3.20537
-36.1066 87.246 -8.64672
-22.5387 131.325 -4.5873
-19.0629 142.701 -3.59702
-36.5289 86.49 -9.14685
-31.6608 96.8971 -4.04937
-35.3855 95.529 -12.0559
-26.927 103.026 3.48445
-16.9722 144.553 0.478966
-23.8706 110.162 6.23664
-20.4144 123.568 5.91879
-37.5488 86.8164 -11.4935
-22.9842 130.8 -4.83452
-28.2861 118.615 -9.68815
-31.6522 97.451 -3.93419
-31.9745 107.733 -11.3611
-37.5575 87.4324 -11.6078
-14.6313 153.385 0.800397
-18.4529 144.751 -2.73619
-29.0988 116.213 -9.8098
-18.8833 130.148 5.84205
-35.747 95.1534 -12.0314
-32.9329 104.986 -11.586
-20.8985 138.035 -4.03179
-36.3715 93.49 -12.2565
-29.9125 99.5532 -0.502542
-30.5659 98.6383 -1.47894
-21.8577 119.959 5.67103
-36.8055 90.0641 -10.9381
-27.1345 122.949 -8.99568
-25.675 105.815 5.7092
-22.6326 132.531 -4.31628
-32.7391 96.5553 -5.25418
-17.3647 143.308 1.46512
-14.6012 152.129 2.39536
-26.0891 105.154 5.34246
-22.022 135.711 -4.67643
-36.9805 90.0306 -10.8875
-37.119 87.437 -9.49802
-16.5432 149.818 -0.360304
-24.7407 109.327 6.21977
-21.8572 136.464 -4.48977
-18.6615 135.147 4.14762
-17.0224 145.783 1.1886
-17.1501 145.198 1.34576
-25.295 127.215 -6.59733
-27.5695 122.402 -8.93802
-29.7764 100.849 -0.220921
-24.8923 109.234 6.22023
-37.4954 87.6617 -10.0273
-23.3375 131.588 -4.4482
-27.5162 122.887 -8.86771
-17.1736 145.868 1.30432
-23.8399 130.771 -4.93721
-19.5507 128.74 6.75952
-29.0124 102.687 0.912906
-23.5634 114.54 6.39173
-20.4616 126.453 6.16381
-30.2953 114.087 -9.36398
-32.6727 97.8986 -4.50696
-21.4268 139.148 -4.17728
-21.9116 137.394 -4.15436
-35.1293 100.612 -12.0511
-28.3282 104.162 2.18509
-37.3333 90.4016 -10.5807
-22.5411 119.873 6.0228
-34.4514 95.5474 -6.81474
-35.4789 99.574 -11.8905
-34.5943 95.0552 -6.74651
-33.1163 106.807 -10.6051
-36.8324 95.1344 -11.9621
-34.7632 95.5203 -7.17666
-38.1212 88.9121 -10.9775
-24.9964 129.25 -5.52098
-25.2708 128.253 -5.45813
-16.8775 148.44 1.701
-31.9939 110.5 -10.0751
-37.8186 88.9572 -10.0541
-25.62 109.334 6.16099
-21.467 140.296 -3.96226
-37.7387 89.068 -9.87544
-20.9829 126.234 6.38051
-16.821 151.015 0.304267
-32.2169 99.4651 -3.25884
-22.9881 118.973 6.33275
-37.4553 92.5159 -11.3319
-18.5061 142.139 2.09717
-17.9176 144.694 1.95427
-22.407 137.393 -4.11352
-34.3884 103.356 -10.8615
-21.7641 139.722 -4.00983
-37.5204 92.8783 -11.5056
-34.9292 100.629 -10.2314
-33.5086 98.1179 -5.07348
-25.2162 111.484 6.37962
-30.5117 102.177 -0.16117
-34.8024 101.001 -9.73538
-26.6495 125.734 -6.15799
-21.8981 140.227 -4.10615
-22.1016 139.405 -3.97219
-28.3673 105.716 2.98191
-30.1641 103.024 0.470599
-27.717 106.742 4.0222
-27.4561 125.007 -7.2041
-25.0456 112.961 6.48128
-20.1751 136.448 2.96809
-37.9665 90.7389 -10.1834
-21.8567 124.969 6.48597
-31.1101 114.403 -8.88153
-16.5524 150.068 3.04088
-34.661 101.256 -8.88462
-35.963 96.1003 -8.60825
-20.765 128.837 6.77199
-18.3971 144.688 2.19277
-28.0867 106.633 3.58775
-18.765 143.277 2.24188
-19.0171 142.325 2.28012
-30.7296 116.031 -8.85253
-17.5956 150.363 0.505927
-17.914 146.837 2.04364
-34.684 101.017 -8.51519
-16.5726 150.238 3.23296
-37.6932 91.0702 -9.17483
-38.0776 91.8949 -10.5725
-22.2723 124.378 6.43302
-17.418 151.014 0.819783
-37.5568 93.8357 -10.5561
-34.556 101.632 -8.38142
-34.8125 97.9957 -6.63139
-37.5453 93.9785 -10.5383
-36.9681 93.1309 -8.58978
-29.0104 105.633 2.49192
-27.8364 125.025 -7.23904
-19.4869 147.314 -1.5204
-26.1581 129.157 -5.64193
-27.9346 107.481 4.21096
-24.767 132.139 -4.18889
-17.4633 148.066 3.07026
-19.5405 141.577 2.39333
-27.2676 108.71 5.14622
-22.8381 123.334 6.44699
-30.4524 118.185 -8.5573
-26.6638 110.497 5.69745
-33.3056 108.821 -9.21508
-25.4649 131.33 -4.85576
-36.6278 96.5931 -9.1249
-33.4179 108.21 -8.85184
-27.226 126.408 -5.75382
-34.5255 103.309 -8.32916
-34.053 99.3431 -4.60368
-23.0113 138.948 -3.70792
-22.3164 141.464 -3.46755
-25.1914 115.797 6.3663
-37.7204 93.4729 -9.31537
-32.0813 112.868 -8.32402
-23.1379 138.594 -3.4772
-16.9236 152.43 2.5292
-16.8485 150.381 4.09733
-19.5838 142.333 2.74931
-21.3355 144.153 -2.63704
-34.752 98.9174 -5.49941
-37.2707 95.7646 -9.50305
-35.0768 100.736 -7.43544
-29.7898 121.592 -8.25237
-30.1479 105.248 1.53385
-33.5692 107.928 -8.37991
-36.2175 98.3032 -8.32475
-21.3173 135.486 3.47472
-35.6546 98.405 -6.96208
-23.8127 136.273 -3.02532
-30.0919 120.968 -8.19989
-35.6856 99.1768 -7.46949
-34.4941 100.201 -5.24921
-27.4726 126.88 -5.63115
-24.7768 135.98 -5.03281
-27.1527 127.168 -5.01362
-21.9705 132.405 4.12169
-34.7601 99.9104 -5.54465
-34.523 102.86 -6.84657
-23.8763 136.161 -2.81074
-26.7422 112.483 5.73202
-35.3291 99.0328 -6.12129
-24.0436 139.506 -5.13239
-33.7223 101.009 -3.41458
-24.7431 118.787 6.72941
-35.6876 99.1753 -6.76715
-35.2688 100.802 -6.71949
-34.3665 103.434 -6.16657
-24.5174 119.945 6.89578
-19.4523 144.325 3.34445
-31.3939 117.769 -8.1517
-24.624 135.969 -3.62548
-28.4748 109.784 4.18438
-25.7473 133.615 -4.7031
-34.6044 104.657 -7.21944
-34.489 104.415 -6.7814
-31.1574 105.648 0.559973
-32.2446 114.747 -7.96114
-31.5285 117.711 -8.01437
-25.381 134.32 -3.97043
-27.2356 129.088 -4.97298
-30.7252 106.558 1.28843
-21.394 138.537 3.00236
-23.0192 130.979 4.05051
-31.5467 117.838 -7.9545
-34.457 102.769 -5.13136
-34.724 101.561 -4.96296
-22.849 142.935 -3.2185
-34.5712 104.757 -6.54664
-24.3054 140.16 -4.55683
-25.5023 133.786 -3.27865
-34.5458 104.758 -6.16701
-25.7258 133.946 -3.8611
-27.9593 128.592 -5.73033
-30.2289 121.777 -6.68989
-33.4579 109.946 -6.76767
-26.5326 115.377 6.41399
-27.5482 113.465 5.26691
-19.906 143.226 4.37546
-34.3527 104.405 -5.18143
-34.9131 105.782 -7.28894
-32.6673 114.111 -7.28208
-29.8092 109.215 2.84821
-23.3943 128.004 6.22284
-30.4243 108.303 2.08478
-26.7121 131.489 -4.03936
-25.1111 135.818 -2.96096
-31.4089 119.836 -7.66337
-19.8434 143.985 4.53899
-28.4958 128.06 -5.95922
-26.8296 131.386 -4.1
-28.0032 128.228 -4.86063
-18.2655 151.128 3.75915
-27.1254 115.065 5.88813
-34.3988 107.386 -6.59315
-22.1915 137.338 3.38344
-33.1137 104.369 -1.43535
-20.1536 150.33 0.067933
-18.4702 151.122 3.76887
-31.5102 120.178 -7.46537
-33.818 104.121 -2.47092
-21.321 140.206 4.20961
-26.7131 135.802 -5.93535
-23.8166 127.515 6.46023
-33.5662 104.511 -2.07969
-34.6696 105.353 -5.27535
-27.3027 130.947 -4.1034
-25.6885 134.77 -2.68097
-20.3611 143.613 4.67643
-26.7907 132.712 -3.47506
-28.7795 113.785 4.05116
-26.8297 132.664 -3.51616
-33.0267 106.512 -1.37083
-19.2679 147.708 5.03911
-27.2721 116.421 6.18272
-21.6384 148.199 -0.842756
-20.6692 143.632 4.68832
-19.1975 148.693 5.03486
-26.2244 120.314 6.55452
-34.4917 105.349 -3.57732
-27.3655 117.373 5.79886
-28.3458 128.459 -3.73925
-22.1721 147.204 -0.983756
-28.9987 114.462 3.86763
-31.4801 110.005 0.827861
-34.304 105.724 -3.15456
-28.1203 116.716 4.64291
-33.6327 112.677 -5.96653
-29.6311 113.573 3.10976
-32.2227 119.387 -6.79884
-32.2944 115.222 -4.14532
-34.0218 110.435 -5.15694
-26.3395 120.897 6.58176
-33.8792 111.516 -5.46026
-23.2049 137.158 3.65603
-30.3756 123.819 -4.95342
-28.5093 127.334 -2.71221
-25.4997 141.298 -4.4548
-25.0529 131.098 3.28865
-29.3598 127.248 -4.48546
-31.192 114.999 -0.863872
-34.3622 107.119 -3.3713
-25.552 141.487 -4.42136
-26.0891 139.714 -4.45499
-30.6365 114.895 0.751067
-33.1962 113.221 -4.23875
-33.8844 108.28 -2.66517
-29.7218 125.114 -3.56293
-21.7697 142.139 4.54643
-27.8133 120.061 4.35232
-26.5899 121.276 6.52154
-28.216 119.735 3.62878
-29.3033 116.991 2.91301
-28.1337 119.675 4.01664
-33.7217 112.719 -4.87198
-28.0877 118.944 4.68528
-33.4323 116.228 -6.4333
-33.0504 109.934 -1.40895
-23.625 144.833 -1.37568
-29.5807 120.102 0.369949
-33.5848 109.296 -2.25648
-23.1447 138.363 4.10674
-31.1095 122.653 -4.88606
-20.5596 151.139 2.04457
-25.6035 141.922 -4.09108
-30.4641 115.144 1.62188
-32.3351 110.991 -0.107395
-28.4635 119.095 4.04244
-31.8599 116.725 -2.54582
-22.4672 140.754 4.53615
-32.2576 120.823 -6.08463
-25.3501 127.242 6.45739
-27.2187 122.092 5.33607
-34.6887 109.8 -4.66208
-23.9726 136.578 3.84714
-26.1858 125.505 5.74589
-33.74 112.26 -3.76349
-28.5658 131.618 -3.8564
-26.7189 139.038 -4.17958
-33.5597 116.363 -5.92192
-27.912 134.555 -4.09035
-28.6392 132.398 -4.4351
-28.6993 131.294 -3.84964
-26.0078 141.887 -4.10459
-33.794 111.363 -2.987
-30.2115 125.279 -3.35014
-29.7113 128.2 -3.9975
-28.7012 131.822 -3.86021
-27.0237 139.197 -4.10472
-28.986 132.105 -4.21438
-31.2979 119.164 -1.3161
-21.3793 145.722 5.3629
-26.6828 141.087 -4.37717
-31.6236 122.929 -4.37435
-23.481 139.497 4.55791
-22.6288 142.571 4.65831
-27.5032 123.069 5.64824
-26.1428 132.663 2.7532
-30.3985 125.975 -3.11789
-32.8985 117.475 -3.52346
-28.3896 122.47 4.13104
-26.4675 127.313 5.64678
-20.9052 149.795 4.4647
-26.0443 133.741 2.53904
-27.0533 140.42 -4.24291
-28.9614 132.121 -3.33776
-28.888 132.224 -3.2227
-32.5476 118 -2.75176
-25.2903 134.943 3.76543
-30.7307 120.842 -0.135583
-33.3803 118.485 -4.88687
-22.3927 143.963 5.1005
-32.7676 118.145 -3.06637
-27.4209 124.873 5.53077
-30.2721 121.523 1.31181
-22.4726 144.39 5.26134
-28.592 131.893 -1.19861
-24.2603 147.1 -0.621269
-27.7107 125.152 5.37153
-29.4289 122.347 3.10201
-23.7111 141.036 4.75051
-21.6594 149.338 4.53488
-30.9882 126.248 -2.89071
-29.2197 122.849 3.66153
-30.7571 127.419 -2.87866
-29.8084 134.173 -4.9544
-33.0398 120.13 -3.59309
-27.0218 132.86 2.87837
-28.1377 125.217 5.21387
-24.0639 140.994 4.82804
-30.3541 130.858 -3.7417
-30.7508 122.501 0.891499
-23.2444 149.741 1.38413
-27.2959 131.719 3.34
-28.1978 126.173 4.92592
-26.2544 134.683 4.11119
-22.8959 150.096 2.23467
-30.3016 129.205 -1.93902
-30.5278 130.572 -3.3147
-29.1904 131.603 -0.710263
-30.6414 130.773 -3.61454
-22.7523 149.933 2.99875
-30.1085 124.121 2.06072
-30.4211 131.657 -3.58696
-27.6833 130.15 4.03164
-24.1601 148.765 0.46875
-22.9489 146.306 5.02381
-26.2552 143.991 -1.41727
-27.4932 132.4 3.23788
-30.4755 129.918 -2.33848
-30.5006 131.353 -3.30336
-32.896 121.819 -2.87522
-29.9848 136.302 -5.2229
-23.4682 144.239 5.40255
-28.6553 125.885 4.84937
-24.4242 148.401 0.439503
-30.1876 135.587 -5.12657
-23.7849 149.328 1.41814
-26.8226 143.284 -1.88547
-28.2258 128.704 4.2245
-23.9848 149.151 1.20744
-26.798 134.375 4.16749
-31.5424 124.606 -0.890003
-27.6154 142.47 -2.92596
-30.908 128.26 -1.60808
-31.7331 125.236 -1.62983
-22.8945 148.923 4.3433
-28.2766 140.918 -3.35653
-28.3763 140.516 -3.25847
-31.7297 123.991 -0.524353
-29.9532 131.843 -1.3187
-32.3811 122.839 -1.19716
-24.0981 149.118 1.71061
-27.2675 133.913 4.10734
-26.1993 145.135 -0.587807
-31.8073 123.498 -0.0285129
-26.9386 135.629 3.8498
-29.4748 127.19 3.22842
-30.9619 130.742 -2.64061
-29.331 127.453 3.51208
-29.9971 131.585 -0.754665
-29.012 127.599 4.2375
-32.3124 124.761 -1.81042
-32.3762 124.982 -2.05619
-24.5909 142.741 5.25354
-30.6845 136.044 -5.02055
-28.8723 139.822 -3.05536
-29.4615 138.494 -3.52476
-31.2038 131.949 -3.40709
-31.4229 125.872 0.0218305
-31.4157 125.75 0.224464
-31.4004 131.024 -3.11131
-31.2491 132.195 -3.43359
-31.7763 126.528 -0.932443
-31.3229 127.797 -0.460599
-30.9253 136.334 -4.97673
-31.15 125.202 1.74022
-27.9645 133.318 4.15589
-28.8373 131.755 3.08413
-31.2598 131.962 -2.81629
-25.4689 148.027 0.772778
-31.7218 130.554 -2.89153
-27.1731 136.76 4.20566
-31.5187 132.498 -3.29306
-24.7228 144.778 5.19464
-26.0274 141.572 4.20502
-29.8245 130.006 2.62228
-28.7656 132.406 3.70732
-31.1724 136.434 -4.71312
-30.2518 138.137 -3.51672
-31.7192 126.662 0.44795
-29.5607 131.501 2.52739
-32.0911 130.195 -2.638
-31.8924 131.571 -2.99304
-30.3976 129.291 2.1879
-29.7449 130.61 2.92988
-30.8458 132.613 -0.879812
-28.2191 143.642 -1.60076
-25.7212 143.194 4.82989
-31.443 135.097 -3.70224
-30.7048 130.612 1.00738
-24.7589 148.085 4.05897
-29.4637 131.445 3.6152
-32.2627 131.505 -3.03324
-31.2492 128.479 1.39274
-32.2799 130.943 -2.48713
-31.9889 133.191 -3.22248
-28.9032 142.69 -1.90149
-31.1349 128.856 2.01224
-30.7949 131.389 1.31918
-31.2548 128.955 1.81355
-25.4754 146.06 4.7394
-33.0315 129.182 -2.49442
-31.2192 129.281 1.83152
-28.9737 143.061 -1.63454
-31.9552 134.247 -2.97182
-32.4997 129.323 -1.05611
-31.3361 129.571 1.61547
-32.6492 128.626 -0.851072
-32.4163 128.657 -0.109743
-32.1807 133.954 -2.90849
-32.5789 128.156 -0.00767197
-28.0456 138.054 4.53119
-32.8219 128.76 -0.926029
-26.523 143.604 4.63293
-32.3458 131.428 -1.42513
-33.2631 129.066 -1.89716
-31.5183 133.155 -0.186887
-32.3186 136.493 -4.2403
-28.2457 138.421 4.48239
-27.5148 143.437 3.79178
-27.6715 147.111 1.07715
-26.5609 147.53 3.5275
-29.468 134.887 4.92914
-32.18 137.478 -3.22397
-26.9865 147.883 2.54344
-27.5452 143.715 3.93804
-27.8128 143.241 3.70689
-31.1314 131.835 3.36475
-32.9536 135.977 -3.71035
-33.8174 128.79 -1.08576
-33.0404 131.353 -0.771177
-33.3761 132.859 -2.34089
-29.1032 139.977 3.74989
-31.6052 140.177 -1.74915
-27.8481 147.348 2.67191
-33.4195 135.451 -3.00892
-32.9598 131.158 1.18139
-29.4738 141.133 3.43668
-33.6097 135.017 -2.53039
-35.8205 127.167 -2.69019
-29.0837 146.441 1.73547
-32.2735 139.926 -1.71465
-30.4366 143.61 0.448659
-34.3566 131.321 -0.655998
-29.1751 146.408 2.05777
-32.1671 132.627 4.01911
-28.7686 146.624 3.24287
-34.0271 136.873 -2.92105
-31.5891 134.628 4.76358
-35.1542 129.508 -0.492369
-34.9247 129.646 0.146439
-29.3792 144.669 3.81784
-34.515 136.203 -2.99237
-33.6163 138.296 -2.15552
-31.789 134.559 4.72497
-31.3995 136.39 4.95618
-32.7001 140.576 -0.840462
-32.7204 140.689 -0.712388
-30.398 143.245 3.27689
-34.7809 134.938 -1.83384
-30.0593 144.896 3.46282
-30.4023 145.809 2.62822
-33.7462 140.059 -0.901411
-30.9232 144.631 2.99341
-31.9625 143.874 1.01468
-35.8399 133.388 -0.714795
-35.8087 133.768 -0.841734
-32.4364 143.673 0.891205
-37.8995 128.497 -2.24543
-32.5418 137.906 4.6288
-35.901 135.973 -2.06158
-34.0583 134.058 4.09257
-35.0932 132.734 3.01018
-34.1929 134.353 4.25861
-32.8497 144.403 1.83711
-32.7646 144.422 2.04109
-33.2622 141.903 2.7439
-32.8889 144.471 1.98539
-34.4359 141.581 0.179626
-36.9974 132.974 -0.213402
-34.2735 135.502 4.74715
-36.0167 138.538 -1.43607
-38.6804 129.026 -1.61736
-34.7052 141.339 0.231256
-34.5002 142.057 0.363891
-36.3716 138.063 -1.49768
-37.1069 133.911 -0.418765
-33.9797 137.96 4.61893
-33.6538 142.224 2.72253
-34.7799 142.025 0.48829
-35.129 134.897 4.3912
-35.6215 140.818 0.436712
-37.534 132.998 1.90437
-38.2923 133.033 0.539627
-38.5094 132.46 0.734838
-38.1487 136.489 -0.59428
-39.6627 130.656 -0.183464
-37.6379 138.662 -0.418094
-38.3865 132.82 1.66837
-35.7198 139.587 4.26047
-36.0259 138.548 4.52873
-35.8998 139.487 4.31517
-39.2684 133.749 0.267006
-37.6616 139.753 0.263295
-36.4187 138.516 4.53142
-38.5535 134.48 2.70138
-38.5112 134.612 2.84077
-36.8302 138.366 4.51523
-39.3787 135.895 0.396098
-39.3233 136.527 0.136049
-39.7725 134.255 1.06083
-37.6902 137.368 4.38843
-37.554 138.69 4.05657
-38.5464 135.605 3.67756
-39.8331 135.194 0.888458
-39.3933 134.859 2.5239
-37.976 138.923 3.39846
-40.5583 135.135 1.2181
-40.6943 133.094 2.28851
-40.5626 135.399 1.87843
-38.9004 138.258 4.06251
-39.3437 139.417 2.74099
-41.091 133.438 3.56922
-40.4398 138.52 1.87696
-41.5896 135.123 1.92201
-41.7287 134.911 2.44745
-41.5271 137.633 3.41992
-42.3675 136.115 2.52728
-42.2049 137.898 3.27726
-42.3989 136.45 3.80174
-42.5508 137.758 3.308
