ply
format ascii 1.0
comment Created by Open3D
element vertex 1890
property double x
property double y
property double z
end_header
7.03886 114.867 -2.12635
15.5308 128.08 1.68911
-7.7882 93.1383 -10.0602
13.5442 126.764 -1.16546
8.16239 107.867 8.56669
-12.8347 81.27 -7.5647
2.604 112.097 -8.57707
4.66671 108.13 0.556307
1.84414 110.897 -8.86003
14.524 126.742 1.16204
8.2949 114.372 1.51195
-0.781534 107.065 -10.2598
-11.5586 82.8282 -6.39296
17.7252 128.613 6.21954
13.0096 130.279 -6.13947
11.3376 127.28 -6.40674
12.8312 127.272 -3.06637
7.82878 104.98 11.3828
16.6217 127.648 4.94653
19.1038 133.442 3.82279
-0.337297 96.8733 2.57874
12.8939 127.354 -2.94323
5.88142 102.968 9.48043
7.00127 112.836 0.670536
9.21953 121.024 -3.69305
2.65077 112.483 -8.48568
4.8968 101.57 9.06632
14.3845 132.606 -5.42601
8.06564 108 8.78594
8.95261 111.758 6.45755
-2.40345 105.021 -11.0132
12.7158 125.864 -1.27331
7.09722 115.623 -1.90774
3.2813 105.054 1.77505
-9.53092 78.7674 3.48881
14.4411 123.937 5.03402
-4.47886 101.631 -11.4103
9.24454 107.035 12.8852
14.7828 134.417 -6.16053
-0.34964 97.3173 2.74481
12.6797 125.329 -0.404519
11.5923 127.954 -5.82111
-7.36269 94.7599 -9.85996
15.4078 129.82 0.561926
7.97758 107.978 9.10684
14.2287 120.379 8.79971
12.5225 126.264 -1.7261
10.9581 110.84 12.484
-7.973 81.257 4.35345
-3.25926 88.8923 6.13761
14.2197 128.547 -0.474518
13.8393 132.293 -5.5898
-12.6307 82.7301 -7.56915
12.3835 126.779 -2.4087
13.7845 118.713 9.98106
-12.2996 86.0185 -10.4948
9.57795 124.332 -5.7925
-12.5847 75.4427 1.0432
2.29915 102.711 2.88608
12.6837 130.601 -5.97537
1.45474 111.316 -8.76431
14.5308 134.483 -6.26164
-2.85751 105.007 -11.0674
-11.9366 84.0778 -7.235
4.42263 113.446 -4.5351
7.65258 105.137 12.1669
-5.6307 99.5434 -10.9111
-7.88915 94.3584 -9.97566
9.02662 112.982 6.26344
-13.458 83.0636 -9.39677
9.35882 115.102 4.63064
12.0965 113.588 12.4497
11.9638 128.174 -4.5228
-10.48 90.5377 -11.1918
14.7556 125.777 4.49197
-13.5225 81.9718 -8.08482
-13.0588 84.0356 -9.27483
-12.3188 83.6263 -7.07542
-6.51633 98.4121 -11.1222
11.5316 112.723 12.5771
12.2903 130.653 -6.22178
9.90135 109.401 12.8322
-2.01689 93.6354 4.43016
7.16425 114.722 0.699262
14.5822 122.12 8.72988
14.4974 126.43 3.62002
4.88299 110.365 0.680859
20.8089 142.028 -0.191506
8.5121 111.426 7.58858
-5.22489 101.268 -11.253
-5.47502 85.8289 5.92024
12.131 128.23 -3.55276
2.30488 113.355 -8.32727
2.77886 113.77 -7.74877
-10.0268 91.9423 -11.1699
-15.0358 78.0273 -6.32024
-14.0116 82.1646 -8.75414
15.2624 125.443 6.86815
5.41704 114.83 -2.83841
8.70322 123.006 -4.89477
-10.1353 91.9937 -11.2001
9.10568 124.346 -5.51646
-11.0226 77.9437 2.96685
9.44031 117.117 3.57191
-6.64382 84.7898 4.92032
-13.8413 81.8252 -7.66434
-5.87737 85.673 5.63414
4.40864 114.147 -4.14792
-1.77552 107.708 -10.4872
20.5476 142.262 -0.478907
12.8631 130.463 -4.01669
-13.6075 82.8104 -8.14523
14.9748 123.887 8.36057
14.9169 135.869 -5.4999
0.255189 110.718 -9.16094
-14.5008 81.9772 -8.88682
-11.5263 77.4524 2.94571
-3.05474 106.096 -11.0407
19.8569 142.061 -1.3394
1.47307 102.138 3.59919
14.4349 127.481 3.37997
-13.169 86.0338 -10.414
14.9008 124.751 7.58635
9.08844 114.829 6.05999
13.1056 128.705 -0.832336
17.456 139.158 -3.14381
6.87239 118.41 -2.85859
14.7422 129.95 1.42226
15.3091 136.596 -4.89712
8.2491 111.534 8.19345
2.89441 105.862 2.82854
15.7901 128.45 5.59513
3.30608 114.085 -5.64439
8.57763 118.073 1.4996
17.9715 133.25 4.97902
-15.0719 80.8137 -8.3208
-7.47558 84.2403 4.68919
13.7987 131.814 -2.56314
9.22442 125.835 -5.82645
3.82977 114.404 -4.6543
8.48955 112.93 7.51422
10.1821 128.084 -6.00097
-14.9588 79.3527 -5.97152
12.6798 117.325 11.9687
-11.304 78.4552 3.24504
8.00972 108.408 11.8226
14.614 131.384 0.178459
-14.4957 82.678 -8.64261
13.2551 125.255 4.21259
9.51136 118.883 3.20831
20.7067 143.13 0.326649
6.78443 115.921 0.643647
8.85954 125.421 -5.52741
-15.8257 79.8445 -8.11686
-4.0103 90.8778 5.59886
7.83238 110.38 9.59028
13.0402 118.732 11.6431
13.1138 133.313 -4.90134
-10.0302 93.6017 -10.7488
7.91918 121.156 -2.44308
3.38199 108.751 1.72414
16.0263 138.252 -3.97392
13.6382 132.899 -3.13913
14.5514 125.743 7.21617
18.9149 137.505 3.48352
18.4272 136.142 3.99921
-11.1607 79.1857 3.57284
20.0678 140.763 2.43563
16.8801 130.616 6.98709
-0.477997 99.5609 4.03354
0.251171 112.118 -8.69705
-3.81321 106.126 -10.8583
-12.1958 90.1335 -11.0779
-3.69468 106.362 -10.7686
-2.74286 93.8613 5.67998
-1.05316 98.1777 4.59196
5.37668 113.976 0.792044
9.29244 120.187 2.37782
7.38057 117.817 0.867412
3.63992 110.267 1.21661
11.8719 131.578 -4.9033
17.8449 134.667 4.83675
-4.00461 90.8681 6.53101
-4.69603 89.3256 6.77438
-15.0089 81.1841 -6.77892
9.77344 112.442 12.5459
18.9735 142.706 -1.69546
13.8614 131.085 0.288806
-11.664 78.8559 3.48069
18.0172 141.392 -2.24265
3.52222 115.327 -4.43398
-7.60167 85.4746 5.08312
13.9246 123.793 9.06573
-8.55145 84.2798 4.54446
16.9962 140.18 -2.76678
13.7783 135.325 -4.34978
14.3086 135.164 -2.95996
8.33087 114.098 7.91286
-15.7018 80.3502 -6.76143
-4.16196 91.6734 5.91878
-14.3269 86.2125 -10.3387
14.7221 135.33 -2.07996
19.1498 143.173 -1.22212
-2.16653 95.4243 6.20908
13.4842 122.657 9.77086
-14.4726 86.0514 -10.2918
12.1717 118.096 12.1809
7.87652 123.342 -3.37409
13.2683 135.685 -5.53148
-2.07951 95.7773 6.15376
8.24689 120.08 1.27155
12.7262 120.839 10.3771
15.0191 128.671 6.51558
-16.0621 82.0243 -9.02658
8.39605 111.02 12.0875
12.7303 120.971 10.3152
-3.83044 106.929 -10.3711
-4.24552 92.1039 5.72639
-4.74661 105.624 -10.8509
16.8402 131.886 7.01195
-16.9366 78.7405 -7.11237
9.39487 121.411 2.49003
-0.727636 99.6335 4.97539
-2.4236 95.0785 6.43794
13.6838 132.754 -0.950016
7.94714 111.489 10.7494
12.595 129.735 0.163044
-15.5061 82.8288 -8.48238
9.70092 129.41 -5.87186
-14.8905 83.1506 -7.47295
4.52308 113.297 1.15432
-0.516515 100.214 4.95309
-3.20684 108.079 -9.97179
-4.73143 105.83 -10.7221
2.73366 107.618 3.85779
11.4685 130.141 -2.52908
11.3767 132.678 -5.61217
-4.69357 90.2773 7.30685
-2.05345 96.3375 6.23279
13.4104 123.609 9.34663
-8.69411 85.1461 4.39274
4.75843 114.292 0.968311
2.69493 115.766 -5.27001
-15.5506 81.9626 -7.04286
9.67964 113.941 12.3753
11.5568 130.093 -1.95391
-5.48401 104.908 -10.9346
-0.29203 113.02 -8.65302
-4.2735 92.935 5.5548
-17.0646 79.2908 -7.12813
-6.42376 103.673 -11.4251
-10.8351 81.8501 3.8512
-1.0449 112.061 -8.9661
-18.1529 74.2412 -3.59878
3.73075 117.007 -3.97543
-15.5037 74.1963 2.37889
18.3423 143.395 -1.68724
-1.63914 97.66 6.39111
19.0655 144.169 -0.905077
8.18365 115.031 8.32243
-10.0588 96.9773 -11.447
-17.1679 80.6396 -8.47565
19.5471 142.505 2.21963
-5.78421 104.853 -10.8672
8.13044 114.744 8.72659
7.49112 124.498 -3.8337
7.77161 120.788 1.04742
-10.2503 96.7325 -11.4112
-9.05077 85.3179 4.35605
8.00986 112.984 10.6587
19.4749 142.227 2.61952
4.20368 113.831 1.24504
12.5307 121.515 11.063
11.8818 132.252 -2.64496
-9.59495 84.3819 4.5419
15.2075 139.626 -3.65965
-1.9302 97.4705 6.61371
2.14852 116.251 -5.76476
1.34334 116.298 -7.5886
7.97092 113.779 10.0779
13.4371 136.289 -3.56762
8.75988 113.85 11.7729
7.24142 122.939 -1.99766
-2.32531 110.738 -9.24706
-8.5728 86.3971 4.79665
-8.1864 101.16 -11.1828
12.6592 123.699 9.35302
16.5442 134.297 5.83787
1.90706 116.351 -6.06889
15.7637 140.677 -3.14141
0.583783 115.544 -8.02234
11.756 130.369 -0.172138
-18.6776 74.9846 -4.26457
-12.0399 81.04 3.55583
18.1713 143.839 -1.28219
-5.89162 89.2033 7.92101
16.3352 141.503 -2.59361
12.3294 121.751 11.1768
-10.5791 83.4461 4.21762
2.30765 116.68 -5.22885
-15.7742 75.2768 2.05807
-1.09993 113.169 -8.71782
-11.3428 95.5758 -11.2759
-8.6634 100.848 -11.3419
7.27426 121.168 0.77605
4.08408 114.41 1.46273
-0.249142 114.574 -8.34581
12.4251 123.473 9.64082
19.0206 141.738 3.37672
3.43605 112.628 2.20974
6.44375 121.882 -1.62821
-10.1337 84.426 4.51335
11.1654 134.76 -5.81239
-18.7874 76.7437 -5.7961
-17.8906 79.2809 -6.69837
-5.11155 92.317 6.81651
6.49818 122.181 -1.59151
-18.4675 77.9822 -6.36944
-16.0555 75.3223 2.03905
-16.8123 73.8717 2.02848
-16.9394 83.9922 -9.83243
-14.154 89.7734 -10.2135
-5.38524 106.677 -10.0728
-1.65382 99.3367 6.6966
8.83161 124.268 1.42326
7.58083 127.388 -4.91536
-14.0685 78.7716 2.74749
-1.22663 113.635 -8.65732
-8.83623 101.208 -11.2649
1.83663 117.077 -5.6853
13.775 138.019 -3.14418
-17.8108 82.4782 -9.56968
15.1819 140.765 -3.07098
-3.84214 109.179 -9.121
16.2942 135.439 5.53193
3.72801 114.224 1.96246
1.44274 117.128 -6.44212
4.65629 119.513 -2.02031
7.13535 125.931 -3.74392
10.0267 124.499 4.34121
-16.4339 75.2284 2.0587
9.6468 117.124 12.0124
6.68402 121.312 0.639118
-10.6502 98.749 -11.981
7.95397 123.594 0.884504
-1.23284 100.709 6.73164
0.483037 116.608 -7.66984
13.893 138.459 -2.89751
-5.16338 107.527 -9.69471
7.07568 125.936 -3.59846
-9.94497 86.2534 4.11682
11.0565 135.982 -6.16325
8.99954 120.686 6.80382
10.8706 119.941 11.845
14.2329 130.197 7.58595
11.5056 121.708 11.2907
-9.21359 87.392 4.63246
8.4821 118.725 8.08202
10.9993 136.069 -6.18043
1.79569 107.781 5.90036
16.2734 142.703 -1.9467
5.52811 121.601 -1.60661
4.37538 119.915 -2.21528
3.12226 118.919 -3.80047
-0.610076 115.411 -8.05176
-12.576 82.2197 3.41015
6.67742 124.226 -1.92178
-0.807786 115.161 -8.13543
-8.32812 88.705 5.57355
-7.35898 105.228 -11.2106
6.47752 121.779 0.696016
7.62314 128.853 -4.86384
1.85246 108.425 5.81548
18.4551 142.532 3.61278
-16.8263 75.6999 1.91311
-8.41319 88.9112 5.54213
-10.1084 100.588 -11.6082
8.51476 130.981 -5.05729
10.4889 120.151 11.7923
2.60987 111.553 4.15655
-6.7224 90.2459 7.89765
14.4746 140.594 -2.63819
3.69794 115.371 2.35854
-8.78409 88.6549 5.32039
-10.8323 85.6926 4.18535
-4.75094 94.5786 7.51943
11.0474 121.997 11.2363
15.0217 141.6 -2.3964
16.0183 136.986 5.10801
8.81922 126.661 0.952296
12.001 126.187 8.57244
8.9152 117.746 11.403
-1.93056 100.893 6.65746
-12.5371 83.0847 3.5077
10.0806 127.513 2.84227
1.49378 107.95 6.24017
11.9412 126.153 8.62013
-10.3291 87.0678 3.97949
15.3609 134.382 6.84647
12.9398 138.918 -3.68112
1.34561 118.532 -5.97407
-3.54219 97.4501 7.38307
-18.5005 74.384 0.626492
-3.92932 96.7553 7.37089
-19.1669 81.7072 -9.22179
-13.3339 95.2651 -11.7927
1.37107 107.928 6.3811
-16.015 78.6519 1.33815
3.94679 116.67 2.15246
8.32522 131.266 -4.8448
13.2129 138.805 -2.59604
9.09529 127.618 1.10937
15.0245 142.023 -1.9982
9.2651 127.998 1.31397
8.59261 118.241 11.0319
6.86437 128.426 -4.42147
8.44215 118.394 10.6073
-1.41411 115.528 -8.00072
-12.3712 97.7853 -11.9699
9.52712 124.344 6.24905
-11.6357 85.2477 4.04755
-10.1517 101.703 -11.4121
11.184 138.721 -6.43649
4.16089 121.318 -1.99869
10.3564 121.559 11.4905
-19.689 74.8634 -1.73527
-9.08399 104.01 -11.5736
12.066 139.393 -5.12082
-3.14404 99.0938 7.28931
14.6616 133.419 7.51546
12.7739 129.184 8.17687
-19.3395 80.6649 -7.4096
4.08156 121.384 -2.04688
3.01502 114.01 4.05749
1.66105 109.444 6.29425
-13.6349 95.4991 -11.6329
5.58936 123.724 -1.24808
-13.4477 83.0661 3.16303
8.87265 119.396 11.1423
-19.9688 75.387 -2.47273
-19.4856 81.9707 -8.86077
9.5902 129.272 1.52658
-7.22617 106.966 -10.2343
16.9899 140.999 4.59233
11.4021 126.244 9.12237
2.30532 112.097 5.13131
-2.26499 102.132 6.40341
-1.37068 104.271 5.94363
2.07356 120.428 -4.87435
3.49096 116 3.38555
13.96 140.819 -1.79804
6.52894 127.892 -3.43156
14.4205 133.658 7.53552
5.82668 122.287 1.47741
1.12836 108.666 6.68279
-5.99824 93.6765 8.03165
-6.80787 107.683 -9.82005
9.92615 129.633 2.20927
-5.18987 95.7516 7.48917
-7.11315 91.5069 8.14554
-2.30883 102.388 6.36095
-15.2007 92.3444 -10.7443
-14.0234 95.2466 -11.4425
2.29366 112.423 5.13973
9.58782 129.946 1.30907
-2.20756 102.921 6.27841
-20.3745 76.8341 -4.1192
17.8924 145.095 2.67102
-6.64741 108.265 -9.54211
13.9736 133.111 7.85394
-19.0601 75.077 1.05977
-1.93299 115.834 -7.59367
-19.3518 80.564 -5.8559
-7.80039 106.985 -10.4469
-13.2375 97.562 -11.717
8.7197 134.496 -5.24581
-1.79997 104.237 6.0682
11.3277 126.982 9.22842
10.2601 130.172 3.20252
9.47912 130.621 0.982904
8.29352 120.947 9.45976
14.7607 135.795 6.82616
6.45548 129.299 -4.13995
2.84881 121.435 -3.12014
9.85722 130.66 1.97735
10.1805 130.54 2.90908
1.95877 111.661 6.3103
-3.09099 113.89 -7.44382
1.22388 109.857 6.86273
-7.47963 107.894 -10.1009
-19.3869 75.3597 0.942399
17.6021 145.948 2.27114
-4.04914 99.7939 7.07256
10.1328 132.005 1.70772
15.3338 138.916 5.34388
10.1911 139.088 -6.25495
-6.65645 94.1144 7.97392
-0.239331 107.473 6.96919
8.73758 130.062 1.06173
1.76826 111.66 6.76381
8.93838 136.17 -5.38535
3.52541 122.888 -2.08296
-13.7278 97.6149 -11.4262
2.76673 114.939 5.36838
11.6179 129.529 8.31697
12.2275 139.958 -2.28143
-13.4102 85.1637 3.5662
-15.6811 81.8893 2.29607
-19.7975 75.551 0.477966
12.3108 139.812 -1.8439
5.91301 124.513 1.51365
13.6779 134.081 7.79926
13.8561 135.131 7.04978
-10.6045 103.708 -11.2447
15.527 140.571 4.6668
-15.8258 81.8896 2.27584
-5.05882 98.1911 7.51378
2.59932 114.668 5.69541
9.00338 125.199 7.88878
-3.3443 102.668 6.2854
6.07355 129.876 -3.92861
17.091 144.64 3.68035
0.239742 120.318 -5.85431
-18.5491 78.4416 0.406108
7.44268 128.135 1.23163
-19.6089 76.0424 0.873694
10.5974 127.217 9.34948
-18.7811 77.9915 0.52885
-9.05115 91.4837 6.70919
-6.95038 94.5926 7.86679
-6.86816 109.736 -9.23912
-17.0407 80.2774 1.95755
2.30627 114.128 6.14726
9.21632 123.464 10.8204
13.6497 135.425 7.08175
-7.7695 92.7161 8.47263
-19.8695 82.467 -6.6119
4.99838 125.87 -1.10028
-3.83689 102.245 6.35319
8.90305 131.575 1.08304
-1.41202 106.548 6.87798
8.95146 125.622 8.12098
8.92863 125.534 8.18312
5.87148 129.382 -2.9575
2.1219 122.644 -3.56211
7.93643 135.31 -5.13173
-9.03866 107.439 -10.7938
-18.969 78.5567 0.262281
13.9947 142.784 -0.082624
6.69227 127.398 1.40001
-5.79344 111.422 -7.99425
-19.0839 86.1844 -8.57122
14.4778 143.887 -0.111926
-3.07641 115.742 -6.80777
14.7197 139.001 6.12183
-13.6486 99.5693 -11.6891
5.77765 129.532 -2.82289
8.11113 130.712 1.10959
3.01792 116.767 5.78418
-20.1371 82.5892 -6.47515
2.66532 123.565 -2.72269
-4.74902 113.215 -7.2391
9.31422 139.437 -6.03818
12.4875 141.207 -0.983894
9.22751 125.724 9.53372
16.8948 147.138 2.05022
9.47174 133.224 1.52471
3.77428 119.88 4.16499
13.2931 135.82 7.1859
10.6848 129.208 8.97116
5.35174 127.749 -1.19884
9.17608 128.86 6.05712
-19.7565 77.7224 0.405942
6.06566 126.736 1.65245
-0.979845 119.934 -6.16789
-14.5844 85.4827 3.12479
-12.8214 101.894 -11.7655
3.70084 119.777 4.45836
-5.30057 112.707 -7.37377
14.8002 145.1 0.187699
0.957364 122.736 -4.90271
1.04599 122.884 -4.85757
-3.3822 115.811 -6.56633
-19.677 78.3576 0.174576
2.55421 115.879 6.55888
5.06759 124.154 2.66581
8.86337 127.481 7.36036
15.4621 142.471 4.83964
0.705333 122.474 -4.96801
14.3789 139.218 6.2465
-9.13118 108.333 -10.555
-7.2974 95.7669 7.92788
2.56819 116.191 6.56229
11.4572 132.014 8.18638
4.37448 126.424 -1.12977
-10.3482 92.0356 5.59952
5.43062 129.033 -1.73052
-8.46994 93.2343 8.47042
-12.0424 90.5481 3.80338
8.77626 125.846 9.65986
11.9019 142.396 -2.29092
11.4256 132.519 7.97581
9.61321 131.73 4.88041
2.8698 117.555 6.15991
8.22503 138.212 -5.60494
-4.81195 102.556 6.35712
-7.94871 110.443 -9.55079
8.52383 125.835 9.49805
9.0865 129.536 6.53326
14.0661 139.483 6.28863
12.8673 136.266 7.31638
9.18896 130.241 6.07026
7.54832 136.934 -5.24294
-17.1033 93.567 -10.3026
-7.6007 96.0471 7.98644
11.7422 143.967 -3.89054
12.66 135.598 7.75859
-1.27159 108.925 7.38975
9.00728 127.082 9.4218
-20.514 78.1743 -0.0676254
-9.644 108.488 -10.6566
3.8117 121.159 4.81989
8.84727 127.079 9.27173
11.829 142.733 -2.02257
8.97277 129.386 6.96491
-18.1165 81.5441 1.63983
11.2112 132.876 7.96307
-4.93146 102.977 6.37123
-8.042 110.833 -9.40855
-16.8703 94.6325 -10.4486
-11.2066 106.914 -11.9095
-10.8222 92.5722 5.4253
-6.26746 99.8191 7.24681
-14.5584 100.541 -11.8495
15.4591 144.413 4.68607
-3.37192 105.873 7.08215
-18.4538 81.5644 1.4588
-2.51531 107.554 7.15451
-3.80078 105.265 6.94066
9.25297 131.177 6.24201
-14.0004 101.841 -11.7299
8.71096 140.762 -5.86764
-13.0966 103.728 -11.8417
-16.3469 85.1521 2.27316
-2.74008 107.288 7.14732
8.98662 129.975 7.21178
-13.1818 103.668 -11.8528
-4.16015 116.226 -6.15776
9.64095 142.909 -6.05385
-12.0026 91.8456 4.41238
-4.08841 105.043 6.87121
0.676194 123.824 -4.05975
-8.26761 111.116 -9.35659
9.66364 132.998 5.40362
-9.90838 109.06 -10.5888
-8.57369 95.119 8.37567
-6.33288 113.739 -7.98263
5.04454 131.411 -2.89596
-0.594901 111.308 7.62518
-13.2738 104.027 -11.9298
-3.95977 105.594 7.09238
3.49986 120.988 6.02312
-20.1588 80.754 -0.367818
9.90157 137.121 1.83591
9.18725 131.239 6.99712
6.1167 129.138 2.6177
3.09771 126.978 -1.60855
9.38073 130.787 8.06122
3.79184 122.378 5.29113
-16.6347 85.6099 2.12788
-7.93282 97.4073 7.94031
-9.2414 94.4838 8.43169
11.4619 145.443 -3.94843
-8.35794 111.751 -9.33179
-13.0711 105.027 -12.0705
-3.38163 118.278 -5.71848
-20.4181 81.047 -0.888814
-20.5463 86.9951 -7.9629
10.9373 138.403 3.19024
-6.81834 114.146 -8.45322
-3.2729 107.467 7.09995
-19.4017 82.4547 -0.050557
-1.85861 120.987 -5.23768
12.3217 144.365 -0.497953
15.1898 149.133 0.427393
-21.7303 80.669 -3.12241
11.3185 135.139 7.91176
12.6369 138.208 7.32697
-9.20375 110.885 -9.84677
-17.04 96.3842 -10.5936
-12.5858 92.018 4.42114
10.9707 134.688 7.88304
6.56358 130.872 2.52406
11.5453 144.561 -2.09804
1.41159 116.214 7.94857
13.2969 141.15 5.8266
-19.9131 82.5403 -0.766413
-9.96077 94.7342 7.40053
-14.4248 89.9404 3.0575
2.4 118.874 7.30772
11.8507 136.735 7.83818
3.0208 120.794 6.56872
7.47798 139.991 -5.51614
-0.802746 112.465 7.68883
10.0445 138.411 2.06646
4.94123 126.734 4.19471
-11.4953 108.54 -11.454
8.43627 136.222 1.10093
10.4372 135.72 6.21545
-7.85584 113.852 -9.28382
5.67239 135.871 -4.39258
-16.4939 98.5012 -10.7877
-0.696233 123.071 -3.83444
3.44636 122.161 6.41959
6.60368 131.864 2.35791
11.1966 145.56 -3.12672
12.8857 146.78 -0.746445
-11.3807 94.1814 5.6405
-4.84814 117.195 -6.19295
11.1801 145.569 -3.083
-14.0661 104.412 -11.9895
-15.3741 101.785 -11.8159
-7.82265 99.543 7.54861
2.61047 128.05 -1.87709
7.88132 141.422 -5.48778
8.86908 143.741 -5.94029
-14.2913 90.8069 3.34501
-14.5228 103.835 -12.0242
9.89989 133.981 7.68131
-17.7596 96.3008 -10.5648
-9.7662 111.556 -10.2823
6.45242 131.665 2.7083
6.0966 130.343 3.45116
12.7122 147.506 -1.49945
8.71522 137.471 1.15075
-21.3815 87.0881 -7.90802
-2.78959 109.909 7.26279
-1.7903 122.082 -4.4183
11.4761 138.3 6.48174
-10.7871 110.546 -11.0656
11.6406 138.128 7.15327
11.3038 144.919 -1.35928
14.5232 146.041 4.67227
0.244453 115.164 8.37286
13.1436 147.801 -0.323434
-16.6376 87.9528 2.2362
7.33348 134.729 1.99158
14.8785 148.62 2.8482
1.02301 126.665 -2.76289
9.41839 139.142 1.59619
-1.90638 122.269 -4.17627
14.8734 149.304 2.3371
-21.9406 86.1655 -7.06991
3.50617 123.635 6.55305
3.82174 130.949 -1.12668
-8.1731 114.925 -9.38783
-21.7959 86.8388 -7.45933
-14.9235 104.397 -11.7495
14.6274 149.825 1.87227
-22.0252 85.9276 -6.30309
5.91138 131.949 3.06394
-10.0664 112.903 -10.5955
-22.0051 86.2759 -6.58179
-19.7475 84.6621 0.443746
10.4984 147.114 -3.83967
-19.2915 84.962 1.22159
6.95304 135.44 1.70324
3.2189 123.816 6.81603
7.08102 141.806 -5.11851
4.13348 126.518 5.85855
-19.867 84.8862 0.340855
11.812 141.178 6.29294
13.4573 145.657 4.82876
-5.46005 106.887 7.2839
-10.8471 96.3191 7.52398
-21.8344 85.0283 -3.93402
-17.2242 88.5161 2.4105
9.35418 146.685 -5.14856
-0.516847 115.921 8.27117
-10.2058 113.666 -10.6121
-5.01445 119.252 -5.47932
10.6632 141.808 3.55283
-12.5249 110.145 -11.6664
-11.9571 111.19 -11.4373
13.4892 149.668 0.994728
-2.13668 123.563 -3.7791
-15.9063 90.6947 3.33629
8.4766 140.121 0.900555
10.6617 142.008 3.64749
-5.20232 119.301 -5.56135
4.34088 135.314 -2.65241
-11.9453 111.405 -11.4181
1.50573 128.953 -1.62893
0.56257 119.01 7.67756
-21.0994 91.0287 -8.34696
-11.7817 95.9299 6.77174
-9.65248 114.795 -10.1208
-9.58556 98.7194 8.52019
-14.1692 107.076 -11.235
-11.7207 96.095 6.88645
-12.3646 95.5305 6.18114
10.3147 147.613 -3.04613
-15.3482 105.15 -11.3821
-10.7728 113.566 -10.8627
2.50321 123.539 7.21355
-7.03076 105.358 7.00126
-0.16497 126.886 -2.36546
-0.590328 117.041 7.99371
-14.1264 107.68 -11.2868
-15.6708 91.6637 3.69247
-20.7327 86.1786 -1.25907
-6.97407 105.595 7.05768
8.92309 141.524 1.19978
12.4484 144.957 5.16009
-17.103 89.696 2.86784
-6.91061 105.881 7.12598
7.91972 145.587 -5.39501
-14.6278 107.147 -11.2963
-21.6843 87.5369 -4.49062
4.7196 130.867 4.5137
-12.204 112.006 -11.4243
7.33991 144.525 -5.18822
7.74451 145.49 -5.31705
-16.1447 104.54 -11.4029
0.281589 128.104 -1.8687
-21.4248 88.0721 -4.18853
-9.38691 100.565 8.24726
-18.4647 88.4125 2.03769
-20.8554 87.656 -2.35982
-14.2625 108.294 -11.3609
-21.0339 88.2311 -3.38405
12.7881 147.458 3.89538
-11.3774 97.2795 7.72404
-18.1297 88.9821 2.31748
7.64086 139.863 1.25532
-9.28997 116.622 -9.67573
11.1023 149.628 -2.16052
5.04962 139.68 -4.14041
4.29281 137.094 -2.7721
-19.6431 96.5949 -9.51584
-20.7139 88.695 -2.75525
-5.43535 120.606 -5.35721
3.54655 134.619 -1.43246
-17.3969 102.274 -10.8663
4.61734 131.596 4.48574
-6.98419 119.993 -7.86285
-7.45184 119.513 -8.20473
-20.1938 87.7241 -0.0506135
-5.57494 121.122 -5.8301
-21.3717 91.5306 -6.99332
12.9975 150.478 1.91187
-19.438 88.3056 1.11788
-21.2897 92.1779 -7.41739
10.1195 143.658 3.3826
-0.556958 119.646 7.23125
3.6306 128.61 6.26113
11.8176 149.933 0.0298727
12.1512 147.228 3.88268
10.345 143.833 3.76917
-10.5347 98.8865 8.93158
4.7588 139.728 -3.81356
-15.9839 106.014 -11.2524
12.3264 150.905 0.239546
12.5717 148.939 3.04059
-2.9437 114.304 8.289
3.76454 129.854 5.42439
-21.0806 92.7739 -7.24035
1.09664 122.464 8.10434
-11.1204 98.3228 8.71971
2.45777 132.999 -0.851624
-8.38867 104.891 7.3036
11.2485 145.323 4.61896
-8.96943 103.501 7.6734
10.4448 150.14 -2.52523
-20.5325 89.3663 -1.6462
4.52291 133.291 3.67207
-14.6167 109.436 -11.5016
-1.64116 117.74 7.82537
-19.8189 97.5144 -9.34278
-12.0608 97.7375 7.688
-13.5744 96.3695 5.92529
4.41697 132.675 4.28872
-18.9484 89.8926 1.5434
-18.8401 90.0706 1.58317
-20.9207 92.3085 -5.43511
-20.7113 92.8777 -5.52213
4.39103 139.461 -3.14253
-10.17 117.249 -9.90229
-10.7079 99.9074 8.82091
0.162115 130.306 -1.86584
10.1073 144.806 3.65336
3.83981 137.788 -2.15682
-16.2977 106.789 -11.3464
-9.24731 103.701 7.93156
-16.0226 94.1852 3.91886
-21.2302 90.2342 -3.11953
-20.8423 93.4998 -5.96582
-11.8878 115.162 -10.889
-8.42685 119.643 -8.22912
-11.3844 99.2432 8.61042
-5.26809 112.326 7.34123
-10.7426 100.402 8.87039
-2.77448 116.23 8.44125
12.0567 150.205 2.4717
-10.4501 117.517 -9.93261
3.52761 137.409 -1.67015
-11.4163 99.497 8.58689
2.20544 134.312 -1.05319
10.8605 147.021 3.61477
3.73492 138.115 -2.00268
-19.3421 100.195 -9.78861
-18.6504 91.7613 1.43145
-20.6249 96.2994 -8.11769
-13.2964 113.313 -11.2573
-20.846 93.8638 -5.68967
-8.58767 119.862 -8.14027
5.60884 144.017 -4.2812
-20.8924 92.5524 -4.08718
-18.4508 102.727 -10.3211
-1.39424 120.223 7.56941
-10.4319 117.935 -9.84863
-8.95289 105.5 7.69495
-21.1871 90.6988 -2.49196
-19.9744 98.7749 -9.04889
-9.60104 103.791 8.28464
-10.2106 118.327 -9.67102
-13.2404 97.8173 7.18696
11.8052 150.551 2.39025
-0.552456 122.636 6.96549
-12.3728 115.289 -10.8597
8.92757 145.894 1.48192
-19.6693 100.037 -9.47401
-21.1264 94.6766 -6.52979
-21.1687 95.0773 -7.03809
-20.8675 94.443 -5.55401
-20.0714 98.9768 -8.94296
1.34195 125.433 8.30727
-5.62213 124.212 -5.68499
9.52 146.785 2.16267
-20.6895 93.8638 -4.28602
-6.98496 122.683 -6.79619
8.80653 146.126 1.47836
3.01324 130.648 6.35547
-12.5583 99.0566 8.17232
-0.967286 122.741 6.79713
10.1161 147.256 3.39594
-18.8019 102.942 -10.0287
-13.6374 113.912 -11.1115
1.82983 135.072 -0.937921
-13.8486 97.944 6.82746
3.21972 132.014 5.76789
8.57022 146.201 1.4454
-5.22128 113.841 7.91639
-20.1439 99.6178 -8.93299
-6.08025 112.679 7.34232
2.5573 129.47 7.32697
-16.6826 108.218 -11.0507
-0.384623 131.909 -1.9226
3.10386 131.908 5.96673
-12.7772 99.2991 8.08914
6.80396 148.177 -4.4289
-15.3222 96.8807 5.2558
4.0768 134.979 4.69317
-20.5758 98.4139 -8.16524
-18.5744 93.4971 1.95006
-21.3212 92.2232 -2.59029
-16.8872 107.959 -10.7006
-9.77706 105.09 8.44037
-1.18753 123.196 6.77943
7.52726 149.659 -4.17781
-19.3711 92.9883 1.1237
-21.1528 92.1867 -1.88208
11.3542 152.637 1.16555
-18.6748 93.8233 2.01035
-15.1728 97.3544 5.76388
-17.4669 95.079 3.3138
-0.931096 124.166 6.73556
-20.3908 99.8612 -8.62539
-9.25649 120.888 -7.87791
-2.40484 129.757 -2.62923
-10.1314 120.144 -8.69095
5.14964 139.169 3.53924
0.216851 133.716 -1.10511
-20.9503 93.2329 -1.64081
10.8172 152.869 0.603446
-14.5358 113.947 -11.0258
4.11716 143.233 -3.13774
-6.9057 124.906 -6.61484
-5.96784 125.493 -5.18328
2.24623 138.056 -1.31421
-21.0242 93.8881 -2.21425
-0.162924 126.068 7.32115
7.70934 151.177 -3.8066
-2.08192 131.33 -2.65211
-14.0695 99.4595 7.31371
3.54593 135.531 5.12089
6.42777 143.987 1.92023
-18.7707 104.682 -8.97343
10.534 152.222 1.66256
-13.0342 100.799 8.26368
-20.1443 93.6685 0.666602
3.58961 142.419 -2.40437
2.75192 140.227 -1.70309
3.44064 142.039 -2.176
-20.6409 99.4316 -6.81716
-20.6842 95.9448 -2.90083
-14.6469 114.59 -10.8522
-20.8353 94.0946 -1.03457
1.57498 137.568 -1.0278
9.1421 152.403 -1.09889
-15.1968 98.8234 6.29813
2.762 133.811 6.12178
-21.0528 97.1638 -4.77716
-20.7546 94.1025 -0.529301
-15.748 98.5126 5.77061
-10.4201 121.2 -8.26144
9.15153 150.326 1.92023
0.920672 137 -1.08001
-12.7547 118.377 -10.0218
6.78786 150.813 -3.74168
-1.53139 133.496 -2.27422
6.95841 151.184 -3.64287
1.94635 139.667 -1.4312
-0.798719 126.992 7.03372
4.32624 139.314 4.33931
-20.6418 96.4227 -1.95718
-2.61373 123.02 7.61665
0.634388 136.981 -1.1412
-20.7712 101.167 -7.62144
4.69641 140.615 3.84189
-10.0702 107.838 8.69044
-15.5306 114.309 -10.8252
-21.1545 97.8693 -4.39751
-6.26836 127.547 -5.27375
9.72677 153.719 0.309535
1.26359 130.803 7.82744
-7.95708 126.089 -7.22851
-11.9701 120.358 -9.57199
2.45179 134.375 6.46763
2.354 141.353 -1.70545
-20.6797 95.3976 -0.18721
9.87281 153.36 1.31484
-2.06008 125.74 6.4891
-6.54742 127.532 -5.43889
5.32767 143.037 3.17361
-2.20726 125.132 6.97233
9.88845 154.006 0.773234
-19.9536 104.071 -8.28273
5.72262 144.294 2.66591
4.9207 141.952 3.64051
-6.35493 115.966 8.37902
-3.56779 131.44 -3.08694
2.37883 141.841 -1.73452
-7.44588 126.691 -6.19347
8.92093 151.568 1.79351
-8.9312 125.059 -7.4786
-19.3294 96.3833 2.40471
-3.62469 131.732 -3.14999
2.7696 136.425 5.75909
-20.8388 102.188 -7.41692
6.14078 151.093 -3.50223
-1.43333 127.337 6.91345
-18.5658 108.083 -9.04985
-5.14292 129.891 -4.11294
-1.92272 134.643 -2.39116
7.79796 150.509 1.03369
-6.43274 116.37 8.58692
-16.2384 114.187 -10.5882
-16.5795 99.5475 5.4711
7.96154 150.909 1.14386
-17.3951 98.6412 4.72567
-6.83444 115.971 8.33735
5.30887 144.059 3.1319
-5.39251 129.999 -4.35731
-0.0680476 129.348 8.24168
5.05841 143.499 3.42714
-4.41404 120.618 8.71559
-17.5357 111.915 -10.4157
-3.39483 123.253 8.08329
-20.1796 96.7136 1.26927
0.40289 130.459 8.32068
-20.9904 101.633 -6.12636
3.55949 139.705 4.86479
3.26118 138.628 5.45802
2.17126 135.497 6.65561
-2.67339 134.313 -2.69577
-21.0267 98.7297 -2.558
-0.975991 128.704 7.69662
-10.6683 108.874 8.9068
-2.75627 125.796 7.12036
-0.870996 137.054 -1.55143
-8.5015 127.248 -7.23372
8.73864 154.222 0.157266
-20.7288 103.144 -6.69985
-12.9353 120.87 -9.69285
-16.9485 113.697 -10.379
-2.2331 127.424 6.59353
-0.394571 129.948 7.78717
-5.94023 130.355 -4.93887
-4.94305 120.495 8.66369
-0.0831411 130.47 8.08434
9.00032 154.067 1.22713
-18.731 109.628 -9.24241
1.92518 135.627 7.03551
-9.18552 113.249 8.09409
5.88802 147.782 2.05424
2.50987 137.634 6.23901
1.26053 141.967 -1.4238
-20.3602 98.3139 0.591589
3.4457 147.296 -2.64462
1.9553 136.143 6.87078
-19.7982 104.182 -4.64565
2.47185 144.991 -1.89959
-20.9837 99.7086 -2.03105
2.07033 136.889 6.75597
-12.8951 122.073 -9.42708
-17.8054 100.556 4.35043
-8.29083 115.762 8.22524
3.50611 148.238 -2.68723
-9.82886 112.839 8.27403
-19.0368 100.022 2.59737
-20.4767 99.5795 -0.0658966
-9.99607 112.693 8.33069
-7.50009 117.435 8.48008
-5.55214 121.224 8.50416
-8.26533 129.473 -6.97608
-1.44998 130.58 6.91955
8.40945 154.693 1.29553
-16.7196 102.293 5.59285
-15.5158 117.948 -9.55908
-17.4101 101.71 4.85445
-14.8881 119.131 -9.50324
-10.3311 112.422 8.34752
-13.6207 105.889 8.55845
5.06217 152.224 -3.02069
-10.3953 112.411 8.34567
1.78473 144.785 -1.66594
-19.2059 110.426 -8.9127
1.6741 144.597 -1.63967
1.11169 143.418 -1.46873
-15.6481 103.973 6.61387
-20.8623 101.354 -1.92622
-15.5607 104.103 6.7243
2.76393 140.776 5.48265
2.11803 138.697 6.48184
-15.6152 118.282 -9.43856
-6.93311 132.257 -6.05165
-20.629 101.558 -1.23568
-0.737212 140.63 -1.82501
4.26291 145.691 3.4919
-1.73676 138.88 -1.96717
-19.4264 110.44 -8.51574
-18.6302 101.858 3.18199
-7.11166 132.533 -6.35233
-15.3225 119.219 -9.3298
-7.04575 132.588 -6.24846
-16.3458 104.085 5.77734
4.16599 145.712 3.73262
-0.247231 133.413 8.03355
-16.1512 117.947 -9.57047
-7.22059 119.743 8.21294
0.529861 135.011 7.9669
-20.206 101.93 -0.0864317
-18.9655 102.319 2.31741
-5.00946 123.701 8.81526
-17.0648 103.635 5.0464
-4.37358 136.204 -4.06936
-17.2654 103.514 4.8113
-11.8165 111.005 8.467
-3.13534 137.923 -3.09068
-3.33423 129.38 6.27103
-12.6127 124.156 -8.28052
-9.50222 130.582 -8.73316
-6.91034 133.77 -6.59944
4.02777 144.946 5.00243
-12.5421 124.385 -8.20236
-16.5495 117.878 -9.59952
4.71864 153.096 -2.55158
-7.16205 120.748 8.14682
-4.67391 126.737 6.84347
-18.5118 107.457 -1.79334
-4.56587 126.132 7.79522
-6.19244 135.325 -6.31715
-20.0321 103.283 -0.310208
-18.2486 107.876 -1.45409
-9.97833 115.714 7.95956
2.23343 148.315 -2.26942
-7.90636 119.501 8.26464
-20.5529 107.178 -5.64482
-5.88544 135.708 -5.72562
-1.79338 140.687 -2.26867
-4.32378 128.891 5.6373
-4.31835 137.81 -4.45852
-14.055 123.2 -9.31471
-13.0155 124.54 -8.47769
-15.0289 106.497 7.79845
-4.70629 128.443 5.64775
-2.34035 132.962 5.74247
-18.4422 107.588 -0.946417
-17.8435 108.713 -0.901375
-0.397997 135.095 7.68948
-17.5524 117.18 -9.86601
-11.8707 127.346 -8.84007
-7.29629 135.061 -7.48791
-4.2265 129.79 5.37826
-19.0871 106.356 -0.652407
-20.2618 109.756 -7.12238
-11.7789 128.395 -9.53646
2.8911 143.758 5.45668
-15.0307 121.642 -8.90222
-18.549 107.36 -0.181096
-17.8872 116.997 -9.72437
-15.5756 106.855 7.18124
-16.9548 105.986 5.26282
1.38204 140.069 6.93557
-17.1558 108.977 1.46613
3.21727 152.144 -2.65205
-14.1912 108.61 8.57484
-6.09487 136.935 -5.90358
-18.6065 107.134 0.46235
3.03127 144.559 5.75257
-8.6466 119.711 8.29197
-5.46624 137.832 -5.31338
1.74833 141.639 6.41739
-1.7051 135.185 6.16175
-20.1489 111.153 -7.21712
-4.53232 139.04 -4.43226
-17.0573 109.11 2.09502
-17.8017 107.95 1.84534
-20.4908 108.398 -4.47344
-18.4997 109.252 -1.0109
-1.05247 135.877 7.30396
0.452971 146.768 -1.80597
-5.49297 127.552 7.14261
1.81564 142.419 6.35916
-1.21275 135.932 7.15866
2.01019 150.541 -2.36251
-13.7521 125.713 -8.90058
-6.11401 126.185 7.56824
-5.51909 138.596 -5.27672
-17.3003 119.214 -9.22033
-12.877 111.998 8.8871
-18.3986 106.711 2.71074
-17.762 109.997 0.369007
-18.3585 106.834 2.71366
-16.7974 110.894 1.61759
-6.48466 125.838 7.40485
2.09423 143.719 6.00167
-17.6024 106.713 4.74603
-4.04763 132.505 5.31129
-9.47137 134.369 -8.80624
-20.6247 110.561 -6.21115
-20.4871 109.38 -4.53107
-11.7817 130.404 -9.245
-18.3117 109.88 -0.212296
-3.78326 133.53 4.98565
-18.0703 106.55 4.18955
-12.9477 128.03 -8.94567
-16.7991 108.04 5.71948
-6.71402 126.457 7.06085
-6.00907 127.656 7.37276
-20.3573 112.233 -6.80773
-16.6021 110.455 3.58762
-16.4759 108.329 6.30907
-17.5838 107.701 4.6172
-0.509223 138.313 7.46477
-15.309 109.139 8.0512
-12.2618 114.271 8.99071
-2.09245 136.57 6.05946
-2.71393 136.236 5.08155
-12.1122 114.647 8.94957
-6.37493 139.476 -6.75269
0.202587 147.939 -1.82831
-8.6026 136.421 -8.1508
0.389701 148.513 -1.83034
-5.75059 140.199 -5.85599
3.91003 155.066 -1.37775
-14.6697 110.249 8.73217
-17.9399 110.85 0.80252
-8.8787 136.281 -8.13601
-13.7539 127.134 -8.45074
-13.6516 127.319 -8.42891
-11.6276 116.271 8.81118
-8.26305 137.25 -7.68224
-3.94812 142.228 -3.77032
-15.8509 109.403 7.41521
-6.11402 130.672 4.76006
-18.0294 119.273 -8.58404
-4.05962 134.946 4.54679
-6.92684 139.478 -6.99362
-14.0317 126.934 -8.39297
-4.42005 142.079 -4.33597
-15.7462 110.016 7.29111
-16.3588 113.028 2.51865
-6.12828 131.101 4.58843
-17.1939 120.971 -8.38492
-15.6921 110.402 7.12982
-12.6313 130.049 -8.57174
-4.50331 142.251 -4.43087
-7.23592 127.914 5.98349
-5.01574 141.86 -5.05073
-14.4878 111.188 9.13007
-19.4455 110.503 -0.898983
-14.4232 127.008 -8.62034
-12.8399 129.141 -7.52295
-13.9437 128.115 -8.77513
-1.51886 146.326 -2.01855
-14.6733 126.009 -7.89279
-6.76713 128.878 6.4151
-20.74 111.946 -5.15766
-17.6324 119.123 -6.39553
-20.3505 110.485 -2.5197
-8.24089 124.393 8.61953
-0.283219 149.024 -1.88061
-4.03709 136.31 4.3762
-11.7514 132.128 -7.93183
-19.8589 110.746 -1.42024
-14.8944 125.937 -7.78288
-8.2134 126.383 6.57594
-17.423 119.156 -5.54306
-2.35936 145.698 -2.38637
-2.1749 146.045 -2.27614
-13.0914 114.698 9.40561
-14.9242 126.852 -8.59084
-15.3217 125.462 -7.82109
-16.5396 122.228 -6.75359
-15.2518 125.615 -7.77056
1.6563 153.532 -2.19553
-6.87105 130.731 5.10353
-10.9699 119.382 9.01588
-15.8807 113.285 5.1476
0.890292 152.503 -2.5385
-18.9865 118.199 -7.2729
-16.5842 123.759 -8.28089
-15.9774 113.073 5.34621
-9.90889 121.801 8.90574
-0.0453124 142.391 7.23511
-15.0822 112.78 7.92051
-2.162 138.659 7.00834
-16.1361 124.746 -8.08602
-4.9333 135.886 4.05922
-15.3127 112.942 7.33424
-16.7955 121.895 -6.21456
-17.3699 120.712 -5.91212
-16.2233 114.537 3.72441
-9.01546 123.982 8.91918
-11.1214 133.723 -6.87551
-2.06575 147.171 -2.1523
-3.80855 138.056 4.45615
-6.79665 132.787 3.86522
-13.4168 129.525 -7.07883
-19.385 115.602 -4.36256
-6.74428 132.935 3.88532
-17.2289 121.512 -6.27322
-15.25 114.029 6.80389
-7.42089 130.978 4.77915
-16.9491 122.037 -6.13055
-17.5456 121.756 -7.11515
-17.2745 121.479 -6.14975
-20.085 111.726 -1.12115
-15.1448 127.497 -8.12024
-7.6133 131.497 4.04611
-1.14163 141.438 7.07044
-11.7572 118.773 9.4783
-15.0224 113.457 8.32821
-8.11459 129.61 5.19143
-15.1164 114.54 6.93221
-9.34772 124.727 8.08285
-10.3273 122.006 9.0501
-7.18322 132.684 3.84199
-9.33751 137.997 -7.03064
-1.58604 148.603 -1.88488
-14.8989 113.926 8.30193
-16.5409 123.812 -6.59477
-4.1273 138.32 4.37829
-9.37564 124.224 8.9051
-20.8229 113.325 -3.94515
-14.6715 128.135 -7.24591
-16.4855 123.968 -6.46882
-7.30791 132.882 3.81692
-8.93786 139.353 -7.21157
-16.4033 123.999 -6.18096
-16.1348 124.8 -6.38275
-8.59789 140.195 -7.13835
-8.54096 129.628 5.15832
-7.55732 133.185 3.45895
-4.27922 145.959 -3.81218
-17.2318 123.554 -6.79091
-8.51383 130.707 4.43833
-17.2524 123.628 -6.85458
-2.10509 148.866 -2.04711
-17.5853 123 -6.72075
-14.9641 116.211 6.89463
-10.5805 122.844 9.08905
-8.56855 140.805 -7.00532
-11.5881 120.503 9.57229
-9.46592 127.554 6.2116
-15.6354 126.871 -6.59945
-2.48952 148.611 -2.29674
-9.10586 128.913 5.59837
-11.9086 133.628 -5.98577
-9.03811 129.254 5.41263
-13.7907 116.859 9.14369
-17.5017 120.961 -3.78693
-6.39868 135.829 3.90554
-17.508 121.263 -4.06743
-16.086 115.615 5.6129
-4.80855 146.304 -4.21422
-16.7689 115.483 4.60312
-9.53708 128.467 5.83319
-18.0115 121.038 -4.35766
-13.2355 119.008 8.69993
-17.714 115.22 3.24421
-19.6253 114.31 0.0751047
-11.2752 122.428 9.32238
-1.98767 142.756 6.6994
-10.7127 124.704 8.2584
-18.5814 118.826 -2.4786
-10.7568 124.76 8.12469
-1.31765 144.004 7.12393
-18.2721 121.539 -4.7444
-6.07733 145.684 -5.24439
-4.96509 146.973 -4.22214
-19.3213 114.796 0.787137
-15.0558 128.929 -5.88613
-19.2545 120.801 -5.7464
-18.9977 121.258 -5.63
-4.1337 148.238 -3.25816
-11.8224 125.963 5.22643
-14.3886 118.422 8.25215
-16.0189 116.875 6.40325
-12.2019 135.063 -5.90771
-18.4308 115.551 2.6909
-8.35784 134.098 3.8256
-18.3307 122.739 -5.26529
-8.99506 141.848 -6.4058
-4.2244 142.075 3.96474
-17.5187 123.638 -4.4137
-6.99221 137.764 2.81675
-17.0437 124.601 -4.4015
-17.1903 124.247 -4.2999
-20.2729 114.808 -0.157236
-8.13021 134.932 3.80791
-16.9738 124.448 -3.81076
-18.9273 121.386 -4.57097
-12.9244 123.465 6.44934
-12.6036 134.295 -5.20835
-15.6293 117.526 7.29429
-19.4571 117.913 -1.64704
-4.8075 141.418 3.98453
-17.26 122.229 -1.64496
-17.3247 124.171 -4.01382
-18.5607 122.062 -4.32391
-17.06 123.863 -3.01712
-17.4634 124.388 -4.5095
-11.7501 137.191 -6.48389
-6.87353 138.721 2.6324
-18.5533 119.783 -1.58035
-14.6965 119.13 7.78389
-19.6337 117.638 -1.44887
-16.6267 125.841 -4.13003
-20.4637 115.236 -0.390342
-1.74617 152.814 -1.8528
-7.91801 136.971 2.63694
-18.8603 120.652 -2.95345
-9.68643 141.331 -6.16684
-14.7774 119.437 7.6684
-17.2423 125.171 -4.36412
-17.2729 125.764 -5.08326
-5.3421 148.175 -4.25552
-18.7921 121.269 -3.26643
-9.7087 131.91 4.73255
-18.2698 122.314 -3.28477
-3.44715 150.298 -2.42496
-19.1682 115.986 2.02258
-13.4972 132.891 -4.59604
-18.9928 121.587 -3.80028
-17.5516 124.233 -3.52284
-18.635 120.654 -1.81875
-16.2291 117.8 6.81789
-9.23767 134.326 3.49143
-8.36225 144.359 -6.00841
-9.10511 143.451 -6.14849
-17.5021 123.29 -1.64877
-18.2164 123.094 -2.99837
-13.7667 123.959 5.96977
-1.77763 154.122 -1.95108
-18.6009 121.014 -1.27773
-17.984 125.088 -4.50868
-5.12446 143.445 3.02577
-20.5594 116.588 -0.466028
-15.4452 129.679 -4.09116
-17.7926 117.957 4.14091
-19.8271 116.997 0.780447
-15.9648 118.931 7.1824
-18.6654 121.161 -1.32454
-17.064 126.314 -3.53286
-13.6208 125.966 4.5362
-12.5292 127.735 4.94097
-3.1699 152.094 -2.0953
-15.8925 128.576 -3.38139
-20.0039 118.049 -0.383556
-18.4315 122.741 -2.24981
-16.1342 129.363 -4.72144
-7.89704 146.174 -5.64291
-15.8214 129.098 -3.57375
-19.7482 118.578 -0.233953
-19.8504 119.955 -2.02772
-17.485 126.047 -3.69759
-18.587 122.677 -2.26594
-18.7982 122.276 -2.26769
-14.0384 125.758 4.33069
-19.4468 119.214 -0.0749199
-20.1113 120.12 -2.43603
-2.47673 153.876 -1.84629
-19.8115 121.577 -3.3354
-18.8986 122.44 -2.24886
-19.4825 119.161 0.223734
-13.0748 127.896 4.55672
-5.20913 150.244 -3.48752
-3.28025 152.732 -1.99385
-4.84363 150.649 -3.01993
-16.3254 120.825 5.77036
-16.8469 120.721 4.96017
-20.2381 121.531 -3.4915
-20.6561 118.274 -0.68134
-19.7033 119.245 0.665291
-19.853 122.872 -3.78439
-6.06202 143.963 2.69198
-12.76 138.374 -5.73745
-14.6551 126.08 4.21996
-12.7718 128.791 5.30005
-18.7396 125.807 -4.49422
-19.7553 122.598 -2.98698
-16.1182 130.831 -4.30343
-17.6447 120.669 3.95853
-20.0765 122.928 -3.92087
-19.3381 121.924 -1.02568
-19.6824 121.049 -0.652103
-9.41726 137.152 3.89967
-7.77182 141.739 2.39012
-17.3379 129.643 -4.93381
-7.06407 143.292 2.25321
-18.0606 120.986 3.42739
-7.34211 142.871 2.22594
-20.2651 123.207 -3.75244
-15.1353 126.137 4.29522
-18.0329 128.801 -5.15771
-11.774 131.902 5.3086
-20.7936 122.194 -3.45991
-12.1667 131.014 5.67198
-16.7704 129.471 -2.68942
-17.8471 129.537 -5.11893
-9.04143 139.93 2.54187
-18.1692 127.73 -3.74653
-21.0416 119.5 -0.691742
-12.4044 139.953 -4.9215
-21.7322 117.091 0.590578
-4.71641 152.757 -2.3679
-20.8705 120.702 -1.4795
-8.05203 142.76 1.7685
-15.3027 132.783 -2.84195
-13.8345 136.076 -3.30746
-11.2854 142.667 -5.14918
-20.9674 121.825 -2.71521
-8.9298 147.449 -5.22852
-16.4604 131.483 -3.6202
-12.3619 131.395 5.74715
-20.7902 118.63 1.68548
-16.5084 124.001 5.25055
-17.2302 122.297 5.61956
-16.7622 124.078 4.73692
-16.7627 124.081 4.73333
-15.8781 131.988 -2.28847
-9.98594 137.83 4.13022
-14.5821 135.011 -2.81943
-17.7439 122.284 4.86191
-8.66619 148.356 -4.84601
-9.17507 140.825 2.83456
-20.7808 120.904 -0.039045
-16.6151 132.356 -3.88231
-18.1658 130.02 -4.63547
-13.5846 129.752 5.86437
-20.8014 120.708 0.269888
-20.5199 119.366 2.43656
-14.666 128.039 5.57623
-17.8638 122.509 4.90036
-15.7951 126.173 5.31307
-16.2877 132.826 -3.3142
-11.642 143.355 -4.86738
-16.0332 126.089 5.17319
-20.8065 124.199 -3.23018
-20.8768 121.226 0.0389083
-20.1656 120.496 2.46754
-12.5161 141.523 -4.55753
-20.2263 126.731 -4.70824
-12.0826 133.502 5.63685
-20.3236 125.925 -3.98146
-22.2551 118.397 0.358612
-14.2653 137.979 -4.29178
-14.6958 137.265 -4.3648
-15.3302 135.147 -3.27009
-21.5228 121.428 -1.24769
-12.6204 141.624 -4.4764
-11.2784 136.443 4.46727
-17.4681 124.457 4.48065
-14.9403 135.46 -2.51346
-23.095 116.998 0.549039
-17.8083 123.087 5.36656
-9.05795 142.325 2.82848
-11.7726 134.466 5.81709
-21.8775 120.662 -0.555088
-12.3876 133.445 5.92347
-20.5255 125.827 -3.36887
-20.5368 119.834 3.50275
-19.5284 121.899 3.38001
-16.9807 125.066 5.42398
-15.2017 135.313 -2.34789
-20.5292 120.582 2.83311
-15.2689 135.289 -2.30369
-12.5078 133.46 6.05139
-21.693 123.083 -2.45423
-12.0567 143.549 -4.31864
-14.044 139.682 -4.20486
-19.7062 122.056 3.4221
-15.4628 135.334 -2.25882
-19.6088 129.713 -4.89063
-20.9523 126.793 -4.47694
-11.8046 144.378 -4.30608
-21.4392 121.049 1.03329
-14.1354 137.968 -2.04031
-20.3941 121.901 2.7476
-22.2385 121.367 -0.669384
-9.83837 141.616 3.74686
-7.11146 152.2 -2.26097
-16.0168 135.037 -2.36641
-7.76107 147.291 1.94275
-9.93993 148.573 -4.1569
-7.47091 148.208 1.78968
-9.75968 142.206 3.64919
-17.4916 124.78 6.46243
-20.7476 120.492 4.14753
-21.2875 121.697 1.65161
-7.20695 152.267 -2.10072
-22.0088 123.388 -1.82234
-12.9035 133.807 6.57184
-15.184 136.873 -1.90156
-13.4563 141.954 -3.84994
-16.7534 127.331 5.62829
-16.1556 135.318 -2.18833
-15.2762 130.176 5.72265
-15.8937 129.022 5.6884
-11.4448 146.09 -3.96226
-20.2845 122.686 3.25148
-23.5136 119.133 0.162429
-20.1291 129.936 -4.64292
-18.763 124.494 4.65249
-15.9446 136.212 -2.21759
-21.7191 121.258 2.12113
-12.1655 136.139 6.33168
-22.2874 119.224 3.30325
-8.09448 151.584 -2.11669
-14.091 139.521 -1.56854
-7.58048 152.316 -1.71822
-19.0948 124.593 4.49783
-13.6647 141.558 -2.82283
-24.7288 116.797 1.03598
-11.8089 138.81 4.85646
-7.77039 149.155 2.01621
-11.1392 147.576 -3.62471
-13.7485 140.698 -1.51966
-12.5229 136.16 6.49472
-19.3623 123.356 5.98754
-14.5415 139.136 -1.38207
-12.3773 136.513 6.50897
-15.5651 137.971 -2.19411
-10.8935 148.253 -3.55521
-19.6268 123.965 4.92484
-12.7347 144.132 -2.78622
-16.5838 128.672 6.40666
-21.0295 123.058 3.03759
-24.081 118.288 1.79359
-7.88387 149.611 1.93185
-24.3174 118.353 1.40668
-17.0785 135.81 -2.46655
-21.0185 123.146 3.35065
-17.0888 127.85 6.7366
-22.4754 124.489 -1.25672
-16.3786 130.013 5.99732
-22.6068 125.227 -2.04208
-8.13121 149.793 1.97827
-21.4521 120.977 5.43869
-21.7328 120.947 4.92351
-20.6205 122.955 5.09385
-9.15304 147.102 2.9209
-22.7045 124.848 -1.63389
-23.1461 120.063 2.91721
-6.80841 154.349 -0.082161
-7.79917 153.077 -0.792107
-18.2895 125.793 7.28117
-16.6294 130.296 5.91798
-23.0463 120.421 3.0128
-20.8163 130.22 -3.26053
-7.17887 152.956 1.02449
-14.3948 134.105 6.61112
-8.0205 150.618 1.84811
-13.0442 144.639 -2.31866
-12.7502 145.428 -2.46284
-13.915 135.396 6.52181
-15.235 139.536 -1.09675
-22.5467 121.356 3.51871
-6.83657 154.672 0.242461
-9.39871 147.464 3.12331
-18.7791 125.609 7.37858
-11.5427 148.462 -2.69645
-12.5142 139.263 5.83218
-7.74044 153.183 0.573655
-15.4037 139.716 -0.936949
-8.01096 153.462 -0.249436
-25.0528 118.489 2.09565
-9.04337 152.211 -0.858035
-22.404 121.913 4.20765
-18.9774 125.871 7.33721
-23.6393 120.374 3.28948
-16.0468 139.109 -1.28239
-8.39977 152.426 0.506938
-13.1561 143.988 -0.386884
-11.9691 147.957 -2.27306
-20.443 123.969 6.4723
-11.0155 149.99 -2.35012
-23.867 120.076 3.55111
-12.5847 139.992 5.83232
-22.154 122.1 5.18005
-13.1088 145.531 -1.50981
-8.9448 151.731 0.893585
-18.5746 127.783 6.96194
-22.5326 121.686 5.22813
-9.09758 152.662 -0.36007
-22.3463 121.871 5.53891
-11.6132 149.223 -1.94145
-10.475 146.398 3.8958
-13.1356 145.864 -1.37621
-9.1604 151.933 0.501805
-21.6487 129.921 -1.98201
-14.3308 142.663 -0.246731
-10.8304 145.898 4.24718
-23.8127 126.533 -1.89064
-9.70484 151.571 0.851182
-20.3152 125.469 7.20401
-21.4931 131.097 -1.82529
-15.7383 141.257 -0.361802
-21.1759 124.557 6.85844
-21.2842 124.335 6.90494
-25.9257 118.412 3.40449
-12.7859 147.741 -0.888062
-10.9595 146.81 4.25974
-24.777 125.364 -1.7866
-11.0795 150.808 -0.453778
-19.8988 127.4 6.85334
-15.8985 141.561 -0.275633
-18.747 130.544 6.07426
-21.554 131.812 -1.43686
-26.4438 120.107 1.28848
-20.6174 134.408 -2.10679
-10.718 150.291 1.81226
-18.853 131.507 5.61324
-19.4774 135.898 -0.807402
-26.036 122.065 0.541665
-13.9386 145.232 1.06316
-13.9162 145.358 1.00898
-16.1875 135.491 7.27998
-18.7567 137.189 -0.278953
-14.1469 139.75 7.07278
-20.0664 129.236 6.05
-13.5408 146.979 0.230207
-12.8724 148.337 0.342011
-12.8612 148.433 0.552618
-21.7496 133.145 -1.524
-11.4527 149.261 2.88812
-16.5194 141.978 0.0392867
-11.6951 148.964 3.06462
-25.6061 120.585 4.72013
-25.6466 120.54 4.70956
-13.0111 143.206 6.8093
-18.9954 132.645 5.67164
-21.9639 126.277 6.39846
-25.6479 120.627 4.71948
-26.6647 121.752 1.17401
-24.4684 121.586 6.28663
-20.9382 129.072 5.77725
-13.8053 142.027 7.06207
-13.2218 148.198 1.29935
-23.2723 123.881 6.89655
-27.0942 118.902 4.11452
-12.5073 146.586 4.83972
-26.2595 124.344 -0.0964579
-12.3398 148.946 2.67845
-19.0913 138.078 0.17529
-25.8419 121.127 4.72471
-12.4193 148.908 2.7255
-15.4172 139.245 7.21592
-26.4213 124.219 0.132603
-15.3352 144.527 1.78373
-22.0411 132.978 0.17562
-19.8491 137.132 0.299724
-20.8498 135.475 0.202033
-17.6005 135.67 7.32125
-15.0589 140.772 7.32617
-17.1807 142.477 0.862147
-16.0542 139.428 7.20529
-16.5412 138.562 7.18997
-22.8866 127.525 5.8106
-22.3344 132.851 1.03667
-13.6885 147.91 3.15436
-13.9096 145.357 5.68246
-26.3421 121.44 5.59016
-22.2781 133.213 1.31261
-14.1194 145.147 5.81712
-22.5595 129.293 5.27233
-27.8564 120.409 3.7828
-20.2162 137.599 1.12676
-27.5898 119.788 5.35868
-18.1829 136.38 7.36946
-16.6312 144.148 1.92838
-21.7223 135.342 0.761974
-20.1488 133.842 6.06655
-24.0414 126.13 6.38786
-19.5277 139.58 1.09496
-25.5718 123.146 6.68127
-20.7729 137.016 1.98934
-27.9482 120.231 5.29976
-18.8214 141.324 1.42619
-18.0413 137.878 7.20333
-19.529 140.186 1.53814
-15.284 144.308 6.28275
-18.5577 142.089 2.02894
-25.2856 124.929 6.77474
-27.5696 124.895 1.77343
-29.6678 118.613 4.44408
-21.9868 132.409 5.70131
-17.3802 140.284 7.03903
-18.9453 137.272 7.08947
-28.377 120.287 5.64866
-26.0051 123.953 6.7562
-17.9211 139.692 6.8849
-17.7556 140.066 6.89892
-19.1802 141.471 2.41194
-19.9133 136.007 7.06774
-28.8439 119.851 5.75973
-19.4904 136.906 7.04721
-17.0787 142.063 6.60991
-28.652 123.115 2.64783
-16.2789 145.117 5.01376
-21.5419 137.087 2.67203
-28.824 120.68 5.37646
-28.2917 124.193 2.6235
-16.8208 143.621 5.84761
-16.4179 145.467 4.65475
-29.8157 119.464 4.83495
-20.861 135.219 6.80883
-29.586 119.763 5.44383
-18.3802 143.049 3.70602
-22.0122 136.67 2.96362
-17.4655 143.231 5.66429
-21.8712 134.249 6.22417
-17.7858 142.347 6.06582
-17.8018 142.833 5.50784
-18.874 142.339 3.69345
-29.4243 121.64 4.13403
-28.6517 123.727 3.50851
-28.103 125.314 2.92174
-28.6306 123.731 3.66053
-20.6662 139.527 3.25926
-24.7433 131.803 3.1111
-19.1485 141.845 4.11523
-28.3533 124.906 3.1287
-20.0091 140.326 4.19146
-26.0128 129.639 3.12964
-24.3927 131.247 4.93058
-20.2533 138.202 6.31218
-20.2143 140.024 4.36496
-27.4325 126.614 4.01515
-25.5677 130.998 3.38042
-19.72 140.085 5.96389
-22.7382 134.37 5.90692
-29.9497 120.733 5.6543
-22.2539 135.36 6.00776
-23.5875 134.15 4.92511
-22.7359 135.823 5.25341
-25.1013 131.866 4.7815
