ply
format ascii 1.0
comment Created by Open3D
element vertex 1934
property double x
property double y
property double z
end_header
8.11363 83.1223 10.1069
-1.49269 86.9374 20.3524
-3.52162 103.5 -5.33535
-31.1215 126.03 3.69847
-30.8936 129.106 -2.13767
-23.8204 108.163 22.3935
-26.648 113.146 18.6068
-17.8732 101.816 23.2075
-25.4317 120.985 2.71003
-2.79935 102.942 -5.35876
-19.1318 102.863 23.7215
-25.7678 117.621 9.37664
-27.1994 125.936 -2.70274
-26.54 125.63 -3.31
-8.44041 108.253 -4.5787
-25.4761 125.36 -4.64756
-26.5908 114.358 16.7837
7.92531 89.309 0.205217
-9.04872 108.535 -3.73994
-26.4968 125.793 -3.3563
-23.394 107.999 22.6148
-15.0722 101.271 19.8271
-23.6764 121.17 -0.100857
-23.1497 107.808 22.627
3.65686 96.4411 -4.6669
7.15384 90.9622 -1.12367
-29.9161 125.707 2.99858
9.90794 80.5622 12.4157
-26.6465 120.253 6.94303
-25.8271 118.477 8.64702
-29.3975 126.47 0.906785
-9.73568 96.1895 19.7215
-8.7497 108.657 -3.99004
-28.0441 126.169 -0.826916
8.34003 83.3437 10.6159
-11.6256 99.3805 17.676
-32.7193 128.003 4.42267
9.117 82.1791 11.4819
-25.0122 125.398 -4.57442
-26.0853 125.832 -3.3965
-14.7464 101.513 19.5794
2.85764 98.0716 -5.42634
-24.6403 121.397 1.98912
-16.3383 102.216 21.2265
-24.3988 121.48 1.46919
-32.7476 128.141 4.47734
-3.63166 104.899 -5.90135
-26.5811 116.708 13.8087
-22.729 107.914 22.5605
8.99341 86.3167 4.66751
-11.1682 110.138 -1.76001
10.6468 77.01 18.2579
-25.2938 111.784 20.3953
-32.8105 127.81 5.35474
-30.5381 129.598 -1.76788
-21.326 120.521 -1.96341
3.98672 96.7049 -4.55778
-32.8609 128.208 4.99351
2.24374 99.2807 -5.85921
-32.4783 127.78 5.14219
-25.2331 125.673 -3.93876
-28.1108 126.663 -0.379557
-25.4951 112.558 19.9751
-32.1928 129.549 1.80086
-26.1341 113.73 19.0615
-25.2884 118.139 9.79636
-27.1508 121.82 6.66202
-32.6745 129.133 3.50091
-28.7015 127.064 0.279743
7.50429 91.5617 -0.939405
-20.9743 106.638 22.7726
10.5394 80.5222 13.2763
-26.4365 117.142 13.9334
-19.0012 104.393 23.3367
-7.81891 94.2619 21.4939
-25.4825 119.186 8.79086
-20.5312 106.262 22.9015
-2.30151 104.443 -6.10872
-18.8911 118.271 -1.15507
-9.39626 97.8917 18.1079
-32.7428 128.155 5.94204
-5.6801 107.321 -5.02558
-25.2155 126.284 -3.93578
-21.1435 121.252 -2.22434
-18.4439 117.892 -0.99548
6.34437 93.9585 -2.45134
10.6262 78.5995 17.1594
2.78052 99.4363 -5.65941
6.06415 94.5484 -2.82107
-25.7772 117.637 12.7057
-19.5917 105.553 23.1382
6.95047 80.4816 20.5478
-25.2578 119.033 9.34674
-26.6377 117.004 15.4301
-25.9681 114.453 18.8671
-8.53258 110.009 -4.09272
9.03161 84.3817 10.2315
-6.3085 93.4122 21.3959
-11.7014 101.073 17.4097
-11.967 112.059 -1.53327
-22.1807 121.495 -0.0258296
-10.2695 110.821 -1.98004
9.27063 79.4498 18.9369
-26.4077 115.738 17.9082
-30.2287 130.383 -1.18952
-18.9283 105.363 23.1283
-1.46941 89.6184 20.2534
-20.4497 107.688 22.1633
-22.4736 121.712 0.966359
-23.7106 123.488 0.0545248
-2.96312 91.5698 19.8048
-24.1647 126.21 -3.88764
10.5867 80.8633 14.8534
-18.7114 119.358 -1.35925
10.8503 81.147 14.0176
-31.9007 128.547 5.96282
-22.6392 122.034 1.12757
6.14834 83.047 19.193
9.55304 81.0873 16.6771
5.84454 83.3792 19.1828
-19.8667 120.855 -1.57652
2.58867 85.9248 20.5075
10.2369 81.5589 14.8181
-26.0266 118.237 14.1523
-25.7809 127.795 -3.12141
9.33778 81.5273 16.6068
9.92529 81.6886 15.3506
-21.8204 122.122 0.00972618
7.68959 81.7748 19.2559
9.35917 81.4453 16.9903
1.22366 102.756 -6.29287
1.93219 101.972 -6.15733
-7.25029 110.245 -4.5383
-25.9494 121.065 9.42951
-22.1202 121.975 1.06763
-26.033 121.23 9.35586
-17.2053 118.164 -0.815262
-25.326 120.318 9.75542
0.546617 88.1023 20.9748
-24.8164 123.911 2.51238
1.47631 87.1884 20.9572
-25.7161 124.665 2.80206
-1.21509 105.449 -6.45781
-20.5141 122.348 -2.20828
-22.5067 122.982 0.231899
-25.4245 126.334 -0.50838
-2.40866 91.8548 19.767
8.3172 92.4641 -0.205003
-23.3052 111.999 21.2455
-26.3183 118.036 16.0848
-25.2276 127.123 -1.90677
-25.7198 118.804 13.7196
-25.2938 124.586 2.80544
-31.9694 130.988 3.31319
-11.553 102.768 17.1219
3.86671 99.8942 -5.04324
-12.2801 113.849 -1.1516
0.745078 88.317 21.0209
-25.9516 127.064 -0.276194
-4.77896 108.846 -5.34679
-8.40563 111.443 -3.49835
-24.8175 114.755 19.6947
2.17837 87.1019 20.8612
-23.3941 126.517 -3.58395
-24.9472 124.877 2.06398
9.58911 81.2607 18.2293
-31.022 128.794 6.02674
-30.3701 131.929 -0.643788
-28.4476 131.042 -2.46933
-30.5627 128.196 6.36619
-19.0717 108.043 21.6797
-21.305 110.499 21.296
-4.43513 93.5982 21.3728
4.82665 85.2065 19.84
-31.7912 130.713 4.30668
-8.29098 111.705 -3.59414
9.64438 84.461 12.8852
-25.4267 116.451 18.5215
-28.2009 131.092 -2.44786
-25.4854 116.594 18.4076
-26.5167 123.736 7.62716
-30.679 128.517 6.60123
9.63559 89.2399 4.83633
-26.1493 124.046 6.57264
-0.310473 90.2036 20.7675
-25.2832 126.687 0.45157
-10.0063 102.173 16.7848
-15.0864 104.68 21.3741
-30.8089 129.433 5.52534
-18.8996 121.52 -1.51628
-31.5016 130.267 5.31701
-20.0741 109.929 21.0769
-30.8422 129.573 5.38866
-25.3089 116.584 18.5741
-24.3127 126.521 -0.721598
-11.9516 114.356 -1.05598
-22.853 124.088 1.02035
-23.7295 125.848 -0.538909
-14.9992 104.769 21.312
-18.8897 108.632 21.3847
9.36759 91.4388 1.82663
9.63288 89.2148 5.3284
-26.025 130.074 -3.85851
-23.799 127.555 -3.18587
-25.7414 122.406 9.3654
-0.652701 106.198 -6.2671
-26.2881 125.002 5.83617
-25.381 125.24 3.84619
-25.2853 119.576 13.7366
1.5748 88.5322 21.145
-24.8622 125.447 2.6642
-4.9813 110.053 -5.19269
-23.4903 124.887 1.30915
-31.3633 131.229 4.02364
-25.3145 117.109 18.3111
-20.4139 110.784 20.9145
-24.8552 129.721 -4.66382
4.53685 100.359 -4.70248
9.86532 89.9633 4.30072
-31.0296 132.959 0.623843
-23.3535 126.92 -2.1729
-9.63073 113.03 -1.87041
4.82329 86.2094 19.9994
-1.88233 107.84 -6.36759
1.16014 89.2229 21.1651
-25.0865 120.127 12.9513
-23.6649 126.434 -0.701357
-2.36176 108.37 -6.38625
2.51154 88.0201 20.9863
-25.3175 126.046 2.9724
-15.5905 105.652 21.8337
-6.84063 99.0079 18.1552
-14.3895 117.335 -0.891084
-24.082 125.909 1.11616
-25.9889 123.6 8.62357
3.2933 87.5192 20.7049
-21.4185 124.189 -0.420081
9.16851 83.0253 18.3114
-16.7206 106.838 22.032
-14.6077 105.257 21.0927
-22.6009 125.259 -0.0773769
-11.3744 104.261 17.2529
1.40136 104.563 -5.83702
7.30354 84.0206 20.0621
-23.5348 127.2 -1.73782
-29.8595 128.853 6.52183
-23.6344 126.646 -0.55804
-23.2302 126.701 -1.35829
-8.51829 101.789 16.6794
-23.7769 127.012 -0.932838
-23.6728 126.278 0.255375
-31.0493 131.983 3.25473
-21.4375 124.438 -0.368617
-23.3663 124.439 3.09707
-22.6778 124.844 1.16976
-18.2026 121.956 -1.49171
-26.4197 126.684 4.73656
10.4681 88.0712 7.87566
10.3232 86.4513 11.0116
-11.4429 104.644 17.3503
-21.7103 112.897 20.986
-2.64717 93.8331 20.9942
-10.7908 104.47 16.6355
-14.2604 117.833 -0.845055
-26.3106 125.098 7.62043
-22.0852 124.384 1.42436
-25.6312 123.667 9.03241
-27.7818 128.082 5.04313
5.86341 99.5109 -3.91203
-17.5043 108.781 21.04
-23.4038 126.224 0.637229
-7.9499 113.058 -3.36513
-29.4205 129.452 5.62738
-26.9309 126.453 6.58544
8.78984 83.9831 18.5557
-11.9651 115.82 -1.02435
4.25481 101.8 -4.85555
-19.9784 124.61 -2.32239
0.225733 91.3612 20.7671
-17.765 121.965 -1.47564
-25.0758 130.442 -3.52965
-24.0687 125.998 2.57793
-24.6638 126.409 2.9709
-23.7492 129.805 -4.58864
-27.968 128.003 6.16146
-5.73188 98.1037 19.737
-28.1963 132.496 -1.34644
-7.82684 113.327 -3.46504
8.84758 84.1381 18.6596
9.76678 92.4921 2.28035
-23.6043 128.921 -3.04975
-25.9511 124.501 9.01566
3.37828 88.501 20.8143
-12.1692 116.381 -0.955467
2.37789 89.273 21.2916
9.51867 93.4165 1.35032
-29.1586 129.15 6.5747
-25.8786 126.141 6.13185
-25.1568 127.019 3.33826
-16.3501 120.532 -0.75719
-25.6355 126.336 5.40301
-25.0059 126.225 4.55788
-0.261559 107.345 -5.78284
-25.2502 122.639 11.404
4.93734 87.4833 20.1909
-5.43915 97.3426 21.1554
-24.8537 126.243 4.39721
-27.9263 128.095 6.57038
-6.88486 113.373 -4.57755
-22.4641 126.764 -0.666192
-3.13608 94.8291 21.6735
-22.251 126.38 -0.251998
-22.4991 127.877 -2.43888
-27.022 127.052 7.02528
11.1593 84.1391 15.4007
-22.3226 126.649 -0.496412
-30.1374 132.579 2.9324
-28.0745 128.788 6.00309
-24.1492 126.317 3.43236
-17.0349 109.543 20.6322
-25.8533 125.46 8.10409
-6.03219 100.194 17.7307
-24.3548 121.367 12.7343
-27.9254 127.893 7.52579
9.50541 84.7729 17.5971
-17.8731 123.036 -1.62724
-9.86574 114.808 -1.21237
-24.5506 118.247 18.6721
10.7064 87.5125 10.6799
-26.5254 128.564 3.95541
-22.4526 125.936 1.48499
-22.9435 126.115 2.07159
-22.144 114.862 20.6432
-1.9859 109.727 -5.83482
-5.81026 113.266 -5.30098
-15.1758 119.906 -0.479096
-25.0536 119.373 17.9755
-29.7039 132.158 3.6563
2.374 105.419 -5.77022
-29.8156 132.72 2.87307
2.6371 89.8344 21.3514
-24.928 119.262 18.1001
10.3998 86.2367 14.0345
-23.9673 117.763 19.0721
8.99794 84.609 19.4149
-21.1759 126.486 -1.24003
-4.06392 96.252 21.9996
9.88922 93.1728 2.80933
-25.4241 123.479 11.6708
-21.8898 126.001 1.01496
-27.222 133.039 -1.98587
-20.6242 125.945 -0.947685
-6.40583 101.8 16.6022
5.93659 100.976 -3.75704
-25.1094 127.806 3.69728
-22.1473 127.672 -1.28518
-24.5453 127.974 2.43496
10.338 90.9536 6.24555
-28.4006 129.027 7.51389
5.1976 88.2443 20.2377
-24.3846 118.878 18.3923
2.7655 105.465 -5.80609
-18.7643 125.074 -2.35144
-7.78677 114.349 -2.75176
3.23394 89.8187 21.1695
-28.1487 130.365 4.9873
-11.8806 117.377 -0.751564
-0.41691 108.638 -5.48235
-11.0242 116.614 -0.798031
-4.76973 97.9942 21.114
-25.5673 124.538 10.9859
-5.61552 100.973 17.399
0.260493 107.965 -5.33341
-20.2719 126.381 -1.47974
-28.1209 129.11 7.6759
-25.9992 127.264 7.20823
-3.08768 95.8872 22.1802
-28.9491 130.467 6.85788
-19.9875 126.395 -1.78375
1.30158 107.239 -5.55325
-29.8711 134.586 1.24263
-25.8948 128.88 4.33898
-4.66271 98.6391 20.271
-7.65552 114.713 -2.84318
-25.2865 126.285 7.90347
-28.0851 129.48 7.33718
-3.85616 97.0933 21.7652
-21.4358 126.801 0.472079
-23.1165 117.911 19.2679
-15.9488 109.987 20.6071
-2.01931 110.898 -5.59634
-2.0622 95.5311 21.6503
10.9731 90.2318 7.99991
11.1129 89.5916 8.96781
-25.854 127.904 6.6218
-26.7595 128.834 6.58783
-7.69861 104.397 16.1734
-25.5025 125.039 11.1579
-25.8319 128.036 6.45086
-16.401 110.636 20.5451
-27.9308 134.654 -1.51233
-25.4919 125.058 11.1949
-23.509 118.958 18.5241
-25.8393 133.394 -2.71054
-6.64265 103.646 15.9497
-16.1408 122.748 -0.994931
-1.56864 95.4997 21.4172
-20.8846 127.712 -1.37177
10.2342 94.3026 2.79763
-20.0954 126.218 0.0049335
7.68225 86.7946 20.6795
-7.57204 115.312 -2.726
-26.2327 127.862 8.16601
-21.915 127.552 1.13551
9.08014 85.9421 19.8999
-20.1856 127.224 -1.33185
-13.3498 119.857 -0.157499
-26.5669 130.304 4.75434
0.580237 108.828 -5.2466
8.4482 98.6462 -1.15043
-26.5105 130.147 4.96928
-22.4618 117.946 19.448
-17.0659 124.526 -1.6808
-19.1887 126.33 -1.11406
-2.08422 111.703 -5.46972
-6.81849 104.397 15.886
-14.695 109.697 20.4651
-24.6509 121.817 16.7231
-24.6087 121.5 17.2317
-27.6937 129.906 7.82738
-24.4021 132.776 -3.06172
-12.7508 119.572 -0.278807
-16.5366 111.653 20.4333
-20.0111 115.159 20.4405
10.052 86.3761 18.3391
-29.4331 136.083 0.286341
-24.7516 122.756 15.6205
-23.8498 120.649 17.8364
0.85504 109.074 -5.31608
-5.22179 103.081 16.0214
-19.9626 127.306 -0.715405
-14.1723 121.166 -0.0539124
10.2413 86.5872 17.9326
-5.26057 103.259 15.9233
-15.6141 123.037 -0.693884
10.4038 95.6354 1.76861
-18.5881 126.883 -2.20374
-7.58335 105.995 15.3141
-4.55497 101.881 17.2444
2.13997 108.17 -5.70307
3.17656 106.976 -5.42352
8.12264 100.233 -2.11683
-11.3112 118.722 -0.419614
-16.1904 111.841 20.4268
-29.3096 136.391 0.272071
2.24519 108.244 -5.7289
11.4505 87.6397 14.569
-18.574 126.751 -1.4685
9.86752 86.6754 19.1236
-27.9164 133.05 3.96376
11.3619 91.3682 8.2493
-10.8781 108.047 18.0956
-24.4709 124.45 13.1305
-21.3135 128.557 0.312117
-27.7285 130.927 7.47083
-9.52597 117.366 -0.73059
-3.76081 114.346 -5.56331
7.37971 101.762 -3.00051
-12.766 108.846 20.0955
-21.3905 128.822 0.107439
4.78543 105.015 -4.00589
-14.4073 110.476 20.3163
-24.7554 128.07 7.52215
-4.8112 103.31 16.0758
-26.1794 135.015 -2.07793
-20.073 116.592 19.7384
-21.7669 130.177 -1.18485
-24.3498 124.416 13.5993
-16.3387 112.636 20.3214
-28.0666 136.293 -0.713965
-23.5842 127.34 7.19427
2.04253 93.8621 21.3179
-27.9146 134.761 1.98899
10.6203 96.3971 1.70247
-7.94695 116.69 -1.29779
-19.3505 128.074 -1.21039
10.5762 87.3787 17.841
0.874611 110.188 -5.20459
-16.0619 112.746 20.3212
10.2735 87.3977 18.6064
7.69874 102.165 -2.94734
-19.1848 128.121 -1.2705
-22.0041 129.682 0.970911
-21.2904 129.77 -0.432368
4.46904 106.167 -4.17426
-27.4906 132.326 6.17994
-27.4623 132.318 6.21406
-21.7792 119.595 18.781
-3.06391 99.6032 21.0437
-24.0142 122.946 16.9901
-18.7718 127.925 -0.995673
-14.9265 112.183 20.0866
-28.4352 137.03 0.0459589
-19.1871 128.968 -2.02093
-27.2311 134.317 2.76153
-24.4363 127.254 10.4437
-22.2994 130.655 0.698291
-16.9638 126.763 -1.85103
11.4119 89.8589 13.2263
10.4149 98.0135 0.618415
-15.0693 112.501 20.1377
10.7468 97.485 1.20502
-21.4075 129.845 0.869774
5.98082 104.926 -3.46686
-8.01506 108.389 15.17
-24.3552 127.889 9.64386
0.61307 111.165 -4.91317
1.53861 95.332 21.4673
-17.926 115.605 20.0394
10.9672 96.5079 2.78844
-12.6355 121.6 0.157318
2.91514 93.9177 21.6357
6.51783 104.472 -3.37243
-16.4071 126.24 -1.31243
-20.2897 130.121 -1.29202
-7.94483 117.681 -1.09411
2.1407 94.8158 21.5177
-15.1965 112.922 20.1735
10.4899 88.2736 18.3601
-19.9491 129.681 -1.00584
1.89975 95.1226 21.5187
-0.342779 112.346 -4.92525
11.2381 95.6475 4.2052
11.8014 89.4923 14.1182
-1.67354 113.996 -5.37465
-2.79987 115.261 -5.61138
-24.703 128.946 8.9206
-14.8533 112.86 20.001
-22.8274 122.039 17.8872
10.8791 97.4538 1.78961
-2.564 99.9505 21.1556
-21.7311 130.648 0.870784
-24.0847 128.54 8.77761
7.86692 89.7266 20.9176
-12.2196 121.599 0.173787
5.6824 91.8243 21.246
-13.8098 112.291 19.5297
-21.4248 130.924 0.143088
6.93209 104.472 -3.22407
9.61407 88.949 19.549
-1.29886 98.42 22.1435
-20.5254 119.299 19.223
-26.5625 136.843 -1.05727
10.2408 99.5127 -0.111515
-8.39245 109.077 15.9843
9.14066 89.3103 19.9576
3.77318 108.903 -5.11195
11.0824 89.178 16.8803
-3.7453 104.609 15.8218
-21.5036 120.926 18.3702
-20.1984 119.163 19.2206
-18.3172 129.459 -2.28815
-24.7103 129.467 9.05185
-11.1626 110.533 18.693
-2.68354 102.358 18.2189
-6.11109 117.972 -3.30341
-11.238 121.17 0.114458
11.4341 95.8688 4.7655
-20.4233 119.62 19.1333
-3.89487 105.257 15.371
-13.5594 123.592 0.0904983
12.163 91.9228 10.6539
-17.4381 128.241 -1.16903
-15.8217 114.612 20.1437
-9.90519 109.819 18.258
-17.8656 129.491 -2.38822
-22.4471 122.665 17.8053
-19.8902 131.254 -1.81394
-26.029 132.158 7.47018
8.3963 90.3073 20.6099
-23.9037 125.533 15.5051
-16.222 115.268 20.106
-7.9066 118.876 -0.938634
-22.0368 122.32 17.955
-0.384167 113.564 -4.80127
2.56247 95.5973 21.7944
-21.0371 133.237 -3.00239
-10.8567 121.329 0.0754519
5.16077 107.763 -4.23642
-3.32144 117.072 -5.63342
-7.06629 118.617 -1.71367
11.556 96.2139 4.99022
8.59956 103.423 -2.52549
-17.6319 117.308 19.3955
-22.6375 135.453 -3.82759
-1.12405 99.5105 21.6855
-27.2205 137.884 -0.0130064
-23.6356 136.158 -3.25377
3.54984 110.175 -5.34856
-25.8968 132.806 6.70584
-14.0984 113.613 19.7948
-26.0517 133.383 6.00809
-4.8829 118.377 -4.82782
-16.1385 127.858 -1.67007
2.28639 111.601 -5.48459
-23.7411 126.819 13.6272
11.8245 95.0042 7.02022
4.56525 108.857 -4.5849
-12.8145 112.753 19.2823
9.16574 90.4199 19.949
0.980414 97.4254 22.0549
-15.1102 114.712 19.9997
-23.9123 129.096 10.2893
-17.4096 117.536 19.3505
-3.21048 117.495 -5.63966
-9.75643 110.628 18.0948
-16.8948 129.241 -2.16937
0.0758045 113.865 -4.90119
-18.0694 130.351 -1.95081
11.982 90.4485 15.5192
-20.8412 133.578 -2.64658
-15.6724 128.127 -2.10311
11.6875 96.6328 5.21383
-18.8276 119.355 19.0215
-23.4743 126.193 15.1579
-7.13202 119.19 -1.33239
10.118 90.6325 18.7153
-24.4382 137.377 -2.77271
-15.617 128.565 -2.7705
-20.7207 131.734 0.681334
-9.28001 120.913 -0.413665
-4.43577 107.932 14.0694
8.88568 103.925 -2.36472
-7.45583 110.551 14.8147
-19.9801 120.955 18.5943
10.6229 99.6481 2.18853
-17.2894 117.926 19.2448
-22.8852 129.121 9.36554
1.76811 97.5628 21.6207
-19.5518 131.055 0.174056
-24.3403 130.839 9.0452
-25.1824 133.225 6.5873
-7.56732 119.917 -1.02256
-4.08988 107.923 14.0586
-1.06285 100.808 21.3169
-4.87909 108.9 13.7644
-13.4996 125.434 -0.195484
0.569363 99.2948 21.1626
-23.9547 131.329 7.90712
-10.7504 122.481 0.211796
9.49633 91.3195 19.5956
-18.3941 119.616 18.9087
-2.34413 105.298 16.1026
-0.245158 115.252 -5.16365
-27.0264 139.117 0.0163841
-4.15937 108.405 13.897
5.4297 94.6073 21.3447
-14.4562 115.412 19.7314
-0.0653186 100.197 21.2193
-1.45542 103.135 18.5428
12.5449 93.3768 11.1587
-1.00832 101.406 20.9426
-15.6286 129.787 -3.24188
-4.60179 109.208 13.6509
-18.6375 131.491 -0.880384
-23.3494 128.493 12.8165
9.08951 92.0069 20.0096
-6.5494 119.906 -1.61065
-21.6851 128.922 9.26241
-7.52038 111.435 15.151
10.4066 91.8569 18.075
-21.7969 129.34 8.76197
-23.428 128.964 12.3138
-16.4792 130.081 -1.83984
-16.0311 129.695 -1.83737
-4.40776 119.68 -4.56339
12.1615 96.7258 6.74871
-26.6774 137.709 3.01208
6.0541 94.728 21.1344
-26.7944 139.663 -0.199146
-1.32811 104.355 17.25
5.06993 95.7455 21.1678
-0.949269 102.341 20.2009
-23.1007 128.401 13.3403
-3.51584 108.485 13.9389
-2.85859 118.822 -5.49106
-1.80387 117.554 -5.11148
-26.8742 139.705 0.0515466
-0.615443 101.742 20.7885
0.174205 100.7 21.2394
-17.21 131.209 -1.90485
10.781 101.919 0.396011
11.3327 98.9702 4.75017
-3.29935 119.366 -5.43677
10.7574 100.292 3.43253
-23.0696 129.653 11.3311
-23.0308 131.511 8.02586
10.4525 92.3423 18.0833
12.4757 94.975 9.85347
-21.2667 129.417 8.63598
-23.2177 128.937 12.936
12.7321 93.1437 12.9337
-19.6963 132.611 0.600829
-0.799764 102.903 19.7232
-9.5259 112.636 17.9555
-0.8201 103.353 19.0058
1.76948 114.561 -5.32309
10.6949 103.077 -0.72128
11.3992 99.0035 5.2513
10.8911 92.7181 17.3251
11.5452 98.6455 5.69098
5.19448 96.5112 20.8156
-20.2638 124.48 16.4021
7.07487 94.5429 20.9978
-0.81271 104.374 17.612
6.53451 95.1991 20.904
-22.855 129.658 11.9492
-11.939 114.744 19.0708
-23.1181 129.388 12.9896
-21.3301 130.441 8.01819
-19.3416 132.892 0.2001
-11.3146 114.355 18.8329
5.40785 96.5906 20.7389
3.76043 113.16 -5.55014
-20.7932 125.467 16.1175
-0.55456 104.109 18.1465
-5.87438 112.069 13.484
-22.5817 128.197 14.5727
8.25591 107.046 -2.54035
-9.02567 113.044 17.4725
-22.3803 127.494 15.5583
12.7306 93.9936 12.7226
-0.464953 103.765 18.7951
12.7879 94.1031 12.4533
-4.08219 110.551 13.2019
-0.315151 117.454 -5.48199
-0.356042 103.555 19.2586
12.5846 96.5875 8.72573
-7.73619 112.789 16.0305
-1.72471 107.23 15.2886
-19.7612 135.69 -3.12698
-16.0407 131.044 -1.42326
-19.7953 133.771 0.414693
-20.276 129.438 8.94218
-21.1584 136.934 -2.74094
-18.9351 123.515 17.0547
0.266537 102.307 20.6239
7.31521 109.229 -4.06071
-2.27741 108.31 14.54
-12.0333 126.496 -0.285345
-19.7179 133.823 0.369119
8.0381 108.022 -3.05676
-20.1476 129.214 9.33406
0.802774 116.656 -5.38181
-21.2023 131.135 7.97513
-5.67186 112.614 13.3578
-11.4764 126.028 -0.0636442
-8.28496 122.905 -0.137441
-0.805095 106.411 16.0138
-22.3467 129.539 13.2474
0.645489 102.254 20.8359
-7.19921 122.243 -0.619221
2.80923 99.8717 21.2862
0.0974441 103.366 19.9159
-11.3258 126.066 -0.00920861
-15.6073 131.329 -1.68257
2.83719 99.8978 21.2869
-14.4753 118.781 18.5338
-23.0656 135.222 4.67944
-5.82331 121.629 -1.77034
12.7111 94.7679 13.0958
-7.13874 113.463 15.1443
-9.46379 114.289 17.8393
-6.10566 113.352 13.6222
0.096948 104.65 18.0957
-18.8245 133.678 0.276246
-4.3923 112.176 12.7768
11.0922 103.93 0.0590381
9.18091 107.068 -2.09742
-25.888 139.094 3.28702
-15.4251 120.094 18.4235
-16.897 122.114 17.4773
-20.5682 129.179 11.5381
-17.8839 133.305 -0.467482
12.7897 96.932 9.61158
2.72682 100.393 21.3392
-22.0552 128.406 15.741
4.71394 98.949 20.739
-10.0367 125.105 0.63015
-12.3981 117.134 18.9146
-20.7157 127.304 15.7086
-16.7841 122.554 17.187
-20.9876 132.032 7.9014
4.56843 113.933 -5.26505
-18.7168 134.052 0.449444
0.703038 103.417 20.3409
6.0667 98.1965 20.26
-18.3702 124.914 16.2363
12.9769 96.6566 10.8246
-17.9846 124.559 16.4987
-19.7501 136.692 -1.82537
5.15382 113.504 -4.85382
-21.2125 138.133 -1.73181
-0.0447292 107.086 15.9386
-19.5669 126.955 15.3692
-21.8253 134.636 5.7959
11.0487 102.716 4.18674
-11.4995 117.06 18.7206
-4.53948 113.588 12.584
8.7299 109.437 -3.50435
-13.4236 131.67 -3.59705
-2.75285 121.795 -4.98605
-11.3768 117.076 18.6856
11.1336 105.786 -1.03324
-18.1622 134.332 0.355441
-20.9303 133.993 6.02794
11.1539 102.405 5.20322
-20.477 130.07 12.3788
10.6908 106.805 -1.52751
-11.787 117.922 18.5819
12.5262 95.8899 14.6925
-19.3788 127.55 15.2197
-17.8332 134.457 0.297992
3.59305 101.381 20.9228
-23.444 140.667 -0.725434
-21.2216 138.698 -1.16725
-17.3026 134.189 -0.0674477
-22.2701 135.905 5.68226
11.4965 102.027 5.88461
-3.81049 113.703 12.3288
-17.8425 134.529 0.336237
0.945177 106.247 17.1739
1.86421 103.37 20.6496
12.8324 96.5366 13.3475
-24.8926 139.489 4.16845
-0.0814424 108.486 15.1483
-25.4434 141.997 0.753115
-20.896 129.249 15.2539
-17.3055 125.515 15.6756
-21.5162 139.348 -1.20698
-14.677 133.002 -2.05706
-25.5001 141.048 2.91299
-3.43292 113.705 12.2809
-17.2325 125.74 15.4814
-20.1896 130.743 11.9025
-20.1462 133.909 6.24067
-7.85216 115.84 16.5429
-18.203 135.129 0.754008
-12.6846 119.75 18.2225
11.2543 103.693 4.31727
-18.4872 127.431 14.9515
8.6292 97.4239 20.0968
-21.7152 135.68 6.1162
11.6926 102.23 6.2411
-11.8055 131.119 -3.26684
-14.2236 121.668 17.7911
-7.44964 115.834 16.2062
5.26211 100.534 20.8098
0.953392 107.543 16.1055
-21.0708 139.387 -0.972979
10.7841 108.016 -1.82471
13.0684 98.0782 11.7185
7.46102 98.7518 20.4717
-5.90495 115.95 13.7298
-19.1676 131.993 8.86777
7.20977 112.654 -3.57047
-19.5821 133.521 6.91194
11.4543 103.192 5.71081
13.0205 98.838 10.6899
-0.189457 109.946 14.4639
-10.9779 129.499 -0.979354
-0.276549 121.006 -4.84536
8.57663 98.2023 19.8711
-7.34524 125.314 0.118451
-8.37443 116.912 16.9131
-0.924908 121.93 -5.02689
4.55759 116.29 -4.73975
-2.4228 113.746 12.1376
11.5362 106.916 -0.462896
-18.0852 136.205 0.127879
-7.11047 116.33 15.9114
-11.455 131.432 -3.10385
-5.75903 116.43 13.6436
-18.4003 130.793 10.615
-12.6939 120.991 17.9438
-15.6127 124.992 16.1154
11.292 104.266 5.21077
-11.525 132.024 -3.4927
10.0824 97.789 18.8422
-18.9891 129.497 14.5144
-10.5715 130.123 -1.43515
-24.4498 142.87 0.613548
-21.3327 140.744 -1.10609
-15.2409 134.706 -1.15441
-10.7451 119.421 17.9649
-24.8556 142.454 2.19342
-5.91171 116.806 14.0528
-24.0814 142.995 -0.0861554
-0.192335 121.709 -4.63589
1.69065 119.394 -3.86982
-14.6142 134.305 -1.40298
-22.2354 137.702 6.06748
-10.9057 119.647 17.9742
12.5783 98.1724 14.4245
-14.9557 134.607 -1.30406
-19.3701 134.589 6.57252
-18.5114 137.56 -0.166219
-12.8088 133.43 -2.88797
5.61723 101.826 20.4316
-18.4034 133.501 7.17566
4.75587 103.012 20.2735
10.7082 98.3992 17.9705
-17.5266 137.148 -0.568738
-0.896232 122.998 -4.92318
12.691 98.8808 13.711
-10.6405 131.356 -2.28767
-12.9916 122.569 17.4305
6.36984 101.646 20.3813
2.57399 119.215 -3.93639
-5.92815 125.768 -0.412652
-23.0043 142.934 -0.567128
5.53712 116.353 -4.00739
-17.0591 137.191 -0.870706
3.05424 118.973 -4.12513
-9.07205 128.529 0.487984
-19.0398 132.568 10.9835
-17.0026 137.421 -1.18386
12.6445 102.416 8.29828
-11.4332 133.457 -3.99994
6.59612 101.702 20.3384
-12.3641 133.982 -3.15014
-7.44623 127.028 0.463384
-0.808625 123.388 -4.79865
-22.3866 142.905 -1.00301
-18.3435 131.421 12.2318
12.0299 99.035 15.7945
-23.6056 143.516 0.193746
13.134 100.87 10.6729
12.5644 99.8798 13.5872
12.5074 99.9162 13.699
-13.7816 125.259 15.5215
12.1299 104.288 6.9725
-17.9573 138.902 -0.906945
-7.78848 127.892 0.596813
-5.08273 126.096 -1.00372
10.6329 99.4179 18.3938
7.01117 115.284 -3.15735
-17.2704 133.719 7.26932
-1.95011 125.148 -4.63287
7.90145 114.69 -3.49812
-8.68638 129.2 0.228309
1.52382 110.796 14.7938
12.5538 100.539 13.443
12.4903 100.632 13.5601
-17.7942 139.069 -0.817062
-16.2443 138.335 -2.20195
-7.39452 119.072 16.208
12.324 100.67 13.9126
-18.0717 133.521 9.64618
11.5456 109.409 0.0411755
11.6608 110.247 -1.60533
-19.3713 136.621 6.63461
8.16212 115.036 -3.81052
12.9662 101.688 11.327
11.8228 100.377 15.6987
2.39383 120.695 -3.50407
10.9825 99.8922 18.1086
-14.096 126.885 14.8009
11.3041 110.897 -1.75715
-23.331 144.031 0.942945
-16.4334 138.895 -2.13777
1.71548 111.429 14.601
1.23713 122.334 -3.72558
-16.1588 138.137 -0.865533
-17.3935 133.341 9.81402
10.9939 111.749 -2.19762
8.79145 114.59 -3.32485
-4.18511 126.726 -1.79295
7.28021 116.078 -3.23417
11.6912 110.702 -1.5001
-19.5857 137.455 6.53463
12.704 101.772 12.617
4.06691 119.758 -3.83094
-3.82129 118.944 11.7775
-6.64598 128.209 0.3988
4.61025 105.88 20.0047
-4.82128 119.281 13.0243
9.90884 101.403 18.5967
0.653566 123.462 -4.01288
-16.6961 132.168 11.3232
11.7855 110.301 -0.204893
7.36788 116.505 -3.32373
-9.19162 121.625 17.0898
-6.05176 119.726 15.0317
-22.6869 142.459 4.26116
-3.8226 127.209 -2.12804
-3.87252 119.367 11.9284
-13.4579 137.625 -3.35059
-8.60469 131.158 -0.435717
12.325 108.251 3.12506
-9.97774 134.038 -3.02374
-0.727738 116.745 11.2441
8.22282 116.475 -3.94211
13.288 103.379 10.2746
0.552701 124.218 -4.00635
-18.1744 140.881 -0.341871
-1.34605 117.65 11.0004
12.3995 108.311 3.22471
-19.6682 142.609 -0.570577
8.05036 103.338 19.8675
-9.55826 133.628 -2.51803
5.80663 119.115 -3.99539
-15.8007 139.746 -2.20184
12.131 106.665 6.91966
-1.42756 126.676 -4.48441
-0.296022 116.697 11.2531
12.3261 107.498 5.20882
-10.8732 124.705 15.851
-19.3737 142.443 -0.458958
4.1361 120.652 -3.46838
-4.5647 127.924 -0.899674
-8.65569 131.837 -0.585454
-16.2978 134.693 7.89794
-8.97173 122.286 16.9112
0.802212 124.263 -3.82345
0.710213 115.328 12.2063
2.87696 111.57 15.0961
-17.9501 137.47 6.24412
-8.88197 122.399 16.8631
-16.0344 139.379 -0.445066
-21.5038 141.365 5.71836
-15.7507 135.461 6.04358
-14.2201 128.998 14.8735
-2.36251 119.426 10.9235
4.17032 109.156 17.6306
10.6764 114.597 -3.36696
-19.0154 142.715 -0.478013
10.0996 115.224 -3.32676
12.4751 107.405 6.36177
-16.8211 140.44 -0.218408
2.63045 122.758 -3.33353
0.932781 115.73 12.1196
-7.88729 122.116 16.4617
-1.98064 127.758 -3.90242
-18.5378 142.167 -0.0283754
11.4957 113.661 -2.69963
-1.03216 118.618 10.7111
-15.8385 135.32 7.38204
3.40622 122.196 -3.35429
-0.284308 126.336 -4.1383
-15.3144 131.961 12.5191
12.3659 102.51 15.6742
4.49528 109.21 17.8577
-22.5051 145.337 1.74346
7.38199 105.289 19.7978
12.782 108.305 4.93245
3.03446 112.671 14.6275
0.902711 116.422 11.7739
12.8899 105.128 10.5789
-14.9365 131.265 13.5937
-0.270392 118.183 10.8557
-15.0084 131.629 13.3169
5.03764 121.527 -4.25064
-2.55256 120.653 10.878
7.09161 119.754 -4.57993
-11.6067 127.536 14.7316
-16.6707 140.876 0.104774
12.5956 106.901 8.47952
5.21685 108.665 18.5024
9.71425 117.682 -5.26987
-9.1423 124.61 15.8743
12.8907 103.828 13.7307
9.36184 117.983 -5.02653
1.07675 116.867 11.5962
-22.1659 145.636 1.82805
11.2235 113.41 -0.195928
-6.12819 130.431 0.402448
-14.4637 131.061 14.1681
-17.3114 138.315 6.45764
8.24663 119.436 -5.31471
10.3398 104.342 18.0813
-21.5078 143.666 4.91833
-15.6105 134.715 10.3212
0.80803 117.957 10.9321
11.6384 112.416 1.58291
4.75417 110.165 17.9307
7.20555 121.201 -5.67952
2.64873 115.184 13.1278
-8.55665 135.387 -2.6373
13.1233 104.463 13.8243
-6.55697 123.26 15.4128
-15.283 136.028 8.29649
-16.2888 138.941 4.95218
10.7909 105.034 17.146
5.67816 109.224 18.7954
-13.4268 130.786 14.5421
-15.3955 135.987 8.87119
-15.4235 134.982 10.7267
-6.5169 123.461 15.3614
4.36935 123.789 -4.44964
-14.4999 135.963 7.44183
-14.0863 135.79 7.02008
-18.2363 140.355 6.38876
12.9369 106.911 10.4043
-21.5477 144.892 4.22513
-15.1523 134.292 11.6748
-7.08983 132.868 0.0143133
12.1142 104.939 15.4518
8.95989 119.866 -5.27781
3.26015 124.67 -3.44004
5.30878 110.319 18.3159
-19.1271 145.615 -0.872061
-0.358971 128.626 -3.9885
-13.2733 140.908 -2.87011
-17.8946 144.364 -0.796451
-14.6528 133.478 12.7492
-21.3402 144.895 4.4051
-15.6114 141.81 -0.266725
13.0191 106.66 11.3732
-15.0946 142.579 -2.33799
-4.07496 122.863 13.185
6.35624 108.92 19.3955
6.77522 108.38 19.6496
-21.1734 146.673 1.39625
-17.466 144.044 -0.482878
12.8965 111.503 3.39521
4.23188 124.601 -4.38007
8.2463 107.45 18.8543
11.2924 113.439 2.90116
-4.18594 123.053 13.2909
-7.89662 125.371 15.7767
-15.6998 142.272 -0.177001
-2.26378 122.748 10.6208
1.03226 127.507 -3.35869
4.34382 124.999 -4.50701
5.19025 111.65 17.6029
11.0491 106.494 16.4439
12.9244 105.746 14.47
-14.407 138.651 4.72441
10.3661 119.211 -4.63666
10.546 118.047 -2.86643
10.296 115.459 2.19133
4.56541 113.891 15.1741
12.5565 112.205 4.08339
-11.4063 140.588 -3.73007
1.99917 126.796 -3.03565
-11.5175 131.086 13.3884
-12.0808 141.152 -3.25133
2.18077 118.785 11.1178
13.1338 111.45 4.74585
-19.0015 142.902 5.9585
3.25786 116.929 12.5744
-10.6786 140.208 -3.87615
-18.6115 146.361 -0.672911
-17.6709 142.105 5.18629
12.0145 112.997 4.18137
-8.36492 127.455 14.6629
-5.89945 133.127 0.358481
10.7019 107.124 16.9972
10.1074 117.001 0.604647
-13.5968 138.001 5.44541
-17.2819 142.06 4.81795
-6.63893 134.26 -0.190437
-13.0018 136.261 7.56487
-20.3839 145.097 5.08251
-12.3848 132.885 12.5711
-8.38139 137.96 -3.47295
10.4542 117.634 -0.790103
5.30941 125.298 -5.17302
11.7721 113.415 4.46541
-20.5057 145.668 4.51168
11.9139 113.21 4.63411
-4.64589 132.39 0.0725011
-1.67141 123.696 10.2113
10.6013 117.902 -1.23213
-2.48434 131.491 -2.11888
11.9681 113.149 4.8518
-11.5283 141.318 -3.40051
13.0357 111.68 5.62482
-13.6873 134.996 11.6584
-16.6311 142.118 4.33634
-15.2077 140.809 4.15582
-5.80335 133.612 0.31144
13.8513 110.437 6.54161
-13.5346 134.939 11.6485
8.54066 108.846 18.7601
-12.776 136.679 7.24276
3.47082 117.566 12.3573
-18.8326 143.834 5.52371
-2.38557 124.191 11.1938
12.1051 112.996 5.40778
-19.3585 147.558 -0.0564058
-13.1032 138.244 5.41815
8.91803 108.86 18.4372
-13.1875 143.25 -3.24395
13.8992 110.459 6.85116
-8.6761 138.901 -3.48216
-2.71694 124.376 11.6982
4.05553 126.664 -4.28811
-9.75542 130.798 12.8299
-10.2075 131.481 12.5458
-7.3319 127.329 14.8798
5.22963 126.12 -5.18167
0.742291 129.701 -3.50297
-8.04802 128.402 14.3488
-3.07159 132.199 -1.14827
-5.87009 134.297 0.106949
-13.6912 136.136 10.7603
-11.1459 132.802 12.1589
-4.83069 133.333 0.115112
-1.60215 131.742 -2.71686
-6.60323 135.536 -0.541831
-7.1189 136.415 -1.17131
-16.133 144.751 0.167806
-3.30714 132.488 -0.739017
9.69382 122.141 -5.42843
-8.37463 129.366 13.8081
13.8906 110.072 8.55869
-20.0348 147.699 2.07935
-7.42217 137.233 -1.68581
13.625 108.815 11.3604
-12.1204 137.102 6.95632
11.6763 120.733 -6.11646
10.8431 116.845 2.26097
9.19148 123.177 -6.00026
-15.4215 142.301 3.74877
11.0218 114.761 5.77239
11.2825 120.964 -5.59724
8.64072 123.893 -6.06555
5.60698 114.462 16.0114
3.13287 119.72 11.1096
13.8238 110.613 8.37612
-15.2736 145.002 -0.854322
12.2153 108.556 15.0215
12.1035 120.413 -5.73429
0.82213 123.079 9.51905
4.832 116.348 14.3688
13.8011 109.593 10.5501
-11.5627 136.838 7.22548
12.203 120.335 -5.61047
-18.542 147.908 0.0115396
-5.43075 134.728 0.170393
-13.6178 140.862 3.86146
-13.6723 140.969 3.8585
-9.2679 141.032 -4.01454
-17.0951 144.07 4.50363
-12.8228 144.225 -3.28172
-17.2398 144.219 4.6051
11.7397 115.528 4.10098
-4.62223 134.107 0.185488
-15.9309 145.398 0.236721
11.8887 113.581 7.31619
10.2075 119.407 0.0229305
-17.1212 144.237 4.57606
13.036 119.753 -5.43985
6.53466 126.448 -5.75815
11.0247 121.056 -4.05912
9.70289 110.357 17.3184
-12.4812 144.229 -3.33116
2.5227 121.641 10.1113
-16.3182 143.927 4.04373
-7.75355 129.896 13.7884
-12.1634 140.009 3.88203
11.8196 120.704 -4.28252
11.7646 114.193 7.34676
-5.072 135.121 0.211338
13.2973 118.568 -2.77414
12.0193 120.763 -4.39377
-0.992627 132.788 -2.53071
-7.98375 130.933 13.2398
-10.7367 137.375 6.73674
-15.1704 143.671 3.45199
-9.43195 142.197 -4.06025
-17.8562 148.256 0.198053
-0.670068 125.874 9.52616
-4.73891 127.72 13.535
-15.8524 144.296 3.87941
8.20585 125.93 -6.16159
-15.7912 146.366 0.192422
7.59095 126.532 -6.03509
14.1746 109.906 11.7754
7.70262 112.734 18.2851
-2.60091 126.648 11.9336
-10.4065 143.336 -3.71482
3.80893 129.502 -4.38195
12.2793 114.2 7.71185
5.65512 116.481 15.4086
11.0439 121.594 -3.12247
10.6523 123.362 -5.55347
6.83226 114.081 17.6106
-11.1641 139.484 4.52096
11.2936 123.035 -6.07253
-17.5863 145.535 5.21825
12.6692 116.175 3.72522
4.11219 120.572 11.103
13.9439 111.762 9.3143
1.10263 132.149 -3.95615
-15.4702 144.4 3.71254
-11.8761 140.723 3.88726
-16.7367 148.112 -0.542157
6.89353 114.248 17.6304
-4.72752 135.869 0.0450073
12.5918 115.175 6.02674
-5.05408 136.473 -0.386486
8.23953 112.751 18.1901
-18.635 148.534 2.66855
-3.97317 128.072 12.9669
-0.577275 126.62 9.54424
4.09929 129.998 -4.69128
11.9256 110.788 15.4346
-11.5777 145.032 -3.53694
-10.4264 137.66 7.49252
-16.1241 147.893 -0.522946
11.8135 119.096 1.08801
4.27398 129.97 -4.77142
-5.45059 137.646 -1.02931
-11.0552 144.74 -3.66055
3.52199 122.428 10.0778
11.8045 119.401 0.837897
-6.02772 130.235 13.2163
-17.3314 146.017 5.32774
-11.4483 137.949 9.30856
-4.90247 136.996 -0.56475
10.6181 124.47 -5.84264
-1.06185 133.97 -1.88958
5.8754 128.921 -5.21587
13.0923 116.545 3.99128
-16.2425 145.709 4.4855
13.8913 118.835 -1.26729
-15.8677 145.533 4.16961
4.28907 130.519 -4.70495
14.054 111.17 12.2583
8.92815 113.163 17.7971
-10.2467 144.704 -3.90602
12.12 123.019 -4.96967
1.86703 132.672 -3.83476
-0.0884296 127.35 9.13292
13.7916 119.474 -1.47082
13.4408 115.742 5.7724
-12.4912 143.061 3.33772
11.2601 122.237 -1.81322
14.077 120.908 -4.44009
3.47779 131.542 -4.38405
14.7665 120.025 -3.97798
-9.90571 139.324 5.57527
-10.6434 137.609 10.0186
5.04128 121.038 11.5847
-13.1031 144.208 2.82939
11.0877 124.26 -4.63415
12.1515 120.254 0.62035
4.20574 122.889 10.0568
-7.21848 132.954 12.504
14.9361 118.539 -1.12227
-4.26334 130.044 12.5166
-9.19995 135.903 10.9702
-8.95043 144.144 -4.03014
11.5933 124.284 -5.12173
2.48411 132.677 -3.8107
-5.58383 131.319 12.8951
-12.4308 143.891 2.85069
7.12735 116.466 16.799
13.2101 123.155 -5.69611
7.82646 115.526 17.3099
15.1235 120.035 -3.55084
-0.540306 128.269 9.62214
-17.4922 149.102 2.76807
-0.05956 128.121 9.13108
3.82176 124.116 9.43055
11.3888 125.234 -5.90844
13.443 118.26 2.80125
-2.9354 136.316 -0.160376
13.0645 119.055 2.15403
-1.41644 128.682 10.7475
7.8562 128.882 -5.96481
10.4763 113.582 16.5159
13.2926 114.947 9.19895
-17.3517 149.338 2.61386
14.6665 121.51 -4.77135
-15.5357 146.827 3.88092
-9.44087 145.324 -4.22752
11.3831 124.642 -4.36035
8.39011 115.281 17.519
-8.33226 138.908 5.35037
-8.41664 139.166 5.12892
9.23681 114.627 17.3288
-8.34723 135.8 11.0132
16.0353 118.407 -1.33729
12.1945 123.968 -4.36051
-2.82019 136.609 -0.159358
2.6444 133.25 -3.85149
-2.05193 129.335 11.3891
13.3589 118.949 2.60141
-16.3408 147.852 4.02754
-8.05096 138.811 5.41027
13.8487 112.745 12.9017
13.9691 117.011 5.22348
12.4075 121.285 0.503479
-3.26008 137.194 0.0986166
-17.003 149.148 3.32677
-13.0966 148.098 -1.69659
7.14438 117.711 16.2858
13.3714 115.149 9.85557
-14.8672 146.917 3.74888
16.62 118.339 -1.36258
-3.22856 137.422 0.00639426
11.8167 125.675 -5.80792
4.2395 132.69 -4.63026
-16.8949 149.649 2.75863
14.0949 117.586 4.7383
6.5023 119.449 14.9893
16.5083 118.193 -0.42846
13.8905 118.683 3.34559
0.495375 135.699 -3.02498
14.6331 120.653 -1.17568
-9.48804 146.612 -4.4124
6.4529 119.954 14.6353
10.4877 127.709 -6.20157
16.9231 118.325 -0.96644
-2.94038 131.329 11.1885
11.4086 126.361 -5.37203
-16.5671 149.276 3.62488
-7.26562 138.858 5.60471
-1.88214 137.152 -0.854633
16.1028 118.957 -0.341375
11.8292 125.869 -4.98858
13.2812 123.129 -2.6743
-3.85276 132.242 11.6058
12.034 124.396 -2.58333
-14.993 149.86 0.281972
-1.1022 130.084 10.703
12.6133 125.657 -5.66119
12.9214 122.353 -0.330619
-7.1202 139.737 4.41018
12.5933 124.624 -3.69744
12.7571 125.568 -5.63881
-4.36075 139.926 -0.734798
-6.8309 139.115 5.10629
13.4356 122.444 -1.22851
-7.56679 139.093 6.48637
5.59249 132.238 -4.51672
-10.3397 147.979 -4.13688
12.0009 123.98 -1.16497
7.21387 131.204 -5.41632
-7.92048 142.156 1.98022
0.721013 136.456 -3.19255
14.5259 117.621 5.71303
11.6696 126.92 -5.64455
-6.21863 135.099 11.5639
6.44179 121.496 13.3017
3.96034 126.83 8.27605
17.3218 118.274 -0.217807
-10.1436 143.538 3.67718
-6.89334 136.558 10.2902
12.5217 124.283 -2.18469
13.9964 119.658 3.41222
-7.76678 145.717 -4.14195
-6.57428 141.324 1.69106
14.1941 115.143 11.2619
-6.43035 141.568 1.0202
3.60486 127.664 7.94549
15.4474 119.39 1.67812
7.85506 118.834 16.1394
7.09131 120.106 15.3035
7.10179 120.14 15.2934
13.5129 121.35 1.83814
15.2747 119.803 1.56814
-10.442 145.161 2.22166
-15.2398 149.25 3.52648
11.9526 123.327 1.31485
11.3693 123.923 1.3079
14.8239 120.657 0.9764
11.4629 123.82 1.34133
15.8775 121.684 -2.67188
15.3645 119.568 2.04388
10.603 125.182 0.567069
13.4848 124.492 -3.22698
-6.13892 140.674 2.86814
-6.04532 140.831 2.43563
13.8443 121.458 1.60048
-0.180594 137.589 -2.1182
17.7598 118.401 0.0879282
-2.62425 132.878 10.5442
11.5089 127.202 -4.39622
-6.07544 140.545 3.11869
12.4734 125.408 -2.83273
11.0567 124.197 1.88302
11.4961 126.928 -3.71554
13.8162 121.405 2.05678
14.2009 121.059 1.99381
5.71375 125.162 9.77963
14.3826 119.824 3.94786
-5.8958 136.583 10.171
-5.96418 136.76 10.0214
16.8988 120.883 -2.29588
11.1 124.223 2.07983
3.57201 128.611 7.63762
10.9007 126.414 -1.42312
10.9209 126.486 -1.55255
10.6679 125.941 -0.102536
-9.78023 145.139 2.19127
7.38157 132.198 -5.24108
-8.7401 144.305 1.89776
-8.94728 147.962 -4.20054
-2.01158 132.809 10.3856
-5.77439 141.368 1.92239
5.56689 133.748 -4.49067
-10.3375 146.015 1.9391
10.801 125.203 1.40769
13.8086 116.449 11.5691
-11.0854 149.82 -3.40344
11.3917 128.697 -5.72314
-14.0875 150.762 0.334315
12.8937 121.998 3.57267
13.6394 116.505 12.0087
-2.85624 140.077 -0.484012
12.7631 127.262 -5.38226
12.7301 125.636 -2.36684
14.3209 120.63 3.7222
11.0486 124.784 2.19655
-2.25406 133.562 10.2152
15.2308 119.809 3.63881
12.5467 116.482 14.2871
-13.0801 150.576 -0.679637
-15.0673 151.113 1.88439
-1.94961 139.384 -0.571057
14.2087 121.479 2.55298
6.48067 124.649 10.6392
12.3279 118.791 10.6648
12.9278 122.112 3.75063
14.0641 120.824 4.08658
12.5551 125.768 -1.95153
4.48014 135.225 -4.38556
-6.16616 145.038 -2.89829
13.077 119.297 8.72749
12.8804 119.236 9.21706
14.6448 120.334 4.24463
14.496 120.635 3.97691
-7.06728 140.359 7.27168
-14.7674 151.167 1.84063
-5.30129 141.094 2.9176
-14.6981 151.545 1.15823
11.272 128.545 -4.02012
12.0638 123.4 3.70078
5.49752 127.186 8.62278
6.70698 124.625 11.0422
12.9538 122.456 3.89949
12.0861 127.106 -2.7821
5.29639 134.872 -4.50506
-4.42434 136.125 10.4772
7.26055 122.206 14.4679
-5.33635 142.415 1.06212
12.8717 125.889 -1.76716
14.6931 120.676 4.25747
14.6961 120.728 4.24627
10.4769 127.348 0.117288
12.2325 127.221 -2.69085
-2.20059 134.466 10.0327
12.1006 127.396 -2.73432
4.08844 129.767 7.27495
14.8881 120.455 4.66506
14.2477 126.563 -4.98085
-9.18995 146.257 1.78868
14.5508 123.321 0.511825
-0.880151 139.826 -1.31157
2.26948 138.423 -4.28737
-7.45354 147.964 -3.92162
14.7822 122.391 1.99955
12.2024 123.764 4.21367
17.3204 118.901 3.881
3.83461 137.118 -4.38173
10.2342 127.756 1.08619
10.4349 128.012 0.287268
10.806 126.508 2.29594
13.2961 123.476 3.25518
9.9539 119.758 15.7715
6.50418 126.752 9.57813
-0.954308 134.106 9.84316
19.0968 118.65 1.75484
10.6498 127.588 1.0091
-5.13052 141.083 5.05314
-2.05606 141.163 -0.513504
-3.34887 142.659 -0.856801
-3.9444 137.536 9.27333
6.24759 135.345 -4.81664
14.9145 123.627 0.634816
2.43539 138.911 -4.30523
11.5745 130.651 -5.85675
-5.45584 141.168 5.70075
-9.93757 147.658 2.17476
-10.0981 150.805 -3.07416
11.4809 127.223 0.616995
10.2611 120.022 15.5318
13.1324 123.307 4.69266
12.6739 119.072 12.9934
-11.4762 151.619 -1.84421
10.42 128.223 0.914856
13.3151 122.886 5.25711
-7.77316 149.156 -3.86891
14.6152 123.416 2.11658
14.6646 123.537 1.89138
13.4871 125.592 0.374926
10.4432 128.358 0.915019
15.6529 125.614 -3.42853
-0.959509 140.883 -1.0316
5.6181 136.692 -5.24967
15.1598 121.26 5.17697
-4.41397 142.78 1.74387
14.0355 120.674 8.28478
12.2959 119.801 12.9384
13.4013 123.251 4.89802
-10.5832 148.588 2.54254
-5.50596 140.216 8.38597
13.9019 122.852 4.87624
0.490388 140.296 -2.24174
17.8202 123.192 -2.58488
12.3461 119.718 13.3161
11.9218 120.647 12.492
-11.6937 149.778 2.81775
16.107 125.201 -2.84287
7.38319 125.124 12.964
11.2458 129.999 -2.45386
3.56942 132.636 6.50035
11.1716 130.715 -3.53156
15.8904 121.082 5.29167
-2.29941 142.677 -0.711899
11.7063 127.009 2.29477
13.1225 120.958 10.4919
12.1344 125.261 4.68881
-0.679552 141.358 -1.09343
16.4499 120.85 4.89569
-5.33238 141.694 6.75737
13.036 130.12 -5.23999
13.0193 128.751 -2.79043
14.4162 121.148 8.19398
12.4777 127.676 0.0930253
19.2653 122.418 -2.48268
-7.49713 149.913 -3.7035
18.6126 119.336 4.25665
7.56797 126.636 10.8977
16.4479 125.437 -2.66228
11.2705 120.772 14.7436
10.0918 133.732 -6.06382
14.1802 123.111 5.52177
12.7987 126.911 1.43406
8.90249 123.312 14.79
-5.00945 146.912 -2.32654
2.99674 140.05 -4.29513
5.34513 131.389 6.92394
15.5288 121.897 5.70279
-12.3462 151.814 2.11388
12.2359 126.02 4.26757
14.3345 121.509 8.63243
8.94681 135.099 -5.76979
-3.22684 144.67 -1.06511
15.1908 121.55 7.25681
-9.66576 151.809 -2.27068
16.5429 121.305 5.34303
12.4282 131.202 -4.81329
-9.78055 149.321 2.44006
9.31795 123.196 14.8856
20.9888 121.107 -2.03033
1.97254 134.844 7.31217
1.88108 141.05 -3.47407
11.653 129.501 -0.257842
11.816 129.411 -0.277227
4.3597 139.543 -4.90116
-10.6645 150.419 2.5541
18.6753 119.826 4.77729
-3.55349 140.101 8.23814
10.8243 131.413 -1.69884
12.1859 132.252 -5.56331
16.2485 121.945 5.66722
11.8989 129.535 -0.0380954
12.8789 127.371 2.07206
8.58177 124.896 14.0487
-4.10419 141.227 7.63111
12.7201 131.278 -4.51871
7.59664 127.846 10.7131
13.3467 129.752 -2.81564
12.4758 126.854 3.90818
-1.60883 143.657 -0.847726
7.60364 127.818 10.8868
-2.42568 139.41 8.12992
-1.56777 143.642 -0.860851
13.139 122.467 10.5753
15.1954 122.879 6.27947
15.2083 122.465 7.02462
7.94316 126.808 12.2424
-2.8228 140.002 8.06543
-2.09275 139.235 8.16041
3.31819 140.858 -4.23971
12.4776 127.205 3.74553
3.75499 140.656 -4.50346
13.9272 122.503 9.63539
20.2076 123.058 -2.41767
15.4185 128.848 -4.17152
9.9973 123.923 14.1618
10.1708 123.799 14.136
12.6967 131.76 -4.38696
8.47517 125.72 13.8183
21.0517 118.651 4.09124
11.9398 122.445 13.523
14.6792 127.068 0.545392
13.3371 131.568 -4.98334
-10.4093 152.909 -0.672375
19.4441 119.981 4.83688
10.7206 124.151 12.9821
13.5063 125.249 6.14703
4.35235 134.328 6.28471
11.3338 131.027 -0.175369
-1.12502 144.003 -1.00094
-3.62288 142.176 6.64728
13.5578 125.329 6.09365
-2.6707 142.888 3.74443
15.1721 123.828 5.98329
12.0608 122.854 13.2387
7.83069 129.183 9.54624
9.5911 125.516 12.9758
11.0885 124.567 12.0318
-3.45699 142.343 6.4806
7.16764 130.805 8.10626
12.8336 127.777 3.47163
1.91976 142.421 -3.09254
15.1315 123.244 7.4565
13.3415 131.358 -3.71843
9.24102 136.801 -6.08172
9.37222 136.772 -6.1505
12.9256 123.664 10.8608
17.4726 126.319 -1.86991
16.5405 122.683 6.2308
-3.1735 142.143 6.71548
7.72552 129.083 10.6661
15.6187 123.811 6.06433
10.0046 136.562 -6.47474
10.5801 126.085 11.2427
0.953931 143.14 -1.87965
3.2377 135.759 7.23968
18.9088 120.686 6.22981
11.2974 126.027 10.2763
-0.728483 139.206 8.25656
11.0256 126.142 10.5965
13.6213 128.762 1.48488
-3.13414 143.243 5.53982
15.2079 124.934 5.48198
14.2259 123.755 9.30786
21.2129 119.037 5.41728
8.0637 138.483 -5.71012
-4.24055 148.747 -2.00189
14.0428 123.959 9.52262
16.1732 129.355 -3.75551
15.0638 125.235 5.52571
14.3948 124.032 9.11645
13.9935 131.19 -2.80774
2.25121 137.387 7.08574
5.91349 134.461 5.7917
13.5409 128.341 3.15019
15.1954 124.348 7.37413
14.5732 130.504 -2.27634
4.35854 135.998 6.07188
2.53776 137.447 6.91804
14.0171 128.615 2.31856
-0.545027 145.218 -1.1926
-1.85455 141.822 7.15585
12.5816 131.936 -0.864321
-9.06287 153.479 -0.532512
13.2041 133.748 -4.96405
13.9989 128.924 2.21126
-1.75919 141.966 7.0411
6.41534 134.489 5.94942
8.64771 128.813 12.1727
5.64262 135.592 5.50298
-9.03665 153.228 0.378511
13.3569 131.664 -1.07341
20.1952 125.401 -1.98051
14.3763 129.729 0.786429
15.398 125.898 5.75347
-0.406734 140.654 7.68454
17.326 128.721 -2.56487
16.091 130.568 -3.60363
15.3363 126.247 5.3863
-8.05326 153.289 -1.03829
9.81107 138.403 -6.23413
19.0985 126.504 -1.51302
15.3818 126.189 5.68005
0.926614 139.419 7.93574
14.6961 131.464 -2.32561
14.3813 131.008 -0.946122
22.2478 123.645 -1.7382
-0.970955 144.17 3.10662
12.6092 133.859 -2.41596
22.0998 119.997 5.41576
13.6277 132.788 -2.20952
8.09279 130.825 11.0462
1.04746 145.191 -1.78109
14.6693 131.973 -2.41994
-0.906798 142.658 6.25395
13.8744 133.831 -4.12631
18.0744 123.345 7.01545
23.2104 123.12 -1.56816
3.07446 144.258 -3.32434
1.2093 140.018 7.48965
21.5602 125.021 -1.91515
22.2024 120.288 5.33902
9.2697 129.607 11.743
2.06547 144.802 -2.36144
7.46337 134.511 6.29921
6.92005 135.505 5.52181
10.7941 138.26 -6.17492
-4.11994 150.959 -2.12049
14.5998 127.779 5.83089
15.6749 126.475 6.44033
17.5796 124.104 7.27275
13.1353 127.494 9.21588
14.0616 127.385 7.9396
5.79407 142.745 -4.51758
7.07064 141.875 -5.08264
14.2677 133.801 -3.51143
14.4549 128.293 5.90362
8.9347 130.822 11.1948
13.5385 128.051 7.97761
13.8149 133.526 -2.17523
23.7991 123.066 -1.31703
12.1948 136.629 -4.64736
15.593 126.97 6.49196
11.5692 128.768 10.4565
24.591 120.695 1.76478
17.2729 130.482 -2.59502
12.1899 136.816 -4.54059
0.79645 141.68 7.06895
14.5442 128.484 6.24862
24.5286 120.869 2.08327
13.3322 134.119 -1.53488
24.229 121.902 0.920434
0.514028 142.787 6.13726
13.1522 134.537 -1.57141
24.1839 120.798 3.34401
4.79845 139.161 5.22575
14.0588 135.109 -3.97802
24.3304 120.917 2.96615
-5.56493 153.449 -1.66249
7.29701 142.547 -5.1074
13.181 134.638 -1.52869
10.4115 130.528 10.6475
23.3825 120.911 4.7338
6.83485 142.934 -4.8135
-1.76401 149.721 -1.58926
14.533 134.375 -3.24382
8.28944 134.058 8.35584
13.3808 129.011 8.37715
16.9243 125.929 7.72013
14.395 134.908 -3.50841
13.0706 135.185 -1.63549
10.1648 140.679 -6.04283
22.1885 121.096 7.32693
-3.76948 152.463 -2.16506
18.5772 129.637 -1.20414
21.3047 122.189 7.25141
19.1725 124.337 7.29691
13.8916 135.086 -2.31362
2.5146 141.941 5.71991
13.415 129.838 7.855
12.2088 138.072 -4.53393
18.327 130.299 -1.60719
10.289 131.436 10.5979
17.9409 130.974 -2.04997
3.04745 141.64 5.45098
22.8989 125.161 -0.497437
22.2495 121.476 7.36566
15.2432 134.943 -3.99757
0.80843 143.962 5.58114
22.765 125.65 -0.620324
6.51153 144.088 -4.47849
13.9367 130.034 7.26486
3.72389 141.35 5.44104
0.52746 148.531 -1.57794
1.9079 147.466 -2.10614
18.718 130.003 -0.911915
16.4735 134.06 -3.88508
22.3107 126.766 -1.25748
22.7446 121.453 7.45132
16.8611 127.398 7.39323
23.2345 121.685 6.28866
16.3892 128.282 6.96135
24.7426 123.46 0.760801
24.2076 122.761 3.01009
1.24224 145.725 3.37548
7.73684 138.333 5.00851
18.9127 130.358 -0.621962
22.7278 123.572 4.67166
22.7369 123.567 4.84067
-3.01681 153.146 -1.85068
22.4208 122.449 7.46999
-1.87312 152.05 -1.84253
7.50155 139.131 4.69536
3.33935 143.053 5.14283
18.6004 126.301 7.83754
25.4297 123.35 1.02938
23.1115 124.698 2.99217
24.0474 123.991 2.62263
24.565 124.679 0.566925
14.6404 136.532 -2.78461
20.804 124.54 7.58807
-1.71713 152.497 -1.89409
2.30182 148.656 -2.17223
-3.74304 154.471 -1.74332
3.51723 143.366 5.06353
24.0453 125.426 0.543085
9.22501 143.639 -5.28581
16.347 129.384 7.38202
14.4181 131.191 7.60347
1.28682 149.69 -1.86483
23.6773 122 7.53019
21.267 124.399 7.64453
22.136 128.343 -0.857247
12.1109 132.964 9.10072
1.9555 146.177 3.69852
23.5697 125.591 2.02392
-1.08928 152.521 -1.97166
23.3993 122.664 7.56198
6.78406 140.97 4.62403
3.85037 143.773 4.9173
14.4506 136.853 -1.48828
12.9204 139.506 -3.47032
22.9169 123.587 7.11584
16.9397 129.239 7.7006
1.77581 149.882 -1.97137
16.2832 130.008 7.59734
5.47572 142.402 4.79541
22.7146 123.971 6.94363
12.5996 140.139 -3.73167
11.5651 141.752 -4.50616
10.0396 143.555 -4.97561
23.4836 126.525 1.39213
2.59699 145.533 4.86358
