ply
format ascii 1.0
comment Created by Open3D
element vertex 1941
property double x
property double y
property double z
end_header
-28.7308 135.346 2.92754
-10.5419 91.8869 8.75919
-13.0024 96.8333 9.07116
-22.5967 120.978 4.72848
-4.43032 99.0913 -12.6322
1.9554 83.089 -9.75645
-10.3662 110.155 -11.0491
-9.57333 90.2588 8.63572
-24.8565 125.942 4.72028
-23.0199 122.468 4.33268
-7.45337 86.8381 7.645
-19.9022 126.348 -6.84664
-24.7323 125.372 5.1795
-20.0633 126.383 -6.42249
2.54598 82.1721 -9.66098
-18.4338 124.094 -7.50588
-3.27761 79.8547 6.04383
-25.0092 125.876 5.54002
-1.96579 94.2152 -12.2774
-7.36902 86.988 7.77251
-29.7663 137.531 3.8048
-22.2477 128.673 -3.54612
-22.256 120.153 5.69719
-19.381 109.964 10.2609
-0.505186 90.8357 -11.5982
-21.8689 128.982 -4.4938
3.09916 81.1933 -9.263
-14.0775 117.283 -9.38305
1.07037 86.6834 -10.5263
4.87838 77.0741 -8.7432
-6.65079 86.1205 7.51589
-23.8892 133.083 -4.10473
-9.73956 91.7169 8.78005
-11.41 113.084 -10.3845
-19.6027 126.658 -6.5112
-20.9813 115.949 8.16219
-11.9759 96.162 9.1917
-10.1372 110.915 -10.8169
-28.3913 134.003 5.48254
-2.71614 96.9782 -12.4427
-15.5349 103.675 9.25644
-14.069 100.751 9.10385
-28.8158 136.838 3.48519
-25.572 134.195 -0.907247
-21.7699 128.738 -3.58706
-23.0628 123.253 5.38557
-19.2682 110.725 10.3428
2.49283 83.7159 -9.60634
-22.2488 120.723 6.31759
-28.4213 135.021 4.85848
-18.2594 125.151 -7.41078
-21.7476 128.828 -3.506
1.80995 85.9786 -10.3467
6.0279 75.5752 -8.62637
-23.3148 123.772 5.62483
-7.54627 108.218 -13.0604
-7.88363 108.591 -12.6365
-19.7732 126.988 -5.60804
-22.9933 123.291 5.66228
-25.1745 127.522 6.34968
-26.1674 135.041 0.564683
-17.8367 125.116 -7.41483
-2.5366 80.4843 6.20249
-21.5707 130.34 -4.5461
2.6121 84.5388 -9.69547
-6.94637 107.684 -13.0466
1.97459 86.654 -10.4208
-27.5037 133.392 5.96917
-7.52355 108.829 -12.6081
-22.2163 122.156 6.27081
0.622224 74.6824 5.96441
-2.10018 80.2849 6.06477
-3.76198 83.3335 6.55085
-22.052 132.33 -4.82771
-23.6524 126.408 5.1942
-6.42559 107.262 -13.0143
-11.7305 115.423 -9.83019
-24.1872 134.5 -2.26646
-0.753524 78.2106 5.62425
-24.7459 134.841 -1.311
1.49757 88.7586 -10.8112
-20.3919 129.081 -4.86104
-21.8086 130.7 -3.31095
-4.44342 84.6097 7.23912
-8.52573 91.6927 8.84125
-20.3566 129.192 -4.81884
-18.4744 126.884 -6.47801
6.42983 76.9023 -8.75316
1.17972 74.4338 5.81574
-9.43334 93.7795 9.05806
-25.6621 136.874 -0.745663
-2.56221 99.4621 -12.4909
-0.436854 78.2006 5.68848
-27.6238 136.806 3.8734
4.3642 82.1973 -9.37526
-9.20881 111.775 -10.6143
-12.3848 100.071 9.21871
-24.5301 135.291 -1.26725
-11.2297 115.347 -9.66854
-21.4926 132.306 -4.7896
-13.9926 103.879 8.94704
1.43575 90.4016 -11.3157
-28.242 138.011 4.31481
-22.8932 125.654 5.58108
-14.16 120.074 -8.09077
-27.2931 135.739 4.6624
-22.8747 125.328 5.9282
-16.5198 108.357 9.93735
-25.8483 136.369 0.902347
-12.8378 118.206 -8.854
-23.8472 127.836 5.61059
-22.9122 124.693 6.96704
-20.1771 129.734 -4.61379
-13.7597 103.806 8.931
-24.08 127.949 6.19593
-21.9378 121.782 8.06048
-18.5236 112.585 10.2861
-17.5402 110.586 10.3165
-25.1524 129.772 6.83324
-26.2507 132.053 6.91031
-11.8099 99.7957 9.23403
-21.5252 120.863 8.57691
2.57813 88.1852 -10.5141
-19.5194 129.373 -5.03526
6.45827 78.4344 -8.63665
-20.7093 117.955 10.0468
-20.9759 132.329 -4.75461
-12.8391 118.81 -8.52803
-26.593 135.321 4.79761
-0.706338 80.1991 5.90324
-18.5589 128.394 -5.71682
-7.50451 91.6398 9.08042
-16.9487 110.345 10.2544
-9.16012 113.158 -10.335
2.33656 89.655 -10.9005
-25.5832 131.586 6.91885
-17.9024 112.514 10.2892
-5.82675 108.667 -12.7995
-9.29093 113.593 -10.2636
-20.4984 118.083 10.2146
-14.1023 105.642 9.23779
-22.1378 134.465 -3.62525
-25.5816 131.908 6.91525
-13.1116 119.704 -7.97072
4.29164 84.5267 -9.28145
0.797284 77.6616 6.02342
-24.9371 130.705 6.87971
0.228961 96.0379 -12.3864
-16.4152 110.051 10.1541
0.776513 94.8743 -12.2189
-22.1388 125.081 6.93272
-2.69305 102.804 -12.9018
-0.81467 81.2368 6.21005
-18.9179 129.787 -5.25748
4.48459 84.5221 -9.20553
-10.2305 98.0933 9.41398
-5.86407 109.575 -12.7739
-9.91268 115.22 -9.64293
-26.3555 139.228 1.76242
-20.4097 118.915 10.2647
-25.5287 133.401 6.48419
-21.6061 134.927 -3.9444
-0.246123 98.0215 -12.3032
-16.442 126.506 -6.47443
-6.25891 90.6433 9.27865
-16.7753 111.648 10.3567
-2.59893 103.698 -13.0058
-6.92561 111.475 -11.6153
-0.357432 81.1737 6.28568
8.65137 75.9348 -8.33258
-21.9447 127.568 5.03156
1.37703 94.7642 -12.184
-27.0586 137.764 5.61108
-6.8624 92.1258 9.31542
-11.4545 118.272 -8.49824
-15.0068 108.655 9.92791
-23.0964 129.253 5.96864
-21.0474 134.051 -3.82093
-17.6811 128.922 -5.82566
-4.70742 108.109 -12.6146
-20.7541 133.572 -3.77415
-19.2547 116.861 10.9622
-24.6465 131.993 6.84389
1.03845 79.2023 6.14501
-20.3656 120.918 9.47032
-10.6247 100.863 9.15647
-27.291 139.756 4.95759
2.67991 92.63 -11.6636
-10.4068 100.726 9.17474
-5.70818 110.931 -12.2736
-3.63241 107.178 -12.9088
0.398243 98.2341 -12.3209
-20.6474 133.28 -2.59348
-21.4883 128.229 4.78927
-14.1017 123.39 -6.4934
-6.67508 93.1611 9.35089
-25.6642 136.332 5.74126
-22.6348 130.089 5.79203
-20.4708 134.726 -4.06204
-16.4021 127.872 -5.79615
3.99353 89.6714 -10.5557
-15.4707 111.155 10.189
-16.2863 127.719 -5.79794
-6.94333 94.0814 9.3982
-20.2763 133.739 -3.12969
-1.5634 103.539 -12.7631
-9.61369 116.878 -8.96325
8.1139 79.4882 -8.44465
-16.2614 113.154 10.4063
-7.52624 113.837 -9.95661
-24.6019 140.231 0.168323
3.80063 75.0854 6.39586
-22.5935 138.008 -1.86553
4.24906 89.9855 -10.5869
-4.29969 89.6858 9.04527
-16.927 114.757 10.5376
-20.6371 123.539 9.44894
-9.56952 100.617 9.21377
-4.52913 90.4075 8.8694
-21.1986 136.347 -2.9485
-22.041 137.293 -1.97203
-5.65534 112.16 -11.8316
-8.05108 97.4259 9.50588
-17.5547 116.322 10.6271
5.54324 87.0329 -9.83468
-0.150044 101.364 -12.3803
9.29909 77.6557 -8.10243
-14.6734 111.008 10.0206
-20.3106 125.252 7.38763
-17.3966 116.199 10.5962
-16.1771 130.218 -7.20611
-20.2235 125.152 7.55086
-14.9649 126.559 -5.81852
9.67235 76.8695 -7.81261
5.92538 86.133 -9.30567
-12.6825 122.567 -6.59316
-21.9951 137.655 -1.8016
-23.5535 133.191 6.52988
7.2239 83.0099 -8.72456
-26.3126 141.332 4.11235
9.77739 76.8919 -7.76603
-5.63389 93.4742 9.12451
0.592016 100.402 -12.2985
-23.2806 132.933 6.52295
4.08935 75.7845 6.47305
-24.6162 140.815 1.11934
-23.8013 134.362 6.26814
-20.0851 135.689 -3.4794
-2.89627 88.0046 9.19336
-15.5454 128.953 -6.40034
-26.1952 139.041 6.75799
-20.0246 124.41 8.67768
-16.4392 130.103 -5.43617
-9.06796 117.515 -8.48924
-22.6459 132.326 6.21588
-10.6501 119.963 -7.392
-7.85489 98.3948 9.5802
-19.8537 124.383 8.72031
-10.0104 103.488 9.10424
-15.8628 114.473 10.4899
-18.2206 119.081 10.8868
-19.8395 123.39 10.0171
-4.40923 111.535 -11.8047
-19.8895 135.906 -3.1569
-19.8049 123.499 10.0582
-9.86178 103.622 9.15696
-17.2246 132.265 -5.09872
5.76598 89.1108 -10.4114
-19.5345 127.57 5.21006
-9.6228 118.879 -7.77337
-9.86979 103.706 9.16985
-10.6443 120.504 -7.16405
-2.49398 88.3787 9.12615
-12.7494 123.866 -5.96958
-24.1155 136.843 5.75508
-23.3396 135.196 5.80288
-6.20687 96.4928 8.8933
-15.2426 130.616 -7.49651
-25.1869 138.398 6.55028
-15.8532 131.364 -6.91841
-1.24942 106.416 -12.959
-19.9983 136.611 -3.16158
4.85635 91.7944 -10.8447
-8.68114 117.77 -8.31623
-14.1805 126.7 -5.5052
7.70981 83.7709 -8.54367
-1.38463 86.7807 8.74434
6.52931 87.1804 -9.51839
-4.122 92.7311 8.59203
0.920817 83.246 7.45269
-2.91567 90.2359 8.61792
-26.0248 141.392 5.58738
4.35986 93.5784 -11.3901
-16.0227 131.314 -6.07233
-5.26644 113.952 -11.5185
-2.19794 88.4686 9.04079
-12.3579 123.7 -6.02324
-0.926183 106.157 -12.8533
-15.8583 115.762 10.4797
-23.3932 136.221 5.52141
-11.7187 122.927 -6.38353
-5.36445 114.423 -11.397
4.028 78.2696 6.43556
-5.45214 114.612 -11.32
4.45876 77.3624 6.49901
-4.92715 94.9254 8.78254
-22.0303 133.336 6.02916
-14.0904 127.316 -5.38046
-8.62202 102.328 9.24335
-5.86816 97.1539 8.70457
-15.0999 114.923 10.4194
11.626 76.0205 -7.88183
-6.46251 115.625 -9.75604
-5.867 115.214 -10.6376
-7.71795 100.586 9.45579
-21.1313 139.12 -1.77725
-12.3604 109.992 9.94404
-23.6345 141.987 0.905462
-5.99872 115.542 -10.3055
1.47899 101.931 -12.4708
-7.49312 100.437 9.47748
-11.0312 122.64 -6.41326
-8.70543 103.262 9.25688
6.12708 74.7987 6.50344
-7.4931 117.269 -8.51614
-3.65701 93.5332 8.5158
-24.7113 142.501 3.23432
-6.32051 116.063 -9.68558
-20.1185 130.578 5.82562
0.537787 104.755 -12.9217
-5.32715 115.352 -11.0889
-25.0056 142.682 3.92131
1.90518 101.626 -12.4782
12.5795 75.2068 -7.83122
-3.38348 112.052 -11.5513
-19.7746 137.882 -2.39973
2.41642 100.863 -12.5168
-14.1416 114.296 10.3483
-4.33976 114.212 -11.5594
11.8319 76.8625 -7.74298
-18.3853 124.46 9.14157
-10.0549 106.67 9.65611
-2.24016 91.7359 8.13139
-2.79554 111.389 -11.7732
-19.1969 137.394 -2.76633
-20.581 139.456 -1.85668
-7.82996 102.324 9.42217
-9.73627 121.479 -6.88543
2.03991 102.156 -12.5458
-16.2759 133.387 -4.87607
8.24091 85.4504 -8.4372
10.8793 78.9991 -7.42527
-7.42445 118.026 -8.18522
6.44707 91.4016 -10.6991
-17.4756 135.498 -4.27752
-12.392 126.027 -5.43868
12.8378 75.4562 -7.75468
-18.2553 137.065 -4.01463
-23.2542 137.945 6.3595
0.452798 86.4992 8.37401
9.33514 83.546 -8.42995
7.46467 88.8932 -9.92311
-15.9392 119.061 10.363
-3.66941 95.4745 8.16069
-10.0095 122.328 -6.47238
2.157 83.5973 7.86296
1.44297 85.0342 7.92692
-24.7367 142.941 4.57921
-1.86159 110.56 -12.0656
-19.167 138.012 -2.55826
7.1489 90.1553 -10.3008
3.77097 99.3271 -12.5066
-8.61232 120.572 -7.42497
-3.89395 96.2439 8.27857
6.98291 90.9115 -10.4921
-19.4242 130.855 6.08366
12.1909 77.4347 -7.619
-21.491 141.288 -0.401557
-22.5736 142.583 0.667759
-14.5371 133.019 -7.13032
7.08745 90.8842 -10.4493
0.272852 87.3176 8.84416
-13.1416 129.435 -6.26285
-2.49093 112.149 -11.6145
-7.10501 118.549 -8.07348
-23.9109 143.288 3.19875
-4.51947 97.7808 8.54723
-21.6914 141.846 0.00875904
1.15003 86.4576 8.24953
-20.2633 133.304 6.17664
-18.219 137.865 -3.28291
9.94748 83.8399 -8.5272
-1.23983 110.597 -12.1322
-24.2199 143.314 4.53158
-21.7632 136.499 6.34898
-19.4552 139.502 -2.09385
-17.8569 138.802 -4.8251
3.87156 81.9598 7.47208
-13.6852 116.146 10.2451
7.55672 75.0006 6.70361
-12.1094 127.391 -5.41256
-7.87854 120.527 -7.52977
-23.5411 139.48 7.47506
-2.22803 94.5884 7.83585
7.53088 91.0621 -10.3017
-23.202 139.109 7.26448
-15.4272 119.976 10.3939
-3.53833 115.376 -11.3001
-20.7614 141.607 -0.717131
0.39769 108.395 -12.5656
6.65073 77.3073 6.85157
-15.4815 120.347 10.3905
-9.19463 107.75 9.87958
-10.4495 110.17 10.1377
-14.5398 134.01 -6.22376
-3.6109 115.722 -11.1408
-5.38995 117.921 -9.43061
-15.8883 121.583 10.4607
5.63684 97.4869 -12.0908
11.7196 80.2372 -7.20923
-19.0484 139.925 -2.04951
-5.81986 101.753 9.27304
-2.00437 113.114 -11.4639
-17.1264 124.312 10.5734
8.12641 90.5806 -10.0124
-17.5329 126.117 9.55835
6.34602 78.8733 6.73879
-4.37519 99.5411 8.74601
13.1375 78.0374 -7.56161
-1.53961 94.6736 7.66454
-12.7875 132.355 -7.52078
2.60955 85.5552 8.23586
11.5822 81.704 -7.62929
6.35671 96.1926 -11.4337
-12.9216 133.178 -7.79942
5.95729 97.5983 -11.9854
4.11946 83.025 7.91405
9.9617 86.0948 -8.57293
8.97583 88.6405 -9.0722
-21.5791 137.646 7.15498
-12.1448 115.218 10.1629
-0.447505 92.9394 7.82307
-15.6175 136.991 -5.41275
-20.5098 135.618 7.10578
10.0052 86.3267 -8.56203
-12.0883 130.512 -6.33936
-20.4965 142.541 -0.294247
11.5143 82.3132 -7.54898
11.4678 82.4724 -7.56185
-9.4522 109.784 10.1852
-21.2886 137.27 7.25342
14.2944 76.4359 -7.35716
5.96251 80.4925 7.10231
-15.8804 137.469 -5.0594
-16.4631 138.243 -4.52515
-0.636998 93.7918 7.71186
-10.041 125.735 -5.47622
-15.4825 137.122 -5.46576
-1.31972 95.4178 7.61584
-17.651 139.372 -2.82253
5.26678 100.687 -12.7788
12.0317 81.3806 -7.19302
7.02036 78.8875 6.84047
-16.1031 138.063 -4.6956
11.6741 82.4445 -7.32968
-1.47846 113.667 -11.3256
-8.23142 123.116 -6.19376
-10.1579 112.24 9.89812
2.86226 86.3777 8.59188
7.66234 94.169 -10.6288
-12.6559 134.049 -7.74722
-3.40534 117.519 -10.6029
-14.7083 136.999 -6.05621
11.8154 82.538 -7.14154
-12.6166 117.485 10.2959
-5.66807 120.018 -8.09387
-19.0979 141.876 -1.33841
-5.79627 104.125 9.38168
-5.32488 103.094 9.47811
-19.9809 136.022 7.09527
-16.4318 139.967 -5.11478
-16.5834 140.324 -5.08666
-21.2432 144.525 0.90589
10.4966 86.8683 -8.51482
0.380473 110.81 -11.4345
-4.84286 119.408 -8.90727
-3.36558 99.9503 8.77284
-10.9257 129.252 -5.76195
14.3719 77.824 -7.36312
4.70481 103.211 -12.8823
-0.273741 94.6484 7.65882
-12.5344 117.783 10.3723
-7.6262 123.009 -6.26854
-21.6807 139.438 7.72141
8.57854 76.6997 7.21901
-19.0307 134.982 6.74044
0.869366 110.263 -11.4711
-19.8542 136.482 7.02793
3.59523 105.505 -12.3812
13.8093 79.4408 -7.27262
-19.1668 142.53 -0.888275
0.906487 92.2007 8.11679
-15.2814 138.629 -5.29556
-1.45261 97.4313 7.94716
-7.48918 123.213 -6.1756
-7.46089 108.353 9.94803
-6.47758 106.717 9.51602
-5.76506 105.571 9.25923
-0.577942 96.393 7.46294
2.1623 88.7786 9.55053
-20.4955 138.073 7.51488
-15.8409 126.539 9.48077
-18.5867 135.013 6.73165
-10.7179 130.93 -6.57317
7.89093 96.0572 -10.9111
8.39067 94.8924 -10.5968
11.9671 84.0283 -6.93887
-6.2031 106.807 9.54723
7.72333 80.0385 7.03195
3.66705 106.311 -12.1132
-16.4672 131.951 5.71459
-15.6521 127.987 8.16431
-13.3174 121.251 10.1871
6.96812 81.4586 7.37605
8.041 96.2524 -10.9094
1.41007 110.298 -11.0857
10.2338 74.9922 7.10729
13.6102 80.8686 -6.80104
6.77342 100.379 -12.3258
-12.2693 135.653 -7.36995
9.86881 75.7933 7.24582
3.15713 87.8622 9.40068
2.48733 108.592 -11.375
11.1629 87.5854 -8.25127
10.6855 88.9918 -8.65643
-10.8785 132.727 -7.15624
7.40878 98.8526 -11.8429
-16.6273 142.084 -4.07755
-15.0056 140.014 -5.45097
-15.8392 141.175 -4.79753
-11.7915 118.491 10.5378
-0.293854 97.2809 7.5715
-3.79128 103.143 9.17448
1.6553 92.7878 8.11038
-15.0153 126.908 8.92686
0.853318 94.9976 7.55338
11.0715 88.3232 -8.24126
7.7799 80.9064 7.18171
9.05877 94.5785 -10.4295
6.21328 102.127 -12.1261
-12.2698 119.983 10.3706
-7.00081 124.102 -5.90492
-11.753 135.438 -7.40356
-2.93317 102.006 8.75954
4.82969 105.553 -12.5716
-6.61987 108.631 9.94397
15.2667 78.6275 -7.04923
-14.736 139.959 -5.48814
-5.23954 122.369 -7.89201
0.924146 95.1908 7.5168
-11.556 135.198 -7.39607
-0.137448 97.4464 7.56108
3.4078 88.2124 9.5211
-19.8457 145.338 0.393378
3.99896 106.957 -11.9534
14.9088 79.5408 -6.99962
-13.9173 123.888 10.2436
-14.7632 127.499 8.28005
-16.3526 133.564 5.35283
11.8831 86.975 -8.06675
-6.08731 123.457 -6.83372
-7.56624 110.945 10.0025
-3.39728 103.214 9.09728
4.57596 106.472 -12.2853
-0.570954 114.843 -9.65082
-5.95549 108.064 9.83339
10.7646 90.8725 -9.33066
14.1395 81.4501 -6.7344
3.96721 87.7699 9.4862
-18.9609 138.239 6.80042
5.95927 103.741 -12.1727
-15.3786 130.263 7.4208
-19.3597 145.381 0.114118
-9.77861 131.819 -6.86336
3.2926 89.1249 9.71118
9.74326 94.2722 -10.2527
10.8306 75.7 7.42948
2.45039 92.4604 8.33104
-9.12215 130.443 -6.49537
3.31914 108.925 -11.2626
-7.0994 125.407 -5.44238
-15.3686 132.684 5.46293
-5.90196 108.791 9.88596
-19.8711 146.233 1.15543
10.7573 92.0424 -9.45769
4.25141 88.0075 9.60442
8.18602 99.5287 -11.6732
9.2263 96.3685 -10.6054
-3.78863 105.228 9.27389
-8.2379 128.691 -5.92897
-11.0713 119.492 10.3954
5.95392 104.663 -12.0101
-0.4092 99.5537 7.86642
-14.1674 126.643 9.75895
11.8448 89.1328 -8.46167
6.01394 104.724 -11.9545
-11.326 120.391 10.2727
2.22577 94.463 7.66524
5.77326 85.7234 9.11074
5.79378 105.353 -12.0379
7.00608 102.531 -11.6854
-11.2544 120.389 10.2704
-1.1381 101.744 7.70501
0.978032 97.7884 7.26251
-15.0801 133.272 5.2471
16.2798 78.9222 -6.77326
2.43005 94.5206 7.67171
9.6823 96.0933 -10.3502
4.77876 87.8323 9.63913
3.29558 91.8563 8.68276
-8.19935 114.631 10.0842
4.69817 108.132 -11.9868
-9.53555 133.023 -6.60288
-11.6482 137.534 -6.67815
10.4776 94.4258 -9.88287
-5.59205 109.681 9.92255
-11.7862 122.589 10.0508
-9.35776 132.824 -6.45529
-8.6207 115.882 10.1542
3.65846 91.1628 9.11361
-13.5351 126.643 9.65013
7.00699 84.7079 8.53422
6.84029 103.791 -11.5104
1.04111 98.4679 7.31083
6.85601 103.812 -11.495
11.5503 76.2077 7.71296
5.21872 107.898 -12.0399
-17.3328 137.731 6.74774
-13.3921 140.911 -5.56836
2.40692 112.043 -10.0584
3.48948 110.774 -11.0422
13.1606 86.6053 -6.77614
-9.59667 134.501 -7.01671
-16.2318 144.162 -2.42677
10.2372 95.8546 -10.0431
3.39655 93.2441 8.22089
8.77793 100.289 -11.498
-14.8479 143.181 -4.3697
2.04301 112.924 -9.83631
-15.678 144.154 -3.52943
-9.4918 134.321 -6.85287
10.6349 78.6256 7.84638
-16.4108 144.427 -2.05164
-3.22059 122.696 -8.32514
-19.7706 147.388 2.4656
7.77684 102.718 -11.4731
9.47037 81.6453 7.56063
0.638366 115.531 -9.00338
-13.5143 141.58 -5.12533
-3.13728 106.658 9.13205
-12.9748 127.503 8.88312
-10.173 120.563 10.1554
-13.903 131.277 7.1394
-0.0308905 116.98 -8.72945
-9.76571 119.845 10.2185
13.422 87.9329 -7.66654
18.3756 76.1803 -6.08604
-17.4847 139.274 6.81376
-19.4446 147.621 2.33121
9.3148 82.5578 7.6474
-16.1398 137.041 6.35657
-9.81124 120.304 10.1574
-6.97227 128.947 -5.55415
6.8556 105.286 -11.2296
11.2486 94.5247 -9.49037
-12.1954 125.136 10.4556
-5.74211 126.897 -5.96414
-16.4902 137.86 6.6405
6.07768 107.527 -11.4891
0.692333 116.301 -8.78042
-3.22299 123.481 -7.64566
-5.24756 111.448 10.0045
-10.3905 137.941 -6.95978
2.18395 98.8067 6.91992
15.4065 83.3088 -6.18259
13.608 86.9419 -6.03278
-13.7235 133.79 5.14537
8.63073 102.375 -11.4045
-9.03964 119.297 10.2517
-12.0483 140.656 -5.93353
3.96662 94.3258 7.95313
18.2211 77.7428 -6.23052
1.5782 115.339 -9.20682
-12.1971 126.865 9.4562
-2.26569 122.686 -8.4143
-19.2518 147.638 3.00545
4.34412 111.626 -11.3865
9.4413 83.1989 7.77059
4.63768 111.301 -11.5864
-18.2356 141.626 7.34578
3.42638 96.4085 7.23981
-13.4628 134.267 4.5598
6.24332 88.2871 9.7551
-13.4252 133.684 5.21742
3.00533 97.6781 6.99527
-5.04244 127.109 -6.53488
-1.7497 122.235 -8.66241
0.432362 103.21 7.04818
1.53913 100.677 7.31449
-13.0489 132.825 5.64707
-12.5313 129.061 8.65303
-11.2916 140.156 -5.89072
11.9351 94.687 -9.23067
-1.23759 121.783 -8.6939
6.86914 87.8949 9.60698
13.9428 87.9894 -6.4307
15.44 84.7729 -6.31326
8.77898 103.188 -11.1384
5.05387 92.0513 9.27949
-10.1625 123.02 10.2772
-12.877 133.925 4.75447
-0.633908 120.832 -8.66792
-18.6762 148.038 2.75178
3.27576 113.814 -9.85815
6.94604 88.0494 9.64701
7.01833 87.934 9.60976
-7.21423 117.239 10.1671
-12.4379 129.762 8.50013
-11.0232 140.162 -5.88619
-1.00955 106.461 7.86889
-7.32598 131.481 -4.84008
10.1869 83.0113 7.94663
-6.49119 115.899 10.1121
-12.5472 130.428 8.15015
3.55364 97.9026 6.93237
10.8722 81.7097 7.96411
-12.9012 133.243 6.04125
10.9273 98.0876 -9.77699
-3.96536 111.45 9.46827
-12.3115 129.666 8.67308
13.635 76.2185 7.79212
-16.8344 147.023 0.20326
-12.3734 133.932 4.3108
12.9038 92.9831 -8.52793
-13.3019 144.359 -4.75133
-7.86681 119.142 10.2603
9.08341 85.5311 8.2935
17.1295 81.751 -5.76478
7.10548 88.4198 9.74433
-9.0755 137.478 -6.58549
5.57705 111.188 -11.2562
1.02049 104.115 6.7786
7.5137 87.9887 9.5289
9.30774 85.468 8.22908
14.2183 89.2841 -6.85362
-7.74109 119.411 10.2047
-11.1378 126.751 9.98551
-15.9455 146.307 -0.250836
-11.5974 128.368 9.33734
-10.0915 139.64 -6.15712
8.76244 104.702 -10.9667
1.84086 102.999 6.66163
-10.3155 125.177 10.2861
-1.47905 123.655 -7.87415
-10.3491 125.42 10.2574
-16.4209 147.441 0.246138
17.6505 81.468 -5.37688
-18.0906 144.986 6.82068
-6.29744 131.442 -5.08129
15.7588 86.2278 -6.05626
14.4177 89.6891 -6.54193
-2.53409 110.905 8.90731
-3.97857 113.371 9.55776
-13.9339 139.546 3.93795
3.62336 100.452 6.62584
3.92369 99.9084 6.53847
6.01135 92.6059 9.7238
-9.17214 124.092 10.031
-5.33393 130.173 -5.12083
14.4873 89.56 -6.02357
5.3781 95.5051 8.13615
11.6595 98.7634 -9.51356
14.2539 91.4173 -7.37918
-0.379851 122.449 -7.71809
-11.5803 133.671 5.45518
14.6341 90.4232 -6.98945
-9.00356 124.26 9.92338
1.32559 105.794 6.53472
1.51492 105.483 6.46372
-6.72845 133.17 -4.60661
-2.50825 111.847 8.86607
-16.766 148.717 1.30596
2.7785 103.187 6.38603
3.53764 101.686 6.51639
8.53209 107.023 -10.5017
-5.60688 117.528 10.0985
-6.02122 132.288 -4.86033
-6.73615 133.628 -4.66042
-1.9149 125.54 -6.79854
-4.29757 129.729 -5.83482
-2.97887 127.445 -6.32325
-5.09574 130.944 -5.28963
-16.9233 148.797 2.2397
-8.10233 137.915 -5.86292
0.268859 121.908 -7.4688
-2.89968 127.442 -6.28013
9.26362 106.112 -10.7015
18.5394 81.5625 -5.09368
5.61594 96.8646 7.77129
14.8573 90.6041 -6.26335
13.7798 94.8087 -8.35975
-6.57477 134.35 -4.90636
13.3819 96.457 -8.99339
11.7499 83.6896 8.48847
11.4989 101.623 -10.2707
-4.54178 116.773 9.69767
-0.861346 110.619 8.05259
14.2969 79.3484 7.62244
-13.371 147.607 -3.50193
-8.55262 140.014 -6.17506
-7.95597 138.458 -5.78642
-11.8938 137.662 4.00415
-5.58542 118.996 9.91861
4.68072 100.698 6.50297
14.3397 93.7384 -7.74428
-13.9347 147.831 -2.26977
20.3706 78.9473 -5.34662
-12.5013 147 -4.53418
16.0891 88.0566 -5.46429
-13.4631 141.935 3.18052
2.28721 106.38 6.07967
17.6907 83.9108 -4.40872
-11.6955 145.876 -4.87277
-6.08796 120.395 9.98101
-8.0024 125.087 9.37584
-4.12862 116.91 9.52553
-4.8118 118.094 9.82619
-4.64713 131.836 -5.31184
-11.703 138.315 3.70117
-5.38926 119.687 9.83337
9.0796 108.316 -10.5053
21.2793 77.9376 -5.26851
9.43339 88.9767 9.5489
1.53978 108.348 6.49652
-5.51644 120.033 9.85318
3.32627 105.141 6.00494
-3.03457 129.574 -5.95059
-9.91653 131.654 7.34217
5.49611 99.8457 6.87669
14.9287 92.9446 -6.95706
-8.03377 140.096 -5.8395
12.5276 83.6461 8.68974
-1.3363 126.552 -6.24286
-4.50598 118.437 9.70208
13.5426 98.0063 -8.94884
-5.58625 120.604 9.85167
15.3629 79.1024 7.41098
11.0914 86.8734 8.71037
19.9653 80.9301 -4.86079
-8.11561 126.696 9.19808
17.5102 85.9541 -4.62131
15.1232 79.8778 7.35108
-10.7489 136.41 4.86231
-14.4549 148.735 -0.0672073
10.5348 106.242 -10.5593
22.0056 77.1775 -5.07974
-2.09456 128.291 -5.71842
-0.85956 113.233 8.03383
8.63942 111.197 -11.1903
17.5756 75.5505 7.11905
8.05216 92.8091 10.0942
17.7163 75.3863 7.09379
-4.47176 119.466 9.61648
-2.7061 130.049 -5.75359
2.58874 120.283 -7.16077
1.52177 109.893 6.48535
3.05157 107.423 5.81869
10.1402 89.2431 9.50706
-8.39646 129.167 8.33399
18.1661 85.0869 -4.04995
6.26027 116.022 -10.4378
-2.94327 117.336 8.97588
-12.9248 143.753 3.08703
-11.345 139.719 3.90894
-4.07852 119.33 9.53219
2.77685 108.544 5.77451
-15.4203 150.017 2.10587
4.74656 118.467 -9.2948
21.5368 79.1195 -4.66853
13.7525 99.3725 -8.93948
14.9227 95.1327 -6.91064
8.05586 113.385 -11.0314
-13.6582 145.048 3.85057
6.71679 115.686 -10.4444
9.94667 90.1749 9.78121
9.32601 110.763 -11.0138
5.63993 117.552 -9.94898
14.8648 95.8075 -7.29201
-6.84765 126.441 8.69565
8.74966 92.452 10.1793
-10.2983 146.821 -5.41436
-12.8108 149.522 -2.55737
-5.26543 122.551 9.52052
-0.889491 127.639 -5.82336
-8.19766 129.92 8.20924
16.6672 79.0081 7.03709
-15.1021 146.663 5.79605
-14.6982 150.047 1.38238
5.86386 102.369 6.43349
18.2686 76.3096 6.6984
22.9002 77.1163 -4.59393
-0.720859 115.023 7.81546
2.08334 122.589 -6.65918
-15.2405 149.807 3.07482
15.5895 93.4007 -5.55228
-14.5694 146.894 4.81976
5.15787 104.594 5.98717
18.8408 84.9364 -3.61957
-5.42326 136.924 -4.93418
9.64931 111.069 -11.0243
-13.1507 149.739 -1.23345
2.48889 110.421 5.89099
5.83677 103.14 6.27109
-10.1986 138.5 4.33767
18.1115 77.2295 6.58921
6.59437 101.175 6.86063
6.3882 101.857 6.64594
-13.4015 149.933 -0.544718
-8.37121 144.064 -5.5568
11.4947 106.909 -10.3055
-3.03566 132.328 -4.90227
-0.382129 127.595 -5.7287
4.15897 107.528 5.67896
-14.2698 150.228 1.28204
-10.606 148.452 -5.0424
2.29778 122.84 -6.5283
20.3881 82.469 -3.79893
-4.71763 122.896 9.3386
-0.50909 115.672 7.66192
-8.56966 133.924 6.19557
-7.59444 130.044 8.19463
-11.8913 149.914 -3.45856
-6.92358 128.532 8.39812
20.2879 82.7106 -3.57095
13.1222 86.045 9.0017
-0.275177 115.474 7.5242
7.48354 98.9151 7.88078
17.633 89.3101 -4.5889
9.81363 92.1305 10.0391
-4.96106 136.285 -4.22579
14.3165 100.622 -9.15876
21.631 80.6147 -4.08321
-4.67676 135.553 -3.94473
0.330321 126.929 -5.9368
6.0909 103.629 6.22072
13.3319 103.512 -9.97632
18.3856 77.9509 6.24576
-6.70955 128.46 8.39613
-13.9971 150.399 1.2718
0.863395 126.117 -6.05077
-10.1283 148.315 -5.16136
10.0879 111.603 -11.0661
-2.806 120.187 8.76747
17.6071 79.9197 6.22219
10.7334 109.622 -10.2605
-2.94719 120.534 8.83922
15.8004 82.1394 7.95231
7.02059 116.917 -9.59443
4.45145 108.261 5.55158
-8.23782 136.811 3.44556
11.8289 107.469 -10.1454
10.53 110.747 -10.7238
23.625 76.6585 -3.38856
-8.58871 146.121 -5.62192
3.30849 110.918 5.51326
12.2259 89.0062 9.11488
17.0001 91.2894 -4.09351
1.09652 114.575 6.70827
3.76668 110.126 5.48346
12.6908 88.3486 8.84293
7.57409 100.439 7.37485
-5.51528 126.65 8.68266
-8.07523 135.822 4.60755
-6.87726 142.189 -4.95438
-7.67479 133.283 6.45229
-9.6055 148.139 -5.20868
12.3478 106.852 -10.1846
-7.49372 132.271 7.17443
17.3205 90.9954 -4.11286
10.0126 112.931 -11.2308
-2.78205 133.269 -4.26147
6.80246 117.89 -9.28126
5.06386 107.731 5.60719
-14.3079 149.944 3.8005
11.6705 108.395 -9.94178
-13.0073 151.154 -0.302271
-2.301 132.798 -4.51889
5.729 106.538 5.79786
-4.70376 125.493 8.94921
-8.46605 137.876 4.13943
1.19608 126.816 -5.71614
14.4084 101.868 -8.58139
6.328 119.403 -9.16391
22.7226 80.0907 -3.72663
5.03545 108.587 5.47213
0.965099 115.93 6.74622
10.6758 92.695 9.94468
21.1914 82.9155 -3.17447
-4.80923 126.267 8.77332
17.3885 91.632 -3.9305
1.1848 127.132 -5.52862
6.64062 119.127 -9.13445
-8.77072 138.252 5.0542
13.8223 87.3958 8.96762
-8.31411 147.181 -5.40523
-8.86717 138.771 4.9841
11.1825 92.364 9.8205
0.84556 127.962 -5.13846
2.80482 113.84 5.73241
16.8485 93.7561 -4.2239
16.3553 97.0023 -6.59357
-6.56257 143.321 -4.81776
21.0857 83.5396 -2.60458
20.1221 85.2531 -2.21381
-3.84475 125.175 8.8593
-3.95069 125.386 8.884
-0.975785 120.261 7.70289
3.00661 124.481 -5.82452
11.1895 92.77 9.91341
0.433078 118.042 6.96061
10.06 95.1592 10.026
7.13287 119.061 -9.07002
19.6718 79.1093 5.7415
2.66918 115.012 5.51308
10.6597 94.136 10.0704
16.0125 99.2748 -7.50118
20.6254 77.1254 5.99769
-12.2099 148.594 3.06427
7.43082 104.479 6.33148
-11.3011 147.593 2.16845
-1.22227 121.308 7.7915
-12.9359 150.011 3.27375
3.81354 113.167 5.22381
5.20274 110.263 5.22575
-5.44916 129.914 8.15074
4.08295 112.704 5.21349
-0.0882993 130.79 -4.87332
-12.8244 151.266 1.85247
0.966254 128.71 -4.92919
4.31858 112.335 5.20132
6.03353 108.455 5.53819
-3.88559 126.236 8.80191
0.784364 118.52 6.64738
0.118479 130.571 -4.83399
-6.60524 136.85 3.63675
-4.30638 139.634 -4.51032
-5.42195 142.244 -4.80398
21.6572 83.5734 -2.56749
-4.70977 140.908 -4.85682
16.4917 84.3146 8.35408
6.94842 106.651 5.88073
-3.80771 138.405 -4.08506
8.8993 100.654 7.98091
-5.88653 132.366 7.14037
-4.04644 127.204 8.63249
-9.73839 142.788 4.68955
-6.7992 145.633 -4.93093
18.6364 91.365 -3.77155
-9.49743 142.144 4.9685
-5.64034 131.806 7.49011
18.1999 82.4471 6.97085
-9.65228 142.794 4.72839
3.01207 125.794 -5.4352
15.4746 101.165 -6.97873
19.8027 88.712 -3.2751
14.1234 106.454 -9.53387
19.4905 89.6898 -3.51152
4.87594 112.31 5.09666
4.43563 123.603 -6.02983
23.9857 78.6588 -1.66517
-10.0087 151.285 -3.2882
-5.62158 133.048 6.53586
14.4349 105.584 -9.05417
16.9379 97.6077 -6.07874
-3.27294 137.722 -3.66526
-11.8473 149.731 2.75137
23.0052 81.8517 -2.66132
5.64376 110.967 5.14107
-10.2015 151.633 -2.96378
0.502696 120.259 6.74763
17.5378 94.377 -3.72398
5.35007 111.753 5.05551
9.55578 116.306 -9.26559
5.12814 112.303 5.05392
-6.56099 138.932 2.72023
-6.61952 139.264 2.55114
18.853 82.4226 6.41668
8.16097 104.838 6.42232
-10.6385 148.148 2.13491
6.02828 122.55 -7.84429
2.5497 127.375 -5.17667
1.42975 119.19 6.17481
3.05657 126.467 -5.30982
16.0415 100.604 -6.69071
0.78194 130.722 -4.71229
-2.3097 125.372 8.06491
-5.36246 134.173 5.52167
20.6337 79.9373 5.41601
20.7413 79.7071 5.47422
24.015 79.1991 -1.30969
9.46453 100.649 8.40073
10.7032 96.6324 9.97061
-2.97106 126.737 8.38048
1.16677 130.289 -4.73152
-4.69686 142.587 -4.69983
-8.87078 142.912 4.50363
14.8548 105.344 -8.49384
1.5691 119.683 6.07811
5.49925 112.473 4.99133
-8.47739 141.827 4.87762
13.4651 109.493 -9.71421
21.0351 79.9679 5.1045
6.07304 123.515 -8.08221
-7.86807 140.524 5.06836
10.3059 116.108 -9.59799
18.5683 83.5629 6.96145
-9.97976 147.607 2.34543
19.5288 82.7031 5.84047
-3.67487 140.857 -4.4278
22.0642 78.0332 5.27347
5.47963 123.804 -6.52653
23.3451 82.3904 -2.14364
23.2251 82.2305 -1.6821
-5.34126 136.57 4.16582
-2.44165 126.896 8.13003
-8.05857 141.577 5.12558
18.2182 94.3788 -3.24649
3.46081 117.49 5.21243
5.18876 114.129 4.94956
13.2787 92.7812 9.73946
12.7578 93.9085 9.70094
13.3131 111.316 -10.2844
-8.61982 143.636 4.35042
5.74052 124.2 -7.01357
1.46284 131.122 -4.80008
8.18196 122.183 -10.2642
22.5755 81.3478 1.33138
-7.88865 141.737 5.01314
-1.07583 135.493 -3.61616
16.0821 101.627 -5.7871
10.461 117.795 -10.514
-1.28925 135.994 -3.62902
12.6143 94.7196 9.51588
8.67054 105.944 6.33595
-2.11354 127.015 7.97586
24.4338 79.2781 -0.415104
-6.59822 140.291 3.80919
7.59775 122.552 -9.06675
13.832 110.382 -9.9115
15.9215 88.34 9.17019
21.9047 82.7631 1.72752
-9.17838 147.088 2.53555
8.95502 120.35 -9.48628
8.64628 120.734 -9.14331
-7.13224 140.728 4.95496
-10.6553 150.852 2.02453
3.49901 127.734 -4.97213
7.85977 121.754 -8.35238
14.3339 91.7347 9.45123
-6.23098 147.966 -4.78232
13.8179 92.6652 9.68108
24.2787 79.2805 0.526551
9.26391 119.854 -9.32626
7.4159 110.08 5.39648
24.4668 78.8877 0.572277
-4.04479 143.416 -4.52928
21.2038 88.0551 -1.7572
23.0619 78.0732 4.81709
-3.47895 130.903 7.87378
3.00853 129.226 -4.94807
6.93197 124.744 -8.91681
-0.384103 135.112 -3.54612
11.5221 116.436 -10.2416
11.4895 116.339 -10.0592
24.9294 77.3807 1.63534
-4.19164 135.236 4.94638
3.21774 119.604 5.21199
9.95532 119.539 -9.81635
-10.2385 153.167 -0.521861
-5.09728 139.039 3.13717
10.1441 119.507 -10.1423
7.32378 124.763 -9.41918
5.12474 126.084 -5.719
24.5202 78.006 2.39745
-6.06589 141.523 2.94289
3.26751 129.434 -5.01794
-7.75642 143.912 4.24115
12.2983 115.351 -10.1494
12.8412 95.8226 9.68317
11.1654 99.0208 10.0375
-5.12727 146.506 -4.32317
12.0457 116.531 -10.7293
13.5252 94.8876 9.27765
20.5387 83.2302 6.03088
20.1384 83.762 6.37044
14.6772 109.369 -8.87619
-5.43039 141.079 2.33713
-7.72317 144.243 4.28129
-5.92257 141.832 2.84955
21.9415 86.0424 0.1597
21.686 87.1089 -0.377272
-3.25016 132.638 6.82534
22.558 85.2426 -0.207925
8.75428 123.843 -10.641
7.7822 125.115 -9.81659
-9.88508 151.815 1.28806
10.4712 103.124 7.9272
14.8379 109.246 -8.49586
-2.35349 140.952 -3.86518
-3.9495 136.655 4.38552
-8.11585 152.282 -3.03191
-1.15624 138.138 -3.45963
8.08322 110.627 5.40693
-9.40633 150.735 1.66908
4.30379 119.095 4.86641
13.3023 95.8566 9.68508
14.8743 109.314 -8.36782
-4.32639 138.313 3.69517
12.5609 116.198 -10.4964
-9.39558 150.875 1.64025
8.54928 124.537 -10.4072
19.9107 84.8172 6.88386
7.71035 112.035 5.09789
-2.75945 131.739 7.58015
10.0657 105.637 6.82898
17.857 99.9939 -4.55559
-3.25168 135.232 5.06363
5.10656 127.712 -5.66765
-6.3055 142.904 3.77468
-1.56049 129.44 7.62577
19.8046 85.2369 7.19155
12.5988 116.437 -10.1912
3.24056 121.664 5.30536
11.3987 100.446 9.87752
-6.86279 151.418 -3.87744
18.2831 99.4357 -4.45945
22.9292 84.7063 0.948864
21.7906 89.0817 -1.11561
13.0073 97.0744 10.079
0.838932 135.294 -3.64015
21.5228 89.8705 -1.26106
15.7997 106.457 -6.19943
22.348 82.8685 4.46701
9.68107 123.675 -10.7099
7.23908 126.596 -8.31824
6.92742 115.294 4.59509
14.8124 110.559 -7.97358
14.547 112.012 -8.84868
14.9278 94.5951 9.15888
1.93359 124.53 6.20976
4.74062 120.166 4.6647
-6.72271 151.926 -3.65605
-2.431 143.38 -4.07082
18.1247 88.6477 8.66881
4.26214 130.703 -5.39309
11.9252 118.588 -9.59981
19.665 96.1753 -2.83724
15.2505 109.07 -6.75872
13.5241 115.82 -10.1342
16.783 103.562 -4.20841
21.906 85.8001 3.40647
14.0923 114.265 -9.62771
15.3049 108.998 -6.67422
11.9573 118.343 -9.16936
18.9746 87.4778 8.28924
-3.67445 146.439 -4.13033
18.2131 100.367 -3.81576
13.3347 97.8871 9.92513
-8.56853 152.67 0.325903
9.57684 109.605 6.03367
21.5216 84.5922 6.1177
12.0403 118.019 -8.46774
2.0987 125.329 6.1604
22.2943 84.4321 5.00655
-3.26448 139.32 3.52043
16.9474 91.8563 9.11559
-5.44465 150.706 -3.80387
-4.56772 142.779 2.80148
-4.09738 148.105 -3.99478
11.5459 104.281 8.24433
15.7384 108.995 -6.22703
-1.82376 134.938 5.42951
10.1091 125.333 -11.1021
14.9501 112.474 -8.07787
1.33484 127.57 6.37612
-5.65941 151.444 -3.55708
8.21253 114.688 4.819
18.8797 88.9582 8.50818
16.0849 94.4285 8.92545
16.3182 106.666 -4.68012
22.134 86.0025 4.49615
2.78294 135.035 -4.62027
5.05492 121.843 4.52817
-0.809469 131.97 6.85192
16.944 92.8356 9.01008
12.2632 117.986 -7.50399
0.939846 138.021 -3.49801
15.9249 95.2523 8.87262
-1.13157 132.74 7.02278
9.86515 126.426 -10.9571
14.0243 115.244 -8.26929
8.14261 115.54 4.67772
-3.8446 148.574 -3.88922
20.4825 96.2024 -2.18146
22.096 86.3669 4.81088
21.8502 87.123 4.55964
15.1587 112.613 -7.6597
8.13484 116.024 4.62481
12.7068 101.981 9.66858
3.61832 125.045 5.3296
12.444 118.382 -7.37547
12.4273 118.172 -7.06315
19.1401 89.7071 8.51318
21.2992 94.3694 -1.38233
8.53858 115.399 4.77409
13.7654 99.9521 9.73515
5.55625 131.763 -5.94032
10.5648 126.157 -11.1892
-2.26893 139.147 3.82206
-2.24796 146.295 -3.90816
18.4469 102.357 -3.12691
5.95831 121.671 4.31397
10.8298 125.922 -11.1972
-2.43795 147.03 -3.8785
-4.90221 151.642 -3.24057
19.5368 99.854 -2.5232
5.86524 131.85 -6.0587
13.0089 102.311 9.68951
18.4267 102.915 -3.13316
22.7324 89.0808 2.13612
18.7627 102.077 -2.88487
-1.41168 137.367 4.63129
4.43276 134.787 -5.62226
5.39716 133.289 -6.17832
12.9776 117.626 -6.26945
12.6903 121.19 -9.43393
14.5517 99.6453 9.65779
12.6598 118.296 -6.12458
-5.65077 153.221 -2.37868
-0.893445 136.513 4.90637
13.6871 116.409 -6.28795
22.9371 90.5822 0.747693
6.35139 131.838 -6.30389
-6.85405 154.142 -0.545497
7.50865 119.833 4.21337
12.8263 119.451 -7.29968
3.19535 137.326 -4.7932
12.8614 120.011 -7.90626
10.1279 128.484 -10.8584
8.76712 116.997 4.61713
4.50958 135.506 -5.72107
13.8342 115.737 -5.36463
22.33 93.7002 -0.695011
16.923 107.536 -3.37821
8.44348 118.106 4.39816
0.185178 133.345 6.60661
15.5816 113.614 -6.83469
14.0588 101.449 9.75023
0.541316 142 -3.38227
4.95278 125.521 4.45674
22.1424 91.0624 2.85286
-0.303999 135.859 5.18429
11.5755 125.142 -10.0553
12.2268 121.929 -8.01989
12.1057 123.868 -9.80319
1.70224 130.895 6.15459
9.90885 129.231 -10.5391
10.2594 128.922 -10.965
12.6848 122.672 -9.68159
15.7206 98.4656 9.62166
12.1924 122.355 -8.14816
20.7039 90.1154 7.55323
11.5353 126.747 -11.2158
9.60239 129.824 -10.1017
21.1843 89.8993 6.87563
17.0665 96.4989 9.0512
11.9392 108.218 7.99959
2.14964 139.647 -3.72469
16.2125 97.8857 9.61883
12.8072 106.084 8.54677
17.0646 109.761 -4.95083
1.54853 132.031 6.16315
22.5741 93.854 0.0382091
12.0584 122.973 -7.62471
13.4621 117.653 -5.00941
23.1165 91.2189 1.72518
9.18406 117.633 4.69655
13.3406 104.951 9.00094
13.0392 118.774 -5.21006
10.3374 129.589 -10.7507
8.90838 131.21 -9.11744
12.1019 108.657 8.05774
22.3366 94.8741 -0.12483
22.4078 92.0382 2.80495
1.44217 141.831 -3.50055
10.164 115.325 5.42397
10.8793 113.184 6.13874
-1.09683 140.772 3.40764
8.28217 120.435 4.25343
22.7647 91.9704 2.28488
-1.76029 148.91 -3.5666
3.10064 130.147 5.71309
22.6528 92.2157 2.52187
17.1858 97.2705 9.41116
11.8259 110.276 7.52655
22.9652 93.2257 0.789279
6.89078 124.08 3.79923
-0.258664 138.787 4.24887
14.2566 116.013 -3.9312
17.6371 107.553 -2.3168
12.7635 122.461 -7.38154
11.2117 112.774 6.59757
18.041 96.392 8.94443
12.9992 121.402 -6.51432
17.7503 107.246 -1.95546
18.7152 105.411 -2.01635
7.86447 133.084 -7.34789
2.0176 132.972 6.11151
10.5537 115.662 5.58377
3.64293 139.479 -4.43821
1.68934 133.914 5.99138
10.6625 130.456 -10.473
-2.2557 150.786 -3.24933
11.7586 128.408 -10.7211
2.93883 140.541 -3.8947
2.21942 132.891 6.00406
6.33254 126.506 3.71857
7.11452 134.494 -6.63562
23.0256 92.934 2.29871
6.15446 126.923 3.86062
13.055 122.598 -7.00614
14.2978 117.486 -4.27269
17.2312 98.6004 9.51419
-4.5373 154.427 -1.57536
2.81186 141.059 -3.73098
12.2259 125.79 -8.48061
7.44678 134.237 -6.79351
6.80357 135.395 -6.5776
7.17655 125.145 3.64903
12.914 123.848 -7.77287
16.9735 112.723 -4.87628
14.7114 116.025 -3.29618
22.8422 94.2901 1.81941
16.2936 113.406 -4.01328
14.7199 116.013 -3.26586
9.02468 132.761 -8.43188
11.299 130.05 -10.6068
20.3884 93.9071 7.90968
9.66137 132.222 -9.18255
13.5494 107.001 9.24654
13.5493 121.53 -6.4054
1.32342 144.378 -3.36507
10.3571 117.765 5.13538
12.7812 127.238 -10.5423
21.7242 99.0669 -0.336879
1.5947 144.031 -3.37264
22.9851 94.0694 2.304
12.7369 125.163 -8.05764
14.9342 116.341 -3.45491
9.26561 132.915 -8.53065
21.9014 93.994 4.93336
6.93966 126.571 3.56808
0.597754 139.414 4.12507
10.7662 131.791 -10.5735
22.3775 96.4636 1.36508
4.6733 139.423 -4.94464
2.66927 134.199 5.30316
11.8628 129.852 -10.6694
12.7874 126.743 -9.256
14.2158 120.34 -5.52786
19.5389 96.4641 8.25591
21.5898 99.876 -0.0331258
21.8026 99.1801 0.273281
18.3579 108.13 -1.58791
22.3056 97.3801 1.10679
18.5521 107.05 -0.827069
22.0612 94.3499 4.9968
-2.73682 153.18 -2.46416
16.4965 113.514 -3.02639
8.96265 133.888 -7.9995
21.91 98.9136 0.545189
1.27466 138.244 4.70016
-0.299031 143.932 2.17095
1.90252 136.127 5.63619
4.64815 131.393 4.60713
21.5654 100.156 0.201814
1.60001 137.479 5.01594
13.1229 109.664 9.03907
3.59187 133.5 4.85444
4.48473 131.729 4.81733
17.0636 113.019 -3.37918
4.27716 140.787 -4.46656
18.2604 99.1695 8.91926
12.9502 126.809 -8.88343
14.3767 121.05 -5.82406
13.2068 125.847 -8.28107
20.6038 95.7249 7.51969
12.9449 126.486 -8.29462
-2.60218 153.512 -2.32577
10.5117 119.221 5.07732
11.1668 132.407 -10.5537
0.606234 141.862 3.20869
22.057 98.8088 1.26488
12.4187 129.869 -10.4293
21.9645 99.1603 1.19387
9.33607 134.474 -8.39039
0.472331 142.395 3.09436
0.388423 142.636 3.04133
21.1285 96.0328 6.57736
21.138 101.744 0.519793
20.7023 103.538 -0.39426
10.4117 120.219 4.95612
4.72076 132.93 4.11497
-0.810704 151.298 -3.13305
8.61786 136.232 -7.81181
14.0396 124.31 -7.14485
3.97614 134.597 4.49441
4.29489 134.029 4.47354
1.46569 140.645 3.72747
20.9384 97.2504 6.83888
0.61004 143.731 2.61609
9.65716 135.479 -8.83697
18.8103 109.866 -1.81036
22.4109 97.2609 3.66552
2.77823 145.034 -3.47295
21.3727 101.124 1.93696
16.7596 103.547 9.76056
7.18545 139.71 -7.52046
21.2246 101.475 2.22857
0.207465 145.618 2.12869
6.65122 131.059 3.31936
5.96051 140.967 -5.72984
1.95475 140.326 4.01693
22.0035 98.4914 3.90683
20.7442 104.109 0.73491
20.7406 104.233 0.645393
12.3453 131.742 -10.0462
18.2685 112.354 -2.39997
16.2149 115.917 -1.56047
13.1757 129.603 -9.45076
20.7633 104.273 0.786435
13.0064 113.199 8.7101
15.4436 106.879 10.0854
12.7709 130.899 -9.66017
17.3017 103.599 9.58719
13.4661 112.194 9.04509
10.0657 136.485 -9.30999
11.8827 117.531 7.12381
5.00405 142.742 -4.45463
14.7055 124.131 -6.26831
4.59612 135.661 4.19165
8.43059 128.544 3.26653
17.7642 120.237 -8.79107
6.26955 141.599 -5.70319
11.0381 120.781 6.01673
15.9974 106.74 10.1359
10.8984 121.403 5.8424
4.63964 143.711 -4.03816
14.0007 124.677 -4.49971
10.619 122.887 5.15206
19.2988 101.737 8.40056
14.244 127.966 -8.41927
1.06018 145.806 2.12589
13.5602 113.095 9.20832
21.1079 102.965 3.18043
9.45572 127.008 3.56491
1.87489 143.225 3.1909
14.984 123.46 -5.0607
19.6395 109.038 0.060022
12.7873 128.394 -5.29996
16.9221 105.838 9.74136
9.68885 138.534 -9.13913
3.82877 138.392 4.30847
11.3279 120.735 6.48204
15.1474 123.217 -4.79582
21.0858 100.127 6.73568
17.6175 105.026 9.34956
14.5321 128.377 -8.859
19.0279 112.068 -1.39848
16.4776 123.022 -7.45649
8.34703 130.188 3.17205
2.70707 141.313 3.93011
13.8165 112.979 9.42561
14.1451 124.386 -3.58514
20.2728 101.654 7.2017
18.4349 121.636 -10.1456
18.2546 121.911 -10.0077
16.6008 119.787 -3.82108
14.1899 112.297 9.69683
19.7575 109.505 0.323854
16.7316 119.933 -4.09245
16.6135 123.383 -7.501
19.4116 111.268 -0.68326
21.4625 101.814 4.89284
17.5463 119.366 -5.10932
3.58531 147.02 -3.41414
6.5314 143.04 -5.6941
13.5988 128.948 -6.43487
15.6782 122.422 -4.0799
8.28585 141.241 -7.67885
17.0679 123.679 -8.39994
14.6557 111.81 9.92341
2.06385 144.931 2.65044
15.08 127.344 -7.7135
14.6828 128.285 -7.83156
13.8559 128.234 -5.90781
14.1203 128.81 -7.11438
14.1982 128.009 -6.42159
17.272 123.802 -8.81172
13.5978 128.515 -5.59517
5.94289 144.153 -5.06307
17.5422 116.083 -0.894904
13.2825 132.95 -9.38917
20.9398 103.213 5.42121
13.369 127.746 -3.94055
19.0091 122.507 -11.0106
3.94224 140.307 3.78474
20.8361 103.409 5.47417
14.8317 127.892 -7.37312
11.189 137.628 -9.65362
13.3532 115.717 9.10042
6.35248 135.811 3.31235
18.4468 117.715 -4.45121
17.0505 107.57 9.70501
17.0684 120.855 -4.61099
17.6466 115.568 -0.201374
5.33106 137.994 3.43843
12.822 117.586 8.68437
13.7177 127.805 -4.34838
14.47 129.337 -7.59506
17.3217 119.205 -3.09078
14.7567 112.701 9.78497
20.2652 105.173 5.55273
12.8938 117.783 8.75828
4.07814 147.619 -3.48885
16.8902 108.748 9.56609
3.41967 142.33 3.74789
15.3464 123.082 -2.39657
17.2172 119.901 -3.1192
15.0331 123.586 -2.05454
16.0244 122.339 -2.94111
8.42131 133.038 2.75355
14.0946 115.07 9.37454
14.3211 128.193 -5.22829
13.3998 130.461 -5.57946
19.2324 106.007 7.65669
16.6384 121.669 -3.35634
9.23432 131.226 3.08121
20.0311 106.01 5.91922
4.70717 140.532 3.26396
16.9998 119.684 -1.87853
15.4716 126.667 -5.95763
17.5619 119.125 -2.53712
14.9325 124.152 -1.95489
15.019 127.361 -5.51117
15.1685 129.514 -8.15136
11.7553 122.308 7.36294
14.1981 130.005 -6.3633
18.2592 108.075 8.12851
11.3435 125.276 5.2332
20.3438 106.294 5.42595
15.4665 129.165 -8.1669
20.2233 122.283 -11.3954
2.86669 145.479 2.86376
2.47792 146.152 3.05651
5.44608 146.44 -3.91865
18.6019 125.039 -10.4896
11.741 123.29 6.88501
11.9225 122.232 7.63675
7.37327 144.625 -6.20455
10.53 128.645 3.92421
11.9146 122.41 7.64553
19.4551 107.583 6.63182
16.643 122.678 -3.20831
12.1448 121.788 7.95792
18.0853 126.009 -9.97383
16.2015 126.074 -5.78537
14.9133 125.72 -2.49185
17.0993 110.696 9.03163
16.0519 126.436 -5.41338
5.67313 140.128 3.26592
7.77252 136.454 2.55944
14.7156 126.473 -2.24386
12.5349 137.351 -9.02757
11.7906 125.029 6.0377
20.7752 122.697 -11.7052
17.3473 120.306 -1.35714
15.6664 113.513 9.80038
16.3122 122.47 -1.2505
4.98487 142.018 3.26396
12.0388 123.148 7.70151
1.96805 153.536 -2.28243
17.4974 121.272 -2.52074
13.9371 128.152 -1.86206
18.4819 115.095 2.04859
21.2899 121.603 -11.2668
16.704 125.412 -4.94466
20.8932 109.501 2.7785
14.4914 127.411 -1.96553
16.9598 111.826 9.29928
16.4436 112.801 9.46669
20.4176 123.895 -11.4018
16.1894 113.361 9.49576
16.0779 126.888 -4.60723
17.3214 121.164 -1.21421
7.51562 138.018 2.75342
21.4014 121.017 -10.0761
20.9506 108.928 4.00322
11.065 141.113 -8.3389
18.2602 111.184 7.75385
15.4719 131.708 -8.06044
4.01502 151.067 -3.03369
19.7282 109.562 6.32418
13.1788 137.082 -8.54892
12.2718 123.536 8.10682
17.43 118.817 1.62714
11.3505 140.771 -8.30423
14.5911 128.314 -2.13488
15.0799 125.659 -0.350362
22.4219 121.377 -12.2133
13.8709 136.536 -9.07673
12.3472 123.884 8.14635
13.9482 119.551 9.20953
14.6297 132.684 -6.47739
17.0132 123.155 -1.53497
17.0739 113.811 8.52271
15.0122 132.867 -7.36691
18.8939 119.029 -1.07095
15.9278 129.569 -5.66054
18.3685 119.761 -0.56376
18.7777 119.216 -0.872525
16.3327 130.17 -7.10568
17.6469 123.53 -2.89358
17.0965 123.162 -1.2326
18.6621 119.402 -0.616018
3.52795 153.042 -2.71084
16.5745 128.508 -5.49787
17.7989 122.979 -2.15011
12.1644 126.174 7.14378
16.6285 128.49 -5.39122
15.6612 116.793 9.48821
6.67372 141.547 3.08645
8.80358 137.759 2.47875
11.4686 130.167 4.70876
17.7447 121.889 -0.504274
7.64806 147.576 -5.29582
19.1671 112.35 6.71586
15.4169 126.275 0.167274
16.1489 125.307 -0.43816
15.7037 133.092 -7.82487
18.4241 113.333 7.35551
14.134 120.665 9.1918
18.7755 119.744 -0.267028
18.2886 120.771 -0.269029
7.08534 148.126 -4.45861
18.7416 117.286 2.51821
6.49574 142.512 2.98903
12.8101 139.095 -7.52852
10.3838 134.395 3.01892
5.33639 150.829 -3.20581
19.2792 112.746 6.53043
12.75 139.494 -7.55724
18.6295 120.735 -0.518619
11.735 128.976 6.17337
17.7683 122.478 -0.339232
20.2775 112.972 4.42867
12.431 140.722 -7.73439
13.2361 123.823 8.75313
4.42347 152.993 -2.77101
11.669 130.72 4.94875
12.8059 124.885 8.69191
15.7748 129.585 -2.99043
16.2893 129.426 -3.941
15.7861 129.801 -3.0967
15.9161 129.936 -3.21602
19.0861 129.393 -9.76189
18.2138 118.216 4.34732
18.6316 122.256 -0.909908
11.0712 133.644 3.9398
7.01961 143.325 2.70223
10.7083 135.015 3.42817
12.4316 127.437 7.75317
14.4076 122.03 9.13743
7.72941 148.808 -4.67
12.3854 127.816 7.55457
15.3985 134.372 -6.30993
17.3203 124.065 0.471398
16.71 132.105 -6.78938
16.5074 130.434 -4.50247
17.4868 123.964 0.275773
4.78704 147.638 3.42711
12.9736 140.622 -7.45246
16.3754 131.156 -4.79012
16.6534 125.99 0.156709
20.8635 118.795 -1.57968
16.4577 132.884 -6.78983
16.1848 126.504 0.719562
11.6461 130.654 6.60295
11.6501 130.762 6.49613
16.8458 125.438 0.675855
16.5821 130.435 -4.08887
18.1641 123.997 -0.702281
10.5087 145.568 -6.65986
14.557 122.722 8.97569
17.4683 132.672 -8.31387
17.2296 124.898 0.664367
14.5136 124.26 7.56421
12.6381 141.981 -7.26906
14.145 125.309 7.33869
18.4971 131.665 -9.30944
16.369 133.738 -6.7042
11.7047 130.691 7.14262
17.9355 117.244 7.61696
15.0646 137.392 -7.6265
11.2186 133.982 4.89946
16.0937 134.689 -6.82012
8.90329 141.145 2.46458
6.15936 146.778 2.5861
10.1296 138.516 2.54602
19.4465 121.13 0.527303
20.5507 128.401 -9.78816
7.66047 144.278 2.39674
23.1506 124.2 -10.8706
16.5061 127.21 0.878417
23.3228 123.652 -10.6559
21.4839 118.851 -1.30218
20.2148 129.072 -9.44987
6.72771 151.956 -3.48686
18.642 124.025 -0.161982
9.15014 149.002 -5.63813
11.6682 132.383 6.63616
15.8657 136.227 -6.95956
9.07237 149.098 -5.50952
19.1483 131.47 -9.17908
8.89879 142.346 2.37112
5.636 148.672 2.94632
18.4568 122.084 2.71054
8.13528 150.409 -4.4696
11.3094 134.545 5.4877
17.2426 119.762 8.11704
16.6163 121.024 8.18966
17.8423 133.27 -7.74209
16.1219 123.922 6.30169
16.4383 134.966 -6.30597
11.2492 135.429 4.92322
22.7737 125.348 -10.1393
23.5778 123.645 -10.0873
11.5921 133.352 6.60188
13.221 142.443 -6.87343
16.6194 121.568 7.99592
11.0253 137.978 2.92251
6.86408 147.347 2.27785
16.3791 122.621 7.53375
12.0561 132.181 7.06907
17.7306 121.855 5.43819
8.71406 143.842 2.16733
10.2052 148.153 -5.83032
9.81998 141.6 2.22082
17.7964 122.189 5.17021
10.9294 138.793 2.79532
6.88942 147.828 2.21831
13.4456 142.386 -6.68817
18.1257 125.912 0.562898
15.1062 138.679 -6.34997
17.9715 122.601 4.56434
17.469 126.933 1.07046
10.4383 140.386 2.45128
10.9414 139.261 2.84823
20.5715 121.266 0.726276
20.1555 122.052 0.853004
14.5197 140.35 -6.14745
18.0405 126.377 1.05818
20.4052 121.68 0.798347
18.8585 123.382 2.48514
17.5846 134.498 -6.61652
19.3285 132.778 -8.65949
15.7515 127.547 5.41293
7.78459 147.32 2.08338
17.9827 134.467 -6.96426
19.0498 124.191 1.8866
18.8607 125.367 1.05608
12.008 146.399 -6.09116
18.4683 126.978 0.340834
23.4114 125.231 -8.77185
15.7144 127.971 5.64063
23.5935 124.877 -8.74655
13.2612 144.091 -6.10081
15.4953 128.368 5.81421
18.5447 126.741 0.75614
6.50401 150.074 2.79326
15.2122 139.728 -5.63297
17.4542 126.72 3.49307
20.2475 131.814 -8.27513
13.6779 143.416 -5.95817
6.28083 154.524 -1.23736
12.1063 146.662 -5.77074
15.7202 138.873 -5.45164
8.23661 147.663 1.99024
11.9118 136.939 5.29043
17.8377 135.931 -6.66064
21.5504 121.472 0.684303
17.993 126.859 2.91105
7.52325 149.498 2.14927
21.2946 121.997 0.871159
11.7134 147.483 -4.97338
9.69008 145.187 2.07554
11.1719 141.299 3.05743
15.9977 129.921 4.47693
9.0728 151.487 -3.14434
16.5102 130.205 3.07462
20.4405 123.808 1.17059
21.0837 131.24 -8.08578
16.7786 129.174 3.8735
16.1669 130.235 4.17532
9.5112 150.974 -3.126
11.2397 141.698 3.04738
9.32629 146.662 2.03756
12.9769 146.09 -5.49239
13.1218 134.832 6.4874
23.0703 120.017 0.207452
18.5435 128.373 1.57967
15.1976 141.398 -4.69184
8.585 152.799 -1.90119
11.0926 143.701 2.58388
12.1699 140.004 4.14366
12.2051 139.928 4.21387
22.9443 128.604 -7.78107
25.3349 123.929 -7.91012
23.7279 126.803 -7.36613
16.4027 131.536 4.12481
25.1769 124.276 -7.83202
