ply
format ascii 1.0
comment Created by Open3D
element vertex 1939
property double x
property double y
property double z
end_header
-7.46391 103.57 -12.9813
-32.5725 133.515 7.07286
-22.9542 126.106 -5.37465
-20.8343 107.174 12.3173
-27.0077 125.541 4.29731
2.74137 82.8111 -10.785
-20.7322 123.422 -6.89063
-15.4581 115.738 -9.40251
4.37579 78.8645 -9.57397
-14.5062 114.047 -9.42913
-6.38127 101.666 -12.6892
-24.9379 127.442 -2.08853
-9.391 86.7836 11.6638
-24.4453 127.455 -3.11684
5.01145 77.0944 -8.56696
-5.90737 100.871 -12.5328
-27.2697 126.925 3.83179
1.41258 86.2032 -11.2771
-25.5956 128.96 -2.1387
-1.14119 92.4131 -12.894
-15.5982 97.7948 12.6327
-19.9157 106.284 12.1471
5.81315 75.3207 -8.00698
-19.6797 122.375 -7.29583
-10.6663 88.943 12.3052
-26.7346 131.709 -2.69253
-20.5648 123.694 -6.79145
2.6368 83.7341 -10.7612
-19.5323 122.299 -7.32622
-11.954 91.3061 12.5609
-33.9591 138.205 5.75318
-14.8533 115.289 -9.30225
-23.8228 128.14 -4.67244
-33.0869 135.95 6.584
-25.1732 120.81 7.01632
-24.6869 119.75 7.42486
4.8992 78.4686 -9.05385
-30.3655 135.861 1.01538
5.52153 76.6826 -8.22392
6.03628 75.4765 -7.91719
-24.3872 128.035 -2.86867
-7.16884 84.5207 10.5505
-10.3069 88.9049 12.309
-29.909 130.51 6.51916
2.64684 84.2956 -10.7049
-11.1441 90.387 12.516
-0.749724 92.4365 -12.8006
-16.3515 117.947 -8.49002
-23.9159 118.859 7.14212
-26.9381 126.291 5.08445
-3.87791 79.0681 10.0169
-5.47799 101.223 -12.5373
-23.9089 118.121 8.22666
-24.3452 127.651 -2.05577
-27.8339 127.702 5.57762
-7.3066 85.0473 10.6888
-21.3002 109.837 12.2955
-28.341 135.03 -1.86861
-4.7284 81.0342 9.95752
-26.8078 127.499 3.87391
-5.47668 101.662 -12.5899
-22.9376 127.296 -4.3356
2.04878 86.3798 -11.0357
-17.3537 103.218 11.9164
-27.8566 135.097 -2.40095
-24.0592 127.882 -2.25615
4.56878 80.7777 -9.73396
-4.40828 100.211 -12.8307
-26.7652 126.698 5.19533
-23.9785 119.089 8.08725
-11.1002 110.74 -10.4442
-7.94106 106.791 -12.739
-27.7915 128.039 5.9457
-27.7552 135.126 -2.46961
-19.8295 108.038 12.0347
-9.2427 88.1483 12.2053
-25.6672 124.179 5.92068
-23.8892 128.218 -2.61705
-22.9958 113.817 12.4492
-3.99916 80.4697 10.0049
-18.4353 122.079 -7.11262
-32.7567 137.685 6.09242
-22.0797 127.664 -5.44819
-10.273 90.4039 12.5498
-11.9228 93.5722 12.4597
-31.9943 136.633 5.91974
-17.1537 120.301 -7.40328
-23.8291 128.608 -2.48736
-17.3193 104.578 11.6313
-5.84593 84.1194 10.6254
-32.6192 139.61 4.16688
-24.4706 130.064 -2.48624
-8.45782 87.7313 12.1723
-32.3144 137.61 5.91298
1.80338 88.8718 -11.714
-0.799819 75.0729 10.5571
-4.8467 82.792 10.3753
6.89473 76.1059 -7.57397
6.54872 76.9251 -7.74029
-17.0298 120.597 -7.28896
-13.1226 114.816 -8.99184
-17.4068 121.269 -7.05236
-23.6629 119.474 8.89402
1.7485 89.6261 -11.878
-28.5972 130.494 6.85182
-15.5165 118.702 -8.04883
-5.67726 104.477 -12.9251
-32.3969 139.481 4.73073
-17.7646 122.112 -6.91226
-28.6716 130.73 6.96389
-32.3434 139.59 4.63963
-26.6199 135.335 -2.95249
-13.8586 98.3409 12.5753
-4.49482 82.6874 10.4109
-27.1106 128.725 5.94939
-27.0211 128.489 6.10964
-25.2223 122.734 8.93899
-26.3272 127.302 6.08252
-28.5488 136.345 0.378511
-6.17654 85.6487 10.9365
-3.79747 101.321 -12.7546
-27.8792 135.902 -0.434764
1.201 91.4198 -12.0414
-21.9148 128.686 -4.98727
6.51342 77.941 -7.71723
-3.48761 101.013 -12.8281
2.40123 88.841 -11.4425
3.85442 85.1343 -10.2664
-28.4948 130.899 7.12196
-27.4344 129.454 6.5668
-16.4952 105.051 11.5182
-21.8809 114.529 12.334
-7.6977 108.776 -12.133
-29.6972 133.583 7.09357
-0.77759 97.249 -13.5031
-10.3091 93.3093 12.1838
-8.97708 111.003 -11.6223
-1.15992 77.9838 10.1088
6.93788 77.8265 -7.52041
-19.3643 126.009 -6.333
-23.7789 120.57 9.82995
-10.3382 112.218 -9.90317
-21.0734 113.359 12.5229
-13.5705 117.03 -8.30619
-9.63771 111.895 -10.8969
-7.84469 88.8097 12.4078
-5.81749 106.606 -13.0353
-15.9402 104.711 11.5436
-26.1792 128.631 6.068
-11.6335 96.1222 12.3971
-23.9256 121.011 10.1751
-9.45587 112.029 -11.0019
7.53534 77.1269 -7.26109
-23.28 131.659 -3.64774
-24.1081 132.246 -2.24977
-25.852 128.463 6.15546
-12.8699 98.8487 12.4861
5.87979 82.4624 -9.45703
5.55803 83.2488 -9.66904
-1.73162 80.2485 9.9854
-31.3039 140.009 4.75699
-24.8275 125.157 8.05986
-27.164 130.414 7.01001
-11.991 115.467 -8.79314
-24.9637 125.608 7.97125
4.96996 84.8842 -9.93231
-0.191561 77.6066 10.1542
-23.0518 131.411 -2.88737
4.61003 85.7918 -9.99039
-0.16053 97.6396 -13.4382
-12.1237 98.1871 12.3124
-29.1101 134.485 7.09313
-23.6179 132.076 -2.1445
-0.475307 98.5332 -13.4783
-20.7331 114.527 12.3841
-5.01403 106.652 -12.9488
-4.57486 105.848 -12.8546
-23.0477 131.844 -2.77691
-0.0294321 77.8896 10.1623
-20.1773 113.599 12.5303
-8.16402 91.6775 11.9287
-20.777 114.935 12.3343
-8.50321 112.083 -11.3477
-17.395 108.966 11.9277
-14.6107 104.086 11.5776
-20.7504 128.916 -4.15192
-27.5447 131.962 7.24589
-18.8449 111.534 12.1806
8.34077 76.9169 -6.78505
-0.687886 79.4964 10.0829
-28.5668 134.114 7.13556
-15.1162 105.424 11.3407
-29.1954 135.696 6.66587
-29.2042 136.344 6.08609
-8.74029 93.4884 11.5757
-28.8692 138.59 2.73772
-28.644 138.451 2.46424
-9.39293 113.329 -10.2016
-25.0825 128.865 6.15154
-10.3433 114.33 -9.09211
-11.4449 98.6557 11.9356
-12.7226 117.985 -7.8686
-18.4083 111.67 12.1311
-6.24452 109.357 -11.9111
2.30738 74.8288 9.99527
-19.282 128.462 -5.60889
-24.3839 125.304 9.4224
6.78161 82.2126 -8.38757
-22.6078 132.681 -3.13698
-10.8518 98.1312 11.7385
-28.7478 136.383 6.09731
-23.2071 121.214 11.842
0.692931 78.02 10.1786
-25.9885 130.724 6.80521
-0.190298 99.8014 -13.429
-10.6144 98.0176 11.658
-22.5596 133.711 -4.09373
-29.9236 140.567 4.05506
-19.9608 129.589 -4.8977
4.38532 89.1506 -10.5961
-28.5652 139.217 2.9985
-27.0988 138.864 0.183099
-11.8991 117.38 -7.94145
-22.0302 118.968 12.5575
-24.4153 127.874 7.41902
-3.2118 85.0044 11.267
-18.0728 127.094 -5.62349
-22.0558 119.141 12.5604
-18.2328 112.402 12.1055
-8.97546 114.054 -10.2286
2.34377 75.7297 10.0535
-28.6842 139.438 3.27416
0.0499908 99.932 -13.4297
-19.6703 129.416 -4.73189
-18.3972 127.668 -5.47185
-24.2764 128.961 6.06929
-9.18555 114.252 -9.80348
-23.035 121.958 11.7125
-9.49443 96.8403 11.5554
-2.9449 84.8536 11.2845
0.62357 79.2596 10.1988
-18.3238 127.854 -5.33487
-6.52008 111.036 -11.4631
-29.3171 140.38 4.21928
-2.13426 104.382 -13.1839
-1.9729 104.092 -13.1743
-25.9927 131.959 6.9058
-9.90884 98.1886 11.377
7.09841 82.9534 -8.06114
-26.2466 132.666 6.82134
-27.3335 139.116 1.63005
-16.9913 125.952 -5.52774
-6.85465 92.86 11.2014
-24.6667 130.424 6.17235
-8.55098 95.9772 11.3168
-24.9374 138.312 -2.50899
6.73097 84.6834 -9.02541
0.511689 100.137 -13.4446
-26.3622 139.873 -0.985157
-3.87541 87.3888 11.4109
-17.55 112.502 12.0231
-24.0375 129.456 6.32073
5.19291 88.8509 -10.0998
-1.96946 104.963 -13.3019
-10.789 100.259 11.6886
6.69275 85.5231 -9.32807
-13.8057 121.191 -6.19917
-27.5479 139.817 2.18275
-20.4884 131.933 -4.04358
-18.486 114.336 12.3487
-25.2857 132.028 6.47075
-20.4511 131.953 -4.07475
-18.0284 113.611 12.2278
-16.6063 125.862 -5.34838
-17.3748 112.626 12.0131
-7.75257 113.963 -10.7618
-6.59813 93.363 11.0004
-2.72914 106.538 -13.067
-23.1806 137.08 -3.96969
-15.7011 109.623 11.9573
-12.3604 119.421 -6.94011
-16.1681 110.359 12.1768
-27.4988 136.921 5.85047
-23.2337 125.021 10.5043
-26.2287 140.321 -0.845173
3.88372 75.1792 9.86966
-23.4905 129.952 5.62187
5.64058 88.6666 -9.81891
-0.639123 103.461 -13.3836
3.09242 76.6211 10.1047
-17.2628 127.412 -4.93993
-27.5384 141.289 1.413
-27.2567 137.153 5.73276
-23.5488 126.51 10.1203
-8.24677 115.222 -10.2794
-20.2832 118.56 12.3146
0.674255 81.1742 10.2476
-20.0314 118.156 12.3467
-1.25041 105.028 -13.497
-13.5923 106.863 11.5686
-22.1676 122.632 11.9186
-27.6847 140.951 2.54577
4.37769 75.0124 9.7428
-9.2921 115.97 -8.3804
-8.41393 115.578 -9.79576
-21.944 134.342 -1.94692
4.22329 75.484 9.88934
-7.30423 96.3886 10.7015
-23.0114 137.684 -3.39328
-5.20578 111.362 -11.5401
-8.30721 98.1173 10.9597
-28.6879 141.006 5.51547
5.70471 90.04 -10.1368
-22.634 128.15 7.46079
-24.146 139.195 -2.17272
11.2169 75.2766 -4.62237
-21.3251 135.162 -3.42519
-18.2188 130.392 -4.62822
-22.6693 127.606 8.4734
-23.4733 138.526 -2.60339
-29.3203 142.303 5.88349
-22.672 130.063 5.68425
1.13514 101.817 -13.4415
-3.28361 88.5747 11.9243
-8.11158 98.4251 10.9476
-0.0372061 104.006 -13.3981
2.05467 80.1518 10.1433
-5.98933 94.8282 10.5767
-9.52081 100.958 11.1681
3.86989 76.8279 10.1569
-6.41841 113.986 -10.9535
-3.98164 89.7553 12.2908
9.5453 80.4043 -6.36409
-2.73633 87.937 11.8196
-22.4495 127.482 8.69724
-12.4324 106.504 11.5555
8.18934 83.8086 -7.08232
0.463653 83.1224 10.7604
0.147355 104.225 -13.4059
3.35565 78.2707 10.1818
-15.4913 126.153 -4.7572
-16.8981 114.537 12.1395
-22.2728 127.347 8.91661
-19.3241 119.12 12.1627
-21.3563 122.68 12.4537
1.83927 81.335 10.1568
-22.3614 125.736 11.1332
-20.3741 134.744 -3.85472
-21.6754 123.824 11.9297
-6.79652 97.2347 10.5465
-5.46825 113.041 -11.0275
-16.8862 114.785 12.1498
-1.59076 86.6649 11.735
10.3193 79.2253 -5.70377
-2.89354 88.8256 12.0953
-9.14395 101.311 11.1539
-26.2321 142.153 0.692075
-7.50029 98.6622 10.8848
-22.0018 127.025 9.44694
0.218347 104.883 -13.3566
-15.6262 113.056 12.0853
3.90643 96.6728 -11.6205
-8.12052 117.059 -9.15186
-18.928 119.227 12.1226
-16.554 114.846 12.1256
-21.6642 137.204 -2.97686
2.66487 80.6737 10.1034
8.26166 85.0682 -7.2948
-6.91543 116.073 -10.4211
-26.6874 139.29 5.77853
9.69336 81.4627 -6.07537
-11.258 120.868 -6.32251
4.75137 94.9968 -11.0801
4.03115 96.8396 -11.6056
2.8602 100.198 -12.9734
-6.59459 97.9242 10.5534
8.45878 84.7681 -6.90045
-24.5243 134.999 6.5525
-20.4698 135.856 -3.2306
-14.2257 111.175 12.1496
-20.8763 123.473 12.3302
-18.9894 120.263 12.0204
10.3903 80.6157 -5.86743
-23.1083 132.749 6.48553
-20.1125 122.409 12.1095
-20.8655 123.685 12.3301
6.67442 91.0071 -9.77132
-3.62527 111.932 -11.7293
-21.5741 126.027 11.2379
-21.1426 136.89 -2.51814
-28.2157 142.822 6.1624
10.7804 79.9901 -5.63063
8.91194 84.4631 -6.65486
-19.2803 121.391 11.9629
-16.1126 130.967 -6.26345
-24.1875 135.312 6.41301
-4.03286 94.0946 10.6868
11.6212 77.9006 -4.68369
-5.22523 96.7599 10.2292
5.64269 94.2331 -10.7011
-21.2628 125.496 11.8334
-8.2732 101.879 11.1226
8.12056 88.0563 -8.69927
6.73097 75.2911 9.44265
-20.9868 125.001 12.0252
-4.89432 96.4887 10.2526
-16.1412 115.926 12.1287
-9.14524 119.136 -7.06215
-26.8128 143.623 2.99775
-11.1887 122.071 -5.95146
-5.94661 116.176 -10.5265
-12.9489 110.248 11.9351
2.4504 82.8123 10.4814
-17.5884 132.924 -4.47054
4.83677 78.5473 10.3101
-24.7439 137.522 5.95391
11.1033 80.2556 -5.43023
-12.8316 124.478 -4.84279
2.30319 103.207 -13.0197
-13.2659 125.134 -4.55649
-10.1948 105.801 11.4869
-9.53369 104.432 11.6463
12.8255 75.7999 -3.84681
-24.4694 142.25 -0.0108178
4.19863 80.0505 10.2355
8.76218 86.89 -7.85025
-3.80162 94.9396 10.447
-1.31981 88.757 12.2929
-23.0169 140.823 -1.31262
2.30747 103.427 -13.0015
10.7915 81.307 -5.57251
0.0733171 107.009 -12.2735
-17.6842 119.501 12.1395
-21.5218 131.931 5.93422
-12.2827 109.748 11.8496
-7.50332 118.355 -8.7712
-3.65583 113.257 -11.2004
-16.7999 118.201 12.0237
4.47093 80.0066 10.2664
1.89476 84.2018 11.005
-16.3053 132.838 -6.13707
6.03327 77.3531 10.1032
-18.5683 121.766 11.9389
-6.04026 99.5174 10.6102
2.35348 83.7364 10.7542
-27.0415 144.311 4.07602
-17.8628 120.442 12.087
8.40439 89.1734 -8.84478
9.49144 85.1189 -6.36282
-5.1722 98.4688 10.2119
-20.6328 126.766 10.9143
4.73078 79.9627 10.3048
-12.376 124.694 -4.70752
3.25966 102.2 -12.5099
3.06027 102.611 -12.5305
-15.019 130.518 -5.54406
-6.41131 118.094 -9.80416
-9.5674 106.079 11.382
-26.783 144.509 4.0024
-14.8887 130.09 -5.11395
-20.511 128.607 9.10143
-18.5982 135.782 -3.50639
-3.4939 113.775 -10.7968
-26.8881 142.598 6.76021
-18.2082 122.01 11.9268
-18.311 135.393 -3.62769
1.32218 106.489 -12.6964
-8.48389 120.045 -7.06597
-14.0154 127.887 -4.12036
-9.62321 121.622 -6.38074
-3.33519 95.8632 10.2126
9.82392 85.2681 -6.18565
3.08053 103.209 -12.4751
-2.50787 93.9662 10.8022
-20.438 128.184 9.97431
-14.6947 130.432 -5.29582
-13.2081 113.091 11.9125
0.481594 107.731 -11.9204
-4.51769 115.59 -10.0865
-5.50808 100.061 10.4661
-5.57877 100.213 10.4506
3.0276 103.575 -12.4671
9.98287 85.2039 -6.11617
-24.3188 139.226 6.00481
-1.02594 90.2403 12.4843
-11.8168 124.914 -4.57109
-5.51575 100.481 10.3865
-6.6191 102.382 10.6161
6.31512 78.4893 10.3414
-4.01336 115.108 -10.0527
-26.0685 142.057 6.78791
-2.46036 94.8067 10.5077
-13.429 114.264 11.7317
-3.72496 97.7638 9.81993
3.35474 83.9781 10.5089
-4.14378 98.5102 9.90704
-2.92674 96.0926 10.1113
-6.00169 101.746 10.3161
-26.3364 142.592 6.96303
-19.8836 130.315 7.32207
14.3547 74.6698 -2.39384
12.4766 79.4853 -3.84621
-26.3231 143.234 6.65603
0.507361 88.4978 12.265
-18.9221 125.303 11.8407
-24.5782 144.716 1.46842
-13.9713 130.233 -4.74657
-4.90758 117.759 -10.0042
-15.2529 134.074 -6.41823
-13.7982 129.754 -4.52038
-23.0383 137.625 6.60574
-14.5587 117.422 11.8375
-17.6203 136.594 -4.03207
0.670458 88.6263 12.2753
-14.4794 133.061 -6.7473
-0.430303 90.5964 12.5291
-17.1991 135.936 -4.00075
-9.6331 123.088 -5.49446
-0.672931 110.816 -10.6993
-14.6265 117.823 11.7995
2.52213 86.2624 11.2701
-21.0811 141.463 -1.77881
10.6754 85.6099 -5.6924
-19.5865 128.062 10.9295
-18.5225 138.595 -3.77122
-19.1281 139.953 -4.02695
-23.8787 139.975 6.45238
-6.81903 120.359 -7.99162
-19.0228 126.64 11.5768
-17.569 137.428 -4.32453
-20.2503 133.088 6.7158
2.33811 107.293 -12.6038
-19.7604 131.709 7.30144
-24.8211 141.645 6.88358
-12.5723 128.164 -4.20465
7.44134 78.6822 10.1358
-7.83809 121.394 -6.57202
10.5322 86.3829 -5.65711
7.83233 94.636 -9.41476
-1.37071 95.0573 10.4133
-1.90355 113.328 -9.8601
13.8731 78.1184 -3.05414
-4.18565 100.798 10.0622
-11.4332 126.567 -4.34609
-1.05631 94.5568 10.603
-13.5309 116.881 11.7758
2.70852 106.975 -12.3213
-8.15082 122.085 -6.16945
12.3447 81.4438 -3.39072
-0.112396 91.5085 12.1936
10.0407 88.4396 -6.4207
-8.11179 122.212 -6.08703
-25.5233 144.168 6.45178
-1.65043 113.416 -9.81147
-15.2704 135.209 -5.48666
-20.5142 134.93 6.42015
-19.2845 130.15 9.35761
5.02907 102.709 -11.706
9.25085 91.7288 -8.04975
-1.31225 113.089 -9.93844
-12.9166 130.378 -4.70946
13.6335 79.5872 -3.26468
-16.2168 122.617 11.8265
-11.1856 113.431 11.6619
-6.32292 121.145 -8.15393
-18.7897 128.871 10.3209
-8.30876 108.391 11.4388
9.54026 76.8386 9.45768
5.94286 82.7308 10.5021
11.0377 86.6746 -5.31563
-13.0515 131.797 -5.4518
-6.64925 121.659 -7.58875
-11.1065 127.33 -4.43558
-10.4385 126.094 -4.35937
-23.89 141.488 7.1603
-11.0819 127.413 -4.44345
-12.3772 116.313 11.6238
-8.77659 123.776 -5.11373
5.48296 102.65 -11.5803
9.5674 91.9657 -7.87498
10.3277 89.2435 -6.32478
-0.234389 94.7893 10.5606
-6.26895 121.798 -7.91941
-13.168 133.378 -6.3193
-24.7842 145.949 4.50106
0.425627 111.869 -10.6814
-19.8307 135.382 6.24829
-19.0078 141.048 -2.24218
0.866847 91.6009 12.3275
-9.36831 111.425 11.6398
-24.7514 144.376 6.67992
-3.23605 101.741 9.62257
-13.3573 118.879 11.7405
-19.9204 135.69 6.37775
-6.85289 107.407 10.9769
10.5 90.1183 -6.72742
12.7289 82.8348 -3.01142
10.8623 88.4 -5.45694
-3.11355 102.005 9.51442
-20.0274 136.106 6.58178
-24.6622 145.581 5.72174
-21.3583 138.115 7.26207
-0.396714 96.7317 9.92677
-1.6505 115.266 -9.15715
-5.91997 122.361 -8.09528
-3.34488 102.808 9.32027
5.23794 104.254 -11.2798
10.2837 91.4639 -7.26361
9.31813 94.6739 -8.81396
12.4084 84.624 -3.75199
-9.66769 126.444 -4.37269
-13.8521 120.453 11.9589
-21.5498 145.046 -0.0912751
-20.5624 137.236 7.03914
-1.11813 99.087 9.2331
-2.49533 101.578 9.41574
10.7062 90.2287 -6.27695
2.44743 89.9305 12.3135
9.45235 94.8686 -8.77472
6.29754 84.2988 10.6865
-17.9971 141.958 -3.72746
13.2798 82.3743 -2.28643
6.42306 84.208 10.694
-16.9794 127.349 11.4523
-13.4397 120.482 11.8774
-11.2919 116.791 11.5151
7.5796 99.7954 -9.98404
-1.71327 116.147 -8.7647
13.8471 81.5926 -2.25828
-12.7507 119.409 11.8145
16.2428 76.2643 -1.09616
-20.3451 144.278 -0.696359
1.64033 92.255 12.3
-14.8342 123.781 11.4304
-12.878 135.449 -6.64772
-23.2918 147.13 2.53015
-15.5103 139.382 -5.4237
-3.40095 104.661 8.94983
15.294 79.0307 -1.97633
8.53725 97.8435 -9.19879
-21.4331 139.949 7.17974
13.3792 83.0366 -2.37657
-21.3259 139.85 7.11088
-0.868648 115.392 -9.11337
5.45306 86.6743 10.8395
-17.024 128.654 10.8698
10.4253 92.8656 -7.39034
-19.3853 143.507 -1.38121
-0.667909 115.213 -9.24121
12.6035 85.9984 -3.98026
10.4271 78.8565 9.26829
-17.7733 132.748 7.87107
1.06123 113.214 -10.5576
-16.1644 126.721 11.5375
-13.2576 121.116 11.7588
-17.6043 133.534 6.73327
10.7792 78.3983 9.23614
8.96144 97.3322 -9.07934
1.78569 92.8242 12.1523
-18.0981 135.401 5.793
-3.56466 105.576 9.00302
15.3415 79.5447 -1.92906
-23.6301 146.617 4.95083
2.7371 91.0613 12.405
-13.4296 137.183 -6.35608
12.4307 87.2152 -4.36355
-11.3073 132.902 -5.91695
-11.4647 133.403 -6.09965
0.317516 98.231 9.54065
-5.97546 109.256 10.4168
-2.65576 104.512 8.74426
-0.811718 101.072 8.83267
-2.27939 103.897 8.73653
-12.8849 121.337 11.6576
-7.00783 125.294 -5.95972
15.1316 80.7241 -2.10779
10.8528 92.5223 -6.57024
-15.8092 126.978 11.5656
-20.649 146.079 -0.176166
6.05776 86.7936 10.9299
16.6259 77.0471 -0.824452
7.58769 102.502 -10.917
-11.5287 134.343 -6.34546
-12.2498 120.455 11.6573
8.36658 100.146 -9.80518
-4.83397 122.985 -7.65547
-13.8079 123.593 11.4228
-12.5776 136.69 -6.60924
7.76452 83.9182 10.8213
-8.98992 128.019 -4.23115
-22.0495 142.536 7.5705
-15.5 141.042 -5.10015
12.9126 87.0419 -3.85476
8.73979 99.6178 -9.47601
-2.25372 119.037 -8.11388
-23.156 146.898 5.15373
11.4967 90.9286 -5.16913
11.101 92.4641 -6.08433
-9.79875 130.541 -4.85403
4.89826 89.177 11.5692
-17.952 136.964 5.62246
-6.67049 125.861 -6.04534
-0.694949 102.29 8.66753
-7.37089 112.8 10.992
-13.3008 123.53 11.4052
-12.1286 121.24 11.5436
0.976772 98.5103 9.51618
-14.8139 126.428 11.4597
4.98803 108.385 -10.8895
-17.4059 136.416 5.40716
-15.7139 129.319 10.0617
-6.64207 126.029 -6.006
-14.1102 125.344 11.3562
4.34629 110.066 -11.1301
10.7812 94.5059 -6.90427
-22.4087 147.921 3.32656
-22.3226 147.955 3.15999
-22.4718 147.783 3.75307
-8.69777 128.956 -4.35078
-3.63159 108.159 9.02751
-21.4063 148.047 1.2023
-22.5516 146.007 6.14963
-3.6088 108.29 9.01904
-22.4031 145.801 6.26967
-9.26853 117.107 11.3908
1.51189 98.4625 9.64562
-7.08909 127.098 -5.16922
16.7465 79.0722 -1.00447
10.4605 97.2925 -8.46519
-19.9074 147.068 -0.197902
-14.5036 141.328 -5.30318
1.75526 98.1604 9.85282
-16.1576 134.933 5.9468
-16.1182 134.893 5.97405
-8.21913 115.707 11.2722
8.8039 84.5301 10.7577
-8.28765 129.162 -4.22501
-16.7593 144.622 -3.79347
-20.7922 142.684 7.53818
-11.8252 122.836 11.1945
-13.5846 125.966 11.3806
5.0806 110.227 -11.1578
-17.4081 144.3 -1.76896
-19.6619 141.194 6.87364
2.35584 96.6263 10.9442
-4.37876 110.348 9.63351
17.9456 75.9503 1.11839
-10.6143 120.532 11.5011
14.7514 83.3853 -0.555561
-8.90027 117.505 11.367
-2.96885 108.707 8.68168
5.63008 109.418 -11.0652
14.514 85.0728 -1.75931
-16.8745 144.656 -2.87783
2.39708 115.173 -10.5608
-17.1687 144.419 -1.90323
-10.4492 135.424 -6.06511
-10.9101 121.64 11.2981
-3.27341 109.445 8.90388
7.38032 106.166 -10.6889
6.38345 89.3959 11.304
10.2031 83.1075 10.3304
13.4749 79.1902 7.74614
-14.4188 129.125 10.3262
-2.29134 121.822 -7.7015
-2.30537 108.325 8.3363
-14.9364 131.211 9.18263
-11.0805 137.242 -6.40208
-14.6611 130.353 9.65632
-0.19499 104.804 7.98197
-6.92948 115.012 10.8173
-10.2784 135.542 -5.99132
15.6032 75.3348 8.07652
1.28924 101.618 8.66378
-14.5779 130.405 9.69202
-12.8683 125.783 11.4195
10.5216 83.1609 10.2372
14.0567 78.5402 7.90503
11.38 96.4345 -7.21279
-18.0729 146.033 -0.80543
-13.7989 128.105 10.9826
-11.972 139.021 -5.88042
13.2533 89.8924 -3.49954
-21.5952 146.925 6.07629
10.9776 82.743 10.019
-16.5211 138 5.43591
-15.1213 134.55 6.43691
-4.58686 125.388 -5.9637
-9.21276 132.617 -4.2446
-21.5603 147.9 4.94813
17.1153 80.3767 -0.587546
-15.0352 135.972 4.77392
17.031 80.7439 -0.603681
16.7839 81.315 -0.699903
3.89329 94.7134 12.0944
10.4917 100.371 -9.10516
3.13901 115.673 -10.9264
-5.12816 113.483 10.0559
5.11776 112.92 -11.7761
14.805 86.3267 -1.74515
3.32594 96.6571 11.3771
9.732 85.2562 10.7238
6.92644 108.541 -10.5472
12.9795 81.1769 8.40136
-4.7205 126.234 -5.66628
18.2283 77.358 1.47817
-19.5598 148.623 0.740489
-4.8766 113.38 9.96404
-5.24569 113.974 10.0877
-14.7276 135.783 5.3199
-1.79589 109.378 7.9745
-7.47493 117.581 10.8193
-6.96308 129.339 -4.17643
-17.8717 146.737 -0.629384
14.0762 88.9947 -2.90089
18.8653 75.7232 2.27469
1.11876 103.984 8.09308
-14.3877 132.211 9.15368
3.55188 115.766 -10.9757
15.3336 84.5109 -0.00386809
-14.834 136.761 4.9005
11.0104 99.6983 -8.26335
-7.35984 130.409 -3.87875
-2.36024 110.735 8.31922
-18.9817 142.931 7.02437
-12.0194 126.52 11.0498
-9.8288 136.937 -6.04302
-16.7765 140.708 4.82881
12.429 94.7927 -5.30825
-9.98997 137.333 -6.06478
19.1401 75.5822 2.62185
17.6816 80.26 0.319443
18.6036 77.1708 1.94489
-20.741 147.026 6.26909
-12.2928 127.255 11.0425
-17.3827 146.726 -0.649915
-14.0386 131.776 9.6447
-16.6292 146.522 -2.03776
14.5734 80.3904 7.22647
6.38186 111.535 -11.4443
13.6605 90.9293 -3.17058
12.2857 82.8096 9.4522
-16.8892 146.417 -1.26922
-5.06068 114.769 10.0072
17.7453 80.117 0.695867
-9.78994 137.235 -5.9676
2.88376 117.333 -10.3977
17.2508 80.4887 1.45678
13.553 91.4177 -3.2784
10.9435 100.439 -8.1129
-16.4869 141.358 4.31872
8.71016 106.737 -10.3374
-6.68182 117.872 10.4528
-14.3527 134.562 7.77267
17.9576 79.7822 1.24376
15.0348 80.4412 6.94521
-0.303129 108.697 7.46512
15.5743 79.4625 6.99687
-11.5628 140.777 -5.41666
-7.57623 132.147 -3.98574
-3.89451 113.968 9.36165
-11.5258 140.806 -5.41921
16.6966 81.8121 1.99651
15.8609 84.5179 0.652091
16.0288 78.3726 7.53777
14.12 81.9125 7.64536
14.9239 88.703 -2.10948
-13.8939 133.676 8.34657
16.0275 79.0036 6.9423
-19.9351 149.384 3.21865
-14.7375 138.163 5.01284
-19.3045 144.869 7.26418
18.7991 77.8039 2.48848
11.4376 99.9227 -7.36298
-16.1028 141.936 3.77722
-19.8167 149.452 3.12874
15.0009 88.8135 -2.04505
-9.05799 122.771 10.9232
13.3566 93.1641 -3.52146
4.58702 96.4946 11.9566
-1.962 112.027 8.06522
16.3825 81.9628 3.18767
12.79 96.087 -5.47994
13.0944 94.6775 -4.45981
-13.5206 133.672 8.20828
12.0983 98.734 -7.01184
-2.3467 125.389 -6.57839
7.2244 92.2719 11.4813
19.1944 76.8454 3.33179
-6.60246 119.055 10.3989
15.572 80.7774 6.73224
8.47449 90.4375 10.9993
-9.80495 124.772 10.8168
-13.124 132.661 8.82633
-14.4605 138.278 5.15711
2.02547 119.246 -8.70495
16.4896 81.5585 3.90392
-15.6241 141.989 3.39448
-19.5485 146.554 6.70527
-13.3236 133.832 8.01209
-9.23342 123.912 10.8009
13.6939 83.1487 8.45317
17.1443 82.6598 1.42716
-4.06019 127.886 -5.1919
14.6137 82.167 7.59796
5.90071 94.7973 11.9333
16.3992 84.5936 0.891872
4.43048 98.4609 10.9636
18.638 77.0582 4.90377
14.2853 82.6864 7.90077
-1.1786 111.864 7.57625
8.66477 108.36 -9.96503
-16.4589 147.337 -0.568568
16.8479 83.9869 0.775712
-10.7485 140.946 -5.5639
-5.49834 130.679 -4.97454
10.6018 104.5 -9.55648
7.88323 110.753 -10.911
-14.9193 140.323 4.55185
-12.149 131.269 9.20143
11.3246 86.3177 10.5447
-2.62531 114.138 8.48242
10.2461 105.791 -9.90383
-8.20844 122.841 10.6751
-10.6398 141.27 -5.60771
18.7691 76.2654 6.31665
-14.0109 138.859 4.724
13.8735 83.6053 8.47844
-16.8475 144.116 4.89179
-12.055 143.743 -5.08645
-17.8367 144.785 6.46238
4.4737 100.093 10.1141
2.99725 104.518 8.17103
13.6097 95.0571 -3.92117
-9.86082 140.511 -5.76174
2.80563 105.244 7.97334
0.310438 110.684 7.06911
-15.0858 142.603 3.3764
9.24403 90.7622 10.9503
17.9226 78.9055 5.82118
-18.3459 145.592 7.11217
-12.5803 136.459 5.19045
16.8415 83.3358 3.13173
-12.4207 134.203 7.61435
-10.7948 129.004 10.2508
-18.6952 150.083 2.86724
3.26938 104.711 8.12841
2.78224 119.71 -8.488
-8.39727 124.53 10.4835
8.38416 111.508 -11.0232
-6.74718 133.597 -3.70774
-17.4506 149.934 0.64792
-7.22338 134.375 -3.47846
11.9612 86.7873 10.4616
-2.34957 115.413 8.26081
-16.292 148.695 -0.274691
16.4726 84.0422 3.82721
2.13581 107.848 7.36677
9.85405 108.105 -9.74877
7.88454 93.7238 11.6308
4.90935 100.739 9.93197
15.2154 91.551 -1.87666
7.46261 94.7361 11.4935
17.2345 84.5784 1.94895
11.5803 103.019 -7.28319
-7.64775 137.024 -4.97485
9.80561 108.46 -9.7265
17.3866 83.7641 2.73189
-1.43532 114.729 7.69282
-13.4096 140.06 4.21143
-15.8693 148.578 -0.407117
-18.5959 148.908 5.25859
13.8078 96.5897 -4.40406
17.2808 83.9167 2.90543
-8.30962 125.458 10.3055
11.6189 103.288 -7.34085
0.0198614 112.935 6.88227
13.8235 96.7875 -4.48003
12.0236 87.5307 10.4904
16.1687 88.9476 -0.293447
-11.5107 133.991 7.57373
15.8554 90.2789 -1.14904
7.55917 95.2069 11.3268
-10.7862 131.493 9.00894
-9.19221 140.939 -5.64882
8.99692 111.463 -10.8599
-13.1388 139.018 5.51059
-14.5193 143.924 2.78543
-13.0536 138.695 5.74344
-2.49438 128.159 -5.0352
17.4769 81.1866 6.38427
-3.91625 118.767 9.21603
1.33987 122.241 -6.453
-1.04508 114.972 7.39834
-2.31393 116.666 8.21311
2.02541 109.6 7.00521
-4.65849 131.898 -4.57165
16.7963 81.7307 7.36658
-11.5414 134.711 7.33804
5.56694 99.6188 11.0584
17.1144 81.4103 7.09756
11.7335 103.495 -7.07241
-0.237826 113.925 7.03374
-6.42726 134.414 -3.41937
-13.8317 148.534 -3.66434
0.208549 124.386 -6.1075
-8.15899 139.241 -4.99828
11.7082 104.65 -7.96284
-10.3296 143.972 -5.70309
15.538 92.1091 -1.52367
12.7849 87.2431 10.2857
-4.66068 120.565 9.4671
1.1697 112.034 6.71136
-0.995224 126.574 -5.66528
9.67468 110.734 -10.4065
-5.6002 133.576 -3.67269
-3.70275 130.956 -4.75781
16.5132 82.8073 7.53697
-10.6796 144.748 -5.4536
-4.91786 121.697 9.46173
13.5835 98.9725 -4.44689
-4.56376 132.642 -4.16827
-3.02853 118.993 8.59315
16.2 90.68 -0.365771
-17.4839 148.498 5.65794
5.97426 100.34 10.7993
-10.3548 133.369 7.9763
-7.426 126.306 9.90829
-6.51603 136.337 -3.88384
-9.18316 142.556 -5.29471
-12.3934 139.464 5.53902
-2.11916 118.167 8.0284
-13.3333 149.176 -3.76177
-17.3013 149.971 4.10057
-2.15551 129.037 -4.57912
-9.64679 143.82 -5.49577
-12.2434 139.232 5.74269
4.70877 105.666 8.01033
12.1257 103.658 -5.78255
-3.06986 131.119 -4.60618
17.6608 86.7121 2.16761
-4.01775 132.621 -4.19352
-10.8643 137.589 5.07262
8.15482 114.862 -10.0012
-14.9103 149.871 -0.401888
17.5803 87.194 1.94845
11.3886 108.5 -9.49652
11.119 109.099 -9.60948
-9.51089 132.105 8.79467
2.9543 121.97 -6.70196
-6.52893 125.748 9.77111
11.4412 108.593 -9.45374
-5.83253 124.841 9.64512
-0.410668 117.144 6.81267
16.7141 85.911 5.97202
7.53541 98.2562 11.6668
12.8024 102.008 -4.33153
-16.5192 148.605 5.39476
-10.5293 136.725 6.25106
-10.5655 137.756 5.12256
-4.54353 133.85 -3.50524
-13.6788 149.934 -2.29663
-10.4108 136.984 5.81961
10.4217 93.8033 10.8711
1.20588 125.046 -5.67529
-1.98754 119.664 7.75452
-13.0956 144.636 2.82902
11.5126 109.055 -9.2658
11.6979 108.354 -8.82734
-3.71115 122.308 8.77816
16.0783 85.5803 8.50129
9.80875 113.028 -10.0546
14.8209 97.8263 -3.1407
8.01983 116.813 -10.5289
2.46946 112.862 6.36881
-11.1694 139.017 5.57404
-6.18467 126.441 9.49639
17.6268 88.5021 1.79938
10.0225 112.727 -9.97257
12.1843 106.018 -6.76253
3.26897 111.369 6.62437
14.0661 99.5473 -3.2234
-0.70122 128.35 -4.64152
15.2476 96.9803 -2.75408
-15.8408 148.053 5.53126
10.8225 93.8457 10.7349
-10.0356 136.446 6.45387
-6.39823 139.219 -4.8006
-14.5348 147.458 3.55446
-9.20456 134.698 6.88415
-13.9361 150.281 -1.05181
16.6058 88.0835 5.13321
-5.84444 138.077 -4.33579
11.2422 110.737 -9.70128
16.9671 85.7266 7.19246
-14.0521 147.184 3.07751
-8.79638 144.6 -5.41859
-1.34105 119.889 7.32931
15.0434 87.5445 9.39205
9.11073 96.8414 11.5081
7.74982 99.4468 11.5156
17.5381 88.059 3.39435
-12.5841 144.536 3.16514
2.17195 114.364 6.26261
-5.04547 135.967 -3.27523
-1.35833 130.049 -4.41215
17.9554 88.2528 2.36277
12.5807 104.893 -5.41021
15.2725 87.4662 9.24124
3.95247 123.113 -7.85103
-1.07116 129.646 -4.44894
-12.7984 150.671 -3.35554
-9.6713 146.84 -5.67112
-4.96348 125.544 9.13496
15.3111 87.5833 9.24318
12.606 105.166 -5.52304
10.2468 95.7623 10.7941
6.47972 104.767 8.60266
10.0523 96.0927 10.9759
2.34206 114.559 6.2072
16.851 86.692 7.12304
-8.81071 135.183 6.46982
-13.9063 150.78 -0.694262
7.36216 118.409 -9.29297
-9.17327 136.073 6.3128
10.8181 95.2853 10.4476
2.60563 124.469 -5.86593
-5.61298 138.67 -4.36859
3.55883 123.349 -6.48665
5.19458 121.506 -7.89133
4.89003 123.094 -9.02125
6.15676 106.406 8.0783
-13.2203 147.436 2.41043
-12.7568 147.011 1.93192
-14.4503 151.346 0.564661
11.8174 109.744 -8.21367
16.004 96.3522 -1.57564
-7.39321 131.459 8.65732
6.34361 121.577 -9.94805
6.11613 121.944 -9.7902
6.67612 120.373 -9.14415
-4.6116 136.474 -3.24571
-0.57977 120.45 6.82755
17.6103 89.55 3.24464
15.2142 88.8611 9.42522
7.82453 101.08 11.3889
-11.6838 142.411 5.62761
-14.5073 151.73 0.897003
0.483623 119.051 6.42403
4.57336 124.227 -8.60505
0.533647 128.535 -4.70625
-8.89498 137.587 5.40472
12.9892 104.58 -3.87803
16.4856 88.1899 7.76487
16.8592 88.746 6.37381
-12.2403 151.501 -3.42551
8.17756 119.481 -10.6264
-5.59714 140.122 -4.57869
0.891881 118.836 6.24918
16.1326 96.8449 -1.38251
-3.87731 135.838 -3.28508
-0.34818 130.192 -4.38128
11.7256 111.488 -8.86734
-14.0432 151.692 0.499937
16.9283 94.2873 -0.0186609
0.772635 119.148 6.26854
11.5577 95.5771 10.346
15.4344 89.254 9.29392
13.4364 103.764 -3.37818
-7.17289 143.525 -4.77602
-1.7253 122.919 7.56753
16.8964 88.5488 7.08346
6.57425 107.027 8.05453
-13.1007 148.459 2.58526
17.1591 94.091 0.200281
-13.8812 151.96 0.359288
-6.13116 130.378 8.83439
-2.76607 134.351 -3.26224
11.7185 112.284 -9.14027
17.9702 90.8617 2.49635
-6.86633 132.177 8.49824
-5.22557 128.747 8.94513
16.6456 96.159 -0.638143
-14.224 152.297 1.22571
-3.97246 136.934 -3.22639
16.3082 89.3364 8.23422
8.54363 101.387 11.1611
13.801 103.614 -3.0537
-8.11139 137.761 5.00357
6.43016 108.261 7.77322
4.35481 125.418 -7.79316
-10.2857 140.685 6.47219
10.4679 115.947 -10.0066
-14.3937 151.941 2.43039
16.4397 97.1601 -0.818964
4.25417 125.667 -7.46516
7.95556 103.886 10.0896
11.8051 96.309 10.6008
7.13944 123.393 -11.0531
1.75568 119.232 5.89874
14.6988 91.6347 9.93742
9.56859 117.879 -9.59081
13.8867 104.182 -2.89962
-6.8535 144.541 -4.77694
0.712865 121.23 6.12135
-13.4717 152.794 0.157737
14.4896 92.3235 9.95805
-6.33148 132.961 7.95139
14.3474 103.287 -2.5808
13.046 107.474 -4.59471
16.1778 91.1248 7.79703
12.1985 111.909 -7.90605
9.56667 119.051 -10.4702
-11.823 148.953 1.41237
15.8114 91.2365 8.6342
16.4183 97.9384 -0.610263
-3.47743 137.306 -3.19589
7.51091 106.75 8.70003
12.3749 111.105 -7.10891
15.5472 100.321 -1.24231
5.76687 111.86 6.79231
-9.80465 150.623 -4.61669
-6.13248 133.472 7.54068
7.44069 107.431 8.446
-6.093 133.498 7.51958
-8.87873 149.464 -5.14914
0.955288 130.904 -4.9034
-9.29563 141.012 5.81781
-13.3567 152.08 1.74887
-4.85142 141.44 -4.38202
16.0101 92.2995 7.70314
-5.15535 142.279 -4.5612
-2.12264 135.455 -3.18771
-7.04112 137.679 5.05811
-12.3996 150.244 2.06904
-10.6014 145.175 4.09501
0.734872 122.271 6.15194
15.575 100.82 -1.23117
2.97271 118.62 5.55982
1.78835 129.88 -5.11231
-9.10766 141.121 5.67192
-12.8493 152.757 0.193987
16.0906 92.4365 7.61678
10.6096 115.616 -7.64062
2.23623 120.178 5.64173
-1.77726 135.272 -3.16846
2.40929 120.088 5.60678
-2.8142 137.299 -3.17295
9.82184 119.769 -10.3052
0.739305 132.082 -4.81311
15.5341 92.5839 9.20292
-6.52104 136.947 5.47669
-4.15657 140.487 -3.86516
0.289125 123.46 6.42719
-10.2146 142.945 6.63783
8.11863 123.865 -11.2185
7.70745 124.633 -11.2007
-10.2695 144.791 4.76132
-7.71462 140.467 4.32228
9.74926 102.186 11.0104
0.0544208 124.082 6.54958
5.18649 114.965 6.05521
15.2212 102.743 -1.64111
8.61104 122.705 -10.6059
1.22783 131.885 -5.02832
-7.34144 148.298 -5.44674
-6.50994 137.895 5.00761
-1.07683 125.826 7.27986
13.6712 107.055 -2.9285
17.64 93.175 4.75242
-5.26831 134.138 7.00975
8.43789 124.042 -11.276
10.9157 100.617 10.908
-3.41456 129.97 7.91626
4.36628 127.724 -6.5506
-10.245 147.804 1.96713
-6.19625 137.476 5.25648
-1.73639 127.35 7.45741
-7.24321 148.595 -5.3551
-10.1493 147.832 1.9784
4.12956 118.176 5.52528
-5.15031 134.471 6.76412
-8.9313 141.99 6.39121
5.25732 127.315 -7.53496
-6.25158 146.541 -4.81728
17.9351 93.4973 4.46022
14.0316 106.301 -2.04158
13.8215 108.327 -3.93878
-11.4857 153.475 -1.42799
7.33065 126.194 -10.6436
-10.7032 153.063 -2.5671
-6.06372 146.257 -4.7274
12.404 113.863 -7.18246
3.90186 119.095 5.4122
11.1496 100.944 10.922
-7.78712 141.883 4.36761
-7.00442 140.447 4.33765
6.55908 126.94 -9.57789
-5.74645 137.211 5.44185
16.624 100.09 0.0504817
15.6145 102.932 -1.07092
-8.34219 142.05 5.58844
-6.15499 138.839 4.57007
-10.3958 149.901 0.941306
16.8326 99.541 0.379105
9.15416 106.056 9.65545
2.43241 122.164 5.47397
15.6424 103.063 -0.998131
5.70672 127.487 -7.89293
17.1809 98.3015 1.40491
17.509 96.9662 2.27765
10.4638 119.427 -8.60965
-4.52101 134.307 6.89828
-5.10219 136.347 5.79605
-4.85543 135.67 6.05902
14.746 95.9687 9.72372
-0.644091 135.701 -3.22397
5.05515 128.574 -7.36006
4.20545 129.658 -6.76333
8.72815 107.402 9.55667
8.09439 109.944 8.18961
-11.4319 152.268 1.29784
17.6341 96.5745 3.08343
2.90474 122.227 5.32938
-4.26025 143.865 -4.3797
-2.80342 131.163 7.42578
13.383 112.213 -5.88975
-0.43427 135.791 -3.2369
-9.18872 145.801 4.26311
-4.63855 144.774 -4.47934
-3.18934 131.929 7.51364
6.17282 115.723 6.07432
3.63566 131.082 -6.41468
-7.37986 142.443 4.47251
17.5796 95.2642 5.16111
4.80827 118.923 5.40821
1.79186 133.574 -5.20134
14.1949 110.256 -4.88722
-6.60157 149.225 -5.01345
-3.34054 142.135 -3.81582
5.93662 128.307 -7.92104
16.8134 95.9521 6.31352
4.12274 120.616 5.18841
-8.87569 145.138 4.92638
14.4289 107.384 -1.87391
-3.2274 132.483 7.43775
-4.81925 145.589 -4.50069
13.0441 99.3867 10.6579
16.4855 95.4538 7.72302
2.80871 123.216 5.19016
8.76572 108.649 9.26506
13.8128 111.859 -5.48193
14.173 110.991 -5.22558
16.4436 95.8161 7.70475
3.25031 122.62 5.15965
14.2468 110.741 -5.02204
10.7275 120.432 -8.67962
10.3546 119.868 -7.18489
1.92411 133.953 -5.1969
-10.0641 151.175 0.913155
9.89096 121.151 -7.57525
7.91653 127.581 -10.6841
0.452609 127.082 6.39248
14.6915 98.1271 9.1749
1.387 125.909 5.78858
17.177 99.4458 2.22527
5.14747 119.387 5.32644
-1.03975 138.098 -3.10659
-2.33903 131.961 7.02278
16.5677 102.185 0.631978
11.4997 115.264 -3.58043
16.3933 96.4703 7.81601
4.82531 120.329 5.1894
-9.70521 151.351 0.657501
-9.40494 150.902 0.557609
12.7293 101.022 10.6282
9.92306 106.666 10.1663
5.7677 118.375 5.51063
-5.97675 149.154 -4.82015
10.0832 106.413 10.2276
0.560372 136.247 -3.87775
-9.55083 151.382 0.556013
6.01067 129.472 -7.88417
13.4219 99.9861 10.5991
-1.78617 131.845 6.72621
17.3527 97.8149 4.7083
5.90613 129.858 -7.75237
15.7419 97.7914 8.40838
3.43391 123.876 4.89021
4.24546 122.366 4.90493
16.7705 101.359 2.3324
0.430085 128.371 6.51723
15.1523 106.62 -0.231722
10.0788 123.64 -9.08497
16.8716 100.787 2.95882
-4.62664 139.73 4.44317
-0.457348 130.155 6.71215
14.8834 110.009 -3.29879
16.8906 97.6267 6.9274
10.4914 121.695 -7.32719
-3.25813 144.674 -4.10236
5.79922 130.677 -7.49273
-4.63762 140.342 4.17768
2.53077 135.236 -5.57013
-0.922112 131.441 6.59794
13.6721 112.757 -3.47174
8.3034 128.829 -10.5763
8.73831 128.622 -11.1921
-1.57404 141.222 -3.32583
-4.05572 146.767 -4.38996
4.9602 132.124 -6.87709
2.00183 127.237 5.45162
9.97344 125.394 -9.91349
-1.99638 142.363 -3.45777
12.1011 115.547 -2.88643
2.77792 126.292 4.9843
-3.65097 138.163 5.18575
11.7868 117.652 -4.55304
0.894791 137.561 -4.0139
13.6338 112.917 -2.97801
11.2008 120.036 -5.74855
2.16941 136.513 -5.16682
6.19467 120.236 5.20608
11.1177 106.253 10.8615
15.3654 108.496 -1.12857
-2.356 135.348 6.26708
-2.34703 135.474 6.19002
3.7123 125.568 4.5828
7.84639 116.288 6.42083
3.93309 134.583 -6.52377
-3.25836 146.124 -4.19638
-2.61209 136.646 5.58281
16.2259 99.3557 8.14374
16.7576 103.202 2.43564
13.3341 102.653 10.6578
15.3621 109.234 -1.55887
-3.34995 138.605 5.03177
-7.45678 144.854 6.73066
12.163 117.982 -4.7616
2.06571 137.084 -4.98606
0.79959 129.947 6.23198
-8.8857 154.241 -1.07104
10.3071 125.655 -9.61234
-0.0757746 139.672 -3.19093
15.451 109.12 -1.32945
17.016 99.3073 6.84423
10.2447 127.174 -11.0584
12.7919 103.907 10.8029
8.31946 115.262 7.26348
12.5486 115.875 -2.77638
10.1428 127.488 -10.9981
7.84453 117.346 6.25965
-2.00568 136.042 5.91752
12.4854 104.817 10.9134
10.7773 124.327 -8.32566
17.1383 99.9484 6.48464
3.66489 136.084 -6.26164
12.7726 115.737 -2.31673
7.57194 118.627 5.7386
-1.88519 136.322 5.78086
-4.59716 143.026 3.89912
5.80066 132.906 -7.06213
14.2306 102.637 10.109
2.43001 137.509 -5.02301
8.12087 116.956 6.72
4.8659 125.09 4.35434
14.0025 103.016 10.2952
9.73725 112.076 9.03043
4.12069 126.583 4.36546
15.9649 101.051 8.48065
-7.80833 153.99 -1.45139
8.57429 115.794 7.55424
-4.88401 143.821 4.14812
15.1814 102.081 9.28396
10.6829 125.897 -8.89753
8.33526 116.834 7.05012
14.6425 112.405 -1.62296
4.57753 135.369 -6.49393
17.1996 102.16 4.99488
10.6425 127.805 -10.781
17.1872 102.299 4.94694
8.85263 130.975 -10.5015
3.18828 137.355 -5.45972
-4.74999 144.006 4.29266
6.53791 122.77 4.5395
9.08142 114.907 8.40962
2.5481 130.283 4.81336
13.4267 116.166 -2.46058
8.4968 117.193 7.23128
14.316 104.059 9.92264
17.2479 102.649 5.17565
-4.15202 143.819 3.76774
0.192922 133.661 6.29212
8.74867 131.596 -9.98243
4.42233 137.02 -6.82214
16.6645 103.28 6.11703
-3.44265 142.902 3.77844
-2.11623 139.755 4.60955
16.0608 103.85 6.92321
9.41225 114.766 8.77148
13.8146 113.907 0.1267
3.26632 138.162 -5.21589
-2.38707 140.811 4.1872
-1.23308 137.961 5.15151
-1.24842 138.058 5.11953
9.62248 114.494 8.99794
13.6484 105.802 10.4709
14.991 104.438 9.16596
-2.81801 149.11 -4.17838
8.18356 119.477 6.63154
2.4819 139.502 -4.28932
14.8231 105.033 9.19212
7.74258 121.129 5.84559
-3.65037 144.225 3.73939
16.6047 104.728 5.72604
8.13156 119.905 6.52088
14.2858 119.451 -6.5069
16.3751 109.369 0.881211
6.37781 125.145 4.31633
7.81356 121.16 5.94778
4.54757 137.918 -6.60786
16.969 106.289 3.34788
-1.75418 140.434 4.34937
-0.923781 145.666 -3.63363
14.5467 118.585 -5.74782
7.70413 121.724 5.77525
13.5829 119.439 -4.46356
5.9635 136.026 -7.07812
15.2916 117.515 -5.71038
7.93047 133.566 -8.41337
13.9001 106.783 10.0821
14.0416 120.02 -5.84768
14.3068 106.482 9.56583
14.2093 119.967 -5.90976
5.35357 128.173 3.99531
0.451426 143.398 -3.14129
12.6724 122.687 -5.6209
8.21421 133.667 -8.66588
8.10348 133.795 -8.56082
-5.13611 153.479 -2.58181
13.8972 119.496 -4.42913
16.7661 105.761 5.53261
16.5699 109.49 1.65235
15.6344 106.335 7.60724
11.6218 125.373 -5.95624
2.15927 133.967 4.78127
15.3578 112.724 0.855093
-0.0670954 145.177 -3.42484
12.9933 122.167 -5.03915
7.65554 123.637 4.99094
12.2511 127.537 -9.73127
2.65706 133.387 4.53708
13.5836 122.77 -7.00812
6.66198 136.028 -7.39276
2.73054 133.407 4.45862
4.98793 138.809 -6.8746
-0.656895 146.584 -3.60039
-2.79593 144.391 3.70892
13.8386 122.543 -7.16159
-1.93509 142.872 3.66519
14.0786 119.327 -3.84135
0.98269 143.219 -3.16001
-0.414337 146.166 -3.55527
8.48236 120.599 7.00632
11.8633 123.906 -4.34018
13.4439 123.218 -7.00972
11.6949 127.157 -7.7686
1.99032 134.672 4.77168
8.89196 119.299 7.71354
3.51235 132.417 4.10199
5.2843 138.658 -7.09972
9.49511 133.036 -9.69964
16.1598 111.86 0.598713
12.2034 127.163 -8.64309
0.458586 136.824 5.84762
11.2697 130.31 -10.2818
-2.46429 144.13 3.69413
11.9155 123.707 -3.76216
12.8707 122.367 -4.26863
12.6177 122.703 -4.01943
10.4367 132.315 -10.5209
-0.805146 147.684 -3.6729
9.41547 133.59 -9.50795
9.89419 116.859 9.18285
2.37245 134.759 4.68107
16.8719 110.636 1.36666
12.584 122.792 -3.47171
-2.83746 151.751 -3.6357
15.5846 112.804 1.91714
14.0529 123.666 -7.50405
-0.91787 148.442 -3.72886
15.9035 118.723 -5.56449
1.23684 144.125 -3.18918
5.4817 139.527 -7.093
14.1012 118.762 -1.49692
8.97933 134.908 -9.24286
11.6289 130.382 -9.7124
1.30875 136.975 5.34058
12.1415 128.994 -9.0945
14.7267 118.709 -2.61389
11.8548 127.253 -6.32142
11.1587 127.006 -4.46094
14.6938 123.144 -7.63491
2.87718 134.88 4.59018
0.0873958 140.153 4.58219
13.9726 110.203 9.33437
9.05821 135.17 -9.28308
15.6567 108.57 7.5848
16.4447 108.464 6.11902
8.07105 125.257 4.76953
16.9994 108.317 5.08217
15.2967 118.096 -2.63996
7.92876 136.708 -8.30982
15.2177 115.11 1.14732
14.3494 118.772 -1.25793
15.089 116.925 -0.703293
-1.31192 143.911 3.61104
-3.82117 153.801 -2.3754
16.1305 116.689 -2.47953
8.22198 125.246 4.93426
-0.72554 149.36 -3.72799
13.7895 121.363 -2.67141
15.2129 122.951 -7.55746
11.3578 125.352 -1.83993
13.4953 125.665 -6.91101
16.4208 112.422 2.29596
15.2836 115.829 0.79083
14.9018 123.654 -7.46114
17.0037 120.489 -8.296
10.5252 117.501 9.61129
3.28893 142.436 -3.82919
12.4522 127.55 -6.4389
14.9943 119.893 -2.90392
10.8929 133.903 -10.2513
16.6972 116.123 -2.00207
4.35479 133.858 4.30453
7.4726 138.493 -7.88528
1.10187 139.727 4.82524
5.64634 132.506 3.37391
6.54117 130.716 3.62067
14.2146 125.454 -7.07092
8.34185 126.426 4.73048
11.0455 134.094 -10.1711
11.4084 126.685 -2.19439
15.4398 118.504 -1.42014
3.05429 136.841 4.36401
6.70411 140.092 -7.47098
15.7128 117.959 -1.08384
12.6122 127.476 -5.45261
7.14012 129.957 3.70942
17.0494 115.907 -1.53046
12.7947 124.006 -1.70555
14.5097 120.579 -1.37757
14.2332 126.195 -7.33766
14.0166 127.343 -8.19123
16.8176 122.798 -8.98061
14.7011 111.879 8.60994
14.2633 120.914 -1.04676
11.5277 126.235 -1.28044
13.0779 123.632 -1.47742
15.7496 115.522 2.22115
0.789621 142.105 3.9133
16.8757 123.067 -8.95484
17.906 121.087 -8.85475
14.3019 127.176 -8.04654
4.02157 143 -4.05495
6.86207 131.271 3.52324
14.9839 112.215 8.1144
17.0033 111.193 4.92794
10.6951 119.146 9.49339
11.8735 127.664 -3.12432
16.245 117.654 -0.843773
12.273 125.016 -0.765373
13.318 114.279 9.60664
12.2912 128.304 -4.60787
13.3835 127.883 -6.39254
16.9242 111.366 5.33997
13.4129 125.48 -3.50938
13.4024 123.533 -1.16979
1.97596 146.681 -3.25358
15.8384 124.994 -8.1913
14.6247 118.559 2.16713
14.6921 118.746 1.82949
13.8202 125.344 -4.00321
12.2469 133.122 -9.69
17.3515 115.928 -0.634758
14.8767 123.346 -3.8512
14.0408 126.078 -5.18214
14.5816 124.529 -4.431
14.9024 124.743 -5.38573
16.0635 115.452 3.08581
12.1883 125.778 -0.505207
12.7189 132.215 -9.24705
2.65537 145.996 -3.3206
16.0301 115.961 2.66569
1.06849 149.002 -3.33657
14.1334 125.484 -4.37107
14.7378 119.009 1.96533
4.81949 136.317 3.40607
14.2514 122.831 -1.46528
10.8647 119.884 9.49519
12.1459 130.523 -5.87894
12.4833 116.342 10.1286
7.01916 132.289 3.38603
15.8044 120.22 -1.68623
0.662458 150.057 -3.47653
12.6956 128.158 -4.09316
14.6794 118.924 2.46994
16.0589 116.105 2.77909
13.7629 129.354 -7.77259
10.4728 121.187 9.13901
16.2456 115.458 3.21335
3.68713 144.594 -3.47644
0.94974 143.7 3.70544
14.7474 122.869 -2.05582
15.0926 123.666 -3.65423
16.6416 113.034 5.52667
0.7108 150.474 -3.49477
14.1847 114.951 8.72861
18.1864 122.949 -9.49823
6.44529 134.276 3.02985
14.4449 128.476 -7.72832
6.85104 133.489 3.15946
16.184 116.082 3.14833
14.0245 126.53 -4.418
15.7802 126.652 -8.39792
15.0532 114.347 7.73727
16.6292 114.049 4.63607
13.1282 127.84 -3.82523
1.91002 141.993 4.21074
0.883002 144.568 3.47361
13.1754 128.283 -4.29666
2.02199 142.046 4.13485
7.47383 132.456 3.52917
15.3608 122.092 -1.52007
15.4849 119.633 1.12004
14.6568 119.014 3.7636
12.5506 128.38 -2.47857
15.3688 119.813 1.42757
13.375 129.77 -5.91242
18.3112 123.586 -9.42964
19.5175 121.113 -9.13307
4.5839 138.465 3.32391
15.9056 119.734 0.520241
15.6881 117.14 4.10264
14.6932 122.563 -0.0783595
18.8305 121.017 -7.37039
16.1439 119.412 0.450262
9.21293 128.249 5.3191
13.6652 128.515 -4.78142
9.74412 125.993 6.86263
15.5071 122.167 -1.17842
8.78317 129.868 4.57389
13.4219 132.391 -8.62471
13.8949 128.59 -5.17348
16.4565 119.168 0.449882
19.791 120.575 -8.54742
15.0781 122.987 -0.975044
13.7699 128.612 -4.70417
6.16607 143.58 -5.56751
4.71078 138.811 3.34747
14.9124 119.795 3.30661
17.3982 117.842 0.15506
18.1369 124.43 -9.21979
13.1772 130.528 -5.41101
14.5489 129.908 -7.66833
9.63651 127.54 6.0059
12.0338 136.137 -9.40364
9.43689 140.116 -8.3749
2.7845 148.201 -3.2353
12.3286 135.635 -9.36469
8.99011 129.916 4.74387
13.6381 129.918 -5.37745
16.077 115.824 5.95533
17.9455 117.175 0.332578
14.3925 116.85 8.63594
15.3796 116.081 7.39278
14.9231 119.686 4.14907
4.76227 139.319 3.41505
14.9332 116.335 8.12161
12.7895 135.032 -9.19759
5.49951 138.263 3.0899
3.92441 141.011 3.33193
14.2769 117.137 8.7096
7.55892 134.515 3.01398
15.3914 129.184 -7.93642
9.6517 128.189 5.93419
12.6821 119.733 9.45588
16.1107 121.824 -0.541131
11.9752 136.527 -8.66087
2.00846 150.573 -3.18036
9.37868 127.756 7.64288
13.2516 126.54 0.576776
15.0521 123.15 0.685307
17.5172 118.641 0.580093
16.702 127.873 -8.50656
10.3453 125.146 8.8352
18.8674 124.386 -9.01614
16.5834 120.235 0.94686
8.36425 142.794 -7.42577
17.7894 118.359 0.631646
17.9117 126.201 -8.86087
13.98 131.462 -6.38229
9.56041 128.788 6.52711
15.2638 120.586 3.6757
14.1603 131.989 -7.33822
14.9029 130.036 -6.57143
13.4767 132.27 -6.04881
13.2634 135.036 -8.78062
11.8897 136.89 -7.82115
5.83176 138.944 3.12348
20.4633 121.882 -8.97221
6.91275 137.268 2.80235
10.5618 139.668 -8.0325
13.8396 126.162 0.692083
9.54369 129.234 6.57095
18.6172 125.384 -8.85906
13.7876 126.337 0.70316
5.34857 146.135 -4.03085
19.3694 124.136 -8.95927
1.9323 146.221 3.44447
13.1214 120.475 9.1911
14.7471 120.589 5.54061
1.98466 151.955 -3.20707
0.450195 153.89 -2.09863
5.90978 139.262 3.15251
5.54705 146.178 -4.16461
17.3052 119.962 1.04296
11.8148 123.621 8.83852
14.333 131.906 -6.4357
14.1 134.033 -8.38408
15.1855 130.897 -7.00901
14.8388 132.294 -7.82813
16.009 121.841 1.99337
11.968 124.84 7.50194
14.9388 119.257 7.94095
11.2897 126.098 7.98479
3.68339 144.401 3.22654
5.10992 141.798 3.1694
14.863 125.91 0.454928
14.5374 121.045 6.98105
8.64277 135.503 2.93127
10.7722 126.764 8.61427
18.3531 127.131 -8.46372
9.46158 130.573 7.26775
13.5105 124.183 6.04141
12.8232 136.936 -7.35293
15.9535 124.704 0.189485
12.8319 126.005 5.54312
13.7183 123.868 6.13254
12.9905 136.757 -7.42783
10.3158 128.954 7.73674
15.0038 122.027 5.59038
13.9151 122.974 6.89004
15.4798 132.065 -7.13547
14.8724 121.908 6.20486
17.5523 120.912 1.4886
14.5956 134.369 -7.83136
18.6625 119.288 1.01951
11.9508 126.846 6.9526
2.44511 146.994 4.13429
8.88937 135.71 3.29491
11.502 127.032 7.78271
14.345 122.918 6.55185
14.1736 124.298 5.3533
14.6407 134.59 -7.71638
11.3996 127.323 8.03906
19.0915 118.853 1.1149
15.5238 123.173 4.02427
12.2022 127.089 6.75381
9.34437 133.525 5.47142
12.9674 137.397 -6.99906
14.9164 123.261 5.39491
12.3915 127.046 6.5238
14.8359 123.162 5.78259
11.5694 140.451 -7.32999
19.3236 118.754 1.21372
9.06345 135.986 3.55897
20.1309 125.413 -8.31893
21.8159 122.124 -8.13502
15.1135 123.744 4.76562
16.3237 131.631 -7.17725
9.95522 143.172 -6.63585
18.1629 129.214 -8.2382
20.2697 125.414 -8.26966
14.0817 136.32 -7.4166
15.2918 126.767 1.20724
9.21449 135.259 4.76102
8.56086 145.916 -6.23257
6.31198 148.104 -3.84042
15.7877 126.904 0.309897
12.5614 127.653 6.54694
15.4128 133.473 -6.55318
14.2543 126.45 4.29669
17.9967 121.718 1.76114
5.52034 149.505 -3.40291
14.4381 126.475 4.1211
15.8262 126.581 1.00267
5.50932 144.398 2.77172
7.98128 147.024 -5.74834
16.4318 125.013 1.6176
14.9135 134.662 -6.28363
13.6337 137.539 -6.69913
6.09201 149.152 -3.6345
14.7691 128.997 1.34842
22.9822 120.876 -7.16813
11.4948 130.522 6.85514
3.64605 153.281 -2.6518
15.5085 134.173 -6.02029
5.00991 146.332 2.78711
3.24595 153.852 -2.19032
13.0947 129.565 4.91871
16.1452 126.145 2.39823
11.4929 142.296 -6.26183
9.59471 137.151 4.11443
9.94497 134.168 6.99327
3.05729 154.452 -1.72148
16.0747 133.557 -5.7428
10.5391 144.301 -6.1671
12.0096 141.795 -6.42769
5.59524 151.074 -3.16962
14.224 128.668 4.27504
23.238 121.282 -6.72714
10.9978 143.685 -6.11425
5.69301 151.127 -3.1921
6.15799 150.525 -3.48017
6.09495 145.585 2.53739
9.74192 137.56 4.17324
9.89117 136.016 5.71097
11.8022 132.366 6.00235
15.542 128.925 1.94686
20.7426 119.576 1.57527
18.5366 123.194 2.18547
22.8344 122.745 -6.72008
9.11322 140.875 2.5785
13.1362 131.402 4.89643
12.3433 132.285 5.67082
14.8208 130.367 2.48696
19.8389 121.623 1.80427
