ply
format ascii 1.0
comment Created by Open3D
element vertex 1906
property double x
property double y
property double z
end_header
0.804977 105.682 -6.7854
0.0985613 91.9226 10.125
18.5189 124.539 6.11925
11.3945 113.115 6.12919
14.1 122.213 -0.14476
12.5311 122.735 -4.14859
11.5459 118.384 -0.477997
16.7009 125.509 1.06399
11.4081 106.873 14.5204
10.2815 114.612 1.90893
10.5035 114.168 2.97224
0.0142673 91.8617 10.262
-3.22877 99.7204 -6.97446
4.96279 110.976 -4.4572
18.3606 123.994 6.87034
-2.38767 87.9506 10.5305
-14.4993 75.7356 1.008
-4.94912 85.0624 9.04616
-6.5239 82.7959 8.71042
-3.77126 86.8582 9.19319
9.26669 105.243 12.5562
-2.53028 101.441 -7.43619
-14.1412 80.2858 -4.07612
18.0569 123.928 6.54291
9.4354 105.338 12.8394
-2.68726 101.103 -7.25667
18.3609 124.13 6.97056
-13.3045 74.0915 6.00434
-12.3395 75.3262 6.43826
9.61939 105.398 13.2667
10.3161 115.369 1.58239
-14.6463 76.3737 0.223397
-14.0827 74.056 4.52543
21.1304 128.962 6.70744
11.4984 114.365 5.58344
18.8899 125.093 7.08434
4.64526 110.99 -4.46435
3.05252 109.138 -5.37879
13.6439 122.286 -0.220831
21.3196 132.723 2.28652
-14.0819 73.9421 4.91306
16.3201 123.563 3.79671
1.30887 94.9239 9.84464
-5.34702 84.8795 9.04043
11.2864 119.08 -0.894981
18.8559 125.977 6.05236
21.2838 132.936 2.02121
5.77955 105.646 5.26317
-7.3392 82.2028 8.43619
-6.80477 82.9354 8.62306
-5.84969 84.2437 8.95054
3.87088 110.122 -4.63909
17.1589 124.444 4.6137
14.375 123.673 -0.252496
-14.2394 74.1238 4.59586
14.9157 124.703 -0.377489
20.1139 135.662 -3.84128
16.5858 117.756 12.4237
-1.85403 89.19 11.1215
11.3631 113.124 7.51766
-6.63128 95.622 -7.49431
-14.1275 80.0315 -2.73265
-14.1653 80.4072 -3.30902
-10.1395 89.05 -6.18248
5.43192 112.52 -4.15862
10.1379 106.1 14.3485
12.231 122.249 -2.52889
-14.7983 77.2723 -0.387338
-9.06112 91.8086 -7.42604
13.4963 122.588 -0.232289
-4.50501 87.0591 8.56958
-7.17196 82.9067 8.49274
10.9993 107.56 14.5745
-3.1138 101.569 -7.42652
-0.196044 105.87 -6.89831
-9.94069 90.2478 -6.88658
-0.637649 92.0475 10.6107
18.1867 125.963 5.70107
16.6305 121.187 8.83008
-9.96725 90.5377 -6.95671
-7.73477 82.6781 8.28273
15.8724 119.08 10.2335
16.4866 118.9 11.8061
-7.59267 94.9918 -7.65852
11.4725 116.372 4.5462
20.6516 129.054 7.26454
-14.5422 74.9731 4.13511
2.9273 110.011 -5.10986
13.8129 127.352 -4.91563
-8.69763 93.4847 -7.88031
10.8528 120.687 -2.37094
-11.7286 86.6076 -5.19837
-10.4235 89.7596 -6.56402
-7.50519 95.3997 -7.82076
13.1598 126.446 -5.00134
17.5474 124.536 6.86073
20.8631 134.453 0.898788
11.245 113.836 7.76442
17.7442 123.537 8.73759
-13.4634 75.5854 5.97918
8.57792 114.077 1.93076
-5.91724 98.4145 -8.0308
9.50512 115.45 2.16856
7.2728 111.732 2.36079
19.6414 136.416 -3.95471
13.0699 112.128 14.2278
4.37668 102.995 7.86629
20.6017 133.624 1.8089
9.34641 115.425 2.06328
20.7831 137.089 -2.31764
-14.0248 80.6631 -1.52371
-3.99294 100.902 -6.98607
-14.2204 80.8394 -2.1145
-14.2974 81.3903 -2.97782
20.9198 135.004 0.868438
18.199 126.591 6.26574
12.66 125.062 -3.45685
10.8771 119.76 -0.210135
-1.76857 104.58 -6.95813
-14.3907 75.4558 4.7803
-15.3036 78.1303 -0.635847
-14.6878 75.6441 4.04326
-0.0925627 106.934 -6.36751
12.8709 112.146 14.2548
7.16497 111.969 2.41464
-7.59009 96.2128 -8.04655
16.1712 118.998 12.2366
-12.4934 85.903 -4.75408
5.03305 104.952 7.30577
16.8306 128.312 1.45623
13.9326 126.316 -2.02546
13.6345 125.75 -1.87655
-3.20375 89.6836 10.1195
5.91332 109.29 3.58478
-14.9103 77.2841 1.78615
16.7589 128.303 1.52957
11.5492 117.328 4.99515
13.3799 126.575 -3.30519
21.3443 137.733 -1.15565
10.3969 117.245 2.71633
16.7809 125.669 5.12193
-10.7714 90.446 -6.72866
3.39944 111.448 -4.42199
16.118 126.84 2.26441
14.8936 116.024 14.012
11.6015 117.002 5.74378
11.3994 115.887 6.79004
14.7976 115.872 14.035
17.2578 128.739 2.24158
17.2968 129.387 1.50352
20.1908 132.001 4.21776
-6.31188 86.3296 8.49282
-8.54005 83.1395 8.00857
-6.4635 98.6854 -8.10047
16.1495 124.512 5.83319
16.0315 121.454 9.65043
-14.4502 82.1201 -2.9849
-11.4418 88.9874 -5.6091
-4.60604 101.06 -7.04073
-8.44056 95.7323 -8.12834
3.10759 111.495 -4.45895
15.4774 126.885 1.43633
13.1614 127.717 -4.56777
9.67445 109.432 12.2319
-8.54028 95.6178 -8.13191
10.8282 109.518 14.5835
14.2549 125.408 0.85056
14.7398 130.168 -4.40692
10.7227 122.51 -2.76263
10.1885 109.085 13.8685
-14.4044 76.1997 5.19005
16.6073 129.002 1.17622
14.2345 125.883 0.315486
-12.1837 79.0419 6.26819
16.7114 126.861 4.41246
5.69697 108.303 5.69219
-7.07886 98.3318 -8.22448
8.88004 116.575 1.63888
-3.2674 90.2764 10.6617
3.48212 112.447 -4.32578
1.76768 99.1469 9.64712
-13.8188 77.4791 5.25561
9.63506 109.967 12.1151
-10.4095 92.4251 -7.11996
16.146 132.724 -4.06516
17.6844 125.627 8.6017
-6.99758 98.7388 -8.19872
16.149 124.724 6.61678
10.2082 121.341 -1.50762
15.1161 117.8 13.6003
11.2533 124.33 -3.21187
10.4545 109.935 14.1819
16.3207 125.071 6.62995
-1.002 93.3255 11.8711
-12.4383 87.6764 -4.91802
8.88414 117.4 1.0626
14.4955 127.683 -0.614808
20.6515 135.672 1.90869
17.4299 125.363 8.71136
-9.04022 95.7249 -8.1477
16.2314 125.329 6.3319
16.5155 123.273 9.69482
-1.74233 106.017 -6.2085
13.2197 114.525 14.3303
11.5504 118.123 6.07215
15.807 128.048 2.05825
9.65618 110.497 12.2422
12.7826 113.881 14.4083
-15.7772 79.0444 -0.109938
14.3427 128.297 -1.30489
1.61713 99.4809 9.81204
13.9118 126.501 0.216355
6.0443 114.078 -0.0327658
3.40872 103.874 7.91411
21.9103 139.227 0.42929
5.17667 106.904 7.67854
10.3816 110.379 14.138
20.8243 136.647 1.58167
16.364 130.837 -0.154971
5.94061 111.692 3.0928
7.02019 114.728 1.41477
14.0905 125.171 2.64997
-4.07076 103.783 -7.5578
11.3624 125.449 -3.44465
10.0501 122.423 -2.12165
16.3199 126.458 5.86722
-10.5901 93.1625 -7.1734
-10.0694 83.0436 7.31474
15.348 127.596 2.34854
9.81998 120.289 0.317264
14.7366 128.545 -0.156751
16.2119 131.171 -0.393887
-9.76886 95.0882 -7.70116
-1.06516 94.7448 11.2734
19.431 133.828 3.12724
9.71345 111.753 11.7048
-10.3372 82.9883 7.23119
11.2196 120.666 3.24193
6.0664 112.662 2.91379
-13.6941 86.2447 -4.04716
-3.54546 91.0368 11.1495
15.7311 125.539 6.46905
16.8188 129.56 3.47248
-15.3608 78.2875 3.01057
10.1559 114.289 9.54697
13.2197 129.286 -3.7775
-13.917 85.8275 -3.87725
6.45239 113.513 2.77688
-1.14484 107.625 -5.5236
19.5042 131.291 7.00382
10.8976 116.638 8.16687
12.2022 128.059 -4.15727
16.1472 131.37 -0.147261
-8.788 97.5646 -8.34117
8.42633 117.407 1.98961
10.4985 111.575 14.1647
19.9461 135.326 2.8499
1.91872 101.508 9.388
5.62549 111.091 4.60066
16.7277 129.797 3.43619
14.8445 128.581 1.10331
16.1859 128.743 3.7855
9.93633 113.861 10.2258
16.3207 130.994 1.15187
-10.6073 94.1403 -7.24248
11.4617 120.892 4.32989
7.95308 116.786 2.34092
-10.8964 82.9682 7.13952
-13.6143 87.2563 -4.27429
10.6975 125.575 -3.35485
8.15128 117.438 2.01316
18.2055 129.766 7.05626
-12.1711 81.233 6.80548
14.4524 128.417 0.903885
4.6062 114.584 -1.67054
15.0152 125.741 5.70328
15.9722 128.677 3.87292
14.778 121.558 10.7929
14.8466 125.877 5.23436
-14.9813 84.8029 -3.72783
6.78029 114.992 2.52468
7.9373 117.031 2.31265
18.3406 130.148 7.05853
-1.86778 93.9459 12.0626
-6.95614 88.9104 8.0017
-11.6677 82.1099 7.00192
19.5103 135.018 3.18915
6.0203 113.422 3.14309
-4.0758 91.3726 10.9068
5.03239 114.895 -0.834735
6.67698 114.939 2.61329
10.075 112.108 13.6214
16.1655 127.735 5.91649
4.17032 106.755 8.24533
14.3321 129.041 0.392886
-5.0363 104.301 -7.97738
12.4512 115.51 14.3529
-12.2938 81.5573 6.78552
11.4951 127.342 -3.27862
11.63 121.025 5.38116
9.69391 121.954 0.0547398
-0.849267 96.9346 10.879
16.1394 126.318 8.07024
-13.2181 80.7242 6.0935
18.53 132.979 4.36622
11.6543 120.49 6.308
-6.6212 101.646 -7.51642
15.792 127.641 5.71604
-3.45487 105.855 -6.28589
18.5863 131.096 7.11966
15.6134 128.55 4.18712
10.6417 126.45 -3.57542
1.43814 102.058 9.19641
11.5983 121.665 4.82659
13.2546 130.653 -3.52667
-11.3087 83.3046 6.98298
-16.1105 82.4209 -1.96153
10.1978 125.611 -3.2601
14.4999 120.249 12.9726
-13.4674 80.8129 5.80837
20.922 141.282 -1.16332
18.4342 132.922 4.63452
2.39983 104.558 8.13969
-0.425985 97.9522 10.9032
5.578 115.57 0.380809
9.95216 112.859 13.3288
14.249 126.543 4.35834
18.1012 130.599 7.20243
15.4343 127.828 5.21129
9.73933 113.809 11.6721
10.319 121.642 2.54781
9.75489 112.701 13.1821
-16.5371 80.4582 0.0745581
14.7646 126.446 5.6714
-16.4608 80.2193 0.571019
-14.7162 86.4327 -3.92665
9.70998 112.903 12.8952
15.0434 123.13 10.7145
20.1445 141.171 -2.19376
-9.08783 86.837 7.68742
11.6686 122.651 4.51219
-13.48 89.9453 -5.59171
16.0386 131.317 2.40007
14.7738 127.893 4.27285
0.408932 111.804 -4.9126
15.3565 128.556 4.66116
9.41034 124.244 -2.22946
11.0341 123.177 2.65154
12.5248 116.926 14.1124
-14.9986 80.92 3.42246
13.6101 130.545 -1.49513
15.5657 125.242 9.67676
8.7217 120.721 1.17931
-0.238406 99.399 10.3848
10.6255 118.188 8.60121
-15.6712 85.0978 -3.41155
13.9513 129.231 1.08811
15.9735 126.952 8.44776
-13.9374 81.6246 4.93751
14.2041 122.06 11.2143
8.04585 119.128 2.03293
5.98851 114.541 3.77234
1.27945 113.408 -4.7128
13.972 120.119 13.3509
-14.0087 81.6922 4.80316
-12.9718 82.3969 6.08531
12.1617 129.601 -2.96032
-0.90846 98.1668 10.8789
3.53348 116.194 -3.52919
18.153 132.867 5.44549
11.7487 116.135 13.9915
14.2059 131.759 -1.44414
10.0116 116.687 9.64482
5.42523 112.622 5.35793
13.6008 132.904 -4.11303
12.6676 128.453 -0.194137
-4.50554 92.2973 11.2141
14.4702 132.258 -1.34983
-13.3682 82.4211 5.57825
-14.5242 88.4263 -4.77225
20.2204 138.515 2.74723
13.4747 133.143 -4.45722
6.04381 116.892 1.37757
2.51684 115.441 -4.11858
18.0747 139.554 -2.97787
15.513 133.298 -0.106563
15.8939 128.357 7.36489
-4.30046 92.6833 11.7058
-16.963 82.4192 -1.48977
16.3209 129.491 6.89442
-12.3862 93.714 -6.67578
10.6235 119.296 8.3673
0.974194 113.684 -4.66284
13.616 133.553 -4.11443
7.28346 118.417 2.47707
2.03449 105.685 8.25554
14.207 132.889 -1.89189
-14.9156 88.35 -4.76777
-12.1015 94.4472 -6.76981
9.60219 115.627 11.3272
-3.30711 94.1514 12.3396
12.6241 129.811 -0.976691
15.8529 128.365 7.92996
-16.2243 85.5114 -3.44153
11.1526 116.487 13.7288
9.7747 127.03 -3.09799
12.9364 119.325 13.8107
10.5621 119.629 8.40449
14.8376 126.043 9.00631
18.3619 140.468 -2.51638
-0.877064 111.084 -4.32899
-16.8324 84.6133 -3.16509
13.2131 132.77 -3.09349
13.8412 133.405 -2.56392
-11.8541 85.313 6.59003
-16.526 85.358 -3.37121
-11.0478 97.1668 -7.3466
9.25559 126.285 -2.7576
9.0743 125.823 -2.52721
9.21267 122.818 1.74919
8.43839 121.872 1.40937
-13.2105 83.343 6.46129
17.0576 131.166 7.43808
7.10244 118.901 2.55597
-10.3777 99.0395 -8.20553
-11.374 96.6672 -7.16852
-16.8956 84.7343 -3.09267
6.15211 116.773 3.47183
5.32633 113.392 6.2801
18.5981 136.833 3.46932
-0.698724 111.793 -4.25768
18.6523 141.344 -2.23436
12.7973 129.855 0.597266
-3.8126 94.3196 12.3564
9.64965 124.011 1.71472
5.72367 114.697 5.71036
20.4756 141.298 1.84441
9.48711 116.54 11.2856
20.1292 140.149 2.67523
-10.7306 87.4133 6.9424
-16.3723 82.2475 1.80681
-6.7422 105.337 -8.27945
-16.9653 82.9998 -0.429211
3.34757 116.946 -2.20694
12.8238 129.858 0.840758
4.08506 117.201 -0.858231
14.9511 127.316 8.83541
14.2544 131.244 2.16333
15.0637 134.359 -0.197309
12.8538 129.812 1.14548
10.7923 121.592 7.64953
11.8868 125.297 5.16993
15.6811 129.275 8.04853
9.46044 116.926 11.1861
13.3586 122.297 12.4047
11.9038 131.408 -2.70668
15.0334 135.917 -2.01956
-16.9825 84.4969 -1.93294
-9.27107 101.509 -7.96885
11.9874 131.397 -2.38836
12.8228 130.425 0.703162
5.00791 112.957 7.25398
-7.35016 104.894 -8.26227
14.2027 136.565 -4.38568
8.57658 125.401 -1.46798
-12.6553 95.4222 -6.86648
11.7891 126.737 3.66393
-3.46809 96.2722 11.6005
18.6423 142.179 -2.19299
9.92928 129.152 -3.44266
13.8334 131.369 1.91709
14.0875 136.566 -4.40286
-7.81061 104.276 -8.15905
10.2406 117.376 12.8623
-15.4929 89.5003 -4.8459
-16.7747 86.4425 -3.50634
13.9816 126.153 9.24331
13.7575 124.168 11.4539
11.8316 126.555 4.30623
11.4656 127.088 2.90581
-2.83216 97.7491 11.3738
9.93277 119.714 9.45299
-14.2132 83.9068 5.5826
-0.513647 113.088 -3.91593
-15.9352 88.6488 -4.31165
-13.8699 93.6208 -6.45788
20.4523 143.984 -0.212847
-4.56286 108.323 -6.10389
-3.64717 96.3958 11.632
11.8585 126.928 4.18095
-4.09512 95.3416 12.1123
9.14687 127.788 -2.6916
-12.2183 86.5729 6.49254
13.9624 134.861 -1.81623
9.39592 128.381 -2.89943
0.345107 114.818 -4.10573
9.68502 125.547 1.57411
11.1478 124.06 6.72965
11.8703 126.978 4.47958
10.5707 122.279 7.9395
-15.8728 89.3102 -4.54476
5.96608 119.473 1.95482
-16.1162 88.7647 -4.22838
14.79 135.775 -0.731489
4.94817 113.644 7.71238
6.02129 117.587 4.80184
6.02237 117.289 5.20265
-0.640786 103.896 8.81082
16.7494 140.508 -2.65714
12.1106 131.451 -0.500518
-4.44813 108.942 -5.85987
2.63942 118.009 -2.78144
16.7855 134.509 5.43464
5.40791 119.414 1.27961
-11.6647 87.8966 6.76779
-4.79615 108.74 -6.16826
13.7773 135.92 -2.67092
-15.5053 84.2375 3.55655
1.09357 116.518 -3.88308
16.4051 132.946 6.89467
16.5344 133.403 6.60591
13.0801 125.638 9.55164
-16.8194 84.9787 -0.00775341
10.8609 119.486 13.0948
-15.0257 84.4483 4.52748
11.321 125.225 6.57047
14.2898 137.837 -3.77354
-9.5668 90.9233 7.67747
-15.7775 84.6211 2.83569
11.8319 127.81 4.29953
-1.41709 102.92 9.13166
13.8219 134.897 -0.805252
-3.95823 97.0853 11.5542
11.5602 126.226 5.96826
14.1568 136.879 -2.58947
-10.4928 101.627 -8.26176
16.6569 134.929 5.3532
6.01918 118.57 4.46629
12.4869 131.554 1.03135
13.4581 134.924 -1.36368
13.2995 133.39 0.338284
-15.2177 92.0106 -5.43863
13.4695 134.655 -0.965939
-2.28959 111.658 -3.94865
9.72842 120.695 9.60221
8.632 124.667 2.02991
4.70951 119.624 0.429351
13.396 134.026 -0.144726
5.46018 115.526 7.54825
8.03767 126.46 -1.43652
9.58672 120.419 9.89332
-16.7386 88.5983 -3.82429
12.9939 133.919 -0.648945
12.6827 133.469 -0.658593
-13.6659 85.9875 6.24072
-17.0135 86.4419 -1.42555
9.54784 119.653 11.0313
-15.6646 85.1217 3.23526
-16.9819 87.0109 -1.99974
9.83497 131.018 -3.2811
9.6225 119.544 11.4657
7.81711 124.405 1.25342
-16.9714 87.3508 -2.32556
12.122 132.438 -0.180534
10.1631 127.838 1.78538
14.3086 137.182 -1.75623
-16.8371 86.0803 -0.248004
-0.554835 114.64 -3.45052
-7.74014 106.616 -8.06726
14.2107 136.375 -0.82013
14.2236 137.321 -1.88366
4.7513 113.874 9.06501
13.1287 127.212 9.24038
11.5577 129.798 2.51956
14.4058 129.327 9.21513
-13.9788 86.1379 6.11053
-13.8641 96.0856 -6.75261
-16.948 86.5957 -0.717629
-2.40128 112.213 -3.72478
19.881 144.845 0.41054
15.048 139.779 -3.13117
-9.3934 104.721 -8.59426
-9.21597 92.1749 8.40747
14.0986 137.36 -1.84296
15.065 139.841 -3.07397
11.1767 126.224 6.71616
-5.06383 95.6687 12.7188
-14.5647 86.0563 5.28396
-7.86479 106.912 -8.04002
13.6607 135.526 -0.210219
9.19765 126.767 1.95832
-7.7098 94.1716 9.19915
15.2589 131.801 8.17766
6.03896 118.452 6.2726
13.9505 137.844 -2.56258
3.2846 120.127 -1.73866
19.3329 142.274 3.0298
16.1166 141.339 -2.53823
18.8953 141.113 3.68163
-15.921 86.554 1.96627
13.9396 138.727 -3.6227
7.56467 123.757 2.70858
9.56317 120.71 11.0037
12.7317 137.141 -3.98071
17.5429 143.214 -1.79953
-1.92524 103.803 9.11664
11.1099 126.57 6.79366
7.40973 124.225 2.05549
8.57394 129.635 -2.5779
15.6508 133.177 7.78474
11.6121 124.849 10.2731
-4.90032 110.38 -5.57202
6.70695 122.019 3.66737
10.059 128.808 1.81559
6.1788 120.733 4.26428
-13.7043 87.3044 6.37825
10.9046 126.162 7.22
0.107554 116.824 -3.29123
11.6392 123.763 12.0722
-13.6185 87.4923 6.45131
11.7023 129.275 4.94382
13.3591 138.137 -3.18968
-7.27373 108.257 -7.44668
10.2442 129.386 1.77949
-16.9947 88.7597 -2.19823
11.056 126.954 6.84292
9.47515 121.885 10.2074
1.484 110.011 9.05568
-2.03688 104.323 9.19784
-10.9584 103.355 -8.43631
-2.53353 113.109 -3.45592
13.4837 138.457 -2.92133
-8.38442 107.409 -8.18627
-1.73212 114.269 -3.11245
1.7282 110.591 9.09547
13.4748 137.378 -1.39708
11.6083 132.05 1.69126
13.5347 129.321 9.41824
16.5948 142.829 -1.92241
17.132 143.377 -1.47968
11.7334 131.425 2.94143
-5.15692 110.734 -5.52621
-15.8537 88.1233 1.74316
13.0724 138.282 -3.18401
6.36016 122.02 4.11359
-2.02281 114.203 -3.22345
0.00562418 108.124 9.20805
19.1649 145.581 0.330911
9.33974 132.185 -2.7487
-15.8747 93.6217 -5.14031
-16.7056 89.9723 -2.07417
11.3241 129.079 5.69476
8.51942 127.265 2.21323
10.4107 125.994 7.94759
8.41013 127.101 2.24258
-8.92109 107.447 -8.50354
7.74789 129.182 -1.84576
15.2558 134.197 7.47085
15.2477 134.634 6.90963
10.2889 122.671 12.2212
-3.55469 102.178 10.0102
19.1409 144.875 1.78965
0.236626 109.055 9.09284
-7.29458 95.8228 10.6335
-1.76076 105.583 9.46836
-16.9021 88.834 -0.436505
10.7313 124.064 11.6233
5.56799 122.853 2.30257
7.47429 128.896 -1.59588
7.93239 126.654 2.40518
9.55111 124.125 9.21371
-14.387 88.337 5.76998
-16.8342 89.6544 -1.15025
9.86895 124.996 8.77052
-11.199 104.031 -8.19739
-9.47105 107.032 -8.43808
-14.5243 97.5336 -6.57108
10.586 131.657 1.63207
13.5464 139.692 -2.70639
7.9703 126.879 2.41316
-10.2663 105.627 -8.14776
-15.9617 88.7838 2.14162
-13.0865 90.0294 6.64005
13.0531 138.428 -1.89267
12.0275 133.719 2.21609
-9.22372 94.7043 8.74671
-8.60176 95.2502 9.37345
1.63472 120.456 -2.23807
-16.069 88.9195 1.98051
3.38823 121.983 -0.443309
10.5195 127.269 7.69672
5.5191 123.53 2.24479
0.229351 118.65 -2.51122
6.34188 122.82 4.94965
10.4825 127.571 7.51579
-16.6336 90.2014 -0.576018
6.44037 123.383 4.55344
18.2882 143.072 3.65466
17.9119 142.07 4.21297
1.53116 120.643 -2.13335
10.2504 126.814 8.27158
-13.6681 90.1464 6.05685
-15.214 96.9473 -6.19671
7.16328 128.152 0.083479
-10.947 92.8473 8.37473
-1.04685 108.023 9.32721
-16.3378 89.3284 1.65064
0.26699 119.063 -2.44077
-5.36784 112.741 -5.98263
-2.71342 114.857 -3.12418
8.526 128.865 2.20001
12.1648 134.472 2.60628
11.8977 139.62 -4.76004
-14.9907 97.7679 -6.45604
-4.032 102.893 10.0251
11.6845 133.02 3.52985
-4.78169 101.033 10.9105
-4.93985 100.579 11.2192
0.359142 110.791 9.01601
-13.0278 102.321 -8.18423
-6.15628 112.21 -6.57497
18.0526 146.416 -0.445974
9.05183 134.213 -3.39049
-6.00146 112.418 -6.49537
9.52414 131.049 1.83166
18.4039 144.348 3.09273
2.15894 113.397 9.58231
-15.49 96.875 -5.96794
10.5226 129.258 6.4612
-13.1432 102.34 -8.14305
-16.6237 92.7282 -2.7128
14.3106 141.253 -1.24729
-3.35324 104.852 9.48604
0.106171 119.313 -2.29153
-3.68765 114.347 -3.74936
-12.5551 91.6582 7.44597
-16.4188 94.1908 -4.00041
2.01171 122.101 -1.74694
15.591 138.295 5.68969
7.89513 127.802 3.30831
6.93667 125.55 4.28529
-13.5522 101.86 -7.83388
18.0644 146.542 0.159531
12.8223 141.12 -3.7734
-16.6459 92.9659 -2.59154
11.4423 132.839 4.33687
-5.37288 100.36 11.7334
10.4361 138.679 -5.317
-16.6196 90.0439 1.61147
-4.08679 114.646 -4.32517
2.12116 113.963 9.80874
-6.33748 98.2497 12.6784
-0.267665 110.788 9.01225
0.0508352 119.758 -2.16332
8.55693 130.161 2.24651
5.77481 121.553 7.73292
16.8523 141.939 4.38686
5.30141 125.116 2.12953
12.5647 131.936 8.52784
-0.598457 110.443 9.04352
10.2141 129.547 6.80248
6.36359 123.974 6.01025
7.99363 132.804 -2.15555
10.9901 134.309 2.2435
12.4573 139.376 -1.26729
7.95945 128.606 3.54615
12.0822 135.697 2.92105
-16.1043 93.1371 -0.508014
11.1974 133.075 4.63909
8.07584 128.987 3.42932
5.66519 121.747 7.89917
18.1132 146.666 1.39842
-2.78687 106.879 9.70949
11.8062 135.745 2.51416
7.5362 127.571 4.27922
0.690308 112.754 9.35518
-16.6708 90.6742 1.73059
11.3489 140.63 -4.86657
7.56465 127.693 4.31952
9.71442 138.263 -5.05498
15.8989 141.107 4.30666
14.9113 137.951 6.5099
3.36485 116.966 9.79493
6.51881 130.234 -1.03232
6.45938 127.935 1.90658
9.83423 127.191 10.1319
-4.24188 115.539 -4.30392
12.5507 140.005 -1.02086
9.43153 127.093 9.59142
2.80922 116.189 9.97508
8.85772 131.358 2.7989
-5.69043 101.194 11.8339
9.32689 126.81 9.91371
-10.6939 108.599 -8.46806
12.5011 133.225 8.20126
-2.53292 108.052 9.61366
7.63015 133.386 -2.31117
8.52216 130.532 3.40692
12.339 133.067 8.15549
8.75309 136.287 -3.67046
-2.91454 107.461 9.71194
6.7252 126.232 5.37236
8.00587 129.122 4.26977
-1.71467 118.282 -2.01012
3.89312 124.979 1.12426
-15.8118 90.9649 4.41571
13.9456 142.024 0.0606248
-11.089 108.314 -8.42425
1.04945 122.324 -1.17335
10.6095 132.533 5.61224
-9.16078 97.1083 10.5878
10.19 131.103 6.69225
-16.3373 93.1504 0.644007
8.82141 131.472 3.34835
8.41102 130.394 3.93732
3.45222 118.442 9.31221
9.25046 127.669 9.43578
8.43764 130.508 4.00477
6.46771 125.926 5.89147
-4.99446 116.156 -5.50555
-14.0576 92.8896 6.08638
-3.99871 106.259 9.82429
12.669 140.988 -0.728592
-4.01677 116.414 -3.59544
13.8751 137.181 6.96913
8.20706 135.986 -3.4251
5.96534 123.943 7.79592
12.2 141.706 -2.39119
2.94252 117.972 9.40357
3.17756 125.447 0.0716508
10.3953 135.842 1.64373
2.59944 117.372 9.53826
-13.5528 104.541 -7.70536
10.6154 130.713 9.00394
-3.92454 106.734 9.88704
-11.0651 96.1444 8.76789
3.62164 125.712 0.865025
-14.497 102.731 -7.0727
-16.2416 92.3618 2.97834
-4.67983 116.796 -4.71604
11.7707 137.108 3.32613
-9.39885 111.955 -8.28147
12.1801 136.911 4.59768
-16.2488 94.7932 0.0357696
11.6496 137.192 3.20921
-16.9539 95.3025 -2.06208
14.7211 140.17 5.81717
-4.34407 106.484 9.92122
-11.6434 108.618 -8.36362
-14.3893 93.4222 5.99784
6.04757 125.027 7.572
10.082 130.897 8.4852
4.64612 126.988 2.13844
-14.293 103.826 -7.27722
12.0571 141.49 -1.11344
9.75185 130.805 8.23112
11.448 137.528 3.09189
8.50385 133.22 2.56266
-12.9865 106.971 -8.28808
7.7008 129.969 5.26151
13.5541 143.276 0.0857955
-3.48013 118.076 -2.69535
4.15886 126.995 1.72473
10.002 131.964 7.61692
7.75419 136.821 -3.54286
7.69939 136.713 -3.48575
-1.17733 120.714 -1.15361
11.6278 141.551 -1.5298
11.5898 141.496 -1.49295
1.03879 115.896 10.1302
10.9334 142.853 -4.4914
-11.5297 96.6581 8.94346
2.7781 126.341 0.182322
-13.0846 107.313 -8.2247
4.35603 127.648 2.04804
1.8555 125.281 -0.0684094
11.3458 138.159 3.05817
-11.6447 96.848 9.0054
-16.2582 93.6305 3.54497
9.58855 142 -5.57051
2.89968 120.472 8.77115
10.4454 133.034 8.25099
-3.06402 119.183 -2.05533
13.9218 139.434 7.25589
-14.6304 104.004 -6.42446
-14.7652 94.308 6.12747
-16.0901 93.4931 4.46115
12.0249 138.086 5.1492
9.81515 137.549 1.23186
12.2164 138.866 4.62257
11.3455 143.994 -3.95206
16.531 146.813 3.34059
-14.7043 103.947 -6.23769
16.6037 148.044 1.91903
14.7845 146.228 0.50461
12.1151 143.982 -2.18452
8.62387 134.777 2.5998
12.0312 142.784 -0.714217
13.3352 144.259 0.135542
10.415 143.31 -4.77497
-6.68711 103.137 12.1055
1.23298 118.022 9.28014
7.83663 132.855 3.72572
15.7738 148.397 0.119331
11.2971 135.226 8.07575
11.0722 135.719 7.09985
-12.0483 110.37 -8.31382
5.68247 126.403 8.21153
12.1713 139.768 4.33157
-16.64 98.667 -2.42831
6.36398 128.359 7.14806
13.7266 140.579 6.61083
10.1959 138.528 1.85644
-6.48115 104.143 11.9749
-4.26287 119.542 -3.68139
16.375 148.211 2.2278
12.3838 143.739 -0.306435
9.80348 138.336 1.37364
11.6478 139.545 3.71353
11.441 139.429 3.51949
11.4237 136.576 7.27454
-9.92711 113.916 -7.96727
-16.7386 99.1201 -2.74795
13.7056 141.446 6.01865
-9.05481 115.301 -7.65864
-0.016195 116.314 10.2595
8.05449 135.157 2.47855
-14.3672 106.021 -6.55564
-15.7201 94.974 5.21469
-4.50339 120.231 -4.38268
2.31744 121.731 8.15652
12.3924 137.967 8.13388
-16.6016 96.6752 1.26513
5.54597 133.35 -0.235422
-8.26534 116.452 -7.18294
1.45429 120.001 8.75579
-0.241953 124.15 -0.324262
-2.75007 120.989 -1.44889
-10.3635 113.746 -7.99111
13.7344 142.332 5.45925
-16.9797 98.0761 -1.06186
-15.6728 95.3444 5.35156
12.8139 145.126 -0.0348562
-10.5186 113.785 -7.9884
-11.1125 99.153 10.1626
-15.0553 95.8052 6.27532
10.7744 139.639 3.13374
10.2463 139.732 2.08138
-5.99453 107.023 10.9694
5.42122 127.357 8.3249
6.45615 130.727 6.20482
-5.45306 108.447 10.4281
-16.5852 97.0561 1.92909
13.4001 146.558 0.103112
12.2685 140.956 5.16102
10.5937 139.968 2.94056
6.5237 130.989 6.19766
6.835 131.631 6.06207
7.39865 134.344 3.68225
-16.9614 98.2494 -0.24459
-11.7317 99.1212 9.71439
13.5571 147.291 -0.226125
-9.91991 100.961 11.3179
-5.82575 107.934 10.7875
6.66236 131.461 6.17097
13.1199 141.194 7.0112
-15.0372 105.786 -5.83114
5.36439 133.995 0.169207
-5.38586 120.412 -4.65055
15.643 148.183 3.30531
12.7483 146.588 -0.71498
-16.3378 96.6398 3.6462
-15.6937 96.3183 5.45059
13.8118 147.504 0.499285
-16.3337 96.6097 3.84592
9.9603 140.478 1.74106
4.68295 126.601 8.93313
-2.90933 122.154 -1.19498
6.4928 131.557 6.32773
-8.15166 118.032 -6.80498
-4.1539 112.128 9.59407
-16.9326 99.5295 -0.847555
3.85637 125.372 9.17637
4.69128 126.903 8.97712
-12.8335 98.9047 8.90991
-16.3723 97.1477 3.74287
-1.38988 116.176 10.3976
7.92895 136.964 2.69571
-10.5281 115.2 -7.44845
5.75848 137.393 -2.23199
-1.66367 124.228 -0.515912
-4.30077 122.522 -3.77221
-8.54524 103.645 12.1887
-6.24901 108.13 11.1896
1.32261 122.576 8.21466
10.8707 141.195 3.89015
-16.8292 100.506 -1.06342
12.8173 142.197 6.723
9.95859 146.206 -4.64063
0.654196 120.913 9.08497
-16.9548 102.144 -3.43914
9.88589 141.604 1.41459
7.04987 134.121 5.30542
2.74839 124.845 8.63584
-14.372 109.598 -7.49565
6.90241 133.578 5.93479
-14.8703 98.2598 6.47665
12.6546 142.092 6.95592
14.6247 147.599 3.8633
13.3379 148.397 0.149992
4.78038 128.27 8.68343
-15.4305 98.0313 5.87698
4.90997 135.028 0.129249
-16.7955 100.472 -0.189249
8.5109 140.075 1.4027
-16.8238 101.819 -1.75296
-4.45101 123.248 -3.83781
-12.135 114.027 -7.76021
-3.76222 123.684 -2.75669
-16.8342 102.481 -2.31195
13.5909 145.787 4.97651
7.8388 138.891 1.91152
10.6236 142.049 3.66172
-7.84146 106.13 12.0464
9.98818 142.624 1.72768
-14.3724 110.522 -7.50011
12.1457 142.737 6.17512
-15.6388 107.199 -5.72015
12.6553 144.073 5.55226
13.177 148.919 0.356456
6.39851 133.287 6.76203
7.53152 137.789 3.25899
-5.92432 121.891 -4.19564
-16.8475 100.623 0.769235
-4.49017 123.849 -3.6246
14.4492 150.89 0.873697
-15.2919 108.91 -6.61305
10.4132 142.877 3.00689
-14.0034 100.19 7.73389
5.40453 138.604 -1.87691
7.80615 144.774 -4.84164
13.3452 149.276 0.982148
2.14406 126.002 8.01234
-15.1576 99.7724 6.05509
-5.33041 112.358 10.2832
-16.4878 101.66 0.77667
7.39598 137.802 3.66635
-12.5712 101.457 9.40637
9.75543 143.251 1.62547
-8.75507 119.654 -6.42799
8.04791 140.675 1.46277
6.00519 133.317 6.96333
-16.1178 100.328 3.67893
9.03003 147.214 -4.88173
-2.34189 125.502 -0.283486
-2.89269 116.608 10.3474
-1.22864 126.907 0.279778
4.31917 135.502 0.727045
-10.9116 103.248 11.0918
9.93668 143.821 1.68312
-7.15889 108.859 11.6728
0.562457 124.086 8.05473
-8.71438 106.052 12.2348
-14.8406 110.912 -7.17152
10.4584 143.421 3.51526
-11.1797 103.203 10.9076
-12.2761 115.255 -7.26232
13.9018 150.595 1.56456
12.6938 146.489 4.6149
-6.52114 110.693 11.1891
6.03497 134.952 5.86086
-4.00264 125.01 -2.19458
-15.9884 105.163 -1.31252
-8.3735 107.306 12.0927
-8.0524 120.93 -5.2173
10.9761 149.453 -2.55757
8.50613 147.249 -4.87156
-1.16205 127.854 0.281608
3.36377 128.414 9.1578
13.1947 148.576 3.3601
8.79095 147.756 -4.82646
-15.4785 110.131 -6.51904
13.611 150.507 1.83624
11.2034 149.598 -2.05846
12.0537 145.653 5.00516
-10.1219 119.184 -7.03842
-2.76623 126.134 -0.599476
-13.8656 101.957 7.92857
11.1886 144.526 4.80657
-16.6691 107.155 -4.69578
0.361057 124.997 7.99674
-6.36253 123.667 -4.50096
-5.41952 114.481 9.6526
11.1432 144.78 4.78131
5.0765 140.367 -2.0593
9.71441 145.084 1.59436
-16.0036 104.635 0.552023
-6.67388 123.643 -4.56079
-15.1891 111.754 -6.85836
-12.5483 104.052 9.13489
-12.2352 104.357 9.4568
-8.20131 109.038 11.9128
6.2029 144.034 -3.78539
11.0802 150.006 -1.32701
-13.2928 103.705 8.23025
-16.19 106.066 -1.00369
-5.9261 125.243 -4.55223
-15.2455 105.982 1.22323
-5.64878 125.397 -3.96338
-3.06671 118.852 10.1723
-15.8386 104.622 1.90746
2.17796 133.71 1.71519
8.71865 148.985 -4.4982
1.36116 132.71 1.43234
-15.5634 106.644 0.0778383
10.3199 145.456 3.73262
-5.62164 125.589 -3.74866
-4.05988 126.6 -1.75636
-15.2376 106.024 1.78286
-15.3827 105.654 2.06224
-4.044 126.824 -1.79835
-7.75984 123.082 -4.71494
-2.8675 119.869 10.0054
-15.3478 105.735 2.25245
1.44221 128.264 8.09674
-0.131126 131.666 0.271371
-3.70952 127.274 -1.43802
-14.5783 103.777 6.58333
-14.2486 104.078 6.94972
-0.606869 124.574 8.87692
12.0167 151.524 0.0274711
-3.29712 119.411 10.0046
10.2886 145.939 3.79777
-3.97463 127.319 -1.81648
4.71309 135.405 5.9352
3.25417 131.005 8.67943
-14.9333 106.701 2.23165
-15.0479 113.385 -6.84607
9.34715 146.245 1.49511
11.9709 149.566 2.75918
12.454 151.736 0.916589
1.76206 134.083 1.63648
-4.62765 127.051 -2.59078
-15.8564 111.743 -6.09524
1.80186 134.309 1.57271
9.71881 146.967 1.67092
7.18907 142.891 1.73987
7.75607 144.371 1.05649
3.88732 132.979 8.02647
11.5496 149.048 3.08251
3.74412 132.789 8.09602
-15.1649 104.383 5.67819
-16.9793 108.914 -4.10297
7.02281 142.96 1.89117
7.23519 143.625 1.46254
-11.8515 119.276 -6.78217
-16.2709 111.315 -5.59156
-0.590086 125.751 8.60319
5.28722 143.881 -2.84367
-9.9779 108.285 11.872
-14.3013 107.479 3.91672
-14.1265 116.034 -7.01748
-14.972 108.026 1.81551
-7.65503 113.101 10.6441
-14.4468 104.995 6.98023
-8.39602 111.773 10.9131
-12.7637 106.163 9.08791
-12.7447 118.114 -6.65824
6.248 146.666 -4.09185
6.76056 142.644 2.3542
-5.54584 127.221 -3.31226
-13.7225 108.773 3.76781
3.5215 139.03 0.355199
1.65894 135.165 1.54188
8.42551 150.321 -4.08619
-13.6869 108.627 4.21922
11.3848 150.103 2.63449
-12.2431 119.364 -6.62689
-2.85975 122.192 9.71663
-17.3721 108.373 -2.78474
-10.3701 108.746 11.7073
-1.51824 124.569 9.57162
-14.6554 105.555 6.84559
-14.8715 108.537 2.45054
-2.98477 122.126 9.70044
9.22638 147.961 1.46571
3.90266 135.414 6.79721
1.8414 131.058 8.18471
6.75108 148.341 -4.08283
9.09161 148.056 1.33965
-5.73434 117.735 10.0959
-0.936836 133.095 -0.035742
-2.63883 122.958 9.82675
10.7892 149.88 2.79278
3.99718 137.668 4.64299
9.71951 151.385 -1.17056
3.95408 138.054 4.24079
-13.7179 106.737 8.1922
-12.7822 119.358 -6.43447
-8.37338 126.054 -5.90878
-8.43711 113.364 10.8012
-1.64979 125.487 9.20267
10.8059 150.531 2.53732
6.65349 144.404 1.88555
-6.74445 127.802 -4.39823
-8.71632 112.973 11.0362
-12.0404 120.977 -6.59837
-10.1711 109.909 12.0614
3.66438 141.596 -0.362565
-12.3667 108.033 10.091
4.91067 145.429 -2.60598
-14.6389 117.227 -6.67326
-13.331 110.213 5.40307
-5.86919 129.687 -4.42037
-4.10421 121.841 9.73429
4.11413 143.434 -1.37737
-17.5748 109.858 -2.98207
-13.1104 119.676 -6.45569
-13.2912 110.039 5.9369
9.01837 151.82 -1.94553
-5.80835 129.962 -4.44572
6.21618 144.245 2.21762
-9.17902 126.592 -7.0433
-0.896182 134.478 0.105179
3.37449 137.066 5.77869
-12.1441 121.657 -6.72821
-5.62968 119.573 9.91359
8.78803 149.314 1.23623
-1.24634 129.018 6.84331
9.47627 149.84 2.18808
-5.41366 130.528 -3.8243
1.38642 132.841 7.61029
2.58579 134.328 8.19467
3.57614 139.575 3.42871
-17.6152 110.592 -3.17127
-16.3435 109.111 1.68504
1.34116 138.072 0.917166
-7.57478 128.848 -5.64991
0.917857 133.045 6.82286
-13.2744 111.586 5.17439
4.02588 144.392 -1.47449
6.15402 145.05 2.19334
-4.63296 131.524 -2.71185
-17.1989 112.656 -4.324
-8.94601 128.273 -7.45265
-12.8913 109.272 9.32705
3.02517 138.823 4.06642
-5.41671 131.271 -3.7998
-17.4388 111.937 -3.73822
-17.5294 110.082 -1.43687
1.1711 133.624 7.13075
-6.62237 130.693 -5.51982
1.17085 133.695 7.11822
-6.98252 130.392 -5.80914
3.8328 144.344 -1.29843
-16.5768 114.836 -5.47224
-17.5643 110.291 -1.4632
1.6138 139.555 0.661561
-12.7521 122.098 -6.69756
-9.66899 127.669 -7.45376
-2.31573 129.508 5.74632
-2.07017 129.975 5.78352
2.4492 135.875 7.59521
2.6091 137.785 5.44426
-15.1796 118.334 -6.53771
-5.53925 121.423 9.83164
-4.45954 132.628 -2.66668
-4.67953 132.447 -2.87843
6.86472 147.768 1.36204
-6.20423 131.849 -5.31258
1.30469 139.391 0.665931
2.57037 137.841 5.40314
2.83647 142.599 -0.295713
4.899 143.592 2.81236
-15.8808 117.141 -6.27842
-2.74395 126.959 8.67889
-3.62577 133.646 -2.02278
-3.6632 133.649 -2.06606
8.52769 152.905 -1.63686
3.10451 140.66 3.11618
7.97319 152.573 -2.24997
-13.4687 112.661 5.10667
-8.70248 115.816 11.07
-4.66862 132.903 -2.96242
-13.232 111.942 6.6366
-1.27131 136.164 0.0130569
-11.7367 111.559 10.355
0.718926 138.852 0.720992
-16.6392 115.695 -5.46008
-3.94846 133.751 -2.40875
-1.53549 131.38 5.87821
3.38187 144.5 -1.00913
-17.8262 111.597 -2.44307
-2.91039 127.858 7.76908
-8.90241 129.777 -7.45607
-17.6566 112.397 -2.93072
-2.94572 128.137 7.51934
-17.2163 113.692 -3.643
-0.720067 133.366 5.3746
-12.2447 111.881 9.34925
-4.81244 133.507 -3.34151
-16.0037 117.322 -5.57651
-17.4792 112.613 -2.4639
-17.0102 115.218 -4.87321
1.95227 136.526 7.2915
-10.6828 127.14 -7.01246
-5.51072 122.609 10.0864
1.32331 140.932 0.356614
4.3061 147.963 -2.60329
-14.0059 113.005 4.78284
6.05733 147.7 1.50361
-0.904695 133.768 5.17832
-15.7376 111.419 3.29642
8.36447 153.464 -1.12434
1.9095 138.009 5.64076
7.64093 151.074 0.6159
-3.20985 129.637 6.17321
-4.26893 126.647 7.96175
-13.0262 113.898 6.27577
-12.9446 113.897 6.4925
-0.0463946 139.164 0.475642
-6.35422 121.804 10.069
-6.30262 133.988 -5.89547
-2.22842 136.493 -0.540983
-12.5824 113.081 8.49498
-1.16259 137.775 0.10546
-4.57385 135.322 -3.78063
-10.9928 127.926 -7.56449
1.78311 139.953 3.71367
-7.03836 120.675 10.532
-16.4246 116.938 -4.42837
-5.22407 123.77 10.3133
-16.7166 115.242 -2.68731
-6.3462 122.249 10.0745
-3.26163 136.964 -2.54838
-2.91395 137.15 -2.05523
3.49738 147.302 -1.83823
-10.932 114.227 11.3282
-17.1747 111.249 2.02259
-11.567 126.673 -6.3268
-11.2321 127.053 -6.11459
-17.8317 112.062 -0.184856
-11.1845 127.979 -7.07592
-14.9392 119.253 -3.45304
-11.7828 113.418 11.0744
-8.89975 131.654 -6.90217
-5.65757 136.037 -5.75566
-14.8974 119.308 -3.16197
-2.51526 137.917 -1.4817
-4.68895 128.133 6.88221
-17.6026 112.008 0.80967
1.7878 140.87 3.84042
-7.23034 134.344 -6.60978
-13.8522 123.353 -6.09651
0.965463 136.7 7.71732
-14.8831 119.43 -2.98541
3.29359 147.724 -1.8166
-16.7963 115.129 -1.2775
-11.9481 127.042 -6.74062
-11.9595 127.166 -6.83672
-2.36416 138.302 -1.19444
4.74277 151.227 -3.17423
1.82237 144.408 -0.329525
-14.4156 120.954 -3.73147
-16.2263 117.469 -2.90232
-2.21039 134.173 4.74639
-14.3206 113.963 5.84149
-11.563 127.214 -5.7768
-11.9941 114.742 10.0186
1.27075 140.789 3.77118
-4.70071 137.091 -3.9236
-16.5385 117 -2.41567
-17.6282 113.356 0.108116
-12.4201 126.125 -5.66258
-17.7912 112.779 0.626669
1.06742 143.57 -0.00255686
-12.4141 127.087 -6.72413
-16.1171 117.055 -1.30963
-14.2971 122.281 -4.32744
0.567238 137.281 7.37813
-2.15804 135.055 4.55103
-14.5362 114.167 5.97509
-9.56019 117.763 11.7892
6.18571 153.529 -1.96525
0.036478 142.251 -0.075003
-11.9829 115.687 9.59612
-15.1104 114.001 5.19126
-14.6882 122.772 -5.46558
2.44663 142.834 4.43623
1.66865 141.609 4.54189
-14.9282 121.382 -3.92251
-0.777641 141.215 -0.125766
-3.81223 132.619 4.87404
-0.762007 137.353 5.27089
-16.8685 114.948 0.75567
-15.2039 121.1 -3.79922
-0.730075 137.438 5.44203
-15.6179 114.141 4.67845
-16.1455 119.446 -3.43201
-12.2456 116.193 9.2133
-9.57569 118.788 11.4751
-1.7774 136.723 4.32074
-14.1373 123.086 -3.84553
-14.3876 123.476 -4.87789
-16.274 119.443 -3.54003
1.12426 141.411 4.33143
5.63094 153.496 -2.05304
-14.459 114.742 6.65807
-14.4559 123.177 -4.47282
-14.1923 123.164 -3.72238
-6.78278 124.421 10.3477
-16.0191 119.348 -2.26736
-10.0994 131.495 -5.709
-17.2699 114.324 1.79873
-14.3052 115.105 7.06136
-14.0782 124.158 -4.428
0.761746 141.425 4.22348
-15.0569 119.895 -0.835439
-15.9778 117.745 0.0991763
-10.7222 130.628 -5.74443
-9.09003 120.1 11.6742
-9.14643 133.212 -5.6738
-10.8239 117.826 11.1799
-17.4711 113.885 2.32203
-15.1217 119.916 -0.553543
-8.90174 134.103 -6.06224
-15.6081 120.252 -1.75724
-15.4701 114.993 5.54085
-10.6261 131.03 -5.34949
-12.667 116.734 9.29278
-16.9282 119.41 -3.14169
-3.57973 140.519 -2.70925
-1.6665 138.383 4.23023
-3.98333 140.258 -3.16017
0.996421 146.42 -0.740597
-1.13627 138.27 5.55445
-7.52345 136.641 -5.78806
-0.141398 141.163 3.93098
-16.1402 114.875 4.80621
-7.75545 136.393 -5.84281
-2.01318 137.864 4.39757
0.408612 141.889 4.30332
-14.1328 116.017 7.75138
-16.4796 117.671 0.611635
-8.83941 134.932 -5.99534
-4.50321 140.348 -3.80841
-16.7553 118.352 -0.709214
-14.3132 116.206 7.41412
-16.3242 118.809 -0.194076
-11.2848 130.108 -4.37735
-8.51268 123.255 10.5693
-5.7156 139.728 -5.25747
-8.89346 122.835 10.3538
-6.68951 129.438 6.3277
-0.839231 143.965 -0.451094
-16.7817 119.465 -1.86615
-8.93571 122.748 10.4443
-16.5338 117.981 0.6427
-16.8847 120.046 -2.77824
-16.5317 119.099 -0.765237
-6.67242 138.752 -5.75852
-8.94294 125.604 6.82585
-12.206 129.1 -4.71055
-13.2998 127.036 -4.24481
-15.4363 120.162 0.333214
-15.8085 119.96 -0.14049
-16.458 120.881 -2.71511
-3.1958 136.999 4.12239
-8.9949 135.202 -5.7401
-9.56293 134.404 -5.63128
-17.6239 115.131 2.8222
-15.5779 122.3 -2.26781
-15.8773 118.995 1.48016
-17.415 118.994 -1.76575
-6.37991 131.368 5.29996
-3.06896 142.185 -1.96512
3.10083 152.606 -2.65431
-0.824003 140.848 4.63165
-3.8782 141.806 -3.07616
-16.7563 120.011 -1.57013
-9.45368 124.717 7.70813
-14.8258 122.908 -1.25628
-13.3816 127.243 -3.87564
-15.5229 123.645 -3.65875
0.22823 142.72 4.58866
-16.2284 120.033 -0.284009
-15.1877 122.722 -1.59892
-16.0847 121.188 -1.47283
-14.7449 116.898 7.04778
-16.2754 118.949 1.27417
-9.24921 126.146 6.67402
-15.4772 121.73 -0.698696
-10.1499 122.142 10.0627
0.781394 148.025 -0.967346
-3.38331 142.479 -2.36736
-16.3983 120.395 -0.768839
-16.3052 121.167 -1.51645
-15.9969 121.369 -1.11867
-8.52671 126.028 8.57424
-12.435 118.766 9.94378
-13.9636 117.316 8.66054
-11.9924 119.498 9.96231
-14.002 125.207 -1.82088
-14.9305 123.16 -1.07375
-15.1044 121.261 1.16542
-17.4154 115.877 3.38889
-8.9453 125.037 9.25632
-1.39745 139.397 6.3511
-1.1736 141.153 4.52953
-16.5878 116.129 4.92205
-17.1064 120.277 -1.61252
-16.0112 123.175 -2.9877
-15.2203 123.2 -1.30572
-14.8115 117.261 7.46122
-17.8805 116.314 2.24435
-15.7276 122.398 -1.12469
-16.4273 119.068 1.85542
2.22961 152.305 -2.47323
-1.35659 140.49 5.60779
-7.22713 130.687 6.14979
-16.3953 119.384 1.75566
-17.5502 117.079 2.35853
-14.0052 125.77 -1.56081
-16.1611 119.832 1.7387
-0.550967 142.895 4.46694
-14.6559 125.854 -2.92165
-15.3377 121.264 1.73551
-16.6184 122.195 -2.20661
-16.5163 120 0.999285
-16.1205 120.718 0.976987
-17.4257 117.694 2.33234
-16.6685 120.584 0.142113
-15.9102 120.932 1.35311
-14.064 118.283 8.81249
-15.5872 124.632 -2.80865
-7.55402 139.786 -5.7777
-11.0634 125.3 5.9357
-15.5511 123.081 -0.65014
-16.0686 123.954 -2.87928
-13.7741 127.614 -2.84749
-5.60598 135.151 4.55717
-1.74211 141.608 4.42172
-1.67685 141.742 4.43498
-14.2254 126.478 -1.98776
-9.29791 128.36 6.16164
-16.268 120.957 1.21525
-16.6939 120.723 0.699724
-10.9557 133.401 -3.77137
-10.2658 135.498 -5.07545
-11.4225 122.704 9.45638
-17.51 119.698 0.519312
-6.89078 141.219 -5.39795
-13.1768 120.408 8.80428
-3.73046 139.276 3.93335
-16.3324 121.056 1.41516
-14.5949 126.631 -2.26424
-12.2825 121.31 9.79782
-17.4387 118.242 2.96812
-15.1972 118.738 7.07031
3.23626 154.806 -1.48108
-16.7772 121.241 0.494412
-2.50744 141.585 3.98724
-14.4457 126.246 -0.903854
-3.80995 139.703 3.91321
-12.0074 131.794 -2.90543
0.749023 151.687 -2.13932
-15.855 124.887 -1.86495
-4.2739 144.59 -3.28687
-16.177 122.439 0.771542
-10.4466 127.726 5.9424
-16.5773 121.644 1.02835
-2.90623 141.368 3.9751
-16.6062 118.3 5.47462
-14.7862 127.593 -2.94501
-10.828 127.219 5.99003
-11.5983 132.908 -3.14943
-10.9001 127.162 5.97832
-0.984398 148.313 -0.937966
-17.3084 120.329 1.43534
-2.39473 142.605 3.72959
-6.40021 136.272 3.65285
-8.28544 131.054 6.5534
1.92461 153.886 -1.95302
-12.7594 131.146 -2.99179
-12.1063 125.642 5.7829
-15.5402 120.155 5.77611
-18.4041 117.919 2.6565
-12.3186 123.314 8.50146
-17.6076 121.764 -0.640138
-15.7256 125.614 -1.69465
-13.0922 130.806 -2.85886
-9.15569 129.87 6.74013
-3.57546 145.752 -2.39264
-17.3039 120.781 1.57205
-10.3953 136.833 -4.95511
-17.1291 118.69 4.80953
-14.2884 127.933 -1.36916
-2.54891 142.32 4.55033
-1.19621 148.666 -0.954002
-16.5105 119.511 5.15848
-18.6366 121.137 -1.46766
-16.7515 120.189 3.80567
-17.5643 119.785 2.66239
-18.6225 118.05 3.00068
-0.518932 150.502 -1.49028
-18.1969 119.468 2.07749
-6.77014 143.346 -5.25438
-17.3287 120.709 2.37754
-18.5368 118.383 2.90813
-2.96483 141.9 5.17655
-13.0137 124.238 7.28738
-5.47006 145.088 -4.23262
-18.318 119.023 3.00636
-5.03819 145.655 -3.86074
-4.76584 140.414 3.73412
-3.08348 142.48 4.58114
-11.6286 134.71 -3.19719
-11.4476 135.195 -3.41079
-19.0626 121.48 -1.4248
-16.3148 119.973 6.41121
-18.1143 119.79 2.89145
-17.537 124.822 -2.49533
-0.0775056 152.575 -2.13554
-12.5093 126.814 5.58784
-0.278998 152.26 -1.96278
-7.38723 143.275 -5.15007
-12.5416 126.728 5.82694
-18.5986 117.945 4.77328
-17.2619 121.379 3.07094
-12.7631 132.789 -2.30174
-4.4166 146.853 -3.1241
-11.855 127.195 7.11927
-17.8907 120.344 3.3811
-14.3952 129.483 -1.1475
-14.8313 128.648 -0.951584
-15.6682 121.797 6.35646
-12.8059 132.942 -2.28844
-0.427098 152.591 -2.00324
-7.14839 137.173 4.23096
-17.1268 120.63 5.03581
-8.22417 134.999 5.00853
-19.7777 116.522 4.97717
-3.22626 144.316 3.47558
-17.6687 120.745 4.02422
-14.2492 124.557 6.31705
-6.40371 139.579 3.12838
-17.8528 120.683 3.82975
-11.8756 135.553 -3.13578
-17.9214 118.909 6.06774
-4.29898 147.595 -2.88942
-15.6796 122.249 6.62895
-8.88872 133.376 6.38284
-17.0353 121.644 4.62661
-16.5093 121.458 5.99403
-14.504 129.645 -0.41932
-8.46708 134.444 6.23076
-16.5709 128.651 -3.13727
-19.0552 117.787 6.01259
-13.4693 132.539 -1.61682
-19.0013 118.865 4.74576
-19.2777 123.196 -1.22525
-19.2204 118.439 5.37554
-10.6763 130.633 7.38028
-18.4068 120.2 5.01668
-5.2668 142.713 3.13752
-5.46993 147.789 -3.97369
-17.5436 120.868 6.01237
-4.41528 148.689 -2.78147
-18.6254 125.726 -2.56268
-19.0196 119.586 4.73786
-13.5412 132.944 -1.21682
-19.8444 122.378 -0.595924
-22.0049 117.883 0.770545
-11.8738 129.454 6.9639
-19.4167 119.886 3.68209
-14.8964 131.224 -1.65017
-19.9921 121.791 0.326771
-11.9403 137.943 -3.93017
-12.8042 136.143 -3.26928
-4.94141 148.846 -3.24472
-7.74146 138.708 4.24463
-18.5188 120.618 5.34516
-5.48645 143.57 2.85458
-19.3564 119.102 5.7878
-12.3626 135.921 -1.60708
-20.3789 121.312 0.930208
-12.6719 137.182 -3.69365
-5.85666 148.353 -3.8459
-17.0328 122.041 7.36624
-17.6292 121.187 7.33349
-19.9932 118.602 5.74753
-16.2339 123.858 6.77327
-17.8075 121.21 7.07785
-20.17 118.391 5.8854
-11.5665 139.252 -3.3932
-13.4944 135.96 -3.11565
-18.1436 120.193 7.91602
-12.5831 136.18 -1.25447
-17.0767 123.118 6.54215
-17.3549 123.424 5.59803
-20.9957 121.197 0.930743
-16.3637 124.093 6.92977
-1.81841 154.188 -1.90171
-16.8392 123.585 6.78979
-17.4479 121.924 7.78799
-2.41745 153.079 -1.4997
-4.57562 150.36 -2.46311
-15.6172 124.531 8.40404
-19.7697 124.04 0.253585
-13.3889 136.546 -2.70538
-7.19705 142.413 3.00638
-22.8037 117.004 3.52156
-20.0618 123.819 0.444979
-19.7358 126.095 -1.81743
-7.39127 147.789 -4.1493
-16.0675 124.208 8.66522
-2.87621 153.11 -1.56367
-14.5757 127.027 8.18519
-7.87742 141.323 3.8399
-22.9451 119.411 0.943647
-20.8839 122.74 1.03312
-13.3748 136.14 -0.576056
-16.8589 123.565 8.71053
-17.9364 123.114 7.08523
-10.7299 142.985 -3.7339
-20.4141 119.097 7.32294
-13.6783 135.928 -0.403429
-13.1779 136.895 -0.411482
-19.0276 128.67 -1.90797
-11.1527 134.011 7.89778
-20.8298 125.094 -0.752538
-6.87753 144.96 2.7385
-12.3722 139.585 -1.79341
-16.5941 125.328 8.16275
-10.0253 137.158 6.56247
-11.7196 141.801 -3.0999
-20.922 119.083 7.53015
-9.03036 140.157 5.00702
-5.05527 152.176 -2.39609
-13.8768 136.553 -0.438501
-20.9591 125.91 -1.1596
-21.8577 122.972 0.997546
-8.41052 142.176 4.13768
-12.3033 139.704 -0.809052
-19.3669 121.271 8.58731
-17.6086 124.223 8.53892
-14.6099 129.901 7.47987
-10.8663 135.753 7.733
-11.3919 142.861 -2.72701
-18.9079 130.2 -1.89399
-21.8099 124.885 -0.441279
-14.8028 130.294 7.28079
-7.90298 149.467 -3.36969
-10.1892 146.126 -3.5403
-13.2441 132.29 8.3839
-6.4663 147.797 2.33735
-18.2217 124.018 8.84202
-9.25627 141.374 4.95164
-10.2002 146.288 -3.48618
-21.604 125.395 0.0841724
-24.5828 117.134 4.80259
-14.76 131.482 6.676
-19.5061 129.116 -0.213312
-4.43895 154.539 -1.43629
-9.07314 148.565 -3.34701
-19.0628 123.451 8.77923
-12.2023 135.272 7.90359
-13.1818 133.514 8.42558
-14.5483 137.883 -0.163473
-16.3896 128.558 8.28684
-20.7025 127.114 1.0771
-8.79936 143.95 4.07169
-17.2113 127.741 7.70823
-18.6618 125.058 8.18094
-19.0346 131.777 -1.34058
-19.5913 130.028 -0.0352736
-15.4402 137.055 -0.500394
-10.7548 138.888 7.10826
-9.11322 149.176 -2.96011
-23.3729 118.253 7.68112
-23.3175 123.005 1.53147
-10.7267 139.169 6.97246
-6.94562 148.856 2.23582
-10.0587 141.378 5.57166
-10.3493 140.714 5.9268
-17.6545 128.684 6.40247
-10.4971 140.489 6.06796
-13.148 134.643 8.35906
-16.874 135.434 -0.399012
-20.3603 129.009 0.952174
-16.6144 130.941 6.3833
-20.7917 127.964 1.48978
-10.1974 141.76 5.81602
-17.2399 135.089 -0.29071
-10.1374 141.982 5.74107
-23.0093 124.672 1.51049
-6.92669 150.256 1.89827
-17.1702 130.504 6.3996
-7.37086 149.409 2.26664
-11.8013 145.314 -1.71415
-19.4035 126.337 7.59886
-15.488 138.259 0.304624
-12.216 143.056 0.917129
-23.0693 124.925 2.09766
-21.8006 126.564 2.68449
-21.815 122.59 8.01126
-11.3986 146.828 -1.81949
-18.2749 134.279 0.317826
-19.4217 127.454 6.93754
-23.7598 123.38 3.26088
-9.62431 145.02 4.70114
-10.5488 142.199 6.54098
-12.3225 144.908 -0.659203
-6.8944 152.078 1.37719
-17.4668 131.148 6.78024
-23.7098 123.573 3.57697
-10.2225 143.87 5.51228
-9.05869 147.522 3.55645
-11.6045 147.093 -1.21483
-21.2946 128.636 2.65247
-22.4856 122.993 7.60709
-13.6531 136.331 8.72203
-23.1837 124.819 3.74851
-10.6597 149.332 -1.86037
-12.585 143.65 1.61913
-7.797 151.781 1.04401
-21.7753 127.259 3.87948
-12.0981 146.218 -0.626878
-20.1664 132.33 0.86543
-12.5705 143.938 1.68583
-7.9166 152.028 0.867144
-21.8567 127.396 4.05202
-21.658 128.254 3.40525
-24.1307 122.862 5.38068
-15.2182 134.69 8.83279
-13.3489 143.219 1.68674
-13.2679 143.339 1.76029
-19.9883 133.14 1.02959
-9.65178 151.137 -0.793409
-9.8175 146.934 4.43389
-13.5981 137.805 8.56215
-24.1537 122.986 5.9755
-20.3344 128.394 7.03345
-24.2221 122.64 6.40541
-20.6868 130.95 3.08712
-13.4742 138.633 8.4992
-20.4092 132.621 2.24749
-9.72029 148.69 3.69857
-12.8427 140.165 8.46407
-21.3418 130.147 3.68301
-18.0797 136.555 2.14657
-18.0016 132.667 7.56967
-12.596 140.702 8.4231
-21.4811 129.986 3.80686
-13.652 143.708 2.42795
-15.577 136.096 9.04581
-19.4842 131.359 7.09682
-15.3442 136.819 8.90771
-10.5876 147.857 4.54549
-21.076 131.38 4.27452
-12.3077 147.584 1.45226
-10.6529 149.747 2.1139
-21.8894 129.924 4.55396
-11.2493 149.889 0.81022
-16.4391 140.783 2.13288
-10.8051 148.265 4.23013
-13.6076 140.593 8.50397
-14.5923 143.625 2.89744
-16.2228 141.448 2.33319
-19.4316 132.491 7.62808
-15.1701 143.085 2.68424
-17.4933 139.5 2.52384
-22.625 127.699 7.26585
-18.9544 133.448 8.1922
-21.8231 129.409 7.51724
-16.5497 136.952 8.758
-21.4815 131.657 5.67222
-15.6393 138.94 8.5133
-14.5105 144.426 3.70558
-19.8913 135.348 4.41945
-14.1788 141.975 7.92994
-14.0228 142.646 7.72862
-17.7983 140.03 3.41522
-16.0863 139.336 8.26692
-18.2014 139.367 3.77944
-17.0526 137.788 8.41887
-13.3296 145.788 5.77516
-15.1395 144.305 3.95653
-15.8659 143.556 3.56413
-20.7079 132.774 7.58406
-21.9171 131.578 6.91003
-17.0218 141.691 3.93144
-15.2794 141.551 7.92442
-19.9927 134.001 8.06721
-18.4999 136.749 7.95684
-17.5257 141.072 4.53697
-20.8222 134.812 5.88781
-16.6925 142.534 4.49326
-16.2865 143.231 4.60173
-16.7085 140.292 7.80504
-20.454 135.48 6.29307
-16.2758 141.419 7.47563
-14.4646 145.92 5.47345
-15.4099 143.735 6.47932
-17.4328 139.797 7.66345
-16.9991 141.752 6.15888
