ply
format ascii 1.0
comment Created by Open3D
element vertex 1930
property double x
property double y
property double z
end_header
12.8557 104.268 0.468073
29.2735 99.8025 -10.0703
-13.5746 120.331 -1.59558
29.0315 95.0646 0.695155
-12.1635 117.98 1.82593
-9.08492 115.155 4.21763
16.1897 109.5 -14.6621
-16.0272 117.277 8.24854
16.0512 103.662 -1.77437
-12.5974 119.801 -1.45317
40.7052 90.3995 -3.3601
21.2324 106.66 -14.545
-13.8833 120.832 -1.89397
40.7386 89.6914 -1.61584
-3.62778 111.446 5.97514
-11.91 118.263 1.39144
12.5866 111.67 -14.5061
6.2923 115.099 -14.1171
-17.6761 117.04 11.2976
39.6817 91.2414 -3.46238
22.2804 106.076 -14.1749
21.9339 101.133 -2.95986
-15.8766 117.019 9.23354
-17.087 121.412 1.18025
37.8893 91.4644 -1.63144
-3.04179 117.954 -8.63459
40.854 90.5049 -3.16412
-11.7352 119.166 -0.356264
13.5852 104.549 0.200844
-11.902 118.958 0.385673
-16.6025 119.063 6.02766
-1.32772 117.069 -8.50263
21.6911 106.831 -14.4978
40.2568 90.1637 -1.20066
-8.8298 115.41 4.62295
-17.3983 117.622 10.4558
-11.5785 122.482 -7.26695
-18.4809 120.134 6.41922
20.2294 102.509 -3.04257
6.35768 107.815 2.56608
-9.97642 121.987 -8.0234
-16.2692 118.268 7.83888
1.1916 116.533 -9.94548
6.84909 107.631 2.42605
40.3138 90.3044 -1.24668
-16.24 118.391 7.61609
-6.75818 114.122 5.23751
-17.1535 121.736 1.54328
-11.6073 118.499 1.769
-13.0826 119.777 0.832915
22.68 101.149 -2.84386
-12.1078 119.551 0.134688
41.6793 91.058 -4.33224
2.44006 116.972 -12.1672
39.9088 91.4808 -3.02709
-12.1001 118.965 1.55115
30.2685 100.019 -9.6029
-13.1785 120.048 0.577714
-12.3015 121.913 -4.52988
-16.6469 117.309 10.885
-16.1565 118.553 7.5894
-16.1985 119.709 5.18301
24.0015 100.207 -1.98548
35.8906 95.9702 -7.44174
-12.027 120.251 -1.01231
-2.57671 118.313 -8.35418
1.08237 109.834 5.5717
-12.3413 121.16 -2.39778
-12.6178 122.376 -4.67637
39.7938 91.7752 -2.83914
6.80261 115.651 -13.9318
-10.3831 122.598 -7.77386
-13.1446 121.781 -2.58094
-19.649 121.045 7.09839
35.1825 96.8751 -8.07808
-11.687 117.973 3.99498
-17.2044 122.088 1.87914
8.91202 107.209 2.00464
-11.5764 119.312 1.01724
28.7836 96.1708 1.46046
-11.5787 118.972 1.77439
-6.84169 114.599 5.47911
-10.9886 117.563 4.16591
10.705 113.44 -13.6029
-11.5801 118.867 2.14452
39.7381 93.1512 -5.35037
-12.8228 122.613 -4.4486
-15.9467 118.267 8.85774
-15.9766 122.396 -0.0120362
33.126 98.5245 -8.72047
-19.7436 120.9 7.97958
-11.6386 118.665 2.83138
-17.8457 119.772 8.12375
19.1421 104.24 -3.76709
-11.9257 118.534 3.5997
36.1637 96.296 -7.45354
6.98569 115.856 -13.8596
-16.2054 120.428 4.88375
8.39512 114.972 -13.6407
34.1495 97.9952 -8.53968
23.0387 107.129 -14.5409
-16.3981 122.687 0.384117
-6.22781 114.496 5.69011
-15.9193 118.634 8.74419
25.6921 98.7762 0.536574
41.4174 90.2449 -0.290475
-19.2738 120.319 9.32266
-11.5791 118.264 4.32929
-8.23878 115.879 5.40267
-16.7342 123.086 0.296152
-15.7593 118.692 8.77873
14.6158 105.573 -0.213378
-11.7993 118.381 4.64154
-16.8677 123.651 -0.500786
4.90617 117.202 -13.2907
-18.118 123.228 2.12862
-11.8882 118.454 4.81604
33.4142 99.0537 -8.81876
3.46006 109.998 4.41281
41.7865 90.4882 -0.528698
-11.751 122.52 -3.96737
-3.21488 112.759 6.80016
-11.5854 119.383 2.80422
-12.9487 123.12 -3.60985
-17.1173 123.947 -0.201064
8.53608 108.218 2.30265
1.99344 110.563 5.33928
11.6951 107.051 1.07481
38.0946 92.2298 0.685129
-5.4023 120.76 -7.55832
-6.27488 115.022 6.02891
-11.6352 119.548 2.81336
-2.88925 119.479 -7.81938
8.99277 115.289 -13.3735
-12.0545 123.132 -4.40958
37.5864 92.4872 0.894135
40.6516 93.0365 -4.07984
24.2925 101.401 -1.99181
21.7265 108.717 -14.6916
-12.7409 122.591 -2.23084
11.6266 114.123 -13.9251
25.0826 100.586 -1.12531
42.2332 91.3341 -2.20285
28.7278 103.564 -12.0878
1.09242 118.053 -9.43186
40.9359 92.3153 -2.70249
0.381898 118.207 -8.8757
-12.4882 118.915 5.53845
19.7509 109.861 -14.5865
7.37216 108.977 2.63578
8.70883 108.386 2.31477
-7.63321 116.039 5.92631
-15.9989 118.479 10.9845
35.5281 97.79 -7.64991
-5.11554 114.677 5.93278
38.3607 92.4032 0.723222
14.3846 113.212 -14.8206
9.79278 108.09 2.0002
23.354 102.617 -2.81006
41.0521 92.7914 -3.30636
1.23161 118.329 -9.55348
40.1795 92.4207 -1.34144
-13.6807 120.019 5.23285
35.3667 98.2134 -7.92149
-12.9992 119.901 4.74192
-10.5767 118.685 4.4113
15.1962 106.206 -0.244505
16.406 105.971 -1.22389
25.3345 100.643 -0.566797
42.6925 91.4733 -2.07207
14.0552 113.652 -14.8379
16.4369 106.058 -1.25492
29.7283 103.271 -11.6061
41.5258 92.3888 -2.47194
-12.1099 119.129 5.71781
33.8862 99.6684 -8.80198
10.1993 108.209 1.92739
23.4216 108.292 -14.5525
28.4328 104.326 -12.1024
-12.8195 122.8 -1.26417
-9.11365 123.328 -6.9039
40.0393 94.1472 -4.1757
20.4299 105.027 -3.59744
18.1623 111.231 -14.2599
42.6731 91.1698 -0.897832
-15.0054 121.015 5.51228
-14.6217 119.498 8.38348
-3.94531 120.75 -7.51675
-11.3882 124.301 -5.97145
22.7183 108.943 -14.6588
-11.6983 124.84 -6.67394
7.35287 109.693 2.74694
8.31584 116.575 -13.3974
-13.4693 120.318 5.39708
-14.7497 120.415 6.77349
-17.803 125.098 0.375496
-18.3201 124.567 2.19094
-5.43043 121.645 -7.3496
-12.5295 123.196 -1.92723
4.58432 110.931 3.64634
-11.8657 122.864 -1.88383
-13.1651 123.193 -0.985679
12.4035 107.72 1.10054
-1.44137 112.823 7.13664
-18.6042 123.785 4.56925
1.00287 118.967 -9.1636
-18.8069 123.656 5.12196
22.741 103.903 -3.20588
4.86536 118.563 -12.9701
-1.13949 112.725 7.18108
34.5181 99.7435 -8.60445
-0.543135 112.51 6.96466
-14.4769 120.774 6.3423
-16.1002 119.523 11.0889
24.1266 102.885 -2.39076
20.8477 105.302 -3.5854
-9.09288 118.534 4.64483
41.4936 92.8764 -2.06255
0.0263783 112.464 6.62918
21.9492 104.628 -3.30649
-3.52861 114.431 6.93759
29.9053 97.8867 1.61141
-12.3407 124.729 -4.50118
-13.7936 119.598 8.52841
-14.7763 124.491 -0.881924
32.7552 101.414 -9.41814
-17.421 120.471 11.1513
-10.3744 124.857 -7.05196
2.04478 119.332 -10.3698
18.7268 106.954 -4.06939
-4.46924 115.169 6.79748
-10.5622 119.396 5.14936
8.51001 117 -13.1682
-7.61797 117.522 5.6363
15.0965 113.92 -14.5852
-10.8672 124.946 -6.46182
-17.7591 125.71 0.399833
40.4949 93.345 -1.1691
3.72667 119.486 -12.4014
33.5206 101.105 -9.22602
-12.2801 123.657 -1.66115
34.5073 100.374 -8.76628
-14.501 119.577 10.1062
-12.5673 124.795 -3.6137
42.6872 92.216 -1.05444
13.7586 107.882 0.672259
41.5721 92.3779 0.0565696
-12.5885 124.812 -3.52104
31.1886 97.7525 1.24163
-14.0206 124.335 -0.666235
34.7388 100.341 -8.6786
12.2904 115.695 -14.2296
-0.334879 113.148 6.94492
-3.94192 121.778 -7.34362
10.2242 116.387 -13.0041
-18.8482 123.583 7.44828
5.00994 119.34 -12.8025
31.0582 97.99 1.42476
1.04232 112.963 6.00744
36.8169 98.4568 -6.64391
0.853176 113.043 6.11025
34.3534 100.953 -8.9641
-11.2018 125.75 -6.57004
-14.6507 119.909 10.4403
-4.63217 115.732 7.14934
-4.38191 122.291 -7.20549
1.83398 119.972 -9.82037
-9.43237 124.974 -6.75067
12.6682 108.717 1.28631
0.963535 119.991 -8.71968
17.5424 107.873 -2.80452
-2.72273 114.702 7.45221
2.90823 120.145 -11.1904
28.7469 105.648 -11.5217
-5.18165 116.43 6.97887
-12.3996 125.298 -3.35943
43.1802 92.4465 -0.590583
0.943836 120.17 -8.65651
-13.2536 121.366 6.30419
-18.5918 122.757 9.91408
-11.9781 124.149 -1.24435
16.1783 108.044 -1.01719
14.3518 108.39 0.497912
24.861 108.947 -13.6487
10.0171 117.125 -12.9951
28.6712 99.3375 2.71079
33.159 102.597 -9.85703
1.77054 113.434 5.46305
-14.2398 125.422 -0.792985
-14.9525 126.068 -1.03206
23.8403 104.849 -2.77841
5.95313 112.241 3.26325
13.9099 116.158 -15.0797
-12.9178 121.664 6.34273
22.214 111.305 -14.5
2.51078 113.542 4.98061
-11.2629 126.826 -6.865
5.22767 112.681 3.50979
10.7537 117.27 -13.2758
-18.3596 124.26 7.59505
-10.6489 126.445 -6.67345
16.8318 108.539 -1.69625
-10.8717 126.623 -6.76531
16.3028 115.067 -15.1186
-0.47456 121.124 -7.50677
33.4498 97.5728 1.81013
42.5697 93.6362 -0.876705
28.8281 106.149 -11.0691
24.1584 110.228 -14.1536
6.76922 119.488 -12.7667
8.70913 111.398 2.50012
23.8159 110.601 -14.3965
-7.55021 119.119 5.95239
-4.33187 116.798 7.03353
12.0748 117.1 -13.8385
-11.0823 121.179 5.97844
6.3725 112.521 3.2448
-18.2799 123.198 10.5004
-12.2271 125.889 -2.79072
2.2704 121.003 -10.0682
-3.15159 116.1 7.29788
-10.2366 120.722 6.00508
-3.40574 123.066 -7.47001
19.2446 108.675 -4.14472
-7.44312 119.168 6.02382
-12.1681 124.851 -0.489866
-6.25467 118.385 6.29123
-16.5467 121.998 11.2103
42.0642 94.0248 -0.385035
36.4307 96.0384 2.26674
26.9574 101.433 2.33659
-11.5792 125.087 -1.38238
-7.43512 125.63 -7.67013
-12.5146 125.512 -1.02525
9.28437 111.595 2.43069
-1.28766 122.209 -7.56326
-11.7018 121.221 7.58089
1.06084 121.317 -8.39175
40.7734 94.6104 0.65889
-12.5989 125.981 -1.57817
-11.7496 121.341 7.45949
41.0222 96.0782 -2.81862
-14.4596 121.405 10.7317
-10.1891 127.049 -6.76506
41.6511 94.1909 0.614261
-10.4666 127.577 -7.4425
26.7533 108.267 -11.4016
11.7276 117.898 -13.7492
-3.4982 123.726 -7.54289
-10.5765 127.055 -6.01234
-10.4778 127.671 -7.4543
5.96012 113.24 3.62119
14.0928 117.277 -15.0939
-11.9732 121.991 6.86963
35.6704 96.9277 2.51653
-6.87241 119.366 6.30618
41.5986 95.7685 -2.25102
-11.6194 121.656 7.34431
16.7367 110.094 -2.50421
-11.1754 121.39 7.45227
34.5036 97.753 2.40136
-3.39098 123.912 -7.59395
-5.60782 118.583 6.72735
14.977 109.855 0.300596
35.8946 96.9657 2.48244
32.4447 98.9987 2.36477
16.504 110.087 -1.99869
27.8711 107.596 -10.6269
35.6971 97.0843 2.55498
14.0062 110.176 0.937948
-0.347597 115.672 6.89436
18.9288 114.813 -15.0228
-17.4848 125.829 6.04671
3.10301 121.942 -10.8714
-9.91095 121.637 5.92452
41.2721 96.3208 -2.20746
3.62816 121.879 -11.2337
18.0966 110.278 -3.84616
22.8226 112.546 -14.5507
-17.4694 126.119 5.7986
-3.65425 124.43 -7.58591
25.9813 109.731 -12.1507
23.9377 111.859 -14.1819
41.6363 95.941 -1.44778
-6.60496 126.164 -7.53469
11.2445 118.951 -13.881
6.62629 120.968 -12.3992
25.9512 109.89 -12.1911
-1.8823 123.483 -7.32847
26.0153 109.832 -12.0854
-9.94575 121.704 6.53852
4.50843 114.521 4.30433
-18.0217 124.636 10.173
-11.6534 127.911 -4.79429
-16.7264 127.965 1.4767
0.491042 116.121 5.99478
-11.5451 121.857 8.5507
-10.3385 128.369 -7.05854
13.5065 118.399 -14.8237
0.604071 122.431 -7.58952
6.70399 113.797 3.7242
-8.78392 121.602 5.90006
33.2946 104.587 -9.08795
2.67702 122.434 -10.0522
35.7207 102.522 -7.57468
-11.8184 126.216 -0.303692
14.7443 117.838 -14.8884
40.8668 97.1287 -2.13608
-3.62832 118.173 7.12311
9.06184 112.944 2.83321
23.2485 112.907 -14.6023
25.5437 105.655 -1.66323
-12.4046 126.88 -0.808998
-13.1516 127.824 -1.92957
-9.819 128.824 -8.14943
37.4094 101.096 -6.1795
0.712556 122.63 -7.6176
23.5034 107.716 -3.23753
-17.4247 127.203 5.10361
16.2755 111.461 -2.30542
-11.8357 122.566 8.41464
15.2759 117.847 -14.8158
21.3901 109.326 -3.84316
30.3333 106.847 -9.46565
10.4857 112.659 2.47818
35.7538 102.873 -7.43431
-12.3693 127.536 -1.51818
38.8794 99.3612 -3.54909
-12.1967 122.801 8.61225
21.7528 114.167 -14.5232
-17.79 125.985 8.69899
0.432495 116.807 6.16414
-3.32642 125.09 -7.17255
5.5253 114.783 4.3301
20.9779 114.815 -14.7889
21.4332 114.555 -14.6505
26.4319 105.219 -0.459268
-8.54455 122.342 5.56331
-17.2122 127.978 4.05064
40.9411 97.3395 -1.19459
-16.7146 128.642 2.07565
-5.34457 126.543 -7.33213
-9.76443 122.192 7.59104
38.4447 97.2295 2.31729
-17.7125 126.699 7.6437
-17.3582 127.818 4.78349
1.88019 116.528 5.58103
5.44407 115.054 4.44154
-17.8418 126.303 8.79813
-1.3028 117.423 7.72807
-17.6704 127.12 6.92304
14.4173 118.78 -14.5728
-8.79826 122.167 6.78438
35.5796 103.48 -7.41307
-2.90771 118.558 7.37766
31.2998 106.661 -8.98849
-17.3056 127.956 4.77982
-0.088262 117.296 6.71401
19.7947 111.015 -4.06024
15.5001 111.94 -0.71103
1.07332 117.114 5.86867
38.3632 100.819 -4.75293
-14.0431 124.046 9.55151
-16.8888 125.134 10.7175
-17.6809 127.428 6.81804
-6.2538 127.42 -7.24472
-3.74968 119.265 7.4659
-10.5838 122.813 8.25395
-5.63926 127.136 -7.17161
12.4886 120.092 -14.2278
-11.9743 128.824 -2.83681
40.7003 97.549 0.142838
-16.485 129.555 1.28262
32.7696 100.893 2.74291
27.9658 109.43 -9.86949
-16.7045 129.415 1.93666
-10.3321 123.296 7.39171
-9.76522 129.849 -7.46318
15.0743 112.326 -0.0323428
-18.0264 126.699 9.64122
16.1777 112.979 -2.68101
17.9748 117.618 -14.8764
21.6297 115.629 -15.0603
39.1506 99.6551 -1.9635
38.7668 100.127 -2.42881
39.1619 99.6877 -1.90238
-7.09081 122.615 5.43337
-13.398 124.798 8.69488
-10.5254 123.077 8.89373
35.338 99.9449 2.66213
-11.8015 129.327 -2.96217
11.9122 113.444 2.39329
14.3654 112.813 0.814965
-14.6915 129.879 -0.361732
-9.48388 130.181 -7.40752
21.9861 115.893 -15.137
-2.33592 125.794 -6.59333
-7.56528 129.439 -8.04292
24.653 113.531 -13.1958
-17.4298 126.784 9.98707
35.4401 104.616 -7.05272
29.8551 108.858 -9.20271
1.30598 124.391 -7.67149
-4.78441 121.374 6.41719
35.721 104.446 -6.77058
-0.540481 118.528 7.44409
-16.8448 129.298 4.21235
-9.75513 130.45 -7.04727
39.6309 98.419 1.66587
40.2171 98.5669 0.621485
13.3633 113.305 1.79657
23.3331 110.039 -3.33668
7.35238 115.601 4.31729
-12.4517 129.161 -0.661928
16.4804 118.873 -14.0103
-3.09769 120.112 7.49082
-17.8632 127.563 9.57773
-3.80273 120.892 6.76031
-9.09704 130.606 -7.75712
-9.99676 129.911 -5.09803
-16.9523 129.007 5.48972
-14.9215 126.136 9.41368
39.9479 99.2765 0.0505516
0.158877 125.078 -6.87276
-12.4349 129.116 -0.0776459
-2.90179 126.689 -6.50544
-8.6469 123.23 8.14867
-3.34896 120.89 6.70157
-3.85976 121.376 6.30675
37.2985 103.338 -5.20315
-16.8784 129.218 5.48169
-17.7083 127.908 9.46499
19.2117 118.162 -14.9457
33.3653 102.234 2.18807
-10.5008 123.986 9.11468
31.7523 108.021 -8.31942
19.4534 118.049 -14.9222
34.1547 106.359 -7.56779
15.3725 114.115 -1.18544
-3.18862 121.191 6.39741
9.55561 122.467 -12.0481
27.8083 105.427 2.47654
9.02052 115.475 3.86593
-9.135 123.796 8.2206
37.9561 102.744 -4.19387
-11.642 129.959 -2.07014
10.766 121.992 -12.3058
17.928 114.032 -3.84598
12.7354 121.581 -13.7985
-5.43226 128.738 -6.90578
14.1758 113.993 0.939614
-17.1102 128.941 7.11495
3.06031 124.918 -9.01895
-7.5511 123.896 6.35431
15.4528 114.489 -1.61189
27.1177 111.803 -10.1491
-15.1754 126.789 9.53693
8.82715 115.738 4.00757
-4.46921 128.224 -6.63772
24.4376 114.712 -12.9508
24.2206 114.946 -13.1777
-8.02095 123.689 7.76915
39.7147 99.6984 0.997754
18.1359 119.006 -14.3016
39.598 99.8503 0.940365
15.9457 115.245 -3.22227
-11.8049 129.873 -0.677363
17.4563 114.662 -3.76021
18.544 119.104 -14.4716
26.7312 112.565 -10.3425
3.83732 118.455 5.17505
28.6166 110.991 -9.172
6.55515 117.162 4.71743
-13.8275 131.239 -0.683208
20.0958 118.52 -14.9291
15.7925 115.518 -3.03018
-8.98155 124.165 8.88991
-17.0872 130.885 4.37664
-9.89607 130.84 -4.23624
20.6858 113.415 -4.06177
-4.89719 124.098 4.33587
10.1262 115.87 3.6658
7.55877 124.338 -11.5
14.7803 115.321 -0.813855
-13.481 127.144 8.45803
3.40951 119.087 5.17687
16.74 120.081 -13.4295
31.5498 104.023 3.17768
-3.76239 128.565 -6.52581
-7.84639 124.422 7.55128
-2.66792 127.885 -6.35043
18.3198 114.876 -3.90009
25.2386 114.65 -11.8888
-7.28572 124.943 5.91997
25.5433 114.375 -11.6416
19.6538 119.284 -14.9884
-7.87981 131.889 -8.34837
4.7022 118.54 5.13844
15.2452 115.926 -2.19202
14.8673 115.749 -1.29224
20.2177 119.08 -15.0987
19.8737 114.292 -4.07179
38.4742 101.306 1.21232
-0.349506 126.864 -6.34289
18.8567 119.653 -14.3934
-16.6995 128.419 10.4965
4.64382 118.768 5.12121
20.3445 114.109 -4.07932
6.1023 125.466 -11.0412
36.449 102.086 2.32199
32.5748 103.962 3.074
-11.3125 126.346 8.69622
31.7482 109.582 -8.01211
19.2698 114.855 -4.02146
28.3506 106.647 2.61459
3.71433 119.504 5.14138
14.6566 116.192 -1.16955
17.2214 115.932 -3.61372
-12.1317 131.002 0.0294168
5.59925 118.62 5.09701
-3.18954 123.398 5.57255
13.596 122.6 -13.4264
-12.6707 131.633 -0.52727
21.8709 118.536 -14.6997
10.6535 123.358 -11.283
19.0009 115.245 -3.95442
25.8682 114.817 -11.4975
34.5129 103.579 2.26484
16.2699 121.15 -13.3892
33.8705 108.178 -6.92434
30.3004 105.816 2.64442
5.48788 118.829 5.08726
10.266 116.91 3.35806
23.4154 117.298 -13.7147
-12.1944 131.611 -0.781024
22.8993 112.983 -3.61558
21.2557 119.197 -15.0676
5.54632 126.129 -10.6434
-8.56183 125.886 7.37176
-3.77934 129.613 -6.56641
14.1864 116.599 -0.470826
4.84088 126.476 -10.3564
-12.0925 131.236 0.216789
-16.5778 130.42 7.53854
27.5193 113.054 -9.191
-16.7316 130.188 8.28073
5.05959 126.471 -10.5231
-16.8342 131.798 4.95276
-10.8615 131.765 -2.31997
-12.133 131.429 0.155357
18.2834 121.303 -15.4054
7.32322 125.48 -10.9431
37.0879 105.182 -3.58489
32.8009 104.493 3.24795
25.3021 115.847 -12.0493
5.64289 119.167 5.03286
27.4081 109.064 0.155458
34.5279 107.901 -6.10149
30.6831 106.049 2.68495
13.9531 122.954 -13.3813
18.4308 116.021 -3.80102
-9.2305 126.007 8.69199
-16.7281 129.426 10.5841
-1.78318 122.589 7.03556
21.4525 119.602 -15.149
-1.73528 128.658 -6.13508
17.3518 121.669 -14.4949
-16.5129 129.468 10.4545
13.5703 116.881 0.777789
-8.60848 132.728 -6.25883
13.2549 116.634 1.72039
-11.7967 131.794 -0.238904
-14.8244 129.098 9.3734
-9.33162 132.547 -4.87024
32.8155 104.907 3.17707
-3.92452 125.089 4.7045
13.0687 116.724 1.94454
-2.43982 129.258 -6.12927
13.391 123.507 -13.1734
23.6598 117.791 -13.4286
35.9406 106.618 -4.31533
15.9628 117.578 -3.44714
-5.60217 126.019 4.86707
21.7916 119.613 -15.0155
26.495 110.708 -1.45702
28.6611 107.68 2.46649
0.442884 127.833 -6.41835
29.3532 112.27 -8.30182
7.72667 125.682 -10.7295
28.3337 113.047 -8.52594
-7.20432 126.378 6.45057
10.4715 117.898 3.07726
-2.19114 129.297 -6.0531
23.1297 113.733 -3.50125
37.7255 102.951 2.04855
20.7986 115.428 -4.13536
-3.23574 125.041 4.67261
33.9017 104.627 3.18444
24.0194 117.746 -13.0038
17.5457 122.408 -15.021
-16.571 131.802 6.72797
17.0493 122.39 -14.2501
12.2473 117.437 2.52436
19.7479 116.174 -3.96081
36.9764 105.264 -1.43465
32.6019 110.424 -7.19131
13.3579 123.979 -12.8358
13.019 117.639 1.54111
36.7547 106.22 -2.94822
10.1995 118.626 2.94488
18.7444 116.886 -3.81423
13.4054 118.084 0.211439
36.0111 106.94 -3.44275
5.7124 127.279 -10.1866
19.8877 121.19 -14.445
2.35892 127.996 -7.46114
8.20589 126.075 -10.393
32.9909 105.869 3.15557
21.9314 115.407 -3.88688
-2.3858 130.267 -5.94716
12.4992 117.988 2.35415
33.1612 105.863 3.19553
-12.1662 133.663 -1.1975
34.4351 108.952 -4.99338
28.0265 109.705 1.4392
3.92755 121.771 5.14128
31.8002 111.591 -7.15825
28.7598 113.737 -7.99521
-11.9886 133.661 -0.950167
-6.20016 133.312 -7.30899
21.6924 119.932 -12.5836
16.2437 118.928 -3.64801
-0.0167078 129.198 -5.88071
30.3294 107.916 2.89089
16.9278 123.537 -14.4452
23.8032 114.468 -3.13305
-1.71207 124.721 6.12686
-0.445746 124.024 6.08645
-5.89511 127.097 6.17725
-16.0105 130.804 10.6554
18.4922 123.016 -15.0305
32.182 107.02 2.92478
15.6204 123.865 -13.2225
12.5104 118.584 2.1606
22.2459 119.653 -12.1865
26.8085 111.987 -1.11779
18.2883 118.131 -3.92715
-0.0848674 124.021 6.04529
-14.4881 133.95 2.2638
13.0933 119.309 0.0504842
36.6293 106.935 -2.08002
-15.9179 131.13 10.4471
13.2979 119.587 -0.524867
-11.766 133.594 0.0402117
23.7938 114.865 -3.15079
-7.108 128.054 6.3645
20.8303 120.964 -12.5379
-3.49645 126.693 5.1216
32.9093 111.135 -6.01169
-15.9686 131.728 9.70986
36.7577 106.768 -1.12787
27.9963 115.686 -9.64406
33.7213 106.509 3.28621
36.6546 105.995 0.78167
18.3436 118.609 -3.95474
14.7155 124.924 -13.1801
36.9545 106.303 -0.106833
-16.0453 132.056 9.43238
3.50673 129.123 -8.32229
0.458565 124.406 5.70377
27.0662 111.965 -0.104642
15.9727 125.222 -15.1854
22.7494 119.642 -11.4185
-3.2455 126.848 5.07646
26.7059 112.619 -0.963267
12.9916 125.752 -12.5207
21.6287 116.947 -3.9885
24.7593 114.666 -2.54209
21.538 117.284 -4.01429
-3.59861 127.49 4.91742
13.7498 125.966 -13.1655
-3.26154 132.251 -5.80291
3.52782 129.549 -8.27399
-5.29343 128.097 5.7974
24.5314 119.06 -11.389
20.874 121.5 -12.0324
23.2789 116.217 -3.4351
-7.0863 135.469 -7.75265
-13.9068 134.566 2.64397
-15.2947 133.784 6.11445
35.6264 108.827 -2.46457
-8.73895 135.659 -5.92302
-14.5425 134.379 4.09637
7.36851 122.41 3.2859
26.4422 113.608 -1.14466
-9.34243 130.076 7.28736
29.3914 110.122 2.84765
-4.24612 128.273 4.95371
24.9691 119.067 -11.1072
18.2085 124.652 -14.8795
8.57067 122.286 2.19036
31.1411 113.225 -5.95777
31.6843 112.932 -5.91035
27.3825 117.628 -10.7959
-5.1952 134.482 -7.13698
18.9444 119.321 -3.99477
28.0866 111.833 1.08551
-5.63286 134.889 -7.30052
-2.26646 127.311 5.0295
0.302116 130.773 -5.64715
12.3953 127.454 -13.3263
-5.94543 128.973 6.0625
34.938 107.702 1.79343
-1.83904 126.921 5.64527
1.63289 125.158 5.22316
34.0964 110.894 -3.8742
0.467194 130.857 -5.68885
-2.08456 127.318 5.2235
26.6403 113.602 -0.412636
24.1278 119.646 -10.306
-15.6472 134.108 7.45057
-11.8143 136.471 -2.38996
13.809 121.802 -2.07577
-6.59913 135.97 -7.65246
10.17 121.715 2.61851
27.0354 112.954 0.83418
31.9002 113.265 -5.61485
35.8561 109.299 -1.86895
-6.97444 136.263 -7.53976
-3.61175 128.689 4.85935
2.4716 125.188 4.97812
-10.849 136.785 -3.76089
-6.65263 136.242 -7.68757
10.27 121.876 2.64375
16.6351 121.343 -3.96971
2.48489 125.289 4.97312
20.211 122.965 -11.872
28.1252 117.557 -9.82163
-14.8546 135.285 4.75765
-12.8483 131.831 9.80104
5.24649 123.838 4.86153
7.70591 123.633 2.43981
23.8193 120.018 -9.506
-6.07023 129.813 6.24492
7.64961 129.18 -9.31209
20.4004 122.793 -11.1222
-13.0203 135.985 1.65158
-13.5103 132.243 10.4958
-7.248 130.235 7.14241
35.6619 108.945 0.441835
-1.13162 127.751 5.06517
-13.3115 135.932 2.50587
27.1888 118.51 -9.65535
-1.78863 128.21 5.09076
19.5747 120.373 -4.17001
27.7048 118.316 -9.73314
12.0272 122.274 1.04893
-15.8102 134.697 8.55305
-2.98323 129.14 4.80187
16.6337 122.066 -4.00713
34.8179 109.196 1.53117
-11.5334 137.264 -2.09798
-8.24367 130.84 7.85056
30.6297 110.689 3.66817
25.003 116.646 -2.30641
10.972 128.878 -11.5243
-11.1342 137.615 -3.2023
-5.1865 136.006 -7.03253
-9.22201 131.439 7.96884
-5.65647 136.452 -7.32861
17.0972 122.138 -4.16024
15.6262 127.928 -14.9258
15.003 128.287 -14.9276
-11.5064 137.746 -2.68687
24.1944 120.26 -8.73134
-15.674 135.165 8.26942
-4.91518 136 -6.78403
18.9494 121.296 -4.27584
5.38228 130.923 -8.42058
20.5527 120.392 -4.2312
-11.3715 137.073 -1.02719
33.7595 112.921 -4.27661
34.1102 112.512 -3.78946
21.4692 122.44 -9.72998
24.5768 120.211 -8.68296
13.1813 123.225 -1.13641
24.0621 120.402 -8.43845
10.9379 129.44 -11.7837
11.6918 122.764 1.82562
11.7689 122.825 1.71046
20.9039 120.369 -4.22711
24.9944 117.142 -2.22724
10.4803 129.221 -10.5405
20.9108 123.07 -10.0456
-0.0121398 128.35 4.35952
19.6678 124.86 -12.3216
-7.72396 137.712 -6.41301
27.9311 118.558 -8.77461
-15.574 135.683 7.83313
-4.14628 135.717 -6.29652
20.0202 121.053 -4.2711
34.503 110.508 0.80543
-8.01254 137.905 -6.19518
34.7192 111.964 -2.56875
15.931 128.405 -14.9741
20.3474 120.97 -4.24149
15.6194 123.391 -3.64809
8.21916 124.887 2.27702
15.5894 123.416 -3.62825
20.7419 125.148 -13.6795
-9.21426 131.962 8.53225
5.12675 125.85 4.16164
-7.78755 131.381 8.11858
22.111 123.936 -12.5322
6.39932 131.004 -8.48335
-3.87315 130.572 5.19231
4.02937 126.468 4.43197
22.7986 119.498 -3.55635
5.35596 126.004 3.85829
24.0877 120.759 -7.87849
30.4852 116.655 -6.8582
4.04145 126.827 3.75749
11.3144 130.342 -12.7614
17.6302 127.543 -14.4634
26.1958 116.293 -0.411018
23.2128 122.371 -9.76572
21.338 123.674 -10.1782
30.8625 116.38 -6.01957
13.8431 124.368 -2.31909
30.2847 117.267 -7.18825
-12.4765 137.164 2.46048
-14.8814 136.533 6.87542
14.669 129.695 -14.7392
2.19838 132.965 -6.43942
-7.56921 138.623 -6.63906
30.2832 112.427 3.65728
30.6882 116.816 -6.37474
-14.5423 137.318 4.95198
-11.3789 137.355 0.990526
33.7407 113.905 -3.75484
29.938 112.681 3.74001
9.34876 124.938 2.59146
4.34464 127.666 2.8618
18.9267 126.942 -13.5632
21.0845 121.389 -4.12726
27.0874 119.42 -7.25889
13.6972 124.575 -1.85402
21.902 120.864 -3.91155
-12.2465 137.404 2.33941
20.2859 126.333 -13.6676
8.82636 125.403 2.51094
-10.8667 137.986 -0.489449
0.834217 133.586 -5.36573
19.0808 126.078 -11.5444
2.78432 128.115 4.16748
12.155 130.969 -13.5121
27.6333 114.759 2.73653
-1.89612 135.255 -5.25868
32.4667 115.258 -4.15452
22.2934 123.976 -10.5337
12.7326 124.365 0.43371
11.2757 124.464 2.04702
-0.233697 130.031 4.22323
8.25296 131.335 -9.06719
-9.9668 139.186 -3.54381
33.0725 113.474 -0.76773
19.4695 126.13 -11.4377
30.4975 112.944 3.60879
1.27433 129.094 4.6123
13.0779 130.984 -13.9344
-5.41441 138.204 -6.78002
-10.9473 137.84 0.877308
5.46707 132.405 -7.58405
13.088 124.753 -0.264825
19.2711 126.507 -11.7046
22.7357 124.42 -11.4479
14.3504 125.395 -3.19885
25.9851 120.254 -6.34105
-8.28238 132.856 8.60993
12.811 124.711 0.398241
-5.3178 132.305 6.29095
26.4319 116.804 0.779576
30.1393 113.359 3.69528
-1.04369 130.973 3.94184
-9.47971 133.366 9.23046
21.3091 125.02 -10.6564
10.2734 125.196 2.64188
3.88211 128.786 2.86715
-7.22748 139.472 -6.57463
17.3591 128.902 -13.9029
17.9956 128.184 -13.1175
18.0359 127.528 -11.729
-14.8154 137.612 6.98041
32.9634 114.203 -1.09996
13.6199 131.212 -14.1558
-8.44351 139.978 -5.7171
22.0219 126.889 -14.8938
20.9484 128.237 -16.4548
-14.8559 137.442 7.87452
28.088 115.136 3.35807
26.4641 117.107 1.0825
19.0477 123.804 -4.29108
26.1087 121.065 -7.05457
0.64293 130.363 4.1994
3.28068 133.805 -6.51224
24.9594 119.145 -1.39879
-8.39575 133.439 8.75226
16.4606 125.378 -4.34415
22.066 125.823 -12.1683
31.6034 113.586 2.68208
-1.84904 132.099 3.81452
-10.8906 139.367 -0.766589
-7.32998 139.975 -6.46355
-8.68414 133.581 9.11587
21.904 127.275 -14.9378
33.2721 115.526 -3.39216
30.4477 118.521 -6.28379
4.2108 129.248 2.84663
22.4658 126.698 -14.1466
20.1077 126.606 -11.0002
3.4625 134.008 -6.48712
22.0062 127.344 -14.8915
20.3028 128.811 -15.9184
6.29248 133.266 -8.23904
17.185 129.431 -13.2976
19.7561 128.6 -14.573
9.49667 126.504 2.69622
-9.37856 140.263 -3.88787
9.31334 133.003 -11.1696
26.2048 122.082 -8.26582
26.257 117.594 1.44946
-1.8947 132.586 3.64435
5.34136 133.639 -7.48242
19.6413 128.377 -13.5944
-0.560904 135.815 -4.79057
28.6245 115.428 3.50001
31.9248 114.635 1.14946
22.1802 127.622 -14.9238
-7.86258 134.104 8.10886
15.4484 126.503 -4.03533
2.67723 134.56 -5.72997
10.1774 126.445 2.65014
-1.92315 133.174 3.17339
-13.7113 139.422 4.33754
29.9705 119.288 -5.85059
-1.37609 132.983 3.19048
32.7955 115.983 -2.06515
32.1209 115.885 -0.973479
14.5477 126.983 -3.27719
3.45794 130.727 2.29737
-13.7399 137.352 9.2351
-11.3989 140.744 -0.967152
17.9705 128.896 -11.4832
3.16522 130.996 2.33734
22.2099 126.87 -12.1974
23.8703 121.523 -2.60964
7.91523 133.925 -9.85174
-2.39472 133.669 3.51533
-13.8321 139.728 4.48241
-14.3942 139.561 5.59676
21.9129 128.82 -15.9013
-0.686113 136.633 -4.90918
-3.46708 138.52 -5.5321
10.8036 126.878 2.1786
0.114622 132.689 2.81394
23.4633 122.071 -2.90528
25.0441 124.83 -10.7869
0.248261 136.194 -4.83494
19.9266 128.936 -13.3661
24.3568 124.846 -9.91053
24.4066 125.035 -10.3329
29.8443 115.656 3.3569
11.682 126.866 1.48865
19.1819 128.554 -11.4382
21.2367 129.538 -16.0862
-3.36723 133.963 4.77725
-2.28898 133.957 3.51187
-4.4051 139.482 -5.83807
22.7236 125.919 -9.83597
32.0133 116.504 -0.769104
27.1776 122.103 -6.80565
-12.6764 137.115 9.83836
21.5597 127.807 -12.0716
21.7199 127.877 -12.407
6.23676 134.959 -8.52307
19.7256 125.389 -4.32022
20.8373 124.624 -4.02203
21.9142 127.465 -11.5147
30.9923 116.653 0.774774
-11.0511 141.331 -0.845169
23.6959 127.42 -13.5258
-3.07655 138.895 -5.37603
24.2023 125.594 -10.1158
23.7019 122.247 -2.13981
5.48779 130.442 2.55364
15.15 128.023 -4.00476
9.58656 134.559 -11.2925
6.87354 135.077 -8.9884
23.9899 121.396 -0.36497
19.0443 129.295 -11.4184
7.85061 129.223 2.58703
-9.60875 135.982 9.46489
16.6741 131.925 -14.1629
23.79 121.944 -1.19135
-0.527552 133.872 2.96646
9.79148 128.168 2.66144
11.966 127.656 1.14846
-7.88169 135.644 8.32482
15.6857 128.039 -4.21387
6.17033 135.45 -8.49102
21.1476 124.876 -3.97461
23.2087 128.634 -14.6781
12.0249 127.786 1.03423
25.0006 125.212 -9.35243
-0.181999 133.919 2.84152
23.2237 123.23 -2.81853
11.3515 127.859 1.78834
23.3342 122.845 -2.08148
5.78607 130.789 2.39258
-8.16786 135.922 8.59499
15.2736 133.257 -14.5696
23.4497 122.532 -1.30015
1.9056 136.579 -5.19726
20.2111 128.829 -10.9078
-11.0402 141.233 0.756816
5.4551 131.194 2.20819
25.3957 124.963 -8.84994
16.0368 128.219 -4.3376
-5.29333 135.188 6.99146
28.832 121.084 -4.32937
-10.4589 142.505 -2.34986
31.7451 118.803 -2.814
26.5283 123.153 -5.7981
22.9049 123.742 -2.575
17.445 127.843 -4.62468
-6.93953 142.328 -5.92423
-2.13881 135.527 2.9639
17.6046 127.816 -4.62698
31.2657 119.603 -3.55729
0.925448 137.406 -4.77049
23.333 122.579 -0.159227
9.47755 129.118 2.74911
23.7799 121.706 1.2013
12.0684 128.578 0.83341
18.0101 127.715 -4.62209
2.33444 136.997 -5.40746
-13.1197 139.301 8.69664
-4.72128 136.406 4.68813
19.4096 126.908 -4.47199
2.33979 133.38 2.56289
19.4939 130.667 -12.7229
-5.57466 135.97 6.7335
7.74598 130.208 2.82082
21.0122 125.871 -4.13293
22.875 127.008 -8.88164
27.094 125.079 -9.8957
29.6903 118.219 1.89567
-0.528808 134.871 3.04961
17.6107 132.075 -13.2618
23.1872 122.794 0.125322
20.0699 131.562 -15.062
-13.7619 141.296 5.62149
19.457 129.522 -9.75377
2.38219 133.604 2.47837
-7.58547 136.696 8.1498
31.0776 120.076 -3.47682
17.2109 128.518 -4.6331
19.5078 130.223 -11.1146
-7.4635 143.038 -5.64502
17.9226 131.528 -11.9848
23.8488 121.885 1.67631
14.5639 134.491 -14.2429
30.7305 118.621 0.285653
20.1321 131.747 -15.0126
26.8859 119.623 3.06988
20.6227 128.678 -8.742
-7.41046 136.876 8.06949
29.0723 118.781 2.38208
5.33847 136.923 -7.67229
10.1845 129.538 2.40172
29.4075 118.887 1.86678
18.8793 127.888 -4.6442
-5.98006 136.593 7.24503
-4.64312 137.109 4.50586
24.7866 126.195 -8.06452
18.7091 131.187 -11.3321
-9.57229 143.762 -3.7263
-2.76613 140.512 -4.99788
-12.3859 139.552 9.01292
29.079 124.996 -10.5107
26.7194 124.419 -6.31122
26.7913 125.082 -7.7832
-3.29615 137.229 3.02805
20.9391 128.613 -8.1633
29.0513 122.127 -4.0635
6.83219 137.199 -9.3477
23.0261 127.478 -8.17094
19.0355 130.312 -9.38536
4.71967 137.321 -6.84148
19.1805 131.102 -11.1291
-10.5668 138.478 9.59127
-3.13096 141.114 -5.08987
25.772 128.294 -12.758
23.9995 127.187 -8.09211
-13.0654 140.998 7.72247
26.2168 124.308 -4.41908
6.41351 132.852 1.48826
21.4223 129.739 -10.2153
-10.2119 144.176 -2.50991
24.0826 122.576 2.08919
29.3097 125.395 -10.4426
27.8491 120.559 1.8776
0.489074 139.094 -4.5555
1.74331 138.638 -5.10937
4.04062 137.91 -6.35418
22.5727 127.868 -7.40982
-5.44875 138.127 4.93825
25.7151 126.14 -7.47782
2.02644 135.191 2.11643
26.1982 126.004 -7.77288
28.0972 120.637 1.55255
13.1421 130.139 -0.606339
-10.5409 142.705 1.41416
-10.4782 138.964 9.48729
-3.52589 141.841 -5.12134
7.22295 132.687 1.53341
17.4015 132.81 -11.2678
-8.49148 138.26 8.88601
21.3459 132.417 -15.0947
-13.1877 142.363 5.95592
18.8839 130.402 -7.60638
9.99268 130.942 2.28309
14.7478 135.84 -14.1295
21.7818 126.68 -2.8013
25.8073 128.952 -12.7094
18.576 129.368 -4.66038
-12.5337 143.062 4.02355
1.18836 139.349 -4.82512
4.23162 134.692 1.6457
-6.89124 138.185 7.84635
7.06296 133.339 1.2573
16.5316 130.619 -4.50209
26.2231 126.2 -6.86772
4.29643 138.581 -6.6862
-6.99499 144.476 -5.50702
4.32419 134.803 1.5881
28.1811 125.821 -8.3153
25.2121 129.582 -12.8181
26.6393 121.646 2.68008
23.0321 124.233 1.5884
-1.68082 138.176 1.81376
29.5617 121.37 -0.239693
-7.47379 144.742 -5.24463
-10.4887 144.746 -1.49939
27.7997 121.555 1.64346
-8.32255 138.798 8.83507
23.5883 128.715 -8.63741
19.4978 133.637 -14.2763
-9.66374 145.273 -3.48148
11.655 137.035 -11.9
-5.21125 143.593 -5.25752
22.0292 125.691 0.0802901
-1.35555 138.21 1.80291
-6.09314 144.224 -5.39001
24.2228 128.251 -8.1009
14.2588 131.326 -2.46885
25.1551 127.205 -6.93895
3.58783 139.188 -6.32052
20.9684 133.215 -14.7982
18.3953 134.021 -13.3671
17.7233 132.153 -8.38542
17.7844 132.047 -8.22417
22.3227 128.593 -6.30618
18.2395 131.424 -7.33604
-0.81693 137.981 1.95457
25.0444 127.28 -6.66242
18.0212 131.653 -7.36663
-6.80889 139.467 6.6079
14.9787 136.55 -13.9508
26.3959 129.643 -12.9991
12.4804 137.208 -12.2125
-12.4973 142.866 6.48364
22.277 130.487 -9.54015
-4.78643 143.81 -5.02711
23.9423 124.08 2.38087
10.4181 131.889 2.12685
19.3512 134.349 -14.1054
29.5205 126.976 -10.5833
8.85942 138.763 -10.6342
-11.4055 144.047 2.96377
-7.04789 139.827 6.76979
23.2819 129.41 -7.96985
-1.10297 141.74 -4.46519
16.6363 135.383 -12.5549
-3.2452 143.061 -4.67109
29.166 123.077 -1.24604
-7.33795 145.562 -4.98545
26.9461 130.061 -13.591
11.9671 132.151 0.399309
22.6704 130.153 -8.4225
-7.25417 139.995 7.18223
18.3198 132.014 -7.03289
14.3256 132.282 -2.62496
23.7738 124.643 2.38135
21.1475 127.096 0.341698
22.7375 132.929 -14.2792
16.3956 135.877 -12.8359
23.9819 128.272 -5.67203
-5.28045 140.389 4.14649
21.2617 128.868 -3.51111
22.6283 125.759 1.57538
21.9189 131.061 -8.84306
19.4849 130.476 -4.4887
19.8092 132.205 -8.6318
23.3144 129.076 -6.15392
-7.19467 140.303 7.18554
21.7864 126.669 1.04775
17.8786 134.436 -10.9921
1.0344 141.141 -4.7259
-11.8086 144.575 3.70171
-4.10552 140.743 2.53728
10.7331 132.631 1.85781
28.3122 127.111 -7.84736
-10.7484 141.857 8.401
20.8454 129.559 -3.8778
-11.9535 143.246 6.91579
21.7856 128.073 -1.76984
-11.7471 142.899 7.43353
-7.72741 146.183 -4.63193
-7.00506 140.485 6.90639
-9.63915 146.631 -3.19372
23.9526 128.612 -5.43054
26.5063 131.033 -13.6766
-9.50367 141.306 8.58018
23.5964 125.429 2.31038
26.2219 124.014 2.16487
19.0028 133.723 -10.0075
26.3701 131.208 -13.6389
26.4707 126.113 -2.65453
-10.4644 146.384 -0.961771
15.1873 133.352 -4.31977
10.0977 139.273 -10.8867
27.1895 127.208 -5.73122
-9.3628 146.977 -3.50702
27.2963 127.585 -6.62904
14.2546 138.059 -13.226
3.17964 137.67 1.31849
26.0792 125.71 -0.932552
19.9583 132.774 -8.60527
-7.11706 140.88 7.25322
-4.67055 145.003 -4.63358
14.3806 138.233 -13.2915
-11.397 143.479 7.16966
7.47153 140.636 -9.95979
14.2958 138.298 -13.2466
-2.31729 143.629 -4.18905
5.42038 136.908 0.862016
26.8795 128.321 -6.97111
20.8461 130.898 -5.10036
23.0986 133.491 -13.4434
19.7001 131.173 -4.19103
27.4894 127.727 -6.30821
0.889514 142.106 -4.68093
-11.2022 145.283 3.38718
22.2295 134.369 -14.1866
-10.4518 146.996 -1.23636
-9.39842 147.335 -3.20247
19.8825 132.084 -6.17387
-8.22592 147.134 -4.11058
17.0582 133.146 -4.83635
-1.4082 143.357 -4.20868
4.4671 137.633 0.995374
12.0499 133.374 0.92517
-4.57902 142.01 2.72685
-10.3467 146.804 -0.521319
27.4935 124.611 0.994975
-2.81756 141.353 2.0589
-7.99963 147.164 -4.16386
27.6522 124.891 0.208712
31.2984 128.701 -12.5589
-5.33397 145.944 -4.75702
2.5474 138.657 1.36027
18.0433 135.793 -11.5365
16.5184 133.602 -4.86353
-10.447 145.606 2.38235
4.86919 141.595 -7.7781
1.11104 139.26 1.96519
16.0408 133.889 -4.70923
27.0206 128.413 -6.33195
-9.31117 147.577 -3.10265
-6.77742 141.722 6.57078
-2.51637 141.39 2.07827
26.1214 126.207 -0.269905
21.7545 130.782 -4.81521
-8.94305 147.598 -3.43944
19.7543 133.723 -8.73054
-5.9172 146.566 -4.89908
-5.15388 142.374 3.26772
-9.59852 147.677 -2.75163
21.309 133.097 -9.17819
20.4271 134.039 -10.1293
19.798 133.052 -7.1682
18.7955 135.578 -11.3786
20.0501 131.426 -3.87159
-6.59602 146.951 -4.65504
24.9757 129.794 -6.36274
-5.66728 142.483 3.92774
26.6839 127.499 -3.46968
17.3911 134.925 -8.12726
7.21562 141.443 -9.65715
24.2698 129.857 -5.48204
-11.4013 145.529 4.56941
-8.82433 142.489 8.00129
21.8464 130.934 -4.56549
30.9009 128.825 -11.0643
20.9005 133.194 -8.19819
23.5655 130.409 -5.33329
27.3623 128.944 -6.80254
-7.12714 141.919 7.64813
13.5105 134.142 -0.838921
24.9621 126.413 1.84006
26.5382 132.846 -14.0603
-10.8287 144.632 6.50304
14.0387 139.523 -13.1046
3.53516 138.994 1.0381
-2.51661 144.794 -4.08014
27.9896 131.466 -12.7193
3.40996 139.12 1.05654
22.7119 127.971 1.45678
16.2813 134.56 -4.83895
22.1021 128.392 1.4181
17.5853 137.234 -12.2135
14.3577 135.132 -3.64889
4.33291 142.503 -7.28027
22.6699 134.908 -13.4103
19.5582 132.369 -4.01046
3.18466 142.73 -6.29345
20.9293 136.375 -14.298
1.45175 143.189 -5.02462
8.25254 136.882 0.317813
-10.0426 148.306 -1.85031
-2.62404 142.369 1.91121
21.437 131.768 -4.77105
21.0543 131.951 -4.68175
13.9964 135.311 -3.19904
-6.43391 147.537 -4.46655
-6.58455 147.602 -4.39681
15.7906 135.037 -4.69196
23.6496 127.964 0.97642
-10.1571 147.436 0.495417
19.2495 137.175 -13.5231
-7.13613 143.458 5.48083
-10.4453 144.934 6.39904
20.4458 133.248 -6.35097
23.3539 129.068 -0.760444
-8.13399 143.365 7.27296
18.2825 137.025 -11.5038
2.15084 143.449 -5.43324
-7.51828 143.709 5.95198
26.1692 130.43 -6.7365
30.0795 129.247 -8.9949
6.6107 142.58 -8.92975
21.4724 130.154 -0.186805
29.5039 129.432 -8.21182
24.5293 134.208 -12.4378
19.1818 133.454 -4.15683
24.5291 131.517 -6.53418
4.68312 139.517 0.669599
4.07407 139.845 0.777802
9.27728 142.317 -10.9562
25.3311 131.541 -7.33857
29.7649 129.573 -8.53165
-1.92821 142.802 1.88535
26.41 130.422 -6.1297
6.24642 143.06 -8.6224
20.5064 132.225 -2.65364
26.0802 130.46 -5.68439
20.7312 131.545 -1.36193
21.6269 130.912 -0.907586
3.10971 143.866 -6.15111
20.5748 133.752 -5.71132
-6.34334 148.336 -4.1215
24.1811 130.477 -2.99183
-7.55518 148.836 -3.61989
5.68436 139.426 0.490028
25.0083 129.39 -1.42901
19.7228 136.328 -9.9696
24.7153 130.467 -3.31975
32.04 130.318 -12.0323
13.9363 141.109 -13.0691
12.6713 141.568 -12.4447
23.0876 135.951 -13.0634
4.08308 143.925 -6.91656
26.4132 134.451 -13.7924
-5.26317 148.056 -4.19362
9.85145 142.626 -11.0541
-4.27715 147.419 -3.95816
19.7508 133.588 -3.52498
11.3835 136.721 0.0657586
16.3069 136.173 -4.79631
25.4725 130.103 -2.91896
24.4336 135.016 -12.2271
-5.30475 148.239 -4.15043
11.8982 142.078 -11.9587
26.5438 130.928 -5.58148
9.09168 143.229 -10.7282
-8.1075 145.498 5.63189
26.2953 131.164 -5.68886
9.79604 137.981 -0.109812
7.9755 138.924 0.124793
16.1775 140.206 -12.7604
-1.8204 146.311 -3.77888
24.4105 131.415 -3.79516
13.2128 136.818 -1.61635
22.2457 137.303 -13.7263
-9.38148 149.608 -1.35309
15.6701 136.669 -4.08902
29.9259 130.667 -8.60923
-9.59678 146.659 5.49988
11.428 137.298 -0.127564
7.1624 139.576 0.249122
-10.1801 147.993 3.42645
13.289 136.732 -1.01463
17.6328 135.916 -4.59759
-3.16544 147.296 -3.53819
-10.1929 148.087 3.43193
-10.1555 147.936 3.7334
19.1659 133.432 -0.942997
26.0113 131.387 -4.94146
18.7878 137.984 -10.2706
26.0024 131.966 -5.93561
-3.94563 147.946 -3.63776
-1.25285 144.143 1.31386
-7.38383 146.079 4.68426
32.4328 131.949 -13.7887
18.9339 138.365 -11.026
-10.2991 148.623 2.84132
32.0326 132.326 -13.8911
20.244 133.486 -1.71826
19.5001 134.526 -3.03709
23.4572 136.867 -12.9917
30.0036 131.178 -8.65117
22.2496 132.098 -1.06863
19.9762 134.043 -2.42968
25.0352 133.147 -6.7047
7.31671 144.431 -9.24221
20.8376 138.589 -13.1956
31.6284 132.567 -13.4305
-3.75573 148.117 -3.49735
18.4802 134.143 -0.545787
13.3711 137.424 -1.34486
19.7814 134.36 -2.5983
-4.48434 146.055 1.97054
-4.61642 148.798 -3.65143
0.100424 143.923 1.14073
9.47867 139.208 -0.169528
13.3051 138.548 -3.37676
29.6569 131.422 -8.05887
22.0423 132.385 -0.723869
30.9847 131.484 -9.79497
19.6745 139.444 -13.066
15.4222 138.039 -4.75943
26.3369 135.961 -13.6256
-10.0198 149.615 1.69171
17.0575 140.494 -11.9299
24.8995 132.462 -4.12497
28.0893 135.14 -13.7319
19.4323 135.072 -2.88041
31.9315 131.679 -10.91
13.3815 138.765 -3.39063
18.7929 134.566 -0.939753
1.3104 146.411 -5.05215
13.6578 142.442 -11.6613
13.5088 137.488 -0.699089
31.5475 131.717 -10.4273
24.6285 132.56 -3.57941
29.8126 133.901 -12.7798
18.9953 139.583 -11.6761
18.1419 138.939 -9.18194
12.8251 138.817 -2.33888
13.4697 138.969 -3.41694
-9.31801 149.186 2.54426
19.6837 134.948 -2.32988
30.8715 131.896 -9.48371
25.8737 136.031 -12.2249
24.1632 133.019 -3.32559
0.568267 144.484 1.12787
26.0214 136.216 -12.0971
17.7003 140.58 -11.2885
14.3792 142.419 -11.1624
25.7764 133.573 -5.89215
32.0363 134.385 -15.3267
29.1427 132.206 -7.00268
17.3958 140.901 -11.3695
-6.42208 150.675 -3.16095
-9.15499 149.871 1.98397
23.4155 134.19 -4.1269
-7.41331 150.839 -2.21023
16.0484 141.388 -10.5832
30.1887 135.32 -14.7539
-7.76629 151.009 -1.62949
-0.489547 148.087 -4.13938
30.7448 134.611 -13.4059
-5.85148 148.394 2.12132
11.0904 139.925 -0.378385
-7.30379 148.878 2.95103
11.0939 144.755 -10.8115
17.8829 139.963 -8.73495
30.8585 135.488 -14.9014
11.6428 144.596 -10.9149
12.3693 139.462 -0.279072
4.06006 143.467 1.29816
28.0926 132.982 -5.56139
4.34038 147.142 -6.99432
6.81496 142.202 0.755662
10.5793 140.587 -0.257382
12.8757 139.3 -0.239725
23.3146 134.648 -3.02203
12.8059 144.349 -11.1218
28.8984 135.184 -11.0221
31.5661 135.293 -14.4569
23.329 135.039 -3.67432
12.7476 139.494 -0.249508
9.60154 141.111 0.175343
27.3044 137.444 -13.7165
9.67357 141.086 0.159245
29.3474 135.739 -12.5187
17.7848 141.366 -10.3868
8.61174 146.205 -9.52359
17.7669 140.673 -8.76026
31.6798 135.288 -14.1799
-2.46702 149.716 -3.35397
18.6636 141.347 -11.1676
17.7322 136.924 -0.361829
-5.74113 151.397 -2.79662
18.0988 137.705 -2.35335
17.7515 136.973 -0.287135
26.4071 137.351 -11.7822
27.2108 137.676 -13.424
17.6736 137.289 -0.755747
30.3986 135.4 -12.3173
17.6637 137.872 -1.84459
30.7078 133.577 -8.56971
17.7749 137.104 -0.220518
17.6541 137.548 -0.932015
17.5444 137.902 -1.56207
28.9173 136.146 -11.7943
21.5881 140.487 -12.039
14.5027 140.764 -3.79812
6.64131 147.329 -8.30858
29.1572 136.191 -11.8929
25.2345 135.165 -4.7973
6.92664 142.949 0.935806
5.06318 143.9 1.18511
28.9517 135.093 -9.12263
27.7955 136.358 -10.2477
27.0789 138.053 -13.0323
12.2976 140.606 -0.283399
10.2774 146.267 -9.98954
18.35 140.876 -8.21033
26.1831 135.089 -5.22337
17.667 138.067 -1.04136
6.79153 147.614 -8.32051
2.05708 149.064 -5.39363
14.03 141.289 -3.25195
28.3352 137.928 -13.615
18.6098 137.306 -0.237692
7.49841 147.522 -8.70942
29.3306 137.225 -13.2025
-6.70886 150.826 1.78919
29.1599 135.216 -8.57286
30.0387 136.444 -12.3269
23.8615 139.467 -11.1542
-7.15319 152.447 -0.954574
16.8614 142.523 -9.00121
29.9441 136.973 -13.0359
13.708 141.566 -2.90726
1.70664 149.499 -5.18514
12.9186 145.346 -9.84021
25.5272 138.56 -10.6515
28.7533 137.817 -12.8801
-0.655314 150.546 -4.01287
28.2826 138.747 -13.9281
17.4768 140.424 -4.17327
-7.41436 152.293 0.781643
28.2626 137.613 -11.3441
13.1475 142.11 -2.34859
6.70842 144.363 0.724756
20.2207 142.397 -11.4572
27.8895 139.003 -13.5516
28.2592 136.753 -9.10045
24.5831 139.454 -10.4186
11.5264 143.256 -2.52563
28.2911 136.747 -9.0772
18.7978 142.682 -10.2486
10.6918 142.56 0.045124
-4.83347 152.461 -2.27739
29.1162 138.156 -13.0836
8.77408 147.879 -8.88818
25.3535 139.05 -10.1726
6.95954 144.485 0.757745
27.4023 139.259 -13.1267
26.2437 135.99 -4.52373
13.1363 141.56 -0.371614
6.48394 144.885 0.638766
29.1761 138.645 -13.7696
12.5531 146.109 -9.35617
11.9189 146.576 -9.50777
17.4245 139.95 -1.76451
0.1966 150.972 -4.41429
13.4126 142.703 -2.7379
23.9631 137.056 -3.45001
7.97691 144.143 0.966141
-6.54279 153.252 -0.836379
26.5907 136.094 -4.45767
19.7421 138.099 -0.275995
-7.74898 153.425 0.378334
6.15868 149.116 -7.31586
-6.70141 152.714 0.775167
17.5237 139.997 -1.30989
25.1211 139.638 -9.76891
21.7666 142.355 -11.5165
13.6771 145.868 -9.09226
20.9952 137.956 -0.898654
-0.856738 151.831 -3.89236
17.7575 139.885 -0.691242
12.5532 144.132 -3.3871
14.2236 143.222 -3.32232
10.706 143.473 0.512467
12.4161 146.904 -8.91735
27.2208 137.297 -6.07785
-3.80847 153.264 -2.36345
-3.77705 153.255 -2.37919
27.3019 139.085 -9.8588
20.9367 138.986 -1.3368
22.0267 142.948 -11.214
13.0324 143.17 -0.532701
25.8668 140.236 -9.97038
4.24622 150.697 -5.94412
15.0057 145.727 -8.39575
16.0177 143.28 -4.31932
28.4243 137.75 -7.60733
10.8189 143.99 0.645415
10.4624 148.541 -8.77099
19.9919 144.007 -10.5425
7.45884 149.753 -7.46657
27.2046 140.663 -12.0269
13.3455 146.997 -8.61891
20.4775 143.902 -10.6208
16.493 144.318 -6.51784
27.2505 140.186 -10.7641
15.911 143.686 -4.36132
17.6454 141.137 -0.947112
24.3634 138.34 -3.16111
18.9397 143.863 -8.40069
8.21273 149.611 -7.57311
-2.50655 153.512 -2.6346
25.5243 140.802 -9.55956
27.608 140.38 -11.1018
18.1723 140.634 0.0516044
27.7769 138.294 -6.67972
26.4681 138.366 -5.17643
14.4525 146.765 -8.46016
11.9512 144.391 -0.03389
11.1347 146.321 -3.11265
25.9745 141.021 -9.82989
16.028 144.016 -3.79263
25.2511 141.281 -9.18495
28.3012 138.871 -7.70756
-2.18344 153.892 -2.35986
22.4959 139.805 -2.04345
28.271 138.935 -7.22347
11.9517 148.724 -8.30156
18.6323 144.483 -7.30281
21.0272 144.45 -10.1807
26.0782 141.47 -9.79442
10.2428 146.938 -2.11092
6.56026 151.122 -6.38477
18.8731 144.946 -8.03708
19.6249 145.224 -9.56563
22.9148 143.728 -10.3643
27.0259 140.404 -8.21857
15.5394 146.335 -6.42783
22.655 140.304 -2.08617
8.12945 150.858 -7.03722
19.4995 141.638 -0.617741
-1.61995 154.392 -2.00355
24.157 143.057 -9.17498
17.6109 143.121 -1.05626
12.264 146.221 -1.12512
27.2383 140.7 -7.53467
27.733 141.423 -9.56006
24.7896 140.535 -3.9418
16.5395 144.451 -2.25161
18.5146 142.36 0.0638513
26.0838 140.317 -4.54995
24.9397 142.769 -8.37456
26.0013 140.395 -4.50028
12.8418 149.425 -7.84222
22.2307 141.266 -1.69913
11.4191 146.426 0.450088
9.93109 150.81 -7.23137
13.8153 146.936 -3.57665
17.8591 145.857 -5.86335
17.3283 143.795 -0.670578
20.7668 145.772 -9.0756
22.7947 141.569 -2.36633
15.3703 147.583 -6.0848
19.2568 146.546 -8.43436
27.6297 140.671 -5.98622
15.298 147.861 -6.13582
24.907 141.342 -3.83117
25.8533 143.313 -8.83339
20.1338 146.496 -8.49218
22.6448 145.692 -9.6795
8.59665 152.027 -5.91797
22.5336 142.347 -1.91938
9.45432 149.45 -0.867007
22.9567 142.513 -2.45892
19.4247 143.63 -0.418464
4.63213 153.32 -3.0913
26.9816 141.657 -4.96553
27.3926 142.811 -7.91882
14.4796 149.457 -6.29977
14.6502 147.87 -2.85592
15.7678 146.647 -1.51381
17.7377 147.131 -4.99303
11.5327 151.522 -6.51411
15.2672 148.903 -5.40172
18.1373 147.83 -6.50842
19.892 144.218 -0.674109
11.6307 151.551 -6.25946
5.3222 153.535 -2.73029
19.0965 144.83 -0.757209
6.47205 153.33 -3.60008
26.5093 143.003 -5.89942
26.4751 143.129 -5.94344
19.4134 147.905 -7.56197
17.7031 145.84 -0.921618
19.0808 148.071 -7.45611
25.7887 144.271 -7.32904
24.9305 144.974 -7.65736
26.4755 144.182 -7.80926
7.22705 153.281 -3.73518
23.0742 143.754 -2.48196
21.0981 147.403 -7.95959
19.8422 147.958 -7.59811
12.9862 149.381 -2.01904
26.7796 143.994 -6.90419
22.2032 144.119 -1.42633
6.30047 153.743 -2.48776
17.3671 148.163 -3.91778
24.9781 145.569 -7.58981
11.642 151.877 -4.27824
10.8591 152.203 -3.9279
8.96324 151.554 -0.14603
17.4998 148.567 -4.15263
7.83626 153.282 -2.21724
11.6887 151.954 -3.79925
10.057 152.646 -3.08906
4.60131 155.068 -1.51188
25.7666 145.536 -6.90845
17.3941 147.498 -0.814623
9.68679 152.801 -2.76429
17.694 147.357 -0.820488
12.0593 151.925 -3.62977
17.2836 148.947 -3.57203
23.4583 145.077 -2.64658
9.85345 152.769 -2.47384
27.0451 145.165 -7.00365
12.8712 151.925 -3.92584
6.55362 154.421 -1.187
11.8509 152.152 -2.63988
27.0615 145.508 -6.98473
26.1113 144.959 -4.474
26.6157 145.824 -6.81055
18.544 149.419 -4.54526
19.8375 149.498 -6.30897
5.24649 155.489 -1.24495
15.9305 150.417 -3.25046
10.6935 151.928 0.0216705
20.2475 149.635 -6.69017
26.3293 146.164 -6.57457
25.6661 145.508 -3.93734
14.3505 151.98 -3.97754
11.1089 152.074 0.0451937
23.5063 146.284 -2.43622
20.0978 147.652 -0.943761
13.9121 152.091 -2.72795
21.118 150.004 -6.847
15.0541 151.79 -3.04354
14.7135 152.105 -3.26069
25.5403 146.289 -3.95735
15.5331 150.956 -1.47867
12.9385 152.722 -1.99603
25.5748 146.878 -4.76168
23.4144 149.233 -6.9699
21.466 150.185 -6.60211
15.7428 151.453 -2.17575
24.9039 147.016 -3.76445
17.3793 151.26 -3.64788
23.8541 149.084 -6.85034
15.1529 151.469 -1.15318
11.4315 153.685 -1.16185
10.876 153.847 -0.779435
8.47505 154.334 1.1951
14.8726 152.315 -2.21671
12.6035 153.503 -1.78586
25.6181 148.182 -6.28693
9.5384 154.382 0.32081
9.79697 154.043 0.856961
20.6369 151.099 -6.03375
23.9185 147.972 -2.89281
24.2709 149.099 -5.21075
10.9401 154.317 -0.00366357
23.4373 149.112 -3.51213
17.0185 152.759 -3.44711
21.1934 149.571 -1.42053
21.0445 149.742 -1.41386
18.8131 152.421 -4.01249
23.1821 150.375 -4.91025
22.5223 151.1 -5.46779
23.2481 150.725 -5.35978
14.8132 153.328 -0.551491
22.5138 151.19 -5.22643
16.5603 152.692 -0.981012
18.2204 152.712 -2.95324
18.8926 151.715 -1.15186
19.3607 151.638 -1.52981
19.1058 152.672 -2.61971
