ply
format ascii 1.0
comment Created by Open3D
element vertex 1933
property double x
property double y
property double z
end_header
20.2243 118.783 2.45445
10.6852 111.822 -0.406167
21.8517 123.332 -3.19776
25.2151 127.128 -4.64956
21.9279 119.61 3.9222
8.31929 107.303 4.19114
1.27045 97.884 10.032
22.2185 116.656 9.96088
12.9959 114.71 -1.76298
-19.7639 86.5545 -3.86773
-8.67366 98.7065 -8.01133
-3.20419 103.225 -7.31271
21.8806 119.691 3.81674
22.272 123.471 -2.52923
17.733 118.396 -0.568514
17.6668 109.992 15.0381
2.86862 107.551 -5.0205
24.197 126.413 -4.61978
19.7129 122.785 -5.28491
0.377431 97.1966 10.1931
1.86903 98.7416 9.8269
2.1829 107.138 -5.27945
-9.89434 98.0221 -8.40611
18.3269 122.05 -6.11023
8.92032 108.493 3.48633
-10.5963 90.7541 4.04238
14.7132 107.761 14.6323
2.0575 99.1422 9.71925
16.7563 118.843 -2.42256
22.9799 122.361 1.45095
12.1692 113.733 -0.437248
-8.58922 91.9237 5.61941
21.0496 117.909 6.65294
1.15687 106.776 -5.71933
22.6616 120.696 4.2003
9.97541 109.832 3.32243
-10.8543 97.5645 -8.52557
23.8893 123.178 1.70352
-12.6638 95.72 -8.01628
18.8387 118.994 1.14894
19.0427 123.264 -6.46048
21.6778 118.993 6.03724
14.0123 111.188 7.82127
-13.8173 94.5686 -7.55872
23.2568 122.8 1.70319
4.21425 102.216 8.33964
23.2568 126.163 -4.52641
25.8652 128.992 -5.40595
13.2642 116.414 -2.95987
-6.42608 93.1968 7.49614
10.987 113.008 -0.26967
22.6126 123.139 0.264605
-19.8386 87.6168 -4.23643
-19.7406 87.5208 -3.89132
0.0773269 106.474 -6.17414
-11.6317 97.3122 -8.59428
24.6762 127.401 -4.11279
-19.8251 87.6566 -4.19654
-10.7357 91.2972 4.19748
21.0618 118.438 6.63616
14.3179 110.119 10.9247
16.6836 119.636 -2.85993
-7.91906 92.6444 6.47013
23.6773 125.713 -2.49242
26.3152 129.449 -4.87929
1.19305 107.442 -5.71969
21.586 126.992 -8.06771
22.6239 120.931 4.97801
21.4446 124.035 -2.73498
-7.1832 93.2021 7.05907
8.14086 108.513 4.20435
20.6918 115.062 12.9293
-16.0482 92.8751 -6.94968
-3.80131 94.0507 11.2856
-3.65655 94.178 11.3092
2.31904 108.302 -5.05122
13.8368 112.386 6.53952
13.9961 112.032 7.49028
15.2474 108.65 15.9424
23.6489 125.783 -1.96902
25.4356 126.664 -0.477855
-11.8411 97.6759 -8.54931
-15.7515 93.4137 -7.0858
14.2092 109.013 13.8145
-19.1154 89.2958 -4.97063
11.1459 112.041 3.08815
1.05082 107.814 -5.79093
12.042 112.684 3.46602
26.3488 129.637 -4.19062
-16.2224 89.2882 0.123866
-15.3941 89.6821 0.807854
14.1525 109.156 13.811
-0.380171 98.32 9.78896
23.8292 125.902 -1.239
-13.7417 90.513 2.10017
-5.73111 94.2109 8.56774
15.6923 120.161 -4.01983
17.0867 120.082 -1.51404
22.1237 120.396 6.32508
14.2826 111.809 9.26816
-0.648561 98.1551 9.85048
23.0515 125.742 -2.04941
26.3665 129.709 -3.87628
14.7428 108.936 15.5035
10.5185 113.545 -0.111176
24.7695 129.29 -5.6796
5.78567 110.48 -2.25539
26.2692 128.843 -2.33646
-18.1806 91.1179 -6.09413
3.44109 102.979 7.86335
15.2498 109.46 15.5055
25.3444 126.738 0.147127
26.3781 129.741 -3.69685
-9.5136 99.9412 -7.95133
25.2054 128.433 -3.16933
-11.4159 98.6177 -8.57219
11.8358 115.473 -1.20724
-1.72611 97.2307 10.3078
9.81052 111.349 3.24527
21.3799 119.785 6.80626
-7.01905 94.0807 7.48894
21.4015 124.217 -1.29823
14.0272 109.532 13.7793
20.4779 115.748 12.9584
16.7493 111.283 15.1988
-16.3871 89.6424 0.305975
-8.63414 93.3351 6.36338
24.9312 126.335 0.80958
20.0668 115.327 13.2275
-5.61596 94.6323 9.00348
20.8661 124.544 -2.52671
-8.92247 100.615 -7.54485
-0.483692 99.0591 9.43457
-19.3139 88.8642 -2.9072
20.6125 124.948 -3.60327
21.1655 117.236 11.6953
22.0018 122.964 2.48003
13.9477 113.406 6.87152
26.5012 129.666 -2.45379
21.5809 122.159 3.34051
-1.09393 98.4756 9.68666
0.34187 108.235 -6.05958
21.699 123.48 1.13551
13.9941 113.38 7.12492
-2.56815 96.8556 10.3285
-8.97988 93.3556 6.20422
13.991 113.422 7.09935
4.24473 110.936 -4.49184
12.5245 113.912 3.76856
-4.93935 95.0272 9.86928
1.46246 101.543 8.39904
-16.0236 94.2904 -7.21118
3.60081 110.482 -4.62011
-16.5742 93.7765 -7.04722
8.28127 110.165 3.83803
24.2375 126.386 0.267288
12.2525 113.894 3.57771
24.1317 126.362 0.147825
-13.5338 96.8773 -7.67652
20.1464 121.835 1.95475
-7.29485 102.549 -7.74329
24.9807 127.337 -0.136359
24.9668 127.283 -0.0521465
24.9421 126.876 0.711943
-19.0235 89.2816 -2.48565
13.7983 119.693 -4.44186
4.94653 105.297 7.72517
4.96683 111.245 -3.12364
20.8816 119.96 7.20876
20.1652 116.181 13.0748
18.3421 121.487 0.214388
24.2353 124.909 3.66999
17.4839 125.056 -7.80843
24.7131 130.072 -5.05852
22.637 126.085 -1.07791
-13.0881 92.0146 2.88106
19.043 124.824 -4.6957
9.39818 113.731 -0.0112364
25.7269 130.777 -4.51407
20.3597 124.715 -2.0944
4.85907 105.54 7.82573
24.5938 126.448 1.81039
-4.87494 95.471 10.4398
6.41974 107.044 7.75759
1.71247 109.707 -5.03033
1.93211 102.941 8.01014
15.7006 121.709 -3.96216
14.0376 114.254 7.17796
7.37391 109.478 5.00253
-7.21813 103.318 -7.8341
-17.8334 89.9651 -0.624194
4.05376 105.152 7.60326
-0.891828 108.007 -5.93628
-14.7324 91.2892 2.15559
24.7872 126.917 1.62919
23.7204 125.198 3.09388
-7.14967 94.9346 8.13262
13.9532 110.746 13.8424
22.9742 126.195 0.0996295
21.4404 123.749 2.12242
4.92072 111.639 -2.81042
20.6521 124.432 -0.423058
20.49 119.864 7.82899
23.0419 123.328 5.63712
25.0347 125.456 5.00598
-1.37755 99.5832 9.24809
-12.8852 98.7291 -8.32803
26.2707 130.634 -2.41554
-3.17731 97.5538 10.1883
20.2778 123.254 1.39958
-7.68857 103.153 -7.74673
25.7001 126.399 4.57819
11.8878 118.101 -2.94688
19.8194 127.845 -7.86576
-17.603 90.5772 -0.756555
-9.40795 94.1811 6.20254
21.2295 123.265 3.16834
6.9538 109 6.00589
-15.5367 96.0909 -7.38653
-6.87612 103.99 -7.65661
4.85016 111.857 -2.75524
17.9729 124.981 -5.33065
24.5654 130.66 -4.83636
20.8464 119.111 10.4876
-17.6473 90.944 -1.15186
24.7287 127.456 1.46587
16.576 121.46 -0.916953
25.4347 126.198 5.03498
25.6187 127.268 3.3809
24.0118 125.698 3.66622
-17.0695 90.7865 0.45401
19.7647 116.914 13.1863
14.0404 113.784 9.49544
15.8095 112.267 15.2895
24.2001 126.847 2.13625
17.1848 122.196 -0.861921
13.8802 115.515 6.11797
25.4074 127.45 3.1068
6.83537 109.058 6.44709
5.88201 112.49 -1.49878
13.978 113.687 9.82148
-16.0602 91.4416 1.23077
13.9216 111.74 13.4131
-6.38228 104.627 -7.1285
9.402 114.913 0.0331292
-11.8568 93.4509 4.601
5.95196 112.611 -1.41075
20.6645 120.957 7.56156
25.2437 131.455 -4.30251
24.9978 126.788 4.0868
16.6751 113.5 14.9801
14.0553 114.869 8.09673
4.41998 112.358 -3.27013
0.932027 103.186 8.03744
-19.3817 91.4601 -3.95161
24.3132 124.952 6.47982
25.2465 127.293 3.67807
21.3327 123.318 4.59495
-5.52988 96.2551 10.3309
19.7428 124.866 -0.834919
24.4497 131.096 -4.57706
19.2059 116.76 13.506
21.1123 124.972 1.3904
17.9694 123.388 -0.884144
25.8394 128.111 3.45562
9.918 114.123 3.01389
-14.3616 98.3233 -7.96263
6.57152 113.285 -0.834548
19.5967 124.643 -0.230656
7.52588 113.801 -0.12844
14.0176 115.512 7.54742
24.5569 125.592 6.37414
7.85435 114.089 -0.00991213
20.9765 125.181 1.19854
24.4056 127.195 3.17908
24.7624 126.91 4.31657
24.2494 127.203 2.98348
9.57591 115.702 0.00933544
0.631391 110.534 -5.23712
-11.0933 94.4023 5.31416
24.4208 125.446 6.75774
8.59072 114.903 0.0265952
18.9674 126.304 -3.90726
21.7034 124.057 4.84914
0.284798 103.264 8.07336
24.9151 126.29 6.22781
11.2905 118.844 -2.57709
3.47182 106.235 7.9618
22.8347 125.021 5.34131
20.258 125.665 -0.143017
20.8435 124.305 3.39432
24.9904 126.674 5.89139
10.5875 117.975 -1.90045
-15.2081 92.6069 2.43798
23.5162 126.892 3.10461
23.6629 128.345 0.705203
-2.86463 108.018 -5.55356
20.7843 124.238 3.66037
-11.344 101.729 -7.93334
13.968 116.466 6.80221
17.6879 124.222 -1.36225
2.00359 112.101 -4.79405
11.146 119.039 -2.47583
25.0825 126.878 6.17131
20.4974 121.617 8.51366
-1.62775 109.376 -5.54166
16.7593 126.669 -7.11403
5.68994 108.693 7.9495
25.6054 127.936 5.35011
9.30379 114.641 2.97177
20.1964 125.953 0.0720906
12.29 117.187 3.23376
0.0716065 110.893 -5.3947
6.56018 110.309 6.64165
-19.0795 93.8683 -5.42205
21.0364 130.142 -6.14209
18.8142 128.917 -7.52683
14.0107 113.785 12.6878
-19.2002 93.707 -5.24064
-15.7373 92.9118 2.02713
22.9412 127.294 2.4785
-11.6083 102.079 -8.08574
22.6053 125.447 5.43869
-6.02285 97.1596 10.4513
20.1834 119.823 11.8941
13.7444 114.75 10.6532
9.20198 114.813 3.02739
21.876 124.07 6.93574
-2.08084 101.668 8.77055
3.50242 106.988 8.21469
19.4597 124.643 1.94613
22.299 125.694 4.82598
23.6448 128.684 1.56005
23.817 127.845 3.44292
-6.9712 105.854 -6.88472
20.0192 120.081 11.6572
14.2034 113.941 13.4414
17.5025 126.588 -4.58858
-17.8309 96.1377 -6.67025
1.68672 112.642 -4.87629
21.5172 123.748 7.52916
-16.252 93.1579 1.59908
-17.6136 93.6069 -1.49351
23.7226 131.969 -4.05893
-19.2569 93.7778 -4.48571
8.17349 115.926 0.0332733
13.9863 116.5 8.73742
15.8447 123.775 -1.67289
-9.54432 104.55 -8.05722
25.7171 133.239 -2.64954
1.68834 106.147 7.80719
18.6523 125.142 0.760893
22.2623 125.547 6.07897
-16.5623 98.0247 -7.32748
22.13 125.882 5.25915
-19.1842 94.1411 -4.41206
-1.4258 103.268 8.26381
22.4527 126.442 4.91001
-6.94804 97.4116 10.1071
-1.87882 110.198 -5.26175
13.8878 117.736 6.97454
16.2112 127.08 -6.51611
20.6577 122.842 8.85942
22.163 126.632 4.32836
17.9876 125.77 -1.0164
23.3881 129.343 1.38137
-15.9977 99.0243 -7.73339
23.5287 128.678 2.90285
17.4115 127.029 -4.19161
19.5706 119.995 12.5157
16.4326 127.048 -5.82911
23.464 129.254 1.77923
25.6815 129.901 4.30107
13.9261 116.901 8.96499
15.3717 124.818 -3.35277
19.1789 126.611 -0.311595
20.2596 126.534 1.64904
2.43066 107.109 8.1512
-0.51791 104.573 7.96721
-17.2151 93.8931 0.0783727
-4.56051 108.147 -5.39161
25.5329 129.709 4.61523
24.1664 131.092 -0.219096
15.8499 124.614 -1.91743
24.2436 129.501 2.97222
-4.87423 99.211 10.8955
14.1294 114.859 13.4271
19.262 126.719 -0.0501283
18.9635 119.464 13.1006
2.13233 113.933 -4.62424
20.625 125.276 5.10572
24.8674 130.639 2.40338
8.86178 118.016 -0.73163
-17.3717 94.4872 -0.591012
10.4554 120.144 -1.97661
13.8476 117.041 9.46238
-8.19645 106.359 -7.30905
17.736 127.339 -3.05346
-18.4895 94.4562 -2.11808
13.8859 117.318 9.25165
23.6501 129.971 1.95726
-7.65371 97.7054 9.98091
-5.37203 99.0667 11.2687
-15.3836 94.4689 3.22301
24.2746 132.12 -0.843163
15.8345 125.809 -3.07219
-8.83662 97.3425 8.87841
21.8118 132.194 -4.96023
-7.53816 97.8729 10.1603
-13.0806 95.5978 5.19913
17.7156 129.853 -7.27921
-8.6138 97.4898 9.15474
-10.447 96.8388 7.33287
14.5698 115.852 13.6209
23.3645 129.03 3.8087
16.4119 127.575 -5.05408
19.8126 126.538 2.5934
15.8356 126.485 -3.93194
5.95967 111.645 7.33541
6.16825 116.11 -0.626537
-19.2399 94.69 -2.88837
19.5881 126.154 3.24067
-19.1592 95.5705 -4.32665
22.7618 127.472 6.09922
13.6512 116.58 11.2287
2.5761 108.268 8.30916
15.4459 116.709 14.031
17.2303 127.592 -3.22419
2.86416 115.078 -3.84464
21.5741 132.488 -5.10785
24.8622 130.756 3.61725
-17.1006 95.1431 0.0837056
13.8515 119.838 5.65188
13.8469 117.774 9.53417
2.84481 115.124 -3.82909
-9.85497 106.064 -8.10317
18.5999 127.253 -0.150103
21.8236 127.566 4.64162
-18.9797 96.2751 -5.03961
19.555 125.379 4.98867
13.816 118.27 8.69874
24.9072 130.308 4.83082
19.6057 126.104 3.88283
-16.5492 95.2529 1.21041
-1.07326 112.423 -4.95009
18.9094 121.562 11.3301
9.1336 117.281 3.0323
-17.2405 95.3723 -0.0665029
21.5348 126.386 6.80449
-5.83599 99.6937 11.0767
24.0568 131.55 1.61769
21.6841 127.824 4.6245
2.99162 115.444 -3.37169
15.8462 127.509 -4.3945
22.4219 133.426 -4.45693
18.0317 120.029 13.3185
11.4111 123.502 -4.18144
-4.14803 102.275 9.4544
17.4074 127.891 -2.32354
-13.2863 103.726 -8.37431
6.26992 113.364 6.34484
7.52919 115.501 4.47228
17.7944 130.801 -6.93299
24.8672 134.747 -2.49819
13.7867 118.429 9.44625
-3.97012 110.229 -4.85583
16.8849 127.465 -2.21776
16.7189 118.786 13.6979
-14.4985 102.799 -8.42417
19.1424 126.126 4.19654
22.9397 133.841 -3.78573
21.4663 127.09 6.44998
5.68923 112.394 7.60058
-16.6038 95.8092 1.3701
5.78269 112.69 7.26713
23.4295 132.058 0.607737
16.8109 128.138 -3.07877
23.347 128.966 6.31363
20.3072 132.449 -5.22738
0.0664408 114.169 -4.87113
18.0879 127.745 -0.114663
19.0393 125.967 4.82784
13.9378 126.964 -5.51947
-0.00186091 114.158 -4.88209
16.9822 128.464 -3.16079
-13.5918 103.884 -8.26883
-18.1596 98.8552 -6.49236
-6.16688 100.148 11.087
13.8314 126.953 -5.51203
19.0389 126.087 4.79091
15.3337 118.012 13.6749
-10.2286 98.063 8.25501
-17.9526 99.1945 -6.72521
-0.717291 113.586 -4.79937
-15.4137 95.9486 3.58387
13.6624 120.998 5.36355
-19.022 95.9289 -2.35213
-12.3472 105.064 -8.24578
16.1031 128.38 -4.26597
10.7764 119.977 2.59802
-18.477 98.5028 -6.11762
19.3389 127.293 3.25698
13.7352 118.963 9.45252
-7.26916 108.696 -6.41612
20.2842 125.309 8.58289
16.7235 126.711 0.16048
15.8383 129.421 -6.36144
10.3949 122.717 -2.88832
-2.39188 112.12 -4.43966
16.0915 128.456 -4.04587
16.5427 127.052 -0.621122
22.021 128.813 5.22962
18.4628 131.87 -6.34221
22.0825 128.887 5.29624
-18.8771 97.9421 -5.26816
18.2679 126.141 4.16969
-2.4587 112.219 -4.39256
3.12158 116.42 -2.84786
-19.1484 96.9539 -3.65728
23.798 130.175 6.02382
0.303521 108.123 8.01052
12.6626 121.678 3.39301
11.8132 121.293 2.79954
8.57599 120.104 -0.368433
1.98628 116.266 -4.19093
24.2315 133.944 0.0137945
-15.5663 102.8 -8.25869
9.47303 121.454 -1.24889
-5.37177 110.252 -5.0776
18.4925 126.51 4.43835
-4.30079 110.978 -4.56335
3.96298 111.024 9.13584
-12.7142 105.377 -8.08781
18.5919 122.572 12.0453
20.6448 133.645 -5.06543
-15.8177 96.5968 3.24958
21.0963 127.974 6.31774
-2.39846 105.961 8.2138
24.9058 135.101 -0.496983
18.1276 128.506 0.521249
19.8401 129.841 0.933119
12.1825 126.226 -5.07361
12.7964 122.255 3.35148
16.4356 128.993 -3.11367
-8.87919 99.423 9.96856
10.0489 123.091 -2.59108
16.153 128.987 -3.34835
-2.28769 106.349 8.13312
-18.789 96.7778 -1.52454
17.5045 128.361 0.109197
23.343 133.389 0.489182
9.31588 119.586 2.84831
15.5148 129.165 -4.65851
11.5768 125.75 -4.83149
-5.2396 102.471 10.5421
-12.6477 105.807 -8.00379
-8.37732 99.769 10.3946
2.61586 110.543 8.68438
4.17025 111.737 9.12309
7.05664 119.149 0.170948
17.6219 129.947 -2.31572
-9.60566 99.3056 9.41468
-14.5163 104.254 -7.98121
9.09957 121.613 -0.950843
-3.99248 111.745 -4.37384
19.1431 129.4 1.34133
17.4845 121.661 13.0289
-12.3972 98.2574 6.85869
17.1292 128.76 -0.772075
-18.1081 100.235 -6.33976
18.9618 127.984 3.74492
16.0919 129.031 -2.93233
18.749 123.87 11.2155
20.7676 128.454 6.1306
15.6609 130.573 -6.28985
18.7765 124.049 11.0835
-13.1347 98.2706 6.0443
3.62465 117.757 -2.30315
-16.2122 97.2984 2.93272
4.66501 118.305 -1.39917
13.6289 120.434 9.63437
8.79886 119.53 3.2895
-6.54479 101.709 10.9333
13.2713 128.345 -5.6645
13.7134 121.071 8.67005
9.84765 123.781 -2.77706
9.43813 120.473 2.83414
-16.3301 97.4576 2.79336
17.5933 128.289 1.95184
16.679 128.813 -0.458673
-0.257651 115.773 -4.37523
19.106 126.196 8.51247
-0.250284 115.828 -4.35199
-15.2144 104.364 -7.90587
13.7234 123.267 5.17518
-13.7843 105.766 -7.99909
-13.3205 106.167 -7.96566
19.3458 127.142 7.46519
6.33574 119.644 -0.18737
23.772 133.24 3.60445
-12.102 107.511 -8.20439
16.5419 128.533 0.381833
-4.37895 105.171 9.13207
13.6038 120.901 9.81359
-0.925653 115.426 -4.19342
21.4868 130.259 5.51868
18.1123 123.843 11.8559
-11.3266 108.315 -8.24714
23.4173 136.635 -3.09992
9.43093 123.618 -1.98533
8.73457 122.285 -0.64695
18.2973 128.993 2.85107
-18.1942 101.136 -6.04755
12.433 123.798 2.78293
17.9122 131.6 -2.54521
18.7582 129.531 2.78306
13.4954 123.935 4.47411
3.08505 118.564 -2.83807
15.5172 129.84 -3.13115
17.0053 122.673 12.7246
22.9303 131.96 5.50071
-15.6983 104.637 -7.83589
10.0663 125.383 -3.55139
8.37564 120.017 3.65893
-13.2121 99.2593 6.3812
18.6182 130.429 1.34406
-6.91062 102.47 10.9101
15.3895 129.616 -2.47886
23.4444 133.325 4.06486
-18.143 98.4915 -0.308941
14.7255 130.558 -5.28156
-14.8135 105.755 -8.20924
-11.3609 100.123 8.14273
8.32667 122.33 -0.42175
-1.16926 115.78 -3.91973
4.45921 119.565 -1.58176
7.19969 121.032 0.273153
5.99743 115.894 7.85856
13.6461 122.076 9.08778
10.1375 125.916 -3.87429
16.147 122.304 12.9223
-2.42678 108.28 8.10294
15.619 130.613 -3.437
-10.2854 109.808 -7.78619
7.1268 117.842 6.26986
7.86386 119.693 4.08875
22.2872 137.148 -4.39043
15.2825 131.528 -5.58342
7.02367 120.967 0.391109
5.42032 115.207 8.47788
9.63189 121.959 2.94259
19.548 129.499 5.45146
22.8144 137.494 -3.88703
18.5634 131.868 -0.462645
-18.4176 99.2615 -1.31414
11.299 124.009 2.09623
15.7116 129.013 0.133811
24.89 137.307 0.0311756
13.8781 124.66 5.36882
-9.48593 110.495 -7.1527
23.4273 133.9 4.09962
13.7633 123.301 7.76192
15.6781 129.209 -0.0117705
-9.1681 101.633 10.1355
17.4736 134.068 -5.75035
6.02912 120.824 -0.14354
17.148 124.719 11.187
15.3351 132.129 -5.63256
16.1892 133.131 -6.0128
-15.3674 106.14 -8.27282
-1.30645 109.945 8.12929
8.3465 123.188 -0.451609
23.4369 137.497 -1.94091
24.5995 137.693 -0.302392
3.12114 119.757 -2.64228
13.7282 125.336 4.64643
23.2657 137.609 -2.27143
16.8221 132.193 -2.86352
12.1286 129.257 -5.21265
18.4978 132.079 0.155208
-13.3689 108.154 -8.30864
6.51137 121.367 0.202036
15.9555 129.91 0.0502349
11.395 128.352 -4.59671
16.9344 125.066 10.8472
-5.36778 105.727 9.76935
5.69533 121.042 -0.287025
19.3988 129.307 7.16938
-17.1741 103.692 -5.93743
18.9974 136.082 -6.01021
-8.74625 111.672 -6.59693
18.2403 132.611 -0.623562
13.8955 125.693 5.15498
16.1185 133.697 -5.96653
16.1368 133.677 -5.73568
13.9932 125.752 5.49205
16.8113 125.928 9.90194
-6.37216 104.871 10.5617
-14.6244 100.383 5.23843
16.6514 132.781 -2.98221
-7.29958 112.932 -5.82012
-9.50894 102.412 10.1054
16.0908 132.9 -3.84288
5.75958 121.802 -0.126167
9.28739 126.789 -3.53071
16.6429 131.33 0.307705
19.1816 129.862 7.28671
-5.14129 114.251 -4.15525
-16.0114 106.298 -7.44842
5.18623 121.571 -0.473316
15.5664 132.59 -3.66531
24.0689 137.966 0.632617
-3.79802 108.911 8.49446
-16.2356 100.76 3.04352
-3.08188 109.662 8.38512
-0.733783 117.997 -3.22601
-13.8178 101.16 6.34802
19.0058 130.37 6.68422
-5.75962 114.227 -4.50212
6.95314 123.108 0.162948
7.3119 123.528 0.0157596
-1.2811 117.598 -3.1648
19.5516 131.516 5.74903
3.42662 121.195 -1.88971
-10.6194 102.737 9.10259
15.1967 133.074 -4.38732
-5.48821 107.094 9.66396
-4.04425 108.96 8.62794
14.6103 131.624 -2.50803
-7.36034 104.727 11.0139
12.2429 131.023 -5.2893
11.9519 130.795 -5.19036
-5.01644 114.985 -3.9893
18.7033 130.057 7.54225
-10.4312 103.019 9.40906
23.4225 136.376 3.73891
-8.85256 113.073 -6.62209
-3.26695 110.04 8.43159
15.4022 132.997 -3.23493
17.0484 128.034 8.87161
16.6878 135.62 -5.84259
19.3351 137.615 -5.14818
16.6596 134.356 -3.44399
-3.68847 109.717 8.56457
13.452 132.723 -5.70836
-10.0849 103.322 9.90916
12.8465 127.785 2.66121
-12.3853 102.582 7.60492
8.83997 127.32 -3.06099
22.2774 135.016 5.02919
21.3655 139.274 -4.36799
-11.6486 103.049 8.12066
17.1868 134.293 -1.91311
23.5374 137.112 3.44646
15.5069 134.041 -4.18084
14.0085 127.614 5.40517
21.1256 133.622 6.16245
6.99044 120.566 6.98601
15.3208 132.388 -1.15953
-14.2001 109.763 -8.18543
8.59579 127.15 -2.57557
3.41457 116.153 9.32013
15.2898 125.738 11.343
-4.21313 116.293 -3.53982
-9.30001 104.305 10.552
13.1355 133.075 -5.51675
-8.36366 114.233 -6.22473
-3.85075 110.341 8.59921
3.16695 122.25 -1.89431
16.7546 135.377 -3.59064
11.2362 131.095 -4.77148
-11.3345 103.827 8.49203
-5.52746 115.821 -4.15606
14.1696 125.1 11.4526
-17.3797 103.38 -0.632799
5.27653 118.73 8.59972
3.33493 122.526 -1.70077
-8.39904 114.503 -6.18189
-6.2519 115.591 -4.61532
-6.91733 115.287 -5.0629
-17.1946 106.498 -5.80774
-1.80362 112.643 8.46918
-6.44488 107.544 10.2381
10.5667 126.979 2.40132
-12.0905 112.397 -8.1325
-13.1384 103.484 6.81015
12.2766 128.79 2.12122
17.4839 130.18 8.22366
19.3201 138.656 -4.49649
-18.9898 103.918 -3.55295
7.31607 125.696 -0.24721
-0.642269 119.944 -2.77173
-2.69242 112.283 8.22497
-3.11249 111.845 8.34279
-18.7743 104.523 -4.04795
15.1179 134.198 -2.74153
22.3889 140.876 -2.91133
22.6806 140.995 -2.61689
-15.2118 103.054 4.94698
7.66043 123.457 5.132
-18.5078 105.302 -4.52879
-16.8689 103.245 2.05583
-18.9998 104.439 -3.71039
-9.15238 114.832 -6.66278
4.19866 123.677 -0.805865
15.698 135.992 -4.58228
3.08654 117.613 8.70011
-6.184 116.528 -4.69823
-5.49889 116.783 -4.00915
15.5521 135.05 -2.81827
-16.1413 103.469 3.23133
-1.92299 113.288 8.70831
3.16726 123.491 -1.77329
22.1137 141.142 -3.07641
1.68876 122.432 -2.06865
18.7195 132.942 6.74734
3.30843 118.244 8.45838
16.168 135.309 -1.89704
7.83335 127.879 -1.66902
-16.9433 104.047 1.46692
23.4353 139.487 2.77711
3.90488 124.099 -1.04684
-6.94929 116.883 -5.58871
11.514 129.205 2.22458
-17.1796 104.553 0.392332
5.34637 120.544 8.13404
-13.1714 104.535 7.11391
-16.8227 108.796 -6.80701
10.7775 128.662 2.36182
-15.5824 104.038 4.36916
15.3817 128.714 10.0296
13.7703 130.246 4.56178
-3.39147 118.851 -2.7675
2.03795 123.24 -1.88805
-7.96704 107.363 11.0299
-17.4658 107.955 -5.89682
10.1037 128.164 2.45369
-1.78144 120.104 -2.20853
-5.47766 110.482 9.57375
15.2119 128.684 10.1665
2.85058 124.108 -1.88924
18.4567 139.341 -4.25727
6.47254 122.344 7.49769
23.4997 140.364 2.46551
21.2001 137.28 4.40788
-11.5712 114.571 -7.84268
-0.524508 115.165 9.52902
21.8893 141.955 -3.03333
-18.3496 105.435 -2.01506
-16.0938 104.59 3.34622
4.8578 120.6 8.49617
13.6411 129.539 6.51697
-17.5523 105.787 -1.10166
2.7039 119.098 7.87242
-15.2771 104.824 4.64053
22.5194 139.524 2.97282
15.9262 137.837 -4.87017
-13.7964 112.889 -7.87599
6.9404 123.447 7.05961
-18.1589 107.738 -5.33049
15.9186 137.562 -4.1014
15.9385 137.278 -3.52075
21.3943 141.959 -3.13043
13.1424 131.776 2.16342
-1.36767 121.041 -2.0119
13.2072 131.721 2.38538
-16.1503 105.635 2.07286
3.52328 120.048 8.11009
-16.0962 105.64 2.27091
1.19226 117.757 8.55874
18.9576 134.862 6.31252
23.1933 142.749 -1.21987
-16.348 110.677 -7.34214
9.31547 131.736 -3.76361
18.6067 134.401 6.75837
8.73863 126.835 4.54087
15.0386 129.411 10.2672
4.55464 120.923 8.62346
-15.9469 105.82 2.60269
18.7145 140.316 -3.85133
5.34565 121.937 8.14261
0.553698 117.282 8.87133
22.2346 142.742 -2.42204
-17.0597 109.91 -6.67596
-18.7463 106.245 -2.64987
-5.76417 111.328 9.64471
-14.4962 105.43 6.10436
14.9231 136.671 -3.03323
-10.5237 106.814 10.2732
10.927 130.348 2.22
-9.85238 107.293 10.6379
6.3188 127.478 -0.0114143
3.7668 125.729 -0.959948
14.9193 136.935 -3.12039
0.976301 118.293 8.43925
1.42726 118.889 8.12291
5.53925 122.804 7.85062
-9.54165 117.281 -6.87852
-10.549 116.833 -7.3661
1.05109 124.041 -1.45309
-3.26453 120.729 -2.45414
13.2892 129.946 7.97194
7.11219 125.322 6.36381
-15.0653 107.446 2.81555
3.38535 126.144 -1.2436
13.2971 130.257 7.61426
7.55519 126.154 5.95343
9.1912 132.929 -3.88925
13.3052 130.301 7.8886
16.7109 139.827 -4.12978
7.51654 131.071 -3.02351
11.9621 132.381 2.00554
13.5497 132.7 4.15288
-15.0994 113.317 -7.43708
-17.7118 110.236 -5.92379
-4.00133 121.061 -3.10319
-11.6433 107.526 9.41121
10.1218 130.423 3.09974
16.8896 140.274 -3.88718
-6.68981 119.859 -5.0371
-5.11535 121.008 -4.43316
-10.5726 108.187 10.4741
-4.68653 121.298 -4.14095
8.50643 127.955 5.62085
9.59725 129.582 4.41361
13.4876 138.321 -5.33805
-18.1208 110.085 -5.37754
10.0743 135.007 -4.80202
12.2674 137.791 -6.32731
10.4496 131.389 2.60095
15.4271 139.244 -3.64946
10.8026 135.995 -5.21735
14.7893 138.449 -3.12968
22.7274 143.127 1.41647
11.3043 136.834 -5.86179
18.1884 136.663 6.086
21.6345 141.238 3.33903
1.72879 121.193 7.54353
-18.1543 110.375 -5.32615
22.3178 142.1 3.00224
15.4355 139.754 -3.75818
-14.0609 115.188 -7.12261
-5.34137 121.519 -4.33759
13.2059 132.114 6.83671
-2.35334 116.646 9.74985
14.8622 132.35 9.20049
1.48533 121.242 7.68333
12.9678 138.652 -5.61135
6.74686 131.486 -2.60782
-9.42249 109.591 11.2575
9.67653 130.18 4.76477
13.2013 132.414 6.49743
17.2274 141.442 -3.59798
-17.0416 108.238 1.18946
0.443577 125.326 -1.22935
-8.62001 119.513 -5.45856
-0.505062 119.117 8.84391
-5.90934 114.312 8.96901
17.0459 135.819 7.30558
18.6936 142.873 -3.00477
-5.94702 121.649 -4.44957
-17.426 112.333 -6.11573
-2.32653 123.521 -1.76051
16.7723 141.511 -3.23636
-13.7769 116.19 -6.81656
2.69888 127.695 -0.795274
13.2248 139.575 -5.38739
11.6307 133.807 2.74773
-18.687 110.349 -4.00837
-8.25801 112.085 10.2124
4.33992 124.562 7.95759
13.3886 135.495 2.67888
-13.0245 109.039 7.99006
18.9217 139.37 4.73248
-12.8094 117.29 -6.946
-6.64746 121.562 -4.61329
-4.77456 115.79 9.28771
-15.5214 109.45 3.22381
-6.0773 122.089 -4.56109
-11.1985 109.552 10.3228
9.84722 131.631 4.27924
-17.8607 112.158 -5.54791
15.084 134.273 8.17473
-8.83698 111.575 10.6517
-9.5318 110.855 10.849
15.8027 135 8.08199
-8.93759 120.123 -5.3681
13.2681 134.123 5.59588
20.9356 142.054 3.62036
9.94782 132.777 2.73552
11.9402 134.814 2.31514
-16.1444 109.426 2.84022
12.6556 135.766 2.02658
-8.52609 112.324 10.4963
13.3794 133.658 7.26925
-11.7491 110.075 9.37965
5.04921 125.897 7.92235
9.24885 136.489 -4.80922
0.335168 121.605 8.28415
20.5288 142.1 3.7513
9.54213 131.755 4.76272
6.54326 133.303 -3.069
-16.8704 109.442 2.38698
15.4148 135.284 8.14091
13.6984 135.719 4.49926
6.54547 133.47 -3.15054
5.13552 126.28 7.93106
-8.28148 121.256 -5.00235
12.3873 136.141 1.86655
-12.0621 119.041 -6.99252
-9.3655 111.793 11.031
7.25651 129.13 6.49784
1.70276 124.153 6.52271
21.0167 145.827 -1.44823
-10.4529 110.877 11.2535
6.53334 133.863 -3.22924
-13.1372 110.696 7.1847
8.95722 131.339 5.6012
1.34391 124.059 6.50871
6.79983 128.727 6.95171
13.4976 135.5 5.55228
21.018 143.365 3.43933
-10.895 111.091 10.5468
13.4805 135.527 5.71132
-18.9273 111.442 -3.41429
-8.40653 121.768 -4.9722
-2.73909 119.274 9.13182
-12.9384 110.868 7.80412
5.54719 132.015 -0.766124
1.91567 124.818 6.64941
-1.68515 120.245 9.19943
16.9648 143.302 -2.64846
19.644 145.418 -2.0566
10.2953 139.185 -6.00998
-13.8569 117.961 -6.60814
11.5019 136.266 1.55831
4.50592 126.523 8.0552
8.6358 137.203 -4.8907
14.8893 141.368 -2.00995
-6.86516 123.456 -4.82951
8.58491 131.551 5.86282
13.8972 136.958 4.81556
6.31791 128.871 7.2799
-9.67992 121.355 -5.32017
7.53835 136.315 -4.47787
7.81138 130.911 6.04772
13.9771 137.242 4.62029
-16.7704 115.754 -6.56642
-5.02011 117.904 9.05411
-5.74908 117.213 9.1633
-6.19316 116.795 9.21012
19.3607 142.442 4.05774
-15.8276 116.674 -6.53347
-17.7679 114.522 -5.70894
13.9825 137.566 4.47553
17.2023 139.577 6.11048
2.26345 129.753 -0.457288
8.83019 132.313 5.81919
9.29876 134.261 3.04045
-10.0608 112.768 10.9099
-7.76124 115.442 9.76348
9.30189 138.969 -5.52429
16.2316 138.72 6.66458
-10.8127 112.277 10.885
0.498398 128.734 -0.896815
8.177 131.808 6.17286
-18.9406 112.79 -3.44706
-14.1494 112.677 4.81401
-1.08752 127.637 -1.16721
-5.28913 125.172 -3.53696
-6.92892 124.608 -5.13759
0.15881 124.217 7.42942
-3.19169 126.303 -1.95501
-12.4036 112.843 7.90377
6.48343 135.981 -3.55652
-9.92131 122.247 -5.22255
-12.2744 113.093 7.9174
16.6069 144.185 -1.77942
4.25131 128.025 7.80672
6.77784 136.71 -4.13894
-13.0826 113.153 6.67878
-1.86182 127.548 -1.41177
-9.07184 123.049 -5.03108
-2.84202 126.897 -1.78379
14.4094 142.121 -1.39579
14.6408 142.279 -1.28852
14.4657 142.2 -1.4192
-14.5545 118.822 -6.17907
8.87927 133.988 4.64362
7.97851 132.277 6.44692
-11.963 113.155 8.9326
-2.53547 127.315 -1.63861
1.93703 130.768 -0.597301
10.7388 137.53 1.47808
11.0442 141.896 -6.06828
-14.1016 113.253 5.50832
-18.5654 113.971 -3.13997
-11.7771 113.295 9.50389
19.2612 146.945 -1.43102
11.9871 142.41 -5.05366
-8.35437 115.846 10.5907
16.018 143.952 -1.1193
-2.18849 127.976 -1.52377
17.3745 141.911 5.28383
0.305702 130.072 -1.09649
-4.45968 120.533 8.7854
20.31 146.853 1.18127
14.2325 139.729 4.35656
-0.241463 129.81 -1.14881
-0.81223 124.262 8.25776
-9.56406 123.891 -5.61089
9.57446 135.611 4.47309
14.2169 139.516 5.07041
-8.09494 116.711 10.4107
12.9779 139.781 2.64239
4.78536 134.366 -0.912978
-15.9941 118.623 -6.14401
-0.8043 124.541 8.17452
8.98047 134.678 5.64218
19.5379 147.57 -0.722084
8.36252 133.795 6.48055
4.50693 134.235 -0.672475
14.0573 140.288 3.98747
7.96492 133.49 6.574
9.4064 136.905 2.62684
-2.28606 128.718 -1.55354
-14.2222 113.905 6.18198
16.3573 141.172 6.3561
-15.5909 113.493 4.85901
-9.76967 124.61 -6.06545
-11.8582 122.832 -5.96218
-18.1441 116.284 -4.05795
-11.4815 114.632 10.1581
-8.06457 117.538 10.5186
-13.5511 114.522 7.14582
9.39469 137.099 3.31845
-8.55459 125.909 -5.72814
13.9524 140.841 3.9788
9.38646 136.052 5.35472
11.4769 143.678 -5.36665
-18.5275 113.621 0.790368
13.242 144.175 -3.18073
-0.961119 126.264 6.56552
-8.2881 117.536 10.8267
19.2866 146.596 2.63972
10.876 139.707 1.49917
-13.4835 122.176 -6.4182
14.345 141.217 4.70957
2.4936 133.212 -0.0677409
18.4055 145.35 3.84839
-3.77617 128.892 -2.3622
9.57483 136.71 5.32632
-5.64844 121.042 9.17558
-9.967 116.152 11.099
-17.6465 115.047 0.536457
17.3651 147.195 -0.985121
13.7382 141.368 3.83577
17.0194 143.743 4.9042
-2.86811 129.563 -1.80983
2.33586 129.519 7.07795
2.03482 129.251 7.10528
-3.97445 129.133 -2.50866
3.04403 130.406 6.83236
-1.54849 126.391 6.67967
0.324507 128.23 6.47002
-16.4696 114.234 4.72999
2.83545 130.496 6.67025
-17.8509 117.404 -3.39918
-17.4161 116.097 -0.182448
18.6535 146.662 3.11896
2.65117 130.621 6.49722
-16.141 118.705 -2.61
-2.9118 124.602 8.47951
-9.89907 126.429 -6.55999
15.2472 142.05 6.25501
-3.78934 123.259 9.5883
-3.36274 129.964 -2.13404
2.67007 130.783 6.40226
-1.55777 127.197 6.13362
-18.3294 116.199 -1.30193
-12.9952 115.66 8.60122
-9.09389 126.917 -5.84294
1.28344 133.25 -0.294687
11.4742 145.003 -5.1657
3.83783 132.156 6.12349
8.55017 142.561 -5.39781
13.1006 142.121 3.02319
-12.0828 116.185 9.42616
9.27526 138.357 3.71777
-7.86776 127.778 -5.0622
-17.2864 116.143 0.96019
5.85851 134.392 5.6987
-3.10699 125.128 8.27576
-11.6442 125.023 -5.6799
13.047 144.811 -1.34495
-1.22397 128.142 6.04066
18.3885 147.849 2.1189
11.0504 141.737 1.43658
-2.25437 127.262 6.35055
-4.36881 123.873 9.21241
14.6798 146.136 -0.514916
9.20364 144.099 -5.81524
-16.0415 115.383 5.67011
4.51373 137.737 -1.64645
-16.7834 119.615 -3.36529
-5.83592 129.826 -4.12668
2.27132 134.919 -0.103768
-2.76544 131.417 -1.84219
9.24978 138.472 5.07421
17.6357 148.873 -0.309608
-16.5001 120.473 -4.22234
-16.736 119.486 -2.74755
-2.24919 127.951 5.66862
7.0335 141.783 -4.60889
3.27521 136.201 -0.465393
-16.5044 120.187 -3.51891
-16.8933 119.829 -3.41441
-2.30517 128.046 5.66305
4.92118 138.913 -2.50053
0.254853 130.454 5.54356
-12.1863 125.486 -5.91317
-17.5039 115.215 4.40327
8.22602 143.5 -5.26963
-16.3392 115.692 5.62684
-16.3279 120.266 -2.85289
-1.52563 132.816 -1.52892
-2.48143 132.11 -1.80511
-11.157 117.843 10.339
8.66157 138.625 4.70074
12.8313 145.876 -1.56173
-11.581 126.611 -6.33458
2.53785 133.095 5.15928
17.4123 147.143 3.90454
4.10302 138.119 -1.43942
11.0327 142.739 1.50211
-4.1091 126.002 7.5213
-12.7776 125.556 -6.04076
-10.0524 128.762 -7.46827
-1.65102 129.402 5.34327
-3.65062 126.399 7.65416
-2.38835 128.825 5.25038
0.0961283 131.184 5.05183
-9.01945 129.372 -6.71587
13.3557 143.886 3.65581
-11.0649 118.617 10.0702
15.8151 145.381 5.04243
16.9537 146.868 4.24822
5.08753 136.267 4.26109
-3.90644 131.868 -2.51268
-4.56143 126.019 7.29623
-13.8596 124.567 -5.32268
-0.178346 131.333 4.90099
-12.4824 126.126 -5.85545
2.98187 134.058 5.20318
-10.5059 119.343 10.1781
16.9943 147.255 4.10063
2.32772 136.501 -0.277623
-14.895 123.664 -5.0167
-17.643 116.578 3.63109
14.0696 144.195 5.08831
15.1779 145.368 4.86089
-12.5627 117.874 9.87282
-16.1775 121.887 -3.6231
-15.7344 122.295 -3.58948
-16.7776 120.122 -1.22216
-13.2481 125.847 -5.99077
-8.61789 120.976 10.8405
-17.2288 118.963 0.250025
-17.9388 119.681 -2.18709
12.1326 146.641 -2.3001
-18.0511 119.696 -2.35805
-12.9376 117.8 9.80528
13.9654 147.916 -1.41985
-15.8916 122.776 -4.28699
9.14187 141.66 2.25583
-16.3436 121.59 -2.8036
-17.8203 117.89 1.82593
-16.8969 120.388 -1.22607
-18.275 117.177 2.47552
-16.8545 117.272 4.69505
-7.69442 131.134 -5.86261
-4.97347 132.147 -3.21417
5.8804 142.352 -4.1082
14.6814 148.204 -0.302862
-7.33264 122.88 10.3408
7.16599 139.638 3.33324
-0.0878197 132.43 4.70785
-14.8183 124.177 -4.45456
10.1212 143.203 1.75326
4.95985 141.305 -3.27893
10.505 143.698 1.56658
-12.435 127.793 -6.96085
11.2526 144.469 1.59841
2.38606 134.911 4.65353
-3.32455 129.427 5.4564
-12.6506 127.616 -6.70261
-16.262 117.239 6.632
-8.85068 131.216 -7.05734
-10.21 130.109 -7.0967
-5.04312 127.512 6.45168
8.69761 140.847 4.51003
10.8381 147.648 -4.5585
14.7129 148.615 0.101476
-3.99946 133.381 -2.6885
10.0853 147.339 -5.21338
0.280808 133.381 4.48652
-0.126931 132.972 4.60248
15.6234 147.223 4.31892
-0.794532 135.391 -0.976879
-13.409 126.804 -5.95456
8.20179 141.207 3.22626
-13.9842 125.655 -4.70206
-16.7828 117.234 6.32763
-16.4024 122.801 -3.35664
13.0715 145.65 3.2086
-13.0257 119.095 9.26699
5.44389 138.754 3.42956
-14.4735 118.362 8.24876
-16.5719 120.702 0.430411
-15.1025 124.569 -4.2264
-6.41026 132.647 -4.76002
-16.9451 122.009 -2.44101
-14.9072 124.609 -3.72572
0.377484 134.006 4.26668
-17.2414 119.706 1.58468
-17.1909 117.901 5.22138
7.35618 141.062 3.00003
-9.84248 123.365 7.4527
-10.3817 121.509 10.0231
6.08678 139.929 3.15202
-5.57233 127.69 6.55325
-14.8061 118.807 7.73197
-17.405 119.695 1.79702
-11.052 120.852 10.2406
-18.1084 118.184 3.47911
-17.9712 118.208 3.70258
-11.9073 120.356 9.85152
-17.0849 121.627 -0.887492
0.301946 136.968 -0.489928
-8.49495 123.65 9.67875
-4.15724 129.1 6.81527
16.4349 150.114 1.98067
-10.7552 121.466 10.1478
-17.1783 122.298 -2.0163
15.9752 149.486 2.59637
15.5431 148.694 3.36853
-17.418 120.639 0.795489
-16.4621 122.029 -0.153726
11.9161 146.249 2.02079
15.5483 148.862 3.20598
-16.6853 121.093 1.25843
-17.1458 120.104 2.51835
-1.94755 135.75 -1.28341
-16.679 121.74 0.291639
-16.317 122.73 -0.828205
0.590992 135.42 3.72197
-3.70021 134.934 -2.47813
-18.1156 119.356 2.58169
-12.793 128.089 -4.76857
13.765 149.568 -0.508786
-4.34356 130.002 5.7866
-17.3313 120.733 1.44152
15.0889 148.788 3.28644
10.3062 148.684 -4.37401
4.06046 139.118 3.06964
-17.3066 120.853 1.51036
2.67295 140.281 -1.22621
15.8912 151.085 0.739498
-16.0419 122.988 -0.11833
-8.65408 124.958 8.54713
-18.1346 118.786 4.2922
8.43375 147.6 -5.1223
-16.8454 119.103 5.88086
-4.79736 134.972 -3.55569
8.75976 143.734 2.72676
-17.1157 122.004 0.105953
-1.13575 134.212 4.00433
-6.11808 134.852 -5.48551
0.0617362 137.762 -0.600747
8.62207 142.868 4.20343
-7.09224 127.107 7.51099
15.7421 151.008 1.13591
-18.8689 118.464 4.1157
-16.4 122.649 0.441648
-17.9457 119.559 3.63269
9.81866 149.124 -5.17333
1.44591 136.965 3.59158
-3.98789 135.647 -2.96851
-17.3922 121.388 1.29349
-17.7661 119.284 4.64651
14.2782 150.301 0.303541
-17.6025 120.009 3.64782
-17.8817 119.754 3.69611
-12.9486 121.25 9.15183
-16.0775 123.262 0.20588
2.17648 138.003 3.25255
-7.93895 126.996 6.93692
11.3224 149.587 -3.05801
4.17531 140.27 2.48728
-17.6519 120.13 3.66917
-17.4225 120.982 2.47239
14.9528 151.124 0.301187
4.65795 143.993 -3.48437
-16.0046 125.075 -2.61167
-17.3055 119.776 5.15397
9.32037 145.288 1.99468
-4.87034 135.638 -3.59312
-7.79208 127.194 7.32486
12.8463 149.967 -0.687922
-18.0543 120.611 2.5262
-15.3202 120.645 7.04392
-17.4149 121.996 1.06256
-17.9195 119.97 4.06966
1.08244 137.449 3.18904
-19.1555 119.405 3.10577
-16.0625 123.309 1.01934
-15.9346 123.766 0.384806
10.4495 146.808 1.45949
-4.94545 131.361 4.5974
-16.912 121.38 3.31654
13.8161 150.571 0.134866
-12.8094 122.169 8.76149
-16.5291 123.923 -0.643456
-7.09952 128.249 7.06201
-5.01438 131.449 4.5738
-9.25168 126.396 6.99224
15.0432 151.131 1.56153
-5.86799 135.935 -4.95079
14.9342 151.789 0.22081
-15.061 126.507 -2.62928
-11.9365 130.241 -4.3434
-13.7823 121.634 8.65279
-16.6528 123.79 -0.110631
-18.4157 119.676 4.66681
13.0851 150.49 -0.223482
-15.125 126.503 -2.53642
-16.9583 121.014 4.65464
-17.4451 123.384 -0.435816
-17.2061 120.393 5.54101
-5.89021 130.636 5.32912
2.15193 139.382 2.44391
-17.2825 123.27 0.095879
-17.2889 123.544 -0.389241
-9.24104 133.944 -6.33645
-1.60928 138.027 -1.17609
-17.4249 122.874 0.827755
-16.7947 124.174 -0.519166
-17.657 123.463 -0.604153
12.1406 150.333 -1.00452
-17.721 119.44 6.863
-17.3859 121.773 3.07851
14.6341 151.593 0.955265
-17.128 120.788 5.48408
-17.3655 123.245 0.569316
-17.9378 120.216 5.30655
12.1055 150.415 -0.873482
-15.6154 125.515 -0.663919
1.80877 139.523 2.28197
-17.597 120.723 4.98486
-10.1015 132.972 -5.3167
-18.8835 119.892 4.44666
-19.0807 120.279 3.47716
-21.0599 117.917 4.66963
4.19544 141.987 1.92901
-3.12712 137.864 -2.58181
-0.0832905 139.591 -0.724471
-9.16003 127.368 6.94808
-8.61465 135.146 -6.58966
-0.21336 137.705 2.65223
-18.1312 120.133 5.56941
-19.5463 120.344 2.81658
14.2978 152.039 0.224479
8.49431 144.784 4.1011
-17.2354 123.139 1.56031
-14.2178 123.001 6.89397
1.86213 141.635 -1.01513
8.36011 144.216 5.02255
3.8099 144.342 -2.76903
-2.91861 138.103 -2.3535
-18.8358 120.32 4.26124
10.8096 150.624 -2.78147
-17.3419 123.893 0.12525
9.56207 147.147 1.68477
-17.1885 124.45 -0.595915
-16.4265 125.088 -0.328148
8.42332 144.631 4.7094
4.56067 142.615 2.03805
5.81417 147.06 -4.12385
12.2893 149.672 1.82504
-6.40242 137.06 -5.8072
10.325 148.038 1.68018
5.59563 146.924 -4.02675
1.5767 140.066 2.09449
4.13213 145.243 -3.28
-8.98862 128.132 6.77173
-5.64192 132.307 4.57472
-16.0839 125.739 -0.569542
-10.3118 133.424 -5.26847
-16.9199 123.347 2.51662
-16.7624 124.357 0.913395
-15.9037 121.268 8.11227
13.9095 152.247 0.0944072
12.251 151.14 -0.52391
-0.441774 138.104 2.62877
-16.3068 125.986 -1.21799
-14.3024 123.467 6.86853
12.5376 150.178 1.86993
-14.7034 123.172 6.89284
-14.0243 123.743 6.96323
-18.757 120.565 5.00909
-6.5628 137.43 -6.08205
-15.8405 121.522 8.17002
-17.1628 121.227 6.52603
-15.256 122.658 7.18051
0.158881 139.013 2.40152
-16.2443 125.881 -0.355605
-17.4408 122.153 4.65789
-16.894 121.232 7.30652
7.69126 149.482 -4.34658
-14.0753 129.533 -3.41817
-6.32204 137.814 -5.78743
-15.4122 121.939 8.68493
-17.1508 124.721 0.691147
9.83369 150.964 -3.23415
-6.01488 132.592 4.61393
-17.7181 121.181 6.45789
6.77102 144.022 4.75581
-5.19362 133.596 4.33753
-19.0498 123.356 0.353871
9.48062 150.995 -3.587
-6.59917 132.097 4.88216
8.88173 150.855 -4.19816
-16.1482 126.451 -0.408775
-7.85963 136.813 -5.88032
-17.4928 120.601 8.34352
-5.74759 138.204 -4.88039
-14.3439 129.331 -2.63321
-17.4452 121.808 6.29017
-17.5954 121.642 6.36284
13.1171 152.386 0.309559
-18.2703 124.798 -0.583176
-15.5482 122.393 8.57734
-17.9507 120.484 8.21666
12.6246 151.247 1.94382
-20.3359 119.698 5.80697
-18.8313 120.671 6.58628
8.78712 147.926 1.88965
12.8156 152.095 0.868906
-7.29328 131.421 5.97075
-13.4229 125.451 6.90221
8.74637 147.835 2.17536
-21.4401 120.556 2.73486
6.93296 144.799 4.89806
-19.2762 123.78 0.630395
8.79117 151.275 -3.82617
-20.8993 119.926 5.13912
-0.394068 141.593 -1.00062
-16.9704 121.149 9.52768
-15.0348 128.913 -1.50071
-2.48893 137.563 3.29583
-16.1268 126.872 0.499407
-18.2002 120.774 8.53365
8.39864 151.358 -4.04244
-21.7049 120.783 2.7689
-9.64848 129.253 7.16647
-6.23052 133.595 4.82635
-19.4147 120.294 7.67241
-5.50477 139.38 -4.70438
-5.61264 139.37 -4.86389
-20.0713 120.548 6.17678
-2.90399 140.392 -2.19036
-12.9984 126.252 7.42652
-17.2944 127.764 -2.5369
-21.7599 120.023 4.51054
-23.0646 119.188 3.99377
-9.95532 129.161 7.30985
-18.0565 123.564 4.24348
-17.3619 127.758 -2.40678
-5.03232 139.713 -4.02511
2.8873 146.006 -2.48762
-12.1549 132.766 -2.87643
-5.23178 135.236 4.21014
9.7168 151.847 -1.82474
-5.04746 139.854 -4.05713
0.822754 143.506 -1.06287
-19.155 124.779 0.566879
-22.2108 120.884 2.8448
-21.9612 118.978 6.84085
-19.0563 123.315 3.69509
-9.73001 136.427 -5.1939
-15.3111 128.786 -0.222152
-23.4046 119.074 4.47962
-6.52272 139.513 -5.44586
-15.0445 124.484 8.44031
-17.6695 122.161 8.48634
-15.0144 124.621 8.32869
-17.6319 122.087 8.71578
-15.1926 129.43 -0.88612
1.62866 143.115 1.68275
-0.0635819 143.104 -1.09158
-1.24956 140.2 2.39459
-21.5744 122.019 2.53269
2.09979 145.602 -1.94172
-18.4754 124.261 3.56528
-8.0624 138.717 -5.90718
-6.51538 139.831 -5.34993
-15.6808 124.766 7.52938
0.906491 144.32 -1.22644
11.6223 153.163 0.210543
3.90984 148.178 -3.29736
-15.484 124.853 7.94135
-18.1876 121.62 9.69056
-16.085 124.377 8.11291
2.46776 146.598 -2.28484
-4.76016 141 -3.84436
-21.436 122.909 2.1918
-1.90834 140.188 2.55586
-18.6773 124.49 4.02995
9.68548 152.591 -1.05507
-15.4514 129.771 -0.373667
-9.7011 137.514 -5.20262
-5.78666 140.84 -4.66664
-17.8176 122.015 10.3717
-8.45232 139.096 -5.7233
6.8838 151.657 -3.54099
-21.6943 120.138 7.59365
-20.3393 124.378 1.99396
-21.641 120.185 7.65414
-2.80069 142.22 -1.99605
-2.14937 140.382 2.59921
-10.4473 130.287 7.61194
9.90192 151.788 1.52465
-9.89421 137.675 -5.15917
9.00768 152.769 -1.73317
9.37007 151.251 1.70305
-22.3819 122.463 2.48663
-11.1962 129.789 7.60837
4.25625 149.506 -3.38324
9.05974 152.889 -1.53468
-19.4509 121.38 9.74016
-9.85365 131.36 7.18456
-11.1843 129.968 7.56837
-17.9724 123.333 8.73942
-6.98292 140.692 -5.28616
-7.92596 133.657 6.30396
-17.8641 122.648 10.3381
-3.58415 139.339 3.10737
-2.94557 140.059 2.92233
-16.0381 124.587 9.99207
-9.37275 138.934 -5.43325
-16.2337 125.164 8.79609
5.19316 150.92 -3.4308
-14.678 131.686 -0.648229
-16.4191 124.395 10.0384
-15.3542 131.577 -1.47685
-19.748 125.046 3.40757
8.98286 153.283 -1.20214
-19.1301 122.087 10.1064
-14.4434 132.124 -0.769272
-10.8789 130.747 7.73717
-0.951342 144.485 -1.26787
8.49891 153.194 -1.66171
-19.6625 126.597 1.04735
2.51108 148.473 -2.6843
-20.2304 127.656 -1.6844
-4.67877 139.198 2.9137
-10.8629 131.123 7.87909
-3.37477 143.32 -2.36682
-20.3112 127.878 -1.70641
-14.459 132.486 -0.485845
-20.7539 125.372 2.38443
-23.5235 121.61 4.78035
-23.5486 121.043 5.89105
-14.19 128.143 8.2784
-8.29101 135.19 5.26429
-21.0675 126.203 0.760761
-17.0274 125.407 9.20011
-1.75324 144.813 -1.49493
-20.9359 125.795 2.02868
-16.5506 125.733 9.50603
0.661489 147.119 -1.65745
-5.88861 142.824 -4.50294
-21.395 126.993 -0.657619
-10.394 132.342 7.7125
-14.4942 133.35 -0.858031
-21.2846 127.024 -0.221312
-21.1892 126.143 1.61372
1.28403 148.338 -2.08196
-14.5496 133.276 -0.361262
-1.28593 145.681 -1.34088
-22.4466 125.55 0.960794
-3.91909 141.117 2.88766
-21.2767 127.428 -0.521165
-23.8541 122.223 5.1086
-22.0529 125.842 1.42422
3.43613 151.018 -3.00543
2.07127 149.577 -2.56866
-11.261 131.921 8.13397
-23.632 121.91 6.18987
-20.9878 126.491 2.10004
-13.8602 135.274 -2.37945
-4.51659 144.143 -3.27201
-21.5928 125.795 2.48749
-3.13015 142.537 2.08959
-7.37594 137.535 4.40123
-16.1373 126.567 10.2739
-8.6734 135.789 5.53299
-21.0395 126.749 1.8291
-2.74572 145.07 -1.80496
-11.0851 138.938 -4.24217
-20.8636 126.946 1.88812
-19.7836 129.862 -1.68263
-23.2244 124.681 2.35382
-13.5735 130.649 7.33387
-14.2854 134.627 -1.25057
-13.1487 135.663 -1.26547
2.1352 150.109 -2.69715
5.41646 153.034 -2.6025
-12.8698 136.019 -1.36345
-8.46654 136.354 5.44192
-11.6464 132.007 8.2544
-2.41674 145.583 -1.64196
-14.5554 134.676 -1.50469
-5.43014 140.38 3.15658
-19.3072 130.399 -1.35349
-14.7536 134.112 -0.523338
-13.4842 136.085 -2.07182
-10.8016 132.959 8.30588
-9.22412 135.619 6.04525
-14.5572 134.385 -0.433241
-16.9645 126.648 10.1296
-20.7334 123.684 9.46799
-2.26522 146.178 -1.58768
-19.9472 124.212 9.89086
8.62475 154.107 1.82331
-24.0308 123.251 4.91782
-11.5759 139.055 -3.74593
-15.6623 133.702 -0.556207
-14.1835 130.842 7.25392
-11.7768 132.368 8.48326
-16.2418 133.407 -0.576775
-15.4601 134.051 -0.433989
-17.1373 127.002 9.96202
-10.5941 133.8 8.20076
2.77291 151.717 -2.72918
1.25716 150.362 -2.45572
-9.8217 141.464 -4.32986
-17.8156 132.868 -1.6154
2.18842 151.35 -2.6354
-1.76633 147.18 -1.38234
-23.7865 123.288 6.46181
-14.7203 134.965 -0.152852
-16.5558 133.531 -0.522672
-16.6009 133.537 -0.542874
-4.09384 143.22 2.32078
-4.98409 145.613 -3.52302
-9.3491 142.421 -4.75867
-7.87884 143.843 -4.92033
-20.8431 128.208 2.69749
-5.10085 142.274 2.73027
-23.8704 123.682 6.12694
0.800608 150.264 -2.28404
-5.40014 145.615 -3.85572
1.03239 150.67 -2.44305
-23.755 123.576 6.79719
0.326284 149.868 -2.0549
-15.6366 129.88 8.72829
-10.4124 134.942 8.01553
-18.6547 127.874 7.4714
1.27688 151.073 -2.45939
1.38206 151.177 -2.47248
-19.3286 126.893 8.33634
-21.2306 127.468 4.12128
0.628611 150.703 -2.3152
-16.9719 128.962 8.88904
-15.2193 135.503 -0.284362
-3.61572 146.967 -2.25444
-23.2688 126.145 3.85033
-13.4182 132.37 8.72165
-4.32746 146.865 -2.84922
-17.458 133.922 -0.56614
-23.6748 124.223 7.17777
-11.7745 134.304 8.27718
-19.747 127.247 8.31043
-13.1948 139.102 -2.84324
-5.36233 143.405 2.43793
-23.3498 125.028 6.76093
-20.413 130.54 1.39453
-13.2137 138.389 -1.17464
-22.5889 124.985 8.20627
-22.4587 126.441 6.00598
-10.9346 135.749 8.08117
-8.46781 139.661 5.05092
-20.3519 130.912 1.65222
-20.4095 130.867 1.80931
-13.8366 137.946 -0.0893069
-12.8855 139.066 -0.545339
-22.9742 125.555 7.95955
-13.3574 139.839 -2.47308
-21.0506 126.641 9.40527
2.91953 154.318 -1.77336
-3.48188 148.772 -2.07738
-5.87565 147.643 -3.95626
-22.8103 126.044 8.16747
-22.1269 128.008 5.95024
-23.4066 126.078 7.66639
-7.94874 141.836 4.0873
-20.5827 128.498 7.99
-23.1506 126.668 7.26435
-17.1908 131.943 7.39436
-12.5954 135.53 8.47676
-8.61713 146.183 -4.55125
-6.75133 144.017 2.66623
2.12714 154.406 -1.62966
-19.2614 134.046 0.759633
-22.0376 129.561 4.59918
-21.4384 130.353 4.12663
-11.1117 143.669 -3.47236
-0.142528 152.935 -2.24576
-18.4114 134.898 0.940751
-5.75771 145.8 2.02019
1.4626 154.371 -1.7112
-14.864 134.019 9.10185
-9.60634 145.998 -4.40212
-8.11302 142.822 4.02783
0.272166 153.698 -2.18232
-18.5309 134.96 1.432
-18.81 131.399 7.68378
-5.38861 149.324 -3.29946
-21.0957 129.266 8.03464
-9.19829 141.448 5.27835
-7.60911 147.981 -4.01292
-10.4643 139.606 6.88052
-7.25617 148.412 -3.87889
-17.5477 136.208 1.7684
-1.32765 152.634 -1.77984
-9.7647 146.46 -4.13394
-22.9069 129.151 6.41659
-2.83162 151.51 -1.77541
-14.221 139.892 1.02041
-18.0229 136.05 2.0097
-8.39988 143.622 4.11934
-10.5236 140.375 6.6673
-1.27852 153.24 -1.85151
-21.0747 132.078 4.90883
-20.621 131.146 7.42792
-6.2225 149.836 -3.33215
-22.963 129.605 6.54936
-8.04052 148.594 -3.8712
-19.9188 131.861 7.82073
-15.0856 139.814 1.13215
-17.8215 136.836 2.14501
-15.5504 135.043 9.3472
-16.0497 139.049 1.08181
-10.7149 140.9 6.85122
-5.25426 150.894 -2.59168
-22.2567 130.908 6.40907
-8.7045 148.524 -3.62067
-10.284 141.765 6.53474
-21.5571 131.165 7.64234
-14.5255 140.934 1.26705
-12.6073 143.025 0.696611
-17.9058 134.144 8.55563
-20.1678 134.839 3.62829
-20.6823 134.465 3.69653
-13.6568 142.159 1.19354
-12.3206 139.442 8.61169
-4.89855 152.06 -2.30076
-20.7601 133.865 5.23109
-19.218 135.959 3.9868
-4.41471 152.481 -2.10521
-9.21537 148.828 -3.15443
-7.97925 149.861 -3.01773
-7.86989 146.688 3.15298
-12.7657 143.492 1.37786
-20.5201 134.985 4.31451
-8.8885 149.332 -3.02001
-11.4534 146.635 -2.22603
-15.6743 140.987 1.4907
-7.20546 148.149 2.48546
-11.6286 146.595 -1.98655
-10.4641 142.835 7.02355
-15.4674 137.228 9.35037
-8.69289 149.781 -2.70762
-5.12507 152.702 -2.14601
-8.4658 146.625 3.63057
-8.56427 149.915 -2.65036
-10.319 143.316 6.78775
-19.7968 135.868 4.91165
-16.5014 136.681 9.3457
-21.0553 133.806 7.12063
-19.6154 134.283 8.93717
-12.5552 145.827 -0.365016
-12.5848 145.821 -0.300586
-20.2383 134.224 8.64896
-20.6348 134.262 8.44089
-19.0994 135.502 8.82438
-8.8247 150.562 -1.90027
-16.2091 141.643 2.47529
-17.2244 137.299 9.12089
-15.3534 139.325 8.96288
-20.0814 136.948 5.5926
-18.1252 136.983 8.82869
-13.2019 144.813 2.66833
-14.4407 140.426 8.8802
-20.1417 135.972 7.69627
-7.92666 151.757 -1.35186
-11.7368 143.799 7.52811
-15.2755 139.942 8.86207
-12.6157 142.757 8.10516
-19.4772 137.979 5.6522
-15.7861 142.768 2.92975
-7.06201 151.304 1.57155
-8.89742 148.817 3.16545
-9.93952 147.131 4.72576
-10.0967 150.296 -1.41762
-13.0874 145.809 2.02261
-18.7424 139.038 5.21751
-18.329 137.695 8.43581
-13.987 141.625 8.45116
-9.17459 148.767 3.40695
-10.5482 150.082 -1.17775
-9.66118 148.192 4.04979
-16.0342 140.294 8.51474
-10.2346 147.558 4.67892
-11.4107 149.275 -0.139754
-9.33278 151.442 -0.692975
-18.4768 139.677 6.01934
-10.4704 147.69 4.71616
-10.1764 150.943 -0.522329
-12.1757 148.276 1.19367
-8.29622 152.075 0.643175
-9.10271 151.068 1.61716
