ply
format ascii 1.0
comment Created by Open3D
element vertex 1936
property double x
property double y
property double z
end_header
25.233 108.754 -2.37573
-15.0278 101.39 -8.6053
-18.3736 99.2224 -5.26805
-8.97212 102.897 -8.50752
-5.27756 104.33 -9.68787
-14.0247 102.085 -9.48656
-6.65283 97.2512 6.82537
22.5745 103.194 10.1581
31.2259 107.517 4.98496
21.3154 110.275 -7.64073
-12.0894 102.834 -9.63542
7.2835 107.831 -9.93749
-0.895939 105.949 -10.2272
-11.3717 103.042 -9.47194
9.2932 107.828 -8.48625
-2.06005 98.225 7.98199
-17.012 98.0952 -0.675994
24.3285 103.877 10.3642
-18.1321 100.546 -7.07654
6.39926 100.324 8.35313
29.7803 108.962 1.63168
-4.99074 105.061 -9.83094
-15.1262 97.8949 1.5103
-12.5338 97.8428 3.30288
-17.0731 101.061 -7.23233
19.002 104.37 6.5746
11.4936 108.556 -7.70006
-16.5563 98.5373 -0.0907095
-1.72398 106.248 -9.8481
-10.2724 98.0453 4.95126
-12.7611 103.482 -9.72619
6.68712 108.446 -9.93867
16.9115 110.067 -7.70177
-18.792 100.232 -5.32588
23.9835 110.205 -3.69267
26.4582 104.97 10.5394
21.7173 104.515 8.84928
30.4007 107.7 6.41262
6.95554 108.584 -9.83495
27.5264 109.584 0.149582
-4.09774 105.71 -9.46747
11.7961 103.52 5.62387
8.32968 108.627 -8.8535
7.62556 108.711 -9.45539
-2.74675 98.9313 8.11919
14.6453 104.599 4.87842
-8.68742 104.51 -8.95235
25.947 110.033 -1.4558
9.76508 102.411 7.35248
8.55925 101.875 8.00847
-3.30974 106.192 -9.2324
21.9464 111.15 -5.9955
22.0858 111.069 -5.67159
-5.46289 105.692 -9.20366
-5.6793 105.643 -9.20483
15.9825 105.17 5.05476
-6.55663 98.6228 7.4382
-18.8358 101.126 -5.94162
-0.891777 99.9314 7.781
29.983 107.345 8.493
-10.4581 98.6999 5.13048
24.9516 110.811 -2.92002
22.4521 111.286 -5.41996
-5.87545 98.8181 7.78226
-16.8526 99.4568 -0.310543
24.2594 111.191 -3.91253
6.42156 109.216 -9.85758
21.1515 111.767 -7.13936
-5.74062 98.9691 7.85004
3.98086 108.534 -9.49005
21.9168 105.547 8.64661
-18.8268 101.513 -6.08292
9.78139 109.326 -7.77476
-18.6858 100.894 -4.45125
29.9916 110.052 2.65071
25.5848 111.01 -2.32432
12.7333 104.89 4.91588
10.2089 109.456 -7.66352
-15.9668 99.556 0.667563
-9.83191 99.022 5.66018
17.6784 105.93 5.48741
4.37613 108.853 -9.59329
30.1091 108.85 5.95715
28.2441 110.566 0.750081
7.81085 102.36 8.38368
10.8453 103.866 6.63381
23.6403 105.598 10.2878
-0.0783573 100.774 7.79978
14.3092 105.641 4.65298
-9.56746 105.516 -9.35742
23.4789 105.678 10.1781
11.4879 109.945 -7.38828
28.8664 107.444 9.15559
28.5985 110.62 1.28718
20.348 112.455 -8.01633
-18.6517 101.276 -4.29589
0.397144 108.33 -9.8073
7.37428 102.503 8.54762
13.1487 105.52 4.75445
-7.37286 106.175 -9.02677
27.3019 111.389 -0.625038
10.5859 104.198 6.80268
0.756169 108.635 -9.81414
-17.4314 100.681 -1.43407
10.8203 110.154 -7.39378
-8.83665 106.171 -9.50448
16.4275 106.464 5.02258
-11.9584 105.251 -9.08491
20.3537 112.861 -8.09381
-10.0312 99.7205 5.63804
-17.4589 101.048 -1.99581
13.4496 110.896 -7.28191
-18.7854 102.397 -6.04293
11.5271 105.176 5.5826
23.0119 106.501 9.31996
29.965 110.882 2.89624
14.8954 111.666 -8.06992
29.7972 109.093 7.25314
19.3623 107.003 6.10536
4.37261 109.723 -9.50906
12.3026 105.78 4.86244
13.6178 111.207 -7.46127
10.9348 104.916 6.25417
-7.59242 106.562 -8.8383
28.0575 111.721 0.223986
14.6286 106.601 4.59634
14.3893 111.734 -7.99941
-15.1581 100.555 1.54014
-0.0778595 108.791 -9.29943
25.05 112.709 -3.65073
4.53773 102.602 8.54893
16.0392 112.4 -8.19903
-6.86773 106.903 -8.59605
14.594 106.947 4.54095
-15.2342 105.008 -8.64597
18.8966 107.576 5.74156
11.3888 105.817 5.54659
-12.1612 100.442 4.43458
27.8623 112.318 -0.192611
22.6702 107.544 8.37846
11.0337 105.701 5.92805
-17.1357 101.491 -0.803666
6.6443 110.735 -8.73173
-16.9263 101.44 -0.36063
30.2305 111.225 4.39109
21.4262 113.635 -6.70448
-5.57669 100.834 8.28272
-17.0539 101.633 -0.50976
15.588 112.944 -8.16374
-9.47966 100.841 6.14831
17.0645 113.356 -8.13231
-10.8168 106.835 -8.96718
11.6166 106.585 5.20642
-18.7446 103.12 -4.52819
-15.6365 101.641 0.936524
16.6502 108.051 4.83632
21.5921 108.114 7.67499
9.6969 105.324 7.29469
27.9998 109.12 9.10652
6.48593 111.086 -8.61457
-3.77602 101.574 8.30894
27.4531 108.777 9.66216
-9.41917 107.252 -8.78412
-16.417 104.804 -6.98984
12.3339 112.116 -7.39652
21.4365 114.294 -6.79199
12.3552 112.376 -7.52305
6.17557 104.395 8.31233
29.1721 110.314 7.86667
-0.0436476 110.16 -9.21315
11.8973 107.295 4.93644
-11.1682 107.202 -8.57824
15.0566 108.344 4.46261
25.8962 108.446 10.7541
-18.0818 103.724 -4.15796
-4.77021 108.633 -8.03759
26.0147 114.062 -2.65696
22.9784 114.447 -5.24506
-17.3009 104.987 -6.51452
3.47752 111.267 -9.15155
17.9679 109.107 5.05289
-17.2606 103.855 -3.38853
28.9604 113.267 1.62464
4.2076 111.698 -9.34185
19.5568 115.01 -8.06248
-16.4358 102.752 0.040403
18.1843 114.492 -7.53888
-10.3067 101.936 5.77743
9.5391 112.149 -7.01085
-17.4282 105.275 -6.5278
27.1518 114.036 -0.914369
13.6873 113.593 -7.86309
17.2421 109.327 4.72848
2.55151 104.147 8.45889
-17.4387 104.233 -3.76808
6.85677 105.225 8.46102
-9.82676 108 -8.28485
15.2421 113.97 -7.61033
23.0829 114.893 -5.00107
29.1663 111.509 6.88675
20.7656 115.321 -7.40305
-15.8915 102.905 0.73658
13.7943 108.854 4.19048
15.6571 109.268 4.36219
-15.6133 106.651 -8.06925
16.2811 114.465 -7.57771
28.5845 114.081 0.991932
16.2458 114.591 -7.46425
25.8711 114.742 -1.98479
29.6871 112.781 5.07473
-1.15439 110.667 -8.21513
28.1411 110.974 8.77215
-10.4903 108.511 -8.45896
-15.2482 107.474 -8.66307
29.3334 112.563 5.83758
18.3837 115.642 -8.19778
-12.6232 108.1 -8.53928
-17.1389 104.75 -2.91661
17.0141 110.164 4.51963
10.8138 108.132 5.81304
-7.24339 102.753 8.12916
15.3088 110.014 4.15504
-7.26869 102.783 8.1197
29.4656 114.026 2.96358
-3.36999 110.128 -7.33659
21.0316 115.928 -6.7134
18.6719 116.092 -8.52524
7.74029 112.783 -7.05802
28.2135 111.683 8.16948
-7.40957 102.897 8.05927
22.8149 110.009 9.11453
-4.57628 103.526 8.36063
10.6629 108.296 5.97074
1.02416 105.073 8.06219
20.7312 116.169 -6.97165
19.4663 110.484 6.09245
20.7078 116.192 -6.98979
-9.88449 109.459 -8.9492
23.4717 110.118 9.57914
29.334 114.342 2.87645
-13.5819 103.401 3.59962
26.5816 115.189 -0.805342
-9.43372 103.204 6.67077
-14.2083 103.471 3.2384
9.55289 107.688 7.32694
28.544 115.026 0.993164
29.1929 113.06 6.20478
0.588546 112.195 -8.80958
25.5188 115.329 -1.38308
17.8704 116.248 -8.17399
10.9654 114.245 -7.4235
11.5414 114.54 -7.7404
17.5877 110.949 4.62308
19.2609 116.537 -7.84629
18.5911 116.752 -8.68496
16.1737 110.89 4.17824
-4.85335 103.979 8.37603
-10.3493 109.845 -9.15932
-10.7854 103.754 5.56896
-4.01906 104.361 8.21552
-8.49692 110.364 -8.96201
-15.8144 104.514 0.84395
19.7257 116.33 -6.01375
-10.9661 110.075 -9.23782
17.7398 117.097 -8.89873
-3.21146 104.967 7.93297
-17.8804 105.91 -3.16351
-6.22895 103.971 8.58094
20.2751 116.246 -5.19672
-15.7334 104.863 0.746176
-1.10482 112.032 -7.83934
17.7784 111.562 4.68589
0.657844 112.93 -8.81066
28.7503 113.48 6.80644
19.8555 116.377 -5.54384
29.1331 114.132 5.5736
25.9862 111.432 10.2373
10.3612 109.222 6.24516
23.0231 111.17 9.3266
-0.38398 106.083 7.78322
29.2602 114.702 4.80868
27.9246 113.202 7.6469
17.0847 116.863 -7.65967
-0.413154 106.184 7.79257
-18.4616 106.357 -3.33274
15.0777 111.721 3.88451
22.9938 111.462 9.31471
-10.436 110.865 -9.29402
-17.7337 108.143 -7.07469
20.2817 111.921 6.66984
13.4676 115.969 -7.20692
-4.42179 105.135 8.34596
7.61816 107.94 8.81358
22.5917 116.491 -2.79655
-13.7094 104.765 3.94567
26.9018 112.726 9.09116
-15.762 106.148 -0.495132
28.1312 116.151 1.77243
12.9627 116.157 -7.33627
20.2754 116.758 -4.29239
0.208479 106.751 7.94332
-18.2826 108.154 -6.39121
19.606 112.503 5.91199
-6.29393 111.897 -8.05567
13.7554 111.992 3.79812
15.5692 116.905 -6.98037
26.1668 116.206 1.12993
15.6251 117.066 -7.29217
7.56996 108.451 8.81921
-14.8068 105.719 2.04163
-18.6351 107.035 -3.34556
-9.96898 111.528 -9.00788
-0.874786 113.213 -7.57378
28.8019 115.31 5.341
11.0508 110.911 5.33425
-7.40002 105.114 8.43934
26.7453 116.381 1.66422
-17.2471 106.969 -1.93046
21.9988 112.565 8.12691
-8.70636 105.152 7.7319
-9.83688 105.272 6.82047
-17.81 109.082 -7.2126
-4.29144 112.346 -6.93074
11.8666 111.598 4.61117
-18.4308 108.472 -5.96916
-17.008 109.64 -7.92549
25.5248 112.793 10.1609
-18.7687 108.111 -5.07419
25.5339 112.846 10.1522
-11.3983 111.819 -9.37566
-15.6389 107.279 -0.904332
8.369 115.767 -7.04207
3.90994 108.037 9.03901
6.33871 115.141 -6.71417
6.29439 108.619 9.09123
1.41456 114.812 -8.57862
27.7991 116.963 2.17853
-15.6471 107.412 -0.787397
8.97478 116.191 -7.19212
19.8418 117.701 -4.31093
11.86 112.06 4.58573
-18.6423 107.804 -3.38562
10.8045 111.364 5.7569
7.58284 109.338 8.74102
23.7288 116.944 0.0115746
10.0247 116.65 -7.38126
22.3565 113.269 8.48569
1.40779 115.084 -8.50952
-14.3195 111.45 -9.12963
-15.5961 111.017 -8.75927
12.596 117.295 -7.00118
-18.4947 109.034 -5.6726
-8.171 112.671 -8.26053
20.1823 117.556 -3.02463
-13.0363 106.156 4.64468
-2.49426 113.568 -6.54421
8.4383 110.145 8.42791
25.2954 117.581 0.604729
28.2849 117.555 2.57008
-12.5957 106.382 5.10339
1.23058 108.388 8.58629
15.5863 119.321 -9.2421
23.1205 117.803 -1.01996
6.20664 115.983 -6.67076
2.61656 108.678 8.96765
4.46323 109.071 9.16882
24.2308 118.446 -1.50972
26.733 114.818 8.81229
4.48858 116.223 -7.98808
3.95649 109.031 9.14643
16.2159 119.429 -8.64675
24.4337 118.577 -1.62159
19.4704 114.391 5.55116
-7.13732 106.506 8.85273
22.8302 118.708 -2.67766
3.6408 109.093 9.11928
-6.52155 106.714 8.7774
9.07688 117.268 -7.21199
20.4349 114.402 6.5818
23.6642 113.934 9.74241
15.902 119.746 -9.02653
27.2622 115.647 7.77738
26.1503 118.061 1.34342
13.8716 114.157 3.49602
26.4274 117.846 2.11816
-18.5179 109.92 -5.57675
19.9371 118.502 -3.1444
22.2805 114.38 8.32992
-12.9647 107.761 3.25481
17.29 115.038 4.08574
-0.257789 109.103 8.15576
7.26956 117.257 -7.08001
-18.433 110.395 -5.78854
24.8209 119.386 -1.54112
14.9482 119.671 -8.03029
-13.6382 108.571 1.76282
-0.672951 115.447 -7.11331
-17.4352 108.679 -0.772665
21.7339 114.82 7.93244
-5.38074 114.188 -6.7534
11.2571 118.472 -7.10303
6.15372 117.095 -6.74814
29.0168 122.756 -6.6321
-8.10448 107.319 8.49581
25.0365 115.05 9.76871
20.9838 119.676 -3.82072
24.7939 119.221 -0.318685
15.3092 120.539 -9.1544
-17.1731 111.8 -7.47044
-0.26493 115.963 -7.37807
-6.79014 114.375 -7.34076
4.9377 117.234 -7.02954
-8.36786 107.592 8.44954
21.7069 120.141 -3.78531
21.9612 122.399 -9.10997
-3.96808 114.73 -6.06337
29.7023 123.185 -6.30241
-18.3158 111.183 -6.08616
11.0058 113.852 5.16236
8.99754 112.244 7.9434
27.6846 118.705 3.53528
-18.7406 109.875 -2.97439
26.5488 123.124 -7.80414
13.6097 119.512 -6.75965
15.8492 115.874 3.44853
24.2102 120.377 -2.39808
26.4574 119.299 1.6002
27.9777 118.188 5.26987
-1.01302 115.906 -6.62817
17.4082 120.687 -7.09845
-19.0285 110.453 -4.18375
-12.368 108.261 5.26217
16.8282 120.974 -7.92958
27.7419 118.615 4.41273
9.93646 113.046 7.21436
10.1312 113.252 6.837
-18.5549 109.857 -2.17802
-6.5396 108.3 8.8972
-13.9301 109.446 1.67882
26.6101 123.102 -7.03003
25.0856 124.151 -10.4718
-1.54998 109.954 7.96907
-2.61433 115.424 -5.93639
26.9792 117.42 7.05299
21.2587 115.722 7.75772
19.1068 116.175 5.41832
-12.4657 108.746 4.45005
12.6262 115.351 3.62672
-12.7131 109.241 3.5564
12.3586 115.426 3.69278
21.4742 116.008 8.05438
27.6548 123.12 -5.47621
-10.5953 115.058 -8.90134
14.0323 120.298 -6.76688
-17.278 109.823 -0.110709
20.3225 116.295 6.93547
-2.81784 115.826 -5.82408
14.5487 121.554 -9.19303
-4.33261 115.533 -5.93625
-12.2724 114.731 -8.68019
-10.2698 108.503 7.73115
-11.3484 108.749 6.53223
24.6272 122.505 -5.13965
-12.6065 109.68 3.73043
1.29439 117.877 -7.78048
-8.53088 108.673 8.70119
26.3343 124.889 -9.54903
-0.21256 117.214 -6.88367
22.8439 121.675 -3.787
4.0988 118.625 -7.66259
24.0889 123.577 -7.58746
22.1738 116.353 8.81616
-5.7266 115.703 -6.37238
24.9877 123.639 -7.12199
26.9433 118.406 6.83306
24.8488 123.836 -7.60358
-18.7382 110.81 -2.22073
24.1255 122.673 -5.18869
24.0037 124.78 -10.3169
24.8292 120.839 -0.252222
-0.717333 111.155 8.07618
-12.7995 110.152 3.27832
-18.79 111.03 -2.38534
5.00378 118.696 -6.49107
24.8803 123.738 -6.73204
19.9105 121.606 -4.51813
24.7881 123.574 -6.34136
20.1278 123.324 -8.45217
19.1728 117.324 5.68725
-8.51529 116.015 -7.79951
6.14903 119.1 -6.29423
26.5145 120.334 3.02114
27.3343 119.512 5.51616
9.47978 114.188 7.68853
18.8155 121.569 -4.32237
11.2043 115.93 4.91351
18.8367 121.671 -4.39113
25.5441 125.329 -9.08893
6.8895 119.486 -6.13721
20.7684 124.262 -9.34524
30.2047 124.856 -5.07544
-17.6999 110.896 -0.0371713
16.9538 118.083 3.46198
25.0339 122.419 -2.03523
6.64543 119.544 -6.12624
11.4742 121.001 -6.74691
19.5652 123.603 -8.1353
11.2048 120.914 -6.61843
-11.268 109.952 6.45405
24.6423 122.602 -2.57989
23.8383 117.408 9.55528
17.3496 122.384 -6.25059
7.82258 113.873 8.66614
27.8305 126.994 -11.0196
24.5255 117.67 9.64649
-18.8622 111.802 -2.21109
-16.429 114.772 -7.89473
20.1206 124.299 -9.00472
22.0693 122.667 -3.86384
24.7542 120.846 2.21643
13.7472 117.759 3.13348
-7.06048 116.82 -7.09394
-18.7236 113.059 -4.96457
20.341 123.426 -6.57905
-3.25011 117.124 -5.46274
4.00537 119.755 -7.4652
28.4125 124.295 -3.7833
29.3791 126.576 -8.70514
-16.5865 114.829 -7.83255
4.73725 113.008 9.45661
25.8814 120.797 3.36526
23.0941 123.646 -5.21238
5.80269 113.384 9.33115
19.8076 123.748 -7.35361
31.0994 126.771 -7.77504
23.2 123.404 -4.3251
-4.34635 117.045 -5.46042
-17.9507 111.538 -0.251984
3.75486 113.006 9.50098
5.63117 119.98 -6.28952
25.8903 119.153 7.97662
32.6829 125.746 -3.92429
25.4001 126.066 -9.07895
8.42805 114.689 8.31376
17.1511 123.586 -7.97088
25.7829 126.299 -9.2922
17.0695 122.819 -6.02063
-12.2911 111.095 4.78508
-11.7203 110.817 5.82989
-5.76109 111.299 8.27151
14.6129 123.323 -8.60401
-3.8932 111.721 8.41121
-11.0032 110.807 6.50829
-18.6867 113.567 -4.76842
21.7173 123.772 -5.19275
13.8597 118.462 3.06368
21.6847 123.799 -5.13343
21.3962 123.927 -5.61106
23.8576 123.4 -2.84887
26.7192 120.927 4.94435
22.1826 123.624 -4.11578
13.2743 123.45 -9.02489
28.3335 124.802 -3.21739
26.4487 127.164 -10.0823
16.6045 124.107 -8.56927
23.9261 123.647 -2.90162
-18.4666 114.047 -4.94039
18.8388 124.44 -7.68669
27.7555 127.215 -9.02143
31.6821 127.144 -6.39051
-4.72335 112.054 8.32725
12.123 122.361 -6.34477
30.5996 127.678 -8.10198
22.4659 124.233 -4.63494
24.962 121.427 3.69716
21.2148 124.68 -6.42273
-18.3012 112.492 -0.542215
24.8799 123.904 -2.23027
25.0499 122.826 0.568781
-13.6169 112.393 2.61443
16.7862 124.044 -7.31555
-12.4324 112.073 4.22303
-18.3732 114.471 -5.15201
7.95366 120.996 -5.09944
25.2435 123.865 -1.65016
0.57585 113.434 8.83024
-15.3795 116.439 -8.01805
29.7176 128.036 -8.81682
12.9679 123.974 -9.00048
19.7 124.476 -6.13048
-10.1721 117.918 -8.18489
-14.9066 116.65 -7.94652
-11.613 117.663 -8.33063
29.3243 126.025 -3.9578
16.5529 124.558 -8.02868
29.162 125.922 -3.66632
16.6389 124.232 -7.05791
30.4539 128.12 -8.17122
22.0929 124.167 -3.61172
19.0899 119.496 5.99943
-18.0065 113.773 -2.3744
19.8933 125.079 -6.97572
26.3393 124.634 -1.96624
30.8178 126.931 -4.81533
11.1067 117.993 5.01946
-7.75203 111.73 8.87353
20.3194 124.71 -5.69877
26.2008 121.064 6.69814
9.71222 116.696 7.41847
-16.3515 112.776 1.28974
-14.4704 112.815 2.37368
-9.73872 111.51 8.46487
16.5307 124.415 -6.97023
-10.1131 111.691 7.94755
-13.0525 112.897 3.31189
25.0372 124.39 -1.58877
-12.5307 112.989 3.58423
19.2434 124.516 -5.23497
-5.0112 112.994 8.13851
16.2749 124.971 -8.06838
18.8508 124.545 -5.45101
-17.0748 116.389 -7.28194
25.8001 120.893 7.62953
24.3481 124.597 -2.20437
13.9499 124.961 -9.33885
-9.52993 118.523 -7.83713
-17.0515 116.439 -7.29971
20.0906 119.679 7.29621
-13.3385 117.658 -7.9258
10.1331 117.485 6.65096
18.3381 125.172 -7.05212
-11.5181 118.288 -8.30053
-13.7669 117.531 -7.80346
31.895 126.858 -2.92067
24.5492 120.172 8.92445
22.3241 124.905 -3.78916
24.5921 120.257 8.86043
18.9063 125.543 -7.3872
24.7444 123.165 1.90403
-17.6649 114.923 -3.52906
-4.60077 113.415 8.07218
-11.5764 112.791 5.44563
6.19388 115.696 9.16661
10.7623 123.457 -6.87477
-17.9244 114.114 -1.42715
18.2266 125.445 -7.10616
11.2242 124.188 -8.21085
5.38378 115.488 9.39939
-14.2952 113.228 3.0782
29.2636 126.779 -3.45204
10.0133 122.832 -5.43904
-7.03175 112.826 8.59342
27.9762 125.92 -2.0438
26.0663 121.944 6.51721
-14.8527 117.631 -7.63609
14.6041 125.745 -9.47161
-17.7967 114.374 -1.37568
21.7773 127.457 -9.17571
8.56369 117.054 8.25132
2.423 121.719 -6.74814
-12.0254 113.429 4.67925
15.178 126.022 -9.43422
28.8569 126.648 -2.69042
27.7047 130.022 -11.4793
9.60104 122.818 -4.89487
5.70185 116.039 9.26754
30.9262 127.053 -2.18095
7.66249 116.867 8.60918
-17.6051 116.118 -4.75578
22.9645 120.396 9.29539
-5.20847 119.466 -5.39134
25.2296 125.333 -1.18147
21.1637 120.284 8.65288
25.699 125.39 -0.936493
27.5014 130.159 -11.2556
16.1302 121.527 2.97861
3.58953 115.842 9.26833
23.5905 120.934 9.00257
31.1067 127.474 -2.26142
-17.3465 117.362 -6.87558
-0.644244 115.052 8.90105
15.6401 126.586 -9.27195
-4.75156 114.447 7.96084
-0.272617 115.093 9.09559
-12.0041 119.294 -8.15616
19.4914 120.956 6.79368
-15.1155 113.905 3.09316
4.13649 116.156 9.23009
-7.83871 113.249 9.14433
11.0572 119.592 5.14025
22.8156 126.186 -3.74302
18.0643 126.391 -6.97701
24.6003 123.072 5.225
-9.20353 119.77 -7.00656
24.4498 125.716 -1.10742
15.4995 126.94 -9.40321
25.3134 124.983 1.26073
27.8209 130.515 -10.5454
-10.793 113.944 6.48529
24.5426 122.001 8.33838
-17.3478 115.863 -1.94233
3.09622 116.466 8.95072
-17.3581 117.262 -5.26662
-13.1223 114.176 4.81155
5.05523 117.002 9.08615
26.6542 130.408 -10.4038
8.18296 123.473 -4.66233
-1.42641 121.123 -4.70605
27.4316 130.086 -9.00534
30.7109 128.776 -3.7936
12.4972 126.481 -9.17672
18.7009 122.096 5.28127
-10.324 120.239 -7.67575
20.4428 128.471 -9.03535
17.8714 126.8 -6.51959
-1.97734 121.083 -4.54575
21.2399 128.574 -8.74
21.4114 127.18 -5.15733
29.1093 130.646 -8.71758
15.2487 127.535 -9.51327
24.8095 124.423 3.79587
25.5818 130.056 -9.32046
24.6106 123.708 5.56127
23.1274 125.972 -0.783319
6.41737 117.82 8.94816
-16.3852 118.573 -6.57794
9.50129 124.311 -4.87867
22.9354 125.927 -0.709935
-1.77372 121.399 -4.52624
-5.8993 115.238 7.95332
12.4326 121.799 3.09645
30.5715 128.338 -1.73865
-16.1035 118.046 -4.86643
25.3821 126.033 0.78602
16.2264 126.792 -6.55652
-4.5535 115.621 8.09722
18.129 126.485 -4.59931
30.6078 129.217 -3.68811
25.1605 126.944 -1.36786
10.8564 120.698 5.28837
22.5364 126.214 -1.03761
27.6791 130.758 -8.95984
17.1947 127.64 -7.67787
-15.9539 118.587 -5.65715
0.629989 122.563 -5.19099
27.2522 127.238 -0.484591
17.5958 127.344 -6.54366
3.69932 117.808 8.33189
15.0881 128.03 -9.49719
18.8713 122.683 5.75758
-6.396 115.409 8.30337
25.1891 127.304 -1.53576
10.2296 125.981 -7.3049
1.93291 117.349 8.66886
17.4136 127.674 -7.04664
15.342 128.118 -9.29106
24.6804 123.497 7.55701
6.60493 118.541 8.82192
15.9084 128.172 -8.88246
-3.0508 121.695 -4.55921
8.8716 124.695 -4.60841
23.6585 126.784 -0.712146
12.0354 127.341 -9.05232
22.5688 129.512 -7.81767
28.3852 128.325 -1.36767
10.7206 121.149 5.44237
23.6183 126.9 -0.658453
5.90877 118.645 8.71239
-18.5835 117.145 -2.31387
17.15 123.718 3.27249
17.6426 123.713 3.58872
29.8887 131.236 -7.18678
2.14637 117.935 8.3968
-12.4936 115.186 6.2735
28.4859 131.558 -8.66464
-15.5588 120.185 -7.33523
10.7143 127.077 -8.13827
4.9202 124.489 -5.33493
21.7635 126.617 -0.314664
-16.1528 115.841 3.0757
-15.6302 119.134 -4.58899
24.415 127.839 -1.57365
-2.21109 116.964 8.78477
9.46066 126.024 -6.09528
23.3522 127.531 -1.38429
27.4756 132.022 -9.79489
17.2301 128.065 -6.23139
25.8163 131.347 -8.95416
5.93052 119.207 8.55776
16.2686 128.77 -8.42076
23.9165 130.343 -7.62113
-17.9197 117.694 -2.07862
13.8049 128.776 -9.8611
-15.9377 119.593 -5.46259
21.4605 127.072 -1.07455
-17.9148 116.285 1.42956
16.7601 128.276 -6.73789
-16.5768 118.302 -2.59032
22.4813 127.058 -0.30365
-7.49937 115.702 9.2125
28.6467 128.91 -0.965801
-5.57342 116.733 7.98359
3.64638 124.742 -5.89328
-12.1952 115.631 6.68395
6.98668 119.672 8.53501
19.281 123.551 6.6204
-17.0263 117.31 -0.0607478
2.4465 118.792 8.07178
-14.7328 116.157 4.28551
21.4718 127.099 -0.399357
17.2152 127.631 -4.17252
17.2464 127.546 -3.86162
-1.97542 117.628 8.67794
-7.20453 116.193 9.05663
24.8711 128.158 -0.662732
25.0416 128.59 -1.58915
24.9862 127.357 1.4653
-0.034778 118.088 8.91427
19.0235 123.916 6.26362
-7.96357 122.387 -6.16561
16.1079 128.787 -7.05735
1.23458 124.281 -5.07638
15.969 129.411 -8.54641
24.1707 130.986 -7.42726
21.9002 127.502 -0.328838
29.3578 130.89 -4.05152
-20.1115 118.248 -3.11165
-15.8132 119.853 -4.38401
20.2903 128.726 -4.15904
20.5357 123.676 8.28334
-15.4415 119.75 -3.84383
8.69715 126.049 -4.57173
28.3845 132.8 -9.08822
29.2413 131.027 -4.22429
12.4144 128.846 -9.05589
-15.87 120.712 -6.33807
28.5399 129.104 0.0622954
-19.5229 117.739 -1.29397
25.6428 128.329 0.21227
-12.5761 116.151 6.8296
29.3954 130.87 -3.53541
20.1607 123.768 8.16595
24.8723 127.778 1.2888
29.1955 132.533 -7.56723
23.12 131.023 -7.44389
9.27719 121.442 7.5251
-16.1551 119.129 -2.01972
23.5789 128.846 -1.63135
-15.4767 120.641 -5.22293
7.5384 125.952 -4.19006
8.81355 121.238 8.02784
-17.0249 118.987 -2.05302
18.6651 129.439 -5.85225
17.3238 125.359 3.24573
-10.651 122.586 -6.83099
-17.2238 118.037 0.253502
-15.4383 120.204 -3.82371
-15.9976 117.052 3.49913
-17.403 119.325 -2.75195
-16.9829 118.306 0.00128863
0.301447 119.039 8.72006
-15.7011 120.068 -3.35595
21.0504 127.982 -0.280986
21.1008 128.046 -0.396713
24.138 131.821 -7.65781
-16.4967 120.446 -4.45346
23.5286 131.715 -7.66869
17.9522 128.144 -2.31974
17.8807 128.176 -2.36373
-20.2906 118.079 -0.835562
16.3898 129.45 -6.34073
18.3579 129.244 -4.65429
-20.675 118.689 -2.54233
4.97669 126.026 -4.80548
24.3574 128.306 1.34621
3.28227 125.871 -5.41808
19.3933 130.725 -7.47953
26.9822 133.474 -9.55128
23.8284 127.977 1.89204
24.1071 128.197 1.556
24.4319 128.414 1.24642
-20.2583 118.025 -0.326635
19.9562 128.071 -0.485172
-9.79145 116.877 8.77617
-15.9402 121.063 -5.07295
-9.09661 116.966 8.98989
-19.5139 117.96 0.367521
-17.1245 120.433 -4.17742
24.6511 129.666 -1.3307
23.697 127.484 3.39546
-15.9366 121.435 -5.7813
21.5401 131.57 -7.80094
-20.5096 118.164 -0.540347
-15.9873 120.454 -3.33674
4.55676 121.136 7.4405
20.8099 128.288 -0.0745188
10.5562 123.379 5.68412
23.5528 128.081 2.1092
24.6343 129.54 -0.770883
-16.0403 121.317 -5.28427
19.8999 130.22 -5.21971
3.32234 126.144 -5.30052
22.5166 125.87 7.03094
-5.03296 124.154 -5.38663
24.8985 129.468 -0.253908
-15.6237 117.405 4.68106
23.4405 127.877 2.79573
-16.5691 119.462 -0.850456
19.756 129.557 -3.40519
-16.5458 119.334 -0.417722
-15.5414 119.617 -0.485097
16.6004 130.607 -7.75898
28.4421 134.075 -8.98119
-13.5405 123.217 -7.80756
-17.0193 120.892 -4.14201
-12.1233 117.216 7.7504
-15.1546 121.864 -5.31645
18.5329 131.319 -7.93021
3.62661 121.496 6.93723
22.8361 127.176 4.73341
21.4218 129.182 -0.96986
2.6314 126.255 -5.08369
5.85716 126.703 -4.19398
-17.6127 119.448 -0.657106
-15.7376 120.231 -1.31622
17.2801 130.025 -5.19305
13.2029 125.838 2.52558
28.9427 133.515 -6.60226
29.2106 134.275 -8.28147
21.325 129.209 -0.68708
7.19584 122.092 8.09675
-20.6911 119.413 -2.16764
-17.2702 120.107 -1.77424
24.2834 129.986 -0.614919
-15.4306 122.085 -5.33568
-16.6841 119.72 -0.351213
29.1251 130.966 0.0360631
21.8244 125.756 8.30403
26.863 130.092 0.821615
22.668 128.216 3.10296
6.22616 122.126 8.00672
19.1565 130.145 -3.64308
20.8124 129.196 -0.305177
11.8288 124.995 4.50103
-16.0464 122.033 -5.06488
18.0753 129.305 -2.10214
23.9893 133.294 -8.22135
21.1567 129.402 -0.479006
-16.0241 120.559 -1.38722
7.10116 122.43 8.10638
12.4411 130.966 -9.37058
15.4871 130.417 -6.1774
-15.7563 118.347 4.30945
11.0029 130.18 -8.20174
23.9169 130.082 -0.181878
6.46303 122.401 7.96236
26.7939 134.115 -8.17877
24.9466 130.431 -0.348317
20.2622 131.392 -5.45751
20.1336 130.143 -2.41843
21.223 129.768 -0.814685
18.4799 126.914 4.52793
18.6913 126.854 4.83601
-14.7645 118.558 4.83265
-15.5181 122.935 -6.22313
-15.3074 122.844 -5.8318
19.2252 130.213 -2.87603
18.8105 130.4 -3.51737
14.9119 127.223 1.87155
13.5793 131.648 -9.63268
-15.0536 121.895 -3.20722
20.6642 129.631 -0.466134
6.87668 127.691 -4.01837
6.73144 122.757 7.89593
8.61148 123.168 8.08599
-18.6541 121.152 -3.39784
8.47609 128.768 -5.53024
-9.45071 125.083 -7.35376
16.9489 127.454 2.93195
-22.3115 119.018 -0.208719
-16.7473 118.792 3.73666
0.590025 126.423 -4.33803
20.5615 131.347 -4.23608
-15.162 122.877 -5.18021
-16.8408 120.916 -1.35077
-16.2201 121.546 -2.46651
6.85216 123.039 7.82091
18.6507 131.302 -4.94742
-21.9089 119.466 -0.631322
15.8631 131.072 -6.0181
-5.5752 119.748 8.57363
29.2011 132.378 -1.12249
-3.3803 120.584 7.95029
17.5917 127.674 3.37966
28.9905 135.146 -7.871
25.4294 134.055 -7.3301
-14.5912 123.748 -6.40869
5.71647 123.057 7.51599
12.9367 126.662 3.14578
-17.0315 119.592 2.26302
4.72538 123.063 6.98818
-22.8192 118.023 2.65814
19.3515 126.948 6.42033
10.1091 124.622 6.50145
-18.1633 120.307 -0.0374694
20.0662 133.272 -8.46394
-14.6634 123.578 -5.82729
16.7647 130.161 -2.7273
-15.4915 121.996 -2.29031
-12.5682 124.885 -7.52015
-18.48 119.502 2.00452
25.9481 131.147 0.539945
19.6782 130.573 -1.82309
-21.6017 117.865 4.18376
-12.704 119.115 6.5735
23.7398 134.243 -8.17176
-5.74775 125.787 -5.39103
28.8838 135.36 -7.76571
15.4382 132.296 -8.40203
-1.8657 121.215 8.07755
-18.241 119.678 1.97001
21.2999 127.826 6.11133
28.8631 135.067 -6.87665
14.7021 127.989 1.7728
0.309532 126.856 -4.03146
-14.2841 119.674 4.6347
-18.0131 120.617 0.101636
-15.6363 121.859 -1.4152
16.9353 131.008 -3.98526
-19.0202 119.018 3.54536
22.2884 129.136 3.90593
21.4429 128.48 5.00174
20.3606 131.666 -3.37538
-15.0592 122.603 -2.70088
22.5788 134.225 -8.19484
0.392224 127.008 -4.01315
-12.322 119.405 6.82621
4.77052 123.653 6.82234
-19.3359 118.788 4.12628
23.4112 130.104 2.43639
22.9455 130.311 1.68081
20.3698 131.604 -2.96827
-18.9988 118.938 4.09293
-18.2668 119.613 2.89464
-13.969 124.683 -6.77297
18.7491 133.515 -8.48721
27.9263 135.627 -8.08435
25.7003 131.599 0.388838
21.7401 128.907 4.57708
0.246804 121.918 8.59685
20.231 131.228 -1.93261
-12.3276 119.57 6.75692
-17.8358 120.078 2.33308
-19.6337 121.521 -2.24665
19.312 132.678 -5.8507
11.8589 126.505 4.64023
-9.57629 126.251 -7.62132
10.086 131.156 -7.67059
-20.265 118.907 3.85092
27.3211 135.746 -8.3421
-17.9876 120.301 1.8983
25.3375 134.682 -6.86074
17.186 132.987 -7.62399
22.6471 130.595 1.54719
-20.6288 117.268 7.83197
-15.8797 121.231 1.09536
26.7736 131.844 1.11396
1.96008 123.121 7.36121
23.0886 131.479 -0.175816
24.5562 131.794 -0.00347238
0.441265 127.431 -3.90616
15.8085 131.755 -5.05747
-14.8888 124.35 -5.5628
28.5926 135.514 -6.44165
2.78015 123.831 6.38109
19.0827 132.933 -5.85367
1.04516 127.744 -4.10992
-16.4001 122.625 -2.18425
15.6742 132.338 -6.4351
6.73438 124.433 7.37659
13.0952 132.94 -9.38576
24.1431 131.828 0.0278843
-14.6407 124.705 -5.9986
7.95163 130.237 -5.7829
3.33603 124.137 6.24929
26.0176 135.329 -7.21361
-6.63317 120.507 9.10115
12.4846 127.545 3.55704
17.617 131.929 -3.93902
-13.5056 125.23 -6.40157
-16.1634 122.855 -2.2368
-21.5237 120.712 -0.0546383
-19.5077 119.217 4.81385
13.0624 128.217 2.60223
-16.4779 120.78 2.89644
-15.7056 120.633 3.72573
-18.5645 120.553 2.23268
-23.003 118.424 4.83867
-22.7402 118.234 5.47903
18.1123 132.198 -3.76524
-14.5541 124.974 -5.88881
-15.9249 120.543 4.04056
-21.1396 119.299 3.93791
-21.1006 121.1 -0.404204
6.25417 124.762 7.19109
16.7787 131.883 -3.73882
17.8527 133.804 -7.72882
-18.7954 122.488 -2.05127
-12.9239 125.905 -6.76757
-15.6217 120.747 4.1771
0.688458 123.204 8.08034
-8.1938 120.504 9.36924
-16.7695 121.677 1.36891
-14.5868 125.098 -5.58718
0.0516722 122.911 8.54273
28.4903 134.077 -1.40091
14.0883 129.324 1.46184
20.024 134.869 -8.40422
-6.24348 127.197 -5.4845
-15.2762 124.728 -4.92253
21.216 135.115 -8.13568
-22.8191 118.77 5.02626
-15.4783 124.514 -4.46333
-14.001 125.889 -6.81405
-13.2929 126.165 -7.04163
12.881 128.693 2.59756
14.6057 134.055 -9.28216
-3.11959 122.342 8.47217
13.1097 128.945 2.30882
-8.31972 120.879 9.00405
-4.14499 127.513 -4.54618
-20.1439 122.222 -1.23865
3.3424 129.256 -4.09446
-15.8923 120.953 4.5044
-11.8396 120.74 7.46529
17.1351 133.778 -6.61644
-17.4086 121.733 1.81715
21.3799 135.477 -8.08989
14.8617 134.252 -8.94197
-21.1474 119.236 5.84621
-6.97764 127.606 -5.90873
-20.7026 118.113 8.91956
-15.4908 124.103 -2.46276
-7.90653 121.292 9.00143
-3.41573 127.816 -4.04928
7.62402 131.509 -6.35909
-3.92925 122.548 8.53566
-20.4283 119.771 5.35134
20.3974 129.21 7.08153
4.56934 125.518 6.58575
1.84817 124.868 6.60056
-18.3768 120.93 4.0623
11.8256 128.307 4.40482
-8.79565 122.007 7.31824
14.4474 134.757 -9.55801
16.8629 133.194 -4.21209
-2.70669 123.056 8.72153
0.492936 129.003 -3.69845
-11.9558 127.36 -7.17502
4.85692 125.815 6.74028
27.059 136.887 -6.70735
-13.2688 126.79 -6.41918
-3.36729 123.025 8.70159
21.7057 131.024 4.46289
-7.81662 128.241 -6.51919
-13.4491 126.808 -6.29835
-12.6122 127.754 -7.96792
28.1788 135.129 -1.2783
12.5958 134.414 -8.90989
15.6236 133.723 -5.34424
23.5137 136.7 -7.77192
-21.281 118.401 9.72521
21.3623 131.085 4.69616
-10.2208 122.425 6.70002
8.45044 126.732 7.5021
11.1274 133.866 -8.14703
-18.9711 120.277 6.71265
-11.3725 128.48 -8.57078
27.892 136.095 -3.33541
18.0439 135.641 -8.09889
12.4071 129.744 2.82736
-23.3906 118.439 8.81592
-21.9226 118.746 9.02315
-12.7019 121.931 6.85556
13.7931 130.699 1.5648
15.7643 134.069 -5.40952
13.1848 135.062 -9.33372
-0.848032 129.125 -3.31747
1.54629 125.777 6.27399
-23.9835 118.926 7.62609
14.6487 135.664 -9.71564
-22.5335 120.191 5.44182
2.05349 130.141 -3.87421
22.5676 133.128 1.26604
-19.2019 120.753 6.17239
-13.914 126.967 -5.70747
25.8484 134.262 0.541669
-18.8636 121.392 5.01527
21.2612 131.695 4.24609
-23.0477 118.764 9.02767
6.26249 131.513 -4.21983
16.6243 134.162 -4.39244
-16.6808 124.825 -1.70488
18.3062 130.361 5.93595
-20.6337 119.981 7.73342
-10.7105 129.186 -8.44294
-22.3228 118.558 10.3804
24.9774 137.351 -6.57216
18.8055 130.316 6.78312
4.92852 131.194 -3.66156
17.211 135.328 -6.23224
-22.5401 118.605 10.4561
-2.93799 124.617 7.67353
26.0951 134.934 0.131623
23.5397 137.524 -7.64777
-12.2778 122.858 6.41944
12.2009 135.29 -8.85834
9.92422 134.167 -7.45825
-17.0248 125.167 -1.79195
2.3842 126.843 5.85368
-16.6443 121.81 6.65435
15.6373 136.354 -9.15733
-14.9663 122.519 6.03001
-13.9234 123.18 5.0827
16.9139 135.187 -5.4512
9.78926 128.485 6.54099
-8.03 123.761 7.31031
12.1833 135.45 -8.87749
25.3939 137.778 -6.47739
-13.9693 123.287 4.99767
-18.659 121.169 7.37596
0.284186 126.41 6.17095
-4.96439 124.565 7.50316
20.8292 132.331 4.20547
14.2142 131.929 1.25756
18.8003 137.134 -8.53579
-5.77866 124.024 8.47825
-18.5663 121.905 6.0014
-4.53227 124.971 7.03117
-15.5644 122.692 5.98187
-8.00351 124.133 7.06694
25.4821 138.049 -6.49085
26.777 135.894 -0.394849
-9.94783 130.053 -8.21524
17.4823 135.91 -5.82771
-1.79953 129.978 -3.0268
12.6986 136.195 -9.27982
-0.286787 126.66 6.06015
-15.8493 126.527 -2.97071
17.6133 132.029 3.836
-2.75344 125.706 6.91934
-6.16335 130.208 -6.04428
-11.5562 129.656 -7.93928
-10.8496 124.412 5.23772
-21.1309 123.847 0.480219
9.70469 129.081 6.38857
-15.7266 126.623 -2.95782
-2.2785 125.778 7.19535
21.4658 133.29 3.33773
-23.1038 122.398 3.06883
-14.9356 122.808 6.99976
-17.52 121.599 8.3874
-16.0999 126.251 -2.04374
-18.3396 120.985 9.44309
22.0048 133.723 2.83293
-19.7015 120.287 10.345
0.902175 127.335 5.70566
0.226829 127.189 5.65769
-20.495 120.041 10.5847
7.52639 128.284 7.58944
-15.4292 123.036 6.64134
16.9241 136.198 -5.79645
20.1648 132.567 4.98575
-15.3593 123.274 6.18498
-20.6954 119.774 11.5376
-19.3603 120.52 10.5786
-19.1492 120.692 10.3515
-13.4668 123.782 6.30196
12.8144 132.153 1.83242
2.36198 127.823 6.08016
16.7024 136.33 -5.91141
24.037 138.697 -7.18717
-17.3594 122.521 7.16416
9.65747 129.615 6.2426
17.3794 132.647 3.5611
-4.48464 130.682 -4.81441
3.47193 131.949 -2.98313
17.5966 137.214 -7.18727
-10.3841 125.419 4.58977
2.19173 131.761 -3.21443
17.7704 132.637 4.04577
17.8472 137.198 -6.9658
-18.3795 121.287 9.84619
14.9325 137.466 -9.34962
-13.4133 124.357 5.40004
-14.3328 123.503 7.04067
-15.8139 122.781 7.92995
18.9912 132.014 6.48223
17.2378 137.37 -7.52911
-8.73413 125.724 5.10937
-4.01007 126.443 6.27476
-6.41273 131.007 -6.22773
-16.8777 127.037 -2.89235
-7.41554 131.074 -6.95129
17.8158 137.285 -6.79743
-20.4203 125.633 -1.54094
-21.232 124.692 0.283665
9.54776 135.592 -7.53664
21.5404 138.728 -7.87839
-13.3307 124.259 6.28953
-7.23685 125.547 6.89046
-13.6089 124.227 6.2945
-13.1061 124.435 6.14288
-15.329 127.291 -1.92276
14.7401 133.491 1.2789
11.7183 131.615 4.01608
-15.7946 127.7 -3.04017
-22.1203 124.421 1.25136
8.84024 135.735 -7.43085
17.8433 132.511 5.88356
17.1851 133.438 3.28948
12.0129 132.581 2.27155
3.3629 128.696 6.53011
-12.3922 125.341 5.23086
17.5832 133.237 4.12511
24.713 136.508 0.50103
-3.84954 127.257 5.80946
-0.0954587 128.373 5.40194
-1.82328 131.425 -3.02473
-8.95479 131.961 -8.47369
21.8527 139.304 -7.7015
17.0344 133.66 3.09608
-10.8302 131.089 -7.43498
-17.5421 127.648 -3.07146
-12.5225 125.612 4.91524
-20.8222 125.887 -0.732084
21.3444 139.259 -7.78989
-9.63938 131.687 -8.05374
-8.61604 131.988 -8.16808
-3.30031 131.597 -3.9996
-18.103 127.423 -2.77877
-14.906 127.687 -1.36957
-1.7587 127.664 6.69962
-20.6897 126.292 -1.36323
20.2375 134.122 4.3018
2.16589 128.856 6.24205
13.5153 138.178 -9.53809
22.1164 135.473 2.26997
8.58336 130.403 6.43149
-19.6951 121.536 11.0506
-2.78154 131.791 -3.61849
0.766902 132.422 -2.98106
-19.3808 121.793 10.7127
16.5246 137.632 -6.02452
9.60999 136.708 -7.66458
16.8269 137.627 -5.54572
-1.95768 127.95 6.66089
-10.4744 131.564 -7.22165
27.2851 139.069 -2.66136
-21.7868 125.208 1.53049
3.83111 129.448 6.79788
16.9821 138.365 -6.87407
3.56438 133.544 -3.1756
-2.11556 132.188 -3.19999
-22.7145 124.317 3.56504
11.0228 132.334 4.51119
-9.08392 132.501 -7.96452
17.4138 137.816 -4.87926
27.136 139.299 -2.58873
-6.54505 127.432 5.95312
-11.7909 125.979 6.34863
3.62996 129.679 6.6858
4.97285 129.845 7.09669
-11.268 131.279 -6.09703
-15.052 128.631 -1.94297
17.5527 133.842 5.10101
13.8792 138.793 -8.9767
25.6425 138.103 -0.154889
10.8376 132.264 5.10368
-20.3403 127.278 -1.52276
20.2863 139.785 -7.40218
19.0273 134.291 5.18256
17.535 138.702 -6.41265
-10.7822 126.588 6.08446
-2.23143 128.646 6.24129
-20.0808 127.518 -1.73306
2.39538 133.472 -2.58158
23.1152 137.089 1.21242
-22.6674 122.418 9.29348
5.91779 130.381 7.19509
9.05829 137.282 -7.63442
3.17604 130.113 6.23183
-6.25988 132.888 -6.13399
16.2511 138.214 -5.43844
18.5784 139.629 -7.45206
-15.9157 124.578 8.37747
6.36797 130.576 7.24772
-1.90818 129.492 4.92785
21.4014 140.337 -7.34569
-11.7609 126.497 6.29235
-1.74815 129.758 4.43799
22.4454 136.979 1.65864
-3.33014 128.944 5.77506
24.9891 140.59 -5.28042
21.4141 136.424 2.72942
13.537 134.997 1.4681
-22.9344 123.442 7.58495
-10.9325 131.952 -5.78013
17.4527 134.365 5.52746
22.278 137.143 1.73775
11.5441 139.018 -9.22357
-10.5921 127.266 6.02046
-9.44608 132.934 -6.92346
-20.8866 126.725 1.26536
-12.0157 131.309 -4.39329
5.78361 131.032 7.05204
15.2834 135.685 1.48257
3.3942 134.656 -3.07461
14.1643 135.667 1.19987
10.171 133.035 5.18313
-16.8641 129.331 -2.05895
-0.813729 133.558 -2.53677
-10.199 127.696 6.03785
2.71339 131.161 5.4486
2.11783 131.1 5.24163
19.241 135.479 5.23111
-21.637 123.178 10.4768
-22.6029 124.117 7.73239
-21.8139 123.317 10.1615
-9.90872 133.114 -6.38324
-21.4426 126.238 3.48612
-19.9568 128.337 -0.607587
20.8616 137.138 2.74271
11.1732 134.717 2.8001
1.06389 131.509 4.65662
-14.3469 126.081 8.57483
-9.67023 128.369 5.9246
-22.2943 125.267 5.89119
-22.6046 124.366 8.03649
1.05518 131.674 4.62902
-22.2546 125.565 5.52899
-20.9595 126.986 2.87246
-15.246 130.362 -1.7483
15.8862 139.74 -5.73784
-11.3292 128.091 6.16951
-17.789 125.52 8.53915
26.9504 141.641 -3.64151
-14.5172 130.48 -1.5018
5.91327 132.256 6.57762
12.9128 136.268 1.18011
6.66125 137.971 -6.61097
0.801205 131.939 4.55964
-16.34 130.615 -2.49201
-21.3714 126.646 4.1554
2.13432 132.264 4.7557
-8.72585 134.772 -7.62573
11.359 140.332 -8.99729
8.5116 133.129 6.76965
4.33517 136.622 -4.20441
4.21785 132.645 5.4169
-5.15003 134.887 -5.6175
-7.60979 129.852 5.12443
12.8533 136.606 1.15106
19.4668 141.501 -6.72438
-20.6738 124.549 10.3959
11.7061 136.184 1.68252
5.91746 137.876 -5.83091
-17.8697 126.136 8.34006
26.7384 142.153 -3.62565
-15.498 126.744 8.38146
12.9113 136.784 1.14561
-4.02534 131.475 3.86584
10.5505 135.35 3.2701
17.6209 140.961 -6.03106
-0.800535 132.066 4.50799
5.07473 137.517 -5.1575
-4.93481 131.268 4.04404
-14.4607 127.122 8.4447
-7.78151 135.403 -7.56996
14.2954 140.958 -7.68363
-2.65635 135.014 -3.2146
-20.0538 128.843 1.30728
22.4653 142.579 -6.36771
6.53092 138.731 -6.53837
2.14769 135.99 -2.4962
7.80991 133.639 6.62128
11.5837 136.623 1.74224
6.40762 133.312 6.66205
25.8495 141.407 -1.27094
-4.45196 135.313 -4.68474
-9.1449 135.168 -7.04913
-15.198 127.354 8.3318
-0.70704 135.397 -2.44458
8.04092 139.838 -7.87098
-4.69889 131.966 3.59971
20.8508 138.545 3.07512
-19.4513 125.708 9.99543
-14.2946 131.778 -1.62794
12.986 137.375 1.22518
16.7926 137.08 4.34675
-17.2177 127.263 7.76617
-12.6432 133.059 -3.52265
6.03887 133.678 6.39603
10.7757 141.03 -8.57825
-10.6711 134.758 -6.04321
10.1564 135.433 4.94494
9.76985 140.83 -8.32209
21.2313 139.046 2.94854
10.6059 136.534 2.66836
-11.669 134.093 -4.79571
-19.5964 130.107 0.131506
17.0664 137.339 4.67849
19.4516 138.31 3.75993
-22.2855 126.062 8.40946
-20.0171 129.549 1.42246
-2.06327 133.082 3.77603
-4.17109 132.841 3.11975
0.226903 133.447 4.30171
-5.5178 132.317 3.64167
-3.11796 135.987 -3.77651
10.0309 135.51 5.33645
-1.62216 133.209 3.91408
3.96705 138.024 -4.31623
-12.9616 129.012 7.41309
-21.9172 126.793 7.43315
23.214 143.403 -5.64957
-21.3637 127.896 5.28067
-11.6417 129.764 6.68429
6.48468 134.571 5.96338
-1.73798 136.077 -2.60566
-18.6969 131.122 -0.708123
9.19823 135.521 5.41417
-21.9816 126.886 7.65242
11.8906 137.789 1.60662
-15.7269 128.362 7.87987
-2.78879 133.447 3.36473
-4.83252 132.955 3.43399
3.37918 137.955 -3.67952
4.28709 138.584 -4.65015
-9.53397 130.679 6.28013
18.9249 138.46 4.54553
6.26068 134.928 5.58012
-17.6693 132.028 -1.75179
-22.1121 126.873 8.10594
5.68676 134.668 5.96275
5.54401 134.704 5.93652
-4.64649 133.194 3.49021
-5.08711 136.63 -5.08175
20.3756 143.239 -5.67774
-19.9695 130.282 1.51878
5.62472 134.919 5.67878
6.08252 135.2 5.28944
-10.03 130.615 6.72416
21.9542 140.512 1.99894
-20.3646 129.769 2.58835
24.8314 142.312 -0.574393
-12.0857 134.599 -4.08133
-17.6903 132.313 -1.83654
-19.7315 130.795 0.634062
-7.63374 132.126 4.84263
-21.4237 128.413 5.6158
17.7236 142.357 -4.64367
10.2066 137.423 2.85379
24.3445 144.065 -4.71524
-11.527 135.217 -4.78228
25.1922 142.719 -0.786615
5.08376 135.165 5.45367
-6.99905 132.636 4.57295
12.9623 142.734 -7.77666
-2.82119 137.183 -3.79635
-21.7298 127.229 8.99362
11.1818 138.309 1.93956
-20.8094 129.46 4.1892
-19.5363 127.939 8.68579
15.0328 142.268 -5.15977
11.7811 142.748 -8.26842
-14.288 133.562 -1.59932
-9.64304 131.311 6.67145
-14.5819 133.547 -1.72589
13.4817 139.254 1.39254
-20.8377 129.504 4.39775
25.1208 143.288 -1.34065
-21.2644 129.056 5.29657
-16.4008 129.389 7.54564
-1.46894 137.297 -2.61602
-15.3638 133.303 -1.25904
0.455233 135.269 3.55895
-2.66836 134.589 3.39872
-8.70772 132.258 5.48683
10.4188 138.347 2.22978
-18.1442 128.962 7.86891
17.9785 143.242 -4.98918
2.39383 138.661 -3.01174
-21.5949 128.901 6.26027
24.871 143.274 -0.619345
8.80127 136.839 5.36638
-21.2831 129.268 5.73024
-7.11401 137.997 -6.84071
-13.552 134.818 -2.98061
-17.1702 133.098 -0.905627
-13.3375 134.429 -1.75683
-5.85665 134.113 3.57785
21.6551 144.627 -5.25805
-19.6044 132.102 0.309199
-19.3909 132.313 -0.0497042
-21.4526 129.22 6.27896
-10.1004 131.712 7.12908
24.7949 144.295 -2.35132
-7.30921 133.294 5.12388
-13.4301 134.584 -1.6358
6.89849 136.797 5.23507
-5.78486 134.318 3.7095
22.9177 142.686 0.695252
-12.5322 135.675 -3.63647
24.2927 145.052 -4.20537
14.542 143.219 -5.52493
-10.8756 131.586 7.46526
1.52979 136.234 3.68094
9.57397 137.64 5.13858
15.2337 140.574 1.67206
14.4394 143.648 -6.24574
16.3474 140.424 2.74967
-8.83756 132.83 6.09768
9.66187 138.685 3.0701
9.66326 138.655 3.26364
-21.9036 129.005 7.68953
1.30874 138.999 -2.49612
0.730252 138.796 -2.32269
20.3482 144.874 -5.2204
22.6894 142.954 0.912141
15.8849 140.717 2.2493
24.6443 145.011 -2.85412
-19.5553 132.729 0.34553
3.05761 136.583 4.6452
-2.40185 135.887 3.04855
-8.075 138.474 -6.59611
7.35756 142.441 -6.9088
-20.9977 128.834 9.04217
-4.77342 135.241 3.31939
17.1143 143.472 -3.4435
-3.37761 135.641 3.27497
-13.1527 136.097 -3.62164
0.284016 136.755 2.90905
14.0087 140.837 1.34141
24.0254 143.904 -0.0261254
-14.7195 134.559 -0.675336
-13.766 135.735 -2.94783
9.66993 138.51 4.50343
21.7546 145.484 -5.12228
-13.9423 135.849 -3.14439
16.8994 143.572 -3.26405
16.4273 143.473 -3.2706
-13.8526 131.659 7.20743
-13.4991 135.332 -1.39301
3.3818 137.08 4.58047
19.2858 145.058 -5.17464
-20.7772 129.276 9.18378
-8.9117 138.566 -6.20305
-7.43349 134.545 4.48887
-5.68166 139.248 -5.82042
-1.44817 138.974 -2.56537
2.8836 140.609 -3.73055
5.39213 138.013 4.12751
-15.0888 134.913 -0.567851
12.7829 140.953 1.76127
22.1426 145.993 -4.77358
-5.51843 136.046 2.73235
-16.6275 134.573 -0.379183
-15.5347 134.935 -0.547086
9.28793 139.83 2.55275
8.72184 138.644 5.09925
-14.6986 131.858 7.4661
17.4494 141.152 4.27173
2.45793 137.545 4.04915
17.2865 144.517 -3.79362
-6.91792 139.573 -6.27449
19.1548 141.941 3.71384
16.3741 141.614 2.95447
-14.1114 132.184 7.50048
-13.4749 136.991 -3.72513
11.1901 144.698 -7.47557
-12.2779 137.688 -4.52514
13.0504 144.957 -6.90307
-21.0293 130.631 7.46551
-8.98295 139.241 -6.14252
10.7733 140.818 2.08199
21.6716 146.331 -4.70307
14.9428 144.679 -4.70193
-0.48025 137.78 2.90781
15.2685 144.688 -4.32541
4.23566 138.498 4.06568
20.8543 143.283 2.6116
3.08063 138.382 3.90541
21.7817 146.558 -4.50699
13.4879 142.161 1.28806
-8.61661 139.76 -6.18858
-17.9112 134.493 1.08454
10.8537 145.122 -7.33998
13.9914 145.61 -6.5721
-14.6434 136.054 -0.60094
17.1627 142.018 4.25105
-4.32576 140.344 -4.31698
-12.9263 136.955 -1.23958
-20.0579 132.103 6.27231
20.9541 143.874 2.42964
10.9722 145.377 -7.2004
17.4946 142.17 4.52123
-11.6921 133.536 7.89929
-20.6938 130.929 8.81032
-20.5097 131.474 7.6157
1.01525 141.11 -2.72993
23.1265 146.254 -1.84994
23.1193 146.273 -1.89601
21.5405 146.93 -4.33831
6.93162 139.245 5.61807
21.3199 146.958 -4.41052
-8.21083 135.576 5.48962
-13.0744 133.313 8.14897
9.08165 141.046 2.79568
23.0149 146.716 -2.19838
10.5229 142.04 1.6323
-20.399 131.724 8.14056
16.6238 145.217 -2.30476
-13.1218 137.26 -0.801203
-3.35338 140.88 -3.53217
-13.2213 137.707 -1.69976
-16.3724 132.761 8.40883
-5.31769 137.931 2.54398
17.6398 143.131 3.79486
22.25 145.379 1.17913
-19.0469 131.996 8.79829
-5.7785 137.828 2.69866
5.56423 139.633 5.29205
9.24392 145.762 -7.31523
23.1244 147.523 -3.18264
20.2922 144.492 2.51898
-8.30057 136.419 4.93589
-6.68654 141.273 -5.65043
2.1494 142.488 -3.27104
13.3351 143.379 1.36224
15.834 145.97 -3.42058
-20.3191 131.952 8.8299
19.5192 144.338 2.80361
-1.34436 139.182 2.87781
9.49 142.187 2.11281
10.6645 142.79 1.38121
9.68982 146.123 -7.25305
5.4428 139.889 5.34717
-15.7879 136.902 0.00553265
-7.86926 136.928 4.74357
0.776636 139.942 2.72749
-6.32128 141.635 -5.41453
16.9192 143.56 3.90997
20.9237 145.37 1.9912
-2.67071 139.236 2.74384
-16.0763 133.509 8.60837
10.877 143.212 1.34308
7.77472 141.142 4.57842
-5.79343 141.807 -5.15522
-6.58067 138.03 3.53787
17.0708 146.351 -2.40694
-8.97866 141.154 -5.33879
-2.82538 139.423 2.67272
12.9205 147.041 -6.32019
14.8188 144.013 2.17958
-9.25436 136.03 7.06574
10.4933 146.742 -7.03339
16.8121 146.344 -2.1506
-18.2065 135.506 3.18962
-11.7477 139.956 -3.64727
-18.1226 135.63 3.02271
-10.3824 135.851 7.14991
2.79398 143.641 -3.81171
-13.5621 134.468 8.60638
-11.3455 140.31 -3.9331
13.3567 144.311 1.33618
9.69877 146.858 -6.93879
-14.3747 134.394 8.82871
-6.51799 142.26 -5.462
2.18118 140.868 3.22662
-8.40661 142.02 -5.7966
-18.2669 135.587 3.91024
7.54801 141.664 4.71669
21.18 146.599 1.02341
-10.7956 136.104 7.28107
-8.71084 137.384 5.43509
20.5452 148.463 -3.75259
-6.14711 142.484 -5.27244
-12.3833 139.347 -1.3101
12.5194 147.464 -5.9559
-0.293381 142.816 -2.33526
-19.2246 133.436 9.09271
-15.5845 137.874 0.643437
-16.5916 137.166 1.76604
-9.33387 136.758 7.19689
0.862416 143.424 -2.71947
-3.37251 142.619 -3.29096
-11.7433 140.703 -3.65034
17.0565 147.242 -2.13676
20.9344 147.006 0.836002
10.8424 147.615 -6.68315
-15.8008 137.952 0.84057
15.6069 144.783 3.22718
16.355 144.996 3.25973
20.9441 147.253 0.630951
12.0143 144.797 1.21738
-7.75791 138.549 4.47624
12.5887 145.047 1.2985
12.8156 145.156 1.33124
-9.56599 142.221 -4.95526
2.17813 141.649 3.54214
-4.08865 140.465 2.65561
8.21385 147.287 -6.43411
-16.1774 138.073 1.28059
4.41214 141.745 4.76862
16.803 147.652 -1.97248
-15.1425 138.567 0.929865
8.91068 144.157 1.94557
-19.198 134.61 8.25661
-18.9952 135.596 6.05779
7.9727 147.409 -6.29832
2.54486 141.947 3.76692
6.63478 146.938 -5.82045
-4.47944 143.47 -4.00888
0.750904 144.225 -2.67785
-18.5779 134.623 8.98675
18.6731 148.781 -2.86639
10.1426 148.199 -6.48813
-1.30057 141.672 2.45859
-4.52349 140.856 2.55508
16.0197 147.749 -1.76099
7.09646 143.217 3.91992
3.5348 141.755 5.3427
-16.612 138.123 2.05241
8.49896 144.297 2.2127
-5.22656 140.938 2.36252
19.2446 149.25 -3.05365
-8.56464 138.976 5.14112
8.02242 147.806 -6.22278
10.0811 145.208 1.40854
1.84168 141.892 4.55993
4.50501 142.359 5.27026
-18.9796 136.161 6.20546
14.6765 146.051 2.48551
0.29109 142.3 3.06684
-18.989 136.232 6.24336
7.15114 147.723 -5.8593
-17.8256 137.302 4.39268
20.7437 149.357 -1.61205
9.01191 148.392 -6.33071
16.0738 146.256 3.13129
15.7385 146.182 3.1329
13.35 146.282 1.46578
-13.1253 136.946 8.23588
-13.4127 136.847 8.33133
1.27486 145.279 -3.14813
0.552131 142.454 3.27755
11.0702 148.882 -5.9345
-4.56909 144.18 -3.93258
2.57287 142.676 4.07011
19.751 148.513 0.315186
5.73702 147.42 -5.32846
17.692 146.966 3.05113
-12.2271 137.599 7.88003
9.26639 148.763 -6.26655
6.61778 143.881 4.08317
-0.678177 144.746 -2.40623
20.2243 149.456 -1.07923
1.41911 142.814 3.79909
10.1172 149.13 -6.23155
-18.6408 136.073 8.15996
-17.7289 137.734 4.85778
12.7725 146.682 1.53341
6.82936 148.16 -5.6125
-10.41 138.428 7.67402
11.7276 149.189 -4.92589
16.5886 147.193 2.95903
6.96429 144.433 3.88255
19.4555 149.228 -0.0828031
6.24936 144.247 4.38296
3.52837 147.244 -4.47173
8.76136 149.171 -5.91678
17.4774 147.757 2.76548
-11.6593 138.483 7.88155
2.49603 146.959 -3.96001
13.4933 147.348 1.71841
16.2721 149.47 -1.75559
-11.3976 143.321 -3.41791
-4.56738 142.733 2.15648
-5.84595 142.427 2.14238
-13.637 137.985 8.32672
-7.00993 141.732 3.37564
7.54074 145.035 4.19475
-6.4915 145.405 -5.10993
-2.37515 143.516 2.00086
-3.31133 145.377 -2.87222
-16.7945 139.504 3.2639
-0.984253 143.726 2.54294
2.27277 147.212 -3.84557
-17.8144 138.274 5.82013
-4.78643 143.072 2.06045
5.46176 144.313 5.31184
-13.1615 141.506 1.01464
-14.0448 141.152 1.3704
-12.8287 142.27 -0.562605
-10.7508 139.275 7.96412
-16.301 140.011 2.84268
-11.4158 143.706 -2.97188
-13.1649 141.633 1.05629
10.1512 150.192 -5.63707
-11.238 143.956 -3.3712
10.6215 147.405 1.50177
-7.19336 145.744 -5.00885
-6.96545 145.848 -4.97742
-13.1359 138.82 8.41378
-9.73566 140.458 6.50813
-1.43576 144.233 2.43932
-2.36132 144.183 2.06517
13.848 150.219 -2.78063
-17.1936 139.644 4.35737
-16.3174 140.427 3.19002
17.1668 149.176 2.16629
18.1169 149.816 1.25017
-16.4641 138.199 8.74791
17.7406 149.581 1.77298
13.0557 150.462 -3.09
-4.95739 144.016 1.85019
-2.74701 144.588 1.94674
-12.465 143.266 -0.593905
8.65536 147.495 1.92716
-15.5703 138.796 8.53735
-12.4955 143.542 -1.11675
-4.88563 146.546 -3.80272
17.8909 150.455 0.555654
17.2078 149.843 1.63826
10.9761 150.82 -4.31833
