ply
format ascii 1.0
comment Created by Open3D
element vertex 1815
property double x
property double y
property double z
end_header
-1.01861 126.799 0.744383
-6.40743 83.1473 -3.7196
-4.12526 127.098 -6.90097
-1.6887 87.1108 7.29181
-0.183594 132.977 1.7619
-1.70228 119.815 0.667762
1.16579 100.072 11.8222
0.734435 97.2957 11.3135
-5.98169 78.3242 -1.50769
-0.643502 114.121 4.59288
-3.68589 84.2782 3.07138
0.407464 137.768 2.44802
0.408489 137.954 2.47923
1.81541 120.676 9.54383
-6.8865 95.3516 -6.90454
2.05464 110.471 12.3416
-0.0176614 94.4714 10.4409
-7.15884 78.6034 -4.13627
-1.06421 112.55 4.18866
-4.30652 127.047 -6.82524
-0.407399 90.3381 10.3812
2.0217 115.485 11.4059
1.48504 105.707 12.0963
1.97241 118.104 10.8382
-2.71505 83.9957 6.09093
-6.70377 78.0917 -2.64692
1.91035 114.048 11.5924
-1.23126 88.6521 9.00269
0.738598 116.831 8.23854
-2.83765 84.6087 5.90216
-6.77441 109.077 -8.82259
-1.62625 111.051 3.69183
-0.862856 150.605 -2.36301
1.72094 112.43 11.8092
-0.595171 113.407 5.8402
0.0493338 143.714 1.33937
-7.20414 94.9127 -6.79696
-1.0686 111.077 5.22902
-0.620898 134.357 1.65187
-0.992731 150.389 -2.38369
-3.8108 131.327 -5.5401
-0.559481 135.463 1.76027
-2.49732 114.156 1.26478
-2.53233 117.454 0.540851
-6.76448 111.639 -8.7699
1.49444 110.973 11.9972
-4.65028 83.4436 2.26443
-6.92411 101.869 -7.07593
1.46597 112.825 11.6692
-0.126484 142.426 1.76246
-4.12962 85.4608 3.34041
-0.730411 94.0341 10.0768
0.499629 101.877 11.6699
-0.82245 91.4879 10.4792
-2.588 87.8732 6.81245
-1.64749 107.596 5.21267
-2.057 124.993 0.69179
-7.13443 109.217 -8.72197
-7.41837 97.0674 -6.93125
0.141434 100.074 11.3267
-2.22207 123.993 0.640816
-1.28376 108.101 6.23476
-2.34065 123.336 0.590363
-3.58062 85.566 5.16544
-2.5216 109.316 3.01829
-3.85561 83.0604 5.0139
-7.3974 97.9733 -6.82219
-3.05354 115.33 0.513425
-1.27098 106.933 6.73234
-7.46068 107.311 -8.68269
-7.44407 86.7093 -4.37642
-0.474978 112.087 7.86106
-2.77186 108.556 3.00466
0.377359 112.444 10.1444
-3.28442 113.27 0.892919
-2.04824 141.238 -1.66315
-5.98278 122.518 -7.64606
-0.347072 138.777 3.38212
-0.495072 98.9206 11.106
-0.178702 111.501 9.50685
-7.20285 114.448 -8.59162
-4.23652 84.5158 4.86131
-8.58157 79.3934 -4.91678
-6.28311 121.254 -7.64293
-1.46675 153.664 -2.19005
-2.51901 105.696 4.90764
-2.48471 139.031 -1.68599
-7.92801 106.245 -8.58476
-1.34687 134.11 2.20995
-7.36446 85.2179 -2.84423
-1.97696 150.651 -2.50758
-8.83387 78.9052 -4.94928
-3.45722 106.916 2.80737
-3.47334 106.968 2.77547
-2.07692 150.487 -2.52289
-0.845467 137.658 3.16951
-0.92922 98.9598 10.8886
-2.96729 105.078 4.59111
-0.526874 109.176 9.8784
-8.31153 92.2896 -6.09094
-8.3057 94.8052 -6.55864
-3.69406 107.14 2.4749
0.0910684 107.101 11.9228
-2.77268 104.932 5.2278
-2.62079 127.201 1.17903
-3.84254 134.472 -3.30374
-2.4991 147.517 -2.56934
-2.65336 145.357 -2.47935
-2.35226 104.944 6.46221
-4.77424 84.2353 4.62849
-2.99243 104.779 4.92069
-3.30353 104.961 4.11045
-7.66352 85.1813 -2.72933
-0.226764 108.298 11.187
-1.78397 154.404 -1.97902
-6.65135 121.889 -7.48254
-2.15936 90.9196 9.98755
-8.41393 89.3587 -5.2759
-2.57283 104.775 6.1906
-0.856979 105.331 10.3803
-1.16313 100.968 10.5696
-4.63201 87.3713 4.86374
-3.9291 88.2155 6.4838
-4.25595 105.18 2.28585
-8.14034 99.9773 -6.18725
-2.89681 104.42 6.03611
-8.48068 87.3258 -4.40675
-4.33662 115.545 0.284465
-8.71316 81.3127 -3.55769
-5.41418 84.7985 3.97245
-8.6746 104.781 -8.09799
-2.0324 133.778 2.67652
-4.80194 109.821 0.661194
-2.52771 93.6942 9.69557
-7.90477 116.008 -8.18114
-3.47658 142.064 -2.34524
-8.31885 112.877 -8.31007
-1.92669 105.165 9.19016
-5.10077 105.249 1.2871
-8.88012 107.628 -8.43695
-1.98181 136.074 3.01554
-8.49017 112.091 -8.26147
-3.35714 127.392 1.45358
-9.00184 106.816 -8.4409
-5.29095 106.515 0.956806
-3.52096 103.557 5.99855
-6.31347 126.962 -5.58842
-6.14521 127.835 -5.33068
-2.79512 96.542 9.35344
-8.79231 101.208 -6.50913
-5.41156 107.799 0.602498
-5.46751 105.582 0.915481
-5.43552 108.463 0.427378
-9.02045 108.353 -8.44276
-5.03469 102.748 2.65505
-5.5374 105.286 0.889843
-4.6594 102.638 3.79681
-2.64123 141.939 0.880537
-3.7422 103.168 5.98671
-3.8412 145.726 -2.83563
-5.70359 87.6736 4.31066
-1.54039 142.745 3.561
-9.31666 106.08 -8.3844
-5.3996 131.837 -3.83475
-4.12056 142.086 -2.67259
-8.80665 85.7362 -2.9368
-8.84809 111.454 -8.23067
-4.17643 141.588 -2.65626
-4.57532 88.956 7.00962
-5.76549 102.142 1.42234
-8.93509 98.2154 -5.64349
-7.93426 119.44 -7.41339
-3.53671 91.2775 9.271
-3.82566 90.803 8.67765
-4.25466 142.82 -2.79884
-3.24109 96.1446 9.18081
-5.92825 103.103 1.09214
-9.45123 104.232 -7.80771
-3.62292 103.138 7.01436
-4.08812 146.46 -2.90607
-6.25664 128.862 -4.6192
-9.6902 90.6965 -5.32768
-9.57113 87.9949 -4.4636
-7.332 84.1923 1.88821
-5.67714 112.908 0.218104
-5.17609 117.917 0.510104
-9.14071 98.7053 -5.46557
-9.16665 111.932 -8.14571
-4.79349 138.608 -2.64709
-6.20272 108.407 0.0740431
-3.0017 104.103 8.97507
-9.80367 92.4811 -5.61332
-3.34289 97.282 9.54541
-9.62389 108.839 -8.42967
-4.78823 141.084 -2.88076
-2.81146 141.71 2.00069
-9.61481 109.605 -8.40059
-8.30289 119.543 -7.09262
-4.24676 148.923 -2.88495
-7.73864 84.3996 1.54085
-1.84999 141.372 4.72732
-5.23441 102.151 4.31903
-2.50387 140.943 3.36106
-6.96894 84.2816 3.73038
-10.0332 88.8481 -4.80639
-9.66138 96.8013 -5.48936
-5.46597 102.023 3.91873
-4.34368 149.69 -2.82876
-9.72364 110.591 -8.28964
-2.04789 139.76 4.96299
-6.81145 103.735 0.410429
-8.55568 119.127 -7.01335
-5.98852 114.457 0.340022
-5.42977 119.177 0.798785
-2.05087 142.1 4.59024
-6.81491 105.802 0.173963
-6.02878 131.851 -3.11089
-10.1186 103.92 -7.64353
-7.08028 87.4128 3.27477
-4.18364 152.263 -2.60045
-9.50837 84.9242 -2.2215
-10.134 103.702 -7.53837
-4.35214 91.6997 9.31253
-3.66649 103.134 8.7167
-5.8347 132.909 -2.6578
-4.631 149.519 -3.01137
-7.65924 87.0854 2.11762
-4.20079 96.1481 8.90348
-9.60999 84.6591 -2.23191
-6.15823 131.601 -3.10975
-5.12806 123.028 1.44168
-8.28585 121.857 -6.1887
-9.43709 115.746 -7.79795
-10.3093 108.296 -8.37098
-10.0706 82.8085 -2.58563
-10.4541 90.6697 -5.09892
-5.5564 141.29 -3.13526
-6.72044 110.747 0.19733
-3.5663 142.003 1.80376
-3.93105 142.335 0.956557
-9.97405 112.421 -8.00156
-9.14276 118.157 -7.07081
-10.2567 82.5584 -2.62399
-2.68863 138.681 4.88411
-6.39111 88.558 5.81106
-4.33605 153.641 -2.23921
-7.47846 102.251 0.353141
-5.22081 102.046 6.03817
-9.90504 85.507 -2.24004
-3.64941 133.91 3.54869
-10.4996 108.843 -8.38259
-5.53012 90.42 7.74252
-8.2246 84.5859 2.21289
-4.39691 129.751 2.63878
-8.26462 123.256 -5.65227
-2.9482 141.215 3.96441
-10.6313 107.313 -8.30153
-10.7038 91.5138 -5.16273
-10.6265 108.276 -8.34522
-5.39335 123.003 1.83413
-7.10859 99.6615 2.34283
-5.81524 120.836 1.37367
-8.13382 86.508 2.65243
-4.04523 102.617 9.58978
-9.83781 116.01 -7.37074
-5.93762 145.896 -3.66389
-3.199 141.247 4.16346
-8.10432 85.4107 3.29592
-7.19973 111.404 0.325867
-5.39662 123.952 2.29849
-5.0608 152.746 -2.6409
-10.6233 94.8759 -4.78221
-7.66382 127.5 -3.93881
-10.6084 95.687 -4.77248
-11.1005 104.692 -7.71304
-10.5537 98.5552 -5.08659
-8.01913 98.9682 1.19192
-8.64406 123.116 -5.21663
-9.36744 119.367 -6.16579
-11.0333 82.1376 -2.59133
-8.4509 124.567 -4.66359
-11.261 89.4666 -4.50982
-6.86181 89.4884 6.48695
-6.26955 90.8719 7.70732
-8.63932 88.0433 2.39856
-5.31044 153.131 -2.46483
-11.0923 109.808 -8.05056
-7.2422 137.368 -4.02857
-4.99308 128.898 3.30506
-6.3106 120.098 1.88325
-7.58199 99.3923 2.90843
-8.64388 85.5772 3.08157
-6.65194 90.3824 7.14871
-5.50437 125.365 2.99036
-10.9352 84.2893 -2.17899
-5.07019 101.268 9.00078
-8.51549 98.5181 0.9911
-11.2754 83.2219 -2.62886
-7.24986 89.3501 6.20208
-11.0857 84.5244 -2.15895
-8.01671 127.894 -3.28953
-6.90357 133.001 -1.52975
-8.87239 99.9802 0.296331
-4.64253 132.049 4.35423
-8.59553 125.202 -4.0648
-9.51772 87.4547 1.39519
-5.41812 127.44 3.5357
-8.5534 105.656 0.156472
-9.5418 87.289 1.41451
-8.41832 126.384 -3.66573
-9.38733 86.5637 2.0508
-7.57595 135.925 -3.32207
-7.308 143.989 -4.27331
-7.36465 145.815 -4.72608
-11.7436 101.565 -6.65115
-11.7333 91.4595 -4.56491
-7.94134 99.1377 3.33255
-7.32418 141.626 -3.71642
-9.83239 119.562 -5.45892
-5.26951 154.396 -1.09978
-10.6323 115.809 -6.51842
-7.4538 141.355 -3.75061
-10.9273 114.212 -6.87984
-8.3672 88.4414 4.74242
-9.76219 86.7905 1.62759
-8.98287 88.0148 3.50427
-6.33658 122.657 3.08734
-7.62021 114.266 1.67798
-11.6141 84.8635 -2.3111
-5.25772 140.896 2.199
-6.24026 100.638 7.94244
-7.05094 150.254 -4.11259
-11.9855 90.6697 -4.29189
-3.97505 137.437 6.20555
-11.709 84.7909 -2.39947
-7.34904 132.881 -1.18695
-10.3725 117.541 -5.58784
-9.57047 86.6881 2.74816
-3.88826 139.752 6.21384
-10.7311 116.277 -6.02905
-7.05554 151.248 -3.84852
-6.50733 122.705 3.37505
-9.76972 94.8591 0.887244
-8.52754 97.6324 3.45081
-11.6432 97.4134 -4.19858
-12.6888 81.1047 -3.39691
-9.93137 94.4506 0.886577
-5.72811 141.157 2.01225
-10.3876 118.738 -5.03869
-8.57048 138.374 -4.465
-4.44592 136.129 6.27536
-11.816 95.7603 -3.88638
-9.19012 88.2824 4.1792
-7.27597 118.692 2.83287
-8.68202 128.008 -2.47924
-9.7459 94.7936 1.63148
-6.37588 153.306 -1.74533
-9.90961 86.8435 2.94532
-4.32934 140.318 6.05119
-5.7057 129.32 4.9713
-8.08477 133.758 -1.82481
-13.1655 80.8071 -3.63364
-9.92182 88.5914 2.90376
-12.6938 101.311 -6.55625
-9.67584 88.9788 3.46089
-10.0635 95.965 1.08639
-10.1332 93.9166 1.37089
-9.64054 87.0173 3.99767
-7.09345 97.2556 8.307
-10.4366 86.0116 2.3115
-8.77677 143.553 -5.18972
-7.57391 118.044 3.03438
-8.81277 143.243 -5.13328
-4.47667 137.645 6.82785
-6.62324 124.199 4.25652
-7.21198 97.8059 8.22183
-7.07683 121.57 3.8097
-9.92689 122.965 -3.54772
-9.88358 88.2131 3.69714
-10.5553 87.851 2.11672
-12.7632 99.8804 -5.78551
-10.5901 86.0577 2.48733
-9.25454 138.32 -4.7552
-9.77255 87.444 4.31293
-10.5012 87.8485 2.50534
-9.29883 89.2481 5.25595
-9.52625 136.886 -4.95072
-10.3714 96.6142 1.1849
-7.44725 99.2474 7.94635
-11.0179 89.1632 1.15568
-9.87006 88.4939 4.17518
-13.6401 80.0303 -3.45754
-10.701 93.2793 1.22876
-4.83349 139.386 6.52075
-9.18768 139.421 -4.29389
-10.2181 93.9938 2.36282
-7.64913 119.235 3.68269
-7.02156 123.045 4.48535
-6.97801 123.343 4.53576
-4.87918 136.894 7.0798
-5.90487 129.807 5.97352
-5.14646 135.237 6.77358
-8.91753 91.0758 6.42173
-6.70732 125.639 4.9838
-12.8734 86.367 -2.41511
-7.46839 120.671 4.14624
-9.01377 108.356 2.79778
-8.9993 91.1186 6.41071
-10.4579 99.3833 1.1543
-4.90888 137.444 7.28431
-12.6404 95.4721 -3.45796
-10.9217 119.655 -4.03545
-5.8623 131.321 6.34118
-13.0499 91.5668 -3.49965
-13.4914 104.09 -7.12323
-9.26589 133.864 -2.5879
-9.06702 108.624 3.05147
-8.99207 131.286 -1.3362
-11.5754 88.4142 1.01722
-13.1217 92.0592 -3.50123
-10.6838 88.3696 3.33092
-10.7618 97.9051 1.22093
-9.21733 132.911 -2.00957
-8.19443 98.3915 7.633
-10.5666 100.715 1.29692
-8.69111 93.0418 7.58807
-10.3061 137.258 -5.35872
-10.6392 100.194 1.3485
-10.4978 90.3908 3.68876
-9.27314 132.036 -1.68023
-14.055 82.6499 -3.57409
-5.57905 134.405 7.07792
-10.7425 99.3778 1.30686
-6.73375 127.681 5.62083
-9.48238 107.132 2.98227
-8.62112 150.776 -3.66982
-7.89239 119.685 4.46572
-8.91905 93.0135 7.44638
-11.2675 93.0793 1.67371
-10.7236 123.215 -2.9965
-11.403 88.447 2.40833
-14.3588 80.3102 -3.28445
-9.83467 133.371 -2.7481
-13.6659 99.4471 -5.38811
-9.85363 96.3884 4.73931
-5.77935 134.117 7.28008
-13.4704 89.8276 -2.89334
-14.018 103.7 -7.03766
-6.73379 128.314 6.2118
-11.7209 89.9966 1.55602
-13.7488 107.764 -7.00195
-11.4167 94.7884 1.45262
-13.5239 93.077 -3.29595
-10.0095 133.001 -2.54983
-7.41668 154.118 -0.230457
-10.6479 94.4007 3.81171
-9.09269 150.734 -3.66197
-7.97666 120.561 5.24392
-12.1157 87.606 1.61259
-13.6206 90.6341 -2.71559
-11.5601 93.8447 1.78974
-10.7475 89.3602 4.72914
-9.13768 113.378 3.9672
-8.15137 119.807 5.13369
-9.96883 131.684 -1.78668
-7.6601 122.936 5.77113
-13.9084 85.886 -2.2353
-10.8754 102.21 2.1011
-9.8411 106.555 3.85305
-9.72963 107.081 4.04971
-8.55623 118.015 4.92735
-13.3818 110.756 -5.62155
-14.5267 83.4343 -2.94206
-14.8343 81.7554 -3.35345
-9.81118 97.3366 6.02057
-9.54256 110.397 4.10529
-9.25937 151.034 -3.26884
-11.489 98.8743 1.79274
-8.89211 116.575 4.77376
-10.7411 144.697 -5.48282
-10.3786 91.886 6.18699
-14.2736 86.7428 -2.44385
-12.0733 86.3239 3.15978
-12.0767 86.4641 3.12651
-14.5925 83.7496 -2.4733
-11.4626 92.271 3.61117
-9.40632 113.376 4.50126
-11.0415 141.95 -5.35001
-6.71728 131.394 7.59652
-10.6895 104.483 3.16851
-15.1366 80.3864 -2.98435
-13.9884 93.9452 -2.84904
-14.5164 107.115 -6.81744
-12.1525 85.3229 3.53026
-10.0655 96.245 6.55885
-8.25687 142.795 1.6762
-14.1295 92.0124 -2.60135
-6.98764 129.969 7.51272
-13.3213 86.1357 0.623521
-8.11643 141.645 2.39302
-11.995 120.406 -2.96394
-12.433 91.548 1.80605
-12.4656 91.3856 1.80377
-12.2825 92.7725 2.07039
-8.07551 144.47 2.17026
-12.1046 92.6254 2.65833
-8.93924 117.637 5.48641
-11.3317 101.648 2.77028
-11.1016 94.6799 4.79294
-11.3807 101.421 2.75323
-9.93879 108.426 5.01685
-12.2346 92.5003 2.56241
-11.9156 122.254 -2.64049
-9.34645 115.4 5.15146
-8.6007 153.456 -0.62805
-12.6859 117.704 -3.41376
-10.9972 130.416 -1.76707
-15.6755 79.437 -3.09032
-11.6282 141.661 -5.44872
-10.5507 94.1736 6.91306
-12.1968 91.8687 3.28609
-12.8666 90.0312 2.07416
-8.35122 122.612 6.76104
-14.5532 89.1347 -1.88357
-14.0898 85.5921 0.00208684
-13.0054 86.1647 2.58913
-9.35135 116.313 5.61273
-11.8188 124.161 -2.07588
-11.7433 92.5013 4.58203
-11.2638 131.067 -2.02597
-7.91226 137.764 4.97555
-8.55458 142 2.55098
-14.0842 85.5398 0.217076
-7.83503 127.701 7.26544
-12.0014 132.251 -4.02038
-12.145 91.4446 3.9092
-13.1285 116.641 -3.63961
-10.1439 109.584 5.23822
-11.2539 147.253 -5.12339
-13.2509 90.6481 1.3722
-10.179 108.916 5.36166
-13.1708 86.1422 2.51922
-12.4696 89.796 3.57788
-15.9143 79.6589 -2.89439
-15.2683 84.1147 -2.17936
-8.75904 120.204 6.78902
-12.6058 94.8484 2.34256
-13.5931 86.6681 1.55555
-7.05653 138.022 7.46992
-10.2054 109.825 5.34801
-9.71845 114.631 5.68442
-13.978 85.3949 1.00755
-15.0369 94.8654 -3.4267
-13.6648 85.6138 1.87251
-8.67512 141.669 2.99443
-12.3725 140.278 -5.92116
-8.29722 125.252 7.27738
-12.3699 91.7385 3.94257
-14.9646 97.7245 -3.72098
-12.5501 93.1408 3.25047
-12.0493 131.582 -3.27421
-11.1129 94.7085 6.58161
-12.7097 92.4853 3.09576
-15.9781 82.3332 -2.97916
-7.58127 130.339 8.30462
-12.9579 133.86 -5.54896
-13.0699 91.9646 2.72445
-12.257 92.2866 4.71955
-11.9166 94.5582 5.13375
-12.632 97.2094 2.83743
-9.52004 153.131 -0.695571
-13.0117 120.584 -2.73062
-16.6895 79.5346 -3.47235
-12.9187 91.8832 3.44613
-9.40454 143.363 1.80576
-12.5958 93.7944 3.93031
-11.1751 104.903 5.24327
-8.9672 122.021 7.33149
-13.4464 90.5481 2.59764
-13.0593 94.1375 2.89178
-7.36238 137.325 8.34601
-14.6928 86.6274 0.356379
-13.4467 91.6547 2.51082
-15.4207 89.2632 -1.87179
-12.7315 90.7735 4.57355
-12.519 124.469 -1.69703
-15.5649 96.9511 -3.67886
-9.25144 119.971 7.39665
-12.5453 93.6886 4.54143
-12.8369 92.4494 4.16944
-8.97651 140.757 4.03558
-12.4558 89.6841 5.73328
-12.7596 141.291 -5.46167
-12.666 93.2708 4.61868
-7.61154 134.073 8.9636
-14.8318 86.6875 0.668162
-14.0084 86.882 2.68648
-12.8766 97.4178 3.3788
-12.4531 144.911 -5.15692
-15.7127 92.0546 -2.55782
-13.1983 90.875 4.00397
-14.4669 84.8109 2.22595
-13.1654 122.559 -2.11088
-13.3349 140.007 -5.9775
-12.5305 92.1423 5.74603
-14.3813 115.949 -3.65243
-16.021 95.2828 -3.47212
-13.3956 88.2702 4.50336
-9.5768 119.567 7.76351
-13.4433 87.9546 4.54257
-16.8786 83.6119 -3.04511
-12.345 147.171 -4.5158
-13.809 120.627 -2.7751
-12.9483 98.2381 3.90303
-9.89643 144.887 2.13539
-15.0029 84.6723 1.61395
-13.7663 89.1982 3.80527
-13.7509 130.873 -4.56584
-16.0616 89.1606 -1.84828
-16.2545 99.7736 -4.42245
-16.3132 100.988 -4.80401
-16.2323 96.5392 -3.67666
-9.5556 140.186 4.2265
-11.0772 109.56 6.76561
-9.43092 139.478 4.81518
-10.9642 110.762 6.84952
-12.6214 100.739 4.75415
-16.1894 93.149 -2.57501
-16.2762 99.4917 -4.05942
-13.585 93.1683 3.93122
-15.8162 85.376 0.0905716
-12.9785 98.9878 4.40849
-16.4445 107.186 -5.80363
-9.38125 124.374 8.33344
-16.3135 89.486 -1.86644
-12.6323 147.168 -4.34605
-9.71804 148.78 2.60605
-9.7348 148.698 2.5872
-9.26631 125.553 8.44377
-12.6313 147.272 -4.29269
-15.7472 112.888 -5.03061
-12.5967 101.583 5.13495
-10.0404 141.522 3.43174
-13.3731 125.637 -1.60083
-14.6561 86.935 3.06858
-12.6802 147.366 -4.21441
-13.6612 91.5821 4.67439
-16.4546 87.124 -1.33892
-12.7444 147.226 -4.24907
-8.42564 134.428 9.10527
-12.5357 148.17 -3.88874
-13.9384 94.0522 3.58368
-13.9382 93.2102 3.77134
-8.46912 136.077 8.73134
-16.5496 87.3071 -1.43978
-10.4421 116.035 8.00677
-17.4446 80.589 -2.22821
-11.0907 111.725 7.30245
-11.262 110.481 7.16731
-13.5865 130.143 -2.57535
-13.6439 142.042 -5.0419
-16.8088 102.307 -4.76908
-10.6495 115.319 8.09161
-16.7791 89.0272 -1.82057
-12.1757 150.138 -2.71864
-11.2977 111.171 7.37528
-10.4356 140.021 3.72806
-10.3809 139.718 3.95063
-17.6894 82.8831 -2.71516
-9.16595 128.685 9.25338
-14.0586 91.5492 4.64401
-14.6301 130.155 -4.56449
-15.0257 118.431 -3.17083
-17.6868 82.1753 -2.43087
-12.7059 102.094 6.06122
-16.042 114.812 -4.80123
-10.2534 151.431 2.21857
-11.3685 152.289 -0.715722
-10.0273 137.231 5.72172
-13.1917 99.7943 5.48494
-10.5496 139.419 4.11064
-13.6548 89.2983 6.53903
-12.34 106.87 6.29993
-11.0394 113.947 8.13233
-12.6475 149.164 -3.0006
-14.2855 94.2034 4.16045
-14.0237 126.38 -1.6789
-10.8479 140.492 3.40155
-14.2073 94.5941 4.32811
-12.403 106.977 6.39971
-15.1009 86.7093 3.93631
-11.8827 109.533 7.39988
-17.3634 87.8352 -1.70424
-16.1168 86.2249 1.75103
-16.2152 115.841 -4.4199
-9.81677 126.301 9.41148
-9.68512 127.514 9.55801
-13.6524 97.3076 6.00906
-17.5338 103.084 -4.75615
-10.7625 138.463 4.98631
-9.34235 133.928 9.45056
-10.6948 119.432 9.03186
-14.6719 125.712 -1.70344
-17.7821 85.5261 -1.30345
-10.9571 118.355 9.10977
-12.788 150.08 -1.79479
-17.8209 100.754 -4.31978
-9.59831 134.705 9.32637
-17.7982 92.1896 -2.47515
-18.648 82.1555 -2.36346
-11.087 150.39 2.73227
-13.3175 100.836 7.28804
-16.1258 118.611 -3.2485
-13.6792 98.9978 6.82712
-15.0259 124.815 -1.68633
-17.101 115.462 -4.92736
-17.7863 85.5004 -0.558126
-16.6437 85.6906 2.32717
-14.9591 87.0071 6.27597
-18.0864 87.6984 -1.65401
-17.9935 109.42 -5.77551
-13.0651 103.505 7.72835
-13.14 104.658 7.31212
-18.2394 104.2 -5.26011
-15.1494 128.619 -2.50314
-15.0824 127.348 -2.03892
-14.2847 145.236 -3.65839
-18.2397 108.338 -6.02516
-11.7081 151.886 1.51338
-11.7929 151.855 1.41615
-10.2722 127.133 10.2854
-15.4556 141.293 -5.46155
-13.4372 101.345 7.71305
-12.3635 111.194 8.39654
-12.9742 108.388 7.48225
-18.5366 108.166 -6.13693
-15.2429 142.313 -4.84291
-15.9568 129.261 -3.96289
-19.1645 82.5889 -2.49917
-14.827 144.302 -4.16467
-13.253 149.77 -1.3256
-14.0445 97.4934 7.30769
-16.795 117.439 -3.50224
-15.5869 124.91 -1.89878
-18.3192 85.8758 -0.706115
-13.5069 149.09 -1.48223
-10.3045 132.492 9.92919
-13.9911 98.3494 7.67007
-16.1047 121.466 -2.228
-11.8405 151.49 2.33399
-13.5205 106.368 7.30391
-19.1756 83.5271 -2.12727
-14.9481 89.5393 7.22402
-12.4821 142.619 2.7609
-10.4861 131.788 10.0786
-18.5469 110.899 -5.71641
-18.0679 115.191 -5.28993
-15.4436 92.9238 5.94554
-16.5848 120.906 -2.55184
-16.6486 131.347 -4.78752
-18.9289 103.648 -4.76293
-15.0971 90.9375 7.54828
-11.7276 120.164 10.032
-19.0071 104.896 -5.00243
-19.1729 100.719 -4.51501
-18.6897 86.1801 -0.29566
-11.6149 121.884 10.139
-11.6164 122.012 10.1515
-16.7066 121.421 -2.32375
-19.3513 93.5781 -3.244
-14.1515 99.5402 8.57709
-12.7502 143.731 3.13656
-15.4744 144.343 -3.75217
-16.3509 134.226 -3.72222
-12.165 118.342 9.94413
-11.6718 123.23 10.4137
-15.9582 142.812 -4.11441
-14.2641 100.532 8.71644
-17.0694 139.398 -6.12971
-11.0106 128.116 11.274
-13.0933 138.739 3.98756
-12.8922 145.168 3.21866
-19.1035 86.238 -0.321594
-11.6016 124.222 10.6905
-18.3271 116.517 -4.48245
-19.554 103.791 -4.7474
-15.3684 92.8854 7.9035
-11.2231 127.575 11.2908
-16.914 85.7512 5.62092
-16.5981 134.694 -3.42248
-11.2194 127.92 11.3915
-17.3275 139.245 -6.09891
-13.866 150.909 0.308086
-13.0229 115.674 9.56642
-20.2645 81.7969 -1.60071
-19.8326 103.055 -4.81497
-18.3311 117.276 -3.93611
-15.2107 92.2636 8.96403
-12.3451 120.245 10.5317
-17.3983 139.288 -5.88382
-19.6174 86.3591 -0.679277
-17.4085 124.552 -2.84921
-14.0027 150.696 0.348119
-15.8309 95.4739 6.99216
-13.1902 144.901 3.58482
-12.6532 118.763 10.3621
-17.55 124.46 -2.97736
-13.8192 110.974 9.07279
-17.6813 123.434 -3.02238
-17.1451 139.928 -4.98329
-19.9847 96.0288 -3.15485
-14.7184 100.644 9.08113
-19.5208 86.3597 0.0479496
-17.4835 128.505 -3.30338
-11.5578 128.621 11.4904
-19.7773 111.105 -5.40818
-16.9905 86.266 6.56668
-14.3534 149.999 0.306559
-14.7412 102.904 8.9216
-16.796 140.88 -3.88258
-19.0072 116.881 -4.48913
-18.4216 85.8872 3.26225
-20.1356 99.1786 -3.65195
-13.6604 139.575 4.45501
-13.8417 113.113 9.40431
-15.7429 145.032 -1.69692
-13.3075 116.916 10.1254
-14.9612 148.374 -0.332514
-17.914 126.025 -3.14503
-18.1456 129.781 -4.42998
-13.4628 136.353 5.92573
-21.4135 80.5066 -2.33138
-17.2803 136.194 -3.2498
-17.2885 136.465 -3.3193
-18.3854 124.567 -3.63671
-13.7065 143.368 4.26805
-11.9893 129.521 11.3984
-14.3391 110.703 9.37501
-16.1948 144.048 -1.97683
-20.5428 98.973 -3.60459
-17.2319 86.7502 7.13369
-13.9929 138.623 4.79267
-16.3741 94.6468 7.77216
-18.1187 138.008 -5.35184
-15.9627 144.497 -1.2796
-20.7605 103.106 -4.84857
-13.5528 148.437 3.98368
-13.9452 140.153 4.68754
-16.6058 142.536 -2.38369
-15.3227 147.911 -0.236576
-12.7593 135.383 8.75104
-15.9921 96.5969 8.56216
-16.3839 95.0212 7.9092
-21.2216 83.3105 -1.76163
-17.8961 137.581 -4.435
-13.6247 148.295 4.04367
-18.6044 125.647 -3.6985
-13.373 118.758 10.7871
-20.8818 109.227 -5.95929
-14.9571 149.969 0.588953
-14.2621 137.227 4.93193
-12.3264 130.595 11.1519
-17.3931 86.9451 7.38555
-13.1652 120.538 11.1449
-16.4864 143.351 -1.70416
-12.7402 134.728 9.39044
-15.6552 97.1776 9.83359
-12.8338 123.641 11.5167
-18.1744 133.191 -3.7161
-13.7391 148.882 4.19957
-20.945 98.2006 -3.36117
-14.183 141.533 4.78301
-15.6578 147.599 -0.104582
-15.5787 105.627 8.60172
-18.9252 123.77 -3.37728
-17.5674 86.9737 7.47837
-16.0858 96.6984 9.23703
-13.9103 148.024 4.28235
-15.2241 108.182 9.2043
-13.7213 134.623 7.65272
-17.9017 136.387 -3.10226
-15.536 106.63 8.85007
-15.8662 147.021 -0.145285
-15.7888 147.632 -0.0034856
-19.2692 120.053 -3.06957
-20.6024 115.435 -5.43319
-14.1592 145.888 4.46078
-14.2331 135.092 6.52455
-21.2129 98.1974 -3.36521
-13.1586 123.862 11.5913
-14.3709 143.924 4.51899
-19.1771 129.448 -4.5186
-15.7278 106.4 8.86941
-16.0084 147.101 -0.021465
-18.7718 132.605 -3.90235
-20.0501 86.0437 2.35091
-21.6911 92.1695 -2.9559
-14.7415 135.881 5.77179
-20.0176 85.8593 2.78646
-21.8605 100.707 -4.79331
-14.7031 143.027 4.71052
-18.4539 135.511 -3.09962
-13.2147 128.39 11.4274
-17.3916 88.9706 9.00662
-21.087 114.526 -5.37353
-16.2414 99.0057 9.88039
-20.557 116.926 -4.42798
-21.1481 113.815 -5.26032
-18.1847 140.3 -3.15454
-13.626 134.652 9.37
-21.3758 110.848 -5.05254
-21.9011 95.3308 -3.15822
-22.1252 100.328 -4.71328
-13.4448 130.534 10.8253
-21.875 87.4031 -1.32846
-14.4121 135.065 7.62533
-22.2768 81.4964 -1.07362
-17.3009 144.391 -1.3466
-18.4642 139.65 -3.23133
-13.9052 121.938 11.7394
-16.3199 104.855 9.27125
-14.0119 121.301 11.7107
-16.3129 104.359 9.43356
-22.3204 83.5466 -1.20457
-22.3406 93.0193 -3.14146
-22.0246 109.104 -5.60707
-18.6501 139.556 -3.31577
-13.8086 129.696 10.8028
-20.6896 85.5906 2.62884
-16.1203 149.747 1.19819
-14.0746 132.182 9.97564
-20.0132 124.464 -3.24002
-15.0262 146.763 4.71955
-19.5976 136.619 -4.51493
-15.4578 137.217 5.68347
-13.7448 127.869 11.8974
-13.9026 125.573 11.972
-17.4312 145.452 -0.835694
-16.7844 98.7722 10.2314
-22.3538 108.357 -5.58128
-14.1957 133.123 9.78655
-15.4334 141.208 5.08707
-21.7899 112.387 -4.91648
-15.3731 136.865 6.15463
-21.065 85.7316 2.38003
-17.7102 90.1001 9.96583
-15.4428 114.409 10.7186
-19.3149 136.576 -3.39473
-16.6493 101.098 10.4364
-14.2843 133.772 9.71887
-20.6222 120.619 -3.38002
-21.9627 114.415 -5.38745
-22.8058 81.7422 -0.830369
-19.5044 85.5375 6.69646
-19.6073 133.183 -3.14649
-19.8321 136.292 -4.31987
-16.1405 109.893 10.2266
-22.5194 89.0903 -1.40256
-18.144 143.612 -1.49797
-22.8586 83.7474 -1.06338
-22.0994 113.494 -5.18817
-17.5986 91.8784 10.4949
-20.1457 129.776 -3.52232
-17.7884 90.9118 10.2207
-14.1242 128.014 11.8525
-15.848 135.845 5.99499
-19.5076 138.329 -3.60453
-18.0139 145.001 -1.16619
-21.5311 117.475 -4.34853
-14.7651 133.433 9.34188
-15.5421 134.027 7.32783
-23.0287 91.3184 -2.52337
-15.4909 146.519 5.21202
-16.1363 138.521 5.29506
-22.881 82.2739 -0.0230731
-14.7637 129.875 10.6281
-22.4454 114.567 -5.39591
-22.176 85.942 1.14854
-18.388 90.0057 9.76881
-16.8702 149.535 1.53122
-20.6619 128.756 -3.42927
-16.2478 112.671 10.8539
-20.0137 132.74 -2.59124
-16.179 149.657 3.56067
-17.1905 106.54 9.7831
-20.8424 124.655 -2.91659
-20.4533 135.888 -4.19929
-15.4479 119.668 11.6541
-21.0746 127.35 -3.81331
-19.5774 87.1903 8.1423
-22.7353 111.354 -4.61139
-17.41 105.423 9.87823
-16.3166 149.446 3.70159
-23.6987 82.73 -1.10111
-22.8769 113.763 -5.19683
-16.6701 149.841 2.99404
-17.4824 104.901 10.1196
-23.466 90.5693 -1.85426
-21.9226 84.9563 3.21079
-20.166 134.05 -2.35067
-23.5929 104.16 -4.75843
-20.7916 137.24 -4.45276
-23.8673 92.8301 -3.05193
-19.1777 143.029 -1.43324
-22.5866 117.843 -4.79249
-15.4293 129.452 10.8322
-21.752 84.4092 4.201
-16.4344 143.928 5.41908
-19.0788 144.474 -1.14112
-23.2068 111.749 -4.71374
-17.8927 147.96 1.29802
-17.8789 96.8914 11.7448
-22.5766 118.907 -4.40147
-16.3347 147.16 5.44719
-23.6027 86.2379 -0.317275
-18.7816 93.0173 10.3349
-22.1721 84.4303 3.67829
-16.817 138.883 6.05907
-20.5844 133.655 -2.24731
-17.4042 109.405 10.6064
-20.3002 86.8452 8.04775
-20.7415 132.686 -2.26555
-21.572 132.915 -4.37685
-21.4862 132.543 -4.05837
-23.4514 111.539 -4.69798
-16.8335 133.272 7.41718
-24.3128 93.1427 -3.06898
-19.3953 90.3056 9.77185
-21.8657 135.593 -5.43317
-19.7991 142.501 -1.42815
-24.5089 81.9727 -0.906816
-18.1957 148.157 1.4879
-21.115 135.78 -3.23491
-21.0223 131.527 -2.12327
-21.436 133.873 -3.52234
-24.2325 102.171 -4.0331
-18.699 147.281 0.622291
-19.2863 93.2904 10.0944
-16.9916 143.436 5.66114
-15.6406 126.004 12.5929
-15.869 124.31 12.3687
-18.3712 96.4673 11.9301
-22.7749 120.619 -3.9304
-23.2768 84.9247 2.08255
-24.4348 91.1699 -2.04448
-17.0605 133.018 7.86989
-23.4527 117.81 -4.95297
-23.4012 85.1649 1.79062
-18.5086 98.3291 11.3412
-21.5735 135.464 -3.79274
-23.9155 112.806 -4.93899
-18.3327 105.811 10.526
-17.5504 133.419 6.98246
-23.9947 113.505 -5.02581
-24.1069 112.091 -4.92525
-17.0824 132.202 8.62482
-17.3215 139.096 6.64573
-24.5563 102.133 -3.83933
-15.9701 126.131 12.7432
-22.1808 84.4633 5.75052
-24.6474 107.72 -4.99629
-17.0649 146.551 6.07985
-16.7206 130.403 10.2653
-24.1632 85.4507 0.832606
-17.4185 143.557 5.87496
-22.0167 132.06 -3.25479
-17.3487 132.408 8.46546
-21.6629 133.312 -2.43678
-22.1133 137.454 -4.3759
-18.6138 102.65 11.4177
-22.6365 136.494 -5.36095
-19.9606 93.9142 9.96748
-18.2472 134.147 6.15333
-22.7303 132.059 -4.57839
-21.8415 135.773 -3.05251
-19.8593 94.2302 10.3403
-24.5683 111.321 -4.8187
-25.0301 105.404 -4.76667
-16.4674 128.572 12.1083
-21.6543 135.41 -2.17399
-19.7222 146.876 0.328026
-19.0494 98.811 11.739
-21.8697 135.636 -2.66378
-17.143 131.488 9.97438
-19.072 99.4862 11.7722
-19.303 96.5926 11.8316
-17.5076 116.153 12.3495
-22.1294 132.472 -2.4394
-21.7575 132.508 -1.5193
-18.9356 104.309 11.2307
-17.5007 116.81 12.2939
-21.8381 134.671 -2.05117
-19.9314 146.726 0.282649
-21.7872 131.246 -1.02276
-18.747 107.998 11.2602
-17.2743 120.407 12.4394
-22.4988 126.445 -1.77201
-18.9286 106.744 11.1898
-24.9526 86.0266 0.436847
-23.8473 122.332 -4.13463
-24.9883 86.6533 0.339469
-25.4526 82.4215 0.0397928
-17.3038 129.167 10.9219
-21.4963 140.73 -1.83737
-21.2363 89.9481 9.10302
-25.1813 83.5059 0.637079
-25.5364 99.9323 -3.5525
-18.0848 140.654 6.78844
-21.2062 90.82 9.2086
-25.3817 102.432 -3.51601
-20.1382 146.877 0.58043
-22.3125 134.285 -2.26468
-18.3424 137.72 6.93578
-17.5169 120.555 12.5104
-23.0157 134.314 -3.96769
-19.3848 100.267 11.9774
-25.4984 89.6357 -1.10254
-22.9426 138.541 -4.62881
-22.7635 129.645 -2.3217
-24.1248 122.739 -4.24796
-18.6387 110.959 11.8657
-24.7851 117.464 -4.6959
-18.3817 139.896 6.75311
-23.2765 136.063 -4.66587
-22.2408 130.711 -0.943846
-20.7701 145.547 -0.256274
-20.8188 95.0229 9.87935
-25.086 84.7027 1.37742
-19.736 97.4448 12.1411
-23.1563 135.073 -3.98844
-18.6248 111.72 12.0903
-19.6282 99.2175 12.1406
-25.0375 84.3123 1.69747
-18.6514 137.111 6.92273
-24.3333 84.0311 3.54452
-17.8269 131.082 10.2906
-24.3884 122.462 -4.28782
-19.091 133.539 6.68594
-25.6233 88.5331 -0.457591
-17.429 128.748 11.8771
-21.9592 88.44 8.76221
-19.4553 103.991 11.8705
-22.48 130.836 -1.03113
-22.9264 130.272 -2.01649
-18.4733 146.099 5.92825
-24.7473 120.662 -4.53485
-24.7933 120.017 -4.47696
-25.9287 103.317 -3.79366
-26.0152 83.3059 0.149669
-19.4658 106.091 11.8574
-19.0433 147.637 4.50867
-23.2395 85.6372 6.63321
-25.6834 109.059 -4.14306
-26.4859 95.0501 -3.24596
-24.2088 130.479 -4.69293
-20.3353 97.4182 11.7107
-23.0592 130.531 -1.76459
-18.0838 130.178 10.7222
-25.4539 84.1716 1.85066
-19.1903 138.007 6.65136
-19.6051 133.625 6.56117
-24.6114 84.1945 4.11248
-19.0661 140.748 6.51826
-26.2757 91.7913 -1.49321
-24.7168 132.632 -5.87392
-22.0083 142.449 -1.07951
-19.6701 133.626 6.57932
-24.2027 124.164 -2.65002
-26.5668 93.396 -2.25115
-26.0374 110.191 -4.32971
-20.4598 98.5672 11.9219
-22.3208 92.9967 8.44427
-19.939 133.698 6.2236
-22.5605 90.7504 8.40293
-17.9332 124.214 13.2121
-19.043 144.052 6.57578
-22.4389 94.099 8.31727
-20.0882 147.528 3.41175
-24.473 128.061 -3.51464
-25.3209 121.084 -4.17634
-24.6323 128.223 -3.81295
-26.066 114.011 -4.49837
-19.5737 132.686 7.92299
-21.1347 97.947 11.0687
-21.3004 97.9408 10.8996
-24.7117 127.999 -3.6096
-23.431 129.17 -0.641585
-25.3959 121.875 -3.99017
-19.1746 114.047 13.1083
-22.975 90.9513 8.32664
-24.5909 137.207 -5.06198
-27.0367 98.1542 -3.24324
-23.3679 129.911 -0.530521
-25.6215 120.301 -4.13654
-23.6733 86.6343 7.53951
-21.3509 98.5044 10.9618
-22.2073 96.4645 9.29918
-24.0649 126.349 -1.37694
-19.8185 131.048 8.25488
-25.777 119.399 -4.16671
-20.1497 147.029 4.26769
-21.7811 97.213 10.3035
-21.2042 146.587 1.76351
-21.5025 145.991 1.22938
-18.29 126.613 13.1725
-19.9142 108.561 12.9119
-24.5634 127.102 -2.41208
-20.1096 129.76 8.15525
-18.7934 121.792 13.0947
-18.4291 124.664 13.4296
-20.0153 107.748 12.9084
-23.9208 130.42 -1.3701
-24.9334 126.947 -2.99937
-21.9926 97.835 10.2636
-19.1624 128.953 11.0626
-23.3815 89.869 8.52824
-21.1206 146.839 2.66752
-25.3001 122.723 -2.85679
-24.9609 127.994 -3.06154
-24.7317 127.342 -2.34309
-23.3373 94.5609 7.87224
-26.4351 83.6054 2.39082
-27.0517 87.6476 0.0758791
-20.8168 146.894 3.6178
-26.4907 115.933 -4.17359
-22.9934 142.711 -0.879686
-24.0513 129.511 -0.827332
-21.1865 100.729 12.2509
-20.5368 146.485 4.7079
-24.9212 127.437 -2.35533
-20.6299 104.628 13.0118
-24.1429 87.132 7.93014
-25.3725 126.803 -3.15156
-25.1506 126.502 -2.52195
-20.3521 128.318 9.09943
-24.8324 126.993 -1.77703
-23.749 89.4702 8.56776
-23.3569 141.982 -1.04118
-25.3283 128.358 -3.09474
-26.7179 112.514 -3.33035
-20.5998 133.503 7.69577
-21.4079 133.917 5.61712
-24.3044 125.89 0.0575714
-27.2747 109.047 -3.77539
-25.3112 128.186 -2.74968
-24.3346 125.962 0.139453
-20.4736 142.451 6.47418
-21.1231 102.819 12.9272
-24.3517 129.625 -0.471287
-27.815 83.3539 0.281827
-25.7523 84.1415 5.28037
-24.0365 92.9951 7.82093
-24.757 127.717 -0.95704
-27.0293 114.659 -3.96972
-25.0666 85.2854 6.90115
-26.2811 121.924 -3.54089
-21.016 105.234 12.9622
-26.6705 82.557 3.53519
-25.3685 127.443 -2.29592
-24.9923 123.711 -0.558374
-26.0859 127.498 -3.98948
-21.3344 135.665 6.26317
-25.977 83.9711 5.16485
-25.7491 125.879 -2.73227
-28.6303 82.9714 -1.17252
-26.0817 128.294 -3.94669
-24.2669 90.2828 8.32661
-19.5265 122.553 13.6089
-24.4817 127.88 0.191707
-24.8729 128.914 -0.987701
-27.7869 83.7896 0.927072
-21.2532 146.08 4.59654
-26.0443 83.9834 5.24033
-25.4791 126.158 -1.83588
-27.2055 110.885 -2.94136
-19.4528 124.87 13.6209
-25.0768 126.051 -0.545843
-27.2629 113.792 -3.48219
-21.5698 103.886 12.7761
-25.6624 127.724 -2.23835
-26.4731 131.03 -4.90312
-28.292 99.9487 -3.09559
-21.1825 108.241 12.9632
-20.9505 128.719 9.40481
-26.7408 120.844 -3.35535
-26.4502 126.699 -3.76808
-28.3693 99.7309 -3.08355
-26.5779 121.683 -3.05178
-24.9172 126.951 0.0366568
-21.508 137.17 6.50233
-25.3333 127.366 -1.03974
-28.1014 87.3734 0.161845
-21.2015 140.214 6.65897
-25.0964 127.941 -0.510844
-22.2033 101.985 12.0122
-28.1791 89.7042 -0.389826
-26.1686 125.685 -2.57322
-20.2021 126.4 12.2161
-29.1553 83.1608 -1.31283
-28.007 107.426 -3.1468
-24.8142 93.1305 7.72594
-26.4526 128.717 -3.54394
-25.9395 123.548 -1.19377
-21.1932 111.12 13.1798
-27.0148 83.9794 4.18654
-21.7342 131.883 7.71822
-28.6269 83.4935 0.382005
-20.7303 127.567 11.1482
-24.0862 97.5695 8.9944
-27.0411 130.74 -5.04258
-22.6046 135.354 5.09098
-21.6003 132.368 8.21304
-27.6979 112.216 -2.85775
-20.5467 119.51 13.5267
-25.9336 125.692 -1.09184
-27.066 130.687 -4.91903
-25.2572 88.6965 8.09029
-26.8335 130.629 -4.29127
-26.3374 133.491 -3.59593
-24.991 126.219 1.2982
-26.2074 125.759 -1.62235
-24.0721 98.4001 9.23894
-27.4648 83.3734 3.84397
-25.6175 128.355 -0.658331
-26.001 136.945 -3.32809
-26.5555 125.333 -2.3468
-20.6984 119.032 13.588
-29.0023 99.1646 -3.07709
-22.5512 136.885 5.44823
-25.0188 128.208 1.05775
-25.2591 93.1844 7.63861
-28.2923 106.795 -2.58371
-28.8297 89.7177 -0.410494
-22.6379 133.966 6.20366
-27.5875 83.1532 4.20017
-22.3068 138.217 6.31925
-28.8472 86.1459 0.653616
-25.7012 126.995 0.286817
-20.7559 124.582 13.1139
-28.1695 113.906 -3.17572
-27.5747 83.23 4.56909
-28.208 109.267 -2.223
-28.8757 105.745 -3.15207
-20.8692 123.742 13.1573
-20.8455 123.48 13.2721
-21.3351 117.122 13.3732
-25.5498 126.897 0.950075
-22.3541 130.173 8.25358
-27.4361 125.858 -3.53546
-26.0156 87.7357 7.73047
-22.6833 143.881 4.76653
-27.1101 84.2013 5.91599
-25.3558 128.141 1.45406
-26.0612 88.2208 7.82563
-27.0359 84.9808 6.17866
-22.9355 104.383 12.5161
-27.6631 82.9237 5.09858
-25.8923 126.767 0.691344
-26.3489 126.581 -0.376719
-27.6584 129.901 -4.2858
-27.8564 119.934 -2.66902
-22.8773 132.879 7.26257
-21.9025 116.085 13.141
-22.8636 139.234 6.13563
-28.3195 115.935 -2.74037
-27.2123 121.923 -1.19119
-26.3859 124.058 0.574082
-27.474 129.037 -3.10666
-26.1241 126.259 0.847729
-22.3597 111.675 13.184
-29.8663 95.7901 -2.26429
-28.9021 107.96 -2.29769
-27.1876 123.283 -1.039
-26.5031 123.796 0.724887
-23.5907 144.405 3.81593
-26.545 125.527 0.319473
-22.1047 116.644 13.343
-30.3396 83.4897 -0.45467
-26.1181 139.359 -1.23479
-23.7164 103.827 11.9889
-28.849 111.826 -2.36225
-22.7481 129.11 9.36518
-27.8295 120.081 -1.45346
-23.0335 108.722 12.8104
-26.5363 125.026 0.796307
-27.422 86.3187 6.51915
-28.2927 84.3819 4.75047
-24.2602 136.626 4.25905
-28.3661 118.793 -2.32035
-28.2294 83.1064 5.2454
-25.0085 100.572 9.81387
-25.4995 98.8675 9.00906
-23.8324 143.909 4.05512
-25.6513 98.0236 8.82789
-25.8456 127.439 2.39667
-23.1964 129.154 8.68811
-30.0057 93.7074 -0.934638
-28.4279 129.729 -4.2892
-26.6369 136.948 -1.23629
-28.6454 117.39 -2.2126
-22.211 120.227 13.2495
-22.1285 121.249 13.2514
-23.9308 134.692 6.11623
-27.698 121.241 -0.516907
-23.1545 130.15 9.10577
-26.184 125.979 2.44929
-24.276 104.058 11.6943
-26.402 125.681 2.07265
-30.6935 97.8473 -2.9783
-22.5581 126.08 11.5858
-28.2186 128.345 -2.92592
-23.8238 129.169 7.86391
-23.6379 133.277 7.59684
-23.3317 129.292 9.21054
-24.7896 102.292 11.0728
-27.3299 93.6911 6.48435
-30.4677 103.385 -3.28525
-28.2273 123.243 -1.63974
-28.2483 123.232 -1.6479
-23.7832 130.129 8.10133
-24.1943 128.564 7.42187
-23.7971 129.732 8.18163
-27.7565 120.958 0.194856
-28.1569 119.884 -0.570136
-23.4986 111.836 12.7062
-24.1251 141.862 5.08659
-27.2037 127.607 0.334756
-28.9048 83.7243 5.0081
-28.9246 118.102 -1.87523
-28.7113 127.263 -3.13531
-22.8074 121.162 12.8653
-23.2724 121.278 11.7219
-23.0884 115.742 13.333
-25.0366 136.173 4.36768
-23.0589 117.025 13.2057
-30.5918 93.5409 -0.793976
-26.9301 124.471 2.11549
-24.7401 104.931 11.5423
-28.6053 131.333 -3.3407
-24.2201 139.94 5.93878
-24.2941 108.111 12.2082
-23.0903 120.627 12.6923
-31.2039 99.1764 -3.12579
-23.5931 126.666 10.289
-25.1384 103.606 11.1189
-27.075 126.523 1.66278
-27.9111 88.3209 7.32825
-27.6933 91.3085 7.274
-26.5275 98.4049 8.77915
-31.001 84.7165 0.56702
-23.6738 126.384 10.4018
-26.6421 127.237 2.86981
-26.9224 138.748 -0.151043
-23.4967 118.863 12.4602
-28.4931 119.901 -0.172805
-29.2684 85.3195 4.90198
-26.7252 98.0183 8.67846
-24.7 128.261 7.61694
-27.1094 125.787 2.1284
-27.0458 126.47 2.2229
-24.0321 130.646 8.90664
-28.1861 88.2512 7.18023
-26.536 127.915 3.26256
-24.1115 121.407 10.6419
-27.046 127.515 2.10751
-27.1565 126.831 1.98233
-24.7422 107.728 11.9113
-24.6718 140.795 5.41244
-29.9083 111.923 -1.78341
-27.6656 126.795 0.879147
-24.9034 129.426 7.27351
-28.1033 91.0139 7.08247
-25.5998 142.488 2.92768
-25.1291 141.84 4.27738
-27.6073 122.73 1.99549
-30.883 85.4057 1.39327
-27.5006 96.3526 7.60669
-26.5097 127.345 3.92478
-27.1977 137.861 0.111735
-24.5056 117.611 10.9504
-31.2886 95.5996 -1.44007
-25.8976 117.976 7.50107
-24.4081 112.603 12.3584
-25.4406 129.112 6.47219
-24.2858 128.338 9.51806
-27.097 127.615 2.68059
-25.3111 141.607 4.31994
-26.0708 127.426 5.35028
-24.6014 115.924 11.3891
-24.2413 126.445 10.1611
-28.7025 120.088 0.339231
-28.6989 120.133 0.395588
-25.8274 117.773 8.13156
-25.5552 120.074 8.35745
-24.4444 115.26 12.1082
-29.6886 129.745 -3.88911
-25.6335 138.166 4.56234
-25.8993 117.623 8.13611
-27.1467 126.062 3.36033
-28.4795 89.8978 7.42214
-25.116 126.866 8.41906
-29.7997 116.277 -1.07189
-27.2343 138.621 0.825689
-25.2825 139.935 5.42825
-29.8481 129.405 -3.81428
-26.1799 127.69 5.69274
-24.8349 127.584 9.1043
-25.2075 127.291 8.34112
-27.4728 126.915 2.78291
-25.7374 106.65 11.2153
-24.729 127.556 9.51495
-29.9145 123.01 -2.48012
-26.7087 127.333 4.67721
-24.72 132.931 8.54602
-27.4668 127.457 2.85325
-24.7801 114.421 12.1983
-26.1727 116.977 8.2161
-26.616 127.259 5.04124
-24.8948 114.71 11.8753
-26.9385 101.449 9.49799
-25.7659 139.255 4.81382
-24.8778 126.116 9.69164
-28.268 122.135 2.05355
-25.7017 121.64 8.64924
-26.1845 122.008 7.38087
-28.9981 133.246 -1.86735
-25.556 127.944 7.8351
-25.8961 127.067 7.17486
-27.1394 128.369 3.82358
-28.0361 136.762 -0.061318
-25.891 127.995 7.22036
-24.9363 123.573 10.5382
-25.9892 128.733 6.88552
-30.1527 123.137 -2.28935
-27.0988 123.849 5.1839
-25.4254 113.274 11.5003
-25.8022 128.853 7.41823
-26.9603 115.49 7.28682
-26.7314 126.989 5.54805
-25.9205 127.114 7.578
-28.7507 121.3 1.71651
-28.444 122.254 2.30979
-26.0028 139.498 4.91369
-29.5233 87.933 6.58249
-31.5152 105.39 -1.90607
-27.8711 125.605 3.08273
-26.0611 127.936 7.19205
-26.9281 126.991 5.39386
-32.2297 94.7332 -1.27396
-26.0357 128.456 7.34815
-29.5885 93.5729 5.57358
-27.0979 123.979 5.65328
-25.1134 132.591 8.94562
-30.7498 85.6067 4.45461
-29.2152 94.9005 6.40928
-27.2983 140.433 2.06745
-27.6685 125.708 4.13309
-27.4283 126.969 4.54695
-30.5429 113.696 -0.50541
-28.9481 121.376 1.9285
-32.1256 84.2874 1.53743
-26.8697 104.848 10.4758
-30.405 125.77 -2.56685
-29.224 133.821 -1.25026
-30.6256 112.893 -0.496977
-30.1951 85.8775 6.04966
-29.5652 119.763 0.775379
-27.6521 126.772 4.18371
-30.1814 116.966 -0.118699
-32.1997 84.4852 1.49213
-26.8292 105.884 10.6114
-26.9708 134.129 4.58085
-27.727 127.315 4.07763
-28.4126 114.33 5.01103
-27.1186 121.591 6.82763
-29.8597 93.8541 5.6458
-29.0239 97.1537 7.08332
-26.5 113.214 10.209
-28.9976 135.218 -0.431655
-27.8823 126.7 4.15145
-30.6959 113.773 -0.197996
-27.194 125.214 6.23417
-32.3366 84.5516 1.65837
-29.9914 90.3889 6.33817
-27.3727 121.826 6.57879
-26.7888 108.874 10.6798
-32.1766 104.114 -1.75657
-27.0521 140.069 3.74397
-27.4887 123.007 6.15023
-27.4604 123.075 6.23047
-28.7462 114.018 4.86153
-32.8852 88.7725 -0.318834
-26.7874 127.628 7.01176
-29.3286 97.4968 6.79446
-32.2371 84.6558 2.16772
-26.8376 113.296 9.86011
-31.2742 109.289 -0.380057
-26.7858 109.939 10.6919
-28.5952 123.528 3.43349
-30.422 92.414 5.22763
-26.8961 128.443 6.77287
-32.7302 83.6098 1.32466
-30.7922 83.9984 6.12003
-26.9934 126.647 7.11318
-26.7175 127.765 7.62753
-30.7502 126.077 -2.06174
-26.5032 133.658 6.99013
-28.5157 120.422 4.66308
-25.8233 131.857 9.27472
-27.1614 111.012 10.2059
-31.7457 107.77 -0.519022
-32.4222 84.3202 2.58422
-28.006 113.103 7.7708
-29.1551 115.578 4.47339
-28.3435 121.48 5.37055
-29.1827 113.462 5.00481
-28.6984 121.031 4.68937
-29.0191 122.926 3.55506
-27.5753 109.203 9.94681
-32.6076 103.489 -1.43381
-27.9194 126.465 5.67012
-29.5164 98.4862 7.35715
-26.2583 129.133 9.29489
-33.4139 90.0229 -0.58201
-28.6526 125.472 4.11657
-29.8531 114.462 3.38813
-29.7382 119.467 2.66219
-31.649 108.405 0.185982
-31.0075 124.551 -1.41214
-29.1034 122.516 3.77973
-27.6229 111.848 9.66082
-31.1029 93.1518 4.78464
-29.0149 123.065 3.96035
-32.3645 104.484 -0.604308
-28.179 137.181 3.34758
-31.5443 84.581 5.61534
-29.8512 134.364 -0.233495
-33.4805 94.3157 -1.14185
-28.5929 127.515 4.3353
-30.6793 89.0054 6.93614
-28.3695 105.553 9.36587
-31.058 128.286 -1.90013
-26.8263 128.697 8.64199
-28.3759 106.321 9.32415
-29.562 135.593 0.447041
-31.164 110.75 1.49827
-31.784 108.027 0.524166
-33.7147 98.9562 -2.3913
-33.0983 101.9 -1.43389
-28.569 104.983 9.24499
-32.6412 84.0413 3.37038
-30.8273 116.49 1.46558
-29.7521 99.244 7.64684
-30.1089 112.688 4.04489
-32.7934 83.9616 3.30735
-33.1887 102.171 -1.26633
-31.4608 108.842 1.75877
-32.2556 105.811 0.442504
-28.4389 133.829 4.28216
-31.3662 92.2306 5.49213
-28.5104 111.069 8.85804
-29.0311 127.583 4.37028
-33.708 98.9112 -1.30966
-29.4854 112.338 6.49578
-31.3156 121.768 0.0608495
-29.0817 136.093 2.84333
-34.1155 98.4866 -1.99407
-29.2237 107.818 8.32288
-33.2544 102.659 -0.563916
-30.2331 111.977 5.28105
-31.3628 129.551 -1.08575
-34.3434 95.9907 -1.71226
-32.1119 95.4613 4.01831
-28.5678 126.956 6.52069
-29.4604 110.877 7.57123
-32.0011 96.6048 4.14376
-28.3356 126.658 7.23854
-28.6788 133.498 5.02284
-31.3132 111.437 2.93087
-32.0931 87.0324 5.94797
-29.2261 127.673 4.89659
-27.5091 131.858 8.33382
-32.1086 87.0544 5.94748
-29.8293 104.737 8.04937
-31.7813 123.502 -0.587237
-27.6037 131.883 8.12768
-30.1858 111.745 5.77633
-31.6751 90.597 6.36083
-33.74 98.6091 -0.401484
-34.2051 86.0873 1.13333
-28.4643 126.656 7.24643
-33.5566 102.122 -0.315178
-32.9108 101.131 1.53769
-27.3865 130.531 9.37068
-34.4838 93.3062 -0.742083
-30.1936 102.311 8.19921
-30.2066 105.196 7.67806
-29.9878 109.984 7.2667
-28.0547 128.862 8.30058
-30.2995 110.162 6.67369
-32.4691 87.4192 5.89878
-34.5815 92.167 -0.308298
-31.9601 110.684 2.54346
-30.6719 110.861 5.73658
-30.4671 108.639 6.77927
-34.6393 89.9106 0.315462
-33.1476 103.353 1.3349
-31.4638 99.9986 6.23583
-33.0724 103.228 1.57653
-30.5804 102.656 7.90896
-31.189 123.462 2.21978
-31.5553 130.677 -0.0464916
-31.5673 130.599 -0.0499548
-34.6006 86.639 1.32078
-34.3379 82.3216 2.851
-33.8402 85.728 3.41521
-34.0289 85.8636 2.96922
-32.6658 105.871 2.41625
-28.5428 131.411 7.52314
-32.9766 101.399 2.56648
-29.4805 127.862 5.94209
-30.8077 102.909 7.74173
-33.4401 99.98 1.81215
-32.117 109.07 3.27793
-34.0707 98.3085 0.592464
-29.4873 133.151 4.97173
-32.2741 108.03 3.1585
-31.4513 110.199 4.79918
-33.6748 99.0371 1.57553
-30.59 134.983 2.01546
-35.0343 92.186 -0.353503
-32.8773 88.1683 5.85467
-31.0701 102.419 7.49101
-31.7276 123.4 1.62902
-32.031 122.931 1.0347
-31.0794 104.058 7.30636
-29.6113 132.942 5.35582
-30.9693 134.082 1.7651
-34.0855 85.3629 3.88408
-31.2985 104.128 7.03462
-33.2765 84.3281 6.20613
-29.75 128.015 6.16997
-32.9031 105.225 3.07631
-28.4305 130.83 9.11011
-31.6904 105.295 6.25774
-31.8343 107.135 5.53355
-32.3809 108.219 4.04652
-29.3469 131.192 6.99372
-34.4665 86.3955 3.36141
-33.4796 94.3349 4.23484
-32.5764 108.117 3.7402
-31.9013 104.939 6.11183
-33.1502 98.6552 4.30086
-29.3921 126.927 7.94805
-32.7332 107.542 3.66976
-33.5027 93.4498 4.76019
-32.1972 124.041 1.83173
-34.9911 97.7127 0.290805
-33.8757 94.2719 3.8416
-32.7744 104.294 4.60955
-32.729 104.664 4.67151
-32.5858 102.312 5.58795
-32.47 104.87 5.36203
-31.9654 130.813 1.3997
-34.6148 84.4117 4.4402
-33.9188 83.5443 6.4536
-33.7056 91.6088 5.43614
-35.4756 97.3937 0.203087
-32.3669 129.316 1.55272
-35.1868 95.078 1.45886
-29.8158 126.601 8.77059
-35.4121 86.8032 2.92598
-35.0691 84.6767 4.48758
-35.2951 82.7915 4.42973
-34.4687 82.4092 6.79403
-32.6446 128.249 2.07655
-31.8488 123.522 5.19271
-35.7953 94.9298 1.19907
-34.8357 93.0037 4.0144
-30.5893 127.077 7.78258
-34.9132 90.209 4.52898
-32.6605 128.352 2.62671
-35.9486 87.6815 2.71382
-35.5048 83.8197 4.6737
-32.7707 127.858 2.60967
-32.7328 128.046 2.67221
-31.4455 132.01 5.14383
-31.4578 131.915 5.15649
-35.8238 82.0048 4.43331
-31.0732 130.006 6.57109
-31.227 131.136 6.11144
-31.2052 125.845 7.3292
-31.5577 125.445 6.65205
-32.2086 129.725 4.51868
-35.8769 93.4951 2.76439
-33.0071 127.242 3.10114
-36.6769 85.2142 2.74699
-33.2851 126.318 2.9371
-35.6324 92.1417 4.05871
-33.3135 126.253 2.99984
-37.0164 91.3028 1.16653
-31.3218 125.923 8.39669
-36.1975 90.0981 4.2519
-37.1861 82.7053 3.66306
-33.7482 125.206 3.82513
-36.7282 91.8192 3.4339
-37.5873 90.0674 1.77127
-37.0749 91.8036 3.0256
-36.9294 90.8313 4.00234
-36.8825 90.4039 4.20618
-32.5868 126.673 7.94736
-37.8205 89.5714 2.45619
-37.158 84.3997 5.30432
-37.288 85.3303 5.21831
-33.1479 126.025 7.30856
