ply
format ascii 1.0
comment Created by Open3D
element vertex 1940
property double x
property double y
property double z
end_header
7.45315 102.882 3.79008
-7.13608 111.896 3.74199
5.74301 111.304 -11.8212
-17.4965 116.219 8.23581
-13.7514 118.865 -2.18763
15.1408 100.105 -0.151222
-9.56184 113.205 4.36929
15.4494 100.072 -0.473491
-6.92441 111.904 3.78545
1.44531 105.294 6.94548
15.0211 106.45 -13.2857
-13.0295 119.988 -5.1812
23.6181 99.2552 -9.09301
-13.6811 116.73 2.84347
6.48714 111.372 -12.1625
14.0318 100.392 1.33265
-6.12923 111.489 4.26676
23.403 99.6246 -9.20667
4.75143 112.192 -11.4527
6.81707 103.689 3.99013
4.90425 104.418 4.98606
34.5997 86.8362 3.46768
26.1254 97.8474 -8.75693
18.207 99.3638 -1.52523
15.9722 100.477 -0.934046
8.05404 111.018 -12.9599
-7.6183 112.495 4.52592
-2.26729 114.927 -7.62581
38.1302 84.8495 3.41993
-10.9236 114.76 4.12206
-12.3509 118.62 -2.22054
22.1775 96.4295 -0.250295
-13.1993 117.728 0.831185
23.5813 99.811 -9.23917
-5.39421 116.953 -7.61652
7.93308 103.489 3.6262
18.5013 104.54 -12.4615
-14.8044 119.252 -0.086136
-12.5336 118.288 -1.00128
-17.463 120.18 1.51061
-11.3088 115.383 3.7586
-4.91962 116.782 -7.56286
-12.1749 117.705 -0.00813731
5.50289 104.605 4.75496
24.5496 99.3789 -9.04413
-13.1741 120.461 -4.41644
-13.0357 117.502 1.70544
-13.5458 117.924 1.47786
-13.1275 118.833 -0.950929
-13.6333 118.209 1.23894
21.6709 101.843 -10.2261
34.0669 87.7344 3.55157
22.8059 100.936 -9.67409
-14.0097 118.616 1.01142
-5.49407 117.392 -7.53727
-15.209 119.733 0.234552
32.9008 89.3792 1.93487
-3.59658 109.796 6.37045
5.06236 112.928 -11.6032
-12.5738 119.468 -2.37206
-12.4211 116.562 3.61867
24.6749 93.8249 3.44113
-0.5686 114.518 -7.48086
3.49955 105.817 5.77897
15.3456 107.339 -12.9722
-15.2831 119.159 2.09129
-4.26339 116.842 -7.41113
20.9744 102.966 -10.959
-13.2678 118.186 1.62789
-18.3584 118.6 7.45493
38.7116 85.7075 2.69671
-12.5631 119.708 -2.33757
30.3029 91.3243 1.87332
-16.6641 120.775 0.821516
-4.98194 111.404 5.46741
-12.5475 121.191 -5.29041
3.54164 106.08 5.7959
-12.9009 117.677 2.70654
36.4398 88.8346 -0.619629
38.6368 86.1334 2.2723
22.5522 97.1804 -0.140708
21.3366 102.937 -10.7654
-0.858669 115.063 -7.33847
31.5336 93.3305 -3.48914
-15.341 118.122 5.36511
3.87986 114.184 -11.4374
-17.8283 117.004 11.0876
-4.14977 117.222 -7.29008
-6.13602 118.312 -6.9755
24.3575 94.4969 3.74729
-13.0779 118.737 1.32698
-3.18537 110.128 6.69958
3.90177 106.267 5.69806
-18.0648 118.88 7.69157
23.5121 96.483 0.835256
1.67088 107.142 6.87346
29.1028 96.6162 -6.6634
6.84025 113.039 -12.376
-13.0754 118.975 1.13535
-17.0785 118.152 8.14696
-12.3806 121.654 -5.45059
12.4964 102.61 2.46616
-13.1167 119.657 -0.209792
6.00072 105.531 4.77777
-13.315 121.286 -3.35022
-10.2087 120.746 -6.2699
23.2121 101.832 -9.8475
1.65795 114.808 -9.16202
38.1933 87.669 0.765052
1.39147 114.786 -8.67742
18.3102 101.102 -1.72185
-6.78972 118.897 -6.67176
23.3866 101.791 -9.804
23.359 96.9596 0.560036
26.3866 93.6646 3.60676
-13.2924 118.955 1.83834
-15.4826 121.128 0.0935475
24.1582 96.0229 1.59486
-13.1855 121.608 -3.82164
-15.0554 119.326 3.51119
24.4724 95.545 2.29388
-12.6505 118.2 2.78478
-12.9236 120.624 -1.98953
20.6442 99.6319 -1.29118
-15.6758 118.22 6.81167
-12.3267 119.142 0.489745
32.7317 93.1202 -3.19422
-15.7539 118.888 5.56388
29.9988 92.2527 2.35431
-8.32764 114.58 5.11415
-15.58 116.76 10.0265
-15.4966 119.217 4.69329
32.9744 93.0077 -3.07583
6.46168 113.667 -12.2278
8.90712 104.803 3.45004
-11.3936 118.921 0.044849
-15.6687 119.367 4.7747
-15.8123 116.835 10.4813
3.62441 115.076 -11.2679
0.0728524 115.531 -7.5634
-12.7769 119.909 0.0487452
16.0982 102.371 -0.41885
-12.2794 119.199 1.0208
-15.7152 119.474 5.00242
13.6674 102.724 2.1623
9.99964 104.548 3.1368
-12.1168 119.935 -0.591165
20.2832 105.397 -12.1377
-0.690424 115.949 -7.07264
37.7183 86.877 4.43088
22.5691 103.186 -10.3876
28.6903 98.0759 -7.52259
23.3796 97.6706 0.331862
25.7581 100.814 -9.44155
24.8985 95.3865 3.23982
-11.5717 119.354 0.0703879
-9.1054 121.037 -6.73479
-13.0114 122.005 -3.64818
24.8592 95.6512 2.81038
-17.7264 118.337 10.4041
-17.4361 119.22 8.20691
39.8733 86.2743 3.2341
-8.11789 120.459 -6.53728
-12.0267 118.879 1.97568
-12.2746 118.489 3.15498
0.274353 108.687 7.5614
32.691 94.0636 -3.82186
-16.3101 119.886 5.49717
9.86082 104.831 3.21801
-14.8672 119.033 5.51312
-10.3018 116.359 5.26535
22.9814 98.4699 -0.271251
-3.71889 118.063 -6.94716
39.5987 86.0564 4.42785
-17.5076 119.223 8.78582
17.8574 107.382 -12.3082
18.8579 101.735 -1.56905
-10.8618 116.952 5.0871
36.5196 88.4285 3.68269
0.492077 108.883 7.44732
-16.4323 119.305 7.48276
-2.7466 117.602 -6.8372
39.4665 86.3088 4.46245
-12.2263 119.461 1.72338
-13.3417 121.518 -1.18911
-14.238 119.689 3.90996
21.0118 105.348 -11.7349
29.6877 97.4154 -6.19287
20.4283 106.035 -12.3517
22.1779 104.248 -10.8247
23.7083 102.994 -10.112
12.3446 104.121 2.4287
-17.6529 119.112 9.8806
-8.00795 120.801 -6.33309
30.8191 92.8673 2.20076
-14.9179 122.199 -0.215775
20.2425 101.061 -1.3385
22.7008 99.1528 -0.496935
17.7783 107.714 -12.228
-14.9409 122.252 -0.175356
-14.4268 122.073 -0.418998
28.1544 93.9531 3.6336
-8.31558 121.109 -6.30685
-18.3625 119.73 9.83708
40.0938 87.2736 2.29081
-17.02 117.508 12.8815
24.0617 97.8946 0.786841
-18.5264 122.42 4.49202
-7.512 120.651 -6.14884
-16.7808 117.879 11.9113
-16.8926 117.892 12.0453
-12.0448 119.812 1.6508
9.71369 112.736 -11.8159
-12.036 119.854 1.60528
36.1356 89.2253 3.7022
27.6339 100.544 -9.21462
-16.6929 122.524 2.25852
-1.54687 117.345 -6.57287
-19.0136 122.547 5.28642
29.5703 98.1525 -6.49607
-12.2669 121.103 -0.447697
-12.4125 121.484 -1.06538
-16.4504 120.546 6.22846
14.2021 110.688 -12.9513
-12.261 123.12 -4.66149
38.9841 89.523 -0.355511
23.2611 99.2091 -0.282791
-17.4287 118.453 12.1395
-11.9447 118.499 4.85151
-17.5031 118.488 12.1725
4.02806 108.313 5.60623
-12.0338 120.571 0.598343
-18.8609 120.404 9.9159
-19.0244 121.042 8.81061
-13.2286 119.298 4.92569
-5.00585 113.579 6.31646
20.1522 106.873 -12.3442
10.2661 112.645 -11.6516
-13.03 119.222 4.92221
28.7921 99.3278 -7.57836
-11.3086 119.16 2.92454
-8.52171 121.686 -6.06366
-9.29969 116.479 6.05076
34.3303 94.1787 -3.70427
-11.1967 117.949 5.44026
-17.3464 118.863 11.5754
17.7515 108.421 -12.2114
-12.3071 123.355 -4.48593
21.8025 100.756 -1.12458
14.6317 110.663 -12.7885
-11.8184 120.893 0.137899
12.5836 104.846 2.3005
31.1278 93.4443 2.26929
-13.7809 119.33 6.12067
12.6923 104.835 2.25646
32.8944 91.871 3.41204
6.14694 107.744 4.73906
34.9463 90.0202 4.76466
31.6045 93.1763 2.47412
37.6532 88.6172 4.31343
1.05543 116.819 -7.68301
23.6539 99.2832 0.00144627
-13.3516 120.126 4.25168
-15.6673 119.68 8.24146
-13.4936 122.155 0.14536
-12.5296 123.361 -3.67708
-12.9373 119.315 5.53613
38.2583 88.1288 4.77931
21.4429 106.378 -11.9775
3.99004 108.828 5.7075
40.4159 88.6113 1.00219
-12.6958 119.796 4.30921
-4.59271 113.781 6.48681
4.64761 108.692 5.23886
18.7683 108.262 -12.2932
-17.4174 119.175 11.9986
18.5288 108.447 -12.2937
19.3241 107.994 -12.3165
-12.3286 119.718 4.24953
25.1572 97.0231 3.38764
16.1144 109.969 -12.3007
-16.1317 118.034 12.8314
39.4423 90.1116 -0.605098
-4.92689 119.983 -5.98423
-1.44219 111.229 8.17417
11.2089 112.726 -11.5607
-6.23163 114.808 6.95493
20.5218 107.425 -12.3871
-11.4732 118.638 5.7343
-18.6544 124.082 3.57208
-5.74387 120.569 -5.84514
-3.56667 119.398 -6.07949
-11.8945 119.373 4.90182
-12.0325 119.445 4.9567
-11.7072 119.182 5.16584
-11.7236 120.572 2.27666
-11.5491 121.809 -0.578248
-11.1988 118.592 5.82467
-15.2656 119.869 8.56921
-7.20493 121.586 -5.56684
15.0284 104.583 1.47286
-6.8143 121.404 -5.61864
24.9591 104.129 -10.5122
25.0182 98.0677 2.35256
-11.7687 120.348 3.21058
-7.54862 116.029 6.92587
-9.53315 117.769 5.86451
14.2497 105.092 1.65736
39.0365 88.2498 5.02546
-17.6798 124.924 1.46376
25.0237 98.3035 2.13942
-12.7626 122.643 -0.0282479
-1.51107 111.873 8.15131
-2.80534 112.718 8.06864
5.39654 116.832 -11.4412
-14.8134 118.615 11.2913
30.2153 94.6961 3.16056
13.3815 112.638 -12.9075
-8.63798 117.212 6.32908
0.635542 110.993 7.43903
-18.7825 121.649 10.2469
32.6648 92.9958 3.78844
-18.4555 121.203 10.8086
19.0188 108.999 -12.3594
-13.6907 120.141 6.89364
22.9992 106.336 -11.844
39.2278 91.5681 -1.68517
17.1798 110.054 -12.1022
34.7234 91.3195 4.80936
23.423 100.788 -0.519465
12.3889 106.303 2.3477
12.8983 106.11 2.11216
21.8392 102.228 -1.33886
4.4025 117.579 -11.0796
30.7346 94.7826 2.93212
7.52998 115.992 -11.7604
-0.31831 118.432 -6.57325
-15.9839 124.792 0.645344
37.3332 90.508 3.736
40.3615 88.1292 4.91494
32.2132 98.0693 -5.54238
14.3019 112.521 -12.7454
-14.7066 118.627 12.3452
-12.5895 120.705 5.14848
-15.7306 119.104 12.6917
38.8271 89.6934 3.74624
-14.7192 118.665 12.3493
-12.4752 123.209 -0.260795
27.8765 102.781 -9.68741
-12.8848 123.685 -0.70334
23.9709 100.651 0.0219509
-15.0496 118.861 12.461
28.3576 95.9936 4.4085
35.6239 95.4766 -4.01847
19.3277 109.421 -12.3193
-18.8187 123.097 8.61477
38.7831 90.0305 3.4719
2.26382 118.413 -9.00891
0.695356 118.46 -7.04723
15.2799 112.008 -12.3941
18.1967 105.092 -1.49376
-12.9628 120.743 6.07102
40.4867 88.5618 4.49349
10.9196 107.355 3.3023
-14.9387 119.029 12.4328
25.9096 104.794 -10.832
-14.2524 120.363 8.7335
14.9013 112.391 -12.5348
29.107 101.901 -8.79774
31.2518 95.0399 3.02172
28.8637 102.207 -9.00832
41.9977 88.6726 2.57059
-12.8424 120.826 6.08145
34.2215 97.0687 -4.97724
40.7326 88.8123 4.1161
25.5912 105.239 -10.9331
21.133 108.656 -12.3057
23.7751 101.409 -0.330508
-18.6949 123.828 7.67113
36.9122 94.7628 -3.40454
-0.845083 119.306 -6.03384
-8.15844 117.93 6.49101
37.553 94.2944 -3.15906
5.8671 117.804 -11.4291
-12.6601 120.31 7.5468
41.4557 87.7888 5.81303
-10.6944 119.608 6.5017
-12.6908 124.997 -2.32658
2.75956 118.831 -9.43302
-11.9688 125.662 -4.6238
-18.4924 124.064 7.35309
14.9303 112.823 -12.5357
18.7372 110.288 -12.1234
-0.550753 112.53 8.41212
4.21958 118.659 -10.8474
24.161 101.273 0.0484899
32.457 98.921 -5.79869
-0.74614 112.715 8.40836
-15.6341 119.885 12.6828
41.409 88.3006 5.10889
27.3957 104.047 -9.9184
-10.581 120.1 5.76646
-15.4474 119.899 12.6353
-15.1697 119.77 12.5525
11.1996 114.75 -11.3204
-10.9647 120.217 6.14995
31.0042 100.364 -6.56197
35.0201 97.07 -4.81551
-13.3209 120.736 8.31611
3.62096 119.111 -10.396
14.5185 113.481 -12.6155
32.501 94.6108 3.98343
-17.7306 126.052 2.98813
-10.2355 119.747 6.58017
15.4246 106.399 1.37061
27.6585 104.085 -9.7352
39.8155 90.4905 3.34658
18.0266 106.121 -1.32897
15.353 106.493 1.41647
-16.8739 121.221 12.3466
17.7794 111.377 -12.1283
33.5822 93.6723 4.8613
40.3153 90.4781 2.91585
-8.04255 124.574 -6.2135
24.2923 101.739 0.0186606
21.9979 103.837 -1.40262
6.39967 118.26 -11.4307
-3.90022 115.411 8.1816
42.2081 90.6601 0.565
6.251 118.473 -11.3887
-13.905 125.954 -0.859986
-14.2377 126.072 -0.640163
42.3721 90.5454 0.828441
14.8615 107.083 1.74772
-15.5393 127.034 -0.771619
-15.2831 126.846 -0.683854
9.66397 116.245 -10.8088
29.5126 96.9571 4.27957
31.6095 96.0039 3.65528
-10.1316 120.379 6.55803
-10.5623 126.448 -5.7589
-10.4012 126.352 -5.71371
-11.8743 126.245 -3.51752
-12.4659 125.76 -1.70568
10.4909 115.994 -11.0305
25.4107 100.455 2.5221
25.1772 101.299 1.1238
23.5601 103.353 -0.923032
-14.2026 120.456 12.3557
2.83276 120.053 -9.11864
-9.55246 120.28 6.65199
35.5549 93.0637 5.4253
-17.7863 124.913 7.64611
-12.3376 125.982 -1.73944
-16.3831 127.515 0.342881
-12.4462 125.358 -0.229403
0.806743 120.235 -6.69598
15.1056 114.311 -12.8261
34.6488 93.8225 5.31069
-12.6834 121.581 8.32416
-17.1025 127.503 1.53928
-5.47764 123.819 -5.77702
33.9823 94.3426 5.22715
32.1421 100.942 -6.36435
31.1605 102.096 -7.45361
6.13803 119.286 -11.2179
-16.0501 121.783 12.5715
-4.19185 123.143 -5.86509
3.79241 120.238 -10.1379
-0.0599022 113.997 8.23812
7.98315 111.004 4.25426
-11.8339 121.02 8.97241
-5.91561 118.006 7.69899
17.6794 107.609 -1.04957
30.7457 102.81 -7.97149
-14.7664 127.528 -0.652658
-11.7056 126.789 -3.08675
13.8812 108.42 2.46514
43.2043 90.8515 1.45432
16.3286 114.164 -12.892
42.3151 90.8041 2.7841
40.7448 93.1665 -0.156431
9.10257 117.706 -10.8498
-12.2057 125.492 0.537546
-11.0778 121.487 7.8103
42.4746 90.9265 2.61303
30.4176 97.6629 4.09621
43.0405 91.4244 0.82448
12.9724 108.97 2.95777
29.4989 98.0466 4.59045
27.7808 105.614 -9.25028
3.15102 120.831 -9.30822
19.8842 111.859 -12.0857
41.7218 91.3568 2.92504
-3.8645 116.914 8.32987
21.3043 111.042 -12.134
17.8386 113.488 -12.7857
25.0255 102.86 0.442439
-6.3059 125.384 -6.37179
41.0127 92.1485 2.29953
-9.27505 121.01 6.9103
23.0022 110.113 -12.2227
43.5996 90.3172 2.92857
22.3255 105.631 -1.75427
39.9564 92.2739 3.5637
-11.2074 121.487 8.52375
10.7682 110.261 3.62935
-11.7569 126.967 -2.32623
17.5311 108.322 -1.02105
17.7998 108.506 -1.75509
0.903952 114.666 7.32109
5.60144 112.865 4.99386
-14.4076 127.79 -0.522443
-17.1462 126.938 4.94861
4.37589 113.409 5.5469
-7.85695 126.712 -6.6922
28.9545 105.021 -8.8046
13.09 116.609 -12.6359
-17.1598 126.244 6.54302
35.3282 94.3186 5.6725
-10.5069 128.312 -6.49995
33.3042 101.185 -6.04346
17.2151 108.46 -0.422753
-16.8137 127.449 3.82903
-17.1834 124.974 9.61322
17.1906 114.5 -13.124
14.6848 108.897 2.09891
14.6923 108.917 2.09839
39.9787 92.7422 3.38036
40.1547 94.3271 -0.193524
27.6835 99.3896 5.414
-5.34652 118.567 7.94061
-17.1879 124.942 9.91412
-16.9135 127.433 4.30511
37.1732 97.6363 -3.21397
24.194 104.409 -0.598411
-0.0442805 115.234 8.18335
13.6944 116.754 -13.0361
43.4603 91.0398 2.65725
32.3218 102.456 -6.97345
-12.5802 127.008 -0.309422
-5.218 118.601 8.0069
26.6148 100.451 4.91487
28.918 105.401 -8.61283
2.16458 114.786 6.51568
15.8236 115.786 -13.4983
-10.9307 121.71 9.08914
-9.04665 121.533 7.00247
7.18004 112.692 4.57258
0.363058 115.403 7.74876
34.3334 95.5064 5.63922
36.8992 98.1176 -3.2144
-12.0375 126.396 0.800223
40.481 92.9845 3.05447
23.7764 105.192 -1.01227
38.2353 93.2566 5.46679
43.9806 90.8881 3.02699
26.9665 100.424 5.11737
-7.0237 120.159 7.72231
-12.3133 121.778 11.2528
19.1689 113.588 -12.5951
-8.77967 121.612 6.99992
22.9115 106.22 -1.77545
0.297389 115.668 7.84487
4.77572 114.02 5.48336
42.7864 90.8764 4.94078
-4.73343 118.617 8.25651
22.1003 111.73 -12.2495
6.05824 120.901 -10.7191
32.6694 97.2773 4.69843
40.6521 93.0421 3.24628
40.6698 94.283 0.5871
38.7472 93.5048 4.76917
-17.1012 126.188 8.48494
32.2825 97.5726 4.64266
15.8418 116.14 -13.2911
-12.6109 127.735 -0.577506
-3.6297 118.052 8.27565
-10.7643 122.359 8.52872
44.0203 90.9523 3.52634
17.5514 110.09 -2.35843
34.4058 101.196 -5.52179
-9.46506 121.947 7.88516
-14.633 128.599 0.531151
-9.54436 122.054 7.79854
-17.1243 125.153 11.1945
-9.52978 122.106 7.74845
-17.1147 126.436 8.49904
40.6729 94.5283 0.619598
16.9366 109.807 -0.757708
-15.0562 128.759 0.971248
-13.2776 128.346 -0.427353
-10.0627 121.896 9.08833
35.432 95.3527 5.92012
-10.1534 121.923 9.17572
32.1758 97.9319 4.72134
-4.05885 118.588 8.28888
-16.7664 128.665 3.61997
34.5416 101.283 -5.39071
2.74295 122.243 -8.24924
-12.0759 122.43 10.8345
-10.3649 122.238 9.00001
12.7755 110.729 3.14838
-6.7828 127.164 -6.16393
-13.646 128.54 -0.0608642
-12.5881 128.009 -0.301928
1.07105 122.419 -6.26513
17.8711 115.428 -13.4046
3.28119 122.304 -8.84385
23.7883 111.2 -12.0387
38.9415 96.8799 -1.42238
13.3455 110.577 3.02814
8.15519 120.189 -10.5809
26.0278 103.119 2.40301
40.7661 94.8199 0.770588
19.2817 109.794 -2.81943
18.4523 110.258 -2.66443
41.3957 94.2042 1.49267
-12.7232 123.128 11.0259
-9.59748 122.195 8.95425
-10.3556 122.815 8.6294
35.2504 95.944 6.01964
-8.38025 122.514 6.72458
16.0273 116.725 -12.9655
21.3375 113.101 -12.2131
5.76484 114.51 5.29393
18.156 110.6 -2.62444
-17.186 127.35 8.12234
13.2679 118.377 -12.7241
-3.96179 119.054 8.43918
-0.982889 123.78 -5.51055
38.6293 94.3547 5.17523
-8.11016 122.46 6.74143
13.4382 118.329 -12.7249
-10.8765 123.014 9.24407
32.4431 98.3191 5.01396
-13.4315 123.521 11.5526
14.0496 118.087 -12.7526
-7.63913 128.752 -6.99258
30.3751 99.569 5.29803
-16.7853 129.714 3.02943
-14.9287 129.547 0.969573
-5.42643 126.974 -5.96735
37.2731 99.1731 -2.70807
-12.6641 123.743 10.5171
39.153 97.3665 -1.24211
-13.9296 129.717 -0.417324
-15.5997 124.913 12.0218
18.5705 110.826 -2.78914
18.778 115.743 -13.4645
2.39056 116.376 6.72478
-8.87751 129.877 -7.16254
42.489 93.5725 2.81102
3.44403 115.931 6.53542
-15.2545 129.93 1.29512
42.1026 94.1069 2.37519
-3.59874 119.436 8.59738
-0.908177 124.348 -5.37998
-7.46047 122.878 6.47117
27.6704 101.999 4.84029
-8.50453 122.482 8.73795
-16.6686 130.469 2.48321
36.0441 96.2964 6.07349
-12.0189 128.34 0.991144
17.7202 111.674 -2.5303
28.653 101.317 5.18897
19.7625 115.525 -13.3457
10.7327 113.028 3.81509
0.497779 123.803 -5.65782
-8.02363 122.563 8.2279
-14.1192 130.295 -0.220598
17.4342 116.828 -12.8873
19.698 110.796 -3.00266
-16.7279 128.981 6.16753
39.2555 95.0158 5.10522
-5.5248 121.45 7.6335
-10.8883 129.821 -3.13348
25.8188 110.515 -10.0794
1.59607 123.724 -6.36982
-15.9875 130.743 1.7981
-16.8652 130.648 3.17772
37.3605 95.868 6.11458
-12.638 129.183 0.813613
18.4698 111.722 -2.8111
-16.8732 126.969 11.1176
0.385266 117.892 7.84012
15.713 111.657 1.05335
-10.9139 129.966 -2.97031
-16.9664 128.221 8.7633
-9.72593 123.785 8.74851
38.4875 99.1063 -1.91644
2.84101 117.078 6.59319
12.6814 112.45 3.55362
16.6384 112.479 -1.64594
21.5684 109.792 -2.3654
18.2832 112.003 -2.76067
-4.74933 127.613 -5.60541
-15.4082 131.167 0.83015
-3.01189 119.806 8.78297
28.4031 108.08 -7.4519
3.44784 116.962 6.50798
-4.24661 120.889 8.24803
19.5954 116.317 -13.2788
-7.81585 130.473 -7.34679
3.2481 117.182 6.50981
30.3247 100.91 5.69462
-14.48 125.829 11.508
-12.6428 125.556 9.68887
-13.361 125.8 10.112
-7.09053 129.951 -6.91353
-10.3393 124.113 9.91108
34.3645 103.665 -5.11483
2.2925 117.928 6.63077
-5.0623 122.447 6.72818
-2.68545 126.71 -5.30079
31.4338 100.422 5.97322
4.08564 124.125 -8.50384
37.5584 100.655 -2.33132
41.5834 95.8466 2.62448
0.167651 118.737 8.25421
34.0859 98.8926 6.02146
-10.9238 124.961 9.60549
39.2275 98.4744 0.229919
8.96092 121.913 -9.88887
35.745 97.8908 6.13489
20.2451 111.668 -2.85099
-8.9701 131.383 -6.4915
-16.9005 130.841 5.1375
40.2052 97.5952 1.02352
-16.4697 129.454 7.62361
-9.12586 131.397 -6.13586
38.2271 100.266 -1.89581
-4.7317 128.571 -5.76281
5.95577 116.485 5.99511
-9.77838 131.058 -4.32011
17.2519 113.583 -2.53772
-1.23394 126.175 -5.04471
33.3239 105.17 -5.63566
-14.6306 131.704 0.862851
36.4938 97.8307 6.00158
31.5396 106.562 -6.04604
39.6429 96.2395 5.36341
1.704 125.169 -6.38949
26.5654 105.662 2.54025
-4.28828 123.057 6.00529
40.7439 97.1514 2.12429
35.9934 102.807 -3.66503
29.6041 102.611 5.17086
-11.0773 130.98 -1.84081
6.36086 116.659 5.99245
27.1555 110.467 -8.1017
0.818929 119.272 7.7352
-13.9844 127.225 10.2644
-7.11945 123.822 8.59049
-8.51319 124.267 9.56308
22.3264 115.861 -12.987
39.7104 98.4349 1.2998
18.1282 118.314 -12.6168
25.9326 112.05 -9.45469
35.7452 103.365 -3.80344
40.8741 96.5397 4.06111
39.2353 98.9529 1.10514
-16.173 130.424 6.85928
-16.8779 131.329 5.93464
10.1438 115.291 4.68306
38.3345 100.271 -0.282749
0.965881 119.57 7.6768
40.8174 96.7481 3.98619
-11.3537 131.249 -1.0089
-16.2477 130.621 6.7774
3.15651 118.833 6.42465
2.36197 119.253 6.66484
24.7403 108.95 -0.710809
-12.4513 131.134 0.890948
29.1939 103.373 5.42868
10.8425 115.159 4.44647
-4.05718 123.879 5.48589
25.0504 113.32 -10.2115
18.2763 118.65 -12.5589
-8.57603 124.505 10.2075
-3.82999 123.762 5.60536
3.00538 119.174 6.44029
3.57827 118.921 6.26134
39.8339 97.115 5.12341
16.3008 115.047 -2.15034
16.0829 114.856 -1.43097
-11.4147 131.565 -0.893669
-3.45365 123.528 5.81903
-16.2115 130.206 8.37103
-7.24916 124.86 8.27201
-5.34398 130.498 -6.21706
-16.2893 129.57 10.388
37.2301 98.6468 6.01512
-7.04129 132.056 -6.9573
24.601 114.323 -10.6483
40.3065 98.0175 3.4821
28.3481 110.339 -7.05432
26.1151 108.127 0.623519
-16.0839 130.932 7.43956
-16.2118 130.171 9.30214
-7.67114 124.929 9.27582
39.7155 99.0508 2.22117
9.08489 116.595 5.11933
-9.08646 132.399 -4.6696
-6.2424 131.552 -6.50036
-14.301 132.629 1.91572
0.847015 120.579 7.7785
-6.3523 126.02 5.6574
40.0374 98.0167 4.42027
30.9177 103.191 5.42907
26.2087 108.336 0.665
6.65702 125.088 -9.33002
-13.1203 132.499 0.864564
-16.063 130.542 8.9571
26.8281 107.528 1.7426
-9.55235 132.678 -4.05057
-10.8693 127.038 9.70141
-0.255149 127.379 -4.8929
7.77993 117.623 5.3319
11.506 115.794 4.4191
-3.58145 129.807 -5.57405
-12.4066 132.43 0.436405
20.5474 118.604 -13.2245
-16.0371 129.733 11.1848
-16.0323 130.518 9.51332
13.4138 115.295 3.31613
7.54804 118.013 5.29044
2.73089 120.48 6.44439
-12.4061 133.153 -0.353215
-9.03489 133.438 -5.37028
17.9115 120.731 -13.6091
35.4996 105.073 -3.32542
23.7749 111.424 -1.44516
-15.2828 133.034 3.83588
-6.68781 132.686 -6.69439
16.5229 116.543 -2.66395
37.8033 102.551 -0.7839
14.482 115.805 1.59857
23.8127 116.102 -11.2587
-3.85223 125.238 5.65231
-16.3714 132.427 6.77944
-9.64834 133.621 -4.52257
-12.5788 133.438 -0.242972
-0.94232 122.289 8.2432
33.9261 102.2 5.3193
11.5626 116.425 4.3859
37.2377 99.8216 6.10279
15.6985 116.827 -1.82918
-13.9133 133.367 1.88116
12.0682 123.045 -10.1033
2.60241 121.088 6.56081
0.578266 127.84 -5.08306
26.4163 109.268 0.585209
16.778 121.089 -11.8967
-7.10822 133.43 -6.83111
-10.1078 134.016 -4.05822
19.4221 115.426 -3.22073
32.1464 108.544 -5.22749
13.8955 116.053 2.75193
24.8995 110.912 -0.733823
-14.8155 133.786 2.68041
32.5677 108.193 -4.9804
-11.6176 133.104 -0.0285792
-8.24473 126.407 9.81529
24.8482 115.486 -10.3334
2.35907 121.344 6.7595
-10.3412 133.988 -3.45191
19.6905 120.101 -13.2698
-12.1445 133.612 -0.266662
29.2373 111.071 -6.5565
13.0434 116.346 3.46153
-15.6958 131.147 9.6968
9.26298 124.512 -8.90007
8.11168 118.814 4.76497
-16.4197 132.645 7.52001
32.4611 103.575 5.27975
-12.0007 133.997 -1.08469
3.72138 120.948 6.08774
38.7415 100.786 3.14387
24.9177 111.129 -0.724055
-5.48671 132.408 -6.07323
8.27038 125.252 -8.88224
-2.58151 125.143 5.69679
4.16794 120.89 6.05575
8.38679 125.286 -8.83072
5.10189 120.353 6.00285
-12.5616 134.552 -1.04062
-2.5653 125.251 5.6878
20.8544 114.906 -2.92529
-15.1036 133.134 5.52308
-1.1901 129.419 -4.80026
24.2047 112.072 -1.18681
22.3124 113.772 -2.30787
-8.32794 127.013 9.712
24.3892 116.404 -10.5998
-1.32148 129.541 -4.81335
21.3358 119.644 -13.431
20.7886 115.083 -2.95063
-3.66222 131.27 -5.32549
14.6618 117.576 -0.0992001
18.2599 116.904 -3.3335
10.9422 124.155 -9.14527
-7.52368 134.563 -7.06163
5.36929 120.501 5.97666
38.1657 101.386 3.65016
37.7665 102.18 2.52344
-15.4392 130.9 11.2215
-13.5147 134.189 1.70825
31.7268 109.637 -5.34638
-9.41808 134.836 -4.93246
35.4017 102.373 5.42652
-3.54294 131.402 -5.25131
4.4266 127.612 -7.61045
-13.0589 134.111 1.51426
14.1758 117.692 0.81392
14.9636 122.968 -11.4236
31.7263 109.786 -5.30825
36.0277 105.729 -2.23549
26.4078 114.892 -9.07373
-15.059 133.594 5.62604
20.8528 115.515 -2.95842
24.7728 112.121 -0.824762
16.476 118.171 -2.79395
-3.34341 131.521 -5.14794
-6.44024 127.49 7.53966
25.0222 116.493 -10.3061
4.73243 127.82 -7.79842
32.1078 104.551 5.88759
-14.3352 134.144 3.86433
2.43521 128.411 -5.92179
20.0452 116.257 -3.14337
0.185176 129.25 -4.69958
2.10821 122.481 7.22053
7.57885 126.52 -8.53077
13.9721 118.185 0.909484
-5.50424 133.657 -6.42599
13.1416 117.588 3.3384
2.85422 128.421 -6.20325
0.630249 123.181 7.88695
17.0247 122.957 -13.0956
10.659 118.911 3.97923
30.9555 110.892 -5.51399
2.92439 122.356 6.87597
34.6826 103.571 5.32057
-7.51969 135.352 -6.89797
-6.55828 127.913 7.69815
-0.17639 129.807 -4.56448
37.8422 102.22 4.29382
-0.0582963 129.811 -4.54666
14.9735 119.154 -1.58079
36.2258 105.956 -1.36386
11.8666 124.734 -9.30547
-11.7332 130.234 9.99972
15.2148 124.28 -12.656
16.9223 123.457 -13.1297
37.8375 102.623 3.8159
-9.12312 129.161 9.02985
6.7171 127.567 -8.3112
32.923 109.618 -4.44916
14.0917 119.145 0.0344534
6.91416 127.489 -8.30543
36.1731 106.146 -1.22468
38.0128 101.915 5.39197
12.9415 118.286 3.47676
-11.3055 134.901 -0.0123191
14.944 124.183 -11.574
15.8315 124.52 -13.426
11.0167 119.396 3.84448
19.941 117.211 -3.19967
18.9482 122.068 -12.233
35.5825 103.483 5.51731
-15.1631 132.058 11.2774
16.525 119.229 -2.95669
-9.62309 136.121 -4.583
15.7553 124.734 -13.5293
-2.50496 126.876 5.89754
33.732 108.968 -3.44768
30.7686 106.727 5.29617
1.04993 124.243 7.02389
-7.07261 128.831 7.97399
0.273834 125.27 5.93156
19.0669 118.089 -3.42483
20.0365 121.015 -10.8911
-11.3604 136.492 -2.56852
1.37458 129.853 -5.12607
37.8072 103.033 4.17547
16.4772 119.569 -2.96367
-5.98928 128.416 7.73688
22.7678 119.284 -10.5409
26.5007 111.798 0.52932
-12.6393 135.567 1.40217
-5.74107 128.371 7.67019
13.7189 125.111 -10.8946
-13.1361 131.326 11.13
37.5304 104.117 2.58505
37.5133 104.143 2.59193
-14.5508 134.921 5.39892
-11.4843 135.316 0.620598
29.0209 108.334 4.94202
3.10749 123.398 6.89735
-11.2361 135.415 0.207943
28.0316 114.558 -6.90022
16.8353 124.695 -13.7668
0.341146 125.635 5.86921
-11.7874 137.054 -2.39406
27.9906 114.714 -7.01838
36.6315 105.341 1.68687
14.0158 120.215 -0.298657
26.1996 117.144 -9.61678
-0.719943 131.354 -4.54943
36.3929 106.397 -0.0822661
16.3616 120.109 -2.89765
9.1746 121.512 3.55022
27.5785 110.989 1.91293
33.1606 105.61 6.12351
32.9989 110.283 -3.59755
-1.68563 127.106 6.12235
0.222448 130.905 -4.44062
-12.9689 131.677 11.2189
30.433 112.525 -4.88626
-10.5747 131.152 9.35342
19.0155 118.995 -3.48194
37.0987 104.023 4.6751
15.4494 120.629 -2.25878
36.529 105.786 1.73771
9.76304 126.974 -8.19609
19.6273 124.23 -15.2486
-11.6941 137.158 -1.65576
22.8839 119.36 -9.02769
32.4801 111.126 -4.06299
36.3353 106.719 0.280381
34.4901 108.798 -1.68839
1.18059 130.832 -4.86896
34.1766 109.268 -2.15161
-4.50041 129.038 6.58843
5.9914 129.347 -7.79196
8.99946 122.227 3.42371
34.7641 108.479 -1.0277
22.2685 116.858 -2.4393
23.1182 119.375 -8.9076
-4.06089 134.671 -5.68963
19.9925 121.843 -9.8781
26.6792 117.456 -9.25144
17.3185 120.561 -3.50308
13.4499 121.143 0.40104
16.3339 120.976 -3.02408
8.35852 128.161 -7.84396
35.6839 105.149 5.53852
19.8299 122.475 -10.531
24.9383 114.739 -0.699474
12.5124 120.622 3.11112
-1.69303 128.35 5.37743
-1.2703 127.883 6.04291
-14.7675 135.336 7.93573
21.2606 121.317 -9.44262
-2.10047 128.806 5.28799
36.79 105.705 3.4559
1.02209 131.615 -4.70973
28.0431 111.248 3.23304
29.4875 114.306 -5.08257
-15.1928 135.409 8.72094
-3.19753 134.473 -4.97933
19.2474 125.462 -15.233
33.8682 110.077 -1.65651
-14.6616 136.032 6.76262
30.2055 113.596 -4.30234
-3.40813 134.736 -5.19745
28.3781 110.514 4.68999
28.1762 116.379 -7.45006
19.6741 124.698 -13.9531
10.4516 127.78 -8.38347
26.7099 118.099 -9.06995
29.5239 114.506 -5.10225
20.0745 122.557 -9.83722
16.6131 126.131 -12.8948
11.6966 121.346 3.76937
23.1654 119.774 -7.91446
28.7426 115.769 -6.62857
4.88662 130.631 -6.90511
-14.9148 134.925 10.0397
21.7568 120.95 -8.27792
10.7231 122.152 3.64894
-12.2466 137.014 2.2004
-11.8714 138.404 -1.23553
21.1564 121.661 -8.90151
34.2098 109.984 -1.11836
13.7118 122.407 -0.453271
12.0017 121.475 3.82502
22.5647 120.257 -7.3767
12.2597 128.602 -11.5698
-1.15389 128.862 5.53382
23.1657 119.991 -7.40023
18.4434 125.496 -12.8877
29.0199 110.316 5.58479
10.2291 128.376 -8.19577
36.1553 107.811 1.5906
-5.30973 130.546 7.61452
-8.47769 138.63 -5.41105
27.0204 112.833 2.96994
33.7747 107.37 5.73912
32.8621 107.835 5.9545
15.9867 127.387 -13.4338
-8.47544 138.731 -5.42528
22.7434 120.38 -7.26874
-12.0435 137.34 2.26653
27.7537 112.287 3.3916
34.6028 109.954 -0.594632
2.01578 127.196 5.46778
27.6165 117.901 -8.30054
18.2016 121.521 -3.64616
3.29766 126.288 5.77568
5.73317 124.998 5.37948
-3.84817 130.547 6.15725
20.7814 119.762 -3.17841
8.00606 124.689 3.20246
11.5001 129.207 -10.955
2.11483 132.361 -5.32442
-11.1591 138.943 -1.80111
34.4884 110.318 -0.658558
5.10644 125.469 5.64701
28.8036 111.338 4.64338
10.2718 128.861 -8.32441
9.62633 129.033 -7.79547
13.7238 128.988 -13.0197
-11.0104 139.048 -1.90102
25.6122 119.152 -7.56553
21.8169 124.051 -13.0097
-11.8174 139.23 -1.03946
34.6705 108.111 4.2243
21.5416 121.809 -7.70063
-14.4312 136.912 7.48122
26.1576 114.972 0.96391
23.1667 118.272 -2.00386
8.78474 129.709 -7.45709
16.3158 123.211 -3.42732
19.0885 125.635 -12.1386
29.3428 116.411 -5.92367
26.3461 114.707 1.63325
7.01018 125.638 3.76388
24.6097 117.052 -1.01892
19.0599 125.251 -11.1825
8.77842 129.838 -7.39794
4.00875 126.617 5.75414
22.6216 123.789 -12.6381
18.4182 125.13 -9.97785
20.1126 126.434 -14.9728
-4.60073 137.254 -5.53128
-0.975703 130.305 4.51467
-10.0717 133.139 10.4282
19.1257 121.77 -3.61084
33.9709 108.7 4.88645
-4.11091 131.693 5.93094
18.8101 125.678 -11.3278
4.04834 127.232 4.74626
0.207405 129.603 4.80754
33.0107 112.84 -2.46281
24.6462 119.97 -6.64404
0.723873 129.295 4.94725
17.6646 127.369 -13.1295
-6.38565 138.911 -6.12922
21.6712 122.669 -8.23728
4.19624 127.777 3.81742
18.1891 125.725 -10.1259
-10.7414 138.545 0.544664
26.3311 114.875 2.29578
-11.152 139.77 -1.48521
2.42358 128.13 5.51197
-5.06876 138.119 -5.85403
2.32609 128.255 5.45267
20.1234 121.472 -3.37028
19.4776 126.126 -12.296
-11.2134 139.937 -1.41971
23.4919 121.514 -7.69847
-14.2199 138.364 5.92666
-4.38816 132.236 6.07796
25.6555 116.364 0.478425
29.1949 111.587 6.03671
-1.21739 131.064 4.49563
14.0576 129.985 -13.1934
19.3158 126.447 -12.4808
5.94809 127.067 3.75134
22.5164 119.862 -2.38207
20.6288 125.523 -11.9054
-6.8846 139.75 -5.957
34.2908 110.924 1.50385
26.2368 119.355 -5.82003
-13.1741 138.742 4.68609
-14.3859 137.635 8.6431
18.0438 127.365 -11.9447
28.1279 118.584 -6.35396
17.2723 128.172 -12.4783
-9.00333 140.429 -4.05064
24.4849 118.323 -0.902335
-14.165 137.556 8.94522
0.439429 130.44 4.94449
-12.8539 139.017 4.20329
10.9968 131.419 -10.8483
13.609 124.659 0.128339
-14.0494 137.504 9.11199
-8.95262 140.545 -4.04451
-13.1241 139.091 4.60457
33.9368 110.982 2.74688
23.8295 123.479 -10.5742
-1.21263 136.003 -4.285
16.9748 128.555 -12.2287
2.1422 129.88 4.40786
-3.23003 137.715 -5.11068
-0.37957 131.732 3.93442
33.5007 111.876 1.76467
20.0995 127.967 -14.8635
-0.625017 132.052 3.62828
0.267083 135.134 -4.06034
23.8668 119.335 -1.38662
26.8809 114.668 4.59752
0.702405 131.248 3.71684
23.9826 123.562 -10.4205
18.938 126.507 -10.0277
24.5237 121.508 -6.68518
29.7659 117.622 -5.18888
18.6154 128.274 -13.1924
-1.449 136.555 -4.48254
20.7895 125.112 -9.23911
26.7234 115.019 4.4739
-12.5378 136.254 10.7796
-13.0979 139.528 4.55679
13.61 125.088 0.298844
-1.85041 132.778 4.23621
-7.90619 133.794 10.0974
9.94398 131.94 -9.37127
21.5095 127.184 -14.411
21.6752 125.632 -11.2562
0.805901 135.144 -4.11175
28.6974 113.322 5.85538
22.3979 126.399 -13.6781
25.7447 117.296 1.46024
10.9801 125.465 3.47916
17.1103 125.171 -3.88536
-6.41332 140.553 -5.73273
25.4751 123.167 -10.43
23.8186 124.035 -10.1003
33.453 111.619 3.69364
-3.04896 133.298 5.49496
-7.22287 134.216 9.05482
7.25768 132.819 -6.95978
-13.4601 137.948 9.35571
1.14414 131.719 3.54225
20.59 122.918 -3.22943
18.9177 127.16 -10.0609
25.3852 118.202 0.547722
-1.63776 133.302 3.8812
-2.24755 137.827 -4.94206
4.75892 133.79 -5.52019
-13.9988 139.148 7.68595
17.8762 127.996 -10.2431
12.8114 125.465 1.83655
27.5765 119.5 -4.78154
13.7969 131.725 -12.6465
20.3181 123.329 -3.3202
14.736 131.523 -13.4102
26.0415 116.454 3.86887
23.8786 123.417 -8.08651
19.4599 127.994 -11.9616
24.8843 119.075 -0.0711401
0.827015 132.297 3.40089
24.5306 119.629 -0.725246
32.8329 112.663 3.48152
27.1276 115.379 5.22219
32.4056 112.662 4.18607
18.413 125.02 -3.75577
12.5413 132.316 -11.5548
22.4328 126.1 -11.0145
8.0788 133.345 -7.56266
-2.29491 138.464 -4.78412
9.66659 127.056 3.82516
9.63496 133.378 -9.5574
24.7486 123.134 -7.56329
-6.18488 141.214 -5.46329
-11.5046 140.624 2.77806
-4.29597 134.91 5.50318
18.878 128.863 -11.9345
-4.74956 134.325 7.50234
24.5243 119.811 0.000370902
28.9284 119.327 -4.56598
5.6243 134.536 -6.20082
5.53814 134.627 -6.1205
11.6227 126.693 2.78951
24.6039 124.657 -9.89569
-4.63517 134.566 7.42932
23.3016 125.639 -10.1807
28.4137 119.626 -4.0396
31.5407 117.074 -2.41575
32.3251 114.897 1.20337
-7.22247 135.591 9.09171
26.6332 121.545 -5.39954
-5.0271 134.967 7.61424
32.5785 115.298 0.301608
-5.77336 135.339 7.98933
24.0875 120.914 -0.401081
7.43693 134.369 -7.14509
16.0631 127.473 -3.78132
20.2171 128.283 -10.8904
-9.35239 143.212 -3.86647
14.5632 127.639 -2.08656
-12.9451 141.276 4.98806
11.4747 133.562 -10.5649
32.5386 115.529 0.205353
24.1847 125.071 -9.12022
7.6866 129.135 3.88533
23.9214 120.624 0.828887
-11.8263 141.529 3.29434
23.7974 125.422 -9.10907
8.0249 129.111 3.84761
-13.0287 141.431 5.29872
19.2111 128.64 -9.75684
6.47448 135.079 -6.7308
25.7242 123.264 -6.82202
4.44283 135.593 -5.08644
23.7861 120.354 1.98224
-0.736671 134.763 3.49903
18.8074 131.018 -14.0773
10.2472 134.24 -9.66081
16.6997 131.619 -12.5411
26.0632 123.015 -6.4921
23.8785 120.163 2.49224
-2.96254 136.086 3.83305
9.84515 134.42 -9.40511
29.7098 115.426 4.99574
14.266 133.596 -13.3416
24.086 119.812 3.12008
-5.21119 141.786 -5.2002
32.5217 116.284 -0.407012
23.6107 121.867 -0.41139
32.402 116.319 -0.12391
-11.1266 141.762 2.82905
14.3506 127.811 -0.847965
-7.40177 143.308 -5.18699
5.0507 131.54 3.53576
13.1268 127.861 0.791146
25.5332 123.906 -7.0595
-7.10221 136.581 8.86171
-4.39681 141.462 -5.05941
28.8748 119.936 -2.88661
18.9156 131.326 -14.0519
24.6844 124.8 -7.72925
21.8654 127.353 -9.45153
31.7384 117.771 -1.92409
14.7686 128.885 -3.24009
10.6943 134.583 -9.79601
15.492 128.704 -3.56837
21.4232 129.03 -11.9937
31.2387 118.536 -2.52076
24.9866 119.249 4.17084
21.2172 127.742 -8.88831
6.07874 131.35 3.31645
19.4754 128.734 -8.66268
17.4147 130.764 -10.281
13.8118 128.316 -0.286151
26.5728 124.671 -9.25631
5.07415 132.04 3.30644
26.3605 123.118 -5.56993
22.9697 123.103 -1.06625
2.09857 134.088 2.95875
31.6665 117.978 -1.50963
24.3087 120.046 3.75648
0.636394 135.078 2.9224
27.6071 121.072 -2.6028
14.6963 129.254 -2.99458
14.688 134.009 -13.0809
17.6385 131.304 -11.1422
23.5774 120.897 3.22538
14.6813 129.428 -3.22549
-1.40831 136.591 2.67809
17.3279 131.559 -11.1847
17.8711 131.173 -11.0746
-10.796 138.891 10.172
18.5634 132.029 -13.6905
6.28261 136.201 -6.43955
0.777889 135.245 2.82498
26.0907 123.317 -4.96725
22.6527 124.045 -1.88107
26.3302 125.017 -8.72489
17.3371 132.017 -11.7942
11.4479 128.757 2.90779
-12.9228 141.745 7.24446
26.7701 122.554 -3.95652
-12.6063 142.562 5.13005
25.8288 123.297 -4.26814
30.8893 117.235 2.15024
10.652 129.154 3.39179
15.3027 133.968 -12.9445
29.3448 117.615 3.4593
5.03506 132.826 2.98467
28.7554 117.65 4.20409
22.4758 124.412 -1.94815
11.812 128.936 2.52801
18.4861 130.837 -10.2465
12.3506 129.017 1.68199
31.2782 117.686 1.02136
-11.7216 140.271 9.36649
22.1978 128.613 -10.2931
20.7295 131.438 -14.3597
15.0672 129.796 -3.42492
3.63521 137.548 -4.88876
22.5265 128.08 -9.48853
-10.8744 142.824 2.95292
7.86222 131.056 3.43163
8.38622 136.312 -8.35387
25.5885 125.061 -6.94139
24.1771 126.236 -7.56737
-3.31137 141.808 -4.57379
25.6407 124.938 -6.64112
29.8462 117.899 2.86997
22.3398 128.853 -10.5802
30.2674 117.822 2.50423
13.0231 135.199 -11.7705
-0.97883 140.237 -4.12101
-5.85487 137.835 7.39639
-12.7033 142.271 6.96012
7.58643 131.598 3.10745
17.4738 132.291 -11.3286
28.1478 118.119 4.90445
-10.5544 144.702 -0.856994
19.731 132.359 -14.2842
17.867 130.301 -7.33167
22.5357 128.896 -10.4592
20.2995 129.655 -9.11181
-5.7842 138.348 6.60172
-5.86315 138.204 7.05641
22.5232 129.329 -11.2524
-12.7225 142.817 6.31873
22.9545 127.055 -6.91413
1.87188 138.837 -4.28944
17.7465 131.974 -10.4707
19.4049 127.964 -3.97413
19.4399 130.519 -9.44172
13.4247 135.446 -12.0148
2.3239 138.75 -4.45739
17.04 133.107 -11.6431
18.2177 131.492 -9.71373
18.2993 133.221 -13.4424
-1.62932 138.24 2.08118
14.7468 130.707 -3.33043
21.4873 124.122 1.93284
23.7061 126.722 -6.50553
-1.54629 141.159 -4.08885
17.8702 129.288 -4.25072
12.7575 130.178 0.692387
-10.9586 140.653 9.55149
18.4249 129.014 -4.19338
20.6801 131.671 -12.7417
-9.61221 145.892 -3.20327
-10.2034 143.656 2.34787
30.3328 119.115 1.42585
21.3273 124.82 1.10646
26.6936 119.986 4.38823
25.572 123.951 -2.55522
22.0103 125.11 -0.297079
-5.2948 139.286 5.34837
-2.83516 142.304 -4.29111
21.8578 123.982 2.3407
28.1298 119.383 3.90296
14.6593 135.642 -13.0058
16.1283 134.61 -12.6407
28.1842 119.519 3.68983
17.3339 133.786 -12.4378
27.0588 123.363 -2.93534
25.1383 125.938 -5.88341
18.5644 131.559 -9.17011
28.1723 125.017 -7.83791
21.2835 128.093 -5.26558
-10.713 140.914 9.52948
25.7267 120.731 4.73819
26.0734 125.781 -6.44585
-6.72695 138.95 8.58497
16.4115 133.454 -10.0283
17.2156 132.878 -9.84844
19.8407 130.753 -8.74531
-9.40838 146.385 -3.5713
20.2355 128.793 -4.99667
14.5084 130.851 -1.83093
-11.7789 142.441 8.00148
-8.3033 146.051 -4.18462
26.1699 120.903 4.15814
0.927896 137.354 2.41781
27.9657 120.49 2.88949
7.40444 138.289 -7.72736
-2.88477 139.881 2.38009
20.3407 133.222 -13.8704
16.6317 134.332 -11.2916
23.8569 127.644 -6.53034
19.4362 131.196 -8.27451
18.308 132.382 -9.31545
22.9044 123.517 3.52688
24.9617 126.638 -5.70178
-6.7595 139.93 7.70779
-7.35466 146.029 -4.47699
29.5635 120.362 1.77273
18.8514 134.253 -13.7185
14.8615 136.469 -12.9689
20.7101 128.902 -4.48518
20.1105 129.336 -4.61358
-0.622246 139.016 1.98965
-11.4959 143.044 7.76078
21.2358 126.433 0.209448
21.125 125.668 2.0247
7.86858 138.68 -8.26737
17.6549 132.508 -7.9388
19.2737 130.087 -4.88404
-9.81457 146.886 -2.47763
16.3631 134.01 -9.3995
19.134 134.439 -13.8923
16.6264 134.49 -10.7069
16.4827 133.73 -8.89919
28.2739 121.368 2.12447
-8.847 146.982 -3.69118
28.8394 125.678 -7.66029
-10.4615 145.036 2.72707
19.8298 129.788 -4.51214
12.1529 137.417 -10.6356
22.6975 129.525 -7.65841
21.7698 130.311 -8.05777
24.5746 127.089 -4.86805
14.2412 137.012 -12.2984
17.2128 134.11 -9.93889
18.0674 131.38 -5.14738
21.5625 132.065 -11.1885
17.8547 131.107 -4.23443
-9.91049 147.257 -2.16476
21.0006 126.326 2.04757
10.5015 138.233 -9.47135
-10.9389 143.33 7.856
28.6438 122.864 -0.479326
21.4867 127.364 -0.654474
17.1859 132.853 -6.62762
13.7177 131.969 -0.0672771
24.6746 123.277 4.09509
-6.4118 146.532 -4.58826
-5.88759 141.581 5.28992
20.6787 127.646 0.10257
18.5223 130.95 -4.09615
24.8239 127.553 -5.11958
21.7054 127.585 -1.07954
22.9341 131.551 -11.1206
18.6377 133.174 -8.89888
-2.20083 140.775 2.26081
-9.73 142.346 8.82149
16.0468 132.575 -4.19024
6.48267 135.779 1.6238
27.4501 124.109 -0.954993
18.7335 132.701 -7.78911
-2.38068 141.041 2.2044
29.3225 125.93 -7.10898
4.00223 140.974 -5.85357
20.8671 127.991 -0.316312
-8.01434 147.434 -3.78284
25.6007 125.021 -0.165374
19.8975 128.007 0.991174
27.7603 122.54 2.32828
3.28792 138.036 1.46419
28.383 122.444 1.75452
26.5934 122.887 3.2794
26.8708 126.454 -4.65061
10.2065 133.529 2.22059
-9.43633 142.58 8.73963
28.5111 126.165 -6.07835
-9.0951 142.368 8.77323
27.4737 124.261 -0.520134
22.9732 128.567 -3.74116
22.8761 128.949 -4.39629
25.7549 126.245 -2.3612
-10.9798 145.756 4.32567
12.3025 138.744 -11.1011
29.9044 126.019 -7.07234
-2.74766 144.631 -3.83572
-2.37055 141.625 2.07996
11.7272 138.924 -10.589
25.5751 127.579 -4.57722
-10.0308 143.704 7.83419
23.7962 128.714 -4.59791
1.73189 142.278 -4.49795
14.5513 138.251 -12.6785
-5.93991 142.56 5.03229
25.7618 126.31 -1.95417
14.8005 138.174 -12.8195
17.6047 132.506 -4.36204
25.7092 127.617 -4.53666
16.035 135.977 -9.63483
6.78738 141.034 -8.22007
8.62511 135.379 1.40752
21.4385 130.73 -5.33287
14.969 138.306 -12.9449
-6.17622 142.42 6.03895
13.0161 133.093 0.727693
-5.73682 142.832 4.62606
16.8837 136.406 -11.3498
27.4602 123.82 1.56487
14.2349 138.599 -12.5383
19.8885 128.296 2.00055
24.7891 128.381 -4.59152
9.86395 140.08 -9.88814
25.5329 126.092 -0.648472
9.29118 140.418 -9.82517
26.732 127.069 -4.25964
-6.80283 141.866 8.24309
21.0906 134.065 -11.7201
16.0164 135.919 -8.96649
16.8836 136.597 -11.3591
28.0885 130.3 -12.5499
25.9718 126.984 -2.58272
12.6825 139.419 -11.6168
24.9029 126.14 0.650718
14.488 133.526 -1.31088
10.7437 134.439 1.68514
20.2169 131.035 -3.46531
14.4631 133.523 -1.17854
-5.97421 143.351 4.7179
23.3813 125.947 3.30175
6.08895 141.782 -7.66248
22.7167 129.73 -3.78445
26.3287 124.345 2.95944
14.009 134.225 -1.90869
25.606 126.637 -0.897874
19.3961 132.88 -6.00085
2.77626 139.706 1.30071
6.41508 141.854 -7.94035
13.6991 134.779 -2.42023
23.9427 132.84 -11.7008
-6.09994 143.618 4.78529
9.2193 141.19 -10.0014
-5.54829 143.851 3.75944
26.525 128.093 -4.66652
-2.76644 143.093 1.84425
16.0236 136.668 -9.12575
27.8035 130.805 -12.0929
0.470498 143.872 -4.04187
17.3088 137.311 -12.1571
7.92974 141.774 -9.35082
-7.75241 143.459 7.67799
11.847 140.144 -10.9685
-6.82668 143.068 7.31345
21.2967 134.741 -11.8497
8.66925 136.582 0.8837
20.3796 133.997 -8.9526
2.16675 143.24 -4.72765
20.1138 129.745 0.46452
24.1363 125.939 3.29255
13.464 135.116 -2.23834
17.3985 134.897 -6.87777
-3.88452 146.551 -3.71615
18.9827 130.756 -0.0391621
18.6554 132.828 -4.01586
10.7509 140.642 -10.255
13.5434 134.467 -0.750469
23.8297 126.287 3.21349
3.27634 139.997 1.07365
13.8437 133.885 0.339131
-9.93825 149.14 -0.918985
20.8086 135.882 -13.02
17.5632 136.649 -10.3109
11.4621 134.952 1.43866
26.3376 125.378 2.3179
10.953 140.828 -10.3727
19.809 134.977 -9.49526
4.29264 143.048 -6.2568
-9.28566 149.218 -1.52976
-8.57861 144.836 6.88189
20.6145 130.967 -1.89146
-10.25 148.717 0.826249
20.9958 133.375 -7.47603
-8.31255 144.675 6.95487
18.0525 134.884 -6.77503
-8.89928 145.149 6.74062
22.414 128.855 0.437129
17.3662 137.86 -12.026
-0.0488305 142.29 1.41463
-7.18748 144.633 5.887
20.3668 131.64 -2.59215
9.53467 136.94 0.535776
10.7146 136.219 0.648499
9.78253 136.881 0.522416
17.5678 135.981 -7.7618
21.3651 131.742 -3.65933
-9.86977 147.567 3.64794
19.1185 131.155 0.601891
5.048 143.362 -6.91603
29.3722 130.204 -10.7609
21.1662 132.011 -3.72697
-8.45847 149.517 -2.08231
18.716 135.121 -7.03276
18.5155 136.933 -10.5911
-3.73578 144.82 1.85564
22.5271 129.947 -0.924121
25.4048 128.245 -1.06278
18.5775 135.738 -7.9414
20.1534 132.543 -3.18215
27.6052 128.628 -4.60467
30.7942 127.684 -6.75988
12.7703 134.892 1.6254
-8.2259 145.616 6.37391
18.8889 136.316 -9.35671
13.2354 136.064 -1.3666
19.9376 135.164 -7.96287
18.942 135.808 -7.99594
18.2992 136.75 -9.03112
-4.39958 145.515 2.17738
24.7591 128.506 0.173858
23.7015 129.128 0.254657
26.6431 129.08 -3.49266
20.0952 133.651 -4.59257
-8.75919 146.381 6.17549
29.6499 128.273 -5.55725
7.0083 143.597 -8.44984
31.2193 128.25 -7.49678
23.8345 129.256 0.0887668
23.4717 130.607 -2.27456
16.641 135.993 -4.76126
-4.06533 145.633 1.94507
30.4404 130.147 -10.3476
7.70539 143.507 -8.94218
28.4284 130.9 -9.28043
-9.89658 149.824 0.746483
12.0278 136.336 0.706737
-6.25758 146.168 3.77431
19.7515 135.245 -7.07832
26.0547 130.094 -4.37067
-8.48814 150.068 -1.43422
26.2905 133.348 -11.4633
25.8015 129.126 -1.83399
7.65959 139.366 0.193884
-6.33283 146.285 3.84597
24.685 128.825 0.321543
5.01436 144.388 -6.93649
17.9913 137.257 -8.71291
23.9341 130.452 -2.01409
30.3934 128.403 -6.08521
-7.90132 146.705 5.235
-3.4475 147.949 -3.25009
25.8953 130.542 -4.61824
4.49373 144.602 -6.46179
-0.102295 143.904 1.0814
28.6224 131.32 -9.71786
16.3256 136.467 -4.50862
18.5607 132.86 0.266587
16.9822 139.375 -11.5248
4.98279 144.629 -6.91924
7.62023 143.934 -8.84824
20.0551 132.573 -0.941686
18.506 138.974 -12.4184
14.6485 136.933 -2.99639
21.4199 136.931 -11.8647
2.18043 145.606 -5.09064
7.47308 144.07 -8.76081
17.4406 139.128 -11.1994
5.03776 144.789 -6.97856
15.203 140.775 -11.7649
0.0291325 146.51 -4.03692
9.28365 138.958 -0.0351395
13.4662 136.525 -0.329921
15.3497 136.902 -3.56572
26.6347 133.378 -10.7893
23.0295 131.345 -1.63298
24.8537 129.97 -1.09682
25.032 131.64 -4.86154
10.9836 138.02 -0.00597673
18.6716 137.657 -9.22942
10.2409 143.512 -10.4976
19.1663 137.684 -9.79576
17.3097 136.243 -4.25412
25.4646 130.115 -1.88899
13.4666 136.449 0.417742
29.3368 129.385 -5.35952
1.73257 146.224 -4.95305
13.5253 136.662 0.0765551
15.6779 137.486 -4.4812
31.4379 128.982 -7.02865
8.15233 144.41 -9.20174
21.8787 131.824 -0.396795
20.2297 132.183 1.01539
28.3885 132.197 -9.62443
17.5421 139.5 -10.9064
23.9552 135.255 -10.2664
18.4165 138.306 -9.49024
18.4304 138.268 -9.41967
15.6701 137.748 -4.57237
24.9874 132.273 -5.10453
-8.67009 149.115 3.23888
17.4505 138.787 -9.02122
17.9854 134.225 0.0752851
31.087 130.949 -10.1062
13.5407 137.637 -1.29415
28.7954 132.321 -9.98259
18.6616 134.252 -0.788763
4.86305 142.09 0.707221
18.464 138.875 -10.208
31.1097 130.948 -9.91487
22.7784 131.95 -1.01662
23.3714 136.124 -10.644
4.34141 145.913 -6.51188
7.18326 141.053 0.170713
24.8859 135.101 -10.3047
0.770686 147.211 -4.43316
29.0164 131.77 -8.61737
13.2869 138.237 -1.74615
23.6894 131.864 -1.782
20.5176 132.686 0.643574
-7.92559 148.921 3.58508
9.60855 144.511 -9.89861
29.2113 130.376 -5.36982
-7.39402 148.854 3.4235
13.506 142.668 -10.7877
27.227 133.816 -9.85103
-8.72436 151.286 0.164749
19.1975 133.778 0.813676
18.4406 140.261 -11.9007
24.6146 133.2 -4.93352
13.2015 138.633 -1.33859
11.9093 143.816 -10.6626
21.248 133.204 -0.295306
10.5921 139.858 -0.340582
26.2073 131.967 -3.98743
21.2049 133.386 -0.35061
6.7333 146.023 -8.1512
28.734 130.89 -4.77189
-7.609 149.722 2.87577
28.7117 133.404 -10.0174
23.8278 132.497 -1.57075
16.8116 138.14 -4.36718
28.046 133.53 -9.27483
27.2869 134.027 -9.09779
-7.35149 151.669 -1.03629
3.53486 143.972 1.1559
23.8292 133.972 -4.16005
12.736 143.969 -10.6791
10.7221 140.324 -0.215399
12.9369 139.977 -2.37129
18.8622 135.105 0.349816
15.5651 139.389 -4.35551
28.869 132.923 -7.95853
10.0893 140.761 0.155937
-6.27093 150.02 1.93261
10.9184 140.504 -0.313429
-5.81632 149.932 1.62769
24.04 136.663 -9.21041
17.4475 136.962 -1.17926
5.98693 147.073 -7.63786
20.5677 139.828 -11.296
19.5274 135.035 0.276636
15.7965 141.864 -9.06804
26.683 132.384 -2.89966
11.8465 140.324 -0.275313
5.97428 143.474 0.757527
25.2519 136.837 -10.3112
15.9943 141.896 -8.87168
-2.4946 150.628 -3.14344
11.3489 140.834 -0.358945
17.0803 137.835 -1.41081
18.1804 141.396 -10.4225
16.2808 141.849 -8.84573
17.5172 140.943 -8.53742
26.3752 133.008 -3.13639
17.8162 138.048 -2.55445
27.8944 135.859 -11.1135
28.1755 135.932 -11.5311
25.1785 134.145 -3.76844
27.996 136.169 -11.7199
12.027 141.215 -1.17807
27.6183 132.614 -3.2341
31.1375 132.313 -7.13449
23.4939 135.236 -3.26072
0.102698 150.158 -4.26046
14.7651 143.627 -9.45196
17.4985 139.408 -4.05227
13.895 144.338 -9.78895
14.8952 140.954 -3.80818
13.1231 141.321 -2.18651
12.679 140.638 -0.106139
13.0079 144.845 -9.45404
27.3513 134.622 -6.4905
17.983 142.109 -10.1132
10.7713 146.317 -9.60493
11.4883 146.003 -9.55949
18.341 141.035 -7.89724
17.1265 138.646 -1.10932
30.2418 132.874 -5.7063
22.2534 135.568 -0.781949
27.1742 133.549 -2.83357
10.0221 147.089 -9.13848
-6.6293 153.347 -0.594248
12.069 142.582 -1.96071
-2.59745 152.144 -3.07375
26.9756 135.912 -7.30928
5.20678 149.083 -6.6844
11.8093 142.633 -1.51206
27.7116 133.466 -2.81267
12.4842 141.61 -0.123422
17.2223 138.73 -0.170207
18.7485 142.64 -10.4432
8.39723 147.965 -8.14495
11.9216 142.098 -0.258442
7.67514 148.308 -7.84143
-6.42362 152.995 0.709381
23.753 135.841 -2.1972
8.96561 147.881 -8.3933
13.055 142.536 -2.303
15.84 141.822 -4.16237
26.6711 136.501 -7.0342
26.8043 137.07 -8.23814
5.06536 149.661 -6.4985
18.418 143.1 -9.99105
14.899 144.537 -8.37218
29.0582 133.954 -4.38315
16.3767 141.667 -3.91408
28.2829 133.995 -3.20175
8.32421 144.132 1.5057
15.7022 143.686 -7.12829
8.97695 143.737 1.59026
8.28242 148.575 -7.73453
18.1109 138.691 0.422619
26.5697 137.832 -8.71161
17.2318 140.663 -2.40562
20.3126 137.562 0.247917
29.7339 134.236 -4.90714
18.4591 143.051 -8.82437
-6.31361 154.381 -0.279113
-1.2901 152.728 -3.26071
22.0158 137.039 -0.204274
26.287 138.096 -7.86485
29.2589 134.731 -4.29356
-4.19247 154.235 -1.78851
28.0221 135.32 -3.73373
28.3864 136.164 -5.8595
14.0244 143.918 -3.52177
10.8214 143.848 0.948965
29.04 135.525 -5.22471
-3.71775 154.212 -1.98406
24.0773 136.862 -1.46912
28.9635 135.239 -4.29435
14.6624 143.94 -3.83012
4.79079 150.944 -5.77157
15.6162 144.43 -6.08842
