ply
format ascii 1.0
comment Created by Open3D
element vertex 1958
property double x
property double y
property double z
end_header
19.7331 97.1669 -6.83382
-10.3215 119.463 -5.38874
32.498 83.8763 0.166015
-1.03742 102.913 13.367
13.2856 94.3498 8.6674
19.524 97.4619 -6.89807
-16.6929 122.024 -0.579081
19.0752 87.4548 13.6694
-9.0834 109.805 12.2353
-16.5468 120.519 2.36427
32.5184 80.5299 7.19076
-14.8571 121.603 -2.27732
-20.0185 124.042 0.761635
2.53744 100.735 12.7282
11.9241 96.2256 7.41798
-14.0867 120.976 -2.10366
14.8751 90.9287 13.5168
15.8003 101.192 -8.25657
9.48903 106.446 -9.08366
-14.0037 116.074 7.56063
32.6524 82.9714 2.33835
-16.198 119.301 4.56821
5.33331 109.066 -7.8404
28.8076 88.2914 -2.28751
-19.4618 124.238 -0.216471
-15.238 117.828 6.12153
6.97173 108.292 -8.71045
-15.5491 121.594 -0.851914
-14.7729 117.152 6.82545
13.1104 95.2569 7.89923
32.8755 82.2654 3.67582
-5.87077 106.812 13.8956
32.8935 82.0822 4.10111
-15.4125 121.367 -0.407372
32.4186 81.0684 6.94321
32.2075 84.7852 -0.0697455
-11.822 120.992 -4.95303
5.40746 99.2545 12.085
32.6428 82.6307 3.69638
11.4844 105.247 -9.01813
-20.2857 124.762 0.572698
19.0291 86.6077 16.5324
17.0679 89.5176 13.7422
16.5283 100.921 -8.06333
3.04216 100.84 12.6168
-22.7048 125.616 2.66209
22.8628 94.9957 -5.83428
-22.4754 121.467 10.5709
-16.9106 119.276 6.51853
-16.2672 118.499 7.11345
30.128 81.4512 10.1432
-23.6791 125.249 5.02098
-15.0955 120.101 2.19081
32.3108 81.7299 6.31469
-1.18918 103.8 13.451
32.2588 81.1387 7.62576
12.6004 96.2651 7.54353
31.6932 85.6656 -0.38976
16.4244 90.2167 13.8063
-2.88785 104.839 14.1805
-16.4847 122.645 -0.482765
-14.9264 119.859 2.67928
0.213784 112.354 -5.4347
18.3725 99.4047 -7.32211
-15.3229 120.913 1.25237
-15.0661 119.704 3.37211
25.4705 92.8005 -4.84657
-14.8271 121.262 -0.0641675
32.3768 84.551 1.04654
27.1605 90.5383 -2.80996
23.6026 94.5012 -5.26262
0.583392 112.475 -5.88234
-20.4926 120.372 10.5211
15.3686 91.2603 13.829
-0.786092 112.991 -4.71108
-7.52363 118.222 -4.83894
10.3804 98.5986 6.89774
-2.61314 114.204 -4.31736
-21.6083 126.467 0.234682
-12.227 114.91 8.91807
3.17435 111.281 -7.269
-17.8016 124.252 -1.02483
-15.2343 120.86 1.85343
-12.1486 114.914 9.04873
-4.947 116.382 -4.7473
15.6761 102.438 -8.42333
-15.3084 120.994 1.85159
11.7227 105.657 -8.762
19.1555 86.7499 17.4864
-15.5129 120.704 2.8748
17.5055 100.815 -7.83645
-14.991 120.072 3.35841
31.8747 85.7966 0.189449
18.6463 99.7288 -7.35067
-12.1176 122.2 -5.13852
-19.3487 121.115 8.02645
-14.0829 123.053 -3.64906
-9.50832 112.062 11.2101
-20.0287 120.592 10.33
4.50444 110.791 -7.51496
-14.4796 117.534 8.00731
-14.2535 122.864 -2.8933
31.8466 83.274 5.59748
-14.2597 122.95 -3.05027
-3.45977 105.965 14.2483
-17.8321 120.992 6.32704
-16.4094 120.001 6.13403
-21.6486 126.416 1.39288
-15.8251 121.213 2.91093
-15.4323 120.059 4.64015
31.8095 83.6607 5.09028
21.0408 97.7592 -6.48899
0.272241 103.835 13.0254
-15.8926 119.375 6.78005
-16.3863 123.428 -0.510268
-22.5137 126.028 3.66591
29.3044 82.2355 11.8368
25.5588 83.8276 14.3751
27.6867 90.6948 -2.4269
-16.3561 119.553 7.27935
-0.757621 104.532 13.3963
31.441 86.6155 0.00933873
-14.8261 121.984 0.199247
-21.7717 126.33 2.15902
0.609398 113.141 -5.6809
31.3036 86.8219 -0.0991536
-14.3819 121.323 0.893398
30.4503 82.2528 10.3348
-6.75311 118.216 -4.41537
5.25563 110.762 -7.79344
19.0189 89.4142 13.7032
23.6536 85.2479 14.9619
-18.9316 121.182 8.5131
16.1377 102.832 -8.31541
30.804 82.3587 10.0969
5.8368 110.616 -8.01023
19.4708 88.2632 15.6763
-13.911 122.699 -1.91294
-16.705 120.333 7.15316
11.3695 98.9427 6.98559
3.63463 112.108 -7.36273
-4.7003 107.721 14.0486
-16.016 120.15 6.62046
-16.352 120.336 6.79862
12.9045 97.7166 7.2425
-23.215 124.295 9.41795
-14.3902 122.338 -0.0568612
0.134591 113.651 -4.89261
-15.7039 120.854 4.89335
-19.6754 121.234 10.2939
-9.98229 121.409 -4.78127
2.33372 113.211 -7.23504
-14.6265 122.104 0.902193
32.0515 84.884 3.83992
-16.3497 120.295 7.18143
-18.3345 121.506 7.94128
29.7002 89.1018 -0.717355
15.4932 103.916 -8.44588
29.6172 89.3153 -0.900156
19.2611 89.3902 14.7698
19.5434 88.2466 16.6382
-21.0886 127.048 1.40497
9.0916 101.05 7.16995
27.9855 83.522 13.235
30.8753 87.5271 0.938137
-14.6413 122.218 1.45868
31.7239 83.3868 8.19947
-17.96 121.898 7.32734
23.797 85.9947 15.176
30.7418 83.0402 10.5441
-16.4528 120.743 7.56799
4.38994 102.49 12.1259
-17.8728 125.815 -0.295195
14.5941 93.6358 14.2875
-2.54912 115.873 -3.74332
-20.8941 127.321 1.49485
-21.2189 126.957 2.73755
-10.7032 122.597 -4.5522
3.09968 113.483 -7.42124
-22.5208 126.529 5.70546
-17.8646 122.286 7.14007
28.269 84.0576 12.9248
-14.0065 122.608 0.697423
-14.568 120.924 4.974
14.6336 105.364 -8.51705
26.53 93.75 -3.47906
-21.945 126.836 4.70449
-3.68792 117.181 -3.88551
-19.5002 122.044 10.5103
-21.691 126.912 4.21845
29.6597 89.9033 -0.309945
26.9185 92.991 -2.25707
18.9374 91.1997 13.4314
20.8117 99.7331 -6.349
14.8554 95.9232 10.2731
27.8917 84.5308 13.0657
-6.28564 110.425 13.6394
-18.2618 127.288 -1.61085
-13.3212 124.525 -3.59662
24.673 86.0902 14.9731
23.1743 86.8779 15.6899
-17.5812 122.381 7.2989
30.3569 88.8815 0.957167
-16.7611 122.02 6.94096
-19.6929 122.368 10.7134
32.1098 86.2536 3.63832
-3.41701 108.209 14.0993
17.6279 92.1154 14.0798
9.48207 109.484 -7.96915
-16.5242 121.559 7.6126
-9.59815 114.651 10.8663
10.4015 108.807 -7.84442
-21.4451 123.909 10.6056
-2.7575 107.931 13.954
12.7702 107.239 -8.2694
-17.2166 121.981 8.06171
19.0452 91.2167 14.0378
3.22118 114.186 -7.40343
20.2386 88.8996 16.979
-12.9447 118.103 9.47981
-17.3664 122.562 7.55135
-11.9456 124.667 -4.84254
12.964 107.361 -8.30341
31.4477 84.7704 8.52051
-20.1273 128.299 0.564208
-11.3274 116.527 10.5666
14.1362 98.5263 7.624
19.3264 101.999 -7.1433
7.51789 102.126 10.6102
21.4829 99.8323 -6.0155
23.7581 97.7279 -5.2798
15.0875 96.6074 10.1937
9.05341 110.273 -7.68553
-12.9653 125.246 -3.8719
6.22661 112.656 -8.05647
-15.0937 125.214 -0.539912
-12.5804 125.092 -4.10616
31.5192 85.8752 6.71253
-0.72238 107.019 13.8368
6.76596 102.501 11.4508
14.6409 98.2241 7.99244
-12.0605 124.865 -4.27953
-14.8048 124.576 0.479428
31.3286 85.2109 8.61718
-19.5417 128.742 -0.434395
2.72238 105.047 12.7642
30.8347 84.8033 10.2433
7.08533 102.515 11.2525
12.8142 107.909 -8.12824
29.5012 91.2622 -0.406045
-12.6238 118.479 9.63487
24.0627 97.8462 -5.13788
13.8682 107.258 -8.29373
31.3064 85.9327 7.56973
9.40502 110.3 -7.47341
-20.454 128.418 2.02401
-20.44 124.057 10.7399
25.7089 95.9727 -3.67611
-14.7416 124.839 0.531344
27.4593 93.4907 -1.34278
-21.5449 127.95 4.76648
26.7825 94.6681 -2.63324
14.5718 96.472 12.4416
-22.9077 126.771 9.3359
-3.21405 109.328 14.0408
26.7775 94.768 -2.64977
-11.8243 125.227 -4.30002
19.9225 90.3184 16.7871
-22.006 127.58 6.60792
30.8453 89.474 1.96707
30.9851 88.9592 2.77666
20.5394 89.8367 16.9813
-16.2368 127.352 -1.45363
30.5972 85.4045 10.6146
-22.8542 127.191 8.9451
-15.3507 121.993 7.95746
-11.2428 117.306 11.0222
-1.28312 108.377 13.6196
3.59578 115.195 -7.28625
32.0378 87.1371 5.24767
18.6716 93.0812 13.7755
2.08581 116.045 -6.54551
14.3381 107.386 -7.97846
0.0856304 116.434 -4.24447
11.4424 109.385 -7.49196
-15.1195 122.383 7.12427
30.7974 85.8278 9.91968
-22.3541 127.705 7.62119
-0.986131 117.072 -3.65418
-8.15318 122.735 -3.96658
4.10459 105.117 12.4018
-14.2975 121.279 8.35616
-9.43035 115.897 11.661
28.1962 93.3518 -0.788313
-16.4916 128.023 -1.64379
19.2376 103.447 -7.1557
4.97117 104.729 11.991
-8.93993 123.822 -4.68047
-14.7065 122.417 6.88851
-14.2907 121.51 8.13964
30.7116 86.0928 10.0342
-22.3033 127.988 7.48287
31.1913 88.6191 4.30145
0.900915 107.175 13.5279
-19.9247 124.547 10.7599
5.51273 104.542 11.8099
6.43376 104.068 11.3802
21.1297 101.578 -5.98715
14.7022 99.7112 7.51973
27.048 87.0472 13.9405
30.2114 86.2601 10.9139
-15.1786 126.261 0.565598
17.7679 94.0609 14.4037
12.3365 102.163 6.58552
-16.0698 128.006 -1.49365
6.14048 104.469 11.4719
18.032 104.905 -7.3775
-16.6714 123.089 9.30868
-20.5279 129.491 2.49223
-14.8224 122.606 7.53721
-10.2646 125.34 -4.73545
-15.3266 126.376 0.960801
-18.6762 124.128 10.5589
28.9621 92.8433 0.26773
15.3033 96.2916 14.2333
15.5962 98.3328 9.80107
3.47533 106.097 12.8327
-16.0681 122.969 9.10375
-10.3173 117.273 11.7288
-11.0118 126.364 -5.25757
-15.3778 126.855 0.453321
13.1512 109.327 -8.12284
21.5337 101.72 -5.76149
16.271 95.3022 14.9773
18.7858 93.9477 13.9479
-16.9062 123.141 10.3058
-13.3972 121.301 8.68928
29.5427 86.9834 11.5806
-22.5442 128.635 8.10621
24.5574 98.9648 -4.58689
4.46922 105.9 12.2062
15.517 99.3451 8.6048
24.995 88.6718 15.413
26.4004 96.592 -2.37829
-1.03315 118.129 -3.33709
15.0161 107.923 -7.40787
24.0375 89.0934 16.2722
20.8181 102.841 -6.09151
27.7966 87.4441 13.9143
-8.03725 124.342 -4.77177
2.41239 107.287 13.2041
30.9217 90.8477 2.56737
15.7304 96.3902 14.6654
-15.4351 123.212 8.85979
-7.44178 123.752 -4.35084
-10.0388 126.394 -5.58367
16.7289 106.725 -7.13229
26.724 96.2956 -1.59601
-6.05401 122.468 -3.70515
22.0707 90.423 17.1464
8.84905 104.209 9.91337
4.64105 106.311 12.1532
-18.6871 130.279 0.0504142
-19.6088 125.911 10.1554
11.8569 104.099 5.63388
-19.742 130.734 0.89627
11.3005 104.369 6.06235
-15.0023 128.128 -1.07395
-21.653 129.663 6.01561
20.1587 104.043 -6.66091
-14.2673 122.964 8.12797
28.4413 87.5427 13.6158
-21.7367 127.943 9.72308
27.9295 87.7458 14.0138
30.0076 88.138 10.0765
-12.2976 120.825 9.54966
17.8197 95.2549 14.5145
8.06657 104.909 10.2044
25.5568 98.2845 -3.22732
13.8228 109.524 -7.64609
1.71925 108.203 13.4067
13.8325 109.547 -7.63289
-14.9191 127.266 0.925811
20.5955 92.669 15.6136
-3.02163 111.626 13.995
8.01965 113.55 -6.59865
-19.1491 126.131 9.81886
29.4311 88.2151 11.2231
2.80756 117.626 -6.59841
-21.4414 129.997 5.80287
30.142 88.5585 9.66559
14.2691 109.334 -7.43054
-12.5935 121.406 9.47788
-1.73606 110.94 13.7671
-14.2378 123.282 8.29965
-21.0968 130.227 4.95664
10.2571 104.754 8.03351
-3.79921 121.318 -3.42446
19.1913 94.8189 14.2777
-11.2249 128.09 -5.41693
15.4885 101.209 7.37994
-14.48 123.673 8.38534
15.6172 98.9646 11.7053
15.1581 101.711 7.06186
19.3759 105.618 -7.09265
29.0659 94.1428 1.138
-19.8338 131.708 1.00218
14.3304 109.717 -7.27207
10.1073 105.234 8.11269
-15.9992 124.446 9.77224
31.23 89.8246 6.73568
31.2101 91.2439 3.97134
-16.4258 130.018 -0.55002
-15.4197 129.391 -0.779962
-19.1202 127.115 9.36364
-7.36008 115.992 13.6096
-14.8242 129.136 -0.969042
25.1524 99.9355 -3.78128
31.0131 91.8674 3.32806
19.2733 106.099 -7.03287
27.897 95.9654 0.0477293
-13.521 128.924 -2.36828
-14.814 128.769 -0.0561496
27.5007 89.0367 14.485
31.1408 91.7205 3.63973
30.7292 89.8354 8.03804
16.6799 97.0582 15.1105
-5.74371 114.973 13.6584
26.0822 98.6616 -2.32682
11.1819 105.991 5.80612
27.8488 96.1982 -0.0329617
21.0056 93.6066 15.554
-9.95997 119.328 11.5813
-5.20993 123.563 -4.02642
22.5893 91.6634 17.0241
-16.5091 125.472 9.40183
-20.2119 131.354 3.40856
19.2217 106.415 -7.03284
31.0095 91.8073 4.07617
30.8452 90.5727 6.97237
16.055 98.0014 14.7317
-12.5752 122.579 9.50602
-18.025 131.607 -0.0996892
16.9831 108.185 -6.81273
-15.8187 124.784 10.1671
16.3008 100.198 10.15
-17.5973 126.669 9.16311
-20.5872 128.743 9.61114
16.1984 108.852 -6.7795
13.7354 104.438 5.75141
-18.5098 132.086 -0.0409046
27.7299 89.4243 14.3392
-13.1582 129.423 -2.87079
1.50572 110.084 13.258
15.181 102.934 6.66137
-5.31557 115.182 13.5375
9.68259 106.321 8.45307
18.6944 107.233 -7.0367
-7.62107 126.261 -4.78336
19.94 106.267 -6.96352
-9.19259 128.336 -6.44779
26.8051 98.2203 -1.38952
-19.8931 128.647 9.29078
9.63662 106.452 8.51029
22.8747 103.395 -5.50925
2.90741 119.07 -6.2355
20.3819 95.0178 14.9655
29.6338 90.6598 9.58342
15.7459 99.7893 12.7242
21.1306 94.2453 15.5898
-14.238 124.414 9.5117
9.9573 106.791 7.84705
17.5933 108.368 -6.76576
30.0842 91.4556 7.81904
15.3081 103.461 6.48343
-17.8088 127.578 8.9688
9.91217 114.044 -6.21063
23.2468 103.402 -5.3359
27.7027 90.042 14.4336
29.0749 95.6749 1.22311
-4.59867 115.336 13.4103
-19.5158 128.964 9.0511
16.1381 100.177 12.0326
-20.7319 131.553 5.84135
-11.3853 129.063 -3.40684
3.94322 109.195 12.7641
-19.5678 132.983 1.31493
14.4114 104.675 5.86236
-19.3261 128.964 8.95887
20.3872 95.5079 15.0617
26.9037 98.8082 -1.38165
-12.5102 123.802 8.94934
-10.879 121.624 10.8612
19.7878 96.1371 14.9714
-1.95705 113.483 13.6439
16.6381 101.012 10.1652
29.8413 91.9061 8.17307
-15.1235 130.441 0.105653
-14.1378 129.585 0.311148
30.4449 93.2344 4.74484
16.6737 98.5957 15.0517
24.3393 92.0713 16.39
-11.2753 129.386 -3.4849
16.2765 102.428 8.1716
12.3014 107.007 5.18067
-11.1553 122.379 10.366
-12.5969 123.949 9.54175
9.13807 107.419 9.31081
-14.1997 129.823 0.33683
19.2646 96.7829 15.0371
28.2539 90.6442 13.6034
-20.5891 132.952 3.90116
-5.57802 125.526 -4.12021
-7.97094 118.943 12.6199
16.8677 98.7688 14.9419
-12.6336 130.174 -2.53011
-5.21916 125.282 -3.91604
26.973 91.0936 15.0185
25.512 91.8098 15.8443
-1.74962 113.846 13.5587
15.8814 103.586 7.18458
7.25009 108.181 11.1895
-2.33018 122.605 -2.87229
19.9859 96.4338 15.1754
28.7767 91.1344 12.407
16.861 101.705 9.54406
-10.8423 122.889 9.70791
-13.3291 124.425 10.4944
29.0925 96.6392 1.16954
16.7925 99.3026 14.6115
-21.2324 131.44 8.65829
-14.2099 130.306 0.276872
17.06 109.806 -6.55671
16.6775 101.096 11.337
16.0957 103.503 7.50569
16.6798 101.123 11.3543
25.233 92.2081 16.0833
22.6829 105.288 -5.96586
-14.4461 130.653 0.170106
15.318 104.861 6.1299
-4.61684 116.658 13.0661
13.7903 112.978 -7.60456
-18.583 129.502 8.84067
0.64645 120.992 -3.45974
29.4748 96.2641 1.84259
28.9071 91.7403 11.7253
-2.61173 115.06 13.4848
10.5826 108.714 6.02391
12.51 114.328 -7.90086
-0.175005 113.321 13.3914
8.48175 116.696 -6.37111
2.59901 120.753 -5.40153
16.7142 100.149 14.0868
-20.9431 131.384 9.35405
9.94304 108.743 7.3511
30.3151 94.9051 3.85035
-18.4401 129.767 8.80729
24.1193 93.2839 16.5157
23.5789 104.456 -4.77474
-2.06352 114.978 13.4116
-10.9674 124.625 7.81438
13.228 107.544 4.94718
-17.9744 129.506 8.80687
-10.3923 123.832 8.5489
6.16129 109.541 11.8277
8.1015 108.694 10.5698
-1.85635 123.001 -2.62297
-11.4195 124.968 8.04756
17.0999 101.846 10.7074
-15.6876 127.265 10.122
-20.438 133.526 4.94122
29.16 92.8744 10.313
-13.7473 125.569 10.676
17.1784 102.281 9.89807
-20.8843 132.075 8.6924
22.4834 94.7529 16.8473
-10.9134 130.792 -3.90548
-2.70952 124.035 -2.79782
-10.9088 125.048 7.71041
-18.0363 134.046 0.709322
-9.63359 122.696 10.4791
29.7769 94.6402 6.30653
28.1024 98.9233 0.362655
29.8054 94.388 6.81844
8.32953 109.116 10.2883
28.871 97.7089 1.70521
-18.3472 133.927 1.61287
28.8919 92.8841 11.2578
23.2866 105.401 -5.05791
29.3164 93.4983 9.55962
-14.0331 131.639 -0.157113
21.2141 96.604 15.8019
29.8507 95.5033 4.8784
14.4837 107.078 5.37398
6.38677 118.884 -5.74589
20.907 108.102 -6.38893
7.1153 118.475 -5.93762
29.6669 94.0067 8.34501
29.9479 96.4469 3.14107
22.5819 95.2412 16.7482
22.5788 95.2482 16.7427
6.6905 110.136 11.5737
10.1152 116.801 -6.85223
20.8155 108.372 -6.3703
28.5101 92.9091 12.7463
9.27029 109.647 8.78039
-17.6024 134.429 0.457072
9.45985 109.822 8.18979
-8.97913 122.756 10.5521
-17.6496 134.419 0.635635
28.3616 98.8944 1.22808
-7.3922 120.325 13.0695
16.4195 112.388 -7.33273
-16.5266 133.593 0.690829
-14.5584 127.088 10.6101
9.78122 110.115 7.30776
10.103 110.246 6.60179
18.2364 110.522 -6.30393
14.8807 113.991 -8.06967
-5.05701 127.038 -3.62601
20.7609 108.704 -6.3624
0.191666 114.672 13.0858
-1.31746 115.817 13.1622
28.7482 93.8715 11.032
8.38444 118.348 -6.48201
10.4353 110.594 5.81427
-14.1795 132.37 0.0706898
28.3677 93.2541 13.0243
15.0978 107.171 5.59053
19.4981 109.809 -6.32375
8.00643 110.161 10.4919
-20.3087 134.428 5.38293
17.5849 102.861 10.4644
29.8205 96.3559 4.79394
15.6734 113.59 -7.83066
24.0742 104.728 -2.98676
-5.96286 119.578 13.2577
0.381722 122.847 -2.86146
16.066 113.258 -7.66091
-20.2419 132.473 9.43206
-20.26 133.274 7.88179
29.651 95.1693 7.64475
-9.31447 131.628 -5.45221
-20.417 132.953 8.80081
2.98469 122.066 -5.0866
1.84429 122.35 -3.88504
16.9335 101.692 14.1848
10.7614 117.121 -6.97572
23.825 95.2398 16.6611
-15.598 129.078 9.52465
-3.50333 126.102 -2.95241
2.22794 122.365 -4.19263
-19.3679 134.525 4.61148
1.79219 114.088 13.0091
-15.4122 133.681 0.441798
20.5434 98.5984 15.4182
-10.9781 126.334 8.39315
-1.29011 124.327 -2.34766
-12.4848 132.663 -1.77218
24.9172 104.144 -2.01689
-19.7683 134.718 5.25244
27.5778 93.86 14.372
11.5803 116.958 -7.13117
25.858 103.162 -1.45406
-4.25193 119.021 12.8976
8.95167 110.836 9.15414
-20.2773 134.26 7.15404
13.9044 109.266 4.85548
26.2151 94.3655 15.7246
27.1311 94.0649 14.9372
22.7529 96.5525 16.6962
28.9779 98.657 3.06636
-7.61547 131.322 -6.0886
23.4228 106.715 -4.42877
3.235 113.567 12.682
17.6392 103.356 11.1009
18.5231 100.866 14.7115
-8.89162 132.114 -5.62681
19.6051 110.56 -6.16646
19.5774 100.051 14.7342
-19.2313 132.437 9.51944
-10.3915 126.664 7.54075
28.5179 94.9453 11.4031
-3.15948 126.469 -2.85407
27.3439 101.567 0.213076
-2.52211 125.782 -2.43997
-16.9803 135.155 0.943168
0.791032 115.58 12.8685
22.8777 107.767 -5.15759
28.4167 95.0341 11.9777
-5.47545 129.302 -4.46578
15.1899 114.969 -7.34931
7.28127 111.662 11.2572
-12.2739 127.642 9.34475
17.5215 102.211 14.523
-6.89004 121.705 12.967
-13.5366 133.917 -1.15724
29.8403 97.7785 4.67901
-0.693043 116.917 13.1377
-9.27177 126.172 7.9256
11.1593 118.109 -7.08506
-3.17398 119.058 12.8405
10.0977 112.217 6.37781
-20.34 134.695 8.05271
23.9162 106.022 -2.30879
-17.6537 135.109 3.16507
-7.65205 124.537 8.94427
-9.69638 132.968 -4.60792
-11.0582 133.392 -3.31146
7.21555 112.05 11.3063
24.6861 104.95 -1.14813
2.887 123.183 -4.17883
-4.03155 119.971 12.7235
15.712 114.907 -7.23051
17.505 103.704 12.323
-6.94959 122.524 12.1557
4.82379 113.5 12.3146
-3.49567 127.731 -3.2555
-2.92917 119.216 12.7848
17.9062 104.777 9.78718
20.9092 100.045 14.7018
-6.4193 131.077 -5.31381
-8.22575 133.014 -6.39864
-20.1045 134.639 8.53675
-4.99217 129.57 -4.23964
11.0737 112.687 4.92039
3.85739 114.379 12.5417
-13.8018 134.21 0.0544223
-16.7387 135.544 1.88119
-10.3235 133.718 -4.22996
11.8644 112.287 4.59043
20.2305 111.199 -5.96653
21.338 100.006 14.6122
-1.13839 118.043 13.0283
17.6888 105.907 8.54708
10.1034 118.958 -5.81937
8.09967 112.458 10.126
14.6895 110.077 4.84171
0.250696 117.015 13.0484
26.1297 95.882 15.6781
27.2171 102.552 0.852582
6.54015 121.665 -5.6076
9.85499 112.876 6.86228
27.6484 95.7436 13.9946
3.33502 123.676 -4.40006
-15.9648 131.722 9.03944
17.6586 114.349 -7.50539
-13.591 135.293 -1.49722
23.6915 98.3655 15.1512
14.2553 110.936 4.61885
28.7345 100.414 3.52621
-9.54966 134.06 -5.02447
1.26902 116.741 12.9173
17.7072 114.482 -7.49758
28.4521 96.8922 11.0896
26.1699 103.812 0.841963
25.4507 104.616 0.349181
19.8313 112.146 -6.0479
18.8942 113.293 -6.81091
14.663 110.745 4.71122
28.4474 97.037 11.0755
10.2691 113.809 5.53866
2.49358 124.355 -3.54052
-13.284 135.815 -2.27866
-19.0171 136.072 5.93799
28.5958 100.928 3.37292
15.7332 109.599 5.7289
18.1105 106.139 9.01183
0.719371 117.483 13.0548
7.00782 113.512 11.3967
29.5286 99.0986 5.86108
12.2413 113.136 4.31371
28.7213 97.6154 10.1186
16.8034 115.428 -7.11323
13.3243 117.853 -6.54628
9.92074 114.003 6.27608
-6.03484 123.018 12.7261
-6.6351 132.722 -5.59704
29.3272 99.839 5.0972
14.2106 117.22 -6.41699
12.0838 113.421 4.35679
9.62154 119.963 -4.87318
24.9965 98.1028 15.2126
17.8796 104.412 13.707
7.61273 113.756 10.8564
27.5668 102.729 2.50381
17.7959 115.134 -7.20363
17.6542 115.257 -7.21335
9.4876 114.302 7.16139
6.71156 114.3 11.5281
12.0986 113.823 4.31136
2.52355 116.915 12.7594
23.1285 109.672 -4.15735
3.28443 116.435 12.5884
-5.64843 132.068 -4.79785
-14.9413 136.564 0.471258
-8.93246 134.874 -5.28195
-6.90066 125.268 10.7167
13.2075 113.234 4.06751
24.0706 107.317 -0.621701
0.591646 118.504 12.8848
-12.8296 135.534 -0.510022
18.9212 103.755 14.4267
13.1605 113.42 4.02283
-15.464 132.802 9.07246
4.42766 124.657 -4.94942
13.9815 112.685 4.30988
-3.65519 122.136 12.3671
24.6968 99.0521 15.1867
2.1634 125.548 -3.13058
28.9998 98.7863 9.20188
28.5337 101.837 3.87136
9.24306 114.774 7.52414
0.378488 118.913 12.7895
15.4917 116.679 -5.6972
-9.95537 128.675 9.20178
28.0598 102.512 3.33967
23.3721 109.415 -3.17118
18.2031 105.265 12.9462
23.475 109.274 -2.95499
-15.4006 136.946 1.26301
18.3769 115.212 -6.92146
6.24276 115.121 11.7833
-16.1811 136.903 2.65243
28.6579 98.621 10.4648
6.22459 123.545 -4.88237
-5.86129 124.302 12.0002
13.7371 118.289 -5.83989
-14.952 132.769 9.12697
28.4419 102.198 3.90544
19.2535 103.939 14.426
-19.0219 135.951 9.08858
-19.2304 136.429 8.57874
28.9695 100.265 7.09018
18.7198 106.673 9.95711
10.349 120.466 -4.66462
3.56909 125.396 -4.08261
0.478 119.321 12.6787
18.7176 106.815 9.78769
26.9977 104.011 3.04731
14.9644 112.551 4.48868
27.3642 103.635 3.3385
8.73949 115.374 8.38721
16.7195 110.22 6.48535
10.976 115.675 4.39645
7.69166 114.997 10.7409
24.0909 100.402 14.9179
22.1909 112.149 -5.49516
-10.9119 130.282 9.02186
20.2719 114.271 -6.57686
3.79602 117.443 12.1848
15.5239 117.247 -5.18947
8.21964 115.353 9.69741
20.9576 102.916 15.0224
18.1447 105.662 13.8572
17.2995 109.698 7.18413
5.05946 116.743 11.9566
4.98775 125.138 -4.49508
-12.9758 137.154 -1.01758
-18.7929 137.83 6.52779
28.8504 101.101 7.05404
7.62466 123.111 -4.20084
10.0229 116.536 5.28116
-19.015 137.665 7.56868
17.6727 109.555 7.59104
-0.206285 120.942 12.2111
-6.3715 126.848 9.86438
17.5453 116.88 -6.50962
13.4896 119.605 -5.69424
-13.9014 133.113 9.29012
28.303 99.8708 11.1087
13.931 114.456 4.01423
28.0027 103.494 4.428
18.7346 106.803 12.0332
18.7939 106.893 11.8318
-18.2248 136.571 9.21957
15.3739 113.108 4.71108
28.2725 100.091 10.9753
7.34496 116.19 10.8523
-4.55116 125.649 10.1761
-6.32593 127.54 9.15643
-2.62643 130.695 -2.63699
-18.0729 136.487 9.36648
28.7047 101.638 7.43243
6.59162 116.569 11.484
28.5827 102.884 5.22885
26.7358 99.6055 14.6473
28.6796 101.755 7.47642
11.153 121.259 -4.55761
-4.49579 125.894 10.0622
8.19171 116.3 9.84242
-4.29778 125.174 11.2306
27.6494 99.6556 13.3145
-18.6159 137.544 8.47626
-11.9635 138.217 -2.93688
-8.14206 129.533 8.49754
16.7327 111.666 6.18674
19.1742 116.05 -6.19293
8.3453 116.482 9.44573
13.7135 115.289 3.82501
-12.8593 132.746 9.60432
-7.12454 136.097 -5.75726
10.2275 117.416 4.94147
13.9529 119.915 -5.57788
-0.0940823 121.759 12.1458
18.2118 109.791 8.14046
4.23405 118.782 11.5519
26.7494 105.751 3.26139
16.2909 118.901 -6.90728
9.54454 117.414 6.35627
5.97733 117.6 11.5691
10.6853 121.74 -3.76902
-14.5375 138.247 1.87522
28.1021 101.295 10.4017
-9.23017 137.491 -4.67723
-7.88162 136.758 -5.20744
19.6018 106.015 14.0656
8.20922 116.938 9.73932
10.657 117.74 4.47637
18.1984 110.176 8.08103
22.8113 111.804 -2.11288
-5.48016 135.139 -5.35366
22.4672 103.327 15.314
18.0264 110.55 7.75891
6.91057 117.336 11.1932
4.8224 126.685 -4.17979
-10.4287 131.57 9.34659
17.328 118.805 -7.4958
-7.86673 137.01 -5.24125
22.1677 113.143 -3.5014
27.2797 100.819 13.2106
18.543 109.803 8.66294
17.5993 111.383 7.15794
18.9513 107.546 12.9421
23.1746 102.967 15.6591
4.70508 119.433 11.0684
-6.47663 136.572 -5.8803
-16.0185 135.694 10.3864
-14.5842 138.662 2.34507
19.1955 107.847 12.1854
19.4928 108.449 10.5672
-7.5656 137.23 -5.41293
15.5727 119.743 -5.83208
25.3387 101.936 14.7338
25.9859 107.546 2.64144
-5.80497 128.493 9.42613
3.91301 120.399 10.7264
-18.1036 138.722 7.85103
-14.9288 135.109 10.2427
25.6735 107.966 2.39573
10.0771 123.019 -3.57015
-18.086 139.427 6.68344
-5.65067 135.972 -5.35068
17.101 112.661 6.33143
15.1652 120.015 -5.27415
9.83425 123.238 -3.55392
10.022 118.778 5.03493
15.3056 115.138 4.28072
26.3509 101.779 14.0281
27.2812 105.93 4.39371
-2.29229 125.1 11.3708
-12.6917 138.554 0.542483
16.2187 120.521 -7.48415
-14.5149 139.132 2.3448
4.36294 127.756 -3.69469
27.828 103.23 9.32832
-11.9116 133.423 9.84461
-17.943 139.887 6.19302
-12.8734 134.029 10.2019
14.5595 116.197 3.9025
-7.36415 130.601 8.65465
-11.5592 139.445 -2.51494
27.8331 102.937 10.1588
10.8547 119.014 4.06944
14.1352 122.129 -7.08098
-1.05087 131.084 -1.75057
-12.972 134.189 10.2126
23.2898 112.315 -1.40867
5.61141 119.728 10.7774
-16.5302 140.319 3.61989
5.46432 119.969 10.6558
-13.2791 138.947 1.49748
-8.31588 131.563 8.61273
5.22543 120.228 10.5355
14.7265 121.574 -6.47324
1.9902 122.349 11.3607
9.79493 119.482 5.22505
-5.92348 136.938 -5.48066
22.7435 113.42 -2.37388
-4.12133 128.078 9.38452
-5.10456 128.932 9.2406
23.6525 111.36 0.465345
26.3477 102.778 13.4556
13.2381 123.392 -7.41303
-12.992 134.573 10.3166
12.1725 122.753 -4.47838
9.259 119.543 6.32992
27.2196 102.9 12.0778
5.53723 127.427 -3.51934
9.13772 119.564 6.63858
15.4014 121.762 -7.21473
-7.54694 131.387 8.58834
-13.7072 135.22 10.3696
18.9154 110.813 9.21925
11.9953 124.063 -6.50857
24.1295 110.551 1.95256
17.7838 112.807 7.13673
-11.4545 140.159 -2.62994
20.9825 106.387 15.0942
13.5829 123.52 -7.61012
13.1101 123.801 -7.44687
21.5797 115.833 -4.45595
27.3007 106.406 5.60078
-15.3758 136.862 10.0904
23.2473 104.635 15.3617
-17.4574 139.698 7.66723
-3.06183 127.788 9.43276
14.9477 116.754 3.96852
-7.35577 131.577 8.4963
8.83909 119.817 7.27228
27.4934 103.595 11.1209
19.4644 109.525 11.5742
11.1005 124.627 -5.68419
-13.2397 135.227 10.3843
13.361 122.779 -5.3296
13.3049 122.843 -5.37108
8.45832 119.673 8.31942
-15.8013 137.572 9.76296
27.2088 104.843 9.37437
10.7419 120.175 3.99589
9.43304 120.331 5.6762
0.862354 130.808 -2.04393
-16.2341 141.214 3.39516
10.7276 124.733 -4.78037
19.621 117.486 -3.9001
19.645 117.705 -4.3637
-5.61755 137.452 -5.1406
-10.1376 140.061 -3.40366
-2.1821 127.157 10.1135
-17.0258 141.283 4.6529
-7.37412 132.068 8.31793
11.6034 125.058 -6.59882
-7.33546 132.056 8.3168
-3.26702 134.881 -3.44287
-17.2261 139.821 7.98843
-2.55092 134.039 -2.77418
-12.2369 140.147 -0.120045
3.17321 129.726 -2.79164
20.1442 108.125 14.3118
-14.7078 140.875 2.32075
27.1619 104.352 11.1559
1.76167 123.894 10.9921
12.6118 119.59 3.04084
14.6982 123.143 -7.13989
-15.2049 141.129 2.62977
-11.178 134.705 9.40846
9.16374 120.773 6.19716
-17.2697 141.083 6.10674
19.6285 117.491 -3.09465
23.8916 112.846 -0.0572606
20.3661 108.269 14.4277
-10.9992 141.105 -3.0073
18.6267 112.565 8.68641
16.7259 121.823 -6.61717
-12.4604 140.85 0.064094
-12.4167 140.575 0.566941
10.6823 121.165 4.00114
-1.31964 133.365 -1.94383
19.1927 118.243 -3.01129
20.1237 109.528 12.9249
20.5732 108.301 14.6933
9.85909 121.423 4.98978
3.25538 124.029 9.90017
27.0012 104.79 12.0462
5.13553 129.117 -2.93436
-3.00025 129.338 9.01187
24.8538 110.495 4.08373
1.59838 124.979 10.695
-4.30512 130.841 8.05752
20.5097 108.671 14.3688
26.0657 109.276 4.9118
0.396652 132.263 -1.56604
-12.7523 141.691 -0.259376
26.7346 105.32 11.9357
-9.28144 134.293 9.34923
-15.7699 139.339 9.20201
-4.10989 131.086 7.89476
17.468 115.37 6.3017
26.5099 105.463 12.2243
13.7177 119.901 3.05342
-9.48718 141.123 -3.78836
18.8325 112.773 9.48313
18.9796 117.892 -0.848285
-13.9002 137.691 9.84941
18.9553 118.487 -1.96853
-14.4805 138.259 9.69516
17.6279 115.276 6.53807
9.4018 126.37 -2.93789
3.27727 124.824 9.46217
12.1629 126.498 -7.34884
20.4928 109.082 14.58
12.399 121.182 2.87161
16.81 116.571 5.33072
8.97557 121.942 6.58619
18.8156 111.967 11.4532
0.908717 132.343 -1.74563
10.0858 126.353 -3.78418
-4.78969 132.046 7.57376
15.0965 124.264 -7.20501
-1.46965 134.323 -1.87143
-1.41494 128.158 10.312
0.531321 126.548 10.6359
7.68066 127.778 -2.60408
4.79128 123.801 9.68417
0.79537 132.581 -1.62262
17.6958 115.523 6.58077
13.9138 125.851 -8.15865
18.0453 114.941 7.22239
1.07708 132.449 -1.71393
17.3047 121.912 -5.42233
18.7439 112.05 12.0042
26.7364 108.653 6.65702
5.30334 129.724 -2.53626
18.3367 114.502 7.9443
2.07312 125.943 9.9647
20.728 109.045 15.31
-12.6017 141.815 0.958817
1.5196 126.304 10.2869
25.211 110.99 4.67343
25.8507 106.951 11.7682
3.72215 125.225 9.14366
26.7217 108.818 6.77022
18.4624 119.443 -1.71604
17.5694 120.801 -3.04493
-6.40814 140.142 -4.94141
24.139 106.876 14.748
-14.8562 142.75 2.83117
-1.04644 128.738 9.65899
-0.637804 128.684 9.17332
13.6622 120.915 2.94052
-4.9689 133.15 6.9866
-5.20571 133.178 7.2919
-1.80954 135.348 -2.13298
-10.1072 142.518 -3.70067
18.4445 114.479 8.54753
26.0472 110.007 5.88144
-13.5173 142.316 2.04689
10.9251 127.738 -6.15651
26.6942 107.292 10.5404
0.22225 133.556 -1.28339
5.28839 124.183 9.8335
4.15056 125.356 9.29785
18.8224 113.61 10.3448
15.1018 119.901 3.56374
8.94213 127.782 -2.70134
10.1772 127.78 -4.55362
7.2133 122.608 10.2358
-0.755925 129.588 8.50812
-7.17241 134.869 7.78437
-2.36324 130.723 8.70933
5.9099 129.889 -2.12765
8.02025 128.383 -2.32535
18.8717 112.407 12.891
14.9095 126.156 -8.27317
17.7363 116.485 6.73645
17.4688 121.477 -2.70063
-0.774464 129.967 8.18901
20.1297 117.811 0.590042
0.377691 133.902 -1.27453
18.6555 113.106 12.248
6.84711 123.087 10.4193
-3.67437 132.974 6.84501
8.28196 128.566 -2.45749
25.3682 108.409 11.5762
16.5066 124.558 -6.93654
-5.31123 140.117 -4.49865
23.0416 116.35 -0.333716
4.52952 125.67 9.4323
13.3659 122.258 2.81529
17.2598 117.833 5.69381
16.6272 123.171 -3.74605
20.0495 111.496 14.3087
-7.35778 142.236 -4.94868
20.2994 111.297 14.5668
15.7776 126.141 -7.99702
-12.7336 142.975 1.95229
-11.1797 143.733 -1.90611
25.2374 109.414 10.9083
-13.2947 143.347 2.20333
-10.3722 143.796 -3.07962
16.755 124.794 -6.57534
-10.8134 143.916 -2.61287
20.6911 117.84 1.26628
-9.04768 137.32 7.92896
2.10212 133.474 -1.3127
-10.9581 138.18 9.2785
12.1611 123.928 2.41939
23.8825 115.903 0.540725
16.624 124.98 -6.37261
-13.768 140.267 9.56427
10.5995 124.568 3.70801
21.9109 117.073 1.40171
24.2629 115.725 0.554491
-11.0504 138.47 9.32484
6.86376 130.566 -2.20974
16.4382 125.113 -5.91738
-15.4803 144.168 4.79119
-10.0878 144.158 -3.3558
20.2301 118.178 2.14387
5.33569 131.726 -2.10059
18.1199 121.907 -2.03811
12.0161 124.318 2.49371
10.2027 124.489 4.91671
15.4882 125.634 -5.36003
-9.51099 137.819 8.46764
8.73573 129.592 -2.92517
18.1141 125.074 -8.20876
-14.7433 144.436 3.35727
11.2656 129.418 -6.26599
23.5736 109.986 13.6625
-3.29722 139.08 -3.10164
24.0755 115.89 1.34097
25.3268 113.627 3.95261
26.2863 110.104 9.52745
10.8929 125.148 3.22526
21.8269 110.934 14.8713
-12.2946 139.709 9.64327
-14.8431 142.235 8.53674
7.01282 125.026 9.47175
24.3414 110.327 12.3328
19.1273 113.658 13.6614
19.5883 123.502 -6.43628
20.6201 119.208 0.53061
11.2575 129.75 -6.12606
18.5347 115.403 11.3974
18.6577 114.528 12.9593
11.8242 124.997 2.57969
18.9822 121.846 -1.87023
24.1001 110.667 12.6067
-14.8636 142.993 7.82175
-2.42426 134.137 6.51169
19.7365 123.05 -5.14743
-14.8047 144.694 4.47137
10.981 125.639 3.11073
3.39424 133.663 -1.24504
21.9551 117.22 3.3138
17.0187 120.078 5.26974
-15.0119 144.47 5.73056
-9.98064 145.251 -3.38718
16.8395 120.572 4.82747
18.4308 125.245 -6.85124
19.982 124.341 -7.37046
15.1062 128.596 -8.38276
7.44434 131.503 -2.49938
25.4175 111.361 10.2067
20.0215 124.379 -7.40964
18.2523 125.904 -7.6496
-5.98394 142.86 -4.44219
26.1858 111.283 9.32842
12.5278 125.441 2.03976
-4.61915 136.74 5.71607
10.3911 125.547 5.12122
11.2127 130.448 -5.82926
20.7039 112.963 14.5128
-11.2454 145.545 -1.55918
-1.73964 134.07 6.82897
-5.69381 142.724 -4.30173
-10.8587 145.601 -2.14956
21.5402 118.003 3.44111
-12.8275 144.97 2.17452
18.3919 125.938 -7.44118
16.9693 120.787 4.98377
1.67852 135.644 -1.24253
-6.31925 138.278 5.70178
25.7375 113.146 6.87131
-5.25038 137.662 5.33595
24.746 115.648 3.47136
20.2317 123.061 -4.35075
20.4227 123.713 -5.9202
19.6092 125.618 -8.39335
17.5356 118.842 8.25314
-6.15483 143.441 -4.48236
17.5287 119.97 6.14327
15.6356 127.372 -5.59208
-9.37312 145.737 -4.01255
13.627 125.017 2.22733
12.917 125.751 1.94001
12.9911 130.713 -8.00073
22.2553 112.926 13.3034
-10.781 140.839 8.26396
19.4758 122.753 -1.82961
0.681263 136.889 -1.29604
-9.77244 140.623 7.18558
7.29984 132.533 -2.5708
5.26201 133.86 -2.08623
9.08366 126.239 7.35349
23.117 113.066 12.2592
-5.68442 143.413 -4.18289
20.5713 114.024 14.3064
17.2964 119.641 8.14273
-5.70726 143.485 -4.18581
19.0995 126.112 -7.36936
-5.42414 138.546 5.27487
6.43702 133.37 -2.4722
-2.59562 135.824 6.38923
21.9082 119.55 1.47173
19.8338 114.879 13.8998
18.8802 127.344 -9.1555
-6.91472 139.739 5.52047
15.879 127.955 -5.71053
17.2923 118.27 11.4702
-11.7998 145.536 1.68708
-2.11467 135.803 6.29249
4.31439 134.883 -1.61762
18.0068 127.214 -7.14588
18.2386 117.13 12.5483
-10.96 146.712 -1.75604
-8.62973 141.062 5.96522
17.1151 120.494 7.66547
23.596 116.948 5.02274
3.02006 131.016 8.44819
18.2668 117.33 12.5078
17.2747 121.306 6.19113
25.6313 113.722 8.69661
19.6162 125.384 -5.26767
20.4489 115.123 13.8521
17.1656 128.722 -8.12374
10.8982 132.269 -5.61899
-10.2876 141.744 7.84061
-11.1147 146.836 -0.998833
20.2867 126.371 -8.11044
-7.08667 145.466 -4.34207
17.1308 121.574 6.31015
16.3875 127.774 -4.77167
7.76536 133.628 -3.26945
9.51303 133.023 -4.65376
3.65924 135.857 -1.34214
7.71733 133.692 -3.21174
25.1147 113.945 9.613
19.0447 124.081 -1.26386
20.4061 126.503 -8.0063
20.3677 126.594 -8.09154
22.6058 119.338 2.96717
11.2154 132.669 -6.16362
22.2345 120.26 1.73132
-13.81 145.814 5.81965
14.5794 131.21 -8.2951
17.1654 119.412 11.1912
16.8857 119.838 10.8979
15.8112 129.839 -7.30758
-4.0482 138.861 5.01115
19.7917 123.548 -0.821368
19.4174 126.671 -6.39965
19.4784 126.335 -5.65269
19.486 128.153 -9.27125
14.5419 131.429 -8.24926
17.6908 126.747 -3.64639
23.8161 114.58 11.203
17.9815 118.559 12.1772
20.3446 125.327 -4.84558
17.1152 129.211 -7.61438
16.3947 120.951 9.97693
17.8026 128.385 -6.78531
-11.2115 147.004 0.397066
-6.41466 140.929 5.16352
16.5416 122.12 7.71284
16.4072 121.941 8.30888
16.8893 123.54 4.42612
-12.2023 144.085 7.92482
-12.3813 144.387 7.72591
-2.7352 142.157 -2.48631
4.85394 136.035 -1.85132
22.678 119.53 3.82432
-2.59402 142.036 -2.4032
4.8946 130.545 9.02249
16.828 123.749 4.3704
13.8188 132.656 -8.68906
-5.76318 140.639 5.27743
13.988 127.237 1.85026
3.10142 132.629 7.71149
20.2168 116.668 13.4061
20.3426 126.185 -5.5366
13.8767 132.738 -8.7068
-11.0438 147.573 -0.199285
8.52426 128.63 7.68513
16.4157 122.488 7.88395
22.2314 122.86 -1.57644
22.8964 119.205 4.67449
21.1398 124.236 -2.62466
-9.2003 143.091 6.07893
19.9526 125.805 -3.85356
22.1796 123.329 -2.242
-7.25584 142.446 4.59467
1.99049 133.951 7.47932
-0.233996 140.237 -1.60488
16.8758 130.625 -8.50276
16.9207 123.284 6.10847
18.6545 126.63 -3.15011
-7.70765 147.216 -3.89391
-7.70179 147.228 -3.89095
1.55646 134.524 7.29961
13.6147 133.175 -8.26399
16.4218 130.313 -6.83604
20.4545 125.978 -4.35113
20.51 123.701 0.139484
21.335 123.709 -1.11233
17.6206 127.398 -2.72313
9.29001 129.274 6.38834
-9.65695 143.612 6.73888
22.5579 123.546 -2.40366
25.2163 116.329 7.91327
16.5522 125.053 3.78732
4.3848 132.486 7.55893
16.8861 131.029 -8.54165
17.7056 128.837 -5.43363
22.5752 122.904 -1.04501
11.7351 134.013 -6.54577
20.6907 125.211 -2.69055
19.1839 129.591 -9.08036
3.39843 133.416 7.4023
15.856 129.701 -4.16219
22.4491 121.705 1.73433
9.08638 129.484 6.68366
1.9964 134.692 7.23776
15.7991 123.237 9.06305
17.6898 130.939 -9.08918
21.3976 121.222 4.56081
-12.6259 147.495 4.15102
3.92829 133.235 7.30434
17.8332 126.937 -1.29997
-4.24024 144.771 -3.04464
16.1777 128.375 -1.50635
12.0214 129.771 2.0818
16.7562 129.726 -5.02057
18.21 127.763 -3.32899
24.8297 116.371 9.22093
24.8259 116.573 9.01645
21.0128 126.586 -5.05503
16.2387 130.819 -6.16063
23.8536 116.661 10.3712
16.2232 128.285 -1.04589
2.11002 134.968 7.14609
17.2345 128.819 -3.62748
-6.68754 143.152 4.31315
13.9753 133.815 -8.54098
15.9513 128.893 -1.7614
16.6392 129.337 -3.68534
19.0331 126.974 -2.60542
16.9617 127.515 -0.522422
18.9322 119.351 12.7577
22.6093 121.997 1.99134
12.3913 129.92 1.82934
-3.85681 144.726 -2.84415
-0.0868862 141.205 -1.56821
15.0972 132.793 -7.93922
16.4509 128.178 -0.789897
11.1404 130.298 3.0802
19.0795 128.886 -6.09111
11.1596 130.376 3.07409
22.0307 122.399 2.39319
-3.78422 140.764 5.27445
18.1349 120.524 12.2176
16.4719 128.302 -0.652413
-5.6571 146.904 -3.9267
18.3612 128.157 -3.17128
-3.63833 144.79 -2.72215
4.73012 138.31 -2.53572
16.6413 130.521 -5.17501
0.392415 137.549 5.59119
16.5523 124.544 6.84145
17.2291 129.602 -4.10316
11.0016 129.97 4.64608
18.7796 129.742 -6.71744
-0.428881 138.247 5.65899
22.6705 122.43 1.95338
16.4256 122.988 10.3604
19.4087 127.102 -2.32004
-5.76698 143.059 4.28757
11.0156 130.173 4.34947
15.437 129.977 -1.97735
20.0289 125.441 0.0478318
17.078 129.815 -4.13694
18.2205 128.449 -2.99927
13.1775 134.799 -7.92842
20.6026 124.872 0.572145
20.5754 124.891 0.599647
18.1927 128.542 -2.92736
17.7509 127.14 0.606621
15.3206 131.461 -4.257
17.3238 132.265 -8.85199
15.4444 132.85 -7.1282
16.5653 130.616 -4.3722
14.5753 134.548 -9.03047
15.169 130.532 -1.88014
-1.13982 139.312 5.54606
21.1589 124.253 1.54941
15.3288 125.297 8.4095
-4.0192 145.766 -2.78977
18.7598 131.098 -8.25163
-5.03995 146.958 -3.46295
9.48699 130.972 6.18281
16.5677 130.301 -3.22179
4.78187 139.156 -2.74737
14.3238 129.654 1.68631
10.7617 136.23 -5.87709
1.72987 137.272 5.88826
11.106 130.733 4.65603
19.8868 125.26 2.22487
-11.7675 148.735 3.75741
21.7471 122.625 4.6904
16.3264 125.869 6.51846
23.4465 122.322 2.75076
21.1663 124.061 2.87784
4.11276 139.856 -2.51412
-1.68393 144.008 -1.89531
2.90454 140.6 -2.02403
-7.01218 145.274 3.78748
15.3004 132.959 -5.66704
8.84259 131.638 6.80348
-3.76943 142.303 4.85202
23.0601 122.572 3.28689
1.59686 137.892 5.67768
23.4753 119.081 9.75154
2.73587 136.684 6.35819
-2.9496 145.404 -2.27311
19.2396 126.057 2.46312
-5.25276 144.131 3.93753
21.575 128.127 -5.04432
21.774 127.755 -4.58826
24.2607 122.013 3.05078
17.8805 129.554 -2.14752
12.4193 131.943 1.42029
1.18193 138.555 5.46181
-10.4016 150.308 -0.221044
4.24621 140.321 -2.65223
22.4485 121.363 7.34659
5.02355 139.97 -2.98722
22.1862 126.548 -2.43085
11.771 137.073 -7.46624
21.2705 123.109 5.88853
16.474 133.852 -8.08415
10.4437 131.532 5.70591
16.202 128.354 3.50065
16.6943 132.766 -5.93009
22.0169 120.351 10.6697
25.3084 121.995 2.41103
-8.29331 150.103 -2.23214
19.0511 122.062 11.8877
16.423 133.454 -6.66812
20.6318 125.738 2.43098
19.5532 127.447 0.765484
25.7534 122.024 2.19823
17.7185 130.508 -2.37984
14.9582 127.003 8.79432
-4.43677 144.357 3.84622
2.12775 138.474 5.63363
8.45596 139.764 -6.52866
16.7374 133.501 -6.67741
11.4952 137.937 -7.49064
0.0730059 143.777 -1.71325
-9.97098 150.852 -0.383159
10.9559 133.109 3.05912
21.507 123.778 5.5513
19.6696 126.754 2.46695
15.0018 133.46 -3.72564
19.7016 126.648 2.68166
18.132 130.903 -3.36256
10.3651 138.561 -6.69297
22.0621 125.071 2.35297
10.7927 133.489 2.82354
-0.243474 144.27 -1.75028
3.62586 137.394 6.19338
0.838947 140.119 5.08623
23.1022 123.576 4.07432
-6.76824 150.108 -3.1395
19.6796 131.781 -6.95078
18.4154 129.917 -1.19006
22.3675 128.688 -4.72052
14.6172 131.411 1.67683
11.2899 138.682 -7.59365
20.9381 125.719 3.51586
-0.895242 145.158 -1.85799
7.92521 140.602 -6.18967
2.775 142.557 -2.19358
4.37985 137.022 6.36197
18.7718 128.86 0.758049
22.8427 124.345 3.57425
10.4951 133.332 4.53141
21.9704 125.504 2.67296
17.1942 130.946 -0.849643
19.9797 131.436 -6.01746
18.9625 130.591 -2.74135
16.7418 134.549 -7.20888
10.6802 132.931 5.23817
21.08 123.833 7.49047
21.0434 123.849 7.5503
-6.87539 147.4 3.29666
22.8268 124.356 3.90108
-9.83697 150.406 1.93779
13.7722 137.928 -9.00951
15.5295 127.447 9.18509
9.43793 133.245 6.97075
8.91542 140.671 -6.91397
7.53543 135.205 6.12969
7.55469 141.296 -5.91219
16.298 135.648 -7.99326
19.8988 132.84 -7.85983
1.15173 144.203 -1.8814
1.22369 140.696 4.99266
-7.63597 148.455 3.12869
0.236454 144.921 -1.80286
15.5782 129.082 6.31589
2.85218 143.214 -2.38236
11.3669 139.671 -8.26416
26.8848 121.871 3.52221
20.9296 123.132 10.1043
21.7162 125.608 4.00363
7.94886 135.044 6.24841
19.0084 124.149 11.0877
15.4845 131.359 2.25836
22.2667 125.712 3.19097
7.32904 141.664 -5.73689
19.3364 130.83 -2.44029
-5.03538 146.729 3.05897
-2.34853 144.383 3.63595
18.6645 124.639 10.9012
8.55118 141.316 -6.75771
23.136 124.555 4.35314
-5.23013 149.967 -2.84194
17.9618 129.664 2.21915
-1.22815 146.362 -1.74275
16.2213 130.194 3.82265
25.5552 124.744 0.614183
17.0356 132.786 -2.38355
24.9564 125.21 0.639245
19.0825 128.462 3.19741
16.4993 134.801 -5.40819
14.0594 138.292 -8.58373
20.3689 132.714 -7.06373
-9.20655 150.897 1.93133
19.4073 131.291 -2.6337
16.9193 135.627 -7.42162
20.017 124.803 9.35176
17.9337 130.046 2.12234
17.0672 135.228 -6.77921
17.4409 131.158 0.793902
-8.07309 149.669 2.87755
24.5643 126.209 -0.174795
17.9114 131.549 -0.655074
22.3771 125.236 5.14437
-7.81686 151.63 -1.30313
16.2252 136.562 -7.94176
24.3266 126.888 -1.05292
24.9751 123.617 4.52834
18.0216 127.219 7.95615
18.4034 129.529 2.79983
19.8727 133.575 -7.34597
15.6976 131.744 2.63977
18.251 131.003 0.267673
23.9524 127.381 -1.19763
14.8434 130.199 7.05842
9.99805 134.23 6.48973
22.6835 125.955 3.79379
17.8775 133.708 -4.28171
16.8221 134.859 -4.89601
16.6973 128.67 7.59802
21.522 126.761 4.06786
17.6264 131.411 0.817764
23.645 127.938 -1.31347
-6.07519 151.439 -2.72239
8.08837 142.546 -6.57714
-6.38095 149.043 2.52629
26.631 122.936 4.20598
8.78024 135.705 6.00686
17.9379 128.054 7.27058
11.3372 135.67 2.29392
21.1383 131.913 -5.0914
18.5004 127.585 7.53061
2.07612 145.23 -2.5145
17.4641 136.358 -8.28577
21.8401 127.103 3.49293
5.28083 143.857 -4.57677
6.32301 143.466 -5.37669
23.1278 130.155 -4.41056
9.55936 135.127 6.35247
16.864 135.323 -5.04184
18.0963 128.359 6.92457
25.7082 123.764 4.50769
20.8594 127.86 3.77273
15.9945 131.428 4.11243
15.6721 132.227 3.03904
17.6907 128.832 6.84844
18.2625 136.194 -8.54397
1.43544 145.992 -2.40292
2.00757 145.7 -2.60184
23.8789 128.931 -2.56564
22.3806 126.806 3.93651
20.7294 126.154 7.76114
22.0102 131.114 -3.98758
18.5915 131.999 -0.5366
18.448 130.679 2.35159
23.9276 129.078 -2.75031
17.8749 131.514 1.63199
19.7727 129.269 3.20656
16.7975 135.747 -5.11698
17.3808 135.685 -5.82578
11.2842 141.514 -7.89466
24.3815 125.097 4.84034
17.7967 135.4 -5.52153
-6.69431 152.201 -1.59224
28.4677 122.933 3.0949
13.2206 140.144 -7.85726
17.9893 131.676 1.70344
22.3594 126.12 6.11465
19.2057 128.174 6.84133
22.3833 127.553 3.39261
15.8843 138.039 -7.41642
-3.35833 150.023 -1.94438
16.6837 136.287 -5.11417
15.0977 138.483 -7.03413
23.3463 130.776 -4.20284
22.8565 126.727 4.63758
-0.673221 148.053 -1.91052
15.1819 131.231 7.3903
14.822 134.367 1.77681
12.87 140.851 -8.07233
24.605 128.829 -1.96911
16.1545 136.818 -4.89295
8.10641 143.849 -6.54326
22.1968 127.607 4.27247
19.8392 128.569 6.00305
9.25198 143.251 -7.02901
19.8489 128.132 6.93145
12.0451 141.671 -8.04413
21.5914 132.338 -3.96753
21.2136 127.019 7.18915
4.69572 145.592 -4.55775
16.9271 136.674 -5.40221
20.24 127.616 7.59406
25.5246 128.419 -2.01867
12.3716 141.603 -8.12998
17.2886 136.914 -6.22033
22.018 127.895 4.50543
20.5459 127.219 8.14911
7.49411 138.292 6.06716
22.1634 128.226 3.83543
9.24645 137.238 5.58628
17.8253 137.489 -7.94164
21.7624 128.288 4.33832
2.32177 146.884 -3.01114
14.5963 133.215 5.60042
21.5275 132.754 -4.01114
16.0907 137.332 -4.82915
15.35 132.972 4.96492
-8.01202 153.318 0.143432
-6.8992 151.807 1.45139
11.3003 137.739 1.73179
20.7185 128.213 6.39088
17.3526 137.04 -5.89619
5.2065 140.73 5.27422
16.3448 137.443 -5.08576
17.0405 137.281 -5.80974
18.4083 137.354 -7.9767
19.1871 136.728 -7.89369
27.737 125.873 0.6855
14.5701 133.067 6.45312
2.2944 147.332 -3.10401
10.0109 137.123 5.45141
20.8712 128.934 5.4127
18.3313 137.585 -7.87159
14.8324 135.738 1.12082
2.85702 147.269 -3.39211
22.6882 128.936 2.98505
15.1012 135.505 1.68657
25.8183 127.744 0.965334
-2.79613 151.081 -1.84618
8.10757 145.048 -6.41814
15.6132 132.27 7.57612
7.80261 139.19 5.73435
22.9808 127.816 5.31186
22.6314 127.79 5.96196
22.5687 129.406 2.87401
12.4341 142.465 -7.59132
16.6076 131.885 7.14229
17.0616 137.766 -5.21984
26.1537 128.183 0.109956
27.2851 126.136 2.47258
5.13 141.851 5.01879
22.9709 127.917 5.60733
22.4177 129.042 4.25108
15.6829 134.837 2.99371
28.4351 124.853 3.50367
18.6996 130.599 7.07355
-3.61838 152.253 -1.94404
27.1834 125.669 4.05183
23.1453 128.062 5.45146
11.1121 137.591 5.1876
24.9418 129.921 -0.409878
22.6159 130.173 2.67379
17.2824 132.313 6.54342
9.92118 144.879 -7.03466
17.0428 138.726 -5.61685
22.2737 129.364 5.03724
25.7663 127.006 4.49298
25.9851 130.59 -2.951
28.9851 125.42 2.80946
-3.22035 152.473 -1.88255
10.3 138.509 5.31149
5.31032 142.591 4.85432
14.5891 141.533 -7.04605
25.8506 128.706 1.31248
3.14436 148.794 -3.87666
18.6899 138.494 -7.05662
14.4762 137.78 0.844342
23.588 128.403 5.69265
5.34746 147.708 -4.8319
21.9569 129.992 5.09765
22.5887 133.841 -3.4472
14.4896 137.949 0.836697
14.1199 135.864 5.55195
20.5415 130.796 6.03154
21.2708 131.165 4.24591
19.0955 138.565 -7.12807
19.9863 137.887 -7.08096
8.06005 146.457 -5.93136
21.3648 130.801 4.9585
22.7079 130.33 3.87268
25.2501 130.897 -1.07088
17.5483 133.041 6.39563
-2.1764 152.313 -1.73936
14.2442 135.988 5.729
9.59887 145.842 -6.68445
10.5956 145.14 -6.78638
10.7412 140.276 2.67603
14.6913 137.187 2.9624
16.9339 133.801 6.34063
12.7818 139.725 0.907941
21.2165 131.867 3.71005
7.12234 147.505 -5.59958
7.73448 147.123 -5.74127
24.968 130.054 1.95263
14.691 137.417 2.9948
20.4433 137.891 -6.55679
19.2357 139.166 -7.05745
22.4658 134.745 -3.16751
7.42127 142.005 5.30218
24.8972 130.939 0.698793
17.1045 139.345 -4.04215
26.0587 129.421 2.39674
5.40155 148.886 -4.75634
18.0649 140.189 -6.70297
19.0717 132.847 6.36363
7.80395 142.068 5.32169
26.5706 129.148 2.43536
17.5207 139.621 -4.58764
-0.572818 152.323 -2.2714
14.479 137.74 3.95926
21.7827 136.181 -4.02261
-2.65555 153.791 -1.78686
25.4067 132.856 -2.84728
14.4491 137.495 4.65199
14.6256 138.064 3.26416
3.46012 150.242 -3.92276
26.8951 129.047 2.56848
19.3275 133.003 6.32396
24.8134 129.496 4.98243
20.8942 138.111 -6.1417
23.6185 134.498 -3.10251
7.90229 142.557 4.98883
25.2077 132.411 -1.14687
25.7808 132.517 -2.12179
8.64938 142.084 4.9973
25.5752 130.118 3.01763
9.58651 141.637 4.6118
0.270051 152.504 -2.67014
11.3542 145.929 -6.45392
2.95215 150.983 -3.61342
23.7424 130.276 5.93006
12.0581 145.433 -6.3854
13.5567 144.271 -6.33355
14.5218 138.332 4.18153
7.46664 143.854 3.96091
22.4995 136.272 -3.29993
17.1866 140.902 -3.86507
21.8949 137.951 -4.88614
16.6996 136.243 6.46389
9.50121 142.699 4.70406
8.849 143.225 4.80379
7.47326 144.783 3.85373
14.5946 143.944 -5.27178
10.1854 144.174 1.05375
24.4373 133.972 -0.31428
5.82845 150.357 -4.50761
25.8965 131.194 3.05607
24.3747 133.866 0.0904254
16.8133 141.414 -3.33413
15.2794 138.03 5.76253
14.3153 141.573 0.512996
14.1171 141.91 0.17245
15.0268 143.149 -3.53316
13.8442 142.33 -0.0605122
20.087 134.685 5.74981
26.081 131.377 3.42377
15.0553 140.691 1.80896
24.2503 134.446 0.233547
24.9997 135.276 -2.54131
24.9411 135.39 -2.52782
3.73403 152.172 -3.44924
12.4824 146.881 -6.16787
24.5863 131.431 6.10824
11.4228 142.653 3.95763
10.3715 143.283 4.37154
25.0981 134.939 -1.39409
7.62391 150.139 -4.80545
12.1171 147.407 -6.15416
25.8151 132.713 2.22484
9.62082 145.463 1.55276
24.2974 134.941 0.169297
18.7409 136.054 6.66921
16.9795 137.827 5.83362
8.67998 149.805 -5.26134
21.9583 139.569 -4.71882
25.3703 131.948 5.34059
23.5876 133.79 4.51924
13.9499 143.289 0.385281
9.89672 145.836 2.08601
19.629 136.287 6.40289
18.5509 142.947 -5.14091
7.23019 151.234 -4.32459
9.6468 145.213 4.07013
14.4468 146.069 -4.90133
22.7457 134.115 6.21003
13.2349 147.39 -5.57096
22.7348 134.301 6.00456
22.2546 135.304 5.01087
16.0078 143.819 -2.24492
9.38938 147.404 0.749576
12.8517 147.848 -5.36624
14.3477 143.032 1.94423
13.2838 147.548 -5.39684
19.6746 136.732 6.35452
22.1673 135.423 5.26104
10.3285 145.359 3.72219
14.0729 143.819 1.24479
14.7135 142.545 2.95766
21.8545 135.907 5.32604
11.9396 148.863 -5.21966
11.2587 145.26 3.08043
18.4745 138.482 5.81481
17.4056 139.557 5.44683
18.0379 144.148 -4.57117
25.2969 136.559 -0.494583
13.2419 145.734 -0.357134
10.826 146.438 2.08991
23.5297 135.698 4.25557
9.74057 147.304 2.29455
21.594 141.925 -4.66571
6.02669 153.15 -3.15563
