ply
format ascii 1.0
comment Created by Open3D
element vertex 1814
property double x
property double y
property double z
end_header
2.95427 109.795 12.6473
0.84412 91.7739 10.8419
-0.842335 116.045 2.04668
-4.50563 77.4588 0.281384
2.92133 115.56 11.6469
2.50301 120.025 9.76608
2.90585 114.917 11.7677
-3.27552 129.279 -6.33135
2.88723 117.512 11.3125
2.88853 117.729 11.3047
0.848776 138.119 2.37866
-5.92217 97.1217 -6.70864
-1.16389 87.5816 6.98096
0.103832 112.821 5.39702
-5.22103 116.102 -8.41565
-0.0890697 151.005 -2.23454
2.68987 115.607 11.4192
-2.04196 83.2161 5.79614
-1.17371 119.352 1.14161
-2.20658 83.9179 5.5354
-1.2506 121.256 0.874662
-5.78974 112.36 -8.7158
-0.320099 150.234 -2.2378
-4.41267 124.234 -7.45716
1.00841 114.782 7.86503
0.81106 113.956 7.55137
0.200172 112.225 6.38715
-0.354574 89.0544 9.4185
1.82083 103.054 12.3211
0.128429 135.959 1.8887
-2.22813 86.1462 5.501
1.24671 99.4871 11.6425
-1.72449 116.422 1.21706
1.95174 105.958 12.384
-5.69179 78.0616 -1.36105
-0.720995 147.127 -2.05297
-0.116729 109.48 6.66002
-0.994823 108.754 4.61213
1.78898 105.057 12.2708
1.05323 145.018 2.87288
-1.08435 127.058 0.972213
-0.79564 147.63 -2.1203
-1.35272 124.745 0.869818
-0.223575 107.802 6.98258
1.20932 113.862 9.55596
-4.01724 128.42 -6.23245
-6.56943 107.182 -8.53416
0.432997 111.81 8.05944
-1.08393 106.857 5.22791
-0.814473 106.348 5.99972
0.206139 137.416 2.65058
-1.98939 113.642 1.72965
1.30901 113.648 9.99044
0.722972 112.655 8.78701
1.14441 112.705 9.88324
0.587206 140.33 3.26384
-4.18937 128.049 -6.23312
1.62309 106.888 12.5284
-0.0850764 136.955 2.56373
-1.99908 110.604 2.79617
-2.09151 120.619 0.728446
-1.16782 148.486 -2.22343
-4.75586 125.4 -6.76816
0.694592 101.409 11.3936
0.180935 105.848 9.34041
0.697669 144.607 3.29142
-2.33717 117.814 0.820511
-6.91006 78.1591 -3.04525
0.407434 110.483 9.07416
-2.04898 109.793 3.09621
0.944208 111.13 10.3316
0.528442 101.227 11.2501
-5.89123 118.88 -8.05562
0.338422 98.8976 11.2742
0.876783 110.761 10.4246
-1.60552 105.307 5.30365
-1.93527 124.19 0.922504
-2.68407 113.097 1.33213
-7.04991 107.288 -8.42275
-1.41284 149.009 -2.28849
-6.82694 110.141 -8.39643
-4.76571 126.598 -6.31021
0.794095 106.783 11.4421
0.0692547 98.894 11.1444
-1.20103 104.939 6.86651
0.971952 107.612 11.809
0.0951806 100.506 10.9726
-2.71931 118.559 0.614257
0.854534 105.976 11.932
-3.02141 114.701 0.697489
-7.09012 103.709 -7.33011
0.861959 107.061 11.9604
-4.56276 83.3918 2.95091
-3.6918 86.6024 4.54559
-7.06661 102.871 -6.95138
-7.22677 96.7256 -6.17551
-6.93921 100.521 -6.14916
-2.88169 118.432 0.588574
-1.71308 104.56 6.17856
-0.408879 142.269 2.27188
-2.13631 140.101 -1.57739
-4.13686 131.525 -4.86354
-4.10658 85.8353 3.9364
-7.33054 108.287 -8.35893
-7.35056 108.143 -8.35568
-2.03613 104.366 5.64683
-7.18767 110.208 -8.30362
-1.37432 104.645 7.24761
-2.96307 106.732 2.95651
-1.12051 91.8311 10.4593
-7.18314 98.805 -5.97609
-0.0424338 101.991 11.267
-7.16276 82.4584 -2.74727
-6.30507 119.898 -7.70167
-2.96585 120.224 0.6547
-3.38926 110.545 1.44514
-2.55904 138.214 -1.61241
-2.26452 145.361 -2.19812
-0.597828 138.006 3.36163
-1.09681 105.063 8.46376
-7.52827 109.019 -8.27848
-7.60049 103.308 -7.10917
-2.17669 129.199 1.54
-5.71296 83.6124 1.52112
-0.645228 142.567 2.98366
-7.81741 104.104 -7.54657
-7.64379 97.3398 -5.80279
-0.437182 143.222 3.49184
-3.88597 104.396 2.34892
-2.84814 139.614 -1.6618
-4.07384 111.135 0.694516
-7.93282 95.171 -5.87691
-3.92679 107.918 1.72006
-4.94596 86.5531 3.24442
-2.70359 144.744 -2.19938
-1.12057 141.74 2.31913
-0.417622 104.202 11.2161
-7.60755 100.034 -5.84968
-4.12923 112.592 0.439282
-5.76583 83.8403 1.84399
-2.01551 131.555 2.188
-8.50819 78.2906 -3.86736
-8.51826 78.1418 -3.83142
-1.81233 95.2193 9.69162
-4.86951 130.357 -4.59025
-2.96313 102.897 5.39048
-4.79619 87.3569 4.01137
-7.96135 109.95 -8.16317
-4.16976 102.65 2.72621
-1.43954 141.523 2.24362
-4.5811 87.597 4.68662
-4.25745 113.936 0.495719
-5.68958 126.881 -5.50249
-0.746114 143.461 3.68407
-4.10124 102.163 3.17636
-1.81004 134.946 2.70567
-4.28868 114.219 0.513571
-4.6969 107.524 0.972723
-8.25957 109.277 -8.20293
-1.13354 142.159 3.33993
-5.23288 87.2292 3.57124
-6.52723 123.092 -6.42612
-4.14808 102.118 3.49881
-5.79273 84.0651 2.85907
-3.33953 143.639 -2.31892
-2.79818 151.586 -2.46147
-4.36894 115.58 0.505741
-5.06453 130.821 -4.10333
-3.5059 141.726 -2.27415
-3.58192 139.037 -1.89643
-2.40329 94.0003 9.6096
-8.53278 80.3555 -3.00289
-8.34299 110.004 -8.15182
-8.04867 86.0616 -2.76857
-2.47256 94.9279 9.49518
-1.83894 141.199 2.30427
-6.8273 122.537 -6.55153
-2.5473 93.4003 9.65282
-2.90339 102.731 7.08556
-4.50252 116.809 0.451147
-5.25064 101.476 1.51066
-3.60548 102.32 5.5381
-3.62787 144.679 -2.51664
-5.39595 130.035 -4.11998
-3.90986 89.0988 7.36102
-4.16223 135.546 -2.0632
-3.27411 127.994 1.67271
-3.86169 137.24 -1.49258
-3.23297 150.789 -2.4961
-5.39021 104.692 0.896716
-2.14694 103.602 9.22062
-3.21733 128.736 1.82584
-5.4326 104.632 0.886339
-7.40742 120.709 -6.94152
-5.9467 87.1182 3.0944
-4.7949 116.319 0.42797
-5.15364 131.927 -3.30657
-4.67141 101.709 3.6692
-5.67762 105.278 0.565849
-2.86495 132.027 2.51369
-3.59098 149.308 -2.57143
-4.18391 122.368 1.07756
-3.80968 125.693 1.42566
-6.26454 87.0562 2.67339
-5.63657 100.499 1.69762
-2.73461 141.515 1.1582
-8.91511 102.778 -6.87307
-8.67025 97.1444 -5.17709
-5.83128 103.723 0.723379
-2.16656 141.224 2.75789
-5.79666 129.366 -4.03848
-5.33305 131.548 -3.28399
-9.02372 88.7401 -4.3259
-9.20917 104.849 -7.84051
-5.18555 101.339 2.88348
-7.05931 123.287 -5.92054
-2.22864 103.137 9.95437
-7.332 122.227 -6.37811
-2.51105 141.41 2.03312
-4.16056 123.979 1.24963
-9.59233 78.5731 -3.6593
-9.50696 77.5853 -3.25512
-2.3071 102.441 10.0218
-2.7565 102.691 8.86648
-6.22577 84.9468 3.59762
-9.02992 87.8725 -3.85275
-1.52003 140.094 4.97349
-8.82068 97.3348 -5.06972
-6.31869 87.2195 3.24699
-4.48692 122.336 1.15464
-2.52649 101.264 10.0499
-4.84521 137.497 -2.55825
-4.56235 122.023 1.14773
-6.04834 106.973 0.333364
-4.51814 101.609 5.18773
-9.16323 94.4084 -4.99437
-4.76792 140.804 -2.76015
-8.88367 98.2339 -4.92555
-3.81698 102.011 7.04657
-5.23116 117.282 0.638169
-6.48184 100.824 0.782236
-3.04918 98.0306 9.88576
-7.14955 124.917 -5.28458
-6.77253 126.781 -4.66264
-7.5048 84.2914 1.59524
-9.44927 92.8064 -4.85843
-9.41246 101.923 -6.45655
-8.22808 118.954 -6.70591
-4.42226 124.681 1.71243
-7.53698 84.3843 1.60435
-6.23719 108.422 0.301532
-9.22411 81.7536 -1.95597
-4.57154 147.732 -2.81271
-8.83054 85.0755 -1.51476
-7.32542 124.63 -5.25879
-5.35845 118.591 0.84839
-9.84196 79.6366 -2.92813
-9.19367 98.4934 -4.86939
-9.69621 91.3119 -4.7497
-4.85446 122.531 1.43007
-7.10587 87.2384 2.52675
-6.65227 87.2858 3.70839
-4.0462 91.7732 9.3529
-6.69338 87.6945 3.65074
-6.62613 106.484 0.257225
-4.96837 144.943 -2.90343
-5.03683 144.436 -2.90981
-3.58103 98.1426 9.55079
-6.7604 98.3832 1.83232
-7.05362 101.321 0.59858
-3.91983 101.72 8.37341
-4.64942 101.376 6.63102
-3.2825 134.418 3.80106
-5.747 139.848 -3.27684
-4.85541 150.008 -2.97795
-5.85509 88.5299 6.20088
-2.33267 141.629 5.02516
-6.85296 107.954 0.206298
-6.3216 99.4884 3.14953
-10.0361 91.8052 -4.64461
-6.5409 87.9363 4.80645
-9.39334 115.304 -7.36435
-5.49998 143.526 -3.00217
-7.1094 105.53 0.242139
-9.81732 112.057 -7.74036
-10.149 90.8987 -4.52856
-8.81315 118.594 -6.38651
-7.57912 125.335 -4.58724
-8.47688 120.403 -5.88182
-7.19796 104.695 0.317491
-5.57554 144.148 -3.0476
-4.9828 124.417 2.23082
-7.23757 106.407 0.140604
-4.54176 95.3843 8.95434
-8.04865 86.6711 1.88653
-5.74406 134.336 -1.41326
-3.8687 100.514 9.6881
-6.09964 100.348 4.20034
-10.7019 77.8845 -2.9846
-7.48545 98.1709 1.20641
-5.44868 149.442 -3.41582
-6.365 138.959 -3.64492
-6.96496 110.434 0.391874
-6.24785 100.144 4.16691
-9.98071 81.8685 -1.66728
-3.24614 136.433 4.79838
-7.23762 107.894 0.307275
-9.73276 85.7076 -1.66693
-6.39847 115.074 1.19415
-7.56472 87.507 3.57774
-4.28782 142.482 1.37909
-9.16981 118.071 -6.13961
-7.02854 128.98 -2.82771
-7.67095 87.7602 3.39686
-7.83082 87.1551 3.19664
-7.32231 87.8322 4.34809
-8.12042 88.4591 2.35238
-8.12044 87.4978 2.63856
-6.56879 131.973 -1.88118
-8.05366 95.7249 1.30152
-8.12503 87.4855 2.69358
-8.08371 99.4414 0.527607
-6.27283 146.567 -3.89077
-8.52332 87.5084 1.73171
-10.5831 87.4426 -3.32187
-5.15309 94.6799 8.89241
-3.1617 141.49 4.974
-6.57035 141.018 -3.3739
-6.28465 90.156 7.03054
-5.99861 100.338 5.83852
-11.0271 78.2426 -2.48985
-7.32637 128.544 -2.75501
-6.88703 139.481 -3.73246
-6.85333 99.234 4.01463
-9.85982 115.921 -6.57373
-10.3365 113.137 -7.19762
-10.5346 86.7056 -2.56746
-4.89976 129.088 3.44021
-7.863 105.496 0.563294
-6.5781 144.936 -3.7074
-6.90756 135.807 -2.74698
-7.53706 107.724 1.04343
-11.1413 102.922 -7.00533
-10.7941 80.6574 -1.80714
-10.8817 80.3007 -1.87761
-10.8608 92.8073 -4.13656
-5.38849 97.9474 8.5749
-6.88608 144.682 -3.90252
-10.5722 86.2582 -1.99994
-3.2806 140.73 5.86638
-7.99751 105.601 0.812097
-8.17656 86.2953 4.04952
-6.70437 90.395 6.97271
-3.80626 140.905 4.67142
-6.30987 120.453 2.39388
-10.8088 94.0871 -3.78646
-5.65694 125.71 3.28721
-7.48886 139.199 -3.8251
-7.49264 111.542 1.54941
-9.03912 85.876 2.63594
-6.99075 132.977 -1.14953
-6.98368 149.158 -4.2022
-5.89128 95.7625 8.69391
-5.89679 98.1208 8.45331
-8.90651 86.8337 3.10941
-9.08264 88.872 2.33315
-11.7741 106.964 -7.74757
-5.86591 153.408 -1.78982
-12.2948 77.421 -3.32093
-8.7956 86.5558 3.69221
-9.48243 120.675 -4.4389
-8.82712 94.3644 2.1954
-7.33995 132.204 -1.25691
-9.92031 118.176 -5.01736
-7.79681 135.168 -2.9384
-11.7953 79.9578 -2.32764
-12.4809 77.2535 -3.50831
-6.08116 124.678 3.45251
-7.35178 132.779 -1.23512
-11.8614 108.162 -7.79055
-8.47032 87.1792 4.65553
-8.90098 87.9982 3.60523
-7.20041 116.378 2.47501
-11.6359 87.4575 -3.08226
-7.83685 140.366 -3.6117
-7.90339 141.925 -4.00022
-9.33954 95.3877 1.3154
-10.1722 117.585 -4.92892
-8.54797 137.502 -4.64051
-8.16077 144.44 -4.89364
-6.48187 122.975 3.40403
-8.12087 145.977 -4.91178
-12.1535 102.232 -6.61775
-11.8542 90.0726 -3.42253
-6.97957 120.029 3.09542
-6.37195 153.323 -1.65667
-8.88607 135.472 -4.4902
-10.0038 87.8664 1.8143
-6.25074 125.711 4.01326
-9.73721 94.2951 1.31001
-8.96101 94.2428 3.26529
-8.05799 110.444 2.45693
-9.45087 87.7303 3.35772
-8.02489 148.546 -4.60003
-9.57676 88.0664 3.03215
-9.9508 89.2506 1.94568
-9.90849 93.155 1.44692
-9.67534 97.3463 1.3211
-10.1991 87.488 1.9512
-6.03855 141.728 2.06391
-8.18763 90.7564 6.44141
-8.35085 130.145 -1.42652
-12.052 92.8366 -3.56196
-8.05125 149.715 -4.38432
-7.22044 98.0466 7.58531
-9.24047 103.365 1.56018
-9.51672 123.725 -2.97689
-10.7743 86.6661 0.934961
-8.28631 148.72 -4.63129
-8.73159 139.48 -3.85398
-7.32232 94.6712 8.20587
-8.00715 113.712 2.8909
-8.83135 145.506 -5.10487
-10.046 88.6606 2.80829
-12.3877 109.368 -6.93531
-9.77532 88.1714 3.61012
-6.99277 122.25 4.22537
-11.9996 94.4214 -2.9718
-8.72683 133.743 -2.17083
-12.4203 89.0764 -2.81241
-7.78955 97.5313 7.13723
-12.228 86.1761 -1.7106
-8.16688 113.75 3.18721
-9.86033 100.479 1.50265
-7.99128 115.361 3.3893
-8.45918 110.124 3.22708
-7.78904 117.042 3.63537
-9.66783 92.0212 3.71707
-4.81809 136.611 7.36452
-10.6051 89.3295 1.9355
-9.84923 135.473 -4.93675
-12.6029 83.39 -1.87514
-13.0598 81.5649 -2.65944
-13.3353 78.2227 -2.70032
-7.93108 97.2437 7.23297
-4.83227 136.83 7.45829
-11.3763 115.548 -4.79835
-10.3644 90.1416 2.64939
-10.2706 97.4816 1.52295
-12.8979 99.7925 -5.41136
-9.85579 88.9538 4.30855
-6.93481 124.197 4.90442
-12.3157 96.3833 -3.18078
-9.36443 104.624 2.61783
-9.33872 146.485 -5.18113
-8.88241 106.619 3.58978
-7.22907 122.535 4.88243
-11.1126 89.657 1.45774
-9.77908 142.398 -5.22547
-6.8511 141.775 2.21127
-6.09459 129.832 6.46231
-9.84785 125.693 -2.08795
-12.5745 95.1041 -3.00777
-5.15317 136.752 7.60333
-8.01365 117.38 4.20744
-10.3522 136.506 -5.24891
-9.96686 102.143 2.23556
-6.41344 139.43 4.0359
-10.3152 99.9401 1.83485
-10.2747 91.3257 3.5716
-10.2282 134.218 -4.43675
-13.5568 105.646 -7.30364
-5.84548 139.178 5.56508
-9.70147 145.83 -5.22544
-10.4 91.5635 3.43994
-8.76926 150.564 -3.68137
-9.12757 149.708 -4.32274
-8.9642 150.328 -3.93375
-11.03 86.176 3.10773
-11.5073 87.8668 1.63553
-7.84449 119.473 4.79721
-13.1701 86.7586 -2.24273
-10.5215 99.3382 1.98474
-7.25016 154.143 -0.224011
-10.9257 95.1745 1.8582
-10.7894 93.6608 2.54797
-13.7565 80.8446 -2.41158
-7.61071 121.225 5.2436
-8.95798 109.231 4.16656
-10.7416 88.5283 3.70628
-11.247 86.1285 2.9089
-13.5888 100.271 -5.5684
-13.046 84.9145 -1.28099
-6.98966 140.555 3.31407
-10.9301 92.7931 2.58529
-13.8963 102.34 -6.58084
-8.54305 115.198 4.34147
-10.8238 93.7869 2.74097
-6.10074 139.128 6.00793
-9.74618 104.495 3.53142
-10.6703 123.607 -2.3605
-10.4228 125.282 -2.02177
-8.26362 117.678 4.81108
-6.26729 132.113 7.09167
-13.9154 79.4682 -1.93158
-13.9581 101.43 -6.14207
-10.8365 98.567 2.24947
-12.0878 85.051 1.71238
-14.0135 106.317 -7.08331
-13.3042 84.658 -1.1195
-10.8756 91.4921 3.65259
-11.1638 92.5209 2.79798
-11.0891 91.508 3.20325
-8.99942 112.617 4.41773
-12.5333 84.6467 0.965112
-9.43282 106.132 4.69026
-10.1981 102.973 3.3983
-11.5185 89.6727 2.6518
-13.3115 97.1521 -3.23569
-11.2208 95.9831 2.21599
-6.43832 131.983 7.30472
-10.9922 90.1647 3.94588
-12.3235 114.844 -3.93812
-11.211 122.225 -2.55158
-9.85541 104.722 4.22089
-10.586 126.113 -1.65781
-11.2191 92.7106 3.15503
-11.1114 137.407 -5.06122
-12.9145 111.739 -4.67347
-13.7684 99.0126 -4.30981
-7.82686 142.281 2.29938
-8.71436 116.347 5.12575
-13.5045 92.6958 -2.30278
-7.2057 137.898 4.91132
-11.4479 93.9982 2.69675
-8.46858 118.258 5.54236
-11.0376 124.482 -2.00484
-11.276 90.5373 3.85336
-11.1047 93.3564 3.76923
-8.19393 120.094 6.01644
-7.80509 141.432 3.00198
-10.9578 142.574 -5.06692
-11.2496 140.314 -5.23095
-12.0949 86.8788 2.84698
-10.3772 92.3856 6.08523
-13.0653 112.651 -4.42969
-11.0575 142.62 -5.05271
-8.62919 117.82 5.72637
-11.0144 90.0969 5.07482
-6.95482 129.972 7.65743
-9.17851 114.048 5.15833
-13.8972 96.4467 -3.23804
-10.3597 92.9643 6.31559
-11.3926 90.7252 4.19142
-13.4672 110.967 -4.72584
-11.1633 90.5404 4.90585
-9.57826 109.748 5.23411
-13.0933 113.608 -4.24809
-9.09589 115.237 5.41562
-11.968 133.022 -5.10341
-12.1702 119.166 -2.95816
-11.555 132.329 -3.91989
-11.2309 142.319 -4.97071
-11.3565 93.9085 3.95722
-13.521 84.5065 0.395411
-9.9146 107.119 5.10857
-12.1785 133.536 -5.48897
-12.0342 120.797 -2.66317
-12.6428 86.0338 2.43053
-6.94563 132.016 8.01444
-13.5382 84.0871 0.706802
-13.5506 84.043 0.739232
-12.3617 133.856 -5.7506
-14.948 101.999 -6.01265
-12.0322 94.1612 2.74456
-10.1085 105.878 5.34746
-11.2962 131.315 -2.42127
-11.3406 125.844 -1.47748
-11.5806 98.5228 3.19823
-11.4153 91.8644 4.94475
-11.3375 88.9204 5.71617
-11.6607 92.9199 4.18342
-7.70483 137.31 5.64526
-14.2997 89.8291 -1.69164
-14.374 98.6575 -3.53575
-11.7513 92.6726 4.15177
-10.3178 104.845 5.43905
-10.6159 149.922 -3.7943
-11.0617 101.811 4.24067
-15.0039 100.915 -5.33067
-14.4703 108.645 -5.45843
-15.0324 106.175 -6.37042
-13.0356 116.81 -3.37132
-11.4849 92.5017 5.14084
-12.2552 131.998 -4.26636
-9.31827 115.847 6.12544
-8.76594 142.946 2.36231
-15.1957 102.355 -5.93816
-9.7214 111.671 5.98728
-12.3639 121.723 -2.41612
-12.3119 94.6344 2.97801
-14.8261 107.531 -5.73559
-12.4332 121.756 -2.3909
-15.2429 101.615 -5.46202
-11.6744 146.257 -4.92666
-12.1371 93.1981 4.02542
-11.566 92.2279 5.66115
-12.4671 139.641 -5.58306
-13.106 118.066 -3.06755
-12.5655 121.654 -2.38748
-12.0101 143.993 -5.19732
-8.62257 141.619 3.70109
-14.7056 88.5529 -1.36141
-12.427 89.5775 4.12654
-9.01619 118.485 7.14333
-14.5717 85.053 -0.305883
-12.1398 124.418 -1.70583
-15.478 81.2235 -1.82156
-12.4539 87.8905 4.47025
-8.79534 121.497 7.2697
-15.4638 102.304 -5.60759
-11.7295 146.845 -4.73591
-12.0544 87.4587 5.77051
-7.46931 132.131 8.76214
-14.4631 111.976 -4.80961
-8.92301 144.867 2.78074
-14.7435 85.4795 -0.438459
-7.73725 129.853 8.62342
-11.8958 146.301 -4.84586
-14.363 85.6982 0.756287
-11.9735 88.6617 6.15123
-7.36702 133.819 9.06975
-15.7622 81.7445 -1.84544
-15.3064 83.6392 -1.06597
-7.60918 132.318 8.99079
-14.8251 111.389 -5.01946
-12.3661 130.578 -2.3664
-12.7209 94.6521 3.6046
-15.404 94.629 -3.07347
-15.887 82.0183 -1.86965
-15.5336 99.6175 -4.30668
-12.0629 146.799 -4.55349
-13.1405 130.979 -4.22942
-12.3218 96.6492 4.33278
-7.79977 131.346 9.06905
-7.91004 130.454 9.01448
-9.26766 146.446 2.79253
-12.7027 141.842 -4.86313
-9.95637 114.01 7.31897
-11.7929 148.693 -3.80084
-9.33644 119.733 7.84896
-13.5894 120.267 -2.83081
-9.19371 121.821 7.87079
-7.74377 136.077 8.78028
-10.0788 113.497 7.29829
-9.76309 152.549 0.757987
-8.57844 137.02 6.67247
-12.2642 91.6355 6.11924
-16.3783 80.0244 -1.88311
-15.8798 106.874 -5.63121
-14.7428 114.914 -4.21389
-8.25793 129.697 9.17121
-7.97949 134.246 9.15931
-15.918 96.3186 -3.38858
-15.8003 93.113 -2.32303
-12.9617 86.7035 5.98216
-9.48408 150.937 2.52035
-9.75664 146.357 2.74257
-9.99375 152.419 1.06268
-13.8434 120.847 -2.52282
-12.2948 99.8098 5.47844
-13.1743 129.831 -2.35525
-10.1431 115.305 8.02286
-8.24914 134.887 9.10291
-12.7385 89.2604 6.59148
-14.142 120.423 -2.68032
-10.8746 110.124 7.42576
-8.32935 131.516 9.73172
-13.2894 128.352 -2.031
-10.1031 116.131 8.2336
-16.1977 97.1652 -3.35453
-13.8842 121.699 -2.20271
-13.2962 94.5118 4.42763
-13.3691 129.352 -2.30648
-14.1069 138.093 -5.68636
-16.7748 105.193 -6.07701
-12.4915 99.4169 5.74024
-12.6347 98.1381 5.67369
-13.4787 129.44 -2.34763
-11.6853 104.022 7.06156
-15.789 83.9332 0.667208
-16.4201 93.7392 -2.75531
-16.3233 93.0757 -2.36382
-9.95054 150.528 2.73355
-16.4704 108.343 -5.50008
-14.5272 132.146 -5.14279
-13.6945 86.3269 5.6982
-14.12 86.0383 4.71261
-16.9096 80.6171 -1.2063
-16.527 93.6397 -2.70545
-16.2211 111.234 -5.14156
-17.4845 79.9566 -2.338
-10.0139 138.586 5.176
-14.1304 129.717 -3.25797
-11.2618 152.224 -0.32062
-12.1805 101.53 7.03565
-12.8932 97.108 6.13647
-13.6788 86.5448 6.26444
-17.2121 105.441 -6.04185
-8.84306 132.941 9.69355
-15.056 118.888 -3.12535
-14.8438 132.796 -5.16063
-16.8014 96.9628 -3.21523
-12.0352 103.437 7.47234
-10.2787 149.198 3.21967
-10.7371 141.136 3.68483
-13.5668 95.3385 5.3603
-14.9259 120.237 -2.7222
-12.0125 151.395 -1.33808
-15.0754 131.986 -5.09253
-15.0918 84.9693 3.81253
-14.7686 137.317 -5.24929
-17.025 92.7267 -2.34351
-17.2925 94.6113 -3.23825
-15.5995 84.5768 2.88943
-16.2336 115.51 -4.52764
-16.941 83.9436 -0.284537
-14.9592 129.331 -3.90964
-16.7279 113.414 -5.28768
-17.6768 81.601 -1.59729
-14.6495 135.338 -4.24971
-11.285 152.069 0.970484
-17.3126 108.312 -5.71003
-13.4643 96.1114 6.23158
-15.3234 129.83 -4.79796
-17.6892 105.494 -6.06055
-14.1746 92.2105 5.26376
-10.7406 150.62 2.75701
-13.8937 95.0431 5.50628
-17.7483 106.021 -6.10219
-15.7011 118.37 -3.22627
-12.6765 100.616 7.71918
-17.3572 97.2289 -3.12784
-12.5301 150.972 -1.20232
-13.6648 91.3945 7.35171
-17.7047 101.949 -4.67285
-17.1148 113.983 -5.26834
-15.1463 136.661 -4.6271
-17.9158 94.2205 -3.17544
-17.7387 99.5787 -3.70234
-15.8548 84.9621 3.83464
-17.827 103.422 -4.5763
-17.9042 93.1919 -2.788
-14.6657 86.3905 6.74857
-11.2949 148.3 3.44818
-18.1841 108.039 -5.99683
-18.2868 107.631 -6.11892
-11.5853 138.556 4.73073
-12.5369 151.543 -0.106472
-10.4561 136.215 8.11311
-14.3513 92.6646 6.70766
-15.794 129.016 -3.7795
-12.8813 150.969 -0.658956
-11.4644 138.094 5.36221
-14.1888 145.985 -2.91111
-16.6602 117.09 -3.53119
-11.2386 136.912 6.25645
-14.3657 90.2154 7.34448
-15.3307 85.5753 5.84024
-18.0876 98.1682 -3.20766
-14.6192 94.2279 6.21206
-18.2665 91.0118 -2.17098
-15.7379 133.908 -3.96907
-11.7724 150.534 2.93896
-11.5692 117.911 9.73633
-13.7503 97.2699 8.32617
-17.9205 114.004 -5.13254
-13.6718 97.9093 8.51675
-11.4504 119.418 10.0179
-18.6981 94.4165 -3.20878
-13.6107 98.7248 8.69396
-15.2675 86.5481 7.03255
-15.9145 137.57 -4.01432
-14.947 94.3206 6.75979
-12.3313 151.337 2.48132
-12.6097 141.039 3.75048
-10.7827 134.779 9.53979
-18.2734 85.9446 0.144323
-12.139 150.097 3.26246
-16.9076 85.0947 3.78805
-16.9378 120.072 -2.84435
-12.4589 115.136 9.33069
-18.9192 89.894 -1.9076
-12.6817 142.706 3.73722
-18.7701 86.8104 -0.798036
-19.0946 90.4461 -2.15869
-15.1314 87.9108 8.28048
-19.0232 104.922 -4.61584
-19.2854 93.1638 -2.9551
-19.4277 83.1664 -1.39848
-12.6457 145.861 3.61018
-15.6673 142.713 -3.27773
-19.1615 99.5205 -3.78859
-12.5551 150.833 2.96217
-17.7368 85.0245 2.75225
-12.0191 119.548 10.5056
-16.7615 127.596 -2.82041
-13.7892 106.91 8.53019
-19.4431 102.531 -4.6937
-19.5245 108.609 -6.02238
-18.9538 111.838 -5.1727
-16.8966 85.0789 5.14355
-14.0865 105.437 8.3063
-14.9453 91.2689 8.93738
-12.9206 144.651 3.89615
-15.2224 145.234 -1.94435
-16.8803 132.277 -3.47724
-19.9232 83.0753 -1.71869
-11.7562 123.307 11.0604
-19.5436 106.241 -5.05964
-16.5506 135.973 -3.19769
-13.1784 114.484 9.4271
-14.6533 147.503 -0.41054
-13.9912 107.54 8.83127
-19.5957 98.8695 -3.42693
-15.2952 95.9282 7.87461
-14.2618 106.303 8.58546
-16.8302 139.218 -4.00113
-17.7845 121.026 -2.68225
-11.9711 123.424 11.3897
-12.8918 135.042 6.89836
-18.0045 119.431 -2.8177
-17.5566 130.588 -3.73251
-17.4184 137.881 -4.70597
-18.8152 117.125 -4.24008
-20.0626 88.8549 -1.96858
-18.3327 118.473 -3.25931
-18.0479 122.616 -3.33564
-17.0397 134.74 -3.04499
-20.3178 100.982 -4.76223
-13.6988 112.484 9.60874
-14.8242 97.0017 9.81864
-20.2316 81.1316 -0.528643
-18.1737 124.922 -3.69491
-18.3238 84.8812 3.56401
-15.1485 147.081 -0.197458
-14.9403 97.7228 9.72567
-18.0813 129.162 -3.96396
-13.4157 135.271 6.50823
-13.6188 143.246 4.60836
-14.9829 99.2526 9.56031
-17.3168 136.609 -3.27238
-20.3382 98.8969 -3.62327
-16.0034 143.689 -1.31034
-16.0923 88.4929 8.96142
-14.9738 105.197 8.61126
-18.3287 129.478 -4.24132
-13.5304 147.668 4.30957
-20.7262 101.328 -4.81727
-18.049 131.399 -3.72491
-15.2259 148.227 0.191733
-13.1952 134.67 7.87916
-14.5501 108.753 9.44904
-13.8495 143.483 4.64947
-13.5901 148.974 4.26853
-12.9577 120.187 11.3401
-12.9816 120.101 11.3407
-18.5685 129.422 -4.27513
-20.2082 84.6806 0.153645
-14.1163 112.899 10.0364
-15.2348 99.6126 9.78216
-20.6877 88.7505 -1.71765
-13.9399 143.642 4.68866
-12.6047 134.212 9.91808
-21.0744 100.44 -4.66305
-12.4408 132.49 10.8112
-15.3903 96.9866 10.3034
-20.9894 94.1685 -3.06006
-12.8438 134.71 9.58393
-18.9869 127.247 -4.23686
-19.8449 84.7926 1.69
-20.4615 84.2067 0.345756
-15.9286 92.907 10.0268
-21.1199 103.302 -4.8873
-14.3237 112.988 10.2292
-19.0676 127.697 -4.34868
-21.2919 99.5783 -4.34632
-18.0047 138.511 -3.47323
-12.8011 128.217 11.4857
-15.1844 150.261 1.36447
-12.8044 128.425 11.4542
-13.0751 134.56 9.61488
-20.6065 84.7068 0.306833
-21.3185 103.104 -4.93324
-13.4331 134.921 8.69213
-18.7265 131.568 -3.84611
-21.0354 96.779 -2.95681
-21.129 81.5772 -0.224662
-14.7129 111.278 10.155
-21.145 107.089 -5.06507
-15.1355 108.685 9.68286
-14.4844 139.733 5.41253
-21.1412 97.398 -3.08701
-14.5092 139.814 5.4042
-21.3128 94.8079 -3.00834
-13.6998 134.239 8.50226
-17.3662 141.568 -1.85119
-14.1207 134.42 7.71403
-19.4839 125.892 -4.00143
-16.2381 95.4999 9.92261
-14.8605 111.493 10.3241
-13.1733 128.624 11.2798
-18.2179 85.6665 6.8727
-14.3943 147.396 4.70382
-18.026 139.889 -2.90749
-21.4367 81.749 -0.181445
-16.3812 146.292 0.203231
-21.5235 107.365 -5.18902
-19.4907 123.674 -3.16954
-19.075 131.555 -3.59483
-21.8287 100.119 -4.48801
-21.7072 104.427 -4.94788
-16.2253 147.279 0.585803
-15.8502 106.514 9.32212
-19.9766 118.858 -3.26041
-18.3276 85.9117 7.12843
-21.5187 88.7591 -1.36232
-19.9617 84.0904 3.46479
-19.716 84.345 4.26505
-21.9408 98.9912 -4.02271
-14.7751 146.788 4.83317
-14.8393 144.998 5.07077
-15.6534 108.769 9.94077
-21.7198 89.0245 -1.33548
-16.2248 148.773 1.04265
-19.659 129.084 -3.71321
-20.1683 121.973 -3.43036
-19.8059 127.823 -3.61286
-18.2048 87.3275 8.08639
-14.0274 121.989 12.0707
-19.1683 136.481 -3.48844
-21.8785 87.313 -0.875724
-14.0148 122.524 12.1162
-20.9951 117.416 -4.14992
-22.3609 103.845 -4.848
-15.4741 112.444 10.7341
-16.2958 149.553 1.71631
-19.1206 139.18 -3.34917
-22.4219 94.5714 -3.0485
-22.3595 105.018 -4.78029
-20.2987 125.264 -3.38116
-20.0688 84.3232 4.98647
-17.1222 92.0083 10.925
-17.224 91.5449 10.7611
-19.751 136.808 -4.12091
-22.2929 89.6605 -1.31155
-18.0464 144.418 -1.00285
-19.9185 135.796 -4.01814
-15.6142 149.16 4.21272
-17.4567 146.232 0.213444
-15.5022 114.825 11.1238
-17.2324 92.9461 10.994
-20.4811 124.156 -2.94329
-19.4734 139.897 -3.39177
-16.6395 149.476 1.95958
-15.5933 114.701 11.1952
-21.0095 119.775 -3.23671
-19.6955 135.755 -2.80827
-22.3507 115.103 -5.45951
-18.129 90.0615 9.86898
-22.3871 115.182 -5.47192
-15.4187 118.095 11.3928
-15.3958 133.107 8.61534
-23.3663 81.5237 -1.42198
-16.9333 102.782 10.6579
-21.6028 83.9128 2.65426
-14.9792 130.591 10.3547
-22.4942 113.261 -5.04574
-22.5192 113.003 -4.98563
-21.7248 118.669 -4.06689
-20.8539 127.676 -3.60549
-21.1514 122.218 -3.26972
-14.7257 124.957 12.3074
-18.0414 92.4442 10.2359
-20.7303 128.799 -3.3068
-22.2137 117.326 -4.81933
-22.5985 84.6347 0.469354
-16.5544 109.995 10.7772
-21.9325 119.044 -4.07021
-22.1772 118.271 -4.52855
-19.2796 88.0517 8.52317
-18.5227 91.7328 9.86296
-17.2842 149.252 2.10083
-21.5264 83.5983 4.00307
-23.0252 87.5498 -0.410658
-20.773 130.159 -2.81943
-16.351 143.699 5.65542
-16.4056 137.806 6.7007
-18.2982 93.4866 10.5767
-16.248 145.154 6.01798
-16.1575 132.451 8.70651
-23.1511 111.314 -4.62322
-16.6331 133.241 7.471
-15.8257 132.415 9.65739
-21.0665 129.822 -2.88904
-18.5128 93.4542 10.4107
-17.7323 97.2227 11.6442
-23.7271 104.088 -4.59315
-20.6865 134.795 -2.82317
-17.0782 135.685 6.03464
-22.5027 119.297 -4.36553
-21.8576 122.655 -3.36578
-15.7527 130.254 10.4132
-17.868 97.9606 11.3438
-21.52 136.017 -4.84629
-16.7692 141.087 6.11546
-24.0182 98.274 -3.81646
-20.7308 135.655 -2.62741
-18.2802 94.7577 11.2479
-16.7883 142.099 6.11856
-21.7253 125.107 -2.93403
-21.6876 126.468 -3.09229
-21.0228 135.058 -2.91849
-16.5296 115.774 11.9987
-20.9302 134.055 -2.43722
-24.1473 94.8315 -3.00574
-21.1554 130.566 -2.27866
-17.6282 107.696 10.8621
-16.547 116.772 11.9612
-24.3309 98.7897 -3.98078
-16.3726 132.524 9.47727
-21.7296 84.1606 5.3319
-21.3636 137.32 -3.80267
-23.7065 111.165 -4.67615
-21.4989 135.538 -3.72156
-23.7007 110.057 -4.36802
-23.9952 82.8582 0.265063
-18.2272 98.9699 11.6005
-24.3567 99.5282 -3.75606
-21.0669 132.273 -1.73527
-23.7803 83.3095 0.847766
-23.7846 114.815 -5.13973
-22.0004 125.657 -2.71855
-15.709 127.889 12.6321
-24.2347 82.7884 0.0551379
-24.5638 95.2641 -3.11806
-17.7727 133.443 6.74362
-24.1443 88.7426 -0.649096
-23.6817 117.043 -4.85624
-18.1681 106.148 10.9973
-22.3304 135.226 -4.83463
-15.9354 125.509 12.9914
-21.3462 134.084 -2.01914
-21.1758 130.802 -0.96114
-18.3404 101.941 11.6221
-21.3368 135.121 -2.1304
-22.7799 132.712 -5.26404
-19.7694 93.947 9.62093
-18.4166 103.406 11.4727
-21.4883 135.314 -2.22152
-24.7038 82.1926 -0.107822
-22.4181 136.953 -4.78975
-24.438 108.346 -4.33603
-18.3936 105.619 11.2492
-24.6478 100.47 -3.3499
-21.6972 131.769 -1.91953
-17.0937 117.624 12.3113
-17.7765 111.396 11.8111
-16.1634 126.036 13.0688
-22.8266 133.302 -4.86129
-21.632 133.657 -1.88901
-18.5761 101.831 11.7815
-20.5269 142.667 -0.804208
-22.3324 138.148 -4.43532
-24.3377 85.391 0.629248
-21.5664 132.048 -1.31769
-17.5274 131.82 8.84182
-21.9831 131.856 -2.22216
-24.1809 84.8009 1.2576
-23.8937 119.697 -4.60962
-21.8372 133.709 -2.06517
-23.7999 83.2216 2.64923
-24.817 82.4031 0.278847
-22.587 128.039 -2.8028
-23.2957 123.67 -3.68582
-20.6386 91.6984 9.10398
-17.1283 120.002 12.55
-18.7693 102.363 11.9134
-24.8515 108.047 -4.31586
-24.8132 111.191 -4.78163
-22.0144 134.716 -2.25093
-17.4838 115.364 12.7354
-24.8451 110.83 -4.73741
-17.233 131.081 10.3961
-21.1801 140.845 -1.27563
-22.7115 131.94 -3.31185
-17.2184 129.878 10.7952
-22.7639 134.875 -3.96232
-20.0818 95.2549 10.2533
-18.5437 107.781 11.764
-17.3189 130.36 10.6733
-22.8053 84.5386 5.73787
-20.9409 92.8754 8.84199
-18.0872 140.464 6.9574
-20.7597 144.562 -0.343642
-22.9209 126.62 -2.20641
-21.7787 87.4728 8.09684
-22.3112 132.084 -1.67899
-17.9897 145.347 6.60986
-18.5595 136.138 6.95372
-22.2008 86.4171 7.36473
-23.1655 136.091 -4.43487
-19.033 103.652 12.1098
-20.8856 94.9594 9.1573
-21.807 87.8643 8.27777
-17.0664 124.114 13.2631
-23.7986 130.426 -4.65185
-17.1901 123.048 13.2566
-22.6616 128.751 -1.40032
-19.3173 101.247 12.2794
-25.2342 87.4822 0.164714
-24.4411 121.601 -4.27505
-21.9488 139.915 -1.53151
-25.4111 83.1655 0.624414
-23.547 129.848 -3.55484
-18.5339 146.28 5.83427
-25.0141 116.344 -4.63127
-23.3985 130.81 -3.33785
-22.5016 130.616 -1.03755
-21.8503 90.7192 8.18064
-25.5787 100.636 -2.99357
-20.2724 96.8622 10.9538
-23.6923 137.17 -5.21252
-25.7774 83.9689 -0.250562
-21.9976 140.09 -1.46038
-18.7952 138.66 6.85955
-17.7999 120.554 12.7928
-21.9541 90.2039 8.26207
-22.3539 132.327 -0.719118
-17.4378 122.899 13.3366
-21.8596 92.4605 8.19671
-18.5515 144.255 6.62838
-22.5983 131.484 -1.03173
-22.772 131.547 -1.40374
-24.3826 131.324 -5.33813
-17.6415 128.597 12.0099
-21.2201 95.7609 9.3406
-22.8107 129.717 -0.992683
-24.8038 82.9181 2.92395
-18.8722 146.333 5.67654
-19.0781 136.802 6.98649
-17.6501 128.415 12.1586
-21.9972 141.164 -1.06043
-19.6394 134.02 6.26742
-22.7892 86.6056 7.43799
-26.0366 83.4067 -0.00520375
-23.6871 127.179 -2.42439
-21.7054 95.2883 8.58381
-20.7475 97.2644 10.6166
-26.207 93.2736 -2.14185
-26.4707 94.3729 -2.89343
-23.6104 128.462 -2.15561
-25.5554 115.494 -4.42824
-23.9264 127.073 -2.55775
-26.5751 95.7669 -3.20955
-21.7976 143.817 -0.37808
-24.371 122.839 -2.79443
-20.0946 147.387 3.2952
-26.0925 88.8769 -0.541281
-26.1268 90.0814 -0.850424
-25.742 113.74 -4.36625
-26.529 83.8744 -0.591864
-20.0069 100.406 12.5604
-23.9281 127.233 -2.30546
-25.7266 84.2751 1.38076
-18.1288 128.612 11.9244
-18.0775 122.036 13.3443
-24.192 137.388 -4.80165
-26.6314 96.778 -3.12422
-25.8263 84.0957 1.33498
-23.667 138.182 -3.46353
-25.5739 84.2159 2.16658
-23.3098 129.332 -0.686193
-20.0049 102.397 12.704
-26.3454 89.754 -0.685231
-18.655 118.523 13.1048
-23.9276 125.673 -1.39117
-26.1831 86.9217 0.410396
-21.8688 144.535 0.36203
-19.5242 141.912 6.81574
-24.6763 126.536 -3.0782
-24.294 126.263 -2.04427
-20.5955 146.88 3.35983
-24.113 128.57 -1.82866
-23.0334 89.5599 8.28006
-19.552 127.804 9.70725
-23.5222 128.017 -0.221034
-27.1327 83.0307 -0.65784
-24.2053 127.358 -1.77245
-24.449 126.967 -2.29943
-20.1538 146.596 4.71357
-26.2857 84.5706 1.24775
-20.2042 135.646 6.75339
-24.3234 127.736 -1.88996
-24.1457 85.5399 6.57553
-24.8838 135.673 -4.74082
-24.8212 136.366 -4.65474
-25.1867 132.603 -4.79091
-19.3052 127.494 10.8937
-19.1297 117.543 13.2754
-26.3436 110.938 -3.43835
-27.1756 97.2649 -2.90357
-21.4091 99.8266 11.0817
-23.9916 86.4791 7.1829
-24.495 126.113 -1.58545
-23.2979 93.1977 7.66551
-25.0633 122.761 -2.32949
-20.448 137.645 6.63954
-26.9345 88.4354 -0.133988
-19.2466 118.647 13.3555
-26.4575 115.309 -3.91409
-20.7292 102.673 12.7739
-24.6253 126.316 -1.39699
-26.5469 113.594 -3.68126
-20.2652 140.791 6.82448
-25.1938 126.635 -2.67037
-24.7972 127.38 -1.80935
-24.5236 127.162 -1.0434
-23.8665 126.684 0.686781
-25.9986 120.989 -3.52831
-26.9846 85.239 0.840131
-27.2061 102.422 -2.96845
-24.1561 129.26 -0.451286
-27.6588 95.8809 -2.84417
-24.8944 127.934 -2.00926
-20.5107 133.078 7.9777
-26.2909 118.406 -3.61779
-24.5552 128.701 -1.16007
-26.3537 83.252 3.00871
-24.9973 137.508 -3.8874
-25.2373 127.296 -2.46683
-21.2483 134.649 6.09989
-20.8861 136.259 6.86333
-24.8341 127.332 -1.25668
-24.3797 127.598 -0.150698
-27.2767 105.517 -3.14929
-25.462 129.74 -3.21617
-21.725 101.18 11.6257
-25.7085 129.034 -3.5643
-25.4988 133.095 -3.79338
-20.6216 108.817 13.017
-20.3098 112.067 13.2193
-20.6711 108.84 13.0247
-25.628 125.538 -2.49987
-24.0366 93.092 7.62719
-25.3161 127.517 -2.03876
-19.59 121.022 13.6175
-25.8178 129.152 -3.44665
-19.3284 125.665 13.5012
-20.9801 142.324 6.30422
-24.87 138.087 -2.50897
-24.3682 126.006 1.04883
-26.8794 116.571 -3.41915
-21.7236 133.394 6.25671
-23.6366 96.4197 8.50831
-21.0597 142.3 6.26716
-20.7982 109.676 13.1157
-24.227 125.83 1.52661
-21.7594 145.562 3.96308
-23.4103 97.3472 9.03948
-21.7866 102.55 12.297
-22.6041 144.827 2.38694
-25.2211 125.132 -0.382132
-21.4178 144.457 5.43765
-19.6004 123.228 14.0097
-26.7701 83.7289 3.70243
-27.947 89.4214 -0.304484
-19.6296 123.383 13.9978
-24.5932 93.7109 7.29186
-21.7091 132.485 7.12442
-25.6381 136.656 -3.42589
-25.3023 127.014 -0.681096
-24.5866 125.611 1.38038
-21.4175 143.529 5.88396
-21.4474 143.587 5.84137
-25.605 125.189 -0.859096
-22.4331 134.907 5.26272
-26.8723 83.8997 3.89352
-26.9445 130.507 -5.12923
-26.4464 121.304 -2.10087
-23.7234 98.4243 9.22757
-26.3208 132.482 -3.64574
-21.3636 129.316 9.42637
-21.5797 108.219 13.0208
-20.5883 118.06 13.6656
-21.4795 109.18 13.141
-24.2364 140.988 0.246857
-23.9518 98.1903 9.1189
-22.3026 145.033 4.36751
-27.2096 118.92 -2.88928
-25.1166 92.4769 7.47013
-23.9913 142.249 0.858317
-20.5001 122.966 13.2556
-25.4152 88.1526 7.6195
-21.4125 111.245 13.2705
-23.3802 100.265 10.5077
-26.9593 124.616 -3.02128
-20.6582 124.335 12.7887
-25.4874 127.463 0.29391
-26.7607 129.518 -3.20543
-25.0972 127.736 1.31802
-28.6937 88.7343 -0.223838
-26.0753 135.36 -2.52998
-26.9163 131.726 -3.89691
-26.9208 124.455 -2.4515
-20.709 120.812 13.7963
-29.0794 100.446 -3.17222
-20.7643 125.817 12.8626
-22.8304 134.223 6.15313
-25.4681 91.4709 7.69724
-27.3488 81.7796 4.87633
-27.5992 84.3238 3.78518
-21.5436 113.5 13.3432
-21.8151 111.029 13.1562
-22.5642 128.606 7.99545
-22.1698 108.07 12.8959
-23.2005 101.918 11.5378
-25.1261 125.086 2.35982
-25.3499 126.756 1.5683
-23.8745 143.504 2.07157
-26.5856 86.4887 6.23324
-25.9026 88.3152 7.59718
-25.391 139.34 -0.735254
-22.7674 142.722 5.16765
-21.7594 127.469 10.6585
-23.0521 103.52 12.0117
-21.9287 112.579 13.1787
-28.6129 106.602 -2.30802
-22.4339 108.453 12.7963
-26.4444 87.258 6.85987
-22.736 106.325 12.5445
-26.1455 123.31 0.95573
-29.4804 101.791 -3.23024
-28.8251 84.5545 1.69265
-21.7803 115.912 13.3143
-26.3063 123.177 0.71203
-22.8236 133.316 7.47159
-25.9965 125.613 1.02923
-22.9509 128.494 8.0807
-23.2846 134.447 6.13978
-29.1999 92.2872 -0.59629
-22.712 140.077 6.57561
-22.8125 128.466 8.61145
-21.5069 120.406 13.4083
-26.7716 134.7 -2.40279
-29.1135 85.5378 1.12998
-22.9072 107.016 12.5323
-23.7941 102.168 11.2864
-21.7435 118.92 13.2776
-27.1245 124.252 -1.10945
-23.2225 128.247 7.93691
-22.8817 130.585 8.34271
-21.7261 119.855 13.2718
-29.3675 92.1204 -0.501452
-25.4536 125.552 2.92288
-29.9282 96.7954 -2.70505
-25.5207 127.218 2.52502
-29.9523 97.028 -2.78009
-29.1194 84.587 1.6971
-24.7324 142.721 1.61342
-23.1433 139.42 6.20818
-26.3073 90.8568 7.59191
-26.44 126.864 0.525541
-27.1113 124.288 -0.646908
-23.2341 107.014 12.3495
-24.0899 135.508 4.81237
-24.1836 135.831 4.56508
-26.4044 126.924 0.724496
-22.9632 130.178 8.73307
-22.9549 130.031 8.81071
-23.1837 140.049 6.43237
-22.4167 114.377 13.2546
-25.7911 126.765 2.5073
-24.0938 143.432 3.62872
-24.2025 128.78 6.14193
-25.2853 141.773 1.02157
-26.5081 122.539 1.62577
-26.0646 139.47 -0.445994
-30.0576 95.8411 -2.03644
-26.9714 93.6275 6.11196
-23.1313 131.392 8.67506
-24.3152 137.153 4.63415
-25.8782 125.881 2.95453
-26.966 135.315 -1.54112
-22.4036 119.756 12.8422
-27.5912 119.911 -0.103638
-22.5582 115.181 13.3589
-27.8408 132.019 -2.96731
-26.6017 125.96 1.31918
-29.8681 105.351 -2.89831
-23.5178 129.255 8.40825
-24.0842 119.053 9.01286
-23.7396 141.053 5.69905
-23.6954 140.694 5.91386
-24.0663 105.31 11.7092
-28.5009 81.6157 5.19648
-22.5863 120.505 12.6318
-26.1172 125.641 2.92529
-26.2511 125.552 2.61411
-29.0447 112.739 -1.8798
-24.0035 129.067 7.6064
-23.841 119.399 9.84838
-23.6672 108.889 12.2946
-24.4619 134.982 5.3734
-30.0221 83.5912 1.2704
-23.6076 118.512 10.6316
-29.9721 85.801 0.994836
-28.6099 81.7977 5.23444
-25.8225 140.952 1.00942
-24.225 118.543 9.25446
-30.0165 105.609 -2.72151
-24.2564 118.55 9.20378
-23.5977 120.565 10.4704
-26.3105 126.307 2.62801
-28.8789 123.832 -3.30021
-30.4947 101.545 -3.08487
-28.3769 123.633 -1.9341
-23.9111 133.88 7.3401
-23.2245 116.576 12.3632
-23.8874 108.805 12.1962
-26.8419 122.817 2.17847
-27.2105 89.8037 7.54622
-23.6355 133.045 8.29092
-30.4057 103.116 -2.86079
-24.0011 128.109 8.45329
-24.9503 102.869 10.8974
-24.9463 134.817 4.8679
-26.897 136.859 -0.250458
-29.036 126.066 -3.51497
-24.0421 109.306 12.1243
-23.9627 133.402 7.81316
-26.2848 125.919 3.45894
-30.7363 96.2237 -1.99057
-30.1859 84.5627 1.79776
-24.8626 142.003 4.17131
-24.2342 109.234 12
-25.3043 127.966 5.85496
-28.5605 131.407 -2.91459
-27.4492 135.412 -0.8799
-25.7759 141.675 2.11957
-27.2824 126.523 1.29191
-26.2294 127.414 3.75035
-31.0534 98.0071 -2.67723
-27.9321 88.2661 6.99896
-28.877 130.526 -3.37567
-25.1646 141.945 3.72779
-30.6788 86.4957 0.547668
-24.6318 107.855 11.6591
-30.5731 85.6432 1.07322
-26.9987 125.5 2.41877
-24.2144 115.534 11.2701
-25.3574 128.317 5.99919
-27.6946 121.155 1.54776
-28.0689 133.779 -1.77446
-25.2914 128.589 6.16768
-26.0953 100.866 9.45375
-27.0071 125.777 2.4582
-24.5752 108.997 11.7738
-26.0552 101.069 9.60613
-23.8694 114.261 12.5599
-25.0699 105.666 11.2015
-24.5332 126.87 8.54661
-24.1539 112.62 12.2175
-26.9064 126.874 2.68327
-28.1548 90.764 6.45716
-25.4422 127.765 6.21015
-25.1318 138.775 5.03507
-25.5212 135.173 4.77254
-23.9744 131.166 9.39468
-26.4331 100.557 9.11121
-25.1608 134.197 6.06225
-26.6184 127.116 3.7882
-28.7042 132.199 -2.34105
-27.1782 125.713 2.70453
-26.0869 126.681 5.24473
-31.1837 101.833 -2.73362
-24.6961 111.677 11.5803
-24.5739 121.28 10.0692
-25.6339 135.222 4.79001
-26.995 138.076 0.902341
-31.4467 99.133 -2.79954
-26.9159 138.563 1.02295
-29.6305 113.647 -0.987645
-29.6675 113.181 -0.983917
-25.6769 116.296 8.38163
-26.6212 123.41 4.78447
-26.4361 128.016 4.38797
-31.1496 93.9565 -0.87041
-25.6794 121.153 7.62618
-26.9119 139.078 1.16248
-26.9202 139.081 1.1961
-26.0408 141.419 2.96265
-26.0441 115.571 7.91247
-26.1953 126.628 5.4615
-29.842 125.846 -3.47208
-30.1743 110.201 -1.31776
-25.5358 128.304 6.80893
-27.7113 122.307 2.54921
-24.5199 124.859 10.0476
-29.7608 129.307 -3.85326
-28.3371 94.3829 6.33089
-25.0788 133.97 6.98431
-26.8697 140.251 1.35073
-31.0847 104.536 -2.34699
-24.7581 124.763 9.63621
-26.2954 127.206 5.39661
-25.1457 111.385 11.2767
-27.1661 125.522 3.60434
-26.2589 119.388 7.0399
-25.1164 124.321 9.01364
-27.9029 122.064 2.50651
-31.7631 99.2394 -2.71904
-27.0909 125.578 3.93017
-31.6828 97.01 -1.98375
-25.8743 126.798 6.89856
-27.5016 125.019 3.23211
-26.4296 140.794 2.9673
-25.4145 114.084 10.5899
-26.765 140.452 2.24855
-31.7114 95.7567 -1.55492
-26.8216 114.336 7.11002
-26.5218 114.209 7.88992
-26.7414 119.517 6.39692
-31.4891 85.6523 0.992308
-26.9254 127.044 4.60941
-26.463 140.685 3.18601
-25.8441 108.62 10.9408
-27.2407 116.431 6.01627
-29.4941 131.243 -2.404
-29.8896 114.892 -0.253631
-25.7445 112.371 10.6195
-30.2861 111.721 -0.577568
-25.8125 113.61 10.235
-28.6404 95.4877 6.66092
-30.3023 84.9253 4.55503
-25.8252 109.68 11.023
-25.5372 127.273 8.46663
-31.1265 105.544 -1.32349
-26.6483 121.158 6.91951
-25.3486 127.675 8.93066
-26.6337 125.06 6.23783
-29.4412 118.539 0.492657
-29.3988 118.785 0.596109
-27.2344 120.152 5.82939
-29.8819 85.9874 5.77899
-28.6857 96.9821 6.69727
-26.4938 123.707 7.08866
-26.3759 137.007 4.86057
-27.7873 137.501 1.2637
-26.6521 135.637 4.49977
-31.9441 101.333 -2.13723
-27.7649 117.64 5.23354
-26.8897 121.04 6.78411
-29.0765 96.5782 6.00131
-30.1476 83.5204 5.81401
-32.1494 100.378 -2.31931
-32.2828 97.5863 -2.11533
-28.4589 113.703 4.36513
-27.5594 127.165 4.08674
-27.531 126.932 4.3402
-28.9785 97.2475 6.37965
-28.135 123.577 3.55929
-31.8048 103.496 -1.75719
-26.6867 107.216 10.3169
-27.6311 127.612 4.09249
-28.0468 113.4 5.85716
-29.8175 93.2117 5.27991
-27.0075 104.473 10.1502
-31.9113 103.093 -1.80333
-28.177 99.5371 8.23247
-25.6449 127.963 9.15633
-28.692 135.295 0.186203
-32.2868 93.6928 -0.84496
-27.5314 127.769 4.54321
-26.9672 105.323 10.2127
-31.7466 103.794 -1.38919
-28.5053 114.774 4.61719
-27.58 101.967 9.41544
-27.0313 136.49 4.28401
-27.0592 136.325 4.25283
-29.0537 113.447 3.64952
-27.3981 127.209 5.20732
-30.0011 95.4069 4.77668
-28.2054 137.084 1.34844
-30.8546 84.8459 4.70033
-30.4239 111.833 0.707035
-25.8712 132.823 8.15475
-28.0631 125.821 4.04579
-27.029 107.48 10.114
-27.4815 112.583 8.06117
-32.4803 86.2794 0.680598
-31.4423 106.085 -0.473352
-26.5762 126.326 7.81472
-27.5437 127.358 5.34646
-28.9866 119.99 3.15502
-27.4426 112.3 8.52855
-31.0184 84.7825 4.86484
-30.7623 82.5209 5.95015
-31.1758 108 0.0830654
-28.6503 120.29 4.05838
-29.1889 98.1643 6.95756
-27.469 136.838 3.92876
-28.4818 121.712 4.30023
-30.4951 110.151 1.50493
-30.2407 116.227 1.03524
-28.5884 122.015 4.07272
-28.0776 101.995 9.17477
-27.4286 125.789 6.27829
-27.462 109.091 9.38403
-30.4581 87.0531 6.13872
-32.5794 84.8892 1.28476
-29.5708 112.585 3.56622
-28.0575 127.059 4.69207
-28.9252 117.475 4.41049
-32.8211 91.3146 -0.246763
-33.1099 98.2494 -2.22846
-27.921 126.342 5.47763
-28.0753 106.129 8.98036
-33.0808 94.7846 -1.3079
-32.9231 99.7335 -1.83125
-29.9723 97.7055 5.93303
-32.1544 83.8108 3.14531
-28.9779 136.141 1.18899
-31.3384 86.1501 4.81444
-28.4018 102.282 9.17992
-29.8778 116.209 2.96877
-28.9823 136.399 1.44309
-30.1811 115.233 2.5904
-29.3889 112.213 5.20878
-32.8808 84.3134 1.80202
-30.9811 122.129 -0.50645
-28.9403 112.043 6.51475
-28.295 137.598 3.29661
-28.7398 103.861 8.59969
-30.8408 113.252 1.67093
-30.3025 132.373 -0.595489
-33.5529 97.4443 -1.9391
-33.2044 98.8343 -1.21664
-28.6502 110.863 7.88958
-29.2599 136.195 1.56771
-30.5209 131.671 -0.709831
-29.1553 101.23 8.54424
-31.3076 93.1686 4.80144
-30.9586 91.1932 6.09253
-33.0569 82.3879 2.58808
-33.6073 90.5623 -0.258566
-32.3173 103.928 0.438662
-29.7951 111.564 5.28283
-29.2414 107.281 7.53345
-29.9386 111.436 5.05557
-28.6311 133.982 4.08664
-31.1258 91.3437 6.00818
-27.0414 131.465 8.59315
-29.4636 111.129 6.41755
-33.0936 99.0875 -0.318369
-31.2229 125.903 -0.683073
-30.2517 133.456 0.33831
-31.1673 90.2135 6.30566
-31.4575 107.598 2.31968
-29.2651 108.693 7.57767
-31.2927 125.276 -0.624643
-33.0759 100.396 -0.271916
-32.8226 101.163 0.242795
-27.534 128.082 8.33385
-31.6852 87.1624 5.78992
-33.0524 99.6586 0.0616635
-31.7211 106.913 2.03185
-29.5661 104.909 7.78774
-27.3251 131.347 8.39052
-32.723 103.049 0.325925
-33.3981 85.1517 2.06835
-32.1986 105.158 1.47989
-34.04 90.2178 -0.25624
-31.0914 110.65 3.25689
-32.339 104.742 1.28093
-30.0676 110.729 5.81481
-27.5357 129.327 8.88831
-34.0575 91.2512 -0.12333
-31.375 109.519 3.10122
-32.7768 103.34 0.807078
-30.5331 110.528 5.13175
-29.3594 134.933 3.42707
-31.49 126.385 -0.188545
-31.4781 126.682 -0.211546
-31.1956 110.321 3.62642
-34.0941 97.3628 -1.13144
-30.7815 132.121 0.623524
-30.1705 102.301 7.84023
-31.0501 122.852 1.81257
-31.4449 109.381 3.39152
-31.7246 107.547 3.05931
-32.1117 96.8462 4.29976
-32.1382 88.444 5.89118
-30.2014 134.694 1.98361
-28.9085 132.657 5.64411
-30.8693 132.1 0.871445
-31.3986 109.968 3.83309
-32.9277 85.3426 4.70538
-33.9608 97.7003 -0.180758
-33.261 84.8677 4.00406
-32.8631 99.9079 2.14679
-31.2846 99.5801 6.15391
-31.1192 109.754 4.66105
-28.445 126.152 8.28114
-31.1346 109.323 4.82805
-28.608 131.396 7.06825
-30.7898 123.053 3.27775
-32.6249 104.041 2.36745
-31.9419 122.865 0.594627
-28.7724 126.825 7.81574
-34.1247 97.5793 0.0968404
-28.3832 127.215 8.78867
-33.5911 85.9426 3.64605
-32.6844 88.3733 5.52497
-32.0474 98.2948 5.28011
-33.7846 97.7735 1.10597
-32.3111 105.48 3.34796
-31.7041 107.919 4.41018
-33.1154 96.3689 3.15687
-31.4477 129.948 0.992375
-33.3967 95.7814 2.69689
-31.9792 102.492 5.0422
-32.5339 98.6402 4.43138
-31.6106 128.865 1.01487
-31.4075 102.203 6.66488
-33.075 84.5559 5.86855
-34.3535 97.4304 0.289011
-33.2865 87.1393 4.91741
-35.0293 91.7977 -0.194058
-31.8069 105.445 5.30861
-31.988 102.129 5.55825
-33.5053 85.2442 5.00899
-32.0062 101.386 5.73081
-29.0431 126.08 8.47593
-35.0126 94.0973 -0.309609
-31.7995 103.929 5.86746
-30.9746 122.862 4.36352
-28.6239 129.858 8.95871
-33.4023 88.5484 4.91451
-31.2527 132.025 2.0843
-32.4106 100.46 5.23581
-35.2447 92.0154 -0.168794
-34.3921 85.396 3.25981
-29.4773 129.974 7.25007
-29.1841 126.018 8.73278
-30.9499 132.845 3.17036
-32.2853 125.927 1.16841
-34.6312 94.8935 1.60316
-32.4034 125.378 1.41462
-34.7233 95.9046 1.45965
-29.7142 129.334 7.60286
-30.1952 131.925 5.91323
-29.7736 126.615 8.11617
-34.5182 86.4237 4.05592
-35.1075 88.0045 2.33742
-34.2096 88.8609 4.4263
-34.4979 97.1654 2.16072
-31.515 123.104 4.92485
-35.0393 86.7899 3.09791
-35.2883 96.4654 0.759473
-31.0708 131.59 4.63566
-35.7699 92.7043 0.356265
-34.555 87.8093 4.31925
-29.687 126.711 9.14793
-35.0422 96.757 1.49821
-32.2036 127.165 2.84059
-34.8633 82.4091 4.71582
-31.8531 128.618 3.67568
-31.6031 129.357 4.20451
-35.8095 90.0726 1.22504
-35.0035 93.6287 2.59585
-35.164 84.1176 4.20489
-32.0008 123.556 4.65983
-34.8602 87.6766 4.37079
-30.6493 129.036 7.14592
-30.9722 125.071 7.10775
-31.8949 128.518 4.16247
-31.0119 130.691 6.16577
-35.9315 89.6114 1.72612
-30.5528 124.156 8.63293
-35.2546 82.6805 4.89249
-31.7251 129.271 4.99745
-35.1147 84.2593 5.90416
-30.862 126.812 8.44227
-35.7934 92.3856 3.09916
-35.807 80.6141 5.41257
-36.4632 89.2907 2.24007
-33.0097 125.02 4.10798
-35.4756 83.4103 5.8655
-36.707 90.2813 1.62713
-32.482 123.652 5.91324
-33.1257 124.611 4.14607
-32.3215 127.497 6.30337
-36.8394 83.1796 3.56541
-32.218 123.678 7.80901
-36.8493 87.1935 3.54044
-33.1969 124.39 5.68323
-36.9666 83.9642 4.30505
-36.9055 89.2445 3.48442
-33.033 125.1 6.33587
-36.8991 84.1464 4.55654
-37.0075 85.5048 4.1147
-32.7798 125.222 7.29047
-36.9167 82.3158 5.37927
