ply
format ascii 1.0
comment Created by Open3D
element vertex 1914
property double x
property double y
property double z
end_header
5.65265 111.468 6.98239
6.91945 114.766 1.54199
-7.21687 112.878 -12.4788
-33.4064 96.3141 -10.3629
-5.64221 106.128 4.07663
-1.21536 106.045 10.0234
10.3295 119.391 -3.8287
-6.48808 105.613 4.29026
-19.7257 97.6978 4.37848
12.2958 119.616 -1.72461
-36.2805 92.9879 -6.63988
-21.7788 97.5577 2.11773
10.453 118.646 -1.87682
5.87535 112.055 6.50929
-5.54478 106.365 4.22099
-17.9051 98.9443 4.35236
11.1592 117.768 1.14583
-10.5906 104.627 1.55625
-20.5707 105.925 -13.8095
14.3947 119.483 1.79864
-7.62244 113.014 -12.442
-3.45107 107.871 4.05416
-20.106 106.337 -13.9375
-12.8087 102.98 2.61412
-5.63692 104.826 7.85015
13.5377 118.801 2.4976
-2.17105 110.116 1.12155
-24.4256 103.804 -13.7261
6.68647 117.241 -2.7257
8.71554 119.7 -5.39383
10.637 119.405 -2.24912
7.12934 117.521 -2.64059
7.89097 117.511 -1.60463
7.0153 115.19 2.38219
9.9316 119.549 -3.23346
-3.57549 105.668 9.31425
7.935 116.024 1.83425
-0.952706 107.111 9.81673
-1.40969 112.275 -1.84173
-7.16981 108.51 -1.10123
8.90797 119.412 -3.95209
0.891288 108.498 9.23583
4.669 113.27 3.93936
-13.9964 102.613 2.97242
10.6746 119.346 -1.30077
-35.6826 95.527 -9.42623
-6.14874 114.459 -12.2931
-33.0516 95.1471 -5.19666
7.99357 116.145 2.20611
-3.31696 106.153 9.22954
19.3312 126.029 -4.47417
-15.8654 101.24 3.75328
9.00648 120.572 -5.95403
9.58999 121.248 -6.64323
13.8413 120.159 1.15135
13.7838 123.178 -5.39513
12.9772 118.881 2.80645
-6.77887 114.221 -12.3536
-6.1296 105.913 6.44225
14.2063 119.734 2.87211
-36.3661 94.7326 -8.11482
-3.44162 108.73 4.01008
-2.94581 115.623 -10.1542
-23.8282 97.8803 1.35946
-4.45741 107.481 5.5833
16.4644 122.542 0.0402824
-23.7495 97.9581 1.41325
8.37108 121.329 -7.69256
-36.2187 94.1034 -6.24426
-25.3726 97.3788 0.594454
4.63103 120.073 -9.77083
-6.98023 109.106 -1.03162
8.29124 121.406 -7.89208
2.30714 119.053 -10.4539
-5.72753 106.789 5.61608
6.24363 115.044 3.31714
-27.6509 96.813 -0.85646
-34.4603 97.0389 -10.0474
10.3025 121.284 -4.86306
6.24173 118.68 -4.30035
4.35081 111.697 8.31126
19.8534 126.617 -3.82279
-2.07291 110.942 1.901
-18.1078 108.701 -13.7281
-2.2182 107.512 9.19443
-14.4288 110.446 -12.6854
-34.0517 95.6357 -5.88074
8.54798 118.712 -0.929891
-7.27673 108.374 1.086
-24.7815 97.9557 1.07777
-29.4679 101.164 -11.7949
-0.681706 117.632 -10.2367
-6.43283 110.828 -2.96171
-5.45349 106.837 6.88222
-27.9094 97.1322 -0.943605
-15.9617 102.189 3.50281
13.4047 119.739 3.39457
6.87256 119.032 -3.40452
-5.99729 106.408 7.28174
-12.9733 111.598 -12.777
-30.7452 100.486 -11.6006
-20.7081 107.439 -13.6588
-5.54605 106.719 7.34523
11.5233 123.282 -6.39542
-34.999 95.4503 -6.11358
7.82262 119.506 -3.00376
5.46709 113.273 7.37815
-0.946754 113.313 -0.898357
7.52729 119.583 -3.48369
-33.1457 98.7964 -10.7875
-1.22727 114.176 -2.97343
-17.0456 109.496 -13.1321
8.09977 122.714 -9.23232
3.40677 111.528 8.81166
5.99241 119.211 -4.32432
13.0655 120.311 2.38223
-21.9743 99.0444 3.25747
-25.2656 104.813 -13.3425
5.12367 113.159 7.64738
6.95608 119.607 -3.84617
2.30951 110.811 9.14011
-5.74334 115.833 -11.8817
9.02697 123 -8.381
14.1618 123.947 -3.84022
-23.0958 98.96 2.19528
5.55242 114.038 6.46605
9.79927 118.842 1.61078
-31.0755 96.5744 -2.81052
-0.0213267 118.386 -9.90092
-1.36576 112.824 0.433282
13.9282 120.612 3.30225
-6.71982 109.979 -0.25118
0.743947 109.906 9.45487
5.35571 114.237 6.0685
13.7039 120.668 2.93644
-4.09798 108.584 6.16692
-26.203 98.0492 0.529876
7.16333 120.068 -4.08438
-2.52514 108.137 9.1761
-6.34112 111.283 -2.45852
6.36265 120.146 -5.23036
-33.4221 98.9569 -10.5709
-28.6721 97.5479 -1.46421
10.0084 122.37 -5.29608
-31.9436 100.218 -11.3427
-1.3815 117.928 -10.2625
13.3373 121.224 1.61081
-28.4036 102.621 -11.8005
6.53849 120.522 -5.39926
-25.356 98.5574 1.05122
15.0249 121.564 3.3195
14.9503 121.403 3.8644
19.8136 126.416 -0.672732
-9.54587 107.71 1.97509
-11.3163 113.344 -12.3836
-25.1446 98.8028 1.20293
-3.43477 114.043 -3.71385
-13.1873 112.247 -12.2584
-27.5476 103.64 -12.0759
9.58362 118.916 2.62543
-35.3358 97.7489 -9.28584
-4.56768 107.882 8.4256
9.17022 123.977 -8.53603
15.6383 122.891 2.19179
-26.716 98.5086 0.392478
10.3832 119.457 2.88834
-10.5386 107.412 2.08156
8.98634 122.968 -6.32499
-2.97343 108.649 9.13507
-0.411339 115.241 -1.70382
-30.2616 102.108 -11.6289
8.20179 124.133 -9.72045
8.33152 118.334 2.99859
6.27385 123.176 -9.95947
-26.4762 105.008 -12.7998
7.95164 121.24 -3.56607
-2.40094 111.799 3.48695
-32.0965 100.932 -11.1294
13.7215 124.999 -4.17119
9.17411 121.437 -2.28857
-10.8968 114.116 -12.2239
-1.03258 110.017 9.21317
7.99747 124.225 -9.74252
2.8439 112.489 8.88161
8.02079 121.4 -3.58056
-35.9383 96.5476 -6.42738
13.6476 121.334 3.75976
20.044 127.614 -1.54427
10.466 124.119 -6.28168
8.7956 120.971 -1.60501
9.3617 124.41 -8.26614
-34.7053 96.9231 -5.56204
-0.242621 115.977 -2.37854
13.626 121.7 3.07973
-17.6695 102.554 4.18379
-7.48453 109.666 1.94078
-4.40524 113.958 -3.32444
14.1853 125.071 -3.40332
-6.55006 116.629 -11.7662
-7.35585 109.853 1.80601
-14.7927 111.725 -11.68
5.91123 116.095 5.46232
13.697 122.075 2.60479
-23.734 107.168 -13.2134
-6.3673 111.193 0.366592
2.63958 120.907 -8.76143
19.4917 127.672 -1.62288
0.899719 111.562 9.22546
-18.5738 102.063 4.86701
-31.8249 97.641 -2.58379
-35.3742 98.0584 -8.01367
8.6074 121.837 -2.81986
19.382 126.856 0.21847
9.03034 123.137 -4.95998
-24.2145 107.168 -13.1766
-35.4573 97.9318 -7.69528
-25.1075 106.61 -13.0945
-0.557456 116.422 -2.73326
7.61502 118.455 3.38352
-0.0911528 111.242 9.02476
19.6799 127.098 0.286464
-3.58592 109.2 8.98684
-2.93905 115.415 -3.51713
-0.166419 116.01 -1.2297
-33.3252 100.552 -10.4344
7.31301 118.336 3.39369
-5.92186 117.37 -11.433
9.77082 119.942 3.13135
-22.2418 100.504 4.13114
-7.45823 116.732 -11.7212
-0.946506 111.045 8.90743
19.6183 127.246 0.479805
8.50709 120.313 1.19951
10.0669 120.578 2.6289
7.89743 123.678 -6.76547
-2.68796 118.798 -9.80828
0.793718 120.285 -8.53079
-0.527329 116.805 -2.71765
9.01089 125.461 -9.09874
14.2673 122.923 3.07811
-34.6214 98.7904 -7.62012
9.664 125.266 -7.83054
13.3875 122.115 3.73305
-34.6002 98.9832 -7.92047
-17.164 103.887 3.90365
-4.61136 109.832 7.2207
16.9705 125.635 0.887502
-34.5258 98.3962 -6.46753
-9.40942 115.899 -11.9201
-34.2686 98.7129 -6.79657
-30.0686 103.46 -11.4443
9.55078 124.635 -6.22902
-19.0099 102.247 5.34882
-2.67891 110.221 9.18168
-0.481762 115.984 -0.27064
-27.1063 105.835 -12.5251
-0.236061 117.155 -2.42231
15.0469 123.233 4.1181
20.0205 127.951 0.435528
10.0354 120.482 3.83391
10.175 122.462 -0.148985
-8.99629 116.45 -11.7499
-1.04749 115.347 0.79887
-6.2474 112.183 0.965885
4.51359 123.41 -9.35016
-4.10733 110.934 6.44049
15.3041 126.566 -2.2947
17.7471 126.484 1.01454
-1.7849 116.999 -3.48424
17.4289 127.679 -1.84111
10.6517 121.544 2.68737
-3.69379 110.373 8.39299
-11.9836 114.674 -11.3932
15.4199 124.199 3.21712
18.1236 127.723 -0.869592
11.0397 121.286 4.01843
-24.0328 100.793 3.2004
15.8394 127.157 -2.37043
-32.2962 98.8298 -3.01282
-14.0773 113.401 -11.0042
-1.75618 114.439 2.53294
-19.9323 110.814 -12.9289
-21.7429 101.417 4.97004
9.17146 126.356 -9.03845
-8.29327 117.138 -11.5524
-25.2528 100.693 2.22604
-3.20277 110.713 9.01975
15.6436 123.836 4.94341
-16.4168 105.354 3.65136
-23.35 101.094 3.9904
-21.8275 101.529 5.0096
3.07727 114.63 8.77147
-7.96987 110.787 2.94829
8.60705 120.93 2.40036
8.5243 120.52 3.18745
-16.592 105.343 3.72758
6.28117 125.196 -9.65458
3.27918 114.855 8.72307
-28.7117 99.836 0.0700531
-18.3319 103.861 4.74991
-12.2961 114.841 -11.1128
-2.83311 112.96 5.08499
-25.7136 100.782 2.02689
7.89046 124.207 -5.28513
14.6111 123.477 4.89271
17.5954 128.138 -1.26697
14.3484 126.937 -2.83767
9.56368 126.143 -7.1764
9.60233 126.008 -6.78475
-31.8234 103.245 -10.8638
17.7343 128.151 -0.957982
-33.5848 100.382 -6.90392
-1.39493 120.459 -8.79525
2.60158 114.678 8.83577
-5.48909 114.282 -0.614983
7.58302 123.232 -3.07221
16.0161 128.119 -2.78017
-3.63727 112.027 6.65222
-5.36057 114.688 -1.24609
8.84116 124.88 -4.96803
-29.1471 100.04 -0.178613
9.00825 121.201 3.21264
7.38565 124.439 -5.79987
7.39774 124.471 -5.78826
-16.7066 112.909 -11.7576
5.12457 118.382 4.41533
-17.256 105.244 4.014
13.3651 126.776 -3.06607
7.37796 122.241 -0.882145
4.47142 116.555 7.62127
-0.172589 118.741 -2.97797
15.7893 125.893 2.14082
4.92401 117.549 6.19643
-4.88134 119.596 -10.724
0.914052 118.388 -0.707989
7.28304 121.795 0.167605
9.36741 123.175 -0.0972301
9.48188 121.737 3.15515
-19.9936 102.827 6.08261
-33.1562 102.465 -9.93803
-7.90185 111.408 3.15619
-4.97484 119.627 -10.7287
13.0379 123.35 4.32331
12.488 123.132 4.15371
7.64602 124.898 -5.76419
-5.31181 115.078 -1.2029
12.2696 123.068 4.16907
4.80387 117.201 7.24489
10.1038 126.147 -5.17582
8.75758 125.234 -4.9255
-33.5536 102.047 -9.22052
2.60931 115.208 8.78001
10.6069 126.378 -4.94477
9.93118 122.24 3.12705
2.07937 122.79 -8.02112
0.315553 121.742 -8.01716
-12.8494 115.113 -10.5689
4.02114 116.487 8.0625
15.4602 125.668 2.98012
-2.02002 118.172 -3.25842
-32.1811 99.8969 -2.54154
0.940258 118.638 -0.424027
-33.2468 102.579 -9.62623
3.69964 124.201 -8.77579
-2.83309 113.547 5.82473
4.37857 117.005 7.67289
3.02914 115.776 8.71052
16.916 129.163 -2.27725
1.12002 119.079 -0.800313
4.40142 124.858 -8.99911
4.71981 117.488 7.30184
-1.78411 112.856 8.97689
6.1979 119.821 4.27128
-24.4996 109.556 -12.7447
16.075 126.62 2.51977
-9.51135 110.941 3.57478
-1.8136 115.671 3.30056
-7.42504 119.033 -11.0864
-23.355 110.378 -12.8621
18.1888 129.21 -0.115165
-33.0689 100.534 -3.99393
7.70531 122.139 1.83218
1.07147 119.112 -0.148421
-13.1057 108.791 3.91737
-3.28598 112.768 7.9443
-31.6991 104.502 -10.6381
-5.36051 120.231 -10.6407
4.3622 118.603 5.29844
-8.6243 118.452 -10.9585
8.01534 122.727 1.18445
19.6761 129.963 0.606255
-32.7779 101.282 -4.83927
-24.5788 109.806 -12.5819
8.04086 122.183 2.58681
-4.377 120.818 -10.3551
-3.16326 121.207 -9.62227
-33.267 101.881 -6.61424
0.0302742 118.033 1.28885
-21.3075 111.828 -12.6731
7.50747 127.355 -9.16306
2.04926 115.73 8.83423
-1.4862 116.507 3.01218
-5.69256 114.818 1.32054
-27.9083 101.567 1.38874
0.207698 122.566 -7.70426
10.3441 123.006 4.34883
-32.426 101.094 -3.28378
18.7064 129.879 0.42685
0.371668 114.947 9.07549
0.510363 118.819 0.969706
1.44308 120.158 -0.637152
-1.80946 119.482 -3.25437
-13.8891 115.39 -9.8904
9.80123 127.819 -6.28177
-24.3353 102.668 4.07955
-1.56998 119.64 -3.24903
-32.4458 101.805 -4.41716
2.22983 124.105 -7.91509
1.47197 115.85 8.90341
15.0475 125.457 5.72951
-9.13744 118.652 -10.5827
11.7222 128.434 -4.87729
-31.7929 101.299 -2.22374
-2.67228 114.765 6.1141
-7.57962 119.634 -10.5991
-17.4474 106.762 4.45431
12.5494 128.623 -4.07182
-32.7722 104.181 -9.4851
6.56828 124.551 -2.89848
8.76505 125.297 -1.63029
9.5466 127.687 -5.7602
8.35702 122.233 4.43954
-18.5429 105.786 5.46138
16.1765 127.186 4.06434
-27.4271 108.751 -12.0942
19.4973 130.284 1.69112
-0.369469 118.169 2.32132
-21.6375 112.446 -12.5393
-33.566 103.334 -8.17236
-20.5564 104.41 6.25499
-10.8083 111.23 4.08609
-2.29027 115.77 5.23224
-13.0797 109.849 4.22513
8.47526 123.767 1.93046
-30.0305 101.734 0.00328791
-14.1215 115.782 -9.78205
9.08995 124.237 1.88961
8.45609 123.902 1.84579
7.1086 121.637 5.01424
-1.56021 120.277 -3.11554
-20.6443 104.55 6.26234
7.89839 122.234 4.80653
-14.9615 108.905 4.2161
-29.3342 107.254 -10.6151
10.6752 124.383 3.84379
3.39965 125.764 -8.39078
-33.1076 103.01 -6.14111
15.5793 126.602 5.49094
-21.2368 112.955 -12.2517
-10.5262 118.237 -9.86317
-27.6265 102.56 2.04618
-2.46004 114.889 7.75714
-20.7358 104.733 6.271
-14.0007 109.653 4.33508
-14.3441 109.449 4.33738
-12.4441 110.591 4.32847
6.09973 123.71 -0.0937808
17.0141 128.778 3.01023
14.3112 125.707 6.19749
9.2815 128.073 -5.27588
9.02512 127.606 -4.47223
0.399448 119.487 1.93713
8.25127 127.485 -5.1634
10.5609 124.202 4.87595
-10.3024 112.156 4.07068
9.21842 128.204 -5.42343
10.3744 125.308 2.30172
5.52007 127.679 -8.86572
10.6135 125.214 3.01424
-10.6659 118.446 -9.60866
-2.78457 122.902 -9.08332
15.6588 130.874 -2.54168
-6.48306 121.185 -10.0502
-15.8116 115.748 -10.2526
-0.163045 119.093 2.59769
-33.1672 104.356 -7.94672
-28.4696 102.85 1.37215
-31.7038 106.333 -10.1629
17.3487 131.657 -1.77207
1.61407 121.012 1.00042
-16.0325 108.933 4.39901
-20.7447 105.264 6.28618
10.5375 125.717 2.40273
-31.1289 102.502 -1.02019
14.3248 126.286 6.04065
3.77701 119.477 7.17756
-30.683 102.572 -0.478745
-29.5201 102.765 0.705102
3.27207 126.483 -8.20157
6.287 123.487 2.09603
1.96973 121.912 -0.0382389
0.684153 120.211 1.99798
9.85752 127.744 -2.44844
0.535787 117.01 8.68913
-24.1355 104.184 4.70627
10.4984 127.892 -1.83875
10.522 127.974 -1.92684
17.9304 131.547 -0.0918172
10.1992 128.088 -2.50836
-14.9892 116.45 -9.71704
-16.4266 115.931 -10.4391
-22.5202 104.763 5.80867
0.256002 119.89 2.47718
17.6012 129.835 3.3522
5.94201 124.462 -0.0149971
9.93087 129.812 -6.37771
-16.9277 115.815 -10.6511
7.92449 127.062 -3.00776
-22.7559 113.151 -12.3469
12.9409 130.788 -4.40307
-5.38495 116.867 2.08466
-0.518491 119.209 3.28516
5.88384 124.336 0.499746
5.88222 124.327 0.518336
-24.5268 111.986 -11.8231
8.36851 127.608 -3.25786
11.2633 125.217 5.58275
7.83397 125.403 0.886077
-32.5975 103.96 -4.76894
3.46714 119.719 7.61261
7.2102 124.741 1.7086
-32.2527 106.394 -9.3253
-5.06357 122.726 -9.57036
-27.2006 103.921 2.52869
4.30039 120.942 6.2692
-4.66717 118.108 0.96521
10.8799 129.236 -3.04796
-30.8905 103.363 -0.859037
5.94166 124.024 1.92315
9.62741 127.162 -0.0945083
12.7208 131.192 -4.73106
17.0148 129.77 3.8202
8.58233 127.867 -2.78082
-1.84813 117.152 6.96679
6.80931 127.263 -3.66466
7.04663 129.697 -8.55398
-15.018 110.478 4.53105
10.8113 129.56 -3.38241
9.23714 126.985 0.229956
6.85843 124.703 2.12414
-26.479 111.257 -11.6267
-27.1347 110.757 -11.3822
-23.2041 113.49 -12.1976
11.2749 130.72 -5.05289
-2.65917 121.135 -2.25963
7.60571 126.763 -1.16516
7.36992 126.581 -0.887482
10.8679 129.465 -2.60114
-22.6577 105.56 5.89658
8.99857 129.289 -4.57364
4.9993 128.695 -8.38325
9.98343 128.165 -0.855023
-9.29181 114.411 4.09954
17.6644 133.033 -1.37374
-32.1352 106.954 -9.0024
-32.6909 104.778 -5.03034
-31.658 104.151 -2.32965
7.04997 125.204 2.00842
8.72693 125.318 3.99785
-26.8523 111.34 -11.4887
-10.4894 113.825 4.13554
5.10415 122.162 6.20335
7.82343 127.002 -0.681934
-4.37373 118.858 1.24671
-0.0154857 123.39 -2.83001
11.2875 126.806 4.31602
-6.62394 116.334 3.99576
-17.9677 108.923 5.42308
11.5967 131.146 -4.47603
-1.83398 118.336 5.90821
9.2241 127.57 0.231877
-4.11685 123.936 -9.01921
-20.9121 106.743 6.52062
9.09006 127.535 0.342922
-17.6111 116.689 -10.4955
7.49049 130.601 -8.19975
-16.8969 117.019 -10.2013
0.302236 118.68 8.23214
8.9086 131.269 -7.76823
-26.0898 112.326 -11.8163
12.0156 126.982 5.49324
-21.6483 106.493 6.54411
6.75391 124.276 4.67603
-16.6187 110.426 4.6367
16.8975 130.255 4.92071
-4.47096 124.041 -9.02171
-16.9272 117.15 -10.1434
6.65067 126.35 0.341939
-31.6952 104.865 -2.51821
-0.556387 123.589 -2.90578
-10.9042 120.074 -8.56417
6.70431 126.405 0.382848
7.52022 130.819 -8.02716
-14.041 118.299 -8.68567
-0.807077 123.411 -2.7225
-26.5817 105.308 3.21703
14.3773 128.846 5.15101
-26.0058 105.483 3.69519
-8.89025 115.329 4.49017
2.37561 123.661 1.01913
-18.7134 116.521 -10.5724
8.26342 125.723 4.17108
-27.5709 111.559 -11.2287
16.8862 130.432 5.10568
-1.2356 119.751 4.88181
-27.8436 111.346 -11.0702
12.0977 131.961 -4.17341
-20.6718 115.789 -11.3417
-32.1667 107.661 -8.57439
-28.0793 111.102 -10.7255
15.7917 133.636 -2.9017
5.97769 127.308 -1.85397
9.12205 128.184 0.30674
-8.40573 115.768 4.64014
-17.6198 109.968 5.32628
4.90584 122.895 6.40635
-7.36985 122.708 -8.87355
3.74933 128.941 -8.03647
18.1897 133.956 -0.255416
7.71363 127.292 0.665676
8.20408 127.69 0.45269
1.36786 126.923 -6.63685
17.2448 131.03 4.89523
0.195727 126.218 -6.52406
-1.92923 125.468 -7.60817
-18.9502 108.786 6.53223
18.2702 134.038 -0.0503002
-32.004 105.946 -4.00256
12.3218 132.355 -4.0143
10.0662 131.018 -3.99587
-15.2646 111.922 4.62027
-17.8628 117.337 -10.3016
-16.3687 117.903 -9.56079
-8.48053 122.177 -8.6418
5.34869 130.152 -7.98392
-3.22113 121.761 -0.898339
-15.4268 118.322 -9.03426
9.75884 129.555 -0.924948
10.3297 127.671 3.89211
-3.90515 120.639 0.789878
9.96976 127.967 2.85434
18.1596 131.904 4.91579
3.34793 125.82 -0.798836
-18.311 109.76 6.00141
-14.6439 112.613 4.66394
-30.2764 105.75 -0.562302
-24.7261 106.583 4.77277
-0.143897 119.972 7.55414
2.76499 121.557 7.90595
-2.80819 125.66 -7.96551
16.0442 134.359 -2.5151
17.3366 131.563 5.18651
-28.1423 106.014 1.95068
11.2768 133.151 -5.9
-3.88558 120.77 1.30221
3.42895 122.212 7.59027
-31.9957 108.507 -8.20107
-29.2817 106.019 0.686761
-1.03646 120.293 6.16013
-30.7078 106.16 -1.43547
-5.50611 124.337 -8.23086
-17.2035 111.028 5.41335
1.41471 120.887 8.05365
-4.21706 120.231 2.27491
-9.63556 115.828 4.82377
-24.5077 106.897 4.98466
5.52751 124.894 4.76198
-6.28719 123.927 -8.16885
-11.6604 114.798 4.58876
16.5459 134.762 -2.09281
4.15505 123.403 6.4794
3.74922 126.702 -1.00077
1.62433 126.264 -2.63308
15.2185 134.525 -2.98489
-11.6985 114.971 4.6526
15.2818 130.573 5.66259
-12.2024 120.448 -7.73602
-15.423 112.659 4.89759
17.5754 135.079 -1.03012
3.65398 126.19 0.283033
10.1723 128.453 3.86854
11.422 133.473 -5.27242
17.9261 135.129 -0.469851
-5.20315 119.488 3.5518
13.1842 133.989 -4.06465
9.70573 128.546 3.18216
-31.5233 108.175 -5.67458
-11.2539 115.408 4.73557
3.61758 126.12 0.785731
0.150223 120.958 7.4675
2.21664 126.824 -2.46141
-22.1882 108.102 6.54284
8.81089 130.637 -2.20458
11.55 133.312 -4.41507
4.65878 124.87 4.96332
-27.1456 106.937 2.81774
-13.3238 120.105 -7.7841
-24.3326 107.591 5.133
-25.1047 107.483 4.38121
17.1074 135.41 -1.51968
14.7283 134.768 -3.15475
-19.5937 117.824 -10.6458
-27.2068 113.197 -10.4447
-30.7106 107.09 -1.77652
12.8556 133.991 -3.8071
12.242 129.445 5.27808
-28.3354 107.064 1.45518
8.42916 132.97 -7.158
-30.5899 107.213 -1.63628
-31.4574 109.979 -8.68085
0.189847 121.372 7.33672
14.7672 130.892 5.57386
-5.31998 125.192 -7.84503
16.8367 132.161 5.59017
8.14655 132.918 -7.06927
5.06707 131.274 -7.43235
-20.4876 109.393 6.99092
-11.4445 115.773 4.89124
-13.4244 120.482 -7.70142
4.12583 127.564 -0.464915
-20.723 109.29 7.03023
-2.34741 123.873 -0.765169
10.3382 132.437 -2.92949
-30.8499 109.042 -5.35284
-0.457261 121.477 6.81516
-10.1803 116.484 5.1775
-27.8544 107.371 2.14415
8.52998 131.663 -3.48194
-27.324 107.509 2.61697
3.33949 127.842 -1.77886
-7.1355 124.38 -7.70277
17.1248 132.669 5.54434
-25.7101 115.08 -11.4589
-15.5736 119.977 -8.83808
17.6206 133.174 5.28195
3.80292 130.866 -7.43591
-22.2984 117.259 -11.5664
-21.6662 117.6 -11.4673
-5.73612 125.286 -7.5877
-31.1335 109.527 -6.14758
12.9903 134.776 -3.78093
-22.4883 117.281 -11.5657
14.6547 131.518 5.60137
-6.65685 119.299 4.59512
18.4725 135.534 1.87025
-18.1103 119.165 -9.73735
3.04137 124.64 5.57394
0.242707 123.563 4.30928
-20.9711 109.62 7.14981
2.53604 123.915 6.52111
-20.6527 109.844 7.11192
4.61634 126.225 4.37482
1.39964 129.213 -6.14585
-28.1605 108.006 1.65537
-2.36675 124.369 -0.40963
-12.5918 115.841 4.98915
1.41699 124.956 3.52734
1.02301 124.622 3.76791
11.4015 134.896 -5.00572
-15.9073 113.894 5.19798
8.06213 133.877 -7.06036
10.6625 129.874 5.02363
18.5336 135.811 2.33935
-7.18445 119.453 4.58284
-9.96188 117.39 5.53907
12.4569 134.97 -3.47061
-0.278212 126.664 -1.75873
15.3443 132.48 5.76818
-1.7768 125.268 -0.630924
18.4149 136.542 0.997888
-27.1551 108.82 2.37854
6.80485 133.338 -6.71951
-8.31673 124.586 -7.24985
-25.0529 116.623 -11.3908
4.1796 126.646 4.47438
11.1026 133.961 -2.36971
-7.34366 125.286 -7.32272
11.5705 134.673 -3.26305
4.3328 128.497 0.808633
-21.1414 118.865 -11.0762
-23.0998 109.629 6.35349
-30.2149 110.209 -3.95029
11.5778 130.887 5.15685
-11.3906 117.069 5.48639
-10.4474 123.365 -6.80512
-9.64517 118.248 5.21949
-30.9495 111.481 -7.43083
0.975216 128.009 -1.88712
2.31444 125.409 5.53626
-7.77504 119.928 4.46445
9.40975 135.646 -7.30361
3.82608 129.885 -1.99972
-29.264 109.558 -0.546447
-10.4652 123.673 -6.68886
1.18698 125.594 4.11773
12.0751 135.448 -3.0456
10.7887 134.567 -2.77941
-20.8677 111.011 7.3728
1.78186 125.174 5.94033
-29.8519 110.067 -2.04815
-7.08779 120.713 4.24456
-17.3346 113.745 6.24846
2.6649 131.757 -6.84941
-27.4177 109.685 2.19741
4.70703 132.951 -6.65382
4.2769 127.427 4.6674
-3.57587 128.22 -6.99053
-3.02119 124.288 2.24773
-10.1283 124.196 -6.55786
-2.32846 125.46 0.813266
-27.1995 115.962 -10.53
-21.1851 111.195 7.41447
-17.0868 121.319 -9.07594
4.91684 130.098 0.248556
-22.1848 119.188 -10.9714
5.30212 130.623 -0.369474
-22.5477 110.729 6.74758
-15.3837 115.662 5.38684
-12.5431 117.225 5.70289
-7.97852 120.682 4.26565
-22.1138 111.018 6.9816
2.44394 126.5 5.14611
7.13339 129.794 4.12354
-26.3633 110.243 3.29343
-0.283787 129.95 -5.67192
-13.7047 122.629 -7.11292
-30.852 112.503 -7.2591
-22.6386 119.189 -11.0106
-8.55487 125.54 -6.62057
-14.0421 116.691 5.39133
-10.5286 124.298 -6.40678
-4.13243 128.347 -6.77464
6.34053 129.554 4.21014
-3.44778 124.166 3.32642
9.46195 136.874 -7.40524
1.05752 131.054 -5.55538
9.93849 131.672 4.48619
-22.3472 111.336 6.9322
-14.0464 122.842 -7.1296
-10.6563 119.117 5.53788
2.87048 130.672 -1.96812
-1.95416 129.804 -6.23983
-30.2818 113.527 -7.49625
17.6791 136.227 5.16404
-1.60977 126.915 0.556688
-21.312 120.265 -10.286
2.34525 128.157 3.14737
7.99538 130.997 4.40186
4.51864 130.482 1.08857
15.3391 138.052 -1.31331
17.9768 138.704 0.792145
-27.6631 113.279 -2.93211
12.4303 137.001 -2.43189
1.6806 127.486 4.31851
-2.30049 126.343 1.7576
-29.7386 113.145 -4.95749
-1.02357 127.743 0.432003
4.36254 132.16 -2.04423
1.75509 130.471 -1.57767
3.36902 131.633 -1.9957
-30.5613 113.523 -6.3326
-8.07124 122.155 4.09176
1.95413 132.646 -5.61075
-26.4227 111.604 3.43153
-3.88331 129.578 -6.29804
-13.4936 124.053 -6.56888
-26.5643 112.925 0.6294
-4.01552 129.578 -6.29674
15.7616 138.774 -0.539984
-5.47473 128.692 -6.03812
-6.93167 123.087 4.21212
-25.9215 113.059 1.54791
-0.702905 128.454 0.742608
-17.8001 115.685 6.6106
-25.7388 113.347 1.50413
2.58896 129.61 2.85165
-7.59897 127.637 -5.91632
14.3016 138.758 -1.74707
0.842458 130.404 -0.785502
13.883 138.639 -1.76064
10.3572 137.774 -4.40069
-16.2353 117.182 5.8254
15.2355 136.138 5.41925
18.2693 139.777 1.49105
5.26025 133.561 -1.79428
-8.82647 122.192 4.65327
6.34503 131.508 4.09747
0.984339 132.776 -5.36803
-23.0335 120.717 -10.1624
10.3478 136.943 -2.31412
-8.52202 127.339 -5.75166
-13.4241 118.837 6.29021
2.11505 129.129 4.10542
-13.0803 125.161 -6.7488
12.435 134.978 4.81853
18.6661 138.961 4.24449
-24.0654 112.61 6.18942
-1.44359 128.089 1.92507
0.0797367 129.638 0.589942
-17.6126 116.397 6.45926
-14.8595 124.25 -6.87594
2.94042 134.443 -5.89725
10.5407 136.874 -1.28847
15.502 139.472 -0.504939
-28.3119 117.387 -9.05057
-17.3469 116.762 6.32681
8.96951 138.651 -6.99706
7.82819 137.98 -6.95449
-1.79682 131.535 -5.41321
-5.69336 124.534 4.74367
5.22102 134.055 -1.69681
-25.4974 114.604 0.880278
15.334 136.769 5.51173
-23.1772 113.186 6.94595
1.30791 133.444 -5.24619
6.45459 132.129 4.18478
3.95508 130.267 4.99132
10.2444 134.126 4.76079
3.51143 131.268 2.37884
18.6523 139.495 4.13608
-18.4577 116.206 6.71073
-20.3333 122.838 -9.91017
17.0972 138.109 5.17277
6.11948 134.233 -0.525019
-21.1135 114.372 7.45028
4.87547 136.423 -6.67134
-5.1021 125.402 4.45696
0.241144 133.208 -5.40618
3.91353 135.826 -6.30448
-21.1322 122.535 -9.7867
11.7046 135.281 4.85871
-30.1208 115.429 -5.99588
5.7815 134.657 -1.34274
-20.5711 122.94 -9.8806
-11.9268 126.436 -6.26486
-0.311513 133.039 -5.44834
-24.7576 114.101 3.98143
-24.8937 114.855 2.2751
10.9127 138.292 -2.24254
-16.0986 124.636 -7.20247
-10.752 127.156 -5.65584
0.957256 131.223 0.617068
-22.5378 114.008 7.54979
-13.1936 126.386 -7.0338
4.01264 133.887 -1.11665
-23.3688 114.244 6.18867
-30.0524 116.352 -6.72245
-1.99322 132.274 -5.01357
3.79528 136.28 -6.20456
4.22711 136.76 -6.6405
-27.3348 115.343 -0.973843
16.0996 138.055 5.86676
10.868 139.307 -3.50715
-10.0396 127.725 -5.3443
3.0013 131.498 3.29767
-19.8002 116.091 7.26537
12.5193 136.419 5.04422
3.65767 131.529 4.26656
16.5492 138.727 5.35006
-28.2144 118.598 -8.57597
16.747 139.053 5.14783
0.613048 134.279 -5.18975
11.175 138.642 -0.976152
-29.9821 116.756 -6.60082
17.7167 141.331 1.64417
-7.71668 129.35 -5.13744
-24.7753 116.084 1.5606
-28.0234 119.022 -8.62147
6.16312 134.8 1.22797
7.16143 135.892 0.223686
-22.7244 115.184 6.47702
-2.16503 128.851 3.44802
7.77918 134.341 4.55378
-3.18104 132.312 -5.00826
15.0703 141.073 -0.478336
-26.8079 120.307 -9.41131
5.23078 138.108 -6.63332
8.756 135.2 4.14519
10.6668 138.679 -0.877844
-23.9723 122.146 -9.6341
4.65995 137.807 -6.64393
4.86133 135.551 -1.48678
-10.1321 123.285 5.72073
6.11471 135.998 -0.791076
-22.8966 115.675 5.84609
-21.4741 123.679 -9.36756
-0.150584 134.397 -5.05119
-27.5432 116.097 -0.751468
-28.7917 118.665 -7.72851
-22.8528 122.915 -9.20076
14.8279 141.342 -0.388514
-4.12244 132.231 -5.05342
-24.3776 117.007 2.01419
-4.7708 132.024 -5.10425
-6.72934 126.528 4.36191
-29.6902 117.154 -4.82611
-23.9633 116.705 3.58813
-4.47858 132.307 -4.9774
-12.9479 128.119 -6.79093
6.9252 136.307 1.04944
3.52698 134.903 -0.264362
-29.6086 116.575 -3.14488
13.0644 138.027 5.38182
-23.1439 123.243 -9.06107
-0.264881 131.721 2.1381
-10.2652 123.995 6.00975
-1.6044 130.575 2.99455
-13.4138 128.297 -7.13149
12.1021 140.362 -0.305919
7.5559 137.253 0.652351
-18.9865 118.326 7.36752
-14.7069 127.825 -7.54958
5.67329 134.427 4.44743
17.2238 141.435 4.32602
-14.3774 121.616 6.50453
-22.5396 116.502 7.0968
-0.869319 131.57 2.45331
1.24073 133.778 0.430553
-6.80848 127.227 4.27745
-7.15366 131.178 -4.53822
-28.3242 117.132 -1.40225
5.63112 139.747 -6.53982
14.5269 142.007 -0.00952018
-8.05404 126.828 3.78554
6.13145 136.11 2.04599
-28.2843 117.199 -1.34233
-26.0957 117.829 0.173374
14.8647 139.563 6.0013
16.9507 142.918 1.49871
-16.6633 127.129 -7.56318
-25.5877 122.736 -9.46459
4.38726 138.894 -5.81959
-13.272 128.928 -6.99839
10.9307 137.941 4.69192
-2.45792 130.411 3.90418
5.66442 135.774 2.79517
-27.8327 117.582 -0.943804
-10.7106 130.03 -5.75797
13.1243 141.465 0.170436
4.84564 137.316 -1.40384
10.9825 140.412 -0.143115
10.7848 141.665 -2.97316
12.5077 141.164 0.359404
10.9786 140.474 -0.0695832
-17.4085 127.089 -7.55908
-9.11683 126.243 4.92492
17.5541 142.581 3.95307
-5.54867 132.774 -4.4272
-29.1607 117.795 -2.45364
5.18634 140.097 -6.33816
-2.24073 134.628 -4.04704
16.8004 142.012 4.47445
-22.6148 117.964 5.74794
13.5265 139.537 5.66346
-24.6296 118.491 2.0794
-18.3599 126.806 -7.75655
-29.2008 117.992 -2.54544
6.98922 138.604 -0.500043
10.7562 138.509 4.52385
-28.6855 119.796 -5.71675
-15.8495 128.618 -8.17154
15.3148 140.713 5.77662
-19.116 126.872 -8.52319
6.65632 141.205 -6.33781
7.68015 141.851 -6.40863
-29.1328 118.096 -2.45592
-10.7295 124.922 6.46979
-10.4994 130.807 -5.75845
-20.7111 118.263 8.14193
-24.6147 118.669 2.28569
0.62492 136.956 -4.62884
-1.08839 132.484 3.03716
-20.5982 118.46 8.23994
-23.9801 118.95 3.06719
10.5433 138.98 4.24009
-10.3839 131.207 -5.75366
11.0766 141.414 -0.217955
-6.77703 128.735 4.17886
-28.5536 118.472 -1.60171
15.9336 141.818 5.21763
5.95766 138.759 -0.967384
-26.8664 122.68 -8.33693
-8.96188 127.387 4.54554
-27.0954 122.526 -8.14633
10.3484 141.873 -1.79898
6.39441 136.942 3.80603
-27.6841 120.965 -5.43792
8.31763 139.189 1.63646
-14.0449 130.128 -7.46153
-22.5294 119.243 5.26572
14.3483 143.105 1.22487
-22.2641 125.88 -8.58647
0.136867 134.052 2.56405
12.5585 140.029 5.66254
-26.4806 119.2 0.53917
-17.7948 121.153 7.49191
-19.9542 127.586 -9.07586
-23.6979 119.373 4.12223
15.7013 143.985 1.66006
-27.4347 121.74 -5.72349
0.81643 137.996 -4.4924
-24.8286 124.133 -7.34998
-5.58076 129.992 4.71872
-21.5428 126.727 -8.64122
-24.9639 124.697 -8.50278
-10.0022 132.32 -5.68473
-4.83982 134.562 -3.86296
13.5906 141.147 5.91734
16.7706 144.524 2.7837
-16.7954 129.888 -8.68777
-27.0027 122.654 -6.08581
-22.7562 119.806 5.47436
-11.3282 132.261 -6.62492
-22.049 119.241 7.65138
-8.26965 133.318 -4.9073
11.1717 140.49 4.58062
-27.5608 121.3 -3.45941
-24.6073 124.482 -6.37992
-8.9764 133.268 -5.23525
16.0811 143.623 4.57438
4.55075 141.202 -4.91961
-25.1869 123.914 -5.81483
-12.2637 132.339 -7.36051
-22.4947 126.875 -8.43681
8.42615 140.712 1.39867
-24.0313 119.941 4.49702
-5.35255 135.007 -3.89276
11.0302 142.97 -0.0206692
-24.4685 125.185 -7.21021
-5.37263 135.016 -3.8961
8.54211 140.592 1.92765
0.68505 135.637 2.63945
-6.32574 130.554 4.65794
-9.91053 127.996 5.58553
-10.6818 133.12 -6.29022
8.39221 140.339 2.64136
1.113 136.232 2.30627
-24.2493 120.13 4.48179
-23.5296 126.451 -8.11689
-6.44449 130.682 4.68443
-12.2084 132.966 -7.55714
-14.9916 132.081 -9.20954
-28.0268 120.405 -0.749441
1.1623 136.355 2.33154
-26.8352 123.447 -5.73357
-11.1832 133.227 -6.715
-5.0265 135.603 -3.828
-10.1863 133.551 -5.9998
10.7102 143.371 -0.248134
-17.0616 122.968 8.09153
-9.56613 133.854 -5.67594
-11.3463 133.404 -6.94379
8.4885 141.64 0.886832
-17.9935 122.412 8.34065
-13.8923 125.231 7.56498
14.4169 143.134 5.32885
8.34106 142.049 -0.0571643
5.83885 140.887 -0.740358
15.1554 143.836 4.87083
-24.495 122.914 -0.845891
-7.13045 130.701 4.64603
10.3119 144.205 -1.99175
-14.8098 132.748 -9.50812
9.63436 141.233 3.61244
-15.9035 132.253 -9.67807
-15.518 124.326 7.86843
4.50781 142.143 -4.63572
-24.8029 122.799 -0.555904
-26.4355 120.686 2.03729
-18.1 122.632 8.56295
-25.6814 124.13 -4.33409
-7.38936 135.213 -4.61341
-3.1021 133.704 4.12768
-23.3951 120.889 5.8011
-24.7929 125.589 -6.03274
-7.90999 135.251 -5.10002
-23.9489 126.162 -6.08844
15.472 144.832 4.28799
9.78877 145.549 -4.47262
-10.6662 129.101 4.73499
-11.3543 127.798 6.66958
-17.7143 131.255 -8.8815
8.38764 141.421 2.87515
-24.006 126.144 -5.6666
-10.7778 129.226 4.68725
8.54661 145.36 -5.17854
-25.1642 125.449 -5.46977
1.19159 137.459 2.51685
-12.5101 134.375 -8.32587
-15.4728 133.11 -9.33536
-21.0781 121.81 7.81186
-24.1266 126.246 -5.50253
-25.8709 121.467 2.55945
13.9191 145.719 1.36928
-6.67663 132.17 4.19166
8.27823 145.47 -5.24009
8.43366 141.798 2.85062
-24.1032 126.354 -5.52916
-21.0707 129.214 -7.78933
-11.8164 134.93 -8.04487
2.91187 141.755 -3.7982
-23.719 121.408 5.94702
-19.7506 130.342 -8.01646
14.0172 144.593 4.76587
-21.7629 128.8 -6.97314
-20.5825 129.694 -7.36336
-26.1444 123.036 -0.140489
-9.38226 136.004 -6.48944
-13.5218 134.878 -9.36087
-10.6302 135.808 -7.59264
11.1942 145.352 -0.124861
-24.1274 126.814 -5.4158
-24.398 125.59 -2.99396
-23.9003 121.753 5.90171
-7.44053 132.476 3.92587
-0.829759 139.885 -3.53037
8.68769 143.054 1.90854
-25.2927 123.626 0.239212
-22.5294 128.739 -7.15914
-8.90835 131.51 4.39329
-6.23842 133.55 3.45276
-17.7934 131.792 -7.5085
8.50517 143.904 0.13099
6.61287 145.306 -5.26993
10.9417 145.815 -0.746185
-22.7106 126.832 -2.97791
-4.65585 134.648 3.4367
-11.1831 136.141 -8.10805
-5.31251 137.592 -3.70777
-25.0332 122.099 4.44376
6.03224 145.042 -5.0595
-8.04477 137.033 -5.82126
-4.66068 137.992 -3.54423
8.6496 142.823 3.12077
-23.9039 127.291 -5.0569
-28.0233 122.872 -0.754445
-25.9898 123.436 0.662935
-23.9568 126.993 -4.3613
-9.59921 131.547 4.2427
-9.44502 131.681 4.1976
-23.1125 127.781 -4.90185
-11.2229 130.528 4.4091
-20.9766 130.042 -7.02163
-22.7062 127.768 -4.34646
-15.3419 134.315 -8.968
14.6957 146.973 2.30815
-14.881 134.678 -9.07443
-26.4402 125.974 -5.15187
-8.90397 132.138 4.04634
-24.4512 126.685 -4.11564
-9.13035 137.059 -6.75766
8.95994 144.538 0.318016
14.6158 147.163 1.92823
5.71015 145.043 -4.89989
-14.4672 127.239 7.61306
-24.2292 127.614 -5.65291
-3.71335 135.527 3.68484
-11.1171 131 3.97933
-0.300454 140.884 -3.40598
-14.5728 134.929 -8.85736
-17.4763 132.406 -7.10053
-19.2094 131.487 -7.32324
-23.664 127.935 -5.3895
-6.9847 137.891 -5.42285
-25.2842 125.253 -1.68119
7.02367 146.165 -5.26153
-24.3643 126.279 -2.67183
-23.3261 128.005 -5.04224
-17.0738 133.132 -8.01535
-26.3218 126.014 -4.47123
-28.1152 123.068 -0.375126
-22.4894 129.253 -6.43651
11.3777 146.998 -1.14104
4.30477 142.332 0.00953207
12.4204 146.519 1.45074
-27.727 123.758 -0.999294
9.03723 144.567 1.39795
-5.30573 135.165 3.28049
-22.3657 123.31 6.9811
-19.7063 124.209 8.46236
-14.1089 128.337 6.75704
-23.7079 127.858 -4.47528
-25.7666 125.031 -1.03564
-25.8841 125.368 -1.88819
-24.6216 126.516 -2.68881
-24.6624 125.985 -1.52263
-16.6453 133.795 -8.0096
-25.2813 125.814 -1.82797
-15.6548 126.877 8.21187
-24.73 127.214 -4.10893
-11.4763 130.904 4.92125
-25.6317 124.3 1.05403
-27.8707 123.75 -0.587254
-26.1958 125.374 -1.87972
-18.409 132.37 -6.92233
-24.2349 126.856 -2.50972
0.745211 139.419 2.47306
-24.5841 127.387 -4.04962
9.29712 145.448 0.496123
-23.9451 127.504 -3.45733
-24.4578 123.129 5.29294
-26.2466 124.886 -0.746891
-25.5909 126.881 -4.1804
-4.61661 139.139 -3.64692
-22.7253 129.43 -5.93695
-9.41256 133.059 3.44101
-16.3219 126.667 8.37131
11.0997 144.793 4.53337
-25.8106 124.139 1.70132
-25.5765 126.55 -3.16101
9.41197 144.546 3.14375
-23.8709 128.606 -5.15596
11.7862 145.2 4.82662
-26.0397 126.212 -2.7686
4.18888 144.693 -3.78336
-23.975 127.562 -2.95812
-22.969 128.44 -3.48411
-26.802 123.243 2.7764
-5.93552 135.652 2.89834
12.1716 147.376 1.01242
-4.00698 136.676 3.33719
-5.38922 135.919 3.2354
-25.894 126.575 -2.91807
-17.1192 133.452 -6.46243
1.89535 143.243 -3.11597
-23.5526 128.723 -4.37364
-19.3244 132.343 -6.73809
-4.73509 136.262 3.51251
-15.7047 128.275 6.6451
-24.4317 126.62 -0.957035
-0.898666 141.666 -3.1443
1.19197 140.343 2.39291
8.00462 145.543 0.161098
-2.16234 138.373 2.66495
-25.1422 127.721 -3.84757
-25.7246 124.8 1.68712
13.9629 147.448 3.86577
10.4621 145.413 3.80656
6.81486 147.173 -4.62915
-24.1062 128.808 -4.68607
-23.8374 128.547 -3.7185
6.89094 145.186 -0.0367167
-25.1608 124.163 4.12766
11.9172 147.952 0.462821
-28.0076 123.824 1.22855
-23.7703 128.931 -4.29294
-5.00936 136.518 3.46962
-26.3052 126.616 -2.4513
4.7214 145.762 -3.88121
-28.2805 124.265 0.0834086
-3.75134 137.569 2.9294
-12.6996 137.722 -8.82697
-11.6251 138.358 -8.71834
2.28348 141.603 2.1371
-20.9953 125.081 7.91526
-24.7942 128.048 -3.31684
9.85801 146.377 1.64569
-22.4068 124.81 6.71102
-14.7133 135.78 -6.99175
-8.68246 139.277 -6.75259
-23.3521 128.666 -2.72331
-19.2693 132.855 -6.40943
-27.6279 124.668 0.492359
-13.5071 137.268 -8.5093
-15.7901 128.934 6.49999
-26.9578 125.682 -0.745888
-23.9317 129.123 -4.21313
-1.80507 139.142 2.63603
-7.46705 139.832 -6.02343
-0.60898 139.963 2.53107
-22.4701 130.326 -4.73167
-12.0246 131.743 5.60455
-7.18677 136.057 2.52786
-6.85774 140.041 -5.60543
-11.9013 132.501 4.14834
-23.2998 129.545 -4.08278
-14.3397 136.576 -7.65663
-23.4774 129.949 -5.07488
-4.0324 140.926 -3.71141
-16.4503 134.61 -6.02585
-4.66034 137.376 3.15992
12.2454 147.005 4.11126
-23.6333 130.375 -6.01188
-26.0718 125.745 0.820734
-3.40625 138.354 2.74892
0.926772 141.173 2.30359
1.48422 141.501 2.32659
-11.1874 138.941 -8.37777
-14.5498 136.513 -7.4431
-8.72249 139.815 -7.0184
-22.6709 130.567 -4.94787
-25.3517 125.057 3.50976
-22.5245 129.794 -2.99694
9.56989 149.016 -3.19911
-26.1013 125.955 0.715359
-27.4965 125.009 1.04658
2.69069 144.839 -2.93019
-8.5183 140.02 -6.88686
9.60567 147.179 0.939915
-7.68915 136.112 2.6445
-14.0986 137.24 -7.95815
10.1435 146.9 2.35326
9.64423 149.111 -3.02695
-25.1017 129.455 -5.21947
-21.3358 125.739 7.62324
-25.122 127.71 -1.43376
-11.1559 139.209 -8.15812
-24.4224 128.551 -2.21169
10.4905 146.759 3.34377
-25.4758 129.248 -4.9337
-0.0151137 141.021 2.37004
-27.374 125.272 1.24795
-20.6712 132.151 -4.94809
-23.56 131.156 -6.4993
-12.1748 133.212 3.71263
-26.2812 126.828 -0.611127
-27.4406 124.71 2.51796
-26.337 126.276 0.587978
-25.0178 127.759 -0.88074
13.3375 148.592 3.48985
-21.8899 131.975 -5.87734
-3.41903 141.836 -3.42788
-18.315 128.434 6.37354
-22.4909 130.906 -4.21826
-15.203 136.311 -6.4716
-23.0449 130.03 -2.95848
-22.806 130.722 -4.128
-26.0692 127.302 -0.932288
-16.4542 129.363 6.98761
-26.1428 128.099 -2.68931
-23.6186 131.465 -6.67006
-13.8217 131.696 5.4004
-23.0824 130.079 -2.96021
-28.2073 124.816 1.78883
-16.6369 129.252 7.09635
-22.8984 130.683 -3.82073
-26.0265 128.315 -2.69118
11.6368 148.998 1.09528
-21.7853 131.071 -3.08213
-21.6732 131.742 -4.25954
-0.831086 140.984 2.55012
3.8164 144.454 1.10825
-21.641 132.291 -5.31652
-26.1824 128.421 -2.78608
7.28728 148.933 -4.02757
-23.2467 131.327 -5.25557
12.1103 148.376 3.3985
-8.33207 136.687 2.45561
-21.8795 132.879 -6.68313
9.55119 148.15 0.7368
12.9561 149.021 3.22725
-22.6063 130.508 -2.49629
-22.811 130.489 -2.63978
-26.1111 128.499 -2.57729
-26.1569 128.502 -2.53617
1.14677 144.834 -2.67804
-24.3259 130.448 -4.33956
-28.9754 125.981 -0.523934
-17.2528 129.244 7.50232
10.0664 148.237 1.66009
-24.0558 131.913 -6.91254
-24.6621 126.128 4.75151
11.2385 149.446 0.648531
-27.4586 128.789 -4.4602
-28.9392 125.748 0.205448
-28.6746 125.799 0.500216
-27.3681 127.971 -2.30724
-25.1085 130.567 -4.96761
1.03731 145.067 -2.61878
-27.2309 125.881 2.43592
-22.1236 131.167 -2.36261
-27.2384 126.185 1.80944
-22.5915 130.878 -2.32185
-17.0335 129.9 6.90433
-5.15014 138.859 2.9405
10.9656 149.65 0.399002
-25.5045 130.88 -5.90458
-21.7039 127.979 5.22192
-5.25522 138.841 2.94978
-26.0784 130.041 -4.74642
-3.72372 139.82 2.8484
-27.0704 126.755 1.32893
-21.5245 132.475 -3.82133
-29.439 126.708 -1.55536
-27.2565 125.553 3.76037
-22.2767 127.779 5.35518
-22.2931 131.976 -3.67434
-29.1096 125.897 0.991157
-22.2881 133.74 -7.11793
-8.30993 138.021 1.69978
-29.9137 126.195 -0.456977
-22.6223 131.845 -3.264
-6.98921 138.527 2.46157
-29.9341 125.503 1.13993
-26.2396 126.841 2.99602
-14.6906 132.434 5.7758
-17.9404 130.473 5.9575
-25.4244 131.184 -5.09308
-24.6988 131.871 -5.63183
-20.4808 133.511 -3.64501
4.79524 146.357 1.11815
-23.2181 128.074 4.62054
-5.92834 139.154 2.95898
-27.1194 129.99 -4.35477
-5.85144 143.164 -5.43533
-27.6409 126.334 2.89768
-11.7446 135.745 3.07017
-22.5159 132.252 -3.14766
-9.41288 137.673 1.9801
-28.9283 126.283 1.51249
-21.8136 132.849 -3.4379
-25.0797 127.014 4.92461
-11.7436 135.864 2.99006
-22.6112 132.165 -2.87676
-26.3399 126.819 3.85717
-27.1299 126.078 4.44687
-18.646 130.537 5.73481
-19.9606 134.071 -3.53443
-24.9308 127.175 4.9246
2.8268 147.078 -2.31786
-16.8098 131.384 6.28043
-22.6584 133.926 -6.59949
-11.7885 135.974 2.9152
-10.0519 137.389 2.10488
3.00417 145.186 2.10321
-29.3659 127.949 -2.27243
9.33874 150.669 -1.47529
-27.9534 130.416 -5.66368
-22.2862 132.543 -2.92497
-5.58227 139.838 2.85098
1.80754 144.431 2.48084
-20.902 133.301 -2.65222
-24.384 127.597 5.15864
-15.7025 137.871 -5.75001
-25.0133 131.672 -4.32174
-2.82142 144.485 -3.41291
-25.4355 131.761 -5.00089
-25.7478 131.642 -5.12506
-12.6097 135.622 3.13106
-1.09629 145.342 -2.95771
-30.3316 125.469 2.34947
11.2737 150.193 2.5776
-22.8201 134.084 -6.39275
-22.9822 132.246 -2.65168
-23.7426 133.474 -6.13761
6.50017 148.377 0.543607
-8.60438 138.91 1.57385
-15.2117 133.221 5.34892
-20.3516 133.912 -2.68699
-24.4943 128.105 4.4863
-12.6844 135.882 2.95441
-4.50205 144.126 -4.2857
-24.5172 132.886 -5.71961
6.01581 148.084 0.698235
6.05551 148.12 0.672759
-12.4837 136.102 2.84227
-12.35 136.224 2.79375
-5.26167 140.476 2.75027
-1.25027 145.564 -2.96917
10.0493 150.982 -0.133896
-28.6096 130.669 -5.94645
-25.8735 131.518 -4.15072
-0.831198 145.839 -2.86549
-19.92 134.781 -3.52056
-20.7845 134.838 -4.67311
-18.6358 131.159 6.04377
-20.2759 133.992 -2.10198
-11.2229 137.412 2.17623
-24.4028 128.24 5.09512
-24.4904 132.902 -4.96239
-21.0898 134.894 -4.8178
-30.0844 126.085 2.61815
8.43625 151.274 -2.1117
7.37237 149.455 0.540252
-30.9694 126.617 0.720459
-6.42871 144.46 -6.18075
-22.5573 129.559 5.19716
-7.04943 144.24 -6.48389
-9.82529 142.626 -6.5656
10.1577 151.47 0.0131603
10.5921 151.639 0.284715
10.5754 150.982 1.70387
5.33693 148.036 1.39372
-18.9657 131.551 5.71919
-20.9281 130.776 4.87952
-22.3499 133.381 -2.48485
-16.8577 137.53 -4.35735
-27.4348 126.963 4.83558
1.35045 147.475 -2.39119
0.281214 144.479 2.74987
-3.94565 142.161 2.47082
3.45608 148.683 -2.0524
-29.9055 126.201 3.56551
-28.5685 126.524 4.73288
3.2406 148.654 -2.07444
-26.4139 127.785 4.84487
-19.9647 135.134 -2.631
-23.0739 134.968 -6.23119
-28.864 127.307 2.92341
-3.29666 145.68 -3.78642
11.1414 151.972 1.25452
5.12725 148.2 1.70832
-3.95971 145.475 -4.04427
-29.7378 130.387 -4.58883
-7.74466 144.443 -6.63163
-31.0477 128.113 -1.35948
-5.59043 145.124 -5.32891
8.71947 151.913 -1.59851
-12.234 141.899 -6.8231
8.45635 151.988 -1.97065
-15.1669 139.98 -6.32878
-15.554 134.308 5.40788
-14.2875 135.791 3.9621
-19.5087 132.073 5.34792
-26.9222 128.235 4.13785
-31.2907 127.931 -0.778691
-3.71275 142.935 2.28596
5.44593 148.75 1.64163
7.98711 152.129 -2.33727
-26.2024 132.47 -3.75539
-6.91419 141.137 2.32133
-2.48281 143.793 2.31782
-3.1631 143.411 2.27271
4.62152 149.988 -1.86439
-22.9289 129.661 6.59934
-31.5843 127.305 0.611894
-19.4713 135.681 -1.84578
-31.6627 127.235 0.771317
1.76017 146.229 2.76768
-2.97337 143.7 2.23731
-5.42973 145.748 -5.2948
-15.606 134.766 5.37417
-27.3649 132.182 -4.11479
-23.23 135.642 -6.24213
-19.8753 136.738 -4.2946
-12.3928 142.253 -6.5381
-26.6467 128.188 5.46669
-6.36622 141.755 2.31798
-27.913 127.56 5.3373
-28.9708 131.465 -4.3558
-4.81738 146.063 -4.76649
-18.0253 137.384 -2.91344
-18.8121 132.796 5.9934
-15.9219 139.935 -5.57135
-25.0465 128.885 6.4945
8.69158 152.712 -1.51428
-1.46945 144.903 2.27005
-30.9951 127.159 2.64072
-2.11309 147.176 -3.38423
-26.8428 128.251 5.72987
-1.80853 147.359 -3.26822
-31.8038 127.384 1.27749
-31.8026 127.889 0.204757
4.77476 148.627 2.48387
-18.2342 137.761 -3.47552
-20.7366 131.812 6.1118
-15.67 140.68 -6.34985
-21.5533 136.957 -5.84065
-27.0674 128.235 5.97032
-0.668747 148.055 -2.83431
-1.60887 145.177 2.23566
-30.9104 130.023 -2.59602
-3.27631 144.198 2.46769
-15.586 135.588 5.2333
10.3212 153.257 0.456364
8.58998 152.135 0.675269
-20.923 137.475 -5.56771
10.4031 153.09 1.00953
-25.596 134.247 -4.47073
-18.8953 137.258 -2.27151
-18.527 137.806 -2.78628
-26.0911 133.859 -3.97993
-31.6717 128.806 -0.252702
-2.83728 147.605 -3.73327
-9.23508 145.136 -6.55196
-14.5528 137.12 3.87709
-27.3008 132.675 -2.85744
-17.9098 138.976 -4.34108
-18.9318 137.866 -3.24323
-2.95173 147.695 -3.79233
-30.7189 130.388 -2.08914
-13.5092 142.445 -5.95108
-8.66661 140.895 3.65772
-30.1155 127.825 4.37195
-17.8507 139.444 -4.84176
-30.4268 127.812 4.07525
-11.662 139.925 2.1146
-18.0363 139.271 -4.543
-11.153 140.044 2.60654
-18.0215 134.227 6.35279
-18.5516 138.482 -3.41049
-17.1775 139.763 -4.39779
6.9972 152.753 -1.36375
-17.5401 139.945 -5.2262
-14.8905 137.121 4.40849
3.48263 151.072 -2.01662
-3.28255 147.957 -3.96305
-5.18707 147.446 -5.07795
-12.563 143.324 -5.58672
-6.78961 142.386 3.87728
-7.8312 141.859 3.69493
-29.5847 131.58 -2.04904
-5.915 142.847 4.06988
-17.9999 134.693 6.30858
-30.8321 128.486 3.22919
-9.61341 140.882 3.77641
-22.0621 138.08 -5.78269
-0.208514 149.75 -2.88747
-27.675 129.398 5.85144
-25.8671 130.524 5.89616
-29.6989 129.028 4.39361
-17.3678 139.859 -3.08006
-15.4822 137.263 4.97625
0.742326 150.514 -2.67971
-8.76379 146.648 -6.46872
-19.7395 138.939 -3.82873
-20.1133 134.187 5.90307
-27.6956 130.009 5.27926
-29.2029 132.38 -1.71841
-19.4013 139.058 -3.49195
-21.141 133.908 5.43654
-23.985 137.363 -5.55295
-19.298 139.288 -3.66778
-20.4834 134.227 5.6968
-19.0642 139.283 -3.30862
-24.3207 137.097 -5.23196
-27.279 130.629 5.49682
-24.3647 137.359 -5.09091
-12.3339 144.808 -5.69275
-28.6468 133.482 -1.82435
6.13664 154.004 -1.30898
-25.5767 131.236 7.08164
-29.4431 132.897 -1.38345
-30.0556 130.327 3.36042
-30.3737 130.249 3.14288
-22.5875 133.783 5.70305
-27.5182 131.793 3.70724
-9.70678 141.987 4.62311
-16.7765 141.48 -3.31374
-17.9402 140.956 -3.56719
1.66016 152.175 -2.34556
-28.5359 131.8 2.85273
-10.5387 146.795 -6.19588
-16.7372 141.828 -3.43164
-24.9348 132.319 6.54125
-27.8645 132.239 3.00067
-8.67593 147.981 -6.1866
-0.639726 151.367 -3.02233
-24.0316 133.079 6.37388
-29.0471 133.954 -1.60654
-11.8875 146.129 -5.77477
-28.5555 134.598 -2.16974
3.86309 153.77 -1.7165
-26.1429 132.433 5.81116
-29.0117 134.373 -1.73719
-3.11463 150.749 -3.7685
4.58807 154.319 -1.54068
-16.352 142.474 -2.63752
-24.3923 133.984 5.50354
-1.28005 151.832 -3.08422
-22.7318 139.28 -3.4509
6.61517 155.13 0.135965
-21.2926 140.17 -3.3253
-20.7731 136.091 6.10858
-9.094 143.852 4.43643
-30.4146 133.672 -0.898734
-16.981 138.844 5.32559
-29.4555 134.576 -1.44344
-15.7559 143.562 -3.19565
-9.7551 148.514 -6.1262
-5.75353 150.319 -4.80409
-30.2811 132.749 1.56563
-26.8924 134.601 2.09097
-25.059 138.517 -3.94044
-26.4637 134.838 2.25064
-28.4342 135.66 -1.79825
-16.2213 144.127 -4.32286
-24.9793 138.656 -3.75558
-29.3602 133.679 1.45369
-19.456 137.462 6.59864
-30.1815 133.917 0.530026
-9.41349 149.244 -5.82392
-16.8788 139.89 4.73588
-6.30861 150.738 -4.89113
-19.4446 137.581 6.56938
-26.1861 135.418 2.60881
-26.2782 135.459 2.52351
-16.4223 144.648 -4.5751
-17.3655 139.092 6.24201
-29.0107 135.795 -1.21668
-16.4755 140.645 4.59182
-27.7435 135.633 1.20196
-9.11749 145.236 4.47154
-15.9993 141.078 4.62649
-10.5351 144.528 4.20576
-17.7152 139.244 6.457
-17.5947 139.431 6.25176
-19.5599 142.708 -3.19811
-16.9941 140.483 4.90528
-18.1873 139.052 6.50994
-9.38135 149.934 -5.54422
-12.1283 144.08 3.59102
-27.025 136.016 1.88152
-6.9008 151.099 -4.75873
-5.30926 151.701 -3.99328
-9.19466 150.092 -5.46899
-16.1907 144.919 -2.5679
-12.1348 144.563 3.40705
-3.03526 152.928 -2.86984
-25.0711 137.013 3.15909
-19.0579 143.296 -2.63204
-19.2397 143.296 -2.72918
-29.5001 135.996 -0.113461
-10.1341 150.009 -5.33124
-13.2855 144.111 3.50862
-16.3716 141.701 4.75641
-15.9278 141.984 4.80174
-22.7917 137.773 5.07965
-15.6816 146.09 -3.61091
-10.376 145.857 3.80049
-12.6307 144.729 3.34564
-16.3224 145.567 -2.94131
-16.5265 145.137 -1.75979
-27.1075 138.421 -0.499653
-22.8908 141.769 -2.23289
-8.98707 151.204 -4.65456
-9.15014 146.957 4.30183
-21.2253 143.007 -2.59463
-11.229 146.238 3.46763
-24.1836 138.522 3.9062
-3.2106 154.017 -2.16207
-8.75258 151.553 -3.84437
-9.89699 151.252 -4.4425
-16.2398 146.181 -1.64567
-14.7308 148.202 -3.71972
-6.05469 153.006 -2.8307
-12.0929 146.243 4.0605
-10.6826 147.339 3.66478
-9.4696 148.005 4.07786
-19.4763 145.052 -2.22852
-16.4603 146.771 -1.46586
-20.0193 141.099 6.19356
-20.0761 144.949 -2.09055
-6.26752 153.275 -2.12973
-20.3688 141.177 6.1517
-20.0559 141.401 6.16519
-9.85614 148.593 4.13028
-26.0946 141.131 -0.53492
-10.4603 151.853 -3.12217
-24.4309 139.936 4.72561
-21.592 144.631 -1.67662
-19.4047 146.019 -1.70882
-18.5277 142.903 6.26049
-7.50657 153.196 -1.72109
-15.7788 145.165 5.03326
-25.0903 142.301 -0.400411
-26.1326 140.018 3.199
-25.7942 140.229 3.48678
-15.7041 145.543 5.07017
-25.1996 140.378 4.04648
-9.33152 152.418 -1.50981
-23.2217 141.082 5.21256
-23.6292 143.5 -0.428217
-22.0151 144.909 -1.1369
-18.9878 146.851 -1.24755
-24.0572 141.347 4.4807
-13.9977 150.635 -2.56508
-19.1961 146.9 -1.14023
-16.5817 145.499 5.30012
-25.5035 141.509 2.81902
-6.24901 154.526 -0.343334
-21.4742 145.742 -0.83314
-14.234 147.684 4.76157
-24.312 143.689 0.62172
-9.61509 152.825 0.280737
-10.6945 152.508 0.114137
-17.2989 148.441 0.449053
-24.7737 143.326 1.87631
-20.2943 144.131 6.03604
-17.9319 148.25 0.218188
-12.0339 152.236 -0.575046
-8.13132 153.835 1.04077
-17.1933 148.746 0.52192
-16.7702 149.272 0.207044
-10.6224 151.706 2.9407
-11.9945 152.246 0.0590208
-12.0714 150.608 3.75408
-22.4574 144.288 4.39612
-23.4364 144.27 3.24498
-16.4723 147.329 5.59624
-16.3235 150.158 -0.245803
-14.3592 151.37 -0.315411
-23.3929 144.928 2.13816
-20.3444 147.74 0.27642
-16.4841 147.754 5.27676
-23.5866 144.793 2.60895
-11.8268 152.285 1.60886
-18.9543 148.546 0.528655
-22.0286 144.927 4.5543
-14.6372 149.386 4.62708
-17.6487 149.306 1.04924
-21.6018 145.27 4.72519
-13.762 151.845 0.717561
-22.9317 145.517 2.60333
