ply
format ascii 1.0
comment Created by Open3D
element vertex 1844
property double x
property double y
property double z
end_header
1.58477 133.004 -0.0564951
0.548052 128.633 -0.0258403
-9.38775 108.605 -12.5863
-2.58146 108.091 4.27696
-1.56359 119.852 -0.0242579
-1.30553 108.322 7.26783
-2.50534 108.129 4.47407
-3.88547 108.972 0.637784
0.0653819 127.015 -0.108339
-2.1464 126.172 -4.97349
-1.41123 107.803 7.4395
0.698762 129.935 -0.207971
-4.0244 108.813 0.527361
-1.90091 109.596 5.25886
-0.0541764 126.695 -0.112326
-2.43361 117.432 -0.519326
-4.22429 107.702 0.758743
-2.10153 109.21 5.08426
2.72939 144.119 -3.25979
-9.08592 86.5454 1.24886
2.12118 135.058 0.587424
-9.71272 84.3555 1.08847
-13.9883 89.2867 -12.151
-2.16952 105.568 7.4466
-4.5972 121.349 -7.54598
-9.32013 86.8051 0.977154
-9.9628 107.796 -12.5444
-4.74966 108.239 -0.114984
-4.89829 107.16 0.196898
2.20077 143.134 -3.30033
-15.3896 84.9992 -12.3983
0.574826 137.068 -3.62955
-5.04731 106.806 0.228428
-2.45154 104.899 7.64426
-16.5354 81.6842 -13.2074
-6.82016 116.818 -9.86162
-10.5229 104.76 -11.8059
-10.5107 83.6731 0.417365
-13.5638 93.1667 -12.3755
-0.946587 131.455 -3.53696
-2.78168 126.468 -5.1185
-7.72007 115.265 -10.618
-9.36715 87.9481 1.15656
-10.8588 104.124 -11.7322
4.94264 154.104 -2.04896
-1.85689 122.698 -0.416017
-1.53547 124.115 -0.451967
-4.10889 114.443 -1.09484
-1.7058 129.5 -3.90289
2.86159 147.064 -2.93248
-4.65959 99.8914 6.04009
-1.31605 125.426 -0.538252
-16.4085 83.5299 -13.0556
-5.6551 120.531 -8.26163
-13.0387 95.759 -11.8923
-13.7858 93.3002 -12.2673
-4.22594 114.429 -1.18091
2.07675 138.294 0.389584
3.14721 142.22 0.83544
-2.58114 120.896 -0.757748
-4.57146 101.009 5.90205
-14.1477 92.1731 -12.26
-3.11673 119.113 -0.881294
-4.85281 99.9745 5.99806
-10.1385 87.1538 0.624311
-4.61738 113.896 -1.37018
-8.83189 90.3291 2.03026
-7.56274 116.833 -10.0941
4.28444 153.664 -2.54514
-6.40079 119.554 -8.80553
-3.98104 103.621 6.28542
-16.0457 85.4304 -12.4583
-4.95774 105.033 3.24436
-13.1593 82.6753 -3.76314
-1.2112 132.384 -3.29869
-1.87568 125.119 -0.677523
-10.5024 87.0586 0.410144
-9.93661 110.566 -11.7846
2.101 145.74 -2.80183
4.25233 146.958 1.77907
-2.02646 125.12 -0.725179
-2.21757 124.327 -0.690674
-5.40914 112.674 -1.70412
-5.34638 113.176 -1.70727
-14.9845 90.7804 -12.2139
-6.43643 120.476 -8.49868
-8.314 115.969 -10.399
-0.629186 130.793 -0.256731
-1.95997 126.253 -0.841795
-15.0405 90.8338 -12.182
-12.3748 100.212 -11.0936
-17.0841 84.0249 -13.1864
1.87935 140.023 0.720973
-7.65859 118.169 -9.7719
-3.53573 120.44 -1.04051
-11.6804 105.231 -12.0589
-11.4732 85.8989 -0.166395
-8.34336 116.525 -10.2202
3.68607 146.953 1.76973
-8.01832 117.84 -9.86363
-2.10329 127.103 -0.732095
-5.09588 115.818 -1.4903
-6.40793 98.5201 5.38885
2.23011 149.407 -2.94129
-11.8013 84.434 0.456119
-11.7406 84.9183 0.328124
-8.18237 104.895 -2.45982
-7.28607 108.37 -2.27278
-8.28098 93.7676 3.79871
2.12853 149.455 -2.94393
-8.08873 105.625 -2.44021
1.3585 145.882 -2.70116
-2.9292 124.836 -0.975509
-7.30496 108.666 -2.25971
-9.72503 113.206 -10.7612
-0.100464 140.433 -3.03563
2.85713 153.103 -3.15049
3.66583 149.239 1.31644
0.681366 138.05 0.660169
-8.18854 106.224 -2.46902
2.05909 143.142 1.18324
-12.5121 104.843 -12.0987
-1.97808 128.989 -0.367422
-9.02128 102.754 -2.31027
-12.3958 84.6563 -0.0242196
-2.78595 126.427 -0.744558
-10.5182 90.5701 1.31502
-9.95443 113.672 -10.5941
-0.941139 133.092 0.162104
-12.3821 84.8287 0.230488
-10.5005 90.8178 1.35044
-2.56418 131.915 -3.02643
-18.7222 80.7744 -12.7765
-10.4265 91.1444 1.42123
-12.892 84.6043 -0.790402
-12.5747 106.225 -12.4757
-6.43812 101.005 5.50332
-17.3314 85.5849 -12.0078
-2.16903 133.549 -2.81477
-2.64991 131.945 -3.03168
-16.039 90.5955 -11.7212
-8.92078 104.354 -2.29482
-4.06901 128.596 -4.44451
-6.77835 122.51 -7.51538
-6.71302 99.9282 5.70078
-10.6767 112.483 -11.1703
-8.37511 103.122 -0.15174
-15.2733 94.0069 -11.6473
-2.15207 133.927 -2.76649
-0.774611 140.172 -2.96586
-6.4339 103.472 4.52905
-9.91016 93.0131 2.13266
0.495425 139.029 0.953865
-6.70758 101.258 5.45767
-8.07382 96.5077 4.89324
-5.14399 119.705 -1.36997
-15.5866 93.3913 -11.5459
-16.962 87.1764 -11.2724
1.04138 148.812 -3.01066
-9.64146 116.196 -10.1223
-1.53567 137.568 -2.68888
-11.8823 89.1255 0.159155
-2.09727 131.055 -0.151734
0.517239 140.014 1.15888
-5.60744 126.06 -5.61672
-12.7624 108.035 -12.4805
-1.1439 134.515 0.608338
-8.32252 102.877 1.43965
-9.25725 102.727 -0.712132
-9.35193 95.0939 3.48294
-18.5721 84.9415 -12.9875
-6.64887 115.787 -1.73177
-0.122341 144.521 -2.39003
-9.47664 95.1163 3.39305
-0.693657 142.386 -2.46402
-1.26142 134.743 0.665507
-14.9806 96.9449 -10.7705
-14.4261 86.4618 -3.34068
-2.74263 134.418 -2.5475
0.672859 149.613 -3.00823
-12.9357 108.715 -12.4144
-13.4446 86.8895 -0.982926
-10.128 101.357 -1.26045
-2.62087 130.723 0.065252
-12.9374 108.956 -12.3904
-3.46349 132.668 -2.98074
-10.8268 99.8574 -1.87555
-11.0618 93.2649 1.52779
-7.47861 114.431 -1.88732
-15.9747 94.7936 -11.1919
-10.4276 101.025 -1.21211
-18.2037 86.1607 -11.5306
-19.1969 84.3604 -12.8464
-1.23937 136.389 0.810886
-9.77334 102.283 -0.224391
-0.076029 140.274 1.49207
-9.48995 102.393 0.650012
-2.84456 131.069 0.368575
-16.5095 93.1342 -10.8775
-8.82691 98.9994 4.42967
-10.7784 102.968 -2.54529
-5.48036 128.097 -4.09826
-15.4116 97.4407 -10.5494
-3.26006 130.086 0.241539
-6.95635 124.856 -5.72366
-14.103 106.603 -12.5484
-10.9887 102.606 -2.63756
-2.12192 133.212 1.2996
-8.16005 101.436 4.9688
-2.64363 131.933 0.840437
-0.593879 147.021 -2.8772
-7.50025 124.087 -6.39599
-8.5947 112.129 -2.08729
-0.0468042 141.745 1.60406
-9.55256 96.8214 4.46523
-8.39458 101.998 4.31913
-18.9529 86.0281 -12.0438
-7.30571 124.534 -5.94022
-14.8023 87.3104 -2.65348
-8.55172 102.407 3.85554
-2.19239 140.202 -2.43088
-8.03815 114.503 -1.80271
-13.8416 89.4909 -1.4238
-19.797 83.4553 -12.3408
-15.2444 99.5799 -10.5441
-8.61857 100.668 4.9965
-1.93138 141.705 -2.42195
0.865855 153.552 -2.36149
-8.86108 121.637 -7.57544
-14.4736 88.0659 -1.7024
-20.3257 81.7294 -12.2719
-3.93908 134.227 -2.68986
-12.7796 91.9977 0.196388
-1.48546 137.47 1.41941
-4.13527 133.738 -2.82988
-16.67 94.6554 -10.6917
-7.55648 117.653 -1.55737
-5.37486 124.802 -0.375856
-10.5861 118.031 -9.10559
-11.2438 94.9494 2.67955
-12.6505 92.4574 0.715693
-17.0827 93.3262 -10.5531
-14.6027 86.5605 -0.569725
-9.56286 99.1092 4.44542
-13.3845 111.054 -11.723
-18.161 89.2771 -10.7592
-9.99151 101.891 1.90994
0.575587 146.966 1.69627
-0.903594 151.078 -4.26687
-9.59938 99.5409 4.37188
-16.318 96.8173 -10.3879
-18.7106 87.2986 -10.605
-6.10587 128.438 -3.66063
-14.7915 87.8608 -1.28484
-9.36507 101.684 3.99809
-12.7521 99.4855 -2.94195
-15.9907 99.1034 -10.4273
-14.3317 90.2639 -1.23818
-20.2883 84.7718 -12.527
-9.51758 101.53 4.04122
-10.004 110.239 -2.15804
-20.3375 84.843 -12.5629
-13.4122 97.6143 -3.08463
-10.3076 97.5946 4.55184
-9.90047 120.481 -7.64
-9.19836 113.445 -1.80501
-15.022 107.579 -12.505
-13.0205 112.705 -10.582
-14.6913 89.8959 -1.47393
-13.8521 88.3248 1.49839
0.0857672 146.308 1.93093
-6.47875 128.485 -3.55352
-10.757 97.2132 4.13698
-14.0588 89.2944 0.703036
-7.75313 125.745 -5.0074
-15.5584 88.5497 -2.50121
-1.72218 148.814 -3.62536
-15.2902 89.293 -2.18096
-10.2365 120.141 -7.6897
-0.827531 152.549 -3.50928
-0.547805 153.017 -3.05183
-12.0571 99.2354 0.0472104
-14.1029 87.198 2.09338
-12.7844 98.0651 -0.967117
-11.7333 100.164 0.383521
-8.2163 118.004 -1.28892
-14.6989 89.0304 -0.213224
-1.95452 138.617 2.17528
-12.8473 97.9674 -0.774377
-7.45445 120.763 -0.788625
-2.36907 145.994 -2.95654
-15.8275 86.4635 -1.27477
-0.197918 153.991 -2.20132
-3.81032 139.018 -2.30387
-20.835 85.5309 -12.8267
-11.7719 105.01 -1.99914
-2.03481 138.765 2.2908
-10.4021 100.877 3.82369
-15.7306 106.872 -12.5571
-6.59528 124.026 -0.223425
-2.52718 145.956 -2.99124
-15.2144 89.8296 -1.41864
-21.1697 82.6362 -11.7369
-8.29962 125.225 -5.02247
-2.34018 147.82 -3.5126
-2.31912 138.134 2.18759
-15.8551 88.051 -1.79381
-13.4579 97.3352 -1.29933
-19.7588 87.0353 -10.675
-7.80779 126.817 -4.56632
-6.00223 126.238 0.227375
-3.7708 132.765 1.90954
-19.2305 88.8801 -10.3372
-15.9859 87.6032 -1.62573
-8.98696 124.117 -5.64757
-15.197 88.3249 -0.0814559
-7.99459 120.127 -0.79053
-0.88545 145.11 2.10642
-15.8159 88.2775 -1.31182
-2.77063 146.761 -3.33131
-14.884 90.2548 -0.157934
-13.1295 101.737 -2.51864
-17.0387 99.1275 -10.5119
-10.9354 109.724 -1.76084
-3.55248 141.551 -2.1662
-14.5815 96.4263 -2.86208
-14.0167 98.232 -2.5223
-13.5325 113.266 -9.9931
-1.76784 141.624 2.28318
-15.945 88.1259 -1.29026
-11.7004 117.918 -8.11765
-14.0386 112.144 -10.4522
-15.2237 86.8045 1.3078
-7.39276 122.649 -0.29252
-4.43194 131.333 1.89895
-6.93988 129.584 -3.06995
-22.066 81.6591 -12.171
-17.0157 102.73 -12.0472
-11.0999 119.662 -7.34418
-3.17528 145.93 -3.17934
-13.1376 94.2414 2.44421
-15.638 86.5098 0.82709
-13.3397 101.824 -2.42054
-21.2683 85.7387 -12.2631
-9.46789 116.045 -1.05847
-15.7878 108.833 -12.1934
-4.15446 140.178 -1.99628
-13.4208 101.89 -2.37639
-2.59854 151.08 -4.42274
-13.4507 101.828 -2.37676
-3.79371 134.764 2.2359
-6.28696 133.113 -2.85666
-7.4348 128.927 -3.18633
-12.4347 99.8545 1.44239
-14.9569 96.1517 -2.45369
-15.3273 92.1851 -0.84391
-15.8351 89.7059 -0.602431
-14.7362 94.8775 -0.848258
-7.40122 129.659 -3.03201
-12.2183 99.5876 2.64108
-18.9879 93.9673 -10.56
-22.0479 82.7064 -11.4957
-1.25518 154.205 -2.19986
-11.2132 120.318 -6.74365
-16.7082 107.135 -12.4691
-10.6892 112.576 -0.909444
-8.20446 127.967 -3.71361
-3.50506 149.391 -4.59103
-7.18922 125.01 0.565413
-19.864 90.9603 -10.5826
-6.72849 132.749 -2.72349
-7.26417 130.659 -2.81783
-14.6815 98.1117 -2.03911
-4.71276 139.842 -1.87056
-14.9685 95.0593 -0.950379
-16.9215 88.9558 -2.16978
-14.4155 99.8466 -2.35477
-13.4189 98.1142 1.08159
-1.58874 146.266 2.08395
-1.65077 148.111 1.06459
-4.29347 143.67 -2.7864
-12.8793 96.6975 3.51486
-12.7131 99.2016 2.48128
-15.2233 91.6448 0.769226
-12.7478 99.1891 2.44825
-15.5243 92.6862 -0.51769
-16.2625 85.8997 1.66433
-1.58146 154.308 -2.09406
-14.4709 113.045 -9.56921
-3.77133 137.204 2.55814
-21.3044 86.5786 -10.8264
-10.5752 113.983 -0.457584
-8.57821 127.936 -3.65057
-1.87595 146.106 2.17014
-18.095 84.8505 -1.90039
-20.5257 89.9271 -10.7408
-19.0535 95.1979 -10.1488
-16.0518 90.0108 0.159523
-9.51264 118.085 -0.0478315
-5.89914 129.782 1.99052
-9.90021 116.791 -0.233147
-4.99241 141.413 -2.48756
-21.898 86.011 -11.5059
-11.1846 111.696 -0.224329
-5.4137 139.173 -1.91005
-18.8511 97.4244 -10.4412
-5.46653 139.211 -1.97769
-7.41942 125.806 1.01958
-8.61696 121.677 0.534164
-23.1446 81.8663 -11.8114
-20.1702 92.2315 -10.4053
-15.4601 92.2006 1.08814
-13.9166 115.317 -8.48827
-23.5002 81.6998 -12.355
-19.1759 83.121 -2.58498
-18.0952 104.287 -12.0022
-16.8497 91.6277 -1.58973
-15.6625 95.0581 -0.575255
-2.64434 144.903 2.35513
-16.1197 92.8456 -0.360412
-15.9586 93.6798 -0.432013
-21.1099 89.8776 -10.7527
-15.8157 95.2179 -0.89409
-5.53139 132.624 2.53517
-11.0412 113.627 0.185351
-7.53446 133.083 -2.43866
-6.93673 135.553 -2.39373
-5.15392 144.938 -3.45642
-3.10903 143.382 2.48448
-8.27008 124.169 1.14899
-5.54279 143.113 -3.1293
-22.77 85.7637 -11.8895
-15.4638 98.7794 -1.62861
-18.1765 87.0452 -1.37715
-3.31629 142.891 2.60532
-14.1646 96.5133 3.0691
-17.5063 90.7084 -1.66276
-14.6892 95.387 2.62675
-15.0319 94.6627 2.2606
-16.1319 92.3394 1.06403
-23.4482 84.3986 -12.0859
-3.43072 153.159 -3.08933
-12.5948 120.185 -6.20421
-16.8172 94.748 -1.75107
-16.8044 110.345 -10.7181
-20.5476 93.9646 -10.3537
-16.4435 94.9836 -0.957854
-15.906 97.7957 -1.25574
-19.5083 99.4723 -10.9179
-5.4592 147.677 -4.56931
-16.8866 110.284 -10.7451
-5.3854 148.75 -4.96289
-16.574 94.3978 -0.663775
-21.6552 90.456 -10.6818
-3.25221 145.374 2.44432
-3.33251 144.958 2.55228
-16.9977 91.5661 0.199912
-20.3948 95.7764 -10.4139
-13.8093 117.886 -7.06729
-11.7271 112.988 0.833773
-18.0635 90.1418 -1.26938
-17.1947 93.0016 -0.665245
-6.43247 131.677 3.22352
-16.6785 94.6791 -0.286165
-19.4597 102.72 -11.6734
-10.162 119.369 1.35075
-10.1747 119.329 1.34365
-5.76701 149.251 -5.14876
-12.166 122.484 -5.23662
-13.7151 118.644 -6.67512
-19.1145 86.1808 -0.912517
-18.7474 86.7902 -0.364928
-18.8579 86.0956 -0.221968
-18.373 90.0868 -1.31556
-19.693 83.312 -0.520898
-6.37093 145.675 -4.12544
-6.29428 133.423 3.1475
-7.19012 141.288 -3.54847
-10.3391 127.898 -3.4165
-18.9973 85.4795 0.0924185
-5.95076 149.638 -5.18524
-20.0083 101.215 -11.4148
-12.2161 112.121 1.24422
-19.1605 87.0349 -1.16061
-16.7805 93.9642 0.65032
-19.4865 86.2749 -1.48245
-13.2694 120.287 -5.9755
-16.7454 93.3459 1.136
-12.9756 108.132 1.77405
-17.6322 93.6182 -1.15451
-16.7851 93.9938 0.717174
-7.70124 137.541 -2.32899
-17.056 94.9593 -0.474428
-19.6176 86.5881 -1.85045
-18.2378 88.0693 0.652205
-16.8758 91.4135 2.04801
-15.8632 100.932 -0.981298
-18.2158 88.6023 0.418563
-14.6166 105.141 -0.236121
-17.6057 88.8972 1.90131
-19.1285 88.0246 -1.27058
-19.781 86.6586 -2.0683
-12.0281 113.638 1.21456
-19.1527 106.601 -12.0411
-4.11242 153.595 -2.59367
-17.291 91.5921 1.19973
-4.10376 145.645 2.07909
-24.418 83.3716 -11.328
-10.1815 120.313 1.98838
-20.4024 99.3989 -10.7894
-9.81035 130.078 -2.73658
-18.2846 88.9713 0.43267
-20.0499 102.463 -11.6263
-18.6926 86.5324 0.875496
-4.35699 147.431 0.581724
-18.1952 87.5935 1.47864
-15.3655 115.615 -7.77411
-17.7369 89.6772 1.4419
-20.2006 85.1817 -1.9483
-20.8048 98.3394 -10.8372
-17.3142 90.533 2.1645
-12.2437 113.329 1.37637
-14.1061 118.988 -6.4159
-8.16974 136.727 -2.20818
-19.5345 88.4801 -1.76133
-17.2323 91.3491 2.24068
-20.0745 83.0821 0.102198
-15.9464 101.579 -0.468774
-20.1393 83.0367 0.0524802
-17.4351 94.9756 -0.157997
-7.36481 143.523 -3.65338
-22.6861 91.2715 -10.6694
-18.4804 91.6162 -0.628546
-6.69034 134.252 3.47976
-12.5789 123.634 -4.68243
-7.33881 144.191 -3.77962
-15.6106 103.22 -0.203897
-16.5003 114.219 -8.71886
-20.682 101.138 -11.2718
-8.62982 138.659 -3.62223
-7.05331 148.453 -5.41601
-8.64609 127.602 2.77273
-17.4352 91.7921 2.1511
-4.13484 154.545 -1.71509
-6.83239 134.306 3.59283
-13.0072 122.925 -4.8095
-23.3473 89.0731 -10.3844
-18.1783 94.418 -0.803001
-8.53828 140.797 -4.13192
-8.91082 136.574 -2.57718
-6.20709 137.78 3.38012
-21.1088 99.481 -10.745
-15.8936 116.293 -7.60709
-17.5365 94.1979 1.17421
-18.635 110.256 -10.755
-18.5992 92.1344 -0.157039
-19.5789 85.5003 1.40787
-22.3901 95.1883 -10.8498
-22.9938 92.8986 -10.8401
-7.96531 144.704 -4.14548
-6.50816 151.986 -4.77905
-25.6307 83.8882 -11.7867
-13.8984 109.057 2.22921
-12.5983 114.334 2.41907
-7.90333 131.338 4.02109
-10.4649 122.239 3.0694
-21.635 82.2241 -0.962054
-17.9785 96.9532 -0.572171
-21.7241 98.8561 -10.767
-21.5441 99.6033 -10.7178
-17.6379 97.957 -0.253547
-9.50447 136.412 -2.66528
-5.45977 145.142 2.14275
-10.7509 130.983 -2.50047
-18.4806 95.185 -0.523103
-23.9742 88.8812 -10.2234
-22.867 94.7792 -10.8913
-21.3497 103.01 -11.7935
-7.79957 132.534 4.14136
-12.3479 126.929 -3.6652
-6.83063 152.152 -4.71311
-12.7416 114.605 2.7851
-22.4282 81.412 -1.58106
-17.5281 98.7016 0.366781
-7.16096 151.727 -5.00397
-22.6127 97.0878 -11.0093
-8.5853 145.771 -4.9276
-10.0699 138.986 -4.61875
-6.08533 141.679 3.53944
-25.7967 85.1055 -11.603
-12.8453 114.551 2.90426
-12.6487 115.467 3.03922
-13.3152 112.973 2.87374
-8.60617 130.548 4.234
-8.42058 131.281 4.46794
-6.33045 153.435 -3.10288
-24.2214 92.2138 -11.247
-18.1319 94.5844 2.20157
-24.5947 89.2215 -10.3954
-6.14997 143.735 3.01382
-13.4836 112.695 3.14447
-18.4851 113.332 -9.37757
-9.62288 141.538 -4.039
-7.43286 137.243 3.88863
-25.3026 86.6578 -10.326
-6.46047 142.064 3.54119
-9.09037 146.929 -5.65739
-15.0237 107.307 2.83893
-17.7903 98.735 1.081
-20.1483 110.477 -11.2711
-9.19223 147.2 -5.75859
-18.8813 94.5689 1.08597
-11.1138 133.075 -2.19292
-18.3182 97.8534 0.642995
-11.0825 137.811 -4.74692
-19.1154 112.814 -9.80338
-5.92084 153.889 -1.36501
-24.6874 91.6076 -10.9933
-18.5527 94.2678 2.44375
-6.98869 140.351 3.97438
-9.49893 146.462 -5.64507
-18.8416 93.3057 2.43666
-8.18252 151.472 -5.2097
-22.4919 101.294 -11.0258
-11.8033 120.45 3.96521
-25.6357 86.7574 -10.2075
-18.2819 98.2916 1.05069
-11.1227 136.399 -3.50943
-9.81781 146.014 -5.57904
-18.7019 94.7733 2.41242
-22.5278 103.026 -11.6048
-16.3081 105.066 2.42239
-14.1161 125.497 -4.03962
-7.0284 142.251 3.55254
-24.8436 93.2079 -11.3477
-10.0758 144.689 -5.07756
-22.1958 84.0242 0.699655
-7.85171 138.715 4.15527
-19.1921 114.825 -9.49004
-15.6187 109.146 2.50602
-18.1165 99.444 2.05214
-19.2814 96.7984 0.758582
-8.47935 136.081 4.35433
-18.1526 117.445 -8.30207
-19.5501 91.7455 3.15929
-8.56861 135.896 4.40691
-15.5264 122.992 -4.97459
-15.8562 108.036 2.91924
-19.3216 94.8586 2.10758
-11.8711 135.334 -3.12498
-27.4474 85.1612 -11.9828
-14.0569 127.076 -3.56551
-14.8938 124.801 -4.20725
-24.4499 96.778 -11.2521
-22.8233 83.7188 0.278804
-22.8931 104.759 -12.0127
-11.018 125.92 4.6844
-26.8264 85.8343 -10.5516
-25.3537 92.9118 -11.0558
-8.27195 138.489 4.32239
-8.45241 152.607 -4.24391
-25.3045 94.3975 -11.5179
-7.62634 153.834 -2.83644
-19.1555 97.84 1.49048
-26.2028 87.9651 -9.94198
-19.8995 95.3392 1.21277
-14.796 112.695 3.609
-22.9038 105.354 -11.7814
-27.4252 85.4362 -11.2553
-16.7843 104.837 3.43656
-17.3144 119.752 -6.45353
-11.2971 125.704 4.78151
-12.6538 135.677 -4.26045
-19.9774 91.5584 3.43894
-9.84128 131.851 4.95498
-26.3828 88.1037 -9.96293
-7.08529 154.343 -1.22224
-21.1209 87.645 3.18967
-25.0413 96.5476 -11.3866
-24.5895 98.0559 -11.1351
-13.0531 131.714 -2.461
-12.9664 135.764 -4.54827
-8.06688 142.257 3.64251
-28.1602 84.9838 -12.1576
-23.7521 103.073 -11.8713
-10.6679 147.894 -5.8424
-20.5704 113.6 -10.1134
-10.869 128.391 4.99076
-16.378 108.86 2.91529
-20.2301 114.691 -9.79925
-10.7604 128.979 5.00771
-12.5994 138.875 -5.16882
-22.3681 107.949 -11.007
-9.48637 134.786 4.86848
-24.3506 83.0844 -1.41032
-19.6158 93.8675 3.88348
-12.281 123.303 4.88318
-22.2777 108.763 -10.9461
-16.8673 105.453 4.12959
-24.7643 98.6232 -11.116
-13.2287 134.61 -3.78864
-13.3738 135.337 -4.53571
-16.8654 122.454 -5.51974
-16.7024 107.933 3.28461
-13.3647 134.925 -4.17544
-28.1288 85.553 -11.5447
-9.88162 151.481 -5.15071
-20.504 114.753 -9.77499
-12.7541 139.52 -5.07945
-14.3743 116.368 4.38509
-27.5208 86.3557 -10.259
-18.4105 100.755 3.69396
-14.1101 129.863 -2.63223
-26.2492 92.8401 -10.7684
-14.3152 116.9 4.39352
-20.0152 97.2614 1.88566
-23.3637 84.3714 1.18758
-19.2416 118.376 -8.32731
-17.0686 106.381 3.92228
-17.996 102.283 4.13383
-26.7407 90.6189 -10.3911
-18.8243 119.094 -7.54316
-15.2723 127.052 -3.47738
-27.153 88.0974 -9.84717
-27.4306 87.2869 -10.0288
-24.5154 103.117 -12.0441
-17.9767 120.947 -6.36533
-14.6016 116.522 4.45582
-14.3259 117.659 4.53623
-28.8172 84.941 -11.8179
-22.1788 111.643 -11.0831
-8.63726 147.068 1.40307
-19.1419 99.2693 3.63452
-9.43447 152.996 -3.77072
-26.6205 92.8931 -10.7615
-22.6274 109.909 -10.8738
-21.9863 87.8601 3.42797
-16.8921 123.69 -4.69041
-14.2746 118.474 4.71163
-24.9388 101.932 -11.5281
-14.6253 129.991 -2.63961
-9.25157 141.964 3.53118
-10.5082 134.251 5.17221
-23.244 85.8052 2.1796
-29.1476 85.2605 -11.8601
-28.9152 85.0567 -11.173
-23.6373 85.1119 1.66605
-22.5059 87.4332 3.21096
-18.9404 120.081 -6.95397
-21.0923 91.1849 4.50395
-25.5601 99.7617 -11.2674
-27.0568 92.3134 -10.6005
-9.54666 140.09 4.44453
-19.5908 99.0735 3.69905
-19.6587 99.0118 3.63086
-9.99222 152.936 -3.94274
-24.7705 104.564 -11.9457
-25.2217 102.729 -11.9479
-11.5507 130.823 5.21189
-26.4587 82.3183 -3.03424
-18.1222 104.336 4.54593
-17.6737 107.904 3.59048
-17.6583 108.079 3.56083
-9.68894 140.059 4.48189
-14.8865 135.538 -5.46483
-14.5896 119.198 4.834
-19.2146 100.093 4.7065
-17.603 109.472 3.22587
-25.4819 102.099 -11.6582
-26.7406 82.3001 -3.24565
-14.9733 136.152 -5.64586
-20.6476 118.281 -9.06119
-16.2961 114.323 3.97327
-22.9884 112.04 -10.9634
-27.4243 93.6147 -11.0623
-20.9402 96.1247 3.32357
-27.442 93.8901 -11.1553
-15.3008 134.645 -5.14429
-21.9919 114.583 -9.7579
-12.411 147.899 -5.58051
-22.938 87.9834 3.4525
-25.5233 103.548 -11.6967
-18.7483 103.398 4.8767
-15.4095 133.295 -4.14166
-20.9708 97.128 3.24218
-28.955 86.6197 -10.0705
-10.5873 143.219 2.17768
-16.827 113.952 3.90611
-23.3935 112.081 -10.9477
-25.2298 105.818 -11.7415
-11.1234 136.469 5.00761
-19.0831 103.093 5.00223
-28.526 89.0894 -9.819
-22.0019 115.782 -9.31963
-10.5922 144.141 2.06757
-23.8308 87.166 2.92319
-28.5613 89.5238 -9.87417
-25.7118 104.477 -11.5356
-23.6206 87.7428 3.25983
-30.1699 85.5682 -11.388
-28.596 89.8761 -9.91801
-21.0061 97.3011 4.31959
-13.3536 146.582 -5.48312
-21.4121 94.395 5.06065
-28.5817 90.354 -10.0418
-21.9594 92.1489 5.09023
-14.4474 141.457 -4.98294
-16.3275 132.871 -4.55836
-12.0816 133.587 5.56883
-11.0822 140.133 4.2512
-10.9405 144.512 2.09548
-19.0366 123.567 -5.48423
-13.2645 147.543 -5.23787
-27.6553 98.1568 -11.659
-25.6988 84.4614 1.05091
-18.6316 109.985 3.56731
-11.6156 136.986 5.08875
-14.0263 125.766 5.90437
-10.8885 146.584 1.57485
-12.3853 133.272 5.64157
-12.1649 134.276 5.64012
-29.4495 88.2251 -9.79553
-10.918 151.298 -1.10599
-28.6334 93.7259 -10.8656
-16.9217 132.571 -4.80515
-15.666 120.481 5.30222
-15.9302 136.86 -4.79319
-24.6696 110.908 -11.0543
-23.6766 89.563 3.8824
-24.81 111.248 -11.0794
-13.4748 129.841 5.81488
-13.5 129.802 5.82792
-27.2635 102.348 -11.7627
-11.8158 147.568 -0.15014
-25.4562 109.626 -11.2932
-23.5688 114.904 -9.67029
-25.8426 85.6798 1.6873
-13.0051 132.584 5.84492
-19.1285 110.508 3.72064
-17.1429 131.249 -3.41947
-23.2963 116.33 -9.71916
-31.5924 85.2641 -11.9585
-21.3739 120.897 -7.59118
-12.1042 138.176 5.02239
-13.8322 129.364 6.00786
-11.1228 154.712 -1.92263
-23.3637 91.5728 4.76369
-21.843 97.9004 4.82909
-12.3486 141.393 2.85999
-30.2374 88.4248 -10.0353
-15.1794 124.711 5.78943
-20.1233 106.128 4.57084
-30.0663 89.3758 -9.92618
-25.2117 111.53 -10.8668
-28.9021 82.6558 -3.14553
-32.0071 85.3121 -12.1834
-22.1217 95.5665 6.10608
-17.6577 134.267 -5.22237
-18.0516 131.712 -4.5429
-19.6312 110.476 3.88441
-26.022 86.9435 1.93579
-11.2233 152.533 0.0635083
-11.6209 151.571 -0.320679
-16.0363 141.984 -5.50492
-25.9963 87.1589 2.08615
-23.9394 116.619 -9.8103
-13.8891 131.191 6.22614
-20.5883 105.119 5.05502
-20.8022 123.687 -6.13131
-12.6881 142.792 2.67842
-29.9706 93.3948 -10.8253
-23.6875 92.2632 5.13713
-16.9187 137.123 -4.24843
-23.9805 91.9825 4.72286
-15.0784 126.62 6.39325
-19.4187 127.146 -4.41973
-29.0763 99.2326 -11.7478
-14.0028 131.766 6.21626
-13.8587 133.056 5.96966
-30.8154 89.9372 -10.3436
-12.8404 152.702 -2.80159
-16.1656 123.856 5.79925
-30.4084 92.5073 -10.7388
-22.7508 95.0178 6.47345
-12.7127 144.303 2.501
-24.9236 114.192 -9.72687
-24.5216 116.161 -9.83865
-24.3644 92.0198 4.50463
-32.6014 85.1834 -11.5565
-22.5198 97.3479 5.94177
-17.1289 138.043 -4.39156
-12.8703 152.963 -2.58884
-13.4874 140.554 3.19166
-25.0945 114.126 -9.73559
-33.0857 86.0288 -12.9172
-27.5123 106.447 -11.0832
-22.5833 97.5032 6.11817
-12.1243 151.806 0.216466
-24.5409 92.1466 4.49213
-15.2924 146.937 -4.59151
-14.2837 149.84 -3.73881
-22.6804 96.7826 6.47564
-13.5076 147.632 -0.380615
-29.3561 82.6634 -1.41242
-33.3012 86.2249 -12.9929
-24.3906 118.52 -9.85599
-13.5633 149.583 -1.45473
-23.5887 120.083 -8.61141
-32.7993 85.81 -11.2074
-31.79 88.9584 -10.5669
-18.6566 134.508 -4.85964
-20.7732 109.812 4.29664
-13.8835 146.428 -0.000953169
-14.6517 132.638 6.1142
-31.8573 89.0665 -10.5637
-14.0596 146.81 -0.596388
-28.7438 84.454 -0.266583
-15.7676 146.76 -4.61964
-22.4063 100.913 5.836
-33.3299 86.8126 -12.5869
-15.6634 127.967 6.73632
-17.5145 140.174 -4.72927
-17.7057 138.697 -4.29136
-13.8929 151.539 -2.36654
-29.9524 82.9049 -1.79011
-27.9117 86.4131 1.20921
-29.8765 100.095 -11.4698
-13.9331 138.957 4.87784
-32.0705 89.4536 -10.5513
-28.8823 84.8912 -0.140655
-32.4146 87.1912 -10.0118
-27.9444 86.5928 1.21764
-26.3485 112.678 -9.86426
-29.7593 100.938 -11.3356
-30.5571 96.7729 -10.8646
-28.0983 86.3245 1.15765
-20.8047 128.235 -5.17602
-13.3435 153.491 -1.5939
-19.4099 117.346 4.6543
-25.4881 117.058 -9.91929
-21.0857 110.799 4.43997
-30.1456 82.9389 -1.49948
-23.8398 121.219 -8.21361
-19.6062 132.58 -4.40463
-23.5417 96.992 6.59893
-17.6376 122.789 6.10139
-15.9088 128.637 6.94424
-27.899 109.596 -11.1868
-26.4085 91.0468 3.20971
-19.3803 133.705 -4.23085
-14.314 149.473 -0.993482
-26.5439 113.722 -10.0628
-29.8175 83.7491 -0.642379
-15.9205 147.469 -3.62992
-22.1645 105.506 5.45224
-24.6189 95.9445 5.0137
-26.8271 112.658 -9.98456
-16.1357 128.418 6.9763
-28.6781 86.2502 0.861715
-22.6563 124.629 -6.54127
-24.6721 96.0942 5.06651
-12.6972 153.418 1.09562
-30.1923 101.043 -11.1887
-28.2842 108.739 -10.9408
-15.1892 134.873 5.84562
-16.1162 128.886 7.05931
-26.1844 116.044 -9.9556
-25.1461 119.7 -9.53545
-14.7658 144.997 1.17447
-32.3586 92.031 -10.9273
-26.0867 116.811 -9.93455
-28.221 109.683 -10.9319
-31.8048 94.2121 -10.6804
-15.0335 144.623 1.04421
-14.8393 145.34 1.11054
-17.0076 145.722 -4.3718
-26.0953 93.8616 3.48341
-26.684 92.8444 2.66457
-20.0972 131.521 -3.58009
-32.6588 91.4574 -10.9456
-23.4778 98.8226 7.14735
-33.9134 87.8504 -11.7902
-24.6532 96.7046 5.63279
-13.6062 151.298 1.13793
-21.7106 128.56 -5.42546
-25.39 96.4796 4.15665
-18.4094 142.911 -5.48702
-23.0936 102.868 6.30301
-29.2456 106.348 -10.6544
-15.6585 142.892 1.2953
-17.0978 127.333 6.8067
-23.4711 101.511 6.22703
-23.0851 125.117 -6.36983
-27.3183 91.963 2.53815
-15.3799 145.393 0.796415
-17.2121 127.312 6.79418
-24.4737 97.7948 6.26485
-17.8295 144.92 -4.69131
-14.851 151.385 -1.06067
-34.4652 88.2464 -12.2797
-29.4925 86.961 0.573001
-20.7398 131.673 -3.95263
-27.4488 92.5009 2.35436
-23.3289 103.038 6.34807
-34.1986 86.8231 -10.7234
-16.3035 131.581 6.99357
-20.831 131.551 -3.96874
-24.1812 98.7838 6.83057
-15.7864 136.447 5.54999
-34.7319 86.445 -11.6225
-15.06 151.007 -1.05325
-20.7801 131.886 -3.90584
-26.447 96.2647 2.90012
-16.783 129.384 7.37106
-15.9965 142.338 1.80414
-25.9681 97.1335 3.71704
-27.7068 92.367 2.25457
-30.014 86.1637 0.229819
-17.0263 147.309 -3.4513
-29.9881 86.3745 0.241524
-25.6636 97.3319 4.45652
-15.3256 149.209 -0.292181
-28.5064 111.346 -10.4441
-20.3625 118.861 5.10199
-19.3488 121.734 6.01928
-14.043 154.252 0.203423
-29.1144 108.984 -10.2823
-23.993 124.561 -6.81716
-16.7063 131.08 7.14371
-31.9586 99.1716 -11.5168
-18.1135 144.686 -4.08963
-23.1329 107.168 5.45781
-16.5238 148.394 -2.2018
-35.0957 86.7413 -11.7698
-34.4492 87.2204 -10.3663
-27.1866 117.218 -9.95598
-28.655 90.7117 1.80112
-34.348 87.7852 -10.2548
-23.1313 127.012 -5.55285
-16.7709 132.123 6.975
-24.083 102.343 6.47682
-29.7018 88.7807 0.661401
-35.1444 87.8211 -11.9846
-27.7983 95.0068 1.82523
-16.4013 146.785 -0.350445
-23.5734 126.398 -5.94987
-33.6509 92.3442 -10.786
-31.388 85.3165 -1.1913
-18.4948 144.233 -3.77056
-20.0735 136.928 -3.38463
-24.6482 99.7187 7.01967
-25.7643 122.317 -8.71655
-27.7903 115.766 -9.81197
-23.2346 127.561 -5.49419
-22.5133 111.996 5.27468
-16.6523 134.701 6.43711
-34.2013 91.3688 -11.2163
-35.5967 85.3245 -11.1094
-20.3238 120.802 5.61493
-16.7637 148.3 -1.58853
-17.5015 146.563 -2.32782
-26.1497 98.4119 4.46179
-23.8886 126.424 -6.11125
-19.8305 122.206 6.25413
-19.9857 138.452 -3.45948
-32.5928 97.667 -10.5486
-16.8683 141.197 2.63843
-34.9136 87.4894 -10.2323
-30.5933 106.158 -10.4883
-34.6024 90.1405 -10.9626
-14.7457 153.995 0.466494
-35.3331 86.3823 -10.5208
-15.5396 149.961 0.916878
-19.6626 141.929 -4.43352
-23.0554 129.237 -5.32301
-29.3987 91.1397 1.31571
-19.3815 124.387 6.48948
-14.3776 153.232 2.14362
-16.9725 134.801 6.48585
-30.8485 105.893 -10.567
-26.8502 120.3 -9.14992
-35.0078 87.6774 -10.135
-21.6598 133.646 -4.20164
-28.0253 96.842 1.62172
-34.0694 92.9206 -10.5338
-17.6716 139.288 2.64145
-17.5661 141.598 1.56873
-17.5209 141.739 1.61498
-29.8013 110.477 -10.1892
-25.5975 99.8298 6.18824
-30.5255 89.5209 0.159561
-28.4283 96.2633 1.41062
-22.4359 131.223 -4.18174
-21.4767 118.209 5.66675
-25.98 99.6627 5.48037
-28.1069 116.95 -9.65505
-24.3769 126.798 -6.25418
-17.0876 145.456 0.714191
-22.6368 130.759 -4.23572
-17.6112 141.74 1.69318
-30.5705 108.329 -10.3138
-24.2393 106.483 6.26166
-25.1099 101.835 6.9028
-24.7732 126.626 -6.53035
-26.4039 100.082 4.84721
-17.8695 141.439 1.73349
-17.8004 138.576 3.60813
-21.714 135.886 -4.34115
-31.6166 105.437 -10.7493
-17.8337 139.36 3.20973
-25.6328 125.143 -7.54621
-28.9494 96.2083 1.11324
-26.6351 100.033 4.53516
-31.6168 88.6572 -1.00447
-21.6678 136.191 -4.22651
-31.8377 88.0493 -1.16079
-17.8513 138.359 3.84481
-29.6336 112.425 -9.8215
-28.4522 117.292 -9.55632
-21.1521 137.796 -3.63409
-24.8511 127.062 -6.32622
-22.0476 134.983 -4.03201
-18.058 134.184 6.1812
-35.7451 89.6103 -11.0005
-17.4609 144.846 1.61113
-18.686 130.713 6.8109
-16.9941 147.242 1.38741
-29.1285 97.1065 0.857467
-18.1859 137.308 4.26281
-30.4104 92.1491 0.620881
-27.0283 100.453 4.11548
-18.2622 134.063 6.06171
-30.1154 111.596 -9.73103
-25.8759 101.615 6.36052
-16.8382 150.641 0.0398507
-29.6863 95.4934 0.702814
-20.6996 123.222 6.55272
-30.0563 93.9705 0.69367
-23.1424 114.17 5.88239
-24.6349 107.097 6.43261
-17.4114 149.516 -0.490199
-28.885 97.896 1.43695
-25.8309 126.062 -7.37943
-28.9537 97.8804 1.36786
-32.8999 87.1032 -2.00755
-32.7028 87.4735 -1.69996
-34.0758 96.412 -10.1306
-18.0363 142.34 2.40395
-32.523 88.2918 -1.60626
-29.8444 96.3437 0.389474
-20.9988 141.236 -3.96653
-30.103 95.3645 0.408963
-29.7966 113.252 -9.1523
-18.4193 135.435 5.75764
-33.5978 101.113 -11.3193
-17.8021 144.098 2.32754
-16.4957 152.866 0.502014
-30.6924 93.7254 0.143552
-30.5003 94.7067 0.0964915
-26.7767 101.894 5.05887
-18.7592 137.08 4.29654
-30.3337 95.589 0.160173
-22.1233 120.277 5.91016
-33.8047 100.993 -11.2585
-22.1138 137.381 -3.75305
-20.7977 124.858 6.70219
-18.9379 134.907 5.52745
-34.0472 86.6971 -3.37462
-21.4946 140.926 -4.1486
-30.7574 110.97 -9.37248
-22.355 137.011 -3.88467
-32.2519 107.139 -10.6367
-33.6692 102.248 -11.2541
-33.448 87.5948 -2.22616
-16.878 152.421 0.662147
-31.4884 92.8296 -0.369315
-25.6034 104.842 7.01222
-22.6382 136.391 -3.95452
-20.2432 143.974 -2.48858
-21.0238 124.775 6.71182
-32.8697 105.589 -10.8205
-32.6576 106.556 -10.719
-30.865 111.337 -9.0411
-19.6666 129.86 7.50355
-20.8116 142.825 -2.6494
-20.7531 126.821 6.75346
-33.5091 103.786 -10.9586
-18.8883 148.491 -1.14554
-36.9192 90.0457 -11.2257
-23.4028 133.776 -3.5909
-24.3244 130.634 -3.98136
-28.3983 121.395 -8.43447
-28.673 120.615 -8.55757
-24.9127 109.682 6.92516
-26.0066 127.719 -6.03264
-24.478 131.213 -4.29898
-35.058 97.5231 -10.3839
-36.6232 88.5912 -9.01853
-21.5942 141.521 -2.98822
-31.949 95.0453 -1.31909
-31.6766 95.9644 -1.12031
-25.5956 107.194 7.24384
-25.1795 129.664 -4.70185
-22.3437 140.271 -3.71611
-24.5671 112.688 6.81933
-34.2827 88.5717 -2.59199
-25.0738 110.676 7.07947
-19.5547 148.219 -1.16638
-24.5013 113.584 6.83138
-33.2033 91.5642 -1.61443
-19.9899 136.459 4.63616
-33.1195 92.361 -1.78449
-19.3006 149.172 -0.881076
-23.5671 117.919 6.81848
-33.4204 106.44 -10.5113
-37.1594 91.898 -11.1859
-29.008 102.021 2.80927
-26.0237 107.103 7.2567
-25.3833 110.076 7.10727
-22.7313 139.028 -3.16014
-24.5309 114.062 6.93595
-33.7371 105.759 -10.6363
-18.6375 150.706 0.144935
-17.0647 150.415 4.19919
-23.3901 119.471 6.74308
-24.7393 113.472 6.99646
-27.2092 104.698 6.25319
-20.5156 133.553 5.90135
-19.642 142.442 2.93192
-25.0458 112.515 7.10285
-37.7974 85.6946 -8.4249
-17.1597 152.361 3.31054
-29.9515 119.044 -8.55174
-36.9159 82.527 -4.39574
-36.0763 95.7176 -9.95912
-32.9928 95.3364 -2.12704
-25.6836 130.692 -4.57925
-29.4989 120.846 -8.16483
-32.367 96.6989 -1.07908
-26.7918 127.999 -5.58457
-20.4403 147.159 -1.16696
-19.2755 150.381 -0.158625
-28.9064 123.381 -7.98007
-36.1973 86.3705 -4.31064
-24.6459 115.209 7.13766
-31.5367 113.185 -8.38396
-26.3093 108.519 7.06496
-37.7688 87.3278 -8.50521
-30.1512 119.231 -8.39585
-22.679 141.662 -3.08126
-29.2975 122.376 -8.0136
-37.7912 82.1715 -5.42808
-33.821 107.085 -10.1554
-17.7234 153.322 2.30127
-18.3736 152.26 1.34242
-18.3587 148.193 3.73479
-23.4082 140.418 -4.01808
-32.9452 109.881 -9.55088
-23.3438 140.658 -3.92268
-36.3958 86.8324 -4.57798
-32.3412 111.671 -8.96484
-37.8177 82.4708 -5.34737
-19.9605 141.378 4.09095
-25.3931 113.253 7.1552
-26.721 128.848 -5.07253
-20.9529 137.948 3.70783
-33.9953 93.5118 -2.31364
-26.6081 108.481 7.02702
-27.8714 125.998 -6.09107
-37.6053 93.0494 -10.7332
-38.433 85.2374 -8.23295
-18.0524 153.262 2.29239
-27.6801 105.759 6.34356
-34.4139 106.025 -10.1597
-19.8041 144.188 3.35509
-39.0663 84.5545 -9.0387
-32.4807 112.03 -8.86658
-23.8427 121.278 6.80721
-36.7962 96.2396 -10.1631
-39.0984 84.8519 -9.18083
-33.9774 107.826 -9.96099
-25.1691 133.939 -3.47807
-30.6121 119.178 -8.18968
-22.1561 144.564 -2.2476
-34.2887 94.041 -2.57878
-33.2694 110.381 -9.46132
-21.4447 130.606 7.63026
-37.4018 94.6546 -10.3389
-24.7369 138.647 -4.88254
-26.9427 129.921 -5.20577
-21.2823 138.324 3.77278
-25.0892 135.926 -4.09312
-36.3439 89.0333 -4.34855
-24.652 138.514 -4.4707
-24.577 137.482 -3.66918
-26.4368 110.986 7.13602
-22.6044 143.943 -2.566
-27.3338 107.74 6.85127
-31.2709 117.432 -8.30676
-21.4542 134.061 5.98313
-36.8091 98.1966 -10.629
-24.9744 137.281 -4.38545
-35.4638 91.204 -3.14788
-37.2539 86.5098 -4.78318
-23.4775 124.214 6.98665
-32.848 112.139 -8.82408
-37.6655 84.849 -4.74382
-24.7124 139.083 -4.55074
-35.292 91.7339 -2.93856
-36.5038 100.257 -10.7066
-26.9624 130.511 -4.94062
-32.3789 98.8678 0.158862
-31.3847 117.698 -8.20103
-26.8365 110.441 7.07085
-34.8356 93.8435 -2.72577
-21.191 140.177 3.71071
-19.3573 147.76 3.83689
-25.6473 134.092 -3.51302
-38.0176 91.6391 -9.07603
-34.5278 96.1252 -3.15157
-26.0806 132.776 -3.7353
-37.4591 87.6454 -5.32922
-36.5269 100.83 -10.6746
-21.8219 137.32 4.05606
-25.7452 133.502 -3.2715
-39.5052 85.191 -8.81538
-24.8247 136.298 -2.615
-33.29 98.4296 -1.2648
-21.7529 138.015 3.94396
-35.3745 104.717 -9.94383
-24.1029 122.993 6.92292
-19.6064 146.594 4.23553
-37.6862 86.6562 -5.11518
-18.4395 151.334 4.38944
-29.9996 123.376 -7.56364
-22.3007 131.798 6.36489
-31.4586 101.95 1.43177
-28.1834 107.424 6.246
-32.0918 115.812 -8.09742
-37.9181 86.0912 -5.07874
-24.9157 136.317 -2.4203
-35.3571 93.2169 -2.84604
-18.6548 150.987 4.50957
-38.7242 89.42 -8.70603
-32.0646 100.723 0.988784
-18.6879 150.98 4.51708
-39.6432 84.5658 -8.0662
-26.0413 134.015 -3.53395
-26.315 134.73 -4.55814
-30.367 122.943 -7.58934
-25.7593 135.005 -3.25655
-38.8948 84.7719 -6.14632
-22.2886 136.715 4.26596
-29.3996 106.472 4.51882
-24.2608 141.584 -3.21314
-35.6437 93.624 -3.17929
-22.7208 133.211 5.43377
-20.144 151.836 0.993592
-32.3004 100.884 0.848757
-38.1776 87.7121 -5.83456
-34.1589 98.8965 -2.50775
-33.1651 99.8936 -0.629435
-30.9256 104.201 2.33928
-38.3292 86.9259 -5.68082
-22.5762 130.338 7.64311
-21.7242 148.415 -0.709371
-23.063 132.862 5.06101
-26.2072 115.67 7.34479
-27.7861 129.832 -4.57955
-34.8396 98.2592 -3.45607
-21.7452 148.599 -0.671988
-39.7196 85.7324 -8.0766
-26.7711 113.689 7.31817
-19.699 148.1 4.69391
-23.8364 125.758 7.56733
-27.765 129.248 -3.99261
-21.2663 141.494 4.74705
-38.1249 88.7589 -5.73161
-32.3877 116.548 -7.80592
-22.8213 131.492 6.8461
-31.8924 118.576 -7.75957
-38.6944 86.5563 -5.80559
-25.6048 139.566 -4.50826
-19.9034 147.025 5.05948
-32.8106 100.694 0.471837
-32.9109 114.825 -7.91867
-37.6756 99.0634 -10.3459
-29.3364 126.358 -5.75251
-24.9514 122.286 7.31422
-26.6831 133.015 -3.08595
-33.1701 100.603 -0.0536845
-39.7547 86.1938 -7.73593
-33.9284 100.186 -1.63533
-38.7622 94.6715 -10.1846
-27.3984 112.562 7.22187
-27.0942 132.452 -3.39332
-19.4744 149.429 5.37548
-19.4579 149.764 5.24561
-37.1343 92.2299 -4.50572
-37.8881 90.5512 -5.35851
-34.1553 111.192 -8.18739
-25.8547 119.338 7.29987
-23.6722 144.343 -1.80973
-20.4033 152.042 1.78148
-34.6877 109.509 -8.37055
-39.7509 89.2093 -8.93417
-32.858 115.936 -7.57958
-33.9118 100.703 -1.28352
-39.9669 89.0825 -9.25899
-23.2751 130.758 7.31736
-33.635 100.899 -0.617888
-26.2451 118.581 7.1587
-31.6755 104.492 2.08788
-30.5623 123.413 -5.91205
-34.2246 100.597 -1.64213
-30.9383 106.114 3.18035
-26.1397 138.775 -3.96699
-23.4595 130.398 7.46099
-23.5748 130.054 7.47808
-30.216 107.615 4.28536
-21.7444 150.436 0.172589
-27.3799 114.388 7.28283
-23.4727 131.487 6.92694
-28.0065 131.411 -4.0417
-21.6715 142.248 5.14649
-23.596 130.891 7.1023
-40.0413 89.3817 -8.91103
-27.3448 137.029 -5.53919
-36.4187 97.7649 -4.92973
-30.297 107.722 4.26931
-33.3192 115.341 -7.47318
-28.6211 111.149 6.37739
-20.7076 146.172 5.40249
-26.9807 134.01 -2.75265
-39.2427 95.0524 -10.0206
-23.7484 135.056 4.59194
-27.9805 131.969 -3.91581
-33.8841 101.383 -0.605785
-36.179 98.7837 -4.67883
-23.8824 129.139 7.76756
-37.6411 92.9706 -4.80777
-38.8463 89.93 -5.98305
-34.4351 111.384 -7.61494
-38.5309 97.6485 -9.62898
-25.8474 121.085 7.70171
-36.8753 96.1197 -4.68662
-21.8557 142.366 5.14285
-25.9346 120.85 7.67799
-26.9972 134.761 -2.9085
-28.3643 130.604 -3.7918
-25.6604 142.164 -3.87809
-28.4265 130.183 -3.66726
-36.4435 103.386 -7.59288
-24.8164 131.006 4.74639
-24.1677 129.059 7.56355
-39.3201 95.3704 -9.69848
-21.2333 145.556 5.32643
-36.5832 104.587 -8.32786
-24.8055 130.119 5.59141
-39.0865 96.2903 -9.49287
-35.0321 109.955 -7.48037
-31.6026 106.448 2.90111
-21.8903 150.931 0.874087
-37.4817 98.1666 -6.50424
-24.9088 133.428 3.72554
-36.5234 104.755 -7.94186
-26.2229 141.696 -4.19856
-36.8265 101.605 -6.82448
-30.0989 109.38 5.0622
-40.1732 89.376 -7.87605
-30.6465 125.552 -5.45452
-20.5118 149.834 5.20826
-21.3138 146.055 5.46395
-36.4501 103.136 -6.52328
-31.703 106.755 2.98027
-38.6079 92.7193 -5.68387
-33.8405 115.001 -6.91591
-26.2633 142.27 -4.21963
-31.5395 122.729 -5.75059
-38.4355 93.6763 -5.67995
-31.2382 123.265 -5.24995
-29.644 127.449 -3.72182
-28.4955 114.553 6.52532
-38.3921 99.4599 -8.81181
-34.9104 110.821 -6.89222
-38.4997 99.1895 -8.8462
-28.1058 136.709 -5.20709
-34.5636 102.246 -0.966254
-30.172 110.283 5.08135
-39.399 96.0614 -9.14003
-28.462 132.751 -3.71414
-20.7695 149.959 5.09672
-35.525 108.609 -6.91343
-33.8902 115.723 -6.97395
-37.2954 100.856 -6.62126
-29.1831 128.854 -2.97578
-39.7022 90.9016 -6.56177
-31.0644 125.152 -5.31641
-20.9272 149.223 5.46302
-37.5856 100.645 -6.97661
-26.2707 142.699 -3.73709
-25.3791 130.209 5.71894
-28.8768 114.512 6.28552
-36.9201 99.5949 -4.65899
-25.3333 129.385 6.34092
-25.5993 131.75 4.32842
-25.6839 132.804 3.53889
-33.3452 118.418 -6.68557
-29.4871 128.941 -3.35413
-25.6682 126.034 7.63271
-25.2989 128.91 6.87534
-31.1511 109.416 4.10866
-30.715 110.453 4.61211
-34.4945 103.016 -0.233553
-27.8729 117.802 7.3745
-40.6591 91.3096 -8.35675
-31.2439 124.788 -4.76211
-38.8975 97.7705 -7.74073
-38.37 100.03 -7.7399
-40.0197 92.1256 -7.13668
-36.9026 102.715 -5.66379
-24.5241 137.259 4.56541
-39.2251 96.3983 -7.55934
-29.111 132.182 -3.59828
-28.4705 116.723 6.90169
-38.8886 98.8733 -8.08629
-25.9576 131.984 4.27424
-36.3033 107.409 -6.67769
-37.0879 102.266 -5.55217
-28.9624 132.511 -3.17644
-32.3775 107.947 2.71911
-30.9186 125.406 -3.80657
-31.4867 109.887 3.82271
-30.2451 112.927 5.13215
-26.3807 126.128 6.98456
-40.2871 92.8673 -7.59499
-29.8397 128.094 -2.4973
-39.269 97.9843 -8.03766
-28.7789 116.7 6.68907
-26.5926 143.07 -3.18788
-40.3388 93.1219 -7.70398
-28.991 134.68 -4.07157
-23.7628 149.395 0.158243
-30.4783 126.89 -3.15458
-36.3359 101.954 -2.86664
-28.4473 138.501 -4.76699
-37.7042 100.16 -4.96857
-37.0564 102.481 -4.72974
-29.0527 132.62 -2.65822
-29.5808 131.967 -3.54693
-33.7545 106.782 0.864049
-36.1661 108.11 -5.76336
-28.9674 116.991 6.63601
-30.3653 128.163 -2.9242
-29.4526 132.234 -3.02473
-34.5664 115.192 -5.565
-34.3006 105.843 0.494566
-35.927 109.13 -5.35576
-31.2032 112.289 4.31386
-27.0197 125.214 7.10512
-35.8626 109.572 -5.3711
-34.5313 116.052 -5.86298
-29.6902 131.163 -2.751
-23.9455 141.239 5.41033
-29.404 118.175 5.54695
-28.7189 119.455 6.6081
-22.7801 151.056 2.91692
-29.8968 132.306 -3.53084
-35.1212 112.02 -4.51514
-26.3749 128.759 7.09554
-32.1615 111.206 3.16251
-25.8888 135.996 4.12273
-29.509 135.169 -4.20562
-36.2294 105.963 -3.68644
-33.8508 119.703 -5.78781
-29.5395 136.692 -5.10948
-29.9879 132.844 -3.84091
-30.3086 116.126 5.07559
-28.723 120.331 6.65768
-31.3358 120.332 0.310375
-26.7526 130.091 5.8512
-32.6271 116.366 -0.432493
-33.3105 122.037 -5.36715
-25.6758 136.934 4.6398
-34.8468 115.558 -5.27327
-28.6584 122.194 5.95899
-32.2078 116.326 0.715558
-23.2072 150.982 2.60219
-32.1423 116.324 0.886824
-33.8822 115.595 -2.85858
-33.8362 109.875 0.589337
-28.1201 123.649 6.54419
-29.0861 120.773 5.91892
-27.2942 127.609 6.34839
-29.3804 122.614 4.16123
-22.6866 150.007 4.62934
-34.4854 115.66 -4.22901
-26.9916 130.745 5.29026
-32.2521 118.718 -0.536208
-34.198 115.079 -3.145
-25.6895 146.365 -0.504012
-36.5918 107.285 -4.39133
-29.1876 123.056 4.52627
-33.794 120.68 -5.29577
-36.423 108.177 -4.42024
-31.5248 121.309 0.00415344
-31.8461 116.634 1.99292
-32.0224 119.762 -0.231188
-34.1381 110.202 0.181844
-35.666 111.341 -4.16107
-27.9411 142.49 -3.29778
-32.2503 113.281 3.11375
-29.431 138.597 -4.63903
-31.3703 128.562 -3.39356
-33.5043 111.306 1.43549
-33.7055 117.802 -2.77095
-34.5323 110.038 -0.252631
-35.5338 107.324 -1.11645
-32.9114 123.64 -4.14403
-27.3742 132.459 4.28284
-32.0226 121.081 -0.444231
-30.4376 133.965 -3.99374
-24.8349 141.272 5.45995
-35.8844 111.142 -3.99756
-27.7291 128.549 5.8386
-30.4638 134.636 -4.31968
-31.9479 116.175 2.7635
-32.731 115.013 1.67518
-31.5473 127.44 -2.57104
-31.6517 121.924 0.371586
-31.416 131.452 -4.50858
-28.2953 142.353 -3.11693
-34.6597 118.504 -4.81575
-35.5034 113.362 -3.75185
-36.4415 109.645 -3.88482
-31.2886 122.375 1.37688
-35.0105 113.688 -2.61704
-32.7089 114.399 2.616
-33.055 114.516 1.74807
-30.1341 138.029 -4.71222
-30.3594 137.427 -4.82188
-34.0088 113.506 0.125318
-31.4185 128.415 -2.16899
-34.0233 112.834 0.531973
-36.3753 110.144 -3.61174
-34.3834 113.321 -0.461792
-28.381 143.152 -2.93769
-35.7617 111.691 -2.66537
-31.6398 128.825 -2.52617
-26.4334 146.456 0.0060527
-28.5813 142.465 -2.89661
-25.8983 147.951 0.670758
-34.364 119.966 -3.74986
-24.2563 147.042 5.23655
-30.6034 124.226 3.00832
-25.9231 140.496 5.08869
-32.9872 122.033 -1.38992
-28.4963 130.806 4.57167
-31.5712 131.947 -3.41442
-31.8552 128.876 -2.24511
-32.218 128.025 -2.57427
-30.318 133.139 -0.868843
-29.3961 125.59 5.78139
-33.2199 124.599 -2.79803
-32.6731 123.108 -0.369117
-31.4748 132.069 -2.58634
-30.6921 138.383 -4.31
-31.5498 132.744 -3.00683
-29.554 126.781 5.44311
-33.5673 123.673 -2.50812
-26.4374 141.696 4.57931
-32.3551 125.995 -0.579511
-32.5404 126.494 -1.26119
-33.7253 123.145 -2.0225
-28.8929 143.89 -2.12189
-29.3487 141.797 -1.98735
-30.3286 126.887 4.42714
-25.8029 144.276 5.41651
-30.3631 133.757 0.45003
-31.904 133.373 -3.02586
-28.5191 144.683 -1.3091
-30.8402 128.583 2.3496
-32.9285 130.72 -3.91347
-29.6411 131.304 3.76304
-31.5445 136.535 -3.85936
-33.716 124.012 -1.88221
-31.2459 126.195 3.04701
-33.6646 124.575 -1.78328
-31.3328 133.065 -0.997995
-29.3614 133.484 3.59176
-31.1103 126.628 3.33818
-32.2605 133.279 -3.30018
-28.415 135.807 4.61416
-26.8073 148.809 1.16786
-25.5964 149.183 4.1226
-33.654 125.658 -1.8312
-33.5433 129.728 -3.89392
-31.9504 126.367 2.07035
-32.194 126.623 1.3719
-32.9084 130.856 -2.7867
-31.8554 136.098 -3.188
-30.873 132.634 1.28864
-31.9447 136.315 -3.29593
-27.2017 148.528 1.19246
-30.6987 140.253 -2.36787
-32.4629 128.199 0.593106
-31.6456 132.122 0.4556
-27.7145 142.448 4.35824
-31.1195 131.032 2.81048
-32.0516 129.706 1.42111
-32.9796 130.327 -1.09482
-32.294 131.655 -0.0903868
-31.5041 131.927 1.73095
-31.7082 130.353 2.22926
-32.5159 135.321 -2.534
-32.5726 131.413 -0.314759
-27.2627 145.02 4.78618
-32.2358 130.033 1.37372
-27.269 145.116 4.80471
-27.459 148.918 2.19577
-29.4173 136.278 4.95776
-29.2911 145.786 0.230383
-32.8809 136.545 -3.06618
-32.49 132.461 0.27508
-27.1258 147.215 4.82755
-29.2208 146.284 0.469415
-33.7196 132.823 -2.40463
-34.3602 130.721 -2.64378
-34.0857 130.139 -1.37523
-33.3811 132.729 -1.0099
-28.411 144.695 4.24769
-33.5261 131.871 -0.44412
-32.1302 140.403 -1.90087
-28.8888 147.868 1.90294
-30.0559 137.011 5.52603
-32.6955 139.305 -2.15118
-30.4351 144.632 0.521126
-29.6798 141.13 4.5555
-32.7976 139.998 -1.88711
-30.7014 144.675 0.589467
-30.8209 136.235 5.43617
-34.3438 133.97 -1.45328
-30.9534 136.591 5.51551
-30.2751 145.954 1.76848
-31.1854 136.017 5.31287
-34.6056 133.12 -1.21181
-33.6667 134.277 0.550151
-29.6434 147.534 2.72863
-29.5361 145.898 4.22444
-29.5557 147.623 3.2184
-30.6356 139.831 5.10575
-34.5065 132.7 -0.100811
-29.925 144.82 4.18911
-35.0563 130.812 0.269159
-34.7237 134.276 -0.920755
-33.1772 132.966 3.64661
-33.6556 135.322 1.44791
-36.347 129.96 -1.70683
-32.6989 142.986 -0.338562
-33.2263 133.607 3.9031
-35.2084 132.533 -0.152652
-34.8713 138.103 -2.25708
-33.8058 141.299 -1.04675
-34.6291 139.482 -1.65979
-32.467 144.505 0.709706
-31.1346 146.853 3.08035
-33.4967 142.742 -0.285613
-32.0178 142.317 3.61332
-32.9883 135.941 5.03905
-34.7796 140.29 -1.39466
-34.4956 140.942 -1.06762
-37.2393 130.593 -1.62726
-34.8665 133.026 2.92158
-32.414 142.125 3.66659
-33.5729 135.523 4.74451
-33.9623 135.156 4.34332
-34.7898 133.884 3.31584
-37.5437 130.609 -1.37323
-36.9598 132.105 -0.22891
-33.0787 142.284 3.53719
-35.1881 133.997 3.23732
-34.1188 135.836 4.78625
-34.7992 141.845 -0.336389
-36.8682 134.227 0.102631
-33.9125 144.752 1.31495
-38.7463 129.644 -1.5351
-37.0269 133.263 0.892427
-34.0683 144.811 1.65844
-34.8253 143.676 0.677696
-37.3468 133.356 0.623411
-34.1366 139.333 5.12173
-34.3139 138.774 5.15945
-34.0703 143.022 3.33091
-38.8509 130.176 -0.851578
-34.141 140.778 4.63949
-34.8705 137.595 5.08575
-38.3021 132.621 -0.35911
-38.5224 131.872 -0.39473
-37.7188 134.15 0.598208
-38.778 131.837 -0.284047
-37.9675 135.001 0.513867
-35.6569 138.16 5.01394
-38.3514 134.69 0.832018
-38.2351 135.955 0.452878
-36.9569 141.832 0.456707
-38.4829 135.044 0.829715
-37.4168 141.087 -0.0242926
-35.6386 141.854 4.12508
-38.0003 139.763 -0.339981
-38.839 136.654 0.603814
-39.7509 132.787 0.989732
-38.8489 134.994 2.12607
-36.5074 141.652 4.00434
-39.798 133.45 0.937348
-39.4003 137.776 0.50539
-39.5646 136.224 1.25884
-38.097 140.913 2.77316
-39.8846 136.105 1.54121
-40.2537 135.917 1.85685
-40.2193 136.825 1.42061
-40.3431 136.185 1.78537
-39.9839 139.669 0.66726
-38.6052 139.69 4.58086
-38.8329 140.181 3.95591
-40.479 139.219 0.762844
-38.9355 140.076 4.09135
-40.6638 136.307 2.09028
-40.6926 139.581 1.03108
-40.3838 140.206 1.55514
-41.1367 136.579 2.04632
-39.9559 140.845 3.02233
-41.4104 135.671 2.63621
-41.4717 135.496 3.09191
-41.7955 136.543 1.98099
-40.7754 140.093 2.45514
-40.8659 137.98 3.86218
-41.8116 137.65 2.07925
-42.1179 136.622 2.90893
-42.2435 137.825 2.46099
-42.7479 138.075 2.47101
-42.919 138.034 3.11645
-42.656 137.819 4.28329
-42.7697 138.911 3.47416
-43.6786 138.32 3.96033
