ply
format ascii 1.0
comment Created by Open3D
element vertex 1881
property double x
property double y
property double z
end_header
-5.82447 83.8078 1.8253
13.7295 126.35 2.55362
15.727 137.848 -4.75976
-10.9133 85.8957 -11.6955
7.73338 109.227 6.68487
12.4249 132.961 -7.12274
-0.038956 95.0591 3.64336
11.7655 126.286 -1.68088
13.9577 134.191 -4.82025
12.6689 133.021 -6.54282
-5.2793 98.5194 -11.7732
4.53958 101.164 7.91115
5.028 102.087 8.08469
13.2501 118.591 9.79508
16.0448 129.872 4.51677
-8.78427 90.2303 -11.0571
14.0661 129.625 0.345766
13.9285 134.252 -4.74273
5.84035 103.581 8.51547
-3.60415 90.0087 1.0277
12.9738 124.658 3.02309
-0.803873 93.827 3.47914
14.7187 127.529 4.07796
12.7166 131.652 -4.726
1.60735 98.3598 4.34513
1.77741 98.5839 4.50796
11.6967 127.738 -2.99883
1.25815 97.7814 4.15664
-7.31911 93.7015 -11.1143
3.54238 101.021 6.09186
8.43668 114.895 2.92872
12.3077 127.245 -1.00261
16.8397 133.134 3.25002
-11.0647 85.1402 -10.7367
9.51249 109.219 11.2641
16.0646 138.864 -4.41259
-11.4449 76.4244 -2.57434
2.81135 112.469 -7.25837
6.865 114.164 0.231338
20.1932 143.504 0.2929
-11.208 85.5715 -11.3733
1.12669 96.5917 5.34
-3.16037 104.721 -12.7653
8.20206 112.485 5.11598
2.94653 106.785 -0.93313
2.20922 98.5031 5.96216
-3.17067 104.787 -12.7604
11.8593 130.593 -5.14246
12.4107 125.877 1.00608
3.77721 101.344 6.6779
7.94668 115.893 1.15623
14.7891 128.145 4.14401
-14.0448 81.533 -13.3504
12.7402 126.195 1.53696
-13.698 81.7391 -12.7426
10.0066 110.892 11.164
9.912 110.714 11.1621
0.662112 101.812 -0.652928
13.3217 126.621 2.56461
-4.68455 87.3869 2.07265
17.3752 140.949 -2.98722
-5.79205 99.0375 -12.3307
13.0402 134.075 -5.602
11.7141 115.219 10.9038
11.4109 131.886 -6.97929
-8.20953 93.3144 -11.83
2.20984 98.9525 6.07512
1.92057 112.517 -8.51595
7.17798 120.334 -4.45044
11.5813 127.556 -1.87492
-7.42596 95.593 -12.0928
-12.736 75.7342 -3.67529
19.2243 144.113 -1.45456
-8.57937 92.8875 -11.8837
7.78857 116.634 0.966171
-9.64435 90.4876 -11.73
13.6718 134.54 -4.08277
7.13378 105.545 10.9898
11.6258 129.647 -3.59991
11.9101 126.168 0.663837
8.58169 116.081 3.59077
11.8476 127.408 -0.658082
11.7268 126.354 0.176132
2.35603 106.751 -0.889085
-3.92202 104.565 -12.9105
14.1424 134.217 -2.31689
7.67152 107.124 10.9395
0.401611 102.119 -0.432058
-0.780205 99.3564 -0.270294
-9.43521 91.5232 -11.8827
-12.6658 75.8937 -3.09696
15.2735 130.039 4.62919
-3.54345 92.5751 0.49337
13.4608 123.623 7.26165
11.812 126.501 0.551744
14.0691 136.096 -4.13433
10.7301 114.081 11.0146
-11.9172 76.9872 -2.20785
13.3717 123.142 7.79213
-3.16216 106.344 -12.4431
19.753 144.362 0.490891
-11.5345 88.5413 -13.1083
8.04995 113.27 5.98961
3.86746 114.683 -4.95942
19.2525 141.734 2.15606
10.7127 131.65 -6.81345
1.29179 104.121 0.252223
10.4346 131.24 -6.9172
11.7396 128.041 -0.58576
11.0358 115.37 10.8943
10.1693 113.32 11.0789
-1.08186 99.2511 0.0105467
-4.32545 90.1993 2.01223
6.37554 115.887 -0.135031
2.20914 107.349 -0.788277
-6.8108 98.7219 -12.3693
18.9678 141.13 2.55683
11.6164 129.914 -2.59584
7.18234 107.91 10.0226
-10.7149 79.0434 -0.851927
0.44219 102.733 0.115708
13.7004 136.924 -4.9758
14.5946 138.545 -4.51641
9.16129 111.614 10.9774
12.7537 136.227 -6.19265
-12.8824 84.6153 -11.277
-11.5634 78.19 -1.62112
7.23125 122.35 -4.39747
13.6966 137.312 -5.07867
1.40866 105.119 0.189249
-0.246808 101.841 -0.085049
-15.0742 82.8224 -14.2126
8.67001 119.044 2.47846
-7.54638 83.7289 2.02992
-12.4837 76.8834 -2.1453
-9.38447 94.2973 -12.9625
8.75658 117.345 4.55907
-9.06858 81.6693 0.8598
8.24852 119.149 1.62463
8.34963 119.259 1.74784
5.73205 115.663 -0.492624
12.1928 136.152 -6.92795
7.09976 122.403 -4.32682
-12.2344 89.0369 -13.8974
-10.3021 92.8243 -13.4029
7.31935 124.45 -5.874
-4.62544 89.2819 3.33558
10.8696 116.267 10.7782
5.12743 114.693 -0.634928
7.5782 112.575 7.16409
19.2583 144.325 1.01673
7.69056 113.113 6.91213
4.90714 117.512 -3.90596
8.59142 128.551 -6.89977
-3.98357 106.432 -12.6578
-7.54539 99.2807 -13.3754
3.10613 115.135 -5.39703
-3.76016 93.4988 1.42795
-8.86066 82.3673 1.32062
11.9522 132.447 -2.98334
-8.74543 82.5273 1.43953
-5.81116 87.5833 2.92186
0.891782 104.373 0.954369
-15.4031 82.9842 -14.034
7.45018 110.705 9.43118
12.4593 123.383 7.84544
14.8594 139.902 -3.69475
0.900036 114.311 -9.04452
-2.76637 96.6889 0.827773
-13.8884 83.6282 -10.9817
-6.48257 85.9809 3.51725
12.3836 122.981 8.28939
7.91335 114.73 6.64629
7.12189 119.209 0.25186
7.0129 119.059 0.165268
17.3473 139.267 2.91043
-3.38631 94.5809 1.82998
7.59164 111.374 9.51293
11.5146 119.076 10.4999
-3.3287 108.29 -12.1476
18.3906 141.707 2.85596
15.0319 132.222 5.00202
-3.60446 94.1316 1.97007
-6.36245 86.8315 3.24371
-13.0679 77.1299 -1.93176
6.71459 122.767 -3.96843
1.22593 106.304 0.631984
18.0781 145.132 -1.02941
17.4744 140.041 3.14887
1.1149 106.304 0.816984
-6.98084 102.307 -13.4832
-9.92259 95.1935 -12.8384
15.9539 136.912 3.06927
-13.3294 88.3317 -13.438
8.93889 121.624 2.90648
18.8697 145.564 1.01404
-9.30629 82.9068 1.558
8.55744 122.216 1.90278
8.41861 122.273 1.66524
17.2314 140.224 3.2095
-9.2841 97.8513 -13.4174
7.34554 127.754 -6.39442
-4.34902 107.885 -12.4732
13.4277 129.378 5.84727
-15.0458 83.3957 -11.4923
10.4878 118.286 10.6492
7.06279 127.189 -6.32089
15.2147 134.596 4.61077
1.8279 115.818 -6.37895
9.11262 122.849 2.9999
13.5131 138.146 -2.64797
1.19977 107.775 0.679068
-1.73993 100.704 1.28664
18.2592 143.456 2.69769
-4.12321 108.663 -12.3093
12.5384 138.005 -4.61556
2.26474 111.332 -0.454052
-16.6957 81.6308 -12.8701
8.31513 117.92 6.63876
5.46145 121.373 -3.42069
3.71281 118.173 -4.07614
6.79817 126.824 -5.96435
13.0207 137.763 -3.0252
7.57263 129.007 -6.37974
7.83922 116.038 7.6363
9.10656 115.992 10.5907
-6.99346 87.3828 3.55604
-7.11972 86.9327 3.73763
13.0488 129.1 6.17407
6.16754 123.695 -3.86162
-14.7792 85.9813 -12.6079
2.8423 117.878 -5.36447
13.1881 138.547 -3.13413
4.51775 116.879 -0.50755
10.6999 119.861 10.4942
0.0930671 115.615 -9.22293
7.56433 122.737 0.501637
-16.8787 82.3829 -13.4685
3.34682 114.437 -0.502369
-10.2082 96.6809 -13.0287
-3.80219 95.8752 2.39303
-13.0407 78.9368 -1.11336
7.66538 123.104 0.509378
15.2032 135.825 4.58168
11.2015 122.942 8.82604
-10.6753 95.7187 -12.8512
9.26948 124.269 3.1347
8.20206 124.064 0.963419
15.3551 142.841 -2.12371
-14.3683 89.6791 -14.925
6.44976 126.248 -5.15679
3.16052 114.466 -0.481527
-6.16919 106.141 -13.1165
6.86694 128.115 -6.11092
18.0218 144.552 2.34128
-16.8435 82.018 -12.4922
-4.13387 95.1086 2.97802
6.84694 128.143 -6.09591
-11.908 81.1143 -0.153044
14.5015 134.643 4.83253
-1.87734 113.22 -10.3398
9.12455 123.467 4.13544
-8.66502 100.983 -13.1539
-3.6798 97.0676 2.27013
8.09446 118.095 7.39077
-17.0708 82.8786 -13.5438
16.5934 140.752 3.38316
-7.78045 103.405 -13.5053
12.5803 138.057 -2.89225
0.188582 116.157 -8.48466
-6.29642 89.647 4.1244
-14.7049 89.4965 -14.84
9.59848 118.73 10.3293
2.38327 118.186 -5.53033
8.22622 131.546 -6.01394
6.61538 122.123 0.0687464
17.6568 146.667 -0.102003
6.49573 127.176 -5.38983
13.0362 139.017 -2.68392
9.31653 134.384 -6.34859
12.0594 127.116 7.42691
8.71753 125.542 1.45304
-16.9577 74.4536 -4.24387
16.6584 141.183 3.50481
17.9777 146.051 1.49424
16.6224 145.244 -0.683491
-0.373056 116.117 -9.27028
7.74985 116.537 8.81245
-15.7383 86.4678 -13.6243
-15.8743 86.41 -13.8456
6.0786 121.677 -0.243881
-16.3526 86.2457 -14.6909
10.6847 123.59 8.33123
3.15374 115.634 -0.386375
6.17434 126.396 -4.60809
9.71104 136.083 -6.54455
-12.3588 94.1622 -13.5236
-13.6424 92.4239 -14.5948
9.46329 125.97 3.38962
-11.7458 95.2662 -13.1239
11.2943 125.827 7.80185
9.60578 136.02 -6.49201
6.29391 127.416 -5.11704
-7.67521 104.66 -13.3666
16.3494 141.322 3.52558
-17.8391 82.0826 -13.1563
-16.261 85.5967 -13.1776
11.7717 127.357 7.57972
-5.88182 93.1779 2.75449
-17.5874 83.9268 -14.2929
-7.98837 87.1914 4.26243
-0.985603 115.962 -9.47882
-11.4052 96.4481 -13.0567
-17.0784 84.0419 -13.1622
12.4165 138.61 -2.32181
4.79118 122.668 -3.18216
-17.4754 84.5683 -14.4308
12.705 139.099 -1.99243
7.22242 130.882 -5.99031
12.3638 138.663 -2.30308
-16.1645 87.7302 -14.6243
1.45122 118.36 -6.12149
8.49428 121.427 6.80721
8.06269 118.574 8.77289
6.58137 124.04 -0.21966
-4.10591 97.1347 3.23156
-12.5102 94.727 -13.3468
2.94775 116.129 -0.199669
6.73614 124.498 -0.202696
-19.3998 78.9612 -12.5998
6.46312 129.37 -5.74181
-7.57585 88.7056 4.42652
-5.25035 94.324 3.94427
9.31867 127.557 2.82747
4.11841 122.033 -3.27204
0.871346 118.226 -6.73493
-16.9544 84.7214 -12.7076
16.4571 142.684 3.62068
15.5558 140.973 3.40559
6.02835 128.5 -5.39896
-9.43649 101.992 -13.1824
-15.9466 88.7486 -14.3068
-11.2242 98.475 -13.5623
2.87245 120.571 -4.25007
16.9513 147.21 0.412873
7.59316 127.029 0.0413338
9.3554 128.313 2.77131
9.50376 127.819 3.62682
8.12401 134.25 -6.13844
10.9629 126.824 8.02212
10.656 140.318 -6.5974
-18.7673 80.4808 -11.7181
6.18072 129.574 -5.57143
-6.35086 93.3128 3.33958
1.45957 119.626 -6.01171
-16.6693 87.8305 -14.4672
7.79376 133.533 -5.89857
-18.2004 83.7894 -13.7329
5.82908 128.123 -4.70235
8.3014 120.663 8.67455
-9.3936 86.839 3.33346
3.26718 121.576 -3.63635
8.9673 121.182 9.76336
-2.21306 102.642 3.50438
6.36384 130.456 -5.64145
-14.5285 93.1656 -14.6773
-18.245 82.577 -12.2004
9.33951 127.647 4.22877
8.18374 121.229 8.24866
-5.05369 110.781 -11.0503
-16.2602 78.2282 -2.93495
-18.091 84.068 -13.084
9.82585 124.988 8.27714
15.5342 146.001 -0.38749
-15.8736 90.1826 -14.2734
11.779 131.019 6.60779
-3.70544 99.6817 3.79664
14.6839 140.354 3.72598
11.2659 129.669 6.97602
-0.933797 106.339 3.3013
10.0276 125.739 8.30915
5.89868 129.928 -5.40464
-0.0995817 109.08 2.5985
10.48 127.075 8.17313
9.35541 122.927 9.91539
-15.7227 91.4398 -14.6302
8.698 130.246 0.932141
-15.0134 93.1018 -14.662
7.29368 128.102 0.0385943
-11.3291 85.7489 1.38722
13.366 142.371 -0.713351
-20.2723 79.7376 -12.5171
12.4596 141.172 -1.37892
-0.120894 109.643 2.61261
9.3942 130.115 3.15957
0.304305 111.435 1.74739
-12.1211 99.1355 -13.8101
14.2599 139.897 4.23243
4.21264 121.837 0.00928371
14.2014 140.049 4.20347
-2.25091 116.82 -9.27654
11.0753 142.283 -5.14245
8.92303 131.77 0.849157
16.4026 146.503 2.68514
15.3354 147.044 -0.299766
2.61898 122.483 -3.88909
9.3976 131.073 2.68165
-10.6566 102.127 -13.0764
3.65232 123.976 -3.03513
-4.4786 113.221 -10.2932
-16.0643 79.3768 -1.70708
-7.41049 108.258 -11.7656
-6.95206 93.3623 4.65912
13.2348 137.151 5.4593
-20.9446 77.8079 -11.0174
4.83641 124.147 -0.113676
2.09576 117.565 0.478849
-7.22969 92.9786 4.65581
-13.2911 83.6459 0.494148
15.1567 143.201 3.81413
-5.63592 111.328 -10.5773
-20.8973 78.1649 -11.0805
9.20891 140.306 -6.60269
-13.8046 96.2835 -13.5346
-1.44796 107.055 3.55821
5.36279 130.509 -5.09562
-8.12296 90.9307 5.0737
11.1629 143.371 -5.06035
-13.3894 97.787 -13.8109
1.10161 114.937 1.50281
3.2554 120.913 0.28186
11.8963 142.555 -2.36352
-20.5243 82.4334 -13.9164
8.74317 126.563 7.21703
10.7004 130.591 7.55372
9.71904 142.247 -6.67929
9.37453 133.862 1.19702
11.2773 143.907 -4.77464
-17.8516 88.5392 -13.8689
-19.6459 75.4538 -4.3742
12.6733 143.371 -0.82589
10.7365 131.248 7.28713
10.1154 129.425 7.78572
11.5862 142.133 -1.9266
-11.0249 103.083 -13.0657
15.7706 146.091 3.63532
1.59302 122.825 -4.5991
8.91963 140.929 -6.53684
-14.1378 83.6485 0.195029
9.1911 132.556 2.82899
-11.3869 102.59 -13.0466
8.63728 126.263 8.11865
-21.423 73.9207 -6.24768
11.9247 143.586 -2.20809
-15.1309 95.5432 -14.2184
-12.3281 101.168 -13.6353
3.82111 123.355 0.262219
9.27531 142.056 -6.59172
11.9376 144.773 -3.32514
-21.3096 74.0755 -6.01346
-0.889848 120.438 -7.36758
-7.59578 93.2199 5.56838
-8.5195 90.9802 5.80585
-7.92287 92.7168 5.37213
-20.3245 83.3951 -13.2343
4.47096 125.266 0.0197587
-20.7047 82.4852 -13.1351
-20.6738 82.8147 -13.3519
-11.1729 103.575 -13.1261
-16.6455 92.6894 -14.3434
-13.0774 100.267 -14.0301
-0.797236 110.495 3.40204
0.583679 114.781 2.15655
14.7542 148.092 0.0460878
1.59008 117.862 1.29476
0.0968668 113.642 2.28512
4.45463 125.464 0.0257378
0.312243 122.325 -6.16559
-10.785 104.904 -13.4279
-5.96426 112.351 -10.0662
4.6964 129.15 -3.10598
5.21015 127.284 -0.00701326
11.8179 143.812 -1.99101
13.4962 145.593 0.0438525
-2.05286 119.322 -8.20887
14.7193 148.362 0.0370277
4.59006 129.011 -3.0336
9.77298 130.38 7.37803
-16.7817 80.7286 -1.79586
6.07371 135.045 -5.80772
11.6462 145.172 -3.51973
8.67934 129.646 5.75827
1.83595 119.291 0.953636
-21.949 81.2952 -13.9588
-7.63542 94.3128 5.32349
-21.2463 80.5019 -11.3122
-4.55451 102.364 4.19221
-7.42819 95.1624 5.11254
5.54431 134.076 -5.48556
-7.50361 110.311 -10.6036
14.862 145.325 4.18563
4.64659 130.596 -3.81003
0.206628 123.033 -6.11015
1.29522 124.193 -4.75325
-21.8071 81.4455 -13.2124
-15.0425 97.2562 -14.1292
12.7618 138.834 6.26764
7.45198 139.41 -6.36147
10.0763 144.507 -5.58278
8.22116 134.437 0.618727
1.30336 124.378 -4.72465
-3.85813 105.002 3.54259
8.76347 131.054 5.42209
-20.5144 75.902 -4.30521
-7.51633 110.601 -10.4719
-9.94891 90.4929 4.82586
3.99041 128.457 -2.60214
-8.55388 109.366 -11.448
0.792101 116.619 2.36776
-1.10241 121.502 -6.98103
13.6939 147.193 0.212279
-16.1436 82.5705 -0.960572
-11.834 88.9261 2.31332
3.91601 128.402 -2.55276
13.0584 146.874 -0.779628
-5.0143 114.969 -8.94759
-14.3315 85.2209 0.58465
0.649762 124.154 -5.4285
-22.0742 75.1544 -6.58184
-23.028 75.3818 -8.9787
-0.805978 122.314 -6.73311
-21.2461 84.035 -13.7178
8.70881 136.256 0.755785
-0.247417 123.293 -6.1379
10.4595 145.982 -5.17745
12.5514 147.081 -1.5111
-4.81703 103.343 4.12907
-14.6226 99.4125 -14.1309
-22.1538 75.4336 -6.52262
-21.8233 81.0488 -11.5405
9.21945 132.829 5.6965
11.5763 137.363 6.39139
-9.9387 91.0272 5.23772
-20.9601 85.1116 -13.7346
11.287 136.665 6.50969
5.73657 136.396 -5.84981
-11.8644 89.5774 2.4763
-5.36998 102.221 4.25555
4.32631 131.456 -3.75174
-6.2234 99.8688 4.8656
3.91734 129.584 -2.6863
-23.1262 75.7537 -8.63905
-0.495369 123.208 -6.07711
14.7593 148.465 2.63933
4.20712 130.63 -2.97152
10.0847 135.364 5.68593
-5.09983 115.802 -8.49776
1.68525 126.347 -3.93151
14.4516 147.651 3.1519
10.8106 138.497 4.31389
10.7911 137.548 5.39298
-0.155479 115.523 3.21498
10.7929 138.247 4.74492
-16.8626 83.0501 -1.203
-0.522817 114.729 3.33647
-7.50632 112.007 -9.74941
9.63693 145.742 -5.52484
-1.88078 121.847 -6.89153
-21.1492 76.8288 -4.24327
-20.7286 77.6781 -4.15582
9.50786 138.338 2.20332
-21.7611 76.5487 -5.17266
-21.9025 84.5082 -13.7097
14.4862 149.56 2.00287
-13.5541 88.6478 1.04085
10.8857 145.901 -2.36306
-8.60701 110.976 -10.6467
-22.9513 81.5396 -12.9056
-10.1915 91.8905 5.48225
11.594 147.541 -2.35321
-0.93539 114.18 3.5721
-17.4725 94.7956 -14.0466
6.74846 140.537 -6.05623
11.2179 146.841 -2.35476
4.30333 133.122 -3.88069
1.14301 120.091 2.37573
-2.6529 109.511 4.68882
-16.0184 85.0275 -0.358171
1.93921 122.671 1.69085
6.6047 140.467 -6.04276
0.224574 117.398 3.29898
10.7631 140.11 3.86616
-18.3159 93.2588 -13.8135
-12.8707 104.309 -12.8078
10.6084 146.896 -3.27207
-18.826 81.1286 -2.2732
-17.0015 83.9252 -0.981623
6.97921 135.456 0.466131
7.04834 135.768 0.317751
-14.7478 87.3743 0.66791
-6.63021 114.396 -8.73815
13.2742 149.004 0.917451
-11.8926 91.1243 3.37556
0.742292 119.345 3.02023
-23.081 76.7603 -7.24016
5.91747 139.45 -5.83692
4.45992 134.912 -4.38246
-8.2865 112.074 -9.83013
13.6686 150.219 0.812017
-22.3878 84.5833 -13.4917
-0.420219 116.36 3.73894
4.80609 130.62 0.969151
-22.6191 84.0841 -13.4267
-13.7122 103.514 -13.1949
8.54408 138.488 1.3984
-14.6509 102.056 -13.7921
-4.0319 107.736 4.55432
-8.84555 96.1577 5.59715
-17.5228 95.9329 -13.9057
-13.4414 104.077 -12.9639
-1.9333 122.753 -5.98678
-1.09718 114.909 4.02115
-20.416 79.9528 -3.82335
-7.19818 113.951 -8.78648
-9.49911 94.974 5.57949
11.0618 141.2 4.68376
11.6819 141.793 5.52543
13.2057 149.748 0.794747
-23.3722 77.3206 -7.72515
13.4106 148.236 2.86145
-0.732924 124.916 -5.12175
-11.8516 91.6374 3.91949
-23.5855 79.503 -10.2688
2.92704 126.544 1.54679
0.381666 126.694 -4.39847
-12.8244 91.0713 2.32918
-15.0952 87.8032 0.622277
4.012 133.929 -3.47843
-23.8828 78.411 -9.65091
-22.7383 81.2767 -9.96454
-13.0959 90.9629 2.13655
-22.5732 85.0905 -13.3737
-7.67079 100.227 4.95231
8.87716 139.512 2.09679
8.23119 139.186 1.02759
7.90055 138.83 0.648793
6.12982 135.072 0.516078
8.88569 147.071 -5.47375
-14.0614 90.002 1.20633
8.64915 139.716 1.77421
10.6974 148.762 -2.89555
-9.63567 95.7051 5.6816
-8.72292 97.7652 5.63728
3.82341 129.339 1.67203
5.46477 134.207 0.555945
12.9984 148.787 2.65939
0.638537 120.78 3.43095
8.75655 140.096 2.00783
-2.3744 112.592 5.08764
8.39296 139.975 1.41675
6.67604 142.989 -5.5975
-19.2034 93.6081 -13.2728
5.43465 140.223 -5.27056
7.92921 146.113 -5.66983
-17.399 97.7907 -13.4322
-4.09509 120.586 -6.63164
-2.1386 123.575 -5.25311
-20.2766 90.334 -12.2338
-20.4618 90.0143 -12.2908
3.092 128.125 2.03268
-0.573846 118.061 4.14427
4.11407 136.292 -3.96039
-23.2844 84.394 -12.6268
8.32822 140.587 1.43893
-24.037 78.942 -8.62012
7.41386 139.791 0.204265
9.55235 141.548 3.30101
7.27184 145.111 -5.53991
-2.16211 114.022 5.08977
5.80541 141.632 -5.21402
6.34728 143.022 -5.39238
-15.1614 89.706 0.792678
-23.7373 81.1555 -9.85121
-9.44066 112.699 -9.81412
-12.8102 92.4101 3.48245
5.05106 135.097 0.189158
-20.9743 81.2004 -3.36079
12.3576 149.061 2.52628
-0.9416 126.463 -4.2832
11.0146 150.015 -1.35727
-23.3038 85.3106 -12.597
-8.95692 114.163 -9.58408
11.7969 147.603 3.15848
8.0801 147.591 -5.23758
4.37055 134.184 0.28392
-22.5899 79.6481 -4.7996
10.7929 150.204 -1.60514
-1.85945 115.94 4.97368
-22.0391 80.352 -4.23481
-10.2485 112.264 -10.277
9.1022 142.214 2.87449
-9.42717 98.6689 5.6854
-23.3755 79.7169 -6.36216
7.90718 141.486 1.12814
-22.389 80.1728 -4.55622
-22.8852 79.7077 -5.1462
11.8927 149.107 2.4875
-9.19575 99.8222 5.40362
5.29106 141.825 -4.87835
-9.89181 97.8517 5.9695
-20.1822 93.5569 -12.9922
-23.859 82.6555 -10.0876
-24.078 82.1889 -9.98536
-22.7112 87.1779 -12.0149
-15.4203 104.285 -12.9542
-23.6332 85.8278 -12.598
-24.3751 80.5254 -8.79409
-24.4602 81.3293 -9.81403
6.39562 139.721 0.183189
-19.7917 94.7071 -12.8738
11.0407 147.422 3.11527
-3.09996 124.225 -4.97746
9.56498 150.598 -3.34177
-17.1113 88.728 -0.163632
-9.85475 99.0295 5.75026
-21.516 82.6121 -3.82783
-0.311827 121.648 4.16087
-9.64612 114.729 -9.92561
-1.88488 117.305 5.21171
-23.0943 87.0692 -11.8347
10.4739 146.505 3.28095
7.22669 142.061 0.582568
-5.76023 109.097 5.04463
4.45476 135.931 0.678685
-5.29285 110.03 5.25157
-9.67756 115.029 -9.8812
-21.028 92.5272 -12.4935
-6.66706 118.859 -6.95708
-7.21706 106.373 4.68656
-3.42922 124.115 -4.96892
-7.7834 117.185 -7.7138
5.21759 138.251 0.191854
8.40515 149.923 -4.49079
-13.4426 109.253 -12.2139
-11.7246 95.0607 6.35989
9.11983 150.799 -3.6522
-4.03015 112.635 5.88376
-8.07652 104.772 4.82767
0.0302914 123.365 4.0971
2.45275 135.048 -2.30301
-22.7349 82.2675 -5.15126
-20.4224 84.4037 -2.05634
-3.20787 124.966 -4.73062
7.77755 143.423 1.27528
-22.9189 82.114 -5.33222
-17.1802 89.6441 -0.0306295
6.01166 140.742 0.0853799
-19.3826 86.2588 -1.48318
1.7882 128.529 3.15814
-9.07559 102.745 5.09966
-14.1057 93.7134 2.98222
-15.9696 91.4276 1.13567
4.31365 141.369 -4.18901
-15.5649 91.8945 1.64755
-1.75854 118.92 5.21631
8.37663 144.734 1.68563
-5.20337 121.798 -5.54592
-24.203 84.4631 -10.2564
3.17343 134.006 0.979044
-18.1051 100.452 -12.8173
3.11989 133.934 1.00044
-24.2092 84.7558 -10.4573
-18.4509 99.5377 -12.6027
8.25621 150.509 -4.26258
4.98577 139.081 0.172482
-11.7602 96.1387 6.37847
-9.30724 116.726 -9.26346
-13.2122 110.736 -11.8912
-1.70324 127.774 -3.24438
-0.90507 129.597 -3.1962
-1.52982 128.226 -3.20255
10.3453 148.842 2.56142
-16.4109 104.918 -12.9835
11.3207 152.895 0.659371
-13.425 110.547 -11.9354
-13.8327 109.961 -12.0432
-10.3376 115.719 -10.0263
-22.4769 90.5449 -11.6783
-24.9808 82.2496 -8.79496
-19.9204 86.4974 -1.59318
5.44899 140.914 0.00916724
-15.7681 106.778 -12.869
9.23411 151.453 -2.05159
0.540043 132.444 -2.22245
-6.96658 108.911 5.10301
-4.22214 124.403 -4.63604
-3.64958 115.372 6.07992
-1.5662 121.032 5.00131
6.6158 143.689 0.275204
7.82681 145.499 1.2806
10.408 150.406 2.11363
-6.32193 110.377 5.39162
7.24409 144.799 0.810061
0.969196 128.233 3.62766
0.986704 133.922 -2.19893
-19.233 88.1848 -1.00759
3.06288 135.168 1.26226
-24.7798 84.5583 -9.8558
-4.00424 125.158 -4.4301
-1.06839 130.69 -3.2815
-21.7312 94.0056 -12.4362
-23.4006 89.2436 -11.264
10.1749 152.578 -0.114098
-18.0301 90.1558 0.119547
-22.4827 91.9445 -11.8229
9.63446 152.145 -0.725603
-21.38 95.063 -12.4104
7.63478 150.966 -3.97376
-21.0654 85.8644 -2.04327
10.2993 151.342 1.88679
-12.4542 96.5792 6.61681
-22.816 91.5438 -11.7571
0.130131 132.968 -2.26003
-4.00937 125.677 -4.14503
-18.3173 102.631 -12.924
-21.7041 85.3547 -2.75957
-19.4745 88.4976 -0.900788
-18.8279 101.318 -12.6579
1.68259 136.379 -2.12769
-24.8433 83.1419 -7.5559
-17.6072 104.418 -12.9097
6.1423 148.604 -4.35667
-8.31871 107.443 5.25215
-5.50672 123.439 -4.83909
-6.46811 111.309 5.63789
-8.46233 119.801 -7.65684
1.20168 131.318 2.49595
9.84146 151.233 1.78971
-23.7846 89.7629 -11.2637
-24.0173 89.0352 -11.0353
1.63868 137.183 -2.22918
-18.3872 103.477 -12.8425
-19.033 101.647 -12.4092
2.55287 139.772 -2.60233
-7.1555 122.193 -6.5212
-2.47628 129.572 -3.42233
-9.17161 119.641 -8.37331
-11.7588 99.5678 6.48491
9.23498 153.042 -0.796401
-21.4344 96.5779 -12.2894
3.5549 143.068 -3.31438
-2.83439 129.138 -3.41534
-24.7043 84.4366 -7.04119
-15.147 95.3058 3.506
-4.22422 117.063 5.91892
2.02264 139.133 -2.47451
-1.17515 125.272 4.56581
-3.20936 128.58 -3.45861
5.61575 148.807 -4.18394
8.75999 150.175 1.56429
-11.1322 117.228 -9.69553
-12.543 98.5326 6.66378
4.44063 146.108 -3.68722
-2.02604 123.465 4.98718
-22.5498 86.4415 -3.50762
-8.64992 121.236 -7.74146
-7.52978 122.808 -6.79287
3.84708 144.614 -3.35665
3.20839 142.843 -2.96842
-3.70899 119.667 5.20486
9.52761 153.847 0.193981
-23.3444 92.6508 -11.4842
3.3027 139.511 0.82405
-25.3277 86.9844 -10.0026
-18.254 91.9611 0.97381
5.83523 149.875 -3.91521
-24.6592 85.5686 -6.94439
-19.351 102.329 -11.9879
7.03536 152.194 -3.36864
-4.45837 118.088 5.71032
-4.30795 118.559 5.56842
-11.7638 117.134 -9.84537
7.77302 152.83 -2.20744
-2.86039 130.628 -3.4875
-20.6434 89.0535 -1.05362
-11.2645 102.99 6.02919
4.08755 146.099 -3.48724
-23.4201 93.1274 -11.3498
-24.9874 88.8653 -10.4695
6.74572 148.153 0.62978
-4.34476 119.038 5.44738
-7.75819 123.38 -6.78592
-1.33109 133.673 -2.76803
5.53134 149.957 -3.82654
1.32111 139.423 -2.40521
-7.99397 110.739 5.99428
-17.731 93.4566 1.77555
-16.942 108.325 -11.6984
-10.4154 105.606 6.00592
-25.2409 87.203 -8.74824
-16.187 110.27 -11.9202
-11.97 117.536 -9.76949
-22.296 88.0626 -2.82518
-19.5397 91.2589 0.151981
-23.8531 87.198 -5.43664
-25.2506 87.8643 -9.20648
-21.628 88.7712 -1.87838
3.29562 144.993 -3.16119
7.3497 152.991 -2.1808
0.441339 137.894 -2.31886
-25.213 87.2273 -8.37394
-4.88962 118.347 5.78334
3.01065 144.185 -2.89627
-11.4313 118.603 -9.35795
1.75885 141.143 -2.58245
-11.8469 117.996 -9.6132
-2.15254 133.24 -3.25554
-6.99674 124.961 -5.48186
-3.28138 123.181 4.86292
-23.3719 88.1798 -4.62882
-6.58619 114.229 6.70808
-23.8781 88.3887 -5.99079
4.04737 143.901 0.384022
5.26088 146.587 0.480718
-24.7112 91.3887 -10.7496
-24.3455 88.3549 -6.7485
-22.8384 96.3727 -11.555
-12.5439 101.289 6.82986
-1.17519 128.546 4.57913
-5.10786 128.053 -3.82889
-22.0431 89.1142 -2.18913
-13.2272 116.443 -10.3134
-0.324424 131.772 3.26911
-8.701 110.497 6.1824
-7.93359 112.221 6.1514
-14.7927 97.8361 5.44783
2.79619 144.724 -2.88426
-20.9505 100.911 -11.6804
6.64172 149.818 0.692602
-11.2306 105.003 6.31589
-12.4912 101.732 6.83345
-0.0603202 132.911 2.95777
-4.30823 129.914 -3.61514
-15.5181 97.1525 4.69665
-2.2625 126.231 4.89089
-13.4478 99.6901 6.86382
-21.4409 100.011 -11.6475
-6.86286 114.336 6.78389
-25.0008 88.5963 -7.88238
-19.9102 92.1474 0.0525497
-7.96623 124.743 -6.26686
-17.2775 109.656 -11.6594
6.00911 152.649 -3.00713
-0.314988 132.838 3.10833
-11.8591 119.183 -9.07963
-19.5776 105.032 -12.0407
-6.71373 115.181 6.89975
-0.848941 131.261 3.69013
1.27481 141.978 -2.52334
-3.82819 131.853 -3.56117
-24.5813 92.9234 -10.5268
-9.5374 122.452 -6.74723
-24.8394 89.5787 -7.56763
4.44645 150.199 -3.4182
-5.05484 129.65 -3.77691
6.10877 153.093 -2.55344
-3.42811 124.991 4.7657
2.38432 145.223 -2.76446
-17.1326 96.5459 3.07274
-24.9376 91.2469 -9.22659
-10.1266 108.938 6.24412
-2.0288 135.945 -3.1229
1.42775 143.046 -2.54992
-21.4155 101.353 -11.5134
-9.81224 122.353 -6.76541
5.57143 152.639 -2.99176
-2.02083 128.253 4.92467
-6.02636 117.929 6.49191
-22.0243 100.066 -11.4905
-21.0234 92.2748 -1.09263
-4.70201 122.579 4.89121
-18.7884 107.532 -11.6265
-10.4767 108.582 6.21968
-17.2466 110.947 -11.6162
-17.6218 96.3936 2.65475
-7.61324 114.369 6.90065
0.425276 141.368 -2.48723
-9.0065 124.854 -6.72978
-16.1523 113.616 -11.3916
-17.0536 97.1445 3.67961
-23.1901 97.9571 -11.0414
1.75818 143.828 -1.49801
-23.7033 96.6184 -10.6581
-24.7354 91.0925 -7.087
-2.02308 129.87 4.6603
-1.29063 132.681 3.50544
2.3135 144.119 -0.0192025
-8.24617 114.208 6.91887
-16.5158 98.3195 4.64363
-2.31703 137.079 -2.99046
1.39535 144.907 -2.56546
-0.506175 141.009 -2.77156
-24.4951 92.2088 -6.99517
-14.2043 101.595 6.9399
-1.74707 138.441 -2.70341
-16.0994 99.0965 5.29664
-23.3555 98.5644 -10.6444
1.53659 143.651 -0.507049
-23.8357 94.3763 -7.3804
0.084103 138.068 2.08518
-24.3404 95.777 -9.7576
-9.92355 111.597 6.75374
-13.9692 118.587 -9.63263
-22.5358 101.103 -11.0179
5.10884 153.491 -2.15004
-21.1825 93.8752 -0.473915
-8.06721 115.393 7.21827
-24.4206 92.2054 -6.06009
-23.8006 94.5404 -7.04034
7.08631 155.074 0.809253
-4.71022 125.446 4.55936
-2.70015 129.659 4.87924
-24.2929 95.145 -8.58273
-4.76921 133.575 -3.76793
-1.832 132.924 3.59422
-22.1612 102.097 -10.8664
-17.8946 97.6391 3.45307
-12.5682 120.507 -8.00166
-8.3672 115.172 7.20208
-19.2725 109.198 -11.329
-23.9252 94.2804 -6.31212
-12.5416 106.322 7.19582
3.92934 152.523 -2.95492
-8.67769 114.949 7.1369
-10.829 110.328 7.09301
-6.8763 119.555 6.57862
-12.0218 121.549 -7.16796
-3.47385 128.956 4.74615
0.01147 143.87 -2.67268
-3.67158 128.627 4.70568
-3.57121 136.502 -3.19316
-3.03753 137.858 -3.09509
0.213422 143.648 -1.54253
-18.8103 97.4895 2.80049
-15.091 102.026 6.78547
-12.6078 107.077 7.25869
-8.32434 116.374 7.46078
-23.3891 100.619 -10.394
-5.43043 134.101 -3.99496
-10.9072 111.308 7.17878
0.265402 145.699 -2.84611
-16.5737 100.522 5.4802
-8.35688 128.831 -5.01098
-22.9996 93.5657 -1.94399
-23.965 93.6384 -4.19158
-23.6521 93.6072 -3.36181
-11.8793 109.306 7.25233
-0.936785 138.062 2.50493
-3.8719 137.775 -3.85903
-2.8082 132.669 3.89216
-20.2842 108.142 -10.5757
-24.0716 94.6651 -5.22805
-5.48543 126.312 4.48163
-10.8428 125.179 -6.52048
-23.417 93.545 -2.48605
-6.71349 132.253 -4.40046
-2.43561 140.848 -3.46278
-16.9039 115.642 -10.1797
-6.13047 124.616 5.5047
-7.68332 119.772 7.02519
-13.2745 106.934 7.56526
-11.0101 112.231 7.27166
-9.20316 116.139 7.38698
-6.50525 123.429 6.08761
-15.6946 117.885 -9.10137
-2.53903 134.932 3.26167
-24.4329 98.1008 -8.4539
-8.10369 130.797 -5.00717
-6.81495 122.622 6.37329
-8.24843 118.491 7.41749
-23.9463 100.155 -9.39615
-15.8553 102.636 6.66993
-0.530217 145.765 -2.95089
-20.896 96.7835 1.26742
-3.32091 140.59 -3.88377
-14.7679 104.56 7.28919
-2.0615 136.798 2.98547
-0.955533 142.958 -0.850245
-11.036 126.623 -6.87661
-1.2168 144.674 -3.14639
-23.5681 94.8188 -2.49817
-4.9341 138.174 -4.80869
-2.07467 143.144 -3.41572
-23.8807 100.585 -9.08839
-20.1666 109.967 -10.2502
-16.1893 102.585 6.44984
-13.9673 106.484 7.53847
-4.46101 130.18 4.73305
-10.9919 113.493 7.31292
-23.8019 95.8571 -3.61069
-19.7889 111.887 -10.6748
-0.724471 146.605 -2.99597
-10.7197 114.576 7.32512
-3.49829 134.411 3.31079
-10.2994 128.254 -5.8049
3.198 154.244 -1.88165
-13.542 108.056 7.72797
-6.34563 126.682 4.93637
-13.8698 122.334 -7.70202
-23.0755 103.999 -9.72086
-16.6664 117.567 -9.0959
-7.26056 123.262 6.55762
-20.8159 98.2568 1.67625
-23.5088 95.9703 -2.09336
-6.09956 127.959 4.58823
-7.05063 135.93 -5.69594
-10.7234 115.175 7.4274
-12.1367 126.253 -7.13732
-4.90786 132.052 3.33877
-2.70677 138.139 2.17712
-1.83995 143.48 -1.27913
0.236606 149.675 -2.86708
-5.98427 128.613 4.72442
-13.6857 108.672 7.79822
-23.6641 97.109 -2.87104
-14.8367 106.551 7.54417
-9.21853 132.245 -6.11451
-22.3933 106.116 -9.12901
-9.9577 117.167 7.8503
-10.1269 116.878 7.79958
0.90261 151.626 -2.89918
-17.6268 117.117 -9.3783
-20.1467 112.47 -10.313
-22.3007 97.5641 0.270901
-4.6273 134.543 2.43537
-2.22965 143.184 -1.01198
-24.0648 101.345 -7.54075
-24.163 102.428 -8.84732
-17.5701 103.18 5.62083
-18.2215 102.482 4.89084
-16.4626 104.621 6.70488
-9.27182 133.485 -6.63921
-5.13553 140.935 -4.89351
-23.1103 97.4419 -0.908735
-18.8906 115.5 -9.92272
-21.3514 99.2272 1.28619
-2.61216 140.388 1.47614
-12.0769 127.563 -6.76441
-23.7247 97.961 -2.68858
-9.67386 118.838 7.76732
-20.6933 99.9706 2.15742
-4.1191 137.039 1.66237
-1.11564 148.265 -3.06525
-19.2274 115.068 -9.93475
-21.6949 99.1105 0.984037
-18.4394 116.793 -9.59596
-24.4398 100.077 -5.88672
-19.8901 101.268 3.33651
-4.55647 143.037 -4.50322
-12.913 127.63 -7.48696
-6.5257 139.924 -5.60777
-18.2844 103.58 5.16429
0.406161 152.499 -2.76686
-12.6619 128.196 -7.2928
-6.27732 131.295 4.05766
-9.44699 135.147 -7.07001
-5.49675 135.502 1.61164
-19.5236 115.781 -9.55726
-14.216 124.425 -6.3617
-16.4473 106.501 7.09482
-3.68062 140.03 1.55639
-10.5659 118.708 7.95386
-6.66291 130.951 4.25734
-3.57297 142.023 -0.124593
-7.93957 138.627 -6.53172
-7.07185 129.903 4.67458
-9.35124 136.407 -7.19519
-18.1865 104.607 5.54393
-12.8708 129.489 -7.97949
-20.9028 113.342 -9.58877
-24.0381 102.758 -5.76113
-23.1905 99.7924 -0.64789
-15.1547 123.988 -7.29556
-14.1501 125.368 -6.33116
-23.7765 99.9262 -1.92379
-8.35812 139.012 -6.90944
-8.57628 138.623 -7.00297
-4.43861 139.751 1.31466
-6.80237 133.453 2.4393
-5.47851 143.723 -5.00905
-23.779 104.74 -6.3859
-22.8248 109.3 -8.91204
-23.4909 104.347 -5.283
-21.4636 101.801 1.98639
-24.2025 100.985 -3.39565
-17.1461 120.683 -7.62201
-22.7703 109.626 -8.88354
-19.4216 117.426 -9.24466
-13.828 128.352 -7.77391
-11.2353 134.108 -7.70587
-21.6175 101.959 1.84321
-0.615368 152.68 -2.69205
-4.874 145.22 -4.56015
-8.84055 125.475 6.82291
-23.3426 106.353 -6.39254
-10.2301 122.069 7.27472
-6.6499 136.213 0.869196
-20.3386 103.557 3.43657
-10.4208 136.018 -7.47258
-0.884402 152.45 -2.71947
-15.8598 109.211 7.81618
-18.1149 119.5 -7.90496
-22.0031 102.078 1.22623
-7.15149 134.367 1.79826
-8.62587 127.201 5.90014
-12.9347 115.884 7.83646
-7.98222 140.615 -6.38923
-3.22011 148.447 -3.58552
-23.1804 109.318 -8.47986
-14.8394 125.786 -6.38822
-1.46027 151.819 -2.78528
-15.2932 111.184 7.77
-4.8027 146.159 -4.38139
-23.5977 106.769 -6.47193
-8.57186 129.406 4.42517
-22.5166 111.494 -8.65474
-21.0957 114.986 -9.02256
-16.5069 123.535 -7.24533
-16.7432 108.929 7.52723
-7.13748 137.068 0.451441
-9.52317 125.954 6.59165
-13.757 130.586 -7.80683
-22.5124 103.093 0.693248
-7.02895 143.419 -5.66656
-23.9212 103.026 -2.38872
-21.5039 114.573 -8.78884
-23.9102 103.264 -2.47391
-6.02604 139.823 0.770984
-23.2378 103.121 -0.522636
-23.891 103.875 -2.72669
-23.736 103.421 -1.89367
-23.8617 103.839 -2.59585
-20.9066 104.936 3.06298
-22.9465 111.339 -8.17707
-13.043 117.554 8.00775
-3.45426 149.758 -3.35524
-5.30645 143.773 -1.24887
-16.534 110.362 7.8758
-9.28551 128.559 5.59958
-23.9507 107.653 -6.16607
-9.5315 139.551 -6.22025
-7.11377 138.549 0.446462
-6.87287 139.031 0.516675
-23.3604 104.389 -1.07528
-4.41766 148.778 -3.71394
-9.82343 127.157 6.31992
-9.86068 139.242 -6.20774
-20.7512 117.629 -8.60428
-21.9459 114.849 -8.37637
-23.0033 104.12 0.301343
-9.27086 130.409 4.45166
-22.9345 108.384 -3.88633
-23.046 104.326 0.0596627
-22.933 112.536 -7.92546
-17.1071 124.459 -6.95132
-8.07956 143.317 -5.82947
-6.03422 142.921 -0.636508
-21.2027 105.819 3.15991
-6.29979 146.666 -4.97689
-23.571 108.309 -4.69152
-21.8488 109.248 -1.73465
-13.6243 132.444 -6.92403
-20.3774 106.818 4.22338
-17.5536 109.951 7.48568
-18.9224 108.367 6.04187
-9.72354 128.813 5.91004
-22.8439 105.952 -0.259075
-22.6696 107.479 -1.43749
-15.1124 114.834 8.25409
-6.82273 141.137 0.0681588
-14.9758 129.433 -6.35181
-20.271 107.344 4.44623
-15.8388 127.515 -6.27409
-14.5557 131.196 -7.01523
-21.7212 109.633 -1.04905
-22.3159 105.699 1.6589
-21.6256 116.768 -8.18874
-24.1565 109.77 -6.71994
-7.44034 139.956 0.240954
-21.6934 108.512 0.3658
-22.2454 107.737 -0.0709999
-7.92115 139.141 0.19282
-15.1302 129.07 -5.80412
-20.6527 119.219 -8.11841
-14.5458 130.889 -6.23712
-22.5226 114.938 -7.85968
-21.0826 108.761 1.84897
-22.9593 113.799 -7.618
-21.9687 106.461 2.29447
-10.4907 128.315 5.98182
-21.0263 109.77 1.14858
-21.9102 107.088 1.97464
-21.5824 107.337 2.52972
-13.0811 120.542 8.2685
-6.87612 147.518 -5.07994
-12.199 123.34 7.77781
-24.2169 110.255 -6.07789
-8.23087 138.915 0.824993
-18.1622 123.925 -6.29701
-20.2846 120.407 -7.36564
-20.7788 109.752 2.55242
-23.1692 114.072 -7.31051
-11.695 126.245 6.30946
-19.6076 121.535 -6.79124
-11.1821 128.152 5.5878
-20.3857 120.167 -7.03723
-17.0174 126.688 -6.09513
-18.2387 111.198 7.14128
-7.95859 141.136 -0.348618
-22.9852 114.894 -7.37714
-23.2318 109.729 -2.59092
-11.6137 127.363 5.67215
-15.7172 115.757 8.36519
-10.4174 130.662 5.07251
-14.9107 117.59 8.38746
-6.6953 148.447 -4.7526
-16.8949 113.524 8.0812
-17.5523 112.296 7.92975
-21.0448 108.765 3.75396
-22.2042 110.502 -0.531315
-3.88144 152.87 -2.52555
-23.3488 114.344 -7.04596
-10.4674 131.873 4.19799
-20.7508 111.379 1.96254
-14.4958 118.976 8.37795
-20.754 111.575 1.97523
-11.0782 140.614 -5.87142
-18.1077 112.238 7.62864
-8.2479 146.614 -5.33538
-12.3352 137.976 -5.65371
-20.415 120.542 -6.04425
-24.2143 112.021 -5.84811
-24.2696 111.665 -5.59393
-24.4725 109.814 -4.10402
-12.578 126.483 5.87926
-20.7302 112.091 2.23582
-13.8207 134.421 -4.95682
-19.1032 122.91 -4.95109
-6.84291 149.468 -4.33003
-21.2141 112.39 1.23569
-20.6958 112.529 2.27744
-18.3359 112.721 7.51168
-8.8696 139.472 1.61232
-21.7377 119.163 -6.6472
-14.1021 134.029 -4.51186
-9.93691 136.913 2.05576
-4.49106 153.314 -2.36429
-24.1299 113.665 -6.12207
-16.7918 115.858 8.41172
-20.5254 111.845 4.05421
-18.3069 113.25 7.65856
-22.5009 117.568 -6.18083
-20.687 120.443 -4.93992
-19.1007 124.695 -5.68893
-11.7422 132.968 2.55649
-13.8075 123.188 8.06542
-20.368 122.041 -5.66293
-21.9969 112.415 0.683999
-14.0889 135.19 -4.80022
-20.5607 114.042 2.29899
-18.4233 125.581 -4.71281
-22.9333 115.953 -5.01638
-19.9046 122.45 -4.82015
-13.5785 125.562 6.52712
-12.779 139.021 -5.52579
-18.8176 125.393 -5.10195
-24.1135 111.06 -2.33548
-19.0162 124.531 -4.54122
-20.2802 113.207 4.29194
-8.90042 147.408 -5.09572
-24.2681 111.133 -2.59582
-19.0952 124.269 -4.36853
-12.726 128.955 5.3647
-19.7564 123.685 -5.14682
-16.9051 129.99 -5.07134
-20.8672 120.517 -4.29026
-11.5589 134.28 2.75438
-20.3963 122.451 -5.15373
-22.3719 118.926 -5.96438
-8.9083 141.742 1.2105
-18.373 126.865 -4.92393
-19.6708 124.386 -5.26351
-19.8319 124.209 -5.36722
-6.27166 152.038 -3.20453
-15.3543 132.754 -3.93992
-21.2539 114.107 1.91702
-20.5156 122.155 -4.70172
-23.2955 111.86 -0.35594
-24.6877 111.952 -3.62081
-14.0607 125.38 6.88957
-21.4626 119.827 -4.21955
-17.6115 128.632 -4.53628
-19.099 115.503 5.84611
-24.507 111.721 -2.55599
-12.7925 130.345 4.96537
-20.3502 122.942 -4.57265
-21.2698 120.434 -3.97929
-13.1516 129.334 5.34777
-6.74356 151.927 -3.36814
-21.6164 114.176 1.74247
-8.11674 144.509 1.25227
-19.4328 125.386 -4.75051
-22.8514 118.278 -5.18633
-23.2468 112.669 -0.18318
-23.5601 115.8 -4.0181
-18.875 115.8 6.80723
-12.6236 133.444 2.83273
-24.6175 113.951 -4.13628
-16.9397 119.041 8.12993
-13.754 128.424 5.77159
-21.6205 121.62 -5.04422
-11.8599 143.01 -4.73058
-14.5844 126.427 6.49327
-21.395 114.869 2.95548
-14.0358 128.324 5.8876
-14.9075 124.85 7.5358
-13.343 131.85 3.92615
-24.6904 112.912 -2.27117
-19.9051 125.611 -4.46892
-13.739 130.07 5.02966
-15.6831 134.004 -3.41369
-13.7967 130.295 4.72748
-22.0844 120.147 -3.65566
-16.1286 121.664 8.51791
-24.1495 113.039 -0.835397
-15.3411 124.265 7.67571
-8.62519 150.291 -3.86356
-16.124 122.222 8.05682
-20.1563 115.938 5.38206
-22.1164 114.713 2.23558
-18.5061 117.099 8.05162
-13.0094 134.18 2.94327
-23.0823 118.801 -4.10197
-24.4166 112.931 -1.06455
-18.5632 117.126 7.99886
-23.0423 118.802 -3.81354
-17.728 119.366 7.7296
-11.7697 138.617 1.49936
-13.1032 134.322 2.95909
-18.0336 129.857 -3.54706
-15.5138 124.84 7.4133
-16.4983 123.286 6.81495
-15.3532 125.699 7.03855
-16.2089 123.916 6.9685
-16.3859 123.742 6.78247
-9.42896 144.767 0.957429
-14.6499 138.769 -4.72276
-14.8086 137.897 -4.15933
-14.2388 130.76 4.50949
-17.0222 121.09 8.2059
-17.3145 120.645 8.00295
-11.7529 145.02 -4.4764
-10.1823 148.707 -4.29554
-18.6248 118.601 7.58764
-12.2845 144.456 -4.33432
-19.2442 128.378 -3.53458
-22.4436 122.274 -4.38632
-7.57268 152.631 -1.83177
-22.6817 115.358 2.26376
-22.1595 123.016 -4.36846
-17.2355 124.994 4.97686
-24.3757 115.921 -1.8593
-18.456 119.985 7.42566
-23.3075 118.382 -1.77282
-11.6363 146.603 -4.30178
-19.323 128.829 -3.28585
-20.2833 126.234 -2.71861
-20.4621 117.352 6.16158
-20.2742 126.299 -2.62195
-21.4665 116.802 4.55752
-19.9736 117.903 6.83682
-16.8314 134.074 -2.67002
-13.9189 134.358 3.88168
-22.6483 122.574 -3.74864
-20.7435 126.166 -2.7842
-15.5271 130.451 4.72648
-19.8847 129.087 -3.78661
-20.7299 126.644 -3.12124
-22.4103 122.039 -2.1802
-12.4043 140.6 1.49069
-21.3105 126.033 -3.73117
-15.6625 137.225 -2.38512
-11.7052 142.524 1.25189
-19.4188 129.015 -2.35132
-12.4433 140.685 1.54837
-8.27873 150.154 1.30812
-24.7387 115.348 -0.214289
-20.5088 126.642 -2.18357
-11.1876 143.764 1.43464
-22.3698 123.377 -2.95263
-15.2887 140.019 -3.96766
-7.7313 151.776 1.16479
-12.7309 139.163 2.83591
-10.9798 144.304 1.51924
-21.1661 125.535 -2.27135
-23.5354 119.578 -1.51541
-23.1011 116.838 2.41578
-19.1161 130.054 -2.11997
-13.8335 143.271 -3.70478
-20.0328 129.809 -3.8589
-24.8901 115.8 -0.350619
-20.1853 129.621 -3.81403
-18.3468 131.785 -1.76779
-20.549 118.983 6.60866
-10.1405 146.961 1.73492
-21.6614 125.019 -1.82386
-19.0013 132.271 -3.23454
-11.2217 144.388 2.00641
-11.2862 144.183 2.07158
-23.8809 116.874 1.61406
-20.3354 119.944 6.55383
-18.1499 133.274 -2.21899
-24.0489 116.835 1.45957
-22.1584 118.227 4.38682
-8.66472 150.689 1.60434
-18.3735 132.247 -1.42603
-20.4924 129.572 -3.44043
-13.5076 138.204 3.6092
-22.6811 123.01 -1.53276
-20.9419 127.381 -2.03658
-20.3268 128.892 -2.14731
-21.9446 125.508 -2.3046
-23.6025 121.023 -1.38553
-23.1473 117.9 3.00451
-23.5923 121.533 -1.7034
-21.5354 119.049 5.56133
-11.6407 149.17 -2.99452
-19.2172 123.119 6.73638
-9.80504 151.953 -1.56472
-24.5298 117.675 0.388796
-14.6316 135.944 4.10234
-12.8653 146.655 -2.88659
-22.1136 126.08 -2.47945
-15.5602 140.026 -1.93977
-19.1272 125.485 4.95789
-20.8142 129.187 -2.65086
-12.1964 148.364 -2.79242
-22.598 123.903 -1.18795
-12.5159 141.774 3.41849
-19.1667 126.22 4.4042
-24.9068 118.512 -0.702554
-21.2236 120.531 5.61229
-19.7279 122.642 6.88199
-12.0009 143.394 3.12761
-24.3729 120.621 -1.27558
-18.1363 128.853 4.47251
-16.5896 131.806 4.97911
-19.4743 125.709 4.78565
-19.4592 133.071 -2.76426
-16.9575 131.175 5.11097
-22.367 120.106 4.22559
-11.6052 145.222 2.88197
-15.6533 140.237 -0.989401
-24.576 120.791 -1.11961
-18.6224 134.802 -1.9678
-11.641 150.466 -2.20769
-11.0541 151.246 -1.67602
-22.8839 125.13 -1.54766
-20.0331 132.221 -1.97401
-9.93632 152.812 -0.215521
-21.1391 122.264 5.85878
-12.2099 144.137 3.61278
-9.66146 151.165 2.19529
-25.0339 121.905 -2.57451
-16.002 140.092 -0.687239
-24.4448 122.97 -2.20566
-12.4867 143.51 3.89361
-23.6334 119.839 2.94759
-15.0766 136.21 5.54642
-9.92876 151.999 0.979321
-21.5469 130.666 -3.42012
-9.84588 151.391 1.92102
-24.8553 122.382 -2.28657
-12.7914 148.102 -1.34776
-23.5616 124.49 -1.41549
-24.7935 120.022 0.420449
-12.5048 148.813 -1.26734
-25.2086 121.142 -1.53368
-23.4927 125.266 -1.88302
-17.0197 138.648 -0.942004
-18.5708 135.805 -1.39735
-19.8759 134.334 -2.73901
-21.1372 123.363 5.84001
-23.8613 124.943 -1.9183
-23.8569 124.214 -1.03949
-24.466 122.981 -1.05425
-11.3869 147.34 3.58631
-15.1752 142.781 -0.19537
-14.0283 145.291 -0.169406
-25.1375 121.189 -0.524503
-12.3564 149.71 -0.803708
-11.1096 148.489 3.32893
-16.3562 134.86 5.59881
-16.865 139.838 -0.682305
-23.7051 124.873 -0.768747
-12.3217 145.284 4.11554
-22.0608 122.939 5.09882
-13.7725 146.166 2.78625e-05
-14.3515 144.591 0.355697
-24.507 123.432 -0.867068
-16.6939 140.297 -0.431622
-23.2822 125.636 -0.194253
-21.7884 131.765 -3.08399
-12.4037 145.364 4.28879
-24.5759 124.062 -1.34459
-17.9916 132.047 5.44066
-11.3857 148.406 3.60615
-20.1932 128.069 4.83665
-20.2396 128.018 4.8415
-23.4862 126.587 -1.06162
-11.5127 151.548 0.475325
-24.5606 122.621 0.651542
-18.3561 131.7 5.47326
-23.6375 122.052 3.47697
-11.0449 150.902 2.42885
-23.6072 126.958 -1.35713
-21.5855 132.263 -2.21936
-13.8448 142.576 4.8047
-16.6627 141.048 -0.00308363
-13.6807 143.069 4.91917
-25.6698 122.113 -0.638979
-11.545 150.929 1.80663
-24.7239 121.431 2.27393
-19.8587 135.538 -1.19704
-24.2552 126.388 -1.69811
-21.4134 132.613 -1.63331
-23.6576 125.975 0.237552
-14.468 141.551 5.12554
-22.0654 125.353 4.75425
-25.6847 122.72 -0.599716
-15.8105 137.878 6.29481
-24.396 126.495 -1.48683
-22.3044 125.2 4.62548
-14.5094 141.967 5.23004
-21.1203 134.871 -2.44406
-21.9951 125.713 5.03073
-14.7663 145.283 1.31684
-14.8738 145.149 1.22263
-12.5355 150.968 0.636293
-12.248 150.85 1.42373
-19.4683 137.511 -1.12335
-19.8197 130.335 5.48424
-24.5262 122.98 2.4528
-20.5621 135.591 -1.32927
-24.5612 125.484 0.0949134
-13.8274 143.795 5.73237
-27.3389 121.899 -2.38517
-25.9894 121.718 0.94866
-14.632 146.25 1.50772
-22.0904 126.209 5.39821
-13.31 149.374 1.53988
-20.9365 128.538 5.71461
-13.0442 146.723 4.95651
-21.4572 135.155 -2.15554
-13.58 145.095 5.57158
-23.3839 131.457 -2.66967
-19.4343 132.113 5.6953
-25.631 125.834 -1.91501
-19.7145 131.606 5.61507
-25.1352 123.704 1.68595
-25.8897 124.77 -1.08823
-12.5426 149.504 3.79741
-18.1709 134.456 6.52989
-25.4679 124.019 0.731793
-26.4046 122.122 0.622479
-21.7677 134.455 -1.43765
-22.2514 133.137 -0.984165
-21.483 128.342 5.8272
-15.76 145.198 1.53568
-21.4326 129.074 5.62787
-17.7222 142.49 0.51686
-24.0233 124.705 4.66166
-19.1937 140.066 -0.0643682
-14.7618 147.806 2.06064
-27.6073 121.324 0.174189
-20.4824 137.742 -0.284907
-18.1537 136.315 6.53034
-15.5795 142.285 6.49119
-13.4884 149.522 3.91383
-26.3751 123.47 1.57953
-23.0142 132.908 -0.502563
-19.4493 133.951 6.62479
-22.4013 135.251 -1.37807
-22.1752 128.868 5.88918
-22.5359 134.357 -0.493278
-24.0106 132.059 -1.1247
-18.5355 136.552 6.74551
-14.2111 149.169 3.60252
-21.9647 136.406 -0.836455
-20.7491 138.004 0.287733
-25.7637 124.338 3.01715
-17.5123 144.349 1.22248
-21.0551 137.828 0.344605
-14.4839 147.489 5.40097
-21.3675 131.589 6.28556
-14.5938 147.534 5.35269
-22.8648 128.523 6.50945
-15.5065 148.174 3.07178
-14.5695 148.813 4.63434
-22.8521 128.923 6.38174
-22.5806 136.264 -0.393582
-19.7972 135.234 7.07621
-20.36 134.757 6.36979
-15.1722 146.834 5.82795
-25.698 124.245 5.18389
-20.8141 134.386 5.98906
-26.0888 123.868 4.86896
-29.0587 123.418 -1.32962
-23.3745 134.368 0.369124
-15.2424 147.742 5.10091
-20.0742 141.067 0.995419
-19.8728 141.567 1.02753
-15.2118 148.41 4.72941
-25.4885 124.966 5.66294
-16.1119 147.837 3.81264
-22.5938 130.818 6.75059
-17.1067 142.188 7.53249
-17.0954 146.572 3.07493
-16.1197 147.989 3.86706
-21.4977 138.714 1.32504
-16.1073 145.874 6.52244
-26.8849 123.977 4.68446
-21.5176 134.858 5.968
-19.3702 143.861 1.78587
-19.3033 138.431 7.59876
-26.8948 124.334 4.87974
-27.6773 128.972 -1.38932
-25.3872 132.305 0.400568
-27.5298 129.771 -1.68578
-22.9138 132.052 6.53696
-19.1756 144.549 2.15676
-19.9562 137.679 7.58652
-27.2637 124.299 4.7797
-21.6003 135.371 6.26446
-16.7549 146.285 6.15879
-27.3303 124.327 4.78266
-25.0584 127.626 6.82093
-27.3918 124.435 4.82783
-29.6503 123.041 1.13705
-23.3354 131.809 6.59998
-20.4241 137.449 7.47628
-28.031 129.392 -1.41105
-26.4521 131.62 -0.00977649
-22.3944 134.997 5.86736
-19.4668 144.739 2.6882
-17.9978 143.708 7.15255
-24.328 135.694 1.02259
-21.8675 140.128 2.07111
-17.5597 146.129 5.94121
-27.3623 130.99 -0.718691
-28.8371 123.64 3.7145
-19.1851 145.43 3.29307
-30.6509 122.564 0.791908
-19.57 144.876 3.10176
-24.9743 129.287 6.98744
-28.2851 124.313 4.60659
-21.7714 136.589 6.84717
-29.0415 127.927 -0.749728
-26.1098 132.914 1.38134
-30.0705 123.793 1.7951
-20.9887 143.094 2.60714
-18.6657 143.97 7.01394
-21.3977 137.596 7.41184
-27.8495 125.544 5.42808
-26.1451 133.063 1.57243
-20.4417 144.097 3.19508
-22.5573 136.529 6.41405
-24.7817 131.885 6.26634
-30.2421 124.184 2.24147
-30.5766 124.18 1.51008
-23.2199 139.079 2.91243
-30.9176 125.013 0.0216886
-27.3117 132.195 0.8785
-20.9335 139.971 7.44873
-24.5209 136.056 3.35753
-23.4654 138.999 2.98022
-22.9356 136.988 6.41751
-29.2535 124.677 4.7613
-22.5567 140.848 3.3445
-30.9775 124.73 1.24339
-22.8183 137.494 6.85248
-20.2449 144.385 5.76707
-20.205 143.556 6.78266
-28.4932 131.59 0.315225
-20.9649 141.757 6.99078
-21.6026 143.311 4.14398
-22.0097 139.16 7.60397
-30.887 124.781 2.27267
-32.4294 122.944 0.677786
-21.1995 143.687 5.05395
-22.5327 138.434 7.64801
-31.6175 125.418 0.449008
-26.4683 130.974 6.44867
-29.1532 131.204 0.103617
-27.8944 132.676 1.68763
-21.9005 142.972 5.03243
-25.1999 134.876 5.87993
-31.5566 125.418 1.25933
-28.0076 132.709 1.82122
-31.4098 127.369 -0.315656
-26.2966 133.084 5.4759
-31.3293 127.943 -0.25228
-22.9119 142.298 4.11142
-29.4337 126.216 6.36966
-22.0539 142.656 6.42858
-23.8389 141.195 4.02123
-27.2598 134.668 3.26675
-23.9921 141.037 4.15179
-23.2619 139.952 7.20518
-28.5871 129.168 6.83319
-27.9704 134.238 3.12355
-23.6174 140.289 6.79744
-25.6299 136.468 6.25973
-23.5779 141.09 6.18309
-25.4724 138.701 4.57151
-25.2239 137.278 6.65229
-25.4349 139.018 4.43947
-27.6795 135.687 3.45619
-31.3581 130.501 0.467032
-29.466 128.567 6.80774
-25.6322 139.51 4.48932
-33.6206 125.922 0.563709
-32.2784 126.717 2.97293
-34.345 124.183 0.910642
-25.7345 137.738 6.63165
-28.5027 135.046 3.22805
-34.0077 125.508 0.754071
-27.2479 136.968 4.60709
-31.7021 126.664 5.28865
-31.4791 126.708 5.8812
-30.4518 128.238 6.71199
-30.028 129.772 6.76685
-28.5145 134.589 5.34194
-29.2966 131.846 6.42493
-30.5798 132.801 3.13872
-29.3973 135.127 3.95607
-30.1216 131.002 6.67969
-29.2018 134.378 5.56756
-28.7814 136.017 5.00623
-33.1077 130.253 1.29393
-33.7429 127.906 2.67961
-30.1636 132.374 6.29886
-33.8418 129.249 1.51369
-31.0219 132.215 5.64996
-30.9832 134.144 3.79837
-32.2414 132.324 3.07359
-30.6664 134.468 4.45039
-33.2389 127.629 5.83541
-34.0271 128.411 3.32688
-31.2829 133.217 4.82413
-31.2689 133.799 4.52739
-35.0259 127.06 3.1682
-32.2222 132.169 4.32116
-32.8995 128.699 6.40071
-32.531 129.868 6.21963
-32.1895 133.326 3.70104
-32.6436 132.349 3.82207
-34.8532 129.459 2.16717
-36.3209 126.558 1.96404
-33.6994 129.41 5.85532
-34.5177 128.098 5.45562
-37.1077 125.422 2.3751
-33.6352 130.551 5.2377
-34.1858 129.008 5.72437
-34.3622 128.707 5.75225
-35.1459 128.177 5.42814
-36.6018 127.489 2.87345
-35.3224 128.408 5.58278
-36.0766 129.137 4.00621
-36.6664 127.696 4.48334
-37.954 127.034 4.07747
