ply
format ascii 1.0
comment Created by Open3D
element vertex 1925
property double x
property double y
property double z
end_header
-0.0768401 91.4241 11.0821
22.144 123.652 5.70216
23.1646 125.038 5.60307
17.1794 118.379 3.96067
17.3607 120.288 1.41477
3.22549 93.5529 14.4354
-12.452 82.2767 0.701396
18.2717 126.631 -6.42215
15.7322 108.344 16.5594
18.4756 126.927 -6.43853
21.6654 123.156 5.68115
18.9735 121.292 3.26134
-8.3865 83.5566 6.95365
-11.5233 80.8066 4.98264
-0.620256 101.407 -4.95977
-4.04962 88.0648 8.7068
-12.8804 79.9548 3.66667
8.14356 110.535 -1.51332
8.85486 104.18 9.63036
0.101094 91.678 11.479
23.2211 132.715 -5.55795
3.78385 106.418 -3.61412
22.8557 127.275 2.18508
20.97 121.539 7.23649
21.9089 123.755 5.71117
22.7878 127.803 1.25806
21.7097 123.614 5.56024
18.8567 127.711 -6.32749
22.6975 124.792 5.74216
6.33012 109.286 -2.84977
16.9144 119.825 1.95425
16.2558 120.648 -0.542149
17.8033 121.602 1.08383
16.7387 125.201 -6.47364
13.3882 106.865 15.0207
-0.76499 101.739 -5.03586
3.42097 95.2274 13.2753
24.2637 128.415 3.70934
-4.20756 97.2711 -4.89817
-5.13681 95.9228 -4.67062
18.516 113.342 15.4336
18.1136 112.721 15.6412
7.25338 101.571 11.3005
16.6775 118.668 3.80122
16.6427 121.881 -1.16699
14.5077 119.62 -1.92544
16.3166 124.898 -6.37961
13.618 107.57 14.919
-11.0424 81.9917 5.30986
14.5277 110.739 11.8769
14.2672 107.519 16.3376
20.8116 124.271 3.74123
15.8722 117.151 4.88543
14.5265 116.493 3.30766
15.6693 114.072 9.27285
15.9762 119.906 1.04699
13.8906 107.922 15.2893
-13.058 82.1715 1.47834
14.6815 111.431 11.5441
-13.2575 81.3416 2.36534
19.7066 116.047 14.456
-5.90065 87.3228 7.80304
0.610235 92.5766 12.7769
16.5141 110.888 16.212
14.739 121.571 -3.64397
17.8476 127.172 -6.06127
24.2887 128.585 4.55109
15.9415 116.67 6.29011
22.078 124.962 5.78466
2.81768 106.475 -3.9915
-8.03091 85.1061 7.27331
16.2435 119.474 2.74691
18.6022 114.448 15.1099
17.1517 121.288 1.80194
18.5539 114.426 15.1256
3.4531 107.227 -3.70264
4.60408 98.0588 12.6266
19.2881 115.733 14.6173
16.6179 120.177 2.58573
-10.2058 88.7715 -2.34729
7.20797 111.393 -2.52918
19.0924 123.12 3.04532
-13.842 83.0649 -0.768324
8.87463 111.247 1.10875
20.4136 123.389 5.34067
16.1787 121.525 -0.0825156
20.2901 124.968 2.90454
20.5976 123.77 5.35123
-8.14111 93.358 -4.90674
10.8993 111.254 5.37843
14.1685 109.894 13.9539
15.5254 121.798 -1.569
21.5332 124.569 6.09186
14.0833 110.692 12.6698
13.5792 107.841 16.0861
15.9191 116.767 7.20328
4.7856 99.0314 12.4187
7.55843 104.072 10.2002
17.8357 127.846 -5.7978
9.96001 112.332 2.43551
-14.0028 83.0419 -0.106702
7.23145 111.731 -2.00495
16.6632 123.107 -0.719923
15.1947 114.596 9.50484
2.72334 96.0867 13.2172
15.8305 120.198 2.34612
14.9613 124.126 -5.37391
20.9998 124.878 5.4332
19.4747 120.088 9.77683
-11.0744 83.3258 5.65038
15.3798 122.454 -1.8499
24.3289 134.597 -2.6895
16.4476 122.756 -0.0846896
20.4108 122.942 7.47379
-2.52186 91.6092 10.1209
9.70652 107.989 9.24779
21.3631 125.914 4.90237
-9.26098 92.2378 -4.09352
6.7091 111.899 -2.47199
21.2838 125.837 5.05041
7.21994 111.905 -1.39906
14.2245 121.317 -1.92711
14.2094 122.425 -3.617
9.01152 112.227 1.71842
19.3488 120.222 9.92874
-8.99897 92.9707 -4.39787
18.447 129.217 -5.57044
10.9413 112.857 4.63422
24.3822 134.748 -2.25651
-7.96606 86.7606 7.3021
-5.64602 98.0608 -5.33718
19.8559 124.551 4.68454
18.7626 120.673 8.56095
15.5668 121.542 0.984405
23.3573 132.473 -0.283782
3.25578 108.77 -3.74535
19.857 120.368 11.3707
-0.407083 93.5338 12.3818
14.2353 123.226 -4.06715
15.4015 122.753 -1.00329
0.502733 105.819 -4.43723
-10.0524 85.1537 6.35965
11.3783 114.478 3.89807
14.4445 114.059 10.667
5.2311 110.912 -2.63689
14.3551 121.166 -0.288933
12.9773 117.288 2.93038
-8.00797 95.5418 -5.25889
14.0637 118.795 2.87697
18.7661 120.436 9.68844
9.89839 113.42 2.89397
-13.1635 82.9181 4.09245
11.2069 114.501 3.9414
13.6454 111.898 12.767
-4.44593 90.92 9.15812
-14.6496 83.501 0.399835
7.05135 112.344 -0.835838
20.4021 124.212 7.49465
-4.60366 99.9111 -4.75179
23.8739 135.717 -3.23962
-9.69519 85.9992 6.56369
-1.43618 93.5235 11.3891
18.6449 121.299 8.68604
15.2708 120.323 3.57721
10.822 113.799 4.77632
10.8442 113.91 4.70559
13.3621 110.634 14.7237
-12.0695 84.2942 4.78184
12.6481 120.493 -1.65523
21.3035 127.039 5.46065
20.9624 125.91 6.52294
-0.409101 94.3189 12.6623
17.0872 123.273 2.95549
23.2098 132.218 1.37215
15.0747 122.401 0.332674
13.8331 110.695 15.8226
5.45438 103.264 10.7156
-10.0619 86.0228 6.43429
14.8242 122.2 0.296927
11.5255 116.342 2.74771
13.3264 111.401 13.873
12.5569 120.366 -1.36655
15.4567 117.887 8.16852
20.5042 126.782 4.55287
-6.14756 89.6784 8.65448
-5.59903 90.2488 8.90573
-10.0615 92.92 -3.79505
-1.20287 94.0998 11.9138
19.107 125.99 3.27322
13.2726 111.411 14.1017
9.35759 109.396 9.58258
0.726755 107.102 -3.95167
14.6913 122.212 0.542552
14.5822 125.717 -5.00665
15.3468 117.945 8.45404
14.0738 123.857 -3.07451
17.7459 117.052 14.6134
4.34059 111.032 -2.65543
16.0307 125.247 -1.27704
16.8466 123.541 2.95323
-1.41713 94.1991 11.7713
-14.8465 84.0857 0.722863
18.5887 126.574 1.85742
11.0785 117.042 1.60707
15.7521 124.011 0.184692
-5.06631 91.2407 9.27061
15.0384 123.139 0.233946
8.29699 113.427 1.76762
15.6442 121.187 4.45288
14.8495 122.917 0.253946
4.49539 102.527 11.0074
2.16845 98.1889 13.134
4.70922 102.992 10.8491
11.6948 116.81 3.51816
11.1452 116.336 3.16861
11.4969 116.461 3.70097
-14.7907 83.6927 1.8772
-12.4978 88.8689 -1.46596
18.4756 118.723 14.0999
19.2883 132.294 -5.04743
22.4261 129.681 5.19779
19.6485 125.904 5.58964
7.24443 107.043 9.99243
-14.2075 83.9011 3.04246
15.8939 125.577 -1.1778
15.609 124.57 -0.14528
-3.73537 103.032 -5.40855
22.6935 131.702 2.98208
14.8577 124.683 -1.75761
20.4221 127.964 4.26209
20.7826 134.635 -5.19915
14.1248 124.202 -2.38341
13.6056 120.436 2.41106
-15.1673 84.1943 1.01069
20.3846 134.247 -5.19366
11.712 117.425 3.45134
-9.78581 94.5668 -4.05164
10.6039 114.612 5.61628
7.38713 113.577 0.881502
14.517 124.075 -1.03952
-2.77114 93.9192 10.9639
2.02107 98.8086 12.9648
19.5812 124.632 8.1953
0.49759 107.689 -3.58896
13.3423 112.45 14.5271
14.4973 125.413 -2.98657
16.9178 130.171 -5.33611
11.1339 116.583 4.04142
7.02431 113.628 0.49216
18.6647 120.792 12.5513
-5.19858 91.9209 9.55758
15.1206 125.964 -2.34777
17.8249 131.277 -5.12613
14.5399 125.636 -2.94794
3.61179 111.478 -2.75888
15.7147 124.274 1.62248
-3.06994 104.254 -4.80442
15.3696 126.079 -1.73212
-1.43213 105.786 -3.84196
16.5749 126.493 0.0746475
7.43451 113.972 1.16894
-9.37271 95.8663 -4.34906
18.4522 124.883 6.269
11.2735 117.193 3.9124
18.4119 124.95 6.17158
17.8896 124.776 5.43296
-15.2 85.2521 0.598431
-8.71214 89.0396 7.66439
15.144 122.688 3.33732
15.3366 128.426 -5.02914
2.97966 111.149 -3.00327
8.24553 109.306 10.2306
19.7174 128.026 4.36269
7.26042 108.064 10.3815
-2.47447 105 -4.1465
-9.32312 96.3996 -4.47411
16.4611 117.183 14.8262
11.7915 120.251 0.910693
18.0137 127.357 2.38946
11.2394 119.435 1.16089
22.1456 132.721 2.39072
9.87944 113.691 7.26889
13.9075 117.046 10.1628
-0.71291 107.036 -3.42067
-8.07087 90.1434 7.89584
9.77682 113.438 7.5392
17.5529 121.845 10.0524
20.1726 127.932 5.93145
-5.32242 101.951 -4.6761
18.4838 127.604 3.14004
14.3011 124.327 -0.0831642
9.85948 113.785 7.3335
-15.165 85.8976 0.551399
11.3728 119.87 1.09919
-10.2316 88.2457 6.78939
13.2033 113.851 13.9743
9.43067 115.984 3.29804
1.87572 100.308 12.4047
-8.42362 90.0596 7.74847
10.5675 115.92 5.76151
-11.7247 93.042 -3.29047
17.0666 127.226 1.36702
21.3842 137.096 -5.15609
16.69 130.987 -5.07081
15.4503 123.489 3.95321
-14.1658 88.4865 -1.01463
19.8388 128.447 5.12429
8.05216 115.045 2.3518
19.9724 135.595 -5.47322
15.9872 117.181 14.9046
6.56235 114.461 0.446403
13.556 114.145 14.7574
2.26867 111.295 -3.18173
-10.3093 95.4906 -3.85867
13.294 115.408 12.3744
10.521 116.067 5.90889
-13.3138 86.8783 3.58233
17.8133 125.278 6.45095
21.5169 133.487 1.22259
22.6985 136.733 -1.40649
14.0337 114.89 14.8973
17.0228 119.181 14.2411
5.28355 106.494 10.4623
16.3115 130.929 -5.00462
19.4258 127.424 6.5197
-9.96183 96.4752 -4.21411
-13.7743 90.0002 -1.8394
-13.9122 86.5324 3.19913
9.95625 117.139 3.56367
11.6423 121.095 0.896555
15.5713 123.165 5.51746
18.0397 126.345 5.61847
9.66181 114.091 7.80936
9.50464 113.345 8.65164
12.9289 125.4 -2.9948
18.7448 129.459 2.35443
10.7171 117.545 4.7476
13.7481 126.97 -3.56085
19.0689 126.396 7.83948
-12.3119 93.1007 -3.16827
16.1699 127.655 0.277077
14.3066 119.293 9.39874
-4.29197 94.5063 10.5788
-6.33542 102.025 -4.94976
10.0626 118.763 1.90439
1.16395 100.358 12.5746
18.3172 127.114 5.57399
15.199 127.051 -0.492807
-1.16872 96.8742 13.43
9.46903 113.928 8.36854
7.10423 115.381 1.61758
15.0033 126.671 -0.0311949
15.2757 124.613 3.66459
18.7849 126.616 7.54322
10.3494 116.295 6.71905
2.1375 102.545 11.6472
10.1078 115.668 7.34097
17.2396 122.988 10.3268
-0.0176223 98.4441 13.8114
16.8167 125.78 5.26454
-2.19606 96.4232 12.6077
-1.22415 97.0834 13.5475
-0.786695 97.3033 14.0839
17.821 124.101 9.86902
14.9678 125.11 2.71182
-12.7419 88.267 4.33157
17.3513 128.694 1.97482
18.573 127.288 6.61076
-0.194803 98.2395 13.9897
-0.0558458 98.6521 13.7655
18.0824 127.062 6.1982
-3.17399 106.257 -3.96231
15.415 127.761 -0.113713
20.9005 132.891 2.96463
-4.06453 105.592 -4.58423
13.5813 127.59 -3.31622
15.3564 125.423 3.57184
16.8757 122.537 11.0039
2.31171 103.521 11.3146
-13.2091 92.773 -2.87871
18.2595 127.118 6.78068
13.1963 115.981 13.8203
13.9938 128.932 -4.40154
6.6956 109.798 10.4914
-9.11081 99.7394 -5.26724
-9.49235 99.2657 -5.28654
10.8182 122.5 -0.615992
-12.5726 88.7786 4.78909
13.1331 127.544 -3.68669
17.3559 130.671 -0.117782
18.9059 129.836 4.26611
15.4727 125.572 4.06272
16.7788 122.966 10.6398
-4.61724 105.549 -4.90678
18.5412 128.188 6.36935
-0.826339 109.167 -2.73251
16.9394 126.584 5.78956
18.8743 128.907 6.06114
4.13566 106.653 10.9905
-7.26398 102.429 -5.08132
17.7156 127.312 6.25052
14.4645 127.671 -0.712543
17.8431 130.974 0.923829
-10.0325 90.8655 7.28439
6.2415 116 1.00682
14.8534 122.925 7.45357
17.875 129.387 3.55289
17.0253 122.157 12.9475
9.09266 118.242 3.27006
4.31922 115.665 -2.22272
16.8138 128.646 2.70543
10.681 123.396 -1.21856
-6.87214 103.349 -5.23837
15.4746 126.503 3.54122
-0.11623 99.7948 13.6139
15.7948 129.385 -0.198671
-6.13231 94.5293 9.92634
17.0799 134.481 -5.25127
20.8374 135.49 0.692996
-10.8037 98.2045 -4.68678
1.59941 113.044 -2.8712
-3.21214 96.8018 12.4734
17.7878 128.62 5.33647
7.26251 111.661 10.4917
18.199 130.089 3.94265
10.4381 123.093 -0.618251
13.9966 117.995 14.2203
14.9169 123.965 6.91698
17.3156 130.093 2.28587
0.00817717 100.598 13.2285
10.514 119.395 5.29646
21.3871 139.646 -4.09842
16.053 128.226 2.83556
5.42616 109.44 10.5766
-6.53339 104.564 -5.60292
7.24997 117.268 2.27434
-10.926 90.7158 7.04736
17.0649 128.066 5.23164
7.02059 111.748 10.4816
-12.3431 96.0193 -3.70129
4.20725 116.382 -2.13995
10.4395 118.951 6.30699
22.6559 140.468 -2.4626
12.332 128.095 -3.93187
14.149 130.049 -3.29186
18.9609 130.946 4.85748
-2.59598 97.7132 13.108
-14.7609 89.5902 1.51099
11.2681 121.893 3.58128
13.5108 118.147 13.8078
10.338 118.307 7.29131
-7.05765 94.4275 9.51404
10.6762 120.577 4.5706
-10.5444 99.5897 -5.24504
10.5917 122.819 1.1289
-12.9156 95.4116 -3.36248
16.2303 131.548 -0.929353
9.12098 119.949 2.77249
14.537 129.947 -1.78094
12.9598 125.445 1.99058
10.8395 125.799 -2.63155
7.54706 117.97 2.86432
15.0554 127.321 3.4109
9.33254 116.183 9.16834
15.2073 127.892 2.87887
20.7906 136.245 1.17736
-0.497486 100.619 13.689
3.42156 107.406 11.0855
14.2925 119.722 13.8075
4.06114 116.859 -2.01636
13.7009 128.459 -0.691705
14.6254 132.204 -4.57662
14.8923 127.529 3.20185
19.7262 133.015 4.48296
15.0106 127.641 3.39244
22.98 141.281 -1.71807
11.7403 123.61 3.11291
10.4004 119.976 6.12326
13.5594 119.082 13.7906
15.3067 128.246 3.22875
14.8093 120.789 13.6618
14.7314 120.715 13.661
15.0456 133.088 -4.65011
15.3084 129.212 1.85715
14.4843 132.342 -4.55413
19.3473 134.131 2.33099
17.001 136.21 -5.46061
13.2991 121.661 9.52451
-3.73254 108.393 -3.80926
13.5212 130.284 -3.16739
13.7284 129.914 -2.1843
13.2635 121.701 9.53767
6.33781 118.075 1.43945
4.5749 117.143 -0.576254
4.26264 117.205 -1.25388
15.1114 121.61 13.5016
9.49739 121.473 2.61555
16.0686 123.988 11.7928
-0.0434636 112.199 -2.00173
21.1034 137.753 0.754186
19.5827 134.845 2.21133
-14.8854 91.4554 0.469194
13.7922 131.23 -3.60175
16.3055 132.984 -1.21267
16.0323 124.158 11.758
8.48039 115.512 10.1526
11.8318 129.034 -3.8857
14.7386 129.118 1.73876
9.40817 121.605 2.73591
22.52 141.824 -2.28078
11.0344 122.916 3.98631
2.47835 115.962 -2.28266
13.5484 130.337 -2.35519
-0.182292 112.318 -1.92443
9.95766 123.862 0.456359
10.5104 121.55 5.08901
10.0225 125.155 -1.26872
12.2654 125.699 2.34893
22.737 141.671 -1.37971
-7.41073 95.4736 9.73813
-3.41129 98.3736 13.214
-8.43622 94.5364 9.16495
14.5864 133.61 -5.08585
-13.3563 91.3489 4.4178
3.10034 108.346 10.9897
15.1884 129.249 2.96959
-14.4962 94.114 -1.93975
-0.257132 112.464 -1.85605
17.3128 137.252 -4.99271
2.78853 107.987 11.1253
16.8391 133.94 -0.771321
18.9292 133.947 3.37984
-11.4407 92.2636 7.15224
16.1898 136.157 -5.36584
19.5747 140.042 -4.58834
9.44676 122.295 2.61069
7.53098 114.662 10.5601
13.883 124.511 8.05986
12.5378 121.371 10.2196
15.3249 135.305 -5.51624
14.2072 133.186 -4.4363
13.8834 130.32 -0.674866
17.12 130.826 4.95454
14.5489 133.692 -4.51378
0.677644 105.263 11.6002
14.6922 133.884 -4.47027
14.5196 133.613 -4.37105
5.26625 118.386 0.646982
-9.5424 94.1255 8.53931
14.7433 130.21 1.36812
14.5347 132.388 -2.37573
4.65908 118.153 -0.106809
15.0213 129.912 2.41222
21.3533 141.86 -3.3503
22.5617 142.168 -1.35638
15.7193 133.509 -1.61877
16.1186 131.681 2.02325
-8.53647 95.1442 9.33961
16.7361 134.876 -1.45482
13.3415 123.883 8.68567
17.0127 129.627 7.1679
-12.2519 92.4582 6.20463
11.5015 125.247 3.06733
-13.5184 97.0149 -3.17804
3.97365 118.115 -0.879425
14.99 133.765 -3.01885
20.7956 141.771 -3.74228
0.300712 113.988 -1.68785
-5.99517 97.3031 11.4577
5.61787 113.063 10.4608
15.1953 126.503 8.86811
-3.5958 110.132 -3.21489
4.37936 118.635 -0.457599
13.5493 121.802 12.8259
-0.600218 103.463 12.9651
-5.61307 108.336 -4.39618
6.21455 113.879 10.5388
14.8827 133.433 -2.18225
16.8031 130.887 5.54874
6.2791 114.028 10.5671
-0.154148 113.58 -1.45265
20.57 141.918 -3.80174
15.3691 125.631 10.866
12.5387 121.609 11.4268
-8.69962 95.5048 9.46913
15.2628 134.018 -2.07708
-14.5522 95.6243 -2.16795
1.85161 116.762 -2.07417
2.76843 117.917 -2.02875
14.8915 124.262 12.328
-11.6926 101.321 -5.07494
-8.15508 96.1446 9.88224
-13.6753 93.6547 2.80415
-8.74596 105.47 -5.52463
-6.70421 107.851 -5.06344
13.3741 130.952 -0.68486
-8.37143 106.204 -5.77035
-12.3199 100.267 -4.43074
17.133 132.083 5.17622
14.9933 125.693 10.7587
13.6892 134.082 -4.65329
-13.7355 93.8296 2.77515
4.82868 119.626 0.0253176
15.2312 130.875 3.38398
-1.64622 112.37 -1.64778
-13.3736 93.3286 4.32761
13.7727 126.315 7.52351
21.7496 141.211 0.513699
-14.7762 95.4293 -1.62209
8.0528 121.858 3.32218
-10.7469 103.133 -5.18786
9.75448 120.906 8.16154
14.6287 125.982 10.0314
6.14675 120.322 1.93627
-3.44322 111.025 -2.73003
-13.4162 93.7819 3.98573
-15.0995 93.8013 0.660386
15.1215 131.394 2.95187
-5.92494 98.3478 11.9148
3.33795 119.096 -1.50411
14.3583 134.723 -3.60397
1.97883 109.158 11.1306
7.12085 121.078 3.07126
8.95894 119.437 9.22528
14.9334 129.863 5.08623
19.771 141.859 -3.59589
14.7939 134.215 -1.7362
10.5681 124.5 4.79329
13.2256 129.97 1.69515
4.67049 113.153 10.5659
-5.12108 99.1742 12.6631
15.9804 135.258 -0.825968
-15.1451 94.0698 0.835291
7.46777 116.923 10.6305
-6.72088 108.901 -5.06687
9.84931 121.874 7.85885
-8.86917 96.4259 9.85426
8.97978 125.748 0.275691
-8.02276 97.1245 10.4789
12.5587 122.815 11.9076
9.76679 121.814 7.92797
7.39957 116.977 10.6601
16.3119 131.93 5.40811
15.5272 136.088 -2.45992
7.98272 122.704 3.12339
13.2547 134.864 -5.01307
-12.5901 94.3206 5.95002
17.995 140.212 -3.79978
-1.63016 103.48 13.7947
15.5252 137.633 -4.47728
-7.50399 108.586 -5.48215
14.625 130.253 5.14636
15.8876 136.911 -2.44452
8.18025 123.4 3.0248
-4.70874 111.126 -3.65862
15.714 130.32 7.38223
11.1533 126.821 3.74309
13.9454 133.113 -0.350835
10.2229 123.875 6.48886
16.6792 139.265 -4.21485
-2.81051 102.187 13.9955
16.0123 138.477 -4.29783
10.7138 130.968 -3.21905
14.9098 134.587 -0.443752
6.95518 121.971 3.14078
1.37769 109.568 11.1036
15.0354 132.786 2.69619
10.0759 123.183 7.60078
-4.92626 111.329 -3.901
14.3505 133.999 -0.470699
-6.27262 99.2604 12.0577
-4.74402 100.494 13.2055
15.1173 137.675 -4.4219
0.605226 116.869 -1.22939
14.3956 130.529 5.13921
-15.1481 96.1818 -0.63273
14.7056 136.261 -2.83215
-3.8462 101.395 13.848
11.4379 132.424 -3.29398
12.2379 125.529 8.84033
15.2983 135.296 -0.0501648
11.3062 132.227 -3.23584
6.54592 122.126 2.83611
0.730129 117.272 -1.14481
-15.0856 95.3586 1.17181
14.5828 135.199 -0.969226
13.0588 131.653 1.45682
12.4826 124.557 11.2562
-12.5271 95.5444 6.27453
14.4947 137.473 -4.46522
8.65101 120.954 9.27271
-6.97598 99.2539 11.6444
4.62585 114.71 10.9372
17.0054 134.755 4.82438
19.6947 140.085 2.04034
19.4704 143.368 -3.40407
11.7361 128.803 3.60057
-5.00464 100.948 13.1481
-13.2487 95.7803 4.79542
11.9462 134.176 -4.11826
12.284 125.417 9.98908
7.41999 119.223 9.93357
14.9104 133.599 2.75668
-5.01801 112.539 -4.26836
-12.5596 95.9269 6.34806
-2.21715 114.471 -1.51922
18.4913 142.426 -3.33566
13.8834 133.571 1.19033
-14.4207 99.6336 -2.75861
-1.3981 106.143 13.0802
17.5924 136.945 3.49955
11.5251 133.95 -3.82689
17.6722 137.62 2.77182
8.5354 126.058 2.41117
9.49395 130.578 -2.56779
-14.0946 100.54 -3.14676
7.10734 119.477 9.79611
-9.60476 98.0567 9.54659
16.0915 133.907 5.56458
-12.4062 103.75 -4.6054
-2.60244 114.477 -1.62672
-11.812 96.5612 7.65617
-2.66243 104.377 13.8302
11.0808 133.485 -3.51476
-7.18777 99.9648 11.7099
-12.4994 96.4407 6.7003
12.4754 125.692 11.3163
-15.1038 98.6567 -1.77108
-15.2794 97.9789 -1.05081
14.1308 132.63 4.0957
-6.27519 112.219 -4.96539
14.5839 137.547 -2.44265
14.9108 137.719 -2.05727
-12.6534 103.744 -4.5576
14.329 134.636 1.60432
8.31595 121.882 9.33107
12.5415 136.769 -5.09172
9.22536 123.736 8.38417
6.5224 123.954 3.11419
1.47909 112.411 10.8205
20.8929 145.018 -0.618894
0.964836 119.32 -0.671903
14.3938 135.595 1.1421
-8.13986 100.001 11.1348
4.99786 117.132 10.9256
19.6122 144.912 -2.6835
16.5827 136.245 4.59278
-4.28856 114.759 -3.76123
-15.0314 98.5783 -0.17975
18.75 140.624 2.30005
-8.98611 110.079 -5.76715
-14.6525 100.65 -2.44105
-14.7379 97.9888 1.4672
14.1476 134.048 3.39286
20.7946 145.47 -0.823014
-3.47247 104.464 13.9757
-2.36077 106.145 13.6097
-2.94685 115.501 -1.83776
12.5024 132.921 2.05446
14.4837 136.155 1.0307
-4.43931 103.377 13.8308
14.4934 139.338 -3.69648
-13.2266 97.3626 5.81818
-3.75463 115.415 -3.0518
-7.46906 112.194 -5.41581
8.0996 128.351 0.658341
8.05354 128.478 0.416825
12.3329 137.503 -4.89006
2.60045 114.535 11.0573
13.1094 129.581 8.82526
12.207 128.21 9.1749
-3.83198 115.545 -3.12696
4.74481 123.625 1.50931
-1.44745 117.061 -0.680235
2.32247 114.354 11.0211
-7.01492 101.606 12.0858
0.379454 119.323 -0.344148
7.23913 125.953 3.11567
-2.37555 106.734 13.5513
4.3225 123.656 0.924252
15.6966 134.954 6.19918
3.49719 115.884 11.3039
12.7878 134.125 1.80703
13.5383 130.988 8.12289
-5.19643 114.833 -4.18266
-13.2782 97.8787 5.79994
8.25849 123.7 8.95275
-14.6796 98.2867 2.58194
12.6655 138.212 -4.38299
12.5288 131.235 6.06309
-11.7588 98.7003 7.95821
7.99644 123.474 9.17771
-12.2469 98.6801 7.27681
7.244 122.568 9.25859
6.67937 125.895 3.06578
-12.5698 106.069 -4.64448
10.4121 128.362 6.70124
13.5184 135.655 1.73244
11.0402 136.828 -4.94257
0.540441 120.282 -0.270868
-14.5745 101.917 -2.04794
11.922 138.023 -4.89643
12.0777 129.729 8.15188
-9.64972 100.415 10.0844
17.3485 140.253 2.60679
-11.9863 99.1393 7.6504
13.0097 133.41 4.63533
16.057 137.102 5.01933
14.0084 140.161 -3.66546
-10.0057 110.485 -5.6458
-3.98237 116.667 -3.19312
14.5716 140.389 -2.80847
13.5297 136.838 0.639713
17.1671 139.626 3.5952
9.70382 127.303 7.69944
13.6226 132.697 7.25117
7.93703 124.249 8.95738
-7.23281 113.894 -5.15667
10.6998 129.901 5.93354
2.49728 122.956 0.426855
7.99949 124.593 8.80852
-7.20717 102.875 11.986
0.0442136 120.096 -0.025201
-5.20651 116.045 -4.12873
-0.519355 111.816 11.6373
8.35084 132.031 -1.73393
-12.6779 106.914 -4.83683
-10.9905 109.547 -5.47185
11.6524 133.226 3.08586
-12.8566 99.4208 6.36709
17.2452 140.709 2.80857
-14.321 99.4721 3.53877
18.309 145.288 -2.01188
8.2683 125.469 8.4899
-15.4941 100.932 -0.930338
-12.7908 106.835 -4.56553
-14.8982 99.925 1.85763
14.5534 137.488 2.61407
12.5208 131.518 7.74179
7.49946 128.624 2.26419
0.366152 120.885 0.0310305
11.8377 131.094 7.09073
4.26632 125.268 1.09166
-12.2099 99.9808 7.22955
-12.3808 99.9347 6.98445
12.9267 132.322 7.55612
4.75821 125.534 1.81785
0.942162 114.614 11.0687
3.97499 125.411 0.726172
4.0834 125.516 0.896286
9.55505 135.468 -3.48624
-3.73465 117.817 -2.65359
7.192 128.41 2.7669
9.95785 136.556 -4.09035
-13.5189 105.478 -2.86223
2.14968 123.335 0.828097
12.1791 132.306 6.9952
17.2361 144.642 -1.87264
7.90662 125.722 8.63973
17.321 144.786 -1.77171
-0.489751 113.039 11.6145
18.3405 143.012 3.02315
11.7917 135.216 2.01935
2.48009 123.961 0.851019
11.5878 133.069 4.92025
-6.43437 116.073 -4.68703
13.6252 140.139 -1.76389
-15.2646 102.413 -1.00398
18.5981 143.585 2.99905
13.5432 134.821 6.4311
12.0978 132.699 6.90605
-9.67943 112.675 -5.46623
-13.2804 106.83 -3.57257
12.9699 134.305 6.30213
-7.54832 104.272 11.78
-4.7531 106.561 13.8672
12.1982 137.163 0.554436
-13.9122 100.624 4.94136
5.08098 122.678 8.85063
1.91734 116.838 11.6673
16.6123 140.83 4.0732
18.0025 143.263 3.09939
-1.77816 111.555 12.5604
7.00992 131.626 -0.713364
11.29 135.643 1.68034
-14.5133 102.344 1.64105
12.2926 134.207 5.90994
8.02509 134.357 -2.64093
-8.80505 103.946 10.7154
-12.9858 108.658 -4.73705
-12.6275 101.979 6.38209
10.7707 139.806 -5.1758
17.7302 143.379 3.13933
-12.6863 102.068 6.29583
2.61709 118.675 11.1619
11.3114 135.921 1.9872
9.72342 130.986 6.47884
-3.06468 119.669 -1.41284
1.09605 116.602 11.5293
-3.22018 119.854 -1.75426
9.31557 130.257 7.23382
10.3769 139.717 -5.04349
-5.28965 107.245 13.6987
9.30601 130.398 7.18707
12.9483 141.773 -2.93328
16.9602 143.017 3.09695
16.1071 140.235 5.83884
18.8604 147.474 0.277834
-4.43976 108.409 14.0075
14.2443 138.987 4.18968
12.2711 135.338 5.96155
-7.92699 105.517 11.6867
5.18915 124.687 8.3029
11.9029 138.603 0.286559
18.3381 145.202 3.00341
2.70088 126.114 1.31969
12.8696 142.463 -3.5146
6.70014 126.49 8.74254
13.8232 137.005 6.78847
0.44299 123.601 0.860514
0.173329 123.273 0.864284
-0.885712 122.096 0.598624
12.9539 136.612 5.77013
1.71823 118.226 11.7037
13.8321 141.979 -0.688622
-7.19343 106.22 12.5136
12.7882 141.884 -2.48327
18.1088 147.777 -0.965253
-12.9038 103.182 5.98928
-4.32886 120.082 -2.91953
7.95074 128.525 8.53463
-2.83118 121.319 -1.73029
-10.6255 113.484 -5.12254
-12.6474 103.396 6.37555
16.3305 142.623 3.7026
-3.54058 120.96 -2.4224
-1.85428 121.463 0.152211
-11.1642 112.937 -5.10563
13.2221 141.577 -0.673093
-2.30568 112.994 12.3708
-9.85817 114.587 -4.92392
-13.5663 109.37 -4.27148
-13.3846 103.488 5.15158
14.4688 140.106 4.22172
-13.4825 103.892 4.3822
-15.2331 105.373 -1.27433
13.9046 142.685 -0.708024
11.103 138.078 0.832052
7.83407 128.882 8.45609
-12.9895 110.58 -4.55726
16.8453 146.971 -1.17195
-11.6746 104.083 8.09591
14.4739 139.133 6.39201
7.31652 128.442 8.6584
14.8816 141.097 4.35548
14.0271 139.277 5.46275
9.23828 132.289 6.69933
-3.36129 121.734 -2.04022
7.27404 128.516 8.64488
14.6697 140.634 4.79785
16.8727 147.49 -1.24895
13.2455 142.629 -0.950425
8.61367 131.022 7.6682
-0.155273 124.248 0.808778
-14.5372 108.034 -2.78213
10.8528 137.716 2.03588
-8.63892 117.093 -4.93335
0.943019 125.444 1.26194
-4.78102 109.945 13.7104
6.54065 134.578 -1.58184
10.9349 138.736 0.905349
-8.77588 117.1 -4.93362
6.20556 133.599 -0.395027
-6.01585 108.739 13.5656
2.07633 120.832 11.1682
-14.3029 105.572 2.17902
3.4923 128.781 2.04805
2.03967 127.1 1.79865
10.9086 139.131 0.931502
1.53679 120.289 11.3425
-11.8095 105.687 7.32214
9.96427 134.766 5.98573
15.3001 141.569 6.14769
-13.1537 111.772 -4.39032
5.86827 132.216 1.97539
1.25044 126.507 1.6096
4.87465 130.347 2.93924
-15.2604 107.324 -1.54431
3.31941 124.084 9.55698
-9.92802 116.255 -4.61831
-10.3609 106.249 9.95025
-11.122 106.5 8.06581
-14.3711 109.828 -3.38777
3.02662 128.737 2.10609
-12.1457 113.621 -4.73854
5.75269 132.424 1.93078
10.9592 140.047 0.735105
8.86509 140.914 -4.69702
-8.61502 107.638 11.6824
-11.8939 107.754 5.04873
15.2047 143.304 4.29612
-10.213 106.958 9.73403
0.652231 126.41 1.48666
3.77602 129.908 2.34091
-10.5682 108.361 7.11042
7.81028 131.718 7.73678
2.59254 122.983 10.7892
2.35714 128.399 2.09349
8.55869 133.161 7.173
2.33971 122.68 10.9437
10.1767 139.03 1.42574
17.4283 148.183 1.82108
15.0181 143.479 4.39925
10.6121 138.375 3.5528
-10.4796 108.719 7.26618
-14.1313 111.241 -3.8104
-6.29077 109.936 13.7106
-15.5857 106.936 0.171563
12.3151 145.282 -3.26549
8.88725 134.455 6.5764
9.06087 135.004 6.08143
-3.11278 124.084 -1.26684
1.26006 121.661 11.1033
9.37503 143.049 -5.33613
13.7059 142.244 4.52121
-2.29706 116.81 11.8492
14.0406 142.546 5.12845
-8.79856 119.433 -4.62756
17.0652 148.188 2.55281
-4.52904 123.765 -2.75584
-3.44712 124.31 -1.4261
-13.9445 107.428 3.7047
10.9075 141.807 0.256151
12.2586 142.43 2.0026
12.2978 144.767 -1.48236
14.704 143.606 5.07523
-14.5205 111.337 -3.2355
13.7148 145.938 -0.356363
-1.38193 118.682 11.5397
16.2431 146.299 4.151
15.2318 147.758 -0.00139183
16.0272 149.259 -0.658931
-14.121 112.352 -3.71959
-15.0716 106.976 2.74845
11.5225 145.878 -4.18364
-9.7573 109.878 8.90784
-9.66928 109.847 9.15422
13.284 145.807 -0.482674
-13.2155 114.077 -4.24872
-8.479 120.156 -4.14529
14.7395 144.435 4.61905
3.04165 126.848 8.43345
8.74733 138.106 2.52805
14.7281 147.512 0.0959775
16.1718 146.917 3.88122
0.146606 121.541 11.0402
6.82506 139.851 -3.66455
1.4584 123.455 10.9026
-14.8207 111.381 -2.78499
-3.22501 116.825 11.8803
5.56199 136.537 -0.889477
1.53732 123.647 10.9053
6.95047 140.242 -3.7337
3.5785 131.707 2.68763
-15.1331 110.767 -2.23063
14.2298 147.547 -0.456168
-8.61224 110.268 11.5493
11.1268 146.265 -4.46621
-3.03902 125.373 -0.43007
-8.87891 110.244 11.2631
-10.547 110.672 7.33848
15.3677 146.213 4.33801
9.37413 140.05 1.98827
12.2134 142.968 3.15168
12.6894 146.395 -1.1147
-4.26801 115.568 12.6285
-10.2064 111.17 7.65387
-9.37864 120.322 -4.674
7.99625 138.833 1.59749
2.29978 126.293 9.66791
13.4205 148.123 -1.69369
-13.694 108.718 5.08276
-13.9981 114.121 -3.77054
-10.1442 119.649 -4.5789
-15.6647 108.608 1.42761
-12.965 109.255 5.78465
-10.1204 119.734 -4.57943
-15.7341 109.913 -0.616613
9.74277 145.637 -4.90958
-14.4485 108.425 4.2194
-5.09163 125.092 -2.73471
-11.2478 118.106 -4.20245
4.22353 134.025 2.09862
6.2434 140.167 -3.23894
6.72499 134.133 6.98389
-0.0152782 122.77 11.0843
10.2205 143.066 0.323809
10.9833 143.774 0.874594
-15.853 109.031 0.99878
4.43028 130.742 7.91819
8.02085 139.927 0.978419
14.9638 147.013 3.93178
-0.151804 129.203 1.3519
-11.6477 117.896 -4.01285
-4.51166 125.536 -1.58803
8.1005 143.888 -4.66319
3.11459 129.272 7.93786
-7.33564 122.93 -2.95748
11.8802 147.231 -2.12991
-15.5516 109.016 2.19446
12.3794 147.988 -2.22326
8.81979 140.728 1.90568
3.88157 130.377 7.99436
-11.3378 118.64 -4.08488
-5.77318 114.245 13.6475
7.08799 135.682 6.29777
-6.85971 124.032 -3.41551
-2.85141 119.292 11.7856
-10.1723 112.456 7.80523
9.82533 143.232 0.285007
7.29974 137.686 3.78523
7.29484 137.728 3.72847
-7.38713 123.425 -3.33563
-7.40156 112.748 13.1401
-13.8932 109.475 5.33514
-15.9666 110.254 0.0467818
-14.9497 108.983 4.0163
11.9001 144.294 3.09302
-15.8029 109.52 1.56449
-15.8556 109.602 1.39597
8.83315 140.98 2.20604
7.14813 138.1 3.35525
-13.7771 115.793 -3.83819
-0.199552 123.438 11.3276
-4.01514 126.871 -1.32886
-12.8284 110.448 6.4245
4.55905 136.406 1.11386
7.0604 138.222 3.28052
8.88462 141.317 2.20306
8.81631 145.924 -4.96863
1.00888 125.638 10.6764
-8.89132 112.753 10.825
-1.31999 129.071 0.878918
4.89182 137.861 -0.275867
5.33974 140.134 -2.55675
-3.58863 127.671 -1.05462
5.37152 140.293 -2.61803
-8.46383 113.579 10.994
4.27239 132.705 7.03579
-9.4914 122.017 -3.74828
-11.1923 119.999 -3.97806
5.3103 134.203 6.93139
-9.59803 113.411 9.28023
4.90245 138.73 -0.749176
-0.952702 123.192 11.454
6.00068 141.769 -3.22099
13.2742 146.165 4.47126
-8.91687 113.974 9.92109
1.04805 127.644 8.7055
0.0901082 124.945 10.9422
5.19792 140.229 -2.33481
0.00729518 124.708 11.1721
-8.95085 122.525 -3.15007
-15.2718 109.758 3.93463
7.15422 143.974 -4.0675
-3.98731 127.901 -1.47458
6.64934 138.197 3.80436
-2.68399 120.962 11.7373
10.424 145.178 0.632438
2.96857 131.21 7.30984
2.48502 130.362 7.65658
-16.1094 111.244 0.222244
-16.0015 110.604 1.48271
2.38763 130.406 7.60495
7.63782 141.825 0.552083
-8.37841 124.231 -4.16677
12.7801 146.206 4.22673
-6.41918 126.427 -3.43916
-4.12158 119.049 12.4919
11.4045 149.083 -2.7185
-11.0155 113.212 7.92906
0.75897 127.917 8.73142
14.6886 150.787 1.28259
-7.57161 125.53 -4.02488
-12.3732 112.316 6.7382
-0.629747 124.462 11.3855
0.205279 132.328 1.01426
-8.14981 114.639 11.6361
12.2549 149.532 -1.38179
6.35568 141.508 -0.695347
8.01413 142.516 1.08245
12.6666 149.643 -0.596862
-9.65692 122.683 -3.42781
-0.793317 124.451 11.4255
-11.5795 120.604 -3.95272
-11.962 112.828 7.19851
-2.18405 130.129 0.292274
0.56779 128.661 8.09316
11.8393 149.753 -1.88293
8.39505 142.478 2.46701
5.93993 140.64 0.504652
-4.92609 128.55 -2.36747
5.91254 140.368 1.04236
-15.6741 111.069 3.30077
-15.5853 113.13 0.386853
-0.786765 125.915 10.1032
-15.6856 113.311 0.0157446
-6.21718 116.739 13.5498
1.22198 130.512 7.21777
5.94982 141.636 -0.429243
2.49375 132.616 6.5541
14.057 151.063 1.234
-7.8775 115.329 12.5577
-8.06938 126.244 -4.41699
-10.8434 122.606 -4.23234
-5.54172 117.804 13.6393
13.9658 151.794 0.269015
-1.4227 124.594 11.5521
-15.2481 115.992 -2.55336
-10.8522 114.207 8.99796
3.27117 137.393 1.48599
13.0992 151.115 -0.0359124
-12.133 121.076 -3.88304
-14.0707 118.351 -3.54342
-4.54498 129.732 -2.11326
-15.2965 111.595 4.40666
-2.9779 130.649 -0.39274
-2.32808 123.578 11.7502
11.3077 146.961 2.93765
13.0797 151.247 -0.0645336
7.10162 146.284 -4.24449
-15.3174 116.173 -2.4591
9.0178 145.715 0.44432
8.71772 144.917 1.07321
-1.08548 126.625 9.71455
11.3362 150.279 -1.82232
-15.3406 113.101 2.47672
-9.01773 126.222 -5.0772
5.11699 137.822 5.16039
13.529 152.121 -0.0445281
-13.8491 117.562 -1.26576
3.78656 135.669 5.95198
-15.0157 117.169 -2.82564
-8.09559 116.425 12.0734
1.64425 135.592 2.07079
-3.74354 121.837 12.5077
-15.3668 112.119 4.49201
-6.83481 117.344 13.3838
-9.48761 125.432 -4.22798
-7.88567 127.804 -4.6898
-6.52355 129.001 -3.82711
-3.63346 122.212 12.3559
-5.86474 129.784 -3.62822
4.5163 137.108 5.68732
-5.58976 119.066 13.3415
-0.0981927 129.368 8.44038
-11.4492 114.416 8.96551
-13.5059 118.026 -0.594302
0.0399943 134.432 1.10776
-3.029 131.552 -0.498992
-14.5903 118.12 -2.792
-8.49857 116.539 11.7441
11.0869 150.576 -1.61858
13.2122 152.123 0.222879
-4.51056 130.678 -1.99766
-7.689 128.439 -4.8083
-5.58378 130.34 -3.5292
-4.90506 120.242 13.4073
1.76703 133.732 5.96438
9.82445 150.4 -3.56869
-15.7057 112.56 3.8887
-5.48294 119.596 13.3568
-2.13628 125.42 11.1313
6.86325 143.081 1.97386
0.0687215 134.883 1.14194
9.3629 147.431 0.390138
8.50728 149.537 -4.3787
-13.2692 120.799 -3.35902
-7.6958 129.423 -5.35797
-3.98527 131.676 -1.37309
0.16521 131.658 6.88894
-3.07267 132.45 -0.626624
-14.1938 115.784 2.96829
12.6898 151.358 1.67917
-1.58667 128.11 9.05348
8.99551 150.446 -4.14057
-13.0697 121.689 -3.69627
-2.80177 126.077 9.89238
-7.54206 118.127 12.7906
2.46334 138.607 1.3433
12.5568 151.962 0.897813
-7.02999 130.515 -4.94822
-1.32594 134.359 0.475232
-10.4094 115.967 10.6662
2.1246 135.551 5.51779
1.59771 134.841 5.56861
-7.90452 130.085 -5.77902
-13.8602 118.945 -0.500967
-13.9724 116.25 3.44429
-14.4742 116.36 2.29018
-14.6319 116.237 2.17218
-4.1484 132.245 -1.59388
1.47935 134.98 5.49501
-6.76554 131.25 -4.92195
11.5256 151.945 -0.421012
-0.89916 130.743 7.46824
2.27871 138.916 1.27724
3.85006 141.99 -0.306739
9.36798 151.011 -3.1611
-10.0753 116.551 11.1388
-4.55384 132.262 -1.97018
-2.71388 133.602 -0.38183
-13.3824 120.114 -0.542827
-12.2571 115.621 8.55914
-12.345 119.571 2.34797
-1.82025 134.59 0.270501
-13.9592 117.171 2.93399
-7.68215 130.977 -5.78229
4.36327 144.435 -2.52372
-12.9935 114.998 8.27872
-12.2506 124.06 -4.04949
-13.9067 121.05 -2.70948
-11.4894 116.342 9.31244
-11.0311 125.619 -3.97676
12.0669 152.114 1.20461
3.19856 141.56 -0.103224
-5.57827 132.92 -4.23027
-7.12023 131.713 -5.37024
9.04617 151.217 -3.14213
-7.20051 131.783 -5.44508
-0.0880056 133.015 6.77442
-13.991 118.515 1.48169
2.92734 138.185 4.91031
-13.8403 120.392 -0.781995
-2.96633 134.427 -0.756015
-12.6925 120.034 2.06947
-8.20081 119.283 12.1383
6.70809 149.067 -3.84826
6.34605 145.477 0.999338
6.38753 148.697 -3.8205
11.6079 152.922 0.170454
-3.94954 126.505 9.89156
-13.9842 120.754 -1.04283
-9.24593 118.27 12.1506
-13.0935 122.069 -1.21508
-6.42744 122.881 10.8961
3.52018 141.319 2.43756
-0.104715 134.44 5.95987
-2.08878 130.245 8.47586
-12.2946 119.959 4.07239
-13.5882 120.225 1.16934
-6.09877 133.77 -4.72742
-15.225 114.929 6.0794
-2.12225 135.822 0.0124129
-12.9123 122.919 -1.55412
-4.79624 134.825 -3.72178
-10.1547 117.909 11.6269
-9.32501 129.881 -5.03395
0.900706 136.583 4.98948
-4.90423 124.674 11.7749
-4.10037 134.983 -2.40439
3.31874 141.221 2.76854
1.48448 137.564 4.74279
-8.12786 131.641 -5.16562
-1.84963 131.964 6.76237
-12.8338 123.279 -1.56492
2.37091 141.684 0.403826
2.97149 142.544 0.328824
-13.0868 119.224 4.37186
-14.118 121.714 -1.42011
10.5646 152.791 -0.153247
-14.3314 120.598 -0.0328134
-1.90483 132.307 6.63732
-14.3281 118.604 3.22331
-12.2905 120.904 3.75435
-8.62517 131.316 -4.91554
5.55591 148.856 -3.63506
-2.2457 131.957 6.87768
11.2363 153.196 1.05663
3.07914 142.211 1.83483
-12.745 119.481 5.36614
-14.8266 119.677 1.00276
11.0359 152.999 1.16807
-13.8558 120.373 1.98165
-12.3844 122.516 1.62948
9.43912 152.537 -1.14002
-13.0473 119.981 4.23875
0.921251 140.244 0.917504
-8.22036 132.041 -4.5772
-15.6735 119.025 0.623002
-15.433 119.225 0.882323
-14.637 119.524 2.0167
-13.1147 119.58 4.95239
-12.4026 122.817 1.40824
-14.1458 119.456 3.1262
-14.8139 120.374 0.421313
3.54328 145.682 -1.99337
-14.3669 119.025 3.43523
-12.6552 117.371 9.37943
-4.08305 128.574 9.25234
3.3131 145.19 -1.53119
-8.14416 121.523 12.1801
-14.8958 120.016 1.20522
-11.0195 118.972 10.486
9.63759 151.397 1.74901
-6.05871 126.505 8.81678
-12.8815 117.389 9.2827
-15.0201 117.674 4.66636
-14.4166 120.02 2.27788
-12.8118 121.146 3.78075
-12.3719 121.164 4.70081
-7.87776 122.104 12.1533
-5.30289 136.324 -4.48247
2.8457 144.385 -0.69556
-15.0348 119.445 2.13323
-14.7635 119.494 2.60265
-2.50905 132.85 6.43915
-7.90982 123.429 10.2039
-14.641 117.858 5.4639
5.14983 149.285 -3.47625
-8.60703 121.506 11.8754
-2.09656 133.709 6.09437
-10.9798 119.579 10.2005
-12.8575 125.145 -2.00653
0.103325 137.438 4.87056
-12.6245 117.95 9.53255
-13.3449 121.806 2.26066
-7.82882 133.841 -5.24068
4.2195 147.894 -2.86781
-14.4587 120.936 1.52906
8.36885 152.845 -2.06676
2.478 143.003 1.38815
-15.0929 119.464 2.70298
-8.82785 131.822 -3.80197
-13.0434 123.211 1.16926
5.12408 149.767 -3.50642
7.58308 152.483 -2.76229
-3.51129 131.586 7.31205
-13.3314 124.521 -1.28045
-14.8224 118.15 5.52811
-3.41917 131.839 7.13451
-14.3628 122.053 0.574612
-4.30956 130.357 7.99559
-14.2697 120.571 3.30103
-13.4887 121.994 2.76257
-8.60751 124.16 9.12589
-12.2279 124.769 1.04184
-4.58333 130.136 8.18717
-13.8297 121.076 3.79643
-14.3558 122.918 0.0800352
-13.9743 122.889 0.906938
-3.65252 132.153 7.14308
-6.80321 127.061 8.77222
10.2967 154.282 0.948373
-3.1075 133.48 6.33942
-8.03424 126.006 8.09519
-13.5996 123.331 1.18867
-13.5094 119.936 6.58411
-4.32759 137.929 -2.77075
-14.0778 119.542 6.13485
0.954444 142.766 0.397621
-1.3716 136.586 5.37806
-14.3149 120.025 5.17341
8.44617 152.167 1.01197
-1.70176 139.95 -0.259562
-12.1599 127.859 -2.41137
-13.702 122.153 3.28363
-14.7897 119.484 5.37539
6.8773 152.755 -2.6693
8.3807 153.688 -1.07868
-12.6909 124.589 1.86301
-13.4243 124.832 0.128289
-12.2473 127.122 -0.998755
-3.39317 139.13 -1.8473
-3.02923 139.419 -1.47489
-9.26107 132.406 -2.94782
-15.9387 117.254 7.07195
-3.76596 139.162 -2.22677
-14.3991 120.792 4.91124
-16.0219 117.252 7.14213
9.29716 153.709 1.4099
-13.9232 123.012 2.55916
-12.6845 125.102 1.82225
-7.63788 127.285 8.48056
-15.4689 120.885 2.85997
9.47365 154.465 0.808356
-7.52931 127.494 8.48293
7.8767 153.765 -1.24583
-6.99025 136.8 -4.63538
-14.7178 120.292 5.39997
-6.57286 128.798 8.49612
-15.9651 120.795 2.20242
0.733946 143.665 0.251267
-9.69898 131.72 -2.08045
-15.0456 118.82 7.11379
1.67717 145.389 -0.478286
-14.2551 122.22 3.54706
-10.5798 123.729 8.53634
-13.5235 120.27 8.05206
-14.1754 121.333 5.20186
-12.2365 128.321 -1.64265
-1.20093 141.468 0.0776253
-13.8544 124.41 1.18026
-5.0525 131.082 8.37768
-14.7838 119.686 6.60295
1.21879 143.226 2.27111
-14.7438 122.276 2.84556
-12.2506 128.336 -1.47703
-3.4213 140.139 -2.02199
2.23631 146.822 -1.04984
-10.1504 124.925 8.13981
-14.5092 120.836 5.80051
-4.40256 132.91 7.32422
-7.08615 137.339 -4.70227
-14.4038 120.294 7.01603
-0.179665 143.096 0.245639
-14.3703 121.132 5.84853
-7.49476 136.694 -4.35183
-14.3641 120.197 7.31644
-12.3534 128.198 -0.892452
-10.2686 125.064 8.24364
-13.282 120.432 9.37886
-16.3567 120.929 2.55767
-13.8366 120.139 8.75521
-15.0179 119.792 6.95239
-15.093 120.284 6.10385
-5.63761 139.421 -4.42209
0.0058261 143.741 0.175903
-12.2714 122.678 8.1969
-12.7181 126.296 1.88963
-4.67672 140.344 -3.709
-6.2175 130.309 8.61796
-13.5517 119.883 10.0823
-16.6047 118.304 6.4659
-14.6461 120.782 6.54714
-14.6487 119.739 8.17793
-15.2387 122.842 2.30888
-14.7006 119.872 8.05124
-12.6936 122.35 8.25708
-12.2377 122.231 9.41893
-15.2538 123.638 1.43353
-14.5286 121.125 6.75622
-14.714 121.306 6.24065
0.530035 145.074 0.0176112
-13.4457 121.226 8.95869
-13.8115 119.925 10.2271
-5.3824 132.173 8.15417
-14.4131 119.923 9.05739
-13.1643 121.791 8.67855
-1.16423 139.954 4.64571
-10.0816 132.612 -1.74573
-4.48153 134.394 6.60394
1.75251 147.454 -0.986121
-13.9676 119.748 10.3362
-14.8081 120.008 8.29177
-15.4928 118.291 9.64006
-3.01269 137.481 5.06782
5.39761 153.265 -2.37894
-12.6388 127.448 1.53176
-13.6235 120.38 10.4108
-5.22687 132.975 7.75916
-14.5201 120.043 9.21427
-13.2084 126.801 1.48214
-8.43658 128.278 8.85534
-13.5986 121.528 8.9805
-14.6099 119.223 10.5598
1.55168 147.671 -0.951168
-15.1888 121.164 6.54217
-13.5276 120.351 11.0881
-1.67943 143.317 -0.401197
-15.9977 118.724 8.94141
-2.10635 139.593 4.54461
-12.993 122.843 8.66055
-13.8601 120.471 10.6196
-4.21756 141.912 -3.10096
2.70211 150.2 -2.08148
-17.4344 117.335 8.4958
-13.1056 123.258 8.01081
-11.583 124.576 9.04619
-14.6381 119.689 10.503
-16.587 121.412 4.18989
-14.5321 120.675 9.41211
7.7527 154.934 1.04974
-15.241 119.888 9.36678
7.85549 154.936 1.50069
-10.3799 133.459 -1.65229
-10.8706 125.358 9.83498
-13.7594 127.254 1.46545
-9.09965 128.064 9.44041
-17.6164 117.673 8.56471
-17.6352 119.286 6.24395
-5.55902 141.553 -3.90569
-1.7097 141.115 4.38467
-14.8615 126.436 0.936496
-15.9711 119.86 8.84195
7.50756 154.982 1.55547
0.984576 148.131 -0.823946
-6.61674 140.736 -4.46853
-15.0007 120.705 9.68545
-14.8877 121.532 8.74646
-14.9486 121.536 8.71717
-12.6844 123.615 10.0211
-14.9154 121.121 9.4295
-16.5644 124.475 1.04513
-15.9471 125.562 0.604011
-1.78253 141.524 4.19102
-4.72342 142.663 -3.36532
6.31622 155.056 -0.498174
-13.8322 121.352 11.2551
-15.0592 121.406 8.78472
-4.2498 137.994 4.79409
2.33398 151.071 -2.19919
-18.1561 118.7 6.97906
-12.1933 124.632 9.69202
-18.0021 119.39 6.28568
-9.08699 137.574 -3.87043
3.43284 153.074 -2.77179
-13.4355 128.296 1.92011
-18.1272 118.506 7.64239
-5.14072 142.678 -3.66141
-17.4287 120.91 5.40957
-16.214 120.313 8.8092
-18.9363 117.685 7.59069
-10.5306 127.247 9.57866
-6.66868 133.236 8.13582
-18.1681 118.354 8.19126
-14.0215 123.445 8.62264
-8.90672 138.342 -4.04542
-1.11675 146.028 -0.361631
-18.0709 120.142 5.83605
-1.76341 142.933 3.2604
-8.85017 138.604 -4.1071
-0.28317 147.406 -0.539903
-10.3979 135.722 -2.57605
-10.6444 127.584 9.46585
-15.4936 120.653 10.5019
-16.0921 120.42 9.79505
-13.9902 123.785 8.94988
-3.22407 140.663 4.41596
-1.77987 143.432 3.04463
-7.67666 131.816 9.22807
-3.00904 144.886 -1.47668
2.38127 152.593 -2.5795
-17.8649 118.372 9.8192
-2.19178 145.575 -0.729363
-12.3207 131.418 0.989443
-10.8852 134.79 -1.32822
-18.6472 119.679 6.58952
-13.8217 130.14 0.165238
-13.772 124.317 9.1832
-13.1207 130.336 1.33148
-15.0148 122.988 8.95089
-7.11094 133.597 8.42375
-7.75926 141.09 -4.3179
-14.4304 121.839 11.9891
-18.6095 119.766 6.92652
-2.31343 145.908 -0.847181
4.38114 155.112 -1.40378
-4.73754 144.514 -3.143
-2.53417 143.086 3.46882
-14.4841 122.038 12.152
-14.0489 130.623 -0.0296961
-11.9161 126.07 11.1879
-8.87689 139.738 -3.62007
-12.7057 131.906 0.870483
-19.9034 118.147 7.85429
-9.48669 130.781 9.21429
-9.36993 130.916 9.2683
0.642397 151.154 -1.89748
-18.9484 120.365 6.51103
-13.9873 123.269 11.8821
-6.95605 143 -4.35159
-17.4321 119.598 10.7814
-14.5884 129.885 0.688552
-3.40065 146.073 -1.79835
-12.041 134.044 -0.269823
-10.8238 129.627 9.0363
-6.28606 136.933 6.86464
-3.5505 142.281 4.1169
-6.1026 137.327 6.73807
-0.015582 150.673 -1.53466
-18.0727 122.983 5.18577
-13.1679 125.943 10.5319
-16.5553 128.256 0.296588
-17.4549 126.934 0.64807
-14.5482 123.215 12.094
-14.279 125.138 9.80961
-0.164137 150.844 -1.51811
-4.76051 141.146 4.28167
-18.9765 120.762 7.41882
-10.6285 130.504 9.03263
-17.8254 126.604 0.874638
-0.966217 149.676 -0.925699
-12.5274 126.584 11.6571
-3.40584 147.194 -1.71297
-3.24739 144.109 3.39789
-19.5939 121.608 5.53143
-13.6432 126.229 10.2367
-6.33482 138.07 6.64385
-14.7147 131.625 -0.0540708
-20.0329 118.94 8.85188
-12.5136 134.189 0.448341
-8.83202 141.611 -3.57336
-6.15354 138.606 6.3813
-20.6361 118.875 8.00349
-19.5329 119.253 9.89644
-17.4783 127.641 1.14305
-14.8764 123.887 12.0523
-19.1512 123.836 3.68418
-13.1457 133.207 1.22141
-12.5864 135.528 -1.20036
-19.1065 123.238 4.85725
0.0579928 152.59 -2.15529
-19.0991 123.15 5.02915
-19.4519 120.29 8.76648
-5.15387 141.988 3.94368
-15.5203 130.667 0.795727
-8.60391 133.625 9.96059
-14.1743 125.715 11.3235
-4.65862 143.091 3.69093
-6.97001 137.963 6.9847
-17.6754 127.513 1.88747
-7.50843 137.106 7.42329
-7.56671 136.099 8.88369
-6.6309 138.859 6.52841
-1.91645 149.857 -0.93288
-9.35198 141.84 -3.31214
-14.2806 125.913 11.5963
-1.59169 150.504 -0.926044
-14.2585 126.894 10.4474
-16.7464 122.731 11.931
-15.1183 126.232 9.83744
-11.9284 130.747 9.29908
-11.376 138.734 -1.74279
-14.7056 126.966 9.81774
-12.6239 135.319 1.53922
-19.5305 124.412 4.7794
-11.9419 136.668 1.22071
-17.4115 129.537 1.32117
-17.9064 127.567 3.41364
-6.94939 146.532 -3.76254
-5.01453 148.617 -2.97561
-10.5103 133.026 10.4815
-0.79213 153.761 -2.0227
-13.3775 135.363 1.42457
-15.8099 126.91 9.69881
-17.9831 128.271 3.54539
-16.0584 126.288 10.3892
-17.0558 131.014 1.20106
-12.839 131.172 9.30482
-5.08893 145.167 3.21182
-20.4081 120.598 10.5475
-8.7549 136.289 9.59158
-10.9105 141.337 -2.27209
-20.7795 120.862 9.65387
-7.37784 140.292 6.63432
-18.3314 127.823 4.11897
-14.3892 135.223 1.2112
-2.61733 152.186 -1.45019
-5.55024 145.382 3.41112
-18.4932 123.521 11.2907
-21.1333 122.375 7.83558
-7.28828 141.506 6.09618
-11.9098 138.627 1.4642
-18.736 127.228 5.50969
-14.3026 130.494 9.30671
-7.4032 141.514 6.18746
-13.4958 136.861 1.31775
-4.75468 150.499 -2.24504
-1.76748 154.128 -1.87438
-17.0992 132.645 0.833472
-20.8292 123.137 8.16532
-19.207 123.369 11.1046
-13.804 131.72 9.07221
-16.5851 127.856 9.50931
-2.60099 153.147 -1.41098
-15.6282 129.635 8.89346
-15.3642 129.99 8.90484
-12.8855 138.033 1.75024
-5.55537 150.523 -2.6889
-5.94948 150.203 -2.94655
-20.163 124.788 7.91367
-7.46433 142.512 5.94992
-8.64375 139.74 7.98333
-13.8265 137.206 1.63628
-9.94709 145.275 -2.74314
-19.8352 123.651 10.9553
-6.67505 145.237 4.03449
-10.4533 144.496 -2.23035
-10.4034 136.603 9.96285
-19.0556 128.03 5.98549
-16.7758 133.575 2.05455
-19.2385 127.097 7.13173
-16.3429 134.176 2.22027
-18.2932 130.934 3.72954
-12.2391 141.316 -0.130798
-17.3036 128.442 9.66458
-4.60818 152.57 -2.0565
-8.36992 141.905 6.8627
-12.5405 139.515 2.31896
-14.7291 132.164 9.39213
-18.5343 125.893 11.4758
-10.4514 145.256 -2.11458
-11.8599 141.144 1.67646
-17.7634 132.829 3.00844
-11.8775 141.493 1.52225
-9.71981 139.037 9.66094
-11.9064 142.569 0.0268379
-9.52964 147.718 -2.60481
-8.49266 142.989 6.83767
-19.9429 126.435 9.59581
-11.7324 143.459 -0.165594
-16.1976 135.136 3.78662
-7.28059 146.425 4.17632
-16.872 134.213 3.97853
-18.0923 128.55 10.2898
-18.6921 130.656 6.07951
-11.2699 137.476 10.3626
-18.6957 127.402 11.4268
-11.6313 144.256 -0.358372
-7.42694 146.716 4.24514
-11.6496 143.481 0.855854
-11.5482 142.759 2.16312
-14.8163 138.254 2.60036
-17.3868 134.083 4.59976
-15.0344 138.568 2.79872
-17.0868 134.873 4.63152
-20.2276 126.912 10.6676
-12.0622 137.517 10.5958
-11.8363 144.533 0.486967
-17.1193 135.02 4.84828
-12.8299 142.31 2.57795
-7.561 148.735 3.45131
-20.1196 129.193 8.77633
-17.3289 134.917 5.61106
-10.3895 141.504 9.38369
-20.0386 128.768 9.8766
-10.014 142.26 9.12453
-18.6278 132.828 6.54331
-7.74415 149.078 3.37006
-6.74805 151.337 1.91453
-9.61543 149.786 -1.23094
-7.75123 149.392 3.21973
-12.6022 138.367 10.5193
-19.3667 131.1 8.33356
-9.92756 143.062 9.08315
-8.97147 146.418 5.85335
-10.931 141.223 9.98405
-9.58599 145.092 6.77766
-7.44305 150.651 2.51407
-7.55713 150.418 2.66192
-15.7569 139.063 3.86802
-17.2402 132.879 10.4999
-11.9487 145.762 1.48508
-18.716 133.298 7.27653
-8.10497 149.769 3.20222
-19.5897 130.395 10.2318
-18.7748 133.669 6.91345
-8.9914 147.367 5.32103
-9.40656 146.317 6.18866
-19.2817 131.714 9.11156
-11.0653 148.281 0.103687
-14.591 136.758 11.0037
-12.8316 143.724 3.96395
-10.9168 148.78 0.141358
-14.0448 137.812 10.7822
-18.8675 132.841 9.06307
-8.40267 150.918 2.29697
-17.7718 133.427 10.7589
-11.6571 147.514 1.31414
-10.2121 145.644 7.05906
-16.2509 135.272 11.0787
-10.0988 150.4 0.100563
-16.88 138.014 5.84539
-11.3057 148.362 1.03278
-8.94937 149.62 3.84315
-11.5632 142.616 9.43539
-10.7143 144.558 8.19442
-12.9094 144.218 4.49141
-10.9213 149.367 0.811162
-9.14163 151.04 1.77551
-14.1212 142.982 4.27447
-9.19739 150.922 1.86446
-17.3796 137.191 6.85744
-19.3696 132.292 10.4831
-9.59125 149.887 2.89544
-10.5377 146.229 6.86887
-18.5768 133.364 10.6789
-13.8008 143.564 4.57273
-14.4826 138.973 10.2631
-15.9646 140.713 4.86418
-16.9188 138.58 6.55057
-10.6491 146.849 6.43747
-10.2442 148.211 5.15331
-18.6608 134.239 9.96947
-18.227 136.41 7.52958
-18.6255 135.207 8.82362
-16.7717 136.809 10.1275
-16.8155 139.342 6.20407
-18.3071 136.273 7.98658
-11.0996 149.204 2.49026
-18.1652 136.526 8.11885
-10.7547 147.574 5.92605
-14.1799 143.749 5.04473
-16.4689 140.229 6.01399
-13.8846 141.312 9.76507
-16.0553 138.45 10.0369
-16.3805 140.501 6.4555
-17.4731 138.394 7.5221
-14.8942 143.293 5.23071
-14.0863 144.219 5.46758
-11.6755 146.76 6.49074
-16.582 139.417 8.151
-16.4821 139.597 8.09424
-13.3595 143.058 9.01181
-16.1096 139.427 9.42659
-12.7134 144.948 7.84492
-12.9648 146.195 5.46661
-15.2235 140.845 9.30115
-15.8259 141.652 7.06013
-12.7581 146.663 5.47489
-15.9958 141.344 7.43784
-13.4544 144.358 7.92001
-14.0912 143.768 8.03053
-14.1762 144.408 7.27067
