ply
format ascii 1.0
comment Created by Open3D
element vertex 1949
property double x
property double y
property double z
end_header
10.6916 105.933 7.93308
12.5148 102.875 16.1432
-16.981 102.942 6.42552
-18.9065 104.402 2.19333
6.69907 104.048 11.5605
-16.2665 102.796 7.19299
13.0526 102.25 18.2046
16.7016 109.869 0.574082
17.0903 109.905 0.669421
16.0413 109.874 0.402228
6.17518 109.723 -2.34133
10.2694 105.886 8.60343
22.5724 105.573 13.4464
-6.54283 108.027 -2.18098
10.2762 110.289 -2.21248
-3.51163 102.467 12.683
20.0114 101.172 23.6427
2.03696 109.833 -3.69105
18.5618 108.908 4.03585
-6.16044 102.076 12.8627
19.1645 107.54 7.64272
-7.54166 108.224 -2.80772
0.466175 103.387 11.8377
17.6673 101.772 21.5929
17.8229 101.729 21.7631
-19.0516 106.035 -0.944897
-0.812951 109.576 -3.67561
19.1874 107.606 7.81502
-13.6269 102.669 9.32738
-6.27687 108.306 -2.0704
14.7272 110.59 -0.785118
21.4217 102.233 22.3334
11.7718 107.124 7.11482
-8.46584 108.505 -2.94117
-19.272 106.302 -0.929706
-6.76625 108.536 -2.34734
5.45808 104.539 11.7037
22.4441 106.009 13.6397
17.9483 102.102 21.8821
21.756 106.767 11.5849
-20.1131 106.034 -0.34569
13.7689 107.346 7.55664
20.1981 107.597 9.08124
5.04007 104.518 11.8035
-18.0448 104.2 5.02948
3.41 110.765 -4.13604
10.1376 106.611 8.40239
-11.9633 108.088 -2.51226
3.95904 110.676 -3.66331
3.16069 110.759 -4.1172
19.6053 101.835 23.4438
6.54141 110.453 -2.07707
13.4728 102.938 18.8269
-17.1816 107.586 -2.70386
-2.27121 109.831 -3.33466
2.1426 104.25 12.0269
-9.46997 102.92 11.634
-14.4885 108.103 -2.85493
-13.5005 108.164 -2.62838
-15.5451 108.214 -3.37476
14.6292 107.602 8.07543
-11.7953 108.478 -2.67579
-17.8454 104.573 5.05909
18.1436 110.864 1.30704
19.9518 108.138 8.78088
10.5976 107.429 7.54634
-14.2128 103.609 9.00773
14.7748 107.693 8.4086
7.14245 111.086 -2.38858
-6.67482 109.268 -2.3941
10.6367 111.743 -2.81727
-1.77456 104.118 12.0475
9.1851 106.604 9.71253
-10.0106 103.447 11.4045
-18.0758 105.295 4.22114
-19.9577 106.101 1.61384
17.5276 111.824 -0.230936
20.3255 108.382 9.28599
17.7261 111.754 0.0988334
18.962 109.28 6.66553
9.49234 107.037 9.14437
18.2648 111.062 2.08756
17.6529 111.944 -0.0862061
21.3851 104.05 20.8417
18.3546 110.587 3.64917
20.309 103.282 22.4162
-12.3815 109.418 -3.42343
-11.0448 109.691 -3.64654
22.0337 105.971 16.5258
-11.408 109.762 -3.72561
-15.0354 109.109 -3.28701
10.3872 108.076 7.63087
-7.79354 103.682 12.5936
20.0084 103.622 22.3161
18.475 103.236 22.8035
-8.78302 103.925 12.1952
-6.21454 110.024 -2.05288
9.14328 107.357 9.60876
13.9887 108.948 7.30984
22.0081 107.33 13.9875
-17.0817 105.573 5.56248
1.84855 111.922 -3.88525
3.23138 105.723 11.9561
15.5478 107.065 12.7298
-20.107 107.491 0.0393844
-4.15441 104.488 12.9203
18.3533 111.257 3.56638
-19.5063 108.309 -1.54149
-9.86815 104.325 11.6079
-8.68634 104.21 12.2995
19.098 109.837 7.54734
1.65208 105.693 12.0951
-15.8086 109.857 -3.83535
-9.23818 110.586 -3.31968
13.3416 109.472 6.87585
-10.9163 110.486 -3.55946
-11.3336 104.754 10.6483
10.8457 113.344 -3.32264
9.02653 113.078 -3.22011
13.8699 106.1 15.8482
15.2339 104.745 19.6659
15.559 108.392 10.7444
2.67928 112.683 -4.11356
14.133 105.137 18.3564
9.38007 113.303 -3.35216
19.138 110.205 7.78938
-6.30461 104.723 13.038
-15.1339 105.51 8.22664
2.20217 106.193 12.2275
2.51546 112.938 -4.11662
15.479 107.508 13.6844
-19.5051 107.505 2.6505
0.0913918 112.709 -3.7436
15.6969 108.64 11.6198
-13.7606 111.18 -4.22691
20.162 110.016 9.94819
15.6835 108.872 11.3878
-19.2865 109.737 -2.16858
13.6521 113.974 -1.84665
14.2458 110.465 7.0549
0.600231 106.677 11.9891
7.71338 107.837 11.5311
3.75398 107.11 12.0731
-19.3577 107.795 2.91775
-2.42343 112.299 -2.68207
0.258702 106.785 11.9294
-20.2121 108.656 0.585587
16.1911 105.391 20.7003
12.1073 110.584 6.50868
-9.44267 111.657 -3.15222
12.902 114.017 -1.61164
-19.3409 107.933 3.00887
10.4649 114.421 -3.14902
16.2475 105.57 20.7002
-14.3069 106.252 9.16553
5.85563 107.798 12.0159
-17.9942 110.812 -3.27109
1.90681 107.212 12.2913
12.6752 114.198 -1.47987
18.9133 113.133 3.32749
8.76257 114.33 -2.87165
20.3112 106.371 20.6706
15.5106 110.308 9.3646
-16.4915 111.428 -3.91794
-4.22568 112.076 -1.47637
15.0643 106.305 19.1691
21.9785 107.949 17.4014
18.2127 114.008 1.22089
21.8974 107.722 18.0505
15.5087 108.35 14.4064
21.8257 107.736 18.1198
19.98 111.919 7.30035
18.3987 113.866 2.01911
21.9279 109.665 13.9747
-4.40372 106.569 13.0155
12.2302 114.694 -1.63773
17.8701 114.708 0.187856
6.99242 114.258 -2.26021
20.092 111.799 8.16834
15.8073 109.203 13.2193
12.222 114.79 -1.60028
4.5744 114.117 -2.42331
15.7547 115.331 -1.71157
-5.28886 106.571 13.1092
2.46045 114.445 -3.85475
7.49967 114.565 -2.48775
-9.72325 112.541 -3.046
-13.7466 106.887 9.70775
7.30467 114.618 -2.48937
16.25 115.43 -1.53669
-1.32131 107.566 12.25
3.72459 114.304 -2.76628
-12.4444 106.842 10.4539
4.87628 114.296 -2.25121
14.0164 107.436 17.8042
-19.8508 109.337 2.14479
-18.7271 111.404 -2.51779
12.0281 111.958 6.26555
-1.69559 107.776 12.2952
14.72 112.149 7.00959
21.5656 108.739 17.8655
21.1883 108.548 18.2196
5.28338 114.658 -2.10186
11.3929 112.002 6.53886
-7.22196 106.87 13.2043
8.24486 115.394 -2.83034
-14.8808 112.902 -4.23995
-14.1084 113.06 -4.30037
-1.17553 114.404 -3.32037
-9.41118 107.038 12.3111
9.25902 110.626 9.5515
-12.9065 113.374 -4.22896
15.7337 110.483 12.4711
-2.13739 108.18 12.323
22.073 110.235 15.278
15.9293 116.175 -1.42185
-17.0557 112.746 -3.68698
15.5169 111.798 9.42227
-8.78532 107.31 12.6085
17.1777 116.202 -0.865712
17.5155 116.046 -0.308709
-19.9715 110.192 1.90108
20.5894 113.566 6.94491
14.1099 108.042 18.5551
10.4616 116.111 -2.5783
16.6369 116.217 -0.716819
20.2046 108.914 18.8753
18.7092 115.11 3.04434
14.1748 116.952 -2.97309
14.3009 116.955 -2.91668
6.28873 109.851 12.1329
20.625 114.133 6.32619
12.3134 113.189 6.01452
13.7973 116.221 -0.978582
17.0736 116.134 0.332268
18.2066 115.519 2.24034
-16.0245 113.601 -3.99402
15.7987 116.804 -1.47452
-6.20934 108.006 13.2295
-5.41293 114.013 -0.979608
-17.8449 109.938 5.05378
-14.7345 114.085 -4.13517
8.8638 111.352 10.4467
16.5267 115.934 1.69067
-19.6305 112.385 -1.31345
3.84924 115.965 -2.44426
15.1406 110.243 15.4538
14.3889 109.436 17.2358
11.7904 113.605 6.20941
21.5361 110.814 16.3886
16.7727 115.908 2.2687
-7.81929 108.279 13.1401
14.4266 117.397 -2.02059
15.5825 112.764 9.89718
13.3434 117.335 -2.09025
-13.269 109.667 8.59998
-15.2987 114.487 -3.99471
13.2969 117.503 -2.0669
14.127 109.063 19.2172
14.9558 110.538 15.9867
-15.026 114.67 -3.94081
18.7265 115.723 4.62331
5.75159 110.913 12.2927
-2.55589 115.499 -1.78862
19.1861 109.686 19.8112
16.5153 116.193 2.9062
-18.5786 110.832 4.72102
-5.06216 109.221 13.2833
21.097 113.103 12.5109
-19.5022 113.36 -1.35671
14.6544 110.127 17.9012
15.8447 117.068 1.28035
4.65145 111.106 12.4338
10.318 114.143 6.9263
5.0983 117.447 -2.94428
8.97587 112.752 10.1547
14.2168 115.091 6.17062
-0.632831 110.697 12.3317
2.13486 111.04 12.4291
-11.3787 109.65 11.4397
-13.846 111.052 7.29162
14.9841 112.209 13.9262
10.3273 114.458 6.87105
-8.34206 115.607 -2.06451
6.86482 117.725 -2.30946
19.5209 111.169 18.1109
-16.1677 115.289 -3.79834
-4.36286 110.084 13.2022
-12.7515 110.601 9.30912
-19.575 112.046 3.51185
17.0316 110.56 19.3014
-19.2841 114.188 -1.60651
-18.279 114.886 -2.99972
-19.5926 112.15 3.50406
18.5011 116.13 6.16356
0.519809 117.66 -3.52268
11.9606 115.508 5.61497
-15.4899 111.447 6.71121
-11.6085 116.315 -4.02114
14.1893 111.749 15.7832
-5.45219 110.159 13.3341
-12.2028 110.46 10.4372
16.5159 110.847 19.024
-18.0709 111.795 5.36921
14.4229 115.902 6.09143
-1.65307 111.265 12.4198
1.6544 111.734 12.3516
8.56339 118.701 -2.51062
-13.5869 116.211 -3.60105
21.1034 115.22 10.269
3.39924 118.113 -2.70765
14.6526 118.242 0.68114
-7.6109 116.256 -1.70004
14.5284 119.079 -1.27389
-20.0301 113.296 1.75963
-7.18755 116.279 -1.39861
9.31018 113.926 9.86
17.6435 111.381 18.9362
0.746456 111.827 12.3295
-13.069 111.553 8.61377
-11.1181 110.661 11.472
21.7003 113.652 14.896
0.0141363 118.105 -3.258
18.1774 116.487 6.82665
-13.6593 116.493 -3.62151
-19.7364 112.872 3.39583
15.7401 114.514 11.0112
-4.71411 116.539 -0.707663
-13.3206 111.888 8.10467
3.46926 118.437 -2.61068
12.5806 119.224 -1.5273
19.6872 116.144 8.46181
-16.2124 112.245 6.38731
21.6922 114.185 14.2825
16.8973 111.77 18.6938
-19.8311 113.562 2.23903
-8.82354 110.602 13.2151
16.4632 111.781 18.7717
21.5099 114.902 12.7073
14.823 118.829 0.864617
-8.19963 117.026 -2.21601
15.6472 117.954 3.33167
-0.0687542 112.247 12.3559
19.8504 116.298 8.88225
-19.6495 113.768 2.26859
14.359 116.884 5.87989
19.1964 116.409 8.64727
15.9237 115.801 9.24798
4.76349 112.981 12.5861
16.2903 112.061 18.7544
6.21168 113.398 12.201
14.4614 113.717 14.1685
-6.80333 111.412 12.9039
-3.21108 117.47 -0.848319
21.4813 114.72 14.0919
7.2864 113.875 11.5783
-9.9233 111.185 12.6052
16.4628 117.562 5.47496
13.6691 113.075 15.8636
-11.185 111.775 11.0367
-4.48726 111.788 13.2553
11.3869 117.042 5.55765
13.7101 113.396 15.4039
-3.72452 117.558 -0.628353
21.6889 122.491 -4.4929
-18.4848 113.321 5.11562
15.3517 115.11 11.8047
17.21 118.193 4.82609
16.9897 118.533 4.02817
17.7041 118.503 4.37055
-10.8689 117.918 -3.55959
14.2332 117.605 5.62953
15.4314 118.522 3.79185
-14.2792 117.57 -3.59901
-14.5025 113.272 7.0238
16.1442 121.041 -2.11048
16.0947 121.258 -2.46839
-15.2027 113.424 6.68365
15.3953 115.862 10.6962
20.4092 116.596 10.5732
21.4053 122.818 -4.40537
9.20719 115.398 10.0057
15.4838 116.152 10.2721
11.4691 120.912 -2.81346
4.92573 119.937 -2.52451
15.1549 115.666 11.4986
5.62266 114.103 12.3121
15.2938 112.805 18.775
14.85 117.903 6.02695
20.6347 114.844 15.5288
-17.6577 117.431 -3.4042
17.5492 118.036 6.7115
0.930979 113.493 12.5358
7.47777 114.854 11.425
3.71574 113.852 12.7157
14.802 119.817 1.6055
17.7234 113.624 17.9191
8.59479 115.421 10.528
-12.3407 118.445 -3.84266
-14.0283 113.769 7.38341
10.9827 117.673 6.01761
-10.1259 112.4 12.2151
18.9039 118.692 6.22175
-18.6774 115.888 0.829349
12.3304 118.304 5.05568
-15.2186 113.905 6.95468
21.0984 115.834 14.1559
17.9916 114.078 17.4911
14.5728 118.436 5.58743
19.2389 121.188 0.301539
-12.9257 113.693 8.31952
-15.2063 118.153 -3.36315
-2.74537 113.351 12.856
13.5347 114.147 16.2515
15.6884 117.948 7.54254
14.314 115.283 13.6991
14.923 119.778 2.80508
15.318 119.849 2.82246
10.6228 117.761 6.46896
-19.0666 114.658 4.42759
3.4882 120.619 -2.90875
20.1432 117.069 11.3706
5.87455 120.41 -1.56501
0.584338 120.216 -2.797
5.14794 114.683 12.4835
14.3153 115.559 13.6187
20.5468 121.599 0.703198
15.3069 113.722 18.5141
7.27026 115.49 11.5518
17.373 114.616 17.0971
1.77676 120.712 -3.12564
18.9369 117.452 10.6196
12.1838 122.483 -4.06149
-10.3626 119.033 -2.89877
14.4223 115.859 13.1284
2.31803 120.837 -3.12641
15.2032 122.402 -2.74867
9.43097 121.09 -1.35345
21.7532 124.953 -6.68669
7.22472 115.666 11.579
6.04829 120.698 -1.27629
-18.7421 115.006 4.77597
18.8964 119.799 5.36068
18.0483 121.279 1.48384
10.0589 117.748 7.66562
-13.3985 119.386 -3.88311
18.1783 121.232 1.92877
14.5151 122.744 -2.95431
17.227 115.223 16.6461
9.80372 117.536 8.48795
18.7092 123.66 -3.75108
22.617 121.782 2.27804
18.2307 121.156 2.39128
-18.4841 117.24 0.155206
17.504 121.024 2.81879
-10.979 113.793 11.3905
21.0099 122.222 1.04784
15.323 114.778 17.6699
22.1359 123.956 -2.82868
-18.5312 117.504 -0.133315
14.867 114.621 18.0571
18.0875 115.809 16.2015
12.4372 123.438 -4.54842
23.0595 125.633 -6.36349
19.7256 116.442 15.3343
-12.2188 114.786 9.06946
-12.41 120.052 -3.94053
15.4241 121.47 1.69051
-14.6668 114.851 8.21474
13.903 123.603 -4.08511
-11.2441 119.975 -3.34735
1.66767 115.146 12.8693
10.5008 123.208 -4.16178
20.0137 118.089 11.6703
15.0015 122.058 0.276857
-18.4589 117.592 0.396712
-5.6804 114.314 12.7483
15.9999 122.296 0.122576
-16.5209 115.219 6.9944
9.44205 122.191 -1.7535
16.5096 121.666 1.90363
18.8752 118.594 10.2976
-13.218 120.062 -3.86465
11.0468 119.444 5.64462
22.7882 125.829 -6.24319
-17.996 116.816 2.71961
19.0393 118.351 11.083
-18.413 117.863 0.0600999
10.8685 119.423 5.82316
-11.7237 114.888 9.70886
-13.2547 120.178 -3.83849
-18.5162 117.41 1.3188
-0.76113 121.129 -1.88687
-9.27092 114.112 12.8811
7.97077 117.161 11.0016
15.5973 115.785 16.9721
22.558 124.822 -3.09412
13.0856 115.699 16.4086
-6.53935 114.555 12.8938
13.9156 122.682 -0.492141
-9.40692 120.314 -2.13545
14.7827 124.145 -3.53921
18.3162 121.71 3.70261
3.93208 122.25 -2.35125
19.3999 117.395 14.8378
-9.00738 120.477 -2.12366
17.5 122.685 1.11637
14.7529 115.8 17.3729
18.7255 121.505 4.55748
-4.75505 120.347 -0.188289
7.44029 117.332 11.3194
20.955 125.47 -4.2417
-6.06374 115.06 12.6952
14.0024 118.803 10.0369
23.4156 126.454 -5.77551
15.3611 124.629 -3.87366
-9.2698 120.718 -2.18733
22.4045 122.733 3.44382
-0.302483 121.857 -1.823
-17.1852 116.12 7.05693
11.6944 124.761 -4.83372
-2.73136 115.713 12.898
23.2301 124.539 -0.443424
18.4024 121.874 4.68254
10.3181 119.691 7.43868
20.481 125.596 -3.81195
14.3517 123.729 -1.16217
14.1956 116.601 16.4814
8.36069 123.315 -1.88335
22.6031 123.975 1.28013
13.3478 124.228 -2.27869
9.72614 124.428 -3.96152
19.7872 121.415 6.81504
-6.45039 121.21 -1.27066
18.8581 125.304 -3.03439
12.1001 125.197 -4.97079
13.25 123.871 -1.21945
22.4887 123.163 3.58367
13.82 124.746 -3.18074
-16.5102 119.574 -0.253315
18.3589 118.201 14.8426
-15.8731 116.412 8.05615
13.8126 124.739 -2.81755
18.1206 122.304 4.64801
-17.0161 118.4 2.8198
22.6164 124.28 1.26418
19.7747 121.84 6.3911
-9.15431 115.351 12.9756
21.3383 126.304 -4.12647
19.8184 119.164 13.0713
-1.03993 116.484 12.8703
14.9896 121.786 5.03597
-16.3399 116.474 7.91864
12.8193 121.795 4.37589
5.1817 122.983 -0.997295
-13.1538 121.808 -4.07442
13.107 118.965 11.6247
-5.79657 116.1 12.5691
9.86742 124.922 -4.13068
15.4454 123.767 0.59926
22.6824 124.568 1.06102
-3.03248 121.687 -0.227595
13.7422 125.093 -3.09919
15.6934 123.706 1.0989
10.4289 120.578 7.12729
-14.0797 116.63 8.88446
-13.5606 116.45 9.55873
15.3034 120.864 8.11109
23.9711 127.574 -5.65713
18.3013 118.599 14.7505
4.24459 123.343 -1.59887
13.0707 124.678 -1.88451
16.0422 123.51 2.00719
-18.1163 119.523 0.743432
-7.12902 115.969 13.1761
22.2166 123.86 3.28494
14.926 124.161 0.17158
18.4694 121.339 8.33674
16.1565 125.999 -3.90403
13.6708 120.039 10.0732
19.7803 121.851 7.59757
6.04891 123.328 -0.558702
8.37942 124.475 -2.63339
23.6979 127.682 -5.50879
7.8787 123.584 -0.510987
12.5865 118.344 14.0226
11.606 121.957 4.78828
22.6029 127.326 -4.85378
-1.92908 116.922 12.93
4.65881 118.261 11.8732
-14.6493 117.096 8.43013
-9.67316 115.98 12.8463
-16.8888 120.612 -0.995432
7.94136 119.216 10.8015
16.8012 123.804 2.3414
13.1499 126.428 -5.29993
15.9686 124.256 1.03633
8.25096 124.553 -2.23383
-1.23191 117.162 12.9856
11.389 126.143 -5.1039
23.0717 124.604 2.58871
11.8768 122.396 4.44858
-17.9009 120.115 0.333474
22.0681 127.379 -4.48057
15.1917 118.378 15.57
17.451 119.023 14.7386
16.2933 124.095 1.82568
4.07887 118.487 11.7459
-1.30086 122.866 -0.864899
-17.7774 120.14 0.484254
14.8796 124.42 0.63005
-17.1232 120.239 0.555115
-11.5242 122.341 -2.78663
22.6074 127.245 -3.72959
13.2875 126.669 -5.29928
19.8053 122.645 6.816
-19.1772 118.994 3.13031
22.0033 124.679 2.6354
15.9438 126.466 -3.77703
12.9712 120.311 10.5311
17.1492 123.355 4.37163
23.6555 126.618 -1.45175
13.5197 118.304 15.8904
12.8096 118.767 14.5235
-1.30904 117.487 13.0886
12.9752 125.485 -1.94206
13.1693 125.229 -1.16457
12.3793 119.513 12.8879
14.1518 124.734 0.540225
-17.8941 118.361 5.85301
19.1886 122.279 8.32952
22.5593 124.866 3.04757
-10.9212 117.059 11.4742
16.2855 119.354 14.7915
15.1416 125.451 -0.526468
22.7779 127.672 -3.52139
16.1026 125.093 0.723701
-17.3658 119.885 2.7149
16.4876 123.924 3.83625
-9.31891 122.951 -2.18241
8.95067 120.413 10.1921
5.50395 119.466 11.4681
-22.1347 119.171 3.13657
-18.8509 119.594 3.19182
-16.4093 120.71 1.24086
-13.3776 123.199 -3.86714
11.1335 126.901 -4.9389
16.6935 125.025 1.53979
1.9658 118.839 12.0961
-17.2637 118.698 6.17056
16.6076 125.169 1.28226
17.2119 121.911 9.63325
-20.1998 120.506 0.883361
-21.4303 119.575 2.89179
22.7478 125.746 2.15387
15.922 125.576 0.333893
7.00958 119.985 11.3009
2.38372 124.791 -2.11716
20.8008 127.501 -2.71882
-21.1412 119.686 2.90737
14.4892 126.936 -3.33804
-17.9513 120.124 2.97344
16.401 127.314 -3.49153
15.9871 125.713 0.358547
-18.1752 119.941 3.45489
-16.5763 121.888 -0.846557
12.1748 126.378 -2.51062
22.0058 124.61 5.14699
15.6608 124.603 3.09381
16.3121 120.019 14.7134
-22.3875 119.74 2.72601
19.5496 123.689 6.80567
-18.3325 119.413 5.01949
18.378 123.907 5.95057
-15.9528 120.562 2.98542
-4.22275 123.395 -0.150168
11.7289 123.472 4.9171
1.6414 119.306 12.041
-16.3237 120.997 1.96505
12.2897 123.987 4.02114
14.1268 126.335 -1.18765
13.7743 125.542 0.668502
16.2912 127.542 -3.45603
11.8731 126.528 -2.3701
-17.174 120.604 2.79258
-21.3301 119.274 4.79636
17.1887 122.359 9.82009
-1.39498 118.693 12.9682
-17.1002 120.797 2.62277
14.3586 125.396 1.58319
7.66594 125.635 -1.1993
-2.74811 118.588 12.8533
0.875298 125.001 -1.83943
14.0251 127.189 -2.92478
21.2418 128.131 -2.83461
16.66 120.49 14.604
14.6422 124.324 4.49359
-16.1084 121.03 2.59545
-17.5964 120.621 3.12985
17.56 125.465 2.67645
-13.742 124.003 -3.97642
-17.0989 121.511 1.13706
14.7265 127.509 -3.26831
-16.7518 122.508 -1.19454
-22.8032 119.591 4.06301
-16.3042 120.876 3.02918
-17.4039 121.286 1.65567
-0.636411 118.969 13.0018
-17.5949 121.523 1.10898
20.833 124.512 6.35389
22.6409 128.927 -3.98454
23.2732 125.888 3.767
12.1989 120.986 12.3535
14.958 124.331 5.04477
-18.3829 121.664 0.710631
-19.9961 121.516 0.584508
-17.0043 122.313 -0.398658
-16.5077 121.018 2.9902
22.5176 125.964 3.55886
-1.84045 124.441 -0.665002
13.9837 128.097 -4.4511
-16.6124 123.022 -1.87137
11.7606 126.889 -2.11558
-3.65229 123.999 -0.0113506
3.55357 120.528 10.9571
-15.1133 118.728 9.34111
-11.4722 118.202 11.8982
-11.72 124.305 -3.29774
14.0951 128.151 -4.31194
12.6992 122.273 9.94408
-11.8375 124.372 -3.30066
-17.3096 120.909 3.5211
-20.5868 121.457 1.09452
-17.6007 121.21 2.85655
22.1929 125.738 4.71509
15.4984 128.025 -3.12918
-5.28816 118.915 12.6251
17.871 126.012 2.64995
-17.8595 120.649 4.20806
-16.4232 121.488 2.71793
9.86377 122.791 8.17457
22.6066 127.202 1.43241
-8.26498 118.326 13.3477
23.1982 127.716 0.540528
12.3905 128.862 -5.80267
14.8136 127.945 -2.73444
12.0629 128.775 -5.67704
15.2014 124.032 7.12019
14.7999 127.386 -1.3215
-16.4919 122.312 1.04867
24.3852 129.219 -2.64638
23.0449 127.078 2.25939
15.5014 124.26 6.785
16.3053 128.416 -3.19927
-17.1989 122.504 0.458526
22.6791 129.297 -3.22959
12.6366 127.619 -2.35154
0.5911 120.059 12.4366
17.7936 123.535 9.53088
17.7448 125.138 5.5488
14.4722 128.527 -3.90009
14.747 124.013 7.4336
-16.0009 122.399 1.33656
8.34034 122.015 10.3121
17.3995 126.591 1.95094
12.0025 122.112 11.335
8.69041 122.132 10.2063
17.7011 126.041 3.48106
-4.92433 119.352 12.6292
12.8823 126.62 0.468551
13.7991 128.953 -4.97282
-16.8338 119.846 7.62236
14.4135 125.423 4.07406
-4.5669 124.628 -0.185386
19.3671 125.166 6.35841
21.8158 125.467 6.43507
14.6791 124.145 7.39969
6.05163 126.116 -0.29929
-21.017 119.489 7.31541
23.1582 127.193 2.7567
-20.7291 121.897 1.48275
22.2373 126.624 3.89012
-21.8282 119.076 8.12886
13.5736 121.116 14.8045
18.749 128.943 -2.86354
-23.5498 120.285 4.76391
-17.9936 122.578 0.930671
-17.7764 121.427 3.85996
-16.2405 124.218 -2.49441
-1.42941 120.125 12.5736
-12.9819 119.327 10.7708
24.0882 126.561 5.02438
17.5303 126.292 3.55266
-15.5144 123.981 -1.50445
13.1141 123.648 8.72648
12.9846 126.634 1.30894
14.4069 129.011 -4.10726
22.7962 129.613 -2.8257
17.099 122.329 13.3547
23.3694 128.573 -0.0201493
18.3963 124.199 9.19335
-16.8119 121.064 5.46172
15.9636 128.824 -2.98921
2.62176 126.531 -1.6531
-15.8413 122.976 1.09456
15.6317 128.782 -2.90914
-13.6284 119.655 10.112
23.7112 127.095 4.0768
14.8619 128.578 -2.48789
-16.3233 123.153 0.731397
12.4215 125.671 4.149
-16.2402 123.274 0.711077
-16.1235 124.583 -2.47005
17.3493 122.809 12.9245
1.15318 121.084 11.971
17.1809 122.913 12.7521
16.7966 125.845 5.37167
17.3304 127.109 2.4275
-6.3193 119.785 12.8155
-11.8721 125.767 -3.80045
9.71083 123.683 8.45877
18.03 125.512 6.66539
12.6566 127.768 -0.684683
-22.1611 119.276 9.00303
5.03523 126.672 -0.393747
17.2731 125.454 6.67939
-11.109 119.589 11.9033
6.45999 126.886 -0.272378
-13.0952 120.047 10.3335
10.6597 124.522 7.09406
14.5468 126.314 3.99795
-17.2493 123.172 1.36072
-22.0986 119.462 8.98701
-6.40564 125.711 -1.27231
10.0792 124.17 8.00929
7.67966 128.36 -3.08971
5.55368 126.966 -0.319039
-16.3038 122.666 3.17853
-17.4416 122.24 3.86324
14.8385 128.683 -1.49842
6.22739 122.558 10.9165
13.0374 124.484 8.39771
23.9339 129.637 -0.769474
11.6519 128.631 -2.29507
13.7639 129.223 -3.06267
-22.1832 119.22 9.9299
23.3782 127.106 5.35708
19.2485 126.368 5.84322
-22.1335 119.355 9.63778
22.8319 130.195 -2.44848
17.6335 129.932 -3.44398
-10.9262 119.986 11.8749
6.4264 127.183 -0.235688
17.0573 126.122 5.8952
12.1472 123.919 9.76711
23.5776 127.707 4.15229
13.8239 129.374 -3.16169
-17.1312 121.287 6.71693
-20.9066 120.802 6.75986
-18.174 121.763 5.35429
21.6678 126.923 5.66611
15.6615 129.717 -3.13963
12.4962 128.748 -1.77166
0.958226 127.083 -1.37226
-21.7374 122.322 2.97481
13.4635 126.986 3.03585
18.1494 130.419 -3.91924
-22.3998 119.93 8.76048
-16.5426 124.684 -1.07225
15.9887 126.448 5.2583
12.3686 122.85 13.0394
-9.97671 120.279 12.0823
-23.1077 120.379 7.56118
13.5234 127.006 3.17866
19.7337 125.666 8.55233
12.3261 124.413 9.2338
-17.6308 121.206 7.37042
1.31651 127.267 -1.40618
-16.8593 122.849 3.58548
12.2456 128.112 0.123047
-16.7204 121.37 7.32556
-22.0139 120.454 7.90312
14.9513 122.832 14.1757
19.2582 126.913 5.64914
24.0811 127.48 5.88531
12.5856 129.569 -3.04005
-19.1647 123.661 1.18098
-1.55646 126.56 -0.199224
-22.2123 119.171 11.3826
23.571 131.085 -3.0967
19.2598 126.931 5.82068
-20.3796 120.828 7.95205
18.1503 125.2 9.80552
18.2229 125.237 9.76533
-4.43541 126.212 -0.0525991
12.8669 129.812 -3.24582
-13.5343 126.629 -3.93989
-16.3556 121.465 7.96078
-10.456 127.311 -4.58633
15.5425 130.389 -3.66682
-16.4686 122.763 4.74523
-11.9088 120.868 10.9484
0.28545 127.35 -1.11029
15.8142 123.896 12.5606
15.072 129.338 -1.14818
-11.9464 127.367 -5.0788
-15.9624 121.724 7.59863
-18.8188 121.992 6.00261
-19.2424 120.905 8.55987
16.3521 130.572 -3.69372
21.5461 126.795 7.37467
-3.7858 126.42 0.00612317
23.6628 131.328 -3.12259
-12.5991 121.139 10.3229
24.0654 130.312 -0.35732
-13.639 126.648 -3.63568
15.1529 129.467 -1.10309
-8.33377 127.066 -2.85108
-17.3372 122.038 6.69217
-18.5611 121.13 8.55137
13.873 127.349 3.79344
-17.5971 122.579 5.29373
-23.5766 121.071 7.07892
-17.1748 124.269 1.34288
2.07817 127.894 -1.24683
-18.9361 120.904 9.1796
-7.06944 126.916 -1.81841
15.6739 130.807 -3.97367
-11.6671 121.092 11.1268
22.9005 129.247 2.2938
-10.0923 127.539 -4.30364
19.366 127.457 5.58546
-21.7012 120.477 9.43047
22.4869 127.135 7.44337
18.3909 127.142 6.10657
14.5767 127.295 4.70623
22.9058 127.407 7.23879
-13.1532 127.5 -4.79309
-0.90241 122.385 12.1442
-17.7597 121.864 7.9304
23.2138 129.826 1.68654
17.4322 131.418 -4.15522
0.671941 122.633 12.1143
-3.90788 122.021 12.2144
15.268 127.407 5.28018
-13.7662 121.849 9.53258
-9.65409 127.855 -3.99134
-12.8534 127.628 -4.47153
-0.555834 127.658 -0.488125
17.9373 126.045 9.65899
17.3396 125.84 9.99285
8.98274 130.42 -4.02318
3.20013 124.04 9.89038
14.9236 124.1 13.672
19.9352 127.335 7.34337
19.5446 127.799 6.07742
15.37 130.447 -1.85645
-22.2571 119.534 12.8405
11.922 124.798 11.0718
-5.03644 121.95 12.592
19.6827 126.868 8.5211
22.9651 129.816 2.30577
-11.8726 128.393 -5.57655
21.0652 131.767 -3.04693
-23.3298 119.086 13.8209
19.6934 127.827 6.2899
-22.3189 122.931 4.63615
19.9748 128.373 5.0679
19.5755 126.918 8.60701
5.49603 124.402 10.2654
-21.9997 120.036 12.0843
15.2409 127.866 4.92539
-13.3955 127.476 -3.50313
-15.1974 126.805 -2.33354
-17.1044 122.093 8.75238
-15.6212 126.411 -1.45601
6.75773 129.667 -2.15733
14.948 124.456 13.4722
19.8938 128.52 5.05936
-16.295 125.203 1.41008
-18.4457 122.671 7.06273
18.7051 128.316 5.29287
12.6366 131.008 -3.32192
8.1643 125.046 10.0941
11.7484 127.116 6.14157
14.1732 124.554 13.3043
-22.0852 119.998 12.7072
-21.0961 121.835 8.49582
4.09504 128.715 -0.264791
12.7999 132.217 -6.05066
-22.614 121.104 9.88402
8.71821 125.244 10.0016
-1.10763 123.154 12.0079
23.369 128.397 7.17284
-22.8603 121.319 9.53798
15.9254 131.271 -2.363
25.1467 132.086 -1.20094
12.2583 129.459 1.09203
-21.38 121.227 10.4539
17.2156 128.16 5.9584
-19.3209 121.667 10.066
11.0204 126.803 7.30159
-23.6044 122.535 6.51488
-13.6601 122.514 9.89471
-23.4563 119.531 14.1158
14.964 127.586 6.85821
-4.05581 127.885 -0.0941727
-3.90147 127.87 0.0389412
-2.96753 123.081 12.2344
-15.532 122.838 8.72226
3.47083 129.048 -0.41774
-11.8672 122.352 11.1796
-21.2486 121.467 10.3394
-23.0328 123.009 5.98667
15.4239 129.787 1.8336
13.3305 128.882 3.39712
17.9142 127.473 8.51277
16.0721 128.662 5.01897
12.5415 132.621 -5.90987
-16.353 122.777 9.01746
-15.6731 126.655 -0.370687
11.4645 126.254 9.54399
10.1841 126.62 8.22859
-0.575538 128.693 -0.425949
14.2965 127.417 7.62749
-12.0091 122.535 11.0886
-19.2596 122.97 7.63579
-15.9323 123.122 8.35743
6.16391 129.895 -1.09814
2.88021 129.259 -0.564299
18.0158 127.346 9.18907
19.7706 129.36 4.84128
-22.6313 120.925 11.8756
-11.1215 129.39 -5.31565
15.5635 132.723 -4.72454
-22.0698 120.372 13.6233
-12.1625 129.284 -5.19679
16.3174 126.699 10.6384
-22.1642 123.964 4.83155
12.0882 130.442 0.0328349
14.2884 132.508 -4.34719
-16.2481 126.436 0.71512
16.1038 129.66 3.35449
17.1339 127.571 8.90066
13.6602 129.578 2.83169
12.3557 131.433 -2.18811
-24.4591 120.854 12.0828
-10.0362 122.85 11.8793
17.2049 130.831 1.0876
14.1565 132.641 -4.38423
16.0214 130.207 2.29452
11.7757 132.764 -5.43346
16.145 132.403 -3.09565
7.76169 126 10.0237
-2.52092 123.735 12.3275
-24.9218 120.268 13.5765
13.5363 126.776 10.1022
15.3514 127.21 9.64428
19.9017 129.412 5.71842
-18.2532 126.099 1.4035
15.8573 127.334 9.56591
15.5327 130.018 2.84324
15.9888 127.439 9.39401
0.426121 129.536 -0.901772
-14.0803 123.302 9.78818
-16.2167 126.717 0.773744
16.8751 133.324 -4.73137
13.2823 129.967 2.41202
-23.637 120.851 12.895
15.5749 126.639 11.4431
3.08977 125.839 9.34745
-24.7516 120.284 14.0527
-17.0746 122.951 9.98704
12.3585 126.13 11.7747
-14.3551 123.636 9.19034
-13.1768 123.28 10.4718
6.1745 131.059 -2.42094
-21.0042 125.672 2.05762
-16.6636 126.928 0.379521
23.7558 130.193 5.69256
-15.9716 123.334 9.68395
-6.99606 129.615 -2.82014
-3.26343 123.955 12.4566
-19.8076 122.817 9.8915
12.7732 130.15 2.43912
15.6876 133.525 -4.93494
12.4225 127.675 8.53415
15.1406 129.333 5.35498
16.8366 131.497 0.54823
12.9869 130.234 2.43732
-24.2844 120.912 13.3004
-6.26004 123.488 12.8385
6.56962 131.602 -3.04464
15.4551 130.852 1.75254
-18.7106 122.983 10.0885
21.7051 133.233 -2.02565
-23.2303 121.33 12.775
-17.3697 126.548 1.89991
-15.2207 123.686 9.72537
15.7676 130.001 4.28494
-23.3944 121.965 11.3481
-15.7339 124.132 8.50175
-9.59597 124.371 9.94728
9.84906 132.857 -4.62687
-20.0799 122.756 10.5937
14.2354 133.93 -5.76425
-21.7479 121.352 13.6142
21.021 129.731 6.89791
15.0328 133.648 -4.67776
11.4631 127.692 8.93274
15.7744 129.423 6.08283
-1.05885 124.747 12.1419
2.11748 126.125 9.77125
-11.7675 124.146 10.1227
-16.0095 126.951 1.90126
19.2799 133.988 -3.91127
-18.4049 123.271 10.2991
-16.219 127.447 0.713046
4.84143 130.733 -0.510824
15.6881 129.583 5.90626
11.5559 127.306 10.2921
-15.3626 124.477 8.47439
15.756 131.187 2.07543
16.6149 131.882 0.639603
1.05512 125.689 10.9352
15.3208 133.899 -4.69352
12.3955 127.937 9.1308
23.5606 132.366 1.84816
18.5668 129.574 7.12783
-12.1957 124.546 9.51352
-16.7119 126.979 2.04024
12.3432 127.985 9.10811
-23.2052 124.597 5.89467
-23.6153 122.873 10.0492
21.3865 134.068 -2.81687
-23.723 121.798 12.861
11.221 127.628 9.89286
-11.5853 124.736 9.58234
16.4974 132.071 0.694296
18.1756 129.543 7.51307
12.7889 134.5 -6.45737
-22.3452 125.499 4.34303
-19.7256 122.673 12.2201
12.2601 128.353 8.66133
-12.6776 129.71 -2.8387
16.6236 134.524 -5.14428
19.994 130.615 5.68254
-21.3639 122.027 13.4098
5.96903 127.005 10.0969
-22.119 121.456 14.6398
14.9518 133.556 -3.16163
0.393607 130.604 -0.568179
2.20534 130.673 -0.120026
14.5707 130.864 3.48521
17.6418 130.109 6.38424
-7.33912 130.739 -3.3589
12.0734 128.374 8.89284
4.54893 127.105 9.59813
-24.5282 121.09 15.0133
6.81262 127.246 10.0648
16.2501 132.391 0.419504
19.5093 130.719 5.65406
9.32811 133.418 -4.35468
6.52349 127.232 10.083
-8.39216 131.055 -4.27774
13.165 131.039 2.89017
22.9951 134.029 -1.18485
-17.647 123.713 11.0444
-16.4102 127.539 1.97211
-16.4807 123.651 11.6136
16.1637 131.636 2.56174
-12.3654 125.211 9.1894
-19.3614 127.453 1.34643
-15.3474 124.388 10.2721
13.021 131.79 1.2536
16.9507 129.456 8.38839
-23.9487 123.5 9.78727
-8.73413 131.393 -4.76812
12.7281 135.056 -6.57731
14.2287 132.284 0.812427
-8.0243 125.292 10.8462
-14.8185 124.989 9.40871
-17.8887 124.233 10.2852
-19.1725 127.897 0.786236
15.1496 132.337 1.1321
-22.8984 125.875 4.6536
22.7351 131.617 5.44528
7.98257 133.405 -3.83076
-16.8965 124.062 11.1855
13.7099 132.379 0.722385
11.6019 129.956 6.05564
14.0571 129.373 8.35577
12.8417 132.63 -0.106347
-17.6426 124.292 10.5761
18.7714 131.09 5.69892
14.5395 131.439 3.4507
-19.154 128.278 0.251372
12.4555 135.196 -6.50097
-23.8757 121.61 15.3026
15.9915 134.862 -4.39334
-17.5593 124.228 10.9688
13.1553 129.337 8.40859
-13.7873 125.086 10.1067
-19.0915 128.454 0.0247585
-21.7734 127.182 2.31634
15.9372 134.795 -4.15048
-21.516 127.351 1.99875
-5.50004 130.994 -1.74849
16.772 129.817 8.50242
-7.88231 126.187 9.5307
-15.804 128.914 0.209175
15.9235 134.355 -2.79263
16.7758 135.41 -5.12123
0.691233 131.348 -0.264056
14.7478 133.799 -1.58204
17.4072 130.492 7.55417
14.977 134.375 -2.85162
12.8899 133.325 -0.9317
4.39024 132.195 -0.797413
-16.3957 129.175 -0.125095
-9.19963 132.279 -5.43671
4.17113 132.143 -0.70539
13.1191 133.986 -2.3308
14.0147 133.46 -0.617408
2.16949 131.616 0.124702
2.89083 128.081 9.1853
-7.92423 132.015 -4.10438
9.77102 134.628 -4.76501
17.3789 130.651 7.59664
-23.6873 125.554 6.76515
-13.0204 125.445 10.669
13.3318 134.273 -2.51772
-2.73232 131.007 0.328455
-9.91024 132.246 -5.08194
8.21067 128.723 9.60662
24.4167 135.157 -0.998842
13.8686 133.593 -0.56506
6.00081 133.621 -3.2135
-22.5159 126.849 4.23579
14.1314 132.387 2.57112
-15.8347 128.891 1.39952
24.0101 134.046 1.77437
14.5829 132.14 3.42179
-12.1984 131.249 -3.14854
-20.6217 128.387 1.19734
-13.1566 125.696 10.3444
-13.1561 126.049 9.47305
24.9358 135.162 -0.555494
6.9986 128.547 9.9494
13.5227 134.369 -2.31071
-20.0045 123.406 13.8533
15.0721 134.654 -2.5024
-4.33913 126.884 10.3832
15.0916 131.901 4.3521
14.7064 132.174 3.6172
-12.9483 125.95 9.96315
-24.3412 123.388 12.6858
13.8071 132.677 2.2866
15.0621 134.923 -2.86468
-18.48 124.054 13.0599
-12.6333 125.743 10.7987
22.3779 135.583 -2.08368
-5.06254 131.717 -1.45497
-22.2668 127.301 3.84407
-8.00064 132.506 -4.27664
16.3117 135.456 -3.57633
-22.1093 127.622 3.27083
-2.82615 127.268 10.5265
25.2662 134.937 0.748212
-16.7129 125.417 10.6371
1.66473 132.122 0.142777
15.5682 135.449 -3.51753
-23.859 122.865 14.7605
2.0534 128.579 9.11628
-21.9125 127.936 2.85445
-15.7059 129.527 1.00034
-9.38254 133.072 -5.63287
-9.65841 127.232 8.7543
14.9699 132.044 4.94807
-5.19064 127.235 10.3347
-23.0573 126.438 6.59108
-21.5595 128.365 2.36735
12.0646 130.963 6.98262
8.90514 129.839 8.8258
-22.236 123.314 14.7896
14.7319 136.383 -5.40096
-10.5747 127.464 8.48962
10.3838 130.577 7.66123
-15.5577 129.928 0.819599
24.0683 134.127 3.48254
-15.7162 125.397 12.1326
-22.7538 126.818 6.33294
20.244 136.604 -3.787
2.91509 132.9 -0.290683
-12.2523 126.381 10.9583
-12.2441 126.395 10.962
7.62031 135.267 -4.48033
-24.2557 125.404 9.55472
0.00459548 132.466 0.0487843
-9.1386 133.527 -5.50743
-13.7084 125.965 11.7549
8.54749 135.593 -4.66624
-3.81147 132.343 -0.638184
-12.9542 126.246 11.523
-11.1613 127.777 8.3485
22.1504 133.416 5.50288
-21.8177 127.925 4.8516
-22.6963 127.037 6.76624
-2.88005 128.292 10.2401
-24.0542 125.723 9.68451
21.8589 136.759 -2.58776
-7.49191 128.02 9.48025
15.2492 136.193 -3.30187
-24.2621 124.812 11.9566
-16.7689 125.732 12.1598
-20.6679 129.483 1.59218
11.5621 131.904 6.23545
-20.6802 124.311 14.4748
3.914 133.795 -0.907184
17.7622 132.348 7.50454
13.4932 133.791 2.52845
15.3342 136.882 -4.49052
15.429 131.877 7.96824
2.51796 133.418 -0.0759437
10.5685 136.962 -6.09279
-15.9143 130.214 1.95388
-8.92225 134.097 -5.36426
-2.59737 132.801 0.0285845
-22.8232 124.224 14.6724
15.8844 136.516 -3.0463
12.936 137.386 -6.1602
14.2152 134.251 2.08738
-1.98442 132.799 0.385188
-24.1598 125.257 12.0555
25.1231 136.264 0.973334
-17.2516 126.083 12.2956
19.1157 137.494 -3.99129
-16.1153 130.581 1.70221
12.2734 132.147 7.14949
-23.5397 124.712 13.8366
18.0911 137.541 -4.27918
-18.1972 125.752 13.0452
-14.4485 126.594 12.2371
0.733422 129.931 8.96911
-5.69407 133.585 -2.16054
24.7029 135.957 1.94954
18.3726 137.579 -4.13996
15.4382 136.514 -2.4464
-0.13399 129.969 8.67513
-21.7738 124.778 14.5049
6.00512 135.735 -3.48514
22.3864 137.3 -1.72019
24.7634 136.922 0.0601607
13.8496 134.723 2.02588
-1.75914 129.282 10.4514
14.2477 132.532 7.75023
11.7947 133.776 3.92564
-23.2493 125.125 13.9096
13.672 134.703 2.31865
-8.45214 134.853 -5.30949
20.5328 133.57 7.39293
-2.50872 129.465 10.0782
11.1744 132.865 6.15794
14.1054 133.175 6.36545
-13.1216 132.662 -1.3001
14.2483 137.599 -4.50449
19.0256 137.959 -3.82699
22.8711 137.239 -0.741292
-14.4079 132.165 -0.302165
-20.619 129.846 3.46776
-19.9641 125.706 14.041
-1.56572 130.057 9.37385
11.0596 132.982 6.27151
-22.0734 128.238 7.18296
19.9462 138.208 -3.70504
-5.41179 134.208 -2.11517
10.6497 138.129 -6.46972
15.7136 137.707 -3.71964
-15.4686 131.534 1.38212
13.8579 135.14 2.10753
-19.7098 125.942 13.9027
-3.05987 129.867 9.66906
23.6533 135.738 3.90633
6.77832 131.303 9.42334
14.4996 133.806 5.82369
11.0455 132.8 7.18431
-23.1629 127.422 9.3295
12.3049 134.372 3.7724
-20.2948 130.728 2.16943
-12.4181 133.586 -2.27875
12.7762 133.363 6.5525
-9.68828 129.253 9.44305
-3.23881 134.075 -0.356611
13.41 135.274 2.17987
15.741 133.416 7.57846
7.85846 137.458 -5.01993
-8.83318 129.595 9.0164
-22.282 125.683 14.303
14.7311 134.71 4.37123
23.9153 136.401 3.24172
13.1115 138.473 -5.40823
13.3792 133.095 8.01473
3.93251 131.495 8.88681
0.788742 134.481 0.49842
9.93709 138.324 -5.99418
15.7202 137.657 -2.43006
6.57524 137.359 -4.63495
22.3898 138.178 -1.37581
22.0875 138.442 -2.08625
5.88183 136.996 -3.7682
13.7803 135.654 2.17203
-22.0942 128.542 8.02489
-21.6638 129.367 6.19839
-19.3261 131.274 2.25169
-18.2593 132.053 0.697988
23.6852 136.517 3.51939
-22.87 127.84 9.7536
-17.1255 132.484 0.179252
-2.24875 130.837 9.15051
-21.357 126.321 14.0826
24.0878 137.928 0.333476
-19.5678 126.925 13.314
-19.0105 127.38 12.5382
-14.7945 132.904 0.239681
-11.0046 135.103 -3.95729
-18.7902 127.536 12.3281
-18.1865 132.496 0.238302
10.0375 138.838 -6.19427
-8.88851 130.118 9.23599
3.02349 135.585 -0.379582
2.8568 135.527 -0.2777
-18.7243 127.632 12.257
15.5958 138.556 -3.48707
4.05849 136.185 -1.3772
12.9763 138.981 -5.3239
19.3984 139.092 -3.40018
-15.3634 133.037 0.26282
-9.7146 129.91 9.88226
18.3653 134.731 7.19682
-4.19755 131.137 8.75045
24.0304 138.257 0.39745
8.15014 132.779 8.8304
14.6411 135.258 4.93518
-4.15882 131.274 8.69222
5.87251 132.606 8.74382
23.1581 136.751 4.16474
-2.25649 131.896 7.92848
-22.6652 128.317 10.3063
-17.1389 128.615 11.5349
-0.397914 132.314 7.92983
10.7192 135.279 4.28015
-18.8019 132.628 1.22114
1.93498 132.787 7.68658
17.4697 134.871 7.62756
-12.2674 135.157 -2.74797
23.4074 137.381 3.62647
-15.0018 133.807 -0.0443652
17.8987 135.182 7.39309
9.89976 133.864 8.16879
22.4267 139.5 -1.60677
7.35779 139.024 -5.36771
-17.6241 129.03 11.3341
-4.28709 132.055 8.27132
-5.83677 131.728 8.73082
0.338985 132.995 7.72991
-16.7611 129.211 11.5145
14.4049 138.743 -1.77094
-1.674 132.723 7.90578
-2.89611 135.902 -0.32518
21.7013 137.158 4.66758
-5.86072 136.59 -2.94262
-16.1923 133.791 0.670079
-3.73888 136.244 -1.31203
14.1026 136.221 4.61595
11.581 140.391 -6.54364
-21.8827 127.986 13.2432
0.22383 136.293 0.224114
14.6824 139.661 -3.36157
10.2934 140.267 -6.21775
-1.94554 132.998 7.79937
-3.97989 132.815 7.5934
21.4081 137.356 4.70666
-4.49026 132.704 7.76597
-4.50105 132.702 7.77425
-14.8916 134.428 0.240811
-9.67639 136.885 -4.12517
0.69083 136.538 0.166392
5.26453 138.621 -3.45681
15.2325 139.464 -2.23641
-19.015 129.371 11.5572
-8.06028 131.712 9.3808
-17.6291 133.702 1.31463
20.5199 140.455 -2.83667
3.08555 134.069 7.27381
19.4675 136.753 6.17506
-3.24067 136.665 -1.01009
-13.5966 135.479 -1.37549
-18.0839 129.817 11.304
-7.11586 132.164 9.11741
10.032 134.904 8.03001
-21.1481 131.462 6.3942
-8.99877 137.543 -4.50299
-8.96311 131.907 9.55744
19.1128 136.954 6.42492
-3.85835 137.279 -1.86758
22.9509 138.532 3.8568
-8.41576 132.175 9.31531
-4.80334 137.386 -2.39127
-10.006 137.424 -4.09347
19.9585 140.871 -2.72188
13.0178 136.658 5.53071
11.8589 141.192 -6.06915
-4.84725 137.506 -2.41251
-8.1515 132.427 9.20917
-7.71139 138.147 -4.79967
10.64 137.122 3.78848
-22.7474 129.71 11.1991
-20.7113 132.389 5.28266
-1.76354 134.111 7.33634
19.9446 141.033 -2.66488
23.0418 140.672 -0.590288
-18.7672 130.326 11.335
12.1908 137.979 2.57618
-14.1191 135.671 -0.290604
-4.47683 133.872 7.35389
-3.05049 137.535 -1.15252
5.47881 139.874 -3.98305
-19.6469 134.134 2.02302
4.31063 135.259 7.2786
5.64606 135.277 7.67708
-13.9183 136.026 -0.603197
4.81733 139.542 -3.15609
-1.1772 134.576 7.18529
13.6409 141.371 -4.78076
-19.2249 130.495 11.3799
-9.19164 132.485 9.81071
-11.7402 131.95 10.3473
-7.05033 133.201 8.8003
7.58936 135.835 7.0867
11.1553 136.619 6.39822
-6.74018 133.333 8.69429
7.48753 135.905 7.02421
8.41715 136.216 6.58203
-21.3391 131.77 7.83201
9.65779 136.291 6.8205
-22.4889 130.072 11.7047
-20.8072 132.37 6.64453
-10.4168 138.119 -4.05655
21.3659 139.026 4.27584
22.3275 139.366 3.85276
21.7284 139.221 4.10322
22.0497 141.57 -1.59266
-20.963 130.173 12.7258
-9.24632 132.88 9.87742
-15.5286 131.66 10.894
11.2282 137.135 6.21998
-18.8325 134.895 2.0475
6.60364 136.47 6.52873
4.61289 140.1 -3.0482
2.13019 135.975 6.39649
6.12892 140.852 -4.37273
14.9749 137.406 7.10242
19.5126 138.569 5.78653
6.82471 141.158 -4.7904
0.362501 138.413 -0.0719117
4.0406 139.818 -2.32182
-5.16287 134.618 7.62499
2.08405 138.961 -0.716441
13.5408 138.172 5.01943
-18.5483 135.15 2.01929
10.5491 142.389 -6.1576
-15.4959 132.176 10.6567
13.8601 141.143 -1.80188
14.5058 139.561 2.39911
14.3557 138.858 4.14866
-20.8551 132.774 7.79051
-13.1341 132.93 10.2012
20.0308 142.376 -2.16746
1.49817 139.302 -0.570462
-10.6318 139.123 -3.92415
-21.9034 131.962 10.1427
-16.2836 136.203 1.49039
14.4225 138.067 6.97658
19.1754 139.108 5.96418
22.1509 142.434 -1.28184
22.0856 140.441 3.65914
-18.6922 132.037 11.2081
-22.0356 131.842 10.7709
23.24 142.213 -0.0536686
13.6244 138.102 6.98165
-17.2942 132.304 11.3032
-20.792 134.218 5.44822
-9.70873 133.715 10.3766
13.6128 142.29 -3.13522
-17.3465 132.371 11.318
-20.6422 131.756 11.7926
13.8193 142.877 -4.45069
-2.17242 139.217 -0.584804
-2.05164 139.219 -0.521654
13.4525 143.169 -4.9839
-1.6089 136.58 6.41778
-11.8873 138.997 -2.82899
-13.1887 133.578 10.2603
4.40479 137.542 6.22208
5.4463 137.856 5.79461
-18.7583 135.459 3.82079
-3.09035 136.286 6.9428
5.16326 137.849 5.86281
9.10954 143.142 -5.89245
14.4563 140.719 1.88112
22.8826 142.761 -0.356336
-0.560521 137.15 5.97934
2.06119 137.545 5.90621
-21.4874 132.685 10.3784
20.4351 143.285 -2.07986
-21.387 132.069 12.0316
-0.774449 137.244 6.02894
2.95661 137.832 6.00804
19.1218 143.397 -2.37789
14.4474 139.169 6.6541
-20.3868 133.931 8.22661
-21.5426 132.687 10.9745
10.4281 139.716 4.10786
-13.9087 138.652 -1.03001
-12.4352 139.431 -2.3253
22.5908 142.576 1.44804
22.8663 142.919 0.79056
-9.47132 140.646 -4.09606
-3.1119 140.368 -1.28797
14.671 141.205 2.54732
-1.37267 140.293 -0.455721
14.7005 140.635 4.04244
11.2866 144.07 -5.46849
1.72724 138.496 5.32505
6.07563 139.205 4.99835
-12.6546 134.281 11.0645
-9.50036 140.792 -4.0039
-16.9169 133.654 11.2877
-6.99848 136.431 7.70221
14.3657 140.553 4.53778
2.04909 141.291 -1.20014
14.4939 141.605 2.22114
-5.62818 137.151 6.72198
14.5689 141.511 2.58743
14.1273 143.688 -2.93768
-17.9635 136.517 4.43635
21.8798 143.99 -0.99157
17.2874 140.424 6.47338
6.3978 143.444 -4.55813
-4.21427 141.068 -2.14739
-8.45332 135.742 9.6984
10.9647 139.782 6.10256
-1.42001 140.841 -0.5762
5.38995 143.205 -4.02906
-11.8967 134.888 10.9083
-2.29546 140.949 -0.95289
19.5901 144.429 -2.26466
20.6355 144.373 -1.72221
20.3451 141.872 4.46095
8.23892 144.332 -5.47751
21.4787 142.445 3.80455
22.178 144.319 -0.52729
16.2726 140.7 6.58886
9.01865 140.043 5.88475
8.26759 139.927 6.00924
-10.5541 135.744 10.3012
14.6506 141.448 4.46272
4.92028 143.477 -3.75926
7.93824 144.524 -5.32993
14.9699 143.951 -1.44877
7.99234 140.053 5.97166
0.226383 141.72 -0.689064
-0.0761292 139.215 5.45423
4.21511 143.304 -3.05326
-16.6854 138.283 2.81837
-17.9148 134.592 11.7558
7.92059 144.915 -5.3029
-12.5675 140.864 -1.97417
-7.52717 142.543 -4.47398
17.7044 141.654 6.10281
-0.100708 139.622 5.36458
11.2275 145.492 -5.43422
-5.53049 142.492 -3.28138
-8.23109 142.661 -4.47853
1.98739 142.761 -1.35878
-10.0316 142.162 -3.66426
-20.2251 135.858 8.62618
19.2822 142.565 5.10212
11.9936 142.873 1.96285
-3.00692 142.236 -1.28755
-12.9315 135.849 11.3039
21.5473 143.997 2.45928
-13.7435 139.788 1.33895
-13.0826 140.589 -0.2554
-15.569 135.62 11.2484
0.818231 140.427 4.8952
-7.10286 138.279 7.76467
13.0611 145.835 -4.3322
15.8439 142.084 5.88975
-9.87602 142.614 -3.85501
1.83603 140.821 4.49898
7.8293 141.178 5.65815
-6.3209 143.133 -3.8268
11.3786 143.126 2.0695
11.8695 143.312 1.86575
14.184 141.881 6.17474
10.5586 141.701 5.48202
5.91213 145.023 -4.27579
-8.1039 143.228 -4.40618
14.9755 145.162 -1.53708
21.8659 145.37 0.236149
14.2101 145.578 -2.68666
-17.0168 138.807 3.87008
-13.2562 141.056 -0.345405
20.9071 144.041 3.56041
17.349 142.735 5.63814
-8.1942 138.325 8.20347
-11.7714 142.262 -2.72301
11.3932 143.504 1.94985
-7.31193 143.617 -4.45494
11.3275 146.484 -5.37404
-11.2358 142.57 -3.08029
6.77985 141.764 5.04968
13.887 142.915 4.53912
6.20751 145.517 -4.42571
-15.8878 139.623 2.97894
13.8114 145.917 -2.84271
-14.7263 136.376 11.5309
-2.77784 143.142 -1.27253
-9.39977 143.431 -4.06112
8.27937 141.904 5.5435
-3.50451 140.519 5.4235
-13.0823 141.305 0.510395
7.09067 142.407 4.63429
7.28332 142.398 4.77611
16.1021 143.416 5.24495
13.7007 143.797 3.69256
-14.1297 136.981 11.5234
13.6377 143.269 5.10583
-4.67021 140.705 5.45241
11.9718 146.847 -4.2498
18.3859 146.421 -0.886792
-15.752 140.319 3.11419
10.1043 142.797 5.57141
-1.15666 141.415 5.30772
13.6471 144.171 3.44227
13.6047 143.788 4.44218
-18.4799 138.303 7.50162
1.93392 144.714 -1.63348
19.1154 146.787 -1.05014
20.5569 145.346 3.0281
13.5039 146.746 -2.70243
-18.1132 138.861 6.53422
11.7613 144.959 1.43163
2.78477 145.273 -2.21625
-6.95507 144.843 -4.3073
8.94333 147.412 -5.30845
-17.288 139.894 4.83763
-15.6946 140.794 3.20277
-8.84348 144.683 -4.15551
-15.6762 137.331 11.8302
-6.81273 144.982 -4.21891
19.3367 147.188 -1.09296
8.78817 147.498 -5.23979
-0.924414 142.074 5.05418
-13.3293 137.968 11.1877
-14.8033 137.569 11.7045
-19.3654 137.88 9.47312
-13.7503 137.903 11.3295
-18.0037 139.269 6.5784
17.0715 144.615 4.96947
-13.8396 137.974 11.3102
-18.7916 137.43 11.0761
13.5593 145.831 1.18767
-13.937 138.169 11.2209
-8.80928 139.924 8.70976
18.7774 147.489 -0.95427
10.1006 144.777 2.96082
-19.0472 138.35 9.51255
-3.97914 145.043 -2.121
-17.8162 139.997 5.87554
-13.2708 142.892 0.312112
-18.1291 138.022 10.975
11.0436 145.685 1.57037
-11.2374 144.455 -2.59903
-13.8258 142.093 2.42266
10.1684 144.155 5.20397
10.0892 145.493 1.92837
18.8056 145.728 4.21564
-9.64646 139.562 10.17
-2.51466 145.138 -1.30002
3.06042 146.477 -2.55622
18.7387 145.843 4.17551
-12.9148 142.817 1.34484
20.1236 147.254 1.24352
11.4475 148.182 -3.83446
-2.0402 142.925 4.88485
-6.96138 145.899 -4.09824
-4.22666 145.531 -2.28319
-15.6926 138.515 11.3651
-16.963 138.489 11.2937
-18.6192 139.364 8.69271
14.6497 145.692 4.21698
-17.6434 140.578 6.38121
2.68361 144.106 4.56733
-5.28978 142.885 4.99359
13.4924 146.774 1.56133
-5.65523 146.3 -3.4556
-17.3381 138.987 10.9377
-3.62704 145.987 -1.87921
10.4253 146.465 1.6673
-8.55298 141.402 8.1847
-4.77703 146.312 -2.72114
18.3918 148.437 -0.321305
-14.3667 139.699 10.6367
-17.0374 141.42 5.50223
-16.7572 141.616 5.16747
5.45182 148.278 -3.96524
-17.997 139.702 9.6363
8.72179 149.078 -4.79384
-17.3048 141.223 6.25959
14.2055 148.527 -1.44669
-3.29332 143.647 5.00203
6.49425 148.739 -4.26279
15.1778 148.149 0.105383
-17.6049 140.913 7.32443
2.92872 147.689 -2.63274
-1.33396 146.561 -1.20614
12.6621 149.067 -2.76914
18.1544 147.484 3.12702
-12.7002 140.445 10.4756
-2.53644 144.256 4.54717
-4.93901 147.074 -2.89482
-6.46967 143.259 6.21552
-11.072 140.979 10.389
7.29243 149.35 -4.27996
17.9736 148.912 0.361453
-14.5187 140.482 10.6293
-11.3139 146.086 -2.01731
-12.4382 144.903 0.691979
-0.436176 147.487 -1.49991
3.88305 148.745 -3.1548
-1.91628 145.038 4.17848
12.161 148.2 0.988046
12.6199 149.638 -2.33748
16.5518 149.53 -0.674273
-16.6091 142.38 6.16535
17.7234 148.27 2.89799
13.5889 149.488 -1.46613
11.1251 148.123 1.17928
-4.95296 147.631 -2.87909
-9.37047 142.364 8.86013
6.27428 149.688 -4.02846
17.8987 148.789 2.05796
-4.59815 144.874 4.52323
-15.992 140.993 10.4394
11.2082 150.063 -3.07337
17.1762 149.477 0.385792
-12.4988 144.604 2.76703
17.5708 149.386 0.917448
16.2436 148.027 4.03041
4.32756 149.47 -3.38579
17.5989 149.439 1.09591
-7.18282 143.905 6.70348
0.398152 148.416 -1.78038
-16.6143 141.778 9.16008
-16.5463 141.553 9.74296
-16.0714 143.264 5.78511
-12.078 141.957 10.5993
0.503817 148.697 -1.85862
-16.5616 142.307 8.41597
12.1121 150.255 -1.52421
6.66774 150.525 -3.91806
9.24975 148.544 2.25711
-15.9011 143.583 6.37859
-9.07688 148.402 -3.28228
14.664 150.181 0.189578
-16.099 142.442 9.27976
9.28952 148.31 3.09227
9.68365 151.009 -3.24757
12.2269 149.667 0.917135
-5.74766 145.591 5.12336
-8.73528 143.983 8.19186
-15.9255 142.625 9.22802
9.25344 148.616 2.85367
-7.16879 144.996 6.43554
-12.1021 142.833 10.3555
10.8296 150.938 -2.11908
12.9814 149.741 1.56794
-9.97844 148.426 -2.7107
9.24179 148.675 2.99062
16.8172 150.105 2.0091
-9.7787 143.726 9.46363
10.9508 151.068 -1.70329
-5.46907 149.682 -3.07741
-11.8747 147.465 0.368526
15.3024 151.339 0.262437
13.9447 150.379 2.41428
9.65952 150.285 1.35937
-3.90825 149.856 -2.01984
11.7996 151.394 -0.639036
-2.42752 149.927 -1.63182
-14.8211 144.888 7.01847
15.6131 151.233 1.5523
1.26293 151.092 -2.39597
-13.0273 146.142 5.52617
-9.47217 145.744 7.72686
14.4363 152.059 0.0223016
10.8726 152.006 -0.765092
-13.1109 146.215 5.88129
-11.1449 145.141 9.1933
10.1345 152.155 -1.08439
7.7006 152.604 -2.75954
-5.65068 147.839 4.95536
-4.92221 148.221 4.33411
-2.71098 151.066 -1.75484
-6.07507 147.819 5.2361
13.4836 152.419 0.442784
13.0887 152.438 0.39117
-11.3446 148.48 2.18269
0.560928 151.914 -2.41518
-8.03441 150.977 -2.76564
7.46388 152.922 -2.44143
3.09637 152.524 -2.74733
10.9465 152.732 -0.326076
-10.0773 150.03 -0.0346447
-11.3743 148.461 3.51056
-4.35466 151.952 -2.15035
-2.86776 152.067 -1.82219
-5.37043 149.3 4.224
-6.78244 148.841 4.95941
11.2248 153.27 0.00322122
-7.54246 149.027 4.3618
-8.5887 151.126 -1.12643
-10.4906 149.111 3.59634
-8.45804 150.125 1.9604
-1.45107 152.585 -1.8064
-8.447 150.27 1.67936
-6.93518 149.597 3.86738
10.8579 153.322 0.769821
-7.98193 151.662 -0.818832
5.99538 153.885 -1.64781
7.93634 153.974 -1.14097
-1.19487 153.214 -1.92848
-7.58839 151.286 0.884966
-7.54978 152.509 -2.05178
7.59078 154.198 -0.886402
8.79653 154.171 -0.275487
-4.61472 153.174 -2.16651
