ply
format ascii 1.0
comment Created by Open3D
element vertex 1932
property double x
property double y
property double z
end_header
8.45581 102.323 2.61932
-29.717 108.35 -0.24434
-1.20756 98.3895 15.5325
3.65927 97.9483 15.2658
-22.9963 100.408 17.6715
-13.516 102.527 9.51354
-7.04217 101.503 10.0652
6.48696 98.4068 13.498
3.80447 98.105 15.1451
-7.15994 101.73 9.74404
-2.20133 109.364 -10.7557
-7.40441 102.124 9.15198
8.97219 100.372 8.33635
-27.6644 110.09 -4.09568
6.91179 98.7264 13.1767
-28.9455 106.055 6.38628
8.22756 103.799 0.247768
-17.6936 100.557 16.4807
8.57498 105.491 -3.99803
-1.11918 98.8301 15.7072
-6.18412 110.089 -10.6122
-21.7138 100.483 18.2057
-27.3262 103.465 12.6027
4.21002 98.5775 14.7964
-29.9975 108.064 2.08859
-13.9619 109.998 -7.75191
-14.7285 102.471 11.1846
-0.365643 109.328 -10.3345
-29.0395 106.136 6.85879
7.98489 100.063 10.4004
8.76117 105.444 -3.12446
-29.2944 109.186 -0.342424
6.05434 107.18 -6.40558
-7.34274 110.417 -10.1604
-17.287 101.035 16.256
-29.2641 107.094 5.02479
8.53251 104.622 -0.764923
-4.21186 110.473 -11.1207
-13.0134 110.286 -7.8648
-4.9427 99.9579 15.2544
-26.8764 103.519 13.3884
-25.8018 102.867 14.7764
-6.70136 102.633 9.37344
-28.8345 110.738 -3.62388
7.55644 99.8924 11.7852
-13.0035 103.492 9.47106
8.51253 100.758 9.50234
2.82054 108.892 -8.80559
8.57688 105.389 -1.87373
-4.71365 100.179 15.3334
-15.7378 110.967 -7.92595
-25.0743 102.839 15.2292
-28.1 111.031 -4.12447
9.24274 101.602 7.5055
-6.29617 100.761 14.5349
-26.6223 111.27 -4.86049
-25.3987 103.16 15.0476
-5.60004 102.39 10.7745
9.08531 103.151 4.26912
-26.618 111.41 -4.89555
-4.67237 100.459 15.3903
-28.9746 107.616 5.76576
-29.9553 108.753 3.33958
-27.3131 104.417 13.3344
-23.2333 112.104 -6.95818
-28.0822 111.712 -4.31357
-29.9162 108.793 3.52971
-16.1099 102.471 14.9082
-22.2117 112.027 -6.85056
-28.4497 105.31 11.8961
-29.4499 111.413 -2.64602
-27.6316 104.853 13.0873
-15.1366 103.33 12.9655
-18.6288 112.1 -7.65217
-5.48203 103.321 9.99341
-29.0376 110.309 0.149424
8.90256 106.662 -2.72138
-11.0201 104.267 9.55286
9.23255 102.448 7.70874
9.5366 103.152 5.90424
-5.45098 103.614 9.70076
-5.29709 102.043 13.5613
-8.07217 111.881 -9.80491
-23.7388 103.01 17.1418
8.49005 101.835 9.93235
-7.0095 104.553 8.10476
3.33808 100.273 15.4863
-6.22809 104.263 8.65304
8.64688 104.891 2.41851
-18.138 102.439 16.9885
7.34697 108.544 -5.99356
-17.6194 102.584 16.7063
6.86971 100.959 13.2944
-4.07454 112.021 -10.5815
-9.81073 105.15 8.65519
-28.6731 112.607 -3.86127
-6.39855 104.946 8.10981
8.39181 101.954 10.8931
8.25897 108.628 -5.53407
9.33491 103.941 5.82367
-24.7544 104.278 15.8188
-4.40163 103.88 10.4298
-22.674 103.525 17.1115
-18.3839 113.077 -7.90411
-13.698 112.235 -7.13969
-28.042 106.151 12.5061
9.1223 108.23 -4.34953
-28.575 106.6 11.6618
6.36696 101.271 13.8901
-20.7031 103.462 17.1159
-20.1655 113.475 -7.84006
-28.7522 111.387 0.208247
-29.0959 107.514 9.99453
9.09564 108.781 -5.1902
-7.08149 112.764 -9.94123
-12.5865 112.327 -7.10995
9.43097 103.414 8.10483
-23.5583 113.835 -7.27474
9.67439 103.66 7.55109
-17.249 103.503 16.5009
-6.14736 105.516 8.00838
7.62701 109.608 -6.45362
5.43536 110.682 -8.35191
9.08271 108.011 -2.8653
-23.5783 104.242 16.8482
-3.57935 103.822 11.6587
-12.3683 112.583 -7.11854
9.29479 103.472 8.70348
8.78399 105.622 3.57955
-10.355 106.133 8.40171
-25.2874 105.224 15.3803
-10.2576 113.044 -8.75951
-9.19046 106.166 8.01637
8.88372 106.711 1.10421
-12.2354 105.623 10.4736
-3.47205 103.704 12.5083
3.38554 101.592 15.692
-5.78392 105.809 8.16745
4.53895 111.484 -9.1154
-28.5932 109.396 6.58218
-12.199 105.634 10.8904
-10.724 113.122 -8.14086
-20.7728 104.357 16.881
9.01116 106.842 1.44868
8.77366 106.145 3.2765
-22.8339 114.566 -7.53208
-28.5117 108.908 8.34372
0.95724 112.553 -9.97728
-1.69821 102.725 15.2534
-2.02049 102.778 15.2608
-8.18028 113.61 -9.62734
3.86838 102.003 15.4435
-28.8179 111.674 1.90729
2.72712 112.477 -9.91902
-11.127 113.306 -7.58238
2.98572 112.454 -9.83585
-2.39155 103.033 15.2557
-23.9421 105.302 16.5433
-29.3926 111.07 3.98392
-5.60099 113.883 -10.4454
-23.687 114.989 -7.46066
-28.4086 107.81 11.8498
9.44601 104.051 9.30957
0.102954 102.852 15.2501
-26.0388 106.277 15.0138
-28.2269 109.466 7.7977
-0.0917909 112.901 -9.53899
-19.7627 114.763 -7.84329
-23.6462 115.138 -7.46304
5.16049 111.966 -8.6843
-14.2176 105.28 14.0728
-5.89828 114.1 -10.3406
-23.7146 105.62 16.4363
-28.7541 112.819 0.223253
-29.5334 113.584 -1.40887
8.50982 110.617 -5.9406
-10.077 107.044 8.87614
-6.73391 107.215 7.45106
-7.08217 114.284 -9.95377
-28.214 114.755 -4.34354
-20.163 105.347 16.4752
-2.6366 103.823 14.8019
-28.3074 112.787 0.791747
7.96124 111.072 -6.39736
-28.6501 112.161 2.52954
9.26539 106.127 5.80044
1.90395 113.411 -9.85489
-2.15805 105.272 11.635
8.60808 110.926 -5.76603
-23.3747 115.715 -7.5059
-8.7056 114.601 -9.36924
-18.0588 114.926 -7.17173
-28.2312 109.841 8.66097
-28.1652 115.11 -4.33416
-2.42999 113.961 -9.55277
6.6574 112.103 -7.75237
-4.75181 107.056 8.40613
-28.5344 109.338 10.2691
-28.5066 109.61 9.77788
-16.4235 105.604 15.9184
-6.47136 107.812 7.32246
-2.29691 104.203 14.9568
-3.32141 106.588 9.41992
9.42695 106.461 5.74495
-27.6807 115.46 -4.81379
-19.0549 115.47 -7.49179
-15.5548 105.646 15.776
2.44025 103.423 15.6769
-28.1438 112.856 1.95636
3.66742 103.284 15.7349
8.64348 104.485 11.2935
-18.4001 115.414 -7.23691
-10.6017 114.446 -7.25315
9.32671 110.995 -4.94374
-11.0466 106.906 11.6312
4.99421 103.598 14.9106
-28.4053 115.495 -3.99515
-15.6227 106.091 15.4745
9.60403 107.041 5.15378
-7.65166 115.224 -9.57426
9.98359 108.073 2.60649
7.18439 112.435 -7.21079
-12.8612 106.552 13.9201
-28.9751 112.033 5.53263
-28.0328 115.901 -4.33926
-2.57611 114.775 -9.57279
-20.0401 106.851 15.722
-6.12737 108.537 7.17561
-9.2886 115.293 -8.50039
-26.4751 108.258 14.4195
9.63402 110.757 -3.07582
9.99303 107.829 4.07315
-9.00708 108.739 7.83815
-11.2453 107.21 12.4603
-21.0644 107.265 15.434
7.40482 112.706 -6.94636
-0.698104 114.646 -9.18415
-5.28182 108.623 7.30606
-2.98683 107.65 9.03368
-6.44363 115.699 -9.83245
-1.21597 106.14 12.2343
6.31368 104.589 13.7475
-6.46702 115.736 -9.82766
-26.9331 108.814 13.8112
-6.21309 115.707 -9.82343
-28.0842 110.496 10.2452
-5.24631 108.836 7.24783
-28.9159 111.862 7.24586
-13.4023 107.003 14.5698
-1.00402 105.407 14.6153
-17.0677 116.122 -6.84442
-16.1478 116.03 -6.84648
9.53702 106.548 8.64661
-9.36562 108.968 8.63952
-1.21103 105.736 14.1238
-10.8049 115.355 -6.70061
5.00438 113.677 -7.4958
-2.29017 115.338 -9.3064
-3.43015 108.348 8.46317
1.51908 104.763 15.886
-28.6243 113.109 4.77194
-20.7603 108.009 15.0078
-6.33809 109.39 7.0469
-28.1353 116.707 -4.168
-17.8425 107.746 14.8258
-16.1084 107.505 14.8851
9.17413 112.579 -5.64134
1.50929 104.886 15.9119
-18.8829 116.966 -7.37962
-0.807252 107.342 10.785
-10.8123 115.672 -6.55313
2.12783 115.231 -9.49879
-8.9592 109.59 8.01315
-28.171 114.541 1.91268
8.0473 113.451 -6.71803
-0.356167 106.602 13.0075
10.668 110.409 0.231468
-2.15204 115.832 -9.1098
-0.296957 107.377 11.5602
-9.41557 109.235 9.85275
9.926 111.378 -1.4716
5.12065 114.331 -7.09541
-1.53355 116.064 -9.26475
-10.1671 116.217 -6.58394
-9.07319 109.989 8.52128
-20.397 117.863 -7.36384
6.72136 106.15 13.1388
3.06755 105.728 15.3593
9.05607 106.685 11.105
4.16033 115.115 -8.18828
9.91025 107.725 8.34345
-12.8612 116.344 -5.79958
-29.1998 117.153 -2.62024
-3.88711 116.752 -9.61011
-11.3391 108.651 12.8492
3.53941 105.909 15.1299
-29.3402 116.861 -1.56964
-22.9008 109.263 15.3003
1.66493 116.123 -9.45088
-4.71603 117.056 -9.71541
-14.2551 108.475 14.6662
10.0246 108.16 7.8812
-2.21547 109.479 8.70181
-16.4882 117.373 -6.32837
9.89272 111.944 -1.07528
-1.59304 116.73 -9.31193
-28.8011 117.92 -3.58584
-27.6543 118.194 -4.61918
-13.8761 116.956 -5.79669
-27.4232 111.775 11.4152
1.28258 116.612 -9.55646
-29.5997 116.613 0.205441
10.9521 110.526 2.60748
-12.531 116.83 -5.59366
-5.16031 110.927 6.753
-18.1508 118.094 -6.85769
9.85643 112.812 -2.57998
3.79417 106.515 14.9678
-21.118 109.916 14.4107
10.0263 113.368 -3.93372
5.45545 115.023 -6.54595
-4.65282 110.991 6.73535
8.96838 114.553 -6.34077
-28.4309 113.739 7.63902
2.50141 116.695 -9.41308
1.823 106.67 15.7232
9.44211 113.108 -2.61987
-28.3654 115.831 2.56996
-12.9913 109.515 13.4254
-20.0588 110.114 14.2085
2.58691 116.714 -9.31231
-23.9381 110.282 15.0489
8.06704 114.848 -6.36171
-5.56316 117.841 -9.45338
-23.2162 110.213 15.1397
7.68489 114.971 -6.40177
-11.8175 117.103 -5.48813
-4.38497 117.848 -9.6237
-5.06286 117.904 -9.52771
-28.0893 118.794 -4.23037
-21.4717 110.459 14.3718
10.7233 110.038 5.2745
-26.1492 119.253 -5.90122
-26.865 111.545 13.6635
0.621281 108.42 12.7446
-26.676 119.239 -5.46044
-2.06428 110.56 8.30738
-9.13472 117.653 -7.00685
-25.3388 110.917 14.8182
8.62742 115.547 -7.38221
7.79649 107.949 11.8901
-21.8729 110.744 14.4366
8.86314 113.139 -1.12097
10.8464 110.774 4.13963
8.56914 115.511 -6.70565
-27.2204 115.781 3.98804
-9.37375 117.771 -6.55531
-9.80412 110.51 11.7242
6.72923 107.811 13.1998
-9.68119 117.819 -6.1282
-26.9622 115.868 4.29062
-16.5854 118.824 -6.29727
-27.8184 113.786 9.85178
8.51015 113.935 -1.9698
-29.4686 117.744 0.637116
10.7196 110.479 5.97445
-29.3103 117.546 1.12268
-12.1129 110.418 13.4209
-24.1566 120.207 -6.96331
-17.1102 110.664 14.5591
8.41003 108.627 11.6003
-15.2178 118.714 -5.92826
-29.4987 118.84 -1.71686
-9.12936 118.195 -6.55061
-8.73953 111.501 10.0889
-27.7706 114.922 7.64661
10.9177 110.351 6.78347
-14.3538 110.689 13.975
10.2691 109.32 9.70735
10.5855 111.333 4.67435
-4.43984 118.95 -9.39233
-15.046 118.899 -5.86384
-24.8197 111.854 14.7598
9.33266 112.915 1.42083
10.897 110.166 7.78751
9.67648 112.197 3.19223
-27.7803 119.528 -3.05355
2.25252 108.276 15.4488
10.7578 110.921 6.26338
8.21827 116.548 -6.88037
-28.7576 117.596 2.28555
-27.1038 113.15 12.95
-14.4132 111.072 14.0992
-7.89656 118.98 -7.54291
-29.6992 119.092 -0.8505
5.40505 117.02 -6.74341
7.79779 117.118 -7.71031
-26.8102 113.088 13.2461
-17.475 119.906 -6.58051
-20.4099 111.936 14.2111
-7.46561 112.933 7.72832
-4.76284 113.233 6.46388
0.0281844 111.402 9.52643
-4.07256 119.51 -9.27543
9.34309 112.668 3.4841
-8.15995 112.879 8.50068
10.0103 112.093 4.73269
8.06638 114.17 0.197662
6.23014 109.145 13.2757
-16.6918 111.526 14.6375
8.13903 114.134 0.358713
-24.0064 112.526 14.5008
0.925889 110.191 12.4379
-8.50676 112.293 10.2571
0.476161 111.271 10.0075
-18.192 112.074 13.9184
-8.22938 119.241 -6.97434
-6.35193 119.694 -8.66086
9.09368 113.084 2.85755
-22.3116 112.482 14.3447
-9.69434 111.778 12.161
7.99978 115.922 -3.67228
-17.6988 120.364 -6.51825
-15.7451 119.917 -6.00985
-26.8172 116.443 6.25996
-12.8747 119.27 -5.12486
9.42292 112.64 4.28809
4.25054 118.106 -7.62559
-26.8752 116.396 6.55662
-20.5432 112.488 14.2469
7.31476 109.643 12.5183
4.87915 117.93 -7.19469
-22.9817 112.789 14.4093
-26.8103 116.561 6.45799
-27.0662 116.246 7.3332
8.8547 110.013 11.4502
-12.048 111.81 13.6581
-26.5929 121.201 -4.98834
-26.2981 121.414 -5.56978
-26.5478 121.261 -5.07482
-25.4233 121.577 -6.12746
-20.6569 112.792 14.2653
-3.4686 113.853 6.27128
-3.08413 113.772 6.40038
5.49092 109.807 13.8033
-2.42351 113.687 6.75065
-8.14285 113.232 9.68939
-8.0045 113.511 9.17459
8.06875 114.496 1.7205
-27.4763 120.745 -2.4807
-4.7468 114.305 6.3359
4.807 118.594 -7.30687
-0.854425 120.037 -8.97709
-10.124 119.805 -5.08568
-24.0506 113.671 14.5563
6.7229 118.476 -6.99055
-23.5984 122.156 -6.45064
-19.7035 113.431 14.0117
-25.3909 122.231 -5.9954
-7.98165 113.74 9.60485
-23.3108 113.72 14.5
1.55087 111.152 13.0965
-26.9234 116.91 7.82374
7.86006 117.041 -3.3627
-1.90876 120.544 -8.94192
-22.892 113.811 14.4616
-24.2634 122.46 -6.54481
-28.9331 119.777 1.61742
-10.2794 112.859 12.8911
-12.3892 112.741 13.8954
-16.1449 121.124 -5.65283
7.0463 110.909 12.5226
8.52919 111.12 11.5884
2.76076 110.566 14.8495
0.353813 113.404 8.63994
10.5208 112.429 7.93684
9.07846 111.328 11.2226
-11.9702 120.438 -4.59474
0.166425 113.751 8.32233
-29.1484 120.83 0.0709731
-16.976 113.606 14.1517
1.75749 111.957 12.3872
-7.60356 114.621 8.8231
3.88451 119.852 -7.77597
-25.3668 114.849 13.9734
-8.37062 113.812 11.1767
-4.42134 121.323 -8.69035
7.76331 117.417 -2.7702
-29.1218 121.001 0.00376888
10.7061 112.354 9.08067
-27.1319 116.214 11.5633
-4.77331 115.559 6.13568
10.3497 112.172 9.82236
1.42559 113.26 10.214
9.67505 116.242 0.277685
-22.054 114.651 14.2815
-24.854 122.576 -4.48074
-12.8252 121.121 -4.62882
2.25167 111.789 13.8279
1.85158 112.941 11.1117
1.84153 112.975 11.0568
-7.80431 114.557 10.2362
8.3036 119.944 -7.97868
2.13201 112.277 13.0372
-4.01593 121.803 -8.64186
-14.9722 113.891 14.4881
-2.31102 121.663 -8.75013
-28.6948 121.651 -0.267171
5.73539 120.131 -7.34429
3.32833 111.591 14.7417
0.112045 114.833 7.72736
-19.5968 123.065 -6.43538
-0.47645 115.146 7.20615
12.0839 116.797 -0.805746
10.3531 113.484 8.07452
2.80077 120.529 -6.99697
-8.94807 114.403 12.01
9.22664 117.395 -1.00178
10.0861 113.766 7.75438
9.73133 117.006 -0.0948121
-24.183 122.853 -3.86772
9.80284 114.258 6.80807
-0.570691 115.531 7.00571
8.86273 118.725 -3.89588
-26.2246 118.997 6.53079
14.1743 116.415 0.196315
2.34327 113.098 12.2924
13.3738 116.959 -0.445587
-26.3809 118.952 7.18612
-28.5862 121.142 2.45427
10.7033 117.565 -1.0171
-20.242 123.588 -6.17301
-11.6714 114.453 13.7985
-19.0639 123.55 -6.39126
-11.9256 114.483 13.8687
8.31582 120.561 -7.57523
-7.82867 121.878 -5.72807
9.15407 119.469 -5.05821
-26.4386 122.177 -0.528714
13.5455 116.802 0.183435
8.32824 118.229 -1.64889
2.35514 120.941 -6.47678
9.91402 119.63 -5.58095
-28.6061 121.339 2.61571
-10.9569 114.705 13.5658
-16.7748 123.103 -5.40672
13.3037 117.212 -0.142457
10.2149 115.666 4.68807
3.98966 121.073 -6.72951
10.6023 114.176 8.32741
-28.9524 122.451 0.439
-26.4477 118.218 10.182
12.8154 119.612 -5.66382
-29.1773 122.401 0.698165
-12.152 114.932 13.9782
-9.83915 121.972 -4.19341
-7.51532 122.311 -5.76657
-26.7491 120.359 5.16048
-15.2612 122.993 -4.84602
2.60094 113.671 12.6685
7.87754 121.158 -7.55186
-5.93931 117.001 7.20044
6.4851 113.085 13.0088
13.416 117.218 0.592054
-18.8153 124.136 -6.26822
-26.3422 118.86 9.22292
11.2725 118.115 -0.788363
11.6576 118.129 -0.887469
-27.631 121.026 4.34773
-6.96897 116.503 9.0541
11.2084 118.096 -0.592111
4.25843 121.562 -6.94499
0.347059 122.294 -7.46707
10.5453 114.68 8.21244
10.1069 120.403 -5.64713
-25.887 120.126 6.59489
8.63195 119.181 -1.96227
15.0438 119.095 -3.74663
-23.5484 124.427 -4.73526
10.835 116.533 3.98515
3.55814 122.049 -7.3218
9.04707 120.486 -5.1169
8.4263 120.391 -4.59972
-6.42682 117.255 7.8794
-6.74295 122.93 -6.08806
-24.4737 123.817 -2.68185
10.935 117.847 0.949966
-14.5195 115.824 14.0717
-17.2522 124.127 -5.59573
-26.1235 119.915 7.67392
11.294 116.944 3.25236
-21.6075 124.878 -5.99884
7.25667 122.253 -8.53335
-25.0862 123.583 -1.44497
-5.47912 117.775 6.77729
-0.838988 123.083 -7.82464
10.4904 114.955 8.96165
6.59468 122.621 -8.71352
-26.2071 118.348 12.2713
-30.3047 124.21 -0.918256
-24.2715 124.713 -4.06947
11.6801 121.138 -6.53015
8.98606 120.837 -4.86067
-6.98268 123.199 -5.61813
11.0167 118.422 0.674304
-25.878 120.418 7.40293
-24.5902 124.388 -2.71783
-16.7696 124.391 -5.1711
15.9584 119.254 -2.75882
-5.04479 123.635 -6.96014
12.1461 117.979 1.665
-6.10086 117.85 7.75755
-10.5275 123.345 -4.43844
-3.50902 123.891 -7.9461
-25.8349 120.284 8.06508
-13.4427 116.296 14.0515
8.68635 120.416 -3.12583
8.24713 120.722 -3.74328
-28.3952 123.664 0.566492
-29.8664 124.523 -1.0365
11.3005 121.437 -6.33624
2.17686 116.177 9.61716
-28.7253 123.701 0.733625
6.27239 123.079 -8.74465
10.0463 119.383 -0.70204
1.55697 117.028 7.87166
9.50267 121.666 -6.12679
4.00101 123.251 -8.17372
2.69332 115.149 12.3647
-25.7865 124.885 -2.69189
-25.9613 124.496 -1.65848
2.26876 122.767 -6.2028
-6.36903 117.951 8.48112
2.27898 116.118 10.3555
-28.7708 123.73 1.38758
11.8053 121.691 -6.28487
-4.72076 124.094 -7.0004
-23.2202 124.765 -2.80512
10.6988 120.3 -2.42172
10.6941 120.321 -2.45321
2.39245 115.948 11.0181
-16.1303 124.784 -4.92431
10.6766 120.352 -2.22901
-18.3646 117.791 13.4641
-26.7143 125.134 -2.02979
-0.344051 123.979 -7.35161
-28.1993 124.446 0.308951
4.57319 123.817 -8.45671
-6.50907 124.077 -5.5339
-26.8538 125.037 -1.48333
-23.196 125.374 -3.46519
-0.415235 124.075 -7.36212
-5.49549 118.772 7.41755
4.46112 114.861 13.9986
-29.6194 125.406 -1.35451
-3.02619 119.279 5.63714
11.7293 118.16 3.77597
-27.7427 124.676 0.182081
-22.3989 125.664 -3.94833
11.8261 118.347 3.39073
-21.7634 118.469 13.7074
10.0761 117.719 5.59343
-32.8081 125.602 -0.373414
-32.5167 125.865 -1.08113
-10.3919 124.32 -4.20708
18.3037 120.1 -2.75613
-23.1956 125.959 -4.091
11.6329 119.103 1.96418
-22.1884 125.838 -4.01329
10.9916 119.106 2.25404
7.87029 122.399 -4.84494
-20.2727 126.578 -6.30709
-6.91722 118.008 10.7269
16.796 120.243 -2.26123
-10.8888 124.662 -4.45723
13.1166 122.046 -5.51069
8.41016 122.576 -5.31447
17.0534 119.109 0.995493
-26.756 125.993 -2.20768
6.22799 124.45 -8.79135
8.06062 122.745 -5.10928
9.04313 121.889 -3.26774
-25.3842 121.542 8.55515
-25.9782 121.97 7.71504
10.9556 119.282 2.72337
-25.7006 120.153 12.1516
16.3982 120.628 -2.31891
-11.1064 117.75 13.6307
2.62458 117.245 10.5846
-21.8323 126.207 -3.914
-16.0698 125.905 -4.97146
-9.50588 124.66 -3.9296
-19.8474 126.984 -6.42355
-5.79218 119.315 8.19941
-17.2393 118.693 13.3615
10.6748 119.967 1.43014
-9.53281 117.893 13.0365
-27.8125 126.324 -2.04951
10.414 122.909 -5.63552
9.42517 117.817 7.32146
-27.9792 124.222 3.30017
-17.6359 126.402 -5.31785
10.1083 120.571 0.389903
-21.5679 127.102 -5.73265
-15.6229 126.101 -5.12174
-24.9185 126.112 -2.20658
-11.2722 125.414 -4.65559
-24.6099 125.705 -1.15128
-26.7464 122.631 7.16455
-26.636 125.769 -0.630021
-30.8154 126.678 -1.55716
-26.44 125.779 -0.683063
-22.223 126.536 -3.89255
-23.7893 119.926 13.0314
9.62979 122.979 -5.08717
1.93415 124.366 -6.06451
10.4486 120.299 1.344
20.0052 121.455 -4.47159
8.39683 116.317 11.9486
9.61962 116.778 10.4826
-6.33063 119.089 9.79199
-1.11452 125.305 -7.25935
11.7208 119.668 2.68219
5.1553 125.026 -8.44877
-31.1781 126.126 0.389324
-22.2533 126.711 -3.83526
-21.721 126.655 -3.82484
5.16476 116.14 13.763
9.29445 123.356 -5.42396
6.53533 116.381 12.9049
-21.851 119.893 13.1671
-26.9524 126.856 -2.44366
15.0896 122.016 -3.6661
6.49748 116.44 12.9324
-7.70938 118.772 11.6924
2.87642 117.605 11.2809
-18.3916 119.455 13.4237
-21.7655 119.99 13.1677
-2.31193 120.663 5.40228
-24.8649 120.739 12.4527
5.20657 116.401 13.7126
-26.74 127.04 -2.56136
18.9622 119.247 2.39648
17.8066 121.473 -2.70497
-27.8243 127.164 -2.37251
10.0694 121.735 -0.853764
-26.6771 126.182 -0.266134
18.6474 121.676 -3.3324
-10.9966 125.886 -4.40725
-23.8738 126.141 -0.971036
8.0262 123.674 -4.89005
-22.2277 127.353 -4.38584
2.73227 118.81 9.00595
-25.3723 126.716 -1.71809
-21.2035 127.427 -4.67214
-29.8061 127.478 -2.06825
-24.7332 126.448 -1.09423
7.29882 125.44 -8.70794
-14.7905 127.044 -5.64462
-6.69722 119.317 10.9668
8.63271 124.263 -5.9986
12.4279 119.847 3.76374
-21.871 120.551 12.9361
-24.1756 126.626 -1.24078
-26.8179 126.527 -0.0818537
-8.988 119.08 12.8004
-14.612 127.274 -5.7312
-22.9047 126.778 -1.87564
-28.4585 125.85 2.21543
6.36974 125.872 -8.75955
-31.7227 126.952 0.625201
-21.7936 127.689 -4.32761
0.508279 125.582 -6.0902
10.1636 119.276 6.5061
-22.2957 127.884 -4.47485
9.26604 123.566 -3.6888
-10.5211 119.179 13.5292
-19.3153 128.288 -6.26699
4.23248 126.051 -8.13458
-29.482 127.976 -2.22101
-35.8587 127.533 0.905042
2.75267 119.743 8.05022
-17.0245 120.126 13.3642
-25.713 127.824 -2.91748
9.22847 122.165 0.134142
8.92497 122.742 -1.13629
-31.8851 128.112 -1.54927
-15.9132 120.02 13.5356
9.63309 123.485 -3.05029
-6.653 119.933 11.076
-29.5674 126.754 1.44893
9.65121 121.303 2.58639
-4.29287 121.364 6.87477
8.97866 124.212 -4.31835
-0.0617906 126.174 -6.30179
-18.4456 128.438 -6.07915
10.1783 123.2 -2.11853
18.3145 120.458 2.1338
9.97482 119.484 7.18737
9.2113 122.104 0.945283
-24.2329 127.162 -1.03572
-5.12398 120.885 8.54209
-24.7383 127.113 -0.659453
-4.64988 121.181 7.70866
-22.2249 128.308 -4.39536
18.7399 122.702 -3.43027
10.77 122.438 -0.223997
-27.7877 125.122 5.32896
17.1453 122.592 -2.51388
11.0437 120.825 3.80181
-33.9768 128.076 0.102931
-17.6258 128.281 -5.55684
-31.8064 127.871 -0.0413551
-5.13592 120.993 8.69178
-21.7095 128.494 -4.64675
-20.9554 128.295 -4.34012
-12.2638 127.457 -4.99722
-28.6396 126.87 1.70429
9.26176 124.201 -3.59906
-24.5046 127.671 -1.53565
11.0501 121.301 3.06596
-28.6077 128.595 -2.40987
-16.1927 128.641 -6.34827
-16.4459 120.713 13.4692
-7.39284 120.266 11.7712
10.1074 124.553 -4.31662
9.62059 124.537 -4.02552
11.2299 120.235 6.14888
-32.7465 127.794 1.38295
6.34795 126.877 -8.65056
-27.7933 127.507 0.666713
-34.5978 128.331 0.874733
2.92792 120.857 7.62936
12.5803 120.618 5.17354
-26.1044 124.15 8.63614
-14.1511 128.458 -5.80202
-25.3253 123.754 9.42279
-31.3262 129.039 -1.74376
-12.4066 120.383 13.7479
2.7989 121.4 6.47112
9.12636 126.673 -8.56358
-30.453 127.466 1.98344
-8.57628 126.897 -3.5086
-32.1611 127.927 1.39711
8.70761 122.786 1.27656
-28.246 127.404 1.65027
12.6491 121.066 4.46321
11.4353 121.229 4.45019
-26.5518 124.647 8.05003
-20.9975 128.869 -4.1668
-38.7151 128.454 2.45835
12.4897 120.856 5.13032
-14.5671 128.754 -5.89996
9.78471 124.604 -3.25804
-9.80773 127.284 -3.71485
8.71964 122.709 1.84889
-19.7658 121.742 13.2439
-15.8639 129.456 -7.03045
8.77451 119.776 9.21389
-6.34533 127.147 -4.2048
12.5408 120.971 5.15767
7.67925 127.155 -8.6275
11.7896 125.083 -4.74133
-20.254 122.027 12.9643
8.88743 119.197 10.7789
-16.6274 121.411 13.3849
-24.8176 123.144 11.6931
-32.1233 128.887 -0.232269
-28.3824 127.481 2.08299
-28.2466 127.25 2.62144
-3.21087 122.695 6.01187
-17.889 121.66 13.217
-12.9806 128.592 -5.37029
21.416 121.962 0.233532
10.9838 121.869 3.78156
-27.704 127.626 1.76406
8.49059 123.051 1.69508
2.47906 122.059 6.06046
-32.3792 128.586 0.891709
20.427 123.516 -3.12767
9.83426 124.955 -3.32027
9.81159 122.421 2.9749
-33.3386 128.547 1.4217
-34.3134 128.724 1.32173
-32.3257 128.311 1.76128
21.8085 122.287 -0.349964
17.5545 123.589 -2.19305
-15.7723 121.496 13.5805
-32.5689 128.492 1.56147
8.95162 122.895 2.37631
-2.92457 127.959 -6.42389
-28.55 129.669 -2.56183
8.88831 125.091 -2.99124
-17.0109 129.803 -6.49376
8.85942 125.583 -4.18342
4.39215 119.373 12.6676
3.9829 119.619 12.1953
-13.635 121.304 13.6679
-15.7258 121.643 13.58
-2.33787 123.269 5.3471
-12.3297 128.709 -4.95914
-27.6191 127.925 1.89415
7.88377 124.086 0.207721
12.2244 121.812 4.47884
-32.2652 129.274 0.0569729
-8.91064 127.73 -3.42682
-3.69953 122.878 7.01837
11.5454 125.602 -4.52714
-38.3627 129.189 2.35443
21.5131 123.774 -3.08255
9.94027 122.485 3.78565
-11.5232 121.444 13.2496
-12.6225 128.991 -5.10169
19.4993 121.823 2.55805
7.51792 124.734 -0.860257
-27.4897 127.622 3.12125
-33.7594 129.024 1.66345
-15.3571 130.288 -7.15872
10.373 123.131 2.49894
19.3165 121.274 4.29314
21.9804 121.761 2.26923
-33.0969 130.279 -1.40562
-24.6346 123.939 11.6877
8.57365 127.893 -8.60494
9.54157 126.422 -5.24918
8.48061 125.533 -2.63681
-34.2538 129.91 0.0622402
-37.8898 129.695 1.78756
-27.1465 127.747 3.22686
-14.1902 129.738 -5.79471
5.53701 119.77 12.7651
-28.7376 130.354 -2.63382
13.9512 125.372 -3.74566
-34.2847 129.666 0.856761
-20.7139 123.347 12.3554
-7.37735 121.855 11.8618
11.8312 121.553 6.55616
-8.45503 121.691 12.6338
-4.84308 128.247 -4.75862
-33.3568 129.611 0.914608
14.4066 121.873 5.13542
-27.4415 127.993 3.18091
11.6586 122.757 3.85286
-29.7241 128.363 3.04407
11.5791 122.591 4.33512
9.77048 122.958 4.00075
-2.74004 123.713 6.11773
10.1693 126.784 -5.50384
-28.2941 128.205 3.13514
-16.3275 131.012 -7.60046
-17.531 131.161 -7.57874
-5.64101 122.39 10.428
18.5915 122.242 3.16655
14.9014 125.112 -2.77548
-22.2708 129.86 -2.80353
11.2877 121.565 7.2262
5.10617 120.153 12.6888
-38.1493 129.807 2.44506
-27.1885 127.874 3.79884
-14.5623 130.431 -6.50999
-15.3112 130.95 -7.55116
-8.17313 121.981 12.4472
8.65214 120.591 10.6443
9.66829 123.455 3.22484
-7.14232 122.189 11.7242
-14.7844 130.697 -6.9112
9.80871 123.16 4.02434
8.68015 120.841 10.1619
3.13843 128.663 -7.29333
-28.4686 130.927 -2.88651
0.607058 128.228 -5.29373
-22.5333 129.695 -1.59023
-13.3453 122.609 13.1256
15.0091 125.354 -2.58392
-26.5086 127.666 4.80392
-7.33147 122.375 11.8743
-34.2504 129.904 1.74444
10.8743 121.767 7.67812
-34.4556 131.059 -1.03073
-10.742 129.467 -4.36879
10.0321 126.311 -3.08865
-9.49855 129.135 -3.89594
-17.4332 131.422 -7.04702
-20.4225 124.007 12.3103
-1.6203 124.605 4.96318
3.57844 123.044 7.20769
7.58605 128.93 -8.59874
5.13013 120.707 12.5872
9.71802 127.327 -5.21221
-4.76758 123.297 9.44275
4.87685 129.088 -7.90506
-33.9873 130.27 1.44845
-26.703 128.142 4.42748
7.48811 120.687 12.1649
-31.5936 131.481 -2.22378
-19.3171 131.298 -5.6491
-20.3737 124.206 12.2931
-34.1163 130.506 1.10497
-30.1176 131.632 -2.79831
3.90511 122.989 7.91816
18.1472 122.478 4.70948
-12.5228 123.164 12.7037
-15.4234 123.261 13.3862
19.7702 125.092 -2.22274
-22.7388 130.201 -1.45354
-16.194 131.865 -7.56819
-37.437 130.001 3.80306
-25.5382 126.541 8.65984
1.38402 128.864 -5.57935
-15.6981 131.891 -7.60356
9.89786 127.629 -5.10075
20.1211 123.297 2.43076
-34.7534 130.127 2.8859
7.35983 126.108 -0.446149
10.3008 123.934 4.01811
-24.0132 125.471 11.0799
-30.6745 132 -2.83213
-38.4135 130.412 3.54968
11.5366 124.035 3.59856
12.7254 123.195 5.40234
9.29818 124.573 3.0905
8.41569 124.764 2.98299
9.29485 124.614 3.08258
22.4697 123.576 1.52475
-18.0732 131.557 -5.44281
-24.6584 126.284 9.73568
10.5163 124.206 3.80704
-36.6046 130.464 3.17133
-12.2284 123.631 12.4432
-3.22032 129.693 -5.43202
7.6038 129.571 -8.46866
8.13176 124.97 2.85406
-7.07726 129.435 -3.29656
12.5865 123.365 5.54697
-18.9252 131.85 -5.51885
4.13988 123.198 8.69301
-26.4663 128.54 5.12331
-19.0923 124.601 12.6097
14.4419 123.129 5.73733
-2.34687 125.067 6.25384
-31.1608 130.507 1.8638
-36.6266 130.292 4.16726
-36.9921 130.35 4.16568
-16.2238 124.101 13.1507
-15.0106 132.322 -7.6067
-22.4489 131.303 -2.67227
12.8354 123.771 4.90069
-28.1897 132.515 -3.81687
9.41381 129.415 -7.97419
-25.126 127.023 8.86991
-25.7694 127.993 6.67644
9.31638 126.93 -1.71984
0.903062 125.475 4.55814
-38.5171 130.718 4.04351
-28.1954 132.627 -3.86376
9.33197 125.154 2.85284
-2.94871 130.103 -5.35315
-38.3199 130.754 4.21695
21.8723 124.717 0.281916
9.46293 128.19 -4.40284
-10.6289 124.112 12.0879
8.62546 128.092 -3.86142
11.9581 127.957 -4.55989
-34.058 131.273 1.76305
8.60862 124.953 4.088
18.8309 125.84 -1.3399
-21.56 131.608 -2.88686
4.7731 122.442 11.5803
-7.52018 129.916 -3.03575
1.14357 129.78 -5.43539
-10.007 124.163 12.0618
13.084 127.437 -3.28767
-0.212268 129.931 -5.2493
9.97127 128.532 -4.94481
4.64099 130.259 -7.49263
16.3705 123.557 5.43462
17.6256 123.474 5.24849
19.5243 124.217 2.8788
-19.4009 132.424 -5.12046
-30.9532 130.839 2.47961
-30.8228 132.922 -2.671
-0.776427 130.17 -5.33363
8.72167 127.208 -0.949804
11.2239 126.98 -1.17566
3.85454 130.422 -7.37438
10.1344 128.016 -3.38942
-22.2081 125.824 12.2782
18.7016 126.039 -1.02014
11.9211 128.418 -4.76106
6.18198 130.448 -7.911
-12.5135 132.14 -6.13901
-34.9668 132.285 0.676283
8.88582 125.628 3.37706
10.9401 127.433 -1.71839
-19.8385 125.818 12.0133
-0.723544 130.371 -5.29989
17.2962 126.197 -0.639398
-21.6099 132.025 -2.76555
-20.3681 132.176 -3.52925
13.5456 127.638 -2.96063
-31.3179 130.751 3.49971
-21.6535 132.251 -3.20522
-17.8947 132.593 -5.19633
7.1897 127.633 -0.770753
19.7488 124.877 2.10876
-5.96837 130.38 -3.36544
-35.5375 130.906 4.69047
-27.0765 130.355 3.42147
22.0275 125.442 0.112149
10.3013 129.654 -6.51613
11.5185 127.346 -0.996634
-15.4756 133.301 -7.23082
-25.8773 129.118 6.49544
7.28618 127.94 -1.04502
8.65302 128.22 -2.17161
-30.2489 131.228 2.67663
-9.61774 124.871 11.9305
13.7841 127.839 -2.80831
11.1755 128.204 -2.86833
11.3181 125.786 3.11174
-30.3224 130.612 4.29512
-21.6414 132.457 -3.02035
11.4052 127.887 -2.07664
11.6413 124.478 6.31163
-20.5656 132.505 -3.40234
4.66264 124.92 7.52166
-12.6934 125.353 11.984
4.35445 124.176 9.57957
12.745 125.54 3.65155
4.17042 124.042 10.1761
10.1695 130.648 -8.08017
11.8732 127.42 -0.598756
13.0034 125.543 3.70785
10.2741 128.229 -2.06517
9.79126 126.234 3.04204
20.8188 126.684 -1.55427
15.3147 124.204 6.33812
-6.49202 125.01 11.2877
0.585657 126.949 4.25543
-13.1585 125.528 12.1376
11.7609 128.13 -2.16359
-0.564177 126.903 4.7728
-35.5773 133.407 -0.261485
13.1045 125.749 3.41899
8.34965 128.465 -1.81561
8.62272 123.934 9.36444
11.3421 129.365 -4.95888
-36.6144 132.781 1.73172
-23.8726 127.896 9.87667
13.1927 128.747 -3.90827
-10.6334 125.584 11.5059
-25.3028 129.122 7.38045
-35.6319 131.475 4.8118
-20.4981 126.678 11.9386
-17.3078 133.064 -4.89084
22.2984 125.945 0.270046
8.02317 127.146 1.81
10.4204 128.404 -2.05864
21.417 125.385 1.95736
10.2817 130.868 -8.11684
-36.6872 132.659 2.31142
15.848 124.356 6.50119
12.0821 128.403 -2.33828
18.304 126.859 -0.459426
9.37146 126.482 3.32312
9.83689 127.22 1.42459
12.7363 126.006 3.53731
8.95331 124.403 8.72149
22.4177 125.918 0.710311
-33.9448 133.83 -1.06362
9.95057 127.709 0.270648
4.91926 125.449 7.52921
-1.16505 131.412 -5.33426
-11.4066 125.893 11.5878
-16.5116 126.334 12.1538
8.30676 129.066 -2.43308
-6.71881 131.162 -2.84309
11.383 127.654 0.249068
-32.483 131.436 4.73768
9.69736 126.729 3.0977
-21.8246 132.668 -1.62823
5.01072 131.476 -7.14652
18.6847 125.973 2.23935
9.32482 127.912 0.46059
-8.5553 131.862 -3.67439
12.9419 125.62 5.01809
-8.51686 131.852 -3.65733
-31.2854 133.927 -1.59935
7.77912 128.879 -1.41315
-25.1844 130.242 5.63041
14.5463 124.913 6.45396
12.9675 126.154 3.90358
20.581 126.184 1.45
-21.4334 133.26 -2.76163
-25.6439 134.452 -4.35591
9.42436 126.964 3.16965
19.669 126.252 1.7568
-23.1808 128.151 10.5944
18.3205 125.7 3.6142
-17.2424 126.935 11.79
1.04804 131.423 -5.10673
-1.65288 127.267 6.07739
15.3484 128.657 -2.67223
8.28032 129.346 -2.13798
7.64278 128.98 -1.02375
-14.2242 134.353 -7.39327
2.23194 131.792 -6.20602
9.74991 127.997 0.85066
-31.7092 134.183 -1.39432
5.37947 131.807 -7.1749
12.8885 126.211 4.42519
-29.0291 134.255 -2.27486
-21.5929 133.766 -3.3837
22.7049 126.5 0.805272
-26.7574 131.198 5.00818
5.18298 126.176 7.38273
1.3494 131.728 -5.15183
-25.8452 131.498 4.03693
-23.9944 129.676 7.98615
8.8982 129.967 -3.02361
8.23637 129.578 -1.84498
-0.224552 127.944 4.89855
-2.40279 132.04 -4.55661
0.38683 128.052 4.46403
-36.4452 133.488 2.64117
2.32376 127.941 4.22004
-29.2857 132.422 3.20053
19.3341 126.63 2.23109
10.1539 125.905 7.01312
12.13 129.71 -2.94832
-26.4512 131.607 4.55325
-23.4154 129.648 8.55882
20.3985 126.853 1.71814
-26.7247 131.516 5.04011
5.17504 126.756 6.93002
18.8152 128.064 -0.583492
-7.67965 132.58 -3.4065
6.92106 125.557 9.62253
5.90915 125.242 10.9473
-18.4297 128.06 11.7102
2.778 132.771 -6.61065
-21.7761 130.088 7.8246
8.31188 130.08 -1.59067
10.6298 131.653 -6.21269
11.6258 131.1 -5.12646
13.9004 126.404 5.83701
-16.354 127.908 11.7612
-26.2341 135.288 -3.39084
-21.6506 130.519 7.03114
5.25107 125.47 11.0809
7.84464 132.534 -7.22058
10.2971 126.404 7.21789
-21.4668 130.145 8.09098
15.6676 129.687 -2.46632
-22.5306 131.258 5.73361
-6.91613 127.092 11.2799
-2.78295 127.655 8.59014
13.5544 127.147 4.87742
-14.751 135.223 -6.20467
20.8175 128.351 -0.391897
-21.4713 135.061 -3.65975
16.8937 129.538 -1.89686
5.36353 126.621 8.99163
10.8977 132.232 -6.61909
10.4762 131.317 -4.13785
-35.4252 133.714 4.4395
3.96823 128.67 4.53772
-14.2877 135.415 -6.4233
10.0061 130.154 -1.04455
-28.4652 132.67 4.88395
11.9546 130.785 -3.20689
-28.5115 135.471 -1.98194
10.8443 132.821 -7.73213
22.1908 127.88 1.16026
-29.2556 132.831 5.13529
-30.7694 132.983 5.2746
-20.3269 129.19 11.4916
-20.8987 130.935 7.36655
11.0427 130.753 -2.26114
8.91199 130.81 -1.58736
9.39976 131.303 -2.86238
-31.2461 135.52 -0.422695
21.9602 128.07 1.36957
15.0035 130.745 -3.04722
3.07963 129.459 3.99869
7.70418 133.398 -7.15092
-18.5253 135.416 -3.85304
-34.4176 134.138 4.60783
9.3694 131.344 -2.23375
-22.8473 132.695 4.60824
20.8592 128.197 2.0787
-17.8491 129.253 11.6922
5.20625 127.025 9.96073
-20.7274 135.434 -2.67303
9.9029 131.777 -3.1704
-30.6178 135.896 -0.564139
12.6771 131.621 -3.61304
18.483 129.517 -0.218795
-12.1866 128.758 11.3701
-30.3931 133.771 4.78484
-12.1888 128.864 11.3419
13.0483 131.724 -3.70145
-11.1257 129.029 10.6241
-22.0982 132.705 4.97301
-9.21427 135.01 -4.80624
6.00527 133.832 -6.6864
17.7439 127.064 6.40532
-9.17655 135.005 -4.7708
-2.26724 128.871 8.29166
1.62047 133.742 -4.98938
-1.74308 129.069 7.78572
2.35438 134.025 -5.76785
0.969052 130.139 4.37021
13.5798 131.951 -4.03944
11.5883 128.62 4.85923
-29.8052 134.022 4.54717
-20.2674 130.188 11.0694
-20.4474 130.311 10.8758
-27.4254 133.471 5.27985
13.9816 128.142 5.54719
-35.2009 135.632 2.51787
-17.6978 129.886 11.5455
-23.0117 133.365 4.76658
16.9017 127.62 6.43736
10.2312 132.161 -2.71143
18.0192 130.585 -1.24397
-1.34717 129.564 7.4083
5.17784 128.324 8.42971
-26.5045 136.821 -2.56327
-0.829132 129.931 6.45699
-19.5197 130.492 11.0878
-7.78145 135.146 -4.10906
-31.5234 134.743 4.44262
4.60898 130.178 4.36281
10.6478 128.274 7.18768
18.987 128.226 4.87465
-7.59809 129.107 11.0931
-18.1174 130.438 11.3015
-12.783 129.755 11.3144
-20.5916 132.736 6.44058
-11.8569 129.841 10.8692
-34.5576 135.586 3.87935
-21.5679 133.305 5.45687
-26.8611 133.61 6.41445
13.5816 132.464 -3.49825
0.914247 130.849 4.51376
10.4143 134.575 -7.7205
-20.4508 131.776 9.03125
-13.0153 129.902 11.3635
-24.429 133.478 6.10567
10.3289 128.547 7.36978
6.3128 134.74 -6.67486
5.15219 128.588 8.97741
-1.92542 134.402 -3.17002
2.6576 135.11 -6.35348
-4.49505 129.426 10.0092
-8.15361 129.626 10.6786
-21.2542 133.291 5.7699
5.20095 134.868 -6.48893
-27.3885 133.823 6.44976
10.0544 128.619 7.55844
-0.358994 134.516 -3.76
-33.6178 135.522 4.32964
11.2957 132.62 -2.51854
-15.0291 130.504 11.0482
5.51808 128.702 9.10758
-18.1273 130.999 10.909
-4.63561 134.763 -2.60272
8.51243 128.572 8.64235
1.51761 134.96 -4.91029
-28.7154 134.885 4.86075
-7.85001 129.921 10.6692
5.65962 129.369 7.81412
11.592 134.565 -6.88478
20.4015 129.682 2.46654
7.19943 135.14 -6.89451
4.35109 135.336 -6.47429
0.245912 134.834 -3.90656
11.6041 132.932 -2.76954
-34.176 136.313 3.36201
-21.0451 133.607 5.95484
11.8096 129.647 5.47715
-25.4143 134.172 6.03898
-14.4221 137.794 -6.35411
-1.92918 130.364 8.17126
-34.1992 136.562 3.06077
16.874 132.159 -2.137
-34.054 136.454 3.3017
13.2296 132.949 -2.81693
9.62734 135.4 -7.64335
12.9574 133.451 -3.7845
12.2751 133.135 -2.75039
-16.006 131.647 9.97275
-20.9027 133.996 5.79621
0.539062 131.713 4.79471
-2.90497 130.44 9.05708
-25.2433 134.698 5.61725
-20.1916 133.638 6.76068
5.53762 129.833 8.15486
-31.4308 137.8 0.0825566
18.8402 131.063 1.00166
16.2692 132.949 -2.84959
-20.3464 137.726 -3.01329
-11.9645 138.231 -6.90903
-11.8015 131.387 10.0304
-9.76927 137.754 -6.38282
-19.8385 133.693 6.99911
-33.5089 137.046 3.14274
22.3053 130.648 1.4343
-16.2724 138.158 -4.99812
-32.5613 136.583 4.09124
11.6903 133.598 -2.47772
-14.2505 131.506 10.9132
-30.1101 136.627 3.28517
11.6629 133.805 -2.88702
-23.9947 135.01 5.5086
5.91762 129.817 8.94211
-23.0543 134.75 5.90562
18.824 131.433 1.02966
-24.4358 138.951 -3.88625
-3.41391 135.786 -2.65522
-12.6542 138.556 -6.49875
-12.8261 131.919 10.041
-22.7163 138.58 -3.35438
14.3008 133.964 -3.58275
11.4984 135.54 -6.60188
0.855726 132.423 4.58151
-7.92085 131.358 10.0421
-0.920288 131.438 7.65409
-4.00097 131.025 9.65582
18.9752 130.038 4.96667
17.7373 132.947 -1.7985
-10.7738 138.688 -7.01255
4.94397 136.617 -6.80554
1.1229 132.593 4.38521
-23.262 138.941 -3.63821
-20.136 134.628 6.07203
-26.9842 135.494 6.08969
-32.4201 138.429 0.683821
13.5093 133.991 -2.78653
-0.0261357 135.944 -3.31822
13.6179 130.168 6.69782
3.46915 132.87 3.22838
-28.5544 136.752 3.72894
-29.0755 136.97 3.40889
-13.5348 132.295 10.1365
-25.0003 139.237 -3.4204
-19.0809 138.269 -2.71609
-21.9682 135.081 6.18222
-22.6246 135.327 5.83205
0.252995 132.362 6.04608
6.32599 131.309 6.74325
-23.9676 139.381 -3.60646
-25.4661 135.648 6.17081
-24.4827 139.435 -3.40871
-14.4101 139.266 -6.01582
17.5054 133.64 -2.07526
-16.4798 138.943 -4.47943
-19.4478 138.532 -2.51912
-8.66771 132.305 9.6044
-18.8702 138.653 -2.90349
-15.3167 139.322 -5.61736
-20.4151 138.779 -2.65442
-26.9569 139.564 -2.43464
11.8232 134.734 -2.62901
-32.1897 139.01 0.702199
-30.1444 137.905 2.86293
-27.6224 139.157 -0.91332
-13.8517 133.054 9.886
6.4906 137.172 -6.74515
-12.5622 133.508 8.37784
12.8665 135.056 -3.47483
19.1716 130.724 5.33193
6.42782 131.882 6.60293
-28.2685 137.597 3.41888
6.59251 132.349 5.45399
-30.4712 138.181 2.72731
19.0172 132.834 0.41241
8.47742 131.197 7.8237
0.122864 136.846 -3.50876
5.77821 131.336 8.41226
4.82508 137.635 -6.90312
6.05999 132.898 4.50193
-2.40662 136.894 -2.73277
12.1441 134.772 -2.02191
4.46165 133.657 3.19822
-4.5275 132.135 9.86641
12.6416 131.472 6.18712
-31.9272 139.328 0.813892
7.44732 131.046 8.92072
9.55529 137.482 -7.69641
7.31256 137.466 -6.81161
-18.5084 139.117 -2.68894
7.21794 131.248 8.84489
-17.6229 134.897 7.71373
9.92993 137.433 -7.26658
-27.7097 139.67 -0.873595
12.0591 135.013 -1.84628
21.012 131.661 3.66241
12.2587 134.831 -1.33604
10.9666 136.905 -6.06965
-32.4184 138.763 3.04059
-8.85183 139.445 -6.03423
-7.05741 138.718 -4.75179
19.4631 131.398 5.153
-25.1035 136.837 5.78412
15.8453 135.12 -2.82908
-30.3244 138.839 2.53169
18.9715 133.73 -0.326069
-0.502467 133.046 7.55667
-11.3805 134.196 8.46497
-25.0857 140.353 -2.32821
-24.5107 137.107 5.54358
-30.774 139.881 0.652457
19.5434 133.172 1.53933
-32.2991 139.34 2.63413
-6.89484 133.188 9.87236
-5.7228 133.096 9.73208
-1.80648 137.653 -2.74786
-30.3487 139.98 0.535578
6.34147 132.621 7.3078
-16.1003 140.56 -5.14144
-13.825 134.725 8.62888
-21.1248 136.716 6.09151
-20.5065 136.603 6.1928
-17.5144 140.679 -4.84812
21.4757 132.614 2.86163
-12.0856 134.95 7.68764
-14.9897 140.72 -5.64397
-17.8003 140.284 -3.6638
-27.1122 138.573 3.55655
-5.45953 138.735 -3.66802
12.005 136.751 -4.16321
-0.339966 133.654 7.44256
-15.6465 135.595 7.4623
-23.6316 137.646 5.04773
6.17077 134.378 3.80778
6.35758 132.977 7.2277
-14.8079 135.127 8.62443
14.5032 135.961 -2.53199
-27.6035 140.797 -1.17982
6.30242 132.96 7.62711
-15.2566 135.602 7.91151
-20.0064 137.01 6.24879
0.908835 138.475 -3.97995
-14.3875 141.121 -5.67849
12.6321 136.597 -2.97325
-20.4518 140.736 -2.71816
12.2998 136.386 -2.15652
7.98742 132.94 7.7603
-15.5704 136.158 7.26943
-4.23222 133.9 9.36184
-17.0446 141.268 -4.66632
11.3445 137.744 -4.85105
-26.6445 139.226 3.67693
21.5598 133.12 3.6483
18.4706 132.589 6.07953
-3.10199 138.866 -2.60565
-23.3287 141.229 -2.05883
11.9523 136.325 -0.981668
-11.0307 135.863 7.53829
-12.7248 141.687 -6.29453
-9.79141 135.518 8.0851
8.50966 139.28 -6.94787
-4.20418 134.395 9.25345
-10.0304 141.528 -6.51405
-19.5578 137.656 6.13958
-10.3191 141.619 -6.48194
-13.1223 136.665 6.69735
-17.1645 137.331 6.36391
-27.122 139.686 3.67956
-26.6628 141.616 -1.16847
-12.8526 141.848 -6.09763
6.45797 139.716 -6.79548
11.8674 138.121 -4.37873
21.1779 134.068 2.83489
-19.0702 141.219 -2.11162
-24.5218 139.298 4.3785
19.1819 133.217 5.67924
-16.9573 137.585 6.27554
20.9978 134.175 2.7946
-17.7431 141.259 -2.4302
16.2083 136.899 -2.12331
0.949983 139.474 -3.62556
14.5872 133.925 5.97295
-15.6553 137.939 5.68461
2.43676 139.803 -4.59251
-22.8815 138.856 5.76235
-10.3925 142.247 -6.53794
-13.0641 137.499 6.15776
10.373 139.692 -6.64946
-8.85102 136.531 7.36583
14.8583 137.244 -1.88543
-7.98084 136.36 7.54542
-15.2483 138.184 5.34096
-6.92144 136.136 7.81081
-29.8974 141.604 1.56838
13.6524 134.239 6.10392
13.0139 134.257 6.27095
21.1846 134.009 4.37466
-0.870136 135.439 7.85829
2.91336 140.081 -4.84795
-5.2079 140.7 -3.81064
-5.76075 135.975 8.09797
0.0489793 139.816 -3.13107
20.7264 134.69 3.10005
11.439 139.321 -5.33822
11.8588 137.439 -0.789692
12.1165 138.632 -3.77583
11.8939 137.576 -0.908395
-6.54851 141.51 -4.8097
9.30305 134.369 7.90775
-16.8678 142.558 -4.04193
20.5057 134.928 3.16151
-20.2637 138.971 6.22157
3.53588 137.194 3.3023
-7.52895 142.229 -5.6633
18.6782 136.881 -0.62292
14.7412 134.809 5.997
10.8159 135.13 6.45466
-23.3823 142.735 -1.40944
12.5752 137.848 -0.601346
-23.0351 142.76 -1.50346
-0.778583 136.206 7.72669
-11.5747 138.405 5.73234
-23.3853 139.969 5.62065
-18.8007 139.405 5.71012
0.814572 136.839 5.89305
-7.22619 137.543 6.75836
-28.0726 142.866 0.143384
-15.3277 139.161 5.34546
-16.1215 139.394 5.11816
15.6547 138.26 -2.06723
-30.0382 142.342 2.24255
4.1181 141.059 -5.35169
16.0584 138.125 -1.79122
-29.2457 142.552 1.56001
17.6498 137.564 -0.809927
8.21478 141.153 -6.64411
-6.62245 137.594 6.89745
11.9007 139.544 -3.77571
1.18467 140.806 -3.45549
2.50082 137.637 4.00779
-24.099 140.694 4.86951
16.895 137.89 -1.10098
-8.22005 138.103 6.30923
-16.0009 143.34 -4.20601
2.84122 137.71 3.81205
-29.6456 142.606 1.96833
-1.59482 136.683 7.84887
-5.13337 137.377 7.37245
-9.23593 138.459 6.11063
-16.5403 143.132 -3.15511
1.9882 141.103 -3.82863
-6.38003 137.906 6.7971
-2.41678 137.08 7.61724
3.8557 138.082 3.27273
-28.7061 142.182 3.48412
2.66942 141.419 -4.22955
5.33557 141.742 -5.86031
-6.05605 142.732 -4.69361
0.609944 141.264 -3.15276
7.53187 136.618 6.27057
11.8853 139.303 -1.72777
19.1942 137.559 0.305039
-16.2277 139.908 5.71021
-20.2582 143.531 -1.96477
-24.8355 143.67 -0.724525
-25.6713 143.554 -0.135143
-1.83393 137.686 7.03334
7.54173 137.999 3.29762
-20.3275 140.295 6.48408
-2.24591 141.7 -2.68873
7.73603 137.998 3.35567
19.2523 135.713 5.4405
-6.11232 143.072 -4.78871
2.15086 138.391 4.27941
16.5598 135.926 5.85426
20.3876 135.917 4.68584
-5.77259 138.46 6.67814
-15.233 140.321 5.06366
7.77187 137.854 4.05987
-4.2216 142.513 -3.50422
20.0845 137.198 2.0894
8.80245 136.44 7.59747
11.9592 139.537 -1.05775
-28.6309 142.854 3.58105
-28.9926 143.035 3.29827
-28.5204 142.837 3.64512
-21.7085 141.066 5.88614
11.6857 136.473 6.75292
-9.52228 140.1 4.62202
11.8443 136.514 6.76643
-3.91571 138.726 6.30235
-1.25506 142.024 -2.65359
7.94627 137.316 6.19681
-16.61 140.934 5.02305
-25.6886 142.349 4.42127
-27.0512 144.222 0.282962
-10.6332 144.566 -5.71762
13.4185 136.557 6.55469
-15.381 140.987 4.82261
-0.645864 138.311 6.80824
6.58812 139.063 2.69887
0.169024 138.101 7.15464
16.9621 136.536 5.82613
-20.5973 144.377 -1.75119
20.9168 136.708 4.16089
18.7801 136.347 5.85538
-14.0485 140.927 5.04229
-7.34759 144.444 -5.66316
17.8425 136.559 5.93992
-22.3264 144.692 -1.49679
8.32936 137.518 6.71614
9.55573 137.268 6.95941
6.80905 139.38 2.63824
-23.9482 142.251 5.38701
-16.1578 144.559 -2.78345
9.48048 142.559 -5.88381
-19.5318 144.516 -1.56357
4.91491 139.478 3.22328
-4.65761 143.56 -3.86254
8.2155 137.886 6.17031
-8.54269 140.809 4.27655
-0.547882 142.593 -2.59806
-27.0634 144.738 0.576955
-26.1152 144.791 0.156665
-15.9286 141.606 4.90087
-10.0377 145.214 -5.84917
19.1613 138.939 0.495702
4.49973 143.033 -5.00044
-21.0767 144.994 -1.66051
-9.09027 141.157 4.07232
0.689299 138.804 6.87119
-24.238 145.009 -0.569969
-21.912 142.26 5.59207
5.25173 139.914 3.20611
3.69662 139.899 3.77995
20.1583 138.505 2.05806
-12.1953 145.344 -4.67751
-20.0947 145.143 -1.61896
-21.0061 145.271 -1.58945
8.53846 138.275 6.43536
9.2441 137.877 7.21345
-23.4894 145.391 -1.05563
-18.5469 141.887 6.08573
-2.34641 140.006 5.8187
-8.844 145.822 -6.51875
1.24043 143.145 -3.04743
-15.2576 145.387 -3.28699
1.55976 139.521 5.98444
-14.2355 145.423 -3.62905
3.39249 143.422 -4.16049
-3.12881 143.91 -3.20764
-22.2799 145.597 -1.28825
17.3618 137.654 5.90677
-3.16598 143.977 -3.23314
-19.5105 145.404 -1.50451
-11.1457 145.784 -5.06693
-25.0628 143.467 5.12866
13.0444 140.683 -0.00303725
13.8804 140.597 -0.0402622
-10.1278 145.981 -5.76293
18.9229 137.636 5.77357
-0.850246 140.037 6.143
0.014486 139.847 6.38195
-14.4811 142.505 4.40463
12.1166 141.532 -1.57072
1.39574 139.696 6.45745
11.9045 142.64 -4.13129
-20.7356 145.83 -1.45729
-15.9531 145.804 -2.83417
-11.0709 146.128 -5.17762
-7.87223 142.258 3.6861
6.16885 144.246 -5.56668
8.79232 143.997 -5.68665
9.00088 139.595 5.20107
19.877 138.399 4.82699
-6.49476 145.85 -5.17403
-12.3115 146.204 -4.14959
3.75898 144.183 -4.18795
-24.881 144.137 5.18502
7.56535 141.146 2.43496
-2.58589 141.521 4.80364
-18.0396 143.341 5.17498
0.373453 140.579 6.22151
-17.914 143.404 5.01581
20.1774 139.614 2.38363
-22.0421 143.825 5.55499
20.6143 139.405 3.29718
17.0055 138.816 6.01928
4.31496 141.374 3.69037
-17.2206 143.639 4.91986
-17.8324 146.239 -1.17615
18.2699 138.77 6.00123
-16.4978 146.215 -1.45807
-24.3768 144.712 4.87375
-21.5148 144.124 5.45186
9.79448 139.63 6.9803
-13.1629 146.748 -3.40747
10.2016 144.499 -5.09769
-25.1639 145.207 4.39015
-0.884321 141.73 5.43446
-8.31381 143.18 4.19692
-11.831 147.16 -4.55705
-24.4251 145.111 4.5677
-4.07738 142.95 3.55023
12.0972 143.986 -3.97643
13.5427 142.017 0.560496
-13.6985 144.026 4.19607
0.0150197 141.711 5.62476
16.7243 139.412 6.10711
12.6452 142.841 -1.07888
-19.1667 144.003 6.13736
-10.4538 147.726 -5.82086
-0.617728 142.037 5.31772
13.9847 139.614 6.73855
-16.9625 146.724 -0.909985
-25.1423 146.913 1.24699
-12.7517 147.377 -3.74161
-8.96964 143.519 4.66617
-21.7899 147.414 -0.901312
16.0831 142.213 0.0998107
3.20889 142.334 3.88634
6.19064 142.411 2.75641
-21.405 147.419 -0.930992
-25.5079 146.908 1.68245
2.89717 142.356 4.03873
-13.9375 147.236 -2.69701
-22.1242 145.218 5.08545
16.8812 142.234 0.361056
3.77444 142.584 3.63656
-10.192 148.204 -5.81414
9.2532 141.427 4.93031
-10.914 143.947 5.10013
-6.14749 147.571 -5.125
1.97319 142.159 5.8555
15.2641 140.214 6.50014
1.9298 142.148 5.97115
-22.6485 145.902 4.63974
19.9999 140.882 3.76106
-23.2717 147.804 0.302089
11.4918 145.056 -3.84041
-25.5206 147.285 2.39058
14.0112 142.954 0.664845
17.4952 142.546 0.660726
12.7489 140.827 6.50282
-2.35731 146.756 -3.37791
17.8228 142.576 0.683512
6.65862 143.333 2.49796
17.4077 142.7 0.763087
1.41084 142.787 5.60068
-8.37525 148.572 -5.65076
12.3586 141.103 6.41466
11.7459 145.056 -3.15531
-1.89037 144.029 3.7616
-19.3775 145.375 5.96017
1.33916 142.922 5.51674
-20.8336 145.803 5.4622
-6.30212 148.335 -5.27775
-13.5417 148.436 -3.22134
11.8891 144.972 -2.57207
-13.5201 145.647 3.82154
13.8939 141.116 6.44234
-1.73967 144.506 3.0852
-2.24585 144.721 2.72524
9.20057 146.338 -4.89471
9.41947 142.604 4.42898
-21.3647 148.484 -0.420963
-4.16593 147.798 -4.09353
14.6308 141.11 6.58589
11.215 145.622 -3.522
14.4453 143.425 0.942043
14.5084 143.454 0.98244
7.33703 146.664 -4.69937
13.446 141.55 6.24184
17.8602 141.285 5.5642
-14.4482 148.577 -2.29742
13.7144 143.626 1.111
-12.183 145.469 4.8051
-14.4145 146.09 4.11815
-18.6541 146.174 5.33143
-24.2567 148.232 2.07476
-11.5152 145.455 5.06956
12.0284 142.214 5.71808
-20.75 146.484 5.57599
-22.9036 147.133 4.67647
7.94756 147 -4.73371
-7.78246 149.219 -5.25273
19.5186 142.617 2.58065
-12.1936 145.803 4.83475
14.9167 141.696 6.46727
-4.87201 148.601 -4.38708
-4.79042 145.521 3.28914
0.695444 144.289 4.8885
-0.986229 145.508 2.69726
0.571465 145.232 2.90545
-23.7599 148.691 2.12492
-18.6127 146.906 5.05018
-9.5818 149.814 -4.89138
-7.05095 145.996 3.90665
12.2438 145.779 -1.62045
-16.484 149.022 -0.489276
-23.1011 147.949 4.35525
-8.4321 149.815 -4.88605
1.72993 144.443 5.25972
-9.82127 150.015 -4.77672
19.5189 143.137 3.06551
0.785184 145.12 4.10889
-17.7194 149.103 0.15847
5.08922 147.866 -3.86585
-11.0985 146.369 5.23565
-10.5221 150.337 -4.60063
3.7769 147.954 -3.18229
16.2931 142.697 5.91489
11.091 147.111 -3.3224
11.4992 143.613 5.35796
-14.4849 147.393 4.24114
18.0104 143.393 4.3497
9.35153 148.159 -4.72071
-21.9289 148.237 4.97933
-13.3185 147.647 3.83589
12.1345 146.721 -1.88763
-1.43344 146.518 2.94212
-22.5981 148.72 4.23601
-22.3851 148.695 4.39483
10.551 144.401 4.66648
18.8411 144.001 3.08003
2.70145 145.164 5.30523
10.0153 144.974 3.69121
-13.0558 147.876 3.78407
0.665967 148.764 -2.69219
