ply
format ascii 1.0
comment Created by Open3D
element vertex 1860
property double x
property double y
property double z
end_header
4.82933 118.448 4.49088
-4.33059 98.3856 -1.77177
7.25884 120.881 8.45006
1.36943 120.665 -5.34093
-8.55662 86.7602 -2.73532
4.752 121.26 2.2973
-4.0258 98.8236 -1.19041
4.87067 115.138 7.38209
1.80699 115.524 -0.173756
-8.84878 85.4352 -2.18451
-7.87809 86.2476 -0.483032
-7.6199 88.2267 -1.34698
1.47091 115.028 -0.39569
-9.52917 83.0969 -1.76232
-1.47175 116.049 -8.05795
-0.580537 110.294 -1.44362
-0.259979 101.552 6.07343
5.04826 119.211 5.06017
12.2402 148.385 -0.367621
-7.77574 88.3308 -1.54602
-8.48708 86.2089 -1.59555
5.18569 116.87 7.35087
-11.8686 89.9987 -12.4331
9.47747 146.659 -5.44972
-1.18736 101.757 3.91353
-4.88084 97.8924 -1.84043
0.0585364 119.108 -6.3999
-8.25324 102.692 -13.4421
-0.48849 101.445 6.05367
13.406 148.552 2.7553
1.58297 116.155 -0.313745
-8.96747 85.7937 -1.92077
5.15983 122.729 3.21483
-0.4967 111.295 -1.39781
3.58498 131.161 -6.8868
-1.9727 101.305 2.9701
10.1796 147.001 -3.37194
-8.0232 88.5401 -1.42536
3.6178 131.399 -6.85253
8.43331 128.413 6.93218
3.60716 121.072 1.13988
-7.58801 107.006 -14.5826
11.1435 148.912 -2.32715
-6.33623 90.3571 1.36098
5.56165 122.319 4.97378
-5.18698 98.6024 -2.19806
-11.8004 81.2834 -4.53259
6.80848 122.547 7.84286
-11.3362 93.4909 -12.8087
-1.4181 117.356 -7.65892
2.69756 127.246 -5.47271
-5.77379 91.4834 2.11181
-8.2524 105.173 -14.3236
8.50743 129.46 6.7723
3.58455 131.805 -6.69948
12.9748 150.6 1.15254
-8.31975 88.8741 -1.78391
-8.42885 104.656 -14.2304
7.73576 144.316 -6.41498
-3.05331 96.4942 4.92517
9.61983 133.781 6.27775
-4.23514 99.2951 -0.0175514
-7.48181 107.962 -14.4103
-3.10591 100.55 1.72963
6.05862 124.826 4.77058
5.99309 123.697 5.51593
2.14954 125.193 -4.76348
0.256221 114.355 -0.890138
12.8666 150.883 0.914659
8.4543 146.025 -5.74797
6.91473 123.533 7.98464
-5.46747 112.019 -12.5052
-1.78975 100.655 5.02753
7.22968 125.136 7.58956
-6.86676 90.0998 1.19905
9.05314 147.7 -5.40792
-6.50045 110.255 -13.45
-7.8468 89.0278 -0.206152
6.23449 125.223 5.36874
-2.76749 106.948 -1.89459
0.963802 122.741 -5.22118
12.8087 149.669 2.14914
-15.9154 80.4866 -12.6861
-11.7838 93.3247 -12.7025
-2.29014 116.922 -8.31604
2.82528 129.384 -5.77896
-4.94882 97.9886 0.0084813
12.7538 149.556 2.28318
-13.047 88.4372 -11.8387
-2.55813 107.836 -1.83176
-6.91324 94.8131 -2.08845
-0.698173 112.852 -1.20722
-7.80363 88.9848 0.404257
-8.4593 87.5972 -0.0762312
2.8408 121.982 0.261063
6.42984 125.554 6.05831
-8.39029 88.0943 -0.225015
0.805646 116.86 -0.567186
5.73734 128.48 2.18593
-2.00091 117.785 -7.92706
-14.8679 84.4646 -12.7741
-15.4567 82.0669 -12.3159
6.07682 140.872 -6.52139
-4.03156 99.6619 1.31219
-10.2388 98.3367 -12.4002
-8.64706 89.2841 -1.59223
-11.7872 82.5667 -3.73124
9.42765 135.002 6.22962
12.4529 149.946 2.02117
-9.44001 87.8997 -2.09374
-8.20079 89.6683 -0.486219
6.40665 125.989 6.18602
-7.43489 94.7327 -2.54556
5.0716 128.305 1.26316
-3.58058 116.428 -10.1311
5.9078 129.485 2.37452
-0.508952 114.25 -1.10396
-4.85817 101.828 -1.83177
-10.0295 84.0467 -0.383751
-8.37763 89.5883 -0.729621
-15.9381 81.2876 -12.2451
10.9797 149.593 -0.95283
-3.31077 100.107 3.31355
-4.31381 99.3097 1.54731
-9.43773 88.0333 -1.88825
9.74963 137.711 5.43647
6.16816 130.041 2.85347
2.31814 121.826 0.085495
-7.25657 110.308 -13.6555
-7.34154 95.3386 -2.2433
-3.23017 117.073 -9.206
-9.0419 88.0556 -0.585381
-11.9936 81.6651 -2.65562
11.7102 146.4 3.74499
-9.77203 87.8829 -2.11742
6.08739 128.732 4.06017
-15.3449 84.7994 -12.9258
-10.846 97.938 -12.3693
3.9896 126.85 0.584893
6.90656 127.908 6.74968
-9.81154 85.8608 -0.516015
-6.94459 94.6348 -0.434579
-8.2906 90.7196 -0.602442
9.05339 135.975 5.68484
5.61188 130.696 1.59263
-6.96042 111.223 -13.2351
8.79575 149.053 -4.98807
-5.98462 93.0388 3.16616
-8.51201 90.3503 -0.744472
-4.96758 102.542 -1.61255
-9.5546 89.3228 -2.27789
8.44186 133.492 6.40607
-10.2924 86.8685 -2.00652
9.2522 139.469 3.84762
4.59336 129.082 0.804046
3.05632 133.505 -6.25128
-4.82919 103.614 -1.90042
-10.5328 102.746 -14.6463
5.52347 141.189 -6.16775
8.7642 137.616 4.42161
11.6684 148.84 2.72313
-7.77416 110.462 -13.7569
9.31217 140.102 3.98175
11.5578 148.411 2.91047
4.54277 129.779 0.633732
-6.62942 112.491 -12.5502
3.21702 134.689 -6.24116
7.95177 136.061 3.96645
-4.00004 98.9887 4.18971
10.8268 144.229 4.50414
10.4872 142.982 4.78663
4.2493 129.377 0.491289
-8.28894 94.0466 -1.98194
-10.8113 84.66 -0.62351
-1.15733 115.089 -1.17143
6.18945 127.588 6.65579
6.42058 134.213 2.09065
6.05419 133.895 1.47413
6.31298 130.051 5.06288
-9.96409 105.849 -14.9095
-8.66048 89.5981 0.760586
-10.1405 86.375 -0.125176
-3.28296 109.362 -1.54677
6.81145 134.169 3.29193
9.28273 140.792 4.05496
-11.155 99.6384 -12.7385
7.475 134.288 4.83863
-7.79605 111.111 -13.548
-2.90991 119.424 -8.28776
-5.95354 101.467 -1.64137
6.11529 133.31 2.4877
-6.226 96.7816 1.37346
-13.7489 90.6738 -11.7496
-2.47514 120.461 -7.89528
-5.51287 95.8859 3.91067
-6.79677 93.2289 3.13781
3.00169 135.109 -5.90329
-14 90.3966 -11.6944
11.1542 152.095 0.488913
-13.6359 91.6978 -11.7815
-16.9597 82.7727 -12.7467
-5.52477 116.159 -11.3276
-11.5812 99.9765 -13.2039
-15.0156 86.7268 -11.1209
-16.8254 83.5667 -12.9732
-12.9447 94.8633 -12.4721
-8.89246 91.1646 0.192645
7.85125 148.791 -4.47701
-7.28174 94.6928 1.36676
-10.2905 106.48 -14.8884
-6.15419 97.3129 2.05153
-2.93213 111.684 -1.32091
-5.79147 115.978 -11.4211
-4.4662 107.72 -1.83941
8.16817 149.969 -4.41888
-1.69875 122.343 -6.53129
-2.12623 114.111 -1.18794
-13.5832 92.6206 -11.8198
10.2471 146.161 3.51404
-8.18625 91.5945 1.84601
2.51503 134.05 -5.4985
9.44637 142.98 4.12345
10.9022 149.803 2.41319
-9.24859 90.4995 0.327069
-15.989 85.9765 -12.1806
-9.75131 108.396 -14.6351
-4.18154 118.85 -9.46658
-9.47651 90.6056 -0.191697
-17.6819 81.8472 -12.8439
-4.99419 117.98 -10.5382
-13.7281 93.172 -12.1349
1.47816 129.654 -4.16058
6.09322 136.727 1.34826
2.45339 127.39 -0.0594108
-12.746 82.3536 -1.38751
6.50062 145.992 -4.78755
-7.89187 94.3684 0.889103
-10.3497 90.7022 -2.11513
5.14208 142.505 -5.30006
-6.7162 114.504 -11.8189
-13.8848 81.0076 -2.94629
-9.58958 92.486 -1.58131
-9.32769 90.17 0.902769
-8.20074 97.9383 -2.37871
-10.6018 86.4103 0.844979
5.59102 136.357 0.906993
-12.2575 100.135 -13.5402
-9.40216 92.3839 -0.761378
-9.53449 91.7113 -0.542783
1.36855 125.111 -0.417788
6.42791 138.064 1.63771
-9.51713 91.3934 -0.196224
-9.2232 92.696 -0.434577
6.58875 138.572 1.73877
2.51628 128.206 0.079865
6.20727 137.812 1.44575
5.38228 143.565 -4.95616
3.52833 131.125 0.25954
8.37009 151.345 -3.83777
-14.6516 80.4871 -3.69508
-4.10458 119.954 -9.10073
-9.70719 92.1716 -0.944858
-9.64241 91.8874 -0.531629
-17.7218 83.5689 -13.3064
1.87988 132.497 -4.4791
-10.0622 90.9028 -0.73169
-11.0739 88.633 -1.26098
-10.0581 91.9854 -1.31677
-10.7702 86.8284 0.998741
-3.25639 112.844 -1.22978
7.9546 142.065 2.90119
8.90203 151.733 -2.2851
7.4655 149.623 -4.07063
-10.7756 87.0846 0.875363
7.44416 149.564 -4.07021
-18.4116 81.7146 -13.1262
-7.46402 95.5016 2.26374
8.09339 142.509 3.04551
-3.73082 121.27 -8.56384
-14.8035 92.0003 -12.186
0.264976 128.109 -4.20327
-12.5221 103.425 -15.4925
-14.1506 94.3776 -12.3202
-8.5439 98.5977 -2.18592
9.28405 146.361 3.31134
-10.5606 90.8417 -0.976679
-3.10604 114.065 -1.08697
-10.3581 91.2357 -0.64197
-10.0077 93.2986 -1.39008
-5.11729 108.669 -1.63249
-9.78294 93.668 -1.13191
-18.1116 84.3719 -13.7304
-8.14322 113.404 -12.446
-6.91942 103.11 -1.58277
6.36669 139.885 1.62269
4.56907 142.853 -4.89739
-10.2292 88.7201 1.79457
-11.7938 85.3297 0.805742
-5.70562 118.566 -10.3768
-13.4867 99.0946 -13.8191
-1.27768 126.001 -5.5302
-11.0303 88.8536 0.0104563
-10.5129 89.5361 0.7232
-8.38292 99.7305 -2.01824
0.344072 124.478 -0.311256
-13.2197 102.544 -15.6028
-10.4795 109.471 -14.4095
-8.49573 94.0855 2.33207
2.44501 136.973 -4.73934
-14.8235 94.2608 -12.6845
-6.0555 118.376 -10.4491
-10.1023 94.3156 -1.46098
6.72386 149.221 -3.76445
-9.05883 94.175 1.24075
-5.09222 109.913 -1.4179
-4.63323 121.174 -8.95337
8.80418 152.821 -1.42374
8.70765 152.813 -1.63363
6.839 142.6 1.8769
-19.1149 82.373 -13.2518
0.202448 124.935 -0.183242
-14.6757 97.3322 -14.2269
3.24493 133.285 0.615493
-6.04222 118.957 -10.2666
-9.10392 112.738 -12.707
1.65158 134.785 -4.13666
-18.9441 84.0689 -13.8907
1.90909 129.918 0.305345
-10.316 91.3868 1.03571
-12.7314 105.302 -15.4176
3.94496 135.047 1.32231
-5.74451 108.1 -0.896615
-1.8408 126.555 -5.83078
-11.552 86.8911 1.75355
-9.68736 111.707 -12.9497
5.01226 139.264 0.864716
-10.9491 109.718 -14.2397
-2.07948 126.429 -6.04303
-9.01926 99.3109 -1.57964
8.28939 147.286 2.56588
-12.3274 85.6161 1.20895
-16.2738 80.482 -4.08443
-0.677556 129.139 -4.45559
3.60075 134.639 1.47589
4.97637 139.788 0.805378
-19.9041 81.9288 -13.6375
-20.1279 81.9344 -14.1429
-7.23044 104.373 -0.784393
-4.26533 122.933 -8.01864
-8.01664 115.922 -11.519
3.06432 141.07 -4.58012
-9.35406 98.7244 -1.38598
-17.1273 87.8279 -11.4181
-5.35899 110.494 -0.933654
1.30588 134.751 -3.78654
-4.76607 112.59 -1.06966
-8.52996 101.538 -1.41573
7.67 146.661 2.33639
6.27454 150.206 -3.58554
-15.8782 95.5181 -13.9442
-15.8863 95.1775 -13.6057
-13.41 105.187 -15.448
6.69655 144.807 1.76177
-14.3303 83.0617 -0.505781
-6.19401 120.055 -9.60916
-7.42101 117.774 -10.7329
-16.1052 95.3265 -13.9741
-15.0866 100.251 -15.3285
5.32847 147.842 -3.54298
3.16998 134.703 1.49595
-15.0125 82.3422 -1.1194
-13.9528 104.072 -15.3629
-10.4931 111.563 -12.8254
-11.5876 89.5526 1.66869
3.27172 142.746 -4.08071
-10.4308 111.793 -12.6405
-4.0884 115.806 -0.646815
-7.30362 118.491 -10.3553
-17.7414 88.2343 -11.7788
-7.01962 105.529 0.413562
-1.6171 128.842 -4.70293
-8.97217 101.534 -0.996987
-6.99414 119.215 -9.92984
-8.59049 115.938 -11.119
-8.7572 102.369 -0.904816
-15.8248 98.9281 -15.0341
-0.108145 132.439 -3.31852
-3.16401 119.022 -0.195521
7.08126 153.25 -2.24424
6.84721 147.215 2.05862
-12.5391 108.89 -14.427
-18.157 88.1965 -11.7942
4.63462 141.814 1.02311
-15.1191 83.0224 -0.493887
-12.09 91.7369 0.0763182
-4.46602 124.366 -6.80737
-9.06357 115.67 -11.0165
3.2002 137.962 1.0194
-11.8094 91.9484 0.884596
-7.68206 104.997 0.650616
-13.8092 106.773 -15.2851
-0.627572 126.895 0.513363
-21.4252 83.9458 -15.6481
-14.0357 106.344 -15.3521
-0.096281 128.405 0.789343
4.99003 143.51 1.40416
-2.3534 122.441 0.228248
-13.3871 86.3463 1.93415
-8.1929 104.336 0.554545
-7.90999 104.888 0.814641
-8.51679 117.394 -10.2708
-18.7862 88.228 -11.9651
4.90757 149.922 -3.21232
-9.49652 101.85 -0.26387
-6.59083 121.605 -8.53535
-17.0919 81.1688 -2.24938
-8.26326 118.312 -9.86833
4.61517 143.501 1.33655
-18.4499 94.2109 -15.3363
6.87853 150.263 1.63473
-15.2977 103.791 -15.1632
8.29232 154.935 1.43473
-14.2853 85.5196 1.43475
0.379821 130.801 1.39255
-16.0857 102.281 -15.7157
-10.2997 100.086 -0.173789
-10.8122 98.7201 -0.286645
-4.98788 115.864 0.337614
-11.3809 96.4341 0.169815
-17.9767 80.6402 -3.27856
-1.59061 125.954 0.804467
2.51119 143.792 -3.19406
-21.5046 84.3665 -14.2631
1.33334 134.581 1.24949
-12.9945 92.3313 -0.135182
-1.1819 127.295 0.971857
-17.2936 98.5672 -15.1181
-11.4056 96.8247 0.230562
-18.4162 96.3642 -16.0127
-10.5386 114.355 -11.1493
-19.7727 92.2809 -15.9988
-14.3828 107.482 -14.8366
0.284792 131.248 1.74233
6.25792 149.931 1.51136
-21.8258 83.8082 -14.1373
-20.6901 85.8089 -12.9319
-12.3066 111.113 -12.5421
1.99478 137.026 1.5239
6.22039 150.455 1.20256
-4.55473 126.284 -5.67882
-3.49003 128.242 -4.65347
-12.4948 110.924 -12.6386
-5.51099 115.264 0.620619
-13.23 89.9757 1.87691
-21.2887 85.421 -13.7184
-22.0814 84.3158 -14.7493
-3.82079 120.767 0.549785
-13.9793 87.0649 2.56996
-3.09146 122.955 0.741752
5.52967 148.092 1.9442
-13.7118 88.8263 2.09666
-11.4616 98.0171 0.362376
-20.2798 92.0479 -15.8507
-22.2388 84.1522 -14.3939
3.84513 150.142 -3.31808
-10.9067 114.604 -10.8434
-20.0166 79.5664 -5.42376
0.262845 138.885 -2.94591
-9.84458 102.794 0.962052
-22.3023 84.5136 -14.4704
-19.609 79.3334 -4.02639
-17.0411 102.705 -15.9694
-20.5022 92.4501 -16.198
-3.8398 128.467 -4.39326
-11.1161 114.549 -10.8051
-4.44586 127.637 -4.91629
-17.2566 102.72 -16.0417
-8.90789 104.891 2.13482
-20.6414 93.4773 -16.926
-14.7876 86.6857 2.34303
-8.32447 120.543 -8.42162
-3.21329 130.606 -4.00626
-18.1959 99.1749 -15.3474
2.51323 141.232 1.423
-7.48131 122.23 -7.59638
-1.37247 135.028 -2.94679
2.18473 140.044 1.65039
5.20017 154.084 -1.93875
-21.7628 85.7031 -13.2189
-11.3016 99.8996 0.714577
-4.20744 121.236 1.15585
0.952868 142.717 -3.12615
0.204632 140.253 -2.98623
-19.4152 80.3643 -3.18218
-23.0351 84.2741 -14.6995
-11.8154 98.6033 0.925154
-11.9559 97.9927 1.08229
-12.1591 97.2457 1.31859
-1.75252 134.783 -2.92619
-6.8178 113.636 1.39486
-11.1885 115.321 -10.2511
-15.8161 107.378 -15.073
4.80092 154.11 -2.1022
-17.3274 83.4964 -0.152499
4.97315 154.487 -1.85205
-20.4959 95.6482 -16.9421
3.36885 151.618 -3.35231
1.63642 139.402 1.9732
-21.2346 91.8163 -15.5856
-19.5016 97.5828 -15.8871
-2.14066 134.501 -2.99063
-19.8065 80.6905 -3.39075
-7.13529 113.177 1.68374
-7.53288 123.055 -6.88475
-14.3079 110.554 -13.2203
-21.6794 87.1131 -12.6356
-2.74931 126.794 1.77809
0.817192 144.305 -3.19161
-21.6056 92.0505 -16.1112
-1.13673 138.153 -3.00968
-18.6377 100.527 -15.5204
-21.516 91.7884 -15.5714
-12.8583 113.009 -11.3239
-8.84226 107.504 2.48502
-0.860042 139.121 -2.9271
-17.9597 103.57 -16.0309
-4.16134 130.715 -4.17015
1.09082 145.885 -3.39661
-15.9326 86.5394 2.07794
1.09997 146.13 -3.45041
-22.6522 79.9151 -8.70286
-3.81795 132.084 -4.22234
-4.92161 120.805 1.88836
-3.33723 133.251 -3.79207
1.19605 139.43 2.21441
-19.7219 81.5343 -2.79209
0.699242 137.777 2.4813
-22.3284 91.7132 -16.6075
2.60916 151.659 -3.55698
-10.5633 103.331 2.4842
2.97055 152.576 -3.3208
-4.07269 124.07 2.04549
-20.0198 81.6306 -3.03515
-23.7811 85.4813 -14.9465
-0.841557 141.082 -3.26189
0.864479 139.012 2.40891
-16.0509 87.1977 2.35674
-14.2026 94.5206 1.10918
-6.68108 116.155 2.29724
-10.4075 103.901 2.96806
-12.406 98.8727 2.15086
-22.0554 80.6072 -6.4535
0.333378 137.721 2.69102
-5.65961 119.608 2.43962
-7.38011 125.083 -5.86567
-18.0587 84.5004 0.099987
-22.5432 87.6066 -12.8586
1.03591 140.617 2.26752
-22.0753 80.7106 -6.24052
-22.6753 89.4908 -14.3933
2.26213 146.59 0.891229
-22.7188 88.9188 -13.8903
-14.0517 95.5074 1.66232
-13.5591 96.2661 2.26934
-13.0881 114.506 -10.67
-5.94269 119.36 2.64094
-10.7085 119.026 -8.3722
-12.0405 100.453 2.86866
-12.8369 98.1306 2.77571
0.521239 139.511 2.57013
-3.10884 128.182 2.7024
1.3288 150.553 -4.00921
-5.61095 120.695 2.64058
0.41403 148.339 -4.27949
-10.6992 105.056 2.77412
-1.6426 141.6 -3.83406
-22.9277 93.0937 -16.8478
-23.5909 86.5958 -13.2142
-8.94155 110.298 3.31435
-12.2176 100.459 3.13943
-5.32711 122.238 2.7389
-23.1398 88.1096 -13.1774
-23.3752 87.4299 -13.2085
-23.1655 81.1394 -7.80883
-0.0185871 138.805 2.741
-2.09677 141.298 -4.01672
-13.0545 115.563 -10.1629
-13.2837 97.6264 3.18107
-20.7484 82.6889 -3.00037
0.635175 141.742 2.23457
-9.46345 109.421 3.2353
-2.18856 141.283 -4.05302
-22.0979 96.8067 -17.0294
-5.10741 123.429 2.85083
-12.9601 115.992 -9.95749
-22.661 95.4898 -17.1245
-15.0749 93.9088 2.25766
-17.0244 88.2056 2.10291
-23.9475 90.2437 -15.8847
-13.5897 97.2551 3.33691
-17.249 88.0867 1.7604
-12.4984 100.697 3.31864
-20.2616 102.361 -16.4049
0.845521 143.423 2.06346
-16.1039 90.1884 3.00322
-13.5074 97.6615 3.43946
1.70285 152.951 -3.06255
-7.39989 116.768 3.34584
-15.7243 111.771 -12.5834
-12.7757 116.903 -9.49037
-22.9015 95.5989 -17.078
-2.77156 140.619 -3.96595
-4.80825 125.248 3.07319
-21.8145 98.5465 -16.7007
-21.6119 82.4531 -3.76086
-17.3651 88.2886 1.89424
-23.249 82.015 -7.24854
-19.98 103.821 -16.2392
0.416055 142.93 2.05694
-11.7248 103.994 3.30707
-2.84793 131.654 3.0862
-2.00711 144.447 -4.68011
-24.3854 91.6818 -17.0321
-21.0389 101.213 -16.4276
-1.72746 135.522 3.1463
-11.7449 104.749 3.12405
-2.28062 144.284 -4.80977
-3.14065 141.337 -4.56594
-20.4384 85.1181 -2.15312
-8.90858 113.233 3.67101
-24.2172 92.5429 -16.6925
-1.1352 138.266 2.90765
-21.9254 82.8724 -3.70733
-24.3555 88.6897 -13.9689
-15.7574 112.766 -12.0123
0.438838 151.948 -3.73585
-22.6023 98.0869 -16.8778
0.816282 146.142 1.70364
-5.77313 133.635 -4.15104
-7.40546 128.882 -4.34526
-25.3574 90.0713 -17.0264
-24.6035 81.3195 -8.29658
-14.7081 96.3778 3.60056
-3.05313 132.716 3.28102
-25.6181 80.6684 -10.0732
-11.2327 121.202 -7.17271
-25.571 89.9015 -16.9961
-6.51853 121.78 3.68475
-2.42914 145.532 -4.81575
0.542134 152.592 -3.18132
-12.487 104.257 3.27027
-4.61434 128.147 3.57722
-6.60847 121.882 3.7855
-4.17101 139.478 -3.98191
-4.22525 139.577 -4.08054
-27.2762 81.2612 -13.8218
-21.9107 101.374 -16.5663
-3.73106 142.355 -4.99876
-12.0241 120.377 -7.58914
-19.7823 87.1649 -0.314583
-13.0231 118.91 -8.75251
-14.3199 98.6962 3.79346
-1.08103 141.052 2.55463
-25.0427 81.7289 -8.55256
-7.61904 119.14 4.11646
-27.2079 81.3553 -13.261
-18.2444 110.231 -14.2127
-22.1647 101.335 -16.577
-6.43271 133.694 -4.16756
-6.52904 133.416 -4.15698
-10.931 122.996 -6.51605
-1.58391 149.416 -4.63779
-19.2416 88.4272 0.510052
-24.3049 95.1958 -16.6636
-5.84949 125.495 3.8568
-21.0678 86.4273 -2.05489
-1.85435 139.088 2.94983
-3.61442 132.897 3.57693
-18.8253 109.31 -14.2782
-10.4282 111.627 3.91058
-10.903 123.507 -6.39467
-14.993 116.551 -10.7445
-13.3479 103.124 3.56337
-1.41773 150.35 -4.53941
-13.0456 119.646 -8.39251
-27.6366 81.1658 -13.3058
-26.8171 86.5318 -15.377
-15.9974 114.788 -11.45
-22.7485 84.8081 -4.33085
-5.68526 136.836 -3.93226
-27.0836 86.9978 -16.2801
-12.2821 107.883 2.82645
-5.17228 140.2 -5.23017
-4.23153 131.147 4.00776
-7.56293 120.515 4.33545
-6.67226 123.443 4.19192
-1.50291 150.754 -4.44156
-19.247 89.1648 0.958583
-5.76747 138.678 -5.19316
-15.5013 96.5867 4.22211
-19.6571 108.046 -14.5047
-27.1353 86.7008 -15.6564
-3.5858 145.48 -5.04101
-17.3153 91.3955 4.13349
-18.1278 90.6364 2.85603
-8.77529 117.354 4.47503
-4.93173 142.228 -5.58533
-8.89836 128.571 -4.43553
-11.8458 122.566 -6.72545
-24.617 83.7961 -7.12705
-17.8433 91.0437 3.4042
-19.4457 89.6128 0.699816
-11.3272 123.73 -6.34054
-23.7715 84.0594 -5.2737
-15.7749 96.1837 4.40221
-6.53385 135.68 -4.10192
-24.5047 96.8259 -16.7396
-21.9402 103.952 -16.1324
-13.6739 104.396 3.28711
-9.13517 116.741 4.59345
-27.5356 86.416 -15.7275
-20.2738 89.1951 -0.597276
-28.175 84.6376 -15.8367
-4.25481 144.676 -5.27708
-7.16915 123.064 4.52967
-27.072 87.767 -15.5197
-9.88432 114.772 4.49697
-1.42705 144.297 1.87307
-27.732 86.3633 -15.8934
-19.9971 90.1506 -0.352033
-20.9177 88.3503 -1.10673
-6.63072 136.4 -4.24066
-22.6612 86.6421 -3.89418
-26.8359 81.5076 -9.85301
-26.9441 88.331 -15.377
-12.185 109.394 3.46656
-4.51704 132.174 4.13461
-25.2026 94.7235 -16.0517
-25.4221 93.8348 -15.874
-18.9299 90.9786 1.84359
-26.6069 91.588 -16.8704
-22.4604 103.4 -16.0954
-26.9888 81.5409 -9.9664
-22.508 103.33 -16.0809
-26.9546 88.4891 -15.1382
-27.7669 86.8807 -15.7978
-12.9173 121.597 -7.28599
-27.0356 88.3003 -15.0348
-13.6484 105.97 3.15769
-27.8549 86.9956 -15.9325
-26.0661 83.6892 -9.04554
-3.59509 147.667 -4.97603
-7.21516 136.081 -4.63111
-8.42188 131.896 -4.25985
-4.41805 145.521 -5.18323
-7.26374 136.189 -4.73462
-26.8134 88.751 -14.5683
-25.4361 94.8466 -15.9911
-28.7144 86.7624 -17.5077
-10.5275 126.973 -5.10726
-21.7931 88.3374 -2.04243
-13.2342 108.22 3.01689
-9.47273 129.39 -4.38149
-20.517 90.7238 -0.767339
-24.0093 86.0737 -5.44228
-26.2799 93.0431 -16.2201
-9.3278 117.895 4.90308
-27.3436 88.6223 -15.2225
-20.5116 90.9903 -0.739349
-23.7096 86.6781 -5.00457
-28.1432 87.7995 -16.2919
-28.7759 85.947 -16.2283
-4.78765 145.71 -5.19576
-9.58225 129.879 -4.34923
-7.80074 123.356 4.92988
-6.1781 142.201 -5.60758
-27.7001 81.9177 -10.1883
-6.8916 140.894 -6.15658
-29.8315 81.9499 -15.1397
-16.8243 96.8304 4.29451
-13.1305 122.625 -6.83415
-24.3841 100.191 -16.1294
-8.13736 137.074 -5.9629
-6.20119 128.894 4.9721
-28.2151 88.833 -16.3465
-18.323 93.0648 3.94404
-9.04246 132.28 -4.26252
-18.6218 113.686 -12.6081
-8.58127 134.33 -4.67515
-28.0739 81.9809 -10.5735
-29.2264 84.603 -15.3053
-28.4503 89.3459 -17.0583
-18.156 93.3649 4.38673
-24.8452 86.2668 -5.97901
-22.8598 88.9406 -3.2876
-16.0524 99.9301 4.4361
-26.2519 94.3276 -15.4813
-2.55669 152.2 -3.76148
-24.8979 99.4184 -16.081
-22.2786 89.8866 -2.34511
-11.8475 126.157 -5.54269
-14.6728 120.93 -8.10036
-29.5937 84.2361 -15.2185
-9.72639 131.789 -4.48566
-29.1134 87.5928 -16.4097
-11.4919 114.597 4.71417
-22.6351 89.9882 -2.69521
-9.23077 134.344 -5.04875
-6.43459 143.614 -5.44024
-9.1738 135.144 -5.398
-30.2635 83.0509 -15.2204
-3.29832 144.157 1.81402
-6.38711 144.036 -5.41613
-17.0359 117.947 -10.5526
-4.61141 137.756 3.69451
-27.3037 93.3132 -15.8037
-3.88034 142.038 2.27961
-28.9987 87.331 -15.1759
-18.2123 116.395 -11.9361
-5.08958 147.994 -5.13962
-21.2862 92.8762 -1.04225
-27.1472 93.7744 -15.5935
-21.1093 110.456 -14.0752
-8.36178 139.995 -6.45008
-27.2638 93.7074 -15.6059
-23.4159 105.399 -15.4137
-21.4841 92.9845 -1.22971
-8.91351 123.293 5.28891
-16.9212 99.681 4.55479
-9.77962 135.928 -6.44401
-9.15028 122.675 5.32026
-9.80072 134.81 -5.55261
-8.78327 123.91 5.29177
-22.6957 91.2195 -2.52014
-12.4601 126.569 -5.46044
-7.24762 142.777 -5.53216
-23.9531 103.749 -15.0741
-20.4963 112.019 -13.2325
-5.59678 135.406 4.18715
-19.0402 94.4787 3.94941
-30.5781 86.3873 -17.1122
-5.77576 147.514 -5.29532
-12.9577 126.121 -5.6742
-27.6389 85.5795 -9.23086
-10.4355 119.626 5.43235
-9.962 121.126 5.41699
-26.5816 97.6732 -15.9575
-19.2467 115.742 -12.4282
-21.2833 94.1128 -0.549532
-8.93004 124.464 5.38053
-27.9508 85.36 -9.58599
-30.8575 86.0678 -17.0017
-30.4066 85.0636 -15.1462
-10.5542 135.311 -6.72162
-7.36561 143.503 -5.43889
-20.2465 113.281 -12.71
-19.6654 94.4529 3.28939
-9.95964 137.977 -7.16995
-19.683 94.5362 3.33376
-30.0475 86.9885 -15.4219
-10.8193 135.415 -7.07735
-7.3457 130.427 5.07813
-4.76527 151.095 -4.68758
-19.1616 95.1722 4.28764
-18.1762 98.1534 4.33675
-16.7681 103.123 3.93529
-15.911 106.572 3.45932
-28.2051 93.3527 -15.4888
-27.2155 97.1632 -16.0415
-11.2987 134.12 -6.69847
-18.9996 117.083 -11.839
-14.0069 112.167 3.84955
-23.0269 92.7876 -2.60289
-20.8155 112.907 -12.7734
-17.0476 119.84 -9.13457
-24.7052 103.702 -14.8423
-30.1867 86.7328 -14.6885
-27.5924 95.1431 -14.9854
-29 85.0628 -10.532
-23.5087 107.75 -14.9851
-12.165 129.647 -4.87346
-10.3836 121.655 5.57772
-19.3259 95.6036 4.44236
-6.11698 136.677 4.12348
-5.73726 138.596 3.56287
-9.37323 140.155 -6.27199
-23.1006 108.864 -14.7075
-13.6642 126.287 -5.70246
-5.23451 142.309 2.02302
-13.7741 113.421 4.078
-24.4876 91.5682 -4.49239
-8.31263 128.814 5.1924
-21.4415 112.005 -12.8724
-25.136 103.103 -14.7754
-10.8638 120.685 5.61313
-5.07295 151.652 -4.47521
-13.7836 113.737 4.1542
-20.52 95.5201 2.25775
-4.22879 146.216 1.87917
-12.2019 131.362 -5.56167
-5.65434 141.695 2.11813
-29.2785 85.4007 -10.5384
-6.05214 139.423 3.00112
-8.18417 144.688 -5.84377
-21.3051 113.485 -12.8648
-31.5391 86.5553 -16.3709
-5.90763 141.713 2.07947
-24.4608 92.6532 -4.12797
-12.3933 134.08 -7.41707
-28.1477 95.1849 -14.8081
-21.0453 96.0455 1.41558
-14.5588 125.689 -6.03532
-7.77629 132.197 5.07248
-7.13529 148.459 -5.93114
-22.9301 94.7076 -1.85223
-15.4848 124.093 -6.73532
-20.1145 96.1 3.89587
-16.4879 122.319 -7.68193
-15.6708 123.81 -6.83094
-30.9381 86.4626 -14.2361
-31.7043 84.7006 -14.5564
-17.0935 121.557 -8.27166
-10.1545 140.374 -6.22355
-12.9232 132.278 -6.53855
-8.53733 145.115 -6.02344
-27.8043 88.0888 -7.71271
-11.9984 136.61 -7.59062
-5.37462 152.281 -3.92949
-4.5826 153.231 -2.77809
-20.8803 115.964 -12.7131
-5.13607 152.545 -3.53526
-14.3188 127.02 -5.62608
-13.3016 129.788 -5.31877
-21.4403 114.724 -12.9317
-15.1597 125.402 -6.21214
-7.53175 134.734 4.71873
-13.1346 132.812 -7.11747
-13.117 132.435 -6.7693
-26.6954 101.372 -15.0491
-29.923 85.8364 -10.7111
-21.4794 96.7527 0.981876
-10.6166 123.98 5.84519
-28.0913 88.2269 -7.97642
-7.49174 135.389 4.57579
-31.8091 84.3079 -13.7776
-22.8223 111.088 -13.0882
-15.7847 124.504 -6.65972
-11.0411 122.979 5.8552
-29.6266 86.6411 -10.1736
-7.49659 136.037 4.29557
-18.7854 100.702 4.75666
-11.7111 138.377 -7.33588
-20.1647 96.9667 4.59531
-5.21896 146.179 2.12293
-17.5516 121.771 -8.31672
-31.4009 88.4817 -15.4836
-31.503 89.1155 -16.1858
-31.263 84.831 -12.2979
-5.4263 145.862 2.0689
-31.3178 88.2706 -14.9891
-21.6993 115.202 -12.8744
-13.4694 116.989 5.35701
-31.519 86.3784 -13.8616
-17.7437 106.034 3.87126
-13.7079 133.562 -7.76791
-29.3398 87.6875 -9.48092
-18.7102 120.197 -9.31222
-13.7771 131.847 -6.5469
-17.0079 108.468 3.90184
-9.26688 145.543 -6.31178
-10.5616 141.078 -5.93758
-28.0744 99.3183 -15.3006
-19.4911 119.239 -10.2223
-26.1752 104.087 -14.3965
-24.8641 107.966 -14.255
-15.2495 126.777 -5.88229
-31.2001 85.4448 -11.752
-13.5755 135.036 -8.14677
-10.5442 126.329 5.82816
-30.186 86.8832 -10.3854
-12.2398 138.24 -7.32809
-24.3985 94.9635 -2.79804
-20.6561 97.9218 3.85496
-5.26783 153.474 -2.34491
-14.2452 131.828 -6.95427
-13.053 136.635 -7.82572
-23.3432 112.086 -13.2954
-27.6449 90.1915 -6.51709
-6.08102 152.793 -3.59684
-7.82495 150.077 -5.51505
-20.53 118.217 -11.107
-18.7778 120.846 -8.94076
-21.4039 98.3214 2.27385
-5.13419 153.856 -1.94275
-26.5358 104.094 -14.3446
-31.7023 85.6749 -12.3819
-29.7723 94.5833 -14.6609
-8.35925 135.792 4.48609
-11.5858 123.813 6.09001
-14.5576 130.357 -5.91077
-6.7863 144.516 1.66912
-19.2042 102.435 4.66372
-28.4528 89.5815 -7.31489
-21.3628 117.475 -11.9995
-15.3192 128.038 -5.711
-10.6353 143.361 -6.39739
-19.028 120.932 -8.99503
-11.0801 125.923 6.08482
-16.7611 110.941 4.17604
-21.2377 98.8162 2.92646
-18.0172 107.275 4.10038
-14.9225 115.864 4.91088
-18.5386 105.75 4.13504
-20.7319 118.586 -10.9264
-10.6048 128.337 5.67514
-22.5891 98.2189 0.470308
-11.9562 123.66 6.14736
-14.9932 130.097 -5.93534
-8.5534 137.326 3.82417
-31.3663 86.6008 -11.2015
-7.69984 142.926 1.55728
-13.4717 137 -7.56656
-28.5262 100.407 -15.0369
-24.3273 111.355 -13.3935
-26.6833 93.4464 -5.05377
-28.2103 91.3844 -7.04996
-16.3199 127.159 -6.21621
-23.1726 98.1892 -0.0681722
-15.4714 129.434 -5.86402
-28.4893 101.005 -14.8441
-15.6437 131.547 -7.88845
-14.9569 116.691 5.23544
-22.2244 98.8649 1.74248
-8.81107 139.069 2.58612
-9.84273 147.378 -6.274
-10.418 130.297 5.56743
-25.169 95.6035 -2.69363
-15.3936 132.77 -8.1556
-19.044 122.375 -8.76783
-21.0531 118.98 -10.8568
-6.73049 146.357 2.06779
-14.3585 118.154 5.73284
-25.9605 107.328 -13.4021
-22.4254 117.126 -12.5529
-18.086 108.706 4.28916
-16.6006 112.78 4.69898
-12.7024 139.374 -6.51499
-19.1828 105.358 4.40651
-6.9656 146.144 1.97167
-19.03 122.818 -8.67245
-10.3855 131.162 5.54548
-6.372 153.569 -2.19672
-30.8377 94.3172 -14.5847
-12.0111 125.242 6.33118
-18.7443 123.678 -8.46631
-20.5329 119.909 -9.79492
-26.8827 94.1941 -4.93494
-22.6254 117.182 -12.5011
-15.9334 115.576 4.7454
-22.7269 99.1407 1.30115
-21.2046 99.7539 4.51641
-20.1978 102.155 5.06035
-11.7765 142.989 -6.41328
-18.6306 107.904 4.39485
-27.2655 94.1435 -5.46606
-31.1036 93.9866 -14.4682
-16.9726 112.616 4.79879
-32.1703 91.4177 -14.9548
-13.6785 121.062 6.11349
-30.0659 89.7692 -8.66267
-29.9583 98.2475 -14.8852
-9.61719 137.115 3.52131
-24.5273 112.711 -13.0613
-18.8265 124.322 -8.44155
-12.8871 139.797 -6.23146
-16.6231 128.293 -6.08479
-12.1108 126.022 6.4221
-9.30176 150.243 -5.54047
-32.8609 87.2035 -12.8355
-15.2545 134.878 -7.75122
-24.943 97.0508 -1.55823
-12.4789 125.125 6.43902
-21.3503 100.325 4.65817
-31.3329 94.7518 -14.5993
-16.5645 115.213 4.76702
-25.0659 112.126 -13.0173
-21.3596 120.047 -10.2502
-32.233 92.0335 -14.2396
-13.6757 122.664 6.22778
-22.5683 118.722 -11.8574
-6.89753 153.843 -1.64904
-8.45127 152.16 -4.01528
-31.7415 93.8352 -14.3302
-24.1621 99.2951 -0.487132
-18.5944 109.87 4.6071
-18.5739 109.953 4.60892
-25.1496 112.276 -12.8117
-27.9257 105.283 -13.9068
-32.3395 92.2097 -14.241
-16.499 133.101 -8.10132
-27.8587 95.3748 -5.93266
-9.43359 141.815 2.04471
-10.5245 136.871 3.30876
-17.4166 128.352 -6.42326
-16.5701 116.298 4.91449
-18.4272 126.73 -7.51676
-27.9828 105.496 -13.812
-9.77393 141.065 2.0116
-10.2891 139.654 1.89107
-8.46416 152.461 -3.61999
-28.9874 102.956 -14.1655
-31.1545 90.657 -9.78624
-30.1871 92.1212 -8.56975
-11.5892 146.432 -6.23274
-15.0049 136.834 -6.93235
-19.208 108.755 4.7963
-27.279 107.009 -13.0245
-33.0242 90.696 -14.0324
-25.4285 98.1239 -1.63563
-18.4382 111.379 4.76778
-29.1128 102.982 -14.1159
-31.5866 95.8608 -14.4272
-33.2434 88.4016 -12.2867
-10.4503 140.083 2.08853
-25.1859 99.2916 -1.25629
-12.3967 144.845 -5.95399
-30.5042 93.4176 -9.21748
-30.7315 92.9785 -9.41414
-13.41 142.398 -6.38556
-27.1044 108.269 -12.4805
-15.7112 119.373 6.05267
-13.3949 142.596 -6.27812
-33.3975 90.7797 -13.8038
-16.5394 117.918 5.31708
-30.6401 99.8271 -14.1795
-23.8236 118.004 -11.9855
-33.2533 89.8609 -12.6518
-17.0047 133.689 -7.81766
-15.3488 137.792 -6.91091
-22.4931 101.767 3.94634
-31.1756 98.4979 -14.1699
-13.8923 141.853 -6.55639
-14.7016 122.767 6.30443
-31.2637 93.071 -10.084
-7.58504 154.215 -0.950009
-19.3506 110.292 5.02777
-10.2725 141.627 2.4328
-32.9551 93.0338 -13.9286
-26.2592 111.352 -11.8974
-15.5169 120.889 6.31668
-28.8804 105.402 -13.4764
-26.2069 111.586 -11.8102
-11.949 133.635 5.05784
-26.1888 99.1409 -2.0191
-18.2033 130.663 -7.35595
-30.7778 100.508 -13.9309
-17.1108 134.159 -7.28906
-23.7672 119.173 -11.5074
-32.3192 95.9676 -13.8972
-13.3733 127.579 6.74031
-15.2014 122.574 6.32566
-10.5174 146.484 -0.99207
-25.2132 100.787 -0.515284
-33.0216 91.5363 -11.8469
-15.9785 137.06 -6.45366
-10.7082 145.743 -0.603085
-33.0443 91.7216 -11.9375
-8.58283 153.974 -1.81084
-19.3842 128.372 -7.68832
-10.2749 143.053 2.63857
-12.4752 147.178 -5.73652
-15.0452 140.476 -6.63977
-32.3201 93.0209 -10.9837
-33.0645 92.2273 -11.9486
-25.6053 115.495 -12.1814
-23.6866 102.365 2.54751
-19.2798 129.069 -7.52032
-23.285 102.732 3.47574
-31.6707 99.057 -13.5311
-12.4095 138.051 2.33887
-32.7159 95.2655 -12.8039
-19.6521 128.973 -7.76895
-29.4807 105.641 -13.0757
-31.6343 99.2049 -13.1885
-23.3075 121.519 -10.6154
-18.0076 132.693 -6.59768
-29.4874 96.7051 -6.06156
-23.9549 102.846 2.35086
-10.6593 148.545 -1.29068
-22.6215 104.058 4.66374
-31.5441 95.3441 -9.78446
-32.9087 94.3538 -12.1416
-17.2524 119.187 5.9076
-16.2456 138.337 -6.46031
-31.0128 95.7257 -8.64015
-26.6033 112.986 -11.4566
-24.3777 119.603 -11.2712
-28.0361 98.6124 -3.59596
-12.519 138.549 2.54899
-31.1848 101.076 -12.8344
-16.6382 121.154 6.36918
-23.8094 121.629 -10.8849
-31.3154 99.2668 -11.4216
-17.4775 119.359 5.98904
-27.7093 110.276 -11.3067
-11.0692 143.61 2.62464
-12.0976 140.242 2.87424
-18.8818 131.93 -6.74157
-32.7807 95.2241 -11.4079
-13.4191 136.482 2.8388
-28.7848 108.399 -11.9948
-31.3775 96.0988 -8.61416
-31.2289 98.2287 -9.90308
-20.4378 111.322 5.72903
-31.4468 97.309 -9.4361
-20.0672 112.689 5.83388
-19.4987 131.269 -7.07548
-19.7335 130.898 -7.31109
-21.9993 107.635 5.322
-25.8966 102.526 0.0776177
-16.1847 124.372 6.3448
-13.119 138.568 2.73793
-20.7206 111.323 5.80606
-31.4733 100.43 -11.3052
-31.3686 100.453 -11.0135
-20.9509 128.502 -7.87307
-12.7979 139.543 2.99548
-21.2341 127.863 -7.9528
-15.9846 141.866 -6.23119
-12.5986 143.995 0.286064
-18.9993 117.631 5.50601
-12.6826 145.891 -1.11686
-31.4393 97.3153 -8.13938
-15.5948 126.501 6.99776
-16.8902 139.198 -5.8617
-24.9371 104.408 2.01331
-28.452 100.155 -2.82592
-18.2988 119.888 6.07744
-21.1231 111.638 5.7967
-12.2974 151.37 -3.86575
-27.5943 113.787 -11.1555
-17.3182 122.783 6.37695
-15.3443 144.001 -5.28637
-20.6078 129.869 -6.87323
-28.6623 100.169 -3.03044
-17.8661 121.377 6.33494
-12.6554 143.518 1.95464
-12.5648 143.409 2.28484
-13.4837 144.641 -0.736326
-27.956 113.404 -11.0079
-10.5578 153.518 -0.460722
-19.6549 117.549 5.6972
-28.1043 101.444 -1.92217
-31.4156 99.2276 -8.08143
-14.8738 132.383 5.71597
-20.4868 131.593 -6.93517
-22.5878 109.293 5.43028
-15.4904 130.729 5.80237
-15.4018 145.334 -5.19502
-30.2409 107.535 -11.2386
-22.1859 127.829 -7.74392
-27.9011 102.43 -1.58077
-22.6903 126.424 -7.72302
-30.934 100.666 -7.39924
-29.4344 100.503 -3.66775
-26.1666 119.741 -10.6953
-21.8802 128.619 -7.26253
-10.9524 153.21 -0.259022
-27.889 114.778 -10.8208
-14.8007 139.112 1.50385
-27.1176 103.395 -0.121584
-28.2707 102.253 -1.91586
-16.1062 130.397 5.37809
-13.6476 143.358 1.22676
-27.9024 115.024 -10.7632
-15.2957 132.498 5.71538
-14.1094 144.39 -0.646524
-19.6649 134.738 -6.38558
-15.8691 131.351 5.28906
-31.3097 102.437 -9.06826
-27.9358 115.002 -10.7409
-20.0979 117.691 5.81845
-12.0557 152.947 -2.22457
-14.6944 138.618 2.62196
-21.6 129.545 -6.78576
-29.324 110.834 -10.6093
-30.7329 101.538 -6.76838
-15.9489 131.848 5.08219
-24.9459 106.524 3.27912
-14.4799 143.694 -0.398009
-18.4296 138.132 -5.35691
-14.2453 143.142 0.726557
-15.7484 136.301 2.4404
-23.9496 108.432 4.50916
-19.1845 120.977 6.19075
-14.9497 140.949 0.853811
-31.5637 103.082 -9.3386
-15.5784 134.052 4.84405
-27.7518 104.12 -0.888056
-12.7285 152.088 -2.15045
-18.5138 138.546 -5.35541
-31.0292 102.434 -7.12047
-17.0693 129.673 5.22263
-27.3528 104.827 0.0216221
-12.9048 148.497 0.660395
-22.1625 129.513 -6.64452
-15.1978 146.874 -3.42187
-23.8331 109.889 4.67592
-13.4581 150.507 -1.9586
-11.784 152.427 0.604574
-23.1488 111.086 5.56347
-29.8812 110.086 -9.65323
-12.834 152.368 -1.77142
-29.9756 109.848 -9.56051
-16.8704 131.664 4.78038
-24.5239 109.249 3.95572
-14.7243 148.071 -2.73031
-18.1541 125.396 6.68132
-22.5918 113.145 5.5957
-16.8432 131.958 4.74077
-14.1681 146.074 0.201471
-13.5735 147.613 0.442854
-16.3385 134.716 3.87442
-12.5358 153.244 -1.19372
-23.4834 127.109 -7.02502
-12.3485 150.414 1.4599
-30.4958 108.209 -9.0744
-30.0644 102.703 -3.77439
-16.5953 143.793 -3.42323
-17.1658 143.116 -3.84506
-19.4907 137.84 -5.19018
-26.2123 107.616 2.20066
-16.6644 137.462 1.84659
-30.6056 107.841 -8.36135
-23.8284 126.981 -7.02883
-18.6529 140.893 -5.42838
-21.2091 133.925 -6.11938
-18.6623 141.051 -5.48927
-14.7402 148.418 -1.83107
-23.4827 127.597 -6.5144
-28.3268 105.888 -1.14842
-30.2195 103.614 -3.84393
-18.8622 125.133 6.63464
-23.6149 127.789 -6.59486
-23.268 129.351 -6.93194
-21.4519 133.789 -5.96233
-29.9526 110.599 -8.18995
-12.4899 151.699 1.6028
-13.5132 151.766 -0.863517
-26.9826 121.681 -9.62003
-15.9329 140.625 2.11389
-15.1219 144.092 1.41443
-24.0571 127.636 -7.07322
-28.5595 106.382 -1.27297
-22.9277 130.638 -6.48549
-24.2794 112.015 4.69326
-17.9608 131.156 4.94912
-14.3009 147.459 1.24128
-17.1362 137.122 2.53329
-28.8529 116.839 -9.62428
-19.7899 123.647 6.78932
-15.7969 142.09 2.04085
-28.1325 107.256 -0.257083
-17.7462 132.989 4.58177
-27.6829 120.626 -9.48059
-15.5718 143.413 1.79602
-30.2184 110.934 -7.89194
-25.3768 111.306 3.335
-16.3525 146.122 -2.05168
-23.6901 129.625 -6.7131
-18.2701 141.981 -3.3674
-31.5467 105.033 -6.3646
-28.883 117.306 -9.51125
-28.4566 118.713 -9.52833
-24.6906 127.152 -6.96646
-22.8799 116.136 5.92505
-27.3313 108.768 1.0951
-27.0534 122.18 -8.58017
-23.2594 115.449 5.70412
-13.5628 152.704 -0.00195652
-18.8995 141.035 -3.66798
-25.1317 126.581 -7.22196
-25.5597 124.638 -6.67657
-13.2765 151.739 1.61649
-17.0631 139.301 2.27807
-20.3771 138.647 -5.07139
-31.3772 105.856 -5.66583
-15.9125 147.197 -0.825721
-31.0658 108.165 -6.62622
-28.5289 108.437 -0.651108
-25.8654 124.515 -6.65006
-24.4098 129.213 -6.74826
-31.2835 107.756 -6.44884
-30.5522 112.498 -8.31526
-28.0359 109.276 0.255521
-31.6609 106.592 -6.26238
-22.352 118.976 6.33795
-30.8012 107.051 -4.37665
-29.6736 116.249 -8.77516
-31.4452 107.689 -6.25349
-13.6325 151.134 2.54679
-27.1412 123.271 -8.01833
-18.3698 136.553 2.60149
-15.6191 148.756 -0.222615
-21.0869 137.964 -4.87065
-24.6176 114.199 5.18481
-27.4142 122.665 -7.93719
-24.2701 130.349 -6.36466
-31.0743 110.669 -7.17428
-28.6527 113.586 -3.55575
-15.5297 149.425 -0.00531275
-28.2077 110.024 0.289572
-26.189 124.941 -6.41591
-31.0367 111.016 -7.14282
-24.0216 130.88 -5.78914
-30.8154 108.171 -4.39007
-23.0929 133.498 -5.58697
-30.5075 110.994 -5.82497
-17.3486 145.8 -1.38525
-20.9833 138.583 -4.43623
-29.5301 117.833 -8.71442
-31.2263 108.12 -5.20138
-23.9803 130.923 -5.56255
-22.6129 134.85 -5.30819
-22.2238 120.586 6.66494
-22.5992 135.598 -5.79383
-30.6153 110.61 -5.5077
-28.451 114.244 -3.0747
-28.4279 112.358 -1.46844
-23.3301 132.207 -4.6657
-30.4189 109.135 -3.67022
-24.1275 131.032 -5.57977
-22.6219 134.884 -4.95874
-20.0177 130.329 4.82134
-24.8 115.367 5.03569
-26.171 114.788 2.24571
-22.7818 135.364 -5.55814
-30.5204 112.655 -6.40096
-29.9124 111.606 -4.07467
-23.4503 132.305 -4.69803
-27.7576 112.693 0.218008
-15.1615 151.183 0.470253
-17.4774 141.281 2.64136
-29.209 110.892 -1.75233
-28.8796 111.471 -1.41563
-16.9472 147.326 -0.628956
-27.518 115.696 -1.32627
-31.0312 112.118 -6.81722
-24.4061 116.757 5.35396
-21.4513 123.871 6.89165
-24.5274 130.907 -5.83594
-14.954 151.766 0.826379
-30.8957 113.978 -7.87712
-18.5319 137.591 3.30768
-30.137 113.67 -5.77044
-31.1044 112.301 -6.97161
-27.2805 116.473 -1.08436
-30.372 115.996 -7.8722
-27.5757 114.492 -0.00563115
-22.4943 121.503 6.66807
-22.0485 122.524 6.98419
-24.5807 130.512 -5.20498
-27.5857 114.239 0.251341
-28.9952 114.652 -3.33206
-21.5705 128.687 3.55352
-15.1559 148.853 3.32789
-18.334 139.086 3.33669
-20.7531 130.936 3.91843
-30.7604 115.166 -7.66723
-30.2234 117.09 -7.64862
-24.7973 117.392 5.07245
-21.4469 128.407 4.55314
-23.1031 120.905 6.45904
-23.2567 136.449 -5.87808
-21.7382 125.854 5.95227
-26.4984 117.109 1.43446
-24.3673 132.818 -5.63273
-20.2989 133.324 3.6652
-21.7843 126.764 5.27932
-26.693 116.775 1.3323
-25.4372 117.774 3.5537
-20.7308 131.807 3.9503
-28.4282 122.518 -7.15411
-28.3322 122.695 -7.03049
-22.4071 123.299 6.60567
-22.0461 127.53 4.22093
-27.3269 117.997 -0.944123
-20.2533 134.09 3.45707
-26.2145 118.72 1.17132
-30.676 116.064 -7.38187
-17.0366 144.916 2.81177
-17.4639 147.745 -0.200827
-21.9891 125.127 6.62488
-25.2364 117.897 4.53363
-30.6853 116.337 -7.19167
-16.0835 150.797 0.918545
-20.6284 133.261 3.67728
-28.6954 121.148 -6.13463
-15.8108 148.003 3.8211
-24.7593 131.568 -4.74717
-30.9483 115.627 -7.1275
-26.5585 127.31 -5.5636
-30.2692 118.152 -7.28558
-30.1098 118.845 -7.40029
-18.3695 146.785 -1.02545
-26.2933 128.233 -5.44621
-23.7946 121.193 5.96458
-28.6314 121.684 -5.85666
-28.6581 117.026 -2.30951
-18.4291 146.841 -0.968999
-27.2844 126.685 -6.38807
-28.9012 116.777 -2.51132
-20.5638 142.676 -2.67242
-17.5924 144.294 3.30876
-15.982 147.958 4.31052
-24.6153 135.322 -6.44467
-29.0868 120.917 -5.91173
-28.7948 117.38 -2.41412
-29.5587 115.956 -3.08854
-17.7046 148.211 0.177864
-24.8486 119.848 5.17977
-19.2898 145.265 -1.23172
-25.9619 129.59 -4.86961
-24.1852 121.666 5.58509
-25.1433 133.961 -6.18395
-25.982 129.275 -4.49389
-22.8626 124.904 6.3931
-22.9418 127.303 4.36362
-27.0044 125.243 -3.64583
-28.6768 122.226 -5.05795
-22.5721 139.473 -3.84503
-28.6906 118.426 -2.09552
-17.7941 144.456 3.70379
-24.3221 122.543 5.25049
-31.038 116.432 -5.958
-29.7991 120.324 -6.01625
-23.7879 138.56 -5.7554
-26.289 119.972 2.74318
-25.2261 120.671 4.74944
-18.6499 140.976 4.75244
-27.3202 125.24 -3.70208
-27.3658 125.241 -3.78189
-23.1698 130.287 2.35991
-24.9451 121.011 5.42657
-26.4774 129.064 -4.305
-16.4239 151.138 2.56663
-20.7032 136.454 3.77464
-27.4913 125.517 -3.62236
-30.8741 117.649 -5.57122
-26.8607 129.815 -5.42156
-22.9086 139.668 -3.63185
-19.1722 140.438 4.75778
-26.1187 132.127 -5.19015
-24.0717 124.668 5.45666
-30.3594 117.421 -3.83487
-18.1417 144.422 4.361
-23.6721 128.102 3.86007
-17.0982 150.776 2.02978
-18.7265 148.278 0.14996
-26.7618 130.928 -5.36821
-21.0399 143.619 -1.56761
-19.7589 146.53 -0.767542
-20.1169 138.486 4.64941
-16.8049 150.925 2.93297
-22.3433 141.661 -3.07662
-23.8505 128.684 3.42379
-30.0068 118.72 -3.34646
-26.6907 130.767 -4.64943
-27.2809 129.255 -4.68189
-18.683 143.138 5.10843
-27.2625 129.942 -4.95767
-17.1557 150.076 3.53129
-24.9766 136.808 -4.80438
-24.6956 125.296 4.84867
-18.5473 143.905 5.09162
-27.2797 130.083 -4.92771
-24.1998 128.576 3.59711
-25.4988 123.46 4.55033
-29.0479 119.932 -1.07705
-30.3184 120.632 -4.60731
-24.1141 139.721 -4.48529
-27.5754 129.432 -4.76639
-26.696 132.893 -5.33457
-25.0999 125.519 4.20267
-29.8501 122.013 -4.36051
-30.5828 119.042 -3.77694
-19.2005 148.715 0.456739
-26.1454 122.094 4.52498
-24.7875 138.558 -4.73426
-28.0355 121.797 0.601553
-20.6668 146.114 -0.624058
-30.0906 120.015 -2.68797
-18.6528 144.852 5.36382
-30.0005 122.308 -3.93962
-27.8458 122.104 1.70875
-29.6302 120.594 -1.35355
-27.0088 122.373 3.52158
-30.2666 120.383 -2.65192
-27.2733 129.68 -2.70458
-28.0631 129.766 -4.58391
-24.2386 140.783 -3.89942
-18.7592 150.061 2.04534
-27.2062 122.501 3.27954
-26.4597 124.263 3.8823
-19.7001 143.254 5.344
-29.2822 125.295 -3.44016
-28.128 130.028 -4.3031
-28.0761 129.985 -4.14127
-30.5947 121.006 -3.18465
-18.3992 148.273 4.95353
-29.8575 121.983 -1.922
-20.5499 148.061 0.249136
-30.0478 123.872 -3.62929
-28.6432 129.701 -4.63391
-27.7593 123.355 2.48639
-29.5047 125.699 -3.44151
-19.3845 145.038 5.7289
-25.8312 137.74 -3.9586
-19.7488 144.191 5.59039
-23.9047 141.613 -2.25043
-28.6194 127.554 -2.52306
-27.7671 124.423 1.92747
-29.8797 124.871 -3.22789
-22.2732 137.967 4.88411
-26.3728 128.661 2.35593
-21.2811 147.476 0.0148282
-29.4071 123.848 -1.04609
-20.1942 143.864 5.59909
-19.5558 149.728 2.74123
-21.457 140.969 5.05132
-19.124 148.573 4.72855
-24.381 133.784 3.67748
-19.3347 147.392 5.16831
-28.3786 130.773 -3.48145
-30.0123 124.316 -2.32244
-26.7749 128.488 2.26154
-20.2478 144.247 5.6727
-19.861 145.522 5.67693
-28.0727 130.638 -2.33085
-26.2634 129.896 2.57378
-29.4906 128.999 -4.291
-25.5557 140.505 -3.74966
-24.0407 142.145 -1.24518
-29.087 130.426 -4.1897
-24.5826 134.262 3.56831
-20.3577 149.17 2.10425
-28.3057 130.192 -2.02986
-26.7061 129.475 2.33413
-27.4277 128.363 1.5794
-20.3497 145.043 5.62372
-29.9227 128.503 -4.33215
-24.0526 136.205 3.89784
-24.2786 135.75 3.80187
-21.6916 141.715 5.41683
-29.0628 125.774 0.331125
-21.5311 142.221 5.53547
-27.0017 137.387 -3.71758
-21.3686 142.667 5.60843
-25.3624 132.825 3.72508
-25.5798 132.099 3.87891
-30.0505 125.733 -1.64779
-20.1329 148.633 4.31466
-22.5666 146.603 0.112037
-20.7006 149.157 2.70317
-27.1363 137.404 -3.48192
-29.5597 130.563 -3.93154
-23.6648 144.253 -0.472306
-29.3045 129.509 -2.45122
-30.1822 128.32 -3.51359
-28.8426 126.701 1.03356
-29.0381 134.527 -5.40999
-28.059 136.402 -4.36181
-29.2093 126.33 0.755072
-20.7472 148.762 3.64338
-31.4824 126.14 -4.3495
-27.1874 130.245 2.82583
-27.3928 129.679 2.7912
-28.0402 129.256 1.60344
-21.1327 145.569 5.48371
-24.2576 143.821 -0.527708
-22.3617 147.578 1.10074
-20.8193 147.384 4.97725
-27.1719 137.925 -2.8122
-30.6271 127.145 -2.63477
-29.3805 133.321 -4.35003
-28.0209 129.404 2.03981
-29.2169 129.64 -0.957697
-30.1738 127.024 -1.09448
-21.1639 148.254 3.97236
-31.0223 127.189 -3.19153
-25.1294 142.468 -0.927461
-24.8189 137.311 3.87428
-30.37 127.132 -1.45973
-27.1323 138.317 -2.39733
-29.172 129.924 -0.728295
-24.3073 144.35 -0.0773103
-21.1694 147.952 4.6365
-28.7192 136.172 -4.20494
-30.3143 126.672 -0.603679
-30.9804 127.848 -3.09597
-30.8687 128.601 -3.27554
-23.508 140.315 5.3186
-29.6826 133.44 -4.02014
-30.6011 126.264 -0.593566
-26.7116 132.209 4.10159
-30.7501 126.652 -1.20009
-30.8862 126.246 -1.13508
-27.576 130.719 3.28685
-29.1018 128.196 1.80225
-21.812 147.129 4.7994
-27.3751 139.097 -2.16994
-22.8049 147.696 2.44382
-27.421 139.331 -1.9894
-29.0768 128.878 2.15489
-29.7772 135.6 -4.65752
-27.9459 138.059 -2.12886
-31.49 127.116 -2.00403
-22.8106 144.811 4.97909
-24.8031 144.52 0.542431
-28.9259 136.523 -3.04726
-22.5486 145.915 4.89756
-32.639 125.296 -3.15309
-27.3569 140.559 -2.37898
-24.6502 139.926 4.65035
-25.7307 137.819 3.80148
-28.6454 130.194 2.8392
-30.85 128.739 -1.18957
-22.4928 147.057 4.611
-30.2514 135.516 -4.1381
-30.463 129.396 0.191309
-27.6248 139.797 -1.08071
-27.1672 133.927 4.65121
-28.7117 131.007 3.46064
-30.6274 135.177 -4.29163
-27.2508 134.105 4.77125
-24.1202 142.884 5.44821
-29.0392 137.661 -1.97622
-28.2071 132.153 4.34347
-30.7706 135.241 -3.94786
-32.253 127.209 -1.18702
-24.4165 146.644 2.55126
-28.0858 132.594 4.69579
-34.0345 125.333 -3.6844
-26.916 142.784 -0.152173
-32.16 127.394 -0.251732
-33.6446 126.028 -2.57811
-31.84 130.577 -1.5957
-26.8425 139.369 3.73269
-31.1752 128.846 1.60704
-27.0912 138.968 3.63124
-31.2662 130.49 0.33914
-24.5556 145.83 4.47491
-31.8296 128.353 0.687939
-28.8222 132.541 4.65633
-29.6284 132.002 4.33997
-27.7313 143.328 0.45508
-28.4675 136.197 4.47267
-30.1864 131.56 4.05215
-35.2328 125.417 -3.18982
-30.5443 131.154 3.77119
-27.8607 143.479 0.727425
-26.0183 145.293 3.73833
-28.4577 141.497 1.05775
-31.835 129.761 2.43432
-30.8817 137.67 -1.29138
-31.2394 137.106 -1.65435
-32.7895 130.072 0.207637
-29.1086 136.354 4.25224
-28.0304 143.802 1.48271
-32.8592 128.984 1.66736
-35.7987 125.787 -2.8077
-31.1249 131.572 3.85843
-34.9793 127.317 -1.63572
-33.0607 134.879 -2.79496
-29.8539 140.527 0.591226
-27.3831 143.45 4.42961
-30.1969 140.198 0.539941
-33.3279 134.799 -2.71494
-33.5319 133.226 -1.75027
-33.6058 133.899 -2.3763
-30.1242 140.766 0.752034
-28.2949 144.17 2.50542
-35.489 127.45 -0.967953
-32.4699 137.193 -1.19063
-28.7635 141.977 3.99581
-35.7215 127.016 -0.685946
-35.5874 128.53 -1.03316
-33.8247 130.091 2.02188
-30.8008 137.847 3.46693
-34.8863 129.719 0.293272
-29.2523 142.586 3.83085
-29.1444 143.603 3.56438
-33.3607 131.345 3.20051
-34.6355 132.589 -0.684414
-29.3327 143.495 3.52749
-31.0045 139.112 2.95217
-35.9802 128.504 -0.660046
-31.0397 139.25 2.90535
-36.0312 129.012 -0.649501
-30.2765 142.599 3.26007
-32.8254 133.203 4.48637
-32.0929 140.552 0.766232
-31.8301 137.798 3.54282
-32.1614 140.446 0.731613
-36.4928 128.317 0.127706
-32.4212 140.54 0.80875
-35.2708 131.84 0.901083
-36.1669 130.639 0.0558857
-31.614 142.142 2.34989
-36.782 128.875 0.536272
-36.6859 129.945 0.0703018
-32.8085 138.301 3.49402
-36.0275 134.969 -1.27593
-36.0516 132.771 0.367588
-37.0739 129.951 0.494185
-35.8266 131.506 2.41205
-32.9376 139.303 3.2745
-35.0194 132.736 3.39925
-35.1986 132.556 3.22962
-33.5937 139.987 1.87535
-33.6828 139.95 1.76273
-34.0096 135.618 4.52986
-37.3158 131.339 0.0613752
-33.894 136.211 4.55025
-37.4854 129.446 1.53021
-36.6797 132.689 1.20641
-35.4817 137.432 0.417737
-35.8391 132.688 3.5333
-36.4314 132.052 2.61911
-34.5932 139.42 1.30619
-35.1972 138.253 0.884151
-36.2685 132.341 3.00793
-35.0867 138.613 1.08441
-37.867 130.66 0.906143
-36.5205 132.355 2.87657
-34.2722 137.981 3.97605
-35.9984 132.983 3.91745
-35.5643 138.537 1.10506
-38.205 131.764 0.449837
-36.9156 137.178 0.400178
-36.9235 133.1 4.19329
-36.4935 136.442 3.28703
-38.8393 132.346 0.883123
-38.2688 132.488 2.74192
-38.7986 132.319 1.8269
-37.1816 137.057 2.11718
-38.2788 133.402 3.53122
-38.1346 133.55 4.15769
-39.2185 134.213 2.10494
-38.6041 133.638 4.16931
-39.5481 133.783 2.56076
-39.3914 133.778 3.34719
-40.2738 133.502 1.6531
-39.8078 134.751 2.06078
-39.3071 133.778 4.21931
-39.9505 135.211 2.88794
-39.7964 135.296 3.25863
-40.3209 135.078 3.49951
-40.7878 135.569 2.63236
-41.0583 135.179 3.01463
