ply
format ascii 1.0
comment Created by Open3D
element vertex 1959
property double x
property double y
property double z
end_header
17.0038 104.972 0.646046
-9.1686 81.1857 -0.824289
-9.13178 130.012 9.0739
-16.4344 93.7324 -0.828851
18.3467 116.286 5.71779
-12.1767 106.471 6.15649
0.317648 136.062 5.84538
23.0062 121.203 3.09507
4.53564 90.9164 -0.317481
6.91335 131.471 8.15295
-9.50923 97.0303 -5.91773
9.35213 95.638 10.258
6.01061 127.716 1.24795
10.0769 93.2444 1.11903
14.0438 101.715 12.3065
12.6088 90.198 11.1608
-9.72328 101.256 -5.42196
15.7512 85.8055 10.2507
-10.7796 89.6191 6.41498
-10.8195 93.6478 -5.66839
0.194634 92.784 10.7725
20.7095 114.869 3.4033
12.0939 134.329 5.73146
18.5178 89.9355 15.2866
-11.5898 118.253 9.73782
-7.91473 111.948 -5.21268
8.316 87.1832 9.77295
19.2197 116.957 15.3049
-7.39849 141.219 7.24152
4.58329 115.982 11.3505
-14.9148 119.278 0.131493
1.89833 138.975 4.60617
-12.4531 81.6257 -2.80963
9.49182 95.262 0.915238
8.15957 94.6855 -0.465132
19.5723 103.104 17.8395
-13.0597 136.234 11.4767
28.0842 81.2433 17.8645
-4.7055 78.4507 -1.37366
13.981 101.807 6.77487
-1.72042 133.535 5.85799
-11.7121 117.902 -4.90208
-2.07839 133.132 5.81458
-12.9809 120.912 9.83662
17.9862 94.2482 14.4891
27.0309 98.9844 15.3655
21.525 125.156 1.83431
0.803831 109.735 11.2502
1.19049 82.0883 3.11275
8.80449 107.217 10.2
7.61569 120.431 9.68081
-4.2763 99.0032 -4.93489
-12.0006 123.037 11.2864
-12.0943 110.257 6.64516
-13.2071 125.185 1.11079
-14.4549 123.459 2.12121
-10.8439 84.2271 5.2637
-12.3573 119.886 9.54066
7.46444 109.952 10.7341
-0.521958 96.1312 -1.18936
-2.53008 110.717 -2.99965
-7.71905 96.6189 9.86392
11.4911 96.5043 7.36485
-13.8251 96.924 -3.90938
25.1292 127.968 4.57231
19.6672 127.72 4.11266
-10.333 124.372 10.1889
9.78692 85.4997 2.60131
16.2821 134.78 3.31801
5.54596 102.93 10.9018
26.4785 100.518 15.4343
4.71695 85.5726 8.79458
1.14124 84.28 2.57362
0.442727 115.463 -3.15534
7.4512 86.8016 10.2321
13.7698 114.688 -0.778691
22.3108 112.3 3.67396
16.6807 131.492 2.5127
7.89937 108.757 10.7548
6.63989 94.2528 11.2542
-13.2564 144.519 6.79984
-14.471 95.6209 3.79773
-4.22253 91.7407 8.65135
-14.9927 116.973 9.40797
-16.3464 128.946 0.493238
12.2457 113.844 1.45084
9.50196 106.312 9.86862
18.2683 108.614 13.8375
-2.54011 119.199 11.7225
-20.0637 124.953 4.67075
-18.1428 131.232 8.3362
20.4077 117.519 4.4092
19.6011 109.853 16.7182
20.1538 100.255 4.57769
25.7713 94.9678 11.4603
0.645494 121.339 -1.32553
11.2897 121.871 -1.11732
25.9157 110.918 12.1057
-14.024 122.862 2.95663
22.3405 120.852 9.35363
15.9322 98.7578 15.5758
-5.48068 102.645 12.3071
-12.0373 101.358 7.32584
-13.5961 128.187 0.172967
2.79072 86.3654 9.01892
-15.607 112.437 4.66277
-12.8311 103.269 6.38547
-1.48216 92.7144 -0.197457
-3.6217 133.394 5.90105
-13.5239 121.406 11.4501
19.9269 119.071 14.5895
-12.3958 82.5138 4.13567
25.6515 104.758 15.324
-7.67344 82.3947 -0.0241987
-14.4103 116.961 9.95556
-10.0169 111.295 7.4108
-11.8918 132.704 10.1704
2.92947 107.682 11.0386
-13.5434 86.8679 -0.981742
19.0974 129.753 2.40889
-12.6193 123.797 9.96768
6.24405 111.124 -1.28948
17.4841 125.714 9.04329
5.11438 133.134 6.89971
27.5953 101.912 12.3666
-18.2929 118.062 5.68504
-4.55075 106.458 13.0665
-6.39363 117.266 -4.51485
-12.6063 137.899 11.042
18.4905 85.6241 16.8901
14.1026 125.068 2.99283
-13.154 123.774 8.84857
15.4278 133.109 7.35484
18.2303 116.773 3.29618
10.3577 133.679 7.03064
-4.69813 121.085 12.8603
14.5882 109.031 1.54965
-7.15235 111.635 11.5148
21.0616 123.439 12.1546
22.2055 111.958 3.79444
16.9396 99.489 8.81322
8.82181 105.419 10.0608
15.7739 91.5949 6.09386
2.32021 92.3028 12.1614
-4.19434 82.3313 3.17651
5.53964 90.692 12.1406
-14.9414 121.247 7.22391
-6.30956 96.1194 10.0171
25.4899 99.2721 17.1455
8.90998 105.663 -1.56943
-16.5452 91.6293 0.689031
13.4627 128.19 2.82789
21.4686 112.979 15.674
-6.1012 136.357 7.43212
0.803198 118.886 -2.15222
23.3943 122.569 -0.0480855
-15.3537 119.367 0.300586
14.0084 113.73 4.9706
12.08 87.3508 7.48853
-14.1059 101.851 4.41958
8.2422 121.775 9.61819
-12.8944 144.128 5.68454
2.79075 117.579 -2.05708
28.9573 83.1912 17.1749
-13.4839 122.921 2.40911
-5.74984 140.539 5.84992
10.708 99.8954 -0.248607
17.6427 119.187 1.20914
14.1032 91.4175 9.09339
-6.79305 81.7805 -0.0854539
-11.0669 121.293 9.27971
11.7496 120.548 7.45591
-3.07187 84.7957 6.94646
18.4264 117.169 1.25392
3.68157 82.026 0.890498
23.111 116.841 13.4202
22.3864 117.212 13.9247
-14.1621 136.704 1.4957
-8.78067 86.9209 -4.62529
20.4876 115.211 15.5333
-4.33776 104.587 13.056
19.1016 83.8891 15.231
-5.28898 81.5601 2.12106
-15.0175 119.637 6.48306
17.7717 127.221 2.25307
-0.768441 111.712 12.0716
20.2928 125.887 3.88808
19.2313 92.7172 7.14252
19.6056 129.192 3.89267
9.20611 96.294 0.511956
-15.8147 84.6282 1.28343
-15.0486 82.1322 -0.944199
-9.73989 126.661 9.95281
19.9513 123.258 1.09857
-14.2102 118.232 -3.53638
15.584 86.1313 9.98358
15.2484 111.666 5.12047
-16.2803 90.1595 -0.33172
18.3818 129.204 1.87401
10.9062 117.901 9.22613
11.7674 107.219 9.39647
16.7208 128.731 10.3535
-5.59567 123.468 -3.33805
-5.7876 129.146 8.04946
23.6713 113.147 14.0558
24.5914 96.2739 18.2656
5.67495 111.316 -2.2832
5.661 88.7048 11.2058
26.8393 103.444 14.1071
26.5602 81.5074 17.4764
4.59666 119.407 10.6508
-5.04405 116.401 -3.17207
-5.98732 119.719 -3.69828
14.2977 92.2609 4.87707
7.54523 94.4266 -1.20173
7.5724 110.921 -0.0512743
3.84441 100.991 -2.03529
23.2224 126.71 4.73211
14.272 83.1687 4.95795
-11.6274 108.194 5.40896
3.32802 104.337 10.9729
-15.518 107.332 3.22958
23.4841 106.931 5.57353
-12.2142 80.9167 2.97185
-8.15765 110.121 11.0734
21.4399 104.441 17.7683
-9.84541 109.489 7.91229
17.608 122.298 4.46616
18.7339 89.3311 16.1747
15.825 94.9682 12.663
20.7857 102.869 18.2892
-10.787 145.499 7.56746
20.6664 104.093 18.158
-4.31699 113.012 -2.87726
-3.45795 84.1709 1.65181
19.5761 79.627 11.2642
11.141 108.728 0.818805
3.0072 130.519 7.33658
16.784 134.961 6.94293
15.1138 102.694 11.3129
-8.38272 79.4215 1.99729
26.2893 96.5021 17.163
-2.12497 101.143 13.2721
-2.39199 92.2364 -1.52002
21.4521 129.503 5.65543
14.1491 100.502 10.8162
-14.132 121.298 5.39202
14.8087 86.0597 10.2485
19.3928 85.3692 17.2071
-14.2951 120.554 4.01547
-14.9262 120.885 -0.334862
12.73 83.6869 3.22521
-3.11909 126.639 9.49553
-14.2825 116.141 7.10374
-2.27633 140.995 4.36784
-8.86988 108.468 10.3932
-13.7315 119.806 -3.62345
-1.39464 128.405 -0.00212711
26.2895 111.806 9.90467
-6.05232 94.7455 9.52162
-7.66017 80.5586 -2.49827
15.2107 93.9354 8.91449
18.6859 129.329 8.51917
11.9095 93.3648 10.3035
-3.12546 98.1072 12.3039
0.271404 100.594 -4.71747
13.6191 103.469 6.28886
25.1666 81.7017 14.0066
18.0262 85.5709 16.0041
-5.61532 122.792 11.1091
-18.5607 121.71 11.2297
-14.2731 119.816 1.41897
0.801595 120.839 -1.72126
19.1198 121.776 13.8714
-1.63956 85.9365 7.86172
25.568 105.367 8.90593
20.6295 121.23 13.6749
25.3888 91.9431 12.2059
4.502 81.8079 2.68915
18.7465 121.193 0.842259
-5.82774 78.4719 0.82815
18.9872 116.764 7.77723
1.73843 87.7076 8.9976
12.2266 115.479 6.76945
5.38714 127.167 7.8264
19.9846 121.488 13.7519
-18.4464 131.862 4.60091
16.0954 99.1361 6.68066
12.856 89.9427 9.75554
11.7483 107.149 9.4344
18.5853 119.706 6.38651
6.04654 112.178 10.6294
-1.04914 92.9786 9.77976
-6.72965 97.8316 10.7798
12.3922 116.551 5.99498
-15.5499 123.45 1.57124
-1.4225 97.4357 -3.60951
-2.57669 111.992 12.2471
-12.5643 131.046 -0.0901779
-19.5108 124.188 9.78235
-0.591312 118.074 11.4584
-8.2946 81.8239 -0.487686
11.6747 117.687 -0.556119
-7.89255 76.9576 -2.66024
7.39985 100.023 -2.38184
-14.5836 118.478 1.83802
17.5347 88.6448 14.1386
-4.08337 90.456 -2.70713
24.3161 115.86 12.6169
12.2516 115.632 0.116638
6.6654 120.065 1.19579
17.3039 96.9228 15.7207
18.3958 103.658 7.58628
22.2646 101.665 18.1664
16.7093 96.3385 14.2758
17.2022 123.939 10.0821
-15.4682 123.478 1.41997
4.29443 93.0301 13.0587
8.13866 84.6471 2.50849
-3.71489 112.696 -2.37826
14.3804 86.1394 9.85115
-9.52793 135.227 10.5777
1.77261 87.6202 8.96727
7.80266 115.243 1.24495
25.78 88.1921 18.5515
23.5995 92.8343 9.76709
-9.54686 108.949 8.54772
18.4017 91.894 6.81508
-13.833 121.768 -1.43197
12.368 94.4019 2.96478
-14.8333 121.672 -1.0407
-10.2766 113.353 7.71853
-6.21413 102.139 11.871
12.3189 129.31 6.02271
25.7577 126.553 0.67344
24.9663 93.0522 11.0477
20.1713 126.672 9.28423
-16.1438 138.47 7.95221
-17.5854 134.262 6.65181
-2.91591 85.0093 1.18637
4.08239 95.3879 12.6065
18.7966 109.17 7.54816
15.7719 129.873 9.13241
16.1308 139.406 5.56626
-12.3434 126.165 11.2662
-14.8641 121.408 11.62
20.1035 94.756 17.8033
18.3707 96.2643 17.025
18.3334 118.754 14.4606
22.9695 80.5236 12.4315
-16.447 109.297 -1.35914
18.1828 96.6792 16.9879
-9.5566 101.772 -5.25308
-7.96814 134.945 9.72881
-19.7932 119.251 8.85559
6.52692 112.006 -0.481126
-18.8185 126.143 9.60899
18.6494 83.0962 13.8513
17.8574 128.095 2.6171
-2.7253 82.1417 1.15464
22.2705 120.822 9.20933
20.6429 94.2309 18.2007
18.0647 120.141 10.2445
4.6988 129.146 1.0181
13.273 99.6086 6.4917
2.91109 101.46 -2.93848
20.9015 101.501 18.3787
-7.4587 77.3282 -2.31265
26.186 111.567 9.66799
18.6334 107.715 7.20734
-8.13758 113.279 10.3317
-8.41256 79.6416 2.13099
16.1571 138.531 4.89142
19.0459 111.659 8.18666
-6.84818 138.247 7.46653
23.2821 82.6517 11.989
-10.7199 111.855 7.22497
16.8067 125.805 9.82023
15.0518 115.164 4.5247
13.3333 82.9821 4.49563
-12.9472 115.031 7.82838
-6.66262 144.205 5.47367
-2.04981 111.386 -2.87991
12.5237 93.4251 7.63618
3.78523 135.877 5.86929
19.6969 97.4419 17.5406
-7.5978 139.736 8.42341
-18.4184 129.679 5.14243
8.6703 113.368 10.8714
0.444712 120.452 10.971
-8.42825 111.275 10.4814
-0.843688 119.206 11.1756
6.65038 115.278 0.609196
15.7595 94.5141 12.4378
21.1006 118.255 3.43367
-15.814 119.835 0.255609
4.66969 107.373 10.9111
16.7117 120.83 -2.02717
16.9041 129.768 3.31081
-13.4203 126.593 -1.50616
16.3504 128.953 10.5677
15.1258 84.9806 13.7706
-13.6119 137.786 11.0102
17.8095 84.7267 14.3535
19.0714 130.414 1.69473
-13.5077 119.677 8.21784
2.29948 94.8724 -0.175769
-11.3462 120.846 8.93746
-5.97714 136.033 7.49183
22.118 101.284 18.4522
-14.6143 117.462 4.39881
18.4229 95.7652 16.7286
16.1238 90.0213 10.2283
7.29987 137.169 5.59403
-6.19037 142.887 5.49623
14.9532 100.993 0.233997
22.535 117.346 6.17225
-15.5065 83.8383 -0.192232
22.9391 121.947 3.06478
14.9162 86.4859 8.5143
11.3906 86.3322 3.60149
12.578 98.1749 7.1758
11.9425 136.836 4.63622
-16.1701 92.3274 1.23941
13.0365 88.0495 5.02682
0.383104 110.435 11.457
18.0357 118.164 2.38896
-11.6249 123.198 11.2416
26.2528 129.397 3.06039
-13.84 120.451 6.71966
3.59725 118.398 11.3818
16.0587 134.394 7.96502
20.1325 97.1873 18.0337
29.4262 82.7485 16.2046
13.1508 83.275 4.23465
-12.3725 125.326 11.0644
28.5106 91.5505 14.9352
21.0452 110.858 2.01496
-0.930744 97.5864 -3.46619
2.41404 102.907 -4.49039
6.18816 111.192 10.6132
-7.6913 124.15 9.01751
14.0196 91.7699 7.25025
13.7054 98.2703 3.10224
7.03813 132.877 7.73393
-1.62409 94.2799 -1.45002
-14.9484 81.7213 -0.373055
3.38119 94.1218 13.1165
13.8552 91.3788 4.46678
10.5591 91.7368 8.05836
10.3168 126.394 8.45774
13.1127 123.174 4.21314
-9.31653 146.093 6.96107
21.8352 128.319 5.07869
26.7961 107.976 11.4795
13.674 132.571 3.9219
11.0128 91.0189 10.3159
7.58064 131.217 8.31649
-14.334 129.703 9.70393
-6.83958 129.998 9.16673
-0.804767 93.6528 10.5325
-17.9716 118.992 5.46666
-10.4103 89.3767 -4.87649
-4.80547 113.254 -3.30974
-7.99285 143.366 8.46396
19.3293 101.719 3.31862
22.9466 132.191 3.33656
-2.30842 117.818 11.4707
0.919994 91.1867 -0.244316
-17.4111 125.714 3.41277
19.6445 129.396 3.43677
-1.2517 119.793 -0.947737
-10.6487 97.0918 -5.94779
14.6541 118.298 3.86003
9.1777 94.2953 9.65207
18.1619 139.863 5.64386
1.7672 82.573 4.66539
-7.68621 122.654 11.2503
1.44795 83.085 2.24922
14.3207 85.5994 6.40316
-8.9507 140.747 9.71152
13.4633 116.703 4.53549
22.4696 123.457 6.59995
-14.5074 124.251 -2.28622
-8.3114 139.841 9.44148
18.8066 91.2664 15.5053
24.9438 113.694 12.4853
-13.3329 94.2997 -3.6838
25.841 110.849 8.94754
17.3476 128.438 1.78577
17.7642 133.812 6.77837
0.314764 104.432 12.1013
-15.5722 84.3503 2.44644
-9.97737 83.9872 -4.00148
12.6739 112.743 5.91523
13.4339 94.2692 7.82504
-16.7187 109.68 0.558431
16.1883 100.242 14.6507
2.75907 89.1322 10.3026
19.3952 110.274 9.66603
7.17471 111.292 -0.222044
-8.1625 91.89 7.8713
5.42801 108.106 -3.7807
8.76523 113.43 1.13427
15.627 111.366 5.11097
12.1826 119.435 5.58871
20.7105 124.354 2.83345
17.5079 99.4661 15.8185
7.94037 96.8424 -1.42863
-16.5029 109.177 -0.802265
22.7089 124.559 4.103
15.578 112.43 -0.520927
0.163741 83.715 6.16896
-9.01426 108.23 -5.52662
23.1097 85.3331 12.6391
20.0489 88.806 8.89639
-4.45818 117.326 -2.35701
20.6252 104.031 1.98694
9.31339 81.0879 4.29439
-1.73091 109.612 12.6696
19.6617 129.296 3.45587
18.5192 117.417 6.03959
-11.7727 79.268 0.899905
10.1109 135.768 5.42685
18.3293 129.251 1.43965
0.888442 83.4054 2.5484
10.9079 107.651 0.438359
-16.6351 122.476 6.27896
-3.97368 125.777 -1.17359
-13.3375 126.567 -2.29286
22.9446 117.829 7.05632
17.7179 114.232 13.1845
24.5626 102.113 7.80075
9.0601 110.363 10.6216
-6.5285 143.509 5.65431
1.49522 81.6543 -0.565598
-14.0066 126.515 1.9467
-13.3588 132.361 1.81563
-15.3477 120.3 7.14935
27.112 93.4598 12.5477
-10.8138 105.954 8.62005
19.4686 130.963 7.26685
-16.8165 110.007 1.23362
5.91197 91.1491 12.2144
-4.18612 97.7518 11.7663
-19.5573 125.888 6.81289
3.31547 83.0283 -1.5627
-11.0732 94.3326 7.62723
9.51112 109.423 0.273913
-9.84124 141.071 10.2444
-14.6974 119.892 7.41603
-13.4447 126.358 -2.06988
14.909 87.2076 9.04728
-11.2777 90.1187 -4.60844
-3.27324 79.6254 0.274636
5.02409 89.6098 0.0460969
-15.5467 120.941 6.22184
-5.39765 100.272 -4.88497
10.7037 85.3021 6.97892
3.48893 92.364 12.6537
23.4012 80.0153 14.0757
-13.9146 116.335 7.20207
-12.0545 144.215 4.816
-10.7025 83.5816 5.03294
-4.15842 105.939 13.1587
-14.2804 120.308 7.70664
21.3887 125.242 9.02949
22.965 106.77 4.44377
-6.48063 112.93 -4.59184
24.9899 103.656 16.4592
17.8116 117.392 11.1924
18.9992 108.792 8.19164
12.4142 87.6551 8.72955
-11.2111 80.2993 -1.61648
-15.4516 119.321 0.605377
-11.9548 125.063 11.7532
-17.563 120.369 4.86821
14.8067 86.7335 11.5151
15.2327 113.758 -1.03426
-11.8866 117.055 8.72327
16.7644 96.1581 5.47285
-15.2926 119.433 2.23743
1.15865 128.535 0.568751
-13.9183 121.96 10.0661
27.3006 103.693 10.2981
16.0294 86.5473 6.75779
-4.29863 107.881 -3.76851
-13.9422 117.529 9.64065
7.50223 88.4762 10.17
-14.3043 140.011 9.93362
-3.07374 132.843 6.52355
-0.259847 96.6897 -1.6614
17.6132 98.2716 16.7874
-8.56963 81.3768 -0.716277
12.5159 114.523 5.94251
-10.6776 88.0731 6.12328
11.8238 101.845 7.45117
-12.4182 127.731 11.2667
19.3594 110.899 9.65883
27.8526 81.0022 17.262
-5.90826 94.6888 9.55495
22.1727 101.967 17.9879
-15.9196 119.843 6.46785
14.1415 94.4266 9.07151
23.5995 122.53 2.11303
-13.3075 83.4827 -2.70289
13.4773 87.6061 4.50433
8.17366 118.948 10.4235
-3.53087 99.352 -4.87233
25.3509 100.45 10.3447
-14.112 122.242 2.55151
22.4776 123.307 1.65434
-15.2294 123.52 0.794095
24.2405 102.996 17.1667
-4.70254 125.847 8.97029
-9.68385 83.231 4.32884
-11.6345 127.186 11.5863
21.7984 114.174 2.58718
-14.6304 120.886 -0.218635
-16.628 130.836 10.5412
15.1119 84.84 14.058
15.2246 87.6965 6.68442
-6.00594 103.953 -5.69561
9.67998 97.4434 0.695919
3.255 82.7915 4.92989
-5.60394 102.499 -5.8138
26.0656 89.7424 13.4919
12.9496 102.49 6.45865
-6.17247 104.996 12.1259
-16.0864 128.46 0.0621487
-7.40451 84.1176 5.94852
-14.2371 107.885 -4.90377
23.9342 118.019 12.0187
-11.477 145.78 7.3547
-13.6234 125.698 10.3986
20.0613 105.652 0.747817
1.13991 95.4694 -0.335613
-14.8263 115.812 9.74836
-3.36999 116.22 12.3059
24.0311 83.5169 13.3107
6.06093 122.502 1.19446
-1.39676 129.965 7.42969
-6.30012 138.436 6.83985
17.458 94.3536 13.7517
15.0351 85.619 5.84061
-5.83941 90.9008 8.50953
20.0396 78.2063 11.1992
-15.7979 116.657 1.5039
9.36078 133.68 7.27421
-16.167 107.89 2.08497
-18.5396 126.461 5.6046
24.8917 99.3045 9.01137
23.4177 123.353 0.704003
-13.9828 82.0894 -1.22463
-8.95723 80.9365 -2.57938
15.4179 85.0012 12.1391
-6.93318 112.654 11.9269
12.3978 106.986 1.00886
7.35247 86.8152 10.278
-1.90444 96.8673 -3.05135
27.6063 101.544 11.7018
1.61832 106.764 11.1956
19.7221 86.44 9.50438
23.5021 123.398 3.56762
-12.882 93.4248 -3.77624
-14.6092 119.197 10.0881
0.189619 124.644 11.2687
11.9231 102.746 7.80715
-7.61551 108.689 11.7187
16.5357 81.4374 7.93819
-3.03514 96.5951 -4.5346
24.0698 128.584 4.15901
16.2383 117.805 3.99227
19.8455 128.526 3.36301
23.2911 102.023 17.6997
-3.37462 95.3161 10.2731
-12.4229 85.7043 -2.95374
-16.6396 87.8345 0.999772
5.5046 137.514 5.7472
-6.68677 82.9091 4.16378
-14.1922 118.909 7.13868
-15.5277 122.049 4.04116
27.1279 98.9833 15.1705
2.86132 115.315 -3.04509
-15.0165 121.989 -1.13909
-15.2763 117.103 9.28196
-1.02177 123.705 -0.317876
-5.5124 102.988 -5.59648
12.8944 93.0147 7.80274
-15.6627 110.494 -3.48464
17.6703 106.925 0.991305
-2.04334 82.4733 2.14773
18.4111 127.722 3.47231
22.0616 123.735 7.69925
-13.4127 82.8781 3.6174
-14.1181 101.023 5.14989
14.304 85.4567 11.0953
15.8052 85.7371 10.1693
17.773 87.7766 15.4363
9.22154 86.1198 2.25135
-13.6556 109 -5.12667
0.678416 126.321 9.78706
-14.459 120.363 0.00233217
27.903 83.1902 17.4512
16.514 128.299 1.11806
-5.82226 128.471 7.97025
-13.9089 97.3056 -3.96835
18.9189 116.464 9.28628
-17.6722 130.464 1.69816
2.89237 123.442 10.7714
19.2623 108.808 9.06076
0.03168 131.254 6.70056
-16.1482 111.335 3.32412
26.8399 92.4493 17.5515
13.5851 104.594 0.772751
-13.4806 90.4503 -3.32446
7.24085 106.9 10.3659
13.6399 91.5009 8.60869
18.1992 127.476 9.54402
-16.7968 122.072 5.99179
-14.1793 116.828 3.68839
27.8288 99.9092 11.2692
-12.6156 140.043 10.5235
20.6087 88.6003 18.4203
-14.9538 85.8604 3.19108
2.67508 112.78 -3.36784
26.3222 94.774 12.3615
-3.57071 130.724 7.69825
-13.8781 112.652 6.40734
1.05679 133.083 6.81585
2.69202 138.887 4.60956
-15.2905 123.68 11.9134
1.39721 81.5914 -0.48037
17.5384 95.2411 14.7902
22.8461 122.153 5.96866
-15.7375 88.3099 -0.429449
-12.7854 120 9.35636
-5.59794 82.8928 4.80679
2.30263 94.4083 -0.106727
-15.5143 97.4411 -2.82649
-14.3024 125.581 -0.0844344
-12.7046 134.529 0.930557
-2.04752 106.212 12.9705
-7.96224 120.638 11.4136
-9.03603 127.124 9.63087
13.6597 94.2208 7.78464
26.8598 107.888 10.5085
-10.2169 103.382 9.30683
13.4485 124.738 3.46024
25.0358 106.943 15.5149
-2.15776 115.536 -1.65393
-12.6289 119.137 -4.2284
13.8851 94.2133 7.92578
-15.2387 121.064 7.41029
-6.15799 122.579 11.5511
1.04201 129.498 0.366821
14.8521 96.6778 13.4278
-14.543 142.36 6.56632
15.4478 90.1289 6.10278
17.991 126.615 2.14843
23.0821 91.3069 10.337
3.24061 86.5159 9.40651
14.6148 113.727 -0.123903
12.8569 89.6246 9.43723
-2.85229 84.1535 1.94108
-15.7535 116.657 1.55041
-18.1159 130.826 6.94386
21.0495 82.433 15.3787
18.7517 115.507 2.63987
-2.9532 97.5492 -4.93626
0.13841 100.782 13.1956
-13.5626 109.518 5.69866
0.95036 127.494 9.57828
19.3369 130.616 2.47141
-14.2346 131.407 0.553292
-13.2912 128.832 -0.741771
-7.70882 130.709 9.21876
21.5506 120.984 7.52028
13.0338 98.3353 6.77701
8.76462 81.3186 3.99886
24.0352 124.653 3.35456
11.1056 103.015 9.12397
10.6218 115.088 1.61881
-19.4616 125.538 5.60739
21.8776 83.6137 17.1638
-7.71227 115.118 -5.00528
-4.22427 79.1233 0.50637
13.5974 107.57 6.59719
23.1909 112.679 3.99108
16.5594 109.216 1.22006
4.92855 133.967 6.54945
16.3999 112.43 -0.577279
0.417702 97.5179 -2.16843
8.52039 112.244 10.8365
0.407957 138.881 5.14756
12.6918 89.5372 9.45505
-10.3532 121.02 9.74422
23.15 126.476 4.46089
-9.01657 109.517 9.74313
6.54146 84.9157 3.80767
-14.1495 90.4807 4.19956
-13.7993 81.5221 -0.99033
16.6984 122.392 -0.386154
18.6047 106.328 16.5794
-0.265097 131.876 6.37839
25.8646 99.276 10.7685
17.6459 123.858 9.51986
-14.1481 121.689 3.65786
12.8747 93.0533 3.08544
22.3404 98.2243 6.6034
-0.0825717 113.963 -3.22624
-16.0528 122.335 6.49498
18.1552 95.7616 6.34018
27.1314 80.6473 17.2056
13.5098 130.758 2.89502
12.7055 96.3968 12.5554
-8.68591 98.4505 -5.91734
5.17055 113.096 10.7234
1.99747 99.525 12.7357
12.7467 106.019 0.933098
-15.2071 140.92 6.66344
-16.3293 135.382 10.7341
16.9315 112.647 5.13191
-11.5797 142.181 9.82771
19.0048 111.762 8.02718
-15.3828 136.737 10.6572
-15.423 138.466 4.00889
-8.48118 109.595 -5.22521
1.40763 93.2206 -0.13813
16.4969 128.286 0.932616
23.9184 89.5164 11.6081
14.8351 118.165 -3.36903
17.7796 108.332 15.4588
-13.3891 89.5186 4.83906
-6.5598 87.3722 6.74672
9.61265 101.715 10.1177
9.32985 119.991 10.1666
-13.6607 81.1374 -1.5781
13.2752 116.053 4.65415
14.2485 92.7159 9.01495
5.0594 89.155 0.285949
12.4577 91.1778 11.6882
25.9358 98.271 11.0444
-0.887496 95.1897 11.1312
-6.98877 77.7315 -1.93178
14.8118 99.9342 1.48715
1.68498 83.1755 5.3738
8.94682 86.0498 9.36518
25.4023 87.4074 13.2796
-16.4944 136.231 6.55775
7.08336 105.347 -3.11808
21.4834 132.696 4.01477
12.8208 89.8851 8.70631
-12.6225 122.993 9.6824
16.3204 116.806 -1.84821
-11.0245 112.724 7.22843
-13.7902 122.321 8.899
15.5475 96.653 9.44234
18.1372 81.8006 8.90568
-9.06313 96.3388 -5.82594
-16.4415 87.2267 0.606526
-0.552195 78.0305 -1.36752
13.3124 97.4376 13.476
-15.5788 110.906 -3.70264
-1.16372 138.052 4.90369
-10.9741 95.7561 8.21007
19.0554 131.081 7.56731
22.2219 90.0451 10.7234
16.8618 79.2542 9.92645
13.808 122.066 3.68091
22.4315 113.316 3.2067
14.4488 87.8296 5.87973
-6.26283 124.405 8.58916
-8.21195 115.896 10.6675
17.1934 137.349 7.07749
-0.445121 85.2776 1.51658
-0.18216 112.79 -3.41063
-3.61466 96.9802 -4.9336
-14.9959 113.911 5.69073
-5.66309 111.326 -3.61703
-3.33192 127.647 -0.749901
-14.6588 133.77 1.88831
-13.2925 121.803 4.13119
9.79795 122.956 0.280253
18.1614 108.631 0.746753
-12.666 89.7468 -3.44803
24.4477 97.4048 18.0827
-3.47875 106.899 13.411
-7.11952 114.747 -4.77803
5.03897 129.617 8.0027
19.0205 99.9051 16.4619
17.6987 118.83 0.273472
-8.64701 105.844 10.5697
-14.4844 83.6798 3.10645
-4.82977 139.147 5.3521
15.7574 137.129 6.30171
-14.3865 120.706 1.96319
-10.102 121.551 10.089
-13.1695 127.903 -2.105
-0.505452 97.1207 -2.49725
23.0269 127.65 2.7374
-16.1223 107.183 -1.52865
-15.7281 136.781 10.4596
4.25211 109.893 10.6937
-16.1941 90.875 1.30543
8.72413 100.754 11.1559
5.49549 94.4931 -0.954881
17.0236 121.611 0.228125
24.0075 89.2902 18.8166
2.01696 127.773 0.443947
26.8125 84.2198 15.0619
-0.261337 102.124 -4.86983
-2.79054 126.411 9.43012
22.5043 123.219 3.47938
-15.1712 135.819 2.75233
13.6027 88.4647 8.71969
-2.973 111.282 12.4982
-1.00307 89.4728 8.45221
-4.13741 136.749 5.6349
16.2153 113.812 -1.1837
-14.2692 132.324 1.22373
20.5835 106.508 1.12738
-3.41087 83.511 4.49911
25.6863 94.3332 11.5462
21.4725 116.318 6.77222
14.9433 94.231 9.27667
-1.42024 125.586 10.8336
25.7346 108.471 8.30697
-2.98026 130.415 7.13037
6.74087 106.407 10.4281
12.2209 95.1409 12.0222
-5.48218 107.274 12.8316
27.0994 80.6382 17.2335
-15.1723 117.683 5.3914
27.9281 98.7612 12.7404
-8.82405 116.96 -5.16063
16.7602 123.507 10.8588
22.7829 127.791 3.27919
12.5881 120.37 -2.31365
-4.98076 118.891 12.7395
16.8455 118.048 -0.383517
13.6877 122.063 3.77939
4.16365 88.2141 0.554179
-4.97581 113.513 -3.45891
-0.522663 92.6141 9.97321
-1.25642 83.2172 5.45265
-8.85081 111.172 -5.63538
-8.33007 81.8599 -2.03204
-15.9925 109.554 2.94468
-11.5497 123.084 8.79361
-14.8505 121.613 4.80414
14.8726 93.3321 7.73622
23.6459 119.994 9.32533
-9.33317 108.698 9.50671
-12.3872 124.066 9.29082
-10.9491 100.267 -5.54125
17.1862 100.649 8.49922
-14.3093 118.727 9.78042
-0.625002 122.484 -0.270133
4.15176 78.1113 2.91713
-15.398 117.463 -1.09418
9.31156 97.0659 0.439107
26.917 107.126 10.6485
16.8136 118.816 -0.87887
-15.8252 114.606 1.0129
25.4939 97.3343 11.206
-3.03845 84.3454 6.70261
10.4066 93.6104 8.40188
-10.7237 105.182 -5.84109
10.9142 112.311 9.86276
14.425 101.218 13.2372
-14.8644 119.091 -0.33331
1.48088 115.184 -3.16591
16.8163 109.365 1.18227
12.903 91.1469 3.04626
-13.7209 120.244 2.8525
17.9497 120.966 10.1881
8.3232 98.8329 -1.24102
22.7893 107.074 4.16105
-6.01454 125.211 8.02414
28.1515 95.9757 12.6643
-5.37453 85.1894 6.13863
20.3835 84.5746 10.1743
-16.5477 133.426 11.3317
-14.6636 101.31 -4.49337
3.25775 102.469 -3.3581
-14.4594 129.552 2.02667
0.53118 129.339 0.306587
19.73 112.439 0.0304753
0.412096 100.241 13.1764
-1.40742 82.1097 1.65085
7.40324 91.654 10.3376
17.3218 118.978 11.7045
9.38905 113.548 1.29407
-0.403832 92.1851 -0.145127
-14.8578 117.083 6.18314
-14.7035 120.968 -0.343718
25.8356 84.1433 14.6135
20.6888 95.4531 7.48448
21.3972 87.0945 18.3191
-7.52061 91.9803 -4.96557
3.14034 103.592 11.1584
17.1422 97.502 15.8403
9.78267 92.6326 0.878902
-10.3594 99.5823 8.90514
-6.37962 81.0402 -1.48982
-2.72047 100.964 13.2223
12.7896 124.126 4.20469
17.178 129.706 7.14505
-11.4363 87.8902 5.5342
-4.03574 93.2774 -3.64588
1.51992 119.931 -1.98775
-13.1232 116.14 8.20476
15.6802 135.833 4.84535
-11.8392 122.036 10.3756
21.7979 121 6.86237
22.7387 128.294 4.63604
-14.5782 120.932 11.5319
28.5152 91.4396 15.3231
2.57552 95.7039 -0.283782
-19.8811 119.417 8.42209
13.9263 87.0776 3.99454
-16.9445 122.24 4.85801
-4.32844 110.094 -3.2408
-2.06043 111.166 -2.94844
-13.8369 90.6773 4.56967
-2.31067 91.6318 9.01299
12.7236 89.2546 6.85356
1.01529 105.841 -4.58263
25.4274 89.4596 12.8007
-13.6892 96.926 -3.95951
8.87827 85.7356 8.71174
12.1568 110.16 8.69709
21.9264 79.2281 12.6871
-12.2381 119.948 -4.36532
-17.6281 124.74 3.47564
15.687 130.239 9.19871
21.0114 83.503 16.7514
-6.02365 84.4672 -1.20593
15.6461 111.909 -0.208413
11.7517 84.6631 4.00476
14.3492 85.8904 4.25008
23.1578 119.558 12.2241
-6.39246 99.2276 -5.39192
-11.6009 119.364 9.19778
18.1377 117.538 10.6546
17.3718 102.035 8.16066
12.6554 95.8091 3.38338
-2.17781 109.819 12.838
16.1521 98.1169 9.46952
0.652204 129.24 0.346643
4.87799 118.108 -0.220118
-12.5155 124.129 9.54021
1.08516 139.89 4.42963
25.1191 82.0556 17.6159
21.1451 113.216 2.32975
-9.49402 102.564 -5.30852
18.5923 128.534 8.72319
-18.2572 130.331 6.82678
26.6613 127.21 1.21404
19.9859 93.2161 17.5631
-8.69414 130.358 9.09205
13.9485 121.859 3.57282
17.7608 132.645 7.23148
-17.1708 125.901 1.0722
-19.206 118.569 9.91785
-9.7021 109.163 -5.87656
-12.9378 104.281 6.27891
-11.3286 83.0492 -4.21468
-10.0343 127.239 10.9285
13.178 124.962 3.60176
15.3836 84.3314 13.3444
-8.78853 125.372 9.79223
-12.0097 107.025 5.89302
-11.1746 82.9186 -1.6999
23.7968 104.044 16.9511
8.55034 90.0626 11.1473
-11.6262 123.121 8.95837
-11.8115 81.5616 -2.92137
-14.6551 95.9411 -3.50268
17.8595 86.2673 17.0704
24.1196 90.0798 18.7976
17.3368 115.989 0.03684
10.3861 129.502 7.94307
7.87119 90.3197 0.328367
2.41202 97.1404 12.9171
-14.0615 119.943 4.11135
-14.7151 110.392 -4.41533
18.5216 115.835 10.535
14.1471 89.6681 6.05894
19.5403 119.852 14.3721
8.54021 105.872 -2.06312
-13.2342 132.178 1.30817
14.2946 89.2748 9.76965
-0.521075 81.7891 2.04986
20.7658 88.6292 18.485
4.67032 82.5899 2.05597
13.0715 95.138 12.9874
17.1388 119.105 4.32122
21.7958 122.454 11.3291
-14.808 120.358 4.04256
1.58557 97.3261 -0.952557
-16.7718 118.447 6.08923
13.4816 92.1179 8.13827
9.03305 116.773 10.7972
2.87308 104.462 -4.56929
-14.6139 119.698 9.19555
7.93306 133.768 7.33666
18.9212 90.1162 16.4397
-14.0769 82.3301 -1.38641
27.2123 98.2166 15.2755
-19.9527 123.668 9.09081
-14.4656 126.967 0.859025
3.15084 85.9992 2.54281
-5.74411 118.564 12.61
-1.067 112.402 -2.97759
18.139 133.214 6.52547
22.6778 114.076 3.51437
28.3791 81.1825 17.0562
2.44481 86.5628 8.83636
17.9626 121.951 5.0988
-16.351 112.272 -2.16044
24.5595 122.886 2.81201
-11.4816 118.87 -4.89481
29.3714 83.4176 16.7901
-4.99733 114.248 -3.42038
17.9029 85.0162 8.27888
-10.7669 126.219 11.8599
16.8702 96.4191 5.39715
-9.67523 83.4094 4.55725
-15.5252 119.293 0.779961
-10.5711 136.358 11.0676
22.9453 130.912 3.1049
5.50359 90.4828 12.0221
-4.46645 105.386 13.0423
-10.6604 84.1091 -4.611
7.29289 122.38 9.11648
6.29333 97.4123 12.1341
5.16618 95.7539 12.4112
20.4675 85.1663 10.4537
23.8406 85.278 13.0446
-7.915 144.909 6.46442
-14.5085 104.679 2.33694
-11.9207 132.515 9.98886
17.6583 83.0695 12.9994
6.49955 114.83 0.359651
-12.4375 107.828 4.81577
6.974 93.1944 10.5643
22.6059 126.211 6.46503
9.59529 98.9214 -0.0513981
-16.1922 136.102 10.4736
-14.759 118.872 6.67991
-3.05104 91.1599 -1.18959
-3.46785 102.126 13.1523
23.3049 104.385 17.0798
9.61895 80.865 4.50558
-10.9199 118.191 10.135
-13.6068 120.818 7.33377
-0.0759181 119.818 -1.54412
18.3681 123.495 13.1663
18.41 92.0637 15.057
-13.9887 99.0137 5.54294
-15.3248 121.84 0.07516
4.97796 89.2619 0.207533
8.60948 119.54 1.27051
25.8608 113.246 10.2063
19.5343 97.9986 5.68183
11.3354 87.9812 3.2217
-6.99434 117.074 12.1907
12.2409 113.29 6.57014
11.3481 83.9377 1.88169
-16.0915 92.7436 1.43443
5.69377 89.3661 0.370179
-12.8508 89.5316 -2.87251
13.8606 100.26 11.252
-11.1472 126.056 11.947
-13.0913 80.5997 0.435661
18.2032 96.8108 17.1068
-8.92948 119.629 11.1168
0.277477 94.7584 11.8493
9.06779 90.2067 10.8475
26.4302 108.485 9.68407
25.0541 111.532 6.60515
24.7969 80.3304 14.0294
15.7001 78.8912 8.87097
-0.201393 128.606 8.62915
16.0657 115.291 4.48975
-9.00528 98.3428 -5.98867
23.5787 105.219 5.39123
15.6002 84.2723 13.4165
-11.9228 121.559 10.066
13.5665 89.3658 6.64885
20.6393 94.4922 7.96301
15.4081 134.72 7.43343
18.3889 104.297 7.3889
11.8888 119.842 6.91625
-6.9229 138.78 7.31757
-8.94227 82.2261 3.16908
22.6052 90.6584 19.1799
15.9276 116.846 -2.29481
-14.8841 120.016 5.701
19.9947 103.761 1.83864
26.9551 107.001 11.6301
18.7094 106.805 16.8675
-3.52167 125.756 10.0965
9.13216 86.241 3.44688
17.7808 115.107 12.9898
-19.6109 124.437 8.61604
25.0504 94.3995 18.0417
-6.08742 112.304 -4.1778
-9.83353 103.641 9.49664
-1.25936 126.011 9.96338
-19.6254 124.82 3.38787
23.5993 131.896 3.23954
2.82324 116.402 -2.75429
-11.5428 89.2377 -3.85891
-7.38698 109.171 -4.62197
28.3828 92.8373 14.1123
5.96292 105.611 -3.38802
12.2432 89.3522 8.21143
8.60752 96.2821 -0.324682
17.6707 88.4889 14.3106
11.9344 115.816 0.415337
-7.72629 137.425 9.51205
-12.7383 119.357 9.72192
15.0611 98.0293 10.1323
-16.3138 115.594 -0.134833
-4.61693 95.3637 -4.44814
2.08154 120.088 -1.7479
-1.5425 125.463 11.0894
-8.97415 136.131 10.1186
-3.39815 131.057 7.54414
22.0179 121.476 12.2056
20.1486 125.997 4.44481
-11.5939 123.892 10.326
-15.3555 119.177 4.37533
-3.72171 83.7551 5.57859
20.8181 117.175 15.037
-12.3558 113.267 -5.32048
12.6121 87.806 6.18811
-8.02455 111.903 10.656
18.9565 120.929 1.11736
-5.07969 85.7542 6.46573
20.3346 114.488 15.6761
-14.5129 118.776 0.134999
19.2762 111.848 16.9878
26.5714 85.4059 17.8202
-6.865 79.9216 1.62802
3.92728 116.977 11.5609
-10.6162 143.794 9.14515
-15.6058 97.7516 2.18996
15.2425 95.4997 9.38991
-19.3231 126.64 1.89058
-5.52033 78.6741 0.893682
14.5902 86.2205 5.2023
2.62191 113.966 -3.3437
-9.864 108.809 7.99855
-14.67 120.219 -1.08766
-0.383651 91.6921 9.51073
18.3939 83.5557 7.85035
-2.16147 94.6767 10.3302
22.1199 122.06 11.1348
19.8071 109.379 16.6655
25.6918 83.0029 14.7317
8.68463 125.004 9.3151
-9.94222 106.659 9.55976
16.7777 121.503 -2.14089
7.14766 120.244 9.69017
5.63296 83.6147 6.47423
19.0081 115.377 9.7226
17.2734 101.095 7.05228
5.56663 83.5948 4.05026
-19.5801 122.235 10.4702
8.21966 104.645 10.4367
21.0216 110.975 2.008
-6.10214 81.5646 1.81884
16.7222 101.199 15.372
27.9288 84.7647 18.0725
27.6328 101.653 12.8855
-4.71656 126.299 -1.74161
-18.5462 126.418 4.91979
-18.6085 129.999 9.9335
23.5272 114.463 6.00619
5.8575 102.239 -1.79188
8.51568 89.7514 0.841154
-14.6816 120.026 7.64351
-6.45341 117.36 -4.53942
9.86641 113.17 10.5937
-17.8375 122.703 3.86896
4.41893 130.481 1.1229
23.468 121.533 4.29983
17.2407 127.529 10.9007
-0.639316 103.068 13.0282
-18.5359 124.948 5.47993
-3.01364 103.427 -5.31134
25.0227 115.394 11.5581
-4.10292 135.347 5.93234
-9.7395 124.716 10.2673
25.0122 104.143 16.3377
-18.4106 121.328 4.99119
-1.50589 126.062 9.7423
-5.85678 107.1 12.715
-2.01866 89.4957 -0.176135
-5.26912 100.997 -5.21794
1.52734 105.869 -4.37984
1.30301 98.7301 13.0258
-19.139 127.624 9.90774
18.6532 136.334 6.47011
6.28637 110.724 -1.71934
17.8072 101.794 2.56062
-16.2133 106.21 1.0062
25.8146 80.6702 16.7915
2.20676 117.576 -2.78994
-11.5665 134.351 11.2344
6.81106 88.305 10.4385
-15.8906 109.102 2.98396
-1.09283 129.91 -0.0265756
0.295966 97.7667 -2.69198
19.6043 119.245 14.5794
7.60977 88.3153 1.30268
10.9957 119.485 8.79497
22.4687 100.27 5.64427
10.5821 109.711 0.773779
10.0665 78.1476 4.08936
0.94591 103.709 11.8565
-14.2224 90.4455 4.10575
-15.2289 126.755 1.6557
12.9671 92.3722 9.01606
15.9004 93.7601 8.13465
11.1731 126.251 7.61545
-14.4333 125.301 -0.147062
12.2844 136.536 4.2773
-16.4527 99.1301 -0.0572129
14.5245 85.88 12.5485
19.7602 91.0172 18.5144
-14.3278 93.2154 -3.13076
23.2856 126.399 4.10458
9.80315 114.45 10.7786
-15.1227 102.724 2.31742
12.3542 128.962 5.79386
24.6029 108.913 15.3839
23.3711 104.531 17.0488
2.74853 105.939 10.9857
15.0606 100.135 1.61615
9.53776 104.069 -2.10845
-14.8019 94.2653 -3.17012
18.65 136.252 6.44548
14.3179 89.2212 4.68357
19.0591 99.3811 4.70733
-20.1278 124.866 4.32597
-6.34372 84.0478 -0.363977
-13.757 136.745 11.3604
-7.40607 77.9565 -0.442359
11.8671 110.2 9.06842
-11.0687 96.2097 -5.43133
17.6961 129.148 5.33372
28.336 85.6392 14.7628
9.26605 121.162 10.0259
-6.59389 111.501 12.2547
4.99184 122.478 10.0899
28.4266 83.757 17.9751
10.0348 89.4358 9.67825
16.3811 108.598 5.28748
6.27463 84.4185 7.73584
10.6918 93.8007 1.66064
25.6506 108.066 7.80794
-15.5169 91.2494 -2.06751
-14.1247 118.733 7.78833
24.4376 90.5789 11.294
11.3887 127.372 6.89427
3.37937 102.22 -3.05611
2.92176 77.9245 1.34312
-13.828 125.279 1.79048
-16.9767 121.596 4.27893
13.3704 93.6264 3.82726
24.4768 116.585 12.0339
18.1193 122.56 5.76343
13.6399 84.2022 8.60586
13.818 85.3674 10.4448
-3.81039 79.2722 0.391597
15.4082 104.967 5.57754
0.908719 105.273 -4.73593
-10.9956 84.5936 -4.42081
-15.6708 113.275 4.63695
-14.5142 142.371 6.73619
19.1315 113.425 10.22
1.52683 105.631 11.3176
1.46073 97.1931 13.1583
-9.21964 119.945 -4.20614
10.8763 122.117 -0.277564
-4.28463 133.096 7.1651
7.67277 102.001 -2.3681
15.3119 89.9688 6.00822
-15.4478 104.84 -1.82976
-8.82925 80.6425 2.65639
20.7758 123.113 10.3579
-17.7613 130.577 10.9658
-2.84322 81.3185 -0.894339
15.4472 85.0208 12.228
10.0665 101.548 9.44648
2.60024 127.175 0.151176
4.15769 105.937 10.867
2.96388 127.079 9.41095
-9.57128 118.747 11.0417
-11.0764 115.279 8.74735
17.4275 122.605 13.1383
16.7103 118.438 4.15546
-12.1091 129.131 10.6473
-14.4818 126.656 0.75472
3.24338 82.2612 -0.734058
16.2041 102.35 9.67903
28.9078 88.6401 15.1994
-4.40493 105.286 -4.51603
9.57724 85.1327 2.17935
-11.5111 82.7926 -1.67906
19.4572 110.385 10.928
18.951 121.853 13.8414
13.864 116.067 -1.95576
-13.4072 129.556 -0.0511741
-14.1628 130.351 0.909273
15.1346 85.3255 14.3694
4.45861 119.156 -0.661096
-14.1113 83.3324 3.27539
12.9211 123.825 4.20245
-11.0375 108.15 6.41103
-13.5067 135.644 1.60593
15.6069 125.192 2.64754
15.9785 101.843 6.83203
19.3894 84.3077 16.2195
-8.74767 95.6175 -5.65672
-9.62856 128.365 10.2082
-14.9744 120.365 11.4635
14.0652 81.3936 6.17667
-12.0775 125.367 11.4811
4.40223 134.078 6.35591
15.724 86.4396 15.0396
-13.4037 133.993 0.676543
-15.1532 121.817 -1.37758
20.8769 125.724 10.1116
29.3543 83.37 15.7044
15.9 137.071 6.8592
-10.1592 131.37 9.33839
20.6683 93.1104 19.0318
23.0282 87.233 18.4171
3.6187 120.321 11.0017
-13.7836 88 -0.695802
-15.3832 90.5458 -1.96525
4.88699 83.8357 6.99247
-15.2771 118.221 9.69887
20.2712 108.357 17.1786
-12.6296 123.816 9.76471
-5.34129 124.102 9.99422
-7.89563 101.031 -5.20346
-2.29989 97.7154 -4.96016
7.05086 96.3793 11.9798
17.1202 78.1593 9.86972
25.7212 92.7874 17.8988
18.7537 117.777 2.9752
-15.1223 121.535 6.92244
21.8575 126.046 3.76835
10.7236 113.694 9.71091
-3.89428 114.047 12.8246
-9.86862 78.6924 -1.8679
7.99027 86.3979 2.90707
-7.04234 91.3296 -5.03122
5.43139 105.608 10.7112
6.87434 109.549 10.7013
-12.3326 121.155 3.37061
19.1385 113.315 10.7816
-16.2431 127.634 -0.153052
-8.58016 87.8166 6.90706
18.1977 123.77 6.01448
11.1631 100.181 7.71462
24.033 102.548 6.39996
19.4504 116.963 5.12878
-7.6142 91.8237 -5.07531
-0.346726 82.0417 3.26281
-12.9438 117.381 -4.13949
-19.4538 117.948 7.5123
15.3157 88.5338 7.11635
23.3316 105.064 4.89978
-2.83889 136.414 5.30886
4.00898 117.275 11.607
-11.5401 123.023 -3.93326
19.4307 117.773 15.0786
-15.1457 99.5842 3.22297
27.6047 80.6829 16.3375
0.718323 99.5865 13.1278
6.64281 117.665 0.620397
-11.1556 91.0731 6.83432
9.05081 117.903 10.6808
13.0687 88.9263 7.75234
10.8971 85.5608 4.81083
8.77967 95.1857 0.214643
24.4203 85.2848 18.1493
-15.7171 83.7321 1.25677
12.7601 94.5734 3.29444
14.2105 127.048 2.61429
-15.4214 120.399 -0.0788068
18.5082 110.639 6.72984
14.6976 117.735 -3.15797
26.6467 81.0664 16.4644
-14.2637 119.093 0.0166846
17.0496 88.021 12.2667
-9.56152 138.179 10.3081
23.5038 123.653 3.60368
-9.99053 128.521 10.8958
13.687 105.95 6.91589
7.05462 134.926 6.98658
19.0226 112.04 8.08632
12.6355 88.2008 9.57019
6.71371 87.4799 1.51804
21.9606 108.35 2.99501
-20.3949 121.201 8.6212
-14.4504 121.583 -3.47613
-5.27643 90.3027 8.10543
27.4334 92.6914 12.7594
-4.09045 80.2287 0.610587
2.75009 117.333 -2.26236
-16.4846 118.1 10.0724
6.41969 127.825 8.08974
-8.83081 143.285 9.07938
14.2366 99.5688 1.2717
17.2578 105.153 6.03241
18.3517 123.648 -0.0998516
1.27633 81.3611 0.688071
3.34645 118.986 11.3153
17.4757 128.963 4.80351
7.14521 93.6799 10.165
9.34598 102.422 10.9292
18.0113 116.935 0.723047
12.7513 88.8936 2.88198
18.7868 112.324 7.19797
-13.159 96.9603 6.00668
-17.6752 132.487 8.61858
12.9125 114.096 5.17416
11.4624 121.488 -0.914821
15.0428 84.8812 12.712
16.9623 123.432 11.998
-11.1778 94.2252 -5.50523
-0.631173 122.77 11.0901
27.4844 98.8392 14.4761
17.6733 96.193 15.8397
5.149 130.716 7.9735
-16.7507 124.436 3.18831
-9.12463 97.378 -5.92194
16.9231 130.559 9.84902
-13.8853 118.225 9.06928
20.2338 103.206 2.53381
-14.0647 124.135 -2.0712
-12.9361 124.013 8.63456
-8.90608 110.176 9.5939
4.35622 82.2267 3.96811
1.41089 115.704 11.0587
-10.617 141 10.29
-11.4811 125.739 11.076
-13.5974 120.267 6.19232
-14.6402 123.609 2.35535
12.9208 88.7521 8.84635
19.1204 113.544 10.3961
-9.34454 91.0726 -5.46958
25.1189 110.916 6.60342
-18.6366 122.844 11.1581
10.3453 88.3975 9.71261
15.6984 88.0321 6.22011
-7.12029 128.379 9.23459
-20.4725 123.659 8.01431
13.1391 119.68 4.75094
24.5158 112.589 13.4491
-9.47201 142.587 9.52146
17.2321 116.035 -1.26482
18.2301 110.692 16.9168
-8.47044 145.299 6.77824
-3.69475 79.5976 0.391458
6.89916 111.116 10.6457
-15.9764 98.9343 1.01148
4.58896 123.941 0.504919
-4.35908 90.933 -3.79116
-16.8215 126.496 1.03177
22.2927 114.168 3.36593
11.7406 127.72 6.35826
-0.323595 117.702 -1.87946
20.8638 113.815 15.5107
-2.59598 113.046 12.0826
-7.65118 77.5373 -1.55075
7.96923 121.097 1.63899
-2.02969 129.706 7.68918
-12.2383 117.976 9.21103
5.40237 77.8742 3.29097
-13.9592 120.058 4.49223
20.638 91.3131 8.94302
-16.5017 116.031 -2.08842
13.2143 94.0472 7.67991
18.9032 113.591 -0.963323
6.42549 89.8899 0.195212
-14.6802 116.959 2.6164
-18.8217 126.555 9.63081
27.2821 94.5065 12.3538
-1.40927 96.2835 -2.16057
8.76377 84.5311 6.64297
13.1297 95.3097 13.045
8.87831 97.9004 -0.231139
24.7849 102.536 9.28399
21.6019 115.677 14.8009
-7.56443 104.081 11.0508
12.7447 91.0065 7.74718
-11.7545 122.608 9.03033
-17.5323 122.158 5.48412
25.4115 114.886 10.7047
-13.8758 140.002 3.17217
11.9496 134.614 4.34463
15.7824 87.4344 10.7439
21.9635 105.546 2.73703
1.68408 96.3594 13.1196
21.9792 101.538 4.51179
9.35603 98.2757 9.8187
-2.84252 101.883 -5.60466
-15.9147 97.4144 -2.48544
5.28974 109.611 10.5786
27.7726 100.454 12.1516
-9.83085 114.199 8.58808
6.31478 122.492 9.15293
-16.106 84.8324 1.32408
-12.4268 120.25 9.09646
-15.9258 92.0819 -1.54824
23.6272 80.6142 13.1684
26.8847 106.941 12.3338
2.99585 128.255 0.413468
-16.3014 137.721 5.79174
-5.36264 111.513 13.4656
-9.21882 125.883 9.84609
15.4931 99.1803 3.6166
24.1624 91.6041 18.4898
-12.2208 93.6106 -4.45003
4.45799 91.3473 12.7285
13.7245 91.5613 9.34777
14.579 88.8497 9.47633
27.3515 80.7341 15.5255
18.4895 96.145 17.1413
24.0261 108.202 6.81472
-3.0396 79.1887 -0.32621
-11.9475 122.718 11.1839
25.4996 123.681 2.06793
9.07052 112.685 10.9118
-10.8094 107.566 7.42323
4.56014 121.361 10.3768
10.7517 81.3684 4.59727
-0.995361 91.0629 0.382978
13.8396 88.8512 9.7707
-0.221234 125.802 10.3167
22.566 120.075 3.59809
9.34338 117.321 1.47217
-9.7262 78.8508 -1.56749
20.1815 115.754 4.2473
-14.1013 121.408 7.32688
0.988281 86.7612 0.792241
15.3412 107.481 1.3219
24.5884 93.581 10.3957
5.32733 105.059 10.6628
8.91716 91.5482 0.302155
11.7854 107.492 9.35098
-5.16271 90.1132 7.98979
-19.3169 121.79 5.27761
0.268787 97.0594 -1.62749
-15.279 130.448 10.2283
25.1239 104.663 8.89902
2.33625 127.691 8.71084
-10.149 83.118 -1.88132
24.0533 110.189 15.3321
8.45356 83.9361 3.91999
-17.4586 132.469 10.7868
-6.65246 83.5058 5.48951
21.35 119.342 2.90726
-15.9338 100.274 -2.7147
19.6047 93.1746 7.55901
6.62593 107.035 -3.8289
-7.70583 111.096 11.1758
-11.7528 112.762 6.96318
-12.1348 120.951 10.7474
19.9141 117.277 5.2023
20.6301 110.097 1.10499
11.8741 104.057 -0.0150413
4.54472 83.7613 0.0801528
-16.2458 137.446 6.43156
22.6066 102.105 4.46361
1.97131 133.965 6.57643
-13.4442 131.824 1.61484
23.8716 112.786 13.8619
0.225866 140.059 4.70802
12.1607 120.362 5.37661
0.279377 83.5845 5.97463
-9.4413 145.286 7.68601
22.9173 119.634 4.28846
10.8471 98.3288 8.24098
-19.7431 120.433 6.13679
-8.21749 117.135 -5.04199
-0.78643 88.4403 1.26626
-8.05767 85.6847 -3.13882
24.7955 87.5454 12.9063
26.0051 110.138 9.40335
11.9266 100.089 -0.138925
-14.2764 122.99 0.892395
14.3466 119.017 -3.20586
1.59664 125.272 10.6931
22.4242 116.96 13.9839
-1.31358 139.82 4.46125
12.9134 124.557 3.95577
7.68578 117.058 1.46358
16.7772 101.295 15.4858
14.7382 86.6264 4.77135
-14.3854 104.434 2.97391
13.9087 94.9108 9.96405
2.18705 103.512 -4.73244
9.27255 80.9752 4.38444
18.7681 88.2378 17.6905
-16.0944 97.2623 1.24176
-1.43378 98.5974 12.9111
15.2369 118.949 3.64389
-8.64158 126.221 7.72795
-5.12589 85.4366 6.34395
12.1577 92.778 9.20035
-3.17833 78.8226 -0.58876
1.792 125.14 10.8716
-12.7639 82.7109 -2.00674
-10.9453 94.3266 -5.72787
-14.5108 111.715 6.03825
1.61941 108.62 -4.24766
27.0157 82.9863 15.2623
2.97253 89.3553 -0.0315696
20.1736 116.231 4.79458
-6.22254 114.216 -4.4537
9.45269 87.496 2.77182
7.98731 126.847 8.96354
-9.39 114.568 8.96458
14.2074 109.554 5.25223
-11.0841 81.432 -1.31811
-6.75708 87.7291 -4.94741
22.7286 123.129 2.24364
16.6276 99.7336 15.1822
15.9545 117.818 3.99262
9.33056 86.0659 0.912957
7.45192 92.6007 9.90023
-4.09456 81.8669 -0.0364242
27.7094 90.0633 17.1713
2.06634 102.946 -4.78502
-15.8536 119.426 0.032427
0.372958 86.1468 1.07229
10.1763 117.016 0.860654
0.62939 81.5946 1.72052
6.85932 98.1994 -1.6258
15.9611 95.6388 7.56914
-10.9434 80.6663 2.92739
14.5174 88.3087 6.79815
-13.6932 82.8112 0.257462
-2.61616 118.991 -1.13904
19.6808 129.15 3.51106
19.206 125.238 1.36345
1.80116 118.01 11.753
19.833 105.582 0.550889
11.9906 85.4825 2.29318
23.6029 123.805 -0.320797
-12.4014 117.993 9.14633
20.1895 129.018 3.47507
12.0801 90.6993 8.22352
1.96721 91.8869 -0.160309
25.76 113.996 10.2368
15.0597 82.6555 5.75973
-15.4854 102.385 -3.67883
-3.76083 110.591 -2.85733
21.3169 112.109 2.71402
-7.65224 82.067 -3.07332
-1.01663 123.152 11.2677
-9.34493 87.9201 6.66501
10.9719 92.0245 7.79771
-9.66461 117.198 10.7177
16.0344 85.9339 11.129
-12.1646 85.7574 -3.369
-14.0934 122.174 2.61197
16.6973 131.768 5.75331
-16.3123 113.617 0.990155
8.19747 112.379 0.590786
17.3704 102.43 1.4823
14.2553 100.117 10.6526
-0.757001 126.532 0.195626
-16.3093 83.8727 1.30311
16.6664 99.5266 15.3642
13.2232 88.2193 5.40644
-9.05918 82.2307 -2.7732
2.1359 81.4732 0.116316
19.3691 109.414 12.5005
-15.0145 114.443 4.82362
-14.0336 81.3721 2.35135
14.1691 99.8875 14.0044
11.9427 88.909 9.72068
11.0045 93.8165 1.9371
14.2601 85.0335 10.0631
12.4889 111.05 1.56784
21.3846 107.217 1.82773
-19.0481 127.707 10.4432
-7.47935 89.4911 7.74424
-10.8372 88.1378 -3.22615
10.2648 107.786 0.160855
-16.6801 109.789 0.152561
-15.2701 121.405 6.63976
20.2772 91.6092 8.43465
-3.88794 120.821 12.8899
9.73141 124.642 -1.28062
5.33796 118.287 0.00780701
-10.9755 121.759 9.48455
-11.4089 123.22 8.65004
23.9269 86.7698 12.8308
1.10825 127.804 0.554565
-16.7215 114.894 -1.47486
22.332 122.54 6.48211
-4.04334 93.1562 -3.65937
16.4899 83.8565 6.50817
20.9637 102.297 3.51407
0.724037 81.3781 -0.395485
11.7106 116.497 7.9706
-5.97363 110.909 -3.72749
20.1154 126.968 3.64576
21.4476 132.881 4.0212
22.4248 99.7179 5.91805
-14.4314 121.353 7.99695
-3.23886 110.72 -2.87765
4.64339 101.396 11.6514
-1.95808 84.9323 7.36359
18.2159 137.914 6.03497
16.0004 138.199 5.90837
-4.32253 124.364 11.3266
15.857 119.234 3.7367
20.1847 87.8961 9.3176
-13.2473 131.902 1.11832
13.9197 101.332 12.946
15.8421 119.909 -2.6967
-2.40269 113.031 -2.27668
-6.68723 125.73 7.83798
0.709904 111.716 11.2682
18.6475 115.237 10.4208
19.9635 103.899 17.8985
3.15207 100.559 -2.1756
23.4888 122.628 1.93766
17.8186 108.693 0.905751
-12.9618 133.853 10.8714
-9.5828 134.774 10.6616
4.05383 93.1102 13.1533
-2.02591 107.677 12.8152
-17.0594 131.736 10.9386
21.9775 121.076 9.35506
11.2976 85.6764 3.75754
11.9089 88.6602 2.9093
12.1388 108.372 8.82824
8.19434 108.215 -0.77592
-13.2773 82.5911 0.243325
5.93832 110.767 -2.35681
27.5576 101.67 10.5872
9.76059 103.123 -2.22996
-12.2504 95.138 6.83318
9.41609 96.9058 0.579816
-16.4373 101.436 0.773976
21.6267 125.439 8.36595
24.3431 123.603 2.05954
-9.74262 127.935 10.0681
19.0414 130.339 1.77213
17.1013 97.6289 4.76808
-14.2694 121.454 7.19929
5.8931 92.1352 -0.708174
2.97105 78.4811 3.09658
1.94579 102.601 -4.7537
-13.7785 124.525 -2.90865
19.4496 110.583 11.2827
21.7915 114.273 2.945
19.0886 101.856 3.14282
-10.4681 80.214 -2.2735
13.7343 91.5745 8.22588
20.4153 97.2423 18.2505
22.6501 119.331 5.36899
11.874 123.946 5.9864
17.703 127.601 7.58591
-10.1913 124.598 8.6666
2.74927 122.263 -1.42872
24.0275 114.271 6.57953
10.6896 78.4171 4.87609
-5.90653 140.085 6.17065
-7.48825 101.274 11.0515
1.37803 95.0132 12.9867
-15.4091 119.046 3.60735
8.96826 106.729 10.0437
7.34285 131.161 8.37818
11.4696 90.8656 9.70742
-6.18664 81.4277 1.61699
-8.49527 103.79 10.4003
22.8745 104.778 4.10278
-11.4946 143.178 9.43942
13.7826 116.634 -1.91587
6.57548 87.9312 1.27183
21.6632 115.327 4.49005
-15.7853 119.73 11.4057
18.4975 90.2586 15.2347
-16.5275 91.9999 0.0550857
18.4556 128.152 9.06578
-11.4909 119.391 -4.90499
-9.7082 82.2619 -0.929896
21.644 132.165 3.9796
27.5329 102.099 11.1597
-4.02305 138.264 4.79565
-13.7704 143.017 8.04768
-20.4801 123.343 5.90845
15.7045 99.2223 3.84786
2.58515 81.727 0.758541
-16.6473 111.903 2.39016
-14.8616 124.993 0.55391
20.6775 99.9621 17.7399
-15.1218 119.264 1.50872
-2.42959 78.8742 -1.41742
-5.64148 85.4028 -1.99382
21.401 115.524 4.59011
26.6658 92.8669 17.5436
-15.0172 120.954 6.17562
-11.662 87.833 -2.51443
17.144 118.377 -0.17854
-14.6902 120.938 8.02736
3.58748 132.145 6.83688
17.3305 107.72 13.8509
-3.22474 83.1863 1.35792
6.90888 110.208 -1.14315
0.42728 104.562 11.9843
24.2547 101.242 7.05498
10.656 130.629 7.25473
19.7347 95.5577 7.35625
-5.78357 82.7983 4.57843
-12.5787 136.238 1.40748
16.6426 121.612 -1.79745
15.7784 98.3309 6.6909
2.08265 91.4584 11.2782
-2.35855 135.096 6.00028
-1.70033 119.931 -0.725125
-17.6732 132.019 10.5057
21.7467 124.798 8.65671
-1.53914 82.9643 4.92136
15.9223 89.1826 9.7141
26.4931 80.6523 15.1274
21.4654 117.385 5.5494
21.9646 119.452 13.4986
18.8746 134.084 5.82052
-15.7029 113.456 4.20827
9.37111 81.26 4.15648
19.4047 109.845 9.82402
-11.5602 94.7165 7.60926
-2.04318 131.219 6.66533
20.6196 117.668 3.86217
15.1254 105.704 0.804502
15.5516 103.724 11.9413
17.7698 115.306 14.4954
-8.64422 93.5049 -5.01551
18.7915 109.897 -0.125286
-1.59981 91.2032 8.83077
-6.48863 117.354 12.8314
-10.9861 131.288 9.2048
