ply
format ascii 1.0
comment Created by Open3D
element vertex 1965
property double x
property double y
property double z
end_header
5.26231 138.524 3.88218
14.4926 122.614 -0.0714046
20.7711 109.245 15.4704
1.56064 135.123 2.07438
16.3966 117.988 4.31225
12.7473 86.7469 3.09581
10.4441 97.8617 -1.02244
23.0812 111.604 8.66399
19.5498 114.431 2.92406
-8.5208 83.4801 -3.16764
12.6135 130.383 8.64444
16.3649 128.74 4.27549
-12.3544 100.66 -4.95174
-0.0949717 107.308 11.3592
-10.1225 77.4362 2.8294
13.5966 91.3503 0.607432
21.3256 133.698 1.4598
5.80182 79.0687 9.13943
-10.2525 84.2261 6.98317
18.7337 146.65 -1.52368
19.0079 97.3966 17.8097
1.00103 123.827 0.723676
-15.5553 106.724 0.989432
16.6749 121.915 10.247
13.0972 85.7965 5.74544
11.017 110.634 2.52824
-11.4376 101.791 -5.70883
20.364 96.9824 17.5183
17.7566 114.165 0.523442
6.90135 89.0911 10.6093
13.0749 95.7369 11.5524
24.0945 128.55 -4.48632
3.26013 84.4278 2.74879
16.114 142.944 -2.4641
9.97218 85.9101 4.73749
10.2206 97.5595 12.5728
1.87653 98.1238 -2.83525
14.7715 133.05 -2.46791
11.8007 142.565 3.17703
14.1923 94.5346 12.3876
9.32473 80.903 2.88936
19.8567 87.2857 16.7824
-1.11406 104.959 11.8663
21.2374 134.294 -4.50293
-6.9395 99.8326 12.3046
24.9958 80.7755 17.2905
13.5866 87.4914 5.18838
11.5025 94.875 5.74848
-4.96377 95.1144 -4.58174
10.3449 126.038 -2.42718
10.9319 85.6005 4.21174
14.3393 128.507 3.64466
21.9936 108.51 15.0565
-11.0853 100.086 -5.41503
-13.0529 105.65 4.27513
6.82205 136.089 5.71845
-9.86411 87.5342 7.42681
-6.35814 99.7841 -5.67447
16.8295 129.559 6.62186
2.06219 114.233 10.8145
3.22318 101.475 -4.05729
14.2419 95.0261 15.5125
-0.60984 84.7819 1.18338
24.3617 128.541 -1.88373
13.9064 130.586 4.59335
-13.7053 115.113 -4.79449
22.5662 123.464 5.63336
20.0187 92.9463 8.90054
9.35901 144.611 -5.03215
23.3559 128.245 -3.38196
6.78508 92.4996 7.29812
0.468877 118.965 11.513
16.4013 118.767 3.51959
9.2742 107.376 7.78001
9.99451 101.172 -1.32608
4.30671 118.35 10.1689
-8.43741 110.962 -6.19776
4.43328 90.594 0.412613
0.0176489 87.2163 0.390288
16.1381 87.1271 2.14437
17.7391 94.5461 7.61502
15.3692 99.8598 16.2444
14.5176 118.844 4.13026
-5.77338 111.669 -5.07282
18.0215 95.5665 18.1126
-14.8823 99.0797 1.57877
-1.72815 110.535 11.6434
22.8874 130.367 2.80381
15.1673 81.5614 2.63439
10.2272 151.825 -0.601674
14.3666 127.882 3.58304
13.3289 138.796 2.63094
10.4531 136.777 1.75698
14.5806 127.77 3.45146
0.562473 79.3571 0.0313846
15.9606 85.3399 7.62408
13.7857 138.93 6.60038
8.76146 132.142 6.72429
1.61511 90.4909 12.9455
-6.21307 95.7106 -5.40485
20.0618 126.372 5.13251
20.5776 127.688 -6.46911
16.6308 97.0525 17.1412
14.6877 114.294 5.01124
16.479 116.007 0.608697
-3.01492 124.772 -1.04562
26.9286 81.7218 18.3081
-3.73224 83.4729 0.401128
12.4763 88.8461 1.7215
16.3214 87.4893 12.8558
25.0168 128.307 -1.03382
2.6049 115.96 -2.47683
5.18337 136.241 0.123956
22.7955 129.007 1.97269
-0.403464 93.3493 13.429
-7.33419 86.0319 7.79914
12.2419 87.5603 6.01535
0.319575 110.388 10.9059
14.7177 136.058 -4.74276
25.7679 93.711 15.2034
13.4532 99.3005 14.3794
8.98391 92.3901 8.42685
15.4465 143.61 4.08416
3.00002 91.5545 14.2715
16.8398 100.123 17.614
0.672405 84.174 2.28563
10.858 143.919 1.12024
16.6709 128.436 5.6763
13.6812 133.403 -0.50581
15.2088 130.115 1.52331
16.3033 130.372 6.33903
-11.6028 80.5083 -1.60797
-6.56106 119.547 -3.79169
8.27137 105.021 -1.86979
8.85534 149.332 -4.47221
-5.98827 110.585 13.3628
9.60823 87.6105 8.91216
19.9888 120.068 3.17115
15.0079 106.104 16.9613
18.1872 129.646 2.63548
20.3249 83.4071 16.0807
-0.702362 104.208 -4.81152
5.70432 111.192 10.321
4.03981 141.61 -0.492351
-16.0142 109.915 -0.828334
-3.46085 91.8377 -3.76528
21.1108 111.068 14.5985
2.93764 88.754 1.97229
-2.88355 84.832 -0.760047
8.11921 143.134 1.03634
9.22846 123.253 7.07231
14.8715 88.0929 6.06484
22.3323 98.9904 8.60757
7.6762 126.33 2.84178
-14.564 91.7564 -1.79471
15.1895 116.472 14.8604
-5.56337 89.5343 8.75731
12.6353 111.047 14.7063
-11.8738 86.6544 6.22377
10.6438 125.22 2.85503
14.4139 111.718 3.50635
14.9575 124.18 0.136425
11.6066 103.609 11.3983
9.87986 98.5638 9.26914
23.0717 125.803 -2.84737
23.1286 128.368 -3.36952
-9.73401 93.1613 8.2289
16.3274 102.002 1.78014
-5.61935 113.341 -4.95929
-14.9052 86.3292 1.37489
-12.4077 89.3393 -2.45432
15.213 126.306 -4.75427
6.59622 114.822 10.5808
10.5387 133.464 2.99986
23.9446 99.0332 12.9493
4.49403 140.631 -0.845785
14.9715 134.655 -1.75632
-10.6825 95.0869 8.58034
-7.2911 84.6297 7.85798
5.36053 115.241 10.8543
-11.3998 82.2007 5.81401
11.0736 88.1546 3.88779
4.16167 117.613 -1.05426
16.873 120.992 2.24082
11.5328 132.138 3.79431
15.6908 87.2126 6.87636
26.5827 96.4719 14.3605
6.63145 94.1246 8.54613
-3.36215 80.0995 9.53055
22.1576 124.289 -4.60738
-14.7907 103.412 0.134227
4.03237 110.139 10.3322
3.61463 108.55 -3.84648
15.9407 87.1702 6.83699
16.3785 145.491 4.18002
19.3025 114.976 3.90687
16.742 137.868 -4.10061
15.2007 133.299 -1.43035
2.30982 113.214 -3.11419
-0.730058 119.166 -0.238086
1.50636 75.2731 9.72435
23.2627 88.591 16.6845
6.49637 120.862 2.68668
-10.383 111.008 -6.07718
15.0924 142.684 -0.619311
-13.2854 106.18 -3.75753
6.18658 94.1201 0.14574
16.1007 85.9395 7.74396
22.6105 132.887 2.10904
1.88397 125.867 9.5531
-6.94438 122.685 -3.24525
11.4117 95.4441 11.188
15.2818 122.078 -0.752434
19.2014 119.058 12.3463
-2.56898 102.555 13.8596
-8.81246 75.931 4.46308
23.6316 107.686 13.8662
8.24031 103.014 -0.901319
1.14494 128.173 8.0521
22.5631 126.924 -3.68688
17.9699 83.6842 7.97337
-4.74667 128.295 -2.55021
15.7737 98.9368 16.4715
7.36017 138.965 -3.84366
-13.655 94.4757 -3.11638
-13.0519 82.302 -0.0823479
-8.78742 85.5874 7.53116
-4.79216 80.314 0.501278
5.23714 85.5113 12.2961
-13.7637 98.4293 -3.91732
2.43995 94.6743 13.6365
14.6646 140.97 6.61793
16.3289 90.1647 12.4355
13.3252 141.665 -0.558676
-14.6749 92.3182 0.704317
19.0773 114.504 14.6412
8.80977 123.582 8.05072
13.3504 123.354 12.6728
6.86801 135.487 6.59999
4.51684 104.948 -4.06609
7.52657 123.651 8.96075
16.0332 97.3143 16.4483
-8.67363 75.9475 3.54002
12.4399 133.951 -4.21432
14.3872 133.065 2.19331
11.6754 105.635 12.5423
-12.5331 102.307 7.25557
16.267 92.4524 5.9787
8.65101 133.852 -2.56502
-1.52404 101.387 13.2504
15.3856 89.9869 8.85959
14.4043 121.504 3.42822
11.2924 127.015 9.65617
5.51739 88.9622 11.9677
7.92275 122.602 8.85015
-3.48932 102.509 -5.55332
3.4329 136.885 1.6618
-8.83436 84.0392 7.69214
4.27192 122.602 0.773382
15.1801 84.8025 7.41831
15.3896 97.1179 6.2994
11.0869 89.0125 5.86973
5.3217 104.087 -3.73582
19.9433 92.9934 8.68916
17.6795 120.475 2.82622
16.7138 121.287 11.2614
16.6939 114.759 -0.23713
10.541 106.082 3.92046
-15.2188 97.6343 -1.6838
15.8095 123.909 -5.07483
10.919 83.5091 4.02765
15.273 85.7496 8.42518
-11.4026 80.2311 -1.30253
5.8598 108.081 -3.2866
22.2239 128.356 -0.18153
6.65791 136.495 5.35211
15.5611 89.4498 10.0693
15.7008 87.0156 5.78879
14.7662 91.4102 9.87485
13.8894 97.6881 4.80325
17.2457 83.6243 7.80612
-11.1453 109.059 6.49515
14.3759 107.345 4.95786
7.25943 90.6343 8.96327
10.1969 130.526 5.51745
10.2439 136.333 4.77851
14.8478 134.149 -2.02081
22.3841 139.012 -2.10694
7.45029 119.524 9.88116
-8.66993 96.2235 -4.98759
-4.73244 97.7724 12.8058
14.3486 86.3901 6.06599
8.18158 112.952 9.45502
12.7803 116.223 14.2432
3.0565 118.993 -1.866
4.26872 139.962 2.41063
8.67224 115.995 8.25265
11.1322 146.526 -2.26839
-13.3502 104.789 -3.67289
18.7411 103.053 16.9701
-3.83406 109.856 -3.77291
9.51238 95.3693 8.50739
19.773 82.1424 8.19759
13.5395 89.9545 4.8801
11.7434 140.594 1.54049
8.63629 80.5834 5.10784
2.15559 115.932 -2.49414
24.4199 100.668 15.2369
20.2117 123.719 -6.38442
12.3563 139.812 2.63534
16.3601 93.2557 6.59957
22.4314 81.5255 11.3027
-7.25265 106.287 13.0189
14.6115 108.802 3.36193
13.4058 109.461 12.3345
-0.0320527 94.5117 -2.6115
21.8919 127.989 0.336833
20.0751 81.0467 8.10126
-3.51051 103.812 13.7727
22.0789 134.612 -0.0709947
23.1349 106.942 11.4179
12.5738 93.8977 0.669617
-8.1826 76.0496 3.95057
23.0201 110.8 10.5913
20.5282 137.291 1.58099
14.2427 127.326 8.23475
9.24793 101.588 5.39537
18.2491 129.99 4.64381
-14.0103 94.8953 -2.98479
17.5502 95.6622 7.52767
-12.3999 116.498 -4.51675
17.0289 108.121 16.6856
14.0255 116.032 14.937
10.4664 104.537 5.05786
11.5553 112.888 3.38963
14.6281 143.727 0.000845924
13.8144 128.213 -2.64618
-10.7073 98.6594 -5.2797
15.3516 88.6698 6.00954
1.98533 82.5722 1.20698
-11.0387 106.563 9.7943
25.322 80.7069 17.4052
20.4741 81.2912 9.12908
19.3612 122.647 5.84276
15.9334 125.149 5.18588
10.8861 101.207 -0.242191
24.2785 89.9361 16.175
12.8509 144.232 5.22098
18.2124 126.183 2.06145
7.33083 111.779 -1.65314
0.912084 92.8536 13.9609
18.4818 111.861 0.770105
23.41 124.738 1.07716
6.49514 139.073 -3.32424
15.9359 137.331 -4.24852
-15.7479 111.555 -2.02214
10.0483 127.331 4.97816
11.9813 108.987 2.5141
4.6318 131.075 2.69181
0.663657 81.5762 0.280234
8.76969 133.127 6.96401
10.8523 108.766 3.81242
7.0706 144.648 1.33726
19.1895 146.107 -1.73907
0.931304 108.756 10.999
15.4421 92.4022 1.93305
14.634 92.7118 10.4606
17.9441 122.638 4.3427
13.3262 92.7006 8.69434
17.526 126.962 6.34133
27.0225 90.228 15.7147
13.7745 123.747 -0.0195755
8.90533 100.137 -1.27472
14.335 124.9 3.17714
17.1631 115.313 -0.544347
9.58274 145.773 -4.81012
9.46467 104.686 8.34495
12.9657 147.205 -1.27206
-14.6998 97.6495 -2.71172
12.0803 131.438 1.5487
13.7901 88.6933 2.69546
11.7729 131.557 -3.59778
2.19158 124.171 9.79903
15.5886 111.768 15.6854
13.1798 104.919 1.33746
10.9866 128.582 8.11484
7.71188 90.0719 7.97281
20.0453 105.258 2.5866
12.0114 135.427 1.93127
7.27227 92.0451 -0.391851
7.12062 117.54 10.2067
-13.4512 107.693 -4.44257
11.3353 84.5393 3.03694
17.9168 97.0617 18.1041
16.6699 91.046 6.00768
9.88247 115.786 3.56926
-13.4529 103.204 5.45612
19.5783 86.5351 7.26524
15.5283 94.8769 16.7746
11.5019 84.6506 3.07146
16.3303 117.66 1.80915
17.0235 97.4875 17.7195
0.396854 116.482 -1.44643
20.9492 126.816 5.98593
20.1468 105.187 2.81823
13.337 125.129 11.3985
13.63 123.814 12.3869
24.218 129.287 -5.57845
14.3114 112.628 4.17839
14.5343 125.341 10.8411
-1.17125 89.4637 -1.19173
13.1244 102.305 5.37337
6.99024 117.418 10.2899
4.73138 99.3413 -1.07818
14.2433 87.7372 6.96967
-13.4899 93.7996 -3.12314
13.5199 138.176 7.06263
22.6557 113.375 9.39094
14.6583 133.615 0.424001
-14.9755 96.4517 2.07835
14.1803 134.435 6.61124
27.8637 87.1717 16.9238
21.4452 92.12 17.1894
12.951 118.993 13.6656
13.1203 133.173 6.79816
24.5236 86.5818 16.7356
2.21111 132.508 2.17969
7.03286 105.354 9.12705
18.1936 120.189 8.52797
-3.19453 104.356 -5.19259
17.9082 110.69 2.10524
20.2945 82.2309 13.3958
17.2827 90.8662 16.6301
12.747 80.9406 2.92601
15.4959 121.658 -2.1533
20.0255 114.227 14.1962
21.1455 111.703 14.2882
15.5122 86.434 10.1266
12.5301 135.292 4.42851
17.2006 121.189 0.661786
3.00375 91.763 14.0656
16.4454 119.671 1.39199
9.18468 152.241 -1.62294
-4.32413 121.763 -2.64935
9.48298 122.601 5.45172
24.6326 80.6661 13.2477
8.26735 128.408 -1.11085
13.3235 151.144 1.49133
8.06832 110.907 -0.768592
7.96754 138.398 2.66919
17.1817 84.728 11.9165
12.3937 107.848 2.29561
12.5414 98.0689 13.8137
26.4153 91.6718 15.3367
-1.07897 110.913 -2.42598
2.56035 133.345 2.47913
10.7581 137.402 -5.01359
-9.87267 113.837 -5.65108
10.3778 95.607 -0.911381
17.3064 93.1226 7.51506
-9.69252 93.8832 -4.26327
6.29611 113.523 -2.10895
-2.90356 95.2603 -3.7018
-4.57203 77.8511 8.26633
19.1259 125.368 3.00709
19.5846 91.6264 17.5066
10.5003 100.087 -0.178352
-1.44774 88.7051 10.0962
22.954 104.063 7.03586
-5.41081 122.856 -3.01922
14.751 120.741 4.88495
18.0833 119.792 2.52628
11.6606 128.665 7.41389
-13.7915 81.1679 2.09381
-7.74764 126.505 -4.62557
22.0618 120.965 3.79141
13.7694 105.784 16.241
16.4371 121.771 12.8428
22.5588 130.456 -5.84508
10.3844 125.446 3.42455
1.83923 81.3696 0.329711
-13.8591 104.974 2.18928
-6.36857 73.6636 6.21367
9.44917 94.5935 -1.5005
-0.645288 102.537 12.0178
-10.3024 119.272 -5.09106
11.8402 90.2324 0.431514
9.15907 100.469 5.28254
14.6449 142.633 4.99196
11.414 101.836 -0.811125
23.0809 82.2202 11.5769
1.44491 103.044 11.199
-0.646828 123.896 0.582409
-2.00304 105.348 12.6387
11.8786 142.101 2.94334
20.9362 108.134 3.10251
16.3919 138.625 -3.90394
-7.8938 85.3386 -3.27696
-15.3428 99.2177 -0.48062
-10.084 122.262 -4.60682
9.51196 109.397 6.71083
23.1982 131.951 -1.10002
9.45509 106.833 7.244
-15.0319 90.0277 -0.111922
16.6613 111.914 15.6339
20.8114 120.968 6.78029
-11.6242 84.1158 6.1242
-7.12317 82.4978 -1.63881
-14.5418 104.65 -2.53016
18.7231 90.2415 17.5737
22.3507 129.794 4.58782
12.5015 118.584 2.5583
6.49334 99.3344 10.8128
8.76102 131.32 6.74584
-3.21559 95.5653 -3.95963
-5.30138 97.3272 12.3316
4.29315 89.7252 0.756324
22.2553 114.045 9.78142
15.3754 125.233 -4.89627
11.0041 88.3169 1.34056
-5.42486 103.837 13.7824
11.3375 123.348 9.49559
-6.88687 102.75 12.6843
11.0502 101.55 9.60464
-0.798566 89.5748 -0.833694
4.48192 141.846 -1.36709
12.718 99.1011 5.14668
-6.09962 94.3543 10.1962
3.21801 81.4022 11.4944
12.0922 114.13 13.8951
-0.695556 87.526 -0.111763
16.5378 129.94 0.363762
14.5775 112.105 15.6065
16.8001 86.3579 7.39794
17.0541 133.233 5.35405
17.7972 81.6978 5.27208
18.5608 120.279 11.3271
16.2478 122.082 10.5083
22.4564 137.034 -2.34248
-8.87742 111.521 -6.18629
6.77623 100.518 9.97787
22.9323 84.2383 9.95169
-6.53881 80.6504 -0.98825
15.8456 106.102 2.34057
22.4248 111.173 8.41914
3.16326 91.1465 14.1129
10.1956 105.704 5.46536
3.95917 125.882 8.12357
22.5955 126.962 1.78033
9.46122 100.904 -2.17817
9.68497 138.357 3.08574
6.4961 132.837 -0.892387
9.94257 116.254 3.90093
22.9556 110.445 12.1507
-11.8367 99.375 8.35986
1.42535 88.7351 1.08447
18.4094 120.447 11.6846
-12.7654 83.7472 4.83833
-4.00329 130.618 -1.80569
9.53005 83.7808 6.78481
21.5342 105.911 3.56203
18.0695 116.537 14.4203
-6.41852 104.886 13.3072
-5.14324 101.987 -4.94293
4.6065 116.014 -2.20309
22.8078 112.523 8.95525
16.5924 122.7 1.73644
17.539 87.0862 3.11703
-7.31612 81.2787 -2.22977
9.56979 98.3602 11.7825
-2.32515 90.527 10.133
9.58632 92.5173 6.61236
10.9155 138.718 0.573637
22.8856 89.2296 16.9019
13.5955 132.32 4.01348
14.1247 146.875 0.166754
14.6207 87.6483 6.42649
21.3285 127.414 -0.729635
19.9717 126.614 5.41904
11.3045 113.406 3.50269
-6.79004 81.9559 -0.646858
4.46465 79.6689 1.64889
8.98722 126.642 7.25798
23.6921 92.4814 16.391
6.37225 142.133 -3.34207
11.4634 143.792 -4.16262
24.904 104.195 12.706
17.6843 130.285 1.3289
15.4106 94.0012 5.70457
15.4383 100.304 3.76707
20.5893 99.283 17.1129
4.88614 112.696 10.3285
24.6026 104.875 13.6823
17.6476 141.807 -2.88089
20.5697 127.444 5.41756
-13.9666 87.1833 -1.29304
-5.21384 75.3192 8.82247
14.807 123.036 0.388717
18.3511 137.756 2.51821
-6.19885 77.0046 7.96586
17.2248 106.945 16.8503
-5.51776 80.4533 -0.210984
20.7589 111.624 6.92361
15.3628 128.344 2.50832
-15.2046 113.368 -3.29892
-7.55986 78.6613 7.55352
7.76184 108.733 -3.43845
-0.345775 82.9478 1.94799
2.31452 101.683 -4.33985
21.3208 133.097 2.20079
12.6781 149.5 -0.38604
21.6012 87.0075 11.0482
19.1818 97.0574 8.66579
-3.47684 119.961 -2.76527
-2.95568 80.9263 -0.945932
7.24884 138.719 1.72175
-11.1006 92.0593 7.32263
10.6099 79.8481 4.39734
15.7646 140.739 -3.14441
12.9151 81.1598 3.21163
17.4134 122.246 9.61628
-4.24397 74.5144 8.9471
16.592 120.502 2.55679
21.4109 95.0335 10.0845
13.1402 113.296 3.32393
12.0268 121.348 -1.40936
4.27506 99.1645 -1.39464
21.9286 93.1717 11.1342
22.5957 132.776 -4.51808
11.3789 82.6215 2.27112
15.629 86.6488 2.38105
4.74352 122.636 8.70149
14.6092 122.587 5.13383
4.6392 116.266 -1.3097
0.433171 112.549 10.6289
16.1061 93.1352 6.03145
4.56655 93.0391 10.4168
24.8167 128.136 -0.493007
16.9571 118.349 3.81245
14.9886 116.234 -1.16853
12.7867 100.096 2.48337
7.172 135.731 5.68826
-15.105 103.982 -0.0336967
-13.6598 88.6774 -1.93783
11.4773 95.6629 7.35378
13.3456 133.485 6.31313
3.40961 101.184 11.4541
-4.23634 76.9798 8.33132
-8.45308 76.5402 2.02815
22.99 108.227 14.4666
1.08189 121.862 11.0257
-3.52609 126.449 -1.01401
8.71338 93.3968 8.73441
-12.4481 104.915 -5.40482
6.39304 90.2594 -0.160667
8.96735 93.2337 5.83166
27.4157 87.1018 16.8335
20.1653 137.347 -4.84583
19.5496 121.555 4.70552
-8.69661 111.058 -6.24757
6.58563 116.251 1.68797
10.4119 124.764 3.24911
3.80001 130.514 8.20112
18.5824 104.404 2.04186
12.9567 91.2319 0.430215
25.8449 99.5625 13.7072
-5.08579 110.358 13.1695
-6.16961 81.3785 -0.960166
0.75433 73.9476 8.69162
27.0646 92.7357 14.9884
24.1867 84.9117 16.7687
19.2737 121.542 8.19906
-2.26408 95.1892 12.3116
22.1578 80.5831 10.5589
20.0784 118.645 7.49883
-1.32303 93.8107 12.6995
-7.30724 79.2533 -0.308198
-7.6439 91.1207 9.1042
2.54603 112.205 10.3598
10.9032 129.115 4.22142
-14.5119 90.2253 1.13171
21.9946 141.076 0.415008
13.9472 130.675 -2.18646
9.63922 99.2802 -1.98032
-5.76843 93.8033 10.2613
9.55352 121.91 4.59297
-2.12169 85.9336 10.3078
11.6378 151.281 -0.326478
11.7078 87.6867 3.86348
-6.27764 127.605 -3.42276
19.1342 87.1483 7.30179
4.81492 138.237 4.67799
18.0944 119.761 12.7157
23.0168 128.083 0.105679
16.4209 92.0329 6.16869
9.26839 150.778 -3.44205
19.3486 139.473 2.42179
17.7025 134.036 4.44536
-13.3888 96.8653 6.07183
22.5763 109.444 9.62067
20.5383 135.498 1.43705
14.0309 130.843 -1.37313
22.9887 125.921 -2.8569
22.8371 108.497 14.4885
11.5497 101.772 -0.7439
-12.1691 85.7479 -0.80676
13.6195 94.287 9.40425
14.5875 121.56 4.21078
21.0559 125.433 0.421152
-5.12516 104.79 13.9675
15.7486 148.06 -0.514196
21.8552 91.8967 17.1573
17.5589 97.7494 18.0739
-12.5888 81.5233 -0.816189
16.3921 121.625 -1.61484
13.9738 101.116 0.671908
-11.6256 99.5374 8.59293
-0.584486 80.5399 10.5573
19.3975 82.5531 7.39791
10.4933 101.57 10.861
-12.6899 90.8042 6.27656
23.289 109.658 10.4893
18.5873 103.423 3.80697
19.8821 137.612 1.8749
9.31954 125.946 6.34093
20.1702 105.583 16.4453
22.5493 126.898 2.11965
4.92986 80.2273 1.55844
19.988 110.756 2.21124
-7.90048 75.3306 7.8858
-0.0848548 101.055 -4.98167
21.1749 133.039 2.38078
15.7075 134.988 5.98198
9.00792 107.077 8.91281
6.66279 88.4518 0.491348
8.68075 151.429 -3.08232
13.4917 109.862 11.4879
18.3629 118.843 13.2007
7.15194 124.475 3.37272
9.05347 88.5865 5.46169
12.9071 91.3181 8.43337
15.1144 94.6326 5.83503
22.2056 112.989 7.32841
11.8622 130.796 6.04218
21.0238 108.237 15.5533
24.9559 127.394 -2.15636
11.4414 103.219 -2.27845
13.3651 113.176 15.3932
-1.96835 82.753 1.70566
-7.569 116.352 -5.40282
18.0771 124.681 9.05478
-11.6026 107.051 7.26846
20.9957 126.684 -6.91385
-12.6183 80.6972 4.8047
-1.61535 114.222 -1.74235
-7.27017 112.062 -5.85398
21.0372 124.505 6.43089
6.89201 103.143 -1.49009
9.16349 112.589 2.11392
4.36677 129.876 8.36994
17.9926 122.587 4.31895
-12.1697 108.267 5.13017
-0.840608 94.0462 -2.78313
-13.6941 101.974 -3.78063
22.2484 83.2159 10.0042
4.51649 115.188 -2.41306
12.027 143.902 4.04795
17.4437 99.6083 6.05853
-12.0277 79.5407 0.441334
20.585 110.404 6.13064
-13.9951 110.159 -4.4754
13.378 103.198 5.15796
-10.2367 102.447 10.092
-9.58462 101.685 -5.88516
1.0419 93.627 -0.795011
16.5767 93.4547 16.5588
13.2817 120.444 2.59535
11.1823 139.894 0.423473
22.4792 91.0525 17.1178
11.6735 121.966 9.54702
24.2264 132.473 -4.85088
19.9877 109.745 1.77979
23.6785 127.589 -1.13107
14.5757 126.174 3.59754
4.45846 85.585 2.02399
9.99483 99.0505 -1.77211
1.91696 133.111 2.11797
22.1033 90.6804 17.1974
22.6544 124.165 1.83083
10.6263 100.915 12.5117
17.1691 121.613 -1.17643
16.7748 123.008 -0.0912104
24.6004 87.3462 15.6469
-11.7121 101.966 8.40134
18.0103 125.812 -5.78029
-4.31974 79.4685 8.62336
4.64152 104.219 10.2548
16.2228 124.59 5.37844
-4.82957 78.5275 8.22304
23.8788 108.122 13.3486
11.6491 132.772 2.1918
-3.40303 95.2227 11.8409
15.7752 101.885 0.991465
7.05919 130.332 0.707446
4.17777 89.3084 0.964708
25.5118 83.9626 15.7319
8.74761 99.6182 5.22982
2.06808 95.7462 -0.324165
22.6189 99.1358 8.58249
24.9311 127.909 -0.711604
8.97022 79.9995 0.428001
4.17169 144.638 -1.95141
16.9287 122.653 2.82041
-6.5219 80.6008 8.12079
-15.0094 113.954 -3.71058
15.7186 127.64 5.20075
15.1346 119.847 1.97178
0.878974 88.4875 11.8453
5.90345 93.3789 8.89985
10.9633 81.9 4.63005
16.0584 148.538 -0.841117
-8.3287 75.4977 5.355
8.10863 96.7424 -0.720198
8.1305 78.0442 6.14166
-3.75404 89.7722 -4.23267
15.5222 86.1627 7.84073
13.5424 132.979 -0.350974
17.8243 98.7967 17.9207
6.8844 83.1691 1.79077
-7.76436 125.599 -4.57968
20.7613 135.319 -4.8151
12.1614 144.004 4.2495
20.9634 112.519 6.60028
-14.5922 112.303 -4.04092
14.7385 107.518 9.34588
10.18 90.6403 7.45789
12.3672 151.942 1.00636
12.1556 133.849 -4.03646
-5.85088 97.2921 12.0158
23.226 124.753 -3.63677
-12.225 105.6 7.30754
12.9714 99.1602 5.31535
0.507971 78.7094 10.5956
13.1223 105.615 1.72053
20.2443 86.8837 9.00497
17.5419 108.263 3.05346
12.6934 107.395 13.1405
21.4923 128.094 -0.272452
-2.64466 89.2675 -3.35697
-10.8417 107.835 8.55033
10.8733 133.301 -3.28938
19.3173 118.391 11.4523
24.2163 85.5215 16.6798
12.8016 141.98 -2.50221
22.9963 103.995 10.6503
-9.15641 79.272 -2.24621
24.8032 95.4684 12.8886
-14.9391 87.8956 1.62645
-6.56386 103.858 -5.74796
13.3606 116.123 14.6185
14.5975 122.502 -2.35084
17.8026 86.723 3.30989
17.5927 135.915 3.26946
12.6185 107.105 2.1213
24.8682 93.5516 15.588
-0.192437 124.706 0.649916
24.103 127.635 1.0702
-11.241 91.778 7.2465
19.3347 104.083 3.45301
15.826 103.038 1.45593
6.67711 79.7109 8.49731
11.872 120.743 -1.46678
16.1994 86.2775 12.8418
12.0878 103.421 -1.10982
2.97693 124.126 0.5691
23.0321 124.916 -3.78785
11.9383 133.1 5.43492
11.6114 148.784 3.11041
9.29106 80.0166 1.14537
14.3971 95.3175 4.0362
13.219 101.142 15.3968
15.9858 106.377 17.0025
13.5316 88.5793 2.58495
-14.6173 82.2034 1.89942
8.73182 116.274 8.16809
15.4944 126.872 4.94285
24.4721 127.686 -2.99205
15.3353 107.389 3.08185
11.1106 146.198 3.56624
16.3337 91.004 13.9182
23.4968 102.287 7.71932
9.37023 79.5296 4.54751
12.9047 117.172 2.71728
10.0896 106.643 -2.88113
8.07794 147.913 -4.55693
13.5464 133.196 -3.9924
15.6106 85.9455 7.0576
18.6307 128.846 -4.8909
-12.6646 83.5729 -1.65591
-9.88949 95.4779 9.14839
13.0336 147.27 3.57693
-0.956631 95.0098 13.6411
-13.4079 105.488 3.04691
0.991844 106.837 -4.32427
11.7867 120.26 12.2888
-15.0235 94.9028 -1.14258
-10.0184 78.4236 -0.933496
6.87247 129.999 1.89251
23.1256 131.145 2.25392
24.5265 83.6754 13.0447
21.636 136.368 -4.6698
6.74104 146.502 -4.21188
14.7373 122.571 -0.467554
27.9193 89.1194 16.1917
-4.91493 103.779 -5.5498
8.01471 114.49 2.13078
12.7919 121.127 13.0497
18.4094 123.52 -5.61333
7.35013 93.5153 7.24925
-5.79322 99.0131 -5.51862
10.2956 98.9287 -0.461906
20.8003 85.4771 6.51702
0.933978 85.897 10.9017
5.20723 142.51 -2.69407
-14.0978 108.596 -4.16242
5.20364 101.314 -1.92469
25.3781 97.9192 13.8362
15.8454 124.29 3.8242
11.9675 104.412 11.6902
3.81887 122.089 -0.319444
11.1553 133.006 2.71469
24.3935 95.2002 15.7613
-14.4842 103.306 -2.18633
-2.52238 80.9248 -1.14653
18.9202 124.414 -5.38286
12.2766 115.483 2.37642
9.07696 102.931 6.05759
11.6196 99.196 4.65925
22.7126 97.974 16.4768
9.4814 85.0554 5.78563
11.3546 88.3663 6.3204
14.7031 106.976 8.79601
-0.232708 78.5269 -1.50119
14.6287 122.013 6.03694
0.284335 106.899 -3.98792
3.06905 132.865 2.53556
20.5535 119.188 6.73902
19.2926 124.266 -5.01265
-4.25155 88.727 9.30593
12.0716 105.304 11.9694
13.6997 126.804 6.29376
22.7389 124.752 -4.55289
18.0141 87.9023 16.3258
10.1369 84.3418 4.16853
10.615 89.6271 6.37989
15.5862 100.712 2.8805
5.87614 97.1934 11.6953
-4.12551 114.702 -4.06175
14.049 137.777 -1.20625
-14.9411 97.3833 1.27232
20.5501 102.702 16.6889
-6.37874 109.112 13.6929
17.5344 89.5608 5.87238
-3.70725 119.577 -3.17841
23.9217 81.727 12.1998
12.2905 119.515 -0.145403
12.4604 144.279 -1.72388
-5.19519 83.543 8.56096
20.3001 120.091 2.7518
14.9561 114.985 0.275455
4.23161 88.9525 1.03917
10.0272 92.2878 6.462
23.357 131.675 -4.89742
9.94801 105.223 6.72764
12.7424 83.2474 6.81566
12.0536 118.273 12.6175
14.527 147.578 0.298172
21.747 110.317 14.6277
-2.80956 87.5537 -3.24567
20.2357 81.9317 10.6152
-7.92888 77.1973 0.580162
11.3862 95.0831 6.60158
10.281 139.54 -4.89347
5.99617 127.297 3.02668
18.096 130.506 4.8925
-13.1942 108.739 4.92104
0.656943 78.4683 10.5525
14.1662 125.818 2.74499
11.0128 116.822 1.68377
16.1905 84.6817 8.95567
-5.16321 104.645 -5.82634
7.52414 86.8714 2.66303
26.6084 80.5933 17.7904
-8.82399 82.9015 -3.13522
21.8497 139.227 0.894174
0.191822 134.201 1.1499
6.71259 112.94 -0.671763
-2.97195 109.786 -3.34774
-4.72325 87.5451 9.17485
24.6092 129.798 -5.32663
15.6202 89.3549 5.65376
12.6592 97.3806 5.63417
15.1083 123.368 -4.18766
2.6774 101.728 11.2866
-15.711 107.951 -1.16456
21.5086 113.936 13.1632
13.7107 146.382 0.0131069
8.09003 83.0411 8.78378
3.24832 112.802 -2.95165
10.3744 80.254 1.46968
16.3711 127.756 7.26154
-2.47692 90.6223 10.0798
-15.1084 90.4022 -0.503684
14.8223 148.507 2.97508
21.3366 84.5586 7.972
10.6697 101.733 5.10372
15.1277 128.16 0.0180113
19.0699 124.923 6.84478
16.9251 119.559 13.7601
1.03131 95.9321 -2.13299
8.51488 78.721 5.23656
21.1013 124.536 6.73912
8.97008 85.4456 9.21916
15.6092 87.2502 6.05295
18.6654 126.654 -5.71347
21.1624 80.473 9.35683
3.90463 124.203 0.457644
-4.45564 100.385 -4.90781
15.1034 118.153 -0.854261
17.2996 137.447 3.1047
14.5668 106.341 9.30745
19.4823 121.845 8.07881
14.5739 107.409 5.56082
-2.97407 79.4358 -0.7546
7.21573 145.046 -4.30046
9.74627 131.449 5.74997
0.0191212 115.167 -1.47517
7.2883 112.098 10.2182
-11.9203 96.5989 8.28283
8.84803 93.3179 9.5472
-2.72022 84.344 -0.132429
16.3631 116.869 1.77452
7.83937 144.544 -4.62554
-13.0256 102.953 6.29351
22.4158 125.392 -4.32464
19.956 87.4104 16.8446
-7.99667 113.559 -5.92632
11.491 137.229 0.566867
6.88285 102.257 -1.0519
12.816 149.923 2.40864
-13.8514 91.0231 3.88767
11.9405 98.1869 4.82484
11.6675 101.913 9.34423
15.7547 130.908 -4.42797
24.3083 86.4454 16.8485
18.2227 133.861 4.08599
4.40712 95.2387 0.485203
-14.1397 107.502 -3.60282
6.20853 145.188 -3.73317
14.3494 104.881 16.1909
22.5925 105.864 10.1372
14.5757 127.688 3.66642
13.2212 98.028 14.4806
7.95254 108.943 -3.41027
22.6486 103.326 6.18547
-9.03483 82.1402 -2.39715
-8.9276 117.859 -5.27731
5.40198 91.5191 0.182574
10.9512 82.8184 2.38116
27.1941 84.7907 17.375
-8.3869 112.728 -6.04933
-8.84583 96.9468 10.3071
-6.68322 108.72 -5.60096
9.64958 98.9011 -1.83156
10.8441 131.971 5.05411
8.96951 96.3049 -1.26609
14.379 144.101 -0.0238192
7.80072 127.822 8.47311
18.7613 138.368 -4.47183
7.31005 120.197 3.3736
-3.08938 88.4561 9.77689
20.8683 125.477 6.45903
19.7884 81.6893 8.63393
8.96095 132.446 -1.9059
2.29762 93.151 0.735963
5.19089 119.652 9.59067
-2.34515 123.491 -0.708431
23.2833 124.073 0.721007
4.67209 80.3506 10.3876
20.4754 119.101 1.1906
-14.9604 103.314 -1.70932
9.93892 104.975 6.93171
15.1531 119.509 -1.10285
7.13287 131.001 8.05116
-9.57701 76.2441 7.37753
12.1298 121.412 -1.41909
16.5416 102.938 1.39155
-1.21779 127.052 0.839443
22.1245 107.418 6.98515
20.0755 126.973 -6.67292
13.3285 148.168 -1.39318
23.9716 128.591 -0.459856
-1.99143 123.213 -0.129579
-1.54654 91.563 -3.20985
10.7978 147.155 -3.30038
11.5866 143.45 2.88796
15.1848 124.538 2.489
14.864 109.572 7.62381
13.5689 107.797 2.94374
12.3328 80.7409 0.839864
-2.96792 79.6938 -0.583639
9.37037 80.3256 4.45344
-10.5414 88.0341 7.31029
-7.93719 79.5676 -1.38041
-1.39657 122.832 0.42339
7.82629 88.6646 9.63691
6.02501 132.779 7.72388
17.1411 137.358 3.59089
22.4538 123.12 3.78748
5.75759 137.322 5.23758
10.804 146.46 1.60769
21.47 103.198 16.2906
-0.814889 127.745 1.00308
7.19383 104.266 -1.98884
28.1334 82.3545 17.4783
-9.19837 89.5841 -3.83539
-5.00525 101.016 13.6918
0.805102 99.426 -4.47587
22.0011 135.657 -4.67204
-15.128 87.4743 -0.435002
13.6452 89.7427 5.40937
-0.187274 89.2935 11.2528
-13.1117 103.789 6.10937
-1.91338 117.706 -0.987642
12.9254 125.621 1.68394
19.2729 102.595 5.30599
23.0239 131.714 -4.7632
15.0808 127.203 7.92999
11.4682 123.859 10.7558
8.59429 114.572 7.78902
24.0673 79.7285 13.0495
19.7858 122.17 5.84093
-6.32277 125.067 -4.08666
-10.9744 93.9804 7.94145
11.5256 121.905 11.4024
3.49326 123.953 8.87409
19.9788 113.954 14.2795
0.849699 100.32 -4.73931
8.89181 120.155 7.97196
-2.35098 110.507 12.1746
-13.1011 95.7326 -3.71685
12.4223 126.295 1.67671
-13.4696 102.937 5.43059
18.8298 97.8164 17.9351
13.1795 150.975 1.82661
9.62337 83.751 6.51984
13.8952 129.346 1.64592
23.0077 79.6275 11.9787
8.3487 102.059 6.74624
23.7295 128.311 4.88505
-12.6627 117.316 -4.41641
22.2923 129.427 -6.18886
13.5739 130.458 1.28853
-13.4957 95.8589 -3.55053
3.83917 94.3719 0.541767
10.8733 148.395 2.73211
11.2747 123.846 2.36857
6.75929 102.259 -1.14699
7.8974 129.346 -0.933243
13.3307 141.77 4.47021
15.3446 90.0101 9.34978
-4.819 99.8994 13.5717
-4.29818 93.9884 10.7287
-8.47563 77.8972 1.29039
-11.0306 95.3673 8.46258
11.5904 118.205 1.06713
-0.576989 120.883 0.31095
14.5093 113.554 15.1609
14.1715 86.2759 3.08675
12.9331 95.3372 1.90529
7.09571 81.7491 9.29185
22.5928 105.664 10.3294
13.2539 97.069 15.1399
19.4522 118.163 11.6155
-4.0594 84.6887 -1.04384
24.4942 127.485 0.983426
-9.92532 75.4348 4.29789
20.5617 85.3359 5.9281
15.7124 108.138 3.31453
18.3492 127.115 3.48764
-7.81609 82.1285 -2.44188
8.56648 88.9836 0.557073
6.14657 132.373 0.917786
19.3164 125.768 7.85451
18.4216 130.902 5.45368
4.61333 82.9824 1.21104
16.0067 97.1002 16.4607
-2.83367 79.6511 -0.688626
-12.1717 78.8858 -1.37155
8.9267 92.361 7.72237
10.899 80.1114 2.91401
9.936 101.042 -1.34786
10.1282 151.586 -0.829588
14.056 85.4203 6.00298
-2.42228 102.945 -5.25554
-1.44841 114.159 -1.7257
-4.62728 92.1289 10.0716
0.695754 96.5721 13.3917
-7.66384 113.754 -5.7904
11.8692 125.986 10.2937
1.75051 98.4892 -3.59506
9.22796 92.7215 -1.19303
16.1858 124.174 4.39772
-8.24795 92.2859 8.88358
-2.91137 104.231 13.6361
-13.9178 107.46 3.3077
0.99394 115.912 -2.05386
13.6888 128.575 5.84777
8.41458 148.04 0.701707
9.42025 118.514 5.69014
9.31358 85.3834 8.59924
-7.9861 111.522 -6.05638
11.8958 138.504 1.09404
-0.84442 98.0154 -4.281
-2.58862 84.8625 10.2681
9.40315 86.9771 7.94271
23.671 100.933 12.6485
14.4102 91.975 8.18304
11.8083 94.204 -0.0571582
4.2571 139.871 2.72679
21.1012 127.067 6.05116
10.2766 145.055 0.964435
0.45859 130.094 1.2401
-3.49701 113.567 -3.48228
-8.81046 100.013 11.0737
4.59989 118.878 9.88519
23.2938 108.478 10.2441
25.5955 89.6387 15.9962
12.8007 140.852 -1.2007
17.1951 127.88 3.43679
14.1503 126.799 2.48955
15.3859 86.6615 7.78727
-3.73837 83.733 9.54134
2.7634 97.9216 12.8472
-10.2713 79.2187 -0.815905
11.594 94.6041 4.5056
14.0148 103.992 1.65919
-8.46572 97.2254 10.5994
14.9695 120.167 14.0451
8.37752 77.9684 5.62448
19.9506 127.611 5.27009
-3.83877 92.6444 10.5327
14.1299 120.071 3.19888
16.0339 92.0727 5.31042
22.5262 133.727 0.0753872
-2.87251 79.908 -0.674618
9.40339 91.2148 4.87919
14.1834 118.482 8.16381
17.79 110.957 1.77867
-14.9148 109.928 -3.27061
22.4678 99.8842 8.24291
1.99866 108.692 -3.79827
-0.272936 105.687 11.2931
15.932 91.602 12.5552
18.6077 83.1728 9.91967
15.5117 129.669 7.6906
11.5181 89.3508 7.68397
14.6986 121.675 -0.373268
3.93712 132.761 2.51049
12.022 120.039 9.9715
-15.2146 99.22 0.226561
1.63164 82.5229 1.27886
18.1724 125.684 -5.88257
15.2938 141.76 4.57105
18.3156 146.748 1.7463
13.112 95.7644 12.084
3.73397 120.922 9.74334
5.71241 130.957 8.41616
14.811 129.466 -4.34417
14.9199 94.7892 5.65564
23.8175 88.9309 16.4169
9.40321 114.003 5.31269
2.54496 84.2305 2.52877
23.6195 127.706 -1.46127
-4.12256 86.1144 -2.20329
13.1444 103.993 14.6306
12.0858 127.212 1.89241
14.8142 142.507 4.69342
8.42404 103.077 8.17152
20.6371 109.837 4.16534
1.35575 85.5098 1.93248
24.0758 98.3961 10.837
11.3124 89.0056 5.83966
10.8137 136.813 0.982781
-4.74673 77.3278 8.09605
9.44563 83.1976 6.33842
-11.1199 80.3001 5.75361
19.027 125.238 3.48025
-3.65833 80.4226 0.111316
14.9151 127.132 -0.863802
13.6222 114.792 15.0924
-13.5184 100.87 -4.21123
12.812 121.136 8.69463
3.0978 91.9583 0.792494
-0.0360279 82.3319 1.40038
14.4492 91.5324 6.86822
12.663 141.064 -2.51716
-5.38112 120.336 -3.2853
5.99465 95.1301 10.8299
13.5681 131.4 0.929321
8.94698 98.3082 -1.06006
8.44979 117.496 3.49153
-12.7603 107.822 -5.39727
14.8671 110.827 8.15201
-13.711 102.751 4.99478
13.1554 113.431 10.6969
-12.2593 111.335 -5.47593
9.24586 86.3521 3.0545
13.6468 92.295 0.943664
-9.7603 108.991 -6.219
14.6091 116.486 -1.42995
-6.29513 93.559 10.087
20.2869 109.237 15.6844
13.7865 109.387 3.94275
7.66656 121.348 3.6091
6.36209 115.01 0.600168
-6.08534 126.191 -3.72286
16.8509 97.8254 17.6032
24.4868 82.1871 12.4661
23.4935 90.9101 16.6416
13.2492 95.8368 13.4342
-6.53433 83.0427 -1.79398
8.39163 103.965 -1.33789
-12.9514 82.5967 -1.55716
17.8922 127.109 3.03853
-9.76118 91.5335 -3.94284
17.2544 97.2061 7.29721
-13.7456 92.2179 -2.73851
9.19843 89.111 6.02687
20.3697 88.8248 17.5603
8.59567 103.333 8.17686
23.4596 100.692 8.23088
13.4153 135.944 3.77125
15.8999 84.9687 8.38955
-7.31909 123.56 -3.92632
-15.1994 91.8114 -0.607911
15.1156 121.873 -2.90437
20.998 132.733 -4.41886
4.12197 129.939 2.39735
18.0828 89.0294 7.35839
-4.77244 108.504 -4.50451
6.58795 130.945 1.8842
-14.0599 102.447 2.80507
10.456 85.8649 3.33708
-0.742535 97.5425 -4.27584
-7.51951 112.112 -5.9195
4.10815 127.065 8.07573
-2.76637 97.5509 13.442
-2.54244 81.1282 10.0344
17.0441 140.411 -3.38712
12.8578 84.3564 6.79101
14.9332 151.2 0.628347
-7.25589 86.1434 -3.24472
-13.983 104.1 -2.88303
20.6567 102.118 16.6376
20.9893 83.4307 8.46961
7.35548 90.9051 10.0734
17.5933 140.019 2.926
22.4443 110.572 14.0809
10.8385 141.58 -4.78986
18.9916 84.0482 14.8573
-9.82828 97.5586 -4.96945
13.8229 102.542 5.23666
-1.12534 84.8414 0.485356
15.0725 94.5584 5.6854
15.8407 110.515 3.51074
23.8067 134.905 -1.14745
-13.4848 99.7761 -4.08084
7.12427 140.778 1.39947
5.40779 143.887 -3.02077
-3.39105 100.724 14.0077
11.3016 124.915 -2.45933
13.3708 114.816 3.36096
12.8878 142.035 -2.67484
-14.0565 99.286 4.99979
21.8334 138.276 -3.11086
20.0283 93.071 8.96542
16.4412 88.9989 12.2521
24.5392 127.61 2.27343
17.0505 130.615 2.57073
8.12035 123.464 8.62506
19.7256 103.537 16.9333
14.0897 109.995 4.05051
19.8334 111.258 3.44767
11.9881 90.9287 0.21047
7.39185 94.7547 7.63661
14.1091 145.128 -0.00620895
-14.6486 107.973 -3.37111
-1.63818 116.916 11.6371
27.2859 86.3517 17.0033
6.70705 87.8867 10.5429
-8.83978 113.533 -5.94373
19.6911 125.465 6.72078
4.75329 117.279 -0.174127
1.24504 103.116 -4.74189
13.9644 129.235 -1.46607
12.1533 113.341 13.004
12.9437 129.825 5.57702
1.02513 106.812 -4.35035
-11.8628 97.1595 8.39437
22.8059 109.904 9.35082
23.7677 100.84 12.0743
-13.6241 81.8168 3.83038
12.8616 138.052 2.05081
11.6267 98.7576 2.12997
11.4852 125.806 -2.8164
9.80099 96.1011 11.5921
0.0849716 99.6676 12.736
15.2154 128.311 0.097412
-14.4284 89.4226 2.75604
19.5544 102.01 5.93024
13.2382 131.555 -0.124994
8.74562 148.014 -4.73069
-7.09156 84.7071 7.87934
16.0252 124.448 0.684943
-12.4627 105.261 -5.4407
-5.71941 130.592 -4.13653
25.4838 128.047 -3.46787
20.5691 82.6117 15.5865
4.43911 140.937 -0.793863
12.1144 114.626 12.9468
12.2978 116.758 13.347
19.0616 81.1875 6.88064
18.6283 88.0379 7.49999
-7.57015 96.8234 -5.71442
15.727 86.9834 5.82587
7.00299 80.3031 8.52032
19.4955 83.4025 6.29516
6.08957 120.296 2.10529
9.69204 123.848 1.23437
20.8061 135.167 0.962391
-12.0101 76.9197 2.22391
21.856 129.757 -6.12155
13.1921 108.931 15.7113
24.4989 85.9962 15.4084
-13.1904 105.479 3.7813
-10.2802 92.6591 -3.84789
8.97048 91.799 6.04238
17.2721 99.6104 17.8204
12.5563 105.266 4.04066
14.5614 126.757 3.67034
3.25436 140.391 0.427379
25.1347 129.366 -3.35109
10.0588 145.95 0.988185
1.5718 107.404 11.0727
14.5689 129.277 -0.979243
4.19885 123.193 0.758372
20.4106 133.618 1.91178
13.2191 130.342 8.41298
-4.87421 123.456 -3.09003
-5.10429 125.597 -2.8318
-5.46247 75.1589 8.85624
-8.7137 85.5389 -2.99156
10.2426 151.689 -0.632884
18.4105 112.705 0.93563
12.3129 136.399 6.22018
2.09026 97.2196 -1.4018
11.5847 81.077 2.55622
14.3559 124.28 3.59591
20.6024 92.3903 10.102
-0.724418 85.6409 0.107212
1.52912 92.6354 0.679433
21.2782 123.209 6.03941
17.3684 90.5996 16.6378
-11.8113 111.613 -5.67969
11.2887 109.308 2.17377
3.46637 97.6265 -0.352064
23.7218 130.885 -0.694838
13.6147 86.8376 5.15814
12.6971 141.97 -2.26785
15.0906 112.895 1.44977
2.54247 104.911 10.6477
-6.16841 130.147 -4.43414
14.3995 123.919 0.322194
14.9596 101.192 17.0693
-2.39336 104.537 13.343
-6.69826 99.0849 12.2734
21.6237 143.815 -0.697312
3.58194 141.379 -0.110687
0.707129 114.2 -2.11114
14.5378 128.925 -1.42189
12.4655 130.261 -3.99917
4.8527 80.4923 10.3705
-15.0742 87.1025 0.54583
-6.03462 88.4773 8.41666
15.5849 90.7262 11.2895
15.6715 138.959 5.42721
3.05438 86.0834 2.28773
16.8157 84.9489 11.2672
8.1142 104.363 -1.67775
23.9203 94.3333 11.7987
14.091 134.943 -1.22375
24.006 98.4521 13.226
1.23911 79.5312 10.8876
27.307 88.8276 16.2969
11.6775 121.317 -1.46349
-7.10872 79.0805 -0.202959
6.265 133.046 7.60155
17.1369 124.51 -5.79296
27.5483 80.1804 18.0518
22.418 102.497 15.9619
16.5627 113.66 0.845109
10.8919 85.1837 3.6331
20.4836 120.144 3.99125
4.94782 116.828 10.7121
13.4703 103.653 0.98261
10.2488 106.374 4.7422
-13.83 92.966 4.13671
15.9217 88.5531 9.45935
12.2315 146.673 -1.46957
9.07941 80.2884 2.9802
-5.45281 107.227 -4.95488
7.38823 125.635 8.66626
-5.0526 84.8129 -1.4745
9.20557 106.566 8.30271
21.4935 130.394 -5.46409
5.71576 131.643 2.25943
0.803611 118.273 11.5724
10.7726 129.05 4.55699
24.5845 83.9463 13.7205
12.6563 135.53 1.8472
8.71562 131.726 -1.80952
-14.46 82.0943 2.40943
2.25646 134.562 2.25822
-8.84117 82.2857 -2.61514
7.90622 112.6 9.77199
14.1604 134.382 1.92516
22.9428 104.685 9.57044
14.2525 110.253 3.67367
14.0458 111.421 10.4467
6.2972 99.2886 10.9956
3.23797 114.859 -2.73872
10.6996 96.6784 0.0993889
18.7967 96.0217 17.7935
-13.7526 114.293 -4.69711
15.3303 100.349 3.08161
17.4119 102.512 3.99789
20.7607 138.78 1.5337
12.0542 106.541 13.8454
-2.6642 96.0711 12.6742
15.7119 127.572 1.57868
-14.0143 92.3532 1.87282
18.5541 94.6768 18.0395
19.3295 129.042 5.21658
11.9648 100.388 1.37459
23.9357 100.713 11.0429
7.21327 140.496 1.4183
11.2114 90.9771 -0.0819256
10.7465 129.391 4.87718
-8.59702 76.0557 4.25562
-6.47854 118.115 -4.55451
-7.2719 121.405 -3.55824
15.038 129.389 1.46579
22.1668 92.874 11.4397
-14.2659 101.633 3.93846
14.8505 103.966 17.0329
-4.5374 103.544 13.8717
6.00203 106.035 9.54906
12.1922 139.713 2.27327
14.2781 87.7935 2.93336
21.7823 143.061 -0.46701
10.111 108.294 4.16773
9.2184 125.628 -0.586494
13.2031 90.0204 4.99704
-11.074 96.1937 -4.29668
20.5099 104.537 4.11324
4.80957 99.7095 -1.5003
5.19541 120.58 9.2233
15.9692 106.105 17.0196
-13.7364 98.9622 5.54675
-13.4943 106.838 -3.90711
16.0633 140.308 -3.55771
22.157 127.562 1.97259
20.8824 120.189 6.47907
-14.8404 90.6298 0.140079
27.37 85.2508 17.3262
-4.63502 109.313 -4.27719
17.8036 123.317 2.45649
14.8641 143.666 0.0616773
20.8598 122.704 5.68783
7.2019 84.6278 2.19917
20.8424 145.288 -0.627325
15.7805 87.5785 5.39401
20.5885 119.387 7.10646
5.69578 128.42 8.55045
18.6955 117.327 5.34154
-4.32563 106.33 13.722
26.3195 82.8812 18.073
11.2814 80.9198 4.82794
-8.52823 124.83 -4.83766
16.0866 99.8566 17.3371
25.7091 130.866 -3.36993
-7.03136 100.562 -5.61255
0.688424 97.5053 -3.24715
1.17998 113.24 -2.65767
14.8823 131.101 -4.28802
-6.53123 112.007 -5.61781
23.7321 84.7714 12.645
8.55655 125.218 2.64117
12.8468 85.5582 5.81208
-9.3308 119.903 -5.23612
13.0939 118.245 2.75918
16.536 137.842 -4.0813
8.53286 100.42 -0.914322
8.77505 78.3163 4.68904
4.70179 87.4537 1.01172
6.33059 129.559 2.55994
17.5223 127.299 6.14183
15.1382 87.3993 6.10291
10.375 119.69 3.2809
-14.9698 103.652 -1.71482
-6.39761 94.544 10.0723
12.3433 102.528 13.8371
16.3127 121.581 10.7059
19.782 84.4952 16.4584
-5.75373 102.561 13.4731
11.6222 118.196 11.4566
22.3934 114.604 11.6002
13.544 86.3766 5.45174
13.7474 121.678 7.5238
9.4363 119.381 4.97936
11.1202 97.0387 7.65299
10.2368 115.791 3.58785
8.99113 93.6096 -1.28712
9.60685 146.405 0.780884
19.588 88.9867 9.08364
14.3319 145.757 0.140269
11.5402 89.0561 5.63266
2.27663 78.8863 10.8361
-6.87528 123.348 -3.60413
16.3716 89.9897 12.9733
12.3998 100.004 4.75563
-12.5659 104.922 6.93415
14.307 132.71 2.12369
14.6698 122.914 5.85564
-13.0842 81.0956 4.53939
14.23 87.6947 6.9784
-1.15132 86.1426 -0.623433
6.81841 105.744 -3.32541
18.826 85.05 15.8977
-12.8149 97.2877 7.12202
6.42771 97.7246 9.3702
17.5737 120.652 10.9198
17.5382 141.442 -2.9357
25.2125 89.9396 16.1064
-5.37599 82.0072 8.30753
10.7909 128.636 4.20112
13.8495 119.955 -2.15813
11.3839 114.325 3.27101
16.1165 121.11 2.18987
4.49401 86.0527 12.1422
-6.5492 83.239 -3.22493
10.6819 90.6879 5.52448
2.87235 91.285 14.241
-0.788875 88.7528 -0.689301
-6.18028 85.8564 8.32905
15.8547 123.045 -4.92347
15.4254 120.538 2.13387
22.8501 94.5963 16.8604
-9.59875 77.7257 -0.987148
18.5103 83.3333 5.02873
14.5567 122.311 6.47325
14.8575 94.7044 5.01037
9.38834 120.821 5.70597
14.7455 117.859 4.41619
12.4709 123.766 -2.62415
18.8774 86.8794 5.9991
4.17146 124.058 0.858864
15.5494 127.725 1.432
-3.90822 81.2742 9.18975
12.0272 124.89 11.5798
2.07217 80.6638 0.579247
13.9114 121.532 3.05786
14.1317 143.137 5.65881
26.1902 95.6957 14.8277
27.5631 90.1918 15.7104
-3.99526 118.625 -3.65562
20.3895 128.714 5.28832
16.2003 124.383 -0.48398
21.9437 127.888 -0.241673
5.5352 126.77 2.92356
17.2926 122.408 -2.53788
20.8174 95.1932 9.95301
18.9782 108.914 2.49589
8.27808 121.27 3.39306
-13.2902 82.9063 4.33649
14.0165 86.6518 5.44011
26.9956 90.8413 15.5518
6.40476 143.631 1.42131
21.3671 82.2944 16.6394
27.2502 83.0281 18.3337
11.5788 138.264 -5.06199
2.63102 115.943 -2.48052
25.3441 130.781 -4.50311
-7.66937 94.6672 -5.47115
8.30723 92.1211 7.23063
-14.7978 92.9994 0.812646
-4.72268 116.925 -4.31486
-8.3404 101.489 11.453
16.2985 126.198 9.15888
0.832579 81.6722 10.9106
8.1845 92.6326 5.89863
27.668 88.6853 16.4471
8.76134 127.185 -1.33671
23.2388 104.469 8.75506
12.3185 114.265 12.444
17.4178 85.8079 7.82563
16.0384 85.0108 6.80329
15.0762 145.619 4.77713
15.9479 84.9995 7.66701
13.8552 116.372 9.06406
9.24266 95.8463 5.31191
27.4567 82.7622 16.9641
-5.27634 112.162 12.6058
13.5018 112.378 10.8715
-13.8841 92.4359 2.37877
-6.13207 92.417 9.75874
20.897 125.66 6.75494
14.1768 120.811 13.6355
-7.54387 77.9608 -0.331539
10.3813 117.695 1.79792
21.0515 126.53 6.2245
14.2296 84.6758 6.58182
21.6387 127.431 6.60955
8.35165 95.9964 -1.01893
6.8888 101.953 -0.860238
14.8477 150.036 0.325461
3.51978 118.859 -1.52683
22.1483 107.996 10.0165
-0.0310146 107.961 -3.40473
16.8874 119.828 2.1153
9.37626 87.9448 7.5544
24.4507 97.0516 13.4394
18.7356 97.1589 8.2205
22.4361 91.2076 12.4585
-1.17199 80.9926 10.4878
23.4694 109.596 13.5076
12.8101 97.1117 3.67786
16.6535 128.708 3.0902
4.55917 82.4331 11.5431
9.85945 81.9143 3.89397
21.4941 114.759 8.96628
10.3235 114.781 3.57708
6.22519 97.3655 10.3559
3.68172 74.8243 8.52793
-11.8802 106.152 7.9039
-3.08944 96.8541 -4.65366
12.6753 135.391 6.86856
-9.87058 118.745 -5.30062
25.0638 131.512 -4.44817
-14.6096 89.8167 1.37702
0.97772 101.576 11.8183
18.758 142.133 3.26583
13.926 125.522 6.19954
-11.8558 107.435 5.72546
20.2289 123.345 5.88637
22.1464 128.078 -6.98396
6.40258 80.5499 9.34727
11.2022 88.457 1.32212
9.32298 93.9126 5.92212
13.6139 83.5973 7.81083
12.2198 83.4102 5.53393
6.56746 104.111 9.90933
24.1224 127.971 4.77319
-12.0349 98.0152 8.21813
4.13287 93.5578 10.9972
14.3182 136.506 2.55352
10.7195 80.7546 4.12484
-4.89447 107.162 13.8082
16.4015 126.243 -5.1518
14.5433 142.493 5.3969
8.17176 125.187 2.90941
-9.37277 92.8041 8.27201
18.6901 124.363 6.03611
5.57753 78.2673 8.84072
0.474538 108.211 11.1054
15.0708 123.886 11.6063
13.2685 130.896 -4.02752
-14.8197 99.7181 1.9085
21.4429 134.774 0.228395
23.7377 84.9415 13.5594
13.9055 120.906 -1.91706
-12.1919 94.2896 -3.92394
12.9114 92.7761 9.17746
8.77223 101.229 -1.45234
-8.51729 104.258 -6.12406
21.6289 126.329 0.748027
9.32338 93.5371 7.61339
-13.7901 85.44 3.46068
-0.561684 77.9366 10.2663
2.87788 118.108 10.7858
-1.98573 85.3243 10.4242
-4.80985 126.953 -2.19593
11.978 137.546 -4.79297
0.89716 90.275 12.133
-11.0095 106.628 9.81384
22.6058 85.1754 9.66541
-3.72419 96.2788 -4.47982
-14.3558 90.7306 1.15491
14.9575 93.9764 3.66333
18.5158 81.4306 5.24898
12.171 132.139 -3.75912
3.98425 87.3368 13.0128
7.90881 105.021 8.91672
22.376 81.3268 16.6672
2.26573 89.7417 12.9291
22.4276 135.736 -0.847416
4.0342 120.215 9.64585
22.3665 126.717 3.78023
7.56688 129.2 0.641323
11.264 104.844 4.01138
-7.23615 89.255 8.59069
-3.23374 79.6316 -0.816061
16.3302 81.2182 3.32326
10.2093 99.1555 4.86648
-1.26231 116.018 -1.07542
5.62515 81.6939 10.6131
6.07609 139.759 -2.97159
-5.16099 80.1102 0.31482
6.67763 98.4565 8.81724
14.2095 93.5408 9.9821
0.086387 133.883 1.04785
3.70002 128.635 8.1675
8.72675 148.904 -4.53255
21.8018 104.261 16.0282
26.0231 83.3203 16.0545
0.963961 96.3242 13.353
-7.86498 77.8034 -0.368948
12.9826 141.741 -3.02171
12.7651 128.33 8.94082
13.7869 138.889 3.97786
-12.4362 83.5893 -1.67751
24.5918 129.424 -2.53682
2.54104 103.451 10.7201
20.7667 85.9407 8.0937
16.5871 122.889 10.3719
-3.07512 82.7424 1.50413
-11.9728 101.525 7.83913
12.8445 121.048 2.30411
2.75771 128.464 7.99944
14.1587 129.772 2.94187
0.11509 117.97 11.6935
16.4209 93.9584 16.9808
-7.08879 74.1129 6.68302
15.8338 125.262 10.4135
9.80218 140.492 0.786832
16.5762 86.5101 13.7001
11.6033 94.7315 5.07613
-11.5943 88.9788 6.57973
4.01463 92.0425 12.8069
10.895 120.902 2.66123
19.2534 118.18 13.3437
2.31996 111.27 10.4279
23.7588 101.06 11.9242
5.27037 90.8794 0.20012
-5.64041 81.2258 -0.0975392
26.6723 88.129 16.5752
3.53388 115.539 -2.56158
21.345 109.854 8.36381
-14.7924 85.257 1.97863
10.2134 145.477 0.994019
14.0901 95.8654 4.63053
8.81643 89.4115 0.356767
18.0718 91.6846 7.89549
19.637 87.5964 16.7525
13.2549 89.0783 4.794
-4.44581 112.878 -4.31814
-13.8084 86.6874 3.15804
16.2321 134.074 -1.26278
20.458 105.608 2.57734
-15.4896 100.674 -1.3769
10.3248 82.7013 2.57151
-3.81619 97.9958 -5.36743
25.3049 102.538 13.7066
12.8016 108.183 3.67789
3.879 130.497 2.54022
11.0157 131.78 -3.08931
1.71264 89.6911 0.824294
14.5074 123.818 5.84035
-8.67977 89.497 8.20738
-10.5358 80.1087 6.21198
12.0573 101.839 8.91331
6.24337 83.8798 10.986
4.75272 138.086 0.0583784
-1.2929 103.406 12.3944
-0.199285 106.251 11.3202
17.3441 103.197 2.18791
22.2051 138.226 -0.22491
8.67421 150.042 -4.25348
17.9356 134.087 3.93258
9.95565 106.508 5.71612
8.34203 102.817 7.83655
-0.0546689 114.854 10.9829
11.008 132.932 3.19095
3.63547 130.331 8.25665
-10.2061 78.0515 1.20521
13.4059 124.02 12.2292
17.8967 81.5153 2.391
11.3976 143.031 1.32917
13.7566 115.798 9.31925
26.3351 99.7248 13.8204
17.5503 122.574 -2.87588
15.1773 89.3544 4.7306
6.91538 144.827 -4.11816
15.2727 85.4804 8.10249
15.9935 124.948 10.4621
-1.40152 89.9506 -2.11915
19.4636 118.638 5.13259
-1.44294 122.142 0.19338
23.7696 127.699 1.19332
13.3611 130.463 -2.15489
-10.0436 117.329 -5.27661
21.6889 92.4477 11.4973
13.9423 137.227 3.85545
0.814172 134.102 1.56738
21.4292 81.6079 13.0232
22.7465 134.858 -4.59722
15.569 111.531 2.22777
13.2716 118.58 -0.699595
4.71138 88.269 12.1404
16.1674 123.308 0.0115407
14.6503 115.607 4.7446
20.6604 144.365 -1.60491
13.5752 100.405 15.4264
15.371 133.461 5.96394
-15.9358 109.027 -0.793178
21.9341 107.404 5.37455
14.7125 145.944 0.325405
-3.53943 90.2813 -4.20337
2.58826 102.908 10.8216
5.59055 138.814 2.0778
14.5409 135.487 -0.00602803
0.966403 107.488 11.1424
13.4388 146.665 -0.455251
8.858 120.836 3.04749
24.9124 96.7281 15.2684
13.3215 106.62 11.4005
14.5261 126.806 3.97927
21.441 102.776 6.05941
-11.5129 82.0645 5.68716
12.8078 140.804 3.38094
-10.4723 93.9773 8.21615
2.74317 126.196 1.24826
2.5912 105.252 10.7076
23.3656 97.0674 16.1187
11.7092 142.507 2.02571
23.1999 110.297 13.1591
4.82563 134.595 7.20408
22.1597 135.902 -4.54916
8.99277 128.229 -1.70928
19.7205 117.073 8.57049
19.688 130.679 5.24564
-14.986 87.0172 1.37611
-5.62399 96.4524 11.4393
-9.63799 92.0882 7.91654
