ply
format ascii 1.0
comment Created by Open3D
element vertex 1919
property double x
property double y
property double z
end_header
7.71963 126.385 -16.4151
6.16196 131.756 -13.6701
21.7176 89.223 -13.6342
20.2319 86.3036 -16.0237
-17.8883 84.4555 4.55669
-11.3333 84.0281 4.46209
20.0257 99.5838 -7.12242
-21.0893 94.8748 1.57484
7.20667 134.657 -0.664824
4.14142 85.1206 -2.50431
-3.15525 115.948 5.71857
-17.1275 90.3591 -15.5077
1.4826 102.7 -20.7876
19.8048 102.527 -7.87235
17.8561 129.513 -11.237
-18.7465 85.0213 -13.5777
-12.1593 118.78 7.40132
-15.2117 85.6268 4.82747
-25.4261 80.5833 -5.38651
20.6724 133.049 -7.2117
17.4522 96.8006 -19.6077
-11.1042 84.3826 4.27904
13.9678 100.299 -0.00184695
16.0108 124.062 -8.05629
-2.94199 113.427 5.36663
-16.9175 112.985 -15.0424
-7.44397 98.4028 4.503
16.8179 146.799 -1.39086
13.2493 149.822 -0.318625
16.7117 108.159 -13.9346
-25.1741 93.3487 -6.7883
-16.3718 133.635 4.31451
-14.3575 88.3626 6.72841
17.1566 76.7524 -10.3005
0.316204 86.1466 -0.232918
14.8097 134.546 0.0797615
3.48486 103.253 -21.5938
7.30693 95.6491 1.04395
16.3777 119.743 -3.70009
-10.0579 85.7643 2.38076
20.0718 77.9686 -11.9394
-19.5342 95.9889 -15.6413
-17.0502 91.5189 -16.166
-21.918 93.0413 -12.6898
-5.24087 113.435 -17.6545
-15.8609 132.408 4.37176
12.2852 122.495 2.99642
-24.7797 116.747 -4.72104
12.9947 91.4467 -2.25986
-21.2097 104.429 -13.0924
-5.87284 100.485 3.98017
8.4011 151.165 1.43693
15.8564 122.788 -6.29854
16.88 140.199 2.55391
11.7297 134.681 2.67344
10.7852 102.776 -21.3264
13.1659 132.523 -11.399
3.91443 125.017 -13.7585
-1.29669 85.0696 -0.81337
1.42608 90.1433 1.40472
13.126 133.151 -11.6561
-7.45731 126.159 -9.27828
-2.0828 90.59 1.16179
15.0766 127.013 -5.80272
12.9127 124.851 -15.5024
-21.7175 104.442 -12.6081
-20.657 95.5906 2.60726
-15.708 112.851 -15.3163
-0.926466 137.018 -6.05431
18.6405 107.024 -7.89595
22.0921 137.597 -2.71378
8.8757 83.8828 -5.27653
-22.9364 98.8037 -12.9655
12.3538 123.775 -14.143
-5.86066 122.754 5.93842
-4.17433 127.688 6.01575
21.049 81.8883 -10.3489
-16.465 110.471 6.80482
-25.4323 95.0129 -4.92563
9.46852 84.0019 -25.3889
12.7153 128.874 -12.0753
13.1086 104.387 -20.3932
12.283 137.079 -13.5267
9.61212 154.283 1.16141
-15.9209 79.1804 3.33597
-1.64659 77.4029 -6.14765
6.75099 139.886 0.970332
-8.668 83.2339 0.772498
0.153371 80.5193 -24.6223
-18.8372 104.134 -15.705
15.6912 95.1201 -21.5501
4.99951 126.667 -0.44648
20.4958 137.862 -6.7028
17.6009 121.154 -6.3633
0.113089 114.53 2.5711
14.4977 103.988 -20.174
-26.0168 82.9683 -1.66763
21.8263 141.746 -2.44691
12.4205 129.671 1.93826
14.9416 107.115 1.05367
14.0741 137.825 -6.47385
-3.16362 81.6552 -3.60256
-13.5273 88.1915 5.85102
14.92 117.15 -15.0812
-22.235 117.094 1.26168
14.5194 79.0633 -25.9522
-4.36061 103.811 -19.7819
-17.396 121.545 7.62943
-9.38852 113.792 -14.7559
-15.9597 81.1803 -15.342
13.2019 79.8248 -25.0677
18.9524 120.4 -8.48982
-0.417515 98.4578 -0.311077
-12.2618 100.65 6.70978
-24.3167 110.903 -7.49256
-8.1476 125.353 6.55398
13.2829 93.7139 -22.6388
17.5791 136.295 -10.1118
17.4724 116.505 -5.89716
20.3729 124.774 -2.79312
3.75813 132.925 2.1626
1.60486 139.871 -6.44727
-2.20621 105.323 2.19739
-20.4597 85.1945 -12.597
-14.8667 78.2679 -16.0785
12.1526 105.552 1.31194
-7.65695 106.987 5.92863
15.7454 124.783 -8.63721
14.0769 129.95 -13.24
-4.17436 99.0248 1.48891
-22.77 84.4105 1.99677
-1.40108 124.624 -13.2589
24.8643 129.111 -7.99831
-23.169 85.1609 1.73837
17.0063 101.496 -1.36772
-9.81598 89.3842 4.34674
14.2088 122.952 -10.9738
16.7507 79.4895 -23.8624
15.2994 133.569 -0.171253
14.977 149.045 1.72522
16.7512 126.444 -5.62664
16.4504 118.502 -5.64651
-24.6061 98.8253 -0.896596
-8.26944 111.68 6.72425
24.6538 133.63 -4.06547
18.6133 103.395 -3.57885
2.95116 135.108 3.95658
22.1106 123.565 -5.04561
8.0642 139.943 0.0874213
14.0541 129.63 -6.86198
-13.2031 114.618 -14.6569
-3.72523 105.902 4.47298
9.45878 107.996 -0.151816
25.0761 130.953 -7.12907
21.3787 94.7028 -11.5623
-24.2117 118.791 -1.01166
-0.592518 115.846 3.89766
21.189 95.5325 -9.04398
12.6044 131.004 -12.03
-27.2439 82.7218 -5.19744
15.7206 111.339 -18.0262
-6.8835 81.846 -22.4197
-24.1933 120.478 -0.0401475
23.6099 122.028 -7.30603
19.6612 81.9669 -19.4193
-8.47093 75.8882 -2.02495
14.1272 128.26 -13.8103
17.5128 125.562 -3.04844
-12.4293 131.584 5.57127
15.8732 120.058 -1.01332
22.389 135.831 -3.85087
3.53696 120.371 -0.132214
13.6819 84.9596 -5.71664
-0.645295 88.5738 -21.817
-24.1743 83.3295 0.738792
-20.7622 111.095 -13.0446
-11.0412 99.9913 -17.2177
9.54865 123.137 -16.0813
17.2081 79.5165 -9.17361
-24.6134 94.9898 -2.28667
2.53785 81.3326 -25.4676
9.59815 150.151 -6.2341
11.4361 120.877 2.42076
-1.40418 110.259 -19.9102
-4.68401 127.159 5.93688
22.977 122.922 -5.00772
-9.44573 85.7089 -19.9363
-16.9479 88.4953 -15.3992
20.1573 138.134 -6.96997
1.66195 99.2169 -21.3017
13.4044 135.884 -12.4628
-1.4723 113.473 -18.7533
1.69591 134.916 4.72359
-5.72268 134.064 4.23571
-14.4018 112.908 -15.5634
23.4312 126.565 -5.17946
11.1087 113.26 1.32711
5.63199 88.9043 -0.743713
20.6464 94.1589 -7.2745
-5.94829 89.5115 -21.5045
-23.622 79.222 0.00772112
-6.21037 123.735 5.72235
-15.0851 131.338 4.74858
2.90144 99.7862 -0.800414
-2.11572 124.258 5.77964
9.46918 126.394 -17.001
22.9586 128.431 -4.89154
-5.16129 77.5843 -23.9925
15.6651 112.821 -16.7279
14.1902 138.985 -7.67424
-26.1809 86.3683 -6.48523
15.5415 114.96 1.14404
22.9845 123.57 -10.5035
-13.2045 128.379 5.86872
-1.79915 112.16 -18.9859
-6.49083 113.419 -15.9306
5.22647 84.3888 -3.69052
-23.6745 116.2 -2.78526
14.0637 140.001 -5.31237
14.0561 123.214 -7.90037
14.8463 126.196 -5.7699
-13.9039 117.721 -13.4814
7.5108 98.9011 -22.5608
13.4799 130.148 -7.57368
8.30455 107.679 -21.0087
15.4678 144.976 2.75305
9.73692 152.992 -1.05488
12.0509 133.896 -14.5874
4.00097 133.44 -10.6099
6.6707 88.7688 -22.846
-2.10794 109.39 3.96938
8.18365 128.962 -15.7748
-13.3013 135.373 4.03172
6.06395 90.6424 0.245536
-23.8896 105.672 -5.93945
17.9554 127.341 -4.57167
-6.04438 100.286 -18.1163
20.5792 77.3429 -12.1671
16.3987 121.662 -8.02814
25.9234 129.666 -6.48276
13.3433 140.577 -7.9225
20.1047 94.5287 -6.35908
9.87174 117.836 -17.3886
12.3063 124.715 -7.22359
-1.45815 140.446 3.26959
5.71374 85.6786 -24.2427
17.894 113.702 -7.481
-24.1061 95.1564 -7.62143
10.0082 137.799 -0.488913
13.1932 109.228 -19.4419
-15.9538 97.9001 -16.7362
-20.2685 96.5566 -15.183
8.38705 95.9559 -22.5419
-2.52077 136.252 -5.95621
-23.0315 97.0957 0.582344
21.194 136.19 -5.82613
-0.996494 96.108 -20.4513
14.1627 85.0176 -24.1547
1.26706 110.118 -20.8957
11.3752 138.459 1.59972
-23.1517 111.564 -10.9904
21.7033 86.1337 -14.0013
5.31777 122.552 -15.6304
15.7006 113.499 -16.1194
10.1039 87.1036 -3.85756
19.979 145.283 0.165363
1.60117 93.5312 0.116691
17.956 94.519 -18.331
-12.8094 84.8213 5.13525
8.63925 138.017 -0.443387
-6.47615 112.091 6.70991
13.5424 134.96 -9.37453
19.3898 141.53 -4.41464
-20.1486 121.65 5.64522
-21.5635 78.4266 -5.13002
19.4757 86.9431 -7.34194
14.4984 94.9782 -21.9561
11.4958 146.333 0.999896
12.0173 104.942 1.0084
-4.0983 113.945 5.90914
-7.03987 98.7616 -17.9013
15.2806 125.777 -8.52725
-19.9467 81.59 -11.2305
4.65922 93.411 1.36992
19.0731 78.5976 -21.8215
-4.05218 127.8 -8.8115
-5.95635 123.229 -10.1957
-12.7493 87.5717 5.25989
18.6145 80.3777 -21.4105
2.96927 122.423 0.857758
-12.1769 116.129 6.7475
-16.9855 81.7687 2.67458
5.46468 136.157 0.831643
17.7583 121.35 -6.58046
-21.543 93.4762 -13.1801
-2.5908 78.705 -5.27357
14.2755 141.998 -4.03817
20.0967 91.9091 -15.7977
6.17776 114.262 -20.1044
21.6027 126.143 -10.4759
-15.7418 78.331 3.92904
-20.5486 103.758 -13.956
1.1213 91.8808 0.45828
-21.8876 78.8646 -7.32697
-24.0422 84.6811 -9.3052
16.2308 144.462 -2.80363
-19.9487 98.9039 -14.822
-7.57788 126.007 6.0136
-3.58033 138.257 3.60075
21.1069 134.724 -5.81018
9.27024 110.716 -0.566528
6.25828 134.9 0.294308
13.5167 127.609 -12.3848
10.3186 81.7218 -25.2985
14.8792 103.827 0.215338
-14.0115 87.3908 -17.3208
9.2274 141.813 -0.247233
20.0554 133.725 -7.59006
-4.41099 92.7229 0.712095
-12.726 123.267 -10.3507
21.1918 92.276 -11.0152
6.58187 144.867 1.26849
5.86855 112.56 -1.49231
0.109471 129.389 -11.1461
12.3064 128.012 -5.0941
12.9603 93.3971 -1.85029
5.14145 137.488 -10.6458
10.3831 127.453 1.79533
8.16645 117.277 -1.34513
-18.2877 79.3817 1.89987
5.46395 131.24 -12.6581
1.18266 132.079 -9.08096
17.4682 116.972 -1.34788
14.8515 117.245 -17.2947
-24.2712 100.476 -9.84404
-16.8913 97.9293 -16.6631
-7.41802 77.5766 -1.63795
-23.1914 107.43 -8.29891
16.9991 138.601 -8.08615
13.2879 118.658 -15.7933
19.2387 99.8121 -5.50133
-23.9882 99.0372 0.556247
-8.47728 138.628 4.44641
-23.2883 103.28 2.27942
-7.82792 116.445 -13.0322
-24.6339 99.1093 -2.30459
15.9482 115.554 -13.9649
-7.11407 87.6449 -21.321
-8.83896 95.9384 5.18286
14.5089 119.864 2.36789
1.72016 78.7176 -5.95347
-16.0791 88.2073 -16.133
12.8094 80.547 -7.92781
0.694459 121.279 3.79621
12.6848 127.569 -12.2917
21.402 131.152 -7.45638
9.99976 132.569 -0.471956
-11.4944 87.9181 4.88006
11.1883 140.334 1.11947
-23.6941 96.529 -12.1857
-17.4816 116.518 7.16407
-18.2738 80.7984 2.57311
21.9545 142.901 -0.750248
17.0362 106.527 -1.46775
24.173 135.304 -1.99168
11.7628 126.252 -10.0888
8.78162 80.9966 -7.07386
17.8583 123.398 -12.9468
-22.8355 103.904 -0.736343
-17.3006 90.3474 -15.3612
-24.383 114.93 -3.82319
-12.972 106.703 -17.1686
-3.15329 104.596 3.35972
-4.42063 100.765 2.4851
18.9047 95.1089 -4.93059
17.2241 105.689 -1.89723
2.83038 104.219 -1.13802
5.53584 96.3383 -23.1042
4.54027 88.9678 -22.6416
16.1643 126.746 -5.68919
-14.5911 111.653 -15.3543
14.6999 84.5942 -23.2986
-4.08367 108.88 5.27762
-3.3682 82.5863 -2.78427
13.2857 82.9075 -24.4094
18.2525 113.605 -1.76646
15.4858 107.113 -19.2125
14.7767 144.522 -2.07388
16.9072 128.483 -3.67904
16.7868 107.598 -13.4111
7.34288 135.394 -0.583581
-22.0711 78.3436 -4.46236
-14.6602 78.851 3.99863
-20.8244 111.061 6.30082
-26.1143 86.1265 -6.63736
10.5409 127.103 0.97013
-0.771384 132.416 5.50591
15.5323 123.888 -0.391861
-0.383636 134.649 -6.84778
-2.01679 102.307 0.64128
-2.87067 118.32 -16.5019
17.4748 111.23 -12.5907
-14.5208 122.965 7.14938
-1.2148 133.271 5.08162
-13.4974 82.7611 4.6583
-24.5928 115.232 -4.31909
14.6316 76.5308 -10.1233
-9.94216 89.7284 4.24983
15.1994 96.5994 -21.0364
12.1247 131.218 -11.4272
-16.5481 118.223 6.78435
16.0195 131.452 -1.4377
0.182427 137.89 3.89878
17.6518 91.5584 -4.74064
-7.02743 82.0425 -0.438756
19.9881 120.896 -8.57912
-23.1409 123.606 0.271786
-5.63761 105.548 -19.5645
-5.53378 115.292 -15.7386
13.4075 104.032 -20.3187
-21.1614 92.8404 -13.0301
12.3372 128.431 2.47716
-11.6159 110.01 -16.3561
8.15126 80.0459 -26.1512
16.7721 113.338 -0.412085
17.4454 96.3297 -19.551
-4.551 106.757 -20.2039
21.8843 138.941 -3.54065
-6.30526 99.1047 3.71974
16.7794 118.687 -9.09015
-3.96256 126.509 6.21028
-8.30182 114.646 -14.0967
18.9537 137.102 0.493219
1.27188 136.907 4.11439
18.5234 80.0635 -9.60759
-11.0299 136.934 4.71652
16.5878 90.5552 -3.78613
13.7618 117.321 -11.6237
6.65017 82.6226 -5.01236
17.6308 109.961 -11.0773
-24.2091 100.927 -9.54256
13.1064 121.287 -13.6983
-1.91156 94.7375 0.156466
16.063 105.136 -18.3122
-2.87424 130.517 -8.10282
12.4759 140.698 -9.41731
-3.03959 127.843 -9.27785
15.0666 132.414 -10.5495
14.4757 150.658 0.338903
9.3463 113.219 -19.5827
21.817 140.091 -3.36986
17.5823 123.794 -4.34722
-6.67721 117.942 6.79882
-9.2208 97.0467 -18.0553
2.88727 144.735 2.10541
12.8673 108.412 -19.8294
-9.60064 82.6307 2.2745
-27.4295 79.5254 -1.24947
-15.3995 100.204 -16.8023
13.9421 144.336 -3.51528
8.30592 116.31 -19.8032
-22.7498 78.1472 1.27457
17.3499 127.221 -4.60386
12.0801 78.5005 -9.27515
-12.7721 111.889 -15.6161
-5.24517 100.63 3.59875
-22.229 112.034 3.67909
7.16487 140.515 -10.8345
-22.7035 85.9317 -11.1334
7.26806 155.121 1.19901
-14.1791 77.5596 -15.0486
3.91809 134.957 -10.0829
11.2065 113.363 -19.3004
1.39413 120.817 2.70104
-19.7897 82.5823 -11.7282
11.2861 102.641 -21.0433
15.7939 112.091 -17.2091
11.7348 127.624 -6.16338
16.3475 108.934 -17.105
-1.7345 135.176 -6.29234
-2.27303 79.5064 -24.1182
-10.4427 102.12 -17.2556
6.27948 101.968 -0.59757
-16.0718 82.346 -15.1853
-21.0015 95.5182 1.98504
15.8286 121.676 -10.0076
3.43346 108.768 -21.2536
-22.8437 79.7996 -7.26405
2.52575 76.9449 -7.5195
-8.24948 124.78 6.71616
-7.73459 84.457 -20.8816
-1.61299 136.925 -5.87576
5.27587 133.124 -12.5505
20.5269 87.9505 -8.10644
-23.1773 116.148 -1.95388
-11.5996 80.4455 3.18764
-1.29136 124.033 5.55427
12.8038 131.859 -11.154
16.7054 114.891 -11.6464
-24.1226 88.9778 -0.062977
22.1504 126.613 -2.34437
-10.1821 79.1131 1.64749
-19.0542 81.5784 -12.6737
18.7693 141.294 2.47351
-18.5065 78.3757 1.70496
8.79569 120.363 -1.08568
-23.0665 109.361 1.03191
13.2027 123.815 -13.5969
-24.2483 104.64 -3.98276
-12.9012 96.653 6.96487
-8.59723 109.121 -17.7163
9.29543 152.746 -1.94095
16.4894 80.9786 -7.92597
5.9432 80.9844 -5.71798
-3.50367 92.1228 0.567751
-22.1228 81.1349 -9.88947
8.36925 85.7776 -3.90205
-8.68782 115.633 -13.6695
23.0112 128.542 -9.38395
-19.7843 80.2937 -11.1597
14.2744 123.186 -8.80402
18.0655 102.7 -13.7587
-24.1878 84.8101 0.62605
0.644629 88.0888 0.882278
10.407 94.4037 -22.2766
-14.4753 132.792 4.55467
-15.6816 80.8956 3.7321
15.3334 97.8092 -20.5019
24.7349 128.237 -5.60735
8.87408 84.3127 -25.3601
19.0597 106.769 -7.39501
18.3774 113.096 -11.0129
1.02869 137.704 4.01422
16.9768 136.338 0.142665
13.5638 148.885 1.70185
15.2786 145.791 2.83731
17.8897 91.7619 -18.2125
-9.31284 107.934 -18.7286
12.4998 129.809 -11.4401
4.09575 83.9272 -3.46638
-24.85 114.53 -5.72497
-14.0346 91.686 -18.5212
4.37287 142.133 -7.99618
14.8448 134.049 -10.0164
20.5299 131.151 -8.58691
24.7823 128.188 -8.83181
7.0732 87.2495 -2.75377
-1.36164 94.3249 -20.8122
25.2086 132.381 -5.54471
16.5221 118.293 -6.00016
-0.0922692 133.537 -7.76724
-3.21383 132.998 -6.81733
12.3551 149.847 -1.41299
18.9939 110.683 -2.96421
-3.8297 95.2605 -20.1583
9.11936 138.242 -11.8848
12.1985 125.217 -8.58961
15.7874 97.1595 -2.068
5.93973 127.47 -13.6729
-2.33946 97.4712 0.322895
17.4066 109.813 -11.5192
0.63933 94.4618 -21.1707
0.432135 111.63 0.926041
17.1648 116.951 -6.71785
-20.3748 95.7141 3.08114
-6.50871 90.7752 1.67789
-11.8595 116.946 7.05554
14.1447 104.307 0.821701
-25.0322 85.5575 0.185286
11.8597 130.529 -15.5536
11.0696 140.539 0.959653
0.00452517 108.262 0.28568
23.3829 132.365 -3.67603
20.2261 82.647 -18.375
-19.1327 124.067 6.11311
16.5323 83.0583 -22.8617
11.911 130.401 -15.5895
-4.61341 88.0796 -22.3748
10.4846 136.576 1.01424
-16.6532 105.716 -16.084
-12.8597 137.404 4.09063
-22.9698 80.6555 1.74549
-0.859384 116.577 4.33922
7.17541 149.18 2.51077
25.2398 124.932 -7.31557
-23.7642 107.332 -2.39506
19.4906 141.746 2.04383
19.6263 124.64 -11.2123
10.5497 130.449 0.337074
4.25415 132.251 -10.9909
14.1613 122.101 1.73151
-16.7565 100.225 -16.0705
-10.516 134.684 4.6245
13.0689 144.522 2.27786
-19.3364 92.0626 2.22349
14.39 85.4782 -23.8763
-7.27147 95.5335 3.52761
8.77963 128.88 -0.891772
-7.52468 109.465 -18.2012
2.51122 82.2212 -3.84997
12.0857 130.976 -9.74245
13.1701 79.0114 -26.042
20.1477 88.736 -7.77237
-11.3099 123.751 7.25861
-3.10098 118.883 -16.1705
19.346 90.2432 -16.7336
-5.75377 89.0319 1.52338
-5.19648 133.373 -7.05301
-13.8411 87.7196 6.11769
0.11034 118.474 -17.321
-5.93957 93.6 -19.7529
17.7801 86.9105 -5.98547
11.8468 80.9485 -24.9578
-18.1356 110.983 7.10532
-7.85339 106.56 5.81138
-20.0543 119.655 6.66404
11.6853 131.724 -15.4263
18.7181 138.27 0.776662
-2.95053 123.234 6.15733
23.7443 127.787 -5.31221
11.1647 85.0279 -5.49194
9.73373 126.816 -0.51735
-7.46526 115.947 7.31133
5.03876 77.7942 -8.20485
18.0623 114.857 -1.99091
-13.9253 136.212 3.83841
9.00711 146.063 -8.73581
19.4304 124.871 -11.8505
-25.282 85.0039 -8.37899
10.6865 123.289 0.876423
12.6955 92.9853 -22.6789
-11.4051 137.022 4.67411
4.57295 117.534 -1.1064
-7.93978 85.6727 -20.6617
7.47132 140.81 -10.8273
-13.2476 123.32 -10.5733
-11.6216 114.141 6.36771
15.4291 145.282 2.78226
21.9108 136.288 0.0847815
-19.6722 123.767 6.32716
-12.5428 108.04 -17.3224
0.922396 132.287 -8.88036
16.1587 116.773 -8.44568
14.9233 123.389 -6.0898
-12.7737 113.405 -15.3989
-8.76717 100.091 -17.5806
-0.193354 127.618 -12.1485
10.2139 149.507 0.902221
8.24214 141.302 0.0766508
-19.0588 113.122 -14.3124
13.4244 124.673 -11.1751
21.3979 124.56 -3.67102
-5.34254 88.8522 1.60542
11.1238 136.361 1.97659
-3.29296 80.4386 -4.07762
0.0132679 113.249 2.26636
-19.3494 95.3735 4.39108
-17.7947 102.997 -16.0031
12.8119 137.854 2.65334
20.0712 81.3273 -9.91638
1.53687 85.2147 -1.00313
-23.6302 87.0737 -10.9607
18.8243 139 -6.96648
-21.0383 79.7294 2.28601
-9.77668 86.0654 -19.9025
-24.0533 78.7561 -2.9672
-23.8747 119.973 0.13572
-6.32471 79.6696 -22.8888
-0.123964 117.135 3.6316
17.6167 113.968 -11.2408
7.81418 91.0865 -0.84934
14.0165 134.377 -9.45429
15.1886 119.79 1.86595
13.6201 131.907 -8.13549
6.29172 96.319 -22.9251
-5.8261 124.829 5.78519
-17.7264 82.9386 3.44741
-15.9177 92.9641 6.75128
-23.7013 93.6992 -10.2156
-18.3493 129.545 3.02884
3.47687 109.446 -20.971
-12.0148 138.295 3.90577
2.92594 94.6674 0.250729
0.252071 144.948 3.31477
-25.357 96.5194 -3.81768
17.2864 126.06 -14.064
21.3262 83.4678 -9.96432
-24.0468 106.217 -5.48635
-23.1813 97.171 -12.7149
10.5289 87.6595 -23.4508
22.3771 127.512 -4.48713
20.8044 79.1329 -13.9982
-6.34459 92.7164 1.75218
17.4303 115.142 -0.580395
-25.0023 88.3068 -9.13993
-18.9501 84.8432 -13.4026
-5.1687 117.118 6.90767
-21.9314 79.3052 2.24553
14.4493 113.699 -18.4187
-6.48486 93.5907 -19.6665
-7.6377 114.831 -13.9009
-1.23465 138.592 3.59243
-13.223 77.0806 2.69562
14.9913 123.977 -5.60572
10.3806 119.919 -16.5998
17.1541 82.3788 -22.6192
19.5313 79.5832 -10.7004
-11.3242 101.198 -17.3336
6.92827 92.6592 0.880203
-13.1651 121.874 -11.286
-0.796235 110.382 2.30459
-4.6532 98.4074 -18.5765
13.6164 81.1807 -24.081
-21.6981 115.997 0.28611
-6.92269 84.5005 -21.4533
-7.17798 108.266 -19.4431
-8.85868 101.325 -17.6838
-23.7835 106.817 -9.43549
-7.97188 136.626 4.50777
-22.4045 107.234 1.97496
20.0827 143.189 0.839772
21.5235 143.413 -0.559798
2.94174 128.962 3.15888
24.3314 134.435 -3.37644
21.568 86.2264 -14.1628
14.6076 80.4079 -8.03665
17.2634 138.536 -8.33665
20.3119 136.06 0.481715
9.16026 131.454 -15.4032
10.6224 134.628 1.91519
18.3711 115.195 -3.10659
6.41845 107.953 -21.8262
13.8933 84.3142 -5.92774
-6.90059 86.7904 -21.3173
13.4005 142.174 2.11591
13.6542 82.2738 -23.9482
10.607 100.737 -21.368
0.860741 92.025 0.401031
-4.55739 124.502 6.2035
-24.7306 113.448 -5.91416
-4.55977 110.911 -19.0808
2.10579 108.315 -0.949835
12.4548 105.15 -20.608
18.8383 98.8454 -3.55227
-24.506 87.0568 0.462715
17.304 91.7386 -19.7562
14.7291 76.7332 -9.9815
19.9976 100.019 -12.3347
-15.4583 114.962 6.85075
-14.4156 113.875 6.69922
13.5553 104.325 -20.337
15.4739 135.152 0.394253
25.4834 128.483 -5.87408
-18.5879 100.921 6.66409
18.5519 121.999 -5.27358
-5.24572 80.296 -3.02083
-1.95313 136.6 3.95846
18.9154 132.375 -9.63659
-26.1849 82.6403 -6.32308
16.5451 104.294 -16.51
18.8218 111.511 -8.91671
7.29356 93.0053 0.795125
19.4071 78.3381 -20.6506
20.9304 82.1176 -17.4828
11.8738 142.437 2.04679
-11.376 98.7038 6.9549
8.54244 152.126 1.61844
14.6559 88.4922 -23.335
-17.9756 82.8074 3.28979
7.18437 136.53 -0.406726
12.0184 98.9776 -21.0247
-5.9185 129.309 5.6865
14.7286 120.846 -11.6094
-23.8186 94.3648 -11.8399
-24.2356 96.6221 -11.1045
-23.2079 82.4757 -9.34771
-17.7953 110.749 7.05935
14.1577 128.968 0.0127056
-0.309881 95.4603 -20.66
-21.4427 78.2469 1.81074
-23.6619 81.0671 -7.75538
0.247002 84.3683 -1.58005
-3.41134 78.071 -24.5747
-23.554 84.4069 1.14541
-17.9779 130.231 3.27999
-24.218 94.0335 -8.31659
14.719 114.576 -18.1324
20.9089 97.3941 -8.59366
-10.0567 102.249 5.93827
8.68027 89.0133 -23.0348
-23.7529 108.069 -10.4915
-24.5023 86.322 -9.79742
-9.39133 131.922 4.60131
7.14115 124.766 -1.28765
-13.3576 116.877 6.76166
-16.8609 105.772 6.54201
-2.54736 112.214 4.90568
12.2084 131.777 -8.17615
-25.8908 81.6333 -6.00684
3.54897 97.7611 -22.4886
-13.0874 77.4491 2.74161
16.3194 124.016 -5.0833
21.7081 140.962 -3.08739
4.83987 137.968 -10.5529
12.4982 137.326 2.56716
-16.1542 92.5094 -17.4953
-14.6245 79.2124 -17.0887
3.67204 134.802 -9.9634
-24.5489 97.996 -9.9415
11.3232 152.899 0.724413
19.7909 144.366 -2.74705
9.90026 129.071 -0.322485
12.3031 121.355 -17.843
12.8808 111.436 2.25244
-14.4524 117.555 -13.7067
14.6196 84.5464 -23.4185
10.2697 96.1085 -21.965
13.1229 138.219 2.71913
16.0518 129.624 -3.32621
-6.60656 85.3466 0.847997
-0.273444 139.15 3.66177
13.6752 130.257 -6.65951
-1.67737 78.2202 -25.0955
12.4823 97.3693 -0.112025
12.3905 120.468 -17.1215
-22.6052 99.2385 2.26158
4.27378 97.2303 -0.00583943
16.6546 124.897 -4.63917
14.1172 113.189 2.12974
16.8404 91.7436 -20.6877
11.1055 124.651 1.88814
14.7511 123.407 -12.2028
3.94405 138.257 3.53706
15.1877 121.658 -11.8603
5.97354 126.819 -13.7237
17.4088 124.361 -4.50893
7.36427 102.603 -22.6002
-1.32944 106.837 1.4295
-12.1761 122.249 -10.655
15.1248 89.6556 -22.4976
20.0132 81.4508 -19.1974
12.2031 129.27 2.4227
-21.2623 92.949 -13.0242
16.717 141.062 -5.6254
-4.29021 120.611 6.55879
13.2274 87.9641 -24.1017
-21.8963 107.235 3.43734
16.4275 123.033 -6.17636
18.4892 100.431 -3.27339
3.63802 91.5671 -23.1156
8.07089 98.3623 -22.3632
-21.6027 103.213 4.9617
-11.1972 85.0303 4.49439
1.11796 138.769 3.93224
-26.9063 81.6998 -2.92777
10.6721 128.852 -8.69748
3.70084 76.5325 -8.36615
11.3308 89.0647 -23.1011
14.9434 132.341 -10.504
19.5774 100.366 -13.4625
21.2072 123.907 -10.7117
-23.8867 79.1867 -4.98886
1.01903 127.078 -12.947
-18.5741 118.623 7.60998
-4.0179 131.39 5.6052
-1.86505 128.423 -9.9296
-4.32751 118.049 -15.8456
13.6242 129.015 -10.3803
16.5192 147.945 -1.21738
18.2174 100.784 -17.1133
17.3293 107.952 -11.6355
-15.4458 97.4706 7.08987
-1.28902 134.624 4.4628
13.9786 125.171 -11.2851
0.327008 78.1438 -5.98767
4.88756 77.7597 -8.13552
17.3028 93.104 -20.283
13.8489 121.665 -11.9242
-2.46078 120.918 -15.5768
2.79206 97.9651 -22.0587
12.6675 129.303 -7.97743
17.3561 127.553 -3.49032
8.05172 86.4883 -3.39909
19.4328 102.42 -5.7278
12.7054 112.965 2.16909
-23.8376 119.774 -1.99051
6.28652 126.827 -0.933933
-16.9264 111.481 -14.8428
-0.615313 91.2223 0.672075
-18.1274 99.5091 6.6696
25.7856 129.01 -6.56029
-6.37601 86.0081 2.10274
3.68887 82.9443 -24.9074
1.63873 95.5229 -21.8645
-23.9628 81.5624 0.279003
3.16105 85.9721 -23.4837
15.1667 123.712 -5.8547
-12.8358 82.3078 -17.9329
-2.56411 81.877 -3.45171
-13.8878 104.139 -16.531
-15.6088 90.4655 -16.8674
10.6169 146.643 -7.70862
-3.43866 126.731 6.3131
13.4097 119.838 -11.7024
17.7303 147.336 -0.445228
-13.1137 94.9735 -17.4117
6.92027 139.224 -11.0458
-17.5236 124.094 7.48227
9.66911 135.086 0.0475831
-23.3355 105.475 -11.5424
3.747 135.378 2.90253
18.1734 146.417 1.04191
22.3923 130.816 -6.90394
-7.7456 104.473 -18.3801
16.0888 107.114 -18.0623
-16.3709 111.453 -14.9026
0.517731 114.303 1.67914
-11.6401 86.9089 4.0611
18.5028 83.2128 -8.34559
16.1536 124.378 -5.20673
6.16056 114.267 -1.46118
0.251535 90.1619 1.397
-14.9813 116.152 6.62164
15.4722 95.8359 -1.7697
13.913 108.936 1.86746
-22.808 80.2026 2.29153
-15.0933 126.8 6.53698
-17.9668 129.868 3.43058
11.9824 90.9279 -1.86576
-20.7984 95.6103 -14.6586
-3.25738 134.398 -6.44707
10.0859 81.7261 -25.335
7.52304 136.953 -0.446383
-12.4799 79.0713 2.97845
20.07 138.882 -6.37267
11.2495 106.676 1.16509
14.5173 143.923 2.7204
-16.239 94.7853 -16.7648
1.87347 90.6703 -22.1741
7.94496 144.427 0.439798
2.99504 83.0182 -24.621
-1.93358 114.847 4.98485
14.8764 132.847 -10.3568
15.3631 100.565 -0.361596
7.11211 144.204 0.901417
-2.70481 128.965 -8.95755
14.8411 89.7294 -22.7791
-2.1795 140.933 3.1606
14.8794 97.8708 -20.5673
19.4315 128.108 -0.821439
-2.19714 125.813 -11.413
11.1997 149.569 -4.87968
-21.0539 91.0354 -12.7338
14.0034 124.875 -0.112837
2.581 129.259 3.76205
11.6977 127.427 -6.22688
-15.2335 126.328 7.17775
5.85177 96.1546 -23.0432
16.1331 108.044 -17.7728
12.6259 119.784 -18.1513
-25.6936 92.8327 -2.34159
-2.08579 105.329 1.976
21.252 95.8841 -11.2867
12.4446 129.159 -12.7758
1.48833 108.284 -0.650114
12.756 112.466 -18.6865
-16.8883 92.7237 -17.104
14.682 123.29 -13.472
-14.3476 125.702 7.54506
19.1234 123.783 -13.0422
14.0293 92.0651 -2.51217
14.1008 117.145 -13.2051
17.5695 116.605 -1.47686
14.9305 100.6 -20.1242
-0.643382 84.9414 -22.8654
-13.5165 116.503 6.6574
-19.9411 92.6301 -14.0277
-21.413 114.178 3.90946
17.7571 138.61 -8.1614
-3.09236 78.7547 -4.72965
10.564 122.847 0.813244
19.3085 100.514 -14.5284
12.2641 146.667 -6.41857
17.7353 95.9627 -18.8274
9.25639 151.837 -3.48921
-23.0429 104.116 1.55034
-13.9238 125.395 7.57607
-6.13515 80.7623 -2.23526
14.0357 87.4649 -4.61794
-5.42232 83.5176 -1.90171
10.6547 115.968 -19.0572
13.0861 129.906 -9.21162
-2.01634 90.5062 1.22595
21.8972 121.668 -8.32566
-3.67925 130.447 5.97604
-7.89827 126.46 -9.30972
-11.1773 84.6271 4.40333
-5.30885 131.122 -7.50196
10.0435 119.476 0.778439
-1.73304 117.54 5.26237
-16.5906 110.728 -14.7724
18.9263 86.3487 -7.23385
7.79322 85.5629 -24.7588
14.5329 138.329 -8.83535
10.862 150.677 -2.99715
12.4143 116.169 2.4884
-12.5246 79.9686 3.19289
-15.9711 94.2821 7.05601
4.86027 101.878 -22.5202
8.11399 122.982 -16.1433
-19.9089 99.8345 5.59045
-5.23657 90.1275 -21.611
22.1749 129.852 -1.42843
-26.0824 80.642 -0.873763
-21.4328 99.3981 -14.2853
-5.19537 113.609 -17.6113
1.23917 106.542 -0.718759
11.0404 101.82 1.10961
-13.1064 88.8769 -18.1376
13.4353 110.315 2.01697
11.7381 81.5861 -25.0601
-4.16917 126.281 -9.38492
-18.1699 124.44 5.86104
10.9099 98.4117 0.443982
9.50158 113.599 -0.380841
15.5333 113.1 -17.101
8.69496 135.807 -12.4892
-17.1279 108.365 -15.2249
14.1576 123.835 -12.6817
9.52124 124.234 -17.015
2.93139 106.789 -21.7167
11.2735 113.252 1.50287
12.0595 108.699 -19.9465
-12.7662 134.542 4.33799
-8.29181 121.859 6.72058
9.10743 105.821 -21.6374
8.43396 129.68 -15.7316
-19.741 109.997 -14.4909
14.0685 81.8975 -6.83141
24.5972 121.473 -5.71434
11.7281 127.722 -13.7446
-18.0671 86.9894 4.47696
-15.2 96.076 7.02807
2.07718 125.597 3.23153
-9.47656 108.858 -17.5807
9.99871 144.91 0.174417
14.7182 90.6695 -2.9198
17.3911 92.6239 -4.14343
11.9282 125.956 2.90369
22.8511 122.683 -10.2611
8.25894 107.328 -21.2162
19.5446 124.615 -12.9937
19.5674 96.5225 -5.66212
19.7095 97.2212 -15.5557
12.1374 114.868 -19.1805
14.4975 122.787 -7.82089
-23.0138 81.7858 -9.38095
18.0369 94.542 -18.0174
9.37258 96.0854 0.626214
10.5829 80.0685 -7.82355
3.39607 142.815 3.919
-2.93969 127.364 6.24777
2.8263 109.436 -1.10975
20.1934 125.588 -1.58462
12.8479 129.171 -6.76692
3.14212 123.265 0.939081
4.05032 91.0565 -23.1963
-16.683 84.0353 -15.2781
16.698 106.319 -14.6621
4.84937 120.425 -0.849423
-21.6759 108.064 5.73077
18.0366 141.65 2.76918
-3.73484 130.447 5.98734
7.43627 141.924 0.598175
-4.80436 118.858 6.7033
12.8813 119.739 -12.1546
1.58537 132.613 4.7008
-6.1182 82.2925 -22.7739
-13.488 132.121 5.07003
-14.301 124.577 7.44019
-14.3504 112.852 6.47708
1.76894 137.773 4.10081
12.5913 119.413 -14.7745
-2.52019 80.4393 -24.0363
2.55624 84.0539 -2.18987
8.16997 154.07 -0.883802
13.9869 124.055 -11.3794
3.61123 76.5625 -8.3022
19.8677 77.7461 -19.309
-11.0667 115.046 -14.5738
7.42527 130.632 -0.89871
13.9857 111.599 -18.4941
-1.87019 108.065 3.06572
13.5604 114.936 2.53215
-7.09106 101.761 5.75831
-6.90258 78.1672 -1.92931
10.111 110.525 -19.4757
11.8577 140.085 2.28995
-25.1694 89.3479 -0.663114
9.09049 104.571 -0.416282
14.6555 116.274 -17.2601
-22.3883 91.4688 -12.4723
24.2619 122.391 -5.05064
12.7994 124.142 -13.6202
13.615 92.661 -22.8702
20.5911 93.8627 -14.8067
-5.57101 93.186 1.3945
-4.91445 115.732 -16.5667
-12.1066 77.4441 -18.1094
-3.3067 100.377 1.34242
23.1104 134.811 -1.02757
21.2953 92.7273 -8.75031
-17.2302 90.3077 -15.4139
-7.93495 101.541 6.1997
15.0407 124.507 -0.505996
18.0912 115.603 -4.10465
-7.70035 117.545 6.98688
9.61806 110.209 -19.697
0.987817 79.3598 -25.731
-12.6682 99.4252 -17.039
10.6801 111.264 0.384147
17.202 90.4196 -19.3011
-17.8278 88.8575 4.37166
10.9427 108.519 -20.2965
18.8887 95.9956 -16.8868
21.8165 136.688 0.198554
14.3016 125.416 -7.0796
9.4521 105.928 -21.4394
-4.30684 105.014 -20.0531
10.7626 118.811 -17.1689
12.9423 87.6986 -4.35325
12.9551 130.453 0.882762
-6.68242 95.3803 2.93553
-21.9101 112.651 -12.407
-7.02226 100.503 -18.052
18.2995 101.551 -15.8155
16.7418 121.525 -2.14618
-23.2593 108.61 -3.88372
11.7831 139.619 -12.3783
12.743 131.024 1.3115
-23.8998 97.5986 -6.33963
12.8629 134.363 -10.0483
11.7451 127.779 -16.5447
-21.4645 114.796 3.79789
1.05202 137.256 -6.67641
20.7037 132.163 -0.473384
-23.6531 86.6298 0.972005
-22.0822 79.9131 -8.68025
-23.6676 103.54 -2.90815
-19.2361 91.8224 -14.0933
13.2671 133.926 -11.9927
-14.0761 106.56 5.96686
-1.10814 88.2685 -21.9687
4.48493 111.983 -20.0526
9.06012 122.23 -0.691288
10.2529 134.92 1.33672
11.6349 129.098 -16.2877
17.0388 90.8914 -3.99089
7.81786 144.48 0.518152
21.7642 80.7304 -16.2201
20.5585 139.941 1.57392
20.2197 99.9877 -11.7575
23.3298 131.317 -4.11541
22.2337 85.71 -11.3297
-5.35536 144.375 4.82382
-1.64642 119.907 -16.3996
7.41329 133.043 -0.788162
14.5528 83.9834 -23.3827
-2.66547 100.834 -19.2375
-23.6254 93.7066 -0.024054
11.4902 149.829 1.19728
-2.53137 100.978 1.08506
-22.454 102.708 -13.1717
11.9376 137.649 2.81876
1.15766 84.9926 -1.14896
21.66 79.2263 -13.0805
-7.30105 81.0667 -0.330531
13.0375 124.218 -8.18752
3.67937 116.697 -18.0426
-4.34019 134.987 -6.41751
-20.2281 86.6748 3.511
-25.1602 79.0049 -2.05516
21.2743 94.7365 -12.4172
10.8625 109.022 0.965005
6.93747 93.584 1.12627
12.3352 128.406 -15.0043
9.26389 113.098 -0.771509
-8.75315 121.996 6.89075
14.5647 85.6224 -23.6924
14.1485 147.343 -1.25108
-20.2392 105.241 -14.5297
8.02247 122.515 -1.37183
18.9066 103.069 -12.1879
12.8218 130.366 -11.5369
6.21734 136.436 -11.3421
-15.4827 103.765 6.21687
-2.75391 132.543 -7.0892
15.5245 92.686 -2.8052
10.5147 105.182 0.236304
10.4232 129.594 1.67671
2.18108 134.452 -8.92293
-3.00552 79.0382 -24.13
-20.3862 96.2682 3.25793
-22.8413 105.855 -11.6623
-0.389553 122.032 -15.9263
-8.17654 92.3209 3.3163
1.43589 94.6815 -21.7242
-7.16826 112.856 -15.7416
-3.70067 129.946 -7.9629
12.4323 140.631 -9.47301
21.7215 125.332 -1.61822
15.6931 125.718 -2.10755
18.8124 113.051 -3.04031
18.0119 92.3351 -17.9124
12.8792 128.123 -11.9414
25.615 127.97 -6.14372
18.6905 89.4165 -17.3494
-11.617 105.62 -17.4487
-18.0326 112.26 -14.6857
15.7969 104.644 -18.9881
-22.2569 100.963 3.55081
9.31243 107.71 -0.206629
-10.3339 117.652 -12.7876
22.4882 126.085 -2.19302
17.7919 128.239 -13.3148
9.63675 102.421 0.989297
-12.0359 92.0052 6.01489
-24.0334 105.62 -5.66328
14.1261 133.89 -11.622
-22.318 110.542 -2.18122
16.3893 87.9105 -4.73548
-21.9279 118.352 3.28006
-20.6628 81.2154 3.15207
13.0907 125.415 0.987911
3.18872 103.009 -21.4855
13.7635 124.767 -5.73471
18.6456 114.084 -2.99601
19.5183 98.748 -15.6932
-17.9588 92.0769 -15.6637
4.25652 134.786 -10.5999
-23.0946 120.164 1.92444
25.8517 129.973 -6.42801
17.0126 86.0971 -20.7329
-4.65654 75.6147 -3.95787
-8.08466 82.2181 -21.6341
18.3743 143.611 2.19569
10.6371 149.909 1.04506
21.0607 123.429 -4.57301
-24.0241 92.6079 -11.1667
6.30212 137.331 -11.0423
20.5203 100.666 -9.22969
10.3993 148.038 0.654252
-9.9437 83.7452 2.65337
-5.41679 113.155 -17.5808
21.989 136.745 -0.00142128
-23.5565 111.766 -4.37595
-13.7485 136.582 3.83765
-19.6716 128.623 1.94921
13.5528 100.989 -20.2552
18.2813 122.897 -4.79584
17.5486 129.23 -12.38
-0.373441 126.697 5.05821
2.90612 97.3535 -22.2463
-5.25136 86.94 -22.0922
5.96168 104.714 -1.09292
-23.1739 111.897 -10.9258
20.4981 140.197 -5.15708
14.5433 122.684 -7.5128
-22.5704 96.6714 -13.3513
-1.71867 89.0673 -21.6004
19.5879 100.965 -6.71035
5.57326 97.5662 0.503409
-5.7072 115.307 -15.388
14.1997 84.5535 -5.82684
-13.8387 82.4695 4.67459
-3.00057 81.1049 -23.8276
14.7896 129.148 -13.6618
-24.7905 93.9201 -7.49421
16.5771 80.1439 -23.8656
4.73683 143.302 3.53434
-13.2693 137.111 3.91963
-2.73975 82.6139 -2.71817
-20.3461 95.0853 2.90455
-1.3782 85.3422 -22.9699
11.1887 127.216 -8.50524
-21.7547 112.807 -1.14221
14.1175 139.342 -6.74246
5.92948 109.734 -1.3535
-20.7442 104.886 6.24704
-9.85724 84.232 -19.666
-7.16226 125.513 5.78722
-0.0581132 88.97 1.41973
17.4674 123.088 -12.7671
-6.80232 129.838 5.63594
-19.3572 99.0034 5.57331
2.09503 115.061 -18.4448
-16.312 81.5382 -14.8716
16.099 84.1962 -6.35508
-25.842 91.8799 -4.47371
-11.3143 89.2676 5.31501
-6.99399 117.215 -12.9474
18.4154 99.6591 -17.6828
21.6304 126.186 -1.1799
-12.2249 130.415 5.70065
6.27844 90.5213 -0.0351955
19.5398 101.373 -11.6702
3.74224 140.309 4.09538
-0.323803 79.7815 -24.695
11.0907 93.9554 -0.935116
-24.281 94.8555 -7.51981
11.1386 124.926 1.93203
-18.5177 84.8429 -13.6221
20.5462 97.2168 -7.20376
-16.0708 114.517 -14.9472
-16.1744 78.1392 -14.5721
21.7956 143.06 -0.672359
15.8697 83.8592 -22.4001
-8.60417 82.0998 -21.3164
-12.0999 87.1145 -19.2655
21.1011 124.599 -3.45558
-19.0974 122.622 6.71386
16.6778 121.836 -5.5403
9.45328 114.871 -19.7909
20.5696 126.603 -10.1899
-1.71477 132.103 5.55187
-15.6586 111.766 6.73866
-10.6497 77.8459 0.554735
12.397 120.898 -17.6684
16.5531 136.621 -9.55116
14.2078 122.941 -7.22439
6.81174 139.478 -10.9883
-16.6747 124.134 7.5786
6.56999 124.559 -15.1259
10.1443 99.8525 0.997037
-12.0359 85.0929 -18.9739
-22.3522 111.557 1.83713
-6.08045 131.578 5.2787
-14.5546 87.1249 -16.9606
-5.09124 103.52 5.05007
-21.6626 103.113 4.88379
19.0237 111.995 -3.28648
22.3398 131.031 -2.90669
4.41866 77.479 -8.05788
16.9757 114.243 -7.22902
-21.1203 95.0353 1.59784
-20.5465 96.7817 -14.9965
15.3729 115.933 -10.9009
13.3186 123.493 -14.745
-0.96821 123.387 5.31659
3.7529 144.343 -6.08189
14.7402 119.328 2.26769
-0.676647 77.4205 -6.30732
12.6031 126.402 1.86721
16.4657 109.027 -13.8892
11.7668 80.6655 -7.52056
17.6351 122.377 -5.4021
-23.8261 106.991 -5.22522
2.50213 90.9071 1.11271
-23.3432 96.8656 -8.41637
-0.668978 123.424 5.10921
13.5566 126.648 -12.5933
-20.7367 87.4534 2.67392
23.4224 137.157 -1.1523
23.8738 135.56 -3.3003
-2.24754 90.5265 -21.3714
11.2698 103.497 0.910918
21.8707 121.836 -7.27598
-24.5004 98.3757 -10.0139
1.17967 80.6394 -4.36956
-11.0073 106.553 -17.9168
7.85525 139.159 -0.0357284
-23.6016 99.884 1.64981
-21.3025 108.479 -12.1299
18.5218 98.4766 -3.2845
5.24235 86.0907 -23.7823
-20.3633 122.01 5.41114
14.814 131.346 -12.8754
-7.75814 89.8246 2.31607
5.51222 78.026 -8.32319
13.158 112.444 -18.562
-11.0473 132.162 5.09263
7.61847 80.1918 -26.194
1.93456 121.129 1.88966
-5.09533 89.9533 1.11807
20.8005 88.4129 -8.52107
2.52517 91.3656 -22.5146
20.0762 102.924 -9.89135
14.1191 85.4983 -5.50442
7.28366 88.7676 -2.08109
-23.1476 80.8011 1.38347
18.0062 82.765 -21.6992
13.5181 140.709 -5.4374
15.1794 115.969 -9.62011
4.90695 94.8342 1.13193
14.7791 129.225 -0.558513
-11.5562 86.9382 -19.5243
-25.6738 92.2605 -4.5442
-18.4037 97.17 -16.0199
-0.0248365 114.197 -19.2017
19.2472 143.177 -3.78772
13.5981 149.124 1.67727
-7.93048 126.101 -9.52157
-2.44113 98.4348 0.572124
-22.8407 84.2089 -10.1182
19.6707 95.7723 -15.8143
3.10573 108.164 -1.15399
-6.31186 87.6669 1.9436
12.1851 112.972 -18.9398
18.6587 98.3781 -3.57376
-24.0227 111.268 -9.50239
19.7143 91.5533 -7.07384
20.3839 97.5896 -6.85666
7.25397 96.0989 1.30025
-7.97791 82.0312 0.398072
12.8704 119.26 -17.6996
18.5731 96.9034 -17.4584
-24.3488 103.698 -10.2988
0.377879 127.403 -12.7018
-25.7473 89.7879 -7.01587
-20.0899 89.2401 2.10464
-4.97971 95.6622 -19.6511
-18.2738 86.2917 -14.3054
12.0563 104.133 -20.6617
-15.3838 83.3186 3.59032
6.83053 132.385 -13.6838
12.7074 124.243 1.80388
-15.729 81.2899 3.64285
3.00275 131.309 3.65462
19.8661 88.1765 -7.29675
21.2083 91.8467 -11.5045
-17.563 111.815 6.97712
20.2228 143.652 -2.90084
21.3525 85.8468 -14.4938
-21.2693 94.6758 -14.1201
15.7961 121.298 -10.214
11.7643 127.163 -14.5614
16.2441 118.511 -2.2607
18.2405 101.999 -14.3996
-22.6661 88.2343 -11.5123
24.6308 127.984 -7.00235
23.3691 138.561 -1.06597
14.5742 134.864 0.39905
-20.9887 79.3349 -9.95294
-9.33062 128.265 5.95198
11.5249 127.177 -13.8561
-1.52348 128.522 -10.3001
20.3102 124.487 -11.212
5.40881 97.6962 0.373476
18.2198 103.448 -3.28973
-22.2037 79.3565 -7.52318
14.4017 131.027 -7.3156
-5.77615 138.155 3.85778
8.27366 144.77 0.382684
9.42966 112.738 -0.66845
13.0314 124.007 -7.06917
15.7502 90.7681 -3.30521
-16.5646 81.0953 2.72116
14.292 146.307 2.49606
21.9257 85.7966 -13.8577
16.1828 118.529 -3.35045
18.7924 132.417 -0.721598
-1.14223 92.665 -21.3541
14.7979 129.498 -7.96294
-4.54887 118.362 -15.0641
17.6826 110.939 -11.7185
-10.6447 78.7565 1.7522
-16.3498 127.929 6.03558
-0.589505 112.623 2.90035
8.77319 91.9044 -23.0518
-25.886 79.6513 0.261095
4.96872 102.975 -0.984702
13.9237 126.557 -12.9131
14.2073 121.694 -11.7832
-3.84503 99.5761 1.35209
7.01756 81.4093 -26.1514
9.10309 78.1453 -9.10684
10.0022 112.324 -0.110296
13.624 120.379 -11.8832
-9.6673 90.8248 3.84815
22.9187 129.857 -7.66544
14.3181 140.073 2.75527
-16.5999 100.307 -16.1487
-15.6983 94.6774 -16.8195
1.88459 132.868 -9.32609
-16.3042 120.927 7.18028
-22.3294 109.255 3.89713
11.0895 129.711 -16.3193
-5.63637 78.5376 -3.17281
20.5928 128.317 -0.82629
11.6196 88.6647 -3.48271
17.1585 120.823 -4.74893
-18.7032 108.56 -14.4802
19.4768 143.146 1.73493
-18.3208 78.2086 -11.2584
-22.6731 84.5399 -10.4275
18.3514 143.453 2.2413
-18.5334 97.326 5.50593
13.7976 136.473 -8.12788
6.3843 115.57 -1.489
13.6606 116.014 -17.7191
19.4639 85.282 -8.20119
-2.59319 111.484 -18.9768
16.5044 82.1137 -23.37
-26.2792 84.6222 -6.80584
6.33977 145.762 2.6938
-5.02826 106.797 5.38381
2.94034 127.157 2.7427
15.0503 135.149 -10.2755
-23.7588 96.0292 -12.1218
22.6675 132.246 -2.16253
11.1983 131.523 2.34752
17.3668 99.9717 -2.07499
13.791 144.295 -3.77977
12.5502 129.389 -7.30784
-16.9827 131.065 3.91497
13.3738 86.3355 -24.5922
-25.4452 88.9243 -8.34413
-19.3592 94.0687 3.29505
0.151948 97.358 -0.452989
-11.091 99.4614 6.82794
-21.6852 106.667 5.16478
-12.6579 100.291 6.78907
20.7045 87.9137 -8.55631
-9.95129 103.982 -17.4636
-15.1451 78.0856 3.99457
7.43566 127.33 -1.26188
12.6638 120.423 2.91024
-26.6652 79.4668 -1.62291
-2.61099 115.437 -17.8149
-19.3935 78.4807 -11.3733
7.55032 135.828 -11.8507
10.9537 125.458 2.10903
21.0396 140.796 -4.36132
-20.326 85.1887 3.97343
5.11036 106.876 -22.0513
20.8702 95.2109 -13.8852
-4.91041 124.123 -9.98214
-23.989 100.622 1.21249
-13.3233 95.2126 -17.2153
-23.7169 90.1294 -0.366256
19.8817 96.2722 -15.3216
10.4538 121.51 -16.3127
-18.118 102.044 -15.7083
-13.1656 98.8988 -16.9782
-11.7627 78.4699 2.52838
12.8679 130.34 1.0497
-17.672 78.9674 -13.6369
-4.99408 117.971 -14.5585
4.767 92.1054 1.09597
16.33 112.711 -0.233884
10.5623 126.835 0.17828
7.28421 86.3805 -23.8619
16.6494 98.4932 -2.29043
14.5779 126.983 -10.315
-9.54744 111.636 -15.7551
-20.4269 98.2026 4.54076
-16.8712 91.0523 -15.9542
13.8064 146.721 -2.45281
-18.5889 113.967 -14.4155
-12.9915 101.474 6.53636
8.39494 78.7786 -26.7903
18.7479 106.036 -10.5039
-22.1198 99.9067 -13.7517
-2.93151 99.8344 1.09041
8.06761 117.22 -19.3164
-21.0555 115.832 3.26546
22.6167 129.407 -1.96356
-19.6898 130.729 3.77125
24.4395 125.15 -5.06075
-10.1242 105.298 6.24267
-11.6205 133.82 4.38431
18.5957 140.533 2.00155
-14.2911 100.989 -17.1972
19.9134 99.5769 -6.91922
-19.7176 107.926 -14.2086
7.21459 149.635 2.8968
14.7398 102.12 -19.7809
21.1279 79.6408 -13.8553
-16.914 132.766 4.09989
0.97106 93.6635 -21.43
-0.355622 126.012 -13.45
-16.7099 122.254 7.61568
-2.42824 103.237 1.50752
6.35035 109.646 -21.4386
-0.0574326 79.9833 -4.77844
-19.277 90.4433 -13.7243
-21.2557 98.4906 3.50227
-12.2689 123.977 -10.1187
-10.93 130.726 6.03091
16.6003 141.067 -5.48906
15.8229 142.5 2.46759
-8.28468 90.0621 2.64916
-24.728 81.2652 -0.87059
14.3521 132.972 -9.35741
22.7794 127.906 -9.62375
-20.3019 120.263 6.13548
-6.47562 86.7355 -21.5061
-24.7935 98.3423 -1.52923
-20.5968 109.552 -13.2578
16.5066 120.705 -6.7514
21.2199 91.8543 -11.7474
7.53674 79.4892 -7.36628
4.85507 95.7375 0.88532
18.5713 113.015 -10.2039
15.8258 120.411 -0.762161
10.1122 94.5195 -0.492173
3.4323 126.459 1.73073
18.3728 132.143 -10.3796
-24.5936 79.2456 -0.154532
7.24575 93.5083 -23.1269
22.6222 123.971 -3.59705
-27.5746 86.5504 -4.19159
7.03416 111.563 -20.3933
-6.27344 105.946 5.40463
-13.1381 78.2987 -17.9913
-22.4214 120.364 3.79223
6.80492 133.722 -0.647678
-16.7002 83.7889 -15.1582
-14.418 90.3451 -17.9245
-18.2044 99.8176 6.75823
12.537 127.337 -11.0401
-25.1123 79.7927 -3.42588
5.6767 92.2955 -23.3097
-17.3524 101.736 7.10042
17.2965 124.949 -5.61247
9.28652 136.153 -0.886381
-1.75804 86.6467 -22.6884
-13.1026 133.987 4.55535
10.9882 88.6349 -3.46484
-24.0806 108.914 -9.19462
-13.5744 128.054 5.82616
-19.7906 78.3959 -8.93799
13.4475 85.6653 -24.5477
17.2679 125.068 -3.11929
-0.741173 88.1429 -22.0135
16.6099 132.616 -11.7191
-14.444 109.923 6.03077
15.7582 131.931 -1.49929
19.0097 111.679 -7.73303
8.85756 116.654 -1.14196
9.94801 79.0539 -8.28154
-5.03424 123.58 -10.1475
-3.53453 121.668 6.42352
20.767 132.646 -7.2924
9.19487 114.694 -0.767109
8.29126 100.984 0.531314
-11.7025 85.4886 4.66991
18.7461 105.783 -3.57759
-13.3457 88.2072 -17.8792
0.26668 133.051 5.301
14.7809 116.445 -9.23485
14.6326 77.795 -9.47136
-8.86327 93.2951 -19.3079
13.284 125.9 -12.3257
-20.9626 88.6123 1.81831
14.4518 122.378 -11.5449
-1.38242 138.498 3.58302
9.33421 121.768 -0.470048
14.6467 80.5055 -24.6438
4.94243 139.371 -9.99938
-23.1167 89.5822 0.138158
-17.6931 110.974 -14.6964
14.7777 82.6003 -6.5676
-15.9393 124.713 7.46537
18.3513 143.498 -3.94296
-23.6021 86.4853 1.05506
9.26119 102.144 -21.9941
-13.2482 135.84 3.75416
-20.343 99.0391 -14.7166
2.34104 130.903 -9.92932
13.5428 124.866 -5.77193
5.74046 147.329 2.62551
9.31945 140.339 -0.568925
1.64715 126.786 3.91834
4.04419 139.51 3.5956
20.7781 99.6775 -9.79817
-20.0753 120.404 6.24258
13.855 76.3933 -10.3915
-8.64084 100.968 -17.7964
15.9584 94.0703 -21.7345
3.34172 99.0623 -22.2072
13.7813 128.118 -8.24308
12.9356 103.371 -20.2724
-2.84973 108.576 -20.1082
9.07266 97.8097 1.19516
9.54184 134.857 -0.541725
-4.78692 132.113 5.16821
-2.38692 124.043 -12.6389
-25.1686 83.9293 -0.0260653
-9.06419 88.679 -20.4593
-5.85092 80.4905 -2.64433
-0.381514 85.3186 -0.684559
-0.623943 119.857 -16.7768
16.9315 115.576 -6.50276
-9.55731 88.5901 -20.2437
2.31897 131.154 -9.86984
-1.28583 118.98 5.16596
-13.3789 79.0033 -17.7901
-25.2602 86.9386 -8.36665
-24.5918 95.6713 -2.33021
17.468 121.091 -6.46023
20.5436 98.7863 -12.4889
-4.12184 80.6339 -23.4634
-20.1918 84.7604 -12.6202
-15.7061 120.321 7.03442
14.5309 123.297 -10.6092
-13.2615 85.2228 5.3605
-13.1827 109.122 5.84531
1.80116 123.141 3.02461
11.1069 94.1457 -22.1991
18.1252 107.76 -9.17793
10.5301 143.649 -9.8539
15.2496 121.492 -11.7734
7.82809 113.377 -1.2768
7.44423 94.2062 0.927012
10.859 126.983 2.22045
12.3147 133.941 -14.4478
21.0157 123.295 -10.5735
-25.3663 93.8726 -5.85414
12.7647 129.543 -9.21303
12.8856 101.201 0.780689
16.1142 121.021 -10.3559
-16.8489 93.2812 -16.878
-10.3852 96.4215 6.46537
4.41181 115.54 -1.2025
10.9295 153.333 0.760906
14.3733 125.516 -14.0364
18.8607 122.807 -4.50945
14.0519 88.9015 -3.82738
-3.3393 103.382 -19.8799
12.7365 129.466 -5.52535
8.26341 114.736 -19.7732
17.0209 127.132 -4.72548
-12.6451 75.9368 1.91741
20.5507 88.4605 -8.19166
15.3387 115.79 -9.47355
-7.87995 95.4331 4.08488
-7.69669 76.528 -2.11905
22.3353 133.356 -5.24007
-22.635 78.409 1.43668
-23.2506 99.1428 -5.98992
-0.452877 98.8253 -20.3914
-18.8353 94.9998 -15.9657
-21.7811 78.7669 -7.34165
13.0428 119.403 2.87844
-6.73564 92.5612 -20.4287
-24.5161 84.3201 0.320997
15.8988 119.649 -1.32759
14.5421 149.724 -0.0154959
19.9686 123.183 -12.8865
18.2106 139.143 1.43757
0.635005 98.3057 -21.0488
17.4381 114.019 -10.6421
-16.9492 92.4786 5.40242
-3.04865 107.226 -20.4691
-4.20453 122.122 -12.1988
-9.18462 81.0689 -21.0267
-12.08 113.257 6.2135
-16.2986 94.1304 6.87476
9.76814 116.975 0.0938994
19.177 84.8477 -18.2454
-15.896 121.685 7.29839
12.1514 131.049 1.80517
13.5231 109.208 1.97576
0.992117 91.0735 0.792273
-8.04237 89.7856 2.48838
2.84328 117.545 -0.114737
15.6936 92.2616 -22.4112
18.8284 146.19 0.714611
-6.73735 90.6787 -21.1277
-5.87025 77.2285 -3.14896
-4.91145 118.185 6.83458
-14.8451 110.323 -15.4758
-5.99097 98.322 3.11137
11.0721 109.925 0.979405
-0.724421 82.2407 -3.10827
-17.9107 88.2607 4.23716
17.0567 117.406 -5.37838
15.2245 102.537 -0.0371237
-23.5563 97.9407 -12.1045
-13.9231 79.4846 -17.4778
16.2085 105.844 -17.94
-18.1492 115.89 7.33623
21.24 96.2347 -10.5272
24.0952 124.389 -9.722
18.8814 94.1738 -16.7964
8.78853 118.219 -1.06538
-11.1188 84.9664 -19.3298
12.2158 124.969 -13.4405
-10.3232 103.599 6.04616
7.73934 112.557 -1.31071
0.358371 112.619 1.46727
17.1505 114.376 -11.1134
-11.1229 107.497 -18.1442
10.8004 93.8686 -22.2202
16.9472 101.516 -1.32178
-16.4685 78.3065 -14.347
-23.9058 101.754 -10.757
4.58366 81.6952 -25.9192
13.0952 147.95 -3.65265
5.88708 114.94 -1.47767
-11.5736 83.7007 -18.9341
6.25086 133.454 -12.7918
7.79677 123.778 -15.2877
-14.2696 117.163 -13.8213
-24.3271 88.1748 -10.5663
-25.2459 91.5799 -5.96099
21.6427 79.7073 -13.2398
-23.3334 100.396 2.09178
11.6611 103.654 -20.8391
15.5889 124.993 -8.92038
13.9222 132.147 -8.3464
-23.2396 81.6444 2.05407
16.8776 80.2204 -23.4254
12.7709 131.374 1.08322
15.9661 90.9446 -21.5341
-3.58569 80.968 -3.6165
-18.4439 117.925 7.44366
22.4606 129.618 -2.48248
18.697 103.071 -3.6346
20.8865 92.9513 -8.16263
-1.50425 108.993 2.82748
8.36087 132.232 -14.6681
23.5903 130.521 -4.44492
-8.4508 83.608 0.528276
17.0839 80.5767 -8.53109
19.894 126.667 -1.09719
-6.01409 126.545 -8.81731
-9.50306 119.86 -11.6874
-21.0785 87.4826 2.44329
0.123062 115.533 -18.5222
-10.1058 109.056 -17.0252
17.8801 122.668 -4.35036
17.016 127.011 -4.72905
13.5604 138.347 -9.92727
-24.0031 102.372 -4.37363
19.3354 108.828 -5.5012
13.2761 114.103 2.40498
19.1108 81.6258 -20.5156
-24.2968 96.8548 -0.185882
-7.08341 83.9025 -21.5065
-22.6848 79.0635 1.88634
-19.0148 98.4693 -15.1836
-26.2021 77.8206 -0.309227
-12.0911 131.615 5.87333
19.7964 92.4788 -6.96939
13.0593 119.375 -16.8982
-22.8284 109.588 2.81833
10.4859 132.002 -15.5712
-0.576868 82.8951 -23.5292
-0.192793 87.7835 -22.0337
18.2549 88.23 -5.8045
19.5069 124.703 -12.6887
5.54559 136.239 0.766506
2.32158 140.366 3.79244
10.5326 124.185 0.413936
-1.60073 80.2739 -4.561
-0.646655 100.686 -19.9556
13.166 134.579 1.8832
23.7446 136.454 -2.40699
-3.84979 105.441 4.52606
-9.28247 82.2734 -20.5489
4.22059 142.267 -7.72652
-17.9865 90.4703 3.67091
10.3776 146.016 0.312374
24.2939 127.579 -9.36284
-21.0397 116.371 5.97068
1.73999 119.138 1.40606
-9.89733 109.972 6.6324
-9.87086 109.006 -17.1897
-3.39733 88.7449 -21.9314
5.06606 111.66 -1.44012
12.9984 126.848 -5.59533
8.04486 113.156 -19.6269
10.276 147.696 -7.28351
-4.41499 81.4474 -3.08856
2.86456 88.9243 -22.612
-10.8398 115.628 -14.2075
5.03129 123.122 -0.767339
-2.31619 88.3552 -21.9639
8.58234 140.354 -11.0545
13.2475 122.284 -14.6049
-7.46139 78.6029 -21.9669
-23.9829 94.942 -0.486962
7.04186 97.8496 1.06189
12.9978 145.748 -4.35206
20.0604 99.7456 -12.6173
-15.2473 116.73 -14.1776
19.4768 137.827 -7.552
-2.26384 113.408 -18.3561
9.18879 138.13 -0.471234
-7.66719 100.344 -17.8819
17.7172 111.204 -1.70304
0.304576 104.246 -20.2506
-17.6629 83.5695 -13.8357
-21.0301 106.013 -14.0242
18.5397 114.758 -3.22735
18.9904 124.693 -2.84833
16.9485 102.579 -18.4238
-17.5152 112.362 -14.8631
-20.1305 80.3586 -10.8387
3.52472 144.28 3.6661
8.72769 102.552 -22.1868
-24.4844 100.172 -7.62722
-8.78703 107.136 -18.8467
24.3979 134.339 -3.32215
-8.89564 83.3371 -20.4877
13.6386 77.9897 -9.76562
-4.62378 108.145 -19.7209
2.17599 103.32 -1.10482
18.2394 115.207 -2.75306
-14.6651 134.305 4.51232
-0.33494 120.805 4.55192
5.56276 95.5365 1.22711
13.5135 143.59 -4.47422
12.2465 124.856 -7.49272
18.8314 109.567 -8.30709
13.6508 134.53 1.15017
12.9789 128.23 -11.751
