ply
format ascii 1.0
comment Created by Open3D
element vertex 1915
property double x
property double y
property double z
end_header
-19.2345 90.1759 0.724472
15.0154 100.374 -0.279643
5.48121 99.6902 1.26867
-7.31372 145.185 2.40135
-17.2109 83.1305 2.69239
-14.5629 109.618 -10.586
-25.787 122.404 3.46796
-10.572 120.939 9.64696
9.30537 152.986 -0.633898
-10.4825 112.46 -10.3375
7.84409 108.033 1.39428
-6.43133 76.2256 1.54347
-18.9829 133.455 -3.13317
-2.40253 106.938 7.78391
-17.3289 131.626 5.5296
-21.8847 136.007 5.16047
-17.8423 122.876 4.56481
0.528472 149.747 -1.92213
14.5411 127.602 -6.30419
10.8002 82.6507 -6.46871
-6.40615 101.398 -10.0712
-5.16773 100.829 -10.0593
-16.4461 88.2516 3.44394
9.6211 128.065 -4.96349
-19.6394 92.6229 -3.16049
-11.9379 121.881 9.51944
-17.308 84.1196 -8.22514
-0.956395 136.36 7.80924
-4.49463 114.151 -6.06189
-5.73823 132.495 4.49568
-0.907769 85.56 -0.201063
-16.9488 106.176 -8.82914
7.98114 134.002 -4.4776
-16.1774 80.9104 -7.2692
15.4137 128.386 -0.144824
-4.86832 112.661 -6.4765
12.8152 145.258 -0.123666
-5.72655 106.991 7.97279
-15.7893 112.981 4.59557
-10.6028 81.2693 -5.33122
-2.35492 142.196 -1.9937
-17.9012 122.338 5.6065
16.0425 100.722 -0.169781
9.30759 137.396 -5.45108
-3.70172 135.714 5.03504
-6.31328 85.1086 -5.30555
-0.238453 128.683 -1.16353
-16.771 123.641 -3.542
-6.69324 122.132 -5.99102
-22.895 127.861 6.59288
5.39607 127.442 4.97491
-23.3274 119.059 5.4942
13.0713 132.533 -4.91088
-11.7025 132.513 6.11995
15.3499 131.586 0.459662
-17.7538 139.597 0.529769
2.67447 82.6692 -4.00589
-14.72 89.7268 4.06934
-21.9378 135.363 2.88284
-0.0996939 81.0185 -0.35796
11.8134 130.241 -3.6331
12.3277 142.805 -2.52904
13.7554 143.305 0.0685768
-26.0384 120.695 4.89891
-2.0406 123.228 -2.81634
-19.2881 110.058 -6.6345
-19.1742 134.221 -2.74182
2.37533 148.226 -2.18228
6.94305 136.611 2.20819
-12.9564 125.105 -8.13912
-11.6792 129.312 5.38414
-2.98684 108.938 -8.14809
-10.1131 115.982 8.5059
21.0837 124.086 -1.28392
-2.70171 102.2 7.10741
11.4401 84.7578 -6.1058
17.9612 107.904 -0.783789
-8.89832 112.064 8.96972
0.575372 142.081 6.76692
-12.4616 115.781 9.84279
-6.14669 77.5786 -0.000960856
-19.8421 118.235 3.66532
-9.69052 104.536 -10.6652
0.867708 92.7021 0.169047
-20.0139 95.6789 -5.26659
5.63196 83.1498 6.50222
-19.5931 109.251 -6.16192
-13.177 119.795 8.51297
12.5645 120.891 -4.72784
-17.4471 120.555 -1.5282
0.969774 98.037 2.57607
12.1941 132.456 -0.849316
10.5156 116.954 -3.04506
-18.959 119.333 0.757075
-1.11378 116.759 -6.24161
2.39837 93.3368 3.70091
-6.01165 79.2135 -6.80778
-8.14346 135.956 -7.7126
-17.4331 118.275 5.07211
12.6216 80.5709 -3.00176
14.151 118.64 -3.65288
-17.435 121.71 -5.19821
-18.6029 121.502 2.32055
-13.2939 77.4341 -4.03012
2.71168 103.135 -7.65383
11.8543 81.8954 -4.08048
0.774548 88.9778 2.03444
17.3428 78.3423 0.779898
-20.2076 128.649 4.68981
-6.41989 100.428 -10.1913
5.39843 86.9214 -4.25749
-9.52567 146.636 -5.10316
-15.9664 128.023 -2.07333
7.43662 127.28 -3.44382
5.25164 139.495 -3.78695
6.24242 80.249 4.79277
0.857249 87.5235 -0.626316
-12.424 84.7302 -9.01588
-14.5463 130.317 -4.81819
-6.66715 151.023 -3.48796
4.07673 129.538 0.0196228
-12.5576 91.8798 -10.2024
-5.99925 88.5363 -7.16765
-5.26698 100.976 7.70488
-10.122 150.972 -1.3351
14.7421 134.79 -2.5804
0.67723 110.69 -8.21185
-1.6678 95.3401 7.21983
-23.4356 118.243 0.267542
-15.3573 104.886 6.75174
-19.3549 114.841 -2.7532
-12.2366 127.616 -8.23437
-7.85015 144.857 2.49492
-5.90564 114.755 -7.14992
-13.7856 93.8504 -10.007
-15.3772 108.011 7.46441
8.36371 134.76 -4.66221
-3.83466 116.415 -5.22203
4.71339 144.229 3.31221
18.7657 136.832 -4.06777
-17.0885 120.722 -2.57483
14.406 119.409 -4.27315
-15.4397 112.643 6.13632
-16.5336 81.9696 3.22968
-19.5124 95.9878 -2.43464
1.21639 92.4669 0.396162
-14.8539 120.543 7.47833
2.62754 146.07 -1.88751
3.86842 87.7029 4.07653
-0.0483433 98.7726 4.21372
-8.88879 90.7029 6.14586
12.3787 140.797 -4.95276
-25.1527 125.972 4.99309
-10.514 82.6137 5.06207
2.46472 87.8297 -5.48556
-18.6858 89.5889 2.02968
-19.2944 110.825 -6.6367
0.532377 113.07 -7.60248
-12.6881 123.485 -8.44662
-14.8731 138.613 7.56372
-17.4519 90.6568 -8.49524
-10.777 150.026 -1.90402
-10.7993 126.667 5.4154
-6.41863 80.1299 -7.51578
-4.33836 135.006 4.68681
-15.4662 124.21 -5.43504
3.96165 116.742 4.5896
-10.8928 81.9319 -6.37058
-11.752 101.229 -10.9783
-12.3022 79.9554 4.25482
12.7058 125.084 -5.21514
0.528258 126.198 -1.80559
-21.1661 133.613 -0.607837
-14.8193 132.457 7.06213
-12.3806 110.697 9.42765
12.5875 113.631 -3.43652
-18.147 98.0676 -9.08849
-15.773 120.804 6.17055
-18.398 120.126 -2.87392
-19.3614 95.4653 1.83531
12.5747 147.207 -1.39415
22.5302 129.488 -3.73101
-7.32291 94.1755 -9.09643
13.2276 80.1442 -2.0389
-18.8275 116.242 2.60883
-14.983 78.1784 2.12619
17.2061 127.009 -5.79519
6.62717 115.597 -1.22876
-9.19153 81.8219 -4.92239
-11.35 108.632 9.71606
8.08026 146.26 1.36665
-0.39905 111.86 8.18706
-2.88543 104.048 6.91205
-1.8858 110.096 7.90055
-8.38681 130.505 -7.43304
12.0892 100.135 -3.82761
-8.16297 100.69 8.70396
-17.5218 120.64 -2.04155
-7.50251 85.8645 -6.87406
-24.9795 124.561 2.97054
-6.94944 135.443 4.29185
3.49244 138.548 -1.29738
-11.8896 106.664 -10.8665
15.9115 123.779 -0.0353421
-16.8625 81.231 -7.51063
5.94118 80.9266 6.2164
-12.2522 133.257 6.85804
9.80163 149.097 -4.5333
-16.8541 139.018 -0.388524
7.97661 89.2462 -5.69489
-8.51395 108.38 -9.68287
2.83724 140.408 5.43475
-7.87694 92.9749 9.15781
1.46023 88.0338 1.78773
-1.97394 123.763 -2.77714
-11.8452 83.6853 -8.85324
-22.1009 126.39 -2.6179
0.55402 126.885 -1.49365
-4.49572 143.954 5.23658
-7.20427 117.225 -8.08875
12.609 131.99 -3.53356
-6.42431 123.992 -6.10966
-3.73024 142.318 5.71354
-13.3887 114.229 9.30018
-8.92594 88.7559 -9.85769
-4.54341 129.056 6.33928
-14.4285 129.258 5.24403
3.02918 94.3313 -6.64111
-8.50468 82.0815 -4.76351
12.2732 122.086 -4.54539
-15.2093 87.452 3.47828
14.0918 140.512 -2.29859
4.41668 131.395 -0.383625
-17.1854 116.525 3.70793
7.83003 154.24 1.08124
-13.5573 129.753 5.58231
-16.2005 124.398 3.91368
5.60383 136.224 -3.67443
16.9168 145.412 -0.234195
-3.59816 142.219 7.59954
-16.9096 117.019 -9.16182
-18.2322 131.41 -2.95806
-14.3327 133.945 -2.10922
-14.6089 125.909 -7.35227
5.05276 146.016 -3.61498
2.72296 92.9472 2.7537
0.483367 113.551 -7.5645
4.28345 122.952 6.02901
-17.5733 120.973 -2.0217
-4.0058 134.75 4.88636
-12.0557 113.173 -10.4991
-2.13573 81.642 3.53128
-8.82033 99.1327 -11.0417
-11.4605 134.015 -5.43102
-7.04514 76.3575 2.75854
5.54828 97.8185 -7.45652
-19.9598 91.7118 -0.479222
0.593888 89.2474 3.12693
4.09503 143.426 3.76803
-10.006 88.5256 4.96364
-18.5437 135.495 -1.04497
-19.5627 119.716 1.64566
-13.3719 127.318 -7.84214
1.53519 87.9723 3.11565
-19.7431 91.0424 -0.163327
-10.0106 149.112 3.05497
-11.5108 134.604 6.58506
8.67397 153.215 1.20473
-0.321893 93.0049 -5.91495
9.38008 115.57 -1.99446
1.09966 87.0218 -0.341537
-21.0635 128.877 4.91913
-19.9109 132.605 5.91681
-18.4352 124.802 3.90386
-11.6525 110.321 -10.8653
3.66961 112.86 3.33114
1.93903 96.6233 1.09975
-17.9496 117.965 -6.83105
-12.3889 84.0545 -8.94658
-4.21134 86.9845 7.90701
-11.5297 122.399 9.22989
6.28474 83.2391 -4.77666
-18.6651 75.7913 0.941695
-3.4483 130.716 5.79937
-0.37174 117.855 8.28456
7.78113 142.151 1.26678
-1.04754 93.8554 -5.32778
-9.60541 116.804 8.56241
2.2449 95.4288 6.34554
-15.6481 124.306 -6.18145
-16.8969 120.943 -6.14011
-21.8501 135.949 5.3999
6.43798 86.4492 -4.06266
-21.2588 130.48 -0.77641
-7.81548 105.977 7.98406
13.4048 111.077 -2.712
3.89908 140.173 4.49063
6.13652 122.678 2.06295
-13.3107 148.242 2.9399
9.66792 149.982 -3.73482
12.936 81.6811 -3.22464
-19.4946 86.9478 -6.99888
-3.29958 99.2147 8.13178
-20.4728 131.697 5.39364
16.6939 82.0088 1.02182
-3.13327 150.324 -2.03669
-13.8826 124.569 -8.74299
8.63135 154.16 0.977527
-1.27474 144.088 -1.50474
-6.32949 145.748 2.56
-11.1072 98.6521 9.21904
13.5894 104.478 -2.87249
-2.14294 89.1798 6.82135
-2.90418 128.094 -2.10644
9.07936 85.6181 -4.02572
-24.368 119.981 6.76348
-13.2892 79.3879 -4.23723
8.71405 149.334 1.69268
-20.0837 97.9513 -3.25037
-16.1694 74.8443 -2.59004
-8.54041 81.5998 -6.63892
8.17967 110.203 -2.37818
-8.35957 90.4163 -9.96361
-9.425 128.529 -7.65361
-8.855 129.098 5.16472
20.8279 123.027 -3.6693
12.3522 128.704 -2.7284
-13.7758 86.2424 4.18838
-1.65832 86.2781 -3.725
14.2189 129.228 -6.04221
7.09583 106.368 -7.93144
-11.8239 116.848 9.81541
-9.55904 81.1063 -6.57428
-2.37445 90.174 4.09858
6.18759 105.919 0.906785
2.31568 86.0452 2.39451
3.36911 150.423 -2.69101
5.21478 110.458 -7.27355
-16.5611 111.951 -9.73134
-14.786 132.809 7.21029
-5.21605 85.1985 6.34913
0.694038 129.367 -0.842957
-5.11397 84.8761 6.43357
-18.3238 99.6797 3.21893
7.47116 105.058 1.35832
-6.97679 90.175 -8.94914
5.2645 98.5481 -7.37817
-11.0066 140.032 -4.9333
-7.39581 136.92 3.08604
-19.3546 115.194 1.40683
-12.2856 96.0602 6.94696
-1.31896 139.161 8.05626
-14.9158 134.088 -2.1651
1.7686 147.435 -1.75352
-13.2596 111.586 9.50813
-16.673 120.397 -4.87968
-19.7856 137.778 2.53593
-19.9453 133.886 -2.08045
-16.9881 110.862 -9.44728
-16.8568 121.796 -5.50462
-15.5593 83.5184 3.58859
-19.6056 104.763 -6.74332
0.689338 110.157 -8.44974
18.3713 124.91 -6.46288
6.2369 129.863 -3.1116
10.1911 148.646 -3.72509
-17.6315 119.176 4.61963
-18.2416 88.0245 2.44647
12.9175 125.245 1.56098
7.50675 146.389 -5.02049
3.79635 83.943 1.04615
-5.03432 141.157 -4.73932
15.7074 129.732 -5.53769
-19.8744 92.337 -6.9185
16.8219 106.844 -2.21774
-4.8307 97.0612 -9.90366
0.376625 125.488 -2.12993
-9.38338 78.921 4.78951
0.0782361 92.1474 -6.02916
-11.315 150.285 0.825155
-19.4785 84.1356 -6.76312
-19.7938 100.079 -0.608737
-16.7048 77.5946 2.09363
4.6248 124.264 5.29746
-0.707617 140.769 7.57632
4.90651 125.601 -0.180923
12.2541 134.832 -5.83468
-18.8466 114.717 -4.43509
-20.6395 86.9344 -5.10901
9.96718 120.453 -2.94817
-13.6099 138.021 -1.87233
-9.07077 109.73 9.122
-5.39772 137.892 3.83053
6.81667 134.872 -4.33662
9.68335 147.481 2.30396
-13.7204 137.13 -4.36967
-10.4346 91.5332 5.51381
10.4668 147.291 -3.17521
16.0203 122.165 -7.31212
7.19198 126.695 1.79914
4.67483 111.598 -5.87478
-9.25914 144.016 -5.50968
16.072 131.687 -4.49928
-13.7756 132.389 -3.28715
-21.3115 127.406 -3.56879
-20.0048 113.302 -1.22688
-8.55634 84.8986 -6.37746
-15.1265 120.73 7.03679
6.08493 83.5178 -4.48497
-6.32798 152.082 -2.65049
5.19726 107.556 1.10747
13.5421 134.596 -4.89525
20.9126 123.855 -1.27108
-20.0364 79.9361 -0.347603
-13.788 76.733 2.84218
-11.5683 131.727 -6.56877
-16.2588 129.552 -4.00461
4.16313 90.4106 5.81834
11.7263 143.323 -4.12837
9.84697 92.2562 -5.09776
-20.1794 113.315 -3.76728
6.97898 141.479 1.62567
7.08498 129.77 -3.65524
-19.773 79.0047 -1.24468
9.35073 111.726 3.60812
15.452 132.45 -4.54014
8.61883 141.135 -5.53646
-11.8722 136.253 -5.04942
12.5073 82.7312 -4.60627
9.69683 153.112 1.40776
-1.73265 117.09 -5.60589
-3.16711 154.212 -1.7631
-5.98915 123.151 9.23565
2.48782 122.638 -2.72148
-3.27024 85.2781 7.06051
-19.1517 126.687 4.91358
6.56878 126.299 -0.824196
10.3713 131.856 -4.79416
4.87977 149.364 -3.54552
-4.78258 122.219 -4.92586
-4.81221 137.081 -4.3839
14.1886 85.2696 1.20578
-17.2409 140.346 0.520059
-20.0253 111.967 -4.74856
-1.46847 95.4974 6.94075
-12.1598 113.405 9.57566
-10.5898 125.93 7.47351
11.117 133.366 -5.13628
-4.93468 78.2464 1.62748
-5.25479 104.598 -9.85043
-4.24153 150.882 -2.38098
-1.00167 84.5847 4.68811
-19.4621 95.9133 1.73358
-14.3697 113.963 8.7782
-9.48251 145.474 -5.29737
3.54678 117.129 -3.30952
2.87207 84.356 -3.90464
13.0221 84.1108 -4.91647
-15.9374 111.413 -10.0563
11.9974 130.256 -1.50851
3.70763 79.6252 -3.53995
3.62161 79.1284 -4.41327
-0.346175 93.7883 3.39063
3.08643 97.9139 7.0206
-5.14357 104.457 -9.91993
12.3839 127.096 -5.92518
-13.8948 83.8462 -9.11418
10.8262 91.1399 -3.18604
1.56491 94.3926 5.28214
-3.07228 84.3621 -3.56005
-1.3348 136.589 7.33127
9.37737 149.668 -4.3819
12.9486 128.612 -5.19679
-1.58549 107.75 7.81853
-9.65093 81.5798 -6.98882
11.9935 107.947 -1.4622
1.48737 86.2311 1.68718
-14.9251 132.669 -2.05676
-18.8751 85.5978 -7.01414
17.2495 111.36 -0.548417
13.8946 101.967 -3.69027
-15.8994 128.799 -2.32889
-8.82063 131.243 -8.15128
-17.8728 132.811 5.33867
-9.842 108.533 -10.2595
-0.659128 122.965 7.45054
-17.7555 119.27 2.55685
-18.4623 119.921 -1.32619
-12.8413 126.644 -7.82554
4.70949 104.75 -7.44309
-22.3462 135.161 5.38148
11.6865 131.387 -1.52651
-16.7733 132.934 5.91088
22.2922 129.987 -3.55206
-15.6785 105.746 -10.3726
-2.29185 113.772 8.58066
6.93417 146.008 -4.753
-17.1366 122.328 -1.93246
8.11745 142.048 -5.32031
-12.7394 83.5293 -6.85602
0.386424 77.6275 -5.45462
5.91745 130.683 -2.96561
4.41179 97.8335 3.8963
-8.27528 91.7599 -9.95429
10.0911 92.5643 -4.55281
0.425068 97.2727 3.13755
-4.0047 146.038 -3.1673
-5.18955 101.52 -10.3546
-11.4257 129.2 -9.13554
6.73998 143.033 1.75804
8.02943 103.162 3.77206
-0.78463 91.2023 -5.03016
-18.0113 117.098 -8.10853
-15.5709 130.123 -2.83511
7.57327 107.617 1.31169
-16.8878 121.552 -1.71567
15.5371 121.66 -2.30477
-13.3604 145.491 0.947754
19.7805 138.134 -2.89022
-11.3282 120.088 -8.86609
7.36043 111.5 -2.35988
13.0545 115.966 -4.68704
-19.0095 124.499 6.71465
-15.922 111.203 5.35444
-1.86996 113.261 -7.05076
-4.62155 78.7328 3.02447
-8.40027 126.916 -6.90442
-7.21425 151.013 -3.14949
-7.62793 93.2788 9.48198
-18.7554 117.153 3.03398
-19.6104 92.0303 0.942895
-1.46564 120.737 -4.25357
-14.1193 113.141 9.12382
-19.4586 132.864 -2.91898
-14.659 126.347 3.84044
6.3831 110.384 -3.90954
-3.81173 136.114 4.93475
21.3273 124.457 -3.32926
-18.67 141.607 3.64167
12.7186 80.4207 -2.4934
-14.2626 112.513 8.964
5.24552 154.818 -1.49614
1.79039 82.6182 2.20668
-5.83959 87.5101 7.70571
3.21796 87.1568 1.65363
6.65373 145.791 -4.6228
-11.4351 114.746 9.27353
-6.80732 119.29 8.66834
-22.2346 125.311 -1.76349
9.09231 113.134 2.61212
-5.45802 137.394 3.85954
-11.8694 81.927 -5.46726
-16.2672 112.422 -9.76649
5.35063 84.9934 -3.13346
10.2207 86.8686 -4.7294
-18.9938 124.694 4.76257
14.5696 125.87 -2.85339
-17.6666 120.27 -1.80225
-19.9453 79.3533 -1.99299
11.0991 140.077 -5.99853
-18.7943 75.4947 0.125024
-12.02 119.086 -9.1672
12.366 99.5772 -1.85626
8.42898 130.513 -4.5094
-20.1618 117.486 -0.130226
13.1323 123.629 -4.39646
-2.88193 126.03 -2.12705
-10.2006 111.137 9.08407
-0.415057 81.5828 -0.791576
21.2582 126.274 -3.67983
-2.27287 79.7386 1.02585
10.627 146.815 -4.53016
2.98441 87.541 1.87058
18.3795 127.003 -5.57456
3.69483 101.655 1.35703
-14.8059 79.2986 -6.09272
9.58987 119.518 2.74312
-13.4334 86.4225 -9.06303
-18.1038 108.096 -1.98465
-11.0998 141.018 4.87009
9.05135 85.7372 -3.97051
1.29256 88.8026 2.09932
-18.2631 128.665 6.55376
7.73614 107.802 -4.20345
-11.5498 145.971 4.8997
-8.90475 132.724 -8.5518
-19.733 112.653 -0.259154
-5.00337 80.6894 5.68786
-16.1949 142.871 1.35755
-9.8464 119.557 9.00221
2.10481 115.828 -6.69422
4.80838 94.2209 -7.76746
15.5887 148.36 0.554233
-9.67949 116.427 8.48321
12.7199 129.744 0.696523
-17.3728 127.448 -3.22052
4.28844 114.591 -3.49804
13.6026 124.031 -7.89447
13.7475 118.922 -0.510825
13.0184 110.14 -2.06407
-19.6975 93.2704 -2.68822
-19.4104 134.039 -2.69551
-9.62072 118.809 -8.7227
-17.7173 107.169 -1.48173
1.78721 145.787 -1.543
12.5758 131.879 0.253973
-1.24472 136.151 7.21386
4.34931 85.1695 1.19646
-16.5764 121.121 -5.68491
7.06865 87.3822 -4.98028
-0.52264 148.944 -1.58508
-21.8114 129.566 5.04371
-7.19071 111.744 -8.20491
-9.43391 85.6582 5.49602
-1.94231 91.1115 -5.15275
-19.5582 128.78 -4.14098
-15.0317 136.114 -1.47171
13.943 79.9502 -1.07992
19.7171 133.245 -3.54748
-19.1532 97.7102 -7.72873
-17.1811 125.952 6.6294
0.372846 146.495 -1.45973
13.5668 138.224 -2.5878
-19.841 116.154 0.805332
-24.7404 118.476 3.537
-14.9068 119.213 -8.51405
10.9891 82.6614 -6.24766
3.06476 85.6753 -3.28213
7.89405 81.3219 -5.51018
-12.3872 81.7845 -5.95661
-19.6613 123.469 2.8945
-12.3094 82.3245 -7.68903
9.81245 149.916 -3.64864
17.5391 145.446 -0.31352
-3.13021 86.323 7.28601
7.83139 92.8669 -6.74131
-16.3987 123.593 4.94305
17.6967 142.588 -2.04634
-7.01542 86.4868 6.69613
-18.3946 120.74 4.34565
13.1873 97.0224 0.176247
-0.829577 94.6558 4.80245
-17.7078 120.024 0.25768
-13.8679 141.911 0.0901622
-6.63858 85.7225 -6.47795
-2.45446 80.5004 0.113785
-19.667 137.984 2.39823
12.0596 140.759 -2.87502
-9.78974 109.452 -10.2574
15.7625 123.063 -7.31893
7.1017 114.276 -1.36453
15.0442 103.603 -2.98327
3.98421 97.2567 -6.49441
-11.0162 134.114 5.94789
-18.5899 75.39 0.880514
-15.7594 124.679 -6.98327
-16.8998 85.1724 2.96845
-8.80354 102.228 9.13284
-1.66999 83.4398 -4.77536
-0.460015 124.794 7.10447
3.37311 86.3438 -3.61505
15.2767 79.8468 0.418795
4.04428 120.425 6.23877
11.869 129.242 -5.29879
-3.17969 130.847 5.90864
9.27416 130.936 -4.70968
-16.3876 79.1217 -4.83208
-8.91442 102.964 9.16721
-8.08869 139.356 -6.83935
5.7502 84.0151 -3.73051
-6.08788 81.4588 -6.16725
-17.9704 142.552 3.41246
3.92575 114.184 -4.33256
-7.81153 132.965 4.3079
-18.7743 105.748 -4.35144
5.61124 114.825 1.29873
-2.43634 115.829 -5.69511
14.3536 111.215 -2.71637
13.0059 127.474 -6.26248
17.9359 122.601 -6.67696
17.8959 100.95 0.539672
-6.62118 95.2929 -9.04355
10.0546 143.836 3.02307
-6.16026 94.806 8.8331
-4.83332 128.918 -3.50386
2.88596 145.247 5.10561
13.0656 105.993 -1.99753
-18.9439 139.409 6.81722
11.1012 100.483 -4.96954
1.17959 141.903 6.36114
10.2513 108.356 -1.75901
-4.88416 79.4438 4.3726
-19.3076 99.601 1.39826
12.296 89.4332 -4.22548
5.82302 135.769 -3.76251
-18.1709 121.346 -2.00687
-7.52716 114.93 -8.54963
-6.8989 79.8854 -6.66452
3.33101 93.3312 2.03732
4.7777 137.251 4.99717
-24.2876 121.29 0.943757
-0.987935 89.3627 -4.56357
1.49635 112.954 -7.49454
-3.42151 140.989 -2.8058
14.3017 141.436 -1.35434
11.234 108.84 -1.35799
-3.77011 85.781 7.04815
13.7429 130.869 -5.4643
-9.61151 111.18 9.11598
10.4826 139.934 2.64287
0.979805 87.4093 1.64559
21.446 132.643 -3.09935
-24.4603 117.935 1.18135
7.06874 93.5009 -7.2094
-12.193 78.9848 4.21572
8.80234 125.806 1.33479
-20.8434 121.923 -0.517819
13.8933 135.12 -4.12323
5.58892 81.5908 6.35054
-9.87153 124.19 9.01001
-16.947 131.463 -3.54455
-4.38983 99.0887 -9.88236
1.772 141.647 -1.0762
-6.18456 85.9813 6.61775
-9.80249 110.347 -10.1985
-6.75663 111.248 7.96008
13.9188 134.522 -3.52827
2.60808 108.597 6.25332
-3.85256 145.737 -3.05298
7.97311 128.433 -4.19298
5.87697 118.942 1.57979
13.4011 116.968 -4.92617
-17.411 124.435 -3.9444
5.90092 126.519 -0.239467
-19.7988 109.806 -3.88292
-2.14728 138.975 7.94771
-6.19424 126.571 -4.66246
4.02713 79.7727 -5.00551
8.96981 89.3515 -4.91761
13.2515 133.257 -4.7338
3.23103 113.892 5.46077
-15.7817 106.661 6.57657
-14.0982 146.92 2.40471
9.38189 94.6075 -1.19679
-14.2668 116.87 -9.12079
-20.5399 138.577 3.96795
15.6129 140.462 -3.25873
-7.96367 123.152 9.08138
-19.7638 95.1291 -4.79087
-6.58991 125.187 -5.8051
6.22986 110.561 -3.91725
-19.3558 106.751 -6.44622
-19.5319 97.6766 1.2364
-3.61483 101.55 7.29169
3.68001 104.668 2.82116
-13.3167 87.925 -8.75097
17.1676 134.314 -4.95109
8.63138 84.2515 -5.147
16.9147 78.3649 -0.15052
-8.21175 82.722 5.94727
-2.68265 130.269 6.39168
-12.4395 99.2667 -10.8416
-23.0614 125.163 6.32753
14.9701 96.5577 1.52929
-11.3115 94.4676 -10.7832
-22.7827 128.921 1.36823
7.02823 119.457 -1.09959
9.81961 94.4845 -0.792464
4.86667 116.807 2.16365
-1.13784 102.558 -9.7826
-14.717 121.992 -8.22239
-9.79459 122.649 -6.90774
13.6367 132.668 -3.33459
-4.83186 111.726 -6.73667
-0.253965 88.5315 0.654472
6.57329 98.6589 -5.93848
-15.3561 124.689 -5.84089
6.40551 98.1835 -6.19463
17.0871 125.36 -6.50559
-19.0349 76.534 0.282641
-4.81503 78.6389 -5.97565
3.26162 151.892 -2.65589
-16.0119 74.6282 -4.13488
-6.72119 132.007 -5.80817
-8.99811 135.824 4.04159
-19.3877 109.252 -2.04763
-4.37332 143.044 -3.85626
7.72654 91.1439 -6.81465
2.51976 145.654 -1.74405
-15.203 108.767 -10.6093
-7.70171 81.462 -5.65775
9.31939 115.775 -2.22719
-3.46192 127.865 6.5048
-23.4201 122.635 -0.18814
10.3883 100.094 -4.97317
-1.23883 146.112 -1.51023
12.3144 88.8994 -3.43975
-12.8843 104.631 9.21665
-3.17808 112.503 8.08526
-6.18139 92.126 9.44281
-2.10369 101.938 -10.1573
19.0278 138.361 -3.41581
3.50628 85.9191 1.52089
-11.6263 149.92 1.41052
-3.33102 140.485 6.07885
-22.3811 134.936 5.73593
8.86716 106.327 -3.78239
-4.07109 143.341 5.97182
18.0984 128.049 -5.00213
-5.47933 84.4177 6.37419
0.0831758 123.549 7.51967
15.1595 130.028 -1.45899
22.2178 126.908 -2.29921
6.20209 80.5847 -5.82497
-6.19433 103.578 -10.7122
-19.2069 78.4478 1.15748
8.64616 85.7932 -3.72749
-10.5184 141.805 -4.86109
9.13194 152.363 -1.16276
9.06229 151.035 -2.93048
12.9294 99.7122 -0.93195
-2.03093 89.9926 3.69334
0.123911 100.085 4.90547
-0.230936 88.7999 0.864986
8.90954 105.765 -4.07554
-5.7143 81.492 -6.14154
-9.3531 85.9759 -7.35357
3.13151 149.288 -2.4737
-4.53463 100.635 -10.0123
20.5414 129.804 -3.72186
-17.1373 121.369 -1.66914
12.0731 126.056 -5.56811
-12.9351 124.313 5.49054
-8.92297 113.967 -9.45596
-7.14381 136.879 3.29959
6.44132 82.0793 1.46893
6.35844 132.354 -3.24974
-10.3541 146.493 3.91611
8.7662 133.256 2.03198
-1.76401 87.4792 -3.74393
-9.62892 148.461 2.89269
-18.0822 122.085 -1.90731
-19.0078 76.4145 -0.85993
-4.01741 92.6808 -7.14245
-12.8318 111.271 9.43137
-12.1572 81.4724 -7.27812
-14.2208 144.962 6.18128
-13.3346 87.3482 -8.88308
-8.72173 125.054 7.96943
2.23135 149.335 -2.12074
-7.84513 125.945 6.97015
-20.5206 121.941 -2.10395
21.0845 133.841 -2.89031
8.57638 82.3366 -5.03001
-11.1592 143.567 5.09918
-8.92307 128.904 -7.13542
13.7111 136.375 -3.91839
19.2607 121.443 -5.14641
-14.7874 132.674 -2.65994
-23.1954 120.824 -0.136306
13.6659 96.3018 1.01821
3.18767 138.749 -1.12329
-18.9684 118.669 2.56397
-21.8318 135.594 6.20394
5.68424 114.679 -1.8609
-9.92782 149.304 -3.17842
9.76507 147.034 2.71757
-8.11152 80.7443 -6.39288
-10.0504 130.674 5.76872
4.22346 118.463 3.42727
-1.0432 84.3181 -1.04258
-20.5931 124.896 -1.30589
9.98159 151.44 -0.556185
-14.8286 123.786 -8.35253
-4.56926 131.725 -3.23132
-3.6101 91.3957 7.67809
0.700737 93.9509 1.80423
15.5927 123.151 0.980851
-5.46148 83.4807 6.52158
8.60849 104.832 3.81119
2.02841 101.98 2.9496
2.3858 83.8532 -4.385
7.04796 149.892 1.14975
-21.9042 119.628 4.77388
1.95829 138.648 -0.697742
-11.988 124.691 -7.474
-13.9431 145.885 5.46088
14.5825 122.509 -3.24904
1.82189 124.246 -3.21097
17.0783 132.216 -4.24472
2.55777 88.4894 -6.03617
-10.533 88.0148 -9.36524
-20.0931 91.908 -1.20421
0.63517 92.1134 1.16833
8.34612 105.599 -5.34561
0.580393 83.6961 -0.795506
3.50431 86.7214 3.43449
-12.9708 145.525 5.92509
-18.0123 113.775 1.42444
0.11333 152.527 -2.32978
3.81866 105.132 -8.10122
-15.2065 80.8994 3.30172
-3.52869 110.594 7.71115
-1.34008 81.7035 0.163347
-4.99622 94.1118 -8.56429
-19.6454 99.5557 -5.13338
8.70903 127.178 1.41142
5.88018 145.303 2.42149
-15.5876 122.063 -6.10185
-18.9921 135.595 7.74792
-5.11466 135.413 4.5131
13.9343 122.304 -3.5893
-5.48633 96.3258 8.78086
-3.62373 114.458 8.70285
0.622707 92.7343 2.08552
9.53359 122.078 2.23899
-9.1467 125.997 -7.423
-14.0128 77.0903 2.6964
-1.40156 119.785 8.18626
-3.29453 99.1469 8.14849
-18.5749 76.2695 1.85962
-19.8761 112.921 -5.70631
-4.82585 102.967 7.17121
-7.325 152.105 -1.91325
-1.67904 88.3941 6.03923
-15.8885 90.001 -8.36259
7.31468 98.1537 -4.43292
4.89729 81.8218 2.8805
9.0474 108.108 4.09941
-13.6336 104.604 8.83864
-17.8091 88.8024 -7.85919
0.960546 92.6196 0.182063
-6.77105 145.75 -5.35097
20.554 136.27 -2.07233
-4.00296 139.285 -3.50204
-18.9898 103.752 0.452325
5.62395 82.2642 1.92835
-3.74766 150.277 -2.26281
-13.8084 140.95 7.54415
18.5873 136.008 -4.33149
-17.031 97.4349 -9.53909
-1.73562 122.89 -2.83692
-13.9917 127.279 5.07062
-8.90152 92.1415 -10.1177
16.2322 103.23 -2.45025
-14.1614 125.802 -7.1406
-19.5554 121.028 2.2346
4.97974 100.049 5.96916
17.8733 119.659 -1.82418
-9.913 81.1376 5.11228
-9.67012 92.3569 6.64714
9.6069 81.2521 -5.61948
-9.70146 128.302 5.38965
-22.352 134.293 4.53521
1.63079 103.556 -9.05078
-20.1124 97.9769 -3.94999
20.7582 124.099 -1.32689
-17.8751 114.29 -8.49802
-4.11604 93.001 8.24342
20.4169 126.047 -5.27713
-17.4069 127.784 -3.63881
-10.5401 135.291 5.30396
-2.33994 82.7021 4.72877
-24.1203 126.807 3.52957
6.44736 96.4812 -7.1792
14.1119 136.645 -4.96712
-15.0699 92.6355 5.03574
-10.2236 148.866 -3.3352
-13.9284 91.9938 4.83351
17.4853 105.41 -1.89282
-9.0728 85.4128 5.59154
-2.75728 90.4897 4.73992
1.75489 89.503 2.15057
-7.13921 106.308 -9.92442
13.2215 132.74 -4.50739
-9.43415 86.5009 -8.62101
2.80524 132.136 -0.0897721
3.75575 79.3571 -4.74966
13.3498 122.019 -3.96483
9.73135 133.353 1.91468
-14.6769 133.035 7.16913
-17.9965 124.879 4.68102
13.2299 127.843 -6.26663
13.2074 80.1214 -2.04341
-13.3914 97.263 -10.1646
6.88828 116.271 1.22476
-0.425731 123.446 7.18621
7.62822 132.347 1.80421
7.14656 126.251 -2.14206
13.4027 138.693 -3.46073
0.40311 88.8594 -0.780307
-18.9008 118.687 3.05706
-1.45109 83.3451 -4.96383
-1.3619 94.0481 5.5024
-22.0145 123.147 7.05949
-15.1235 124.579 -7.29441
13.3812 126.726 -1.85863
6.9003 132.938 -3.54621
14.3953 128.463 0.24466
6.46141 96.3808 -6.25385
14.5865 101.592 -1.86738
-11.4675 103.092 9.51812
8.12478 125.393 -3.6219
-20.544 119.491 -0.202348
13.0263 80.7432 -3.57426
-2.25624 97.7406 8.04997
-12.622 82.2046 -7.66195
-2.30374 146.059 -1.85421
-16.3674 134.938 -1.70619
14.6878 120.021 -2.546
-0.239714 110.079 -8.69919
-11.4282 124.636 7.34468
-6.69409 96.1334 8.91245
13.828 90.4127 1.13907
-21.3262 129.315 4.93977
10.9729 130.635 -5.54769
-5.52299 119.22 -5.56644
-14.1546 89.2023 3.86312
-12.816 143.406 -2.00365
-17.5883 121.931 0.352934
1.5524 105.492 -9.38211
13.851 138.328 -4.12245
-0.749172 89.3434 2.24995
-19.6021 125.725 5.92176
-13.402 122.729 7.76692
-7.02875 75.7008 2.76289
14.3042 138.126 -4.12981
-2.60468 92.3666 4.72609
13.6016 125.008 -2.22472
0.627894 141.05 -0.963991
19.8868 134.567 -3.63587
4.86462 87.9937 4.54911
-4.63806 124.714 -3.95338
2.94763 91.638 6.3201
-7.84234 101.637 -10.2136
-11.7216 119.558 9.95356
-1.932 83.221 -4.86572
4.73474 90.6456 5.97782
10.1367 128.952 2.30164
-8.09161 93.6663 -9.35721
1.47122 97.6154 -5.80747
-7.06046 102.868 -10.5859
-24.7029 119.384 1.60407
-7.04738 107.704 7.82463
-18.7466 141.287 5.10971
-18.7714 127.028 6.34334
4.19807 95.8539 -7.15038
12.3345 86.5473 -1.72374
-20.2026 113.13 -3.13572
-12.5516 120.651 -8.84334
13.3764 133.202 -4.31169
-10.0419 113.991 -9.98408
-7.36702 108.954 -9.18493
1.92035 85.016 -3.91956
12.4983 117.92 -4.73649
-4.20483 137.345 -3.94581
-17.8339 120.653 -2.97707
-9.66876 139.995 -6.12104
6.08127 119.498 1.4968
-11.1899 150.037 2.11423
-19.2234 119.178 1.86098
-5.06292 133.29 -3.8383
-21.0243 119.615 -0.22469
7.02183 101.144 4.49552
5.69273 102.26 -7.78053
-5.63037 135.326 -5.35885
15.5016 125.703 -0.189833
-6.46082 134.537 -6.58988
-4.24244 127.242 -2.80095
18.5976 135.055 -4.43261
-0.451731 105.262 6.528
-6.07525 95.4968 8.78953
-20.7037 119.939 -0.305492
-11.3388 126.971 -8.08782
9.54732 112.677 3.99625
-16.3605 125.413 4.58902
11.0816 139.815 -6.02959
-5.0331 87.03 8.0586
-15.7148 126.852 -2.54127
-0.436145 109.405 -8.80919
6.04823 99.998 3.66745
-14.805 97.4372 -9.91828
-2.19099 80.8098 -4.94376
-11.653 135.269 6.79581
4.61932 113.332 -3.95287
9.27511 110.362 -1.6226
5.781 130.561 -2.48685
2.37976 86.5623 -3.64314
6.50118 79.8634 -4.77254
0.767023 130.097 -0.833971
-17.3212 101.626 4.77802
13.1343 131.171 0.626072
6.51249 154.652 -0.934192
-19.2999 92.8765 -7.73161
-15.2454 140.674 7.70098
-12.9226 144.628 0.380907
14.3181 143.757 0.149696
8.38739 104.659 -6.07306
14.6884 98.9845 0.327162
-12.3932 135.656 6.82705
5.94345 94.3476 -7.85265
-6.40906 139.518 -6.3652
5.25222 87.9859 -5.69691
3.8114 99.2281 -6.31135
2.27162 92.9258 1.35133
-9.64458 80.7154 -6.68594
1.35675 98.963 -5.94032
-19.6218 92.235 0.821523
14.3046 127.553 1.39282
-17.8512 103.281 -8.74593
-0.622112 82.6083 -5.24791
2.0503 101.455 1.95892
-7.67448 115.785 8.59452
13.2036 120.734 -4.61108
5.46975 105.518 -7.50333
2.75285 87.6838 2.70557
12.9546 125.958 -6.86511
1.33798 111.709 -7.62877
-25.581 120.573 3.27534
11.2865 141.535 -4.69404
0.0725419 90.1866 -5.73289
-14.9182 124.081 5.79423
6.93058 143.475 -4.7612
-12.1722 130.375 -6.19444
-6.17284 97.0034 -9.90856
10.6172 146.361 -4.75558
-19.0962 77.1655 -2.37149
9.83485 96.1467 -0.920336
-6.6301 103.399 -10.9095
-20.6718 121.805 3.18275
9.97807 131.56 1.45468
-5.71727 109.726 -8.05491
-20.4731 90.2779 -3.84553
4.81382 91.1818 6.33719
-10.1991 145.455 -4.7169
10.3365 152.369 1.60434
-20.0417 79.5509 -0.573549
13.4692 82.143 -3.26064
-13.7413 147.875 2.6333
13.8466 134.096 -3.32266
16.861 106.07 -2.28861
3.00244 108.426 5.7644
11.873 107.762 -1.54907
-18.2594 121.091 4.24691
6.75404 122.819 1.43361
-8.27789 104.968 -10.7409
-22.8762 133.51 5.51751
-19.4873 85.7383 0.208341
7.42853 124.458 -2.06848
-5.36197 118.068 -5.4252
-11.1546 115.753 -9.9674
12.0871 92.6205 0.893429
9.61752 152.991 1.44727
9.0722 128.225 -4.70384
-22.0285 127.616 -0.18042
-15.199 124.275 5.41238
-18.4992 107.616 -7.83931
-4.05979 136.211 4.77043
-0.650677 127.698 -1.2694
-22.4396 120.11 5.64186
-21.1068 123.221 -1.47527
0.333037 83.1721 -4.93076
-16.845 98.0168 5.29959
11.3409 129.419 -5.88188
3.52319 97.3701 -6.18458
19.8422 125.236 -4.69125
3.99908 90.3793 5.79342
-0.163862 88.7601 0.571105
-14.1404 78.6445 -5.80545
4.49866 83.1603 5.62788
5.72562 84.4742 -3.216
0.857956 117.144 -6.54328
-11.7857 82.0283 -5.0573
-8.90899 128.775 -7.03175
3.83012 92.2739 6.84648
-18.4556 124.758 4.62586
3.25327 96.0138 -6.51537
-5.14275 124.252 9.01818
-20.0853 92.7353 -1.6438
-24.5797 129.224 4.63553
-3.20714 90.8136 7.80864
8.30846 89.6785 -5.71802
17.4997 121.098 -6.05042
-11.505 95.6585 7.24894
-19.4259 129.265 4.71282
14.5209 115.655 -2.46427
11.794 131.131 -1.28346
-21.0699 125.024 -1.44657
3.88496 115.042 3.80985
-23.5874 127.547 2.83547
-13.4139 109.937 9.49506
2.58264 95.7327 6.98967
-11.8201 81.9959 -5.93865
14.367 120.772 -2.8505
-18.0618 96.039 3.75846
-8.36569 89.5295 -9.80533
-16.7091 125.92 -3.52842
-17.9164 95.6259 -8.93462
0.858817 85.9773 -0.800149
-13.3867 117.942 9.17392
-18.995 103.528 0.648662
-18.6752 121.474 1.65335
-0.092075 86.7237 0.187175
0.744976 106.55 -9.10126
13.5141 122.215 -2.03216
-7.48447 86.284 6.05509
-22.1927 127.596 0.0973724
-4.56799 86.604 -5.54242
-7.97388 121.293 8.68647
9.6689 120.185 2.70416
6.40267 141.904 2.11143
14.0981 133.418 -0.86561
-17.3927 121.177 -5.6389
10.9316 84.8703 -5.57867
-19.3732 106.54 -6.52937
17.5891 119.845 -2.28749
-13.0617 111.789 9.50778
-17.9927 81.4459 -6.0868
-3.07765 140.456 6.84931
-5.93163 95.7876 -9.15625
-19.7369 87.5708 -1.80691
8.84628 154.821 1.13928
-0.736476 83.5674 -4.64958
10.9732 146.087 -4.38817
-10.406 134.725 6.00572
-17.3878 121.633 -1.54092
9.80183 149.747 -3.84098
20.5405 134.937 -3.10303
-7.11665 76.976 4.03021
-17.4574 121.099 -1.62336
18.1686 126.34 -6.06637
-4.6792 98.667 -9.88614
11.0098 145.241 -4.68044
-2.3539 128.748 7.27971
-8.08449 146.85 2.60017
3.20996 142.03 -1.62205
6.05633 135.873 3.57971
12.3246 132.087 -5.09412
-21.6868 127.194 -2.6116
12.9012 80.2588 -2.29184
-6.28727 144.495 -5.25796
6.24207 111.517 0.939048
-16.0668 128.97 -2.19113
-13.9538 104.307 -10.8856
-18.258 121.059 -3.97315
7.9909 152.23 -2.70313
-4.97357 121.565 8.90544
-8.06173 118.812 8.61108
-9.54481 110.347 -9.99106
12.344 129.135 -2.21347
-15.6501 75.3285 -4.12122
-18.3518 97.9127 3.50972
0.4515 83.2378 -4.8351
-6.83639 108.581 7.75357
-3.45947 141.909 7.68259
12.6581 128.014 -2.07791
0.784904 91.0697 0.702106
8.19845 153.191 0.795335
-18.348 135.27 -1.95714
-15.169 137.526 -1.69611
13.7369 105.108 -2.42167
16.3373 114.247 -1.18744
8.99516 112.046 2.76322
-6.69171 122.266 -5.96117
-16.299 86.2138 -7.75631
-2.04869 142.44 7.54697
-10.5325 100.273 -11.1583
6.65884 108.293 -5.08688
5.01398 144.474 -3.6196
-17.2943 106.531 4.83902
-14.92 105.431 7.47304
6.89413 141.601 1.64806
-18.5605 120.998 0.848476
4.33341 84.7731 1.17846
-19.7875 91.6596 -4.35298
13.6309 108.455 -1.32106
-9.08165 99.5243 -10.9695
15.2188 135.627 -2.26092
-12.0794 106.637 -10.8057
-3.29143 90.8313 5.71722
8.12811 97.466 -3.08844
-6.54956 127.933 6.27871
-7.12832 104.429 7.80768
-3.23563 84.8891 -3.42556
-4.96184 112.274 7.74116
-17.7321 91.3925 -8.77278
-11.0364 76.9782 4.04485
3.09909 97.9932 0.977089
9.15511 130.149 -4.89455
11.1832 113.558 -1.75334
-16.24 124.109 -3.17656
14.369 88.1351 1.99455
-6.29498 105.185 7.57653
12.3168 121.678 -4.73057
4.26682 84.3007 1.59755
-19.8733 97.7666 -5.76304
-19.8635 98.3962 -0.546646
-20.0213 112.911 -1.6815
13.9998 116.696 1.43769
1.60972 147.525 -1.7165
16.0203 81.5743 0.253839
-1.91364 133.411 -1.83774
11.0227 89.2225 -4.52135
-0.303219 83.2158 1.92067
-2.47462 119.896 -3.9338
-11.0767 138.405 4.96201
-1.39321 122.823 7.85772
-8.24547 98.2655 -10.8996
21.315 134.071 -2.22545
-24.4309 120.304 6.72963
-15.1808 87.6683 -8.33906
-9.25614 150.728 -2.04781
2.68968 88.0931 1.78134
-19.4666 94.7184 -3.26608
5.36346 98.9911 1.10227
2.77506 83.2593 1.86279
-16.3812 103.06 -10.4211
-13.1739 148.394 2.3149
-9.91688 103.286 9.60876
8.24419 127.469 -4.3201
1.07883 126.303 -1.90067
8.22688 104.478 2.5215
-19.0603 140.845 4.57782
-12.3714 127.564 4.55404
9.42606 104.176 -4.64514
-0.0396563 99.7135 -8.21873
4.11061 135.971 5.61542
13.3689 126.627 -1.68573
-0.531243 87.3483 -4.77889
2.61848 83.1741 2.39337
7.1173 123.154 -0.559706
-0.283536 97.1259 -5.88276
-16.3066 82.5381 -8.52468
2.86841 83.2925 1.05366
-0.746187 81.8361 -1.18928
-20.7504 83.9482 -5.18288
3.34072 93.0436 0.648976
-19.5961 103.43 -6.68705
-8.17673 113.287 8.49543
-17.2086 107.737 -8.61586
-12.0999 103.424 -11.0452
-16.3845 113.657 -9.51221
-21.8269 127.953 5.73378
9.46266 149.422 2.5496
12.193 141.915 -1.19405
-13.2848 131.585 6.29658
-0.247673 134.004 -0.775884
-15.6074 140.024 -0.074924
0.3394 96.2306 2.44393
7.9717 149.284 0.969655
-10.1739 138.592 4.55862
-20.3807 85.2976 -6.61994
4.097 151.453 -3.13724
-18.4066 121.658 -1.82495
-2.25694 117.973 8.57296
-9.28195 96.7974 -10.7122
10.3795 97.8787 -1.25121
7.60332 121.277 -1.03699
-4.61427 111.266 -6.8995
-17.2579 134.074 -2.0549
-3.97836 130.591 5.59596
-22.0898 134.714 3.67237
-17.3924 109.148 -0.00901286
12.0871 148.736 -0.985529
13.7188 116.402 -3.76108
-22.6816 123.812 6.73268
-15.5891 125.821 5.8117
-14.8537 93.2502 5.16562
4.88993 95.0232 1.06631
1.83333 140.835 -1.03219
1.69441 91.9731 1.49875
-8.5307 119.005 -7.92317
12.0629 129.123 -1.51705
3.94718 89.4011 5.16193
-17.2149 102.06 4.90051
7.81113 80.9053 -4.63984
-23.6717 125.37 -0.351344
5.87991 85.2043 4.59877
-17.5592 98.7107 4.27255
-11.5541 131.697 -6.69693
-9.45843 86.5749 -8.77049
-14.0461 146.601 5.01018
12.7476 129.789 0.646872
-1.48971 89.9623 3.58348
5.30561 120.177 2.26066
-2.89304 85.8008 7.27631
13.5772 86.2605 1.13301
-25.9004 120.456 5.11654
10.7575 150.051 -2.19285
-19.2017 91.1819 -7.79536
-2.50451 144.314 7.56024
-8.54743 129.546 5.25332
-10.1245 144.933 -4.85788
7.54913 113.497 1.29121
-19.1832 104.946 -5.74515
-13.0833 76.4471 2.78563
-15.4324 129.277 -2.10159
-17.7434 106.774 2.30528
-6.12913 137.766 -6.1171
-10.2646 133.397 -6.57667
-18.0031 138.674 7.31967
-8.68875 84.7129 -6.19108
-17.9656 106.985 -2.57523
3.97043 97.2013 -6.50696
-15.4624 80.9794 -7.22978
-19.824 110.135 -4.94895
-5.22945 108.916 7.88776
-24.3801 121.054 1.18938
-8.94942 130.803 5.37692
16.8039 125.472 -6.44821
-16.7763 124.328 4.15139
-10.1929 109.358 -10.4432
-5.88266 79.1974 5.25965
-13.5835 79.9222 -4.62992
-15.1432 126.042 4.14804
-3.20317 107.604 7.68702
-12.5402 81.1081 4.20152
-25.2296 121.366 5.79464
9.62288 101.312 -6.29721
-14.6542 121.688 -8.1887
14.8213 119.047 0.351303
10.9383 121.004 -4.62451
-4.77528 78.5508 -6.20177
-3.80346 145.511 -3.03214
-8.90681 84.7766 5.76625
13.2945 80.3418 -2.11568
3.47607 83.8121 -3.19201
0.722722 153.562 -2.19187
-18.6767 86.1138 1.69539
2.62697 88.1898 1.87467
0.584008 91.6973 -6.04414
-13.611 146.274 1.33846
-6.99679 80.9158 5.63954
-18.4506 105.713 0.0229646
-22.3565 135.211 5.24255
-5.35415 138.561 -4.83545
-5.73523 136.015 -5.42783
0.985827 92.0157 -6.08641
-14.4603 122.991 -8.4278
6.98399 84.1991 -4.20538
15.6914 127.873 0.788195
-11.1082 139.511 -5.13316
12.8027 125.634 -4.28168
-1.33313 93.2605 -5.37723
-5.20169 128.447 7.33559
-1.71513 84.0114 -4.2051
-8.19166 152.936 0.512168
-24.8023 125.77 4.14776
-19.1761 98.8559 1.93862
13.8537 120.971 -1.25824
-4.46727 81.2041 5.66834
12.5248 126.991 -1.53128
6.79784 99.1155 2.14706
-13.0405 117.639 9.51603
-6.13037 124.133 -5.97816
-2.7325 90.0458 5.8956
-19.1917 101.17 1.18671
-13.9372 79.6915 -5.73627
11.2803 100.108 -5.00523
-10.7074 81.7217 -7.60389
-6.04827 127.047 7.2933
7.02818 113.817 -1.50392
2.31435 152.347 -2.59249
2.41667 87.2021 -4.49405
-10.1985 135.159 4.63064
6.86203 148.438 1.44165
-5.71165 118.921 -5.92383
-15.4499 124.346 -5.52386
-12.3015 120.98 -8.83616
-17.4953 93.4261 3.18055
5.7189 130.089 -1.50645
2.1812 90.8051 1.94878
6.2928 84.4161 -3.52686
-16.9457 119.445 -7.3222
-8.25201 153.29 -0.108234
-7.70209 125.732 7.26431
3.36064 128.471 -0.548091
-19.7128 92.3868 -6.017
-8.90669 109.483 -9.58629
0.262945 81.5026 -0.168878
-17.5289 128.195 -4.23146
-12.4579 135.839 -4.21286
3.60485 137.578 5.76995
-1.92095 109.105 7.86941
14.491 115.285 0.921545
-11.4415 93.1616 5.98655
17.6935 120.885 -1.64582
-14.0161 127.245 5.36679
-2.05674 78.2552 -5.02576
-19.7488 109.432 -4.61774
-0.373551 82.2759 -0.965387
-24.78 119.397 6.74367
-4.50109 95.9855 -9.07095
9.42245 130.605 1.36662
14.6151 135.575 -1.5194
5.47225 102.683 1.25474
-17.6812 122.757 4.40527
-19.0231 141.196 4.03567
11.6034 122.327 -4.78819
20.93 124.366 -3.38238
-11.8238 148.518 4.04255
-4.44389 153.328 -2.1289
-3.12352 92.4911 -5.44526
-4.24902 134.175 4.95145
14.5057 142.225 -0.873844
-14.3733 84.7894 -8.79709
12.7048 133.143 -2.09249
-16.2502 75.0859 -0.985083
13.8744 147.202 0.95763
-12.0896 90.0587 -9.80481
-20.8206 82.3444 -4.31659
18.9087 127.941 -4.99561
-18.6768 116.471 -6.38808
-7.52799 88.9866 6.70914
-15.2178 125.388 -6.29105
-18.838 118.369 2.44633
13.9833 124.371 0.52927
9.25774 114.861 -1.37946
10.1729 98.9922 -3.14202
-15.9956 110.091 4.37051
10.9905 137.86 -6.36777
17.4277 121.639 -0.919087
-10.6906 120.172 -8.7132
-18.4246 120.738 -4.04886
-10.3188 82.9921 -5.21105
5.05837 89.964 5.6
-25.4554 117.366 5.47877
9.74775 82.6625 -6.23589
6.85295 141.27 -4.70733
13.7936 131.335 0.574873
-16.9186 107.818 5.09079
-16.7085 118.813 -4.7449
-15.9171 129.825 6.14011
-5.06899 89.4578 9.00108
9.65284 85.2346 -4.47103
10.9654 86.2708 -5.35256
-15.2568 130.447 -1.89362
6.94351 88.6958 -5.91895
-0.633458 99.3454 7.17842
20.1759 126.15 -5.74423
-5.18258 131.774 5.022
-14.7762 126.584 4.61961
-22.3547 134.492 4.57072
15.8366 114.4 -3.18644
1.37062 148.671 -1.79698
2.5269 142.472 5.01286
-7.69214 125.053 8.51979
-8.02853 112.825 -9.04094
-10.7037 117.908 -9.31374
15.4375 134.424 -5.50234
-19.463 94.3871 -7.45225
-12.6124 130.031 5.86442
14.7298 141.418 -1.99207
4.88732 99.1585 -6.87171
-8.33522 98.1732 9.19178
5.43425 104.768 0.976179
-19.3463 106.126 -6.91776
11.9018 113.576 -2.82428
-13.2231 114.5 -10.1474
12.6874 129.73 0.749821
2.12672 146.219 -1.6281
-3.17214 83.0016 6.03715
-10.066 110.721 9.18611
-1.81942 80.3014 0.873075
-15.2522 102.558 7.14027
-10.6565 147.435 4.01398
-19.9578 96.6794 -4.28206
-16.0971 100.776 6.28447
14.4819 91.9033 2.01682
4.9991 108.264 1.17517
-4.16517 142.454 -3.6773
-11.6545 131.48 -6.81862
-13.5654 107.776 -10.6359
-12.8321 133.194 -4.03017
-12.012 87.8693 -8.9975
-8.15572 136.463 3.54595
2.15773 144.535 5.25702
7.99769 109.705 1.43987
6.95354 116.848 1.21499
3.61449 125.386 -0.79358
4.20597 117.057 3.04908
-7.11631 121.28 -6.49175
-16.9162 90.0848 -8.19978
-5.26152 120.152 -5.09145
7.95442 103.215 1.85258
-5.89495 133.476 -4.76847
-17.6971 142.459 2.19895
-4.47439 96.792 8.53551
3.45988 147.172 -2.52393
-18.5966 119.185 -1.12318
-6.96363 125.889 7.57236
-16.7394 84.9499 -7.94938
0.200129 109.697 7.9961
1.8542 89.8009 1.98709
-12.137 131.918 -5.0295
-21.7109 132.032 1.23261
-5.70295 89.389 -7.0438
-3.94913 143.006 6.10035
17.1673 124.38 -6.65248
13.7392 128.538 -2.59851
10.0199 127.888 2.37289
-8.91329 102.912 9.17452
13.2816 123.44 -4.2595
-17.5032 92.1596 2.66745
-3.70488 142.773 -3.06788
-17.1214 120.655 4.27852
15.2082 126.542 1.00672
-16.4639 144.902 4.47404
2.77425 86.9471 -4.1245
-8.09819 109.418 -9.24943
-14.5694 111.85 7.8631
-14.7272 94.5069 5.09785
-12.5526 111.964 -10.7142
-17.3522 122.427 -3.50407
10.298 130.29 2.46526
-3.03306 90.35 6.11303
0.401699 105.647 -9.51223
-13.5347 124.241 5.70514
-16.5499 79.6643 -6.34101
-14.8262 81.6341 -6.506
-14.0426 147.421 3.44758
-5.20579 119.774 -4.96569
-4.32132 137.031 -3.96672
4.50999 145.063 3.36038
-4.21442 127.333 -2.77991
-18.3155 120.51 -2.80651
5.15749 84.908 -3.07761
11.8769 151.531 1.44483
11.1367 116.679 -3.36791
-6.17165 86.4805 7.01366
-24.3542 118.374 3.3256
16.5486 146.123 -0.117019
22.4711 131.445 -2.6255
-1.09287 128.825 -1.43391
-10.6873 148.496 3.74849
-6.62796 105.472 7.67194
-7.27884 123.544 9.27578
-9.6189 151.773 0.690116
-17.802 129.494 -4.18941
-24.0212 118.334 6.43751
-16.4667 109.085 0.990979
-3.04911 111.704 7.84752
-3.60826 150.648 -2.21094
1.84681 130.638 -0.271061
5.91797 143.275 2.5021
-8.22567 133.454 -7.82856
-0.851661 82.2213 2.00143
2.28716 119.759 -4.52753
-5.94424 88.3973 -7.06622
-18.0906 93.2036 -8.79264
3.10552 137.852 6.13702
-14.4612 77.1757 2.64104
9.0975 129.11 -4.77224
-7.23626 142.063 2.82965
-1.19022 149.835 -1.70449
-19.4946 79.2083 0.912282
-2.60929 153.702 -1.76129
3.95961 111.485 2.08497
-8.89042 134.421 -8.08382
19.3441 137.213 -3.55177
14.6419 119.024 -2.15759
3.0092 114.915 -6.48733
-3.4103 108.405 7.66996
-6.61819 146.037 -5.24819
-9.53745 81.4783 5.16137
-9.6685 94.0677 -10.0916
1.88724 98.9865 -5.8597
10.5351 91.3802 -2.42184
5.1952 154.715 -1.55113
-7.0026 143.688 -5.82968
-9.23307 128.574 5.94791
13.1058 137.003 -3.76851
2.47186 142.652 -1.42606
-19.3659 138.289 1.58383
-8.57814 75.7779 3.84929
15.5932 141.011 -3.01285
4.70945 107.418 -8.83535
2.46436 85.6916 1.60016
13.4532 121.239 -2.4653
-21.5473 134.31 0.981727
-9.67584 120.821 -7.52527
13.0835 120.526 -4.45444
-19.0993 121.803 5.01017
-4.50874 141.489 5.3087
23.4059 129.117 -2.53569
-13.6293 80.1618 -4.56455
-3.92319 79.862 -5.07111
-18.0019 142.074 2.46399
14.8901 117.292 -0.273518
16.7551 112.983 -2.06778
-4.08097 143.31 6.71409
-11.3399 145.706 -3.50393
-19.8082 116.928 0.673576
7.71637 153.802 0.841431
-22.0696 120.235 5.57222
-17.0504 143.92 5.38103
-13.0045 126.611 -7.78627
9.72569 99.2597 -3.53165
-9.92838 100.851 -10.9871
-2.84706 138.095 5.66935
-13.6484 135.158 -3.68534
2.74114 103.106 4.26097
-8.20867 108.095 8.51928
2.12333 99.3028 1.57352
14.4548 89.6142 1.45753
11.3889 94.0896 0.572316
-11.2934 90.3687 4.803
-9.78251 81.3955 -7.27838
-13.774 136.705 -4.22838
1.65977 88.3319 4.14023
-12.9169 147.375 4.90744
-6.66495 90.418 -8.6638
-2.78781 81.4586 4.20935
-15.1294 130.152 -3.77909
13.6447 149.626 1.06956
-13.2463 77.4374 -3.8778
-16.328 80.2218 -7.42103
-20.5084 122.231 -2.5696
-13.745 140.176 -0.778593
-13.0911 125.433 -8.25765
-13.1074 127.404 -7.42624
6.7774 130.008 -3.47386
-5.70738 115.254 -6.73812
-16.4488 90.4526 -8.52133
-2.78013 102.191 -10.3906
-15.8591 112.339 3.97505
18.1962 119.522 -1.92282
10.3825 119.636 -3.1213
2.69643 86.5665 2.91737
-2.67379 134.306 -2.00722
4.04257 89.6186 -6.56721
-7.77482 138.966 2.9526
-14.0739 125.192 -8.3793
5.4812 121.155 2.35002
-4.60436 126.24 8.54841
-10.4924 117.275 -9.42134
-14.321 105.268 8.32868
-19.0683 115.341 -6.235
5.10686 148.524 -3.66233
4.53883 119.339 -1.59082
-13.7472 77.7847 -4.99273
-18.4191 125.712 6.66185
-11.6169 83.9723 4.91588
15.6323 126.129 0.953476
13.9388 147.56 0.881548
-4.87641 135.021 -3.94558
-14.9855 136.612 -1.50141
-2.48362 95.8012 -7.06161
-3.49956 107.783 7.71478
18.9145 134.275 -4.19639
-2.4716 109.302 -8.1405
12.993 122.204 -7.01908
5.88991 98.6956 2.93116
-13.3347 108.643 -10.7162
-17.8486 95.842 3.99264
-7.36186 102.1 -10.1793
7.95243 108.756 -3.30935
-13.1172 128.103 5.11283
10.0559 147.013 -4.88965
-5.67779 114.689 8.3513
-0.638439 138.337 -0.868733
-19.4041 121.679 0.576108
7.57868 107.763 -4.42565
-3.09095 143.502 7.58222
12.6297 85.9602 -3.62743
4.84333 116.568 -2.15473
1.0626 118.935 -5.82354
14.8308 120.495 -0.259018
14.4943 121.345 -6.58528
12.1685 121.502 -4.85163
-21.8304 133.587 6.28762
17.8863 108.245 -0.247284
-20.3585 87.8664 -6.1703
8.66825 93.4156 -5.14374
-5.94929 94.9514 -8.72619
-3.20326 134.489 5.32295
-6.04045 118.048 8.98613
-12.416 113.782 -10.3628
14.9994 123.859 -0.967169
-7.1919 96.1362 8.96784
-15.1933 93.8027 -9.55688
-12.6009 132.687 6.95291
3.21209 114.515 -5.89778
-9.53726 146.199 -5.15918
14.0063 116.289 -3.18847
9.45726 143.678 1.61055
-17.7726 120.994 -1.97109
16.5682 140.755 -2.62471
-3.50312 128.697 -2.35862
8.95731 118.753 -2.42687
-18.8139 117.181 -3.62439
6.84972 111.085 1.10089
14.6982 121.766 -2.69925
-14.7678 139.618 7.62823
-19.5872 117.186 -0.573994
19.5492 123.442 -5.01755
-9.63365 78.3766 4.58148
-22.3274 122.308 -0.211998
13.9026 111.927 -2.96115
-7.17447 111.209 -8.18749
14.3685 128.298 -6.18625
15.3999 79.6403 -0.70223
2.14748 100.149 -6.49813
-4.53394 138.61 -4.09532
-17.6257 124.759 -4.223
20.1351 122.239 -4.29183
2.30534 132.393 -0.0926518
-18.838 102.91 1.60556
3.85346 119.5 -2.37451
-10.7704 89.5868 4.84333
0.615448 106.639 -9.11794
-19.529 78.3177 -0.380556
0.927012 78.8921 -4.2542
-1.99848 137.868 7.21952
10.2539 129.614 2.31931
14.3888 133.787 -0.631736
-19.9022 79.4385 0.272072
16.4481 113.795 -0.442323
15.2564 120.159 0.287463
-13.3769 137.005 -2.57656
15.5615 131.794 -4.64058
16.5784 122.208 -7.18132
3.41921 103.176 -7.20602
9.01932 123.179 -4.06569
-3.39579 83.1965 6.41042
-3.41527 105.024 7.44299
-17.108 124.813 -3.64992
19.8517 125.334 -4.91882
-8.60345 96.7909 -10.3747
-7.86894 89.6242 -9.66584
6.11741 93.3029 -7.96006
-4.74145 78.4705 2.30018
-18.5906 79.7201 1.48472
12.3711 139.515 -4.80671
-11.029 131.206 5.84438
-6.17468 104.103 -10.4278
-17.8435 105.988 3.2671
-8.07391 106.662 -10.2831
6.08108 120.209 1.56753
-9.46924 131.309 -8.95279
5.04563 139.239 4.06771
-2.12166 137.567 -1.4062
14.2293 118.802 -3.50627
-6.68578 123.778 -6.12272
-8.4465 137.699 -6.67429
-16.6621 105.242 -9.89439
-16.8272 118.825 -6.66738
14.33 117.03 -1.3696
-11.5794 83.8061 -7.84753
-24.2975 126.382 5.84202
-12.4312 104.51 9.43731
9.45371 149.955 -3.9933
-18.415 132.008 5.1238
-1.52964 114.946 -6.65911
-4.48955 146.07 -3.63277
-25.1635 121.488 2.55967
-17.2 118.056 5.44813
-16.1081 108.038 -9.77232
15.2523 122.972 -7.59118
-1.8542 142.067 7.57654
14.9937 133.749 -1.10909
-12.1232 119.54 -9.09687
-2.34698 110.529 7.81466
-13.8459 105.241 -10.6405
-11.7355 122.069 9.52479
-17.4354 98.6045 -9.42971
1.57805 98.5803 1.6856
-2.42974 111.296 7.806
-10.9687 82.1178 -7.21191
-24.0606 126.991 3.54155
-15.2471 131.282 5.43781
-1.56604 134.006 -1.62363
5.20321 86.7321 -3.99223
11.8639 125.616 -5.21521
-4.66753 121.473 -4.44557
-0.0534927 86.2746 2.15654
5.37276 99.9393 5.04558
9.83995 86.1293 -4.42963
3.26467 94.5538 3.64503
-2.58235 107.121 -9.31767
7.28396 100.553 -6.04289
-16.6881 108.718 0.414546
-11.4326 137.492 -5.78029
9.60588 118.952 2.92247
-12.8946 124.294 5.50494
6.95294 127.378 1.89957
-2.2704 86.5255 5.94936
-9.01929 142.442 -5.8092
-10.0951 90.171 -10.1927
12.84 131.485 -5.12054
-8.06786 128.868 -6.36581
10.8177 137.881 -6.32803
6.2067 108.132 -7.83322
-3.63696 142.309 7.63101
12.9284 120.239 -4.90246
-16.3617 77.6659 2.13164
-12.3943 79.8684 4.21199
-4.91227 114.358 -6.03758
-3.26893 115.234 -5.53117
-14.8931 104.138 7.44052
6.40301 109.531 -4.36517
11.9048 142.511 -3.99523
5.46826 81.142 3.00594
-2.72813 141.55 7.84181
11.3214 81.1615 -5.02739
-3.6448 147.093 -2.67711
3.36239 86.5616 1.28725
17.7373 100.911 0.477269
-17.9983 100.089 3.68183
-10.1683 137.181 -6.13611
11.0046 149.676 -2.5393
7.44274 112.433 1.28111
-16.9373 122.809 -3.84424
-15.4348 101.042 6.91635
2.5463 88.9235 -6.27885
