ply
format ascii 1.0
comment Created by Open3D
element vertex 1946
property double x
property double y
property double z
end_header
21.5806 126.283 5.26911
4.80493 83.5079 8.34591
13.9657 135.422 -3.1645
2.95452 109.78 -4.54118
17.7794 139.054 3.62018
8.67986 100.806 8.06491
2.86175 108.005 -4.903
5.92283 103.218 8.29555
-9.90864 87.2955 -4.18494
4.73959 87.2025 9.13588
19.8103 85.2176 14.5492
20.9913 137.351 1.4157
-4.96099 109.674 -5.09074
11.3548 122.782 2.39008
-15.8989 88.7885 -0.849499
-1.51754 85.0435 10.2782
13.6563 130.907 -1.48101
20.1323 136.417 -4.03462
10.8799 85.2593 4.20036
1.19585 93.9785 11.529
18.202 137 3.32661
5.15417 124.276 8.79066
7.63347 123.186 3.98446
13.8334 118.134 14.246
17.8552 83.7789 4.08472
-4.15654 87.5764 -5.49568
16.2647 110.048 14.745
-2.42335 83.2925 -0.477374
19.6988 108.959 5.11676
9.68212 118.681 1.2047
25.6907 87.8633 14.7482
-10.1245 78.1153 -2.05473
0.356357 113.37 -3.16199
-0.278429 89.0869 -1.51333
14.2346 122.529 0.339207
21.4853 105.927 10.3367
10.2775 117.623 11.5231
2.26955 115.224 -3.33606
-12.2367 97.8665 -6.08614
15.1572 130.057 -0.195285
13.6709 135.499 7.71911
-11.1332 73.5952 6.34557
-12.9528 83.956 6.30324
18.6722 105.267 1.36827
-15.7466 91.151 -2.81631
14.3897 117.693 14.2666
18.3612 91.5776 6.87435
11.6813 106.177 14.951
12.141 131.908 -0.222494
-0.651359 110.058 9.66841
-6.94593 87.995 9.00915
23.1902 106.194 12.1014
21.9311 91.1236 14.6461
14.2261 83.2388 5.7549
3.1829 107.87 9.73382
7.64589 88.4767 2.99688
-14.8141 79.902 0.649994
24.3239 79.2486 13.2153
16.959 110.422 1.58828
17.7219 128.241 -4.4903
0.932477 117.495 10.1664
21.3986 131.696 4.72233
9.42176 120.872 2.11125
13.6206 93.8742 14.6536
10.6745 117.001 12.6438
15.1011 135.454 -4.81716
14.3633 92.6397 1.92452
1.72594 84.6696 10.8986
17.9107 86.3637 14.2013
4.43737 97.1167 -1.17594
10.3689 92.6491 -2.54768
10.7941 111.938 2.55514
9.72142 98.5954 4.03893
3.31132 118.396 -1.52313
16.2508 122.006 0.0948468
19.2125 143.181 2.84313
-11.4592 99.7906 -6.86585
14.5322 94.9662 15.1882
21.2692 124.444 -3.62284
16.2098 105.724 1.48029
-12.428 100.664 9.02792
3.45603 85.984 10.9055
12.4043 132.062 4.13575
-14.0435 102.668 6.47945
21.4299 89.4498 14.7953
2.67705 90.5151 7.72662
15.2989 124.145 2.34718
3.64163 90.6825 9.14171
21.7423 130.581 4.25199
23.1957 89.855 12.71
-6.18633 103.168 -6.49912
0.0807826 78.1085 8.43128
23.421 128.674 -0.0279001
22.9864 95.2107 10.4652
19.8452 111.991 13.4811
-10.3036 82.3747 -4.62007
17.6807 116.543 7.37463
-15.4669 81.6671 1.10773
16.5957 124.757 9.6274
20.16 105.833 14.7451
24.0776 80.934 13.0818
18.4565 124.965 -6.20761
4.13651 122.571 1.20743
17.9729 100.19 5.32439
16.4219 124.272 1.32246
5.36423 114.506 9.66784
19.6339 86.1436 14.789
17.1898 96.159 6.67189
12.0154 87.041 0.890196
12.3901 130.167 4.84297
23.1601 104.087 12.9155
5.15382 99.418 4.61159
10.6527 113.197 12.1331
15.5199 132.977 7.06437
3.74962 92.9506 -1.60883
11.7126 127.023 1.73306
20.6741 138.915 -2.74727
12.1981 131.788 -0.299957
15.8358 127.429 2.38028
10.4391 119.231 2.14283
-15.1937 85.3427 -2.16604
17.039 90.1621 6.66993
-4.71637 91.6107 -5.86746
-6.52127 108.667 -6.15256
18.7499 96.2197 15.7586
8.28655 121.878 2.64356
-15.4634 90.1083 1.66012
4.61628 81.5587 -1.08301
14.466 121.421 -0.148091
8.95741 87.4513 0.391226
18.6446 87.7802 7.84554
12.2665 114.267 8.23564
14.0941 100.351 1.24546
6.45718 121.315 3.05282
2.51483 119.703 -1.86729
11.7983 118.826 13.5307
17.8769 85.3892 1.41058
14.0673 116.596 -1.84868
-3.11269 84.1986 10.3974
11.914 97.4845 2.74396
19.5989 121.832 -5.11282
8.42361 114.077 2.3475
22.668 126.074 -2.17176
16.5218 87.7883 2.31733
12.2413 123.35 3.03196
12.8196 127.31 4.0857
14.1875 125.152 -5.0698
18.0994 123.537 3.30504
12.7217 119.824 5.56771
10.9863 121.439 12.4805
14.8502 88.695 13.6609
17.8148 86.2873 1.17861
4.58219 107.594 9.22114
-6.63901 109.082 12.5152
-9.81023 95.6236 -6.1185
11.2148 134.82 5.67404
21.2979 92.0374 10.0189
13.9458 119.757 -0.386351
15.4106 82.9282 0.0348529
17.0933 114.438 3.67677
14.1931 129.33 -0.782747
5.23966 119.264 1.19334
3.77558 95.88 6.80576
0.303736 81.627 10.4591
-12.9295 83.0096 5.70463
-9.13472 74.597 1.01802
15.6327 100.088 15.4212
17.8211 120.781 0.743419
6.73266 86.0492 3.00822
21.4813 104.956 8.99471
17.6395 119.199 8.532
10.8629 104.066 13.893
10.3831 100.895 3.99185
4.5839 100.772 6.77612
8.816 108.835 -2.98034
-7.14646 85.2 -5.29877
-9.92087 80.5417 -3.10321
11.5875 84.9707 5.886
10.7418 106.41 -0.235895
-15.1587 96.0203 3.28937
14.3956 100.361 1.46033
10.4379 85.1147 4.75679
3.8928 117.096 -1.17388
15.0749 119.956 -0.963301
7.16129 99.2459 8.89292
21.3627 94.4893 8.88997
-3.47362 98.2757 12.7442
11.7171 113.866 9.06364
9.68845 130.263 1.90639
12.5577 128.808 9.35199
7.64218 94.3501 -2.71658
19.6708 126.225 -6.36091
23.5895 89.7592 14.1153
14.9212 113.094 14.575
14.1319 116.019 14.4946
8.91506 86.6456 0.980381
23.0767 126.338 -2.30095
3.94853 88.6223 -0.940505
19.1401 132.85 3.77301
17.5985 119.355 8.56555
-14.2745 78.9551 0.484839
18.557 103.192 15.4314
9.71414 127.436 9.51098
4.12895 89.1056 8.43403
11.3024 126.221 9.72752
10.6265 113.312 12.3432
8.33842 126.611 3.67838
-5.67992 104.679 12.714
3.92763 96.2444 5.71184
22.3442 99.4627 8.24207
22.1397 87.5904 14.3335
21.9644 127.248 7.10089
15.1398 98.1533 15.9603
2.64617 112.255 -3.70689
22.265 126.379 0.797724
6.42273 113.621 0.00176128
23.2556 95.117 12.1427
12.2253 100.066 14.9401
12.0369 107.272 10.7828
20.8708 84.765 6.88184
12.7736 87.4877 1.02833
-3.408 78.209 9.7576
-14.3352 96.0533 6.53389
21.396 141.896 -0.884637
11.8535 132.356 4.6091
12.8379 129.335 3.48991
18.7722 127.294 5.54499
-5.83246 101.296 13.2005
16.1998 126.198 6.81646
-14.022 86.2298 -2.58007
12.9947 135.641 7.91658
-10.6697 76.3736 -0.065972
23.3571 98.2614 12.4028
14.3828 120.74 -4.47272
-1.90502 104.622 -5.7141
12.7081 133.658 -4.35532
16.7499 130.411 4.24222
-3.31928 84.1793 10.3375
6.53257 114.681 6.86343
7.16541 104.187 6.4692
16.6607 120.002 9.33397
21.761 106.183 14.0224
20.242 124.26 -5.09866
11.5552 109.083 2.13401
6.5825 97.9998 9.58989
5.70155 123.458 8.62927
15.6483 82.7921 10.711
15.4897 134.077 0.0358562
-2.97928 95.7148 13.3067
-6.98691 91.6567 -6.42042
11.971 111.905 4.02455
12.975 122.066 -3.90388
16.3174 123.245 2.19354
-6.25653 81.7416 9.3217
-0.0121814 79.1285 -2.16169
12.7359 134.612 1.63142
12.0964 129.336 -3.56537
-6.8332 100.155 -7.08916
14.441 124.528 -5.20253
23.1525 125.761 -1.44654
11.0822 102.97 -3.37184
-15.7361 82.5711 -0.533577
17.0556 129.58 4.38287
12.6458 131.764 2.84494
4.66893 81.8466 8.07228
0.470355 111.824 9.42888
4.20037 123.81 1.48581
11.3343 134.544 2.30352
15.4601 121.469 1.53484
11.0636 114.237 3.00606
6.17608 107.385 8.26751
10.0435 80.7914 0.310078
-13.4647 86.2333 5.76548
22.5739 97.5326 9.14617
17.5612 136.273 3.81462
23.3637 101.9 13.3395
-3.43625 88.817 -5.30014
5.31478 88.1769 3.15978
-10.6956 93.747 8.78178
-6.88634 87.2708 -5.04831
21.6055 110.622 10.4712
7.18042 111.205 -2.30003
-15.7424 89.1445 -2.74989
18.6586 114.711 3.04496
2.69662 99.6874 -4.30951
6.84264 108.824 6.79423
-9.74668 88.0138 -4.17773
20.4158 126.96 2.53959
-2.90564 83.799 -1.12909
3.76867 94.482 7.0918
26.3296 79.035 15.8716
-1.81377 86.8591 -2.82399
12.1704 105.871 8.57972
17.7526 136.758 -4.48378
19.9833 120.362 2.52814
8.60138 94.3939 9.5823
11.0722 109.31 11.3871
19.0131 129.004 6.16479
-4.98109 105.32 -6.74213
16.192 98.9409 15.8409
17.493 123.539 9.52481
19.9427 93.0533 9.11177
-6.77689 77.9942 8.53016
19.0352 134.928 3.54533
10.4647 95.7289 -1.18562
-4.93908 86.9418 9.58176
14.7226 111.635 1.50653
-9.86426 91.8379 9.17903
11.8409 120.096 2.83182
16.4478 95.147 15.7795
13.2573 127.138 1.75575
12.543 131.141 0.542476
2.81334 85.8811 0.186101
12.6503 124.559 11.29
-15.8152 92.1049 -2.56835
-0.0991675 88.8062 12.0673
-5.67032 82.5492 9.52506
20.2842 130.847 -3.58856
15.6055 122.744 1.23381
-12.3648 105.137 8.90851
7.49038 104.878 4.38058
16.3418 131.408 -0.240883
-4.32594 99.0997 13.1652
12.6775 120.384 -2.52291
15.4256 124.016 2.25343
5.51573 119.478 9.58425
3.03976 105.863 -5.24578
19.1619 124.374 7.19084
-2.29555 116.691 10.6354
13.7065 110.799 14.8949
17.2619 99.8379 15.6835
6.36849 121.016 2.88332
0.540776 123.657 9.07762
18.0183 86.4339 5.50904
15.9992 117.792 2.0824
-9.95662 102.447 11.5292
11.1873 120.46 -1.23462
-4.58215 100.801 13.1151
22.0458 78.8161 12.3498
17.5274 102.07 4.06672
11.7003 122.293 7.69608
15.849 106.647 2.05355
14.1439 125.994 -0.347128
12.7167 126.223 3.83384
-0.338868 93.737 -4.1544
2.90472 118.145 9.415
16.939 124.58 6.45003
14.8084 124.929 3.91385
12.0868 114.594 14.5118
-11.9478 82.0612 6.48096
14.1722 96.4361 5.04663
21.6528 105.199 6.82488
19.8489 89.0393 14.9658
4.41093 88.3351 -1.23198
16.1877 82.6857 8.26852
-6.39897 95.7378 -6.81497
1.33293 85.9205 10.9329
25.8816 88.6711 14.4055
-9.36385 81.5642 -3.47397
-1.10295 111.588 -3.1002
4.50074 99.7846 -2.37286
20.468 107.736 4.02688
12.5741 120.154 13.5608
4.97512 127.319 2.76071
23.5758 89.9788 13.5669
8.0302 89.7599 6.64072
18.1405 122.145 3.43542
12.6919 128.454 -1.60468
18.7836 85.9496 3.4024
4.41409 101.968 -3.7869
11.2282 101.927 4.47576
-10.8347 93.1485 8.76311
21.1208 126.54 1.43417
10.6892 86.3606 3.42986
11.9434 84.4684 7.32736
4.95396 90.5435 7.55959
-8.65963 112.918 12.5229
1.27992 90.4048 12.1759
7.65194 123.926 4.18666
19.0952 117.275 7.39113
16.1915 90.1768 1.761
-0.24319 110.334 9.58993
17.7663 129.783 6.12927
16.5019 114.949 14.3431
22.5457 96.436 9.01954
17.1527 115.13 0.310113
12.3987 91.6774 -1.44503
4.71797 107.456 -4.55398
-8.01138 103.482 12.8434
0.864997 115.918 -2.99154
-13.7284 93.913 6.53265
7.38348 94.638 3.39243
4.63214 81.939 8.12955
-7.64433 79.8877 -2.88899
21.5571 126.37 -0.994
6.4233 126.132 8.10021
-15.2555 91.1751 2.01895
2.70103 101.499 10.1636
7.17698 110.66 -3.77202
12.3353 130.243 8.6348
6.99884 90.0831 -2.15581
16.3823 88.8466 1.15285
22.9272 126.531 -2.89206
-0.158238 108.157 -4.43891
13.8407 120.469 -3.75532
7.28961 116.728 2.6013
10.8141 95.1435 -1.40152
7.1254 120.183 6.6659
0.674397 112.408 -3.70612
22.6822 100.176 9.41915
18.2014 86.5099 6.01404
3.93694 84.3033 0.258023
20.8358 114.377 12.1054
-12.0655 78.1133 -0.349089
4.22227 98.1395 -1.48765
-7.11247 94.3166 -6.44751
24.7465 98.5606 13.1041
5.49852 90.0049 5.52954
11.445 90.7234 -1.52747
6.75038 117.575 2.60051
-13.9903 88.7523 4.96118
2.11923 102.698 -5.50006
-1.11969 107.491 10.1828
14.5213 110.928 2.22852
25.7731 85.8849 15.0975
11.2343 134.195 7.54308
1.78949 81.7268 -1.74423
18.6298 111.405 3.74326
-5.20552 94.1965 10.8405
11.5165 96.756 1.59821
21.7317 127.141 0.723711
1.77371 81.3769 -1.61759
11.7618 100.781 0.256457
23.5383 126.958 -2.93508
8.5482 110.953 0.573831
2.66039 112.132 -3.73176
10.8339 115.354 13.2104
8.4685 116.084 2.46193
18.1588 120.143 0.896502
5.80938 91.052 4.0864
-12.96 84.1805 6.3179
21.8184 86.9641 14.3944
11.7003 100.718 14.2391
13.8855 134.882 -3.45286
14.3452 137.075 6.39633
8.27083 102.897 3.11653
5.2772 89.87 7.50272
22.9013 125.316 0.527494
23.0117 134.615 -0.724943
6.34165 128.983 2.3452
16.696 129.167 6.12088
16.0026 131.278 2.93439
1.94548 78.4234 7.79327
15.0728 123.783 -1.37853
6.65075 93.3736 3.50675
24.9673 86.4289 14.7134
24.3895 128.855 -3.30086
5.41789 85.8422 0.704135
-12.1151 75.1841 6.79328
20.492 124.469 7.45661
-3.77926 118.581 10.3945
2.31482 94.5025 10.0901
12.0668 95.4038 0.455063
-15.1734 93.851 3.29566
3.49747 119.02 9.13863
8.87064 86.9877 4.78552
17.4961 122.935 3.11753
5.425 90.1078 7.35636
15.8455 120.379 0.931284
3.34148 95.9515 8.9834
17.8615 122.348 3.39713
-7.27106 84.4727 9.17429
11.9401 121.323 -1.64532
4.88759 128.696 8.75995
3.66779 98.37 7.93057
16.341 125.026 6.71148
-15.6196 94.7511 0.0267363
12.9209 82.0065 0.406719
-0.848312 100.994 -6.17089
-4.3596 76.378 9.36494
1.43649 94.5846 -1.52095
13.7206 131.716 -2.00364
9.94252 94.8896 10.7608
5.51136 85.6941 4.79383
16.1612 86.986 13.9181
15.7036 110.934 1.28683
1.39023 92.0966 -0.749656
12.2066 110.368 9.24068
-10.0715 105.475 11.6652
13.9956 85.069 5.25628
13.6827 135.303 0.0316787
5.50824 98.1157 3.86642
16.2499 125.75 0.916855
19.2986 110.066 3.60336
-1.83027 103.503 10.26
-15.3956 90.6138 2.7389
16.3237 101.356 3.96843
4.12132 115.083 10.254
21.8133 127.107 3.29631
13.3139 103.357 15.8459
19.3923 85.6577 5.70456
-2.69342 76.3981 8.8267
19.6446 120.236 1.84626
2.80115 98.0348 10.8933
19.3513 143.863 2.45719
15.3358 96.1562 5.80101
-8.73761 77.343 -2.30778
6.13489 83.8869 7.12815
16.1415 115.839 14.3105
9.27034 130.19 3.47333
11.7201 102.175 13.9278
17.6548 111.207 14.4717
10.817 112.933 11.0214
-1.80947 80.1225 -2.32919
12.5471 96.1039 2.82038
2.86844 85.9179 0.130687
16.4256 126.221 -5.06654
7.8784 93.6318 9.31549
15.6403 87.5975 13.7905
6.18787 83.8021 -0.75446
9.98055 117.005 1.32367
12.0251 112.734 3.27874
15.611 130.989 3.00472
21.6168 129.42 4.32642
0.289416 91.0622 13.3412
13.9342 102.892 15.7156
15.7904 114.659 14.447
-4.18032 99.9943 12.9419
0.413672 85.9637 10.7459
20.771 93.2414 9.13154
-1.12829 95.6448 -4.92961
11.915 124.081 6.95542
5.90874 91.4861 4.41435
15.3082 103.836 15.7023
-0.490691 76.8277 6.97175
20.3582 143.097 0.995685
10.4664 89.9207 6.09263
22.1954 97.0513 14.6157
17.575 82.3325 12.059
15.466 132.727 0.872914
18.9482 123.221 6.24605
-14.6645 94.132 -4.38912
17.6907 131.505 -3.85186
18.2919 116.651 7.09588
-11.7887 98.1113 9.52331
-15.3335 95.854 2.35998
13.0977 125.347 -2.99274
18.4074 124.018 8.7221
15.7004 134.93 -1.2395
4.82372 91.5809 5.69221
8.61846 112.801 1.80133
10.1074 113.165 2.38252
-12.218 87.1096 -3.20725
4.18645 96.0396 -1.07284
8.98379 96.6991 3.98541
-4.94793 98.0918 13.2979
2.83435 99.6276 10.6664
15.3952 83.3301 2.50365
11.0434 130.892 8.72458
15.451 90.6224 4.79646
15.8508 131.596 2.47303
7.21119 125.346 6.54125
8.05703 88.6357 4.3853
17.5027 84.1719 1.96852
20.3871 108.275 7.31895
7.46259 119.104 3.83065
17.2765 124.646 6.46971
21.6278 129.451 6.64077
0.989198 86.5203 -0.724069
-5.03141 94.4853 11.091
3.15332 121.095 8.39146
17.1554 101.561 15.5975
22.0596 84.0703 12.55
-12.5968 102.169 8.83963
-9.79055 97.8039 10.6368
18.0943 130.474 6.66269
12.4829 85.3695 0.690495
11.217 102.248 5.70041
15.2694 83.2206 5.9542
6.37962 94.3534 4.03587
6.79977 130.068 6.78632
20.1546 88.2692 9.31436
11.2415 102.878 13.5778
12.0948 128.473 -3.46708
-5.70582 88.5208 -5.97039
21.7912 126.495 1.54454
2.22875 99.1462 -4.32969
11.0134 85.1302 5.58254
8.79766 126.08 2.53105
12.3856 109.868 2.73223
4.18314 99.6076 6.78645
-8.12134 103.866 12.7965
20.2294 120.857 1.23135
17.7969 126.687 3.66265
0.978114 96.5738 11.4826
3.0464 82.7262 -1.40759
6.60726 94.7891 9.66398
13.137 84.7405 6.49689
-12.8395 79.0554 -2.02898
18.2433 90.4372 7.2926
11.3666 107.028 12.3741
4.1155 108.697 9.56968
-0.997631 95.8764 -5.0617
7.13297 91.0376 4.52345
13.4626 119.031 -2.27015
-3.71734 87.3835 9.57204
11.0079 112.275 2.71521
18.2584 81.677 7.27666
17.2484 114.817 2.19067
16.6371 127.422 6.55006
17.5409 94.233 15.5843
21.5118 110.375 12.0087
14.7731 125.09 -0.411782
-8.7951 77.2673 7.52333
-8.36911 79.5254 8.17545
7.66185 102.211 3.32601
20.7715 89.62 15.0022
-11.2651 106.618 10.3099
2.70224 107.866 -4.97273
6.96655 113.056 4.29722
10.425 119.347 10.142
-8.67179 86.5133 8.50336
4.62538 80.3175 7.1613
13.403 130.555 2.82014
18.8132 92.2899 8.34455
5.32784 80.1308 5.96387
-15.956 96.529 -2.7359
17.3958 121.801 -4.70424
19.4553 134.994 2.80604
13.9124 97.5932 14.8613
-6.69595 108.632 12.5949
3.00493 96.1745 10.6622
14.4826 101.868 15.5443
1.82369 111.906 9.46422
11.9333 84.4838 -0.231973
16.0141 125.728 9.21768
6.22888 113.812 7.25488
-2.73163 87.0098 9.77946
4.52902 126.737 8.94084
-15.7668 94.8898 -0.227417
11.6647 93.4862 12.4109
22.3955 107.339 10.0709
10.2792 108.008 2.83063
-9.89297 77.2874 7.24607
14.313 126.4 -0.158456
9.54867 92.6554 7.9852
11.381 135.962 5.81259
-10.4554 81.6446 7.96314
12.4949 97.3176 3.38276
16.2376 137.786 4.47774
13.4965 128.147 3.35963
9.63184 123.827 -1.22598
19.117 82.1943 7.98485
23.387 83.9678 13.4882
11.5963 135.526 1.60641
23.2434 131.738 -1.70603
12.2054 110.051 9.28484
14.4401 138.002 6.31658
5.86458 81.5683 -0.905325
2.7514 107.233 9.56691
10.087 131.514 1.61681
3.0169 99.7341 10.4985
12.903 84.6977 6.4402
-8.76787 83.5386 8.56897
21.4831 112.134 11.8295
10.3285 112.961 2.51241
12.2229 108.814 5.74846
12.7793 126.876 4.00803
1.49008 117.939 9.79295
11.6674 93.1248 11.5684
12.7557 100.807 0.255937
11.0978 85.0646 5.78427
-0.216888 109.626 -3.84597
19.4175 104.26 3.00234
16.6248 112.299 0.693842
10.5339 119.68 2.07208
20.814 133.386 -3.50621
6.04381 127.562 2.78562
19.7617 126.634 6.45615
21.8417 133.149 -0.0558168
10.4655 91.9894 7.96387
19.6592 142.68 2.57879
20.9976 85.2469 14.7128
10.4308 101.632 4.10198
-13.5011 86.1496 5.71669
11.4965 127.793 1.63562
4.93955 127.295 2.76281
12.1415 124.35 11.7
5.91944 95.6202 7.46179
7.82374 100.828 9.5103
11.0609 105.086 14.771
1.2136 92.3827 11.2637
6.91935 88.7501 3.89414
15.4439 127.319 1.75123
20.5222 89.7299 10.9425
13.5413 84.178 -0.804213
14.6952 125.478 -0.649772
19.3945 99.7497 6.28084
11.9501 87.1276 0.794963
-5.54936 85.0012 -3.63862
5.50163 89.0635 3.24008
19.403 125.797 7.60292
-11.1749 89.4103 -4.6027
-6.57254 115.15 10.8152
-9.81147 76.1688 -0.0501161
15.8163 129.589 0.390117
17.8603 118.708 10.3274
10.0102 130.514 7.61224
1.9012 114.125 9.99366
11.8384 135.447 1.50217
22.3103 101.929 7.39952
12.6729 129.252 3.12801
14.0743 126.248 -1.60008
10.9904 103.521 -3.49872
4.92884 103.603 -4.23753
-3.91635 101.995 12.0424
13.6371 126.548 -2.8251
-6.33071 106.24 12.7343
-10.1102 85.6097 -4.41444
-0.911944 121.056 10.2926
-11.4392 82.9155 -3.98623
18.91 111.631 4.61589
14.3454 92.877 15.0186
10.473 117.39 0.962902
10.123 132.79 1.5875
-9.09692 90.7068 8.75018
20.5053 106.701 3.04956
5.8781 114.515 9.27618
-12.5789 82.887 -3.90797
-12.65 93.59 7.60173
21.5365 79.0184 11.7014
12.8299 128.525 -0.687339
20.4921 127.644 -5.93244
-13.0714 100.369 8.23018
-9.1876 84.2869 8.34883
16.5183 103.221 0.476999
16.9595 124.867 6.52366
3.42551 90.4792 7.29558
11.0689 105.914 14.8395
2.77863 102.708 -5.44371
-8.51726 112.158 12.2647
-5.08824 86.4683 -5.23641
1.05257 95.8872 -2.70202
-6.88561 113.214 11.2588
7.87994 113.96 1.8947
3.18942 89.7798 -0.641677
21.4778 130.082 6.00914
-6.30144 104.274 12.901
11.252 122.577 8.25914
19.0625 141.326 3.39166
10.8819 116.737 13.0904
-1.48908 110.514 -3.41612
12.5527 115.165 5.38323
21.9743 130.024 3.76921
-10.8725 93.0582 -5.48964
15.987 112.112 0.859869
13.7355 95.9895 4.64006
9.10339 131.001 -2.32992
11.6559 105.064 8.75521
-9.28938 85.3464 8.26503
-8.66595 85.3084 8.57995
25.6841 80.8803 14.9038
21.979 102.708 6.22902
-14.5741 90.7493 5.00823
17.7967 125.698 5.49725
7.43086 89.2649 6.47564
-12.2477 85.2336 -3.03791
12.5241 129.977 0.0877294
1.9337 91.54 11.5986
-10.3919 95.3955 9.00125
19.8616 128.014 6.66952
-2.42726 110.319 -3.36316
22.7022 103.442 13.7238
13.2498 88.8397 10.2156
22.9519 82.6109 12.6808
3.43661 106.3 -4.94243
-13.7401 104.027 7.17034
-14.6319 81.3579 0.00944808
3.26937 110.771 9.48605
13.506 104.784 15.8243
-15.1344 80.6413 2.05617
14.3738 134.937 7.38888
0.284786 111.47 9.44115
11.9819 120.514 2.94365
5.96089 102.527 5.02925
25.4733 79.7459 15.87
12.6576 117.933 4.43235
5.28188 90.4434 7.33965
15.7248 135.103 -1.25285
16.2551 89.7126 0.437217
19.4346 101.524 5.32002
13.5344 83.2821 -0.0317873
-10.2864 98.2561 -6.72228
-6.08688 99.461 13.1286
18.6723 121.308 1.33268
4.63967 100.916 -2.91467
22.3365 127.926 1.25318
-14.132 86.7793 -2.85889
6.84655 107.741 6.44511
25.7792 91.0919 13.8956
13.4335 95.6761 14.1496
15.754 120.425 10.3627
16.3252 89.2671 2.16658
18.8828 119.333 1.07609
22.7991 133.804 -1.75751
15.9379 101.821 3.1017
15.8422 128.795 4.85219
-3.65963 96.9803 -6.08642
13.882 118.905 -0.892869
20.5838 88.582 11.2551
17.4303 121.61 0.546883
-5.86711 79.3017 9.3325
18.7344 120.24 1.21088
-2.71535 90.662 10.8611
2.73107 80.0677 8.46682
15.5427 124.853 -1.24511
-3.11021 99.6096 11.9752
13.3136 107.954 2.38216
12.6452 117.633 6.36523
11.1177 112.354 2.95712
16.0515 123.111 -5.66181
6.94143 127.25 7.53654
-3.5843 88.8626 -5.45537
23.6241 130.464 -2.05291
21.984 134.242 -3.08646
6.09135 92.0532 4.1011
-10.8216 85.2799 7.71076
8.83353 128.087 3.58051
-15.3295 89.4586 -3.08602
18.7759 93.6988 15.6254
6.78204 117.11 7.4714
21.2789 125.411 -1.70761
21.4691 111.632 10.0248
13.8558 94.0702 1.95191
-4.23564 94.3857 11.8175
14.6525 122.925 -1.31009
23.8251 129.067 -0.890848
5.9822 89.7069 3.62372
7.98805 114.997 2.39518
5.20569 100.049 4.64778
24.0871 87.3111 14.3601
11.7369 116.824 0.398841
6.36063 89.8223 6.27473
24.218 85.1506 14.5742
9.64695 86.5146 3.80402
20.1277 120.911 4.11088
12.4079 112.802 14.7567
13.5439 134.937 -1.11227
-8.49818 76.3845 -1.94247
10.9764 110.406 2.27792
12.6281 125.86 9.47015
7.6162 87.323 3.63762
-15.0783 80.5046 2.22373
17.2882 82.4089 11.871
6.96353 87.7424 2.38165
7.11605 129.145 0.621794
-7.40959 103.688 13.0517
11.3864 104.633 -0.681774
21.4983 111.44 12.6427
18.2457 94.4986 15.5706
16.2763 89.6401 1.68564
20.4563 107.655 5.48842
14.5251 133.386 0.583459
14.6773 101.524 15.4763
10.009 115.429 3.03539
9.329 121.796 1.86606
2.74677 84.3937 10.8997
15.5237 105.671 15.7393
18.957 85.8164 5.26191
4.16958 112.256 9.74165
10.4639 126.223 10.173
-11.7704 104.361 9.31161
8.01392 127.233 5.07081
16.3365 89.19 1.32556
-15.8702 87.9219 0.383182
3.83701 89.5541 -1.11279
5.55919 101.483 -2.27552
-14.9973 97.8121 -4.70738
9.2174 107.923 -1.53238
19.2571 114.288 5.29392
16.6068 128.097 4.26612
11.9226 107.008 14.9177
15.7818 126.41 0.846988
18.2144 110.293 1.42369
15.6363 123.203 1.01708
-10.4101 110.376 12.13
18.1112 81.4401 11.6827
5.22563 88.7909 7.83269
4.87447 127.356 9.01753
-14.0542 84.1623 -2.7253
8.52548 95.526 4.20553
8.98494 95.97 11.4166
10.2561 125.941 -2.64271
-10.1169 106.653 11.8322
11.7681 127.163 -3.56921
-0.133641 94.8106 -4.05574
-9.97823 80.6267 -3.88143
11.6892 134.836 4.62702
-12.5755 97.3342 -5.86734
-0.73191 108.698 -4.05011
10.3303 112.277 2.61917
6.58511 120.236 8.03276
22.4209 99.6701 8.52967
6.0925 81.9739 3.77588
22.1233 121.986 4.0127
9.08804 129.307 -2.18599
-4.568 110.899 -4.34983
16.7639 128.17 4.55991
-3.67736 80.4274 9.94332
16.2864 123.149 1.65503
-14.8963 90.2967 4.0446
24.889 81.0422 14.1109
21.0773 131.157 -3.56171
19.9526 121.677 6.22775
12.7033 92.0525 -1.4411
-9.05183 84.3961 8.41542
11.1928 132.989 1.48906
12.6708 128.92 3.16935
12.7921 104.119 15.4842
-1.34792 116.724 10.7874
-11.3302 79.676 -3.08093
1.95757 91.3902 8.57798
15.5518 136.392 -1.49215
3.56369 111.894 -3.56119
4.91449 97.4204 -1.2321
23.5129 94.7474 12.6122
19.0404 89.1037 8.04342
2.66732 108.099 9.73942
5.97508 85.5993 0.466847
21.0204 135.718 0.810742
22.2564 123.656 -3.42263
-15.0081 81.8932 2.74243
11.6969 110.594 2.72094
-2.15297 85.4828 -2.581
12.4356 114.856 7.48967
13.7287 110.449 3.24736
12.9612 129.62 1.55904
15.7611 116.834 4.33395
21.606 126.644 -4.32984
25.2117 84.7388 14.5412
16.3291 88.6438 0.0701141
24.0595 88.7415 14.44
-6.05476 108.976 -5.68955
-8.75077 83.0523 8.57157
11.1646 135.583 6.24943
2.02997 112.327 9.50706
-8.06882 90.7212 -6.14644
-10.8703 84.8917 -3.91912
3.42616 97.642 8.8011
-9.61023 92.1936 9.26232
24.353 87.4559 14.3788
22.3173 106.962 13.1518
19.035 131.543 -3.88962
-2.59104 105.058 -5.44758
23.0868 93.2854 14.249
-12.8466 97.7429 8.31088
16.4614 128.346 4.45116
-9.70118 83.6123 -4.80475
3.58335 111.424 9.59495
7.8283 97.5753 11.0364
19.3017 136.089 -4.37475
-13.4244 105.187 7.827
-0.856013 95.4341 12.2973
-7.02641 74.8047 9.23933
6.87207 88.6322 4.50084
10.8696 128.229 1.75943
3.85986 94.1221 6.44913
4.16209 95.4535 4.96286
22.0179 128.389 5.75708
-4.8424 94.3766 -5.50036
24.0125 88.4752 14.5299
4.06761 89.9273 -1.40318
10.9501 101.728 -1.85769
6.68177 94.054 -2.219
-6.83236 86.0003 9.29518
3.87053 88.4632 8.80791
10.6882 102.45 3.95057
23.5611 98.487 12.4713
15.4954 82.5441 -0.402204
-9.71083 83.5407 -4.81481
23.5972 79.5159 12.0121
13.0901 92.9532 -0.359869
-14.3116 79.8026 0.207224
-5.60729 96.6945 -6.85962
16.2595 120.359 2.56311
23.4559 101.181 13.3569
1.24666 82.0083 10.4751
-11.5743 88.7651 7.95091
14.9125 137.368 -1.77622
20.2488 105.513 14.7416
6.76962 95.4523 10.2202
9.19469 120.146 2.25095
10.6075 86.344 3.80877
8.3996 99.2966 -2.71053
4.851 98.4371 5.2832
12.0341 111.184 15.0615
7.0526 97.0973 6.87909
21.7424 87.0401 12.3842
23.1304 88.7999 12.8152
11.8471 106.724 4.83219
-4.21938 80.8 -1.21764
8.52217 129.952 -1.92665
22.2764 80.364 10.7357
16.856 127.808 7.95762
5.5308 91.4343 -1.81558
19.6145 99.8125 15.1263
-0.0217364 89.1634 12.2656
7.77277 118.415 2.75381
-0.110398 76.7165 6.38748
20.4092 85.0841 7.59257
17.6899 122.972 5.31646
6.11186 91.0348 3.88073
14.4893 133.022 -1.40425
11.146 109.308 14.6257
7.63767 97.4414 -2.12927
8.04527 127.471 5.20324
7.38504 91.1847 7.87487
0.599251 90.5945 13.2196
15.7626 136.061 5.83426
-10.8715 107.876 11.1811
-10.3912 107.56 11.7387
12.5249 122.15 3.906
8.17956 101.966 -2.97253
-8.69141 106.367 12.5674
-15.2779 95.6428 -3.88634
11.0744 113.595 2.83439
14.3078 120.441 1.00912
5.89959 95.4217 -1.58194
15.3919 120.998 -0.670867
18.8144 113.097 3.83573
11.1641 109.284 11.0812
19.5001 137.03 2.55022
8.74653 131.349 4.92163
2.61202 101.453 -5.32755
6.09565 92.764 4.21657
-15.4252 89.6453 2.36195
5.20039 82.5637 -1.15776
5.18851 118.696 9.59248
21.7216 83.8153 11.1123
16.6354 131.175 2.29463
-3.94638 113.729 10.2395
-2.67624 108.856 -4.03831
3.85471 81.1109 -0.921129
9.49758 102.192 12.2509
21.5636 87.2249 14.4518
3.54983 98.1717 9.93884
-8.16003 73.4197 9.65868
18.5183 86.1155 3.74129
23.3092 104.726 12.4948
0.117972 91.9326 13.5256
7.13046 118.343 5.32655
-5.78966 92.9086 -6.04626
10.1693 104.752 3.08925
20.2868 124.215 6.9355
11.4556 117.62 2.77048
-9.44857 94.2951 -6.32957
19.6014 125.207 6.36487
10.164 123.449 9.34
0.49385 88.5638 12.5585
11.7923 135.781 7.6738
12.4707 101.901 14.8742
11.9081 120.411 2.8881
11.8175 102.778 14.0577
17.5922 86.662 3.30263
13.4418 125.749 -2.09349
5.59938 104.975 7.90803
7.27449 116.439 2.48064
21.6159 104.302 8.98567
10.4921 124.149 11.8183
18.1895 140.152 -2.91574
14.4546 131.797 1.85214
21.8503 125.186 -3.34194
6.65894 106.896 7.53006
14.5204 136.504 -4.27976
-9.18649 78.2208 7.26684
8.26564 120.279 2.56911
21.4352 141.572 -0.992555
10.2441 103.395 12.5652
8.78179 112.345 1.64852
2.07472 99.6831 -5.01945
16.4238 88.6007 3.38929
12.6567 128.575 4.80779
-9.21179 85.6009 -4.80178
14.8194 121.075 12.9599
6.93019 111.607 -0.805173
14.9377 119.661 2.63487
18.9805 124.877 7.32632
-6.99324 101.624 13.0721
1.49146 90.5479 11.9186
25.7099 80.8364 14.9067
4.42047 91.0242 4.86792
5.99341 117.739 1.19374
1.88837 110.825 -4.33073
19.4253 119.975 5.42025
2.5774 119.107 -2.31089
24.7306 86.615 14.6448
5.37026 90.4104 5.23743
15.7184 92.5918 5.95423
-0.377243 94.7334 12.5795
14.7651 83.2657 6.12956
21.9159 122.413 5.2606
12.3228 125.112 6.23505
19.3625 83.783 6.63442
-12.3115 90.133 -4.74505
10.4999 95.3625 12.6303
2.27424 118.708 -2.60748
-2.91015 75.6322 8.25141
6.19281 91.6913 7.93683
-12.4223 82.8265 6.20627
21.2445 131.303 5.48314
19.5474 129.748 -4.31553
20.7769 83.4731 13.7136
22.7044 96.8462 10.3254
15.0675 137.581 -3.73888
2.18002 100.773 10.5562
14.7078 83.4486 -0.806885
7.1746 87.395 3.69959
12.5184 138.62 6.57844
16.2833 128.821 6.63888
15.9513 115.323 -0.970511
-14.6688 79.9847 3.21822
5.86708 108.867 -4.14722
17.3455 120.932 0.635625
15.5592 123.905 10.5988
15.354 127.02 8.10425
11.3072 133.607 7.59498
-0.202416 95.3089 12.1422
1.63077 92.2899 9.08047
21.5798 100.012 6.99627
21.2769 112.804 10.2203
12.6909 120.214 -2.39843
15.9614 135.867 5.75284
17.5209 83.1757 12.8969
-9.06141 90.9211 8.80591
8.82293 97.4085 11.6327
-12.6039 83.3796 -3.74333
23.1118 127.02 -1.4777
12.0653 108.893 5.01043
22.1709 129.769 3.38788
14.9752 126.65 0.2261
16.9894 138.673 -3.35754
13.6263 124.205 11.9334
12.1995 124.869 -3.14638
23.217 104.68 12.6274
4.31059 104.098 -5.36305
9.5438 83.8771 0.536585
10.2596 123.15 10.9566
10.4714 102.01 4.04696
15.6339 92.5681 15.4483
-5.33364 94.7968 11.0237
-5.60667 101.573 13.1752
1.55663 114.612 10.1765
2.01969 117.624 9.7581
11.9182 105.146 5.83488
13.5054 100.756 0.1153
23.1012 131.294 -1.67376
8.22476 94.6616 -2.97929
8.93138 102.909 11.237
-4.76223 88.4165 9.27758
20.7809 122.679 -5.31583
-3.3134 104.996 10.7273
-6.84308 92.7609 -6.60627
8.36743 126.181 3.41733
20.7546 124.385 -4.29239
3.66616 87.3248 -0.653353
-1.24579 92.9261 13.3347
23.4329 104.078 12.0027
20.4743 120.802 0.775863
11.9868 102.932 14.2753
22.2765 134.213 -0.14659
4.78644 94.9694 -1.12161
-9.65661 79.2991 -4.27111
-12.9448 103.169 8.18864
0.350709 78.2307 8.45935
20.3046 87.8067 9.6114
23.7964 95.5889 13.1139
11.5733 115.273 1.66837
13.7251 96.0947 4.64109
13.6154 89.8927 0.812439
23.7257 95.1575 13.246
-11.9597 100.604 -6.79345
20.0949 114.891 12.8031
8.12729 104.126 -2.28025
12.6216 124.85 -2.33188
10.6722 120.591 9.47095
19.2295 123.024 6.09489
-7.94093 80.8232 -3.70761
4.55348 113.644 9.80447
9.32542 88.9017 5.02577
-6.51632 81.8031 -2.13877
7.15248 118.733 4.30482
12.4621 109.8 7.58909
-11.5094 84.1394 7.50798
12.1592 122.154 13.0167
15.695 116.166 0.0427605
12.8758 132.624 -0.997615
15.1737 110.25 14.9267
3.37053 96.3723 8.69047
13.7776 89.8344 0.720867
25.9606 84.5484 15.1517
8.97769 103.152 3.25892
18.063 91.236 6.81209
-5.92306 85.5709 -5.54478
21.6876 109.75 10.7261
19.8703 132.589 3.47926
17.5002 126.671 3.28394
18.153 121.995 4.44852
2.88553 100.317 -4.68912
16.6626 87.5912 2.88309
19.6372 109.186 5.40964
11.5432 134.353 4.55304
-5.21944 93.7242 10.6163
13.5255 126.407 1.57871
20.8212 87.9055 14.7582
17.1392 89.1804 6.27439
10.2641 121.915 0.299346
13.4329 125.666 -2.08545
7.15506 83.5049 3.16956
5.2981 104.516 -4.44911
6.24998 88.6137 4.41745
15.6104 126.93 1.39018
9.10408 88.171 4.35688
7.23671 120.864 5.007
8.53907 104.307 2.94735
-4.42567 108.533 11.2419
11.1354 88.9746 6.72207
-0.140563 97.3113 -4.58353
4.65019 106.992 9.05114
13.7891 123.681 12.0008
19.5949 121.112 3.42236
10.6887 105.932 11.048
11.9146 97.5201 2.73857
-2.61789 102.966 -6.52216
0.19102 84.4446 0.343058
-9.84843 74.1576 1.66219
10.4864 115.968 12.3838
7.33968 122.061 5.12381
-12.0756 96.6348 -5.90242
23.9988 101.017 12.9641
8.32039 120.214 2.7111
14.7285 82.6973 -0.706191
-1.83505 95.7944 12.5893
16.3798 109.858 2.57217
18.79 131.42 -3.93182
4.61324 111.202 -3.59897
2.79509 85.6972 0.230703
-14.1969 89.398 4.89075
6.55499 92.9633 -2.16502
6.7281 110.661 -3.68088
15.2125 122.088 10.9306
-12.1817 104.541 8.93199
21.5367 135.756 0.198414
17.8638 138.127 3.22276
-8.71289 110.443 12.682
-6.45636 98.7806 12.81
5.53082 113.906 -2.37394
8.6034 88.0022 2.87695
-14.2524 91.5095 -4.28862
10.2187 105.69 -3.72106
12.5569 112.705 7.35176
19.6877 134.309 2.3058
10.0273 98.2365 12.2784
22.5509 127.037 -0.725657
-12.4402 93.54 7.82743
7.1952 130.174 6.2802
12.7446 128.918 -1.12886
1.86684 83.0183 -1.29016
-2.27916 110.554 -3.28988
13.0777 133.567 -0.560231
-8.66924 79.557 -2.24358
-12.517 78.1782 -3.38422
15.9812 132.112 1.82068
0.148861 112.966 -3.15223
24.3178 87.4625 14.3709
12.3897 124.678 -2.75854
17.3334 82.1987 3.11574
12.1007 124.627 -2.52223
-10.3421 95.2803 8.94383
13.583 102.415 0.0940379
-4.98801 84.8781 -3.21957
13.7993 87.2389 11.4784
20.4555 132.449 3.4679
13.0124 126.058 -4.28872
20.4112 107.731 5.87712
20.258 79.7445 10.937
-12.4257 81.887 -4.07783
9.88267 119.572 2.02674
16.9045 126.109 5.99732
6.88609 95.3053 -2.23891
12.9931 130.766 -3.94394
13.3343 131.908 1.73437
16.3735 88.9927 0.224806
21.4322 123.311 2.76727
-13.3987 94.154 7.07538
23.7259 94.0872 13.2927
20.8581 122.853 6.90168
10.3791 99.2459 4.23891
-6.19292 113.196 11.1972
-14.1415 91.5004 -4.3927
3.44427 113.191 -3.55687
26.2891 82.7424 15.8002
-5.83938 84.9182 -4.2333
-0.138322 92.6923 -2.91252
-2.77822 109.253 -3.92894
-7.9737 104.765 12.8658
16.6578 90.8095 15.3583
2.59257 100.347 10.7838
14.5723 127.368 0.245764
20.1451 126.43 1.88432
3.7131 94.8147 7.4989
13.482 104.198 0.950295
-4.30768 93.5557 11.4799
-0.611101 120.081 10.3008
6.32728 117.127 1.66135
11.5906 95.9725 13.5309
14.6818 112.14 1.02569
19.9412 89.5366 9.30041
-13.4598 81.9797 -3.05318
14.9293 120.259 -1.24137
12.8899 132.655 7.60141
4.10781 114.639 -3.23148
-11.6574 78.503 -3.86113
15.3645 123.728 10.8331
20.0339 105.032 2.54657
14.086 91.2022 13.2505
12.3369 85.3643 0.730389
23.5297 103.122 12.8317
8.31048 87.0531 4.54738
13.5618 129.303 -3.24484
11.7463 109.381 4.12338
13.415 126.681 2.05149
13.8974 135.634 7.32268
-11.3032 78.1684 -0.983225
-4.41347 114.941 10.2011
18.5333 116.804 12.0831
5.36132 114.267 -2.6842
18.0188 134.876 -4.62721
20.978 127.457 1.77072
-11.4956 79.1757 -3.46949
6.4303 87.6378 3.32565
-1.3272 117.236 -1.2665
22.7207 96.6421 9.63818
17.0487 117.308 13.7415
11.6212 93.7186 12.6671
14.3222 113.18 0.386266
3.41587 94.9225 8.70166
7.04408 116.819 5.7253
22.123 126.701 0.490955
11.9525 85.9445 6.76786
12.8131 119.602 -2.02659
-11.1608 78.7289 -3.2798
18.5288 114.012 13.989
12.9904 102.003 15.5363
10.9084 91.7656 8.48395
11.9182 123.69 6.91378
-14.0563 90.5708 5.81717
20.4126 108.993 14.2037
21.4744 105.798 7.16386
19.8085 83.6835 7.24699
2.49491 85.17 0.644914
16.6257 82.8159 11.6748
-1.86321 108.075 -4.06395
12.8212 129.557 3.51514
24.1289 96.7083 12.823
11.2928 100.321 14.0227
6.56439 126.47 8.06371
24.6304 90.7294 13.9825
-12.9214 86.9435 6.58538
15.487 135.476 -1.47454
12.6319 133.417 2.81786
-3.66798 94.4876 12.583
5.6993 91.8327 7.68675
1.46324 114.951 -3.4066
-12.1824 83.0265 6.63938
16.2747 122.256 2.3258
16.4075 136.988 4.53298
4.06106 125.496 1.57825
16.0256 83.2206 3.26417
7.28039 122.306 5.66139
8.90379 102.58 3.64607
-2.83042 90.806 10.8897
22.4561 81.9448 10.0575
15.4901 121.987 -4.98411
5.85249 104.611 -3.82705
6.60992 107.262 7.8607
-7.98126 104.458 -7.48113
4.00853 99.0428 -1.95259
-2.90924 79.7912 -2.46298
19.8928 108.629 5.33585
8.63054 85.4494 1.37501
16.3178 85.7771 -0.652687
16.3137 127.394 6.40839
-15.445 91.3948 -1.39877
16.1281 84.0446 12.3952
-3.55733 92.7699 11.8352
18.8669 128.173 6.21492
8.70156 100.721 11.9499
-15.622 92.5698 -1.2299
4.43447 115.299 -2.81225
6.56641 94.5835 -2.09823
6.2521 105.94 -4.42325
13.7944 112.785 1.91302
6.95302 93.8348 9.63576
21.8699 126.809 0.553111
19.3999 124.057 7.98393
16.016 94.7617 6.10051
-11.0415 76.6148 -0.133615
-8.72735 103.712 12.5278
-2.13965 90.5767 -4.34065
13.6062 87.2204 1.00282
21.2825 128.702 -5.07318
-7.61274 74.1465 9.62313
14.269 90.0898 13.4204
-6.89345 91.9792 9.58138
17.1922 107.248 15.5047
12.2741 119.818 -1.53805
11.5008 92.8193 10.6107
11.4341 93.1791 11.1989
17.3728 88.3485 6.3837
15.9041 127.652 5.89766
2.35269 90.0805 11.1975
23.2658 83.5585 13.3786
23.2048 130.213 -1.4452
-0.530193 92.2019 13.3386
3.9637 81.2832 8.32535
15.8621 115.861 -0.46614
1.9658 89.0595 -0.226537
24.1891 86.8675 14.4524
17.0934 125.527 5.90294
21.4515 106.048 14.2636
-6.57088 80.2398 -3.09931
14.583 135.544 0.0194636
5.59216 80.3496 3.84614
20.1755 135.349 -4.15068
12.6202 127.742 5.42293
1.06485 120.439 -1.5451
7.60733 87.5294 2.71994
-7.49326 89.4468 8.55589
12.3429 133.155 1.57429
19.3651 145.747 0.849802
21.8281 111.07 8.62196
-2.76552 83.5888 -0.699182
5.55873 81.7475 5.99963
13.5251 83.8985 7.95178
-6.38957 86.2875 9.42347
13.1934 124.393 -2.94049
-11.8145 91.9693 7.7792
22.0321 138.593 0.39101
11.4871 123.117 -2.53876
20.5583 125.661 2.04576
11.1756 111.962 2.98502
5.68181 113.873 -0.836517
-14.8747 89.1865 -3.38844
12.7373 120.776 -2.90178
8.49271 121.946 2.60018
16.2197 138.379 4.20212
12.5442 124.848 5.76737
15.5706 98.2895 4.88077
15.719 118.617 1.38336
19.8382 144.348 1.03
3.69696 98.5923 7.53723
17.4368 101.023 4.86067
12.8665 119.079 -0.845002
12.6453 109.556 2.72292
4.60771 88.7924 4.40125
1.01974 94.7243 -1.82744
-9.192 90.087 -5.74472
-9.09661 84.7883 8.38783
20.4077 123.957 6.84259
6.2187 88.1979 4.20889
11.2511 103.12 -3.07918
21.4062 129.761 5.40244
10.9853 94.7489 -1.60186
-6.2139 100.396 -6.75563
10.08 106.714 -1.63284
-7.38192 110.22 12.2645
11.3576 118.919 0.556143
13.4566 85.8431 9.51841
11.4707 103.973 7.67272
22.4139 94.0064 14.5641
5.86518 103.16 8.36493
-15.8045 88.818 -2.60212
7.85575 109.703 3.0062
20.465 95.4331 15.1478
19.3865 112.307 13.652
-15.5266 97.3858 3.23552
5.34735 119.931 9.5122
18.2305 131.851 -3.91881
16.8031 126.702 5.54494
24.6387 93.6422 13.3652
6.98638 107.236 5.42151
-7.61815 98.3702 12.0922
5.1278 117.412 0.487635
17.2166 127.022 5.84389
20.5373 141.289 -2.2128
17.5362 126.092 2.49253
-4.64046 82.672 -1.14882
21.6411 124.119 3.53133
-11.3229 97.6268 -6.24236
-15.0885 92.6499 1.06401
23.1541 133.985 -0.367237
10.0257 124.696 9.72493
9.00082 103.878 -2.75675
13.6792 134.42 -0.155947
-9.62072 77.1292 -1.75857
19.5054 135.62 3.10779
14.0413 127.281 -0.58817
-8.32707 89.6567 -5.85751
-9.18752 84.9262 -4.86468
7.9143 110.236 -1.23654
-2.81695 100.332 11.584
19.4087 83.6161 6.88408
3.25438 114.891 -3.43091
-12.8884 85.1541 -2.80983
-7.70402 104.592 12.9843
-15.1788 84.3067 2.03343
10.7475 123.349 -2.10682
3.85656 101.557 10.1453
25.508 84.0161 15.1781
12.7355 121.081 6.1674
14.9989 133.698 -1.3854
1.56288 81.6879 -1.85969
15.8044 109.855 14.8835
-2.48878 98.8542 12.0591
12.0378 106.807 1.41348
-14.0837 87.7765 4.7871
21.9506 110.102 9.42994
5.66962 109.036 9.01387
9.1697 115.047 2.9467
18.5017 85.3529 14.1752
24.9101 91.1415 13.7146
21.7746 85.6834 12.5508
15.7234 83.0891 7.6091
18.6457 109.393 1.63403
8.27613 100.826 4.27401
22.3895 130.716 -4.16424
-4.94332 81.2671 9.72595
16.768 98.3309 15.9104
16.0612 82.8361 6.61132
15.7098 93.0875 5.95659
20.1825 141.339 2.37053
13.2963 128.243 2.65501
15.4227 140.899 4.44152
14.5799 122.301 -0.747831
-11.123 79.832 -2.91825
10.999 130.16 6.13838
-2.16056 110.585 9.92118
-9.38301 79.3826 -4.1237
-2.80339 113.375 -2.58425
21.574 103.429 10.0213
11.4354 118.715 8.96598
11.4169 109.314 2.12626
2.11037 93.2423 8.25866
19.8086 114.889 11.7845
7.3961 79.0415 3.65084
-0.882615 99.1852 -5.68515
22.8153 107.064 10.9713
-0.222204 110.604 -3.57789
14.559 116.273 14.4309
14.8442 93.8314 5.48084
6.65403 107.252 7.56412
9.3142 114.551 2.90336
17.6301 129.115 3.02702
10.2991 95.8329 13.063
9.45592 131.05 3.83419
9.29073 99.0701 -3.48024
-12.0312 74.96 6.84632
-9.97778 74.563 8.45193
12.6795 117.645 5.22162
7.48083 96.6935 11.1523
22.35 134.354 -2.35732
-13.7424 84.0863 -3.01396
0.0751438 116.938 10.6786
-5.21241 87.2451 9.46807
18.6885 85.3182 2.88868
-3.0722 105.393 -5.51366
16.3454 103.598 15.6914
6.19441 117.98 8.64179
17.8236 86.6274 5.13354
-5.99971 90.0496 8.98273
-7.72326 107.279 13.0188
-3.50816 81.3821 -3.28213
-5.78425 88.7315 9.16539
12.5284 115.747 6.94436
13.7064 94.3941 4.35687
21.7792 125.447 0.703306
12.5733 91.9451 -1.4595
10.9264 104.752 -1.81646
-11.2946 101.443 10.2472
16.5872 107.662 2.37612
2.91246 120.467 8.63495
10.1884 117.676 11.2943
-1.84071 101.017 11.0559
-13.1044 79.0528 5.91075
-5.71452 95.16 11.1399
-4.55784 110.423 11.1555
13.5605 85.3859 10.0284
-8.02305 80.4427 -3.47622
20.6265 126.45 7.73871
7.52717 98.4918 10.4466
12.5292 112.771 6.01317
9.83608 106.866 -2.0236
18.2062 112.444 1.48198
-14.8238 83.2271 3.09963
22.0055 126.02 2.61933
-7.55039 103.563 13.0477
-14.1611 94.83 6.52288
6.17391 114.019 7.51993
5.44482 88.0424 2.41601
18.1595 93.5079 7.14228
9.44951 86.9286 4.8491
4.64263 83.9739 8.62234
18.0708 122.534 4.74234
16.1194 102.859 0.371331
4.10304 111.572 -3.54092
-0.409987 114.502 -2.32909
3.72488 89.2046 9.55736
21.7748 109.829 10.3526
17.8601 86.4439 2.81282
8.70092 101.432 -3.50798
-13.4108 77.6819 5.50599
10.394 123.613 11.7774
-2.20293 108.113 10.1485
-14.3177 84.4141 3.91902
9.58075 117.5 1.63808
2.57634 113.567 9.79193
18.3657 113.418 1.25879
16.244 83.8438 12.3184
20.5391 82.7932 13.5146
-1.17996 91.0232 -3.18044
4.86755 91.9681 3.96891
0.0708847 99.2302 -5.71323
17.9973 94.5635 7.44816
-5.35585 96.6651 -6.71881
20.1305 131.226 -3.60225
4.22683 96.8321 5.5913
14.5858 126.422 -0.311156
19.8754 84.4684 6.22562
19.5569 126.615 -6.2391
20.4331 123.566 -5.7293
-4.55413 84.9477 10.0417
15.0062 101.761 -0.0311784
23.7938 88.8257 13.9857
14.5264 107.314 2.38941
12.3785 112.827 14.7626
22.3469 126.108 2.75726
7.32314 110.984 -3.24882
22.0289 128.424 5.82727
-11.7146 78.2458 -3.37631
4.77474 105.212 -5.24188
16.1661 102.385 2.39627
-11.2694 101.117 10.2761
16.9241 125.396 1.43046
25.0159 84.6426 14.9002
14.4153 83.6145 7.73134
21.7233 108.675 9.28025
-7.30937 96.8495 11.5524
9.25986 103.834 -2.82834
22.8233 90.6834 14.3173
15.8072 105.109 1.13057
11.7981 133.491 7.4598
18.4489 116.677 7.0286
4.35798 92.3707 -1.6548
16.9557 83.6771 12.8333
10.8749 89.9219 -1.35971
22.9466 87.5836 14.4706
17.9193 125.096 2.1447
-14.4364 80.5549 0.109709
8.31028 114.385 2.7543
-10.9273 79.9599 -3.56488
-0.985076 76.7056 7.6973
4.97612 115.766 -0.41894
4.89583 129.071 8.61471
3.84533 99.3395 7.884
16.5631 87.8311 3.35201
18.8798 101.567 15.4197
3.78893 103.045 9.46504
9.7683 124.597 -1.82861
23.8304 80.5573 15.2267
-2.45638 80.1955 -2.38773
-14.292 96.6201 6.60393
21.2235 93.0473 9.35921
9.65447 98.023 -1.85728
-4.64562 81.578 -2.48815
17.1135 102.965 2.53954
17.0908 128.251 6.317
5.74229 80.8621 3.79914
11.6909 135.839 1.3774
12.5615 122.037 -1.70373
-11.0951 86.4668 -3.9566
-9.34298 104.474 12.259
8.13023 125.195 3.70726
12.9341 101.936 -0.933638
-1.94554 103.149 -6.29531
9.69694 91.1166 6.5902
-1.20625 107.917 10.122
-13.243 80.3464 -2.82455
-10.8436 85.4394 -3.99977
5.98674 125.434 2.92921
24.7871 96.0308 13.4845
10.2676 124.712 8.9138
-4.08907 96.0813 12.925
-10.8354 84.6986 7.68754
6.5919 88.9231 6.66935
10.5405 102.604 3.95949
7.24645 111.114 -2.25109
18.9456 113.205 4.19842
13.6907 136.772 -3.14966
21.7164 96.7814 8.24432
14.9344 82.0207 0.455292
17.2685 83.2091 0.462961
10.8773 92.4335 8.7487
11.7635 110.06 4.00575
-1.79195 92.1451 -4.61801
-8.97645 80.7426 -2.64822
-11.4424 89.2968 7.96481
14.9026 128.523 0.272022
5.59916 115.1 -0.0340308
2.23561 117.682 9.66296
-15.0124 95.4111 -4.34464
26.1741 85.4095 15.2421
-3.40763 113.589 -3.32227
-13.0154 94.5583 7.78773
17.2199 82.1266 3.80017
-4.14676 101.813 12.3559
17.0696 125.855 1.59132
-2.92181 110.02 -3.79669
5.49222 99.9636 4.08048
11.0485 104.17 -2.16168
11.9471 92.4608 10.7663
19.3623 123.466 6.91889
12.9263 132.345 -3.13392
18.0209 114.648 1.54398
12.0961 132.016 4.46009
-1.64629 93.967 -4.41054
6.24087 91.3314 4.04861
10.4625 87.1891 3.49088
6.17575 114.693 0.45848
2.97742 121.116 8.36873
12.4676 109.948 7.53756
-11.192 103.66 10.1449
17.1022 125.451 6.07503
-13.6733 101.171 7.10053
-11.0623 78.6436 -2.34496
-15.9152 88.2686 -0.0468207
16.8205 124.732 6.32776
11.9545 97.2921 2.82797
13.5666 137.362 -1.08658
11.3473 112.105 14.5331
5.84341 92.7905 4.37534
-2.99349 112.657 10.0537
21.4929 129.326 6.22312
8.77103 105.006 -2.78944
-13.85 95.2648 -5.13942
16.0898 129.161 0.917636
7.83235 100.452 9.01467
23.1893 130.103 -4.46817
-2.95645 101.641 11.1501
21.5778 130.681 -3.99198
1.22679 120.893 -1.48737
-0.705054 80.9311 -2.46265
10.9305 115.381 13.3795
-1.55321 104.101 10.0013
8.40943 125.31 3.17543
13.5242 84.0185 8.59574
-15.8299 84.4856 -0.535953
12.8884 132.763 2.7246
4.04846 106.875 -4.7601
11.3235 116.81 0.588056
20.9074 91.6162 10.1897
-2.51462 92.2594 12.4698
18.4704 115.153 10.7806
15.4256 120.615 11.9031
6.94598 92.791 2.98162
12.7292 82.4398 0.668678
18.1127 103.417 2.82603
-7.3419 98.5032 12.3133
9.41476 130.896 -2.55129
6.75224 88.5743 4.59523
6.74812 125.501 2.93168
13.2539 127.288 8.96461
22.1323 102.496 6.74013
12.5268 115.708 4.87921
19.986 97.682 7.52441
1.74536 91.2886 11.7887
16.9271 122.6 -5.72861
9.12 87.5111 3.03945
2.51184 90.4443 7.47986
22.1029 127.353 0.485257
19.2197 85.7212 5.56967
-7.8669 105.585 12.9173
15.1348 105.883 1.50972
-1.36149 117.539 10.8693
12.7984 114.949 0.141222
13.8509 135.648 0.00431981
17.7538 82.5988 6.31151
-2.71636 80.9211 -2.6126
23.0436 127.195 -1.76911
19.9124 139.896 2.81126
-10.5757 77.0917 7.17745
15.979 115.072 1.69706
4.88834 90.1745 -1.82015
19.8774 89.0951 8.81632
7.53784 85.6908 4.08832
15.8046 91.6251 5.953
2.75879 118.046 -2.75148
4.61696 115.441 -1.59015
10.3111 93.1264 8.71304
-2.92171 108.969 10.0751
12.3071 128.284 -3.69539
-8.39971 86.1305 -4.9104
-12.4625 93.6507 7.87246
7.2636 111.867 3.24348
18.4193 90.5617 7.36372
5.42948 124.46 2.69242
22.6054 90.1413 11.3328
10.4965 100.166 -0.0138748
15.638 124.495 -5.54377
10.6689 99.5368 0.684658
-15.8035 90.5563 -2.60936
14.8198 133.935 0.0993718
17.0368 126.695 5.13576
16.6386 87.2768 0.897549
14.8365 122.913 0.548208
13.2797 85.2064 4.70457
11.3156 106.975 13.0606
17.493 141.271 -2.44223
12.0526 127.194 -3.76769
12.4883 121.881 3.85406
7.35597 111.397 -0.324085
-5.70015 94.2414 10.4222
-7.64534 109.318 12.7363
23.4855 81.8721 12.8397
6.21111 85.268 6.50098
6.38989 83.7728 5.62286
10.9023 111.965 2.87618
17.5234 122.023 1.13231
19.6084 121.726 -5.03194
20.3604 87.6542 9.76798
16.2544 131.893 0.233067
5.80066 122.718 2.81357
23.3791 78.9835 13.7827
8.17163 126.821 4.28586
11.6366 114.998 9.07279
18.8099 85.928 3.30387
16.5109 82.2705 11.0268
-2.10515 97.6577 12.3177
21.717 90.0165 11.1066
6.73533 88.7253 5.10892
-8.41905 103.513 -7.30231
21.6969 96.5958 8.34156
21.1942 130.735 -3.88023
2.29456 85.9231 0.648554
-14.9999 80.1606 2.42793
18.9228 91.7543 8.22091
19.4694 114.399 5.94437
13.6734 131.594 -3.95172
-5.51355 89.9546 9.11955
11.8399 88.1348 0.120478
22.0033 103.836 7.39088
11.035 80.2211 -1.68803
18.8715 121.347 2.25574
-6.28295 85.3184 -5.4279
9.11859 100.258 3.66732
22.7147 98.9797 10.1098
16.3809 88.9463 3.73649
10.4446 104.671 3.1969
12.5215 110.889 7.03512
-7.56538 112.434 11.6645
12.5149 118.547 6.92761
20.303 129.466 -4.74296
-15.86 97.3908 -2.52635
-6.24684 114.113 10.8907
22.6646 96.8084 11.6103
5.51218 79.941 -0.608881
12.2942 105.295 15.3644
12.1631 125.96 6.49324
17.2264 119.16 10.3493
10.7596 108.759 1.41178
8.75326 99.131 -3.07639
10.2269 85.9483 4.53431
23.0286 87.09 13.1108
-14.9146 90.1071 3.88008
13.1911 116.228 -1.31233
21.8411 127.766 -2.71634
10.7326 90.5596 7.46255
21.3033 112.41 10.4255
-0.553766 113.354 -2.50345
12.3758 100.353 1.06106
20.6227 107.938 7.7886
17.401 103.899 1.20571
7.2483 122.801 5.93092
-13.329 83.3533 5.44638
20.2866 108.638 7.85033
17.0185 87.4745 4.12132
-2.57294 76.4396 8.78904
10.7226 111.408 13.9293
18.9781 120.242 1.42916
15.8645 113.486 14.5637
-9.00224 91.3047 8.91461
12.7595 120.559 -1.28
0.931156 88.6036 12.4174
12.0105 96.5866 2.55401
22.5564 92.1257 10.6411
9.6627 84.8612 3.98904
-13.352 77.3347 0.727552
8.22682 124.777 1.59181
21.2974 112.741 10.1387
9.99857 95.2064 -2.26493
20.2833 87.1671 14.8011
8.16689 125.014 3.58163
18.871 80.4335 7.79499
6.16238 112.798 -2.22958
8.1133 125.776 0.868464
26.0467 86.075 15.1968
14.3028 107.975 2.56923
20.722 132.346 -3.40623
21.5211 129.815 6.99244
23.6883 104.124 12.2469
21.9913 103.47 8.51587
12.2297 106.6 6.74833
18.0829 124.392 6.64806
21.5894 85.0899 14.6239
11.9672 93.2884 12.6417
-7.88726 96.1802 10.6075
4.81899 124.701 8.91263
-5.21052 96.4982 12.1002
16.1805 92.6264 6.06596
17.3684 134.314 -4.608
17.1657 86.8382 14.243
5.79861 100.225 4.11659
23.7264 130.891 -3.29101
14.7192 94.0876 5.37856
20.0703 120.714 6.79644
17.8949 93.8414 6.84027
-14.6365 81.4665 -0.1049
9.31326 93.2126 -3.05418
11.5577 120.14 13.1906
19.0657 115.138 10.3382
10.8825 85.6778 4.21621
15.4643 125.86 5.76515
0.909377 92.6502 -0.976457
-2.24697 104.666 10.2223
10.9538 83.4546 -0.150891
-6.02929 109.628 12.2533
-14.2036 86.0089 4.47074
