ply
format ascii 1.0
comment Created by Open3D
element vertex 1947
property double x
property double y
property double z
end_header
28.2985 86.5333 17.6863
18.2196 84.9964 10.2556
15.0665 87.356 8.34718
-7.5759 97.6561 -5.25972
15.9049 121.657 3.34656
-10.9155 125.415 -3.41737
18.6112 122.286 -1.27741
15.8647 114.781 10.9276
-6.71389 80.8151 0.196381
-6.52336 132.555 -4.17951
13.0135 96.4897 6.21978
-5.22612 141.665 -3.56859
-13.2966 126.581 1.13597
-6.57542 143.51 -4.22609
-2.10401 126.848 0.796188
0.0224154 134.371 5.32043
12.1805 91.6914 10.2255
-13.8611 121.462 2.37139
15.213 122.3 -2.02034
0.963508 88.8488 2.08887
2.90514 118.64 11.2403
14.5499 125.385 -3.50104
-18.087 118.717 7.43162
-1.65376 120.864 0.355674
3.68405 115.712 -2.27159
-5.77539 79.6276 4.54128
-13.4795 144.007 5.89793
-5.82365 115.311 -3.85648
20.8172 80.9807 7.62519
-2.35215 119.849 11.6534
3.35092 81.9467 8.0001
-4.80832 119.646 13.1005
-14.1123 120.761 3.14586
6.82432 132.363 -0.632989
-7.39795 98.4222 -5.27766
1.97218 79.0186 5.88649
13.541 129.958 -2.95074
12.2382 81.2646 4.74066
-2.17001 84.9713 1.78115
-13.0696 127.919 2.20178
19.0905 105.985 1.86681
11.4112 83.8716 6.5439
-16.6399 135.716 7.12477
13.9137 101.032 -0.0914106
-9.38615 107.652 10.293
13.5371 87.8932 6.76838
-11.492 136.873 11.053
-6.99443 137.323 7.09881
11.8922 129.921 -4.2519
7.59811 125.501 2.88834
-10.1442 106.925 -4.88982
5.72027 101.882 -1.49777
21.5093 109.018 2.87028
5.29393 91.4059 0.498651
-17.8109 130.948 5.36237
17.581 108.193 7.99725
-7.51887 109.658 -4.75462
-9.97272 102.992 -5.18366
5.48507 93.2475 12.8614
6.95874 111.264 -2.62275
-4.28546 78.2114 1.2454
-6.30362 78.487 4.78306
-2.00568 92.2342 10.5127
12.7342 90.5299 8.27803
-11.2648 125.236 11.41
20.027 82.6491 7.57829
-13.7453 123.428 12.6723
17.3199 89.0786 6.42371
8.82856 85.5025 10.6808
-9.58125 121.205 -3.55704
-8.24947 82.6574 0.227139
19.7962 97.308 7.51302
17.3095 113.836 5.93801
-11.7495 79.5697 -0.39374
-14.8889 97.5895 1.45247
-18.1084 126.569 5.91185
-10.4626 146.558 -1.61564
19.7465 96.5638 7.67169
11.0623 103.578 8.66803
-13.6321 130.219 2.28999
-15.7849 130.568 10.1787
-10.301 79.2768 4.52442
-11.6004 140.057 0.388712
17.1459 110.393 5.53
26.2939 83.4538 13.3531
-10.056 109.373 7.69686
-20.0359 122.948 8.02472
-12.2779 125.12 1.85204
26.6096 87.621 18.7926
8.58888 85.0792 4.23138
12.3523 109.183 6.6799
21.1357 127.432 -6.67751
-7.25128 101.338 11.6661
5.14294 91.5114 0.551845
-0.623032 96.9306 12.9972
11.4457 92.099 0.51574
21.5859 81.8124 9.30537
24.0673 103.272 7.92692
-4.23728 75.9122 3.38817
20.6489 104.653 2.70953
-0.21516 93.1412 -1.04749
0.820855 85.6545 3.19657
26.504 83.3055 13.6281
-15.1797 88.4825 1.12764
15.2101 127.218 -0.708649
-7.21367 137.631 7.44975
10.0308 124.236 0.302642
-1.54285 127.149 8.76819
-13.79 103.78 -3.30755
20.8376 102.392 4.63668
-10.7399 107.735 7.09414
-2.31341 100.378 -4.43092
20.761 94.5406 8.7954
-16.8578 134.418 11.2311
-13.532 100.626 5.68009
-2.12531 81.9702 2.02606
-5.70311 82.5583 7.25847
13.2526 89.6764 9.30392
-5.74509 86.4397 -4.24101
8.31731 101.658 11.3962
4.31896 104.934 -4.00891
3.54942 86.3795 2.67695
-2.49964 101.579 -4.93687
-19.0994 129.442 10.8335
25.1243 95.226 11.4588
4.59983 88.3232 12.2218
-14.1649 121.629 -1.43959
-10.4491 103.885 9.50032
-4.34431 81.3731 6.40112
8.43762 81.8622 7.66744
24.9582 92.2955 18.8254
-5.28057 106.891 -4.02905
4.32754 109.92 -2.81417
21.5504 109.14 3.83274
4.09394 90.6634 12.8417
-13.2859 122.273 3.06157
4.28818 87.8334 1.34524
22.1208 97.0202 8.18297
-13.3638 84.8364 0.573699
-8.65186 94.4623 9.46883
14.0818 129.996 -4.02721
-13.312 124.787 10.9323
12.6965 90.0904 1.53819
-15.7201 140.14 6.30963
26.6095 100.869 14.2011
-9.32526 139.019 -3.33771
3.22719 119.475 10.9226
8.91307 90.0524 11.7556
21.6315 80.8374 9.33133
12.6896 92.1612 7.99243
17.0988 129.477 -6.79259
16.2357 91.5269 10.5173
14.1216 125.954 -3.52621
-9.40737 87.3924 7.24414
-11.8522 132.55 9.83752
-4.505 104.688 -4.69645
12.0543 84.9957 8.41781
-11.4112 106.065 7.54081
-15.5719 110.212 -0.844425
-8.68728 85.6056 7.37521
-6.79017 136.72 -4.5811
1.34963 91.1641 1.35577
-6.73892 118.704 12.7439
15.8564 95.8791 15.3336
1.50239 78.1689 5.20132
6.16599 77.5951 2.87846
-9.90273 81.9602 0.182926
-17.7022 127.542 1.66249
11.8212 102.962 6.68634
22.2268 94.1519 9.62324
0.180805 125.232 1.15433
26.5196 98.813 15.2851
-10.3071 125.865 11.1914
21.0458 81.6978 8.9984
-3.95962 83.8301 8.22166
25.6276 82.5707 11.5201
-7.4124 147.969 -3.32035
12.1197 98.1329 12.1081
-12.9963 132.932 1.78644
-2.44771 92.6182 10.6786
17.7724 121.793 -0.817142
17.2651 96.2892 6.33247
21.8086 94.546 9.35812
17.5845 84.5894 8.60486
-9.17999 135.205 9.81021
-12.1644 118.859 -3.09288
-14.7734 114.592 6.50152
4.18802 84.3516 3.57711
-14.0829 120.963 7.18947
24.7336 87.1123 19.9455
-0.512382 110.534 -2.27576
-1.32057 126.473 1.16253
9.99744 78.7934 4.95213
20.3871 96.7777 8.05586
-2.34539 113.491 -1.2902
12.5076 83.1072 3.26161
2.35202 102.264 12.0338
4.9796 110.437 -2.73095
-14.3252 135.233 1.69657
27.3436 89.2464 17.922
-7.04376 110.728 12.5397
12.5088 125.374 3.05656
-7.15235 105.968 12.0482
-6.93331 129.441 -3.79026
10.5733 84.7419 4.36578
25.6654 94.7974 17.6139
-11.6922 122.04 -3.81831
-6.9384 129.193 8.8915
27.4615 93.5288 14.7673
-7.14549 118.481 12.7489
-5.85543 84.0488 -0.0446114
16.7233 125.362 -2.27881
-6.74385 78.7407 4.84494
4.67772 122.72 9.44527
17.7831 94.6914 17.6521
-18.5319 126.316 7.25504
-14.1471 109.743 5.74536
-8.70809 101.79 -4.66524
12.8348 90.918 7.53964
10.4091 120.847 8.37051
-9.5182 132.834 10.5179
11.2555 123.82 -1.89392
-12.3337 81.8931 1.80717
14.2637 127.256 -2.85671
-15.4801 104.824 1.67215
-13.1432 123.575 -0.911528
-6.60343 98.5696 11.4718
16.6107 86.8898 4.69626
11.1458 121.124 7.12391
23.6585 83.2375 21.1226
18.5786 121.641 -0.43566
-15.2954 135.274 2.7041
14.7332 108.547 2.6784
4.47201 116.298 -1.15944
23.7886 98.1647 8.31281
26.0029 84.323 14.8649
-19.5327 124.34 8.38955
18.9347 117.533 4.69487
-8.83632 101.361 10.6404
1.38132 105.84 -4.38211
-15.1232 102.678 1.71674
16.729 122.175 -7.22418
-0.587741 103.262 -4.84455
11.6001 132.506 -3.56872
6.80216 105.968 -3.24837
-0.153651 89.2735 1.03882
-13.7773 127.516 0.320203
1.41123 78.6261 5.57187
-13.4044 105.74 -3.33084
-0.909569 97.9196 -4.2604
19.7192 109.832 1.45035
-12.8696 118.215 9.50699
-5.07045 125.638 -1.68326
4.06733 104.909 -3.9917
17.3793 117.652 1.48819
14.0428 116.662 -1.04037
15.3297 81.4498 5.61926
-13.5642 121.738 4.37313
-7.91871 129.003 9.21938
24.5348 98.2875 17.4388
16.2478 92.8083 5.72001
-16.7083 124.735 4.13669
1.51183 90.6988 1.59627
-12.7413 119.529 11.1404
-2.39521 132.68 5.50133
9.80372 82.3196 7.05017
-14.8271 113.058 6.36009
-15.1601 125.578 11.8014
-8.92553 90.9551 7.95658
-17.9945 131.644 5.80724
3.41497 107.924 11.074
19.4623 100.356 19.568
-11.7317 145.154 0.825758
17.2996 103.914 6.4351
16.6431 128.819 -6.87373
9.27658 91.1604 10.3768
19.9345 114.469 1.48729
19.2345 101.247 5.01369
22.3982 107.163 4.06849
3.5543 83.3476 9.63959
19.8517 82.0508 18.9367
15.4963 120.769 -7.14998
0.975901 111.311 -2.90304
-9.72761 110.346 8.21984
-10.9828 87.2545 -1.47832
-9.43186 82.1112 5.3321
-5.70617 121.502 12.8302
2.36933 81.4105 7.66268
17.2219 102.308 18.425
-7.90745 83.8107 -1.27697
-10.3001 118.52 11.2956
-12.635 89.0221 -1.0415
-10.4995 78.1372 0.694357
-4.77898 123.777 -2.43207
-12.1511 136.309 1.79258
-0.102233 78.8292 3.17612
4.84623 77.9299 4.28712
22.5086 89.9511 11.0018
-11.633 84.6462 5.24398
-7.67882 87.984 -3.45259
-12.4644 119.508 11.5207
12.0275 111.301 6.10956
-5.49483 110.98 -3.51038
0.151854 101.786 -4.67523
-7.90037 145.199 -3.83167
-0.984918 129.571 8.03009
-8.20522 88.1095 7.9947
-13.065 129.817 1.31211
10.0867 123.707 1.42088
-11.1069 123.496 -3.36212
-1.29282 94.182 -2.68799
18.9562 84.4057 16.0603
13.5406 91.139 8.36303
-6.98854 91.7635 -4.80098
-7.09541 126.457 -3.23265
24.8458 82.4993 11.3236
15.4306 123.483 -1.1108
8.51573 117.344 2.92574
11.0702 100.839 -0.256361
7.12999 101.062 11.6865
13.3014 96.2735 9.32621
-14.4479 118.433 3.0054
0.238425 89.5251 10.0553
-0.142691 126.963 9.09844
-17.2562 122.292 3.01899
-10.9894 122.337 -3.71118
-3.82709 117.15 -1.9735
15.3574 103.779 10.6575
14.6816 98.2277 15.7814
23.0954 94.0258 9.85873
-11.5334 141.341 -1.08144
-2.35053 123.412 11.5847
11.721 93.6783 7.09224
14.0248 126.123 -3.70931
-9.92169 130.651 -3.79086
-8.12251 111.766 -4.97408
22.8056 93.6998 19.4642
-4.39799 128.778 7.7724
-4.3191 88.9629 -4.0869
16.3817 87.3297 8.34462
-5.74737 135.881 6.44373
-7.96959 132.669 -5.39187
-6.50208 147.688 -3.42046
17.1066 103.853 6.43687
-6.23789 85.5028 -1.85022
20.6158 88.065 20.1301
-11.1997 145.931 -0.455973
-10.1095 99.0167 9.30257
-11.9172 102.335 7.58697
7.81544 106.442 -2.75918
15.1398 112.616 1.99104
18.4185 86.922 17.9317
12.0866 96.2096 11.6318
14.8917 99.1176 15.1305
9.55078 80.259 4.88618
-0.618595 92.4847 -1.15427
1.29672 135.01 1.8244
6.77838 85.4287 4.00812
-0.430536 126.254 1.36377
-10.2619 108.452 -5.15637
1.12531 118.782 11.311
-14.7951 131.958 0.788398
-0.518211 134.663 5.08393
-0.721216 86.2252 1.35168
6.8668 106.825 -3.62954
15.7155 94.1498 12.0072
13.8522 101.262 9.85969
-10.8348 117.33 -3.95246
8.02609 129.389 -0.278
10.2299 127.447 -2.34623
14.881 128.858 -6.00645
-0.350293 110.048 -2.43496
-4.08769 136.334 4.75037
13.7069 105.858 4.92511
-14.3472 120.184 11.7327
10.9644 124.458 -1.97965
-10.8555 82.1602 -1.89817
-5.79929 94.0841 10.2024
-8.0012 89.4701 8.24167
10.2405 117.462 2.73191
13.8743 119.62 -1.83046
-4.34017 89.9588 -4.29768
-14.6522 88.7342 2.35538
0.933043 123.388 0.933809
-8.50971 89.3237 -3.93977
-3.99144 106.937 -3.60771
10.1971 129.286 -2.66626
-12.2647 123.368 10.2608
26.6069 83.4168 14.5552
-2.99571 82.345 6.88578
14.8379 125.401 -1.17762
11.0518 78.4877 4.367
-8.92012 114.289 9.69931
17.8965 123.402 -1.69412
11.9433 94.5683 9.71538
16.7595 84.0585 10.7062
6.98112 112.032 -1.02275
-6.73234 148.242 -3.28569
3.80144 113.866 -2.61213
24.9866 84.5975 13.3278
13.1697 89.458 8.27045
-13.3966 97.9474 5.69708
11.4899 110.629 8.34781
-13.6453 128.204 10.6217
-15.9055 133.793 11.6379
22.7261 85.3158 10.5177
-19.2572 120.665 11.4411
-16.628 132.131 10.9614
-15.2086 124.319 12.8646
-13.2046 93.6096 4.08219
-13.3464 105.878 -3.35109
-1.44562 125.685 10.1434
-14.7564 98.9175 -1.87137
-8.20503 134.099 -4.86883
-10.0181 82.7919 -2.09878
18.9677 92.6995 19.6612
-12.7217 114.877 8.78612
-3.51767 111.473 -2.09614
1.11216 104.979 -4.52772
-7.42855 147.765 -3.3576
16.0906 124.522 -0.45784
9.56956 108.593 -0.126057
2.68309 105.029 -4.19917
-10.1586 120.359 -4.08423
24.125 104.031 11.0407
8.81542 86.9073 3.00338
5.99925 111.085 -2.66888
-16.7074 123.95 3.28349
15.3305 80.7836 6.16077
-8.31265 78.8748 5.213
-15.6325 107.165 0.128774
17.3317 109.411 6.38459
11.4213 102.224 6.90187
-9.09696 106.109 -5.1824
7.69538 92.9658 10.0645
15.6047 105.592 12.0371
3.98079 78.4528 4.42867
16.8993 118.571 4.72522
-12.3412 124.087 -3.73493
-7.89799 80.218 2.11966
4.31996 92.1816 13.7537
9.60913 132.734 -2.39631
20.2286 97.6706 19.996
21.765 95.5642 8.78624
16.8084 90.2372 12.0479
-19.1607 120.096 11.5706
-17.6732 128.507 4.04514
-19.4589 124.347 8.621
-13.568 120.174 8.60156
-13.1852 98.4405 -3.13422
-14.0256 119.611 1.9828
4.77196 92.8127 13.9855
11.1255 99.0485 7.28224
-13.6888 124.342 12.5121
-3.36266 81.6092 6.42078
14.3958 120.977 -6.08639
18.9723 98.0928 6.35997
3.82928 101.441 -2.94268
-6.56085 91.7201 9.57384
-12.0597 134.512 -0.347146
-14.3835 133.686 10.8393
23.458 106.557 9.98071
-2.32073 79.3228 1.99084
13.6259 95.4465 12.5458
-6.3324 80.4521 1.01684
-13.8122 118.6 -0.183333
7.64439 129.618 1.54307
-5.45877 131.292 -2.55967
8.53835 110.209 -0.294092
6.0932 95.2666 12.9718
21.6451 100.093 19.1454
-19.0832 128.006 10.8189
25.208 85.3024 19.8749
0.913086 120.599 -0.407139
21.0679 128.768 -7.60001
26.7256 80.3601 11.5222
12.4858 97.1334 9.55594
13.7299 122.87 -3.88036
-8.16297 110.436 11.6043
6.00458 101.056 -0.808328
-15.1323 139.974 9.06256
6.61328 79.7031 5.19286
-8.84076 111.647 10.5436
10.5772 119.825 1.20749
-14.5764 121.434 5.04584
-6.97305 117.319 13.2907
-11.4154 144.158 2.87086
-2.4069 84.6583 2.2912
15.1615 87.9161 7.40425
18.4705 98.3368 5.79097
-13.7718 95.3297 -2.38491
6.54145 113.141 -0.370113
12.9476 127.539 -4.10368
2.98574 94.7292 0.650331
12.2286 106.53 1.04471
-3.95757 96.3149 11.5094
28.2602 92.254 15.4626
-10.9813 126.007 -3.50252
-10.6084 132.88 10.6481
12.3778 85.4407 4.00618
13.0821 97.085 9.38573
-17.6417 127.488 3.28303
-8.85278 137.851 -3.77588
18.2759 92.0873 18.4851
-0.793611 117.153 11.657
4.66542 116.026 -0.97683
-11.2987 126.255 12.043
1.82737 97.973 -2.07229
-18.7495 128.15 11.146
0.180506 89.1044 9.88551
8.34268 133.021 -1.55302
13.1829 102.639 5.71655
-18.5658 117.793 10.4883
-3.9124 85.3978 -0.823555
20.4543 81.7951 8.55178
13.4679 127.604 -3.46369
-15.2642 134.764 11.6411
-14.6665 129.817 1.45495
-0.294211 94.908 12.1269
-18.0394 127.589 4.8062
-15.8603 134.696 2.97445
-5.73703 132.583 -3.34503
4.5204 133.446 2.24008
-9.9789 85.6531 -2.64651
8.97995 121.587 2.78234
-13.3742 122.893 -1.70097
26.9254 96.5718 15.3802
-11.496 135.812 11.2962
17.4091 105.111 18.4426
0.585106 81.6137 2.05452
-1.96272 76.9524 1.42912
1.87003 128.409 2.02949
-4.56696 139.744 -3.26633
14.4142 126.487 -3.66312
-13.5701 123.139 1.67884
9.53336 100.593 9.41454
-8.48452 130.108 -5.54446
26.083 87.3286 15.5175
-12.852 83.4728 4.31775
17.32 89.3786 13.361
-6.75133 115.931 13.223
15.198 104.854 5.18914
-4.44505 134.669 -2.47988
-13.5577 141.826 3.55035
-1.10773 119.402 11.1853
-17.8449 119.28 12.7622
-13.5659 96.0004 4.52505
-12.9204 124.819 -1.60949
-8.57504 94.9196 -5.07491
-8.65979 80.2652 1.26397
-12.2212 135.782 11.565
25.5158 98.5231 12.8946
21.7529 84.512 8.1637
-18.1739 118.529 9.30228
-15.4656 119.85 2.69348
7.32121 117.552 1.94997
10.016 115.3 2.90791
5.62428 104.801 -3.36099
15.4678 96.0358 6.25741
-12.2469 131.392 1.38316
8.70171 98.8694 -1.54364
-14.9417 116.186 6.82145
14.2267 93.8722 7.8883
8.08731 97.7361 -0.91183
-11.7337 147.035 3.33586
-10.717 148.676 -0.0918767
-1.98396 125.689 0.918301
11.4997 92.7382 9.3391
12.6789 95.5684 2.33026
-4.12091 108.46 13.921
4.93937 86.3528 3.34715
-10.71 111.461 7.75084
2.68894 111.691 10.7143
-1.44299 135.515 0.611951
-7.41303 125.87 8.04049
-12.788 82.4837 1.38942
16.4486 120.188 -0.963842
-12.4258 116.759 -3.09377
-4.50699 106.741 -3.85605
15.0646 99.0244 15.3412
10.1657 84.8847 9.04676
-9.19203 143.395 -3.39704
-12.9376 109.597 6.53352
2.49092 129.731 7.11388
3.35503 86.6237 2.31964
-14.8412 119.904 3.4071
-3.51564 111.372 13.0515
-13.9539 122.376 2.09192
12.8366 100.774 10.952
-3.48479 94.7642 -3.24817
10.7943 114.308 7.65466
12.1753 123.328 -2.58112
-10.1838 91.7061 -3.58573
7.70883 82.7042 8.66158
-14.176 128.306 0.450678
-10.43 80.9237 4.83024
6.74621 117.833 1.38348
17.9455 101.184 18.2882
8.45933 108.309 -2.6605
-0.416244 109.767 12.2693
15.2853 112.264 13.0326
23.7313 97.6901 8.56529
11.6601 90.3971 8.65967
10.9104 122.976 -1.1476
-1.10512 98.5501 13.7269
25.8292 92.715 14.3146
-3.94651 86.3357 8.6613
29.1264 85.3079 17.2283
-2.90313 112.935 12.4765
4.37858 87.4925 11.8238
16.1681 100.91 6.37127
-9.84644 128.837 -4.94344
-13.1933 130.72 1.49432
-17.8716 133.808 8.86787
-14.6363 119.354 1.85592
13.8148 124.213 -3.57919
-14.0492 121.936 -1.92749
-14.6455 121.207 5.08042
25.2352 86.5028 19.6766
-15.1968 120.239 8.21061
11.1762 119.365 0.925909
18.1781 90.1552 18.316
23.6901 96.6563 18.6101
-10.2671 87.7817 -1.64549
5.04592 88.942 12.664
-13.3495 120.062 4.1033
14.0701 122.108 -5.54343
24.0922 81.1832 10.6522
-1.24538 95.1007 11.8633
-3.09855 114.716 12.3573
-1.04216 116.266 -0.379415
-13.8361 136.802 11.3839
17.4952 107.231 2.41542
22.9223 93.7694 19.4191
12.1242 90.125 1.25917
-8.74937 108.281 11.0628
23.1177 82.8541 9.83207
-3.84586 103.085 -4.86933
5.47452 110.68 -2.70998
13.3715 107.825 4.6462
-13.4887 122.018 2.75025
-10.4583 106.256 9.14258
-12.6089 82.4696 1.09968
0.422409 130.175 1.36051
-12.3245 82.7081 4.77436
19.734 92.1125 7.47525
-11.8027 113.707 -4.25047
-10.123 105.483 -4.62567
-1.36545 100.17 13.9569
-8.56491 127.513 -4.63499
20.2158 85.1582 7.49768
-8.48031 105.278 -5.41976
12.1406 87.5918 6.23862
18.2075 122.771 -0.92291
12.3915 89.5923 6.53941
-15.308 126.362 1.61931
-14.1538 123.531 10.4298
-5.7812 104.853 12.9452
0.708262 96.668 13.9051
10.1949 94.0064 -0.162039
-4.44441 115.546 -3.14558
-8.03044 77.27 1.79657
-1.73558 112.591 -1.33762
18.0007 88.093 14.6764
-9.44013 100.62 -4.69097
4.31902 112.988 10.4839
-14.7818 114.614 6.51644
28.1796 80.3031 14.0641
18.3648 93.0833 18.2686
-12.8264 80.8846 3.81582
7.75871 95.514 -0.839351
-10.9018 136.389 -2.25923
-2.37068 132.322 5.96315
3.8048 92.8645 13.7492
15.78 126.624 -1.46556
17.851 85.5498 5.54203
-16.8213 132.27 11.0368
-17.895 134.012 9.72394
-0.796646 102.214 13.9473
12.219 91.0591 8.34869
14.6911 92.9832 3.24099
13.2193 88.3436 7.36694
-7.22527 84.0462 -3.48306
23.918 97.9239 18.0647
5.39928 129.222 2.59912
-8.13879 79.8978 5.17585
11.1891 82.47 3.8607
26.3934 98.889 15.4518
-8.72393 115.696 11.2475
1.16593 122.607 10.4919
-0.00255316 118.679 -0.266244
-10.4078 132.734 10.5289
2.57627 102.669 -4.18849
3.68014 96.8189 0.177583
2.25166 78.9632 5.84014
0.888176 81.5784 7.801
28.96 85.0733 17.1942
13.0598 99.1399 2.65384
19.7487 122.39 -0.31289
-0.465422 98.2678 13.834
12.555 89.9674 8.25318
24.9471 89.3163 19.4615
3.64356 101.675 -3.3394
12.0067 92.2439 7.25649
-11.7683 81.9567 -2.09616
-11.3477 139.304 0.804724
24.9239 95.7694 10.8691
10.3169 119.266 8.52965
-8.56388 148.015 -2.91351
-5.42354 92.5023 10.1791
-15.1559 114.989 1.43707
2.6322 105.944 -3.95957
-6.08128 114.141 -4.03061
-8.85096 117.967 -4.22022
-15.5131 119.345 4.03636
-4.78847 98.9909 12.4615
-11.3676 94.0919 -3.13563
-18.2291 125.612 12.0559
0.49919 132.171 1.15624
-8.8109 80.9998 -1.28582
-4.33381 139.289 -2.76533
25.8957 104.268 12.0487
14.7577 108.408 2.65048
25.1293 79.9912 10.1851
-14.9876 119.163 5.33215
28.0256 92.0669 15.8097
5.77285 90.052 13.0775
17.2186 118.991 -0.741134
-14.1064 119.851 -2.1775
14.2879 122.997 -6.62359
12.5448 95.3651 12.382
-7.1152 77.733 5.13982
-6.7361 98.2725 -5.26458
5.76114 109.866 10.4154
-6.61342 91.5587 9.46511
20.4281 84.0421 20.1809
13.9269 85.4442 3.47254
16.5381 90.1933 9.87761
-14.5464 119.015 4.36841
0.181807 76.9631 2.24095
-16.3458 121.619 5.62273
-4.67718 122.592 12.3027
0.38948 124.03 0.910065
7.67175 131.072 -0.891857
-13.3053 124.909 10.6399
16.0599 103.645 6.32184
7.94037 134.343 -2.271
17.6289 87.2705 6.50164
-5.73259 90.8595 -4.61906
-10.2034 118.858 11.2039
13.5264 102.668 11.3524
3.46552 84.9954 10.185
-14.1687 100.305 -2.60141
17.2818 106.799 10.2924
11.5945 89.3952 9.97248
11.1771 103.163 7.97452
-7.49676 135.737 -4.46926
26.96 89.4279 15.6745
-3.23589 115.055 -1.6303
5.2018 96.318 12.7799
25.2 83.404 11.0783
6.1294 116.587 0.935318
11.9321 91.5255 8.66516
6.06421 107.573 -3.45372
10.0353 94.6423 -0.0813935
25.9923 87.7561 15.3689
-15.1527 120.472 9.60461
-17.1158 122.726 2.99992
22.1273 114.527 4.56027
-15.0105 108.535 -1.92275
-5.7652 109.844 13.6625
-5.48276 120.375 12.7839
10.8234 114.787 7.68007
19.7638 88.1838 20.0234
14.8157 98.7104 5.81181
7.61204 123.078 2.95571
-12.0897 102.748 7.31647
5.53472 78.5926 4.72502
-4.54269 91.2857 -4.07119
3.35838 84.2779 3.71433
17.2833 109.063 2.48685
19.4794 124.792 -6.66412
13.8114 117.122 -0.770004
15.258 113.195 12.776
-14.2879 137.105 11.2809
7.39044 96.4416 -0.602304
-13.117 97.1547 -2.88881
-11.987 144.878 5.12409
-1.47693 101.448 -4.94034
-13.7334 119.914 2.01959
-10.0829 81.9755 -0.230094
20.4037 103.378 3.8359
9.28925 78.6135 4.70122
16.7803 124.724 -2.0716
-8.20821 126.304 -3.78675
23.7467 104.967 8.65414
-13.0167 123.468 2.38109
14.6277 120.192 -6.48133
22.3096 97.6739 19.1648
4.89919 103.243 10.9573
14.165 113.139 4.46676
-6.35744 135.571 7.50548
4.95357 89.8013 0.497527
14.6861 105.317 1.78332
-11.0667 139.154 -1.52247
-4.35394 138.663 4.18702
11.2567 117.634 7.25875
12.4633 88.7879 8.20736
17.6323 81.1554 6.95687
26.468 99.9056 14.9054
6.68583 90.1937 12.2821
4.12833 122.91 0.519998
0.946666 77.8699 4.85139
25.6622 98.1424 16.4397
-11.1558 113.541 -4.48832
-13.6752 118.457 1.78489
19.0825 93.8043 20.0636
-7.21423 123.949 9.15955
27.2434 83.8029 19.4777
23.1606 83.2794 21.2705
17.4229 110.056 6.82022
16.1388 91.9285 5.3687
0.312278 86.7235 2.31231
18.9653 125.153 -7.11863
-14.0088 122.51 1.72903
25.8524 99.4271 12.9084
-5.85293 100.9 -4.44637
27.7777 85.1727 16.6525
-14.9035 119.955 6.21126
13.9826 92.0873 6.93676
-7.57555 114.808 -4.51127
-0.0199445 131.666 1.07365
-18.0185 131.865 8.20909
-3.45662 97.3748 12.482
-15.6374 118.979 3.3727
2.88358 133.76 2.30505
6.34923 81.2437 7.4775
-7.03255 114.637 -4.40487
-3.82773 106.351 -3.62703
11.909 110.535 7.18812
6.10503 115.517 0.461581
11.0694 99.7904 0.380065
-3.95911 118.002 13.2539
-2.31954 110.016 13.2861
-12.2721 122.211 9.50116
-11.4749 124.804 10.3296
13.3603 132.707 -4.97739
17.9889 100.353 4.91978
-17.0274 121.188 5.68454
8.93679 85.7191 10.8797
-3.01428 93.4301 10.748
-12.1711 137.107 -0.680371
16.4398 122.241 -1.51248
4.6083 126.178 1.58851
15.9588 86.224 9.38737
-2.19098 131.619 6.31733
13.8213 95.501 6.57629
-2.67608 102.564 -4.81481
-13.221 116.677 8.42645
-14.406 123.433 0.590034
1.91555 77.2668 3.22418
-13.2131 117.024 8.38706
-14.1984 121.807 -0.531519
-5.53213 97.9638 -5.14712
21.4646 102.217 18.4525
15.1635 123.92 -1.08227
14.7096 84.6467 3.44679
8.90116 133.97 -2.6032
16.1309 99.5265 6.73556
28.4291 86.3204 16.717
16.8829 121 -7.18158
-0.638175 121.924 0.814813
23.6102 105.189 6.95487
-3.53627 77.6207 0.941741
-6.77348 148.382 -3.25063
12.0376 98.1546 11.4091
-5.96165 123.824 9.68961
15.4899 127.866 -2.76774
15.6249 122.636 -0.720157
-12.0601 105.151 -4.38089
11.2376 121.8 6.2447
-13.4985 120.536 8.77284
-4.70214 100.45 12.8606
-5.79688 108.154 13.4345
-7.46775 124.046 -3.15199
1.29787 83.1623 8.97954
-9.18145 133.006 -3.39322
-6.44254 133.903 8.2676
24.3216 81.4664 21.5051
-6.21976 124.633 -2.83999
-7.42892 87.9712 -3.57185
-12.7375 120.708 10.6798
-2.06355 137.338 4.37342
-14.2206 90.9121 2.11353
11.0655 95.3567 7.02182
-14.7402 142.09 7.8511
-14.9313 119.006 3.82582
12.2567 108.602 7.36316
-16.2212 137.953 6.45547
-14.2363 99.2999 3.81611
19.9038 102.259 4.49053
16.5434 92.8312 13.0747
17.2681 123.878 -0.54618
-15.0399 114.181 1.57371
-7.87407 80.1478 0.0355039
18.1732 81.5937 7.00866
14.6726 123.262 -7.67975
-8.69504 110.301 -5.14536
-8.03245 82.8244 -0.902596
-2.2307 93.4161 10.9248
-8.94916 96.9692 -5.00103
13.3494 102.685 11.7744
13.7824 87.1837 3.14081
-6.57242 95.7217 10.3411
4.35123 84.149 3.54822
-2.22148 81.2098 5.91441
9.40259 105.786 9.43241
-17.509 125.816 12.3168
-2.26034 124.035 0.155512
-9.67315 102.188 -4.96296
16.8264 89.4137 5.42373
-10.0796 126.127 -4.0463
-12.9077 125.584 2.63135
3.85815 85.5386 10.4311
14.3884 91.7343 2.21774
18.1595 90.1955 16.8535
-8.30797 82.8521 -0.211562
-11.1459 80.6282 -0.656537
-4.71065 106.074 -4.03256
14.9666 94.6351 7.10726
10.2648 123.858 0.120119
6.78259 122.689 8.47348
-2.19968 84.2861 2.50142
12.4498 98.1735 10.2604
22.6098 106.547 4.41542
-15.1934 141.203 7.72526
3.01804 82.826 2.97102
0.542947 95.0799 -0.501464
-13.7101 95.4838 4.01362
11.6268 84.0682 6.06387
15.2436 115.371 -0.22465
-4.64907 129.775 7.72691
18.1285 119.177 2.85011
-11.7435 139.886 2.00651
-13.1676 124.033 10.3695
-7.7011 131.432 -5.23762
-5.00157 134.656 -3.39584
-15.0491 110.578 -1.90745
3.60179 100.117 -2.44768
-5.05744 110.915 -3.14588
13.3091 122.867 2.94831
12.209 120.547 0.222654
-5.6552 82.9793 1.40559
6.33393 103.701 -2.01576
-18.0369 131.468 7.67051
9.9901 103.585 10.1609
-14.7069 132.273 10.5745
-11.2769 97.4381 8.18215
15.9537 93.0966 11.4843
20.2247 84.1683 6.76929
17.5812 85.7164 14.9559
-8.12116 80.8992 1.5599
-10.6638 93.1756 -3.42296
-3.02187 107.264 -3.09381
-5.3452 75.7957 2.07964
9.28427 85.0768 4.25478
8.61931 119.168 2.88555
-13.0846 128.884 1.82521
-4.89197 138.917 4.3746
14.4855 124.847 -2.34491
15.8466 89.7891 3.397
5.04093 116.114 -0.386073
-0.283748 126.231 9.30791
17.8575 86.9306 14.3113
19.5234 83.4814 15.5711
-12.1218 131.184 1.11606
18.7557 109.433 2.10242
20.4606 111.577 3.31603
13.4725 132.291 -4.8433
-12.7041 113.612 -4.00885
-15.4345 116.899 -1.6981
-1.69202 90.7638 -0.981367
14.8786 96.572 13.6417
-4.91888 125.236 -1.74557
11.5934 88.703 7.0037
-5.91776 101.127 -4.4255
17.5824 109.438 9.37119
-13.2928 120.173 11.0701
-18.0675 129.621 4.94453
19.5611 103.321 3.3563
16.0762 120.843 -1.13909
12.8562 100.85 10.9765
16.3373 96.9071 17.2787
-9.66858 120.179 10.9603
-5.68858 80.2087 -1.79475
25.2491 104.887 11.576
3.53143 106.175 11.0422
8.55795 128.043 0.335684
6.59077 81.7543 4.90233
12.8049 116.815 3.85881
-5.98689 108.767 -3.8274
22.0592 105.761 3.17391
-10.5233 82.7812 -2.60399
-2.91031 84.2446 8.66948
13.5415 85.8622 3.50915
-5.07146 113.029 13.7978
-11.5981 144.886 1.70649
-8.43696 126.812 7.86204
-10.4537 79.2462 2.84301
-6.10857 118.824 -2.95175
-9.15304 131.467 -3.82373
-9.19891 88.1408 7.49457
10.9231 96.7069 7.16046
-5.14229 132.477 7.44708
-11.4427 140.073 0.73886
20.431 86.4736 20.4115
28.2802 83.1788 18.8149
16.1153 85.0896 10.1305
-13.4261 124.554 10.7057
-0.313628 120.929 10.8399
-13.5336 123.54 9.95865
4.95156 124.42 8.29739
-12.8648 140.44 10.371
2.50823 83.7453 9.61024
5.81849 90.9497 0.28935
-10.8564 142.694 -1.78314
-9.97181 135.949 10.4302
-2.2386 86.1985 9.21818
10.6749 133.414 -3.40088
-9.75665 132.702 -2.2098
5.28178 118.335 10.4094
-18.6881 117.714 10.1039
17.7951 113.306 0.503909
25.2664 94.036 18.2773
12.271 103.512 6.57873
0.000797879 101.831 -4.7221
-14.941 89.9506 1.35023
-0.833333 130.258 8.06192
-20.0651 122.474 8.67017
10.2817 80.4496 4.92206
-8.4074 126.191 -3.99436
15.4969 85.6581 7.82708
-13.7929 89.8479 3.45701
-9.09064 144.4 -3.54234
-13.5489 101.996 -3.83947
19.8033 108.163 1.54566
-9.27222 80.7856 -1.76962
8.17362 91.1213 10.5655
-9.17128 80.8734 -1.78062
14.1231 100.983 0.0363121
13.6366 93.8642 7.61673
5.71978 118.173 0.893586
-15.7873 115.552 -1.12153
9.5898 106.771 -2.26383
0.502305 84.0965 9.30472
-11.1808 124.376 -3.48647
-10.6096 124.931 9.62729
-2.15815 119.519 -0.122471
21.1136 107.823 2.12128
-16.4844 136.377 7.13247
-12.5346 120.255 2.55128
29.1088 86.7872 16.9388
7.45067 94.1681 -0.609065
21.1084 97.7559 19.5094
13.0004 98.3729 9.55585
7.66505 87.1198 2.65751
-3.992 134.316 5.84661
-14.6507 140.826 9.26851
-8.94701 80.9045 -1.32216
-13.6849 116.43 7.63859
8.53005 113.236 1.56144
8.61119 131.091 -1.79172
10.0693 97.3877 8.10167
6.08988 81.0271 4.73503
-4.71729 94.9034 10.5583
16.4169 86.3422 4.25897
-2.18693 80.4862 1.35684
15.0703 100.453 1.44058
-17.2437 131.838 10.9062
-7.38054 102.367 11.6746
12.9456 108.199 5.34478
-0.457937 111.079 12.14
5.85538 99.8722 12.2506
-11.3472 135.135 -0.913373
15.7241 81.4076 6.45073
13.1482 105.19 6.58175
-14.2036 122.294 4.81924
5.32211 98.8042 -0.0609637
-10.8452 86.8067 5.92283
-10.4096 107.306 8.202
18.2674 99.3305 18.4126
0.00241645 115.757 -1.2002
-7.89323 80.7146 1.76392
7.11599 127.71 2.6938
-1.43273 125.126 11.0392
26.1969 93.8055 17.2966
-11.2712 84.2033 5.51887
-1.92056 115.585 11.6448
12.3005 80.3334 5.76456
11.9592 92.4542 7.25044
15.6742 118.078 -1.2843
-0.974423 109.472 12.7268
12.4043 99.0908 10.7008
-5.83183 89.846 9.27363
15.5131 95.8799 14.2106
19.79 85.7498 8.35022
10.9362 129.472 -3.3368
21.9152 90.9385 10.1517
9.06556 80.5939 3.28542
-14.5503 120.837 13.0556
-10.8537 90.7382 7.15329
9.46517 82.0887 5.3126
20.86 114.968 3.40146
-9.29171 122.66 -2.64537
-14.0182 83.9786 0.494178
-2.97056 115.139 12.159
-15.0808 120.34 7.1098
11.7091 128.291 -3.57585
-17.8767 132.654 7.63703
-3.94908 118.827 -2.26875
21.1645 95.2656 8.8946
14.8825 83.9502 4.60626
-12.4956 126.406 -1.52807
-0.505418 109.026 12.3937
9.22788 112.631 1.70036
7.21034 101.744 11.357
5.56863 102.58 -1.90995
-8.60164 131.657 -4.37053
-5.6448 124.671 -2.80426
16.0817 83.0972 3.86211
-12.8014 124.984 1.93125
-13.2525 120.929 3.76878
7.19008 92.34 11.4517
-0.424944 118.647 11.2738
13.0626 89.6121 9.50822
-10.4665 80.7172 0.142786
-14.4568 121.843 2.97933
-10.132 136.826 -3.18701
-12.5478 81.5709 2.21002
-13.1677 120.297 9.57395
15.1821 88.034 8.08942
5.80836 102.12 11.2502
24.0265 103.767 7.98325
3.62327 104.019 11.1252
9.94691 133.772 -3.18421
14.3786 84.1882 4.12662
20.4713 115.508 5.34143
-2.63059 96.5458 -4.33287
22.4654 97.9946 19.0976
-11.1879 79.9395 1.00924
2.11767 82.329 8.26943
-13.0214 121.1 3.88269
-7.64924 81.1346 -0.580397
-13.6681 125.627 2.36933
-0.352839 114.917 11.2207
20.1377 83.39 19.7363
13.6395 100.655 13.4141
18.4 120.308 0.527726
-14.0539 142.535 4.93295
3.19348 119.75 10.8938
12.0252 91.6628 10.0214
-8.72372 127.639 9.43827
13.447 91.4971 11.032
-10.5036 80.806 0.100851
15.3325 120.775 -2.29113
-15.6717 120.459 2.87754
3.26092 83.3605 9.59238
-9.26731 131.058 9.56246
-18.8533 120.511 8.06467
17.7084 115.689 1.29936
8.71907 106.376 -2.76801
7.54151 82.5732 4.57921
-6.85075 107.64 12.6629
-4.52133 117.186 13.6031
-8.3268 129.957 9.09908
-5.09946 121.752 -1.96626
-13.8045 123.533 2.69123
-3.10539 132.148 -0.305102
7.59301 114.605 1.39996
1.70142 109.561 -3.44491
-0.970322 128.631 1.18249
-10.3346 86.5129 6.48422
-6.65462 81.4778 -1.75543
14.729 107.744 14.2489
-7.11121 81.9664 -1.94683
1.88612 125.951 10.1447
-18.3808 123.575 5.80199
1.86922 113.927 -2.6368
-18.1359 131.856 3.30979
-7.66449 82.161 -1.48718
8.42992 83.4974 4.45692
2.35023 111.456 -2.90631
13.036 91.8588 6.88237
6.94862 108.186 -3.42296
18.1465 88.3534 16.0517
19.4777 81.9589 11.9253
15.9066 126.654 -1.90123
-1.48808 115.998 11.4824
-12.348 120.141 9.28355
-4.76213 81.6795 1.77482
11.8262 110.278 7.59917
-4.70411 122.236 12.7938
6.28715 113.474 -0.603501
-15.5847 100.529 0.672812
8.79332 125.571 2.38211
22.5643 109.775 7.65178
-13.3013 83.8002 -0.850178
-6.07812 129.37 8.13573
15.2611 127.128 -0.45306
6.18298 83.3261 4.37722
0.0618042 89.3317 1.15177
-13.8311 120.332 3.33392
21.0914 94.1014 9.2219
-11.2495 80.7071 4.78472
-15.688 109.989 -0.27933
10.2644 111.013 1.57103
-18.4029 129.74 7.21385
11.4972 89.5492 7.94165
27.4264 95.5488 14.3864
1.19091 134.012 1.7688
1.26289 80.5881 2.9513
8.958 81.2548 6.00155
-10.9641 118.483 -3.88779
16.1342 87.9937 9.49127
11.2036 105.709 9.09309
19.0796 85.2348 18.9356
3.66747 77.6654 4.5132
3.28562 128.109 7.27234
-3.21046 107.195 -3.19227
-13.9818 122.447 3.75998
1.63264 82.6943 8.60568
2.38819 92.4052 13.0894
-14.2641 92.496 2.30812
18.0285 93.2628 16.5659
-0.843197 109.029 12.653
-1.04844 116.47 -0.357679
-15.7262 109.502 0.0955229
-9.5971 89.9426 -3.63315
17.6094 86.6935 12.9715
22.2026 127.882 -7.63463
6.3122 100.215 12.1083
-14.8679 113.907 3.7418
-15.6996 140.004 5.84074
23.1766 82.901 21.2165
7.36618 98.8411 12.1283
21.2062 106.94 2.18099
-4.74482 107.172 -3.85951
-9.27249 94.2508 -4.64162
17.4568 112.358 8.88267
-0.280103 88.1318 1.28379
18.2039 122.945 -0.524962
-7.83151 138.948 -4.3344
17.8807 105.249 1.48469
12.4177 115.546 2.42434
11.336 90.64 7.53916
-9.54706 82.0719 0.485033
0.00613437 132.305 6.11029
12.5683 89.23 9.63516
-5.00547 127.174 -1.47497
17.1433 101.367 3.51159
-13.1822 87.6195 -0.402646
-13.7768 122.825 2.74023
-11.0984 125.686 11.6629
-10.4501 98.8938 9.10161
14.0708 87.826 6.31594
0.396894 107.499 -3.6509
-11.642 133.145 10.4677
12.9773 100.431 10.5071
-2.06436 108.046 13.4104
-17.4992 127.78 3.66775
-6.78267 138.784 -4.50371
2.07241 127.852 7.40522
19.2911 83.0843 14.1378
15.9933 102.854 0.981583
-10.9567 126.329 -3.81859
-3.1647 87.812 -2.02312
16.4071 93.6309 12.9424
-5.34464 139.84 4.51341
-8.75725 111.516 -5.10364
-11.6184 92.0125 6.61182
-8.4821 113.425 10.3725
-0.999525 130.893 0.970822
-9.51567 93.8229 8.58774
24.389 85.5901 20.0489
-4.53651 82.2299 1.81847
28.3051 80.87 18.7659
-13.3409 119.685 10.337
10.7421 128.426 -2.89836
18.3449 86.2471 17.7489
25.364 92.1032 12.9521
-6.13155 129 7.98109
-11.6945 123.933 -3.69676
-8.66127 81.6178 -0.265075
24.6941 91.6554 19.1856
-3.86324 145.508 -2.33418
17.4684 111.077 9.50533
16.022 94.7778 13.4884
-2.37347 136.893 4.64278
-13.1784 122.229 12.6398
14.6158 88.9052 9.57304
23.7203 97.4445 8.71292
-15.98 113.096 -0.164141
15.0309 113.727 4.32745
-1.23679 140.165 0.0634464
17.3651 110.451 10.3423
-1.02088 94.5392 -2.62211
15.3744 102.569 16.2031
2.66682 132.394 2.21561
-10.7302 138.519 -1.99254
13.7311 83.389 3.92834
-11.9882 80.4147 0.947288
24.8684 98.8974 10.6526
1.19204 136.756 1.65653
-13.7422 130.033 0.887859
18.0894 84.6923 11.8192
-9.60626 82.5006 -0.222227
-6.29848 123.121 -2.28217
25.281 87.3109 19.6815
12.7883 92.9061 1.78052
24.6617 85.8781 14.0564
9.9599 98.6269 -0.628874
11.7072 95.8658 10.1352
-10.9067 79.9539 1.67901
-8.74236 141.519 -3.47397
11.8309 123.164 4.09928
7.92962 116.037 2.42728
15.892 103 1.0297
10.4781 116.129 3.17708
-10.0146 114.608 9.86837
-16.2667 120.845 5.6344
-3.55717 139.894 -1.9993
20.4104 96.4546 8.24513
15.4674 113.663 12.1707
26.2467 89.4862 15.2137
-12.0403 82.5552 5.01145
10.3467 124.02 -0.823682
15.5881 85.0069 6.06563
12.1983 113.978 4.48589
4.40025 132.168 2.37556
0.0586818 127.704 9.02327
-10.7738 123.761 8.69451
-15.5574 118.171 6.99025
-13.9867 114.414 7.78962
5.54927 115.505 -0.137457
-12.5254 81.4916 4.32244
4.94128 92.3151 0.583601
20.0897 103.486 3.59956
1.85376 104.815 11.6439
-4.21488 84.378 8.17743
-7.52739 114.991 11.4444
3.69844 91.552 13.3378
-12.5549 87.3026 -0.279428
-13.8166 122.653 11.2178
-11.937 137.223 11.112
-0.929879 138.785 0.639603
-14.9212 140.515 4.70967
12.2389 82.2892 2.88311
-5.72145 127.608 8.39831
-9.38262 133.14 10.3813
22.7259 88.4329 20.5096
12.4478 95.4566 12.4005
-13.0561 124.084 -2.00887
-13.1773 120.936 4.38212
1.03528 92.6785 0.803561
-14.0916 100.898 3.43912
9.5576 102.59 10.5229
12.6017 89.5204 6.29054
21.1416 127.436 -7.72386
-7.09291 87.8707 -3.64609
-12.1062 122.835 9.57215
-15.4609 135.894 4.27698
-16.2009 119.587 5.76827
-0.0407165 104.002 13.1846
27.0483 90.6879 17.5805
-12.6538 119.885 11.0252
-14.1551 115.429 4.76075
19.8055 101.809 4.78496
6.08307 118.721 9.92776
-1.16489 107.625 13.0101
19.0993 88.6097 19.6413
0.802685 128.307 1.75755
12.6534 102.367 -0.780041
26.9886 93.1177 16.6363
21.8945 90.9999 20.1931
20.8195 106.966 1.69444
-12.5723 126.048 -1.82993
5.85423 120.327 1.32076
13.1577 104.848 6.68313
-2.3931 81.1271 1.62949
10.0054 94.9284 9.08215
-10.5039 105.892 9.20693
-1.39142 98.0824 13.3339
9.7499 117.125 9.6766
24.1275 106.279 10.5884
-17.8085 118.185 6.78465
17.1409 119.076 3.27281
-16.9902 135.211 10.5973
-6.74249 121.855 -2.31377
2.35126 100.859 12.6367
20.2268 99.3441 19.6954
-8.40154 91.0456 -4.34102
6.70192 120.996 8.80876
13.8665 112.168 3.1823
9.15799 81.4119 4.45622
-2.56172 121.831 -0.516924
2.04743 97.5057 13.6994
26.2994 97.9599 15.7872
-7.37228 95.4215 -5.04263
3.78375 77.2881 3.69333
28.1803 83.1788 18.8739
4.51788 119.018 10.3586
11.3151 104.197 8.8548
-10.9383 136.869 10.8634
-15.7388 114.955 -0.0301907
14.1749 125.042 -6.57483
13.0751 95.8628 12.6194
11.8814 90.1131 1.18153
15.6903 101.955 8.59419
4.57643 101.457 -1.99945
-11.1071 82.3635 5.34116
-15.3818 107.42 -0.855651
-4.5232 109.987 14.0491
17.5804 113.025 0.567893
-13.3186 81.2173 3.29327
1.9694 112.279 -2.84527
17.1383 111.413 5.45629
11.5323 105.137 -0.470402
6.67287 85.3743 4.02878
17.3046 125.675 -8.00111
-10.7232 99.2584 8.93689
24.6811 88.8943 19.7098
-15.4631 129.998 9.82542
16.0209 82.7892 3.9827
-17.6817 127.371 3.36159
7.52967 91.464 10.3393
-15.0321 137.837 3.53941
-14.5667 122.796 1.15398
9.43007 132.439 -2.16192
-9.47019 107.64 9.91016
-1.58433 127.507 1.03624
-6.71589 123.705 -2.61403
-13.6625 121.179 -0.45468
24.7885 99.7221 16.9415
6.53013 93.0722 -0.210715
14.8535 88.5322 8.53344
-11.4871 143.939 3.5205
13.8219 100.998 -0.0162888
-14.1584 99.3098 4.01299
7.75909 109.469 10.4809
17.3225 123.586 -1.46324
-13.5153 106.127 -2.75227
-9.45024 91.8099 7.97775
-13.8271 119.544 -2.9078
11.2367 113.187 2.75526
-10.9713 121.501 10.3108
-0.615555 99.0033 14.201
-8.23226 94.9597 -5.05687
3.23817 110.216 -3.10906
-5.25716 100.576 12.6094
13.385 90.5202 7.08611
9.7742 82.9057 7.79023
-1.66921 99.9598 13.9138
17.4482 111.64 0.599207
-13.5981 122.01 4.31952
-14.3842 89.9214 -0.680209
-14.3211 133 2.02372
16.1223 101.104 6.23652
20.2812 81.7174 8.47818
14.1551 98.0681 3.9559
10.0848 93.6408 8.27439
8.99362 85.3203 4.13195
11.3787 123.32 -1.74875
23.5107 82.0349 10.6036
0.581192 96.2211 13.4899
-18.288 132.136 5.11491
4.41788 116.279 -1.27772
-3.81225 116.279 12.9991
-11.5014 84.0012 -1.26127
2.68386 134.283 2.22017
17.2309 123.744 -1.23039
10.806 84.5288 4.29952
-7.07815 88.5582 8.67308
3.63106 117.923 -1.19266
-6.72947 113.647 -4.35736
0.172605 77.405 3.05133
-13.7678 104.453 -3.41908
-2.63531 84.0759 2.34182
13.3508 115.719 0.00400357
-11.5095 133.052 0.042877
-9.00757 113.491 9.74978
2.94739 77.0486 3.43768
-8.77094 121.867 11.5937
9.43233 81.5439 4.31772
-15.3097 119.92 6.17754
-11.744 132.102 0.617736
-4.8303 134.549 6.93962
6.85302 117.802 10.3171
-1.50601 105.95 13.4927
-13.6477 121.841 8.86659
-1.79932 85.316 9.24027
-14.1948 120.695 9.48999
15.5285 81.6984 5.4565
-2.84836 118.498 -0.670622
10.6745 82.0521 4.02177
0.16242 93.2107 -0.00467542
-18.7485 127.894 8.03001
-0.690814 80.8317 6.99933
12.3269 108.513 7.21194
-12.6579 122.143 -3.42469
12.703 110.831 2.8158
-13.4538 117.769 8.48339
12.2223 89.1249 2.23397
-7.69496 120.9 12.1368
-10.8987 79.1632 0.622187
15.7931 126.402 -0.808597
-2.8908 132.035 6.18663
-1.63178 121.356 0.468337
22.1132 83.8197 8.70637
16.9151 103.304 8.59803
-10.1564 138.615 -2.56742
16.3848 81.3043 6.09255
18.5723 95.3474 6.96739
1.3253 79.5335 3.44337
19.9964 83.867 6.66866
10.2603 101.006 8.24891
16.6528 122.581 -7.04789
3.80689 95.0821 13.5145
7.36248 135.056 -2.22132
-0.679555 131.054 6.51067
0.609473 111.062 11.374
-14.8984 141.91 6.02786
26.2066 102.959 13.78
12.0661 89.7101 7.74529
-13.3776 101.81 -3.87716
19.7326 116.008 5.57147
-12.3462 132.526 1.15537
-17.1414 133.408 4.20461
4.90879 118.36 0.14112
16.0584 89.5733 3.69691
0.284299 113.704 -1.78266
-13.7374 126 2.14624
-11.7213 123.157 11.5969
-2.61075 122.794 -0.493966
-13.4606 143.79 5.6089
6.48804 120.486 9.04392
26.5443 96.3952 14.0533
-1.38664 112.063 -1.60574
-14.7059 117.154 -0.0645965
-7.94995 83.9191 7.297
-7.54914 83.3306 6.8261
-6.59139 135.989 7.83446
-0.817903 100.586 -4.58492
15.6818 83.0934 3.67117
-16.4496 128.238 0.616825
8.04372 116.77 2.64079
27.3021 81.7596 12.6807
-16.774 129.734 1.67885
26.7143 102.005 12.8635
-5.35316 106.66 -4.08373
-11.5836 120.493 -3.37308
1.26838 109.055 11.1349
24.472 82.5788 21.108
2.51091 81.8819 2.64935
17.3619 116.138 7.00261
23.4579 87.7545 20.4404
15.1482 106.425 15.4816
-5.41928 133.729 -3.69467
-1.22815 87.0655 0.795873
16.9246 85.6611 9.16024
16.2516 102.101 0.717716
-19.6527 124.275 6.11069
17.3761 115.49 6.07043
8.42938 83.5384 4.46055
20.2255 94.2188 7.97968
11.9297 129.287 -4.07229
-9.84013 131.283 -2.33214
10.5112 95.939 0.634485
7.19316 125.479 2.95161
-16.3301 137.915 7.56124
5.18568 110.088 -2.78251
12.5731 104.844 7.53195
-3.58206 113.901 -2.30061
-11.289 129.427 -1.64904
-5.6797 76.0006 1.90983
-10.4336 78.8264 0.741519
-12.9469 121.05 9.55127
-15.5806 120.67 3.17262
8.78076 134.643 -2.93217
14.8476 87.7329 7.2974
10.5616 120.216 1.25881
11.7007 88.2131 10.2444
28.4324 84.9488 18.1622
-9.0345 90.9077 -4.16758
-14.8208 87.4212 2.09501
-12.8383 130.424 2.27424
9.71938 92.0583 -0.243347
23.3191 104.607 5.9904
-10.0701 133.612 -2.32182
7.02493 92.8481 11.6314
16.7718 89.6997 10.1892
15.6337 89.092 2.78981
8.23521 133.648 -1.92644
8.42383 128.186 0.797298
6.58852 123.443 2.81808
16.45 100.969 7.77738
-13.4973 82.9895 0.0330696
18.31 103.897 1.40486
14.6717 116.817 -1.91791
-4.36118 101.061 -4.28295
16.3976 116.105 -1.61461
4.91543 108.277 -3.04918
9.59221 105.422 9.47443
16.8343 123.996 -1.6755
-1.84465 94.4662 11.2027
-5.92947 127.737 -2.20638
13.9275 132.859 -4.97898
-12.7438 137.112 1.61715
16.4517 105.67 10.9161
13.334 105.684 1.3878
17.5234 110.676 8.51127
-15.5153 105.239 0.631601
19.6944 83.8647 6.25982
13.2376 87.7704 8.44965
-7.3649 147.938 -3.3286
-12.8041 107.473 -4.36948
-2.20731 133.781 0.166254
-7.89386 129.799 -4.96211
-2.67153 121.082 -0.457841
15.1805 127.804 -2.93086
15.665 104.06 15.7727
7.18261 108.805 10.587
-12.9049 81.0927 -1.03586
5.3165 87.6467 1.75259
-12.9589 124.061 2.50803
-15.1626 120.35 5.40627
-15.0384 108.689 4.19559
-12.7385 127.663 0.712573
-5.85213 86.1313 7.96951
4.67265 98.6956 -0.172218
20.9735 93.2214 8.87065
12.1919 96.9124 2.3992
-11.5156 138.127 -1.67678
16.0175 97.3345 7.22745
-3.72193 138.31 4.06539
4.0794 88.6429 1.01836
13.9012 106.119 1.95326
-5.21987 104.635 -5.10696
-17.9659 126.454 1.5367
18.9889 83.2148 11.4733
14.3482 84.8534 4.00246
23.2839 94.2836 9.77523
-2.82536 97.9556 -4.50388
13.4553 85.7421 6.12781
21.8197 98.4114 7.6954
12.4474 119.346 0.352068
17.3426 97.8053 5.50528
13.4335 79.6757 4.71888
-6.58349 90.6841 9.18971
-11.4201 146.985 0.901951
-14.53 123.138 12.854
-1.7986 89.8835 -0.551906
-8.06695 80.0038 2.09457
14.8242 88.6877 8.27739
-13.363 107.306 4.51004
-0.339313 129.03 1.38994
7.96672 131.038 -1.16208
-12.6549 133.603 0.750573
14.97 128.364 -3.19425
-1.84377 126.349 9.09133
-10.7512 79.4091 1.85034
0.109153 117.891 11.5143
-8.48422 109.896 -5.12073
6.72819 105.44 -2.92253
-6.07896 112.773 13.7253
7.51797 122.22 3.14615
6.47188 133.697 -0.463871
-13.3283 142.161 3.65836
-5.78815 137.909 6.09774
9.11056 101.817 10.5656
6.41185 83.6215 9.82967
11.2256 124.035 5.60614
-4.37917 85.5208 8.28528
-2.76095 115.164 12.0071
-3.08921 121.986 -1.61061
-13.0666 120.083 5.13432
-6.80122 79.3861 0.309465
-13.797 118.27 10.7059
-13.5056 124.474 10.7759
-17.1793 122.743 12.7073
-12.0682 109.753 6.99275
-8.95309 110.951 10.1309
-3.76101 115.813 12.9725
-0.0306885 79.2303 5.65328
-15.1748 120.526 5.03539
-4.34802 98.0738 -5.03213
7.7436 78.1992 2.78005
18.2079 91.9395 17.6396
20.6724 85.7319 9.50695
-11.6061 116.145 -3.43655
-11.0848 139.544 -1.51805
3.48372 85.8025 10.4653
11.2828 109.007 1.44512
12.5551 125.641 2.97514
5.33826 91.8341 13.2498
-5.38906 125.828 8.36649
0.438221 105.863 12.1853
11.6371 98.8534 1.6001
28.1405 84.7795 18.4899
0.518261 96.3688 -1.45485
24.3378 94.1236 10.7894
10.2073 127.202 -2.2942
-10.3 135.587 10.7375
21.5713 108.877 2.98181
-2.73321 86.607 -0.806921
-10.916 112.666 7.84675
15.1951 91.7689 3.98983
-6.59565 82.9528 0.777615
3.07499 85.443 3.05884
4.96741 125.123 7.83785
-2.71722 101.911 -5.04978
17.2105 116.048 8.41396
10.999 95.5642 7.1423
-18.4933 128.37 11.3399
16.19 98.2743 5.04493
-14.8718 126.189 1.96642
4.2405 98.9642 -0.59559
-9.24316 144.924 -3.40917
-12.4583 79.781 -0.584341
14.1582 97.7554 5.95349
20.0517 82.3817 15.6542
0.716597 129.871 6.81722
-0.405933 79.0052 2.91804
-15.3593 101.153 1.37149
-12.1504 141.988 0.756044
-2.67027 142.018 -1.07362
-4.53092 129.55 7.64644
-6.89093 134.964 9.18114
17.0108 85.7841 9.70153
5.64013 79.6888 6.0736
9.09655 104.392 10.0692
-16.5214 122.66 5.11165
-9.60676 126.647 9.92265
0.36582 94.573 12.4878
24.1767 92.6273 19.2018
16.1394 92.4045 11.5374
-12.7872 101.09 6.61735
18.3358 113.091 0.430126
8.97674 100.305 -2.05501
-6.67253 123.015 10.5585
8.14552 115.383 10.6582
-1.02497 107.499 12.9333
6.28205 79.5983 5.20429
19.5284 124.823 -6.68373
4.86037 133.437 2.13433
11.2422 113.111 6.70617
-11.3751 116.773 9.67499
6.33209 129.106 2.82751
-12.8782 112.583 -4.01269
4.28282 103.742 -3.97946
-8.19155 131.018 -5.69599
12.0615 90.7784 8.91618
7.95663 120.576 3.23117
23.3237 107.116 8.97963
19.9954 116.332 6.03545
-13.7513 104.921 -2.96081
-9.90502 92.1587 7.91167
25.6728 81.6264 11.1041
17.6425 107.87 2.40226
23.3181 107.063 8.83983
10.7189 95.1725 7.93013
-12.4002 139.07 10.7975
-8.15578 92.101 -4.6431
-6.55482 78.3552 1.27762
-17.5648 131.26 2.06972
-11.946 131.439 9.25791
13.124 132.243 -3.98602
-15.824 112.269 2.81891
14.8843 87.0522 5.72335
11.0767 122.513 0.173802
15.4788 125.371 -0.369902
16.8036 84.9548 9.00435
16.2799 85.8243 9.75857
11.8722 101.388 -0.992052
14.0968 91.8779 7.97028
14.2591 100.488 1.2579
-13.6171 122.129 3.17171
-11.6456 142.864 1.31467
6.2989 113.319 -0.867349
13.472 125.575 -3.3255
-7.31243 114.616 12.0322
26.0806 83.4829 20.2371
21.9273 108.143 3.71217
-3.70552 85.5655 -0.885774
13.4428 89.9136 8.3603
-11.8129 118.903 -3.30556
12.3254 89.1364 6.25742
17.5716 98.6335 17.6267
13.5094 95.1136 2.92305
-12.441 134.237 0.191874
-11.8657 103.515 -4.23711
-0.561893 116.259 -0.650815
1.8918 127.638 7.89465
13.9484 88.8353 7.66231
-15.3651 139.442 4.77622
-3.93712 84.4484 1.24094
-9.84343 77.917 1.77286
-2.88229 129.189 7.95981
2.68872 99.6909 -3.06219
25.2836 98.2937 12.8244
11.2658 106.809 9.26764
2.3706 86.421 2.24363
-12.0399 98.1202 -3.79058
25.4463 83.9983 12.5228
-11.504 147.242 2.64766
-5.53687 79.9758 -1.61708
-14.1348 115.487 4.39254
-13.5325 83.0985 -0.935309
-5.06317 106.465 -4.04924
-14.3161 121.704 10.5745
-8.14733 83.3135 -0.906473
2.31174 132.505 2.07375
-1.6824 112.19 12.4199
2.66702 126.184 1.30417
-6.23094 81.0956 -1.30266
-6.08263 104.592 12.6506
22.4814 93.1342 10.1198
3.31984 110.921 -2.82064
-8.53646 79.7515 2.36082
-14.836 127.468 9.90268
20.6025 128.51 -7.57416
11.3922 121.915 0.849531
-17.2821 132.547 11.1946
17.1441 115.087 9.05337
-2.87559 120.826 12.2612
-4.25505 83.3326 8.00318
6.49893 103.2 10.8233
-12.9302 126.703 2.88624
-1.85873 107.581 -2.81674
10.1686 97.623 -0.252254
9.06013 90.137 11.5547
-5.25163 103.155 13.0976
-14.652 120.237 9.72209
-15.4771 120.843 3.74105
15.5021 119.477 -2.87383
-3.59295 88.4367 8.97615
-2.36447 82.2057 7.14689
8.3018 113.468 1.47672
4.35016 102.167 11.483
14.3225 124.201 -6.93155
-15.9855 130.541 10.2038
6.87221 123.436 2.95137
-17.0199 136.919 9.01778
-5.51163 84.8332 -0.95906
1.24122 82.5665 2.45285
0.938415 123.386 10.7692
5.70382 89.9443 13.1178
-2.92577 81.2153 6.05668
5.03467 105.62 10.7781
10.0116 118.193 9.24581
-10.9198 134.934 -1.06386
6.84372 127.424 2.73615
-6.98733 138.684 -4.5498
-4.67228 84.6273 7.99387
-2.56466 91.1773 -3.37517
16.0492 96.6293 16.9006
-8.11968 132.386 -5.0543
17.2283 88.863 10.6917
11.4235 99.3536 1.0838
9.29876 89.6207 0.907293
0.340284 94.8592 12.5624
-4.80415 113.955 13.6682
-12.8509 92.7915 5.203
-15.3082 91.2652 0.618873
9.25062 81.0106 3.0274
-7.47336 83.9067 -2.44136
-5.28188 81.2978 1.55254
-12.329 127.6 -0.349557
-11.5895 79.8231 1.75802
19.2132 88.6622 8.13452
23.4056 105.283 6.34215
5.75185 129.393 2.90059
11.356 122.462 5.41465
16.1693 86.1598 3.69269
-16.8954 117.141 12.0313
-8.13343 140.838 -3.81594
-14.7341 119.406 4.77008
15.914 123.843 -0.328241
-2.71611 119.235 -0.415305
17.4371 113.165 6.6005
-4.88413 113.201 13.7764
-15.7129 140.252 6.52819
17.4161 102.42 2.36258
-9.59649 113.55 8.86517
-8.99835 104.658 -5.30623
10.6413 101.156 -1.00518
0.631185 126.712 9.51538
-14.3796 113.989 7.28996
-1.74414 142.152 -0.417307
14.8416 127.448 -6.45558
8.45666 120.486 9.44597
-9.21349 148.744 -2.07922
27.4154 88.8883 17.9596
5.39301 109.033 -2.92865
-15.7021 120.306 2.6087
15.0531 124.36 -2.58959
16.8181 107.656 5.38856
26.1862 99.5448 15.6053
1.08182 114.867 -2.1767
-0.391696 130.38 7.33597
12.7442 113.058 3.09942
23.1954 85.5968 11.3228
-3.99154 138.147 4.20062
-14.9117 103.241 -0.457688
-0.78899 110.775 12.4461
14.7832 96.7783 4.75179
0.762146 111.944 -2.65483
18.1248 110.786 1.30484
0.361633 118.055 11.4823
-9.31147 115.183 -4.64184
17.9028 86.8593 15.2751
-12.5223 84.3231 -0.68628
19.9823 124.821 -3.20991
16.4027 121.29 -1.44938
-0.226665 101.726 -4.80193
-13.4194 118.599 9.97627
0.99312 126.854 1.66541
23.3421 107.021 9.09183
-10.919 127.524 -4.08133
-15.8051 109.284 0.50951
15.3706 100.193 15.4332
17.0485 113.849 4.75423
-1.20918 82.2011 8.04358
16.1037 86.1603 8.64138
4.59282 88.88 0.829393
-13.3561 117.961 0.696269
-10.0152 100.325 -4.67863
17.1341 127.526 -7.42282
-11.7763 122.741 11.6217
22.5603 96.0109 19.5082
-7.89172 83.0561 -1.26533
12.4525 88.8159 8.01288
-7.95054 122.952 10.7374
19.4353 101.322 19.2019
10.1827 113.746 9.44267
-13.5259 119.232 9.11093
14.3689 108.293 2.58958
9.82667 115.86 9.84527
