ply
format ascii 1.0
comment Created by Open3D
element vertex 1943
property double x
property double y
property double z
end_header
17.9131 81.5927 19.4919
-8.70198 114.475 16.6319
-14.5303 99.2226 -1.09483
-4.32663 128.208 -1.0909
16.9527 121.163 0.811023
22.1528 96.6366 8.65052
12.1184 89.9706 -4.96403
-21.2677 122.271 4.94869
19.235 106.816 3.08575
-14.5136 99.5504 -1.15727
19.3746 130.641 -3.98921
12.793 119.329 -3.72392
3.79061 123.497 -5.24997
11.9313 118.044 10.8226
-27.2384 123.801 -2.65882
4.1102 117.577 -5.45152
-28.05 123.713 3.35807
21.9385 86.2522 3.73328
-27.5422 122.644 5.26769
-7.40181 109.385 -3.44554
23.8066 130.464 5.58914
14.8667 127.738 9.49342
19.8064 112.057 2.07473
16.1542 136.772 -1.86036
20.7235 125.632 7.04395
-0.374772 110.132 -5.27294
16.2365 124.767 12.3003
8.77224 84.3505 -1.513
12.7901 137.603 8.05615
11.5377 104.755 17.5683
-10.4813 91.8967 0.0339007
11.1924 146.244 -5.16065
12.0693 101.886 -7.01262
-11.2995 118.407 -3.42495
7.49659 149.178 1.30344
22.0681 79.0866 11.9012
-12.6558 125.641 11.3656
8.04363 152.78 -0.207478
13.5241 143.726 -4.49712
15.2757 138.286 -1.10373
-25.009 132.527 2.76484
2.4085 134.707 9.15152
-9.80693 151.538 1.30765
11.8052 110.138 13.1191
-20.283 140.311 6.31869
19.7565 99.9817 16.8495
-3.68765 137.255 9.22695
-7.08367 126.588 -2.23795
-9.06199 108.66 -3.20208
11.2402 135.033 7.13087
-14.8593 138.27 8.84506
-18.5418 119.594 10.5772
0.352381 118.214 13.2706
18.4888 114.11 14.3714
-4.16293 84.0954 1.26219
18.551 112.436 -0.294183
1.63661 137.234 9.14156
9.11973 132.639 3.5713
-3.08464 131.042 12.9628
9.64195 136.493 3.17191
-17.4556 102.93 0.0344201
14.0745 143.152 5.90602
-16.4097 142.679 7.99107
-27.1263 123.074 -0.865587
22.6682 143.017 2.68913
-3.83448 118.537 14.973
18.4725 98.2413 18.7843
0.829737 95.4396 -1.12808
-10.9114 149.741 3.3493
16.5848 122.83 12.6233
12.004 134.322 -5.99606
22.9735 136.009 6.61062
18.7537 108.554 15.4248
15.7604 103.658 -4.93776
-19.083 120.978 0.917756
16.049 129.059 -2.05366
-5.54063 92.0714 0.154708
14.3637 118.744 -5.23941
11.6314 140.457 3.59305
-20.6381 110.683 3.65401
-16.445 142.42 0.792071
19.505 130.567 6.91334
23.9426 137.427 2.08463
-3.37956 140.064 7.9704
11.2528 149.937 -2.89826
3.19533 129.74 -4.32584
-17.707 119.84 -0.251552
-13.5858 138.501 -1.40665
20.7811 78.4074 17.5439
21.4252 141.998 5.40386
-11.0494 106.137 -3.01254
24.9727 130.438 2.55114
16.6062 149.306 0.727806
-4.22108 94.8932 -0.209423
26.9092 124.458 7.40219
-15.1585 124.13 -2.12124
-20.0707 107.116 1.10559
25.9369 128.18 2.66032
14.2892 83.9808 -4.80063
21.6482 76.9468 9.27115
2.59195 115.853 9.156
17.2984 138.147 -3.86708
19.4829 123.59 7.3217
15.7096 143.015 -0.0741472
0.429438 138.952 9.95327
-23.5992 124.156 5.96374
22.4538 78.9551 3.40136
-12.1694 106.949 -2.13113
20.0543 101.417 0.411971
22.7989 84.14 11.2864
-13.5067 104.141 -2.13128
-25.1952 121.232 -0.25084
-3.10892 89.0984 0.307626
-10.455 143.642 -3.26503
17.7916 120.133 8.18299
-10.3905 148.517 -2.79086
-13.3017 148.829 3.98943
-20.4176 109.933 4.26457
-17.1429 121.805 11.4427
-12.8438 94.8498 -0.496208
-11.5855 123.702 15.1848
21.5378 81.8142 15.2127
-11.4349 133.649 -3.11455
3.24374 129.091 8.65659
8.9797 106.985 11.3184
16.2073 127.629 -0.793908
-21.4874 131.356 6.86088
-9.9131 89.1915 0.372327
-20.5686 124.107 2.62719
11.0562 90.1539 19.71
21.6977 124.456 -1.9796
14.9256 128.239 1.19546
2.38994 141.395 8.54568
10.0165 121.206 7.45125
-12.347 97.6727 -0.763187
1.80714 115.078 -6.27878
-16.5175 141.04 0.985768
16.2296 132.769 -1.08311
1.22134 113.845 11.6732
20.6631 107.72 13.0481
2.18334 98.697 -2.89087
18.4289 114.793 1.07325
22.6588 121.818 2.77871
-8.55671 128.727 13.6123
11.3964 99.1191 18.6267
22.1375 140.355 5.44302
14.3731 110.469 -4.70813
-8.67667 122.526 -1.92936
17.0576 89.2584 19.9872
-27.6197 127.205 3.97742
17.8166 148.586 3.18458
-20.5001 119.226 0.912217
-18.2995 121.428 1.98986
12.1381 115.125 12.1324
15.5403 133.173 -0.805244
17.9584 93.7845 19.6204
19.5185 103.559 2.52138
21.92 80.6255 0.67546
-17.6008 120.256 12.5033
-21.097 123.02 5.1893
20.9746 86.1427 15.8044
22.1351 77.7221 9.125
-22.9114 135.385 1.7163
-6.26926 110.16 -2.98691
7.72489 99.1683 -5.59986
-5.36755 137.714 9.03153
21.4373 83.0548 16.463
23.5143 129.022 -1.62607
18.9892 120.491 3.18446
16.475 127.634 5.08187
14.8557 151.528 2.02251
22.6281 79.9403 6.8076
-5.93552 94.3283 0.0710429
-13.8379 148.867 3.77198
9.7986 88.9671 -4.02597
1.49102 98.0764 11.5951
-12.5997 112.11 -3.60983
12.5035 93.8281 19.2893
-15.2513 92.9817 -0.0541856
6.30505 130.614 4.96722
22.1803 79.6668 13.5351
-17.638 134.045 8.86834
-8.39433 130.332 -4.7269
-20.1888 108.337 0.854888
20.1288 127.406 -2.34288
-14.7995 144.365 1.06186
17.372 135.113 -3.49746
-3.1583 146.173 -1.74819
15.3376 123.6 -1.67913
-2.6558 152.539 -1.80004
-3.72471 86.7368 0.741163
-6.7492 138.109 -4.56547
4.01714 116.614 7.72336
15.0516 82.9985 -5.14442
-9.70652 147.935 4.12638
22.5472 121.318 1.62904
-10.2553 104.874 -3.01813
-0.0195425 119.759 -4.51648
-12.3079 134.011 -2.50763
-13.9709 96.8297 -0.297947
9.84436 99.5652 -7.09436
15.6747 94.776 20.2905
1.00877 116.409 12.0033
22.1673 130.414 9.1436
-5.83961 141.974 -3.77089
19.763 141.85 5.94732
-22.2001 130.824 6.48655
22.857 120.845 1.71081
-24.1927 125.128 -1.99886
15.0226 145.428 0.885864
-25.108 123.494 6.85031
1.83837 113.068 10.7181
-19.6392 124.137 3.91822
2.70427 123.054 9.33744
7.97221 143.982 -5.51483
-3.02647 143.313 -1.75479
1.4541 81.845 0.794809
1.7183 101.536 11.2258
-19.9972 130.431 8.55479
16.5206 136.717 -2.80382
16.6823 139.537 7.66971
14.0991 148.767 0.223559
10.2163 111.409 -6.15309
5.18253 92.9416 -1.92681
22.7273 80.4737 7.29614
-17.0841 125.583 0.975167
-11.3056 107.918 -2.47374
12.7462 96.2833 19.8509
-11.0015 117.484 -3.17282
-0.15448 119.485 -4.32488
10.1296 106.654 12.4289
-17.6759 127.581 9.23078
15.598 113.285 -4.5796
-17.8439 120.205 11.9932
7.79619 135.246 4.22619
-16.6468 101.269 -0.227572
-20.5225 115.613 5.20855
-0.875913 106.306 14.192
-14.6966 133.132 0.0426171
-17.5992 110.767 8.49768
1.36202 107.46 11.5492
14.8171 132.931 -5.2699
-5.71494 86.4147 0.781371
9.47184 115.222 8.82216
-17.1816 115.73 10.2913
12.4796 140.023 6.89442
25.081 128.701 6.83936
19.9636 123.543 -3.00451
17.5886 127.736 2.54136
20.3821 101.693 3.91916
22.5093 89.3019 9.63693
11.8904 98.4756 18.6012
5.49864 135.313 5.33935
14.2818 131.657 -6.64029
18.8804 90.6824 19.0747
0.945154 97.5759 -1.92137
-8.27994 128.842 -3.9039
1.39796 134.54 9.74222
8.43616 133.512 -4.714
8.9261 119.612 7.194
-0.953191 110.181 14.6607
11.4671 135.135 5.68365
4.24189 122.929 7.38514
16.7813 95.2105 -4.9122
-18.3553 126.153 10.103
-18.0168 112.897 -2.58309
-20.0939 105.821 0.90955
15.459 136.415 8.07053
13.7691 129.973 -6.60155
12.4734 123.797 12.8909
-11.3868 149.74 -1.10151
20.2516 99.9675 -0.788269
3.381 139.963 7.96024
-7.5975 144.29 5.91309
-1.06242 122.201 13.3816
-20.3221 109.87 0.569249
16.3027 138.439 -3.63423
11.0244 137.298 3.41261
-14.7373 112.308 -3.77566
18.514 93.2777 -3.55652
-21.9814 132.897 -0.152488
-15.3636 147.161 4.35909
21.8468 128.593 -2.16935
25.8367 124.795 7.58379
24.7766 133.703 0.692748
22.0091 93.3321 9.88856
9.89181 136.479 -5.46354
-0.360035 101.812 -4.67024
-5.30169 109.49 16.6619
4.97669 100.849 11.2484
-16.3436 139.669 1.2871
-16.3864 134.971 9.032
-0.920697 132.885 11.5933
-16.3681 144.305 1.19257
-11.2852 129.846 -4.74062
17.3187 107.314 -3.64875
14.6933 130.778 0.36727
14.0573 150.751 2.83891
14.7845 126.928 -2.85646
-17.0737 127.07 -1.12914
-1.95587 111.966 -3.00523
-13.9799 97.2673 -0.379303
-6.66072 135.25 9.93572
-16.247 139.804 1.26532
-13.9067 144.176 7.30569
-3.79017 128.657 -0.952775
13.8145 116.324 15.8567
-3.19011 101.459 16.1942
-3.29356 108.224 -3.14199
11.6125 92.2475 -5.54755
12.8929 110.355 16.5393
-16.839 123.903 0.486452
9.97481 107.366 -6.72504
3.00348 101.881 -5.17107
12.3283 103.162 -6.77328
19.2572 104.78 0.922682
20.6534 84.5544 17.1061
15.4111 108.612 17.7633
-15.8301 113.989 -3.53299
2.23823 141.868 7.5267
-16.8898 142.441 7.8299
8.3954 100.869 16.2972
9.23314 100.727 -7.27381
12.3815 103.835 -6.51594
15.602 132.987 -3.75931
17.2812 130.792 3.05735
22.378 85.9613 12.8556
-15.434 122.076 -3.55233
-18.5311 127.704 -2.87641
11.3025 136.066 3.70624
-1.51348 110.843 -4.29992
17.1178 127.72 -5.70297
1.77728 118.942 -6.02798
17.1297 125.357 10.7899
12.1569 122.852 9.89116
-15.3439 145.33 6.54249
15.3376 126.282 10.5567
17.8273 126.102 -5.71931
12.9093 127.763 10.9267
-3.1153 143.407 -1.80858
21.4724 90.6785 14.0873
22.1742 139.452 0.520532
17.7216 112.663 -3.49434
7.72576 123.265 -3.22523
-5.18269 120.571 -1.3317
20.7647 100.683 14.7521
-17.2725 119.14 12.6809
19.8976 97.071 -1.07758
7.73739 149.572 1.25304
13.6184 129.766 -6.72806
17.6421 146.595 4.65698
-0.210794 126.345 12.7805
25.3918 128.738 7.48928
-19.0456 119.836 9.48094
14.9236 74.845 -3.13721
20.3852 101.52 2.83878
-5.27771 83.7948 1.45956
5.38704 133.281 6.09032
20.5731 127.847 7.94815
7.20109 98.7914 16.1696
-20.1454 123.309 7.75028
-17.891 123.763 8.52214
-23.4004 133.445 5.811
19.2043 92.7122 -2.50221
-19.5615 118.086 6.72095
-11.5631 130.383 -4.05408
-12.1212 109.487 -3.56793
-17.534 125.285 0.0493206
-28.0953 126.293 1.68687
-13.7528 143.119 7.23812
18.5828 114.979 2.39882
-2.00624 100.495 13.7454
-27.0096 125.678 5.3721
18.1624 81.764 -4.08024
17.7376 89.6545 -4.07919
21.1722 84.9264 0.664078
-18.6943 115.12 -2.17931
-16.1873 139.454 1.30007
13.133 104.82 -5.53173
-27.2449 128.205 2.91026
23.6737 132.557 5.17426
11.0281 131.491 5.16025
17.3339 135.608 8.47439
2.355 99.7397 -3.7943
-19.2463 116.62 8.50381
8.56997 105.239 11.7057
18.6906 110.953 -0.885882
15.2217 125.782 11.2182
-16.9625 118.222 -0.748539
19.6727 102.883 2.41928
-16.8927 137.185 0.0174473
20.181 143.704 -0.462782
0.844799 135.208 -1.60405
-13.2027 114.831 -3.05288
24.3677 130.556 6.93559
20.8168 111.113 12.0518
-14.2034 126.631 8.83008
-17.3684 127.577 0.171748
17.1409 142.152 -1.77012
1.22956 133.558 10.2555
-17.4181 122.469 -0.139612
7.27386 143.672 -5.50148
13.8992 117.449 -4.56019
-13.3536 107.048 -2.3069
11.1454 97.9294 -7.03516
17.3628 97.8427 -3.65819
-10.3404 119.805 -3.05147
10.6472 92.5536 -5.29701
-14.2403 118.341 16.4799
-6.43595 120.037 14.8621
2.99913 92.649 -1.41651
-16.6453 126.616 -0.388803
-22.8666 130.347 6.18343
-17.9753 123.7 7.45259
-16.4269 119.948 -2.81586
-17.7503 107.71 -1.44236
0.696646 120.609 12.6079
20.2261 112.768 2.81872
-18.6202 117.831 -0.338317
-7.61728 100.199 -1.62736
20.3632 108.987 9.70757
21.8833 87.9334 4.69121
19.0734 117.721 7.18124
1.31031 88.6921 0.0931684
5.29596 78.7243 0.270711
18.5911 93.4386 -3.40589
22.2503 84.8215 2.74778
21.1727 78.4852 16.522
20.9958 87.484 15.796
19.809 103.221 16.1778
-21.7736 139.721 4.04619
21.7308 122.354 -0.204147
7.99784 112.081 8.81235
-24.4133 124.837 7.8574
22.2115 83.5707 13.0411
14.2653 137.668 -6.46863
10.9001 99.2358 18.5325
18.1464 105.33 17.3939
-8.84873 105.502 -3.43473
6.3425 109.176 8.88598
8.08586 83.2656 -0.899742
16.0852 129.304 -2.82671
-14.7575 134.938 0.272111
18.6179 118.944 3.53077
2.15052 100.376 11.4175
17.6243 120.175 8.99031
-18.6936 116.522 9.09803
9.71098 135.151 3.33469
15.5787 129.749 9.60005
20.4259 101.403 2.65355
-2.74688 104.829 15.6369
-16.0694 132.751 -0.651414
6.91729 92.7878 -2.71172
18.3456 126.457 8.90421
1.04826 125.567 -3.44497
14.7984 140.251 7.43771
17.6224 103.245 17.9368
-7.80395 118.281 15.5385
-12.214 123.967 -3.55474
23.8205 133.685 5.85405
3.4845 138.997 7.94591
6.12916 96.4787 16.883
-12.7928 127.676 12.7855
21.2319 137.671 6.66263
3.67398 142.801 7.0206
-0.27905 108.516 -5.7605
-8.75914 123.834 14.626
8.78279 127.269 -4.99851
-20.3261 111.697 5.22464
-18.3399 141.726 7.33617
-9.79638 107.097 -2.5786
6.43288 120.428 -4.22626
16.976 127.192 -3.63045
-28.2751 125.149 0.477915
3.51917 102.337 -5.30587
20.2719 110.212 7.05905
-5.23267 83.1417 1.68641
-12.6787 116.453 16.7129
-8.55321 88.6486 0.363584
-13.5244 136.552 -2.26786
16.1622 88.4179 20.2075
13.8663 91.1395 -5.89545
0.185243 115.156 13.2142
-21.0593 139.544 6.20787
-0.651198 77.1411 1.03309
16.5652 123.074 11.6755
14.0555 145.879 5.35162
14.1195 142.122 -5.02967
-19.401 131.368 8.19697
-5.00588 91.9234 0.0881629
3.27476 142.039 7.36756
23.388 133.519 6.65542
-4.43391 142.261 -2.74929
3.59795 149.522 -3.75608
2.55288 90.4893 -0.85368
18.7338 124.376 2.09286
12.7444 115.375 14.897
21.9479 92.5929 5.60789
7.33397 139.771 -6.32696
-17.3332 145.801 4.09749
-3.07229 137.943 8.86401
-16.0167 129.96 1.14468
11.2618 86.2195 -3.96813
21.0018 111.802 10.918
6.70129 155.009 0.0504293
10.0196 91.3034 17.6343
24.4492 130.958 6.73736
-14.9873 133.154 -0.0807924
0.79793 117.852 12.5102
-16.8342 121.892 12.1516
-4.41434 106.683 16.1302
-11.903 128.264 12.8441
-26.0937 122.258 1.37414
12.1494 120.599 11.0276
8.78474 85.3895 -1.9828
20.5182 95.3587 1.52013
-1.52697 133.339 -0.900042
0.0592639 107.53 -5.8635
20.781 111.784 11.7467
15.3273 106.318 18.4245
26.971 125.544 3.22584
-18.3102 121.249 -0.290848
16.8055 144.884 5.87706
-6.48992 136.53 -4.79082
22.0371 92.4383 12.4903
4.94143 135.402 6.41695
19.8469 76.1353 -3.09644
5.10609 144.34 -5.10106
-17.8116 129.75 9.14201
2.96217 120.41 8.57373
18.7342 118.182 6.69851
5.5186 114.481 -5.44457
18.8533 125.6 5.41631
-2.52362 103.039 -4.35413
-6.02527 151.944 -2.31135
4.37037 132.291 -4.08865
21.5132 139.67 -0.88241
-16.4403 122.514 12.5429
-15.9267 100.081 -0.662377
1.38248 148.391 -3.15403
-3.16696 135.558 12.0026
18.2634 119.607 8.78656
-9.25883 145.425 -4.28398
-17.0915 95.1713 -0.0972651
9.23982 146.794 -5.40891
13.1354 148.782 -2.36053
-17.7417 117.234 11.2276
17.1822 113.914 -3.16755
21.9535 88.3057 5.56801
16.6063 114.11 -3.4742
22.6615 79.8905 9.92931
-5.30607 107.021 -2.93101
3.37906 97.0433 -2.54035
13.9685 95.1654 -6.24754
4.60151 93.8505 15.5014
-15.1843 133.483 9.43138
-11.9365 146.029 -0.956088
2.41699 142.797 7.29238
16.4216 125.563 11.2146
17.2666 115.735 -0.763669
-21.8609 139.63 3.0439
19.9054 111.328 13.3995
9.2594 131.125 4.14336
10.4734 148.068 1.40237
20.7826 103.322 13.538
-13.8809 130.206 -2.22722
-2.70498 83.1787 1.75021
-18.3096 103.321 0.0991198
17.3249 141.126 7.18234
19.1339 128.939 -3.22185
3.21496 100.683 11.4098
21.4283 89.465 14.2863
9.96882 149.705 1.15524
-15.9578 130.867 0.543376
-2.18073 134.315 -0.808041
-11.6075 146.86 -1.33296
6.38973 135.746 -4.43841
13.4301 103.137 -6.24421
15.154 94.936 -5.78947
19.8885 104.964 4.43896
19.0152 93.458 -2.70424
0.555892 101.725 -5.11805
18.2636 114.899 1.13766
6.11281 147.856 -4.58403
-5.94216 129.983 -2.40207
-16.5956 135.469 8.81892
-2.07822 101.176 14.1216
15.8912 132.105 0.217453
17.6745 125.763 4.06448
-25.5033 121.114 0.610166
-12.9248 109.825 -3.65214
7.21013 116.57 -6.09243
13.0847 109.439 -4.99217
17.8918 123.91 -3.7483
-5.90762 105.065 16.5889
-12.8745 99.6351 -1.79058
20.3286 113.109 12.4764
9.25558 123.492 6.30437
-14.6852 144.403 7.57461
2.80808 128.956 9.18138
-20.1328 122.775 3.45686
9.27172 101.781 17.2563
24.384 135.842 3.35059
1.50501 122.662 -5.32509
22.7862 135.427 6.74036
-12.0096 136.101 8.81316
17.3539 128.524 -5.772
-21.3968 130.715 7.11232
-9.22361 137.145 8.02884
-19.2901 121.671 1.72204
19.9173 114.627 7.35322
11.2468 90.4958 -4.85459
9.79383 139.984 2.7222
8.30618 100.51 17.669
-14.6646 133.831 -0.587823
3.91469 127.902 8.19791
4.41878 120.069 7.09597
-20.5751 121.198 -0.595178
6.08198 128.686 5.37392
24.144 132.964 6.41057
-23.3722 120.224 -1.26905
12.1647 88.0167 -4.79669
19.6513 139.94 -2.32988
17.0867 126.877 -0.911263
-18.7784 119.839 0.759966
-19.7943 100.033 0.896522
-0.21376 80.8139 1.2985
4.78441 101.138 -4.78349
-2.92362 127.197 12.9128
14.5643 125.495 -4.6916
14.1605 148.475 0.102927
20.0794 106.902 14.0375
-4.22236 142.698 7.14077
-7.00617 134.871 -4.75556
-19.5179 112.495 -1.01439
20.3909 105.308 5.66476
3.70689 122.556 7.85512
20.7291 97.3849 15.6766
-27.1078 123.053 5.89021
18.9911 137.372 7.20138
14.4248 132.68 -6.62593
20.5405 105.962 6.64234
-18.5946 134.185 -2.54318
-4.43951 123.514 14.114
-15.9789 120.819 14.0684
-2.92718 149.863 -1.79291
21.7701 88.7733 13.4335
19.9453 99.3496 16.2157
25.8615 125.507 7.60062
26.5183 124.486 4.38493
-4.77402 103.842 -4.42523
26.8247 125.022 7.54199
20.3951 78.8241 18.1407
14.5744 125.258 12.2303
-12.7187 147.503 1.21926
16.4786 137.661 -2.69198
23.0194 129.654 8.66156
19.8485 124.758 6.98039
-18.6113 117.826 -0.384777
4.19961 144.619 -4.62427
21.5032 137.001 -1.43214
7.21588 78.1555 0.559058
7.02416 91.9885 -2.50452
4.04109 93.8528 -1.74585
13.0931 98.5419 18.5557
-15.5511 131.406 -0.0460032
14.1383 121.8 -5.51157
1.22853 112.484 11.7996
-22.414 129.862 -1.1421
20.1503 123.555 -3.41884
-15.905 112.863 -3.47608
19.3587 104.458 -0.217161
5.51521 124.42 6.08836
-19.622 128.484 9.48486
-5.59401 123.956 -1.12865
3.66831 119.09 -5.7089
5.334 99.5411 -4.23781
-21.8988 120.351 0.554417
-26.3519 125.197 -2.62533
22.1735 97.3175 10.1688
21.7115 126.543 -3.21049
7.44477 119.735 6.59791
17.326 116.324 -2.67297
11.7443 127.689 10.8522
-10.9758 127.186 13.5937
7.49911 146.504 -5.00549
-7.41797 137.708 -4.83268
-11.3609 110.118 -3.69103
5.37668 138.118 -4.96273
19.9252 123.623 -3.05384
-0.211731 101.473 11.8482
16.4538 129.009 -2.68569
4.3348 113.048 8.20005
-8.89573 119.625 -2.25574
-17.3137 117.942 -2.74814
-6.88434 98.657 -1.64982
2.43763 116.126 9.41317
17.435 129.226 5.37859
0.652403 99.5132 -3.29245
9.33495 122.246 -3.83411
-16.7338 114.438 13.6188
-16.4845 126.406 0.964918
-20.6227 126.281 -3.26108
15.8156 119.633 14.6368
23.0682 137.181 1.20316
14.2755 133.731 -2.33042
4.47444 96.7755 12.6051
16.9497 128.442 8.69596
-7.99138 150.753 2.70317
-15.4528 94.3894 -0.3382
-13.6401 121.786 -3.86787
-10.2355 119.548 15.5601
-19.0105 106.819 5.55693
1.60268 116.83 -6.12571
-23.9851 131.68 5.17171
10.322 79.9037 -1.74891
9.65663 91.8418 17.9105
-5.34704 98.9107 -1.35329
11.3436 96.2389 19.4158
3.81289 85.3723 0.0820662
-15.3231 117.617 16.3154
-4.66462 114.131 15.7342
20.1516 82.8064 -1.24891
-25.7211 121.171 2.90787
19.3738 105.217 -0.403778
13.249 96.2463 -6.38886
-12.536 146.224 0.96884
20.7998 92.689 14.9188
15.1906 84.3704 -5.35673
-4.12442 111.526 -2.16607
12.2697 125.056 12.4023
-24.1632 122.512 6.3911
5.19123 125.827 -3.61828
15.5166 98.7971 -5.56296
-13.0447 93.0204 -0.415176
12.7975 101.528 -6.75211
-7.10422 112.383 -2.86362
-10.1208 89.9683 0.247566
2.24686 104.734 10.5948
-19.2772 131.411 8.19867
2.94919 123.557 -5.38383
10.6133 130.763 -5.76684
18.6287 126.674 1.03818
-14.1065 120.253 -3.29914
-15.6381 118.403 15.8535
11.0844 115.493 10.2042
-6.21998 130.968 -2.7994
-16.2596 127.456 -0.569064
-18.2888 119.851 0.312201
19.8932 94.3345 17.0919
9.05098 78.5007 -0.457274
-18.1666 110.297 -2.15752
15.6046 127.035 0.338063
19.2571 130.783 6.8507
-25.3033 126.137 6.8209
6.58808 88.4075 -1.56312
-5.47975 99.7793 -1.50042
-18.3391 135.933 -0.359884
18.1438 126.789 -6.03606
-1.22985 135.67 -0.82827
20.3146 105.781 5.80603
-16.905 146.256 3.98239
5.04567 107.83 8.96675
-18.4827 123.215 8.62442
15.5781 146.161 1.19196
23.0773 130.714 8.8547
-16.2841 121.433 -2.82375
13.9149 102.855 -6.08515
20.9307 93.0893 0.590182
22.5721 140.513 1.49441
-15.9975 121.788 -3.21116
-20.1145 102.3 1.45353
1.22772 111.963 11.8323
-18.6557 107.759 5.25718
10.0595 151.615 0.0778907
-9.70976 116.756 16.1078
0.167048 79.0989 0.833962
16.16 138.966 -1.32867
13.1495 95.149 -6.54794
4.1771 124.452 -4.81053
-12.9944 100.085 -1.82105
11.5256 151.054 1.81842
-0.122155 102.932 12.5177
-11.5516 135.932 8.79707
-15.8791 96.407 -0.354381
20.8462 129.138 8.32972
15.8116 94.6903 20.2989
15.7088 130.922 -2.35319
18.3459 112.335 -2.51776
0.257583 139.555 -1.49244
7.13151 102.586 -6.63694
-5.36437 142.522 -3.44501
17.2373 125.387 3.1611
14.3101 132.448 -3.29329
-16.6601 130.6 8.76698
-10.45 140.992 6.52497
22.2208 84.9893 2.45305
-18.2862 137.016 8.65015
21.0555 88.8887 15.3997
-17.2394 129.124 0.928486
-17.4004 112.437 11.4585
22.3759 141.809 3.82082
-23.5257 135.674 5.68936
18.5126 85.8487 18.8299
5.83488 118.387 -5.73265
-1.49949 122.66 -1.52917
25.1165 124.254 -1.13527
22.4632 88.1823 10.9703
16.7668 136.276 -3.86953
-11.0777 113.314 17.2802
-13.1662 144.515 6.78023
9.74369 149.632 1.07677
-9.06275 109.396 -3.53374
4.52397 116.863 7.34234
-11.4585 133.432 -3.00177
15.3655 136.354 -6.213
18.4471 126.208 1.67187
-25.5739 121.136 0.588419
-16.6125 146.084 4.74508
5.10144 123.608 6.47191
9.43621 79.7325 -1.13791
19.4183 131.541 -4.55666
-18.4596 121.066 0.0950234
-12.8776 114.88 16.8687
-18.1801 123.667 8.51291
1.9737 126.497 -4.55636
2.48188 107.426 9.77308
-12.648 108.188 -2.69539
24.3414 137.341 3.14473
12.8989 149.491 -1.86437
-5.99667 125.791 -1.49952
-6.0587 132.937 13.0781
5.69359 101.373 11.272
19.5434 110.504 2.61884
11.9563 116.532 12.0361
20.4043 133.435 -2.52025
7.78634 96.0031 19.0872
15.2259 136.231 -2.41596
-7.46212 144.811 5.64961
8.14688 78.6824 0.0445704
-19.1715 118.337 3.46671
-8.09319 141.333 7.36658
9.91391 128.885 -5.60212
10.3383 113.709 -6.42803
-1.89357 118.466 14.5936
4.05398 129.467 -3.5816
18.9807 135.204 8.06841
16.6569 78.9151 -4.67309
15.2219 87.1152 20.5179
-8.15108 138.276 7.587
-17.5751 119.099 12.367
-13.0671 93.6747 -0.552804
21.0235 101.246 6.51357
-8.3339 114.793 -2.42807
16.0699 75.5454 -3.58403
-17.9505 144.657 1.94671
-17.4825 117.59 -3.34742
14.1874 138.273 -5.99668
-0.18695 133.46 10.9653
17.8895 147.648 0.760252
1.35443 151.431 -2.92629
6.66984 104.948 10.1877
11.3618 136.291 4.2246
6.99843 100.821 -5.86571
13.7859 144.619 -4.28649
8.37194 138.243 3.17065
16.6711 99.037 -4.14769
23.0421 126.874 -2.31391
-20.5021 123.013 3.90468
18.212 90.5488 19.4162
-2.52719 135.532 -1.17916
18.2573 127.124 5.81566
-1.08065 149.225 -1.93767
15.2031 127.605 0.504842
4.6026 102.321 -5.38693
27.0852 122.673 6.14557
19.8363 121.64 5.93851
19.5429 131.45 7.17626
-21.7655 122.777 5.00855
7.8575 88.4679 -2.07965
-12.3109 126.485 11.7533
5.49152 139.834 4.74194
8.32107 92.19 18.4948
15.4847 127.729 -0.185398
-22.8805 124.299 5.60736
15.3564 82.1451 -5.08729
14.2788 102.508 -5.98856
8.20995 99.0823 18.4975
18.1279 123.413 -4.49685
17.1886 130.693 2.35034
7.17165 99.5816 13.5793
3.32232 93.1467 15.4174
11.3879 114.244 -6.1492
-12.5364 121.398 -3.92983
11.3487 105.266 -6.52793
-5.60762 132.9 -2.70033
12.6317 140.534 6.89478
13.5264 88.3852 -5.57811
17.194 133.338 8.28429
26.7997 125.185 0.56917
1.60827 134.006 9.87365
12.3919 143.019 -5.27959
17.0399 121.692 13.2803
2.21781 139.257 8.96189
22.2414 93.5277 8.7928
-16.145 129.155 9.19376
-14.267 130.114 9.87918
12.1247 142.31 -6.09194
-8.8487 142.851 -4.33569
-5.79165 125.668 14.5829
19.5848 105.83 14.912
-9.54065 152.165 0.0664336
-16.7707 122.081 12.0464
20.3099 126.063 6.53385
-17.3355 112.644 10.378
11.3624 117.73 9.70159
12.4271 105.164 17.6422
-1.26227 127.876 -1.11962
3.95119 126.698 8.27271
0.314503 99.2116 -2.96354
16.4586 123.586 12.2782
11.8692 140.227 3.97855
-7.76089 133.852 12.2342
18.4359 103.901 -3.20695
14.9222 131.563 0.276117
-7.68684 110.803 16.8952
11.9588 84.4095 -3.5885
-5.41488 90.1377 0.29328
15.2915 128.089 9.23292
23.5417 135.582 3.98687
23.5931 134.118 6.47698
21.0303 132.747 8.27965
1.76066 112.106 10.824
19.7581 109.823 5.19079
16.286 134.471 -2.03516
15.4738 129.995 -1.23127
-15.656 96.4186 -0.335174
20.4241 111.681 5.60851
24.2009 121.363 4.77606
-16.6923 114.074 13.8132
22.6281 80.4988 4.89666
-18.3193 121.826 2.28209
-20.0607 122.472 7.70879
-15.1138 129.907 9.64111
13.0815 91.562 20.5308
14.4138 125.865 -4.23828
17.366 133.28 8.18138
-16.3799 117.542 13.9008
18.5436 131.95 7.00698
15.1177 132.612 8.64364
11.416 130.98 5.93795
-20.3214 122.612 4.34861
-20.3034 123.771 7.71883
21.3348 97.9277 3.45103
15.004 125.933 -5.56851
-13.4704 108.338 -2.80695
4.12273 97.7197 -3.02674
23.0866 139.892 3.64501
15.0208 151.173 2.04977
-17.9882 130.503 -1.70232
2.90315 90.9837 -1.16248
8.70899 101.509 15.004
13.4707 135.005 8.74529
-15.4584 146.498 5.05701
18.3074 122.703 -2.63203
-20.0319 112.824 -0.327346
1.60178 113.465 11.1529
22.8308 81.7413 7.37042
7.45485 105.508 10.6766
22.5175 86.9626 7.60258
17.3728 128.452 -2.27771
-25.5048 121.65 0.519638
-25.5349 121.482 0.225619
11.5732 144.253 3.01043
-0.853157 138.949 10.2342
13.9494 122.525 -5.11529
-12.6262 130.54 -2.2459
8.32206 129.012 4.34053
-4.38063 106.424 -3.27611
-0.143828 102.021 12.0405
-7.17073 151.554 -2.02324
-3.92708 146.309 -2.12767
5.7688 134.549 -4.01829
12.3939 127.723 11.294
11.7182 124.896 8.058
20.7404 110.262 11.058
-2.32259 105.195 -5.56332
-19.5928 113.052 6.49894
-15.3486 119.104 15.9795
-28.4429 125.497 2.09734
-6.09542 105.804 -3.02385
21.6601 88.9364 3.43364
1.67768 119.541 10.9197
-6.19709 152.06 -2.11446
19.7004 146.491 0.15928
18.7371 132.987 -4.6076
-7.74766 112.391 -2.92168
-1.84769 106.192 -5.55474
-14.8566 147.414 4.57398
19.081 118.119 5.19115
17.8051 94.0844 -4.06335
1.07053 141.591 6.97593
-21.7855 123.776 3.63665
8.37024 106.775 -6.64365
7.95958 95.849 19.2288
12.8746 127.124 11.348
10.8378 103.923 17.8622
16.1467 92.564 20.3608
16.76 116.801 -4.07935
3.3367 114.229 -6.35561
8.52174 148.764 1.18116
13.9961 112.584 -5.42255
19.4654 114.614 6.21965
-2.04911 123.156 13.253
16.4404 145.323 5.58229
11.4248 91.6078 -5.22074
-25.0978 121.031 0.989025
-13.8523 112.74 -3.63924
-5.49532 134.299 -3.34748
2.47353 77.4266 0.727685
-9.17214 126.866 14.4664
-0.229162 142.436 -1.57225
18.742 124.466 -2.15006
-20.2913 121.391 6.12518
-7.40617 145.439 5.32833
-13.0704 125.562 10.5988
10.3156 107.194 12.371
-9.50598 96.7676 -1.3731
23.2123 126.96 -2.18516
20.8279 131.085 -2.1623
20.8533 104.986 6.79136
15.5006 125.61 11.3759
-16.6236 116.824 12.3305
11.7873 90.9978 19.77
-4.56639 126.65 -1.00709
-4.94322 120.883 -1.22848
1.48197 97.0468 -1.8592
12.1809 116.723 13.4417
-0.129774 118.98 -4.4246
20.5016 98.3031 0.167458
20.7238 106.636 8.08715
13.1269 77.5223 -2.71374
-11.3325 95.5774 -0.903225
20.2117 144.276 5.05508
2.4298 128.425 9.75439
22.3848 86.0059 6.34948
17.8226 130.265 1.73408
7.78386 151.431 1.51054
12.0823 89.2082 -4.88757
-27.9185 126.416 1.65831
22.0179 81.5162 1.13669
-1.14537 135.499 10.9278
-4.69341 89.9593 0.29416
18.6933 131.133 -5.31511
14.366 93.3326 -6.13931
12.0661 122.786 9.68253
18.7296 109.085 1.22396
16.4812 126.076 1.86627
-22.4187 133.585 0.669942
21.5489 76.7056 7.34922
0.833587 95.561 12.0832
8.36992 140.949 -6.25953
5.87542 115.905 -5.6935
18.7253 93.9642 19.0954
19.3793 129.013 7.51938
-18.7445 102.825 0.138228
15.2967 143.17 6.39494
4.38757 126.664 -3.89399
5.47327 139.88 -5.49442
12.9442 126.416 11.979
19.892 116.921 11.2232
-18.9991 120.3 8.77067
15.9175 109.452 -3.54331
1.91105 141.954 8.78178
15.8342 121.992 13.9898
-14.8017 105.175 -2.2541
-6.80084 137.309 9.36434
14.3786 147.211 -0.256809
-13.1971 103.096 -2.57487
-20.4237 131.462 7.5094
0.0163435 140.601 9.49048
19.9196 132.671 -3.25546
-13.4774 138.103 -1.72355
-6.71894 119.269 15.287
-9.20824 93.0871 0.0423786
-19.7916 114.8 2.27219
12.6143 140.77 -6.65604
-7.05836 120.79 -1.78037
15.5642 129.24 -4.51119
20.9399 121.073 3.62338
17.9157 116.57 13.9977
19.1228 136.341 -4.23392
-20.7695 116.952 4.83526
-12.3134 126.344 11.1113
-16.2072 118.775 -3.58611
15.8087 129.914 -2.26198
-19.6043 105.917 -0.0848739
-0.0444786 136.923 -1.13927
18.6189 113.043 -0.223637
1.80638 129.177 10.6103
-17.6632 127.523 -1.67171
22.6779 84.4643 8.87661
8.0834 119.834 6.71941
-12.1663 150.284 0.942788
-9.52447 135.276 9.2897
20.7556 103.26 13.1949
19.6837 125.447 7.01683
19.9981 128.482 6.85035
7.29838 118.72 -4.94762
14.3316 144.962 -2.81637
-1.34571 140.238 6.97835
11.7433 131.935 7.69019
4.24698 134.001 -4.47902
6.64157 104.586 -7.50007
7.29925 141.916 -5.87919
14.4215 125.204 12.3771
-15.4978 124.244 12.7998
-9.04726 149.278 3.45669
20.409 115.338 9.99381
-11.9056 118.765 15.7931
11.6408 141.909 3.56622
-5.68641 135.73 -3.44229
20.9685 97.1358 2.00689
-11.0699 95.283 -0.975771
4.09225 120.689 -5.70697
20.0757 107.504 6.6718
-16.0901 94.026 -0.109823
21.614 101.846 10.2174
-8.38653 132.341 -5.20102
-3.1887 132.577 12.5173
-19.0933 140.546 1.10846
-7.98773 97.9063 -1.64104
11.915 150.17 -1.49715
16.5333 148.263 3.99807
6.95934 102.46 11.479
-2.01518 104.553 -5.65319
1.25823 115.636 -6.18564
21.739 99.1687 12.011
15.0702 102.069 -5.6764
-0.604521 113.42 14.2546
0.741423 120.626 12.5312
11.3892 106.452 14.0074
1.23554 93.5001 -1.19166
17.0291 128.56 -2.7983
-3.50568 108.662 15.895
-9.37262 110.866 -3.19373
6.35608 84.8319 -0.401855
19.5082 135.54 -3.62218
-1.76 92.4929 -0.175919
1.66146 90.8808 -0.615319
18.1866 124.907 4.70616
-19.4114 113.728 -1.2862
-21.2428 126.08 9.34375
-17.9245 121.759 -0.14693
-2.07471 142.034 -1.46598
22.1695 139.938 0.292899
21.7368 100.268 7.76051
21.0767 139.541 6.05493
26.5078 128.753 1.57673
19.1537 123.621 3.3957
12.2213 135.321 8.63097
14.8312 108.516 -4.02371
-0.695798 122.159 -2.35387
-14.1333 108.766 -3.0224
21.101 98.4248 2.38992
7.15146 152.737 -2.149
-17.5043 145.18 2.19601
14.1395 123.541 -2.2818
19.3081 118.362 5.55905
19.3069 106.408 1.35606
5.03822 131.019 -3.50172
-17.8871 109.79 -2.34972
-8.0625 131.355 13.7299
-19.3455 134.164 -2.06268
4.22611 136.198 7.76933
11.1235 143.703 2.02495
21.4012 124.115 -1.08877
18.1277 118.207 3.21565
1.90584 105.486 -6.25148
20.1643 101.491 16.1639
-4.96574 107.927 16.5203
-17.0076 126.7 0.272632
-19.375 106.579 3.734
17.1838 130.235 8.68799
-22.8992 135.79 6.302
20.5476 98.8485 15.0814
-8.83984 135.064 9.67266
-7.25053 124.278 14.7549
-3.01221 92.1582 -0.0777494
14.8426 125.903 11.1524
-2.82939 97.354 13.9215
-22.361 119.772 -1.22056
-23.7856 125.797 -2.38717
-25.0562 127.865 -1.00811
22.5683 83.507 6.0104
18.6493 114.042 -0.852618
-22.5095 123.077 5.44055
10.7716 92.8552 18.3908
9.98186 129.396 4.9269
-8.42578 138.599 7.45487
14.6218 126.592 -6.09638
4.97324 103.245 -5.93965
14.1761 122.486 14.0796
14.967 131.644 -5.22711
21.3857 97.1682 3.73408
-11.0248 144.57 -2.66413
8.37686 121.309 -3.37478
5.33351 143.674 5.12582
10.8331 110.134 11.8326
-21.3026 125.199 8.90303
8.15532 85.2076 -1.37418
18.9208 96.495 -2.61662
10.682 139.613 -6.72646
1.2384 80.3673 0.598323
-3.32216 102.437 -3.55894
15.8273 77.4713 -4.05288
-24.591 123.781 7.67427
14.9614 117.683 -2.37672
0.413195 121.513 12.9559
21.9485 86.4371 4.54902
22.2726 76.4469 0.956201
-21.1302 125.461 8.99917
24.1387 131.274 5.82219
-9.5801 145.008 5.03884
15.5281 78.5676 -4.02378
-10.791 121.65 15.0815
10.8895 125.056 -6.19405
23.2987 139.78 2.7788
20.4572 106.971 7.63538
-3.93881 136.874 10.3328
20.9753 77.9353 12.2631
-7.91229 116.853 -2.68187
16.5534 110.857 -3.64705
2.70584 105.115 9.78614
11.9792 87.7465 -4.67497
2.52358 114.666 -6.33198
17.1556 132.885 -1.22796
22.0071 94.0341 12.1377
-15.3164 103.907 -1.74887
12.0935 118.152 11.8695
8.08393 102.323 -7.17542
19.0374 108.499 -1.71102
11.7933 89.6495 20.6012
-5.48168 117.1 -1.75205
15.9992 145.009 0.0662206
20.8048 105.236 13.4167
-1.89008 87.5413 0.470786
-2.79917 89.3846 0.249297
-19.6589 124.1 7.70616
7.23664 131.414 -4.73929
0.889979 142.445 5.63973
7.83761 106.869 -6.91075
10.9961 97.4026 19.5463
23.2873 133.801 0.370348
15.8642 102.782 -5.00134
17.3211 122.332 1.20342
21.1855 134.25 -0.839332
10.561 113.993 10.1374
17.6243 128.366 -5.87867
0.689494 96.9428 -1.60916
26.9219 127.431 7.6919
22.5836 87.6479 7.9102
2.569 116.911 9.16154
25.3293 128.764 -0.121094
7.5261 99.4388 14.9085
20.4987 143.501 5.23919
-25.4309 133.023 4.54144
-25.6558 129.068 5.4823
6.59637 109.752 -6.21663
-14.6122 148.171 2.83754
-5.59004 89.5488 0.376713
-11.7142 129.608 11.6612
21.6073 142.183 0.007941
7.48059 99.0064 -5.361
16.4493 147.339 1.15252
-8.33103 113.024 -2.77936
-5.26369 145.245 -3.32347
19.4888 110.25 2.86201
10.2687 153.726 0.291024
-12.4698 104.508 -2.49645
-2.98267 97.171 -0.806123
16.1414 83.995 -4.89437
19.0775 108.866 -1.45032
24.3341 132.302 2.69776
15.7178 114.341 16.4883
20.3928 144.13 4.96395
-5.62452 137.36 -3.45911
-1.04126 116.161 14.5382
20.2649 123.612 -1.04908
5.40743 116.963 -5.8148
-2.87103 142.797 -1.64069
23.797 133.893 3.28974
-2.20278 115.159 -2.13655
-14.5538 125.178 -2.66801
21.6703 144.354 2.81113
7.84946 78.5079 0.249635
0.0330376 113.695 13.366
2.56728 128.538 -4.47654
8.68218 123.827 -4.35469
12.4083 116.444 14.2223
15.1102 139.873 7.48286
17.5233 128.503 1.34005
-5.1068 87.2438 0.490357
15.8996 108.373 -3.79767
-10.784 119.712 -3.36719
14.6154 125.175 -2.26121
-8.78042 91.4315 0.217697
5.46127 133.901 5.40564
22.4676 128.348 -2.26433
13.0258 82.4362 -3.93366
-27.0193 121.595 0.157399
1.81549 124.79 -5.00272
21.8054 87.8116 13.5992
8.76187 77.3489 -0.0977072
9.53888 104.752 12.8299
10.4981 109.608 11.6818
18.8798 126.02 -4.66531
0.966255 141.631 -2.40612
-9.24013 98.3246 -1.83022
0.541164 89.2599 -0.138911
18.1894 148.627 2.11111
19.7677 110.8 3.21736
11.1812 130.718 9.44705
8.89259 100.143 -6.82106
12.4859 99.0544 18.7734
22.1842 95.0736 11.1729
10.53 113.979 -6.40614
18.9371 125.853 5.52625
20.4634 138.278 6.59902
13.5784 127.976 10.3491
21.3159 123.282 5.74267
18.6131 103.719 17.2199
-5.95849 131.17 -2.53663
1.8965 139.847 9.09398
16.942 82.8268 -4.58841
8.05677 97.9643 -5.21654
-10.64 121.357 -2.87899
26.379 128.052 1.29052
14.5999 122.151 -2.00821
21.6202 82.1497 14.9131
19.597 88.016 -2.86522
12.5839 139.374 -7.09521
15.9354 133.852 -2.49312
-14.6902 148.107 4.04467
5.27693 95.9864 14.0009
-8.01319 95.2192 -0.331195
19.1382 100.724 17.2105
-19.5346 112.386 6.72134
17.3377 129.558 8.78488
6.75827 87.7795 -1.35817
5.98632 77.3253 0.686576
21.9383 124.12 -2.23137
24.614 123.505 7.40276
-13.5849 143.862 1.35157
4.20813 118.539 -5.47791
21.6143 133.482 -0.0657977
-11.5133 137.404 7.99832
-10.8605 141.71 -3.23014
-8.38929 98.5934 -1.79584
-3.59758 92.0055 -0.0323036
-18.3581 143.609 1.67721
7.13976 109.002 9.27388
11.7962 120.269 9.8077
8.8542 118.398 7.44679
-4.09997 149.883 -2.06593
21.2647 100.131 4.18423
17.4781 134.193 -3.43424
0.357509 150.905 -2.76831
-8.75552 135.05 -4.83728
6.91617 95.4993 -3.72688
-21.8882 120.035 -0.882345
-15.6314 121.55 -3.49781
-4.89236 130.172 13.3143
13.1068 89.6869 -5.54909
-4.34928 109.516 16.3095
13.8402 143.479 -4.42414
18.6603 117.822 13.1548
20.0018 98.1814 -1.09783
21.535 99.2154 4.79111
14.415 83.0395 -4.76011
16.9114 93.6084 20.1551
-16.196 122.918 -2.32014
-12.5505 107.824 -2.47014
-0.135108 140.608 8.52449
-5.19513 124.382 14.3282
8.60395 111.351 -6.27256
12.604 131.644 10.1276
16.2625 138.232 -3.7248
-15.3212 132.982 9.32927
23.8457 130.285 5.72943
-23.8266 123.358 6.19517
-15.1904 110.347 -3.55005
20.1687 131.559 -3.48606
14.8684 85.853 -5.52642
-1.00609 147.64 -1.84007
20.6556 102.029 5.9685
22.246 91.8195 9.1243
4.91781 117.019 -5.67018
-18.551 120.871 2.20298
16.842 102.556 18.7001
24.1446 137.464 2.43619
5.05694 125.789 6.25602
20.3264 100.072 -0.521883
25.2673 123.217 7.28505
17.6506 79.0425 -4.33693
-17.4413 123.048 -0.353013
10.1163 149.186 -4.65
17.7512 137.217 7.81313
-12.0953 118.139 15.9633
-18.2014 136.003 -0.404991
15.9603 90.4507 -5.40487
-20.2917 110.486 0.420743
14.6652 102.565 18.5061
-18.7855 117.512 8.72611
8.79946 152.667 0.754191
20.2718 124.724 6.74723
-19.3336 139.151 7.54515
1.78292 85.6629 0.479214
19.1126 107.849 3.24125
22.9536 139.466 3.88618
-9.55257 132.839 11.6156
21.7588 87.952 3.37042
16.7914 137.755 8.1391
5.7288 101.131 -5.0838
4.50959 75.6885 0.112925
17.2477 97.6978 -3.81821
12.003 116.735 12.6703
-24.6434 131.813 4.91681
18.8271 139.412 -3.09324
13.45 95.7491 20.115
-20.3976 128.404 -3.7864
-6.10727 88.9223 0.357085
0.231722 143.052 -2.07565
-3.20601 82.0387 2.10787
17.9312 147.084 0.709821
6.39768 138.69 -5.28986
-9.4962 111.955 17.0056
0.0533892 149.609 -2.56746
-1.27307 141.174 6.93815
16.8711 75.4444 -3.79089
0.377191 142.003 5.47537
-18.5135 140.629 7.548
6.0715 143.755 3.70862
18.5484 107.307 16.4998
4.70624 113.143 8.05508
2.74322 106.625 9.50199
-6.68294 120.386 -1.73575
15.35 129.616 -4.75062
10.5252 120.669 7.90432
7.86661 80.4141 -0.207056
-6.65951 146.546 -3.95621
19.2925 108.699 5.00216
-16.7509 120.415 -2.21101
1.2838 143.791 6.01306
24.2912 128.912 8.27164
15.8848 136.777 -5.47183
-10.405 115.648 16.6335
13.6772 126.636 11.1185
2.71284 105.17 9.77078
-18.1534 103.517 0.0841236
-3.83536 100.966 -2.33296
17.9744 119.8 12.7928
-9.85983 131.418 -4.74581
6.14145 104.959 10.0022
-16.7634 115.42 11.1619
20.3826 83.1742 -0.599026
-2.53004 83.5072 1.56621
6.77306 131.701 -4.4621
17.1477 75.9033 -4.02614
-7.94477 132.856 -4.81068
-10.4777 133.52 -3.90465
0.050609 113.645 -5.60791
20.8317 122.277 -0.667565
15.5926 130.357 -4.67757
-11.8724 129.801 11.3301
20.5215 110.436 9.74152
-19.5311 137.858 0.939805
-26.5597 130.2 3.44299
7.35781 153.124 -1.03605
-3.85907 113.414 15.6687
-21.9978 131.431 6.70414
-11.2624 142.051 -3.12452
-18.5281 141.953 7.06627
-16.0738 122.316 -2.1321
-17.2925 124.262 10.1626
22.4248 83.8958 3.21148
6.69826 108.106 9.25364
-6.39565 134.191 12.4865
7.6127 112.854 8.26923
27.6667 124.081 6.49269
19.0163 134.81 -4.14235
7.246 150.588 -3.85872
0.225127 116.893 -5.43315
-19.3727 117.469 3.58005
-10.7693 142.045 -3.35516
11.5247 131.439 6.11224
25.0865 126.764 4.27426
18.9764 101.062 17.1577
-16.3576 138.822 8.41573
-9.63575 99.4207 -1.96058
-2.19729 103.075 -4.53315
13.5769 91.1462 20.958
-11.8062 129.472 11.9382
8.04282 123.305 -3.33369
-1.40173 111.71 -4.35458
-9.38357 150.986 -1.38167
5.50415 95.4519 16.4809
-21.9305 138.759 5.51769
27.8986 125.111 6.96133
3.05212 135.478 -3.50077
22.451 86.2381 7.19217
-18.7201 110.723 7.24094
-14.4113 145.793 6.46487
17.9735 121.797 8.46318
14.4108 129.687 0.100647
5.16238 139.033 6.03477
-2.20185 111.978 15.3668
8.52211 123.536 5.92229
20.945 91.6697 0.605437
-1.91918 123.366 13.2365
3.09683 79.052 0.615753
12.5367 143.345 5.30481
20.03 146.528 0.580203
2.69992 139.771 8.5724
18.6828 123.99 -3.5747
-17.786 128.446 -3.06787
13.2375 92.5438 20.2768
-13.7677 147.118 5.28197
-15.3973 119.354 -3.54352
17.3885 129.039 2.49993
-25.857 128.306 1.55654
20.2992 111.992 12.6944
-1.93894 119.113 -1.77981
15.9646 136.974 -1.31373
7.94052 152.473 -1.30074
3.46363 139.485 -4.46352
-0.636051 100.229 12.1666
15.478 127.672 -2.56399
13.1333 112.742 16.2619
16.2694 137.447 -4.10551
-5.89025 140.893 8.00054
14.9912 104.526 -4.93157
15.9723 136.218 -5.53005
18.2639 119.277 7.6647
13.9027 93.687 -6.15974
-11.8646 140.1 -2.61562
3.12663 130.952 -4.27208
-15.2275 116.461 16.5871
-7.28366 144.889 -4.33488
-1.47748 130.843 12.3864
-19.3208 114.921 -1.49071
4.00035 143.937 -4.65397
15.0621 124.887 -2.28652
14.3138 114.522 16.4374
-18.7777 119.651 9.95583
-7.95477 144.556 5.61459
16.6716 138.266 -2.95808
-14.0396 99.1544 -1.41678
8.93291 123.055 -4.48316
6.14158 131.677 5.51964
-2.53535 104.599 -5.53533
13.4058 89.8024 -5.68119
21.2641 125.156 -2.60687
-0.0830422 128.666 12.3408
-22.2823 132.205 6.56183
17.6678 120.96 12.1311
1.446 108.179 11.3768
-25.794 121.844 -0.743378
23.5364 129.526 8.46706
22.0327 99.6658 9.51094
-0.190296 119.207 13.8458
19.0633 140.041 6.43129
13.2642 131.316 -6.92092
18.8002 126.179 -3.23103
-11.0909 127.555 12.9706
-11.7665 148.84 -0.230751
13.1095 138.834 -6.62012
17.3263 129.446 2.48612
22.4852 87.3165 6.98544
17.2373 143.639 -1.79423
-17.0136 122.124 -1.27365
19.6908 98.1262 -1.88818
5.74534 100.886 11.3398
8.7753 87.675 -2.86938
11.342 131.212 -6.19214
-10.7539 122.985 -2.89208
15.4276 121.493 -0.233447
2.38121 101.877 -5.26226
11.3498 103.762 17.907
20.2734 90.8152 -2.01114
9.63762 117.856 -5.60319
-5.79122 134.809 -3.70904
7.93945 101.529 13.1644
-28.3652 125.152 1.54809
-18.4701 124.478 -1.64151
18.6398 110.744 0.251507
1.25983 104.086 11.6332
-13.5146 95.1687 -0.281418
-21.974 124.416 -2.45868
20.5311 112.781 5.28935
-4.54972 140.904 8.0877
-5.67186 105.895 16.6307
-12.371 129.234 -2.76479
16.6973 134.846 -3.28493
-7.20279 117.093 15.5879
19.407 118.623 10.5575
-20.3095 140.369 1.8968
17.1311 141.432 7.14541
17.4513 115.974 4.54771
-12.942 128.014 10.7758
-24.2327 125.059 7.90342
-22.2262 136.592 2.12272
14.2887 146.19 -1.50963
-2.1342 90.2043 0.100444
-21.3137 132.694 6.88236
1.36715 118.785 11.4809
20.6023 126.061 5.9114
12.9836 135.337 8.76389
22.3376 76.8599 2.68121
-2.17031 127.492 12.8197
-0.241818 115.988 -5.10871
-0.810186 119.657 -3.13648
-17.9725 121.459 9.71331
15.6717 94.8314 -5.51436
-18.3899 119.821 -0.611353
18.4943 124.882 2.15754
24.7643 132.943 0.486052
-17.6383 118.052 -0.646175
-0.115423 150.134 -2.48764
11.4844 90.5706 -4.9313
19.9143 93.1711 17.503
-7.53587 122.374 -1.64958
18.3818 126.941 -6.18395
5.893 96.1616 17.1889
-1.99484 136.507 11.4396
15.845 138.543 7.91355
17.6069 121.51 1.42388
20.0227 123.482 -1.69282
4.81919 132.062 -3.73031
10.661 113.973 10.2309
2.09344 98.3561 -2.69377
-6.00193 134.113 12.5534
3.21805 113.779 8.53556
-7.65149 90.9235 0.255975
-1.45821 110.756 -4.4135
-19.8135 117.02 3.74417
-5.20472 104.159 -4.64315
-8.14667 142.482 -4.48162
-0.490588 127.634 12.6447
15.9053 125.43 -1.74224
21.7329 93.7438 13.0181
-11.7694 136.005 8.6827
6.72616 145.764 -4.95678
17.7066 101.553 17.9145
-1.10418 119.231 -2.67332
-15.0584 116.901 16.7449
15.8673 106.422 -4.4092
-11.349 97.8752 -1.21925
22.4936 123.506 -3.13227
-18.3237 121.189 0.663418
3.94132 139.179 -4.88654
20.5475 126.536 5.91667
-19.6513 98.9782 1.04875
21.4686 123.193 -0.570116
0.765355 119.631 -5.16105
-15.2444 130.549 -0.723178
-3.81299 148.459 -1.92815
-7.11313 120.364 -1.86922
18.989 130.629 -4.78366
-15.8433 128.333 -0.521547
16.8135 116.104 -3.90906
-8.55352 149.643 3.27825
17.0019 103.785 18.4302
-9.96073 151.319 1.69198
2.31251 110.469 9.76711
13.7876 87.6179 20.9022
15.7543 129.094 -2.65032
22.0469 92.1411 10.6946
-2.45153 148.703 -1.80997
21.0686 86.0347 -0.0753768
-5.74402 147.471 -3.61986
8.32228 143.29 2.27794
-14.184 131.993 9.47063
-17.0522 120.337 13.2403
-25.1721 120.469 0.216445
-7.71868 86.1727 1.6038
8.66503 111.645 -6.27586
-7.7745 135.632 9.83147
23.9246 130.352 5.83284
-20.2794 122.153 7.09329
-15.1223 128.056 -1.01825
5.56235 100.014 -4.52715
-7.41639 144.032 -4.41396
-10.3302 135.43 9.195
22.6541 79.6802 9.64721
5.99787 98.4445 12.9214
-2.0524 91.679 -0.0725873
-12.8215 116.93 16.5476
-16.8181 121.967 12.085
-0.484862 118.553 -3.88624
8.03038 118.863 -5.06186
-3.92911 111.223 -2.16779
17.8573 142.533 6.59406
20.9431 111.376 11.0136
-20.4864 109.507 3.93537
21.9107 98.9174 11.1028
0.990912 100.788 11.2123
13.5227 100.695 -6.51007
19.9395 126.475 6.4929
1.68104 97.4841 -2.09577
19.3341 102.476 -1.19728
16.0859 102.033 -4.58772
16.0089 129.304 2.94213
21.3222 144.049 0.479599
11.2199 131.899 8.80991
-4.41511 128.778 -1.19173
16.1615 139.283 -1.29991
20.707 113.09 6.01187
16.1625 112.667 16.2803
-10.6884 127.048 -4.96566
5.79534 137.977 -4.88517
-0.702255 90.5329 -0.0986115
-22.0736 124.382 5.79394
18.1011 130.486 -5.9386
5.2598 135.985 6.03052
-20.6601 122.179 6.17596
-15.5622 103.037 -1.77433
24.4869 126.143 -1.40356
20.9288 77.8573 12.8481
18.7095 123.649 -2.71909
-13.2532 137.879 -2.7327
-4.9714 139.197 -2.98195
19.2902 125.614 -1.88268
15.5747 86.3186 20.1811
22.0969 90.107 12.181
19.0464 118.023 12.1237
17.3536 140.733 -2.54311
-0.743397 144.473 -1.74423
18.6024 84.9735 18.5071
-7.29799 102.296 -2.39205
-22.4728 124.96 7.85904
13.8204 139.201 -5.59499
22.7745 81.172 6.37594
-22.4583 123.185 7.80166
13.6164 112.383 -5.54233
-2.03114 144.224 6.62932
-14.3205 116.695 16.8257
14.1999 97.1783 19.3345
-6.57739 100.572 -1.53154
6.0763 128.264 5.43367
-12.1366 103.725 -2.85467
22.8348 81.7077 6.33891
-24.0098 124.408 6.93013
-16.7309 118.161 12.7896
-28.2785 124.79 3.00936
9.22444 139.132 -6.41673
-13.7389 128.891 -2.78496
7.57064 115.237 7.72665
-8.29474 134.435 -5.23899
8.12415 89.0215 -2.51513
-2.20041 140.601 -1.51503
9.35081 105.34 12.3025
-8.81238 139.733 -4.55979
2.55698 107.257 -6.20457
21.9975 79.9667 14.1071
18.466 114.949 0.156931
13.8432 149.451 0.028114
6.85006 115.587 7.46856
-2.10764 105.148 15.0983
-1.99662 126.191 -0.982646
0.215115 105.665 13.6257
-25.9532 121.298 2.15499
1.12147 142.663 5.71993
9.31664 100.425 18.4232
18.018 128.082 1.68462
-13.6822 106.097 -2.19637
-8.44786 147.202 4.44886
4.85231 130.489 7.4446
11.8487 127.429 10.8136
8.31208 82.366 -1.04445
17.7815 114.605 14.8798
1.98524 106.778 -5.99581
8.35133 86.4689 -2.28723
9.93996 102.534 -7.48699
10.6847 93.9125 -5.3969
16.9205 114.535 -3.39235
-21.9672 122.757 -2.63709
13.574 101.955 18.5597
16.2466 108.817 17.3601
7.79122 152.187 2.35249
18.7765 100.777 17.3612
-12.8661 101.101 -2.03335
17.2158 128.64 -2.46897
-4.45896 140.721 -2.77726
16.0217 132.113 -5.23613
11.6884 146.794 2.13283
7.6978 151.859 2.16479
8.97713 143.632 -5.88979
-19.9911 117.251 7.26635
2.39941 109.435 -6.20282
16.8696 116.287 -2.57986
1.71226 96.3893 12.018
-19.5046 118.412 6.67044
15.9984 130.259 9.28234
4.57851 139.383 6.80469
-20.319 121.531 6.96749
21.1159 97.3477 2.32438
17.0898 125.08 -5.1225
15.7882 135.153 8.84479
-0.172656 106.794 -5.74158
-5.22927 142.68 -3.3266
8.21853 101.295 -6.86028
4.913 106.646 9.23617
-0.956036 95.3824 -0.823976
12.8215 147.674 3.20346
21.2808 82.7842 17.0312
-14.6184 92.0052 0.230891
21.6781 121.92 5.47325
12.8032 147.58 -3.54126
3.0953 111.934 8.82262
-19.107 142.017 6.51334
15.8968 123.744 13.1677
-17.9682 113.005 8.31405
22.0755 93.7356 9.91076
19.0519 109.057 -1.48772
13.447 148.157 -2.50526
21.2686 125.29 -2.90139
15.8341 110.301 17.5768
23.7529 136.927 3.79433
12.8212 91.4523 20.375
22.62 88.0221 9.67296
-16.961 114.912 9.79904
14.3552 148.847 3.84135
5.22832 87.0704 -0.506923
18.7755 101.467 17.1236
6.34916 127.261 -3.11431
19.69 110.457 3.52493
7.3623 108.37 -6.51223
12.9862 132.966 9.38503
-18.0309 131.549 8.40055
-13.4875 100.041 -1.86573
22.6062 80.7086 11.7601
-9.58109 137.418 7.96408
-27.6699 127.782 3.73758
-6.20782 133.582 -3.82882
-9.15084 145.028 -4.29822
11.265 147.201 -4.85119
9.76206 128.462 -5.70459
3.7892 96.9132 12.2456
5.30298 108.05 -7.45184
16.1776 117.266 -0.264386
12.0116 110.79 13.3948
-19.9574 121.382 6.02428
14.7425 125.811 11.3188
18.2187 116.363 6.69477
20.7431 90.096 16.047
-6.2665 114.978 16.0376
8.30601 118.807 7.10106
14.0878 142.128 -1.45036
-15.9664 125.415 -1.71371
-19.7897 121.944 6.30288
-1.21028 139.838 7.50581
-17.6087 126.986 -0.820452
-14.1639 125.12 10.6387
17.8656 123.745 1.54393
-14.901 130.382 -1.21099
4.20952 109.311 8.74967
-25.1334 123.486 6.69183
-6.37899 149.385 -3.27333
-10.6606 151.033 1.34444
20.4885 97.0963 16.3414
20.157 138.138 6.73379
24.2255 130.837 8.57874
-3.29827 103.499 -4.56576
-4.45244 83.2586 1.72261
12.5461 88.7659 -5.12614
8.25193 118.547 -5.24368
6.08563 92.1588 -2.09509
22.4523 79.2779 3.21493
17.8893 100.63 17.9734
-7.99566 113.027 16.6444
-17.2313 126.755 -0.118956
-8.17128 109.47 -3.45692
22.5662 80.7139 4.53321
5.25566 140.259 5.22502
13.4028 104.015 18.0863
4.7277 148.747 -4.10967
7.7111 97.344 18.762
7.92781 117.67 7.21638
23.052 138.329 4.11328
21.0291 96.619 2.38691
-10.7242 128.302 12.8823
21.2384 78.1499 14.3355
21.7971 123.062 -0.310575
2.73186 141.443 8.32706
-14.9279 128.893 -1.43491
25.0049 124.631 -1.19052
17.1533 126.102 -0.0258962
7.49595 118.441 6.87365
11.7416 134.45 -5.88643
18.2684 78.0722 -3.68552
5.28319 140.969 5.01093
-1.99944 78.9539 1.5084
-20.1131 121.465 -0.811662
2.39126 83.1278 0.797555
14.1701 144.43 -4.15424
-0.232323 151.448 -2.48101
21.4268 80.2087 15.5451
-0.110359 107.845 13.9252
16.482 149.765 3.0258
21.0684 77.4962 -1.7801
-17.2109 105.015 -0.50927
-20.0615 117.557 6.72279
5.49696 122.557 6.30935
21.502 124.569 -1.13209
4.76319 79.5588 0.16389
9.21207 86.6307 -2.91392
7.10734 95.939 18.6461
4.237 135.424 -4.69367
6.56925 143.484 -5.49676
-6.53144 127.287 -1.99568
-23.4405 131.493 0.388062
8.97626 112.847 9.24267
19.0361 106.481 -2.12698
3.34852 88.5055 -0.377468
-21.9205 128.015 -3.55655
20.2345 122.483 5.64344
-0.181836 90.7762 -0.151658
-24.5554 134.729 4.93163
5.2256 115.173 -5.32683
19.8875 133.971 -2.94728
6.89717 101.928 11.6551
-4.92411 122.901 -1.04269
11.9951 132.015 9.57031
15.8321 89.1739 -5.41398
22.7654 81.0902 8.20775
0.386711 147.35 -2.59243
-24.6861 121.488 4.60575
15.081 146.227 5.26353
20.9581 77.9044 12.5279
-17.8204 126.725 0.582947
19.5858 123.743 3.85749
-0.49642 116.001 -4.7543
