ply
format ascii 1.0
comment Created by Open3D
element vertex 1906
property double x
property double y
property double z
end_header
1.00282 85.2829 -3.89875
-1.76584 125.345 4.60075
4.65443 120.97 -2.05528
16.1351 115.965 1.23922
-3.85458 78.2819 -14.4945
18.351 126.907 -5.20873
-5.90355 98.0165 1.60656
-19.9428 126.208 -3.16854
-4.35869 113.519 5.72015
2.19222 117.376 1.90739
12.5574 124.45 -13.8966
-1.32924 133.529 3.95966
0.40903 127.284 5.20009
-23.8725 124.544 6.43383
11.865 124.994 -13.4313
-25.5544 127.05 -1.2484
7.46104 124.667 -2.73735
10.0751 113.561 -2.32433
-13.0174 98.1844 -11.5193
-18.5608 121.841 -9.3206
-7.0231 118.433 6.66225
18.3171 78.5028 -5.70228
3.21859 112.364 -2.75279
7.69136 103.928 -17.5051
5.7134 106.444 -3.22593
-23.8095 123.722 5.04833
-22.8268 120.824 -4.08728
-25.0544 109.685 -1.83902
-4.80285 123.672 5.4197
1.40494 118.041 -15.9518
-30.8782 97.8304 -10.5384
-9.95903 118.58 6.94563
-21.04 124.266 -5.85653
2.34052 86.6474 -2.9264
17.2163 126.46 -7.25372
8.02125 87.5647 -3.36988
-17.067 77.8215 -6.43476
0.4071 84.5758 -15.3472
-2.69499 102.955 1.63344
0.898413 113.464 2.46131
9.69223 117.648 -17.0351
3.92324 132.552 4.2764
-8.05657 119.429 -11.4381
4.80156 99.3448 -17.5352
3.55048 120.45 -0.0396344
21.5615 134.967 -3.03832
-26.8913 89.0216 -11.9219
-1.53581 84.8917 -14.9935
-16.1752 86.2891 -0.424451
-20.0515 109.023 4.94442
-5.00668 91.6863 -1.609
-6.97224 81.7743 -4.45466
-14.2341 125.565 7.54634
-10.2591 126 7.06204
-1.72485 128.275 5.13358
-23.1281 125.994 6.35412
18.8939 94.5287 -10.7456
5.3604 134.429 1.67015
11.9769 119.622 -0.352189
1.20766 97.6666 -3.0469
-18.8859 117.712 5.57258
-15.6869 102.046 -11.6217
-6.38258 116.285 6.59993
4.22605 89.7141 -15.6665
-21.1865 120.695 5.06321
-4.42651 118.769 -14.7969
12.4816 91.6049 -1.2076
-30.0928 81.9277 -5.65712
18.6179 78.1986 -11.0679
17.5608 135.882 -2.56481
-0.717373 118.854 -15.3331
-9.777 100.655 -12.5936
10.5081 111.066 -16.7918
19.1046 111.806 -2.16641
-1.31475 89.0048 -15.477
10.2612 103.299 -16.5549
-9.42191 115.609 6.51752
-6.57359 127.323 -6.5588
-12.013 114.565 6.86622
-32.8396 86.5972 -7.88834
-8.84907 121.876 -7.72546
18.7343 84.3364 -3.07229
1.65304 98.4757 -3.08278
10.2047 118.578 -14.2278
-25.7931 80.2003 -6.90553
19.0777 92.815 -1.60596
-22.1725 111.938 -0.162289
-31.6777 96.1825 -7.96006
-14.7346 107.828 -14.4777
3.09698 117.251 -16.3547
17.705 115.844 -6.57952
5.95318 83.1463 -5.82106
13.5544 129.207 -7.53186
-9.93996 83.9814 -1.30414
-19.5587 124.209 6.65139
-17.4634 89.9352 -11.1809
-1.29377 117.054 5.19358
17.8233 106.108 -0.0704035
0.399203 83.2877 -15.052
19.5505 78.5792 -6.3968
-16.0348 125.971 5.53803
2.3414 127.54 4.36478
13.7429 117.054 -10.8104
19.2096 105.017 -8.11677
-18.0117 134.89 7.27802
-23.1716 123.287 -0.530802
-20.4851 122.222 -2.68663
-28.9216 103.4 -5.1271
-14.8335 115.446 7.37126
13.7021 78.9759 -6.07984
16.7841 120.394 -4.23178
-5.37591 105.097 -16.0434
-28.5688 122.685 6.73471
-12.3576 84.5745 -11.6924
0.792228 116.451 -15.7605
10.8141 128.109 -8.06469
17.0093 109.06 0.355742
-29.0093 105.672 -7.67934
6.60089 93.1974 -0.380078
9.0859 103.079 -17.0957
-13.2339 126.932 7.37232
-11.3523 107.587 -15.9696
-8.60804 95.9508 -12.7056
-11.6386 108.326 -15.9598
-27.4944 106.257 -3.17272
-11.9997 131.902 5.4509
4.14311 93.1594 -16.8113
17.5876 107.868 -0.112174
-22.3104 123.281 -1.55935
0.980773 103.786 -18.2496
-19.1489 133.972 6.28619
7.99436 82.4467 -13.1796
-0.805119 108.357 2.19193
-24.9549 116.913 -9.02368
10.4715 76.3887 -7.55036
-4.59529 102.076 -15.7422
-12.6108 80.1207 -12.9311
-29.8981 125.744 7.26346
13.5084 93.7604 -0.858802
-4.75742 133.648 3.49157
13.7597 94.8022 -0.872226
25.2857 128.971 -12.4162
2.82709 98.6309 -3.23854
-15.3369 129.294 5.48174
-29.5847 84.2289 -3.9583
-24.2037 119.898 -1.99178
13.7527 90.8399 -1.64512
-17.0911 102.411 4.76621
16.9821 108.304 0.522405
-21.8402 124.246 -3.32091
0.830379 109.719 0.416056
-11.007 121.865 -7.12209
4.69393 112.744 -17.3987
1.84378 78.8404 -12.7226
-9.76925 104.307 -15.2833
-7.65643 86.7102 -11.9919
14.5401 110.006 -12.8744
-23.4503 85.6214 -7.99878
-23.0303 123.203 -1.4742
-3.28648 98.9936 -0.278693
-2.11722 83.6381 -5.11571
-22.4101 126.727 7.67842
-13.9026 91.6029 1.81993
20.3689 99.6996 -5.39538
-12.6994 102.622 -13.1584
-6.98881 107.316 4.42467
17.5514 91.6057 -1.52819
-28.0231 88.3542 -11.6417
-29.3099 96.339 -5.13974
11.2705 92.3733 -14.3354
14.8213 124.492 -8.92219
14.785 109.338 -12.1
-26.0402 108.834 -9.79703
1.4263 114.991 2.22611
5.96256 129.094 -0.938219
-16.6032 104.451 -11.9799
-26.8034 100.396 -1.80759
-27.4773 124.394 7.74485
-13.2616 84.4799 -11.6757
-23.4279 123.107 3.78062
22.4453 132.797 -4.02603
9.25312 102.499 -1.96285
-6.70004 118.751 -13.8494
-18.0621 127.568 6.72246
14.8545 110.033 -12.4859
-22.2689 83.5672 -11.8981
14.6335 75.4404 -11.5586
-29.1247 106.393 -7.55115
-1.91853 103.193 1.17312
-3.22914 129.598 5.0445
14.3418 79.7911 -5.6902
13.9365 84.1056 -12.3647
12.6077 106.899 -0.0140303
-20.7008 117.349 3.68417
17.7869 116.729 -0.476825
21.419 129.37 -4.48799
-23.9024 97.0475 -1.53119
5.84578 131.334 0.0783453
21.9691 136.889 -2.85849
-16.1533 76.7445 -5.96688
17.5639 102.104 0.271409
-17.9508 127.32 5.56746
-23.4304 112.35 -11.3676
-23.2594 122.193 3.10021
-23.4347 97.5714 -12.8368
11.7568 128.987 -9.45284
-28.8819 80.6584 -5.44641
-7.21042 105.081 -15.8635
12.7545 125.658 1.85659
-13.2167 107.707 -15.3062
13.625 125.668 -6.54271
-9.25667 116.656 -11.7092
1.7097 83.2949 -14.8409
-10.1692 134.226 3.4128
16.8092 113.209 -8.32391
-19.7613 88.8151 -10.2068
3.3193 113.082 -17.0737
-19.2354 112.316 -10.9346
-28.7366 81.1695 -6.45221
11.4217 129.143 -8.47582
20.2229 98.8445 -8.71324
-6.13631 117.058 6.31752
11.0711 126.267 -11.7363
11.1036 77.4051 -12.4456
1.843 109.474 -1.80671
-17.7977 130.223 6.43771
14.9473 97.0613 -13.2971
-29.0881 91.4228 -10.6567
0.463779 116.273 3.75668
-3.12698 104.107 1.94607
-26.8896 99.6631 -1.92842
17.1614 96.0215 -11.692
-23.0655 100.694 1.00441
18.81 115.906 -5.0309
-12.4915 116.053 6.90089
3.17632 78.659 -7.52984
4.31666 86.2574 -2.7718
-17.1606 106.587 5.84361
-30.2491 83.1653 -5.21743
-23.125 123.267 -1.77652
5.51713 129.542 -0.120344
-30.4258 83.0368 -6.62551
-18.6127 118.755 7.19778
4.61368 118.638 -2.39284
-16.9881 125.475 6.29848
-23.0574 93.5098 -3.06956
8.02625 108.749 -17.0601
-25.7712 122.788 -0.661528
11.6757 113.756 -0.865405
-9.56306 132.882 3.62352
-22.4309 123.478 1.92278
2.92629 96.6591 -3.14515
-24.0193 125.444 5.46242
11.1789 78.5085 -6.67253
14.882 79.6891 -5.45696
-27.303 129.675 7.42272
22.3605 83.6583 -8.25301
17.3352 107.395 -8.8329
-9.93313 102.741 -14.0881
-11.0277 123.017 7.85583
-3.52063 102.906 -16.455
14.5851 118.025 -10.8799
-13.4785 117.759 7.09872
-30.0081 100.254 -7.91637
-12.3098 108.953 -15.2156
-29.112 128.599 5.14064
-21.0459 117.741 -10.9265
-6.86179 91.6473 -0.680799
16.2568 127.744 -6.18273
2.62793 96.2865 -17.1697
20.2756 81.8693 -11.3083
2.80845 105.067 -3.36403
-22.011 125.317 6.16058
-8.97799 97.4272 2.86887
12.3253 117.114 0.323715
20.2878 106.379 -5.69608
-19.6352 85.4361 -8.51885
-18.8557 114.096 -11.9389
-30.2357 100.503 -10.5938
3.1748 94.0067 -2.69824
-33.0918 85.8968 -6.92243
14.1572 84.4734 -4.649
18.5866 104.259 -9.43977
-11.1275 89.8849 -11.1808
0.291535 109.538 1.47708
16.5358 119.322 -6.33022
-20.0787 109.751 5.14566
20.5629 97.4311 -2.84209
9.54362 127.815 -2.35004
13.1831 104.59 -13.0897
-22.0408 93.878 -2.45221
5.06049 96.792 -17.2217
4.72603 79.9848 -13.2842
11.7593 104.521 -15.2188
-14.2405 113.379 6.62904
14.4214 122.904 -14.4068
-17.1578 83.9396 -11.0089
19.2815 87.395 -2.71868
16.2328 95.0958 -12.0088
-19.0033 127.893 5.64975
8.56193 111.163 -16.9646
-22.7722 118.544 2.36398
16.9099 79.5764 -11.5736
12.241 124.883 -11.5104
18.716 97.5596 -10.9597
-24.7211 93.0836 -4.44395
23.8149 133.581 -6.99974
9.0588 127.392 -2.52291
4.78299 116.819 -2.82043
-31.5727 81.2743 -5.706
15.2862 100.174 0.191559
-21.6557 103.842 2.7323
10.2202 122.33 -12.3989
-14.1735 87.1164 -9.45692
-22.1934 105.079 -13.0096
4.51564 116.495 -16.1092
-1.4583 118.366 5.17176
14.6236 90.7647 -1.36549
-22.9086 111.211 -0.404742
18.0778 83.4004 -11.5316
21.2426 93.7471 -4.09283
-5.7926 98.0061 1.47906
-3.56233 92.4031 -2.30903
-11.1548 91.1001 1.56295
-22.4594 123.411 3.59345
-0.835553 91.4024 -2.7543
-6.69244 122.025 -11.4613
-14.4559 99.7563 4.04571
-5.23847 97.8886 -15.5406
-23.1842 124.779 5.22663
-5.81886 134.486 3.08817
-25.3386 89.8324 -11.7264
8.05269 116.687 -2.97471
3.31791 82.932 -5.8854
15.2453 86.9457 -3.45253
11.1632 113.572 -1.68263
-19.4128 120.865 6.48318
21.1137 78.2743 -8.61664
-0.0355538 78.0647 -13.7751
-21.8952 93.0768 -12.2211
-25.8226 128.763 7.52382
-9.97294 118.819 -9.0151
16.8629 101.272 0.390939
17.2225 101.19 -10.9398
-0.288493 94.3249 -16.5509
-7.47845 102.607 -14.7986
-23.9282 122.948 3.83348
9.17069 110.902 -16.8632
-11.4697 118.839 6.89516
4.36209 136.713 3.90574
5.66885 135.692 2.2962
-14.2382 96.3552 3.34545
-25.2807 85.0242 -7.99678
-8.74035 89.6663 -12.8679
-5.88686 116.08 -15.398
-9.26715 115.288 -13.7309
13.0592 127.72 -6.55437
-15.8365 103.414 4.84091
5.94079 89.1561 -0.977601
3.87475 124.635 2.10831
16.9538 109.506 0.527396
12.9453 106.1 -13.8892
8.56952 105.581 -2.61467
-5.13214 109.163 4.63291
-3.41125 106.813 -17.614
14.1659 111.88 -13.6426
-22.0552 104.682 -13.0579
19.3085 104.925 -2.41468
-15.8702 104.137 -11.9319
-2.46302 86.2033 -14.4971
5.16174 83.4966 -14.2663
-24.596 88.6684 -11.174
-24.8324 104.5 0.159447
23.2069 130.883 -5.13557
1.22947 81.6427 -14.0908
14.6891 98.1233 -13.6694
-30.1037 120.906 8.72931
12.4106 129.716 -7.85926
6.22769 91.1152 -0.492378
10.9011 128.022 -9.65152
-6.56539 115.302 -15.208
-17.5771 103.163 4.93544
-31.2811 83.1645 -4.55873
-26.3437 106.656 -1.90181
11.7666 108.557 -0.987437
-21.3652 87.3362 -8.98655
-21.9204 125.871 4.76628
-10.9828 84.3347 -12.0474
-21.3513 123.914 -3.23019
-22.5511 128.609 7.76232
19.0099 106.457 -1.72051
-30.1988 85.6445 -4.45724
1.49528 88.0983 -16.296
0.335881 120.263 4.51431
24.971 126.337 -9.23677
-18.8261 109.941 -12.7759
-22.1372 122.719 -3.26109
-19.846 94.3652 -12.6446
-7.98697 80.5145 -12.772
-3.14495 97.8307 -16.8024
13.9505 113.104 -13.5235
-9.30202 117.088 7.22054
13.0824 124.582 -12.9193
-4.59063 102.027 -15.7506
-30.976 85.3798 -8.77148
12.1049 125.713 0.559791
-7.69826 91.5135 -13.9285
0.840628 109.311 0.0897836
-17.8513 79.7839 -5.63207
-6.21532 127.957 4.88572
19.7206 92.7462 -10.3014
22.2497 78.5544 -8.78877
-25.7308 82.3667 -4.67462
-16.9832 120.099 7.66572
-20.8421 122.357 -1.16129
6.30647 127.03 -2.16525
-25.1872 108.533 -0.921742
-21.8131 94.4103 -12.7503
3.80975 92.5456 -2.23036
-1.44612 116.51 5.14163
18.179 121.022 -11.6899
10.1843 116.389 -2.3475
13.3309 129.554 -7.73908
24.0394 125.211 -6.16833
-6.80474 76.6652 -7.20356
-27.2187 104.6 -2.50249
-4.90827 75.8189 -6.96764
-25.9882 101.288 -0.89195
-25.5327 103.217 -0.392649
-13.8731 117.553 7.35393
12.1655 95.5918 -14.5361
-18.1961 119.784 -9.89877
-26.2206 116.821 -2.3741
-20.3762 110.761 -12.2186
-27.3735 80.7722 -6.13978
-23.232 123.236 -1.54741
17.8443 124.014 -6.65524
8.97857 129.395 -2.4184
3.00327 112.166 -16.9209
22.3077 78.0542 -9.60879
-6.03699 85.7565 -12.8727
19.3911 90.4834 -10.4993
-27.2978 92.4558 -6.62327
-10.0652 80.1824 -12.3564
4.50703 128.665 2.82409
1.04748 98.6826 -17.6131
15.1036 129.999 -2.32349
3.97526 123.376 1.03026
-15.6067 78.7343 -6.51512
15.0893 116.339 -9.57203
15.8954 101.987 0.739052
13.6276 126.694 0.887855
-26.7691 97.6141 -11.6356
-23.7844 107.939 1.38387
-23.4396 101.662 0.899285
-28.1606 83.8359 -8.97701
17.6972 130.073 -4.12322
4.45352 115.6 -16.5356
12.1911 123.805 -7.40919
-7.06892 116.417 -14.7503
-4.86774 125.702 4.93095
3.15119 117.436 -0.801242
-7.42466 105.273 -15.9605
15.608 122.532 -11.9747
-3.04578 92.7156 -2.41634
-29.9731 80.667 -5.27422
4.84644 128.06 1.94385
-22.0708 124.573 4.02787
3.73117 122.299 -14.9402
-2.3276 115.586 5.4588
-2.79777 114.354 5.40235
22.0662 135.609 -3.26584
-24.152 116.762 -0.706004
-12.5069 121.619 -7.29748
-0.623945 108.323 1.96764
21.116 76.6809 -10.2662
-9.42969 117.802 -10.161
-15.7146 114.094 -11.9431
11.8721 126.527 -0.339098
-8.48599 100.721 -13.1442
-8.05375 119.803 -10.8987
-24.002 118.662 -9.12014
11.7555 124.17 -8.31288
17.17 116.9 -6.16562
2.09328 112.065 -0.963845
-5.23358 91.3571 -1.63036
-14.4265 136.069 6.8526
-9.37092 78.0684 -7.41295
-32.9671 90.3186 -9.00178
-21.0463 111.494 2.50924
-4.37822 115.772 5.84513
-32.5996 88.1969 -8.08126
11.5826 114.187 -0.94317
-7.67794 80.5297 -5.123
3.66474 93.1411 -2.42086
-19.2691 97.0022 0.570224
16.0224 76.4308 -6.67293
0.0499873 116.321 4.06071
-20.459 125.897 7.27427
17.4332 119.843 -8.64982
11.4421 102.156 -15.0877
-8.9012 102.582 3.09308
-15.395 117.178 -10.2266
-1.43776 77.1974 -7.77797
-33.6597 83.8447 -5.67088
-3.55905 94.1321 -16.0026
0.474118 80.1391 -13.6373
-29.5755 102.942 -6.37132
-20.3429 114.8 1.89541
21.0274 129.669 -4.48197
12.2347 117.524 0.155874
0.856961 111.976 -16.951
28.2693 126.443 -10.2396
16.92 126.22 -5.27101
-19.2685 128.758 -1.39643
-16.4329 122.907 -8.32728
-11.2446 93.2084 2.51677
-12.645 108.341 5.10399
21.1907 130.641 -4.59309
13.4157 124.026 -12.4781
12.8988 115.731 1.0991
10.7664 120.587 -13.9713
-20.0131 121.092 5.89467
14.2064 93.3838 -0.869646
6.39304 107.91 -17.6029
-0.207621 106.686 0.639697
5.26683 93.6477 -1.66058
-16.8273 115.951 7.68807
11.6807 130.562 -0.515811
8.50557 79.8704 -6.4597
-3.19292 101.259 1.04413
-24.3556 97.8024 -12.7324
25.8043 128.955 -11.6642
3.17002 122.487 -14.5103
23.2305 129.06 -6.00042
-30.8639 123.843 6.63282
-26.9347 97.2853 -11.4447
-4.99352 91.7957 -15.1619
-31.8289 87.9416 -8.47752
7.01767 117.947 -2.99995
-10.1585 77.2794 -7.33776
-23.7756 91.8808 -4.50084
-5.85997 92.7718 -15.006
-11.1885 86.9411 -11.1039
11.2574 125.08 -1.4846
-25.047 120.195 -2.68207
3.6821 77.9408 -13.3559
-12.0079 108.781 4.98041
-6.5141 102.743 3.00235
-17.9113 78.1754 -6.57949
-7.55419 111.63 5.21338
15.485 79.8168 -5.14528
13.534 124.02 -12.7569
17.4595 123.269 -8.50312
-33.0042 87.7907 -7.37858
-28.227 84.0842 -3.59729
-28.953 128.241 4.18995
15.2315 113.393 -10.9487
5.37914 129.31 0.511965
-25.2473 110.718 -10.396
-12.1074 109.404 5.24621
12.0416 132.645 1.54046
19.7764 88.0664 -2.7949
-17.4271 128.913 5.57482
-19.0921 99.2258 -11.7292
-26.6111 117.748 -4.50472
-15.4278 115.972 -10.8391
-9.40349 125.872 -6.24198
-17.0737 121.806 7.92851
-22.1824 98.7413 -12.6931
-1.79046 104.46 -18.1421
12.7932 84.7457 -12.7723
20.8608 77.3684 -10.7719
-20.2094 114.17 -11.564
-22.5339 117.718 -10.4233
-13.7249 122.283 8.65976
-21.7018 123.295 -0.772453
14.5678 130.06 -1.60258
14.1204 123.015 -10.8303
-20.3347 88.7534 -2.5598
-19.7858 119.914 -9.39432
14.7672 91.8301 -1.0349
6.47832 107.519 -3.13858
2.00844 134.891 3.68593
17.4512 124.195 -7.96634
14.7555 136.403 -0.718506
12.99 102.346 -13.5392
7.45009 89.4459 -14.9215
-19.3895 128.829 7.52914
21.2096 95.9792 -7.97891
2.46508 111.58 -17.0612
3.35339 126.817 3.49757
18.9705 82.3131 -3.53978
10.4797 92.8518 -14.8657
13.1178 95.1777 -0.459718
8.36657 107.835 -2.74546
-21.6387 123.079 3.77765
5.79911 104.079 -3.20632
-27.8323 130.29 6.32964
-21.526 96.604 -12.1279
-23.5003 77.7411 -6.06431
-28.7642 103.196 -4.65249
16.6205 76.5884 -6.55551
25.1134 121.924 -9.17714
-31.0081 82.7785 -6.43504
9.45822 105.503 -17.0173
-24.261 111.78 -2.94779
-18.8626 92.5177 -1.94202
-13.1033 110.209 6.13199
7.92784 125.58 -2.73212
17.2094 76.7542 -11.0635
10.8124 112.425 -1.9785
13.9546 100.27 -13.7561
-8.94386 93.3064 1.24094
-25.5065 129.859 6.82705
-27.3772 98.7767 -2.58384
14.8591 90.3371 -12.8093
9.39213 126.946 -2.43765
-16.3106 94.6583 1.27346
14.8679 121.828 1.44921
-10.12 111.447 5.43729
7.64752 105.383 -17.493
-13.6764 81.1444 -4.47349
-24.7535 124.57 5.41811
16.719 95.3582 -11.7823
-24.821 85.0393 -8.84885
17.5377 115.191 -6.43156
-9.28232 120.791 -8.07727
-4.55333 107.855 3.99624
1.62451 78.0307 -7.62273
24.8587 130.758 -9.1321
-19.3636 81.7673 -12.7067
-0.106464 86.9992 -15.4626
11.9799 108.455 -15.4319
9.59969 91.6056 -15.2323
-25.1884 113.44 -9.52687
-9.33137 124.011 -6.37277
-6.77816 99.8807 -13.9536
-28.3955 101.05 -5.18852
13.6204 105.955 -12.8771
-0.893136 113.172 3.80279
-22.3407 123.569 -3.99635
13.6529 119.371 -11.3305
-5.80602 96.8419 0.692966
18.9134 107.24 -1.62179
-25.6134 85.8537 -8.32464
-30.8985 86.588 -5.07226
-20.6206 84.1036 -9.00342
14.6018 93.2229 -12.8544
11.9009 101.83 0.350225
15.6736 90.2281 -12.4524
-28.2523 123.157 1.60747
5.83815 121.048 -15.5762
-14.4109 133.124 5.47119
-8.3277 82.1141 -12.3118
21.0637 127.311 -4.46707
14.5694 122.656 -15.4119
-22.5449 96.2268 -1.24728
8.68526 87.8834 -14.2349
-26.4598 95.6755 -10.9568
-24.7549 95.1429 -11.6414
-21.2197 92.4135 -12.5532
2.2384 118.542 2.3851
-8.009 78.2768 -7.40548
-1.00921 106.811 -17.8528
-7.29377 129.534 4.1051
-0.725409 113.057 3.64162
-20.499 85.5148 -1.89509
16.3546 124.351 -7.72586
-10.8645 99.8748 -11.8255
-3.93251 86.2061 -13.9842
-4.02926 91.8787 -2.22308
-2.65293 133.393 3.40974
-21.3241 133.716 6.20358
6.15216 76.953 -6.68884
-18.381 135.872 7.33269
3.49182 79.2375 -7.32227
11.4689 119.217 -1.24796
-2.03775 106.478 2.4606
5.88652 131.187 -0.500926
10.7554 113.137 -16.4956
-27.0389 119.979 4.55853
10.7624 116.471 -17.0078
7.83531 85.5836 -4.72248
-10.501 91.1112 1.3121
-20.1226 89.5121 -10.3973
-30.1532 121.608 4.14694
1.1806 114.857 2.70642
-3.51399 81.7135 -14.2281
14.8733 75.5251 -11.4806
-0.237843 97.6553 -2.76532
-20.9196 120.079 -9.40255
-23.045 79.6952 -5.78576
8.97999 106.581 -17.0974
-23.0484 133.038 6.08774
-10.3957 114.739 6.42534
-21.021 101.08 -12.8903
23.3315 127.016 -6.33063
12.7718 137.597 0.713254
-19.4786 124.897 6.33436
-14.7769 89.0339 -10.5142
24.5312 121.789 -9.32286
-28.7456 107.68 -7.13415
0.750722 136.531 3.37913
-12.9472 107.34 4.82832
-6.91233 125.346 -7.57194
-25.0053 84.7327 -7.8586
26.2423 128.181 -9.28193
-28.6915 126.369 8.25874
5.61277 97.1685 -2.50738
-0.997937 111.756 3.4306
-23.341 99.2975 -12.8911
-6.23733 113.499 -15.5764
18.7016 125.455 -5.5068
15.2792 123.108 -8.14092
18.402 109.002 -1.11757
-27.872 111.357 -7.528
-23.6929 122.881 1.79835
-13.9352 92.3435 2.00709
20.4742 125.04 -6.13098
2.61616 138.602 4.24211
3.65419 122.044 1.11774
16.3739 86.3933 -2.93553
-28.6321 86.6383 -4.38034
-30.3381 99.0145 -8.64761
-13.1772 117.939 7.05295
-11.3839 79.3583 -6.26977
-21.5473 103.583 2.76203
-11.5626 117.052 7.13599
11.6788 129.923 -8.12339
17.9031 92.998 -11.494
-24.0956 118.222 -0.301126
5.76778 136.876 2.55402
-30.58 124.348 5.63563
-10.3153 132.85 4.25544
-24.0659 99.2036 -0.289972
21.9348 81.6507 -7.52035
-30.8586 81.6148 -4.90901
-17.6847 78.1422 -6.57957
1.68686 112.656 -16.9921
-24.7474 123.474 3.8635
15.8127 103.944 -11.3842
-15.9936 105.523 -12.0185
-24.2999 95.8423 -2.97129
21.666 82.5635 -7.89171
-19.9463 123.268 -3.54293
12.6693 129.191 -8.55768
-25.7712 102.852 -0.565721
-11.4558 81.2692 -4.64228
18.5198 93.7485 -11.0424
-22.504 121.34 -2.13405
1.86422 113.292 0.298127
-23.6088 85.4685 -7.97236
8.99155 98.4685 -0.429068
-25.6316 92.8149 -5.32244
-28.5774 129.825 5.81387
16.7328 122.514 -3.11846
11.6518 76.7655 -7.23007
-22.7287 98.604 -0.204363
-31.3495 81.2738 -5.46314
-30.1433 85.6974 -9.88266
3.83385 94.235 -2.60296
-24.164 105.607 -12.618
6.88113 107.557 -17.5177
10.8909 119.392 -12.6025
-1.82967 98.4114 -2.1593
8.91653 106.152 -2.54722
20.7945 102.233 -4.68312
-2.87203 122.678 4.46909
9.44955 119.004 -16.4221
11.5174 127.028 -10.6651
-0.974464 97.7343 -2.63195
-30.4326 124.834 7.05889
-4.31685 114.171 5.89764
-22.8515 89.5201 -4.02555
-26.4 86.316 -8.8073
11.6251 129.282 0.713859
19.7114 101.082 -8.52127
16.5681 114.327 -6.59741
19.6128 107.182 -3.24413
-33.1603 84.1309 -7.49086
13.3342 125.647 -5.0025
-4.02862 121.597 4.92197
-1.2683 82.7049 -5.83046
20.9883 86.0304 -5.13069
5.18306 105.367 -17.5159
14.4257 131.536 -1.05212
-23.3852 126.722 7.86559
-10.298 112.356 5.65929
-28.6958 100.901 -5.82381
18.167 128.754 -5.13475
5.66397 114.6 -16.9342
-9.62247 113.23 -14.6701
-10.0861 90.5308 1.14677
15.9787 115.136 1.3707
-4.81101 80.5827 -13.6044
-27.4748 124.286 7.02128
-0.174853 117.169 4.45136
19.3378 114.199 -5.2799
15.4059 128.569 -2.23929
22.1752 84.0391 -9.6517
12.1873 86.2832 -4.30717
-17.3327 79.5387 -5.93254
-21.5186 123.684 -5.01546
16.8195 113.311 -7.97516
1.70248 118.232 3.2438
-24.0807 123.464 -2.37601
-4.05092 100.806 -16.2541
21.145 83.0046 -10.6871
-17.0495 108.529 -13.9535
18.3996 115.299 -1.20383
3.98046 136.445 3.84601
18.7882 103.322 -9.54233
-24.9334 100.188 -12.4169
-21.2944 107.757 -12.5082
-23.4588 108.12 -12.7874
11.9788 112.074 -15.3002
-17.1289 108.488 6.34991
-20.2073 115.198 -11.6391
27.7824 125.074 -9.53302
-7.16265 121.705 6.95582
-22.9407 123.132 2.9166
-16.2664 105.775 -12.0332
-5.23037 90.6318 -1.71793
11.7755 127.857 -9.92578
-11.3474 101.653 -12.6591
1.7191 84.5002 -15.199
-2.16603 85.0191 -3.89073
28.5831 126.479 -11.933
-21.1107 102.643 2.79785
-23.168 84.4869 -9.74274
-2.81264 85.0282 -3.61228
-29.9668 92.3853 -6.51542
2.40397 91.6969 -16.7203
6.80449 81.7675 -6.81658
-23.8965 123.558 1.20163
-0.689436 135.504 3.68615
-20.5269 123.268 -2.26425
-22.1529 98.3763 -12.6107
-33.0932 85.9624 -6.56778
-23.1471 94.7686 -12.5135
16.9936 110.646 0.795047
26.6102 124.287 -9.48778
-27.8678 122.057 4.80316
-24.5014 124.137 3.20074
-8.51628 101.737 2.93914
-31.6652 85.3209 -8.08734
13.0011 97.6838 -14.6368
-8.31946 106.579 4.33561
13.112 81.2354 -5.85245
-27.9507 94.6924 -5.94087
-30.5794 80.7814 -5.43599
5.92198 91.8658 -0.574421
4.02493 85.0015 -3.74944
-8.36926 117.211 -13.5706
-31.6764 93.8649 -7.8978
1.0338 111.244 -17.1574
-32.5032 81.4007 -5.98929
-1.58311 90.4135 -15.9604
-18.7902 102.486 4.04566
-16.8217 106.404 -12.3368
11.6255 129.172 0.831411
-23.3407 123.684 -4.75102
-16.2226 129.489 6.11333
-6.63253 86.1888 -0.901392
-17.1184 86.1834 -0.825518
12.5088 78.2682 -12.3215
-20.4563 97.3579 -11.8972
-21.5557 124.36 4.06204
18.1364 131.956 -3.32232
-6.53916 90.7295 -14.154
-23.5333 122.528 -7.50132
16.4108 102.338 -11.3167
-12.4647 87.64 -10.1901
-29.3319 88.9508 -11.8419
-18.9797 128.071 5.57203
-30.1249 101.877 -7.69437
12.8831 97.7917 -14.725
11.4844 130.046 -1.02512
11.704 100.236 0.427364
-26.7606 101.82 -1.70173
-5.1716 99.0898 1.42056
-4.11671 130.949 4.20414
0.729993 134.225 4.21532
-27.7116 100.813 -3.52069
-4.64994 108.431 -17.3535
-10.8837 111.087 -14.1144
-16.9065 105.127 -11.8653
-14.333 116.124 -10.6056
-32.9995 82.5063 -5.47941
-10.5198 125.232 7.72432
2.27829 93.7209 -2.77367
-0.430114 135.153 3.80399
-15.5973 89.6292 -0.195931
-28.5519 85.2028 -3.86187
10.6876 83.3339 -5.85784
-33.4023 84.3313 -6.5448
11.4576 126.022 -1.28099
-27.7367 91.6494 -6.54534
-7.81232 130.291 4.32513
-14.6674 103.549 4.71834
20.0673 88.389 -2.93572
-24.6392 118.974 -3.90864
-28.1662 121.54 1.57269
17.9914 80.9334 -4.02687
-29.8563 120.425 4.84231
14.6694 124.725 -7.39725
2.51819 114.017 -17.0696
-0.654364 135.252 3.7763
-25.3003 109.499 -2.09591
11.1959 88.3594 -3.48782
-28.6763 107.83 -6.95115
-8.39647 124.17 7.52232
-9.41074 94.2152 2.17149
-12.3658 120.326 -8.23601
-26.0812 130.522 6.77708
-9.32376 115.245 -13.6185
16.785 121.853 -13.844
-24.1044 103.618 0.870158
9.5941 125.724 -11.9898
15.6918 126.355 -3.02796
-22.0855 123.745 -2.03349
3.12794 79.5366 -7.17585
27.4787 124.076 -9.35443
23.1286 132.934 -5.50761
10.1441 127.217 -2.1871
16.8285 126.817 -4.84663
3.69836 121.476 0.540089
11.7914 117.06 -11.5062
-21.9869 124.485 3.89066
-25.8843 125.671 8.14867
-20.5172 118.431 4.83736
-28.4053 122.845 6.27775
-12.6145 94.9643 -10.7633
-24.3431 123.119 2.86369
-18.4833 127.583 6.73256
20.1019 81.5316 -4.43976
-0.594167 90.1661 -2.41707
0.0753772 82.2592 -14.7583
8.29954 106.334 -17.272
-18.2153 113.844 6.52186
-15.7659 121.64 8.45275
13.8078 128.232 0.567737
-1.30273 87.6584 -15.0122
-20.7713 83.7732 -9.2002
2.01153 114.698 -16.8819
17.0231 123.735 -3.90984
-4.3794 81.8139 -14.024
-26.2381 110.484 -5.22263
-0.502901 118.358 4.96973
-6.44555 121.82 -12.1245
20.537 82.42 -4.8909
-30.0872 124.106 8.23996
21.5977 90.0108 -8.41337
-5.66733 107.676 -17.0242
-30.5374 88.3512 -11.509
-23.3635 124.337 4.99191
-9.82759 93.2765 1.78546
-10.1188 103.991 3.37049
-5.10509 129.779 4.65695
-6.65839 98.7547 2.32445
16.9756 87.5641 -12.3999
-29.0095 94.7883 -10.4747
1.0938 119.264 4.18846
4.48594 93.9052 -2.29448
4.15484 136 3.73343
14.1265 134.487 0.519807
2.06571 133.865 4.19833
-15.5177 88.3983 0.0896823
-25.1168 128.24 7.55539
-2.08338 117.963 5.22699
14.4529 113.197 1.44877
-25.0941 116.874 -8.89081
-27.2651 110.973 -5.7982
-2.22393 109.194 -17.538
4.81376 88.4671 -1.20076
-5.04182 86.0861 -0.92215
-27.9495 110.96 -6.631
-13.383 120.55 -8.35177
-31.9474 82.4147 -5.82282
-11.7977 91.7859 2.04422
27.4166 124.173 -9.33277
-21.3155 126.055 6.54509
23.1644 123.088 -10.3354
10.6145 85.1247 -5.10663
-24.817 120.976 -3.70357
16.0262 92.4507 -1.42694
-13.7625 125.147 8.07773
19.6439 112.758 -5.09187
-23.4771 111.938 -2.08965
-7.87482 103.344 -15.2089
-29.1259 123.408 8.64608
-26.2592 113.097 -3.3776
6.27751 77.0772 -13.8537
-19.7605 123.303 -2.73612
-18.016 120.889 -9.60751
19.8462 81.928 -11.3918
19.8821 101.047 -8.06193
-24.9497 122.323 1.66646
-14.2786 84.9696 -0.950648
-20.7726 125.371 -3.15217
7.6298 85.9514 -4.38725
-19.5799 84.7214 -1.72259
-31.632 85.5658 -4.73816
-22.932 117.244 0.326497
12.2076 110.012 -14.9654
-17.9362 99.2559 -11.5162
-21.8478 124.495 4.41335
5.33979 111.786 -17.4989
13.4059 94.1288 -13.3558
-2.30917 124.796 4.46473
-27.0023 101.34 -1.98511
11.1356 87.3892 -13.7789
-23.253 124.936 7.33287
-17.0385 100.373 4.04134
2.54281 118.028 1.58403
6.25437 90.5357 -15.0967
11.1946 109.852 -16.3338
13.141 127.091 1.36904
20.2034 102.897 -5.6752
13.7938 115.183 -10.0072
2.68412 109.953 -2.92048
-13.2232 129.08 6.13809
0.350172 96.3726 -2.97748
-5.04497 102.51 -15.3851
19.086 106.674 -7.04681
-24.1546 121.068 -4.26802
-21.1795 94.1736 -2.02364
7.10199 95.6935 -0.830295
-23.8561 122.951 3.51334
-18.2659 104.081 4.8788
12.7182 124.68 -12.2326
13.0049 131.161 0.744499
4.91523 112.371 -3.22045
12.7854 129.699 -7.10869
-11.0979 81.5118 -12.4427
13.5739 129.258 0.977317
-30.1169 95.9658 -5.71401
-28.6458 108.016 -7.81211
-13.6044 119.459 -8.99191
-16.8268 107.358 -13.2438
2.73578 118.912 1.62858
-0.584918 100.669 -17.8684
-22.9513 109.068 2.21546
21.1929 92.4599 -4.02613
18.0652 123.787 -6.73337
15.1539 116.106 -9.27263
-27.4652 91.6012 -6.30984
2.73269 87.2241 -2.29884
-4.45194 98.9323 0.512359
-9.651 122.853 7.53918
18.3041 77.5045 -11.0258
18.2195 116.814 -4.83229
16.166 77.5434 -5.98775
-26.379 98.6411 -2.09337
-18.0921 101.196 -12.0011
-0.327569 80.9576 -14.2521
19.9276 84.1477 -5.31134
-12.7058 105.717 -13.9646
-24.5721 94.6004 -3.9191
10.5068 76.3073 -12.9212
-26.0261 113.544 -2.89921
-25.006 112.653 -2.73384
16.1991 113.765 -7.42313
-22.9551 120.836 1.41647
-3.46129 84.9231 -2.83444
13.058 99.6554 -14.7512
11.4943 133.118 0.892837
19.6058 108.494 -3.05219
6.24237 110.701 -3.22854
19.3493 88.24 -2.47642
10.4402 86.381 -4.57379
22.108 82.279 -8.55759
-27.1049 107.357 -3.15995
-8.27642 126.76 -5.85857
-24.5742 119.615 0.409225
15.5291 103.995 -11.4975
17.4453 94.2665 -11.3821
-26.8781 111.367 -8.60286
4.13892 84.2665 -14.3867
-21.2414 118.179 3.1789
22.0356 87.1628 -9.13831
14.0391 90.3853 -1.84656
-20.0944 122.46 -3.08518
-2.39086 119.051 4.97787
-24.9719 116.08 -1.19985
-20.9836 106.402 3.41162
-26.259 104.005 -12.1136
-17.1392 83.947 -1.52457
21.3326 96.6158 -6.54087
-23.4713 104.277 -12.7335
-27.7461 131.644 5.55533
12.6039 126.418 -5.78678
-26.6951 121.173 3.20624
18.2166 80.1059 -4.36793
13.6212 107.707 0.807609
-29.2954 83.8023 -7.87755
17.6 105.413 -9.39947
-1.44359 99.5071 -2.17474
-26.4729 107.376 -2.36949
-27.1991 110.838 -5.81325
-29.5405 93.7056 -7.36317
-8.51222 118.462 -11.5792
-8.07028 112.472 5.50519
13.9504 120.625 1.8159
13.324 125.643 1.0841
-29.0014 123.727 2.65407
-8.24713 81.6973 -3.72137
-7.55276 117.235 6.89629
2.46735 94.1336 -2.84149
-14.6655 108.514 -14.7591
-25.3687 124.178 3.24726
-17.0181 80.3348 -5.12382
14.8536 126.295 -1.88038
-20.1215 90.8298 -10.9049
-13.1397 110.57 6.29191
-28.0422 87.6462 -4.64162
13.9501 129.408 -9.26791
1.07621 124.859 4.79078
-14.7597 106.786 -13.6343
-19.976 125.381 -2.89088
-15.3296 104.194 4.92582
5.37332 106.771 -3.27104
-3.06173 97.6143 -1.32729
-3.96635 105.604 2.85268
-15.0973 97.0817 3.52546
2.06476 137.676 3.92097
-12.7871 84.5568 -0.804848
0.572262 122.751 -13.2648
21.5402 95.3561 -6.57246
-1.55689 87.2649 -1.12896
-28.9589 84.9107 -7.61498
3.49111 128.855 3.4702
-30.2993 83.4911 -7.08988
-21.4048 82.6615 -3.25942
-30.4003 100.834 -9.12669
-12.2113 117.984 -8.97605
-19.9403 117.26 4.11495
11.3203 125.892 -11.7278
-18.2784 117.845 6.25101
-16.3712 118.21 -9.95699
-2.06602 86.6989 -1.43195
9.77016 121.668 -15.8158
10.9636 121.985 -13.9408
-10.1624 128.77 5.89286
-7.74941 100.857 -13.4684
7.81192 133.499 -2.05424
4.44151 76.8097 -7.33698
-0.836967 132.558 4.13116
-31.7081 94.5881 -7.72031
7.34118 125.36 -2.69393
18.3104 123.034 -7.41738
17.2318 120.603 -10.0627
-25.1186 95.2057 -11.3997
-8.90649 83.8774 -1.47608
-5.8253 92.6808 -0.750573
4.79392 102.537 -17.8927
-2.23559 75.8468 -8.15508
-15.8983 113.167 7.23925
-22.0465 107.784 2.779
1.80604 106.779 -2.61156
13.8534 128.338 -9.00227
-10.0631 79.8071 -6.06951
-4.32138 106.225 -16.6597
-3.36331 93.98 -16.0025
-13.9901 110.666 -12.3894
-2.06166 100.878 -0.67671
-22.9832 120.879 2.76541
-4.95124 89.1564 -1.80889
0.374233 105.634 -1.25091
11.466 103.904 -0.908249
-27.7214 91.6454 -10.8536
15.589 88.0608 -12.7297
21.1733 77.0255 -9.92363
-9.85946 112.228 -14.8246
-18.4012 88.1154 -9.67715
-30.4492 95.1637 -7.22413
6.68506 122.044 -2.75171
13.2951 125.584 -5.50154
-20.4772 124.538 5.79368
18.7982 115.347 -2.87849
14.5246 107.765 -11.365
11.9839 128.72 -8.90052
6.91429 122.697 -2.77694
-17.9755 87.5151 -9.10609
-23.4366 84.6841 -7.86086
16.8356 80.3004 -11.7332
9.38645 94.3112 0.149658
-30.824 86.814 -8.62801
21.5619 80.5487 -10.4293
10.8402 99.0045 0.430777
-33.0561 82.5801 -4.07503
-24.0273 106.279 -12.6383
10.9371 129.295 -1.5318
13.4706 124.075 -15.3374
-6.32088 125.988 -8.07246
-5.52376 80.8433 -5.96023
-4.48505 87.8908 -14.0266
-30.7042 122.579 5.12938
5.0985 79.8058 -13.1272
-18.6275 129.469 6.66549
-21.4104 124.664 -0.0757448
0.225894 97.7522 -17.5016
5.7295 94.1946 -1.54051
4.97303 104.104 -17.5835
-24.4813 124.794 5.16676
-0.317781 77.6027 -14.7753
-26.3082 126.11 -0.551944
-24.9559 120.794 2.19695
-29.9753 122.806 3.57612
13.2868 77.9206 -12.2138
20.1905 84.6734 -5.4945
-22.5792 85.4097 -2.71713
-26.4732 103.25 -12.1863
-8.38437 119.901 -10.2009
-25.0824 123.421 3.5525
-21.2136 115.877 0.899845
-26.6672 116.961 -4.41858
-23.6968 124.242 5.54162
1.16061 79.2252 -7.16639
-27.5494 99.8051 -3.02811
17.5315 118.563 -1.07148
11.943 115.026 -15.7085
18.2925 115.482 -5.27069
-24.1787 86.4987 -8.84181
-9.08913 131.395 5.07947
2.94292 114.314 -1.77557
0.523306 87.2673 -15.6942
-5.10755 79.3825 -7.10073
13.5671 104.595 -0.0125652
-8.80461 107.944 4.69763
-19.0589 110.833 -12.6218
14.4532 117.359 -10.7755
11.495 112.514 -15.9578
-4.43985 97.9278 -16.0726
-28.8568 101.105 -5.99135
-10.2956 87.0104 -11.2703
-3.6084 113.068 5.32269
10.5312 107.364 -2.01926
-4.67015 88.4235 -1.87095
2.70807 121.049 2.51519
18.6033 77.8264 -7.81221
-30.2395 83.3932 -5.15322
17.8014 116.878 -0.55674
19.192 107.142 -6.6301
10.5964 88.5431 -14.2457
-13.0173 105.201 4.15559
14.4537 91.0185 -13.0399
-22.1653 123.563 -1.65611
-22.7902 109.641 1.77376
-16.8635 106.36 -12.2543
-26.1905 114.315 -9.07119
1.03035 93.8079 -16.8015
12.6284 123.748 1.82605
17.9886 132.934 -3.28355
1.94627 138.324 3.88367
-14.1798 99.5318 3.92258
-5.8001 83.5037 -3.33419
-3.79631 98.1108 -16.5189
8.29415 87.2991 -3.65836
11.1207 116.254 -1.66581
1.35872 103.498 -18.2238
-23.7721 96.5324 -12.6572
-3.439 100.508 -16.7118
8.75561 112.469 -2.77433
-22.9704 125.005 -4.16233
-7.38661 117.424 -14.0291
-12.3808 124.646 -6.58848
4.10668 111.404 -17.1346
-21.9233 109.225 3.33536
-21.8961 123.086 -0.452456
2.99105 100.864 -3.13557
19.82 82.4141 -11.4162
-1.36685 119.557 5.12862
-23.7717 122.909 2.38985
-1.14365 96.2089 -2.73528
-25.9517 114.591 -2.41591
-6.6274 99.0709 2.44388
-7.49559 113.378 -14.939
-20.3303 98.827 1.46151
-14.2143 84.3292 -1.2001
-14.8922 127.465 5.52689
-11.6605 112.15 6.14455
9.58819 90.7268 -15.2641
-23.9244 110.698 -1.13707
-22.0225 123.693 3.60028
-1.33751 77.6657 -7.55638
4.72402 95.2611 -17.0745
17.0143 113.923 0.766783
-7.59202 98.8637 -13.4139
2.92324 124.109 3.34334
-3.91289 135.499 2.52847
8.0757 88.8767 -2.28347
-22.6644 88.1009 -9.2533
13.1123 114.717 1.16726
-10.3095 90.6292 1.24452
-6.83572 116.656 6.71398
12.2715 131.492 1.44468
-14.6193 86.0438 -0.520735
-17.3849 90.6018 -11.2393
16.5611 117.352 0.919438
-20.0383 114.875 2.46325
-16.8734 86.2747 -0.8124
-20.7573 124.162 -1.54757
-22.9321 122.156 -5.82677
13.2797 84.5454 -4.81281
3.61612 92.8626 -16.8096
1.28004 131.907 4.9354
-7.89012 103.661 3.47905
-14.1753 118.866 -9.28377
-3.46252 118.571 5.07062
20.0356 102.33 -3.26925
-9.97006 102.134 -13.5179
1.50363 96.3491 -17.2624
-6.55764 79.2092 -7.06899
-15.6029 91.7581 -10.7555
9.78508 100.777 -1.11843
-12.4298 84.5548 -11.7015
-21.2018 121.307 -1.33159
-7.15833 109.774 -16.0171
-31.6143 88.2187 -8.53911
18.7863 87.4978 -2.4452
6.96279 80.6329 -6.62375
0.586256 104.181 -18.2674
-19.8975 115.15 2.69145
10.2325 104.76 -16.6566
-4.92699 86.0456 -0.940338
-21.9919 83.8694 -3.18618
21.5798 93.3195 -8.47423
-11.9827 100.655 -11.638
19.825 78.9935 -6.64522
-23.1178 120.38 -4.2075
20.4067 107.486 -4.71891
11.8836 96.5315 -15.0178
10.52 113.29 -16.5299
10.1266 77.2541 -7.26733
17.666 118.359 -0.415915
-16.2372 104.977 -11.7882
-5.235 97.5123 -15.5562
6.15435 94.5878 -1.26227
16.3958 124.444 -3.56072
13.0836 107.605 -13.3898
19.1659 114.009 -2.79389
13.0062 122.953 -8.40885
-17.2066 112.206 7.22901
6.55815 131.322 -1.36407
-6.70451 123.91 -8.92107
-10.1215 102.464 3.32909
-5.15836 97.3055 0.290319
20.1254 97.941 -9.24383
4.03509 99.988 -3.42834
-19.5734 129.849 8.01833
-28.8822 123.616 8.13836
10.7363 120.572 -14.0213
-8.2088 96.757 -12.9009
13.0926 115.035 -11.5307
4.89254 119.305 -2.4976
-5.93881 124.628 -9.4147
12.1084 102.556 0.25943
13.9669 137.694 0.650297
6.54338 85.7113 -4.08843
-6.24058 82.7046 -13.3185
-27.3058 111.326 -5.65343
-12.0293 108.528 4.88595
16.5957 93.8731 -11.7401
-25.8054 91.6027 -11.6588
12.3361 126.221 -5.91646
5.41245 130.119 1.42174
-18.3131 125.203 6.76043
22.0247 87.6196 -5.91862
28.9275 125.826 -10.9288
-22.1182 123.594 -4.34074
-5.48942 125.844 5.84053
13.2505 90.8052 -1.85315
5.68204 88.2104 -14.8694
22.7491 123.907 -9.6597
-22.7819 123.845 2.21419
20.5417 77.9611 -10.2941
17.6005 98.8866 -11.3181
11.0992 127.915 -10.3954
-23.8511 101.45 0.51272
-0.161739 137.032 3.25373
-15.2456 111.683 -12.5138
21.8726 88.1166 -9.05718
19.7494 102.018 -2.38604
1.96991 98.9165 -3.13269
7.86156 113.433 -17.2799
7.8399 77.4785 -6.96592
-23.539 117.777 0.0430138
-9.59122 131.396 5.46664
-9.93941 124.273 7.91271
5.0807 77.1741 -14.0761
-25.3989 111.331 -4.09246
15.4082 92.9279 -1.20997
13.0697 107.859 -13.3355
20.7395 98.4752 -6.67412
11.3931 111.266 -15.9408
-19.0446 87.0356 -8.85741
13.1899 125.588 1.45948
6.75782 92.0922 -15.4249
-28.7938 126.896 2.20171
-5.25397 96.7664 0.0420283
3.98581 121.732 -0.164375
15.7455 122.93 -9.98511
18.2553 77.4355 -7.57297
-14.5424 118.669 -9.40161
1.72622 90.8433 -16.6022
15.8855 122.099 -12.5057
-7.91408 127.444 -5.71202
2.32065 114.188 -0.303675
-15.6882 91.2698 -0.259496
-20.984 118.832 3.8364
-9.39869 94.5922 -12.5079
-29.8821 122.921 7.87272
15.3807 82.318 -4.63652
-6.00763 105.536 -16.0186
16.1752 98.9115 0.0246202
-20.0725 125.901 -3.31895
-32.8858 90.9952 -10.206
-23.8774 124.363 3.05706
-2.1417 99.2709 -17.2882
-26.0213 116.607 -2.191
-21.3693 127.846 8.62686
-4.44341 117.253 -15.1575
19.7692 79.0718 -6.09255
-15.6053 81.1413 -4.42333
-18.7347 85.8207 -8.76937
22.4242 134.074 -3.85724
-0.404471 126.901 5.29403
-14.2051 127.952 5.85295
-3.61374 85.3446 -1.41747
-30.6571 93.4145 -10.43
-20.4829 126.008 7.30215
-31.193 84.2564 -7.71497
-27.4251 132.144 5.57238
13.2981 115.313 1.26523
1.65916 84.1443 -15.1181
22.2162 86.9659 -7.43261
-24.9944 81.5739 -5.03524
-28.1357 101.031 -11.8181
17.2801 106.401 0.552614
-22.8689 132.776 6.10746
-4.96465 93.6551 -15.5628
-28.0783 85.035 -9.44272
-1.41608 96.3692 -2.66873
10.5902 91.1956 -14.7531
1.98524 79.5708 -13.0223
15.144 121.789 -8.73882
6.82739 80.4326 -12.8758
-14.2916 102.174 -11.922
-5.3987 132.679 3.70507
1.98881 105.041 -3.0826
12.0502 115.459 -12.0944
26.4208 125.512 -9.4778
5.51594 92.0583 -15.8784
23.2584 129.892 -7.47451
6.56372 87.9606 -2.02251
-18.4014 79.5518 -5.90597
1.15918 85.1346 -15.5805
-21.4488 108.082 -12.597
-20.3048 83.596 -2.4878
8.4634 90.3844 -1.10546
-28.4183 87.9162 -4.96952
20.1509 132.61 -3.63983
-5.15942 116.357 -15.567
-16.501 99.2144 3.68431
13.4887 126.922 -6.21534
-24.8636 97.2147 -12.2598
5.44088 79.044 -7.12332
-1.06935 84.5535 -4.56986
-4.62015 127.731 4.65068
-22.4972 123.375 -3.21413
16.8782 120.751 -3.65532
19.0713 110.095 -1.83446
-14.8863 106.751 -13.521
-27.6464 100.364 -3.32245
-27.8249 92.3072 -6.88416
7.42314 116.012 -16.7275
-23.003 105.484 -12.9964
-5.94561 79.0821 -12.9188
-15.0535 106.179 -12.9801
-7.27153 109.779 4.96459
-4.90648 103.974 2.64407
5.02238 113.411 -3.13878
-3.0117 78.1546 -14.4487
19.6571 109.155 -2.94453
1.21285 87.3679 -16.028
-21.819 126.808 -2.61511
19.3014 121.587 -11.6543
-0.890866 111.604 -16.2957
-20.8386 132.856 6.46055
-20.8415 113.014 1.67563
21.2243 126.862 -4.66361
-23.6757 112.054 -11.3416
20.2045 89.5942 -2.79595
-8.38764 78.6201 -7.18972
18.6784 112.561 -1.36962
1.92583 103.242 -18.1693
-17.6799 109.855 6.49818
-21.4962 124.423 -3.3572
-13.3308 96.8303 -11.208
14.7847 108.278 1.41405
-24.5378 115.208 -10.2924
9.59299 94.4494 0.065422
-24.6366 107.199 -11.9056
-7.33212 108.383 4.80297
-15.4485 121.57 -8.19363
-4.26705 78.4334 -14.386
-14.456 116.53 7.42497
12.5299 132.111 0.982997
-9.74133 76.5687 -7.34398
-15.8731 91.0906 -10.613
0.771695 94.8629 -16.8052
0.117616 101.425 -18.0475
2.1275 81.5277 -13.7483
-22.9156 124.07 -4.75278
-27.0935 127.519 -0.926578
-21.7732 122.444 -3.40431
13.646 123.556 -11.7065
-14.6316 128.472 5.91806
11.9243 120.898 -0.469593
13.6912 104.87 0.106164
-29.4006 102.931 -5.96433
-23.6386 108.272 1.56149
5.58067 79.0208 -12.7464
18.5001 75.6797 -10.0109
-25.8028 116.552 -8.2969
-13.5239 95.2517 -10.8948
-33.1862 82.5096 -3.64632
6.86064 92.5598 -0.342458
-5.9817 104.411 -15.5897
-8.07335 106.962 4.43592
-20.9516 124.908 -1.95542
1.73872 118.402 3.24459
-3.23327 92.1915 -15.7
-11.5795 86.9818 0.0289956
-10.6203 85.7006 -0.733951
-28.8333 128.974 5.8529
15.5403 121.625 -14.3102
-8.18952 113.445 -14.8166
-10.5618 110.908 5.37453
0.272532 110.329 1.88378
11.2938 78.1185 -6.76862
-20.9638 118.997 -10.3293
-29.6043 90.4154 -11.412
10.7648 128.521 -8.32505
-28.448 101.624 -4.93651
-1.27083 115.945 -15.097
-27.3144 108.531 -5.928
-27.8609 99.0916 -11.9184
-24.8697 97.7659 -12.4768
7.90581 119.869 -2.86538
16.3962 121.444 -13.3222
-24.4957 104.457 -12.6743
7.78918 83.9316 -5.85792
-26.4219 96.5687 -11.3526
14.5141 77.0026 -6.38531
-21.7638 122.171 -4.09815
-24.2775 106.901 0.859458
-27.6367 87.2329 -10.2777
-13.1139 108.492 -15.1162
-2.75433 78.627 -13.5874
3.55491 101.414 -17.8696
-16.89 128.706 6.58957
17.9662 112.655 -0.217367
-15.189 118.283 8.60843
-23.2161 88.9864 -3.94429
-5.32372 98.4083 -15.4536
-11.22 92.1806 -10.7797
-5.39487 113.015 -16.2056
-20.4161 126.81 6.23406
-21.2558 124.583 0.112963
16.3448 119.856 -5.70985
-23.2928 106.257 -12.8945
-15.6081 124.229 -7.19835
-9.74928 78.5131 -7.04692
18.0326 89.5482 -11.9189
-29.7204 83.6631 -6.33199
20.9313 125.132 -6.48892
18.8932 78.2683 -6.21073
18.9371 107.228 -1.80377
18.0037 79.5596 -7.86566
9.3047 94.3756 -15.4529
16.6741 131.236 -3.60671
-2.47286 109.485 3.67793
-2.18852 136.88 3.33144
3.38773 115.45 -17.0922
-17.6264 76.6134 -5.9284
-9.61914 82.968 -2.46349
23.3699 127.297 -6.91275
-5.33612 103.253 -15.2185
-33.0234 86.0605 -7.15353
9.05028 115.425 -2.72074
-26.5084 109.799 -5.67642
-21.7961 96.0955 -0.893412
-4.64779 89.2281 -14.5779
13.2837 83.8017 -5.03286
22.5751 125.155 -7.60902
0.940321 91.325 -2.64653
14.9251 112.7 1.52563
19.131 104.166 -8.43497
-24.2128 91.9861 -4.65621
-30.5745 124.311 5.31321
7.70258 94.6478 -0.0608124
15.1663 121.649 -13.3906
2.96952 99.2254 -3.29394
-25.2007 95.2479 -11.3566
-23.6782 98.2806 -0.796484
-22.0268 83.2847 -12.6512
10.2581 127.209 -2.15141
-3.96694 105.331 -16.5448
16.659 111.918 -11.2229
8.3854 79.5032 -12.6496
0.0879431 103.261 -18.2506
10.8113 101.318 -0.391954
16.3139 112.734 -10.0663
17.6464 79.2935 -4.71285
5.69453 98.9995 -2.84231
13.6033 122.739 -12.2816
-29.7018 97.0313 -10.4936
5.51163 93.3836 -1.32898
-12.6135 86.2985 -10.1777
-18.502 121.507 7.20354
15.3712 91.2177 -12.5021
-19.6788 126.829 -2.24246
-32.8375 89.4813 -8.21478
-14.4081 117.37 7.7209
-0.86978 95.4295 -16.7706
-11.1267 119.743 -7.99259
-26 97.3503 -11.8249
20.6582 101.252 -5.09894
-14.2603 86.7975 -9.51935
-26.4157 98.0028 -11.9211
-8.78125 134.149 3.06564
10.8895 120.847 -11.6193
-15.1687 109.47 6.50947
1.61744 129.1 4.87147
-15.3053 117.713 8.51147
-2.19282 117.99 5.22078
5.6394 93.3321 -1.20238
22.964 121.505 -9.59327
-30.6523 97.0419 -10.5782
-1.64964 95.0796 -16.536
4.0926 94.4063 -2.54484
15.5933 121.017 1.15858
-28.9927 85.1287 -3.95188
-17.2137 102.889 -12.3589
12.7738 119.908 1.2956
8.08094 106.979 -17.2932
-14.7145 95.2755 2.91799
12.9807 127.747 -9.03906
-10.1321 112.606 5.70509
-19.4967 124.355 6.62569
21.4102 82.3011 -7.12962
-28.7441 85.4084 -9.22137
-22.8378 104.387 -12.8557
6.46428 79.3172 -6.71137
-32.2259 87.9365 -8.2925
-8.5813 76.3968 -7.38007
5.72709 111.741 -17.5982
21.4356 125.177 -7.15549
19.3933 105.648 -2.67984
16.8326 103.002 0.626985
-13.6645 88.5148 -10.2353
3.23534 120.573 1.36108
-15.5696 95.1314 2.03705
-23.4901 124.006 -4.09079
3.68854 125.829 2.84962
16.2724 92.5042 -1.51114
-15.0374 117.514 8.2934
-7.64735 93.3828 -13.4914
23.2292 130.838 -5.69225
-8.09193 120.775 6.94936
23.2567 125.698 -5.61314
-26.1579 121.445 -0.302567
-7.906 114.681 -14.6493
11.8663 129.04 -9.37145
-22.045 95.7655 -1.15154
-27.4189 121.533 0.422171
18.6393 106.426 -1.01581
4.24163 116.234 -16.29
-32.2563 93.6542 -8.85511
-16.0254 87.5491 -9.22659
13.4305 124.687 -6.0015
-29.5691 84.8112 -4.03802
18.315 95.6861 -10.9566
8.09492 120.574 -2.82822
20.6163 121.41 -12.8274
13.7101 90.4656 -1.91682
11.615 124.809 -12.5888
2.92836 99.2284 -3.28982
-13.0452 110.219 -12.8579
-31.9363 94.0203 -10.1505
1.82041 114.98 1.33385
-4.16183 107.726 3.80231
11.3276 116.92 -13.6301
-24.0696 96.3115 -2.28397
-15.0023 85.0745 -0.89863
10.3714 80.4791 -12.696
-16.6735 101.001 4.30126
4.71416 112.391 -3.19497
21.6733 80.7303 -6.81887
-18.6158 107.681 -11.8404
-7.6274 89.2208 -13.077
15.5158 121.871 -9.75213
-21.4208 124.373 0.0250617
-13.0383 106.15 -14.1668
26.2008 125.213 -14.1952
-23.3779 124.982 7.16171
-21.8222 117.249 2.34617
11.4517 132.416 0.283248
4.58328 79.5276 -7.38089
20.5884 124.45 -16.7327
-31.1182 95.6986 -10.6968
1.35638 88.1734 -1.74754
-26.1345 100.249 -1.13041
3.68378 110.757 -3.08139
-15.2472 116.632 8.106
-11.5895 95.2698 -10.9025
-0.193472 114.939 -15.6381
4.75266 83.2177 -5.62063
8.77761 106.58 -17.1424
-21.5857 109.159 -12.7759
4.54014 84.1926 -14.3891
-23.0315 111.968 -1.66106
14.6377 85.1132 -12.2694
-21.0149 108.319 3.87353
-11.0495 124.999 8.03615
12.0791 108.409 -0.608569
5.47448 116.793 -16.3191
11.0314 127.822 -1.5242
-19.836 93.1978 -12.6406
19.5763 111.385 -6.8672
13.5348 126.688 -10.6471
-24.9678 90.7875 -11.8185
7.67918 133.901 -1.83173
-17.3241 125.282 6.51187
-4.40752 88.2038 -14.2043
-26.9334 108.364 -9.2821
20.7039 90.7313 -9.62259
0.914574 108.23 -17.6428
-16.8362 85.9572 -0.71843
-21.7043 124.683 0.439391
-16.2914 116.924 8.17385
13.6064 124.733 -6.80067
3.48102 125.993 3.1378
18.198 111.304 -8.50383
-16.4431 89.3976 -0.502105
-15.5249 88.1067 0.148035
-26.8531 98.5536 -2.53994
-14.2995 136.695 6.76037
-10.9049 129.425 6.0945
22.1736 83.6889 -8.01124
-29.6326 88.9045 -5.86458
-20.2729 82.6955 -3.02005
-11.0209 83.5931 -1.77103
0.742863 108.727 -0.102053
-7.14828 118.062 -13.8248
-24.9458 123.674 4.08645
-6.75937 115.589 6.56212
9.63282 99.9355 -0.761171
21.8508 83.2686 -10.1414
-21.6334 124.415 -3.23779
6.05168 92.979 -15.8991
-4.85819 99.5717 -15.7414
-11.8066 95.9455 -10.9206
-28.9103 104.033 -5.45293
9.03624 106.918 -17.0807
-30.3236 84.9518 -5.68726
9.04046 112.583 -17.1867
7.49347 85.9624 -14.1899
10.5803 126.202 -8.59492
12.8193 130.463 -6.97891
18.845 88.8649 -2.04341
-4.21211 124.86 4.34187
-20.506 125.862 4.93628
-21.9547 111.176 -10.9814
5.9425 82.6494 -6.36386
-29.513 124.078 3.2966
-28.4147 103.258 -3.88951
15.6962 113.386 -9.46775
-25.0495 120.116 -4.01554
-11.9182 92.4164 -10.8466
1.58134 84.071 -15.131
7.82742 82.02 -13.1211
17.5875 109.68 -0.275681
-24.9932 95.664 -3.68306
4.48797 98.9666 -17.5606
-13.3385 105.713 -13.66
-25.5487 104.864 -0.588452
15.897 113.085 -9.89268
13.9324 121.706 -11.0854
8.18402 121.139 -2.82871
2.45806 133.514 4.30986
-24.5602 107.075 -11.9415
-13.2549 80.2945 -13.042
-31.5736 94.5819 -10.7088
-9.78862 114.024 -13.817
4.4951 111.41 -17.2461
12.3496 104.541 -0.702482
4.40501 120.268 -1.84521
-26.885 130.675 7.05891
14.4207 119.214 -11.0511
23.9324 131.577 -7.8895
-26.541 127.026 -0.80353
-27.3121 106.102 -2.87735
12.1272 116.252 -0.339906
21.4838 91.3336 -5.5082
7.09791 134.049 -0.229843
-26.9317 110.264 -8.50693
-16.2595 84.2969 -10.9507
15.0078 135.382 -1.14386
-22.6669 126.547 8.31238
-28.5124 123.736 1.95161
23.0914 122.026 -9.51365
-25.0177 84.7043 -8.37186
13.2141 111.481 -14.1915
10.2305 123.198 -12.5446
-11.8045 130.14 6.21847
-33.4522 84.3145 -6.41121
-28.9894 105.454 -8.64947
6.47791 113.053 -3.20547
-18.6333 100.144 -11.7759
-5.01868 92.4153 -1.28342
9.10466 98.9732 -0.609964
-25.5147 108.154 -1.29062
-28.0321 125.613 8.60852
14.1943 100.761 0.423244
-11.6549 94.5119 2.62753
18.6937 101.198 -10.0203
-19.6803 99.2693 2.20743
-28.8413 105.132 -5.90587
12.0334 85.2911 -13.2215
3.70714 119.274 -1.18606
-28.0853 85.3326 -8.01752
-15.123 114.708 -11.53
-28.8488 95.5484 -10.4492
18.8334 130.049 -3.59131
7.96707 103.848 -17.4383
23.2508 123.563 -10.3938
6.69573 99.7915 -2.56159
-13.5118 78.5706 -6.69212
9.99878 118.532 -14.8998
20.267 88.1293 -10.6218
-4.57754 75.8359 -7.14393
-25.9813 109.316 -3.16253
-19.8542 88.3547 -9.93209
22.8148 124.321 -9.30406
12.8094 107.172 -13.9471
14.468 86.3473 -3.9899
16.3459 123.603 -2.31078
18.1368 79.1658 -7.75784
19.7666 79.4298 -7.3665
12.001 90.0764 -14.3941
-11.9229 108.5 -15.8694
3.79346 126.396 2.85272
-18.3207 114.738 -11.8231
15.5796 122.164 -12.7717
10.1765 119.006 -2.44743
-19.0724 119.146 6.89281
-0.477174 99.6622 -2.26974
-25.984 113.075 -3.1627
15.5664 79.2032 -11.7803
-19.3877 112.234 4.66868
-26.3343 92.6718 -11.1279
-16.7201 115.842 7.70205
15.5008 100.947 -12.0021
1.4902 118.464 3.6789
-22.3267 126.486 -2.86996
-16.3683 80.5513 -13.8137
2.32558 78.798 -7.41036
-9.9488 132.307 4.19481
-7.92656 81.7179 -12.5911
-9.35997 133.119 3.25774
-29.8254 85.6109 -7.80504
-4.44991 85.008 -1.35762
-7.21655 122.053 -10.2145
-25.0957 124.938 -0.800838
-27.623 97.8774 -11.4859
-6.46018 123.662 -9.66186
18.9951 102.312 -9.61286
12.6923 124.693 -13.3326
20.6949 78.6016 -10.4663
-17.4038 81.1598 -12.0311
-0.777378 111.754 3.25298
-29.3682 103.79 -9.91035
-15.176 129.742 5.11443
8.79526 86.4689 -4.43535
-31.5353 96.4774 -9.58233
11.1121 100.55 0.170539
0.530521 87.9036 -15.8187
-25.863 117.222 -2.01599
3.63574 120.722 -0.0365847
23.4264 132.873 -6.83847
15.8306 83.0189 -4.27773
-24.7922 108.933 -0.608272
-12.1292 119.549 -8.52325
-18.8923 107.818 5.5022
13.3844 124.14 1.5529
-19.9549 82.165 -13.3217
18.5168 85.1613 -3.00182
-21.2896 98.8555 -12.3682
-21.5534 126.56 7.06318
22.6431 135.926 -4.00334
-15.8853 99.1556 4.00461
-13.3765 85.7432 -10.5375
