ply
format ascii 1.0
comment Created by Open3D
element vertex 1913
property double x
property double y
property double z
end_header
8.85638 124.786 0.446947
1.58575 112.014 4.84286
-25.8746 90.4657 -13.1191
13.3622 123.963 0.36013
0.184505 91.924 5.23279
9.29975 77.0605 -0.581349
8.34568 138.576 3.79083
-29.2852 115.391 -0.503662
2.28749 109.427 7.38268
10.2239 103.668 4.68676
1.24385 117.57 0.583956
-14.1905 86.0986 0.278127
-14.5509 100.617 -13.3054
10.1981 83.6822 -1.05672
-17.9481 81.4596 -3.07
9.49074 127.284 -5.34996
3.85899 122.835 -6.9607
2.555 110.211 7.54644
-20.7614 88.751 -11.1745
-32.1876 83.6332 -9.307
-10.6714 84.7472 -1.6968
23.8682 123.079 -1.60153
-4.73832 97.0009 4.8322
10.3371 123.278 -6.38821
11.9235 103.187 -0.585834
6.42565 78.3377 0.157021
10.4091 97.5303 -5.45564
1.41934 101.02 -13.0228
-14.5673 86.8339 -11.0712
-32.8705 99.0514 -6.07981
-19.1768 108.315 4.092
24.8944 123.681 1.58684
18.7481 130.366 2.52327
-12.1401 99.216 -12.3659
-15.5004 81.4275 -1.94238
-10.4051 86.1081 -0.631416
11.3215 113.982 2.66855
-1.65141 119.568 -1.25289
-27.6913 91.2201 -15.1551
-6.67679 97.5098 4.60841
-22.9175 96.6568 2.75585
15.5018 117.315 -0.674044
-13.5706 105.223 3.17473
3.24263 104.932 7.87847
24.2017 125.636 -1.43471
-25.5715 127.822 4.59958
6.29366 101.734 -10.769
-11.7554 90.7478 1.16221
22.7268 125.137 0.120838
9.3324 129.275 -2.77907
9.29322 113.249 -1.21939
-18.8973 108.043 3.95012
-6.40695 121.361 -9.60152
7.75491 105.778 -9.5139
22.7399 124.5 -3.40839
-32.7459 88.674 -8.68139
-12.3606 133.474 4.33449
3.82937 118.599 -8.24061
-14.1675 84.4929 -0.962493
8.81261 122.46 -2.04798
-27.6252 122.114 3.87469
-3.07394 121.643 -1.00103
-12.5163 83.8971 -3.03672
15.6556 131.051 2.92932
-2.11713 86.7829 -12.4721
-27.348 116.754 3.31397
7.90539 98.1292 -9.08138
-10.4728 89.178 -1.97714
-16.4475 107.887 3.37779
17.9879 122.157 -8.90971
-7.10825 116.809 1.07299
19.8441 118.81 -0.481334
2.16437 122.911 0.711989
10.359 121.965 0.788819
-23.3517 111.956 -13.0889
-26.0041 97.6046 -15.4775
-29.4187 124.072 2.54716
-25.2993 88.5887 -11.7391
-11.4509 96.1941 -12.6233
2.47029 120.296 1.67515
14.1714 117.165 -2.72899
-5.79212 96.9444 4.84843
-16.8776 96.8335 -13.457
-16.1588 80.5159 -4.05369
-13.6411 94.692 -12.4737
7.90234 77.6128 -0.139512
11.2765 98.5277 -0.285105
-12.656 92.5403 -0.120864
-1.89039 84.8643 -12.2307
7.04062 82.4223 2.00362
-12.5936 125.003 5.34798
-31.4967 92.6291 -13.9069
-11.5309 88.4981 -0.875051
8.00098 89.3408 -7.78001
-27.931 80.2868 -8.20421
-28.161 88.0205 -13.5184
-6.22176 113.454 -1.47421
0.906789 83.4641 -10.4395
-3.97232 119.195 -1.10983
-23.4329 129.254 3.34158
8.94416 126.738 -8.53723
-15.6298 86.7735 1.97138
-17.9898 98.2274 -14.3122
6.20909 104.983 -9.83063
-16.0005 101.588 -14.5419
10.4857 119.043 -8.31318
-15.0773 114.867 -11.5976
13.4002 124.561 0.630092
-30.2634 111.239 0.523169
-0.148885 130.016 -0.330463
10.342 115.934 4.65054
18.9502 128.688 -5.46571
-7.82109 109.052 -0.734162
3.85118 122.753 3.57793
1.83424 111.083 6.03375
17.3708 119.545 0.479352
-4.02995 78.5902 -11.2738
-34.1515 94.2851 -9.19124
0.486029 108.621 2.7777
11.7002 104.337 0.682795
-8.22163 108.802 -14.2201
-4.11859 97.8113 -13.7669
8.69374 120.695 7.08924
6.48633 81.8576 1.95482
-27.7041 90.9567 -4.7578
-14.162 88.5735 -0.812699
11.516 103.837 3.09405
-6.28974 99.2756 4.42071
-8.28893 125.027 4.18967
22.8509 124.811 1.78251
-2.82687 103.796 -13.7665
-21.875 95.378 -15.5205
-21.587 88.3931 1.16964
-0.844838 117.225 -0.894845
5.67509 90.1081 -9.72612
8.40835 87.5675 2.50495
-20.7595 95.2183 4.86765
10.1303 105.671 -8.37977
-11.0729 94.5113 -2.54725
21.1768 122.634 0.562275
-10.8558 118.511 -9.47329
10.309 111.558 5.95761
10.7085 109.731 5.28354
-28.7908 97.0469 -14.5526
-27.8958 118.233 2.2557
-17.7054 98.2719 4.44557
2.02914 120.383 -6.46255
3.27187 121.826 2.58355
10.1251 100.788 -7.41978
-9.84601 91.9248 -13.2129
-33.6361 91.1889 -14.8529
-24.4899 91.0724 -13.4375
-15.123 87.3263 1.98218
22.205 127.375 0.164289
-5.82738 100.048 -1.68899
10.9668 140.696 4.50581
-6.76651 87.9274 -12.1508
-4.17391 93.7455 4.24973
-29.3977 97.3553 -3.83012
-18.3253 119.801 5.40309
9.38499 91.9043 -5.70486
11.2186 124.459 -8.71012
-12.3785 92.4067 0.562525
-30.5114 113.092 -0.997279
-3.60346 95.0141 5.14869
-31.3855 98.216 -14.027
8.96718 119.12 7.07958
-2.48176 83.6357 -12.2721
8.9965 117.25 -4.99033
0.534587 106.383 3.99339
-15.9382 90.7746 -11.076
10.466 110.225 -7.84013
7.4747 86.6736 2.70914
7.6219 129.029 6.48912
-12.0285 99.8139 -0.965463
-12.2817 92.4178 1.05828
12.05 119.854 -10.3237
-29.7539 99.3691 -2.20551
7.67366 100.277 5.88153
-0.703138 99.0557 6.26334
19.4338 119.269 -0.616057
-28.3324 88.5516 -5.35165
10.1309 85.2921 -3.12043
-2.79835 76.3767 -10.3722
3.10394 110.334 8.03312
10.8382 101.458 3.71924
-30.6127 114.205 -2.93539
11.9931 122.297 3.21214
5.99711 123.909 7.67334
6.90257 88.7336 3.67603
-11.2775 89.3864 -1.87175
11.624 121.218 -6.60591
5.41087 129.907 5.05364
9.21704 136.482 5.75983
8.56904 97.926 -8.82444
-8.5081 112.926 1.01841
-20.3703 90.1763 -12.6555
-31.3003 83.0166 -8.745
10.0453 133.252 5.73438
10.6673 121.576 -7.54545
-10.2333 89.3053 -1.68601
6.02326 86.8985 3.5051
-5.26747 96.8109 -13.8076
-20.3012 102.281 5.16353
-10.1071 98.2435 -2.53085
-14.7612 91.1541 1.55887
-12.288 85.0329 0.161042
8.63854 114.207 -7.39766
-26.9369 125.59 4.57954
10.8521 120.112 -3.83716
9.87822 97.7473 -6.82316
-23.805 87.8229 -1.20731
-3.91725 88.3768 -12.5039
-8.60591 92.538 2.55198
-9.98711 78.0732 -12.1054
-19.2009 122.883 5.88109
-13.9304 79.2812 -11.8688
-31.9862 86.3976 -13.1853
-5.83123 93.5392 2.95895
-26.2092 97.7321 -0.201412
10.698 115.531 4.26929
-10.4345 111.843 -13.5397
-32.2043 108.68 -9.08525
-2.59004 124.501 -6.70066
4.9196 97.2251 -10.1965
-28.4162 127.029 3.32148
-29.044 105.625 1.16122
-9.63473 95.1688 -0.138862
8.99767 74.7816 -2.62448
12.2156 122.717 2.75578
-6.0634 99.5253 4.40311
12.7527 133.36 3.76534
-9.6626 120.517 4.29209
4.65912 130.066 1.65648
-11.0847 105.474 2.31108
2.65378 106.913 -9.61973
-8.97978 119.08 -10.176
-27.5265 127.852 3.80731
-15.2391 80.7028 -3.12313
-21.9887 92.0307 1.91848
17.3767 125.658 2.79657
-23.9848 120.403 6.77422
18.8654 139.438 2.47288
9.30237 119.185 5.49469
-33.1717 83.6904 -10.4006
-8.34464 105.559 -1.30076
11.6661 110.77 4.37036
-33.2663 110.503 -5.09111
-14.9598 99.2229 2.88555
-23.6 121.261 6.79261
8.14739 120.9 -7.48584
-10.6256 122.297 4.84007
-28.6744 102.943 -13.9082
-11.5315 92.4793 1.76824
22.2592 126.359 0.168546
-6.24696 83.7435 0.168664
-4.05219 100.557 5.11868
15.4277 122.643 -10.1428
4.33641 97.1043 -10.5054
-11.8604 102.11 -13.8854
-32.0645 99.4894 -13.7041
-9.8597 119.474 4.23366
-9.79836 133.07 4.31253
-5.90997 133.55 3.29117
10.7706 127.721 -3.42035
9.88081 124.396 0.582633
-28.5401 108.913 -11.8346
-4.87541 96.251 4.98781
6.58773 132.361 5.65498
8.49642 75.0097 -2.63244
-14.2667 92.0303 -0.459334
-1.39392 80.1705 -10.7969
14.3902 138.579 3.33403
12.5481 119.647 1.31257
8.50118 90.2676 -7.32505
-10.5511 109.233 2.51584
-10.0426 86.5151 -1.61957
-9.6897 95.4324 1.23877
-5.85424 86.3218 -11.8666
-13.342 123.131 5.15715
13.6914 122.956 2.01413
-15.3809 83.1674 -12.3002
11.3065 91.0117 0.794491
-11.2619 86.8953 -11.0267
-27.8267 116.658 2.66686
9.28595 85.981 1.57037
-32.7732 86.8102 -13.0915
-10.4909 95.9324 -1.77906
-2.15293 101.818 -13.6981
-13.8147 107.525 2.72884
-27.3255 110.881 -12.5099
-6.97606 104.136 -2.07795
12.3157 108.109 1.53342
-7.15005 83.7677 0.152282
14.239 141.635 4.1155
-11.808 90.9279 1.19089
7.7647 107.385 6.65337
-10.8766 87.4212 -1.6716
-32.4747 113.938 -6.79014
-30.4332 102.651 -1.19663
-13.0031 114.804 4.1861
9.99254 100.48 -7.64062
-14.329 97.7011 -12.2713
4.97633 110.166 -8.32595
17.6309 141.412 3.43131
-4.3023 120.489 -0.655766
-6.26279 82.7994 -3.82137
-4.17546 97.909 4.95664
1.05474 128.428 -0.395558
-16.0521 92.0338 -11.5368
19.6293 135.484 2.12351
-22.4356 126.189 6.74063
-3.04738 109.082 -1.8977
-23.1525 92.7178 -14.5813
-10.6498 128.204 4.35086
-7.02731 99.483 -2.13909
20.2719 135.82 -1.20355
-5.13209 114.223 -1.50997
-12.6965 95.6653 -12.5888
-31.0946 92.3742 -14.1318
-9.62127 118.262 3.85516
11.5969 126.464 2.6707
-13.9837 91.0791 -1.29268
5.68207 98.2912 6.11579
9.18698 126.311 -2.76606
-32.4691 99.5034 -4.80955
-21.9746 89.168 -11.843
5.00363 121.077 -8.78327
13.2743 124.426 2.03886
-32.2477 92.3198 -14.2329
-12.6114 89.923 -2.49084
-4.97023 95.1087 -13.3978
8.20456 85.7135 -6.73636
-30.5635 113.226 -1.24623
-16.9699 93.4523 1.99935
-30.4593 101.829 -13.838
-23.9977 96.0709 0.150657
-27.3843 85.116 -5.12675
8.3337 134.178 5.97061
-14.8542 82.6001 -1.19409
-30.227 116.924 -1.94468
-23.2393 114.555 5.98303
-17.0275 81.5649 -11.6619
-3.65375 100.124 5.75948
-12.3184 83.7333 -2.56519
5.03287 118.917 7.90525
10.3345 97.9837 -5.89867
-2.52932 81.4241 -0.372942
-21.9567 96.4874 4.65492
-30.8575 89.0649 -7.19387
16.7984 127.684 -7.03766
-25.6867 118.12 5.84931
17.159 123.401 -8.8714
-29.9686 82.116 -8.39679
-3.15449 124.764 -0.239101
-22.9463 121.869 6.62295
-20.8138 126.913 6.4857
8.74493 80.5076 -4.83306
10.4465 119.824 -4.38612
-27.5832 92.6244 -15.2582
11.4537 115.379 -1.89471
-12.2383 91.9024 -0.684536
11.2769 122.41 -9.26935
9.15109 104.11 5.44947
3.07023 126.968 0.641505
-33.2438 87.9315 -14.7461
5.05806 79.3295 -7.82144
-12.1738 89.9749 0.63072
12.7442 118.537 0.0031474
16.4015 141.69 3.93316
5.88231 130.343 5.74214
-27.6414 118.432 2.61865
22.8414 126.234 -1.06956
6.52909 114.172 -9.70716
-20.0617 82.0639 -12.2144
-17.2407 81.2227 -2.99448
-28.1793 89.3008 -5.11262
21.0943 124.79 -7.49635
-17.0913 81.0296 -3.60181
-25.6996 87.7299 -11.6066
0.141534 104.932 5.27816
21.4708 126.081 -6.70503
-18.1567 96.1245 3.26672
3.09241 133.251 0.0304223
10.4176 115.84 4.68813
-12.1577 92.0863 1.37115
-17.228 89.0729 2.9846
0.344442 98.177 6.55508
-17.3996 114.936 4.36656
-15.6924 85.3849 -12.1646
9.64214 136.125 5.64519
-14.8013 107.295 3.00609
-13.8235 101.502 2.41719
3.79855 101.905 -11.8176
-19.2457 87.8687 2.23487
-19.5777 109.372 4.36139
-14.1669 89.2966 -0.521877
-1.72256 105.72 0.345506
-36.0894 91.7464 -12.2027
3.74529 114.865 -7.84716
-17.0815 101.221 -14.8401
9.04812 118.767 -8.23667
-28.8585 111.825 2.0683
-5.65848 103.385 -1.8893
-8.69221 95.0345 3.57655
-16.5266 128.452 5.74377
13.7993 122.798 2.33537
-24.6105 118.534 6.42392
-18.7785 91.4065 -12.2821
-19.534 105.834 4.15983
-15.5373 95.9719 -11.9323
-7.34706 98.1014 4.03066
9.58478 124.379 0.891456
9.81054 84.7257 -4.15009
-24.4054 127.052 5.51435
-8.11327 80.6375 -12.0709
11.7118 102.027 -0.587175
26.2513 121.973 -0.0286681
-7.65885 97.2895 -1.68659
10.3884 85.2842 -2.07878
-6.3156 135.377 3.23178
17.7445 125.381 -7.62456
-31.5759 112.324 -2.56977
-2.24209 102.015 5.95987
-29.3578 96.3057 -4.10734
12.1661 106.375 -0.383319
-28.8005 118.943 -0.581522
-27.1197 92.1766 -15.3648
-31.4322 84.9123 -14.0999
-26.5527 83.7115 -5.64183
-17.7365 81.4444 -2.95296
-17.3566 122.902 5.67043
-7.26946 112.146 -13.1355
-1.87097 101.25 6.02632
-16.4884 89.0128 2.6412
-1.64081 112.69 -9.70518
5.2112 115.783 -9.70033
5.69067 86.3283 -8.41303
21.6848 130.143 -0.109176
-1.7585 81.8101 0.766226
-28.1047 124.928 4.1342
-8.08524 119.454 -10.3796
10.9599 88.1233 0.476728
-5.15763 125.276 1.52255
-8.72032 96.2584 -0.682555
-1.44784 103.581 5.92556
8.30248 117.683 -9.2975
5.4872 124.76 7.24691
22.0637 132.827 -0.822891
-23.4391 85.8997 -13.1171
-31.2831 117.13 -2.97694
6.31355 118.983 8.12928
-3.77841 110.638 -13.0019
-31.4848 95.1625 -6.55795
10.5362 96.3635 -4.60813
8.86743 113.651 -2.28447
-29.0759 87.1529 -12.8139
-21.8084 100.209 -14.7738
-15.1033 115.96 4.3711
-21.3184 124.69 6.57063
8.7782 86.272 -6.28086
-5.0465 108.347 -2.09356
-1.11287 83.9351 -11.5446
10.7034 126.446 -0.919079
-8.61772 121.819 3.93376
7.1562 104.375 6.63985
3.7501 97.7843 -11.0917
-1.51995 110.734 -10.6505
-0.857648 101.144 6.11768
-21.0359 81.6828 -2.62135
-13.9952 94.2003 -12.1365
-29.7231 113.747 -0.287968
-4.5036 101.952 -1.52734
12.1258 121.059 2.67057
1.43959 110.562 4.99329
-35.1562 86.6671 -10.9649
11.8011 129.376 -3.0736
9.72217 112.374 -9.07646
0.340192 131.023 -0.257236
-6.47036 124.181 2.58854
-5.13127 100.753 3.78492
-21.8875 90.8477 1.8299
-28.0835 88.4689 -12.5727
3.3959 120.736 3.52426
0.787923 80.954 0.329443
-4.33406 102.272 -1.41908
12.2203 109.333 1.82623
-23.9013 98.3144 1.92019
-33.6511 91.982 -14.5236
8.56906 89.4341 2.7932
-7.7969 98.4988 -2.1585
-21.8378 126.663 6.7442
-3.61536 113.046 -11.4985
-1.87294 108.481 -0.625355
9.70738 103.88 5.05252
-13.1413 93.6242 0.298145
4.90034 132.201 1.38352
20.0027 125.116 -7.63434
8.65632 90.4589 -7.18464
9.03124 120.587 -6.12166
-12.3356 121.159 5.08049
20.3699 127.307 -5.97559
0.356141 104.751 -11.851
11.7057 108.599 3.75006
4.61939 82.2805 2.43419
-5.70149 100.641 1.91651
-18.1977 128.952 5.92599
-29.1522 89.9083 -5.5953
-16.2987 114.111 4.0942
9.60664 111.614 6.47761
-5.15026 89.2121 1.59974
11.9118 122.962 -9.61491
3.53044 119.467 5.06593
-19.3017 131.017 4.61793
1.7702 82.1797 -10.0068
-30.124 105.604 -13.0488
-36.0603 90.1056 -11.2542
-3.86567 105.32 -2.05659
-23.6774 103.145 5.4432
9.48765 93.2442 -5.52965
-26.2943 88.4782 -3.89471
-12.3203 91.1119 0.151742
3.8393 83.5656 -9.10974
-10.4639 98.9065 -2.40054
-28.2985 123.169 3.72635
-13.4587 95.8147 -12.3825
-2.28926 122.696 -7.14904
10.4659 126.526 -0.573089
20.6094 139.706 0.840722
-19.8783 124.562 6.04599
17.9743 134.077 -4.7211
0.914765 93.4344 -11.8627
5.77914 104.635 -10.1876
-1.652 114.913 -1.21321
10.275 122.541 4.81083
7.18121 138.084 2.51421
-30.1506 110.43 -10.7952
1.49479 82.3305 1.99507
10.7249 108.824 -5.79326
13.4213 118.749 -0.557329
20.5705 138.396 -0.159105
23.2274 126.952 -1.39083
-2.3426 87.5031 -12.4751
5.02641 114.801 8.27065
11.6977 123.44 -3.99974
-30.8444 114.221 -8.93299
-25.1043 85.5118 -13.2305
-17.2378 99.4462 4.21988
-34.8377 86.5785 -13.3568
-11.157 89.7518 0.584277
9.51201 108.721 -9.51307
-31.2674 112.313 -1.83805
10.633 133.558 -3.43616
10.4628 85.1147 -0.510794
-21.2218 79.8379 -4.98008
11.3631 99.0999 -0.160857
11.9127 109.27 -0.315443
-20.3068 130.226 4.9087
-23.6471 90.1165 -13.0113
-2.35841 100.78 5.88073
-1.14087 112.543 -9.51224
7.87582 84.2646 -6.75564
9.63951 80.1344 0.404924
-6.38357 99.1738 4.43942
-10.573 89.7584 -12.5756
-25.6632 111.037 5.09058
-17.7446 95.1135 -12.6944
-1.09568 127.772 -4.89555
10.7474 99.6449 -2.9643
-8.92679 89.332 -12.6911
3.14992 81.1605 -9.11875
3.08344 80.5568 0.0802617
9.45996 94.7836 -6.12721
-13.0059 115.431 4.32174
13.6043 136.966 3.30557
18.2149 133.884 2.63297
-29.8443 105.064 -0.181609
-10.9969 94.4917 -13.0766
-22.1013 82.3485 -1.74895
-13.8122 79.676 -11.7151
-22.4162 92.282 -14.2777
-5.98602 76.1007 -11.2793
21.8571 122.847 1.17387
22.636 120.161 0.801893
-31.7825 96.5051 -6.91594
-14.1291 123.588 5.29748
-19.0651 101.778 -14.9436
-12.962 116.635 -9.97785
10.6537 102.887 -6.68681
-3.74539 118.288 -9.45669
6.12995 124.475 7.30808
-30.8083 89.5599 -6.93982
11.7128 129.081 -3.86495
-6.01136 99.3558 4.58097
-2.96404 84.7208 2.13572
23.5467 123.37 -2.77276
-11.8666 103.729 1.02794
-14.4556 112.197 -12.4126
8.5858 129.931 5.70548
18.3695 123.292 3.0909
-11.378 78.9204 -12.1453
-13.0954 90.1077 -2.53246
0.446767 111.581 1.43013
16.6497 137.314 3.26184
12.3292 118.277 1.11689
11.8751 132.534 -4.30143
11.6617 104.187 0.947274
-18.0692 105.847 3.75674
-8.78175 115.762 2.72405
-34.1887 87.38 -13.9916
16.6861 127.318 3.57896
4.91518 111.792 -8.33747
-0.593244 125.754 -5.21798
6.82094 99.1985 -9.75954
-4.01857 82.2593 -2.36888
-3.26682 87.432 1.81827
-23.8994 98.5341 -15.6867
-4.19283 105.332 -13.4689
-8.10152 98.8284 -2.421
-12.0601 94.8345 0.526226
7.43842 116.663 8.02656
-2.26758 84.9136 -12.3663
-0.564051 117.95 -6.98654
10.7414 108.129 -5.78116
10.6947 119.104 -7.37679
-20.7937 81.5775 -12.4707
-20.5991 127.666 6.57187
2.0297 128.262 -4.9904
-0.818369 114.365 -8.39572
6.46058 96.0391 -9.58421
2.60877 87.49 -10.1474
5.06579 125.425 5.15996
-31.1761 102.281 -2.06926
4.82201 96.1443 5.82142
-0.577098 122.801 -6.70745
-3.69244 82.9312 1.40478
11.4125 117.406 1.42588
8.0699 113.543 -9.84557
-23.6729 97.3981 1.56037
6.60083 99.2673 -9.85455
-10.1672 114.457 3.46241
-27.5095 86.8373 -12.1969
8.80903 119.837 -5.94944
8.14253 100.86 5.68634
-28.6659 101.589 -0.628199
-22.5822 110.81 -14.0573
-11.0808 88.3522 -2.03165
-31.4373 81.6727 -11.2244
-13.73 115.446 4.26969
-11.4463 91.5354 1.49046
8.88641 125.407 -0.926608
-28.204 111.844 2.66236
11.227 92.0555 0.468625
-13.5146 108.927 -14.7043
-24.3752 101.827 3.83822
4.35468 102.291 7.40289
-3.62766 93.4131 -13.2271
2.74684 96.8391 -11.5248
-31.0813 108.857 -11.1933
1.83319 96.6451 -11.6428
-15.2164 81.7606 -1.29878
4.77802 123.619 -9.09322
-11.748 109.25 2.94635
-26.8177 94.4806 -3.13742
10.1121 99.2881 3.96352
11.1418 92.0027 1.17266
13.9698 126.204 -8.68162
5.72092 119.816 -9.36276
-8.71314 121.139 -9.1003
-33.5497 87.2778 -13.904
13.3476 129.113 3.26615
-9.22571 113.438 2.23663
1.23371 102.857 -12.2181
4.45125 128.18 1.90918
-0.644938 128.841 -4.15759
5.57777 76.4409 -6.9385
-9.89266 91.0585 1.57761
-0.0305451 129.486 -3.44904
-28.193 87.8289 -14.0626
-33.1779 101.533 -8.43226
-30.8829 122.755 -0.506143
-0.392251 78.4929 -10.3053
4.95638 126.942 3.91887
-30.9808 111.013 -0.679734
-14.8123 126.534 6.05705
-32.4044 105.084 -11.4015
11.0058 124.694 -1.58392
-25.4643 110.543 -13.2062
12.1344 108.961 0.925176
0.240103 104.722 6.0335
12.0478 109.949 2.68376
9.00858 94.364 3.76385
-10.0351 126.058 4.47967
17.5192 120.485 0.909447
1.67826 121.11 0.605363
9.96729 88.2142 1.53413
-0.33192 87.2908 4.01543
11.3015 121.737 -9.57178
-34.2567 97.7092 -8.05492
-0.882349 105.14 1.79553
5.43477 115.988 -9.77675
-33.3576 90.0482 -8.5668
-33.4394 101.67 -12.041
-10.0788 130.852 4.28311
-9.59034 86.5179 -1.80024
-35.148 96.8295 -11.5283
-13.4711 113.498 3.84409
10.8062 133.666 -3.14958
-29.4522 116.887 -1.25913
-6.26725 103.195 -13.05
-5.07577 95.5968 5.04355
-33.5172 100.455 -11.5513
-19.7204 97.2167 -14.6933
16.0943 141.433 4.0514
9.96866 112.513 -0.743633
-4.83478 92.5501 3.19153
-16.2381 117.44 4.88225
11.1327 123.455 -1.71157
10.1882 111.997 0.0953303
10.5566 108.601 5.13418
-6.42107 99.9587 1.76266
-9.94884 88.8314 0.0923316
2.11738 103.733 7.81339
6.18146 120.752 8.16776
5.23688 130.107 4.57362
-3.0629 87.4046 -12.3472
-13.2901 110.592 -13.583
-2.97074 114.422 -10.1481
-7.67758 84.7517 -11.8198
-20.4535 129.45 5.41169
16.4655 131.04 -5.62455
4.85733 83.7617 -8.42256
-5.68644 93.0478 -13.502
2.41764 108.863 -8.91724
8.30315 78.139 -4.40123
20.867 138.174 1.40573
10.7313 120.708 -8.91228
9.10248 77.0146 -0.570861
18.0417 124.384 3.11719
-27.8542 111.829 2.99995
-16.292 88.7932 -11.0851
-14.2808 133.151 4.39368
-8.81786 131.983 4.241
-13.3939 97.0547 -0.913967
2.06392 116.126 2.91258
19.9876 136.185 -2.56929
-1.10775 109.645 -0.0739525
-22.0951 130.024 4.32458
-28.6528 124.282 3.51291
-0.942987 96.7972 -12.4785
-11.4566 93.3045 -0.0893337
10.9307 111.085 2.64365
-13.9841 106.001 -15.0769
-3.23613 81.7975 -0.198046
-12.5374 90.2725 1.41722
-11.9672 114.63 4.17357
-23.482 117.092 6.10837
-33.3957 87.0668 -14.9572
-0.745368 117.859 -0.921266
-9.87099 86.3053 -1.08751
-31.8914 95.7685 -6.97287
15.183 136.495 2.88794
-7.80723 116.661 -11.6841
-33.1066 108.407 -6.07253
2.74772 109.378 -8.65837
9.64777 115.46 -3.96858
2.53096 121.649 1.43805
3.57263 119.326 -7.92883
-24.6087 110.468 -13.5312
-6.86484 99.5902 -13.2844
-9.0523 84.7916 -3.08046
-8.36406 116.174 2.40535
13.219 117.386 -3.005
11.3658 119.252 -7.50989
-15.1865 85.2346 -12.0631
11.0648 112.278 3.44746
10.8865 107.745 4.49379
-14.2044 104.565 -15.0889
5.57894 85.9375 3.36346
-21.8731 126.281 6.74288
-1.21107 126.649 -0.592425
-17.5098 97.9353 -14.3154
-15.7202 114.984 -11.743
-8.52996 78.0678 -12.049
10.5455 119.1 -4.33319
8.0991 119.715 -7.05634
-21.1887 94.923 -14.9723
-9.86321 126.554 4.47144
-6.74786 106.597 -13.6879
4.97599 128.747 3.84398
-35.321 96.8037 -10.4435
22.7351 126.531 -0.814439
21.9512 130.125 -0.295465
19.4206 121.59 -8.76877
-24.5749 125.409 5.94972
19.1125 131.524 -4.24022
-26.1524 116.199 5.67979
-25.3332 100.224 -15.5317
-8.29735 105.73 -13.8471
-28.0146 124.993 4.23914
-31.4564 83.1214 -8.81801
-27.1406 93.5727 -14.9422
-14.4727 108.764 2.84084
17.3988 141.486 3.57565
1.78685 115.48 2.56393
1.42702 111.703 4.22239
12.157 139.337 4.08028
-33.7077 86.7912 -13.1385
1.2748 118.577 0.44365
23.1338 125.76 -0.786008
-15.7267 111.967 3.46795
8.67381 73.2307 -3.31281
-3.03124 99.0072 5.89282
-6.23725 89.599 -12.9842
-16.0043 94.0974 -12.1204
-27.8434 121.33 3.12576
-21.3474 128.048 6.44341
8.48542 120.67 -9.60494
8.97776 125.71 -5.58741
15.699 127.041 3.91503
10.734 92.302 -0.698172
-10.7288 76.8667 -12.1302
-3.42917 106.657 -1.82223
-13.7224 108.738 -14.73
-24.2768 94.283 -15.683
-19.9897 105.105 -14.941
-4.06155 96.2415 4.94415
-32.9826 84.2945 -12.8017
-8.35346 120.06 3.31904
18.9236 135.579 -3.86577
-8.53225 130.13 4.23533
12.942 120.199 0.556238
-9.99928 78.9338 -12.1126
-13.0194 84.2498 -3.38703
4.9521 121.235 -8.72284
0.12616 103.36 -12.6354
-5.06736 100.188 4.53858
-21.281 129.71 5.33722
9.06853 116.937 7.31321
-21.0476 100.081 -14.6695
0.327622 120.172 -0.514155
22.6822 125.866 -0.758948
-26.6693 84.2387 -5.05369
-32.887 107.303 -3.96928
-32.2951 115.804 -5.91522
-8.30909 76.5396 -11.8156
-15.453 80.8563 -2.89386
9.81726 112.323 0.875302
-4.3229 118.09 -1.21728
-8.41763 118.718 3.11174
5.84439 91.5715 4.86401
-12.4317 80.8735 -11.566
0.686125 78.6148 -9.74999
-21.3054 130.748 5.01258
11.6299 119.214 -8.12452
9.6355 125.723 -6.09519
-19.007 81.7135 -12.1592
-25.7021 105.368 4.11364
-3.64573 101.903 3.6992
15.9273 127.049 -7.64789
6.2225 134.26 3.64992
8.83754 123.684 0.730016
-25.1801 126.897 5.6981
-17.5513 82.5592 -11.9001
-21.1258 83.5993 -0.42345
-6.43524 117.638 -11.3078
-31.1364 94.3434 -13.6799
-13.1055 86.8165 -3.78653
7.01966 75.4441 -3.41803
1.89667 78.7691 -4.03826
-14.0997 87.2873 1.56031
-32.8419 84.1296 -9.82977
-21.3109 90.7486 2.68585
-15.0319 98.9457 2.92872
-12.7887 125.097 5.44586
-4.66191 133.872 2.73977
-1.40247 122.811 -1.14362
-10.7944 107.843 2.21703
5.04478 105.288 -10.0217
3.81774 99.4498 -11.4791
-10.3133 108.499 -14.4458
2.55538 101.517 -12.3748
-31.4333 114.271 -8.47069
15.4074 142.311 4.22045
11.6414 96.5774 0.929782
5.52702 80.2509 1.57592
11.6996 98.4801 0.668162
-0.737808 104.698 -12.6085
-2.20347 81.3046 -1.74009
-12.2785 80.6863 -11.6276
-14.5094 132.031 4.77761
-8.14793 111.664 0.569397
11.8085 110.669 -4.12079
24.4318 122.688 -1.02457
-8.3777 133.55 4.09734
-34.3179 98.5841 -10.1018
-22.2556 92.4038 1.62776
-1.07827 116.215 -1.05365
4.8849 78.4291 -1.19181
-23.9577 93.9376 -0.533814
-19.4104 91.3656 -12.4563
-25.4865 126.756 5.41619
-3.37858 124.089 -7.36259
-15.2768 125.616 5.8637
-13.234 120.66 5.16109
10.3762 120.028 4.3593
-8.09585 76.5033 -11.781
5.04905 117.079 8.02781
14.1442 118.113 -0.693199
-32.5138 108.043 -8.45693
-7.12291 98.4593 4.06453
-3.51952 111.185 -1.75036
12.0502 121.782 -3.07585
3.55766 118.251 6.44933
-32.9723 102.57 -6.96301
-4.26682 127.646 1.34039
-13.8045 111.854 3.58707
-13.9099 100.569 -13.2479
6.736 76.7714 -1.07763
11.0067 113.495 2.83595
10.7701 105.835 -6.27138
-28.9262 93.1294 -14.9031
13.8846 125.578 -9.00821
-35.4276 94.7634 -12.0394
-3.94244 119.647 -9.52253
9.11351 80.3992 -4.42176
12.3745 119.285 -5.75804
4.62164 80.5333 1.19321
-23.0819 100.399 -15.0575
0.726866 90.8391 -11.9945
11.6907 128.196 -2.93416
-25.6002 90.7384 -2.45943
-18.7464 104.419 -15.018
-4.81557 77.0245 -11.1111
19.8163 138.514 -1.39631
8.40297 97.1644 -8.90824
8.81395 122.73 -8.95309
2.74405 95.5259 -11.185
5.34815 122.613 7.33297
-3.40506 76.7784 -10.6433
8.64606 77.1059 -3.56002
-4.9011 122.717 0.329249
11.8555 119.59 -2.60476
7.3588 75.3634 -2.92594
24.2049 125.051 1.26681
-28.7105 104.267 -13.5838
24.4293 124.462 1.70303
-33.572 104.746 -8.13666
14.4112 133.639 2.93705
-8.464 96.5336 -0.718412
-12.1509 101.844 -13.838
5.4156 96.3757 -9.84388
-31.51 86.3093 -13.7668
-7.83784 100.831 -2.36405
-30.1212 116.866 -1.87957
-31.7308 84.9476 -13.7772
-16.2789 97.1749 2.997
-19.3848 91.0839 -12.4313
0.643131 81.5213 1.35029
-17.781 92.2555 3.69414
10.0477 88.3111 -3.2196
11.4439 120.962 -5.5432
21.9023 128.014 -4.9188
-7.23905 96.9557 -13.7122
-31.5845 109.744 -9.61652
10.6348 121.677 0.640604
-17.6375 81.2004 -11.9326
12.0664 130.431 3.68904
10.0518 138.814 5.57284
-31.0543 108.237 -1.39489
8.4473 109.496 6.67968
-15.0611 88.4003 -11.6103
-1.68857 108.076 -0.335793
-26.7279 101.921 -14.2624
-35.6562 94.9041 -11.2126
-29.6867 87.2949 -13.272
-25.7065 87.998 -3.4243
-20.7441 114.783 5.79836
-8.42609 88.0441 -1.03774
18.4244 132.145 -4.50336
19.339 122.473 1.05188
-8.80015 96.1447 -0.52841
11.4061 105.824 3.55733
22.5961 124.6 -3.81238
24.2661 125.54 0.378242
12.9488 118.604 -1.09563
2.44249 115.35 5.15382
-32.4121 82.2807 -12.2206
4.02615 106.666 -9.38804
-8.99563 103.384 -13.2774
3.7805 116.958 -8.80783
-30.6987 91.5049 -6.08828
7.17698 98.3766 5.65423
3.66443 82.9134 -9.17627
-19.3281 108.665 4.18776
-16.8312 95.9298 1.64321
7.17152 107.552 6.86156
7.77233 76.2849 -5.06568
2.39912 124.839 -5.00956
-29.9093 112.651 0.939876
1.94387 124.858 -4.95765
-1.94699 116.32 -1.3561
-3.53667 118.001 -1.50917
-1.81269 106.257 -0.0523258
1.86792 78.4006 -4.48134
8.149 113.891 -4.49936
-18.0317 125.014 5.55846
13.3363 128.646 3.0694
-8.01176 113.788 0.698705
4.0465 89.935 -10.1315
2.08238 95.53 -11.4655
2.85494 106.335 8.32734
9.86701 80.2392 -0.966761
-13.1334 91.9559 -2.49817
-6.01674 121.697 1.26658
-8.11171 97.293 3.66398
-2.3063 109.275 -12.4593
-1.76734 109.152 -11.9163
-20.8731 92.5283 2.97257
-3.79846 107.406 -13.6939
-27.5196 107.049 -13.0424
-0.15361 113.784 -0.127591
-25.1936 93.5225 -1.54281
13.3674 120.867 0.426134
5.19017 132.014 2.34836
6.43129 129.829 6.30302
10.6716 128.497 4.09404
-1.4867 81.7201 0.780534
-18.203 110.766 -14.0887
1.55015 91.4984 5.50426
0.0729437 123.586 -6.22869
-29.0285 122.687 1.50431
10.9611 101.351 -3.45863
-23.2498 101.427 5.44762
-3.43362 83.7996 1.74936
-10.4957 121.545 -8.16254
14.3392 126.947 2.4952
-17.7084 94.8318 3.6228
11.5874 95.9212 0.729995
-33.4646 103.9 -9.10078
-20.7682 104.714 -15.2028
4.58121 126.696 2.54493
-32.55 94.5246 -13.2643
-33.3726 105.456 -5.26124
-17.0978 103.866 -14.7349
-6.13308 129.887 3.45268
6.85702 86.2417 -7.61748
-4.79457 120.044 -9.79244
-25.1363 114.706 6.03917
5.55201 78.3365 -0.65244
4.26608 78.3349 -1.90787
-7.69195 109.428 -14.0486
9.65872 80.5446 -3.73795
9.28316 105.474 5.41014
-25.511 86.1199 -13.1133
-2.59484 88.5474 2.6286
-6.41307 91.2278 -13.2761
-1.25605 109.076 -0.0975006
-4.36033 92.5579 3.56568
-6.16731 119.256 0.696224
1.28445 125.828 -0.430309
10.0815 92.1837 -2.95833
11.4758 133.275 -2.89108
11.3683 99.214 -0.163256
-29.3234 80.5895 -9.52845
9.94715 116.056 6.36015
-35.8296 94.1633 -10.8336
-26.1463 90.5424 -3.30061
-5.35511 88.8309 -12.6809
-31.7722 112.86 -4.74516
-5.99477 100.596 0.274871
-15.4261 130.842 5.66491
8.80375 128.143 -3.97022
-26.8986 90.9114 -15.2005
-12.8694 100.773 0.0677435
10.5079 115.76 2.80887
22.4025 124.259 -4.10966
-9.89852 95.8467 2.67547
9.44003 105.399 5.27369
16.6548 128.803 3.33013
-8.1906 87.4073 -1.42594
-4.67056 100.349 -13.8555
-1.3867 115.156 -8.51033
12.0839 127.474 1.77168
22.8098 120.885 0.592229
-10.2375 101.694 -13.2541
0.376086 90.9063 5.29764
-21.9243 106.59 5.42431
-11.7863 89.7964 -12.5071
-2.7224 88.3414 -12.5969
-27.053 118.723 3.97761
-0.387339 88.4371 -12.1752
-0.607486 93.5462 -12.4061
-0.932181 92.0601 4.97436
20.8207 138.814 1.35012
-10.6627 91.8182 1.94694
-8.97205 96.1668 -2.5579
10.3641 102.747 -7.35876
-21.4293 103.65 -15.4297
-9.05563 114.336 -12.4749
-30.6714 113.764 -9.1946
-14.2317 89.599 -0.964754
-29.5275 104.494 0.20848
11.0056 88.7561 0.446904
22.8815 125.949 -4.82583
1.39572 95.5841 5.82441
-13.7146 87.4248 -0.207359
-14.8475 117.003 -10.623
-33.4177 88.6775 -14.7771
-26.5963 101.505 0.828761
-32.1714 86.3573 -9.06012
-15.1275 112.619 3.57281
9.51702 116.573 -4.612
-0.293714 81.4049 0.966451
-18.9251 80.7262 -12.4001
-11.278 78.9295 -12.1515
8.24809 78.4401 -4.6662
8.58289 96.5174 4.42549
-6.58934 122.571 2.32186
-3.73666 90.3132 2.53334
25.572 123.281 0.794426
3.30367 116.927 6.38225
12.3869 119.054 -1.02074
-23.0267 102.608 -15.4726
-14.7955 104.452 3.54379
8.13011 95.3968 4.38652
23.2867 126.858 -4.57047
0.0734871 124.186 -0.836018
-11.1672 96.0283 -12.7034
20.7265 133.763 -2.71756
-4.57447 101.887 -13.8027
11.6068 127.941 2.70638
3.33014 105.529 -10.1087
-11.4536 104.856 2.007
-12.4627 134.386 4.20617
13.561 120.935 -10.0931
21.1371 135.623 1.39604
-30.329 114.657 -2.95296
11.1211 123.175 0.147606
10.9862 111.588 5.26263
-36.141 91.1271 -10.4942
4.24946 100.379 7.14048
9.72283 126.65 0.0113737
-9.76102 95.1798 -2.39917
-28.9646 87.7191 -12.7819
2.57801 125.404 -5.69885
10.1591 97.7512 3.54625
-10.1171 88.5573 -0.840713
-31.016 114.319 -4.58879
-28.5932 86.4459 -5.86712
8.13454 100.777 5.67524
-11.1394 92.4753 -0.475326
-10.4265 89.1698 -1.87875
-11.3781 90.6884 -0.592341
-17.6002 86.3257 1.93518
9.93071 110.624 -8.85756
19.9666 127.615 1.70932
5.19359 85.5346 3.25681
9.55311 110.698 -9.29232
10.4663 100.973 -6.63792
10.7686 88.4173 -0.99781
-1.96182 96.6619 -12.8282
-0.888712 123.519 -6.46155
-16.7592 91.0878 -11.6086
-18.7443 121.545 5.80349
-34.797 97.3877 -9.63186
-8.03231 86.6995 -1.82984
-31.2913 108.026 -1.79966
-22.6597 89.3477 -12.2634
12.5422 118.16 0.769285
-1.00506 127.664 -0.529214
0.584004 84.2247 3.00444
-31.9235 103.678 -2.54314
-1.51908 110.569 -0.753802
13.4811 125.116 0.194398
14.172 123.299 2.71916
0.185553 79.8902 -10.4082
-0.747578 84.122 -11.3635
-20.9269 85.071 0.372619
-30.108 107.753 -12.0212
12.3856 108.64 2.5445
-29.0606 88.5762 -13.1693
4.98182 127.727 4.65676
4.79025 80.5152 1.34067
9.96512 126.638 -4.16784
1.19859 98.0836 6.83528
-1.02323 84.0056 2.52064
9.34175 96.4987 3.97119
-30.4622 98.2673 -14.3044
-12.4202 89.146 -1.90217
-12.2406 87.2353 -1.21859
-9.25901 110.803 1.49998
11.2292 113.82 0.455099
9.0013 124.134 -6.27033
4.88098 125.706 4.20318
-18.2932 108.519 -14.6703
3.39016 111.262 8.02345
-24.0818 103.809 5.14932
-24.8517 101.194 2.95008
-14.7895 92.5385 0.136424
-25.4906 81.4634 -5.78202
-14.6392 91.541 1.49976
4.41389 82.4629 2.52451
8.41832 119.492 -7.08165
-29.6723 124.434 2.06435
6.80552 124.6 6.84333
-28.5847 126.015 3.14049
3.4709 122.879 -6.44151
-10.1568 111.428 2.53742
8.7201 125.474 -7.44472
11.8531 129.766 -7.16079
-13.8087 86.038 -3.68824
4.59553 79.3347 -0.484993
-1.36197 108.069 0.0144151
12.7005 122.641 2.46113
-29.6258 105.463 0.219122
-10.522 121.748 4.7254
5.12486 133.597 1.59878
-1.81563 117.061 -7.95531
-4.60655 101.344 2.58984
-4.23137 95.5711 5.09127
-29.4354 100.61 -1.54403
-6.19977 83.034 -11.9351
3.86255 123.659 2.88596
-0.581234 111.87 -9.60267
10.6915 138.833 5.14862
-22.9776 105.218 -15.177
10.7752 113.213 5.30917
-32.7919 108.716 -6.42852
13.0653 140.429 3.83865
1.24023 87.528 4.25528
8.95149 78.89 -3.62743
15.2154 117.385 -1.49152
-30.0224 101.431 -1.43318
1.82824 119.003 0.98532
9.54213 80.7528 -3.93939
-20.6689 124.433 6.31557
10.3524 94.5907 -4.04425
13.7372 117.731 -4.7045
-12.6973 92.0227 -0.122395
-8.79977 132.229 4.25867
11.7065 123.21 2.91387
-4.49735 101.425 2.52087
-5.37162 110.347 -1.77467
-20.7441 96.0584 5.15202
11.3839 113.255 3.84644
11.6502 115.823 -1.89621
4.27722 99.2515 6.65555
8.90729 113.012 7.098
-12.5372 106.595 2.481
-19.7118 92.3266 -12.8983
13.2124 130.179 3.38021
-0.420796 109.303 0.874388
-23.0302 119.701 6.34369
16.175 123.799 -9.26537
9.98223 85.2599 -3.64125
-32.9098 94.1975 -7.83738
13.5043 125.238 1.27598
-1.47555 113.07 -9.38772
-8.35805 92.6456 2.63323
11.0595 121.594 -5.93953
-1.75095 104.059 1.86008
7.20043 75.2806 -3.39397
-20.4628 93.5103 4.07734
-15.4671 99.9535 -13.6877
-10.9126 120.057 -8.67031
17.2467 130.041 -5.69607
-16.9238 83.1227 -12.1999
-11.0608 105.398 2.16521
-1.47133 120.492 -1.26684
11.7557 125.36 3.34416
-10.4456 101.969 -1.7578
0.863116 84.4043 -10.6391
13.8508 123.529 2.01047
10.512 131.16 -5.25664
2.67282 96.6652 6.37192
-4.0252 102.103 0.0528224
-24.9008 105.587 -14.531
-32.5544 115.353 -6.83121
-20.1164 80.3577 -4.00176
-35.1474 89.5985 -9.84387
-0.263106 103.299 -12.8926
4.31542 88.1645 4.35055
-14.8239 116.16 -11.0002
-4.23567 106.944 -13.5986
20.5297 121.878 0.418038
-29.0326 123.59 2.8894
-27.9697 118.391 1.98586
-24.3859 101.62 3.6756
21.9108 125.049 0.407709
2.26284 110.722 6.92042
1.82865 84.7108 -10.2925
2.55029 125.4 -5.60165
-12.4224 90.3591 -1.27495
-18.3825 105.653 -14.5373
8.79641 86.3241 -6.24727
10.7111 128.74 4.00803
5.03753 118.602 -8.42487
-7.59013 97.31 -1.06806
3.63749 79.0391 -8.27029
-32.6462 109.717 -6.04439
9.84554 112.315 1.12112
-33.4937 107.55 -5.29441
10.1694 100.384 -7.23203
-11.6583 91.5928 -0.0734255
-27.9806 108.63 -12.2266
-1.89512 100.959 -13.565
-27.6587 99.4336 -0.70787
-16.5488 111.243 3.58307
6.42114 95.609 -9.62407
11.9669 110.813 3.63434
11.2163 99.9566 2.59713
-12.7689 107.63 2.34808
-26.4374 101.065 0.662084
12.5708 117.681 -5.99976
-32.4051 116.074 -5.91125
-32.3654 104.408 -3.14551
6.1801 98.609 -9.75743
-3.55854 105.572 -1.77807
12.5455 119.245 -2.5234
-20.8184 131.577 4.67643
3.07186 124.174 -6.44136
-8.40031 114.412 -12.3598
20.621 130.74 1.03483
-26.9888 110.257 -12.9703
-13.1845 90.7285 0.144012
-31.5369 107.769 -2.06473
11.7186 103.175 1.532
-7.71553 122.936 3.38572
0.781182 129.549 -0.350612
-24.0112 85.4989 -2.07149
-15.9137 112.609 3.66251
10.7244 100.007 -1.8195
-25.1773 108.407 5.41679
-5.36871 115.32 -1.36909
-2.45457 112.069 -10.7756
10.362 126.69 -0.710887
14.0094 124.109 2.00104
-13.8037 119.43 5.15596
6.6764 118.661 -9.89024
2.85509 113.773 -7.55577
8.81035 76.2932 -1.06366
-21.3272 81.8381 -2.10362
-18.3279 99.8197 4.57983
10.3063 92.393 -2.10088
-3.90466 101.721 3.80616
-11.0461 117.44 -10.0287
9.32809 90.332 2.48534
-3.69012 94.4514 5.0653
10.2997 84.282 -2.18362
-13.9614 94.8608 -12.3312
-19.6872 131.09 4.6856
-7.20921 112.473 -12.9782
-24.7701 102.707 4.08489
15.3213 142.791 4.21734
4.77359 124.946 4.5271
-10.7907 102.942 -1.23456
12.2747 120.136 -6.18977
12.3197 117.302 0.635964
2.09452 83.1128 -9.92036
-34.9336 84.7719 -13.6732
-2.14236 120.626 -1.23687
-20.4207 94.8337 5.03443
18.3663 125.165 2.45976
-4.26271 82.972 -12.0429
-30.9572 102.191 -1.88455
1.72044 75.5999 -8.6202
-0.414039 92.4483 5.08496
-25.4897 117.276 6.0541
3.15999 95.7807 6.14891
-23.7633 91.6664 -0.537398
-6.40836 118.013 0.546226
23.1226 120.266 0.556141
-6.85866 118.941 -10.7744
-3.96493 98.5465 -13.7569
-10.9722 88.1387 -2.03125
-13.5358 120.413 -8.42795
-12.8518 110.91 3.46575
-15.0859 84.494 0.495915
-22.4434 95.0198 1.85609
-9.93245 86.4307 -1.55081
10.1601 125.886 -0.379148
-11.4228 86.4614 -0.400551
7.25419 125.846 6.78675
18.495 128.293 -5.82023
-26.1048 86.0529 -13.2422
2.00197 115.36 3.24205
-7.52902 99.1719 -2.22833
9.79661 82.1632 -2.08866
-22.0802 125.374 6.73931
3.69996 84.0335 -9.23417
-21.6067 110.141 -14.0552
-17.8528 90.3855 3.03538
-28.9462 81.3923 -8.20626
-26.5259 125.806 4.66674
2.37286 114.88 5.37976
-23.3909 83.2936 -2.46603
19.5657 135.073 2.11007
-5.92223 117.179 -11.4142
10.7319 124.299 -7.67527
-16.2687 105.03 3.55833
-25.2738 95.8382 -15.6062
-2.21702 112.642 -1.52492
-13.6517 114.191 3.97176
-13.6573 87.4061 -11.0673
-11.3141 89.6946 -1.82115
10.1773 114.916 -3.34146
16.1136 118.864 0.422635
-17.1802 84.8572 1.10247
16.936 125.179 3.34938
-13.9351 92.096 -0.147812
-12.9785 105.346 -14.9227
1.60219 80.466 -0.587225
-7.16298 131.99 3.92364
-25.9592 109.979 4.80868
10.3538 113.143 -7.30564
-5.84393 98.6084 -13.7095
-23.7592 88.0528 -1.04643
6.81221 129.158 6.41544
-36.0376 88.3903 -11.2986
-2.55086 110.45 -11.9478
19.5106 121.045 -8.89832
0.428477 110.083 2.03739
10.8125 107.407 -4.9066
10.5769 88.676 1.17891
11.4998 120.05 -2.23701
10.92 104.484 -3.33359
-7.00254 122.444 2.65594
23.0054 131.123 -1.22702
23.1058 130.704 -2.38485
-16.2986 109.294 -14.1195
-4.05891 92.5436 -13.2249
13.1881 123.034 1.32624
-6.12331 104.525 -13.2094
12.0642 120.98 0.272475
-26.6445 91.3792 -15.3077
2.89473 84.566 -9.79619
-16.2338 94.1851 0.791689
2.82797 111.17 7.56298
10.8079 97.589 -4.19971
-29.5917 106.357 0.484407
-14.1393 84.4038 -1.1367
8.45318 113.821 -2.96715
13.0157 117.913 -4.02804
9.18492 98.6468 4.55722
0.434467 120.025 -0.447327
-2.03775 110.633 -1.25958
-2.24261 97.16 -13.149
2.22064 113.786 -7.48898
11.2195 108.163 -3.83005
-20.2026 91.9579 -13.1278
-26.1606 86.3555 -11.9607
8.1132 105.599 6.04337
-30.5332 117.229 -2.08936
20.2409 122.861 1.33453
-32.2872 95.008 -7.23511
-14.5283 95.9723 -11.9254
-5.48788 82.4938 -11.9694
15.088 122.373 -10.2474
-35.7745 85.5907 -12.3345
-19.6773 87.3291 1.94454
-23.7928 102.031 -15.5167
-24.5675 96.8678 -15.666
-21.8168 86.829 -11.2178
-31.8531 102.853 -2.55439
-31.3286 97.0973 -5.65587
-16.0627 84.5159 0.86699
10.0041 110.419 -8.66824
0.464529 105.35 -11.5656
-7.01696 99.0675 -1.98993
-15.0225 99.9236 3.45239
-29.3657 95.3229 -4.3988
-13.7151 110.944 3.48652
-32.4332 113.918 -6.86548
1.72152 113.481 -7.81464
1.16389 120.26 -6.20878
11.3463 127.281 -3.56209
-14.5564 129.242 5.81236
24.5969 125.42 -1.69986
-33.4451 94.4244 -13.1578
-9.38188 83.1451 -11.6146
-29.2576 104.848 -13.3547
9.72719 99.3141 -7.76327
15.2217 116.844 -3.62771
-1.62931 80.8093 -10.881
4.27319 100.248 -11.3533
-2.70714 80.3719 -11.2045
-0.908118 103.759 6.15852
24.6752 124.909 0.943465
11.8439 133.209 -4.03077
-1.30141 102.892 -13.6876
8.76078 118.251 -6.26404
-11.3728 102.887 -14.1019
2.11279 77.6738 -8.76469
-23.0003 103.291 -15.4133
9.48739 125.377 0.749296
-16.5994 97.4742 3.95533
-27.3408 117.197 3.34626
-21.7406 111.114 5.60194
4.90416 121.795 7.05819
-23.8747 104.244 5.33316
-5.4835 94.4757 -13.5601
-32.6668 103.735 -11.7382
17.5114 133.004 2.49612
3.46646 105.42 8.01048
-7.03531 79.0357 -12.0127
13.9787 117.507 -3.94378
-10.5405 107.783 -14.597
23.7605 125.449 -2.45501
-14.9041 81.8837 -1.60795
11.2354 95.1007 1.47319
-26.979 90.1241 -14.6257
12.9147 122.23 1.74403
-32.0978 86.6997 -8.90046
7.49584 80.6532 1.37722
-25.3759 102.303 3.18039
17.7736 134.545 2.82677
-17.4418 84.0631 -12.3698
-5.87499 113.027 -1.5545
-11.7633 121.754 5.08854
12.3217 116.339 -1.05312
-35.6406 87.3851 -11.3341
-32.0333 87.5289 -8.59287
-16.0545 109.622 3.2499
-5.11888 119.897 -0.424478
-29.3709 92.74 -14.8088
9.5257 110.423 -9.41693
-8.81774 133.224 4.17389
2.9232 119.874 2.69142
-6.23059 121.627 -9.4716
-13.7748 82.0421 -11.7282
-9.1042 88.2797 -12.2113
-21.0072 111.382 -14.0383
-11.127 111.986 -13.2444
8.72903 102.98 -10.0543
-10.1563 88.3038 -11.9569
-0.547291 123.243 -6.53966
13.3785 128.227 -7.92729
-21.5615 110.643 -14.053
-6.80764 82.9511 -0.778798
-9.03959 109.817 1.20069
-12.9961 92.1284 0.0891887
-25.8176 104.205 -14.1105
5.20507 118.623 -8.43736
6.79368 101.645 -10.5832
20.0358 127.529 1.68095
-31.5193 96.4079 -6.72465
-7.26288 124.727 3.39875
-12.0759 95.5509 -1.31296
-31.5303 107.308 -11.1622
-23.8731 128.138 4.6347
-18.8866 87.6137 -10.9016
-13.4745 105.178 3.15919
-20.7769 106.94 4.64196
9.70824 111.754 6.45166
0.700889 110.881 2.24846
3.17164 120.505 2.97202
-29.9843 94.5129 -5.66173
-8.60934 91.5355 -13.234
3.83734 98.0397 -11.1027
-12.1917 94.0508 -0.864024
-24.3795 85.2399 -2.44541
-14.03 100.382 1.56431
-22.6211 91.7712 -13.8871
-35.0202 92.861 -9.53611
-4.9133 135.016 2.79558
-29.4098 120.836 0.616607
-17.7083 130.099 5.12482
-27.546 88.7215 -12.7075
-12.494 119.944 5.01542
10.7842 123.915 -4.75679
13.1858 121.489 1.5421
-7.48602 98.5889 -2.00781
5.62831 116.918 8.14361
0.454035 105.781 3.63739
13.3066 134.351 3.57369
-30.3104 110.498 0.252451
2.41008 105.928 -10.118
-13.5834 98.1209 -0.228177
-1.24497 132.616 1.49711
-20.1718 87.1119 1.70395
-25.6404 99.3996 0.616248
2.21536 90.9919 5.42143
-3.71999 87.3791 -12.2342
3.56994 79.9329 -8.53081
9.85348 97.1017 3.75448
16.7686 120.628 1.44952
-13.0133 90.5282 -0.705109
-28.5436 114.532 2.11575
0.156142 125.929 -0.826504
-17.6922 87.4976 2.65958
21.4863 123.724 1.77859
-33.0998 101.152 -9.37225
-12.0061 102.141 -0.307227
4.71889 87.5396 4.06077
2.98038 112.258 -7.86267
11.0511 102.475 -4.3195
-1.33169 127.203 -5.18308
-6.64135 120.678 1.87406
-9.20227 95.7227 -1.08583
19.0663 129.094 -5.17351
-26.1542 96.7488 -15.4723
9.94623 91.2392 -3.46484
-19.9434 130.167 4.78132
-16.9322 106.234 3.5024
6.16428 90.1735 4.2412
6.20116 83.4981 -7.72892
6.81823 82.9298 -7.30496
-27.1573 105.639 -13.63
6.6917 113.294 -9.81697
4.10082 78.5009 -1.90166
8.62583 124.174 0.0434108
15.2514 123.48 -9.85809
-4.55093 80.153 -11.9335
-32.8114 110.443 -5.90412
10.5823 110.466 -7.3158
-25.9748 107.351 4.65202
-12.8199 126.054 5.44232
-25.0235 86.3112 -12.4797
-20.3686 100.617 5.12476
-12.673 119.566 -8.51644
2.11881 98.4525 -12.0875
-28.4177 115.397 1.99606
10.661 97.527 -2.02703
-6.65134 127.008 3.07678
-17.572 112.411 -13.1013
17.908 136.346 2.89147
22.0735 122.406 -7.05768
-4.85772 77.2147 -11.1514
4.67357 134.15 0.421513
2.03094 106.281 -10.2045
-14.2678 99.5392 1.38257
-32.0409 89.4717 -7.90846
-22.1201 108.107 -14.3039
-16.2701 109.144 -14.1487
-32.5566 112.659 -5.97858
-33.6039 102.077 -11.4904
-7.13964 84.0065 -4.27465
10.7701 115.387 5.01238
12.898 118.465 -3.42723
11.7943 103.13 0.839299
7.83264 107.818 6.66851
23.0427 120.601 0.575723
-5.53446 82.7352 -3.05282
-29.4987 91.8218 -15.0416
3.43188 123.294 2.24988
12.2196 133.216 3.82681
-12.761 83.4305 -3.04239
3.88603 123.72 -8.18588
14.7588 136.735 3.00262
-14.779 130.161 5.58896
9.17008 122.471 -6.2104
20.0788 137.778 2.03876
19.476 141.806 1.6528
2.9093 115.143 6.45698
-7.60924 91.3193 1.203
22.4852 130.193 -3.55685
22.2692 122.348 1.10393
-6.18335 96.2197 4.87425
-29.8074 109.889 -11.069
-8.7631 93.9578 -13.4998
17.1371 116.885 -1.72688
-33.3256 109.544 -5.0707
-16.489 114.765 4.15296
19.8031 122.519 0.894035
-28.8516 111.171 2.14227
1.88752 110.109 -8.75442
-20.9975 107.967 -14.3689
9.00902 121.58 -8.27016
10.1753 121.549 -5.04173
-32.2915 104.121 -3.05445
-8.39168 90.3083 0.320985
0.307218 80.7947 -10.4167
13.0007 119.859 -0.716067
9.54718 103.742 5.1676
-20.7502 117.518 5.73707
2.9898 83.0877 -9.60876
-4.40298 89.5116 1.97866
-0.415063 80.2676 -2.46677
-21.2363 130.33 5.24038
-11.2043 85.8876 -3.62727
-25.9605 88.222 -3.64908
11.0455 100.583 -1.07843
2.27334 104.249 7.90305
-13.4488 82.4969 -3.55301
-29.9614 92.8876 -14.5362
-34.0038 87.4242 -14.5749
-19.3713 81.9094 -1.9771
-27.5099 89.2017 -13.4328
-6.9455 96.5535 4.60879
-25.8223 86.6236 -3.80417
5.09839 126.926 5.47505
6.72768 114.223 -9.68993
12.6299 116.859 -0.997905
19.9891 135.478 -2.95921
3.56339 123.392 2.45466
-31.8672 116.142 -4.49313
11.7792 110.274 0.687374
14.0858 133.65 3.0418
-12.0164 114.697 -11.4889
3.457 119.246 -7.94809
-16.8478 129.717 5.18849
-26.355 104.459 2.76576
-18.3438 82.6612 -0.579452
8.55641 87.3154 -6.79562
-24.25 91.6423 -0.914611
-8.23554 105.977 -1.27305
11.8608 119.572 -2.59993
2.52895 111.181 -8.2593
8.48321 116.97 -5.28384
-28.5702 103.146 -13.8688
17.3603 126.991 -6.97714
-23.0192 112.421 -12.9451
-24.9263 100.047 -15.5759
21.9298 134.535 1.03986
0.414779 95.4199 -11.9481
-2.81783 125.887 -6.49697
20.2723 131.273 -3.21715
9.66959 80.9753 -3.80488
-10.5903 87.2766 -2.2816
-8.94629 85.5201 -0.465107
-4.71502 90.691 2.11065
1.77436 102.824 7.85768
20.8087 135.507 0.102762
-8.01596 98.3621 2.27883
8.00021 105.653 6.10335
-29.7787 88.5838 -13.6564
-13.3225 86.33 -0.311373
5.58879 102.498 7.09988
-19.4079 89.5248 3.16332
-12.4505 98.7586 -12.3057
-6.13159 117.123 -11.4771
-24.067 86.4253 -13.4037
-6.61092 117.609 0.678438
-9.7737 104.644 -13.9486
21.9289 122.555 1.005
8.04186 83.6935 1.92439
-3.93399 104.284 -1.83561
-8.44685 78.3357 -12.0729
-29.6288 82.0774 -8.09523
-4.0362 115.37 -10.9739
-12.1405 90.8674 0.553527
11.0335 99.2043 -0.913697
-10.7879 111.112 -14.0034
-12.663 87.8198 -1.74374
21.2521 124.769 -7.05158
1.97923 93.975 -11.242
-0.786759 103.182 -13.2526
-4.83694 106.838 -2.14796
21.0826 128.298 0.660131
10.4891 114.085 5.56829
3.4625 120.328 4.05956
-18.1853 117.592 4.79348
9.56836 126.724 -7.56214
1.99157 113.725 4.96206
1.56719 118.174 -7.18164
3.45349 102.709 7.61535
-0.0643817 124.073 -0.87822
-3.85595 83.5503 1.33082
9.70498 77.4847 -2.01283
-20.8076 124.797 6.44311
-30.0001 84.2964 -8.08211
15.9875 131.306 2.75756
-30.6183 87.9714 -14.6258
19.6044 140.326 1.84738
-12.5571 100.691 -13.1065
14.875 127.5 -7.92096
-22.318 91.1864 0.999673
9.9975 107.777 5.409
-29.1012 88.6424 -13.0134
9.01917 126.108 -8.95331
25.1643 121.875 -1.33832
-0.503024 104.832 4.15262
-19.5238 88.7902 2.42597
8.12139 116.56 -8.35822
-14.4334 108.871 -14.5131
-7.47325 99.846 -13.0796
16.4002 117.43 -0.898489
12.0434 123.435 -0.0505323
-3.17751 127.071 0.444693
-27.827 121.292 3.1165
-27.9232 98.9264 -14.7155
-3.73748 79.7522 -11.4873
14.774 116.313 -4.72385
-10.8685 85.9256 -3.92727
-6.01234 79.1237 -11.9196
-3.81132 102.03 1.33417
3.27508 124.755 -7.40638
-25.2508 112.67 5.61889
-23.0085 80.5381 -4.3151
-13.6484 103.538 3.41377
10.2734 89.4708 -2.63668
7.55227 78.8931 0.813433
-29.486 114.414 -0.576241
8.11784 76.2976 -4.47163
-12.9512 92.0225 -0.592641
8.4015 87.6078 2.5179
-9.70983 123.503 4.67738
11.3659 94.446 0.456657
-30.0131 113.039 -0.0165825
-15.6814 127.594 6.30034
-34.9999 86.667 -13.2495
21.7247 132.893 0.982208
-20.7891 87.2659 1.44093
-13.4329 112.689 -12.1517
-4.90912 129.522 2.68674
-17.8998 116.629 4.54703
-4.01965 93.4197 4.20896
8.47443 86.4689 2.16936
15.7624 140.416 4.22958
-8.77083 100.245 -2.443
6.45991 135.002 3.33088
12.7476 121.651 0.36184
-30.1105 113.908 -1.28079
-22.4854 90.6241 -13.3502
-33.1589 96.907 -7.78284
-35.1891 90.0865 -9.77032
5.51878 106.073 -9.35631
21.0105 124.252 -7.70125
-15.2479 98.1154 2.91261
-3.77025 96.5758 4.85096
-6.18852 104.56 -13.2173
-1.21948 127.777 -4.9565
15.4585 134.272 2.94137
7.65668 96.3825 4.87735
-10.2772 85.5047 -1.06041
-11.3056 89.3609 -1.83502
-33.9217 95.4824 -13.287
-13.4609 93.5404 0.409254
-21.2872 125.515 6.6671
7.50784 115.116 7.96017
-7.35881 110.969 -13.6898
10.3334 90.7205 1.65208
-11.8074 86.1667 -2.50577
-24.913 109.502 -14.065
-12.6108 89.9213 1.4594
8.16696 79.8843 -5.48473
-23.6955 80.7664 -4.21208
10.8342 105.414 -4.03109
10.8987 104.526 -5.26203
11.7855 127.187 -3.18357
-11.8116 114.03 -11.876
-10.7877 114.477 -12.056
-29.3667 114.131 0.800949
-29.5252 88.8072 -13.7702
-1.14161 117.832 -7.65971
-2.0439 103.531 2.23196
-11.8274 83.5394 -11.1785
17.4698 133.144 2.53806
16.5983 127.17 3.62428
-29.4306 84.7385 -7.83081
10.0671 127.135 -6.00881
-8.16742 122.714 3.73307
0.865991 104.508 -11.6648
6.09467 88.2048 3.86775
3.52591 124.397 -7.8138
-6.71326 99.6769 2.13191
6.66047 83.6051 -7.51824
-31.4399 88.7584 -13.8238
-0.578577 117.422 -0.78943
3.633 110.216 8.19766
6.00877 94.9949 5.03793
9.30149 117.763 5.30354
-13.2199 121.429 5.11662
-12.2715 89.7082 0.368972
-2.03293 109.366 -0.966019
13.5241 122.839 0.548493
-33.8252 94.5239 -9.01038
-20.7696 108.642 -14.0609
-34.6991 86.7555 -12.9675
-0.424937 120.004 -6.8025
0.19103 92.4254 -12.2759
-4.85293 129.317 2.5963
-25.4394 98.6 -15.5191
4.55468 79.5934 -8.06654
-27.7815 88.023 -12.4308
6.34626 113.865 8.15018
21.2304 124.589 -7.10221
10.2331 124.141 0.0707632
-0.377182 83.0189 2.08009
4.6533 79.1303 -0.660462
-19.2203 89.8378 -12.2773
-10.7008 84.5004 -2.76734
-21.0811 91.541 -13.7831
6.31217 130.313 6.27677
20.3776 139.22 -0.0481467
8.73436 118.69 7.55567
-24.7209 81.3567 -6.82273
7.36779 91.011 -8.65077
14.032 120.058 -9.42085
8.16105 123.874 -9.02766
22.2708 126.337 -5.81161
9.71678 129.482 -2.83498
-0.0641794 124.963 -5.29471
-5.89787 81.7974 -12.0289
-17.0746 106.047 3.52943
10.9434 90.7633 -0.325428
-27.1373 97.6573 -1.1218
12.86 120.053 -10.0831
0.5004 97.89 -12.3394
-9.90818 87.7193 -1.94597
-23.617 111.604 -13.1971
0.691229 107.327 4.54984
8.76151 122.909 -0.615429
-9.41105 93.3237 -13.3791
-9.00247 104.528 -1.69654
8.74569 94.2954 3.92152
-28.1919 108.105 -12.3217
-3.17041 122.126 -8.16421
6.04895 115.563 -10.0041
12.5276 124.598 -0.139014
-14.6776 82.5069 -2.00075
-33.3988 103.429 -9.27115
