ply
format ascii 1.0
comment Created by Open3D
element vertex 1918
property double x
property double y
property double z
end_header
-18.2967 108.713 -9.0264
0.0465574 103.881 -13.0952
-2.43847 76.3253 -1.3376
-21.258 125.262 -2.68256
5.58066 142.28 -5.7797
-10.7643 78.0533 -6.85013
-12.1405 78.6245 -7.50869
1.61551 100.844 -12.2614
-28.9475 127.35 3.0065
-9.32303 137.298 -7.78408
-20.6812 111.323 -5.45325
-13.8501 75.9193 -6.71007
-6.66555 85.1955 -9.38786
-28.6308 129.285 2.96456
-7.91277 99.5512 -11.5838
-16.2266 90.8648 -10.5753
-11.8216 139.552 4.18479
-20.8961 91.6237 -4.85875
-3.06593 111.716 9.19055
-20.0987 90.5014 -3.45085
11.537 125.068 1.85709
19.2896 131.044 3.14308
-12.2626 99.2824 6.37731
8.33717 93.3703 5.63738
-12.0195 92.3193 -11.5665
17.8506 149.404 -1.32497
13.2073 105.304 -10.2907
-17.2596 115.608 -3.02509
-12.1635 112.897 -12.0637
-21.4517 131.787 -1.75205
16.0772 133.59 5.55134
2.20201 87.1003 5.87283
-5.50238 119.655 -9.04148
-14.2265 98.2885 -11.8583
5.40614 100.418 7.19153
-9.5117 105.256 -12.7505
-3.79495 91.8572 6.45137
9.18336 139.306 -8.37802
13.7357 147.645 -6.08234
9.9518 125.431 1.76002
-18.9615 103.893 1.10407
23.4901 140.815 -3.51863
6.24799 136.764 2.55108
2.83822 109.477 8.0738
-26.9082 122.472 5.1537
-18.8187 120.006 -0.439193
-21.0594 97.7386 -4.80706
-6.00867 82.9235 2.40123
-19.1705 142.247 1.07689
20.4129 126.811 -5.52642
20.0345 124.486 6.65867
-1.25262 82.0827 2.37664
5.71791 77.6866 -5.41813
-23.5461 76.9841 -7.61792
15.8034 135.409 -9.74755
-3.30028 146.534 -3.41051
-1.1829 91.5633 -9.44902
-2.57545 128.268 -6.80168
3.94931 83.85 2.97365
-21.0585 96.4806 -5.81441
-14.0991 124.78 -9.10189
20.7164 133.79 3.21627
-18.4904 77.0394 -9.05928
-13.3359 117.483 -11.103
-20.9501 79.1114 -5.24599
-23.704 122.212 -0.0974008
3.06122 129.473 -5.14193
16.2852 126.54 -4.17586
-13.01 85.8821 -10.6094
-7.96357 133.458 3.79521
7.87855 137.262 0.742322
-5.63401 96.4747 -10.7304
-6.69034 96.6102 -10.5408
-17.081 122.934 -8.16496
15.3834 115.276 4.22151
9.44158 99.9878 5.60171
-13.6275 141.863 -4.64197
-16.2476 134.808 -4.50972
-6.73566 101.718 7.47358
-17.5637 99.8623 0.540784
-1.74943 104.314 -13.1649
16.641 125.813 -6.92302
-24.765 118.754 -0.996537
-10.7681 117.954 9.88304
22.9913 142.4 3.02525
-1.66086 114.372 -11.4293
-5.92206 96.7479 7.32293
22.5538 142.796 -3.74375
11.3062 95.734 5.27629
1.79595 135.676 -3.96123
17.9136 119.561 -4.74662
4.38183 145.715 -4.87608
-8.71514 100.678 7.32598
-16.0354 145.948 0.924866
-11.2803 121.857 9.87257
-3.21884 111.907 9.22105
14.7746 140.872 -8.03315
15.1908 117.966 -10.8803
-27.1226 132.274 5.45892
-12.2994 131.417 5.58013
-27.2434 128.594 1.44887
5.75811 103.908 6.87382
2.31417 79.2715 0.331291
15.4662 145.729 -4.9545
-21.6005 90.2631 -5.94311
-12.4885 104.722 -12.2331
-1.93567 94.395 -10.5059
16.9059 132.366 5.21355
-11.8924 127.163 7.44694
-16.3593 120.112 6.59743
-2.52759 83.3988 2.78189
-12.9677 135.401 6.24431
-0.460919 139.233 0.0258658
-4.10856 83.5903 2.65431
-19.4824 120.714 2.74404
-8.31129 102.803 7.87743
-12.9415 130.806 -8.78497
-19.9449 100.706 -1.59947
-18.8977 119.48 1.71135
-15.4398 115.94 7.07696
-14.0202 115.917 9.51479
-10.3958 106.369 8.93874
2.89863 112.974 7.75059
-18.7578 121.754 1.89333
-19.0406 120.137 2.36271
6.02069 104.931 6.47298
18.6283 148.549 -1.49227
-16.6606 96.0845 2.62505
-14.0979 139.538 6.75089
9.93326 128.698 -7.91135
-21.4775 119.428 -3.00619
4.61834 153.356 -2.76967
15.3306 128.579 5.01473
-2.31563 77.8284 -1.72953
-6.97445 78.525 -6.78347
-16.8916 95.432 -11.2488
-18.2301 97.5457 -0.0840775
-17.194 113.483 -9.52615
-19.8086 119.71 -0.0871594
-9.82092 109.106 9.74423
-15.2106 82.1893 -9.34098
-19.2534 109.729 -8.57952
1.34109 116.65 -10.8915
-16.5128 146.238 3.55551
-8.29755 80.6789 0.535123
-19.3295 106.167 -3.51909
-19.4954 132.197 -3.5244
-3.73654 76.5938 -5.80374
-5.99976 126.478 8.53882
24.309 139.048 2.2036
11.8111 100.998 4.4177
6.62423 105.167 5.96811
-17.8505 131.095 -3.17497
-23.2142 120.887 2.99614
15.8945 136.435 -9.74198
-9.60953 110.781 9.85677
-11.4357 105.007 8.35489
-13.8654 135.082 -6.05706
-2.65251 120.395 -8.789
-19.3492 123.563 4.61818
-16.3146 117.632 4.95158
-16.2343 125.199 4.33687
-17.444 107.605 1.15267
-0.705431 135.407 -4.30654
-11.0136 149.986 2.39572
1.81944 93.3381 -9.89577
-18.774 122.77 4.33081
22.2867 138.248 -7.17686
-17.0437 112.805 -0.816655
-14.068 79.0688 -2.54513
-2.98392 129.829 -6.20831
-16.9303 94.3848 1.79844
-20.7281 86.2376 -4.5373
-3.45662 85.2478 4.00583
-12.6029 145.994 -3.18175
-19.7877 115.201 -7.63739
16.012 111.752 4.77213
-17.2366 139.83 -1.49188
4.46963 112.858 -10.0204
-1.75694 136.886 0.129459
14.8606 121.748 3.30845
-14.3614 78.9016 -2.70721
17.9823 123.813 8.64412
8.82739 127.96 -6.91165
14.3085 98.8358 6.01183
18.9563 127.032 -3.95952
-8.10502 88.5587 2.82432
-22.4581 77.1673 -5.44957
-22.6657 76.5866 -5.61679
-5.38318 129.86 -7.33482
-20.6599 84.3286 -9.60607
-10.7355 77.5295 -3.18846
-21.5474 119.396 -1.66063
-18.1817 139.661 7.35028
-4.9138 103.395 -12.7837
-21.5316 119.901 1.02971
16.0815 119.877 -8.16951
17.6366 131.244 -8.3357
-6.00825 108.905 9.63155
-2.78843 100.31 -12.1841
-17.2678 132.269 -3.13925
0.634393 126.717 6.90392
-1.29899 97.5531 8.32838
7.12905 107.842 5.16901
-3.5439 88.1289 -8.65181
-21.1733 140.525 6.00769
16.0449 121.196 -9.08659
10.564 94.5445 5.47868
-18.1125 126.034 -5.16774
-13.8838 109.47 -11.9736
-17.6551 120.024 -1.45907
17.5118 132.465 -9.81286
-14.0902 124.584 5.04878
0.421514 94.6702 -10.7314
-4.07111 113.494 -10.8994
-11.2166 140.377 3.70304
-25.009 121.098 3.60041
-13.317 79.2081 -0.653525
-5.0569 86.0045 3.94143
9.61569 128.901 -7.72264
18.6911 130.398 -6.83324
-15.879 119.319 -10.235
6.49942 139.877 -6.92726
-20.637 91.4943 -9.81575
-20.3995 112.217 -6.09454
13.2649 137.14 -10.7643
17.486 128.421 6.16934
0.57763 98.2851 8.35804
-13.8231 125.851 5.57084
2.02281 100.435 8.25436
-1.54875 117.505 -10.2815
15.1319 145.76 -5.23885
-7.13792 133.325 -7.66019
-5.38965 143.124 -5.37144
-18.8982 82.1548 -3.08439
-16.855 87.4938 0.143031
-12.5544 78.9983 -1.09897
-10.6072 87.2504 -10.3181
-6.27481 111.535 -11.1706
8.50036 100.19 -11.1293
-6.55655 121.543 -8.38142
0.659638 127.316 6.78127
7.13735 79.8936 -6.08179
-4.82223 89.5739 -9.3618
-16.982 114.142 1.53551
-12.7641 120.507 9.91557
-20.2715 111.089 -6.53463
5.69321 84.6622 3.95583
-0.755781 79.3255 0.291492
-14.1127 109.271 -11.8654
2.6611 76.4832 -1.27576
23.9589 136.306 3.21494
11.4905 122.154 2.29997
19.7722 130.228 3.28877
15.6306 132.309 -9.04974
-7.66947 132.336 -8.57275
-14.9796 126.589 -8.30634
-12.9566 120.841 9.8763
-12.4268 89.7025 1.15336
-16.8759 114.108 0.32562
-5.93615 154.445 -0.53964
-7.10286 109.653 -12.0141
-20.5075 121.326 -3.47935
-10.8779 144.084 -5.17978
-15.3501 145.399 0.277903
6.63947 125.192 -5.77342
15.805 136.106 -9.81797
-19.7116 105.4 -3.38758
-13.5924 125.873 -8.43689
-11.8309 119.432 10.1497
4.73163 139.708 1.11316
4.45579 106.883 7.34911
-22.5843 129.45 6.34524
2.94685 111.354 -11.7405
-16.0759 144.961 5.79914
2.57337 102.887 -12.1895
-20.5401 107.11 -5.31701
-22.5612 85.2844 -7.47786
-9.48675 132.6 4.1335
19.6044 125.081 -4.95231
-8.86254 125.715 8.092
-5.77567 128.604 6.99382
18.5284 127.822 -6.66419
-19.8037 123.881 -3.21603
-16.327 94.6752 1.95078
-30.2466 123.799 3.73276
-16.7359 125.547 -6.79643
-2.17971 152.238 -2.17583
7.99142 101.168 -11.245
-20.5696 101.54 -3.01497
9.95064 133.461 -8.38133
0.197256 100.817 8.54275
-21.7911 92.4781 -8.5799
6.91385 140.842 0.354595
16.8998 144.479 -4.88525
1.08746 102.192 8.68952
3.85986 90.0393 -9.10932
-4.51244 138.231 -5.55341
-15.5995 110.576 2.46902
-2.65927 132.428 -5.80979
-2.24558 137.584 -4.15508
4.41247 104.1 7.79258
0.980916 109.504 -12.1249
-22.2151 131.148 -0.642302
5.43647 145.041 0.631771
-3.95333 90.7548 -9.64126
-13.0847 112.624 9.11526
-15.7043 132.903 -5.07744
-17.6345 129.288 -5.30876
16.0904 147.18 -4.22194
17.841 146.241 3.7643
-14.7149 120.761 8.93575
-8.74731 120.037 9.64007
10.4518 143.288 0.589851
-19.975 100.906 -9.34907
-23.4509 136.881 6.8547
-20.4012 94.1522 -4.02512
-10.7607 124.154 -9.37751
-15.2684 97.3538 -11.3972
-1.45865 93.9103 -10.3763
15.5342 116.713 4.33964
2.9464 84.9319 -7.35036
-18.2463 133.234 6.44186
-20.2797 103.516 -8.14069
-3.67973 125.933 8.03309
-16.4428 83.8653 -10.2543
-4.23236 76.8298 -1.82499
-10.8592 108.247 -12.5215
12.6161 133.909 1.44015
5.61802 113.469 5.68189
-15.7609 94.4221 2.03998
16.1378 130.685 -9.17446
-11.3286 83.1117 -9.06964
-12.6467 96.2476 4.4908
-18.7028 92.5495 -10.6053
6.22391 145.149 -5.96989
2.16989 79.4549 0.468705
-14.286 93.5059 -11.702
-3.49248 93.4967 6.98174
17.0906 136.408 4.08653
-12.373 149.852 1.73893
-13.007 84.248 -9.85516
-16.9889 118.57 -3.31962
8.83896 134.206 -7.19077
-8.20368 144.486 -6.10366
5.51966 109.482 6.41497
-6.30687 137.796 2.47488
8.72072 95.0678 -10.7037
18.0391 122.848 -10.8773
-17.1819 134.618 -3.48994
10.767 89.8924 7.44217
-14.3013 146.43 0.136685
19.3521 126.249 -1.13927
-18.6195 129.656 -5.2361
-12.5525 112.988 9.44032
5.15629 88.2772 -8.8152
6.24198 81.8451 -6.63981
9.42282 86.7977 5.70142
-5.47355 93.1288 -10.1054
-2.83456 143.602 -3.68499
10.7154 103.014 4.45427
-17.277 98.0711 2.01169
-16.0426 103.943 -11.8326
17.8148 130.216 -3.81621
14.706 118.022 3.63189
8.79429 95.4625 5.584
-30.6856 122.84 4.5921
-10.37 151.841 -0.561077
-3.03856 130.808 5.82419
-17.7002 123.331 -3.41609
-18.34 124.805 5.06645
-17.7628 106.135 3.77201
-16.6299 126.022 4.58161
15.6538 125.047 6.64367
12.7827 96.4464 5.77681
17.082 140.031 -7.04245
-19.1304 135.522 7.19873
6.69273 117.602 -9.10614
16.1533 124.1 -7.59656
12.2022 136.74 -10.0705
-8.9173 126.152 7.68387
-6.43523 129.371 6.93209
-17.3503 112.106 -0.753692
12.4697 127.161 -10.9193
-1.3432 79.3482 0.335944
-16.3764 108.565 -11.3178
-14.0851 101.499 6.56405
-19.5759 123.324 4.55585
7.56277 124.815 2.7928
-11.7164 135.777 -7.59601
3.71837 152.039 -3.34797
-18.7304 118.731 -8.16752
-19.9138 120.037 0.4839
7.34203 155.046 1.18062
1.00249 118.527 8.10545
-9.21449 152.723 -0.394902
-8.70675 147.042 2.27824
-19.1826 117.325 -8.50516
-24.4032 120.716 2.56918
3.58278 139.967 -5.0089
14.6535 126.538 -10.1772
-9.89164 133.901 -9.0459
-10.0101 105.405 8.68789
18.4561 127.195 -7.08274
5.69382 115.916 -9.02887
-12.8855 142.968 -4.96165
-20.7411 79.0527 -8.75555
19.2054 146.383 -4.58513
-7.18366 88.7631 -9.52763
6.12699 100.7 6.64912
-6.34372 98.6235 -10.9656
-12.9249 89.8658 0.917169
-27.9507 130.718 3.46558
10.8978 146.288 -7.49764
4.31216 125.174 -6.23032
-21.2567 119.597 -2.32971
2.91745 102.22 -11.9727
4.99938 112.153 6.4733
-20.4793 120.505 -0.263006
14.6498 126.451 -10.0592
-3.98525 123.383 -7.63816
-12.655 144.487 -3.99851
2.55837 125.334 -7.17107
9.50415 122.664 2.07972
-0.238635 133.099 -4.98573
7.95115 125.529 2.44448
-13.6786 145.469 -1.25509
17.2471 127.218 6.5415
-17.8198 122.858 4.63233
-21.5686 122.473 4.5123
-1.16537 95.165 7.97113
7.3324 124.132 -6.09487
1.42328 126.407 -6.76664
-17.4346 117.214 -2.30765
8.50265 135.248 -7.22302
2.31514 111.5 8.1551
-6.69188 142.463 -6.11749
-15.298 133.377 -5.05086
8.28712 130.129 -6.98776
1.87142 117.912 7.77889
-0.259125 107.261 9.14796
-3.54504 138.443 0.105255
12.6624 99.8782 4.87578
-4.34771 78.797 -7.00266
-9.56215 94.9701 -10.6271
12.1822 152.441 0.811252
-7.16325 97.6929 7.1614
-29.094 123.705 3.03831
-19.6366 120.695 -0.703284
-19.4169 117.683 -6.94219
11.6559 100.908 4.52004
15.3627 131.423 -5.57826
-22.427 119.668 0.693883
17.5024 135.693 4.39168
10.9168 146.73 -7.4185
-15.1511 109.221 7.48585
-25.1389 133.491 5.413
-5.13542 104.621 8.61792
-21.7324 92.1836 -9.16668
-23.6044 137.979 5.00861
-15.6613 86.0259 -10.5838
6.51917 91.3487 5.97804
-17.9657 110.861 -0.374544
-20.1936 85.4651 -3.77709
5.13932 149.939 -4.24327
-22.2137 79.9955 -8.74394
18.4523 131.749 -4.21132
0.633106 140.51 -3.82359
-22.3386 136.025 -0.0676353
-17.1616 115.641 -2.50797
-12.6314 113.702 -12.1415
-17.0972 131.999 -3.70934
7.8075 150.597 -4.99615
-28.9376 126.664 6.89929
7.01978 75.3252 0.326485
-17.3563 109.564 -10.4604
-4.22013 113.023 -11.086
0.0250128 103.166 -12.957
-15.1031 101.308 -12.1994
-16.424 117.615 6.37983
10.6499 105.055 -11.607
2.99407 98.7426 7.71876
-3.1932 132.796 4.25517
-25.6254 123.702 6.29291
10.2479 106.937 -11.5141
20.2086 125.674 -1.52287
13.7537 139.858 2.62406
-17.2247 77.2691 -3.81638
-9.46657 78.5658 -0.512668
-14.0043 121.236 8.89182
17.5845 125.203 -9.04296
-12.7496 129.622 5.93356
-1.69351 141.959 -1.06978
14.4144 115.971 -9.58987
5.58521 108.241 -12.0372
-5.11067 151.04 -3.01841
-17.5917 130.444 -4.44212
0.991731 131.562 5.33412
-17.1406 110.113 0.826817
0.253049 104.467 8.65895
8.21616 110.527 4.1325
15.8491 126.005 7.357
9.16135 129.384 -7.49438
-17.6507 130.605 -5.22376
-20.3004 133.078 -3.11262
17.5472 126.215 -1.08801
-9.58354 135.2 3.84461
8.744 99.3313 5.95377
-0.423504 123.387 -8.30899
7.22086 119.729 -7.75533
-13.5183 105.837 8.17103
-7.90341 145.77 2.02116
6.23382 105.921 6.09938
15.3071 126.384 -8.08372
-11.7419 105.012 8.29704
-6.55172 140.251 2.76626
-0.700822 105.158 -13.0425
3.30844 141.313 0.183498
1.95467 130.273 -5.37329
-5.92266 125.223 8.977
5.37358 97.7716 -10.8714
0.4674 125.992 7.05503
5.44026 79.4524 -5.97746
-16.2979 92.0447 -11.0145
-1.12383 142.358 -1.06358
-19.7018 136.738 7.85059
-22.8217 125.951 6.83093
-21.4001 82.0723 -8.05826
-12.9829 141.599 5.58303
-8.21697 140.99 -6.90057
-31.6629 123.285 5.26466
11.5435 95.5588 5.37157
11.085 127.757 1.45941
18.9702 124.085 -4.77188
18.0571 124.288 -5.84225
-12.1925 89.9579 -11.2597
4.09986 87.4781 -8.29803
14.6984 131.312 4.02503
7.66812 122.599 2.90347
-15.6995 98.728 4.49328
2.71049 124.732 -7.34946
-27.9725 117.556 1.5606
2.44068 76.8063 -1.3319
0.386012 87.4702 -7.96442
-6.99837 126.093 8.40536
16.0895 143.424 -6.48878
16.2013 145.623 -4.53436
-19.7712 104.48 -3.70171
12.1013 99.6237 -11.2385
17.1029 114.611 7.10187
-4.43253 96.2094 -10.6585
12.9079 141.855 1.90136
-11.5057 137.15 -6.91972
-28.0453 118.765 2.41871
9.33647 139.56 -8.47426
-14.4566 132.24 -5.7341
5.65113 146.37 -5.42067
-4.95062 108.784 9.67516
3.69673 116.664 -8.85173
-27.6477 125.832 1.31811
-14.7471 146.272 0.329857
-3.83004 94.9224 -10.6394
4.69017 86.9258 -8.21375
-20.8172 86.3203 -4.75106
-11.0678 151.028 0.443528
8.02098 101.901 5.58145
-1.22974 94.8346 7.88884
-3.81359 101.615 7.84104
-7.24483 121.02 9.22947
13.0108 129.108 1.90158
11.1439 136.975 -9.33608
24.1784 143.541 0.651829
5.98632 90.9989 6.12955
-3.60086 117.173 9.37594
-17.3709 130.485 -4.7447
-19.4301 120.807 -2.47461
-8.83179 136.986 -8.27636
13.4232 109.766 3.72491
-16.8424 86.6632 -10.0778
2.1938 93.5403 -9.97655
15.378 131.66 -5.48624
-15.9331 78.0638 -8.64055
11.2619 98.8438 -11.1994
11.6625 130.235 1.29565
18.9541 123.436 -6.9651
-20.4139 108.832 -6.46204
-17.4228 124.21 -4.0112
6.05493 120.096 4.04932
-4.86527 81.8461 1.56142
-4.67271 115.138 -10.2337
-10.4104 106.589 -12.9331
-30.3445 124.592 3.67329
-20.2454 133.122 6.09164
-2.37333 124.14 -8.18271
-29.4346 126.587 6.84558
-1.72197 95.1661 7.90009
-7.10882 114.338 9.71656
1.46005 85.8354 4.20225
-23.401 134.705 2.71179
-20.7879 123.435 5.34904
-20.4986 82.1533 -9.40523
9.95196 142.895 -8.63099
16.0517 127.183 -4.24157
-15.8726 146.102 4.72064
-8.65293 101.95 7.63522
19.0939 131.284 2.31938
-16.9502 131.263 -3.48706
5.04991 85.4426 -7.5133
-18.5641 121.371 -4.05799
10.1478 103.731 -12.0344
1.21141 145.241 -3.68629
-12.611 111.096 -12.1193
11.5144 127.479 -10.3359
20.3836 127.621 -0.0784057
15.4345 124.224 -8.38537
11.6085 118.611 2.59256
21.8003 129.494 2.08508
5.36535 141.922 -5.72194
7.92616 144.223 -7.27635
-17.012 88.0336 -9.91575
0.62221 138.804 -3.66746
-5.04874 133.29 4.04544
22.4745 143.546 -3.15299
-19.4014 136.88 7.8489
14.7772 118.516 -11.0532
0.016712 89.267 -8.48045
17.347 142.657 4.80839
0.534132 91.7308 -9.62572
1.86043 98.9922 8.1238
-27.882 124.268 2.1375
-0.196988 134.483 -4.3876
13.1694 126.32 2.16573
-7.13572 138.667 -7.26259
-21.242 101.712 -6.5874
-0.986031 83.6225 3.59595
-17.6663 127.302 5.50318
-8.89258 116.036 -10.8683
14.9906 123.103 4.57818
0.802046 78.0918 -5.78724
-11.023 126.432 -8.15796
13.3281 119.198 -9.11205
11.859 104.406 -10.8735
13.7716 138.138 3.18097
19.152 136.292 -7.91842
8.96466 105.717 4.41874
1.84378 103.554 -12.4951
-21.7553 76.7413 -8.68305
18.9715 125.777 -2.06313
10.2314 132.784 1.18174
-9.47204 78.2743 -6.5359
-3.91318 129.973 6.27358
-6.11603 135.546 2.6126
13.4686 140.265 2.34371
-0.463641 148.346 -3.00978
-23.7949 135.628 3.94789
-8.70886 100.84 -11.6897
-17.1252 139.466 7.48063
-5.7435 126.138 -8.21806
-2.76364 135.458 -4.48199
-16.748 123.282 -6.5988
-6.45099 107.875 -12.1924
-20.8448 102.982 -7.6052
-11.9852 126.647 7.41929
22.8453 143.758 1.84593
17.705 126.992 -7.50439
14.424 141.39 -8.1865
12.3348 120.075 2.64723
-17.637 123.442 -3.79162
-32.0234 123.245 5.5682
-6.831 77.395 -1.24652
-17.6084 90.7438 -0.919734
8.9492 87.2547 -8.12271
-16.6577 119.328 4.71654
1.26769 116.724 8.23256
-17.6125 95.8251 -11.1577
10.5691 152.845 -1.06493
-15.8467 99.3052 -11.5675
-5.44631 97.8331 -10.8716
10.6231 136.721 0.5856
-27.1202 132.506 4.35147
-18.7645 143.563 1.58067
-0.25757 81.4031 2.12564
-5.48266 97.5294 7.77058
18.9079 131.194 -6.84147
-20.5894 140.969 1.58544
-13.1822 87.0612 0.600148
10.9282 119.965 2.43447
-25.3368 124.26 6.48988
-15.6334 129.361 5.92487
-10.6506 86.903 1.38251
8.29065 107.333 4.52626
-2.08294 130.644 5.96402
4.22164 112.463 6.93874
-23.8645 135.716 6.96302
4.29352 146.035 -4.79979
6.02552 155.097 -0.901432
-0.856092 93.0999 7.3367
-7.78447 139.748 -7.03356
-20.4278 137.469 7.65939
11.0058 98.3213 4.98069
-18.1161 118.914 -5.33649
13.3692 148.376 -5.58808
1.32933 85.0256 3.95769
-3.64329 78.6848 -0.546424
20.2008 125.867 -4.99848
-20.4286 134.566 -2.44328
11.7538 135.825 0.919441
-21.2232 140.189 2.35001
17.1707 136.25 -6.85454
-9.22068 123.998 9.38746
-0.814063 92.4143 7.04355
-19.8501 79.347 -4.53414
-19.6209 118.604 0.988211
-20.0842 96.377 -4.93821
-19.4566 112.273 -2.64708
-12.8947 79.322 -7.89979
-17.3695 116.618 -3.9144
-14.6159 113.203 8.61337
2.47212 145.693 -4.10954
-16.2401 127.2 -6.36049
1.63416 125.105 6.80114
-22.8616 76.3792 -8.22451
-6.90034 125.395 -8.67373
-16.0324 110.706 4.62907
-7.28143 138.135 2.365
-0.0434955 83.2113 3.30098
-17.3108 116.31 -2.34839
0.00103106 121.592 8.0867
-13.5501 140.723 5.87887
16.6325 119.153 7.12702
-17.2463 126.198 -3.29084
5.66928 118.686 -8.56951
15.7146 129.544 7.00505
8.41799 149.052 0.808952
-14.9722 145.697 0.192053
-1.77765 85.8643 4.21085
19.4592 124.683 -2.89884
-19.9049 79.3116 -4.83895
4.31272 136.533 -5.42905
21.1485 138.034 3.22313
-7.398 146.954 -5.45183
2.04666 87.4723 6.15414
8.35584 94.0882 5.70938
1.81522 141.384 -0.0955228
9.48722 143.234 -8.30361
-28.4434 131.018 4.25909
-20.1631 108.842 -3.94505
-9.63101 103.41 -11.7923
-10.0331 142.025 -5.96735
11.9054 91.0665 7.15633
2.7193 126.054 -6.75406
-19.8837 85.2825 -3.10305
21.2296 131.985 3.15148
-18.3043 128.119 -4.6355
-19.76 118.852 0.819555
0.398273 89.7884 6.46991
11.6492 135.04 -9.42596
-21.0749 101.178 -5.04347
-16.1153 130.863 -6.16578
-25.6266 124.324 0.0275515
-0.0104434 80.1483 -6.75413
-0.0555284 96.7519 8.35273
-22.7903 129.687 -1.67384
-17.5076 128.642 -4.76397
-10.3071 107.939 9.43476
-23.2462 135.65 1.48794
-11.9255 148.823 -1.97756
22.0571 130.376 2.54852
12.2884 132.922 -10.2501
14.6321 129.826 6.26668
3.74607 86.8429 5.90027
6.37832 102.753 6.48676
-5.72354 99.8963 -11.3797
6.51205 87.4989 -8.469
21.476 127.481 0.446539
-11.7601 136.724 4.52002
-16.932 104.425 3.96907
-17.2187 117.12 -3.91644
-19.1971 105.59 -0.768884
-18.0677 126.321 -3.21744
-4.75443 79.6698 -0.115764
-18.2417 131.828 6.14329
-21.192 131.454 -2.38607
-18.1894 92.5385 -10.7559
2.07847 119.593 -9.74989
-17.3122 120.54 -2.93968
8.44424 107.613 4.40366
3.56683 94.5327 7.39322
-9.00453 148.1 -5.03891
-18.7861 126.609 5.73884
16.5774 126.758 -3.32602
13.365 139.116 -9.72026
13.5983 96.9617 6.05342
-16.2562 143.78 -0.288338
-13.2809 123.835 6.27737
-21.1558 94.3709 -6.87836
-19.2948 120.348 -1.81651
-15.1687 101.702 -12.1792
-18.6857 139.574 -0.491993
1.08211 133.551 3.15261
4.93128 148.04 -4.8275
-0.767821 101.693 -12.6527
-14.4668 101.133 6.21788
-2.20915 100.461 -12.2476
-13.0778 87.4184 -10.54
-22.4746 130.242 -1.0237
-2.09197 94.969 -10.7334
-26.6769 123.078 1.45999
-20.0197 95.7812 -10.0236
16.7014 129.957 -6.41795
11.5925 88.3862 7.05663
-14.1317 86.5359 -10.629
-8.30127 83.7596 -9.31327
7.75589 147.15 0.522626
-9.09129 126.574 -8.44088
0.0636325 103.62 -13.0556
12.8287 120.555 2.75588
-12.4168 125.562 6.50208
16.9791 140.651 -5.31308
9.16308 126.819 1.92334
-18.4161 90.588 -1.63409
-20.3108 75.3668 -8.55242
6.66205 123.221 3.46205
-17.5535 129.313 -4.38484
-19.2265 120.933 -0.235212
-0.378384 113.272 8.80122
-10.9582 128.136 7.24117
5.86804 101.923 6.83978
1.20999 113.904 8.57809
15.5706 130.007 -6.92825
3.32517 87.067 5.98849
17.787 124.007 -9.28522
4.16737 116.972 -8.40582
-9.53624 91.7789 2.71946
18.1874 133.28 -10.1451
-0.785571 104.986 8.83963
3.78204 76.0047 -5.6002
-23.4355 81.1179 -5.86437
-23.1883 138.555 4.78859
-16.1308 104.345 -11.5966
-19.4852 134.128 -3.22022
-20.5346 138.728 0.653672
18.9061 127.422 -3.93904
6.56828 150.428 -4.58611
-17.3709 121.357 -3.1347
-12.2835 140.007 4.58171
-4.59457 100.892 7.76164
11.8006 115.395 2.93673
-18.8847 114.626 -4.44812
8.57428 144.338 -7.63359
-0.091542 95.9677 8.28312
-15.5519 97.8168 4.1418
10.4366 111.331 -10.5937
-29.7495 121.126 4.46038
12.9564 132.066 1.675
4.65315 112.212 6.68366
14.5499 120.462 3.38643
6.12069 87.729 6.84686
7.64143 93.52 5.75167
-17.1763 122.822 -3.86768
-23.5662 136.158 2.57447
-20.9496 100.933 -7.53182
15.0165 149.689 -1.9019
-20.1754 107.958 -7.12717
0.449796 121.929 7.86333
-10.607 111.185 -12.1689
4.18918 137.365 -5.49767
-12.27 108.955 9.27752
-0.502571 101.329 8.41974
0.325226 150.819 -3
3.29527 105.751 8.19418
5.55974 78.3405 -5.64141
12.3581 133.677 1.24135
-23.4859 129.824 -0.090249
-17.04 121.36 -3.48511
15.8907 120.831 6.06468
-18.0721 118.998 -1.40132
-14.3047 118.969 8.82511
9.12182 125.525 -7.94218
-13.0816 144.08 -3.35118
19.0593 132.173 3.28275
11.3122 138.258 1.00087
-11.1266 130.241 5.83323
-7.8452 128.125 -7.91927
-0.282745 124.219 -7.98075
-17.2719 84.6668 -10.2159
-19.0276 93.1155 -2.29952
-10.5092 80.8226 0.844639
-13.8115 83.9845 0.605412
2.72281 104.797 8.15619
12.5406 110.723 3.45154
-18.5495 96.4728 0.184056
1.23268 138.888 0.708266
-10.4205 116.81 9.8197
-20.6988 111.149 -5.55829
19.4863 131.556 -10.9283
5.46933 97.6271 7.29668
-7.05682 86.8693 3.3707
7.94631 151.842 -4.43962
-1.61928 109.131 9.30049
-17.5154 142.69 6.80117
8.79741 149.945 -5.78822
-5.90693 77.2185 -2.77069
-22.1736 124.251 -1.9145
0.256121 86.3702 -7.86701
-1.36499 77.5824 -1.9783
-2.94454 114.165 9.23896
12.7966 150.727 -2.2037
9.38364 145.094 -7.94253
-4.64467 80.4148 0.438321
-11.7434 125.309 8.15824
12.4311 144.544 1.32577
5.78463 93.2081 6.5068
14.472 138.455 5.28375
-21.1501 98.4743 -4.57682
5.85682 80.3866 1.59899
4.76159 102.704 7.61401
1.92794 89.091 6.81513
-20.3397 92.8388 -5.75701
-5.5694 120.554 -8.8768
-15.0715 126.16 4.63733
-2.26781 133.404 3.57671
-20.2544 131.237 -3.08233
-21.2423 119.182 -3.13246
-4.3637 85.8041 -8.75127
-6.34267 124.847 -8.47546
-2.35448 105.083 -13.2775
-5.13336 77.3526 -6.01306
10.1063 117.406 -9.69181
-10.0462 108.963 9.69277
-13.8947 90.1902 -10.9947
-24.3435 127.253 -1.89562
10.9902 111.133 3.31927
-14.2186 98.064 4.84172
-14.7337 142.673 -3.51009
-20.859 85.7151 -9.22273
-10.5632 133.471 -9.10895
-14.4203 138.433 6.85866
19.8598 144.079 4.31896
2.59453 126.453 -6.6212
-0.0741315 122.119 -9.20417
-25.1501 133.715 4.9244
-11.6979 116.345 9.95983
-17.6938 104.776 3.75148
-27.6302 120.326 3.55614
-22.0181 81.3587 -4.69208
-25.7672 132.925 5.39194
-12.8249 110.804 -12.147
15.5221 151.007 -0.307879
-19.7539 129.705 6.65181
-5.24229 126.696 8.04041
-16.2495 121.957 -9.04193
-5.09935 97.0293 -10.6861
-14.4607 104.52 7.03859
-15.1909 115.852 -10.6162
-19.0568 143.455 1.77717
17.5835 137.255 -8.22958
-26.4282 129.659 2.00381
-8.76021 107.741 -12.4098
12.92 141.32 1.85948
-28.2932 130.094 3.35412
-8.44088 143.324 -6.41391
-16.4093 118.307 6.21728
-28.6682 130.938 4.4759
11.5276 131.046 -9.94003
-20.245 96.0037 -9.84947
-4.15002 89.1341 5.74427
-13.8057 96.4655 -12.0698
-18.8937 119.852 -0.262056
10.9523 113.397 3.08485
-8.4418 75.2795 -5.78413
-12.9578 139.707 -5.6173
-5.75059 123.284 9.29231
15.4294 140.581 5.66884
7.51275 112.293 -9.92134
7.44603 150.837 -4.727
-3.11122 97.1193 8.08209
-28.0612 124.365 6.5936
-18.0354 119.462 -0.916095
17.1313 136.78 -6.60703
-10.3697 149.631 -3.41728
3.96961 112.307 7.09983
12.8078 110.908 3.46851
7.49434 138.376 0.578577
5.12303 112.408 -9.77291
21.1106 142.929 -4.9693
17.6536 122.128 -5.84553
17.9961 135.167 -7.03367
-19.7619 79.2068 -4.79022
-16.8947 102.381 -10.9701
-14.4531 113.361 8.73815
-17.0987 98.4362 2.12886
11.6908 121.335 -8.31168
-20.0501 120.385 -3.16629
-8.75635 148.282 2.14509
14.0059 107.482 -10.0236
8.49211 85.6682 4.35824
17.6133 110.158 6.53295
4.67692 132.494 -5.33755
-2.54337 90.9874 6.39691
-4.03753 145.054 -4.06409
7.36889 154.167 -1.02131
15.4948 123.804 -10.0595
5.46425 117.626 -8.95018
0.179398 79.1179 0.0378043
17.5256 119.44 8.49218
-13.2163 104.409 7.91014
9.27528 117.297 -10.0243
17.8643 145.683 3.91349
-1.61352 120.556 -9.1708
-12.9164 75.2241 -5.79958
12.7984 150.247 -3.64007
-17.7361 119.552 -4.77317
18.1034 132.084 -8.07948
-11.675 88.8085 1.33494
-18.1108 138.456 7.44869
18.4189 139.661 -6.45508
-21.3695 77.241 -6.76182
17.6003 119.994 -4.98766
13.2426 110.872 3.55326
-5.03044 122.016 9.3119
2.87637 93.5566 -10.0353
-21.0228 133.168 -2.33555
-8.79903 139.061 -7.07741
9.32131 116.3 2.95717
4.75071 93.2446 6.97876
11.0247 99.0334 -11.1871
-8.22619 111.125 10.0583
3.13589 86.5967 5.55962
20.1737 123.916 7.31779
-27.0714 129.81 6.59362
12.5119 145.958 -7.46854
9.44202 125.063 -8.43235
-17.5643 122.775 -2.90041
-21.3966 98.2025 -8.03311
-10.5636 100.832 7.46447
-22.9267 122.16 -0.650331
8.60791 103.428 5.06076
0.544936 110.316 -12.064
-10.2451 101.752 7.67642
-23.4716 79.0796 -6.40956
10.973 112.041 3.21802
-9.15102 126.993 7.47206
10.4961 99.4986 4.94511
-14.4333 143.379 -3.05361
7.65149 125.198 2.70544
-20.1663 122.472 -2.45083
-29.2733 118.894 2.31484
10.8403 110.966 -10.4721
15.6888 133.161 -6.06966
14.1892 139.928 3.81701
-14.5404 80.5984 -0.130236
-21.1187 77.1927 -5.13132
-12.8499 77.0736 -7.44356
-17.8323 117.407 2.44191
9.18831 139.608 0.890854
11.1586 147.091 1.01625
-0.107258 141.465 -3.59253
-17.9795 101.165 0.808104
0.99996 137.995 1.08342
-23.9156 119.944 2.86291
-5.14734 128.861 6.64378
17.5712 126.992 -0.871678
-23.4089 80.4445 -5.84286
5.24958 149.498 -4.48246
-10.795 94.1937 3.84778
9.76571 145.32 -7.9052
-2.59886 83.1711 -7.63032
15.8151 133.685 -9.39493
-9.76718 133.453 4.21628
-17.7768 78.8803 -2.44607
-26.5629 117.647 1.16113
-5.67495 136.108 2.36544
3.56173 138.516 1.35815
1.43233 94.2108 7.86558
-18.6662 105.856 1.02139
17.4438 142.074 -5.19413
7.58197 102.65 -11.4815
1.17326 82.3862 2.88935
-5.07129 150.626 -3.21248
15.5478 109.995 4.57269
-14.4073 136.76 -5.16881
14.949 109.175 -9.76461
-4.72013 121.654 9.30851
-16.8505 111.411 -10.6933
1.2026 127.749 -6.29747
-17.8749 97.9231 1.12636
-16.1212 124.705 4.45686
3.92096 96.5411 -10.9297
1.20342 127.012 6.83204
-10.08 120.83 -9.98631
-19.2164 76.3514 -8.94187
-24.7034 131.392 2.62828
-3.1599 138.623 -4.60668
1.17618 76.6649 -1.36548
-13.325 121.999 -10.3481
-17.1354 107.181 4.36406
-32.7538 124.52 4.0134
-7.47773 121.245 -8.78371
-19.803 105.479 -4.98814
-19.7397 85.5671 -9.60367
-17.0958 125.885 -3.31642
-18.5343 121.79 3.55389
-7.21821 115.588 -10.2958
-13.776 126.696 -8.08405
-13.041 94.9369 3.02037
0.418258 142.18 -0.61025
11.4273 95.971 -10.18
8.54194 153.275 -1.95788
-2.01754 104.753 -13.2222
-13.3057 130.04 -7.72331
1.2302 131.844 -5.21406
-0.0696731 128.191 6.64754
16.346 109.358 5.1972
-14.3402 95.346 -11.9992
-12.8471 105.222 8.11863
-1.60732 133.981 -4.90641
3.22159 83.3399 -6.93421
-28.7633 126.744 2.90941
4.65657 84.5891 3.56663
-13.4686 131.744 -7.06859
4.46184 142.612 -5.2052
-3.80999 131.533 5.35171
-0.842944 134.894 1.66902
-23.2171 137.592 6.74171
5.71817 147.995 -5.17337
-7.05098 127.925 -7.87719
-9.0369 85.6615 -9.79605
8.32911 92.3449 5.75358
9.79465 126.358 -8.639
0.736521 80.9071 1.69894
-18.6036 79.2706 -8.80747
-4.85656 79.6684 -0.138306
-17.7055 82.3119 -0.748736
10.409 128.241 1.5185
-0.674039 152.863 -2.43931
5.40618 115.94 -8.91248
12.1303 128.389 -10.6661
11.2429 101.201 -11.6842
5.83363 105.975 6.38835
11.0804 149.562 -5.37963
-16.2955 128.426 5.75488
15.2699 151.112 1.36685
-1.54338 140.545 -3.74067
-4.27587 140.743 -0.016387
-2.59374 99.7798 -11.8804
-6.37715 137.05 2.63419
-1.88913 151.533 -2.27584
-4.62183 130.785 5.75135
4.6124 131.517 4.10164
-19.4177 110.954 -8.2038
1.4797 131.533 5.38181
18.5467 144.073 -4.71528
-20.0077 79.3049 -5.18443
-20.3176 110.84 -4.35801
14.9529 124.753 3.80899
-2.79985 131.717 5.18859
2.02586 123.961 -7.98684
8.21073 137.199 0.665505
12.8005 144.451 1.92577
10.1916 127.136 -8.80983
-4.54922 117.708 -9.39192
-3.20584 139.165 -4.49253
-7.1368 149.478 -4.34972
10.2154 139.88 -9.11305
-13.7644 81.0327 -0.0922893
-20.4606 141.328 5.88917
-17.2867 103.052 -10.8626
-22.2006 89.6388 -8.87937
-9.45896 123.981 9.42292
-12.5974 126.595 6.54095
-19.7767 97.8285 -9.65247
-5.13639 126.387 -7.62396
-8.89484 143.535 2.62111
-13.4512 119.498 -11.1046
-8.20282 84.1841 2.50053
-8.9861 76.1886 -5.88017
-2.90642 135.519 0.973203
-17.1062 104.904 4.25917
12.4131 103.245 -10.8122
4.93367 85.0894 4.34745
12.9561 141.204 -8.87045
17.6826 132.93 -9.95629
-5.65177 103.264 8.02827
-31.9717 123.632 5.56421
-12.6923 117.999 10.2335
-5.7121 84.2772 -8.63515
-23.857 136.345 3.93065
15.5039 141.914 5.09118
-4.94989 87.7972 -8.91787
13.391 94.0088 6.81735
13.6715 97.4483 5.95838
-3.98264 122.425 -7.91283
7.13067 107.104 -11.4919
-19.1023 114.816 -8.26622
18.5886 115.893 8.93061
-21.4727 134.302 6.45119
-22.1548 124.261 -1.92175
-5.53789 139.604 2.50526
-19.9192 120.234 0.578586
-12.3834 86.7727 0.804443
11.9146 113.704 3.06393
-24.7477 126.901 6.88688
-1.8745 82.6708 -7.46703
-23.0009 129.393 -1.85243
-19.5437 95.4269 -2.46571
10.5646 150.481 -4.4396
12.0719 121.543 -9.01296
-19.254 116.164 -8.3279
-11.2887 77.2879 -6.7786
12.4387 148.58 1.73738
19.6495 146.238 3.22323
-21.3463 120.194 0.643524
6.93809 117.628 3.82991
9.83194 154.27 1.05843
-23.134 120.958 0.726731
4.35047 125.374 -6.15722
-7.68644 148.917 -4.65355
6.03522 110.512 -10.4754
1.5907 148.971 -3.4427
4.57682 101.552 -11.4198
-13.3938 139.764 -5.47515
16.1661 126.435 -6.46743
15.8913 131.642 -8.42696
24.325 140.137 1.7011
2.50199 135.414 2.43816
17.7151 128.144 -7.13273
-5.29179 88.2433 -9.01924
8.30361 90.0493 -8.9345
-28.4229 130.865 4.13242
2.46312 137.046 -4.12517
17.6837 124.52 -8.992
13.3434 122.86 -10.4282
-5.75264 132.913 4.48615
5.25625 137.085 -6.07382
-22.4108 77.0794 -5.17756
6.53825 95.8846 6.40278
-20.2224 113.756 -5.05705
17.4708 117.296 8.26738
-27.0411 124.043 6.43117
-17.5679 134.382 -3.40531
-16.7621 135.255 -3.78222
-26.4229 118.543 1.82985
-2.99415 90.8125 6.28984
17.5631 148.682 -1.83425
-12.6504 136.566 -6.87642
1.4722 92.3455 7.6205
-6.28703 105.443 9.00858
16.6524 144.409 -5.26927
9.10324 122.072 -7.08296
-10.5466 80.4737 -8.40718
-8.95431 115.354 -11.2298
-18.3523 123.807 -5.19778
-22.4467 120.335 1.02969
17.9718 125.753 -9.04923
20.366 128.872 0.496686
12.2878 89.717 7.81953
-18.4377 95.0606 0.130704
14.6974 124.014 3.39663
-17.3301 107.246 -10.5771
-0.636403 95.6887 8.15623
-21.1687 121.589 2.79029
14.9626 148.311 -3.42575
-11.057 76.6974 -6.30363
-5.09425 128.121 6.92665
-22.7065 138.116 6.60999
-10.9053 90.6321 2.04216
8.99671 104.342 4.72065
19.7981 124.673 -4.42521
-18.5147 85.8725 -1.16586
-2.65683 110.758 -12.2145
9.27643 101.868 5.30001
-10.1829 116.306 9.79692
-9.44417 109.635 -12.3663
1.0007 98.9509 -11.8456
-10.2204 87.0478 1.54944
8.60474 129.416 -7.03767
-17.6543 124.005 -2.82531
12.7528 140.483 -9.12108
16.3122 122.565 -6.6752
-15.5645 144.711 6.2817
-12.8556 92.0626 1.42618
-17.6449 116.558 2.34099
8.52223 115.298 -9.80189
9.76125 114.88 3.00446
-10.0963 84.6744 -9.52383
-15.1399 102.598 -12.1453
-20.1584 140.269 6.88233
11.9378 139.787 1.17044
4.39475 148.599 -4.48362
1.73062 130.268 5.83905
7.69499 152.583 -3.81653
-15.2699 114.488 5.96743
1.49341 128.427 -5.93189
7.53381 95.3248 -10.7457
-10.9885 135.225 4.18304
13.6883 137.522 2.65248
5.81236 118.18 4.59384
-24.5425 124.569 6.6295
-3.08299 112.129 9.20069
3.61033 102.966 8.091
3.80443 75.0285 -0.653481
-25.8734 117.741 -1.49226
-17.7991 135.853 -2.3791
-4.3967 119.149 -9.12156
-5.11645 109.366 9.77388
23.6553 138.718 -4.44253
-16.3532 115.144 4.89627
5.74383 146.998 -5.33239
-11.4089 85.4408 1.3068
-8.20678 126.825 7.74242
-1.12532 136.741 0.579157
-20.772 80.7123 -4.16577
22.5843 144.471 1.54313
-2.48685 90.5132 6.34464
-17.4312 77.2391 -3.90379
0.791536 135.786 -3.84635
-10.6753 149.196 2.93779
1.22581 105.497 8.546
-14.5462 128.834 5.94125
4.55294 75.6125 -5.66014
-12.1725 126.215 6.94242
20.7007 129.215 3.53015
-18.5206 85.6464 -1.15053
-13.1029 130.747 -8.51534
-0.545547 77.738 -5.80949
-12.9554 130.459 -8.94767
5.01834 136.199 -5.83855
-5.42714 128.161 -7.89721
9.48861 101.33 -11.5672
-0.378315 101.714 8.49689
3.21 144.521 -4.55091
12.3934 116.315 2.88271
-8.08848 89.1167 2.87391
-0.704231 105.789 8.96148
-25.8228 122.004 4.3529
3.76727 144.548 -0.609981
-4.97784 108.754 9.66603
-21.7224 119.251 -1.19291
11.5872 103.548 -11.1976
13.6233 136.01 2.85485
-11.7211 78.4829 -3.17536
10.4287 125.415 -9.62267
11.5517 96.5138 5.14401
8.68493 106.056 4.50313
-11.2306 147.993 -3.74145
19.268 130.753 2.22176
19.0533 129.069 4.90914
17.8906 130.678 -3.58359
9.80852 130.074 -7.91242
-23.0833 119.302 1.74907
5.52308 135.221 3.41857
19.0124 133.865 2.68137
-9.13855 149.153 2.15569
-15.3621 97.2828 -11.3625
-22.8534 119.656 -2.15198
-15.2805 117.249 8.38298
-14.7665 113.377 5.17828
-15.8784 105.028 5.59443
-11.5396 134.631 4.84725
-1.88901 101.233 -12.5813
5.1122 107.463 6.77178
-15.4964 109.594 -11.4884
-22.4975 84.4752 -6.0186
-9.28758 138.98 3.2449
-2.79023 129.094 -6.2797
6.36441 121.581 -6.78548
-1.77255 91.2658 -9.15338
-12.5189 110.436 9.38914
-14.0444 99.6021 -12.0684
-5.03203 142.642 0.958404
-4.48556 117.832 -9.36752
9.37917 105.697 -11.7208
-8.06957 85.971 -9.9372
-22.5707 120.474 0.948597
17.3038 149.605 1.81159
-17.0816 95.2854 1.97649
1.21075 90.668 7.02947
-18.5521 108.09 -1.871
-12.2615 94.6549 -11.6513
-13.9895 79.4044 -2.22044
-3.14669 135.07 -4.65479
-13.8633 125.039 -8.89058
5.40044 138.386 -6.08613
15.0804 151.346 -0.128063
-1.63181 123.654 7.92148
1.83076 109.976 8.60581
-5.92072 146.916 -4.9543
1.16093 113.698 -11.7343
6.60855 133.342 2.51298
11.1576 152.578 -1.06562
-7.98712 135.469 -8.18733
-13.7988 83.5564 -9.882
-0.649077 104.925 -13.0716
18.6142 132.032 -7.65192
23.2407 141.732 3.11051
17.4884 129.164 -9.74646
-19.4305 83.1653 -3.99241
-19.4583 109.837 -8.44393
12.959 131.098 -10.8769
-15.477 89.7681 1.1354
-0.191337 79.4037 0.364063
16.1986 120.121 6.53838
-8.39747 141.304 -6.85435
-17.0771 102.962 -11.0091
1.15294 109.572 8.73064
-22.2365 84.4843 -8.1288
20.2738 125.576 -4.68796
-4.42958 147.869 -3.71854
16.0835 132.929 -8.7769
-17.1783 91.6573 -10.7093
-17.9913 98.0339 0.531789
10.2936 128.647 -8.2765
15.6741 123.626 -8.5567
17.9615 129.161 -2.86144
7.25366 119.628 -7.86211
-9.27958 110.791 -12.3242
-19.8947 93.6731 -3.22015
14.1303 134.185 3.43205
18.7272 134.745 -9.84412
-1.19932 80.5999 -7.23618
-18.0794 141.769 7.00165
-17.0008 114.869 -1.76123
-21.2936 121.001 2.56684
-21.7737 120.169 2.34716
-11.4371 87.8041 1.22565
9.2233 141.577 0.573111
-2.54726 114.02 -10.9863
17.0589 132.39 -8.39206
1.01458 112.433 -11.7127
12.9872 98.794 5.22888
-14.7704 131.313 -6.29242
-30.6443 123.607 6.07501
-11.368 142.282 3.93535
8.31053 97.9137 -10.8193
9.63072 111.128 -10.9455
-16.5948 81.5963 -0.31162
2.85903 84.8563 -7.32639
-21.3373 124.716 -2.23774
2.60848 85.606 4.12457
15.2347 146.131 3.92232
4.8221 85.8595 -7.68167
19.9017 125.745 5.22906
-19.4947 116.65 -6.76231
-21.5944 95.6 -7.80197
15.5722 123.989 -8.57494
9.5516 90.1728 -8.61298
-15.3437 119.328 8.2492
-18.7484 118.505 -7.28546
18.7021 132.458 -6.4693
-18.3133 120.912 4.02041
11.5235 130.892 -9.88766
-12.3489 94.2407 2.8867
6.6173 92.9263 -9.76813
-4.08361 104.863 8.75198
-21.6369 123.752 5.629
8.30133 87.2135 6.67676
-6.59399 95.9343 -10.4592
10.975 117.787 -9.15554
19.8018 128.367 3.93196
9.5361 119.785 -9.1513
-10.8688 111.186 9.54804
-13.5257 132.309 -6.37701
-22.5763 81.7012 -4.94445
-7.19684 133.855 3.22928
18.6305 133.174 -5.4921
-28.8534 121.427 4.5164
10.2246 146.915 -7.42696
-20.1247 80.1928 -3.39357
19.3879 146.601 -4.23808
-19.9254 78.5192 -8.79443
-18.4575 119.216 0.352802
-12.797 78.7782 -3.01277
6.17396 137.47 2.25757
-3.03997 132.46 4.49184
1.4414 124.46 6.99636
4.98256 85.1747 4.48104
18.8764 125.881 -6.33223
-16.4906 109.092 4.91357
-6.4494 128.415 7.59115
-17.1383 128.678 -3.39203
-14.6504 111.865 7.09648
-16.2837 99.664 -11.6182
-1.23947 133.908 -4.87899
-26.884 131.778 5.98442
12.7139 124.612 2.12544
-20.0629 119.955 1.16066
21.1524 132.196 -10.0342
-17.6767 133.077 -3.14471
9.86448 102.119 5.0813
-16.0376 110.116 3.60489
-5.41898 136.23 -5.99567
2.38935 141.908 -0.0977032
7.82652 126.528 2.55969
-10.0469 89.9464 2.22073
-21.2943 91.0583 -5.24688
19.1095 123.547 8.23401
-13.4614 143.563 -3.365
8.03057 110.835 -10.4954
-3.80209 95.2562 7.32749
13.1298 120.49 -9.23578
15.9041 118.707 -7.66105
2.78825 142.388 -0.135262
-8.54337 75.3622 -5.81905
-13.6745 111.283 9.27954
-14.4481 141.852 6.91531
7.74751 154.777 0.601503
-23.6577 120.038 2.87223
10.5557 142.534 0.647682
-17.6411 105.702 4.47516
1.46598 115.957 8.14324
2.16559 94.6874 -10.6495
11.5661 97.3777 -10.5016
4.0574 133.202 4.29857
4.64935 89.938 -9.15847
-15.0648 108.465 8.17413
-15.1415 134.548 6.71351
-10.6356 101.459 -11.8957
-25.5666 131.403 3.1186
-4.63364 145.207 -4.35196
-16.2507 115.066 5.62752
20.149 142.809 4.14059
20.0432 134.336 3.15437
-15.0442 117.616 8.46689
-11.3956 138.533 -6.7023
-22.2626 76.2684 -5.64896
0.728824 115.322 -11.4378
2.43071 118.214 -9.44226
6.22694 126.231 3.8657
-22.1487 75.9989 -6.52018
-8.4891 115.754 -10.8056
-9.66277 131.941 -8.93385
-2.48358 124.694 7.66029
-16.7516 95.5351 2.20951
-6.25876 89.7219 -9.60925
13.5175 150.328 -3.10552
1.71873 130.586 -5.42953
-27.3835 128.529 1.42704
5.50075 79.6706 0.954717
-1.19303 107.202 9.29509
-20.3899 77.8472 -5.05282
-16.8676 143.457 6.60684
5.09542 144.92 0.529619
1.99895 140.751 0.098136
-21.4108 87.2233 -5.23286
2.61496 127.792 5.99291
-19.5734 117.902 -8.14496
-4.69362 152.625 -2.41857
-16.1118 119.844 7.7255
-11.9783 98.4917 6.17829
-13.3792 131.509 -7.32286
-29.6084 119.704 3.08163
-19.1361 102.182 -9.10232
-11.4858 107.345 9.11226
-13.246 98.5842 5.5449
8.48715 109.604 4.09917
-18.3412 83.2843 -10.414
2.39736 109.897 8.26825
-19.8677 101.357 -0.996341
-3.50723 108.767 -12.5584
-6.07758 88.9005 3.92008
-19.3985 121.196 -2.99554
-21.1262 127.451 6.78822
9.90704 122.621 2.06866
-14.5765 101.155 6.17851
-1.67978 131.694 -6.12497
7.56646 144.585 -6.9907
-17.8767 107.705 -9.23744
-8.86535 136.28 -8.38241
16.6645 143.544 4.49518
-16.8478 81.2718 -0.464082
-7.59631 128.501 -7.77318
-13.866 83.2907 -9.82418
11.2165 103.618 4.12356
-13.7511 117.74 9.37225
15.0089 134.542 -9.98389
-14.8712 92.866 -11.4775
-18.7661 96.3349 -0.71801
-12.258 127.104 6.85283
-20.9209 120.302 -0.64175
7.70869 101.876 -11.3358
10.0261 126.181 -8.96059
-16.5623 144.394 0.219283
-17.4473 89.1818 -0.350817
-22.3758 119.609 -1.99235
19.208 131.517 3.80111
-5.26626 105.258 8.89657
-22.461 127.711 -3.29379
17.5245 128.002 -7.70033
1.00893 116.46 -10.9538
6.63092 152.385 -3.71872
-20.119 142.398 4.67326
11.9593 121.679 -8.95434
-2.21071 80.5152 -7.42657
10.2682 109.694 3.54604
-12.2655 122.603 9.36113
11.799 140.734 1.19923
11.7334 100.129 -11.4248
20.1351 138.897 3.80703
-2.13643 121.202 -8.81216
12.8713 122.538 -10.5213
16.8438 119.59 8.04668
-4.05975 101.787 -12.4605
-9.64521 119.584 -9.98044
14.2126 116.457 3.40843
-8.25619 141.367 -6.84505
-15.6394 146.745 1.88358
8.10292 90.8712 5.92036
0.573968 93.5226 7.70593
-26.7128 121.476 4.09448
-15.7535 81.8887 -8.86798
7.25221 121.754 -6.69693
-8.79471 102.624 -11.6634
-1.68849 109.597 -12.5803
5.65249 85.005 4.4271
-17.6166 122.655 -2.80263
-6.26479 119.676 -8.99105
-10.1465 78.433 -6.67636
9.95748 123.613 1.89074
-8.26835 77.4492 -2.34817
-7.25546 143.717 2.2338
0.266534 123.824 -7.95941
14.5385 132.972 -10.3407
-19.0873 120.565 -5.12168
-7.24473 145.589 -5.94906
15.5508 134.632 -9.7222
-9.38346 124.106 -9.71175
-21.0234 99.5524 -5.96977
-19.4402 120.183 -1.10124
-12.2697 148.511 -1.29557
5.18637 119.354 4.8555
13.5629 127.716 -11.3332
24.3289 138.798 2.13956
-3.9579 140.232 0.00175204
-24.1213 125.292 6.76794
16.445 128.618 -7.92081
7.74108 86.445 5.87996
-17.8072 124.023 4.4673
-11.1447 120.912 -10.6828
-16.4207 117.223 6.28637
12.9777 141.654 2.01545
-19.2362 122.613 4.45988
3.44859 109.223 -12.1812
15.3729 114.349 4.18129
17.3815 150.041 0.278832
4.08582 136.782 2.19853
-18.0904 92.6764 -10.7982
-4.93704 86.6161 4.50748
-24.3855 120.566 3.00796
-24.9848 125.995 6.86496
9.85949 135.075 1.27631
-9.84675 126.579 -8.20429
-15.407 116.865 8.40358
-22.1729 83.6964 -6.33853
15.887 143.464 -6.78389
-13.3851 84.0958 -9.94703
5.28473 121.31 4.54966
-12.7166 86.0458 0.722781
-14.8941 83.685 0.423889
7.83885 120.959 2.93784
8.79348 96.4462 -10.7548
10.0038 128.258 -8.04166
-20.5084 107.078 -5.25208
-13.8056 90.4454 1.16398
-12.3843 94.7363 3.19853
-13.3334 125.911 5.92415
-1.18906 78.4916 -0.674527
-17.5208 107.489 1.25335
-13.8955 122.378 7.46189
6.98281 110.053 4.94739
-3.72741 103.483 8.34868
-0.761902 94.5932 7.89418
-11.5865 128.179 6.87557
-19.8232 123.601 5.37421
-11.2712 108.448 9.40568
15.6436 122.688 6.3923
-6.87699 120.272 -8.84704
-13.4066 127.689 -7.92897
-16.9385 130.774 -3.25551
-19.6035 93.1771 -10.4025
-11.9599 146.23 4.45842
-11.5502 114.043 9.91166
13.281 120.818 2.93154
17.3444 117.99 -6.77321
-10.8524 78.9599 -3.87014
6.16176 80.0715 1.39338
-1.84395 97.4239 8.26515
-3.81226 89.8254 -9.39999
15.9582 128.213 -3.68727
-13.4313 129.163 -7.73056
-19.8293 140.092 6.94793
0.398737 94.7167 -10.7605
-5.99872 77.2677 -0.91113
-14.0773 85.2789 0.552206
1.3819 101.233 -12.3932
18.359 134.969 -7.99431
-1.71778 91.8472 6.71857
-0.36049 87.2116 5.38513
-5.85464 96.9916 7.43894
23.9607 138.246 -1.94904
12.5272 112.068 3.31638
21.3108 129.895 0.248085
-17.6199 120.919 5.11418
-26.0767 121.44 3.91038
-17.0083 107.085 5.16481
-17.3034 135.233 -3.04357
-10.0035 80.2692 -8.20729
-3.25274 91.9778 6.5907
7.76464 100.576 -11.1272
-15.47 138.107 7.08727
5.89797 86.6883 -8.34756
5.5578 90.9428 6.22453
-19.6459 89.7318 -3.17816
-0.737193 129.7 6.45057
-27.6867 126.243 1.28721
-8.79242 77.803 -1.54613
-5.66397 131.903 5.27831
-27.2865 127.13 6.99642
-20.9011 92.0556 -7.25751
17.0904 137.286 -6.85256
-19.2986 79.7094 -8.68473
-23.0339 77.6726 -5.31922
8.41129 106.135 4.62701
16.8927 142.468 -5.38583
-1.77156 98.3057 -11.1209
-17.3716 125.865 5.20106
-0.389631 116.04 8.79437
-7.56703 120.178 -8.93681
-7.95459 124.379 -9.23249
-29.6411 121.752 4.85227
-20.4035 99.9937 -2.62523
-7.43528 96.1847 6.15731
4.75264 99.3842 -11.0882
7.42479 82.3941 2.34118
-10.1043 132.5 4.52323
15.6812 111.799 4.5458
-22.5638 87.1917 -8.0703
-5.02963 148.294 -4.00976
10.3325 88.748 7.11035
8.4773 87.7812 -8.24065
6.98213 119.182 -8.31601
-29.7835 124.225 6.53853
-4.3906 141.11 -0.0121959
-14.2077 82.0025 -9.55411
-22.5115 119.411 -0.226637
-15.1009 88.7321 -10.1167
-17.4906 121.026 5.65917
9.41939 100.936 -11.451
-11.683 139.274 4.05556
-1.32513 143.685 -3.35369
-15.7309 136.734 -4.11219
6.42197 110.469 5.42086
11.3702 127.789 -10.074
-13.8421 93.4602 1.72958
-12.1301 113.39 9.69681
13.7091 114.956 3.35424
18.7029 122.282 8.71786
6.89425 137.041 -7.23162
-5.27265 134.828 -5.97675
3.79367 131.782 4.63646
-14.0906 126.728 -7.78205
-26.7982 125.705 0.207582
3.82896 144.641 -0.455112
1.87124 132.989 3.84404
6.37503 93.0379 -9.80058
18.4011 142.04 -5.39751
-7.9745 94.2608 -10.1629
-8.70048 98.7307 -11.6337
-18.9335 118.38 -8.74211
-15.4421 126.478 -7.06265
11.6952 88.1607 6.84615
-16.5573 130.594 -5.64311
4.25289 85.5383 4.692
1.80009 96.4849 -11.3008
-20.0758 142.631 3.37436
-21.0303 100.493 -5.05883
3.52666 147.316 -4.35719
9.97645 86.4052 4.8674
-22.9032 133.384 2.12108
-19.6032 125.871 6.29651
-0.299481 90.3829 6.56399
8.77217 124.91 -7.17578
13.37 124.131 -10.485
18.932 127.288 -3.95798
-20.8067 102.189 -4.8058
18.1857 140.02 4.61373
18.6697 123.988 -5.79156
22.0418 146.113 -1.74467
1.39152 96.9934 8.01571
10.9799 147.424 0.973404
9.68699 107.367 -11.3985
0.212677 143.948 -3.42081
-5.64251 85.5056 -9.10443
-16.6546 109.355 -11.094
6.89328 120.443 -7.00892
23.2567 136.929 2.91681
8.53375 87.5992 6.86593
3.60355 136.127 -4.84411
-15.0384 114.815 -11.0924
-11.7097 106.934 -12.8457
6.84957 137.218 1.75256
1.39983 76.467 -1.34838
-20.5222 109.387 -6.27543
-17.2372 130.694 -3.912
-6.57948 113.122 9.75333
-20.4244 104.313 -5.51427
-16.4471 136.601 -4.70254
-18.5173 105.052 1.87711
-12.3011 113.797 9.77224
12.2783 137.642 1.32366
11.0181 97.8094 -10.9718
-5.01181 85.8835 3.85047
-1.56995 86.6695 4.59139
10.1095 100.813 5.26218
4.79331 76.135 -0.356009
-12.5888 95.5009 -11.7217
-13.1846 110.813 -12.1695
17.4606 128.351 -1.65506
16.3134 127.107 -6.96331
-20.8957 94.379 -6.55137
6.51833 87.9514 6.69935
-16.6853 99.5914 2.98587
14.7 137.286 6.0731
-13.209 91.0386 -11.3454
-20.9749 129.044 6.78684
4.07019 150.982 -3.66234
-23.1571 75.1378 -8.41813
-5.52715 135.924 2.14541
-8.69753 105.758 8.97133
-23.8061 124.042 -1.04316
-8.93143 101.999 7.66316
-23.3856 126.981 -2.30784
-4.25931 84.6767 3.09103
-16.6178 144.197 6.26221
1.46261 89.6389 6.79822
-20.8815 121.095 -3.39559
-20.0455 84.7704 -4.06002
14.5418 125.722 -10.6404
14.6392 110.789 -10.1523
-25.5145 131.038 2.9188
-26.0739 130.244 2.38402
-18.1331 112.074 -1.53756
-4.81132 82.2253 1.92347
8.87033 114.415 3.20386
2.69991 119.774 6.84986
0.084822 112.017 8.81316
-22.8055 119.576 1.06047
-11.7044 129.267 -9.29685
-7.71078 105.099 -12.8183
-0.0644642 133.958 2.57883
-5.91503 96.6549 -10.7231
8.39258 97.4485 5.86892
-18.8444 121.732 -2.60312
-10.4671 77.1127 -2.84025
-19.6648 120.595 0.0495546
-14.5239 92.4711 -11.4724
12.6456 139.457 -9.72591
6.54353 83.7721 2.81546
-18.4034 123.179 4.96972
-8.50818 87.7361 -10.4496
6.7696 102.011 6.23968
5.07684 140.804 0.940264
23.9618 141.552 2.41662
-19.3794 143.438 2.99059
-19.1686 143.397 4.93936
-3.47833 89.4327 5.93325
6.55846 155.102 -0.0101922
0.930849 101.597 8.68992
-13.868 96.0815 -12.0555
-14.7707 99.8055 5.43297
18.6142 130.733 -3.6295
-20.5087 74.7748 -8.41669
4.03017 101.489 7.87976
-16.1215 119.465 7.52748
10.9774 128.329 -9.37286
-2.59607 121.177 8.95296
7.89209 125.815 2.48348
5.44663 143.387 -5.56484
7.76702 141.965 -7.68368
-9.55359 98.9079 -11.9549
-9.08707 90.6662 -10.6221
8.0386 135.991 1.1941
-19.3507 110.828 -8.37447
23.4761 138.212 -5.27324
-24.1387 135.689 4.9608
20.096 125.331 -4.66504
-16.8201 141.413 7.3592
16.4885 130.206 -8.78396
17.5118 129.443 -1.87263
15.8133 104.453 5.43575
13.7171 124.227 -10.5322
22.6374 144.083 1.96829
-17.0399 119.171 -2.56389
11.482 103.237 -11.2724
-8.55314 115.133 9.95956
-13.4623 148.32 3.73251
-5.11687 76.8897 -0.798452
9.14256 103.067 -11.7487
-16.3173 115.691 4.61862
-3.8228 151.934 -2.45094
15.7711 130.896 -7.93765
2.72185 144.974 -4.27723
-15.0225 128.523 -7.19982
-1.44191 137.423 -3.8837
18.3604 130.041 -7.12629
-5.72677 81.022 0.835624
-17.4291 130.334 -3.83871
11.1024 128.379 1.39507
-26.3737 122.135 4.61768
-2.84432 134.448 -4.85353
17.3986 129.856 -2.37335
-4.06134 123.274 8.78387
-31.4856 122.366 5.1497
-19.5206 119.499 1.37172
7.21049 126.197 3.0782
9.81866 126.474 1.78827
-11.2222 114.443 9.87797
-5.91681 84.2487 -8.68994
