ply
format ascii 1.0
comment Created by Open3D
element vertex 1955
property double x
property double y
property double z
end_header
21.8219 107.346 9.43717
-14.8223 141.006 -2.34957
7.6582 117.779 4.67375
23.9056 135.931 3.22144
22.5963 85.4598 5.69153
-6.80258 147.269 -5.24262
27.7001 79.5667 2.83972
-11.2832 121.726 9.68275
13.8255 115.882 2.7422
12.1786 133.959 -9.74054
-3.19996 154.446 -1.81716
16.9888 129.637 -2.96912
17.2872 126.704 -7.61913
14.8684 132.203 6.15723
9.45504 88.8376 6.92149
24.6499 136.752 -2.28934
17.8924 129.697 -7.36635
7.39298 143.628 2.47308
18.5982 132.402 3.7227
8.79021 88.6584 -8.46799
-4.44238 125.395 -6.67933
2.7417 87.0398 -9.07445
-6.45982 106.826 10.3271
4.42765 122.666 7.2435
28.7404 93.1994 -1.54103
6.53317 118.936 5.67876
4.76513 133.671 5.17079
5.44682 84.2217 -7.85544
-15.5562 141.587 -1.88298
16.5815 110.646 -9.58684
7.40383 152.292 -4.00711
17.4294 144.002 4.28082
20.8991 123.544 -3.93011
-2.28319 108.887 -12.4204
4.73876 95.5955 -10.8448
-6.46597 148.411 -4.70843
-5.8864 149.532 -4.10526
9.06421 126.24 -7.56
26.9445 96.8241 8.37126
12.5968 109.94 -10.0221
2.39821 150.521 -3.20541
20.2722 123.315 -6.46635
9.96001 88.3594 -8.27923
17.3851 126.853 -1.15655
13.4806 149.712 1.9637
19.3424 127.216 -6.4727
16.0292 82.8202 -5.38133
3.01834 132.974 -4.29496
19.7783 102.533 -8.88897
20.327 108.684 -7.56068
0.879245 139.058 -3.29619
32.519 81.8495 3.79094
17.8791 139.552 -6.0178
-5.00476 132.287 5.25261
-5.14747 134.744 -5.9774
26.572 110.534 4.26204
-2.89701 125.893 -7.11425
21.079 114.934 -4.5074
8.21462 108.346 -10.4245
3.33226 99.1864 -11.3635
6.7722 144.05 3.08937
-5.90903 104.894 9.61669
20.0702 146.13 3.0166
25.8749 90.2305 -3.23582
31.7746 87.2418 4.0678
-13.2342 124.196 6.00687
21.4985 120.965 7.45736
15.4939 82.8594 -5.4694
1.58863 110.509 -11.4754
7.00597 133.645 5.06026
13.8039 95.4743 6.06279
16.2081 134.826 -7.95582
3.35054 109.722 9.67423
31.7355 89.712 3.92692
22.5438 106.928 9.6191
28.3251 81.1227 -3.09002
0.448217 136.415 -3.40709
14.2272 88.7004 7.59192
0.65253 123.454 9.34523
27.5085 84.1366 -3.41883
21.672 116.374 -0.17703
27.9144 126.907 -4.09866
-9.67689 120.266 10.4254
20.5712 115.255 -4.12705
16.3111 111.32 -9.90048
9.38954 132.126 1.74021
-9.06351 137.944 3.91122
18.8869 90.4139 -6.6087
-7.8713 115.882 -9.93072
10.5794 126.207 -9.72048
-14.3736 141.385 -3.29117
17.5865 132.103 -8.1679
12.6574 95.5647 5.37223
-12.1465 130.692 -8.75572
11.8596 123.284 -10.4072
-1.40847 149.451 -2.43228
-6.74199 145.623 -5.69009
4.27389 85.532 -8.50688
0.292044 97.3188 9.14436
19.9168 147.184 -2.58717
2.92069 99.2245 -11.5099
18.7587 81.744 -4.04289
27.0559 85.9754 -2.02817
5.4777 154.662 -1.5311
-12.8664 142.921 -4.73896
-18.8977 142.862 3.64828
-0.173796 137.613 1.49638
28.5925 127.266 -1.45769
17.5018 130.176 -3.27211
-16.1489 134.522 -2.75713
-0.0114186 142.753 -3.10352
15.6451 80.7483 1.99894
22.8786 128.395 2.66378
13.9044 150.422 -1.70604
26.6939 81.4538 -3.69864
4.52902 77.3793 -6.11336
-7.29196 135.355 4.11294
25.6781 129.564 -5.63524
7.40474 110.094 6.58091
16.4927 107.882 4.66792
17.7504 125.81 6.5048
10.2679 94.3909 -9.76434
-9.33963 135.23 -8.64586
0.441867 93.9415 -10.7105
11.5467 119.531 2.33528
13.8232 128.03 1.95749
25.0322 131.33 -0.0354984
12.8739 115.555 -9.14433
3.98793 116.831 9.00461
-10.288 142.837 4.00136
21.964 90.7182 -4.09239
2.48786 127.191 -5.7014
20.2723 144.233 -4.95951
20.0599 88.6573 -4.95241
21.4049 101.978 -7.32212
3.36691 138.706 -4.28613
-14.3084 130.034 6.87644
-9.20582 135.592 4.63304
-8.93366 130.602 6.08276
19.7444 122.61 -6.33013
-3.23045 122.336 -7.79451
19.9219 81.6622 -3.78351
3.13043 126.684 -5.71129
12.7157 132.999 -10.6915
29.4468 124.993 -2.3808
28.32 91.2925 -2.02487
9.09302 143.229 -7.82969
10.1173 115.556 -10.248
-3.22716 134.885 -4.534
27.6439 106.268 2.48586
9.47706 119.511 2.91435
25.1463 97.5968 8.25708
13.8904 86.2345 5.36479
6.71323 76.8241 -5.64016
3.49651 119.59 -8.01337
24.7389 136.071 1.26892
7.81751 90.6111 6.19136
15.085 95.9532 -8.67639
2.47541 107.286 9.82232
23.3073 85.0671 5.91075
19.0894 96.4655 -7.89173
-8.89817 136.301 -8.45505
11.6772 148.901 -5.24051
12.3155 120.306 -8.39964
7.92384 88.8475 -8.66576
9.18772 120.744 2.87271
-14.5786 136.576 -4.79862
22.4541 129.289 -5.79733
30.1926 89.2156 1.76358
18.0131 89.8714 7.85032
0.108744 119.085 -10.0188
25.1402 132.073 2.1165
9.43041 83.641 2.58777
14.4395 115.34 -9.96908
16.0138 121.626 -8.69775
29.3459 124.984 -2.07967
14.9929 122.807 2.83545
0.291906 98.0589 9.19638
18.1396 94.1962 -7.62052
15.0244 127.572 2.90137
25.9489 100.856 8.7693
9.38922 109.278 4.53288
4.81404 104.902 8.89946
10.9342 92.9412 5.78982
13.9275 135.467 5.16519
22.0399 122.805 -2.7194
8.69684 127.649 2.68864
5.96019 132.613 -5.29964
0.957831 135.066 3.21129
15.6425 131.575 -7.90921
-17.8447 140.158 -0.382368
2.46406 124.736 9.03066
24.5392 135.768 2.33931
26.3956 106.42 7.23311
3.26454 119.896 -8.26168
13.2067 147.858 2.04668
-3.54613 97.3856 8.79594
5.22916 142.104 1.83454
18.5307 87.3165 -5.69954
11.3308 113.448 2.98284
4.87941 98.2635 -10.8213
-12.1132 140.995 5.67207
28.4169 98.0733 7.68239
25.3877 98.9153 -3.71908
-0.33308 94.1815 8.50713
20.4103 124.16 -7.98706
2.3438 129.717 -4.812
15.2576 130.065 -6.58699
20.4839 144.3 -4.45398
21.6893 135.598 2.68616
-6.94425 120.348 10.4144
19.1126 124.551 -12.1651
-12.3996 120.785 10.0371
27.6405 105.728 4.87714
28.6655 84.059 -3.20601
4.73878 94.6331 -10.866
30.3285 97.8275 1.10462
18.7155 121.794 -11.7971
12.7842 86.8618 -7.18679
-0.489386 113.256 -11.5981
0.173678 138.745 1.29389
15.3723 135.174 5.67968
2.39282 111.498 -11.3007
8.51213 96.2931 -10.7217
16.2202 130.67 -8.75156
22.4081 84.404 5.09969
19.3538 109.894 -9.10897
10.2682 76.6064 -5.10243
10.3646 96.1766 -10.6143
9.00122 82.732 -7.15176
7.03795 115.479 5.94304
1.5385 106.077 9.71529
-3.02724 153.376 -1.90565
11.7883 143.69 0.996517
16.7347 130.486 -8.86328
1.35839 104.928 -12.7338
23.284 139.569 -4.42266
7.35548 136.737 -6.44218
-4.49304 113.778 -10.4002
10.3522 128.546 -8.38513
-0.697142 116.425 -10.9307
15.8243 123.233 -9.76085
1.0074 117.916 10.0987
0.172368 97.5603 9.15509
20.1055 147.321 -2.20407
-11.1758 144.263 -4.93942
13.975 76.7798 0.399954
15.8899 125.741 7.27636
24.6362 122.519 -2.60538
7.15618 91.4189 -9.68185
22.659 83.9394 5.07949
7.0062 126.189 4.97368
22.3643 100.497 -6.84723
7.22245 151.926 -4.05541
10.2782 125.182 1.88079
-12.1136 142.231 5.93319
16.4038 83.4622 3.25129
13.9476 95.0488 6.25137
12.2523 120.61 2.24999
21.715 88.6549 -4.24919
20.7086 126.014 -0.907662
16.5998 122.448 -6.47723
27.3974 95.0941 -2.6551
5.09653 117.303 7.85543
14.102 98.9186 5.22705
22.7988 100.786 -6.52921
2.00261 102.445 -12.2005
-5.73986 138.363 2.92239
21.4511 134.614 -7.70784
-6.343 119.727 10.4487
2.46019 99.4854 -11.7068
3.77277 136.146 3.86448
-0.977949 129.332 7.48716
19.1473 143.479 4.37337
17.9455 94.3272 -7.73335
9.90133 106.325 4.46909
26.7633 129.809 -4.86768
-8.76283 147.957 -5.01584
16.2237 127.022 7.53773
27.0687 102.945 7.3969
-5.77275 153.244 -1.63079
24.8884 98.5942 -3.9928
-8.74273 143.456 -6.07218
21.6786 126.646 1.13877
9.7755 104.836 4.81336
-4.86885 108.923 10.8156
13.6745 84.2408 3.95471
20.9138 125.427 4.30672
3.62108 94.1444 -10.7394
31.1585 81.4338 3.55423
19.1684 115.995 -7.59713
21.0227 132.353 3.28684
28.3202 131.019 -3.73105
-6.82647 138.721 3.17564
26.4935 84.3735 4.03279
17.1454 98.1112 8.26263
21.7803 123.318 1.41191
0.790248 90.3189 7.23963
-3.8358 143.44 -4.08736
-12.1636 146.805 -3.26121
20.3074 117.904 9.01335
16.4208 150.353 -0.859153
20.3271 129.163 3.47193
-7.40206 133.272 -8.29645
12.2244 125.86 1.60996
20.8061 139.48 3.23401
18.1562 139.268 -6.32904
-3.40305 123.261 10.2221
11.9857 136.471 0.967804
5.16572 138.227 3.00385
5.83506 121.556 -6.27677
17.5742 91.7588 -7.50676
12.5457 138.548 1.17021
18.3779 120.574 8.68602
5.65077 145.207 2.8008
11.2307 97.3662 -10.5913
14.9904 124.6 -9.94225
28.4785 80.6492 3.55578
9.44675 123.583 2.44891
1.52741 133.54 -3.66586
28.1572 93.8652 -2.2109
-1.95628 136.164 -4.01161
13.0592 114.669 -9.58635
6.24352 83.5393 2.85
-1.98415 100.62 8.8099
10.5942 108.293 3.78239
18.3715 85.2214 -5.06897
23.0357 131.189 3.56041
-10.8496 124.458 8.96246
2.80989 83.2237 -8.01028
11.8725 91.9648 6.42738
-12.595 129.88 -8.96073
8.27408 119.199 -8.46324
2.63209 128.533 8.07809
11.9353 141.499 0.992504
10.1359 122.823 2.14965
13.8461 123.668 -10.1998
16.8849 131.762 -8.38649
-6.81138 152.453 -2.02109
16.9312 83.2084 3.21113
6.18457 101.77 -10.9512
17.61 127.351 -0.219231
10.0935 147.851 1.0049
18.9799 125.36 -11.9732
2.21337 88.3778 -9.34309
20.3036 109.623 -6.84484
-5.31726 125.447 -7.84003
-9.56936 131.106 6.07601
-10.9313 126.178 6.82622
21.893 124.475 -2.31442
5.25717 116.238 7.85176
17.4358 130.233 -4.10668
15.5346 147.186 -3.97503
16.1795 134.63 -6.41206
16.7563 77.0428 0.488036
8.56714 116.765 3.97193
23.0709 141.058 3.03761
14.0232 112.889 -10.7632
9.24276 104.563 -11.9847
30.4996 80.5357 3.39188
5.42358 139.015 2.80591
-10.8835 138.028 4.66699
18.1829 101.843 -9.06184
-5.21979 107.112 10.1978
26.3373 131.098 -1.52338
-2.7099 118.965 -9.02495
26.6214 99.4371 -3.2172
7.1096 92.5589 -9.79185
14.9397 142.113 4.70957
12.757 78.9203 1.21229
27.4921 124.892 -2.20538
7.46366 129.62 4.90046
28.3875 96.5878 -1.93837
21.3594 122.167 3.95286
26.0339 113.791 2.99122
10.3293 83.7483 2.7002
-10.3717 139.444 -6.74333
23.3489 105.155 9.47594
31.0851 96.2062 0.907159
1.53312 116.695 -10.444
-9.35268 142.33 -6.11221
5.51444 105.894 -12.0462
25.3979 137.631 0.701605
8.65852 114.79 -9.70062
-2.19978 138.464 -3.74004
19.505 127.08 -5.32232
-9.10896 149.763 -3.68531
20.1974 89.5518 6.61163
26.7828 107.384 4.88977
4.88595 94.9339 7.86558
0.696026 94.2682 8.63375
22.6422 79.4732 2.75893
7.00602 154.045 -1.43207
21.4315 137.833 -7.78885
19.6248 137.728 -8.19298
23.9315 118.177 4.6398
24.2818 107.583 8.91193
26.1702 112.061 1.64435
14.1231 138.857 4.24594
9.66205 86.1985 -7.94469
29.585 99.9232 4.0825
21.1385 125.522 -1.28402
-12.6273 134.02 7.1262
1.10401 104.469 -12.7236
30.2426 80.4819 3.26318
-10.8924 124.648 8.86787
21.7104 109.944 -4.59548
28.2149 103.573 6.03254
25.7807 101.911 8.76689
-0.805562 129.411 7.47962
26.4641 104.865 -1.91876
-7.80547 114.243 -10.6085
-11.626 133.805 -7.24867
-2.40293 137.585 -4.06083
21.8283 92.3424 -4.07618
31.2107 93.9164 0.772591
33.1949 84.2611 3.5868
7.1833 91.7584 -9.69929
17.0066 132.9 -9.32842
15.2959 98.4747 6.2373
7.36641 123.476 -5.8146
10.1913 94.6821 -9.97375
18.7815 78.6101 1.08334
2.94066 108.714 9.74131
18.8388 123.794 8.06715
8.7342 121.637 3.18334
-13.1698 138.895 7.04126
21.1891 99.2372 9.22086
18.9885 126.375 -11.831
26.2293 136.173 -0.0943649
-6.98667 129.363 -8.04357
1.91006 152.229 -2.89686
25.7328 108.513 0.0630345
26.2801 95.5327 -2.91046
0.511799 130.136 -5.72563
25.1607 114.979 4.69533
4.83028 115.767 8.3434
25.4105 83.1005 4.05255
18.9767 124.875 6.57265
5.53388 130.403 -4.92922
7.31436 105.041 6.97146
6.86553 147.673 -5.55124
17.4854 81.1605 -4.71226
18.4369 79.6518 1.7056
25.1399 132.027 2.0109
10.0254 125.848 -9.06335
17.6197 93.5277 8.93045
17.7172 111.764 -9.90769
7.42654 114.724 -8.99732
-13.8057 142.636 -4.10727
7.51993 81.7349 2.3803
-6.79416 130.71 6.31624
15.5781 104.321 -10.429
25.7142 107.047 -1.72188
24.4194 121.598 -4.25387
23.9871 124.553 0.548353
23.7285 111.104 -2.49348
6.9274 75.5672 -5.26788
13.4394 145.145 2.96607
7.52185 110.872 6.36288
32.1658 85.4971 -1.10292
17.9384 135.475 3.59668
18.3226 126.867 -7.06279
8.82858 129.406 2.51905
11.9186 151.091 1.49897
5.0309 149.573 -4.0082
7.0674 86.5127 -8.58944
0.346936 118.087 -10.4519
-8.4428 138.834 -7.22253
8.4884 149.435 -5.77167
29.8833 87.1854 1.21138
28.2841 91.3569 -2.06065
9.8424 121.354 -7.67281
23.3621 86.1461 6.39857
25.1781 112.515 5.5395
-15.1479 137 -4.39356
-5.86633 125.453 -8.42917
4.27284 135.267 4.23262
1.10488 105.461 -12.6858
20.6415 88.6407 6.27987
21.5858 97.9934 -6.5123
4.85317 92.0245 7.63439
3.98401 116.174 9.10211
23.7483 114.505 6.16586
8.80318 135.317 -6.76228
16.8257 140.543 -5.27179
16.0693 150.404 -0.817786
22.8236 131.286 -5.82493
23.6035 85.0102 -4.37105
11.8815 138.266 -10.1837
9.04829 139.462 -7.9748
3.00562 140.766 -4.05013
6.89497 115.12 6.17944
23.2363 90.6029 7.26528
9.82955 144.597 -7.98522
1.121 109.459 10.0667
17.7889 78.9274 1.08046
26.9153 132.156 -4.17384
5.82307 126.346 -5.01947
9.32028 93.7745 -10.1661
20.0473 143.51 -5.68045
-7.58587 142.966 -6.37825
-6.41824 141.05 3.22584
-16.9737 139.042 7.57244
4.91175 85.6247 4.85085
-4.18874 107.72 -12.2289
17.5439 104.105 -10.0448
-3.97096 121.621 -7.98584
23.6534 82.5023 4.78179
16.853 112.486 -10.3011
28.9403 88.7931 6.49635
2.70556 104.08 -12.1763
-14.8972 132.225 -5.56258
26.5337 79.358 2.84716
23.3943 116.674 6.17072
14.6996 128.625 2.67157
4.90831 133.974 -4.84066
23.1993 94.9157 -3.70857
-12.3178 149.182 2.39782
13.2362 136.067 -10.744
24.3208 107.085 9.03404
27.3066 95.401 -2.61095
25.1919 80.1939 -3.47316
5.27435 113.018 8.36951
30.2558 95.4255 2.17272
-11.0132 124.539 8.45499
-10.0348 139.495 -6.75878
27.911 85.1986 -3.12225
-1.88553 124.433 9.19383
-3.36886 127.743 7.49253
15.296 123.462 4.09767
13.3521 110.48 -10.1522
9.71683 146.333 1.13781
-0.942486 102.992 9.3156
0.14225 109.344 -12.0738
-17.7247 144.012 4.21545
14.5922 114.222 3.23155
7.27667 149.185 1.61153
13.126 141.615 1.82258
-4.82931 151.569 -2.68209
12.6701 129.231 1.45562
18.1167 127.411 0.174324
13.0715 124.484 -10.7102
-1.20048 108.553 10.6632
7.8239 124.245 3.82644
21.2572 121.95 7.31586
-3.17116 139.063 -4.36295
-2.47602 140.83 -3.81265
22.3405 120.341 6.47491
7.25246 109.704 -9.76968
8.47024 121.445 -6.36614
19.7914 122.944 -10.5811
16.552 129.38 -5.32342
-12.1535 139.508 5.72143
16.9235 123.126 7.87021
9.56925 115.148 -10.2634
-14.2263 131.759 7.28881
-5.89998 123.345 -7.87007
19.2821 133.708 2.64104
19.5404 135.086 -9.62911
-0.904129 137.369 1.50231
13.9252 85.1951 4.74413
15.3266 129.303 4.36365
-1.47842 135.492 2.64435
-8.27558 151.49 1.12866
-2.76584 102.66 -12.7388
11.932 106.825 -9.97267
2.94616 135.201 -3.99
11.1435 141.977 -8.90906
-10.0462 123.709 9.73625
18.4117 101.366 -8.81574
5.44953 146.322 -4.8934
27.918 84.65 3.45574
-9.6044 128.927 -8.31474
13.6812 95.479 5.99015
18.2454 133.532 -8.03658
14.2877 133.968 5.86803
-11.4936 136.527 -7.05292
3.72722 111.416 -11.3147
15.3931 144.171 -6.2807
13.0354 110.368 -10.1257
6.39872 92.5501 -9.84723
4.78886 75.8248 -5.77023
24.2938 117.335 4.9193
-5.09314 113.806 -10.3858
27.0518 106.905 0.809822
10.3191 127.4 1.83252
29.5577 80.8277 -2.55265
17.5187 85.3325 5.12021
13.4955 146.669 2.42821
13.2791 117.044 -8.90458
26.784 95.0175 8.35448
17.7056 140.843 4.66359
2.65173 95.6733 8.56375
20.9386 95.4492 -6.55674
10.2922 75.8741 -4.93438
7.43651 146.68 -6.00643
18.2897 107.91 -9.81133
22.6212 118.092 -0.496855
15.2528 82.7658 2.90336
23.3202 134.875 -3.39308
5.57712 81.619 2.52311
24.6787 114.947 0.592824
15.1001 76.6235 -4.18219
12.3445 117.152 -8.53576
1.82086 110.999 9.97689
-12.7358 138.495 6.61433
28.5267 87.0705 5.27623
5.67151 81.7374 2.53097
3.32235 128.461 -4.76454
5.11598 147.164 -4.63527
17.2545 117.053 -10.2337
18.4841 103.528 7.40107
15.1407 128.483 -5.60775
18.0522 98.8542 8.72733
16.1001 127.573 -7.09055
-0.108567 94.0836 -10.8861
19.9893 123.61 -7.24703
24.1825 94.9692 -3.3603
8.86778 109.108 5.05141
12.5961 110.839 -10.1791
5.86015 154.563 -1.41428
6.46029 144.534 3.35407
-3.0243 127.267 -6.73903
18.3901 124.751 -5.888
0.550897 89.412 7.06922
5.44182 93.3903 -10.0952
29.4149 82.7463 2.88528
16.3171 128.782 -8.58606
2.22181 139.547 2.26443
26.2152 101.831 -2.9902
9.84503 112.672 3.66407
15.3287 124.211 -9.41483
14.2442 76.2382 -4.13303
21.4309 121.684 5.80726
15.5062 83.2654 -5.59639
9.68497 150.817 -4.80405
0.0965243 104.63 9.6848
-8.40551 137.883 3.60548
20.9865 121.585 7.63976
10.3078 108.99 -10.5406
22.8922 125.131 -6.15209
-0.994739 127.881 -7.05515
-16.4933 145.475 2.66049
10.1689 86.8645 5.86027
8.11014 129.686 4.22285
23.6334 136.335 -5.0289
30.1712 95.2308 2.25535
14.2309 126.35 -10.5214
8.76299 110.787 4.96686
28.8866 79.6192 -2.29676
-1.58749 140.657 -3.45978
-7.08855 153.734 -0.531235
-6.81012 144.37 -5.96924
-11.662 136.764 5.60229
-1.64896 107.213 10.3554
-3.58404 106.363 -12.9935
-1.54899 123.787 9.17452
-6.64855 145.154 2.26625
-0.322712 111.406 -11.7039
5.91044 124.245 5.86818
4.53309 78.0516 0.409437
6.99614 100.7 -10.8349
2.68459 118.422 -8.69361
11.3639 119 2.36968
14.5156 98.3728 -9.33515
17.9021 128.803 5.43345
5.19027 121.942 -6.37525
6.34261 93.0772 7.16898
-1.85477 108.552 10.7297
22.7921 89.4659 6.94457
21.3114 99.8874 -7.63531
7.06679 145.065 2.66055
16.8062 104.84 5.35027
22.6972 111.4 8.98079
30.1329 84.5087 3.13436
-9.87884 143.346 3.68938
30.4306 94.5767 1.73309
-18.4707 141.121 6.4982
25.853 101.824 -3.3574
17.8877 136.002 -6.82138
18.6619 87.1208 5.65938
2.4537 119.097 -8.95621
6.423 143.927 3.55391
10.3959 133.308 1.75785
11.1208 137.235 0.87396
21.2507 92.0761 -5.30788
21.1409 82.0361 -4.16863
-18.4054 138.244 7.38473
-17.2972 141.448 6.88092
-14.5474 136.476 -3.34093
27.9929 87.919 6.68624
1.30618 86.0116 4.72109
19.9548 128.306 3.13969
3.65771 87.7567 6.98502
11.6109 83.888 3.24605
12.7617 120.365 -8.94198
26.4164 88.1627 -2.56076
-4.00338 137.987 2.99974
13.8975 135.341 2.48825
17.1701 128.246 5.91774
3.21247 118.703 -8.12156
-7.65656 123.073 10.4151
20.5503 142.27 -6.25414
20.8201 129.014 0.126525
-0.671131 131.57 6.07677
6.15931 150.892 -3.99855
-11.7542 148.541 -2.31796
17.1016 146.32 -3.8978
3.51057 113.268 9.5477
19.0855 121.33 -5.20755
20.8839 106.65 -6.86084
22.6568 136.041 -6.34953
24.3345 109.743 -1.15565
14.7066 88.0756 -6.85377
17.5752 149.581 1.3758
14.2798 151.329 -0.52323
4.50582 132.26 6.54791
-9.04464 118.232 10.5107
21.7802 125.204 2.65758
-16.2775 144.609 5.14712
19.4767 86.4101 -4.2028
18.9364 102.905 8.23887
23.5117 88.7138 -4.11074
20.9084 121.85 -3.98611
20.9902 123.644 6.66479
25.1791 108.142 7.61822
18.534 104.457 -9.73935
-2.16059 111.798 -11.6795
-15.5431 136.044 -4.07976
10.5145 101.266 -11.6531
16.5372 124.366 -7.30336
4.40131 139.847 -4.6404
-10.2801 149.163 2.84372
17.0004 135.903 4.11357
23.8501 110.278 -1.89659
20.0611 90.4691 7.51993
20.1519 133.028 3.14516
-6.21345 129.778 -8.12313
5.00971 145.488 -4.74
22.3335 122.068 -1.18443
20.9197 125.589 -8.73087
11.2047 133.953 -8.83668
-13.7708 146.893 0.310341
-2.18673 113.889 10.3281
15.3489 122.858 -7.94144
9.49281 78.2986 0.838781
20.2318 96.3391 -7.16133
-5.22879 101.211 8.23152
6.57237 132.756 -5.66244
1.92764 121.001 -8.76895
17.449 96.5017 -8.13141
-8.34153 145.742 -5.88537
-5.82191 136.065 -6.57499
21.8579 146.866 -0.523484
22.7693 122.106 -5.17823
6.71582 98.6808 7.78997
10.5132 98.4466 5.33089
4.56378 107.024 -12.2595
0.161761 114.361 10.0781
6.03394 97.7952 -10.7186
3.80555 93.2509 8.23181
14.5376 95.6723 -8.70492
3.4749 138.149 3.04187
20.3199 109.377 -6.98929
-7.47652 115.79 10.8631
13.5939 125.678 1.9684
21.8869 93.4617 -5.26968
-13.1337 142.772 6.98872
18.6704 111.611 -9.77653
22.4574 93.2245 -4.00126
-10.5447 118.997 10.7946
-7.59133 107.494 10.5582
18.4936 147.852 -2.11049
15.1562 120.031 3.04867
27.5684 87.5251 6.55262
13.691 136.168 -10.6219
-13.2253 128.264 6.78274
8.80054 118.294 -9.19788
24.0806 99.9292 9.06085
3.16505 86.8007 -9.06128
26.3573 136.004 -0.213407
28.5453 102.179 -0.410077
7.75374 82.602 2.51933
14.897 89.1524 7.91103
6.57463 109.25 -10.3439
4.602 89.6267 7.39665
15.2679 129.083 -4.42424
17.6361 96.8348 8.98787
29.0826 81.6665 3.44666
20.0272 102.831 -8.37989
29.997 97.5986 5.12819
20.6871 86.1037 5.20372
22.6536 107.15 9.57555
6.25159 146.295 3.25939
-6.9874 133.917 -7.92762
3.11248 98.7822 -11.4264
-4.22254 140.943 1.90443
13.6025 86.7265 5.60542
30.3854 97.8151 4.21353
7.79371 129.73 4.78715
23.2581 112.583 -3.68838
25.7692 136.729 -1.90986
14.3984 150.873 1.92136
12.5523 140.163 0.911319
0.105557 153.715 -2.34836
23.7837 94.4849 -3.36543
14.3362 104.51 4.26104
18.5862 87.4868 -5.805
8.99857 108.804 -10.7993
20.0248 128.742 0.147568
6.80239 86.3759 6.14714
31.3395 90.2924 0.926248
9.11589 84.4393 3.15742
10.4388 138.275 -8.82643
10.9889 134.903 -8.68727
10.2154 144.481 -7.98228
13.0502 143.009 1.77195
31.1715 95.8351 0.887046
-12.654 144.189 -3.77552
-11.8837 148.63 3.02991
2.16306 133.147 -3.94282
14.2282 123.9 -10.3175
25.1223 129.872 -0.368077
1.47499 154.181 -1.85219
20.2976 133.476 3.09813
7.25461 126.376 -5.19863
-15.0795 132.587 7.72304
12.5441 130.261 1.39473
12.4063 87.2596 5.54165
27.9691 130.742 -4.00105
4.04322 116.726 8.96756
-2.34498 142.614 -3.48867
26.3373 84.5331 -3.21274
6.17897 79.985 -6.58696
20.7819 105.443 -6.95175
20.1644 127.644 2.31671
15.5944 118.333 -8.00131
10.1248 107.862 -11.0125
-13.6477 144.614 -2.06394
-7.96465 116.183 10.7495
-10.6352 120.988 10.4947
18.2463 143.524 -4.78094
23.6215 118.973 4.23201
16.454 141.878 -5.39918
6.90111 132.024 5.54129
26.638 78.8651 -2.52233
22.8211 122.756 -1.87733
25.8257 128.611 -1.14712
11.8826 93.9987 -9.02751
4.75903 127.137 -4.91939
7.8915 110.09 -10.1114
7.93689 137.879 2.30853
1.5147 135.61 -3.46907
14.8809 135.699 -10.0941
27.0852 109.882 3.58905
17.7985 134.041 -8.75245
24.6366 101.535 8.97635
17.309 92.5821 -7.71458
21.6995 97.2954 8.77243
18.85 82.3482 -4.30097
18.8241 102.974 8.06543
2.80418 87.9289 6.97942
-1.52677 108.421 10.6964
24.0565 136.46 3.14221
30.5418 86.8888 -2.27351
23.7157 111.673 7.19993
-10.7743 138.092 -6.79585
2.33295 114.603 9.93756
16.9071 119.744 -5.08192
15.865 151.213 0.859297
7.35174 115.401 -9.08722
-7.12417 126.91 -8.54902
15.3187 137.886 -9.53264
5.27959 82.7545 2.74652
21.9627 123.045 -2.75331
2.52519 113.977 -10.5478
15.5071 127.755 -8.76197
18.6183 87.8401 -6.11981
22.6076 145.14 -1.63178
16.9042 81.8466 2.86701
14.354 82.0807 -5.63426
8.14621 93.2008 5.97135
16.0439 147.479 3.64343
25.5943 139.92 0.468832
10.5765 89.0363 7.67716
27.6355 100.149 -2.75038
15.434 149.213 2.45187
-3.33079 134.15 3.74584
-2.10785 116.977 -9.9496
-7.97015 132.7 4.73808
10.6 125.669 1.73154
4.23919 130.204 -4.58472
-10.3973 127.871 6.64412
15.6716 128.582 -7.78993
-8.33086 132.498 4.9574
18.2533 126.82 -7.08903
30.4255 85.1564 3.06218
9.89356 139.562 1.71534
7.10791 130.368 -5.57877
10.36 154.098 0.878973
-5.58236 111.257 11.0707
15.6966 119.651 -8.40147
12.337 105.752 3.65025
17.5103 124.656 -8.95467
-6.85697 130.888 -8.46245
-8.39079 125.194 8.18424
-0.457673 101.163 8.86817
11.8103 107.2 3.59288
-3.0651 134.44 3.50915
11.0042 117.578 -8.88388
3.2263 122.921 8.73935
-18.9922 142.315 4.73705
-15.3918 142.479 6.9181
17.5142 127.956 -9.21051
31.7513 87.9962 3.79569
0.157207 116.862 -10.7088
24.3972 136.511 -2.45052
-5.008 143.745 1.7892
26.815 130.73 -2.2658
19.9345 115.613 9.00242
13.6115 152.521 0.0981882
20.001 144.05 4.21432
-5.83999 134.578 -6.67571
2.66765 141.487 -3.85082
11.6445 101.762 4.79226
8.22408 142.596 1.7116
5.61604 126.183 6.01855
24.3427 108.554 -1.63234
-0.0893713 89.4804 7.12253
15.7472 124.338 5.93102
26.6613 106.764 5.77242
-9.53566 144.053 3.32299
4.28003 115.554 8.92384
29.5286 100.555 3.92311
27.0835 105.412 -0.936633
-4.31909 135.63 3.29405
23.2264 106.006 -3.8522
-9.12521 117.797 -10.0143
22.9677 144.063 1.28692
-2.83499 127.566 -6.69368
18.4061 107.345 -9.79198
16.7762 118.568 5.74991
24.5998 141.245 -0.617763
3.02892 152.978 -2.98529
15.6524 128.115 -9.10891
26.2444 80.9342 -3.64566
13.818 124.854 -10.97
2.0042 92.5549 -9.98848
3.09122 135.79 4.04554
18.9614 137.399 -7.61148
30.5724 83.3597 -2.55709
16.1883 121.319 -8.1541
29.4959 97.3459 6.7565
14.9409 129.53 3.29413
-2.33335 150.521 -2.33904
4.49519 93.4925 8.03996
13.8093 98.7589 -9.81294
1.63502 89.892 7.12982
24.0839 104.008 9.1255
-2.2237 132.156 -5.87236
-1.12354 107.399 10.4595
11.0488 139.472 -9.77811
8.3395 92.4189 5.86003
20.5424 97.1115 8.70525
1.08265 128.409 -5.64567
15.6734 121.695 4.47447
21.706 134.186 -7.50956
12.1057 137.952 0.951532
-12.4556 142.248 6.40225
23.9841 131.522 -4.61746
4.46586 130.222 7.06072
13.6381 80.5114 -5.33452
12.236 111.644 -10.3709
10.8489 96.8002 5.26045
27.3175 125.229 -2.58109
2.33875 128.18 -5.22473
19.0995 125.431 -2.74531
4.33869 109.281 -11.8001
30.1427 99.7989 3.07624
4.65771 126.883 -4.97419
13.5449 78.5924 -5.06355
6.70886 133.082 5.96347
5.34053 116.657 -8.51651
26.6672 82.5077 4.00468
25.1556 131.679 1.8772
25.6924 126.538 1.76408
21.1161 122.146 5.60811
26.1515 79.5703 3.02623
24.9673 133.337 -0.0046501
-5.28582 120.824 -8.43683
1.88409 105.713 9.55089
15.066 120.694 3.03876
20.1129 122.912 -12.6343
22.7686 120.344 4.9457
5.02581 109.981 8.72418
17.7607 127.673 -0.263111
17.6686 125.812 -7.13076
11.4468 138.193 0.946013
12.9097 115.043 -9.40808
-11.9188 144.492 -4.689
21.239 140.84 -6.11596
29.2765 89.5145 0.143813
18.9675 140.396 4.34965
-2.82185 128.284 7.43418
12.6373 146.602 -7.23079
21.4132 122.95 -3.30844
25.7622 102.701 8.69735
-15.226 138.134 7.6618
21.0106 123.041 -4.66586
29.0773 83.9811 2.46505
13.5027 78.6876 1.15451
17.7274 135.284 -8.50723
26.9914 81.2603 -3.56536
3.38676 92.5508 8.27526
-9.5386 120.218 10.4401
2.08212 139.961 1.9197
25.2774 82.2623 -3.90962
-13.6386 132.358 7.29469
15.0696 130.596 4.40389
7.1309 127.954 -5.26344
27.6118 108.945 2.65271
29.2662 125.739 -1.81668
-0.189608 117.219 -10.7364
8.36648 82.1216 -7.01265
-9.26894 151.773 0.526978
7.01638 96.1795 -10.9156
-13.259 142.357 7.05665
16.6189 125.351 -5.49861
19.5002 91.1395 8.18569
1.61162 109.039 -11.6882
24.605 85.8052 6.22427
17.3707 128.534 -10.1051
-1.43046 137.601 -3.46563
-12.2887 131.875 -8.24796
-5.57017 141.082 -5.94548
31.6658 86.5582 2.38379
23.2811 113.58 -3.70797
-10.0127 114.193 10.79
7.2285 143.225 2.7719
-7.56122 133.758 4.72769
-11.8321 150.15 0.513222
-15.1017 136.386 -4.63887
23.2118 79.3017 -3.51401
31.8128 84.5245 1.10945
14.4108 139.336 5.0182
25.7207 99.2665 8.68212
26.6306 135.234 -1.73343
21.2411 121.267 7.56165
2.27986 128.263 -5.20523
4.45878 77.2137 -6.09108
1.54099 142.209 -3.285
-4.21974 119.607 -8.60755
3.78469 131.681 -4.59355
16.3743 135.129 -6.45424
-0.932605 109.868 10.3871
1.26207 118.078 -10.2038
11.965 130.482 -10.6412
29.6148 96.6446 4.52336
17.9537 95.6232 9.06104
17.2584 81.2039 2.71603
7.91534 135.222 -6.41453
-12.5901 148.491 3.16236
19.0333 82.8818 -4.416
22.0062 122.915 -2.35583
26.5458 81.2287 -3.69692
15.5598 125.84 -8.30318
-13.9247 136.617 -4.9264
10.217 139.953 -9.04779
33.4079 82.3363 -0.478538
16.6861 101.161 6.32966
-4.87402 102.137 8.48716
8.05065 125.814 3.55772
-14.3652 136.686 -4.87534
21.3746 125.84 -1.23732
8.16648 129.762 4.1406
5.04683 90.8059 -9.69042
6.32238 135.094 4.91056
20.5142 129.358 2.42769
15.5452 129.768 6.59258
-2.40428 153.181 -1.94345
-11.4346 124.235 7.38837
-10.2231 136.659 -7.54577
19.5992 143.601 4.36164
15.82 137.259 -9.42003
10.9123 130.972 1.21642
6.35043 98.9281 -10.7356
-7.63803 146.373 -5.61751
20.9309 124.241 5.89597
5.54305 116.209 7.56735
-6.62485 105.277 9.82936
-7.2597 112.872 -10.5041
1.63501 114.118 -11.1733
14.5404 150.906 1.88507
-2.6358 123.708 -7.82318
7.9742 96.8351 6.7791
19.6817 125.768 5.00766
-10.8234 135.821 -7.83135
15.7341 127.095 -4.53508
-4.3267 110.336 10.9367
7.99889 120.84 3.75134
2.88514 117.232 -8.64938
23.1963 139.686 -4.98833
13.6819 90.4374 8.27682
8.34444 148.553 -6.13395
3.15303 105.363 9.29196
-5.38637 104.094 9.21065
-15.171 130.612 7.20391
19.1594 127.599 -5.88816
-5.09165 148.531 -3.94396
12.2246 87.4315 -7.66134
27.3747 92.355 -2.76502
24.9141 124.708 -5.93397
11.6175 94.1013 -9.07805
18.161 134.373 4.04376
-0.823714 94.6142 8.55715
-14.8637 139.576 -4.12779
22.2541 121.018 6.37609
26.0639 106.48 -1.70792
3.88927 86.0514 -8.8093
11.8302 98.4806 -10.7191
2.11367 153.759 -2.26058
14.8406 124.245 2.51137
18.8648 146.478 3.28631
-12.5826 135.041 7.12062
-4.27329 108.431 10.5396
12.1118 89.7496 8.05653
4.4779 130.975 6.88673
27.7527 125.555 0.510589
7.06821 76.6183 0.637592
-1.60248 95.5178 -11.359
-11.9733 141.018 5.48929
24.5703 105.983 -3.13974
6.73012 118.126 5.68302
4.32873 139.679 2.92278
19.4655 135.282 2.61294
-2.51681 153.922 -1.90848
3.86341 120.729 -7.38564
21.2658 146.379 -2.13988
13.259 103.685 -10.4665
9.65547 149.769 1.10309
7.56634 91.1975 -9.61634
-2.57998 106.938 -12.9978
-6.43923 131.547 -7.81378
21.1548 122.588 -3.0297
31.4649 91.106 4.8983
-0.645184 110.793 -11.9583
0.727728 108.68 10.2099
31.5062 87.7377 4.28859
9.80507 153.587 -0.639608
13.962 81.4944 1.99625
16.6042 132.147 -8.8102
13.4961 134.291 -10.7057
-11.7536 128.216 6.13579
8.95397 126.126 2.50844
-4.14734 118.791 -8.69573
22.5049 114.367 8.07575
-4.977 148.341 -3.91702
16.2078 149.869 -1.18961
28.8733 129.452 -2.30485
6.1108 85.3934 4.91574
4.66657 125.782 6.82806
7.1832 78.0826 0.491293
14.8886 78.5393 1.04469
17.5067 117.698 -6.56289
2.20733 132.255 6.29776
4.49029 120.882 7.75181
23.5156 133.252 -4.8933
33.8155 82.2372 0.0456717
-2.57646 112.065 10.4858
-4.85714 118.272 10.6723
8.67093 85.7018 4.51011
15.3424 130.156 -6.93506
16.1261 90.5993 8.51547
-1.15179 131.238 -6.09441
-2.12459 131.121 -6.3764
-0.0517347 135.103 -3.96662
13.8996 96.5108 -8.87978
2.49301 115.493 9.83673
9.64826 154.447 0.767232
-13.8789 147.54 3.38025
27.5913 87.4416 -1.17236
9.11857 131.037 2.42215
8.91714 113.436 4.33282
23.9673 144.096 -0.271149
5.77117 129.312 5.70013
-14.5318 140.054 7.56305
10.4775 77.7869 0.740314
-12.7333 139.114 -5.80556
13.2938 123.79 -10.2957
0.396196 117.616 -10.5795
-0.802586 147.339 -2.7457
-12.2006 126.589 -7.70491
19.3931 104.999 7.99463
20.0123 100.477 9.08679
26.7329 107.132 -0.408655
33.2115 85.1046 3.08115
5.51203 99.5649 8.26455
20.2003 122.949 -12.9046
17.5061 134.294 4.45263
11.6072 75.8498 0.843822
-7.77728 149.871 1.80815
21.4756 113.355 -6.08793
20.6666 84.4437 4.34938
17.3239 96.9352 8.8913
4.64265 82.8241 3.03206
16.3054 97.7249 -8.49019
15.4992 77.0456 -4.29904
6.31239 113.985 7.12921
-16.2584 139.391 7.60552
22.9092 145.052 -1.25457
18.1868 123.956 -5.45728
-16.8645 134.657 7.89495
-0.672512 131.241 -5.98081
-0.971668 146.367 -2.75074
18.6137 90.038 7.78633
12.3044 89.4371 7.85933
20.8391 125.246 -6.09554
0.518333 129.782 7.56173
28.8306 85.7877 -2.95983
22.3306 126.138 1.23749
22.926 103.31 9.12698
2.00533 153.366 -2.62019
26.3683 84.0038 -3.52304
9.01594 134.725 -6.83883
-8.55036 120.152 10.6179
2.38053 123.397 -7.49949
28.0621 103.845 1.755
25.4116 90.2432 7.83789
20.981 129.429 -0.391388
26.0289 112.977 1.39842
24.1275 116.43 5.56747
19.3548 124.977 -1.87194
9.12159 132.381 1.98016
23.9333 83.9882 -4.00286
27.6197 91.9903 -2.59939
21.6144 134.899 -7.46887
6.22467 119.035 -7.72791
5.91465 119.089 6.46835
-7.08186 136.54 -7.8129
21.3525 123.927 4.54464
9.88987 133.479 -7.96574
19.4601 80.1588 -3.74513
24.8402 133.114 -3.9144
2.30575 142.162 -3.63391
5.31166 96.6811 -10.8066
11.4734 99.2299 4.85172
20.9971 110.121 9.35751
13.9259 121.124 2.55965
16.0974 119.91 -7.4645
14.6012 76.6931 0.345801
7.13652 153.004 -3.21321
6.02482 99.9564 8.22277
13.3551 118.412 -9.30496
24.4138 78.486 1.80524
33.1505 84.9541 3.78946
28.4839 98.205 7.56172
16.7823 99.3093 -8.54957
22.2298 131.409 -7.00942
9.94092 151.09 -3.97026
11.952 80.1329 1.31142
13.8001 100.973 4.66036
9.26509 127.503 2.28328
-10.217 138.138 4.38354
16.1797 82.3486 2.85547
12.9026 106.989 -9.82856
30.7302 85.8765 0.638833
2.17577 139.105 2.49796
-12.8515 147.185 -0.709811
-0.284607 95.7574 8.87518
13.7639 138.014 1.72411
6.45808 97.0043 -10.8294
5.87583 134.229 -5.20203
27.094 108.609 1.48224
3.21698 99.5579 -11.4175
28.0256 88.5288 -1.23491
19.6793 107.819 -8.80331
-14.231 140.829 7.42444
-11.8651 137.629 -6.71737
22.0316 77.8937 -2.95964
-6.25273 132.959 -6.887
0.547043 105.174 -12.7065
18.8632 103.235 8.03675
0.309678 107.49 10.3191
22.4748 120.336 6.17317
-6.542 147.786 -5.0171
7.3075 89.0451 6.72455
23.8436 122.675 -2.05018
31.6074 90.7539 1.07918
17.0793 133.336 4.49595
12.3346 87.0118 5.33442
7.4058 135.151 -6.18321
18.7817 87.6888 -5.76561
-3.98201 121.467 -8.06599
18.182 119.974 -5.1699
26.9155 79.4489 -2.77712
29.6988 97.5347 6.2194
28.5879 103.508 4.12878
-0.907691 131.829 -5.77691
6.8013 138.226 4.08474
8.57981 104.886 5.69585
2.92128 130.095 -4.49527
-11.1453 148.41 -3.37369
20.0533 145.95 3.1464
17.8026 100.199 -8.4916
11.2882 104.488 -10.9739
2.09456 113.156 9.85817
21.6364 120.398 2.78378
22.3288 124.992 -0.0122004
5.98739 133.095 6.27885
19.5999 81.9469 3.33664
-13.759 142.384 7.12889
1.14894 130.345 -5.34288
16.5374 118.908 5.23824
-2.38168 121.349 -8.31811
2.18426 105.932 -12.6558
16.3519 105.615 -10.3054
19.0954 109.631 -9.42086
23.9649 100.198 9.03769
12.1722 102.078 -11.1098
12.718 91.3362 -8.63568
-11.4131 147.168 -3.78547
22.9612 117.106 6.57126
-15.0295 130.56 7.16546
17.8902 125.018 7.36854
18.1616 126.952 -7.18201
11.8573 99.7635 4.69125
22.2397 105.1 -4.85515
16.7436 94.3701 8.77518
9.07185 93.7773 -10.3095
-1.23713 132.891 5.07685
13.648 103.186 4.23971
6.61523 126.046 -5.15357
16.7019 121.969 -6.09572
26.4225 110.777 4.4482
-7.02935 120.869 -8.34766
8.36274 112.973 -10.1215
-7.40679 136.363 -8.05071
7.98491 129.891 -6.30138
16.2827 132.19 -8.53406
6.73352 127.376 -4.94462
11.2922 119.667 2.34086
-0.708965 104.424 -12.9782
22.2459 122.189 -0.108789
24.6825 100.19 9.06918
0.200283 106.453 10.1208
26.2263 93.7737 8.46678
19.0642 85.5216 4.68846
5.90097 130.812 -5.09942
7.1463 125.317 -5.34675
29.8849 91.6895 3.03759
3.67574 136.28 -4.37082
-1.42598 151.897 -2.18393
-12.3166 148.419 3.28022
12.695 121.221 -9.98903
9.5562 95.9469 5.64302
-13.1932 136.229 -5.75164
3.36921 78.3212 0.54952
13.4632 138.018 -10.14
7.36422 95.2407 6.79142
16.9879 127.424 -8.60151
-2.92609 104.387 9.22704
22.2527 124.766 -0.384426
0.823798 88.7647 6.8143
-9.59564 133.764 -9.01309
27.7977 89.4443 -2.01593
19.9023 123.724 -11.3727
27.6721 81.5999 -3.39132
26.9773 79.8063 3.04137
24.2133 91.2397 7.79062
21.3841 121.15 1.21133
20.5838 116.705 9.11022
8.37725 111.777 5.11396
6.12893 79.0618 -6.37807
-3.65368 109.54 -11.973
22.508 102.716 -5.88468
-7.95708 132.452 4.97056
14.6972 131.933 4.50894
20.5814 103.621 8.81608
20.5862 113.334 9.24798
7.50796 80.5833 2.01312
13.7064 139.302 1.84769
2.25908 91.5247 -9.68078
-8.1504 152.863 0.41401
4.07441 118.098 8.71991
1.57779 98.537 9.12658
13.5659 82.8646 -6.20672
15.7007 97.5103 6.98643
10.4306 112.498 3.26166
22.1444 125.964 0.468285
-2.93814 150.3 -2.48798
19.0917 139.02 4.14348
-2.51985 134.514 3.57246
21.5787 105.696 -5.51605
21.8097 129.527 2.36756
-14.6198 137.785 7.44266
15.2936 149.089 -2.18639
22.8512 110.562 -3.3617
2.41554 97.6922 8.92779
-16.8632 134.509 7.86199
-12.5402 143.633 -4.44493
7.62168 102.699 6.87007
27.1814 99.1594 8.31004
28.0155 86.7418 5.85607
18.1598 120.765 -5.56466
0.7357 120.696 9.9913
24.9391 131.657 0.716398
13.478 138.924 -9.23855
9.6202 152.125 1.01871
3.06327 95.3907 8.41863
22.9199 105.584 -4.13707
-9.60834 146.403 3.20515
12.9096 150.122 -3.56308
-4.02596 99.407 8.68436
6.96253 131.583 -5.84066
22.0877 119.115 0.421007
14.787 102.402 -10.5032
17.4149 136.805 -8.24451
-3.32316 139.89 -4.32179
29.4954 91.19 7.02173
-11.1531 132.381 5.83166
22.6289 88.8777 6.87536
8.69856 130.899 3.58456
23.904 86.6001 6.56763
7.81655 100.053 6.81514
21.4738 122.275 6.76732
25.343 86.4322 6.47405
0.271996 133.875 4.47073
20.9532 124.8 5.01814
-1.49483 117.476 -10.1779
4.7289 124.847 -5.54707
23.5969 143.034 -1.97719
16.7623 78.5662 0.96222
21.6052 129.035 -6.44902
8.8303 92.0487 -9.77783
22.597 119.951 6.06421
8.81347 124.435 -7.2877
18.8114 101.575 -8.8551
27.1564 107.848 1.14031
20.9815 131.313 2.17774
8.40746 83.6014 -7.44386
18.804 86.7725 5.42287
15.1722 130.455 -6.21572
6.02829 122.988 -5.84959
14.865 135.161 -10.0351
13.5184 110.275 -10.1008
3.21238 132.911 5.44699
5.26853 154.382 -1.74171
24.4486 102.699 8.96726
10.7584 99.9845 -11.2416
-0.989392 121.995 -9.03034
-5.65996 135.582 3.93564
26.8128 95.4878 8.35206
28.2981 130.332 -2.91487
15.6524 117.155 -9.74693
21.7194 94.1889 -5.59881
27.6276 127.791 -1.34249
3.24403 122.882 8.72719
7.07072 119.923 -6.90994
18.2692 111.232 6.69366
-16.0136 135.493 -3.345
17.5779 126.963 -0.640608
-2.52041 107.315 -12.9622
29.6932 81.1232 3.23535
12.578 105.991 3.67736
6.48097 96.5963 7.70073
23.6496 84.8686 6.00953
25.9314 92.6503 8.45459
20.9711 129.433 0.0470166
19.9672 127.918 2.78324
-5.04586 134.775 -5.90846
16.1298 78.3778 0.973085
25.109 127.973 0.860134
17.3775 131.267 4.63155
19.6998 124.132 -4.19413
31.11 88.6643 5.68404
-4.79572 129.086 -7.56944
-8.38537 134.855 4.5537
8.54484 129.285 3.11225
20.3561 92.8598 -6.45763
21.9003 91.1014 -4.09584
-7.38453 116.587 -9.62056
-9.22177 140.222 -6.77306
0.33561 134.118 4.1733
15.7205 124.98 -8.02142
1.21749 113.817 9.99103
13.633 143.923 3.46482
10.3259 132.642 -8.5711
9.85067 120.396 -8.5585
17.9884 147.586 -2.82397
5.84851 93.8879 7.61009
25.2094 113.56 -0.301903
18.2969 140.266 4.47515
11.8975 142.416 -8.54178
15.4166 131.546 6.25754
22.1365 132.989 3.17945
-15.2737 137.582 -2.47496
5.53686 115.449 -8.49447
-2.21555 99.7109 8.90237
4.87565 152.323 -3.30361
6.81649 149.061 -5.12722
10.2836 81.1029 -6.17618
29.2991 123.685 -1.39707
12.4496 102.578 -10.8437
18.9916 147.289 -2.94061
0.541298 123.38 9.36239
19.3656 129.971 2.00472
16.2623 117.089 4.16898
-12.1982 129.669 6.43195
2.90407 149.935 -3.38432
24.7328 83.7975 -3.44565
21.5099 91.209 7.7854
-18.4332 141.365 6.36422
6.57072 107.932 -11.1997
4.36147 128.809 7.3346
14.348 98.155 -9.30356
9.74374 119.239 2.80621
21.7302 119.144 -2.3693
17.7399 126.731 -1.05885
21.3385 123.287 4.49656
14.6385 147.756 -3.90871
-10.9366 121.455 10.5297
23.5122 96.7792 -4.17872
1.61699 104.298 9.41357
9.59685 79.2841 1.18589
-0.563317 127.619 7.81193
-11.3099 121.875 9.42527
1.82128 141.459 -3.47106
12.6367 76.7917 0.801781
2.04259 97.55 -11.534
3.19542 78.9605 0.875564
9.96256 82.939 -7.05014
3.48289 124.538 8.05951
21.4048 86.3433 5.64557
3.98985 121.774 8.09529
19.1706 122.244 -11.3284
19.8246 118.069 -3.15262
-0.276426 140.25 0.527077
14.3386 110.058 3.56068
1.32972 89.2783 -9.42713
8.31911 131.782 3.91724
22.7622 145.851 0.501172
22.2673 146.628 0.48251
4.40732 152.05 -3.3043
-9.98964 148.294 -4.40943
-0.563406 125.851 8.13494
-0.871774 118.603 10.1099
16.3001 116.252 -10.3023
20.4957 93.5359 -6.35211
17.0886 113.514 5.08628
-0.346402 93.2077 -10.6188
32.4111 86.9389 3.58388
25.4109 81.2929 3.87709
-4.18595 109.593 -11.6804
16.3685 83.3393 -5.48657
18.1742 109.702 -9.62762
10.9807 128.145 1.47755
-1.436 101.028 8.80493
17.6871 126.513 -10.8691
4.51327 118.736 -7.54063
17.4428 135.667 3.88662
19.4358 138.341 3.93656
17.1916 109.665 -9.58222
3.85096 125.181 -5.8105
-13.0485 143.175 -4.00945
-9.74853 152.02 0.103567
3.30539 89.5686 7.6594
9.01747 104.194 5.36268
-10.4735 125.226 -8.65161
-14.7047 140.213 -4.1695
7.62494 84.9881 4.09063
12.0367 86.9423 5.1941
3.84273 140.911 -4.39326
24.1013 134.39 -3.11659
15.2463 84.1012 3.93312
23.445 113.204 -3.36108
17.6298 95.4539 -8.03035
18.799 114.351 -9.07589
21.7083 87.2968 6.22439
-3.46887 138.574 -4.74506
24.9078 133.284 1.28624
29.6266 94.0422 7.09542
18.2563 94.9505 -7.84621
-5.54427 109.403 11.0885
-0.0622499 129.748 -6.21135
30.1178 90.3736 0.132976
22.9229 145.531 -0.678277
15.3316 148.919 -2.48521
28.4773 98.4909 7.49801
20.1178 105.3 -8.34623
-14.5585 141.275 -4.08351
13.4885 120.754 -10.3271
14.96 81.0622 2.08677
16.0926 103.873 5.1733
11.0265 81.6294 1.63927
24.115 118.281 2.93764
29.9558 94.3847 3.09468
5.57351 113.664 7.95224
18.9925 110.303 7.80203
18.4271 123.514 -5.29763
22.6845 79.9694 -3.92019
17.8073 133.831 -9.45613
-11.4459 135.526 -7.64312
20.7996 82.3725 -4.00071
-2.10991 134.992 -4.45831
18.3013 77.3183 0.473805
27.445 83.1757 -3.53393
12.1932 103.208 -10.6283
21.5987 128.054 0.288921
21.5957 117.669 7.88047
13.1886 117.859 -8.87407
11.0707 146.169 1.0156
18.6196 144.874 4.02732
6.78945 84.6844 -7.9547
5.18345 84.1107 -7.85141
21.897 139.169 2.82134
29.8599 98.7257 0.838908
18.2375 113.473 -9.76996
18.8764 128.111 0.22092
16.6443 136.59 3.96038
8.33876 76.594 -5.24519
27.3412 132.252 -3.87013
16.189 115.375 -10.062
5.08027 90.8172 7.17337
22.0101 132.313 -8.81728
10.9238 102.508 -11.4042
32.2571 85.6949 1.24048
-0.153264 113.899 -11.5706
11.5876 152.107 -1.28295
13.0386 147.274 1.76071
-4.33473 126.288 -6.6931
20.9637 127.689 -0.572615
20.9621 106.495 -6.65428
21.3903 79.0226 1.89986
20.7519 109.263 -5.98229
17.045 117.034 -9.36039
31.9759 85.513 -1.0693
4.08467 139.4 2.95544
24.7021 104.43 -3.3186
2.8977 126.735 8.52513
23.7817 124.882 -6.28287
11.4803 153.015 -0.406684
11.3274 78.1349 0.861509
24.6742 93.3965 8.60741
7.80293 154.345 -0.437701
24.4307 126.148 1.42422
27.3009 105.357 0.601378
11.4836 133.397 -9.18076
15.8152 126 5.14088
21.5312 122.579 2.00784
1.84556 132.879 5.50135
6.80309 100.908 7.55011
11.2305 117.61 -8.74293
18.0977 106.851 5.71383
7.33393 140.753 2.53928
11.6036 126.322 1.55192
31.0548 96.3546 1.01735
14.0799 134.507 3.40423
13.4099 105.989 3.84923
21.3612 126.127 3.1328
8.97042 129.326 2.25359
14.2663 140.007 3.89911
20.0793 84.7474 -4.04046
-3.08346 142.721 0.622902
10.063 83.9271 -7.12006
28.7368 86.5014 4.7581
23.575 138.28 -3.16528
20.4392 129.394 0.453582
-3.94324 100.739 8.48863
23.6955 81.2241 4.26732
19.3706 136.545 3.11572
21.6323 102.401 -6.91575
17.9219 93.3719 -7.59463
3.6706 83.296 -7.83873
18.3713 131.813 -4.83051
5.52661 103.459 -11.3819
24.6013 132.442 -3.95213
20.6209 143.464 -4.96325
4.2742 117.09 8.68605
30.9876 97.0747 1.74182
-9.02217 122.136 10.503
8.87731 97.4218 6.35401
20.3615 124.741 -7.15061
-5.32893 129.295 7.30964
9.62338 146.72 -7.23732
23.0347 102.533 -5.51396
18.5853 133.623 3.03727
12.8014 152.595 -0.446511
-12.917 146.118 5.08424
30.7001 88.2737 5.32083
-4.51174 143.925 1.38326
-8.2123 129.871 6.37645
4.53401 93.8982 -10.5196
-14.4893 141.105 -3.76662
6.08526 99.3145 -10.7757
19.0858 125.167 6.09377
18.5196 132.053 -6.23839
17.6803 129.194 -6.88909
5.17405 104.53 -11.6405
24.5269 134.006 2.69744
18.1622 128.757 5.11816
7.49496 136.507 -6.39573
20.5149 124.262 -9.56047
6.33288 111.14 -9.33215
7.38783 119.963 -6.9942
-0.133916 125.594 -7.05225
15.1975 111.653 -10.2183
22.2245 103.742 -5.30861
12.4913 107.798 3.48346
3.99455 89.7277 -9.59038
21.3481 80.8537 3.37411
-8.92392 151.877 -1.23307
26.5738 109.02 4.65944
8.66791 103.186 -11.4072
16.6372 107.072 4.8676
-15.0702 132.143 7.60489
15.8872 127.832 7.40203
-3.71074 145.854 -3.62495
12.0532 126.011 -10.7803
21.2081 135.86 -8.23188
17.3982 112.041 5.3258
-2.84774 139.376 -4.0772
-6.51134 148.109 -4.85885
-2.65115 131.42 -6.22488
-0.407974 89.9861 7.21059
4.11632 123.977 7.38093
21.3944 123.589 -3.30999
5.55274 90.9843 -9.721
-4.26358 113.96 10.6248
12.8226 150.739 1.55391
-5.38796 128.764 -7.74345
21.5356 119.851 0.610467
16.4846 149.56 -1.3768
16.3679 118.657 4.42848
15.7832 121.639 -7.07637
23.7922 105.83 9.29297
2.30296 104.77 9.23018
17.7699 127.839 -0.268364
22.6027 145.155 -1.62211
21.5922 142.469 3.53931
10.8463 138.065 -9.23454
27.753 105.078 4.94577
-9.562 146.928 -5.46968
29.6067 101.004 1.94178
20.2589 126.596 -5.59581
28.7209 127.662 -1.73637
-8.7254 145.036 2.76799
0.202989 107.187 10.2732
25.8105 98.2754 8.16796
14.7062 151.628 0.895748
24.2647 96.5069 8.49353
25.7849 95.0551 8.57278
7.69117 135.007 4.21932
18.1201 125.286 -1.81935
10.2434 101.461 -11.6533
11.4156 92.818 -8.91948
17.7478 89.5425 -6.51
15.8404 111.495 4.02722
7.88718 119.996 3.98437
11.9289 113.761 -10.685
11.0737 105.009 -11.0167
20.5781 133.175 -9.20016
13.2389 130.087 1.6093
-3.76981 128.35 -6.54591
23.5546 82.0584 -4.19271
2.75185 86.6185 5.33903
18.7591 114.715 8.54086
15.6619 87.6006 6.96634
5.48726 136.894 3.63297
24.8379 129.444 3.45801
19.4096 121.288 -8.6337
-5.98321 110.805 -10.9549
17.0733 79.847 1.59615
23.2583 103.431 -4.5387
13.7139 78.1942 -4.9554
17.0289 132.801 -5.62484
15.1375 133.912 -9.6764
16.885 138.082 -8.63085
16.3516 138.218 -8.78323
-10.7777 117.907 10.8697
17.7348 117.651 8.14223
15.7498 85.0394 -5.95433
-2.02623 121.853 10.2297
22.7339 78.9631 2.1938
15.5265 131.142 -9.1249
-12.7153 146.865 -1.51175
3.58728 144.703 -4.15177
21.2551 116.35 -0.427293
32.8846 86.1803 1.99279
33.2284 81.7412 -0.347329
14.1493 127.089 2.18679
32.0254 86.4463 4.01791
19.311 125.021 6.15836
7.96744 137.178 3.12933
-7.38525 134.297 -8.35519
15.1815 126.84 -8.17764
20.8892 112.925 9.30331
26.4967 85.3463 5.58171
17.8744 126.663 -1.11895
21.8664 127.609 0.250007
7.04596 102.403 -11.0984
-7.00248 113.242 -10.2671
16.9604 90.9888 -7.38221
17.7108 102.295 -9.33172
16.356 117.225 4.2491
-14.5854 136.244 -3.2263
19.0087 129.91 4.41226
18.1531 139.906 -6.10236
9.91479 83.5909 2.49608
0.554703 135.805 2.59906
11.4516 124.754 -10.4438
32.5849 85.0041 -0.662415
18.7951 112.733 7.99692
13.332 123.779 -10.2904
14.9484 83.1614 -5.78237
8.31255 154.407 -0.0210025
11.5889 95.2905 -9.6119
1.75608 95.5011 8.87687
-2.2792 92.3958 7.65015
14.4417 102.445 4.69025
-0.889188 138.903 -3.30508
-4.00576 129.595 6.47817
19.6791 114.23 -7.48161
21.9822 129.018 2.6589
-12.3968 146.757 -2.6494
15.6144 122.39 -6.86795
23.3375 91.958 7.67592
16.686 86.2412 5.85944
26.8622 105.956 -1.17806
20.2159 133.407 3.13274
7.5032 115.03 -9.06988
14.9052 123.745 2.73785
22.7428 130.093 3.34703
25.416 123.231 -0.391335
20.3754 144.738 3.67024
2.27287 86.2458 4.84199
1.22942 116.936 10.1393
0.0653483 110.801 -11.7337
8.85903 103.356 5.66565
5.57414 88.0041 7.3264
30.7266 80.0818 -1.77426
21.5546 122.751 -3.58189
9.64966 89.9848 6.55636
16.4327 132.352 -8.66891
1.34328 145.192 -3.24113
1.78108 119.215 -9.60319
-14.0689 136.335 -4.79893
2.2435 114.64 -10.0712
22.0459 83.8037 -4.27362
10.1495 91.4627 -8.82085
22.6695 135.691 3.1856
8.1268 107.734 5.91574
17.3699 130.381 -7.20626
4.52694 113.157 -9.13221
29.9023 89.7341 0.447564
9.11409 90.5642 -9.01275
15.4183 119.289 3.3499
-11.8287 138.916 5.34478
17.5593 130.391 -8.33758
15.4306 110.886 3.88142
17.0018 149.996 1.27103
7.02182 78.7631 -6.12265
21.8006 129.503 2.35464
10.7177 80.9342 -5.99774
-1.83057 98.6513 8.9653
14.5534 134.055 -9.98825
20.9764 112.88 -6.47181
2.29414 98.3874 9.05445
25.054 121.392 -3.71122
21.3573 118.633 8.05023
-11.2835 130.971 6.30993
30.8213 79.9934 -1.67595
15.7988 144.898 -5.12849
30.4861 88.0504 2.25975
21.5358 119.799 -2.77022
27.6474 98.6924 -2.20727
19.1886 130.876 2.80566
31.1594 92.7726 0.960865
18.0545 121.909 -10.5684
4.96594 146.753 -4.59621
-5.09265 105.458 9.80028
2.35084 89.5757 7.27942
16.4307 149.909 -1.16417
29.9618 97.9619 0.471794
12.1094 127.908 1.51052
-1.97565 139.371 -3.64535
3.66057 128.308 7.80622
20.1055 88.3662 -4.56518
-8.37793 142.805 3.05567
22.7267 137.828 -6.27378
19.8472 126.616 4.03563
18.6673 147.958 2.12576
4.42225 130.737 6.99659
23.365 132.96 -6.25303
5.44186 98.0315 8.09576
-10.5849 142.978 -5.33067
28.0848 83.4101 3.36662
-10.4672 138.374 -6.83061
27.7684 128.925 -1.74978
19.8832 122.994 -6.40868
15.3255 99.0769 6.02975
-11.1511 141.771 -5.30391
17.6848 134.713 -8.45447
0.340633 124.364 8.79189
20.9572 129.007 0.276377
14.4866 113.539 -10.7836
8.55004 80.8997 1.94652
28.0335 103.951 2.52816
-4.2968 141.881 1.46055
31.3189 91.564 4.91861
-11.6574 127.518 -8.36877
26.3919 135.905 -1.06245
21.3469 88.4665 6.55801
19.7112 146.743 2.66513
21.4602 129.765 -9.16124
28.4402 80.7094 -2.94284
-0.333234 123.995 -7.77655
-0.835967 122.461 -8.79847
2.20236 153.499 -2.5227
9.48229 113.432 3.90697
9.78892 86.9607 -8.20598
17.4989 124.855 8.16176
13.3025 103.663 4.01913
1.26926 86.7683 5.47621
24.4445 106.542 -2.99766
24.8907 85.095 -2.91612
-4.41122 127.504 8.21377
14.8681 130.028 3.2234
22.6379 131.518 -6.46594
20.2374 121.866 -9.25226
1.73743 123.68 9.31764
21.1462 127.498 -0.22078
27.7443 104.349 0.175621
4.63434 134.343 -4.73338
8.16671 120.433 -7.00759
25.3855 114.617 0.738016
13.9806 135.388 5.44086
15.4663 131.328 -7.14131
6.64951 83.5726 2.78631
26.4813 102.763 7.94091
-4.79367 114.289 -10.1679
-13.3603 133.287 7.24862
-6.7393 127.049 -8.36381
24.4046 100.969 9.00458
0.359203 111.454 10.0841
5.08258 94.2464 7.83292
16.9117 87.4656 -6.51467
29.3206 97.573 -1.48723
14.443 111.535 3.39359
25.9838 128.055 2.84472
18.0122 94.1984 -7.68143
21.4875 96.5312 -5.83263
18.9314 122.843 8.35337
-3.16492 146.527 -3.2066
12.6649 103.119 3.89996
