ply
format ascii 1.0
comment Created by Open3D
element vertex 1913
property double x
property double y
property double z
end_header
-16.2284 115.392 -9.20583
-17.3253 120.627 -4.23008
-8.51896 101.358 0.211206
-15.6301 96.9322 -12.6019
9.58019 130.177 -11.8468
11.601 90.9158 -15.3125
35.0714 99.3334 -14.6581
-11.2342 113.41 1.04828
33.6684 92.4648 -14.5597
-12.4089 106.302 -14.3741
-11.1037 149.011 1.54362
11.6923 129.283 -2.61256
-13.2532 137.368 -1.84926
-16.3717 120.138 -0.658588
-4.73687 116.808 -12.0315
-13.1077 75.5582 -12.1193
14.2804 143.738 -2.94467
16.0974 136.967 -3.76715
29.9527 132.993 -6.02526
6.30296 124.962 -12.5018
-9.7846 149.53 -2.65189
21.57 89.1772 -16.7442
33.5217 103.901 -4.97398
17.1098 151.948 -1.32223
-5.37938 95.6626 0.0873053
-4.12653 131.257 2.21057
3.46763 145.181 -6.98903
-10.8521 128.761 4.70175
7.60489 149.602 -7.43345
-6.33556 76.1325 -17.2945
-12.5324 122.504 2.439
-13.8832 105.619 -6.7197
-13.8798 129.099 -5.02704
-6.51322 153.342 -1.00516
26.0388 88.8875 -6.66394
5.26517 93.3906 -14.851
32.7181 108.688 -7.81418
17.4383 133.366 -11.6022
-11.1479 85.9065 -6.73588
25.7356 80.0191 -14.9879
12.9191 91.6119 -15.9785
3.67941 83.7045 -2.33121
11.5634 151.926 -2.73558
-19.1757 124.438 7.01792
26.4527 138.271 -4.10235
19.1632 132.598 -8.84496
1.06773 102.758 -16.0344
10.6342 125.639 -11.9968
-1.89306 96.7181 1.78254
1.94766 152.576 -3.80154
16.7229 111.48 -5.48833
33.9853 86.105 -8.59422
2.47519 86.5337 -1.09407
-22.5969 121.864 1.20504
10.1832 154.087 -0.163457
-15.9159 114.989 -3.43287
27.1865 114.627 -0.276722
19.3526 144.344 -9.13047
7.38605 83.6218 -16.3147
-16.6963 119.363 -4.59767
29.6916 136.805 -11.1136
10.4044 114.071 -1.41548
2.27682 129.327 1.95638
24.2296 122.292 -11.1513
14.7285 94.8817 -4.80616
21.1026 120.621 -11.8195
-20.8856 119.955 1.79577
15.5211 97.2665 -4.9155
17.4267 80.7415 -14.8985
33.5794 106.739 -7.11727
27.1454 107.046 -15.9284
17.8113 145.94 -5.56112
23.1181 87.0577 -16.4311
1.04756 101.14 -15.7319
29.2311 91.1596 -15.5453
40.7719 87.5193 -14.2747
4.69547 126.614 1.70423
-3.89851 82.5024 -4.0778
10.4178 133.795 1.31181
20.375 88.9724 -16.5333
39.9982 90.2829 -12.8807
19.6343 119.128 -4.41896
-16.6243 110.366 -9.12025
-12.4479 74.5466 -12.5646
-9.05528 145.066 4.08508
-14.5206 121.942 -8.71042
3.62865 136.01 -6.85324
-14.0193 118.95 -7.89478
29.5988 102.522 -17.2818
-7.15447 151.955 0.950353
10.5769 128.284 -12.5409
27.6092 117.258 -11.8241
2.413 95.5865 0.466874
-9.1448 111.961 1.56138
-4.55383 84.4491 -17.371
-12.0237 123.189 5.31835
-16.6398 130.012 -3.47462
-4.02587 80.5608 -18.62
36.4137 94.8523 -7.11492
23.5312 129.472 -6.87916
21.0801 129.88 -7.20885
-2.06834 94.1148 -15.5744
9.68385 145.762 0.454062
14.744 152.087 0.308398
12.0174 132.095 -2.95905
14.7738 145.426 -1.26436
-13.5425 95.0046 -15.1268
-18.2399 116.958 2.82774
-8.8336 99.6373 -15.8422
33.5262 98.7546 -16.057
20.3695 80.9153 -14.9749
8.62763 114.263 1.22033
32.7914 108.972 -6.07504
40.248 87.5919 -11.0929
3.78362 93.8648 -0.118303
0.0848574 74.8677 -6.64549
17.8948 129.545 -10.0056
2.82815 90.8716 -15.927
-7.68504 91.027 -3.45554
2.19283 128.176 -9.017
13.9879 133.551 -4.4584
16.7261 135.026 -11.4027
-16.126 106.643 -9.47526
-6.27973 121.02 4.63754
-11.3999 106.567 -2.49218
-15.0826 117.975 -5.12219
25.2525 146.865 -4.6284
27.2308 118.137 -9.81946
25.0702 129.589 -5.27386
26.3001 106.979 -1.27329
1.37385 139.691 -5.6871
-15.8551 111.367 -11.0462
25.4131 130.366 -6.72262
-5.90924 100.26 -16.2036
18.7227 151.342 -1.80716
18.7704 100.463 -18.3684
8.54244 118.977 0.827227
-13.5544 124.682 -4.96819
-15.0221 129.805 -4.82839
-7.87409 95.8161 -1.09625
8.47565 81.6271 -3.53115
-13.2599 119.113 1.12248
-16.1297 105.16 -9.44853
18.6374 92.9687 -3.93088
23.7858 137.299 -3.36934
24.4688 127.113 -7.95008
-9.14298 93.767 -3.08693
10.5304 127.744 -11.8222
31.7517 109.589 -10.539
-5.87141 73.329 -6.88486
1.11494 140.217 0.856817
-13.4253 75.4612 -13.8721
-4.09066 103.854 -15.4127
-19.973 129.982 4.00041
22.299 107.906 -4.25063
-12.208 114.141 0.307353
-9.04525 124.927 2.14622
19.699 91.1653 -16.8302
15.0469 93.0509 -4.69296
-7.02653 125.108 -10.044
4.48933 99.0721 -0.155303
28.964 114.3 -2.47616
28.3471 99.1283 -3.17606
11.3342 151.805 -4.28264
25.8762 114.146 0.0486538
27.931 109.634 -13.7388
20.8496 81.199 -8.9082
38.4442 85.2055 -9.87041
13.9107 77.9118 -7.18743
-16.2993 111.783 -4.95304
3.92666 124.88 -11.8977
-8.70857 89.6925 -4.48927
-1.22508 124.328 -9.05281
11.5954 103.158 -17.2869
18.2935 127.219 -4.31623
12.208 101.261 -4.84536
-6.42775 82.4549 -18.3562
32.908 93.3549 -14.9649
41.5906 86.656 -12.9373
7.7007 84.4553 -2.95966
39.9643 88.226 -15.0266
29.146 104.484 -16.986
-2.00369 120.801 -9.93662
-11.4098 122.893 3.60731
-8.06965 77.343 -7.55125
-13.8171 116.685 0.920596
13.3157 98.9145 -17.2581
24.5602 132.814 -5.71958
24.3284 117.268 0.137121
26.6458 85.2647 -8.14862
16.5341 83.2662 -7.43047
-19.4491 117.235 1.64176
19.0619 133.409 -0.384799
15.9442 144.762 -0.160059
24.7141 94.5262 -3.07484
-21.6039 124.169 1.30318
16.5578 152.618 -0.715173
15.5022 149.912 -3.18591
-10.2434 95.5806 -16.093
3.08683 152.708 -3.74933
-10.0412 142.882 5.89549
8.4155 122.604 -12.8563
-4.37436 149.367 -3.64281
-12.3778 126.218 -8.87826
28.1683 126.76 -8.43128
19.2605 128.217 -10.1332
-14.6447 100.052 -7.71452
23.7122 125.727 -8.24827
24.1291 128.985 -7.48711
11.0838 131.483 -0.199103
22.3046 125.052 -13.1141
28.6801 95.5735 -3.72118
-15.7589 138.487 6.8987
-9.80471 135.573 5.93799
-11.6156 81.8927 -7.53028
0.82992 123.385 -9.96117
-8.59251 99.7476 -0.0294806
-9.08654 74.9035 -7.76419
25.7914 142.16 -3.27599
-7.89986 95.4249 -1.47597
19.2465 123.762 -13.2306
6.31648 102.624 -16.4656
21.1721 150.473 -2.37698
15.9609 113.19 -5.45264
6.54553 127.41 -10.9909
-13.8658 134.526 7.62276
9.01253 139.363 0.150385
20.7266 97.0984 -3.46718
6.42207 105.064 -17.165
1.66336 82.1564 -2.7335
-16.0774 117.415 -2.72301
-14.2728 133.503 -2.97113
-14.154 76.2895 -14.8333
4.22118 89.9008 -15.6725
35.8192 101.101 -8.51453
2.83895 129.474 -9.14775
-8.76025 109.168 2.18287
6.11765 124.314 2.24911
31.8166 100.346 -3.76938
-7.67201 80.06 -17.5449
25.9661 126.297 -4.94381
-13.1422 81.2761 -9.73854
-0.787285 116.413 -11.9808
-12.9361 86.1728 -14.5832
14.0768 86.705 -3.95771
-1.32533 117.132 -11.5172
18.4629 139.757 -9.03236
34.024 83.443 -9.28826
0.642929 125.528 3.53225
-12.3609 140.186 7.03572
25.7923 128.55 -4.91383
32.5613 109.65 -7.85619
9.26214 152.573 0.940599
24.2573 87.7064 -16.6819
-3.54522 103.726 2.98854
0.0539959 142.548 -4.97725
-12.3903 142.504 0.167544
19.194 128.654 0.127261
35.6176 88.4819 -8.30858
17.9172 146.235 0.253524
27.4532 105.593 -1.21266
23.9989 148.158 -5.16524
-4.89915 93.6371 -1.37514
10.2346 120.841 -2.3444
-4.8397 144.502 -5.56576
-1.59976 88.4337 -17.4528
-16.6114 126.678 5.13918
17.7236 135.021 -12.0293
20.5056 107.295 -19.0845
11.4335 98.4353 -4.48077
-9.95893 84.3566 -17.2343
-19.2719 120.247 2.26562
4.74815 95.1496 -14.6874
-1.6465 132.867 -7.03511
-12.1286 139.231 -2.2109
9.35181 112.82 0.390457
18.8642 133.819 -9.36942
13.9004 146.034 -2.22262
22.3906 137.028 -2.99293
-8.25818 152.242 -0.775037
1.16475 90.9302 0.349947
3.71329 95.6914 0.06104
-12.9196 138.765 -1.09212
-13.5009 123.007 -5.54239
27.4684 109.194 -0.48841
-11.0692 74.9704 -9.86175
-15.8828 119.999 -3.62147
21.9714 126.712 -9.08613
-6.12716 91.7788 -3.27733
24.9991 138.768 -9.93942
-10.0017 113.946 2.37593
8.33788 119.398 1.14216
-15.4317 117.509 -8.30917
19.0157 123.305 -4.46313
-15.0277 119.674 -0.718136
-12.5481 143.052 0.492996
3.36601 87.2742 -16.6403
23.2566 109.385 -18.8381
1.72362 122.89 -11.1416
17.5248 132.733 -10.3582
-2.29137 79.0868 -18.4334
-10.9837 143.863 -4.04007
22.7267 103.6 -3.38423
-5.09873 103.991 3.29819
9.4416 93.5406 -15.0023
-10.506 139.585 -6.04415
-11.539 113.751 0.989116
-9.50457 100.905 -1.21071
10.1968 87.5564 -2.81273
5.63134 134.489 -8.82356
13.9911 119.657 -4.99047
26.4694 113.285 -12.9388
37.4764 85.2657 -13.3694
6.38751 111.649 1.237
7.57484 134.645 -10.575
2.56292 120.393 -13.3788
18.1454 141.477 -7.57934
-2.02223 107.708 2.69653
-13.4365 93.7151 -9.61619
-2.48387 93.8483 0.0251905
9.3737 80.7389 -4.23539
-1.77779 76.9966 -5.09691
-9.84962 137.932 -7.25255
8.94811 142.402 1.75619
21.0009 113.097 -4.44665
-12.655 73.2431 -12.5258
-4.56176 132.979 1.93372
9.03658 121.189 -14.2036
16.3154 135.578 -10.5694
19.7435 132.592 -0.882741
1.40985 76.6945 -4.80163
5.89744 100.455 -0.555556
28.8031 119.328 -6.41983
28.9741 135.372 -7.4463
27.6816 138.187 -7.12285
7.86382 126.001 1.8305
34.9375 103.351 -8.03924
-11.2997 123.222 2.78982
19.7489 94.4824 -3.71172
1.42332 88.3568 -1.20708
20.5518 124.711 -15.277
-12.0788 87.9231 -14.4887
-15.1773 101.129 -8.91106
-7.78479 99.834 -16.0566
-15.4565 117.884 -10.2731
-12.7461 131.955 -4.58487
16.1138 119.462 -15.7547
39.0912 90.9095 -10.6229
6.74788 73.8335 -6.278
27.7966 94.8015 -17.0178
-14.6732 136.002 7.49638
-0.620357 103.428 -15.7003
-11.3449 110.674 -1.79816
29.7166 116.099 -8.91898
27.9837 120.96 -3.72027
30.4067 132.967 -14.1381
-18.2575 118.727 6.12725
-1.31906 143.508 1.23219
-1.2525 82.5725 -17.6352
32.9817 90.9932 -6.4749
-15.4519 112.394 -3.41288
13.5641 153.33 -1.22584
19.0073 126.15 -3.72293
4.64464 140.981 -8.36009
10.7711 90.9655 -3.92548
-7.61401 76.5529 -17.8487
8.32107 118.694 1.39371
19.2181 127.104 -12.4734
-11.8071 118.796 2.20815
9.59423 129.882 -11.5568
22.4661 108.027 -19.3195
6.1284 150.767 -6.44869
13.9814 100.914 -17.8313
0.924073 126.59 -9.01399
16.6896 87.5686 -15.8386
12.964 106.311 -4.98352
-12.5048 117.134 1.91327
-15.2591 140.475 1.2531
25.2462 128.177 -6.68008
-8.79964 108.132 2.30184
9.96898 107.359 -0.802277
-8.45028 147.761 -4.92562
17.022 152.128 -0.566864
10.8117 141.551 0.294568
41.0585 83.8037 -12.0728
31.8083 105.418 -14.191
-8.40856 108.195 2.73233
14.318 149.233 -0.664573
28.3059 120.266 -3.15628
-10.2834 80.2213 -17.2392
-2.92646 151.862 -2.99403
-3.83229 114.695 -12.8677
-14.8528 126.133 -5.17396
-18.881 117.239 4.20256
32.0511 106.884 -3.44324
-12.3374 140.653 -1.43247
-12.5113 140.075 -0.913241
26.7318 84.718 -8.3476
-11.8141 133.44 -5.78392
26.1526 88.8756 -16.143
-1.75843 124.495 -9.01896
2.38745 136.11 0.885544
-16.1736 128.295 5.3725
29.5837 134.696 -12.3726
-0.904582 153.64 -2.65264
24.8096 140.043 -3.16686
-15.449 122.088 -5.55202
-14.381 79.1018 -15.2967
6.92104 151.066 -6.22222
-15.7664 113.829 -3.49715
-17.001 120.035 0.752906
-3.303 99.2904 -15.3324
2.69072 147.218 -6.431
-14.1045 143.956 2.18733
28.5249 102.548 -2.23535
-4.67634 86.5258 -17.5494
28.3097 82.778 -14.7735
17.9371 130.774 -11.7574
34.9022 101.587 -7.09096
24.5227 118.354 -14.278
-7.95306 134.016 5.17753
-8.65276 99.125 -0.160208
33.4274 132.198 -11.6452
-12.8172 95.6626 -15.5849
1.54863 118.745 -13.1671
29.5307 116.317 -3.48074
19.5169 148.149 -5.29967
-4.56652 99.8834 2.31669
-12.6038 76.0038 -10.6131
9.48172 87.3359 -2.39688
-18.2983 118.884 2.751
-19.1736 118.302 -1.56032
-13.2802 136.405 -4.55555
25.7709 118.612 -0.214216
22.2038 126.753 -1.01066
-5.52231 136.483 2.2155
-14.5453 116.87 -0.405107
-8.80558 150.116 -2.76932
7.52481 121.96 -13.1588
6.78031 137.297 -10.1379
-0.162473 76.6874 -18.5803
18.6307 80.9089 -14.9286
14.5181 146.123 -1.23321
25.1468 92.5532 -4.53862
-12.7637 135.751 -2.89845
-14.5581 100.032 -7.46707
20.5621 120.005 -14.9999
25.4358 94.7676 -3.50214
-17.2951 126.49 5.30455
17.942 132.745 -11.3615
14.3847 76.7682 -7.31062
28.4129 127.943 -8.07638
14.101 124.718 -14.2279
-6.12847 146.172 -5.86195
-16.4227 128.407 -5.1408
19.2801 142.271 -0.123102
11.6963 125.175 -13.1175
31.8184 91.6746 -14.2601
7.14488 127.504 -10.8197
-15.6567 114.478 -6.54217
-19.3441 117.532 -0.552011
2.79893 79.1079 -4.11067
-11.0019 78.347 -16.9562
-11.0308 130.454 -7.61282
30.7057 137.065 -12.3425
0.297432 117.308 -12.0379
-14.1789 83.8431 -11.9519
-12.8893 79.1507 -16.4578
0.739099 80.0368 -3.7717
-20.3527 120.711 3.36961
-13.31 99.9512 -14.7231
1.14024 136.642 -5.99337
37.072 95.7239 -8.52931
30.8103 127.247 -12.014
27.9949 130.073 -6.32004
-14.1845 102.522 -6.96013
3.44171 140.948 -7.27292
-7.94533 111.292 4.02835
-1.00552 139.748 -5.53375
18.4782 130.634 -12.0397
0.308158 98.8974 -14.4104
23.8429 108.691 -3.05458
17.0771 104.286 -19.1696
2.10144 107.275 0.669657
-16.9279 131.043 -3.49581
3.95829 135.986 0.518088
-12.9877 122.988 4.53156
-6.96514 138.02 3.13866
-14.1933 121.495 -5.80414
-11.5206 84.298 -7.26549
-5.08738 146.726 1.47849
17.5336 85.7143 -5.8367
-15.4176 119.016 0.804079
0.948417 135.008 -6.33348
21.8353 104.983 -18.5193
12.0335 101.138 -4.85886
4.50133 138.823 -7.94915
27.6147 116.381 -1.25816
21.7887 126.813 -9.81283
-15.5496 119.416 -2.08941
29.9872 100.954 -2.74264
15.9079 138.512 -3.62876
5.11178 138.027 -8.47721
19.0229 135.764 -10.0457
27.3246 137.768 -4.95698
28.0967 102.689 -18.0441
-13.4425 93.9267 -9.5562
-9.67086 85.447 -5.42856
18.6831 124.651 -14.0178
34.0505 99.5448 -15.6966
-1.37715 133.758 -6.82694
0.705163 122.737 -10.1505
13.9568 152.494 0.0374469
24.9243 125.041 -7.97231
13.3671 136.29 -3.80312
-20.2144 119.181 -0.721983
-6.90948 104.918 -15.1523
26.9463 92.9012 -4.90927
-11.6044 130.839 5.76375
-3.21269 127.954 -8.54658
-2.72216 95.7154 -14.9644
-14.454 124.417 -4.58357
-5.3711 147.259 1.50433
17.9254 139.399 0.296808
9.28311 76.0107 -6.14032
-19.1712 126.273 6.45238
-0.43572 120.477 3.6798
-10.4184 83.7774 -6.10977
6.75061 133.059 -9.33745
26.0301 139.818 -3.6003
19.9902 121.28 -13.9496
-13.573 115.91 0.84522
11.8684 123.319 -3.76413
9.41469 111.347 0.281081
30.9433 111.58 -4.42047
-4.17954 131.133 2.26243
37.6246 96.9234 -13.1348
25.3524 124.257 -10.5912
35.6428 102.583 -9.67686
29.2319 108.302 -1.28691
-19.0705 130.65 -1.32665
12.8633 125.065 -4.46656
-17.8138 118.126 -1.85139
1.11143 145.655 -5.53156
-2.04738 139.009 1.63561
-19.3103 132.282 5.67153
8.09761 85.3452 -3.14528
21.1627 98.1096 -18.0326
16.7797 98.4608 -5.00821
-15.9953 110.312 -5.08677
10.6825 107.364 -1.56537
18.6122 130.067 -11.748
-3.41388 150.459 -2.90088
28.1505 80.7065 -9.08772
5.33351 106.591 0.230125
-7.64012 115.623 5.03681
6.05172 78.4293 -16.9969
3.93802 142.464 1.64425
-14.6799 119.833 1.10189
34.5157 88.8773 -14.3707
0.393252 147.348 -4.97541
-12.963 95.8775 -8.36001
-14.7516 118.764 -4.14317
-1.28805 100.991 -14.7752
17.8852 131.371 -11.3618
31.4598 94.1185 -15.0516
-2.82654 139.191 1.34233
6.15729 78.6801 -4.07235
31.9832 104.746 -14.8985
24.3102 125.386 -8.88638
7.79561 99.9105 -15.6081
-3.17477 153.016 -2.66851
23.4849 140.049 -2.7686
-15.7522 118.831 -0.838419
23.1751 110.475 -3.04341
-4.35273 129.236 -8.75513
17.7097 76.7525 -7.66692
9.26051 80.7673 -4.17487
-18.1951 129.154 -3.38164
-16.2667 119.252 -1.24052
-5.94114 118.833 -11.6055
-0.45221 73.4629 -7.20377
5.87572 81.868 -2.99157
8.50677 97.1923 -2.76121
-11.4759 126.515 -9.49905
-16.0342 119.246 -4.24852
10.2284 151.044 -6.95529
9.31083 86.5998 -14.8696
-14.5997 120.476 -3.36119
30.5826 115.621 -7.73513
26.4055 95.657 -3.26283
-9.29655 108.875 -14.2063
-18.7601 130.919 -1.88886
14.9898 88.4189 -15.7514
-13.514 131.753 -4.25871
17.7079 146.727 -4.86541
7.01251 77.2551 -4.77516
-7.13587 97.9639 -16.2383
10.4382 145.466 0.7284
-17.5892 136.477 2.7101
3.13601 132.092 1.00499
-9.81557 116.762 4.25284
3.78827 125.175 1.32319
22.2801 127.935 -10.3033
-6.2235 104.249 3.11597
12.7433 105.191 -4.55172
-19.9614 119.368 -0.335132
-7.69758 99.9488 0.938629
27.9734 139.521 -7.95956
10.7175 81.2871 -4.84642
-17.2076 124.074 5.72146
20.9585 100.795 -4.09587
-15.3898 117.554 -7.82099
-4.55764 128.895 2.96117
4.60218 138.894 0.286146
2.63129 93.7538 -14.6704
-8.01901 131.472 4.11201
-5.38379 78.6706 -5.50001
16.1951 120.367 -15.3762
13.8621 149.732 -0.471788
-12.5358 141.881 -1.44404
10.4806 76.3453 -6.59813
19.5241 127.125 -2.54676
-0.195011 99.118 -14.5672
19.5728 111.767 -4.94352
17.5813 83.4488 -15.2369
-15.5681 117.18 -4.52728
-18.6056 119.165 4.11491
17.1478 104.716 -19.1672
10.6842 78.4201 -15.7857
20.0071 91.3512 -2.84337
6.38457 140.517 1.20543
-13.972 90.8842 -11.4714
-10.2992 117.183 3.76438
-1.0533 115.462 3.7234
-12.435 138.568 -5.04873
-7.31798 151.004 -2.97123
-0.153318 118.941 -11.1353
17.3968 131.908 -12.8927
14.7467 97.7352 -4.95445
27.6513 101.556 -2.06184
-14.6687 120.39 -1.04529
23.8528 117.868 0.0802402
27.4425 112.555 -0.15319
2.46845 96.5944 0.529792
15.1255 124.859 -4.93086
32.1039 107.808 -12.2905
-11.2035 93.3457 -5.18904
-5.26316 138.276 1.55328
11.7911 87.8636 -3.71708
-6.40119 95.2715 -16.0946
13.6561 93.8081 -16.6912
22.181 94.4308 -17.4447
16.3855 110.261 -17.9568
-15.1564 115.833 -5.3779
12.7637 80.791 -5.95285
9.66044 134.75 0.803971
4.37106 79.019 -3.79602
-14.7332 124.857 5.5242
26.1226 83.702 -8.91452
-14.1581 122.766 -9.36789
25.7822 112.622 -0.0439286
-2.37733 88.0197 -17.308
18.4876 150.604 -3.528
2.87142 131.642 -8.58004
32.2654 108.854 -8.78519
23.3421 139.71 -10.6109
12.2576 149.592 -7.28224
10.6362 134.14 -0.926939
-11.0758 80.1615 -7.72105
-1.19576 143.799 -4.72158
7.34442 132.715 -9.62521
12.5246 152.705 -1.52578
-16.54 127.507 5.1957
18.0051 97.5966 -17.9532
27.2948 117.835 -1.55794
17.4056 134.265 -8.58431
-6.44921 94.4129 -1.63475
-10.2859 141.863 6.52347
-16.907 119.015 -2.58705
-1.72759 138.549 1.72183
28.2259 139.323 -11.2746
-10.6966 98.8403 -4.33221
-10.9382 110.152 -1.73345
21.2949 140.977 -11.6021
-15.3808 123.379 4.8154
24.1417 87.5886 -16.6419
2.50366 128.199 2.07569
-19.0913 129.34 -1.01694
21.2858 150.364 -3.63819
6.69942 90.7026 -14.7851
41.3692 87.6643 -13.4477
4.26963 137.148 0.355253
6.47146 123.38 2.25485
20.5496 125.398 -12.4091
-14.6166 95.2137 -10.4071
27.267 121.136 -6.89414
-8.94109 86.2393 -5.23108
3.91629 141.615 -7.66256
-12.608 137.969 -2.91354
8.6277 77.5824 -17.0148
1.4646 97.586 -14.4474
-14.1552 135.987 7.54944
9.31241 100.666 -16.1325
-7.16475 126.509 3.08732
-11.8473 100.344 -15.306
-14.3411 125.416 5.87719
-10.1453 107.815 -0.146813
-10.1523 77.1278 -17.8548
29.1693 128.684 -8.72964
30.67 92.398 -14.8938
-0.100524 109.424 1.72693
-16.0294 120.488 -0.109586
-15.5964 98.2912 -11.9862
2.85316 94.9129 -14.5892
-0.884707 143.255 -4.85356
20.8029 130.375 -7.0379
-11.5192 145.181 -1.31568
14.9825 82.3043 -6.97016
19.4516 94.7626 -17.6021
19.526 127.395 -2.54997
-6.34408 77.5932 -6.60963
26.6497 140.97 -4.30605
-8.50455 90.529 -4.06739
28.5498 136.233 -7.48304
-11.7833 86.157 -7.37608
17.0666 77.295 -7.7067
24.463 84.0429 -15.8938
28.5073 140.409 -10.2094
16.6903 133.866 -9.54082
26.1339 137.795 -10.2254
-15.8111 137.588 7.08331
-7.85282 102.688 1.06726
3.7368 79.8357 -3.71272
9.6742 93.9559 -15.0646
24.6998 131.611 -7.46483
-4.6142 117.616 -11.7751
-9.58999 145.862 4.12068
10.776 153.408 -0.768423
23.1571 130.441 -3.57031
14.6628 101.033 -4.85259
25.1336 127.842 -7.67644
22.679 108.53 -19.2542
4.41209 95.3816 -0.246981
36.1019 94.4223 -15.8553
20.7375 132.469 -9.03034
20.2977 133.814 -8.28853
-3.8014 115.563 3.93064
38.1345 86.4028 -13.1014
-16.2985 119.262 -0.892205
25.7892 91.3607 -5.63506
14.4545 104.023 -18.9251
22.0873 126.651 -7.91349
9.83841 140.433 0.550695
17.8759 94.1872 -17.4766
4.06245 99.6709 -0.202401
-11.8606 116.149 2.59974
24.6175 115.426 0.0730686
4.46267 90.5859 -15.4512
-12.7824 119.382 1.6161
10.1127 118.873 -2.10103
-9.39338 95.5729 -16.4151
22.8602 86.5961 -16.3305
7.8576 114.208 1.67264
-8.41884 75.6408 -16.4527
2.83399 85.4443 -1.22521
4.70855 144.849 -7.93011
-0.16547 103.328 1.05289
34.7482 92.0824 -14.6266
29.2145 108.545 -1.26765
-16.732 110.77 -8.84337
8.22017 81.775 -3.38238
17.83 142.667 -6.7036
3.81162 131.173 1.55115
-19.6626 117.927 0.186204
12.9831 93.2379 -16.3522
-10.3228 80.7984 -7.01695
-12.7956 88.3116 -14.5049
12.4845 88.7915 -15.3745
-14.6025 118.335 -4.90049
24.3049 98.8318 -2.14365
24.9666 147.47 -4.72262
13.2429 129.219 -4.2446
-12.6485 93.7736 -6.98913
16.1887 149.248 -2.59927
18.627 77.9751 -8.16966
29.5447 131.408 -6.44412
-5.84455 146.892 -5.52827
-4.06516 148.632 -3.72946
-1.21927 140.032 1.56144
-14.2868 108.614 -12.5835
1.14846 83.8971 -2.2863
22.5826 109.947 -4.00607
-7.5844 109 3.65788
-5.68517 128.331 -9.09771
-13.43 145.106 2.47962
-16.9566 139.308 4.13469
13.2214 137.879 -3.83096
9.403 103.374 -16.6755
31.6621 131.412 -9.94589
-14.9572 119.744 -2.93675
-19.2522 133.532 5.51485
-13.9555 127.233 -3.43601
7.50128 100.93 -15.7098
-11.3975 96.8657 -5.60262
14.4751 96.8789 -4.90784
-14.4802 143.68 3.66054
3.38497 145.946 -6.86425
18.2145 128.81 -9.45856
31.0527 97.2103 -4.05779
25.2833 115.584 -14.6504
-14.2618 126.457 5.78609
-17.3885 119.889 2.74052
31.9711 112.836 -6.37515
3.18732 79.5318 -3.9106
-5.38092 123.316 4.87966
-9.04024 85.9244 -5.3018
22.4133 111.433 -3.91263
29.7249 129.304 -9.93208
10.4777 84.7951 -4.62092
-9.36332 140.06 -7.09588
-14.1251 102.946 -6.11735
17.5437 125.303 -4.8507
-19.0408 132.006 -1.01417
34.097 97.764 -4.73814
-10.421 79.3394 -7.60455
5.06402 142.84 0.898503
5.84766 76.6093 -4.62934
-0.299591 90.8003 -0.275891
16.5182 126.145 -4.92683
19.8104 135.733 -0.990709
6.40225 85.134 -16.1693
-11.2486 131.99 -6.39692
32.5381 109.614 -7.92583
2.23841 136.952 0.882238
15.2558 151.992 -1.22106
-9.11213 93.2178 -16.8111
38.245 86.2125 -11.8916
-3.62963 135.072 -7.27694
-13.2202 116.663 1.39734
13.7703 129.893 -4.47325
27.2514 135.351 -5.24909
22.6187 143.71 -9.56083
-12.084 94.2169 -5.53458
8.5009 81.79 -3.51647
11.8934 132.913 -2.78551
18.7123 106.914 -5.10668
-9.2713 144.297 4.34337
-2.05123 99.7035 -14.8996
27.8763 113.762 -1.26447
-14.8929 120.824 -5.36042
1.11425 125.896 -9.49067
10.8091 126.503 -1.17364
-12.5095 120.047 2.39492
-10.5905 77.3791 -17.4748
-3.91577 101.552 -15.3366
22.0684 87.7019 -16.6434
-2.91222 89.3243 -3.05946
-8.14813 125.421 2.55559
-13.8261 74.1506 -14.4709
-2.72846 124.877 3.4709
-7.7141 122.613 2.78012
-13.3794 125.8 5.94489
7.61727 108.147 0.288783
26.5248 130.325 -5.08735
27.6788 95.6281 -3.58916
22.9741 117.709 -16.0472
17.6299 98.8648 -5.04756
1.16187 75.1709 -6.27248
16.7334 145.457 -5.0614
0.820844 84.289 -2.38034
-14.7899 119.307 -6.78843
10.778 115.549 -15.866
-12.6497 135.888 -5.17037
4.37819 85.6548 -1.1299
-7.7749 89.7408 -16.3744
-16.5114 112.669 -7.92564
17.9247 139.772 -8.60891
34.5376 97.4925 -16.2062
21.9603 129.636 -6.46638
7.26412 89.9243 -2.38484
11.6778 128.855 -2.49479
-5.39856 76.8289 -18.3143
-7.57785 80.5581 -17.4864
12.8363 153.031 -1.3998
17.01 131.466 -8.54544
11.0453 152.528 0.601685
-14.3404 122.848 -8.33448
-14.6569 99.8011 -7.76088
-11.2397 77.7039 -8.35185
4.45938 126.597 -11.52
1.56169 83.7606 -2.36582
-18.1273 134.276 3.16707
28.6434 105.474 -16.8113
-3.21017 130.283 -8.12192
31.9078 81.5724 -9.19274
32.7144 100.921 -15.9199
1.70189 95.5276 0.615673
-6.98155 149.257 1.82221
-5.50219 85.9847 -17.7683
-19.0422 115.427 0.708288
10.2535 98.4119 -16.1227
7.41312 110.342 0.913768
-13.6034 121.575 -10.3113
35.0286 93.3898 -6.28403
-0.276304 73.7168 -7.07998
-12.3644 80.938 -8.39822
-5.02035 114.117 4.75311
21.1124 102.362 -18.3457
-1.60469 124.452 3.68876
9.88342 134.301 1.05683
20.8818 128.056 -6.94077
-14.5244 117.678 -7.09069
34.9776 94.0125 -6.00304
25.3112 111.81 -15.3418
-14.9418 137.533 7.20421
-4.45718 130.308 -8.75685
-15.7049 124.024 4.85311
5.79902 135.271 0.527201
12.3669 133.699 -3.47936
38.0299 86.5523 -14.0387
25.2074 127.488 -6.47364
38.6207 87.4635 -12.4051
17.6528 143.04 -6.60639
1.47609 116.487 -14.2191
12.4179 119.556 -4.2748
-19.4831 131.105 4.94007
16.2302 142.83 -0.482396
-19.7206 117.423 0.854045
1.45383 137.461 1.05011
20.2156 102.86 -4.65104
-7.19439 125.589 -10.1727
28.7618 88.6599 -6.24156
-19.5158 130.992 5.28009
23.7215 143.904 -8.3187
36.0677 101.544 -10.0142
9.97511 117.887 -1.76123
12.9344 146.683 -2.077
23.0884 90.2884 -4.37606
-13.0418 129.832 -6.96683
-12.3327 134.427 -5.00633
-15.1467 119.623 -3.38309
-8.30201 92.469 -17.0888
24.1211 125.127 -9.96147
15.1073 145.833 -6.40787
22.9272 82.3286 -8.81109
2.14966 126.135 1.79943
28.3846 112.356 -1.27543
-0.229317 93.5175 0.902926
-15.444 128.863 -4.80567
13.2986 104.14 -18.3872
17.5843 140.678 -9.78584
24.9374 106.47 -18.2944
0.159015 74.9288 -6.6412
23.1933 127.711 -9.29036
26.4252 136.087 -4.83017
30.9933 133.965 -11.074
3.68319 106.695 0.436822
23.5728 147.23 -6.4737
41.0228 86.5424 -13.4196
21.9153 127.075 -7.51083
30.7954 83.4318 -13.6947
25.4173 141.175 -8.18941
6.27471 113.051 1.70392
-16.2357 122.801 -5.73345
-0.838778 112.615 -13.6335
-11.2441 121.789 -11.0005
13.6667 96.5992 -4.9035
6.9255 77.2761 -4.74146
-4.2191 125.558 -9.53512
31.5762 110.288 -5.3091
-21.687 120.932 5.87363
-21.8094 123.232 0.0872128
-2.43403 135.675 -6.68676
-6.47226 131.469 -9.51649
31.3187 106.927 -2.80843
-9.296 115.213 3.81313
-0.839289 144.797 -4.50788
23.6827 121.62 -11.4862
17.6781 89.9034 -16.4575
-14.6618 133.27 7.62926
-12.379 97.5229 -15.5388
-16.4206 138.492 5.93104
-6.20041 153.023 -1.38594
30.4103 110.175 -12.0924
-12.3913 74.8133 -13.1317
28.7239 92.7018 -5.04001
-14.4811 121.416 2.55602
9.97416 137.465 0.148134
-15.7278 116.857 -7.77107
-18.3757 116.828 5.37695
19.3034 123.241 -13.78
-9.49466 144.546 4.45849
36.1244 99.3451 -12.8824
27.8913 114.206 -1.31303
-19.1569 130.304 6.58404
22.0084 98.7082 -18.1184
17.6176 87.0855 -16.0143
15.8057 143.801 -6.61937
8.5417 124.512 -12.0477
14.536 93.037 -16.814
-11.9988 135.597 -5.28197
25.1989 102.715 -18.6139
27.5975 121.745 -4.12756
24.3106 109.778 -2.1578
-6.7761 109.235 -14.5015
35.3032 91.6251 -14.5588
12.2695 128.155 -3.92416
1.51518 99.0532 0.450652
-14.4399 118.086 -8.42935
-15.3315 124.825 5.19079
27.9472 106.283 -1.03401
25.9784 103.903 -18.705
20.4666 86.3987 -5.9645
-13.0779 82.2199 -9.92556
1.56045 88.0894 -1.34132
-10.9233 134.91 -6.90512
11.7764 100.322 -4.75711
20.1412 133.057 -7.01467
30.2077 138.27 -12.1212
18.6665 142.424 0.0495884
16.4821 87.6962 -4.68639
21.0209 115.694 -4.22174
-10.4584 121.013 3.7599
7.82318 94.7824 -2.74134
21.2395 146.497 -0.173498
-7.11366 117.515 4.92475
-4.70148 86.4649 -4.33464
19.3263 104.746 -19.0609
5.2096 126.726 1.89815
13.3382 124.871 -14.1228
-17.8805 126.91 -5.23534
21.2614 124.318 -13.8984
11.2712 128.171 -1.47874
11.1748 151.276 -6.30964
-14.6062 143.062 2.14473
3.97435 85.5839 -0.835686
14.0593 86.8349 -3.79836
11.9085 109.692 -3.7964
-14.5082 141.903 5.99236
24.0964 79.5236 -10.0676
23.2572 137.709 -3.26085
4.03496 86.6383 -0.783306
-16.2506 109.307 -10.0095
0.650279 130.635 -7.57333
-17.7123 121.156 2.36303
33.4051 88.5247 -7.48888
5.45467 150.197 -6.60054
24.1919 146.168 -2.60643
-18.5806 129.463 -2.45541
28.2492 138.547 -9.56706
-16.2112 109.594 -6.62875
-16.1433 113.739 -8.15525
-4.96698 146.879 1.39511
-8.54912 92.1047 -3.34999
26.5831 114.523 -13.1815
11.5124 88.4868 -3.84258
13.2301 93.2803 -16.4512
-8.92787 95.0117 -2.26868
-6.01559 99.9115 -16.2617
-12.2978 99.1942 -15.3691
18.2948 143.957 -0.151847
24.0993 87.5119 -16.6173
-12.356 107.74 -4.11035
-11.7597 104.096 -2.32498
22.3143 117.082 -17.0374
29.373 134.799 -6.15427
19.9189 121.901 -3.31825
21.9606 117.179 -2.42797
-10.6732 81.7626 -16.8538
4.68257 127.027 1.81592
20.3389 111.701 -18.2461
-14.5645 116.532 -4.55543
3.31231 108.691 0.931309
3.52702 90.5337 -15.7753
-7.88997 105.016 2.3546
5.82127 129.674 2.53635
-22.8036 122.041 1.50846
-14.1985 102.558 -7.02762
-15.1118 118.742 -0.0629202
24.2178 126.733 -1.70103
10.1428 96.6552 -15.7785
-13.6062 86.7015 -10.7774
24.3809 91.0565 -17.3072
-12.2939 84.396 -16.2052
21.1922 125.896 -11.2516
-0.30136 124.943 -8.91763
-13.0481 121.908 4.38908
19.2067 130.598 -11.398
31.7461 104.144 -15.6134
-17.6937 133.105 -2.16613
-13.3249 124.779 -7.83784
1.07551 120.812 -11.4486
22.9542 148.134 -5.8688
9.59461 103.879 -1.54699
23.3124 89.674 -17.0587
25.4329 96.9306 -18.1713
-11.5634 105.451 -14.3418
-7.5833 134.194 4.83735
27.0495 115.903 -12.8746
1.57508 87.6162 -16.8774
-11.9071 96.1953 -6.62617
19.7713 86.5301 -16.446
0.883209 113.055 -14.8996
-8.16681 91.1511 -3.45979
-13.5734 134.555 -4.25246
27.9195 91.9267 -16.2221
38.1219 95.4325 -11.1555
3.97729 144.294 -7.39304
38.5467 82.5118 -10.5113
25.1499 123.925 -0.329439
25.2175 141.487 -3.14262
-13.8498 126.944 5.84962
19.6475 100.222 -4.6993
25.6476 101.767 -18.5064
-13.9032 74.0732 -13.8802
-13.5976 91.947 -11.1786
15.1779 142.306 -2.53007
-18.6668 117.34 5.88748
-3.42552 91.3297 -1.91246
-20.7897 119.729 1.85246
-11.999 83.5908 -7.90578
-7.74698 97.6849 -16.2387
31.457 84.2064 -13.4975
-10.7238 104.515 -0.351368
22.7062 113.922 -3.10605
24.6802 132.05 -6.60463
31.6412 130.105 -8.89835
35.2083 102.161 -12.854
13.4876 103.843 -18.3591
22.8744 88.6163 -5.34401
-8.2985 149.329 -3.80997
21.5016 129.706 -10.8535
17.8753 125.181 -13.1514
31.26 102.035 -2.77946
7.1232 139.465 0.532531
11.9159 108.993 -3.68429
7.94693 82.9033 -3.05398
14.9098 130.276 -4.66933
-10.9951 143.797 -4.06605
12.3053 95.5465 -16.2393
17.1724 99.5547 -18.2871
17.2747 130.921 -12.2584
-3.30549 90.2495 -17.6104
-8.61071 98.1826 -0.340846
-16.0466 112.495 -4.24425
-14.3715 119.463 -3.9517
37.6591 95.5067 -10.0223
-3.56997 146.654 -4.1689
31.3386 85.5666 -7.90678
-12.7318 140.951 -0.298656
-17.8452 136.4 5.68111
30.9738 100.216 -16.0707
-2.01486 151.148 -3.44146
25.7903 128.889 -6.64539
10.1873 108.506 -0.844561
23.9697 86.6303 -7.11801
-17.1706 136.953 6.17983
-13.0243 76.9664 -10.5506
6.08128 134.964 0.56462
-13.8417 120.592 -10.7765
18.397 124.856 -13.7686
-15.3905 117.092 -6.90785
28.1882 84.9024 -14.8592
24.4112 124.625 -10.7091
19.0686 132.256 -8.62854
-15.5456 93.4469 -13.3722
22.9113 137.886 -11.848
-14.1934 93.1306 -11.2754
10.1709 151.194 0.385873
18.2926 104.639 -5.26517
-18.1708 117.434 1.74717
31.9496 109.182 -10.5092
28.1799 80.1443 -9.43725
-7.86862 96.5798 -16.5943
21.4055 150.411 -3.2341
16.2189 94.9406 -4.73085
-14.0972 109.068 -3.89362
-15.2694 120.868 -6.44124
-13.7482 108.698 -3.92025
-5.04411 105.468 3.66787
-15.1034 99.6456 -8.83363
34.2247 92.2649 -6.43127
-18.3838 123.025 -3.35863
0.53502 113.528 -14.2073
-7.11877 94.6802 -1.77713
4.53729 96.7774 -14.5813
-15.6044 97.3276 -11.7095
26.0019 123.544 -8.58893
23.1031 100.773 -2.21996
9.41073 139.369 0.20535
7.29754 97.576 -15.0352
-20.6424 119.177 -0.349235
16.6312 81.517 -14.9829
-2.60592 82.9063 -17.501
19.3282 118.777 -4.51464
16.4304 136.706 -1.80696
37.749 96.5622 -12.9058
17.5558 141.286 -9.18356
-10.8231 89.1799 -14.9058
9.55734 126.683 0.192586
25.7375 98.8061 -18.2686
8.26394 129.184 -10.2817
2.91104 87.2486 -0.746416
23.7226 110.623 -18.1224
-6.7724 147.113 -5.44799
-0.981963 75.5601 -5.91909
6.08429 89.206 -1.04141
1.38251 149.881 -5.24789
29.9276 79.607 -9.06454
29.5485 118.972 -6.38537
13.2372 125.11 -13.769
0.854147 143.243 -5.43789
-10.8265 81.8716 -6.84992
8.87753 94.1972 -3.12335
20.4336 131.508 -5.63264
21.0886 127.475 -7.46965
17.7086 99.5724 -5.09342
-19.3762 118.457 5.41441
-5.42084 104.378 -15.2792
24.4599 80.4647 -9.88579
26.0125 137.529 -10.5181
21.8798 108.473 -4.38102
21.2167 82.605 -15.4734
-12.9969 127.136 -7.63527
-14.2268 75.1391 -13.6669
18.5987 133.788 -0.397861
26.2557 133.691 -4.42404
-17.3666 133.055 7.25034
3.49566 139.401 0.382044
24.0167 112.322 -1.50942
1.25447 74.2777 -6.47695
21.4651 83.7437 -15.6604
10.6063 93.096 -15.2121
18.6526 132.731 -10.2708
33.5328 90.6254 -6.79972
7.31462 129.892 2.20017
15.0428 105.416 -5.64465
-5.28682 78.1712 -18.8947
4.5985 133.891 0.810417
11.1377 109.241 -2.1879
10.2197 150.141 -7.40621
6.36595 91.7936 -14.6139
29.9407 112.742 -3.05143
21.8326 84.5811 -15.8204
22.2216 82.005 -8.83368
-15.4992 126.049 5.24234
7.43201 119.58 -13.9947
16.1911 115.765 -5.31037
8.77636 118.266 0.473023
23.8748 86.4562 -7.14931
7.14989 153.912 -1.55247
-12.6041 138.741 -1.59758
25.8465 123.157 -2.41067
-6.95487 129.958 3.63309
-14.9077 130.332 5.66762
11.1509 126.025 -12.2342
18.136 118.347 -4.95796
-12.2598 102.271 -3.3407
2.86255 127.479 -9.67954
-7.67846 151.855 0.761948
30.0285 104.02 -16.7361
36.4994 97.379 -14.228
0.36393 77.2648 -18.3911
26.0984 142.324 -3.33215
8.24632 109.171 0.452894
-0.687072 134.066 1.58616
32.5412 131.967 -10.8001
-1.64903 99.5744 2.18406
35.5313 97.1741 -6.69142
-6.14396 151.721 -2.9851
7.33806 82.5807 -16.5074
2.88164 82.6018 -17.1958
-13.2372 123.762 -8.22448
-5.87146 84.8693 -17.786
-6.41405 130.318 3.48051
-15.3182 134.984 -2.10598
5.61492 126.739 2.03564
23.6608 112.656 -2.04174
-17.598 132.201 7.29684
-13.8495 138.164 -0.612316
7.20455 122.669 -13.1384
30.3594 102.991 -17.0632
-16.9091 134.541 0.68079
-13.5512 103.805 -13.7903
-2.2485 74.7175 -5.77631
22.9611 130.769 -7.17638
9.24496 134.998 0.590796
-0.0752991 89.3204 -1.50619
13.5476 135.083 -3.46301
26.6205 108.909 -14.9441
34.6716 88.6474 -14.4533
-14.3075 98.294 -8.0108
-7.98397 137.144 3.80806
5.61013 74.6213 -5.43135
24.9934 129.991 -5.36255
-7.28074 126.818 2.9834
21.8817 113.229 -4.01981
23.0074 111.149 -3.20901
-12.2016 128.278 -8.409
30.9262 115.068 -5.4837
-3.31487 144.471 1.33115
-14.8172 120.047 -6.68642
-14.0888 107.015 -6.09631
-11.1743 90.5751 -5.91831
1.00907 89.6497 -0.364014
-5.61864 76.842 -18.3607
14.6844 142.524 -2.982
2.77327 147.95 -6.42239
11.3339 134.241 -2.13261
-16.1636 119.082 -3.23935
-13.5442 84.6141 -11.0026
-9.65261 101.097 -1.51417
18.0089 130.677 -7.59394
-8.39801 107.339 2.80183
-1.35942 90.5097 -1.36233
-10.516 145.897 -3.88988
-10.7624 141.2 6.73788
14.6769 123.459 -4.87092
17.2431 128.358 -4.54819
27.4989 94.1122 -4.41643
-0.215641 89.537 -16.8526
13.9764 106.029 -5.51257
21.0603 86.6293 -16.4784
-11.0534 147.736 -0.721737
-11.6914 124.913 4.77485
-2.16684 143.249 -4.81647
23.8356 133.766 -4.9144
9.30457 104.004 -1.49453
-15.7538 112.101 -11.0233
-12.8227 129.249 5.09966
16.6084 101.125 -18.5007
20.5823 127.617 -7.48333
-7.11009 77.3263 -7.25937
25.669 141.662 -3.28065
10.136 97.7919 -3.94123
35.0969 89.5579 -14.5169
29.1424 119.134 -6.48251
-12.829 146.188 2.54708
21.8653 132.921 -3.04864
19.6731 124.223 -3.06944
4.08351 127.347 1.89313
-13.2085 124.508 6.03263
-14.9597 119.418 1.20013
10.1055 113.529 -16.0514
-3.75805 131.682 1.80855
14.1948 105.338 -5.53646
-14.8895 119.475 -10.0627
32.8002 94.8761 -4.97862
-1.43069 96.8815 1.91126
23.9243 136.002 -12.7754
-9.55983 81.3607 -6.45847
-12.5537 128.192 -8.33293
-13.4692 95.5193 -9.21608
-12.862 141.064 -0.189718
18.5897 143.77 -7.16104
-9.80127 83.8076 -5.697
11.6647 145.608 -2.13137
3.74383 79.5279 -3.76611
1.62319 135.671 1.13764
17.9231 133.321 -1.91357
20.0727 119.271 -4.28635
9.2897 146.08 0.371385
29.3493 100.138 -16.5123
35.9536 97.8973 -14.1121
25.1721 111.603 -15.8342
5.83 123.603 -13.2212
32.488 90.6376 -13.8228
20.5062 130.54 -5.96888
11.1675 77.992 -15.8368
-10.4962 148.991 2.22603
-16.5652 135.984 1.06241
9.15835 131.049 -11.2793
39.4334 88.1025 -15.5959
14.4376 106.972 -5.6058
23.6937 131.418 -4.4338
-14.5266 120.218 -6.44201
-12.0761 74.9223 -16.4704
17.7384 150.004 0.53068
16.5213 87.6494 -4.7612
3.80729 74.4465 -5.77693
3.07569 75.7556 -5.31043
-1.52168 138.057 1.77534
31.0256 112.208 -4.72773
-14.437 122.718 -8.33487
-14.0687 122.429 4.56273
-13.3813 84.5602 -15.5336
-1.01383 146.974 -4.27793
9.53066 122.671 -0.409279
-5.59735 116.799 5.76009
8.05591 74.079 -6.15476
23.7328 88.1213 -16.7666
-19.9301 118.333 3.62421
-11.3866 97.1741 -15.5344
20.8837 100.104 -3.97158
22.6029 96.8556 -2.08949
9.63759 110.854 0.00575345
-9.1231 116.275 4.46082
13.0192 149.863 -0.459845
6.61595 136.802 0.136977
18.0563 101.535 -5.20925
15.7836 137.452 -3.91184
23.7473 97.0277 -17.9084
-13.5294 143.539 5.45081
-15.6852 119.525 -4.02262
19.0484 123.898 -14.4069
-14.2807 121.622 1.5332
18.5738 133.649 -0.266997
-16.6167 121.037 3.14669
-3.55146 77.2985 -19.2693
32.7844 130.937 -11.4354
28.7019 115.857 -10.7767
-16.9676 120.529 2.71516
-20.4445 118.963 2.07337
-6.40196 143.058 -6.78265
0.544305 129.2 1.61563
-9.61001 85.6813 -16.3558
-5.52821 148.907 -4.54526
-0.183683 76.9731 -4.96532
21.5137 86.3967 -16.3764
-20.5878 125.441 2.18051
21.7715 146.25 -7.23973
19.7342 126.106 -1.14663
-2.64281 121.734 4.80022
-10.0973 149.003 2.62005
33.1934 107.063 -11.1233
10.4061 88.8704 -14.7726
28.2187 116.736 -11.1441
25.3615 132.599 -14.0702
16.9954 151.05 -2.94874
2.862 74.5148 -6.14546
-11.6716 141.169 -4.47835
9.8716 92.5116 -15.1448
20.5034 91.4934 -2.82131
8.18581 89.722 -2.7472
1.09241 92.3812 -15.6003
-6.39066 94.1091 -1.87264
17.0311 76.6977 -7.52613
5.01368 140.357 0.852546
-18.7081 128.647 -2.10513
20.215 121.7 -2.68729
21.6884 103.307 -18.3353
28.5876 116.556 -2.27643
18.9314 100.595 -4.92934
-0.749792 132.06 1.9168
-17.9914 134.694 3.2213
20.8991 106.255 -18.8256
24.8978 128.643 -6.15119
18.242 130.692 -11.9127
-15.1359 132.078 -3.80686
0.660589 148.717 -5.0957
-13.521 144.264 1.48806
-14.4719 102.448 -12.5463
17.8008 132.198 -10.7349
21.2884 129.003 -5.9802
8.46539 96.6341 -2.91779
30.9589 101.862 -16.2853
17.4572 101.077 -5.25916
16.1949 140.181 -2.07097
19.2616 142.88 -9.45603
20.7023 140.396 -0.76459
-7.15179 83.7001 -5.02358
23.6435 126.834 -8.19868
1.99266 137.38 0.904353
21.9552 96.5919 -17.7565
-20.6432 125.577 6.51794
26.2246 133.858 -13.8556
-15.9278 101.278 -10.4027
8.63893 140.644 1.03205
29.1845 113.707 -2.60565
-1.9855 79.0579 -18.3167
5.83779 128.123 2.38359
-21.5862 121.916 5.95439
22.6939 114.83 -17.8127
4.04443 76.2747 -4.61679
12.1423 75.8064 -6.84475
30.659 102.135 -16.5566
-0.163256 104.735 -16.4852
33.5491 87.3337 -7.98508
-16.9079 120.137 3.48441
23.4874 141.517 -2.51612
-11.5551 127.551 -9.21777
22.0351 104.514 -3.97477
10.7207 144.209 0.178192
33.7482 106.354 -10.322
5.36231 123.952 -12.9618
15.0411 146.082 -6.48195
-7.77001 147.776 2.45823
31.6748 109.276 -4.84442
-18.4583 127.535 -4.50785
-4.09333 94.5033 -0.0623015
2.1621 88.7966 -0.479032
24.2145 132.451 -6.20269
24.5717 114.566 -0.292358
-18.3931 133.151 1.37263
-15.9169 106.963 -7.448
28.1573 80.9165 -8.94656
12.4424 141.62 -2.02846
34.1689 104.966 -7.45377
24.8743 89.8604 -5.92836
-15.7188 116.398 -2.13888
4.7948 94.519 -14.728
4.41324 89.9784 -0.455811
32.3036 103.417 -4.13277
-14.2786 77.2363 -15.8529
-10.2384 90.4821 -15.4938
-20.4611 128.04 6.43865
-9.50684 83.5462 -17.2821
12.9162 106.809 -5.03468
10.9994 119.915 -3.22429
-6.3794 121.805 -10.2329
13.6601 82.226 -14.8882
1.07163 84.1794 -17.0486
19.3021 108.288 -5.06947
-0.0077968 100.383 -15.239
7.62234 94.4417 -2.6027
17.6648 128.239 -13.1287
16.4135 123.611 -4.93316
-8.61778 135.216 5.6461
13.8381 82.4371 -14.928
25.8037 111.008 -0.48762
-14.5863 79.2756 -13.3312
-21.0863 116.978 5.4248
25.309 112.215 -14.8779
-8.69908 119.51 -11.9052
28.3257 113.716 -11.1166
-13.1007 77.7638 -10.187
6.9679 153.951 -1.66882
29.4107 99.9536 -16.4297
26.4844 141.787 -8.12869
13.541 137.611 -3.94874
21.3794 102.789 -4.22146
-10.1692 113.496 1.80202
-12.054 137.347 -5.69977
-6.79133 85.8618 -17.7366
25.6396 120.235 -9.37636
-14.5607 122.209 4.16546
24.9105 126.086 -1.6263
11.2146 125.497 -2.38365
-12.7158 97.5089 -6.65194
26.0481 105.151 -18.5871
-6.56423 79.8394 -5.84195
-15.8355 119.874 2.59822
14.5212 147.387 -6.90063
26.1914 99.4974 -2.23128
-2.08416 128.234 -8.17654
20.1325 112.914 -4.76919
0.364362 125.793 3.39981
1.02893 100.087 -15.0456
1.21732 101.202 -15.7585
17.8396 129.787 -10.3737
23.559 86.6866 -16.3537
-14.1343 113.266 -1.59045
34.4658 130.564 -11.5578
-16.7185 133.595 -2.21859
29.9104 107.535 -13.7443
-10.0685 126.18 -9.88126
-5.25072 96.936 -15.7284
19.135 128.375 -10.9545
18.6232 91.2229 -16.8348
5.47471 96.954 -0.306645
-20.891 120.62 2.02829
18.2756 97.3227 -17.963
-4.06598 116.076 4.18592
-4.09848 142.398 1.53572
-11.8292 144.161 0.112604
-2.9411 104.004 -15.7334
23.5523 110.335 -2.53424
32.1554 87.0789 -13.6477
1.55174 143.823 -5.9955
2.4188 153.702 -2.56241
-15.0495 118.787 -0.428478
-21.5231 123.708 3.91711
25.1235 84.3334 -15.6937
6.03969 126.546 -11.4682
-7.41268 140.781 3.22758
36.7323 96.628 -8.70491
13.6829 98.511 -4.92818
-9.23142 96.656 -16.0862
1.78998 90.2119 0.160224
29.7543 133.708 -14.0775
-20.2686 128.896 6.44784
16.5181 140.134 -1.07393
36.7031 91.8826 -15.0823
-12.5333 136.397 7.16656
38.0844 93.0738 -15.7886
-15.9491 116.104 -9.00723
-14.7071 119.88 -1.18149
24.245 129.672 -4.98444
-13.743 123.437 -5.69277
10.6071 149.201 -7.96867
23.4419 127.304 -7.21687
19.4187 127.703 -2.71526
24.5346 127.812 -2.83303
-5.41372 124.279 4.33771
-10.0355 95.4143 -2.6495
0.537272 92.0905 -15.8755
-11.6215 144.997 -0.29324
-5.40505 125.249 -9.90033
14.8527 99.3939 -4.8916
13.4299 98.6458 -17.2992
22.8636 140.95 -2.43598
6.43461 78.3249 -4.28757
16.5427 100.836 -18.4693
-1.85582 86.5293 -17.5239
19.762 130.335 -0.0336011
-7.36165 149.199 -4.27538
22.9791 123.741 -11.8303
40.7744 86.6864 -11.9061
11.0463 151.013 -6.75515
9.6666 149.294 -7.77113
5.25531 125.339 -12.2938
34.3663 93.985 -5.706
11.5959 151.921 -2.68256
-5.8339 114.588 -13.3901
23.75 98.1781 -2.00784
10.3409 145.181 -1.681
34.0428 99.4837 -4.7809
-12.6884 121.934 2.26301
-14.6987 126.819 5.58335
-7.77331 92.3168 -17.0491
-13.2124 123.595 4.78288
33.1464 92.3718 -14.4523
-15.2981 118.558 -5.92941
15.8287 82.8018 -7.40116
7.86463 93.8216 -14.8133
-7.47985 126.09 2.97536
11.572 153.118 0.432907
-20.4945 125.535 2.40965
27.6976 135.329 -5.48397
35.4842 98.8752 -7.60655
23.6325 107.255 -3.20934
21.9111 90.7931 -16.8349
-12.9828 141.542 0.0637522
11.3776 124.498 -12.4151
1.09894 110.927 1.4939
6.69017 127.66 -10.8535
14.5963 87.6 -3.61097
0.227091 112.885 -14.1976
6.15807 97.6222 -0.503397
-12.9461 92.4343 -7.96894
25.0393 107.907 -17.3961
-5.39909 113.562 -13.8361
14.7657 103.346 -18.7632
-15.3744 117.758 -3.23955
-15.027 119.616 -3.26666
39.6289 91.6667 -13.6341
-17.2745 137.62 5.42079
37.4765 91.9938 -8.13711
-11.5495 136.068 6.82477
18.6808 141.544 -9.16105
25.8515 87.5131 -16.3005
24.4733 130.328 -7.36531
0.19031 134.794 1.48261
29.4202 137.119 -10.1581
16.8301 142.695 0.295778
21.4778 148.193 -0.889554
17.0342 133.754 -12.1243
19.6454 128.102 -1.48689
-5.49081 131.888 3.00386
17.2403 139.444 0.106798
2.23909 122.411 3.26146
5.52033 92.0544 -14.6608
27.1533 135.189 -13.7718
15.0888 146.249 -6.16145
-2.40303 153.79 -2.43276
26.0234 112.528 -13.2723
17.4605 96.0701 -17.7058
3.02264 132.239 -8.28782
1.37076 103.593 -16.3438
-13.2465 96.497 -7.98653
-0.750225 76.7192 -5.32075
-3.9826 113.107 4.12261
-4.37286 132.907 2.0717
30.5554 116.447 -6.70242
12.4182 115.574 -4.59549
-16.1038 119.187 -3.92273
8.59506 89.1705 -14.6702
23.9175 99.9896 -1.80108
14.4724 144.779 -9.50467
-9.05893 119.875 4.82974
-15.8704 100.482 -12.4023
-2.11249 99.6052 -14.9274
34.0628 81.7807 -9.73065
17.3887 147.437 0.54011
15.569 76.927 -7.42618
27.8599 98.2644 -3.25092
4.80171 123.699 -13.0369
16.5166 142.678 0.0471703
29.1434 84.7044 -7.56859
26.0052 85.6473 -15.7995
-9.49715 118.662 4.31597
-14.7943 136.049 -2.03243
-14.86 88.8953 -13.545
10.8189 139.914 -1.22974
-15.3689 95.1101 -12.7528
20.2195 127.84 -13.8767
6.91051 97.8398 -14.9986
28.8406 136.75 -6.36395
5.2684 148.435 -7.37937
23.4387 100.065 -18.175
-17.0427 137.383 6.02199
6.91325 136.645 0.108963
3.91216 101.574 -0.408108
27.8097 113.947 -11.7309
1.5337 148.896 -5.60367
-6.43017 105.475 -15.3774
21.9396 128.396 -10.5765
-8.67384 108.706 2.34511
-9.92312 98.064 -2.94707
30.2994 133.454 -14.4323
18.1007 90.929 -2.87369
9.73882 82.7479 -4.16298
26.2508 124.843 -8.16095
13.6261 148.782 -6.56856
25.2944 118.418 -11.476
5.83633 102.883 -0.610332
17.5129 134.505 -2.74424
24.554 102.105 -18.5703
22.3338 101.649 -3.00691
-9.22843 148.699 3.05265
21.9016 99.8525 -3.13626
16.0296 139.167 -3.06339
1.22039 96.4841 0.753623
-12.0865 102.65 -2.98426
6.96378 131.092 2.11224
25.2491 144.137 -2.68795
25.2583 130.74 -6.79183
23.2688 144.341 -8.54969
33.689 105.995 -11.5642
35.9692 93.8203 -6.576
13.5185 138.097 -3.87947
13.9806 103.104 -5.49551
12.2052 85.4924 -3.90611
13.9429 88.733 -15.605
-20.3996 128.767 3.73171
-6.7782 79.7275 -17.8362
-2.16083 99.4943 -14.9491
18.0089 128.625 -4.15773
36.7828 98.7064 -10.6863
27.2613 114.929 -12.5581
32.8206 109.113 -7.19586
-9.47118 72.6931 -9.63457
1.52868 117.361 -13.9404
20.8722 113.736 -4.50311
-0.87708 85.1753 -17.4899
18.3616 124.576 -12.9414
3.59958 75.2336 -5.51855
22.1043 90.8958 -16.8732
21.7881 126.268 0.024077
19.8291 138.287 -1.48275
22.0707 124.766 -11.9034
8.15822 92.022 -14.8443
-6.30542 141.569 2.1084
27.2597 103.044 -2.06586
-17.8414 134.352 1.76225
15.3956 91.225 -4.17345
-19.4489 119.057 -1.55009
-11.0404 141.958 6.54889
25.1396 100.076 -18.3903
28.167 96.1948 -3.29226
6.5088 108.908 0.560911
-14.4344 106.765 -12.0888
4.85279 96.2737 -14.645
-9.30962 150.199 -2.36055
-10.3294 92.6092 -4.7476
1.71012 131.565 1.15839
3.1164 105.331 0.155448
-6.43937 99.6194 1.33551
0.361387 119.982 -11.1638
-14.3858 119.564 -10.9471
-7.57639 110.205 3.97893
-16.6061 120.241 -4.15998
20.1087 122.565 -2.69113
34.8928 98.1178 -15.3841
31.5688 131.326 -8.18709
18.9373 130.946 -10.8696
-14.409 119.758 -6.14928
21.3843 120.371 -1.11012
5.97756 73.6074 -6.10567
21.8887 128.488 -6.25553
28.4836 129.479 -15.393
30.5666 137.588 -12.4593
-15.9086 118.592 -3.65789
18.7363 151.339 -1.78359
-8.77595 93.3961 -16.9662
27.4379 88.074 -6.71978
-15.8779 116.388 -8.66426
-11.4555 127.919 -8.9944
-1.01214 116.723 -11.7702
-18.7313 128.171 5.84189
16.7507 141.168 -10.3268
38.1442 94.305 -12.8996
-15.0635 120.348 -6.40712
-11.4838 138.96 -5.48765
15.352 150.565 -0.166255
-15.6025 118.809 -4.56326
-12.6095 140.941 -3.02621
13.661 108.075 -5.24098
3.77282 109.001 0.919829
-19.9194 126.785 0.388723
-0.540987 133.678 1.63848
36.1941 97.7946 -8.22696
25.5668 112.987 -13.8679
-15.7341 109.465 -11.3047
10.2313 99.6606 -16.201
-16.1112 118.957 -3.55051
4.97054 127.483 -11.2851
31.3468 85.6169 -13.7301
33.3979 106.87 -10.7397
-15.3918 118.315 -10.681
-16.1028 136.645 7.15122
20.6183 131.369 -5.76914
14.9004 106.84 -5.66032
15.0964 141.393 -3.27027
16.8039 104.201 -19.1758
-16.0755 136.154 0.719318
-12.5215 136.398 -5.30112
-18.5553 135.51 4.94757
-14.4226 95.5853 -9.9997
-1.44354 77.1755 -18.8951
-17.166 121.894 -4.36127
5.27446 74.3678 -5.4382
12.0669 94.5962 -4.44039
-0.94674 101.357 -14.9748
22.2381 129.986 -2.71442
25.3029 108.802 -16.4852
-1.92481 126.11 3.23865
2.59173 84.3517 -16.8174
28.6804 138.972 -11.3918
-18.1624 115.611 0.0692979
-2.87306 96.0608 -14.9748
-5.79827 83.5665 -17.7434
9.04012 122.131 0.321183
28.5304 140.091 -8.96149
22.1653 126.566 -0.755577
-9.34283 92.223 -3.79751
16.9993 131.717 -8.56963
3.28081 120.245 2.73596
29.0536 126.073 -9.57687
-11.1247 81.3535 -16.804
9.53807 124.728 -11.8918
2.33302 97.5664 -14.436
-20.178 121.495 6.8656
-10.5893 125.263 2.6823
1.19988 81.4372 -17.515
-4.90924 145.35 -5.33383
-11.1791 142.663 -4.57649
-9.17743 98.6146 -1.04432
-15.8134 119.756 -6.67417
8.80916 115.805 -15.304
4.3924 152.164 -4.84382
25.5923 88.5141 -6.90672
-6.05872 105.738 3.51003
14.3953 122.392 -4.89781
-15.0392 87.0644 -14.2961
-12.9147 92.4598 -15.036
4.03376 124.537 -12.2625
16.4553 150.576 -0.284601
0.382077 80.3961 -3.57314
-16.5922 135.105 7.16502
-2.99749 141.529 1.67442
-11.6596 126.376 5.25072
9.79377 118.934 -1.60378
-8.68292 83.7881 -5.40356
19.9952 93.9449 -17.4178
19.1452 132.454 -0.12851
-12.4766 138.242 -2.58947
25.882 145.179 -4.10802
24.2792 124.548 -11.2149
2.74027 85.5497 -16.7046
6.49038 125.883 -11.8496
-10.7195 118.423 3.11123
-0.933481 95.1264 1.42407
31.4887 82.8698 -13.0319
17.3316 123.68 -4.8707
18.03 87.2191 -16.0666
17.4698 151.534 0.0716566
24.8486 84.777 -8.6155
-17.6407 125.877 5.35945
9.70312 121.015 -1.54053
30.0121 100.814 -2.86059
-16.1929 119.794 1.31085
-2.27269 101.023 -15.0093
33.0232 107.82 -7.84297
24.2952 139.675 -9.89372
-14.5284 120.888 1.66718
14.1044 148.237 -6.49773
-13.7619 132.153 -3.04453
-15.967 113.437 -3.93305
24.4345 91.7367 -4.5385
26.2978 137.312 -10.7061
-10.1517 95.4919 -16.1592
-15.5642 122.659 5.28546
-17.8129 136.762 5.43866
34.0243 105.281 -8.75676
-15.0186 132.274 6.59826
18.4195 137.191 -11.9009
-21.7452 119.825 5.39345
3.28595 84.1325 -2.15656
-0.555668 123.101 -9.33799
-2.42939 89.6126 -17.5514
-13.6835 102.465 -5.39094
19.339 128.488 -12.5827
-13.9724 132.275 -3.85236
16.7768 142.722 0.294679
-14.3046 120.802 -5.0911
23.6486 121.691 -11.508
8.03272 79.0946 -16.2901
-12.7844 74.5998 -11.4177
-1.38957 122.577 4.6582
3.85372 74.418 -5.7617
-7.9602 140.486 3.72114
