ply
format ascii 1.0
comment Created by Open3D
element vertex 1605
property double x
property double y
property double z
end_header
7.06405 85.9447 8.85348
-18.2653 116.697 -4.91577
-10.8674 90.8275 -11.8054
-0.769584 82.7286 -10.9714
-16.3313 102.449 3.96574
-11.5383 74.7397 -10.3509
20.6624 105.862 10.132
-16.6701 95.8804 -9.73105
26.5983 98.5277 -1.56588
18.1434 95.2547 11.5789
11.6968 90.2726 11.2803
19.1165 106.161 8.64452
22.1452 96.7114 10.5173
11.3295 90.2195 -9.61089
-17.4639 110.282 0.116427
13.6291 106.4 6.17639
8.1513 115.699 8.33026
-24.2584 118.739 2.7432
10.6976 89.6052 -9.70801
10.261 110.542 6.24713
-20.7834 84.8341 -6.34617
19.1481 100.838 -8.28625
15.8917 81.1809 -6.0013
19.5458 81.312 -4.61079
-20.461 92.5793 -6.19932
-1.96348 79.0982 5.72011
-13.9205 106.2 -11.6465
26.6518 92.8492 9.93995
22.0483 91.8576 -3.80165
20.1662 97.1428 -6.30325
-19.8598 99.5182 -0.975388
-12.6673 107.436 10.2566
9.03676 115.545 6.78565
0.902289 78.0763 4.90631
7.58529 96.9969 -11.9264
29.5693 88.501 1.83099
30.467 83.9849 2.91889
3.97118 95.3731 11.6243
-11.8291 117.02 10.6014
-18.143 88.6021 -7.4677
7.21447 112.822 -10.649
17.3518 98.0092 10.988
15.9214 106.001 6.86529
-5.02759 94.3807 10.1449
27.9845 102.163 4.61478
-14.626 81.304 5.0164
-5.5661 110.054 -11.7203
18.54 95.3486 11.6084
-16.3882 119.334 -1.72097
19.5305 97.1764 -6.79362
-0.740763 93.9418 11.6485
-0.777973 97.2327 12.1141
0.47742 117.14 12.7095
-18.6238 104.254 -5.93454
18.3487 111.401 7.85019
-8.733 111.364 -11.2606
21.7307 97.5443 10.6653
-16.2467 107.499 2.43187
5.40499 76.4374 -7.67239
-3.25032 79.3673 -10.9389
12.7434 109.361 5.5031
11.0769 108.783 6.07857
-19.1412 94.2813 -0.634353
3.78444 81.3915 -9.74797
25.9018 94.7855 -2.12184
11.0472 84.5752 -8.18166
-11.9076 113.902 -11.08
19.9181 97.4179 10.9353
27.5693 102.645 6.99496
14.5806 106.169 -10.5274
22.9012 79.0446 -3.16796
-8.88337 83.4764 -11.4063
-14.2761 117.861 1.40483
8.79201 84.3298 -8.72193
28.9242 89.1574 1.22425
22.5865 79.5872 7.27243
-13.1335 100.776 8.54199
14.5869 109.214 5.86965
-12.1608 114.094 -11.1596
2.67249 80.4654 5.744
-13.0472 109.904 9.68041
10.8665 91.438 -9.93866
-7.83062 108.881 12.4231
-11.9159 80.7014 -10.8892
-3.90496 111.532 -11.8984
22.6713 83.1652 -3.32425
10.1494 104.796 7.65372
10.2161 103.242 7.87281
11.5313 89.6005 11.0476
-9.51525 116.973 11.6844
19.6921 109.452 -5.71744
4.14913 116.337 12.2392
19.3004 102.358 10.6155
3.18627 115.086 12.6294
5.68179 107.53 -11.8372
15.7446 96.2447 10.4599
13.5584 76.7816 4.22934
7.38227 114.109 -10.2909
27.0308 101.196 7.8845
-7.63086 106.113 11.6453
29.6364 85.2963 2.87795
-0.248321 95.4015 12.006
-15.6417 119.726 -2.51175
-9.63249 116.648 11.6581
1.08519 102.536 11.9699
19.019 101.717 -8.04607
18.9272 103.23 -7.7409
4.42529 108.237 12.3339
-12.647 85.5654 5.41395
-13.2133 120.035 -1.55935
-19.5101 119.716 -1.49063
-5.85297 108.564 -12.0009
1.67598 111.353 -11.9671
3.59543 87.083 -11.0664
7.01407 110.1 10.7187
-18.6914 85.8205 -7.24834
26.4777 95.8773 9.80058
-13.436 84.9689 -10.6309
-15.4429 114.81 -1.16817
-16.3398 118.896 6.46437
-16.1172 82.0632 4.29778
8.69539 76.4827 4.67619
-0.82914 79.5306 5.52405
-8.17973 106.635 -12.4012
-15.897 107.726 2.11127
28.7252 91.088 0.325643
30.9822 83.0754 1.2631
-13.1735 80.3156 -10.7501
-13.6232 84.5392 -10.4887
-22.4718 78.151 -3.4616
-15.3671 119.386 -4.51435
-18.7597 82.7915 1.3501
8.42588 115.599 7.98839
-24.6557 122.434 3.42787
-4.82188 80.0248 -11.2498
9.97167 113.871 -11.3007
18.3067 110.334 7.73824
28.9316 94.5951 0.828569
9.86705 78.0133 4.46246
-18.7979 120.392 7.34045
-14.1989 118.898 -9.43532
4.63144 92.9847 -11.6893
-18.0169 110.943 -0.608146
5.79065 87.8753 -10.4962
2.22119 78.2111 -9.0909
29.0611 95.8355 2.78986
-14.7672 81.7864 4.91616
25.8635 96.889 -1.83446
12.9536 109.201 -10.2532
21.9906 96.6587 -4.62934
20.0476 91.4989 10.7434
-22.6832 122.902 6.57329
-10.9243 103.276 10.51
-9.0541 117.038 11.717
-14.9098 76.155 -10.2784
1.92799 75.1009 -9.05408
-16.8057 84.3363 -9.57445
9.40141 89.8541 10.3928
-1.85748 83.3273 -11.2362
12.0406 88.1353 9.53726
-10.0715 117.46 11.6781
-16.6216 120.047 -5.89323
-10.3895 105.241 10.8174
-8.90376 76.1204 -10.4693
-0.558862 87.3355 9.5811
-7.64635 103.065 -12.7102
8.77724 109.59 8.49476
-18.6603 100.313 -7.90339
-7.45863 116.169 -9.73706
-9.14611 89.3084 -11.6941
-8.33912 100.958 10.5201
7.86898 80.3625 5.64074
-10.7767 117.86 11.3055
3.93615 103.915 12.1005
13.9914 102.572 7.15029
-12.7561 111.309 5.85482
28.9412 96.1375 1.01697
12.8815 81.6763 -6.78644
20.8047 95.9342 11.2385
-13.5658 114.264 4.2813
-21.2082 89.1985 -5.18601
16.5921 91.6097 11.5699
17.105 110.92 6.66746
24.1833 93.7202 -3.05399
22.9987 81.5841 8.47005
-5.44247 112.51 -11.0517
-6.21626 99.079 -12.6212
12.5049 93.0916 -9.48413
-13.1794 120.04 -0.887764
-12.1514 106.2 10.4788
-21.5612 90.9903 -4.60225
9.4659 108.6 -11.0683
17.9957 102.189 9.58362
-14.4533 119.042 -1.74096
13.2171 99.9961 -10.7043
-20.1732 118.916 -0.169846
-17.949 95.486 -8.86464
18.1648 97.197 11.4735
28.3137 100.179 1.94092
-20.1123 117.794 6.52641
-3.7548 113.514 -11.1954
-11.0856 90.277 5.45925
3.33364 102.801 12.3382
-4.00849 107.62 -13.2337
18.8654 80.3377 -4.61205
-3.0019 96.5383 11.3519
-1.18838 82.7767 7.85172
-21.7738 82.2303 -1.57664
-10.6852 110.716 11.6676
29.4766 88.9043 2.05783
21.9069 78.3403 6.08559
8.60663 110.635 -11.2288
25.3632 90.1794 -2.26861
20.3719 106.978 -5.24759
-5.45093 91.5169 -12.1876
14.847 93.1002 10.9581
-17.8719 106.996 -6.58204
12.8962 86.4379 -7.75125
2.46995 106.432 12.2434
19.0757 104.44 9.57072
29.178 97.8926 5.06302
-12.1757 92.5872 -11.5751
7.08996 91.535 -11.2111
-12.1084 81.6631 -10.8108
-21.7892 117.232 6.11005
12.9054 110.711 -10.5658
-17.9096 98.901 1.18878
-15.5831 116.083 1.4408
30.8752 85.5706 3.44076
10.4248 115.048 5.34483
-15.5894 107.91 2.11374
-0.723754 91.9982 11.0522
22.7187 91.4338 -3.64735
10.5962 101.495 8.33566
-9.02214 84.0635 -11.6126
-8.85222 100.017 -12.2347
27.1648 104.192 7.03402
15.5856 109.198 -9.81973
18.4444 93.1418 -6.89928
14.186 94.0774 10.0454
3.10949 106.543 12.2636
3.98631 77.879 -8.51292
24.977 110.68 5.91945
-16.1596 91.5864 -9.89616
-8.83476 108.566 12.0764
-3.53548 86.7458 -11.6692
-12.6076 117.441 3.88838
-17.2996 83.9194 3.62378
-15.9296 104.619 5.57717
1.33449 103.452 -13.0189
-3.04872 93.8016 11.0781
-18.3449 119.452 7.17574
-15.9339 77.4437 -9.82644
21.8964 98.2015 10.8427
-15.4127 116.848 0.821603
0.252508 84.8643 -11.0004
-2.15953 91.111 -12.0764
-19.6824 120.228 -1.6051
23.0728 88.1585 -3.3405
20.4271 106.754 -5.12473
-18.035 102.731 -7.687
2.93101 110.643 -12.0913
-22.2025 121.363 2.6295
-2.89221 112.382 -12.2373
0.227216 102.624 11.8234
28.7281 86.032 -0.15974
9.95226 101.314 8.70107
17.9594 110.314 -9.4447
26.3003 82.794 7.25557
22.414 82.0002 8.56862
-7.91255 106.981 -12.2514
6.92668 95.5521 10.6582
28.4771 85.3807 -1.15782
27.9795 100.27 1.0829
-0.216127 91.0657 11.1272
6.10592 105.467 -12.4191
-12.8654 77.3016 4.4937
-6.81334 105.729 -13.1684
25.106 110.934 5.24305
-17.4191 82.3254 -8.11682
19.2564 108.192 -6.94522
27.2794 78.9989 6.74364
4.95262 92.5014 -11.6015
2.98354 114.59 12.6194
-17.584 100.519 2.00076
-14.4528 120.388 -1.31405
-10.7057 86.6574 -11.5453
0.734779 91.587 -11.7374
13.3117 109.25 5.61448
-19.2496 119.597 7.06038
20.6976 105.79 -4.55497
8.90046 90.5943 -10.0708
2.86854 106.88 12.369
25.3106 106.095 9.42781
-16.7387 119.084 -0.837957
3.79269 83.4934 -9.96354
-8.82513 117.695 -9.46972
6.07374 110.532 11.5633
-21.8433 88.8913 -4.60684
-12.509 74.5211 -10.1446
-18.8039 97.5606 -8.06511
21.1887 101.715 -5.89999
8.35951 113.226 8.5918
-4.32921 77.2874 -10.5597
16.523 86.6517 9.27346
3.65913 110.229 12.5946
-20.3054 102.414 -4.14507
-21.2787 83.2515 -3.87902
-14.2507 117.048 4.86108
24.3556 82.3845 -2.8666
4.83477 90.9779 10.9393
-18.729 119.105 7.04841
15.9763 83.714 6.9464
-11.9234 118.522 5.36465
-12.1786 104.501 -11.547
16.49 94.1312 11.3992
9.33511 101.27 9.03603
-12.999 108.495 -11.5601
-13.0022 120.605 3.89943
-20.3411 83.6688 -7.02804
-4.7357 105.676 11.629
14.85 86.8058 -7.39215
25.328 89.5969 9.93379
6.0646 78.975 4.21636
14.0897 91.6072 -8.68841
16.4422 91.1455 11.4603
25.4178 108.445 7.46955
9.15877 94.8487 9.12669
-13.0219 119.438 0.487525
-21.7953 80.4799 -5.39425
-1.25713 79.385 5.66431
-15.2012 115.094 -8.03947
8.24385 78.9086 -7.48167
-18.0164 77.4914 3.14178
3.63837 84.1392 -10.0078
-17.8306 91.0513 1.54052
-7.35147 80.8736 6.41935
22.2072 102.75 -4.0457
-10.1414 118.895 -9.75654
-15.3131 112.028 -10.5321
2.64574 78.8475 -9.24874
-2.02632 77.3438 -9.95653
14.7713 88.8665 10.722
15.9959 95.1669 -8.33098
7.79493 110.488 -11.3298
-7.68485 114.941 12.4006
-10.8334 111.403 -11.4996
5.09625 109.26 12.09
28.5533 99.1886 7.24995
-18.6954 115.216 -4.83737
-9.81893 90.1435 -11.7303
10.0342 106.156 7.27256
-16.3015 103.09 4.26481
-12.887 117.448 8.34395
20.6621 85.1567 -4.39035
13.3891 81.3076 5.61218
-0.0735837 89.5198 -11.5485
6.96289 106.36 10.9488
-9.75942 76.3608 -10.4506
-2.0612 115.996 12.6784
-8.53637 97.1602 9.4375
27.1073 101.651 0.263615
-3.97353 80.2615 -11.2061
7.26676 113.825 -10.3298
-16.0373 113.201 -8.1517
12.2996 96.0732 -9.99446
-12.9704 115.805 6.13764
11.4337 86.3753 8.15835
13.2147 109.108 5.62595
21.8784 106.581 10.197
-14.2951 116.436 0.744246
19.7461 92.6168 11.0957
-2.14419 105.583 11.694
2.39432 117.785 12.5846
-13.8533 98.1137 -11.6484
-2.0614 95.0527 11.3943
25.0251 85.8151 9.12867
29.3875 85.7952 3.57869
-11.9612 111.047 10.6509
-7.06753 98.4446 -12.3609
10.1044 93.3745 -10.4089
1.16125 104.126 -13.1073
1.94872 102.696 -12.7646
-15.1235 95.667 5.49413
-22.3642 116.144 5.70968
-4.05757 78.8564 5.54496
6.15735 78.8545 4.24014
8.82205 103.501 8.97188
-12.1519 112.698 7.31673
-7.1534 110.044 -11.1911
-6.17956 112.837 -10.8487
-14.1928 119.456 -1.34045
4.80259 83.1924 -9.75251
-9.32837 117.764 -9.63588
-10.3287 115.902 -10.7596
15.551 82.1651 -6.299
-4.62575 78.3709 5.40611
-12.3216 120.28 7.2101
3.74022 88.737 -11.3605
-13.0438 97.4934 7.27348
-20.8925 86.4478 -2.18077
14.6824 109.416 -9.78901
1.89847 106.023 12.1359
-4.15601 114.199 -10.6247
-14.2428 116.834 -0.00247647
-0.952313 100.983 11.7326
-8.17935 83.4208 7.53194
15.735 103.563 -10.2803
-20.3252 100.426 -5.248
16.9307 89.2193 -7.1414
17.1252 81.5417 -5.19077
-1.33879 103.524 11.4255
-13.9794 81.0036 -10.4563
21.7463 104.538 10.6595
15.4838 77.1774 -4.95077
24.3669 102.074 10.1812
11.0733 95.1203 8.47012
-7.29204 100.775 10.4233
29.0263 91.9099 0.560417
-8.37566 95.4477 8.36231
9.32036 106.306 8.04497
-19.1607 75.0952 1.68895
23.6899 78.7308 -2.788
26.5613 97.7163 -1.47228
-4.19379 112.029 12.9533
22.5738 108.579 -1.81664
-17.8718 87.8247 1.48674
17.367 92.1388 11.5636
-9.44723 116.053 -10.234
7.46224 113.587 -10.5587
5.44367 94.9224 11.2336
-12.2917 113.862 9.87184
-9.18972 107.587 -11.8165
18.795 106.3 8.25779
27.3569 101.717 0.808531
-2.84039 112.076 -12.3664
-16.5957 102.347 3.76185
-6.62383 78.6791 5.65933
-16.9061 104.638 -9.58857
21.2106 107.697 -3.70994
29.1665 98.4183 2.85799
31.2581 83.9534 5.19352
1.04632 102.703 -13.0574
-0.733605 107.317 12.6466
26.206 84.0756 6.77101
-14.4069 78.7115 -10.1347
-7.39326 103.03 10.9819
-16.3937 74.8473 -9.4439
-13.5314 94.1416 5.60978
-1.01944 103.507 -13.4736
6.77546 109.944 10.9864
13.2681 88.2961 10.0405
27.3969 99.7583 8.45307
16.1239 106.468 6.824
-19.3985 92.4742 -0.742887
26.9938 99.7758 9.01789
-13.5473 76.0725 -10.4862
-6.4999 82.9311 -11.2622
-3.63131 95.6101 10.8296
12.593 91.9779 -9.33859
-14.9842 118.918 0.434221
-13.7251 118.533 -1.03664
-11.6086 91.2409 5.18935
18.3488 98.3073 -8.20221
28.9141 96.4418 7.55862
-9.16702 118.937 11.5521
-20.6115 84.3176 -6.66943
-6.23521 81.4032 6.57342
-21.4412 91.1096 -5.0226
-16.124 95.7175 4.7404
26.7295 104.097 8.05012
-5.69152 105.506 11.5894
19.0109 86.3629 -4.80874
-17.2764 121.066 7.60351
-13.1485 80.8422 -10.7238
7.51298 85.3013 7.6495
-14.48 110.267 2.81813
24.5401 109.661 8.39452
14.839 113.417 5.12716
12.22 86.1296 -7.97609
-4.74875 88.0965 9.15372
-12.7219 82.5547 -10.506
12.7778 93.7247 -9.3899
16.5129 94.6099 -8.14483
-24.8606 122.259 3.4714
-9.86118 120.464 11.4819
-4.68333 114.431 12.8064
3.33437 116.898 12.4963
-18.917 83.4932 -8.16149
-3.15009 77.1398 4.20053
18.4204 107.711 7.84857
-11.9827 88.5194 5.09732
1.94537 96.6414 -12.5305
15.7057 91.4221 11.7049
-15.5038 114.447 -7.89425
21.5558 101.268 -5.83005
13.5252 106.908 -10.4059
-0.951881 90.0344 10.9017
-12.2022 89.3642 -11.8505
12.6696 90.1307 11.268
29.1807 96.3629 1.5787
12.2458 100.346 -11.3394
24.9579 87.6998 9.56737
21.8688 99.8544 -5.75156
21.3664 110.065 -3.66406
-6.5609 87.4631 7.86854
29.6053 93.9647 6.82455
13.4421 108.276 -10.0145
1.35901 111.553 -11.9168
-15.4696 111.48 1.19998
-9.31467 92.4318 -11.5819
16.1713 87.6902 9.98483
-23.1425 121.732 6.40177
-19.5793 74.525 -8.82932
10.1542 111.517 -10.7861
-8.40641 98.4987 -12.1797
-4.17885 92.0668 10.2692
-6.22612 117.75 12.5725
22.3792 83.0784 -3.62445
7.38843 84.313 6.67143
-2.44839 106.062 -13.2655
-13.9979 98.1683 -11.623
2.95465 84.0425 -10.1917
-2.71906 104.956 11.3441
-10.7241 94.9807 -11.2941
-9.06393 84.6671 7.22807
29.5188 87.5649 6.6457
18.872 87.2441 8.6224
23.8928 96.7536 10.2148
-13.8278 120.467 -0.163446
-11.9 79.7501 -10.9247
10.4926 92.4926 9.23466
19.7685 106.888 8.69576
3.85643 91.1699 11.5292
-16.7685 75.2836 -9.57699
-13.4537 109.865 6.79112
-19.7592 87.1547 -5.8169
-23.5936 118.447 6.08872
16.3216 91.6429 11.6388
4.41696 96.14 11.4471
4.37107 103.81 12.0753
-18.1016 110.113 -0.684067
22.4203 101.679 10.5513
23.4508 109.999 10.2862
-0.297386 98.634 12.2396
19.6401 101.777 11.1332
-21.3518 115.903 5.73074
-15.7467 100.303 -10.6901
28.6922 84.3323 5.02321
-6.59685 86.2528 7.71024
17.2351 100.927 -8.84558
15.2542 92.689 11.3416
-19.1724 108.675 -3.28002
-2.81538 100.738 -13.3008
24.1052 110.584 -0.256878
2.28419 87.332 9.53852
19.5636 79.9235 -4.47062
-25.0844 118.918 4.76749
19.2109 96.1589 -6.83853
13.1858 96.6095 8.51714
18.6042 93.5784 -6.88667
-13.5161 93.2493 -11.5604
-18.13 110.578 -0.743083
-3.90615 95.1618 -12.5853
-13.9776 102.245 -11.5666
23.6271 82.1067 8.03718
-14.9056 116.11 3.66105
-14.6819 79.7267 4.60083
29.6221 87.3688 1.18407
27.3733 83.097 6.2338
20.4152 83.1269 -4.419
-16.6873 119.032 -1.96462
22.8541 80.3613 -3.49681
-17.3503 100.703 -9.33642
7.91549 94.3925 -11.7405
15.1531 88.9757 10.8493
29.0249 91.1651 4.26909
10.7433 92.7745 9.21405
9.71788 115.222 5.84456
-7.07472 83.5129 7.7323
8.71391 96.5461 -12.0177
-19.0741 96.2932 -7.9951
18.7058 81.5946 -4.56141
-8.2839 99.1706 -12.1927
4.6503 83.0724 -9.7803
-2.46333 103.221 11.0852
7.10006 94.7412 -11.9708
9.70005 110.292 -10.7075
32.3935 81.3487 2.5839
-22.5203 78.0203 -4.69598
-0.751579 106.314 12.3915
8.87527 94.8195 9.20702
9.89041 108.76 7.07344
-3.40119 113.713 -11.3731
27.9405 101.176 2.50468
27.2644 101.198 0.257291
10.4311 110.323 -10.5581
11.399 105.206 -10.6815
-4.57693 84.9486 8.41206
-22.0035 74.8735 -1.03596
30.6982 83.7708 6.07012
-0.0178872 99.2042 12.2583
14.2968 106.026 6.38131
-21.1994 114.121 5.28041
16.6792 101.191 8.92095
14.1824 77.1532 4.45514
-20.4301 121.522 -1.37882
10.4037 94.3449 -10.4507
-24.2997 122.97 6.37025
15.8623 83.835 -6.71061
-5.59186 100.312 -12.9293
-15.2172 96.5307 5.79071
26.1683 85.824 8.73169
-7.74062 82.599 7.43138
25.0213 107.559 0.110808
-12.4539 103.959 9.65468
-14.279 103.283 7.3662
-17.343 115.476 -3.83784
-0.423283 85.2901 -11.1584
-8.59243 101.657 10.6429
1.04437 115.56 -10.6994
-10.7397 95.7443 7.19651
8.6988 91.2778 9.50853
-2.99848 84.9187 -11.4858
1.70807 109.349 -12.3354
-12.7333 93.5408 -11.4347
-2.66241 77.3272 -10.1594
-22.6463 76.1733 -4.75007
-17.3222 94.3364 -9.4016
-18.8898 120.591 7.30151
-17.1975 117.932 -0.217224
21.0879 84.583 8.10008
-15.2575 114.093 2.47128
21.1735 81.7646 -4.27124
7.79744 104.284 10.208
3.14195 83.0621 7.74391
24.6424 102.201 -2.21681
13.9098 93.1477 10.0999
22.2375 98.1899 10.7699
3.55672 104.682 12.0127
-17.5269 108.395 -7.89777
-15.9717 118.752 -4.68044
8.30831 111.371 8.8885
8.99727 85.2087 7.23105
14.4534 93.536 -8.7135
-17.7115 107.878 -7.45188
-17.3331 116.097 -4.05197
-13.8683 120.309 -1.19478
-15.675 120.299 -2.34179
-13.7735 119.28 1.7433
1.83136 102.206 -12.7533
-19.9437 78.7092 1.01427
13.969 79.0113 5.01324
-21.5832 81.3898 -2.84095
-17.2064 93.5697 -9.37044
-15.5313 114.126 -0.374538
-16.7765 113.251 4.2927
30.038 85.5376 3.28021
11.2972 87.1905 8.51154
8.32679 90.8799 9.58384
7.27523 79.8683 5.11252
-15.9892 116.055 -7.68944
28.693 90.951 8.79328
-10.9938 80.8819 -11.1023
-15.2165 74.5841 -9.63247
-1.15631 84.6163 8.94923
13.1668 94.3237 9.31273
12.9604 93.3994 -9.27732
-15.0685 89.5745 -10.124
-0.969168 82.1588 7.72214
-10.8241 101.252 -11.8556
-4.75667 90.6969 -12.0598
-15.8129 96.8367 -10.3486
26.2437 106.494 7.16621
23.6186 95.8507 10.6258
25.9776 85.7395 -1.00077
13.4356 81.1849 -6.49988
24.5485 82.8533 7.46808
-4.12841 105.677 11.6322
21.4792 98.7554 -5.87649
28.1241 101.989 4.71508
-13.9908 115.62 2.81683
-7.09434 104.163 11.2776
1.01219 111.301 -11.9735
28.8216 98.5313 6.17238
6.68129 99.2529 11.2891
18.5175 109.461 -8.57175
-17.4018 118.175 -4.94988
9.62086 109.288 7.36035
2.62238 82.8931 -10.1337
1.79857 97.7734 -12.6206
7.17181 107.527 10.7111
-2.8511 99.2236 11.6809
-18.3056 111.545 -5.48059
10.6886 82.0644 -7.79139
18.4003 88.6427 -6.12663
12.2938 109.629 5.38104
28.8584 89.5712 3.93839
-1.0046 115.432 -11.748
25.9781 110.872 2.55375
3.31608 101.768 12.3442
3.86394 78.5971 4.21896
4.11046 81.7021 6.92082
-8.72409 119.886 11.4291
-21.2555 94.1074 -4.85738
12.5486 101.088 6.94322
-7.96706 79.7685 6.26301
28.326 89.8064 0.47208
26.4071 101.187 9.0233
-5.35095 93.1426 9.59668
-2.22433 93.4978 11.3414
22.4781 105.646 10.9103
-22.2587 78.987 -2.65819
-16.6283 90.2893 -8.85197
6.08733 107.116 -11.6817
-19.7579 105.666 -3.65135
25.3725 109.738 5.92316
9.54071 88.9436 -9.79569
-5.18024 84.7 8.36864
14.6521 81.6607 6.26929
-18.4232 103.414 1.53008
21.8498 91.183 10.0228
-1.81741 102.581 11.1795
-15.5857 108.206 1.22058
-19.1486 94.1507 -0.525852
-6.75696 95.927 -12.2965
26.8078 103.732 7.9659
3.17198 79.1707 4.535
4.81428 95.2542 11.405
-7.59282 85.586 -11.7612
15.4961 107.269 -10.2569
-16.8328 76.4217 3.4507
0.897551 77.3879 -9.2073
5.71669 91.6436 -11.3875
-21.834 88.2974 -4.18744
-12.617 106.201 9.72311
-6.95284 111.592 13.0332
-14.8108 81.816 -10.0992
-2.45107 85.3916 -11.5366
-9.60959 112.874 11.119
-4.39666 102.387 -13.305
29.1014 84.964 -0.356728
-12.9647 84.2872 -10.4574
-5.69392 106.755 12.0106
-5.68009 98.6392 10.8517
-6.3951 95.8906 -12.2787
5.41811 85.514 -10.117
2.47654 107.5 -12.9654
-15.9989 86.0057 4.42768
22.2154 108.456 -2.28395
18.9046 92.1342 11.2043
-12.6148 117.699 3.49458
26.0446 87.62 9.29829
-17.6196 114.556 -6.11548
10.1759 108.751 -10.5184
26.9267 84.6043 6.60093
-13.8836 115.908 2.15329
-11.5867 113.967 6.89114
28.8016 97.7194 7.52911
19.9915 106.978 -5.9644
28.7422 89.0768 8.64528
-20.5943 118.624 6.56411
-9.64445 115.105 11.8321
-8.14537 77.4079 4.28796
-2.5977 78.2408 5.19845
-22.0827 79.4917 -5.23425
-14.1159 115.722 1.79798
-22.1159 77.6062 -5.61235
23.3706 90.3926 -3.51158
3.74189 96.1402 -12.2582
12.2608 96.7249 8.042
-10.6922 86.6675 -11.5547
-8.42452 79.3385 -10.9566
-11.5394 108.667 11.138
-14.1409 107.747 -11.1596
28.8312 96.531 5.84059
10.5318 88.8931 10.6225
-9.87253 106.61 11.164
-18.1028 102.846 2.49192
-1.83131 101.621 11.4277
-16.6843 75.8898 3.23533
29.0999 91.9695 2.56819
22.3065 95.4403 11.0807
-5.03333 75.6638 -10.3215
-15.7418 105.743 -10.2143
4.42894 86.2909 -10.7436
12.6327 97.9268 -10.3588
3.85739 103.507 -12.2786
25.7964 91.6256 10.1255
-10.0684 101.004 10.295
18.4611 88.4161 -5.85155
2.67604 112.806 12.6642
-13.4776 120.342 -1.28638
-7.59551 102.909 10.95
-5.22003 93.0162 -12.2959
24.7181 92.435 10.2169
-10.8942 97.8339 -11.8894
19.6845 90.9722 -5.44349
-13.2331 119.236 0.955617
-16.1526 120.759 -4.85699
24.9834 84.3803 -1.94115
29.4772 92.7516 4.4949
-13.0669 119.444 2.26693
-15.865 116.845 -0.756729
-18.5279 99.9803 -8.03841
29.5101 89.8385 1.33619
17.2605 84.4536 7.75269
-18.5096 106.047 -2.2267
-15.0485 98.2978 6.43172
-12.6877 108.5 10.4091
-14.2292 115.674 0.109791
-19.1235 85.279 0.425735
3.94217 110.176 12.5606
-12.6774 116.786 -11.287
-3.05124 112.696 -12.0349
-20.7765 95.6346 -5.24556
-12.4424 120.121 2.85772
24.9826 107.317 -0.130645
11.1041 88.2194 -9.04944
8.70926 76.5967 4.64086
-20.833 117.157 3.15362
20.9895 95.6568 11.2998
8.1955 81.3822 5.92169
-21.7958 85.4587 -4.48663
-14.8026 88.9055 4.67259
-24.2614 118.309 5.91622
15.5564 96.2922 -8.61761
-1.13742 116.259 12.7824
-4.5228 96.6294 10.8864
-21.3214 90.6791 -4.24907
30.7861 84.8716 2.68519
-16.0968 112.975 -8.7552
-7.18289 77.1336 -10.8088
19.4927 93.8155 -6.4688
25.8541 103.016 9.69069
-7.20122 92.5362 7.62419
1.23077 115.416 12.6007
-9.01766 90.7151 6.53525
-21.7073 87.4447 -3.43409
6.75707 115.052 -9.72759
0.442544 98.4098 12.3131
-11.8202 120.141 2.58189
-12.8602 74.4199 3.57889
16.2035 99.9867 9.08474
-21.9528 84.9789 -2.92454
14.8449 90.4869 -8.25144
-9.98114 97.1809 -11.7668
-16.8528 109.204 -9.43985
-17.07 118.764 -7.42772
5.01674 76.3833 -7.7889
-22.8148 116.968 3.24873
-16.543 116.961 5.96024
-16.0412 110.419 -9.95245
-8.27284 87.8682 -11.6525
5.24263 79.0281 4.22031
3.58646 78.1899 4.09025
1.09466 76.188 -9.12292
28.9452 86.1051 0.899888
0.208325 97.1503 -12.6947
19.2416 100.586 -8.26366
-17.9102 75.8304 2.71158
9.1465 76.134 4.75346
5.60769 99.0965 -12.0368
19.2347 94.2562 -6.69788
-15.4679 115.269 3.08985
-1.67143 82.0528 7.55136
-16.0831 112.461 -9.85128
-17.6484 82.5057 2.80124
29.0661 94.1365 4.42913
17.4788 111.831 -9.63213
1.33256 110.648 -12.1084
-14.4422 117.128 3.57353
-14.0728 112.493 -11.232
-11.4699 90.8408 -11.7732
-8.05522 114.161 -10.1289
-19.0855 105.839 -4.63775
5.50425 79.6556 -8.58095
-20.1729 90.5443 -6.23947
9.17468 76.0481 -6.54682
-3.01056 78.4014 5.31359
-17.0692 95.8889 3.44719
-2.00335 80.1147 6.38945
24.4038 86.8401 -2.21599
5.832 101.23 -12.0492
-17.301 107.91 -9.23422
19.9057 102.586 10.9693
-10.3945 76.7732 5.25903
-14.811 120.138 -1.48298
-1.31451 110.672 12.8907
20.4293 89.6658 -4.48109
-16.3295 97.7446 4.57384
-19.5951 100.444 -0.679532
11.9397 96.2662 -10.2114
1.63599 86.3141 8.91166
-12.0518 93.524 -11.3643
-7.17105 79.4841 -11.1564
-20.0724 99.7743 -2.5023
-11.5788 89.341 -11.9139
26.4427 89.0785 -1.22662
12.8673 97.0316 -9.95358
-20.37 120.157 -0.477916
-5.74361 108.689 -12.0291
4.23475 92.6859 -11.631
1.85605 81.521 -10.1473
7.42158 88.3907 -10.0911
6.74231 80.5239 -8.51574
-9.44214 107.907 -11.8355
-5.89631 111.182 -11.0657
-9.44838 103.634 10.9518
-25.149 121.386 3.88702
-5.13326 98.1279 10.8803
-8.87132 97.6209 9.53982
32.0224 83.299 4.22328
8.64125 96.6106 -12.011
-15.5984 107.074 6.46783
-16.6738 92.3133 -9.59646
5.69801 105.362 -12.6158
25.8331 90.2861 -1.98501
22.2525 107.747 10.5059
-5.87028 93.6794 -12.3889
-15.1685 106.831 7.33981
-20.2136 80.7906 -6.55747
11.5389 100.673 -11.7837
-21.2603 117.778 3.14279
20.9756 97.9451 -6.08275
2.53224 114.188 12.6309
18.4449 92.1573 -7.00899
-18.8953 109.914 -5.4023
-17.7837 120.061 -1.74552
-15.0914 108.662 2.01185
-13.1705 99.9568 8.24679
-11.5841 92.8179 -11.4727
27.8272 84.0118 -1.63888
-20.4739 81.411 -6.66685
-22.1924 74.6234 -1.28858
-13.7921 118.19 -1.88043
1.87729 101.962 12.2732
23.4117 91.2194 -3.44708
8.63474 106.873 -11.9814
-18.0568 83.4243 2.12043
-10.7893 96.1577 7.49612
-16.2054 106.592 4.5783
-16.1914 110.344 -9.81888
-11.9982 96.0619 6.71696
-16.9964 95.5968 3.27253
6.51019 84.8034 -9.663
-0.113707 91.2771 -11.8991
6.15557 107.074 -11.6478
-9.45183 86.7033 6.46019
25.9968 109.76 2.4575
-10.671 88.3499 5.61042
-22.7963 76.1802 -3.87427
23.0024 101.785 10.4353
5.2791 101.082 -12.0188
-18.2144 90.2969 1.0129
-12.3754 118.218 0.822232
16.652 111.112 -9.90591
16.5788 102.873 -9.80003
14.2044 110.245 5.56152
30.4454 87.1047 6.49805
1.77201 78.1441 -9.24474
-17.0347 92.4049 2.05405
-14.788 89.6958 -10.4404
30.2977 87.6964 6.72446
21.2743 100.488 10.8438
27.2312 103.799 3.24245
-18.7863 76.6295 -9.24579
13.3944 92.9607 9.99238
-23.7329 122.209 3.10628
-17.3645 82.4218 3.31882
11.0239 75.5093 -5.54581
22.3428 107.503 -2.79739
-10.0286 86.6333 -11.8486
-21.3496 82.0915 -3.12801
-8.41831 103.943 -12.5196
16.7865 104.709 7.61664
-5.84603 82.5599 7.58052
-21.1231 82.2682 -4.40023
29.239 86.6205 0.847336
-18.5824 77.7867 -9.09291
29.2629 89.7909 1.17777
23.0322 82.9843 -3.04857
12.5421 96.2774 8.22835
26.5508 90.586 -1.50528
-15.1593 94.8773 5.46079
-18.8663 114.63 5.18475
24.0304 110.37 8.95726
22.0728 86.1937 9.12491
3.57459 117.064 12.4185
25.1325 96.6233 9.96804
-2.29154 104.037 11.2348
16.2421 77.826 4.76806
21.7326 100.053 10.9183
20.0365 98.9874 -7.23401
-15.3531 102.063 -11.031
-16.2184 106.806 4.39449
-4.62207 113.527 -10.8366
7.88401 103.287 10.0438
-8.86706 98.4249 9.94311
6.87054 104.996 -12.512
-13.81 101.84 -11.6923
-4.77072 99.8649 11.2509
3.02309 89.5467 11.2307
-9.40152 88.0803 -11.8602
17.4315 112.016 6.69249
-1.17858 89.8774 -11.7465
-15.37 92.0143 -10.567
-15.6558 115.025 -1.87382
-12.0316 118.779 1.77665
-12.5813 101.876 9.21084
13.7149 98.7398 -10.0029
16.8363 108.692 -9.76516
-13.2213 118.506 2.86213
-10.6305 95.4665 7.09334
-21.889 119.438 2.8205
2.11182 115.954 -9.46866
-20.731 94.7184 -3.48793
6.16073 109.171 -10.5673
6.28603 103.689 -12.6462
8.57785 89.2872 10.0195
-10.6012 87.7472 5.66495
24.3235 96.6114 10.1665
28.7004 88.445 1.05308
22.2864 80.1801 7.70347
-7.11119 113.607 -10.4594
-15.8829 84.259 -10.0507
29.9566 90.6697 7.50708
-6.2167 106.139 11.8393
-5.21858 88.3271 -12.0164
-12.8498 118.625 -11.1041
-17.195 86.2013 -8.87686
28.7305 84.6667 -1.187
6.4455 110.988 11.1757
-12.2668 115.258 9.75246
29.1309 81.8374 -0.219064
-19.5333 87.1079 -5.99428
2.65754 101.857 12.4353
-18.7644 100.096 0.992381
33.1623 81.4697 3.51635
-16.7101 88.7431 -8.50663
-10.417 74.3196 -10.4359
-21.5489 90.3588 -4.8983
-16.95 86.4208 3.53546
-19.0591 109.775 -4.77703
25.475 78.5681 6.35241
-20.8229 118.929 0.635488
-14.9276 105.511 -11.1876
12.3921 85.4951 -7.78423
-11.4357 117.874 -10.6767
-13.2107 117.924 -10.6254
-4.60895 117.056 12.8555
4.23795 101.27 11.9714
-20.678 122.004 6.72191
9.75143 107.931 7.45262
0.83806 113.922 12.6439
26.734 106.327 2.86689
16.6793 101.396 8.79217
-8.75165 81.819 -11.2308
-18.6853 96.9886 -0.847905
2.18009 97.7384 12.1965
3.63343 101.137 -12.2238
-8.64388 119.702 11.4353
-20.1648 83.5176 -7.21505
26.7849 79.6359 6.8422
6.70864 105.969 11.2108
0.707699 111.465 -11.9319
24.0308 83.8821 -2.42835
28.7782 95.0936 3.85941
-21.1188 84.1404 -1.31098
20.826 76.6876 -3.42989
-17.31 86.8509 2.82805
7.6383 91.1614 -10.9116
26.5477 100.113 -1.47897
5.54267 98.1381 -12.0471
14.3268 88.1469 -7.63483
-14.3593 88.7551 4.67372
18.9662 100.948 -8.46786
15.3529 97.2453 9.82249
6.29448 113.713 -9.63568
28.0298 92.9567 9.2423
25.2686 105.65 9.74301
11.2763 76.3845 -5.74638
-11.705 79.727 -10.954
-10.2377 105.753 10.8762
-15.745 115.386 -7.55464
23.9901 87.9277 -2.72741
10.6128 103.476 -11.4378
-1.82315 78.8794 -10.3281
27.1098 90.2407 -0.99001
15.1159 109.698 5.9327
2.65116 104.613 -12.65
14.5116 105.834 6.45958
-17.9137 84.3967 2.45333
-12.9076 108.233 -11.6286
11.9223 80.3274 5.07523
-1.77256 84.4015 8.58786
17.5611 93.6352 11.5568
-18.8655 104.405 -5.6477
-14.7061 92.1034 4.16651
6.31169 94.884 -12.0401
-12.0676 87.1293 5.25147
-17.8775 107.223 -7.8235
12.1365 91.4013 -9.50968
20.1409 80.7006 7.314
6.76653 113.558 10.5738
-20.0617 79.9574 -6.57246
-17.1134 94.1217 2.42921
25.303 105.946 9.52411
-13.5044 88.5808 -11.2637
-2.55713 77.3759 -10.1383
-16.842 110.109 0.967658
12.8237 100.724 -11.1117
1.00784 99.0053 -12.8608
7.45529 95.4583 10.0366
5.11862 114.489 11.9056
-8.93983 106.472 -12.3574
-17.6479 102.474 -8.47358
2.10129 87.5105 9.79358
6.5735 99.4651 11.3368
-18.5743 90.7396 -7.07878
21.2596 97.9724 10.8594
-17.8344 80.7198 3.16464
-13.4713 85.9852 -10.9099
-11.473 113.247 -11.1146
-15.6549 115.9 -7.73859
-21.3874 91.7637 -4.52307
4.2071 101.483 12.0249
-15.5154 101.494 4.6734
-14.2112 89.262 -10.7141
-20.9302 118.614 0.928538
-9.3303 96.0102 8.47773
2.34844 96.7211 -12.4359
16.1347 107.079 -10.1119
-12.743 85.719 -10.8567
-15.9445 120.303 -2.23933
11.7478 109.436 5.56446
-19.6104 74.5916 -8.79597
3.80681 101.045 12.0502
9.70128 85.2424 -8.73061
-16.5578 87.7963 3.62381
-14.7159 103.911 6.25081
27.9371 100.151 0.931214
-16.7961 118.588 -1.80175
14.2752 109.73 -9.94643
23.91 110.744 -0.655415
26.6554 95.6992 -1.58606
0.200728 85.94 8.87133
-16.1182 107.48 3.06478
-5.85673 83.1047 7.87459
-17.7282 114.878 -6.18997
-7.97169 85.5966 -11.7818
15.5304 98.8255 -8.92473
-18.9391 100.45 -7.51323
-13.1394 102.741 -11.5953
26.287 106.41 6.4991
0.543028 74.7666 -9.57557
-18.5759 85.1302 -7.71899
32.5357 82.7548 4.26352
4.34694 109.169 12.4163
-12.0213 92.4539 5.47541
-20.4842 88.1505 -1.51252
-18.8615 85.1064 0.869346
-8.59643 116.981 11.7422
17.4527 111.239 -9.89274
-15.7063 94.7094 -10.7266
13.0619 97.6043 -10.0453
-16.061 99.8424 3.89387
-12.3687 116.097 4.59703
26.9542 102.99 1.67092
19.766 80.7332 -4.47855
14.9417 76.2604 -5.03623
17.264 98.1115 10.8647
9.48137 105.87 7.85594
-13.9441 112.62 -11.2448
25.8494 92.1221 -2.22075
-12.8453 81.0926 -10.7486
30.7965 81.2107 1.24591
14.7619 103.065 -10.4757
8.20886 112.805 8.8567
-12.9159 107.252 9.87684
1.89191 77.9359 4.51437
-8.33444 89.4384 -11.751
22.9687 94.3485 -3.43643
-18.543 87.9047 0.608209
10.8665 76.9671 4.79879
-16.3732 118.941 -2.60584
22.5074 92.5618 10.2059
12.1255 101.384 7.2393
24.1413 111.778 7.1835
0.79727 102.532 -13.1042
30.3874 81.3237 6.9324
8.91184 108.002 8.56197
16.9727 105.955 7.28964
-21.0991 83.8719 -4.97784
-9.24326 110.119 11.9559
6.85938 98.989 11.1656
-18.814 85.3047 -7.43036
-14.1498 119.642 -0.417099
-12.9737 112.977 2.08562
-15.722 113.665 3.67235
-16.1898 107.558 1.4946
2.68226 77.7929 4.22303
1.18894 113.504 12.6478
23.7316 89.5654 -3.20311
1.74251 97.8839 -12.6396
16.3777 100.796 -9.02401
8.9582 92.7913 -10.7137
24.5222 88.1437 -2.48375
31.3094 82.9833 3.72436
25.0695 90.0493 -2.43772
-5.63996 83.6839 -11.4191
-19.1403 101.394 -6.96765
-13.3112 94.7412 -11.2826
-18.5516 111.275 -1.46952
-15.4647 74.9174 -9.68045
18.0177 102.579 9.35829
28.2212 80.4382 7.37996
-12.3721 116.953 9.1934
24.4133 84.2498 -2.11959
-20.8521 76.0952 0.459001
6.8072 104.951 -12.5503
21.7731 103.205 -4.20519
-3.10607 78.9747 5.61691
19.6744 90.9109 -5.42189
19.7307 109.171 9.39627
29.853 93.0574 6.91816
4.40248 89.5976 -11.4113
-12.0027 94.7428 -11.1597
2.23202 98.9033 -12.5078
17.4816 107.869 -9.77692
3.35413 95.3582 11.7889
10.4079 81.5727 -7.6576
3.29628 84.0312 -10.0841
3.29351 104.155 12.1415
-0.50126 98.8356 -12.9341
-13.5857 114.494 -11.2583
-1.89148 110.832 -12.5107
-15.1128 74.1401 2.02499
13.973 107.456 6.05226
26.3452 106.192 7.57849
8.2056 76.6084 -7.00331
5.68648 110.088 11.7536
-15.3947 107.834 3.65069
7.74496 82.8592 6.41533
15.3078 105.185 -10.5253
-19.2828 96.4025 -1.83586
24.9308 92.3579 10.2506
13.8417 98.0989 8.348
0.273313 114.382 12.6382
-8.75004 84.4584 7.37919
-11.7212 89.3352 5.09694
-11.4139 78.346 -10.622
14.9161 88.6353 10.6035
9.21837 82.6268 5.8524
26.5679 78.025 -1.33351
4.47732 104.243 11.9938
-12.9945 96.8779 -11.6456
-3.46822 116.448 -10.3365
23.6558 105.954 10.539
7.58407 108.225 -11.3822
-3.78817 77.9638 -10.6547
3.56466 86.1899 8.53355
20.2868 105.376 10.2514
-20.8786 88.904 -2.35841
-20.8352 88.9983 -2.15504
-19.143 110.043 -4.24267
5.06314 79.3408 4.37811
-11.4313 85.1104 -11.184
12.9948 95.7561 8.65371
29.754 93.1328 7.44369
17.6917 81.967 -4.81518
26.8959 105.496 3.14156
8.65268 112.952 -11.2538
-17.5352 109.511 -8.62091
-18.0946 114.451 -5.16351
23.8484 100.077 -4.26985
1.87797 115.048 12.6241
21.5901 95.5327 -4.38382
25.8793 86.9553 -0.948009
-18.1132 94.5738 -8.75122
29.6477 87.5316 1.48915
19.3417 92.352 -6.47295
-14.046 100.638 7.94281
-12.8819 117.82 7.0091
11.2896 103.953 -11.0081
-12.3282 117.142 4.84859
-19.3129 84.1295 -7.67615
18.691 80.4125 6.76313
-3.08517 84.6253 -11.4688
-17.6749 98.5275 1.14371
-14.6347 109.827 -10.9673
-7.91204 90.83 7.00575
11.8691 79.4381 -6.58948
16.8694 108.87 6.72174
-20.3096 83.8109 -0.509714
1.06503 74.8312 -9.45739
-14.2146 74.9292 3.25884
9.71486 76.5083 -6.40746
9.6482 98.4021 8.96942
-21.3246 75.9282 -6.94329
-11.1676 80.5564 6.28413
1.85556 103.646 12.3706
-20.4186 121.104 6.68541
8.17024 100.187 9.96842
-7.61374 80.8314 6.45377
20.8692 106.298 -4.20759
-10.1505 93.1509 -11.3642
14.3259 94.3229 -8.97554
19.7877 96.8952 11.1061
7.23154 91.7346 -11.2395
3.38678 117.412 12.4791
13.6128 108.236 5.84845
4.86363 115.594 12.047
17.5463 100.073 -8.48515
1.34573 83.1511 -10.5438
0.538031 112.631 -11.8146
-2.92709 103.182 10.9974
11.8208 96.5402 -10.3332
-1.59208 96.0127 -12.6177
-14.5606 101.036 -11.466
19.1334 105.766 -7.70048
-4.76088 99.8511 -12.991
-3.59642 82.4449 -11.2942
-15.9423 116.652 0.382025
21.7312 107.966 -3.19206
12.7015 112.546 4.86403
-11.5768 84.0671 6.10133
27.3401 78.9548 -1.1633
-18.2448 81.1708 -8.22627
3.8661 110.299 12.5851
33.1111 82.3229 4.38233
7.92321 108.129 9.83667
-17.29 102.938 -9.24056
0.867905 78.1074 4.84784
11.6169 111.559 5.33544
19.1834 90.1078 -6.04151
-15.716 103.618 5.06852
-3.38919 84.2778 8.20114
-0.868716 102.641 11.3462
-10.5763 96.4858 -11.4973
25.8578 107.748 5.41383
26.9878 102.95 1.91199
26.3996 109.501 3.08986
27.0708 99.8923 -0.959135
6.6176 85.8416 -9.87473
14.9595 101.815 -9.84327
1.44738 106.751 12.4071
10.5861 87.0821 8.52678
-14.4987 85.6584 -10.7674
-19.8366 85.5949 -0.760121
12.7845 110.295 5.31405
26.5401 102.01 -0.638876
1.51881 80.4257 -10.1193
-19.3401 78.6469 1.69818
-17.5033 97.2611 1.54183
25.7963 85.3463 8.76051
12.732 84.7948 7.81651
-13.3959 75.4119 3.93043
-14.0158 117.813 -2.36254
7.98248 89.1777 10.2813
19.5926 92.3734 11.1315
24.7093 97.401 9.8039
-19.215 109.046 -4.55757
-14.9369 100.506 -11.3458
5.93784 98.3465 -12.0394
-15.3111 119.69 -3.46529
-18.6607 95.5279 0.316224
1.85285 95.2059 -12.5568
17.2452 80.3845 -4.69508
12.1212 76.7043 4.41594
-1.04187 77.737 4.90519
-17.3373 118.941 -7.38896
28.0563 82.0694 -1.52709
-1.38853 92.6229 11.1567
14.2266 95.8172 9.40146
24.01 102.966 -2.62308
-14.3631 116.905 -1.66425
27.1172 88.8718 -0.254886
-4.65107 84.9406 8.41187
26.8986 107.286 3.0643
12.952 86.9374 -7.82223
-9.1254 84.1608 -11.6475
5.70247 87.2283 -10.4262
6.25215 112.789 -9.88458
-5.75851 107.295 -12.5326
-3.04565 88.0718 -11.6665
-19.9782 96.5276 -6.59751
16.1581 97.6269 -8.53256
26.6135 103.66 1.02218
5.08951 102.079 -12.1058
-16.3017 120.789 -2.12294
20.0113 94.3553 11.172
19.4233 102.293 10.762
-12.8159 77.5511 -10.5116
-24.0283 118.769 5.09215
12.4311 109.867 -10.5029
10.6794 113.919 -11.0852
-8.47301 110.621 -11.5066
20.6326 102.025 10.9147
-23.23 74.3206 -4.97352
-4.07863 112.856 -11.2403
24.379 91.0227 10.035
-18.5763 112.461 -1.5221
-12.1196 75.7986 4.13556
-17.1616 106.874 0.380595
15.1581 77.4376 4.63136
-3.84862 98.7204 11.598
14.7579 94.5369 -8.84564
7.5591 111.729 -11.1321
5.72589 106.076 -12.288
-7.02313 106.317 11.8214
31.5465 81.1718 1.68207
-8.78491 90.7567 -11.6823
17.2635 86.6651 -6.07409
8.94275 93.7615 9.08993
26.392 106.13 6.31339
-0.671556 115.059 12.6896
20.9937 107.057 -3.94771
21.8233 105.942 -3.63241
28.5919 80.4301 7.13432
-9.18 118.142 -9.46835
-15.6525 107.084 6.28903
-12.8081 82.1358 5.27606
20.9874 102.675 10.7123
6.83584 96.2743 10.926
10.0538 80.4734 -7.26453
-4.74966 108.497 -12.6545
-15.2864 120.324 -3.14922
-16.7127 107.124 1.73559
-7.91424 99.9235 -12.1989
7.7995 103.965 10.1999
-18.3498 95.3961 1.38442
26.4399 97.0065 9.64079
-1.35432 80.8363 6.78718
-3.36653 103.641 10.9868
-10.0182 108.557 11.7902
-6.97266 87.7875 7.52817
18.9214 99.74 11.0565
-8.26708 110.716 12.2054
21.7715 86.8369 9.19746
7.96032 105.16 -12.2575
-24.8801 117.748 4.40386
-17.8963 97.562 0.325738
-21.3525 85.6731 -2.70913
-8.98643 110.337 11.9981
28.6069 81.5811 6.56953
-14.2435 115.658 0.0142719
30.1213 83.5702 2.43743
-2.94805 74.5213 -10.1208
25.378 83.7215 -2.30274
10.1411 107.696 -10.8092
-12.0991 112.235 4.90409
8.45502 114.609 8.16779
-1.20778 77.7954 5.5188
23.0529 94.802 -3.44161
11.509 75.5284 -5.32286
22.7102 89.7778 -3.85775
-14.0998 119.084 -1.26645
17.976 106.967 7.44551
14.9609 83.9046 -6.83169
-8.87063 85.2594 7.21789
-12.2835 87.6933 5.10032
14.2289 89.5401 -8.14229
22.1231 79.4695 7.16862
-7.59414 111.198 12.6015
12.6785 82.3481 5.82774
-17.7211 111.055 -7.27352
-15.9295 108.69 1.15395
-13.7457 120.145 -0.00411704
-17.8097 78.5324 -9.21532
17.238 80.0834 6.11674
15.1242 100.525 8.15682
-5.28538 116.114 -9.77614
15.5138 75.9153 -4.93324
-8.73711 104.143 11.0968
-15.345 77.6277 -9.87913
11.7236 84.2577 7.13655
-11.6278 81.7846 6.07275
21.3177 86.4971 8.91087
14.5035 83.3337 -6.70436
1.15223 81.0881 -10.2776
21.4119 80.6903 7.50316
-8.99348 100.932 10.5654
-2.95941 97.7245 11.7798
31.8017 83.7311 6.17545
0.514161 107.029 12.6023
-17.9096 105.44 0.79707
-14.9108 115.828 -2.308
-16.915 119.298 7.19998
25.0234 90.0673 -2.47123
16.4775 104.86 7.38314
27.4456 96.1791 9.29603
10.4326 99.296 8.40027
-3.245 77.2473 4.33135
-6.61211 103.468 11.0603
17.1535 109.623 -9.67281
24.4894 98.5256 -3.20198
10.8766 103.474 7.41313
-12.5786 111.997 7.25446
-16.3547 120.642 -3.07558
-19.4658 90.357 -0.813496
9.1428 110.949 7.74679
20.3959 101.823 10.9683
15.1653 110.155 5.86013
26.6601 88.2891 -0.584745
-15.7557 94.038 3.7585
13.7821 96.8832 -9.53234
13.476 86.6216 8.95865
1.83691 96.1236 12.233
5.24978 91.226 -11.4606
5.28647 86.2496 -10.4384
11.7835 85.7779 8.0298
-12.5969 111.616 7.72294
-6.02313 89.4679 8.13126
-12.4472 119.215 2.60397
29.0632 85.7057 4.65523
22.4096 100.635 -5.39653
-21.8354 80.1243 -3.63381
-9.10029 77.2276 4.53035
8.41496 114.483 8.24853
-19.059 121.15 7.22752
4.29036 86.4962 -10.8455
8.94725 106.164 -12.1096
-12.4264 117.044 9.33549
-9.80655 116.818 -10.1439
6.75852 107.186 11.065
0.545596 77.7775 5.91352
-3.94189 85 8.40976
28.4634 99.3622 5.0325
-3.66792 88.2574 9.77486
-13.4068 74.4184 3.24863
4.1168 95.8133 -12.2833
-2.24943 80.8174 6.85052
-8.46129 87.1936 6.79179
16.4432 102.714 8.13464
-0.570131 95.9838 12.0337
1.14542 86.701 8.98505
-8.66287 111.962 11.7076
22.9705 99.7975 10.7941
-5.89646 105.668 -13.3686
-14.9769 119.982 -2.9808
-6.49146 92.0382 8.09344
-12.8721 90.7215 -11.6949
17.4674 103.931 8.32303
-19.4227 97.0733 -7.25668
-10.6566 87.2819 5.71042
14.9895 78.2867 -5.33399
13.902 87.6735 9.59633
-9.33577 101.764 10.715
-1.2962 109.185 -12.7644
24.9348 111.034 5.77546
-4.03469 118.7 12.8154
-12.9341 95.6364 5.96377
-20.1842 100.162 -5.43963
25.6537 95.2843 -2.16262
20.8688 104.567 10.5585
-16.8714 111.886 -7.28138
-18.4971 89.5441 -6.81601
13.2811 94.4637 9.27446
12.8491 81.5684 -6.76226
-14.8603 119.972 -8.27302
29.5399 80.4893 0.747436
-4.63591 81.8868 -11.3432
9.36563 114.549 6.6477
-17.2561 79.2034 -9.02282
-8.52873 81.426 6.81938
-14.712 89.5494 4.86962
-16.0548 82.7246 -9.71245
12.8189 102.701 -11.1729
1.86982 93.7089 -12.1956
-5.15419 107.67 -12.6763
-5.30679 115.769 -9.89393
-16.1786 97.0955 -9.90686
-13.2924 109.757 9.19174
-4.92032 110.536 -11.8557
-13.0733 78.4182 -10.6133
27.2478 100.852 7.73736
15.9616 103.25 -10.1031
16.1984 103.766 -10.185
-16.395 120.721 -4.99432
-20.7116 77.747 0.426228
-3.62253 101.315 11.0809
-22.7325 75.146 -2.90854
-11.6875 104.679 10.5564
-14.1943 116.109 1.51216
-16.9829 84.8755 3.87373
-3.43906 85.5998 -11.5256
22.8821 88.2806 9.76547
-1.22123 101.015 11.6777
-8.96816 84.2882 -11.6904
-1.85309 89.4709 -11.57
17.1207 113.688 6.47281
6.33471 99.9128 -12.0296
6.63674 102.707 -12.2735
-12.4415 96.0171 -11.3727
-11.7694 112.077 9.07552
-10.4318 87.8986 -12.0058
8.61222 78.9617 -7.34498
-7.87074 84.8621 7.77469
29.8058 88.3454 1.46084
-21.9443 85.1508 -3.8007
29.3818 79.7173 0.716464
25.7508 90.809 -2.13077
16.1701 85.5444 8.68505
-15.6617 116.891 -0.949982
