ply
format ascii 1.0
comment Created by Open3D
element vertex 1921
property double x
property double y
property double z
end_header
-9.49842 124.428 4.76234
-5.49062 116.897 -12.4072
15.2857 121.468 -18.3405
-16.4133 129.26 -4.11861
15.3633 129.92 -14.6074
14.3468 135.163 -14.7934
21.0622 96.5569 -3.9256
-18.4287 120.664 -7.57747
-16.9376 121.22 -8.62233
-14.0966 121.856 -10.806
8.54771 136.412 -11.8218
1.11056 121.356 -14.0275
17.4727 87.4755 -6.43188
18.5775 124.898 -14.5146
3.5498 112.256 -18.4439
-16.4898 113.167 -0.89268
19.0683 103.538 -1.66436
-19.7291 123.871 3.33738
25.4319 90.7566 -22.1487
30.3417 101.117 -12.9325
-16.5744 126.492 -4.88245
29.8364 93.6431 -9.75628
11.5109 107.647 -3.94955
2.31552 111.051 2.85706
20.8481 104.881 -1.65397
12.551 132.006 -15.4356
-18.1235 134.873 5.51497
15.8403 132.109 1.91002
30.4741 126.425 -8.00086
-5.75048 136.645 -8.09455
17.3061 127.633 -5.81926
24.0495 94.0778 -22.0677
15.2496 92.5124 -2.81346
14.9176 100.327 -21.2348
4.6515 113.101 0.904306
-7.01435 146.793 1.46719
25.1898 96.8194 -5.65754
-1.32398 123.096 -10.1656
34.3229 86.7582 -16.5131
14.9707 101.754 -21.3716
-0.913351 126.073 -9.24202
18.8661 115.761 0.389542
-16.0671 145.373 3.913
9.48634 103.655 -20.2751
33.2368 83.0206 -16.9836
-10.995 147.945 -3.61886
12.928 150.649 -2.67956
-19.5239 119.533 -5.86957
6.55504 136.298 -11.278
14.3606 96.3153 -2.9663
24.8839 142.343 -2.20542
-3.28291 125.585 -9.01484
-21.635 134.35 -2.09959
18.1224 140.355 -9.40124
-20.879 128.413 -6.83227
-15.8684 123.365 -5.59808
15.7931 129.37 -7.82636
15.4752 130.18 -12.8147
2.7027 137.923 1.52678
-9.14504 150.679 -2.7301
-18.2468 141.423 0.0369293
-18.3389 118.235 -6.7471
10.3708 106.322 -4.15229
-1.37248 140.027 0.495203
24.2336 115.782 -13.0203
18.8373 129.046 -14.9191
-14.9385 127.672 -7.13931
6.16371 110.109 -1.84603
-23.5466 123.475 -4.72735
20.2163 127.341 -9.8154
11.6692 145.489 -0.0278342
-1.85166 134.354 -6.69477
-11.2749 121.837 5.70684
-2.35002 142.852 0.114494
27.6394 84.399 -11.7942
2.19055 112.992 -17.5452
18.2682 134.387 0.521917
20.5437 92.0485 -5.57744
18.3375 111.677 -1.63302
23.5896 80.543 -11.4558
16.1209 94.4338 -2.41951
-2.56712 121.382 -10.2454
-19.2565 119.853 -0.416433
17.1186 144.245 1.71707
-1.79632 144.558 -4.549
11.8167 140.876 -0.750263
-1.36631 119.779 4.28822
10.3398 139.151 -0.325503
3.90836 106.965 0.722476
-17.8206 123.459 3.37953
11.9492 93.4564 -3.6867
25.3947 88.0013 -22.4236
-13.8329 138.062 5.66028
22.8012 96.8219 -22.3887
3.18115 135.431 -7.47753
21.9845 93.8717 -23.2414
23.8016 127.021 -4.99533
23.4293 99.8905 -21.4867
18.2356 106.858 -21.0544
13.7256 147.163 -6.77033
10.3887 122.017 -2.8534
21.7388 133.055 -10.9025
-18.6791 121.126 0.106396
21.7621 121.017 -10.9563
22.3535 96.2432 -4.88561
23.4117 124.996 -5.7939
26.0313 106.145 -4.1001
-15.3203 132.072 -4.32755
-11.9687 120.053 6.32184
29.2729 101.086 -8.32599
-20.7572 131.257 -4.78239
18.645 114.145 -19.057
7.04697 139.75 3.00186
18.7132 130.927 -8.77258
-21.718 126.348 3.53163
18.4482 89.9277 -5.78937
12.9702 134.223 -15.2695
-19.1811 120.085 -4.7326
31.6517 82.8363 -23.4736
7.96134 122.573 -13.705
-16.9684 121.051 -6.40283
20.5737 131.757 -12.4984
12.0816 111.727 -19.668
22.7869 121.003 -8.44758
-6.79905 149.703 -4.34156
2.01666 128.624 -10.1389
34.5041 86.3294 -17.4002
-10.9963 140.567 -6.17117
24.4126 111.558 -2.68029
11.5523 111.481 -19.9622
-24.2212 127.173 -4.38864
1.27819 141.621 1.23814
-6.77159 130.261 -9.16598
-11.9632 143.314 -4.15318
1.41845 114.109 -17.0471
13.4154 105.602 -21.6853
28.0806 128.613 -8.23883
0.397801 127.886 -9.18774
-0.883678 138.635 -5.64746
25.3537 103.332 -3.5382
10.203 142.552 -11.607
-1.68174 123.07 4.07279
-14.3495 130.359 -7.38308
26.4189 113.226 -4.69917
14.2923 137.297 -14.3672
18.4839 111.689 -19.7725
15.5927 119.552 -1.99047
34.219 85.2236 -20.2559
28.7683 93.3241 -8.68395
-17.7048 123.967 2.19335
24.2954 96.0106 -5.72727
8.71417 145.011 0.638495
21.7771 81.6673 -10.5635
2.19374 133.199 -8.07263
7.10345 125.395 -12.2612
3.391 130.47 -9.88995
24.4688 136.479 -7.56209
-16.2041 130.016 3.91105
-3.72613 115.017 -13.1724
0.659987 110.261 -18.4568
13.663 103.874 -21.8857
6.45147 152.171 -4.56219
26.5471 82.1545 -24.6442
-3.20487 110.999 -15.3678
9.16942 152.504 -3.22594
9.82461 139.533 0.118153
16.568 126.936 -9.29112
28.8544 89.5756 -20.0273
-25.1166 129.794 -0.285665
14.3906 114.14 -3.29702
29.0269 102.438 -9.16657
4.05359 120.953 2.58941
1.42183 108.044 -19.0584
25.1445 110.595 -11.4032
-16.2519 123.877 -5.82821
-15.8964 129.055 -6.0599
7.95327 113.888 -2.92523
9.26133 128.267 -13.592
-8.25408 118.38 -12.4894
-18.5047 127.4 -5.38417
15.79 127.038 -14.9742
19.1389 129.852 -14.794
-20.2987 120.176 -1.05112
21.0398 90.9927 -6.42897
0.695929 125.772 3.91108
-13.5718 116.163 5.40858
-6.65798 141.246 2.37556
-5.07739 105.635 2.77284
4.17631 117.224 -16.7398
8.96586 98.4768 -3.85993
7.37591 143.116 -10.4927
16.8235 104.962 -3.33413
18.2098 100.639 -1.89587
30.7813 99.7333 -13.2782
4.42132 135.71 -8.93225
18.6024 127.23 -0.21407
24.8093 110.966 -11.7534
15.2155 101.14 -21.193
-5.8026 154.653 -0.4552
24.1336 142.169 -5.35692
-13.8954 137.296 -5.62206
2.25473 114.609 -17.3013
17.8494 130.722 -9.69014
30.5007 86.051 -12.9373
16.4129 104.285 -21.5082
3.76934 114.76 -17.9793
3.68127 119.945 2.52958
-9.30069 125.215 4.67276
26.3938 92.249 -20.4182
19.8243 117.038 0.829939
18.2835 132.475 -8.20782
-8.47113 131.136 3.32902
8.14645 136.295 0.572004
1.43398 116.754 3.9848
-23.6 121.393 2.84095
8.30679 144.998 2.73531
-6.59806 107.96 3.56321
-16.602 113.68 -0.0761069
5.86538 148.251 -7.40571
18.7513 99.2895 -1.8777
22.7861 106.221 -19.0534
21.9793 91.9142 -6.18301
13.7607 106.785 -21.6179
24.2961 115.25 -2.25918
27.8102 96.7028 -6.99553
15.0832 137.47 -13.4074
-8.10465 111.143 -15.3249
-14.2545 117.975 -12.3188
9.90765 104.683 -20.7807
-1.0216 128.528 4.12854
2.37622 124.083 4.02068
-12.6443 128.689 -8.80215
-12.7847 137.843 -6.08787
5.98584 140.803 -10.2692
23.3555 143.061 -6.00308
30.0774 88.1329 -20.4764
-12.1648 148.445 -0.458829
17.2573 125.931 -14.8861
24.9861 85.9016 -9.85367
7.8831 131.017 1.3708
23.0929 146.686 -2.63143
2.13766 135.636 -6.8649
22.0833 98.0331 -3.36574
22.7043 144.922 -0.897794
-19.1921 125.008 4.92151
25.7805 108.848 -4.13702
3.61095 130.051 -10.2502
-11.5514 113.751 -14.7761
20.5881 125.345 -9.38798
22.4384 113.089 -0.296431
33.9799 89.8886 -17.4481
-2.0733 109.146 3.43331
-16.0092 136.275 5.80219
21.0415 121.877 -13.5293
-16.6276 132.404 -5.40143
25.3289 81.2791 -12.5813
-4.55812 137.807 -7.13396
27.4269 86.236 -23.2383
-6.71422 120.552 5.57541
15.1473 117.427 -18.9334
16.7393 138.657 -11.1371
26.5686 129.885 -9.1211
21.9597 113.943 -0.00912745
4.30793 100.979 -2.02969
16.6478 139.798 -9.80279
0.637418 122.565 -12.7131
-20.7481 123.489 -6.12003
26.8165 97.5153 -19.0306
-22.842 121.659 -5.16029
24.3252 114.865 -2.29244
-7.91511 136.809 1.89143
32.319 93.2985 -17.0022
-18.0696 143.745 3.64129
26.4015 107.617 -13.8069
18.348 126.244 -13.1196
-12.3474 114.887 6.04938
-6.5334 134.807 3.1585
24.4401 96.1663 -21.8648
-18.5121 118.49 -5.33032
21.5937 119.61 -10.8213
-21.1757 122.541 1.98921
25.3513 133.051 -9.92838
8.62032 111.224 -3.65193
22.9159 121.422 -9.59144
18.798 104.658 -2.15917
21.3769 141.275 -8.63438
32.9195 83.1504 -22.529
3.99 143.556 -7.95772
13.3839 102.257 -21.8862
14.2698 91.4996 -2.78787
-13.5125 130.034 4.08688
16.042 140.822 -6.26546
-15.1087 134.165 -3.89303
16.8162 127.22 -11.7423
26.5067 114.357 -5.72249
3.24602 95.9956 -2.56893
-8.86778 125.412 4.57531
10.6559 120.299 -3.07389
-17.2146 122.369 -6.28782
22.253 123.032 -3.03525
-6.92491 117.608 5.39124
21.2552 88.8122 -23.8075
-21.2041 122.86 2.68172
-12.0049 135.174 4.63216
-8.17821 148.441 -5.05522
15.7351 151.759 -0.352476
26.9846 130.276 -10.5726
16.9564 133.393 -13.8375
-7.01037 114.452 -14.2225
-18.7144 121.933 -7.42358
12.5839 96.7635 -21.4056
26.3208 94.533 -19.8264
18.1311 89.5734 -22.603
-1.10245 148.524 -4.12497
19.338 146.279 1.11683
18.0734 133.115 -8.48991
-7.81298 132.191 2.6715
16.0676 151.499 -0.782377
1.41964 115.124 -16.956
-20.149 118.587 -2.28637
14.2724 124.842 -2.44631
21.6644 113.385 -16.4008
-4.08504 129.566 2.89784
-12.8406 135.38 -5.91721
12.6475 98.6768 -3.93014
31.5481 94.996 -17.0576
26.5123 130.678 -2.8509
24.5818 92.532 -6.7117
20.1729 126.615 -6.18517
33.9374 83.6793 -17.138
-3.96697 120.22 -10.6372
-23.4234 131.359 3.10927
-17.5265 119.94 -7.63051
-11.3308 136.622 3.58911
8.12325 98.548 -19.6525
25.3262 115.456 -3.2892
22.5918 126.025 -3.63576
-20.9382 126.89 4.0298
22.5676 103.199 -21.1324
23.0002 117.439 -0.612807
-12.9786 136.127 5.44499
13.0639 112.863 -3.65396
0.0108328 146.714 -4.97876
-17.2361 116.463 1.15582
11.0129 130.456 -15.4573
20.3012 148.757 -1.98186
-17.1709 131.565 4.01791
-7.926 144.075 -6.9109
19.5943 144.911 1.31163
-16.7157 127.127 3.72754
15.595 130.669 -14.8498
21.96 123.133 -2.24105
-7.73795 145.747 1.64442
25.5319 111.042 -3.83411
-1.76896 134.477 -6.6439
22.7753 119.961 -8.52104
18.3058 129.247 -9.81678
12.2071 106.305 -21.7114
21.2172 141.849 0.196854
6.92593 135.04 -11.8321
16.9168 125.506 1.38104
-5.39398 126.943 -9.08392
-1.06453 153.288 -2.82656
-11.5829 127.266 3.68263
20.6849 123.574 -11.7412
-17.4559 117.099 1.84314
-6.48302 121.823 5.99835
10.4789 122.721 -2.84689
19.2993 139.174 -11.1164
20.2898 115.992 0.647835
16.5572 143.285 1.58584
4.11893 140.06 -8.89247
-27.6126 123.99 -2.15146
-6.55222 141.791 2.40161
7.29678 143.843 3.37101
-0.183414 111.682 -17.6747
27.8715 106.695 -12.7257
-16.4886 124.903 -7.51789
-6.3352 135.67 -8.89563
1.67961 139.012 -6.33075
3.21023 133.746 -7.89751
3.42439 120.707 -15.4273
30.9839 97.5217 -10.9787
23.9552 127.401 -4.61863
15.4296 115.624 -19.346
-1.49163 144.253 -4.66611
12.2956 107.37 -3.82023
17.8098 131.04 -7.18661
3.46987 140.868 -8.19849
-11.1042 146.809 3.38661
30.3525 86.2701 -21.916
26.1729 123.585 -10.6761
18.298 132.092 -8.06894
-1.29677 119.007 4.17292
-23.8132 125.963 3.5637
29.2144 104.241 -12.2501
2.87676 121.315 3.85081
1.80435 134.056 -7.41873
1.6403 137.636 -6.42868
25.1457 101.703 -20.3321
17.2816 136.628 0.880205
-2.05508 126.514 3.45762
25.2313 134.616 -9.18523
-18.5585 120.826 -3.25097
-5.21338 115.016 -13.419
2.66165 102.261 -18.4822
13.0519 118.527 -17.8348
7.82808 106.422 -3.69666
23.5769 107.908 -1.63244
-1.46801 142.2 -5.12973
21.1931 104.442 -1.50534
-17.0523 142.385 5.33293
-8.70503 107.752 4.57299
-22.2459 135.293 -0.319918
3.29488 124.287 3.57263
9.19754 132.541 -0.938321
-3.63135 144.214 -4.9952
32.6313 86.1282 -21.0584
25.4672 104.841 -17.1343
-19.7938 122.376 -6.63969
-24.2241 127.095 3.44128
17.595 120.517 -14.3086
-5.29723 122.482 5.90483
21.3326 128.772 -12.4599
-0.072379 124.256 -10.6024
18.418 125.791 -7.42994
26.4999 138.72 -6.08687
23.3949 108.65 -1.25177
18.7556 124.513 -11.6777
6.21613 136.061 -10.7392
27.4771 87.0068 -10.3386
-8.11589 127.977 4.24016
28.4348 87.8025 -10.5167
16.7694 95.2534 -21.6831
22.6568 110.849 -0.633783
-11.8491 124.233 -10.3652
-16.8752 121.617 -5.82572
26.9644 92.6345 -19.7115
-10.045 147.297 -5.07745
5.42838 153.24 -3.30402
-14.9042 124.228 -8.19687
16.3562 129.288 -12.4816
-15.6417 129.961 3.97516
-17.0954 142.87 5.16718
25.7573 133.046 -10.4723
-8.3482 116.754 5.40062
21.8413 82.0547 -10.5503
23.5107 123.593 -7.712
13.1673 121.58 -2.93578
26.323 83.9775 -23.949
22.8826 81.4124 -11.0539
-10.1159 149.159 -3.85891
10.8729 118.925 -18.0323
16.451 124.856 -14.6724
18.2334 110.816 -20.0122
-12.6812 120.089 6.0149
12.1856 106.965 -21.63
-6.94205 147.581 -5.54875
25.0796 141.873 -2.29557
21.8796 90.9307 -6.80433
-19.6856 119.615 -4.15331
-1.97794 128.475 3.95469
16.1027 139.487 -11.4807
-23.3906 133.93 1.84679
28.6046 126.141 -7.6999
20.6604 98.6684 -21.6791
-15.7496 139.071 -1.39755
-16.1216 122.451 -9.68229
16.3011 138.361 1.99617
0.411758 142.839 -5.61197
15.5036 129.449 0.450406
-11.403 135.347 -7.6878
26.9191 136.663 -8.72503
-11.1313 145.86 -4.21356
8.88206 151.283 -5.82697
15.5359 131.079 -10.2827
-0.26856 113.13 4.31559
16.1764 130.801 -11.8063
1.0041 135.829 -6.48975
0.696536 128.512 4.27307
-3.47212 121.008 5.43434
23.9964 123.178 -8.39454
18.8704 95.936 -21.9775
14.4864 96.3191 -2.91261
13.3209 120.705 -2.93577
11.1626 142.44 -12.0482
16.1227 123.703 -0.412839
-20.1246 123.261 2.96653
20.4583 95.5573 -22.5626
24.3928 133.559 -9.58457
-0.350162 110.846 -17.91
-5.09008 117.619 5.4113
13.0848 117.433 -3.19114
29.8446 84.6252 -13.5614
0.553608 118.742 -15.1466
14.6842 90.6979 -2.90006
11.7361 142.806 -11.7381
-6.00873 121.811 5.92547
-13.4133 145.106 -0.19887
12.748 97.1821 -21.3452
8.5935 91.1002 -3.62472
23.3709 125.714 -13.167
28.2307 105.733 -7.89232
-19.7634 138.408 -0.304982
17.4825 145.658 -4.61844
29.0091 99.5882 -8.4756
-20.4781 119.302 -0.0646018
22.8693 116.699 -11.902
20.4438 122.034 -14.852
22.1843 129.177 -14.1107
21.0861 105.593 -21.0635
12.4681 126.304 -16.8685
-8.62904 126.741 -10.2076
-1.88677 124.811 3.75077
-5.48706 138.22 2.36278
23.4959 117.999 -1.22886
-12.5254 138.317 4.46236
-9.84464 141.443 -6.66909
-0.692715 133.062 2.07405
-13.1973 123.303 3.04576
7.93414 142.674 1.98468
32.9305 86.0526 -14.754
17.0175 100.204 -21.0112
0.588199 127.764 4.09335
-9.51701 139.618 2.51854
14.1435 112.757 -3.46553
30.2241 127.482 -6.3038
-1.59949 123.6 -9.75055
20.0468 119.097 1.13194
30.2605 101.352 -12.4139
9.81637 123.016 -14.3509
-19.4305 119.751 -1.23184
-7.36953 146.994 1.61153
17.0371 107.039 -21.4354
22.4312 121.744 -3.94954
26.4736 133.892 -4.91746
-1.89593 101.488 1.43927
22.9569 108.151 -17.2042
-9.87722 125.771 4.84331
-14.7241 114.592 2.89122
-22.4104 120.395 -0.832836
18.0263 129.694 -14.799
-23.5911 132.635 3.56826
18.9135 112.745 -19.5012
0.587577 109.005 -18.651
-17.564 121.016 -7.99294
14.7059 142.523 -8.62482
9.83495 132.697 -1.37793
7.99895 113.586 -17.7297
26.1316 88.6138 -22.1468
-21.2545 122.805 2.5198
29.3529 94.3384 -9.25816
17.4325 125.62 1.99671
12.2396 121.671 -15.9696
7.26567 114.422 -2.57801
-10.2902 120.679 6.43216
21.815 125.023 -7.57529
17.5729 130.983 -6.14032
30.8405 88.0947 -20.2966
-17.0294 126.561 -4.67001
14.7031 140.567 0.985492
3.54327 118.958 -16.1768
16.8779 125.448 -12.951
-18.7053 140.323 5.23214
3.87833 149.512 -6.13588
15.5426 130.153 -12.5371
20.3661 124.759 -0.719526
9.08649 99.0911 -19.8344
18.8899 125.546 -12.0178
8.65753 126.997 -1.51931
18.5856 145.535 1.4263
-8.46238 133.414 -9.93473
7.46313 128.479 -11.0607
11.2343 108.749 -3.97587
14.1112 150.395 -1.51403
13.8572 111.328 -19.4279
22.2938 127.01 -5.59387
-1.35645 104.727 -18.1963
22.0152 127.674 -6.10829
20.6362 124.237 -10.8032
16.8806 118.804 -18.2305
26.4269 132.334 -5.63933
27.7422 95.2484 -7.64079
22.8691 116.802 -14.004
22.6112 128.639 -4.88749
11.1752 113.501 -3.78175
16.4726 127.589 1.54742
20.8682 137.254 -1.34929
9.15256 107.274 -4.04454
23.5392 145.025 -4.41152
-3.62155 134.297 -7.14339
5.98528 152.509 -4.11162
8.51184 147.168 0.843156
26.3326 112.624 -4.59596
-15.6707 121.777 -10.8512
3.44807 106.253 0.922815
6.802 149.809 -6.63691
18.9345 126.938 -0.741931
26.0628 104.518 -16.8016
31.2118 86.1119 -13.5472
-20.7701 134.03 -3.94591
-16.7993 119.781 -10.9397
22.7699 94.6707 -22.9734
-21.4454 126.764 -6.72176
17.4485 99.9987 -21.1504
-16.4544 142.266 -0.509677
-15.3264 119.696 4.01643
7.12473 135.962 -11.9945
-2.75133 154.396 -1.9561
-9.43612 146.152 -5.97673
4.43091 140.025 2.46487
0.262009 136.022 1.35733
-1.17372 141.192 0.507926
-21.1366 133.469 4.45875
10.9068 87.8913 -3.33531
-15.3615 131.944 -4.20785
-16.9762 143.852 4.50769
10.6816 128.116 -15.5674
27.5602 91.7498 -19.7863
7.50384 131.574 -11.1974
10.697 145.996 -9.76551
24.1215 114.154 -2.13439
14.1668 134.006 -14.8026
-17.8275 140.418 -0.273817
19.1818 94.5592 -22.3094
20.6528 90.5795 -23.6396
19.3922 125.244 -12.5465
7.52419 144.491 2.14298
-14.1598 131.495 -6.34118
-5.9911 114.685 -13.8515
-13.6946 137.813 -3.85284
0.378925 131.45 -8.09599
23.737 103.94 -20.7565
25.1032 117.13 -6.15059
22.6987 90.7412 -7.15589
9.58801 143.815 -10.9057
4.67301 112.771 0.856585
-8.67421 146.818 2.13264
-17.3884 121.289 -7.32181
27.3498 128.127 -9.04936
-9.97175 133.173 -9.80683
-16.4718 136.297 5.95153
-18.9281 118.957 -4.27463
11.1114 118.867 -3.3079
0.942548 123.208 3.95309
-3.41407 129.441 3.12104
21.8576 93.8917 -23.2483
19.4699 137.965 0.169914
5.98921 139.665 -10.5078
8.52631 144.92 2.72098
-10.0956 121.672 -11.0485
-11.1468 145.261 3.49293
22.7383 108.862 -17.173
8.49354 131.348 0.11838
11.9905 125.658 -15.9029
16.9109 129.761 -5.78328
9.95335 150.065 0.901814
-20.0768 118.498 -5.24947
-5.64597 144.569 1.62446
-9.51785 141.415 2.56487
-8.79425 109.558 4.86722
-9.97003 141.944 2.90239
5.34823 122.876 -14.0346
-14.549 117.384 -12.637
0.464375 105.31 1.80023
20.0405 86.1881 -23.9022
-18.7327 120.746 0.46757
-12.5843 133.981 -6.38032
20.9532 122.29 -11.4749
23.3038 86.0467 -23.1257
12.5942 100.576 -21.7626
7.39456 152.562 -4.32106
30.0407 89.9043 -19.3421
20.2749 118.459 -16.6924
-8.9551 110.861 5.06538
21.6919 119.845 -10.9792
-13.9508 129.73 -8.08568
-12.9091 116.668 5.65453
22.4173 116.939 -11.2774
5.85562 101.803 -18.8701
18.8471 135.762 -0.659933
18.48 132.297 -9.24847
-23.9393 133.203 3.65898
30.18 81.8016 -17.4201
17.6063 91.8108 -4.00799
-8.35343 124.177 -9.77779
26.8698 135.537 -7.46463
14.5495 89.3235 -3.37758
-3.18515 121.889 5.29384
14.9711 141.972 -8.74941
-27.1914 124.895 3.31506
-3.70548 107.015 -18.4075
23.6227 142.435 -0.574708
-13.5111 125.728 -9.23008
-4.78382 107.122 -18.1097
21.6869 90.5234 -6.95821
22.8728 124.151 -4.17287
23.3705 116.044 -1.3262
23.037 126.509 -5.64918
20.0647 125.377 -6.63411
14.5881 94.6955 -2.76614
-14.1593 146.356 0.347394
10.7742 148.501 0.644933
21.0031 138.074 -1.13415
29.935 100.802 -9.58932
23.8977 126.081 -5.97027
-14.7238 131.107 4.5871
7.87232 121.699 -14.8745
-12.2588 126.418 3.4321
-19.8522 130.024 -6.38591
-18.6392 121.195 -6.90916
-5.38657 111.71 -15.2715
12.5457 143.885 -10.5351
-4.61222 127.696 3.56192
19.4036 97.0831 -21.8677
-17.7332 121.475 1.72684
17.4726 126.454 -7.11093
24.0748 94.1555 -22.0698
-13.6077 134.043 5.18663
32.7842 85.8509 -14.7237
-27.113 121.652 0.7
14.3299 133.333 -15.1007
2.54464 129.263 4.19094
-19.8594 119.698 -2.34345
25.4837 95.376 -6.21126
-7.72211 152.933 0.776785
34.6007 86.7949 -18.0789
20.7326 128.527 -2.49302
-10.7722 107.361 4.70076
13.3628 124.878 -2.69827
26.2604 87.9381 -22.5025
7.0919 111.294 -2.64902
18.8852 148.718 0.0196929
-20.4865 119.723 -0.827515
3.85237 125.292 -13.0574
31.1945 97.9019 -11.4839
24.7008 97.6178 -5.27042
25.1317 132.22 -3.13501
11.0365 134.827 -13.8621
-8.28874 131.478 3.31767
1.90663 110.052 -18.5583
-13.7433 131.742 4.79985
-15.175 115.018 2.94808
22.5101 124.021 -7.19831
7.42869 114.525 -17.375
6.27686 129.959 -10.2298
-4.70504 141.245 1.52339
9.34351 123.085 -2.69031
16.1472 92.4198 -22.0633
19.3811 126.193 -1.02907
-14.808 138.821 5.90299
-11.4246 145.181 3.71393
26.3647 115.258 -6.26294
10.1727 96.7677 -20.7071
3.39299 126.423 3.92173
-4.29637 146.661 -4.48253
3.86298 125.525 -12.9496
24.4986 118.057 -2.7513
-19.0189 120.082 -0.858622
-12.0867 147.831 3.46668
-10.6678 118.144 6.35682
20.1452 114.124 -19.2377
28.2338 129.064 -8.56945
18.6134 107.91 -1.70431
-9.30193 130.303 -10.5368
29.7769 125.563 -7.83055
-12.3115 140.143 4.16921
16.1848 118.749 -18.1861
-15.4137 146.093 1.40884
-11.9777 113.694 -14.7324
18.6027 141.239 1.44737
4.56184 141.085 2.65719
-20.6777 139.818 2.88062
-2.80346 117.006 4.90862
15.3041 111.042 -3.33495
-2.74449 112.4 -14.9436
-4.17379 117.254 5.48824
34.4132 88.2403 -17.6495
-25.8719 130.98 2.3174
14.9866 123.054 -17.698
-18.1104 119.814 -3.98002
-15.6769 138.61 -1.88724
-16.445 120.259 -9.0383
6.4755 154.684 -0.934282
8.81274 115.873 -17.2858
-19.2893 120.35 0.155374
-20.4135 137.631 5.15714
-5.62628 151.012 -3.43368
16.9118 128.556 -6.06501
-17.5404 140.963 5.56158
26.7214 130.395 -11.5875
12.749 142.282 -0.475832
15.9636 121.746 -17.0907
22.7269 128.177 -14.6155
20.412 140.925 0.478713
-16.5724 127.492 -5.28757
19.0222 117.831 -17.963
-18.5902 121.738 1.81029
-10.6529 150.686 1.21969
-0.267251 125.956 3.60411
0.955752 146.889 -5.58857
-4.0591 138.054 -6.97896
25.3949 124.736 -7.179
-17.4101 133.749 5.28192
21.3294 141.045 -0.119681
-23.2909 130.301 -2.47468
15.4857 91.6359 -3.03552
14.9946 132.248 0.404708
1.70716 124.614 -11.761
18.1139 119.374 -18.1821
-9.73315 105.498 4.11842
15.657 131.896 1.89917
-9.8584 129.998 3.8557
20.157 112.789 0.255776
3.81848 117.021 -16.8152
12.5829 147.164 -7.79004
19.2141 118.925 1.17799
14.3447 97.3775 -21.2777
1.13395 117.165 -16.1843
-11.2999 136.84 3.60679
10.6709 121.501 -2.90386
14.4691 132.568 -0.97547
10.3325 128.432 -15.1481
-17.4904 124.035 2.49938
2.84555 138.742 -7.25236
-24.9786 132.663 3.25521
-26.0319 128.824 3.09476
-22.4029 122.185 3.18663
9.40654 132.081 -13.93
29.4775 93.9744 -18.8806
7.0211 129.72 -10.5725
-15.2837 112.269 0.800477
-11.8867 119.277 -12.4562
12.2087 124.571 -2.87756
-13.259 148.887 1.64187
-3.70767 109.727 -15.8639
-9.25048 127.724 -10.2108
-18.3932 134.553 5.27509
6.21749 97.1398 -3.5032
17.8769 118.224 0.521291
-0.0279728 114.497 -16.6168
7.77158 137.372 1.78771
-15.0895 124.636 2.21252
-7.58216 131.842 2.75704
20.9847 118.13 -15.5746
-20.2867 140.008 1.22065
-7.92888 121.903 -10.2972
-15.0172 124.719 -7.84107
24.0075 82.6845 -10.7015
29.0218 104.152 -13.2586
23.4187 99.7034 -21.5328
0.260557 154.032 -2.28244
-15.9364 134.132 -3.93742
19.3631 122.644 -15.0972
5.28789 140.678 -9.69637
0.136031 127.727 -9.09332
14.4114 141.943 -9.66168
11.9458 101.145 -21.4137
3.03123 102.375 0.141555
-7.86359 123.092 -9.94862
31.6132 94.9523 -16.9625
22.978 107.711 -17.4823
-20.9353 123.166 2.65292
-5.95265 114.556 5.03494
17.999 143.808 1.55918
-4.36291 115.074 5.32382
5.89906 105.533 -19.3849
28.8265 103.332 -14.5061
32.9169 83.6181 -22.4162
17.0611 126.52 -12.7742
14.7132 123.495 -17.1124
-0.197301 119.241 -13.7081
28.6697 103.927 -13.7981
-18.1859 118.975 -5.08319
11.9123 133.802 -14.8617
25.1556 124.354 -7.89668
-1.1461 131.161 2.71797
7.54108 123.969 -1.13518
0.086974 145.104 -5.17395
9.39425 127.515 -1.91412
-26.463 127.062 -1.62957
6.56302 140.479 2.81238
-8.99828 148.802 -4.63767
13.9783 134.678 -0.936437
25.8556 116.156 -4.99909
34.3884 88.229 -17.5057
-2.25405 146.729 -4.10287
23.1996 125.478 -5.07124
-16.2944 121.276 3.4967
17.5653 138.885 1.25396
4.57682 114.674 1.05602
20.4737 84.9332 -8.78324
18.9452 110.455 -20.2528
-21.1393 134.375 -2.44708
-5.05015 123.17 -10.1218
7.6227 147.164 2.5337
2.7704 113.615 3.07444
26.5281 104.137 -4.4664
14.4653 91.3858 -21.7649
15.5731 126.62 -1.02478
-19.8895 124.426 3.83683
22.3409 109.533 -0.52125
20.531 118.579 -15.7359
1.22455 121.797 -13.8832
16.1741 102.303 -21.303
-13.5863 141.503 -1.71215
-4.30527 130.653 3.1226
19.6091 102.861 -1.75293
27.9675 134.852 -8.58947
24.809 109.186 -3.04105
7.86119 137.744 0.964817
15.9176 131.887 -11.6415
4.57553 107.593 0.166289
23.4458 119.098 -7.34695
2.36582 119.858 -15.5412
19.3191 123.689 0.892899
28.5699 103.885 -13.9999
27.5963 83.363 -23.944
13.0735 151.707 -1.12109
24.9315 115.322 -2.83333
20.3444 121.667 -11.9212
15.3011 123.915 -17.9586
21.4049 85.7141 -23.9643
27.2614 105.143 -5.97123
13.9077 117.256 -18.5345
25.4218 127.766 -10.5188
18.6801 104.852 -2.27854
-3.94518 100.992 1.47563
0.115496 124.624 -10.6093
19.7081 116.804 0.733136
18.7146 102.007 -1.696
34.3173 85.6911 -16.1885
13.3773 141.636 -11.0594
-5.1794 109.351 -16.0411
10.5692 135.03 -1.48503
-17.1518 122.506 2.38611
33.6125 90.8713 -16.3116
26.564 106.847 -14.1369
-19.3494 119.951 -4.34154
-6.69867 111.016 4.51952
1.17428 131.316 -8.671
2.40183 150.857 -5.07552
-18.4707 116.958 -8.88039
-20.1043 119.662 -1.89477
2.04008 142.091 0.843081
20.4025 99.8279 -2.58612
5.80576 130.89 -9.68671
21.8847 109.134 -0.502082
14.466 111.878 -19.2455
-4.72557 150.308 -3.4816
16.7522 112.036 -2.63321
-12.8696 124.979 2.54767
-17.7683 117.284 -6.01566
14.3187 103.053 -3.7426
3.35683 142.365 0.813724
18.6129 138.727 -11.7987
24.6554 129.702 -2.92024
22.1001 126.888 -12.7969
23.8999 118.253 -1.90592
19.5824 125.035 -11.6677
8.39384 153.199 1.94359
17.2092 122.223 -14.0875
15.286 130.168 -15.9064
-5.40428 143.62 -6.01343
28.8898 129.498 -9.8054
15.3625 93.9215 -2.40009
30.6053 94.4506 -18.3637
11.7999 136.992 -1.43532
22.7274 121.105 -7.31677
-10.967 124.432 -9.80487
-8.61143 117.177 5.51407
-20.3056 133.081 4.1441
25.3394 126.391 -5.89787
29.5364 85.2835 -22.7694
2.35721 149.004 -5.85654
26.0388 114.167 -9.74687
-12.7304 134.236 5.12964
-16.4507 121.424 3.35252
-9.09785 136.774 -8.92531
-19.5764 119.984 -2.05435
18.6584 128.958 -6.22278
16.4739 97.4162 -2.19652
-19.7675 124.86 4.85396
-13.0245 126.456 -9.20216
-18.8393 132.449 4.09364
25.1634 98.4804 -20.4646
15.704 100.763 -21.1044
22.2845 117.103 -14.5796
-13.5552 144.768 -0.207109
-18.569 120.718 -7.57272
5.4599 96.9209 -3.40582
6.66543 138.025 -11.0772
16.9829 103.475 -21.2931
24.2879 84.2009 -23.9641
9.71303 106.515 -4.12248
4.00823 138.829 -8.76892
-8.43366 135.901 -9.67414
8.52451 154.664 0.570452
17.9592 140.921 -7.63433
8.77139 131.676 -0.606624
23.7929 107.351 -2.02314
20.8024 91.4355 -23.5253
-13.6459 116.535 -13.1296
-24.3438 128.983 3.10858
-14.313 133.43 -4.95228
11.1082 143.094 -0.315022
12.0493 102.376 -4.00138
20.959 125.949 -6.58293
-13.5572 117.388 5.12569
-17.849 119.599 -6.31067
20.1538 127.29 -2.5079
-2.01424 114.779 -13.9973
25.3974 139.31 -2.43175
13.4443 131.041 -1.93684
-18.5539 142.477 0.827379
16.2974 114.782 -2.70787
-12.5622 144.947 -2.04634
11.0001 143.591 -0.275543
26.6033 114.029 -5.73746
-4.0881 148.875 -3.64282
4.56448 125.277 -13.0743
-4.04829 120.68 5.44784
-19.7611 121.224 0.488333
-6.95413 141 -7.67598
28.7602 92.5224 -8.75852
4.80087 147.764 -7.37472
9.85448 147.097 -9.20243
22.6339 146.601 -2.13394
-19.1558 137.524 -0.735469
14.5911 121.277 -16.8269
-17.8563 124.723 -5.96262
17.1059 92.1765 -3.37127
-23.4198 134.465 2.10619
12.58 143.852 -10.5651
-9.47167 147.178 -5.73391
17.4579 125.464 -14.2792
4.04274 147.457 -7.29212
25.1132 134.778 -2.67808
15.9975 88.0056 -4.87116
1.32453 112.804 3.75085
-15.5774 123.706 -9.07397
15.4334 132.132 -11.774
7.78126 137.091 -11.6752
25.5644 111.642 -10.879
22.5545 120.295 -4.835
-13.7295 145.433 4.6228
26.6902 109.086 -10.9904
-6.4664 107.101 3.34923
10.6801 149.732 -7.11738
15.2582 116.866 -2.77618
16.6803 129.173 -6.19177
23.6015 101.446 -21.2376
19.53 100.592 -1.95706
-8.55437 118.563 -12.4906
17.9485 120.491 -13.4327
4.97451 143.434 -8.89299
-17.477 120.406 -7.81991
-12.0474 146.515 3.75764
22.7672 147.068 -2.48573
14.7494 128.907 -16.5607
18.5678 123.926 -13.9879
-3.15867 104.226 2.26944
-10.7657 136.408 3.43219
14.2579 100.414 -3.64307
-3.08321 129.927 2.95189
-3.24929 132.978 -7.27079
3.18356 151.881 -4.41124
20.8422 111.131 -19.7814
-13.9365 135.992 -5.3362
-5.68444 137.787 -7.57303
21.5606 87.7759 -8.00804
19.8757 108.23 -21.1474
15.6694 128.161 0.461777
19.131 145.623 -5.68166
-14.7656 140.203 -1.12648
-14.7192 135.719 5.28533
-13.076 148.887 1.50247
-14.7887 120.25 -11.4653
-0.101827 108.795 -18.7381
22.9679 121.294 -8.74566
-8.14362 148.574 -4.98138
25.9195 90.1236 -8.56199
-13.3418 140.307 -4.69929
23.1946 124.207 -5.52902
9.9304 152.687 0.964639
-21.1432 139.324 1.93387
2.62641 125.804 4.27789
26.4104 139.126 -3.84389
24.5805 97.8917 -21.3786
-6.96314 147.405 -5.63504
-4.59164 117.871 -11.7611
14.6945 114.091 -19.303
22.1599 122.813 -2.85042
20.6008 132.929 -2.52101
27.1862 132.152 -3.97258
28.0027 106.558 -10.6007
-8.75046 148.515 2.12869
-16.089 128.445 -5.50862
-15.4012 126.032 3.28106
22.9779 125.965 -6.15361
-14.0007 123.825 2.65607
9.47339 126.807 -2.09007
10.9925 145.789 -9.75139
26.6144 134.577 -3.69448
15.9727 101.55 -21.1653
18.4073 127.234 0.0878017
15.7152 124.916 -13.8951
-22.1277 130.361 3.22652
-0.891584 110.663 3.67579
-1.6312 137.917 -6.11275
-20.4441 135.913 5.38213
19.2337 125.439 -13.1163
19.1033 125.089 -13.3815
-2.21362 108.88 -17.8945
20.0305 108.559 -0.807649
-12.0803 128.49 -9.13475
14.2335 112.451 -19.2275
-3.44188 114.819 5.14522
21.3297 129.434 -3.64507
-8.12468 131.289 3.08091
23.1727 94.6287 -5.49045
20.9752 130.667 -12.2949
22.1954 86.4431 -8.99447
27.8468 127.403 -9.01715
-9.61258 128.049 4.51568
9.14695 112.766 -18.6388
0.846288 132.543 2.48807
4.52654 112.037 1.0141
18.9326 146.896 0.995139
-21.8017 121.972 1.81929
-16.3181 112.49 -1.86635
19.9654 111.217 -20.2045
33.8768 87.4311 -14.9823
11.9164 106.864 -21.6447
-13.9987 139.952 5.55477
13.8613 90.9267 -2.7844
27.4999 132.963 -10.4351
-15.2958 118.19 4.22436
7.28514 133.744 1.69823
17.8771 124.917 -13.8774
26.389 136.349 -4.31299
18.3457 133.287 -13.1997
22.4497 131.462 -3.57447
26.1854 115.193 -5.08951
-7.605 141.352 -7.7678
6.71081 107.657 -2.92356
-8.54289 113.6 5.10798
23.3293 143.451 -5.76444
-7.54473 142.248 1.88056
17.4672 120.415 -16.6921
13.9411 146.969 1.0587
10.926 151.487 -3.5627
20.9456 115.507 -16.7487
22.7829 134.753 -10.3616
-15.0124 126.986 3.89799
25.9609 128.012 -9.39665
26.4617 92.0832 -7.69141
0.115529 101.173 1.13639
25.0825 83.3357 -10.7523
-25.1553 119.838 0.754411
-17.5898 142.998 4.73607
6.67451 140.959 -10.7546
13.9183 136.25 -0.290165
6.62629 104.925 -3.11177
5.98474 98.6721 -3.35414
0.555173 117.404 -15.7353
6.32774 93.2503 -3.60787
8.81251 106.541 -20.9428
-5.61291 142.15 1.44717
-11.7219 131.429 -9.64239
29.3638 98.8741 -8.76187
-13.2835 142.829 -2.79985
-24.5259 120.971 -4.00741
-9.34268 136.955 2.85563
2.22723 100.78 -17.9596
16.2189 144.999 -3.71845
-11.6821 136.732 -7.12715
16.191 110.128 -3.11679
10.7117 123.286 -15.2851
-10.6875 123.719 5.53088
22.2003 88.5993 -8.01628
-17.2264 136.093 5.93879
-18.4034 120.557 -4.24257
30.2946 89.3013 -11.4117
-18.6414 123.108 1.9106
-14.5802 130.737 -6.66741
6.81519 116.414 -1.67729
8.03042 147.462 -8.56055
-0.824784 142.427 -5.08499
14.6447 105.128 -3.72038
14.5084 98.2453 -3.31021
17.0505 116.865 -19.0855
17.1568 131.759 -10.8104
16.3321 135.314 -12.4119
-18.7771 132.249 4.02722
24.128 115.61 -2.108
-18.1259 116.004 -0.284107
-5.41911 112.25 -14.9756
-2.57994 135.685 1.72637
8.69284 142.404 0.512429
-23.1624 121.365 -4.85745
10.5452 113.466 -19.4578
10.7674 119.321 -3.23198
17.7224 113.27 -1.76253
4.89309 111.174 -19.7022
-15.0547 126.731 -8.01096
-15.373 119.301 -11.6968
-8.23358 110.178 -15.3109
20.9053 125.321 -1.44399
-15.8908 133.645 -4.24742
7.03766 122.916 -0.830846
10.036 146.24 0.300605
27.1208 136.889 -6.72161
0.751555 133.135 -7.64303
10.4802 93.375 -3.73137
13.6327 147.258 -7.23417
3.60081 108.843 1.33516
22.1031 129.451 -14.3347
18.4349 98.4808 -21.5199
28.3981 128.933 -7.33234
20.8025 108.344 -20.9612
8.52456 144.165 -10.4079
-20.7355 121.606 -1.5763
11.6291 123.483 -15.466
13.5014 150.397 -2.99793
-7.28756 107.581 3.92395
11.6363 133.654 -14.6989
8.31437 154.725 0.664722
19.3122 132.543 -12.881
32.7095 83.4912 -17.0905
11.4271 119.633 -17.4326
26.7194 91.0166 -21.2497
17.8932 124.766 -12.4422
13.9912 96.6338 -21.3983
27.3637 94.5056 -19.4007
18.2093 146.514 1.55863
28.8251 93.6117 -8.74195
-16.3172 120.978 -7.80524
10.9669 111.238 -3.95473
18.8073 98.1386 -2.10738
5.08086 98.3946 -3.21738
7.58887 124.791 -0.899942
0.846987 134.211 -6.91783
17.3224 130.136 -8.71018
13.9296 114.174 -3.38183
29.3656 96.4141 -9.22668
15.8892 103.184 -21.5523
6.40893 143.728 2.18173
-5.64507 146.089 -5.56242
-8.84242 130.375 -10.1842
21.6152 81.0412 -10.5425
-0.573193 123.712 -10.3855
22.3045 99.6614 -3.2324
27.3414 123.949 -9.30751
-16.6701 123.816 2.18193
-21.8929 121.558 1.13262
14.7279 115.715 -19.3423
19.5532 86.6622 -7.64736
-10.764 113.284 -14.9314
9.29401 128.036 -13.4571
-8.39853 149.32 -4.45704
11.8374 111.442 -19.8802
-18.5812 126.807 5.00003
5.78797 129.527 -10.4484
15.4178 149.118 1.21787
-18.6485 137.616 -0.829469
-7.48364 122.23 -10.1916
11.9217 110.037 -20.4608
8.91142 96.684 -19.9552
1.6586 103.224 0.668212
-7.37234 115.319 -13.7156
12.1056 116.027 -3.58953
18.0405 126.188 0.919606
14.6648 147.464 1.52982
-22.5211 126.994 -5.94704
11.565 99.1025 -4.08356
15.007 133.797 -14.1652
15.0426 122.565 -1.8773
3.40137 140.222 -8.1288
0.246075 150.11 -4.65723
-27.5664 125.531 -2.2622
21.2326 95.1508 -22.723
4.80653 137.083 -9.39083
28.6969 102.338 -8.11079
4.09113 142.248 1.47245
18.6686 124.277 1.32959
5.67485 129.852 -10.3089
-15.8259 138.102 -2.29861
-15.2315 136.987 -2.82654
26.4088 136.556 -3.89127
4.32936 103.31 -19.0079
-13.6233 139.171 -4.95081
-3.36813 124.685 -9.3879
18.0341 125.723 -11.857
-2.9773 134.078 -7.0212
17.1862 137.441 -11.1693
17.1316 128.634 -12.1132
28.3784 91.7867 -8.91116
23.8323 80.0128 -11.6798
9.13486 121.46 -15.7179
2.00708 141.668 1.24977
-13.6664 142.828 5.85588
-12.6374 149.526 1.65875
4.41266 111.731 -19.1429
-18.4699 120.344 -7.56379
3.73556 103.483 -0.0128475
-16.0723 133.125 -4.50523
13.1758 129.113 -2.18829
23.3868 135.42 -8.89214
-14.746 122.068 -10.7626
-25.1667 121.02 2.79255
9.42744 142.09 0.252882
14.1964 91.4393 -21.7155
-23.9526 120.269 -4.08205
10.1526 110.539 -3.92859
9.25861 128.222 -13.5185
-10.9904 124.654 5.25644
-11.3772 150.314 -1.27955
17.3448 145.893 1.81986
1.32728 149.716 -5.18692
15.5414 130.147 -12.6475
-20.8221 139.694 1.78382
7.67846 141.047 1.88253
-17.0804 118.581 1.70778
22.188 126.979 -14.1305
23.0403 96.2329 -5.18961
-4.50989 141.625 -6.14071
2.36 126.619 -11.3484
-10.6989 140.919 3.35245
21.4364 125.924 -2.21943
8.99086 146.713 0.682306
30.6146 98.7986 -15.5718
9.69741 126.554 -2.31377
25.7573 81.2363 -25.1779
15.5363 145.881 1.79861
21.7394 107.801 -0.764361
-19.4656 119.896 -0.903035
-0.713868 103.41 1.54399
0.427509 109.036 -18.6457
19.8082 127.816 -6.4658
12.5409 144.662 -0.167218
32.1257 93.1065 -17.3296
22.4955 126.098 -3.45818
4.58788 132.736 3.20748
14.4537 102.818 -3.72231
-8.53597 146.994 -5.82023
-5.53203 122.156 5.88798
-4.82331 114.803 5.14311
-2.79771 139.453 -6.14783
24.4462 88.3308 -9.03541
29.5194 124.671 -8.41898
18.1954 110.111 -1.87257
-20.2684 140.671 1.94521
5.8151 96.161 -3.49892
-19.4171 120.015 -4.45731
10.4591 133.815 -13.8899
-1.38369 120.984 -11.2424
1.57741 124.678 -11.5199
29.8689 91.5565 -9.97043
-12.8714 127.168 3.07946
21.325 100.03 -2.78158
-12.1408 130.627 -7.9326
7.39084 144.382 2.23202
21.1021 90.8369 -23.7359
-11.8139 125.436 3.20294
-19.8438 132.338 3.94473
2.08219 153.245 -3.1186
10.3647 120.281 -3.05592
14.4452 104.258 -21.707
17.9133 124.607 -12.6673
5.89957 120.571 -15.102
-10.9637 125.398 4.11219
-5.50154 143.166 1.40108
17.733 127.287 1.50213
16.8945 111.116 -2.72436
14.8088 96.6534 -2.85861
-27.9117 125.379 -1.43654
6.73918 119.979 -15.7569
-6.90093 107.518 3.68398
9.64242 100.866 -3.89952
21.4379 114.037 -16.5237
29.7885 84.3575 -13.7712
27.5505 124.62 -8.93148
5.30903 142.481 2.50743
-17.701 123.928 2.55894
-12.5362 146.482 -0.447556
2.97655 141.151 -7.70602
12.7173 86.3461 -4.28414
20.5641 126.596 -9.326
14.9824 129.871 -9.8604
24.9478 116.558 -6.68355
24.7308 123.817 -8.07513
21.3244 129.109 -6.70326
-11.8292 141.71 3.96767
18.2023 131.783 -7.70978
12.4466 114.164 -3.61305
-8.15104 129.9 3.73894
-3.01504 112.477 4.41218
-3.19299 138.84 -6.50502
13.6867 141.038 0.0766223
-13.541 137.451 5.5794
20.2494 108.644 -0.694724
24.9805 114.247 -11.7696
-10.52 150.8 1.21614
20.1573 123.572 -11.2756
5.80544 97.3454 -3.45047
-25.4392 130.181 0.205883
-15.1348 132.627 -4.25099
4.1679 112.721 1.53907
20.8335 147.051 -4.58098
-16.3654 131.187 -5.83505
-0.574604 138.331 0.851424
19.6391 93.8509 -22.4851
-4.31817 140.469 1.62434
-14.0211 115.806 -13.5885
17.8519 88.8756 -22.7211
-16.6156 124.392 4.01226
7.15721 141.445 -11.0341
6.29136 118.846 -15.6322
7.3239 141.943 -11.0788
30.2967 99.4942 -15.6227
-22.5594 128.286 -5.82601
22.4826 120.66 -2.91295
18.9705 144.369 -6.61775
-13.6743 142.05 -1.83017
19.2451 130.044 -14.765
25.5644 139.297 -2.70927
-20.0319 137.643 -0.476586
-6.46674 114.341 -14.1806
26.929 80.251 -15.6184
14.514 135.775 -13.7435
-2.57147 146.709 -4.06135
20.6778 118.025 -11.5158
0.348607 154.166 -2.11612
11.8501 92.9872 -3.67241
16.5369 105.197 -21.4686
-11.0545 135.243 -8.03507
15.3291 101.013 -3.40805
10.1508 96.8049 -20.6945
-17.4441 118.176 -11.5693
-4.84201 134.083 2.9918
-20.3396 132.188 3.99422
-19.645 121.096 -4.23223
15.0412 122.164 -2.00544
0.422137 104.498 1.41604
-5.53022 114.102 -14.026
17.1342 129.465 -11.517
28.4557 88.6752 -10.1334
-12.9151 114.938 -14.1164
-15.3101 129.764 3.9801
-21.4924 125.789 -6.20269
6.36164 132.34 -10.2213
14.7093 149.472 -2.83665
24.3475 133.653 -2.88284
9.42031 127.867 -13.7692
22.1515 127.853 -13.4732
22.8471 121.686 -6.95891
17.1767 127.384 -14.5478
-2.46905 114.283 -13.9583
21.3726 132.024 -3.18097
7.21716 125.244 0.0436802
16.5747 143 -5.90737
-4.20992 110.892 3.83055
6.83685 130.05 2.06991
26.5191 97.894 -5.82688
23.1775 137.275 -1.57995
7.57835 131.028 -11.0846
20.4998 90.0231 -23.633
1.59005 134.572 -6.97286
-19.3823 137.87 -0.553973
-8.90821 135.074 2.73751
25.7033 133.116 -10.361
1.13838 124.733 -11.1827
12.2963 119.256 -3.0798
32.4521 94.3634 -13.5434
18.1687 141.33 -7.81835
26.3781 124.909 -8.33112
30.6197 87.8537 -12.4662
20.0601 132.073 -12.6891
14.9235 129.867 -8.06803
29.7232 100.053 -16.6008
21.2218 128.82 -3.06193
2.22414 110.489 -18.5165
-19.8352 118.992 -1.36365
-13.8242 120.319 5.51829
26.4168 103.562 -17.969
-16.2931 114.428 1.4243
19.3004 139.834 0.729812
21.5802 144.097 0.60056
-18.2711 117.832 -5.30961
-9.62734 135.682 2.90949
3.47171 100.589 -18.1534
7.55597 115.678 -2.64044
23.8444 118.62 -7.55192
-12.4626 117.559 -12.6483
23.2906 113.375 -14.5194
27.8126 88.7854 -21.8823
28.5669 125.544 -8.22262
14.0239 102.815 -3.74743
30.8331 99.2343 -14.3711
13.9815 139.825 -13.4559
7.53508 103.183 -3.89826
3.44705 103.787 -19.176
15.498 139.874 -10.478
14.2753 142.343 1.16238
25.252 136.159 -2.26079
29.9784 101.338 -14.4353
22.2779 122.525 -10.1144
18.1665 111.834 -19.6552
2.05673 107.473 2.03366
-25.8692 122.246 -4.14746
19.9316 126.205 -14.9478
5.27829 109.027 -0.734105
12.6275 102.048 -3.85695
32.1409 86.4066 -14.1732
-3.34079 144.696 -4.78384
22.3829 129.451 -14.808
4.16691 139.391 -9.0812
25.0687 125.957 -12.2694
-2.22791 106.67 -18.6822
20.1109 118.612 -16.8648
2.92652 109.3 1.96776
-17.1078 124.198 3.11487
3.36291 132.122 -8.7869
8.57249 121.06 -15.6439
26.671 138.179 -6.9309
-11.6878 116.196 -13.7089
-11.8055 140.139 -5.63669
-19.9051 121.355 0.76018
-13.1652 146.635 4.00137
-10.9674 125.379 4.13022
29.6257 94.5016 -18.696
-24.332 127.06 3.47955
26.937 107.538 -5.88625
3.22175 129.933 -10.2346
-8.22394 148.201 -5.1883
22.9265 126.054 -4.25621
20.3466 123.201 0.643652
-16.6343 112.975 -1.45661
0.339062 142.307 -5.55929
9.5032 146.194 0.504843
27.2817 90.9495 -8.6734
3.0291 121.466 3.74016
27.1476 88.0567 -22.5201
31.2032 98.3486 -13.4301
15.013 132.39 0.717484
-7.64478 140.579 2.08323
-13.2885 143.973 5.17867
-20.3992 121.541 -1.49622
16.846 146.934 1.96542
-10.0664 146.173 -5.41128
19.1337 137.629 -11.9726
31.7549 90.4736 -12.0632
24.005 113.245 -13.4526
0.816983 116.154 -16.4894
25.2696 142.257 -2.61359
7.21682 144.048 -9.8908
-16.6905 113.173 -1.09133
18.7005 115.249 0.098838
20.5292 148.647 -1.50582
-1.39025 121.238 -11.1218
-25.1391 123.791 3.991
-15.7869 133.659 5.26327
24.9077 138.376 -6.79385
-15.4011 123.099 -8.53154
34.5655 85.4551 -17.4985
3.90834 130.341 -10.1176
23.2119 109.371 -16.0058
24.3023 94.424 -6.14153
-13.2267 140.777 -4.54631
10.3424 110.213 -3.98099
8.20346 103.707 -19.7248
-19.7672 116.455 -4.12419
25.1863 87.3832 -22.693
-9.71055 132.648 3.70781
21.3593 126.459 -6.35609
33.0707 91.2298 -15.2672
26.4196 136.032 -4.26594
9.20668 151.662 -5.56183
21.2579 126.902 -6.70167
-4.63872 103.235 1.8698
22.3765 121.737 -6.09424
6.18728 107.785 -2.2306
0.5107 130.919 -8.30305
-15.3187 130.475 -4.78766
32.3559 82.5519 -23.1808
23.4305 140.556 -6.67226
23.5004 111.983 -1.6199
-8.94842 151.133 1.75039
2.84831 97.3525 -2.30184
-21.6669 119.357 -0.0586794
6.88484 151.594 -5.15917
28.9844 129.476 -9.59461
9.3404 130.447 -14.2226
1.55942 115.209 4.14045
-8.34303 141.418 1.58158
-18.1259 142.154 4.90874
30.8772 94.988 -18.1402
4.81423 105.461 -0.666608
4.98092 137.946 2.08257
-16.8681 120.674 2.64186
31.0042 96.0813 -15.9293
16.3199 139.346 -11.2533
22.2192 142.838 0.0645167
11.6312 148.396 -7.82326
15.1685 134.133 -8.71677
-8.76564 112.638 -14.9663
22.1923 126.802 -14.1383
-22.6281 124.005 -5.31192
-19.3723 133.61 -4.93705
23.3025 108.903 -15.9415
21.9463 107.058 -19.8491
3.41398 122.364 3.40605
-10.4913 144.076 3.07158
9.07557 139.497 -11.6046
20.4937 105.117 -1.75977
14.9232 133.429 -11.3358
15.4672 145.409 -4.36569
-8.47962 118.016 -12.6402
-9.24478 109.311 4.82506
20.9775 96.639 -22.3458
12.6298 122.079 -15.8665
-16.0498 133.626 -4.26985
18.9982 111.247 -20.0231
-7.21351 109.824 4.34828
10.8733 104.156 -4.21163
1.41917 110.914 -18.4108
-8.90862 147.683 2.2409
1.57567 147.64 -5.94436
15.9953 135.07 -9.41795
25.7065 130.916 -11.6832
18.1312 107.122 -21.0931
15.2507 144.646 -5.02839
8.44189 92.3372 -3.68805
15.7317 138.942 -12.4762
30.2918 98.6969 -9.77075
-7.91546 119.156 5.59422
5.9154 111.563 -19.6585
31.3119 98.0823 -13.2098
-8.38245 131.573 3.16848
17.2678 106.069 -3.11459
24.1574 89.6489 -8.32609
-20.7385 121.989 3.1263
17.3424 138.037 -10.4357
22.0696 145.649 -0.651883
2.41805 152.354 -3.87809
-21.3302 119.893 -1.64978
15.7547 137.134 -12.805
22.8877 103.683 -1.90211
27.9547 94.5789 -19.2003
-8.44073 131.586 3.38649
20.5461 103.129 -20.8451
-12.0375 137.106 -6.49438
9.35592 152.269 -3.74274
-10.9189 123.997 -9.9689
10.5296 141.29 -0.118038
18.1189 149.733 -1.37197
-14.1244 148.102 1.79796
-0.12833 123.937 -10.6497
25.2167 100.993 -4.28138
-9.50276 136.96 3.02295
-14.1286 147.122 0.930468
19.8403 131.922 -2.20095
20.9799 94.7544 -22.871
17.3872 130.377 1.41177
6.91579 103.48 -3.71417
26.4221 133.885 -6.05203
-9.35644 134.103 2.81757
16.2577 131.477 -11.2938
-28.0784 126.143 1.57479
11.7931 105.605 -3.9296
-14.3936 113.777 2.4633
-16.2462 113.77 0.292072
17.2206 122.516 -13.7788
27.3593 104.949 -14.3543
3.69836 138.55 -8.21054
-5.7725 107.506 -17.2315
-7.22404 133.752 3.05263
-2.49501 136.669 -6.47385
-3.77558 126.22 -8.88302
-2.70166 131.107 2.67067
29.8871 128.449 -8.38204
6.31674 133.069 -10.2918
-20.858 125.928 -6.90454
10.157 116.003 -18.6399
23.1509 117.212 -7.8483
5.34162 153.322 -3.14885
-3.45863 117.476 -11.9324
14.3186 140.142 -12.8349
22.272 126.901 -6.42447
7.18883 97.7837 -3.54407
24.5342 119.001 -5.54789
-23.3768 120.409 -0.172521
12.8276 86.7071 -4.1268
-9.21786 150.571 -2.82433
10.8152 108.489 -21.1359
24.608 137.277 -1.80365
23.6367 87.4285 -22.867
-17.6668 121.52 -5.13069
23.5813 116.359 -8.20412
12.0245 149.037 -6.93472
-6.0224 108.479 -16.1934
-8.22884 153.242 -0.390323
15.0707 134.633 -9.52586
-2.36992 105.593 -18.2907
-17.792 126.833 5.12876
-17.6648 123.074 -5.90465
13.61 149.026 -4.68855
26.7562 91.726 -7.96747
20.4741 117.649 0.925446
25.6879 114.948 -9.29613
15.7078 90.136 -3.48881
29.7453 87.0962 -12.1252
16.7263 131.589 -10.2307
-14.2808 112.989 3.06778
-21.3178 124.077 3.9653
11.4306 105.627 -21.6551
-2.98041 125.076 4.50321
4.72146 123.015 -14.1797
14.2722 86.2233 -4.69774
-4.61317 139.941 -6.43082
-0.18943 121.947 -11.971
18.8246 135.251 -0.450642
22.4617 108.005 -18.4037
7.53364 142.345 3.3703
29.8897 100.372 -9.21396
-20.0872 122.221 -6.43546
20.0124 134.277 -1.80406
16.5709 130.565 -9.65262
20.8862 147.096 -0.238355
14.9366 136.323 -13.0632
-24.1376 133.441 2.84109
17.7132 130.62 -10.5063
26.3764 82.2219 -13.1971
18.1046 124.254 -12.967
-20.2168 116.973 -3.51455
22.5747 143.357 0.159509
21.8198 127.153 -12.8472
19.0989 123.916 -13.8239
15.2392 144.647 1.68477
19.822 133.743 -1.55502
16.9113 129.588 -11.5495
15.192 131.507 0.325955
18.2549 129.717 0.13758
14.0447 123.273 -2.65639
17.3264 130.225 -5.57315
7.8923 119.667 -2.28365
28.0708 90.6145 -9.36597
20.4961 114.958 0.496048
25.3089 130.708 -2.71286
23.443 94.4511 -5.68107
19.6945 142.55 -8.08777
-4.86047 141.865 -6.21722
11.5816 148.777 0.607946
13.8086 136.084 -0.50546
8.4962 119.498 -2.61891
-0.475295 103.816 -18.4686
-21.8735 132.95 -3.25707
31.0294 88.5799 -12.4366
5.37563 104.107 -1.55125
26.1677 95.3236 -19.9096
18.3966 149.624 -1.70517
21.0837 95.5573 -4.45781
-20.0387 135.392 -1.45773
29.3063 104.017 -12.3652
7.666 109.198 -3.28566
22.2178 141.602 -0.495625
-3.51085 115.649 -12.8177
-5.10077 141.163 1.81786
21.3899 135.033 -1.80661
22.0217 85.2166 -9.40377
6.59961 134.388 -11.2164
22.8533 120.434 -0.739054
18.7203 133.902 -0.12164
18.8872 148.344 -2.92425
22.497 123.262 -3.49211
19.6557 125.076 -12.6703
-19.8521 119.833 -2.42621
17.5892 95.3479 -21.6135
15.8931 127.838 -10.2214
19.6254 126.133 -6.79817
31.7974 96.4828 -12.8532
9.54213 99.3732 -3.97161
26.8315 131.662 -5.06752
2.26299 108.183 2.1615
-17.631 132.843 -5.62086
17.6412 115.724 -0.734402
1.63586 115.694 -16.9786
-17.3963 117.881 -11.7038
-17.28 121.374 -7.00763
-12.1268 117.961 6.07599
7.65394 136.843 3.01133
-12.2671 130.665 -7.66936
-18.2546 117.526 -5.17326
27.7825 129.78 -5.43797
30.2918 99.0509 -16.2077
-24.6168 132.744 3.38908
9.44285 90.8898 -3.47862
6.56136 140.781 2.85383
-3.56884 125.014 5.02524
-1.63466 110.33 -17.0992
20.1515 119.107 -16.0927
-16.2873 121.983 -9.6063
26.0796 99.7797 -5.63945
18.4088 133.889 -13.1555
-19.3816 122.537 1.82515
-8.66431 142.958 1.84885
-0.818238 129.172 3.85361
15.1979 130.411 -11.7056
21.9235 129.316 -6.28734
21.8393 122.904 -9.19128
24.6969 142.486 -2.08202
-12.7767 139.787 -5.33754
-6.61968 112.995 4.69568
22.1021 117.089 -9.9493
-19.3393 141.692 3.77229
16.2842 134.599 -12.9799
14.9643 134.075 1.63549
29.6407 96.7565 -9.39051
9.84108 151.178 -6.18336
3.26478 126.992 4.09824
20.4021 148.687 -1.32626
-19.8189 122.147 1.26726
14.8102 96.3255 -21.5786
12.2419 125.066 -14.9749
-16.3413 131.176 -5.84179
16.3596 125.832 0.146375
-16.9558 134.638 5.83203
-9.17246 129.001 4.12684
-6.4851 139.205 2.04183
34.546 86.6893 -17.733
18.7396 137.482 -12.141
26.5007 124.753 -8.90867
-9.92198 104.766 4.00857
17.4158 103.519 -2.71358
22.7836 130.146 -4.4808
19.8669 124.401 -10.3559
-18.9671 133.548 4.53323
-24.7577 120.182 0.7878
14.0004 145.081 -8.04704
-22.3803 121.287 -5.29889
0.495213 130.541 -8.38255
-14.9608 146.543 3.60971
17.7119 145.345 1.70675
14.2023 91.4023 -2.77707
-21.1162 138.532 4.32238
15.4207 101.573 -3.39771
5.76338 131.414 3.19908
20.8934 121.772 -14.1632
-18.2971 119.639 -4.92867
-6.84179 120.347 5.52301
-17.0559 120.939 -5.76377
3.78545 97.2714 -2.72263
-13.66 142.058 -1.88325
-9.24996 143.02 -6.80019
-15.1686 120.578 4.40311
-0.0900682 101.539 1.18293
20.9799 111.256 -19.5797
21.6991 115.207 0.16299
-18.7547 121.877 -7.16118
24.2166 127.553 -12.7843
-5.20307 120.437 5.41015
29.6226 86.7774 -21.7158
22.2754 144.597 -5.64686
-2.80916 131.705 2.70828
16.3677 130.535 -9.30131
6.43774 108.649 -2.47963
28.5204 102.715 -8.23687
6.85642 120.611 -1.10196
-21.2524 126.433 -6.7589
-13.1629 138.288 5.17938
7.71092 123.209 -13.3156
-1.61807 120.704 4.37415
-1.94553 146.137 -4.20995
15.3739 129.016 -8.24036
-16.2435 128.385 -5.12803
-8.21582 121.345 -10.4867
26.1377 102.544 -19.0001
10.0371 143.508 -0.0279257
11.6987 93.6434 -3.77274
-0.226426 137.901 0.979288
22.5625 119.125 -9.78872
8.12769 130.702 -12.3386
-23.2939 122.672 -4.87096
7.59583 96.5991 -19.54
-8.1082 139.894 -8.29043
15.1434 90.1918 -3.23151
-17.883 121.098 -5.54817
-13.0869 108.681 4.74448
13.889 134.504 -1.25325
27.7109 106.234 -13.2315
9.98511 134.234 -0.492073
-14.1233 127.995 4.08305
-12.02 147.634 -1.14641
-6.33225 146.283 -5.96951
-7.86595 127.724 4.20632
-4.47425 130.444 -8.29102
-9.86093 107.714 4.71599
-18.6688 120.113 -5.62507
18.7206 125.688 -13.0493
15.8057 127.429 0.171274
22.8129 128.928 -5.3634
25.8586 116.277 -5.13051
-0.59285 112.932 4.30888
15.4467 90.9585 -21.9372
-14.9725 141.1 6.17842
22.3285 119.347 -10.1344
20.9016 92.6145 -5.36329
-17.2141 125.292 4.66817
16.725 127.52 -7.1825
16.5142 118.465 -1.10985
-8.41093 131.868 -9.96865
25.1273 137.883 -1.87542
-10.6094 128.644 -10.9857
-20.5523 128.538 3.93723
-20.1686 124.456 -6.20407
-14.513 136.04 -5.12111
-6.62616 111.735 4.53035
16.135 122.493 -16.5309
13.5425 108.21 -3.70385
25.0598 114.756 -11.4775
