ply
format ascii 1.0
comment Created by Open3D
element vertex 1899
property double x
property double y
property double z
end_header
-27.1063 141.71 -3.71218
-20.2332 123.035 7.03074
0.624994 97.0432 -11.0225
-35.864 86.8368 -2.65104
-22.5276 126.033 7.56773
-38.4882 100.848 -7.50137
-1.79534 122.079 -5.73493
3.21265 141.212 0.686051
-1.98238 95.3914 6.33392
-36.3971 133.852 3.01771
-34.4637 115.754 -2.24691
-24.571 142.922 -3.02661
-8.37084 129.215 3.37395
-7.1178 115.867 -9.17678
-8.01606 100.226 5.95824
9.28136 121.775 1.30108
-15.941 104.35 -11.3346
4.24812 104.286 6.02691
-17.9626 91.4224 -1.22761
-0.195688 96.3398 5.92382
-10.3028 139.987 -4.47928
-17.3469 93.5282 0.843811
-31.145 86.3205 -10.837
-10.0922 111.895 -10.6125
-27.1604 85.57 -10.5834
-18.4777 99.5523 0.908174
-2.97875 124.439 -0.640273
-19.7979 93.4278 -10.0635
-20.0738 110.39 -10.2409
6.8192 129.059 4.89346
-4.60719 120.306 -6.92868
-25.7717 91.8162 4.97389
-30.6226 104.249 3.88582
-6.87193 105.134 1.42142
-9.16098 88.3926 2.67863
-30.783 143.979 0.010455
-7.20547 86.9882 -13.2321
-29.3818 116.075 7.0001
-3.92931 139.041 2.85885
-3.71228 147.188 1.10769
-25.7329 144.957 -1.05467
-12.2568 136.001 -3.71012
-2.40114 112.039 4.15394
-23.1443 129.71 8.17849
-6.51644 130.515 -2.68316
-6.44879 110.9 -1.25727
-32.8926 142.769 -0.411988
-12.3013 124.94 5.51895
0.484751 136.372 1.1012
-26.6011 111.148 7.68614
-36.6366 103.982 -9.29546
-21.2442 111.494 4.93194
-20.8589 87.8751 -2.67307
-14.7707 125.198 6.25895
-21.1565 85.615 -1.44054
6.29682 113.405 -1.9533
-16.5419 145.639 0.309533
-34.1402 93.1557 -9.75549
-27.3548 116.688 7.87472
-29.6784 117.483 7.03454
-20.103 131.545 -3.27254
-0.10464 104.357 -10.0814
-31.3143 97.902 -10.1827
-26.1263 136.162 -2.18662
-30.5517 129.725 3.75899
-26.3184 149.63 2.43259
-15.4346 124.527 6.15481
-20.5202 118.067 -8.48457
-28.6625 128.911 -2.89936
-4.46757 145.465 -3.49715
-12.7574 100.074 3.82366
7.42773 113.082 2.00338
-30.5381 133.066 -3.07123
-26.6435 112.593 7.76107
-11.5331 107.126 -2.141
-29.1872 133.011 -2.73816
0.23144 92.6563 5.32034
-30.4754 135.374 -4.10526
-19.0831 130.803 7.28585
-20.0009 89.7473 -0.536551
-34.6861 142.276 -0.0936533
-24.6219 96.7262 6.78448
-19.1219 119.133 -6.97194
-19.8853 109.773 -10.3719
-31.4145 113.387 5.19782
-13.4907 152.488 1.73182
-33.6265 124.596 -0.274608
3.19564 118.345 8.30524
-14.1136 122.791 5.85732
-38.4563 99.2625 -5.73559
-13.7784 153.8 1.03294
-33.8216 120.139 -1.03189
-5.08369 125.816 -0.302361
-20.846 126.751 7.22752
-9.67587 123.271 2.38842
0.850897 129.981 0.268837
-22.0271 98.6631 4.40968
6.11254 128.377 5.51668
-9.5355 131.545 -2.16477
-29.4777 124.372 -7.45759
-33.6403 110.938 2.71289
0.726485 113.811 -7.30588
-2.65521 93.3761 6.0306
-12.2117 130.384 -2.18762
0.229669 118.813 3.64751
4.0658 94.6964 -8.4804
-6.85137 119.009 -1.37273
-21.2736 138.078 -3.56688
-34.8672 104.277 1.204
-19.2198 90.7996 -1.15368
-12.5448 81.8762 -1.66029
-7.9343 120.722 -7.99479
-42.7405 138.049 4.71606
-8.37128 100.766 -12.4726
-11.4769 79.9501 -14.7925
-18.7074 139.755 -3.94188
-33.1712 100.241 -10.316
-26.6256 144.078 5.21999
2.20375 79.4861 1.33597
-28.1369 109.175 -10.507
-18.1412 134.953 6.47596
-42.2564 139.345 4.09755
-39.4856 130.598 -1.14702
-8.89431 135.886 4.5725
-24.3844 97.7991 -9.84224
-0.304986 120.56 1.75998
-23.7671 122.228 7.10092
-27.8776 128.607 -4.93607
-16.2657 91.088 -0.409416
-23.8046 143.649 -2.76896
-5.00278 147.631 0.4455
-27.3966 133.9 3.7619
-11.0402 129.094 -2.6233
-25.7586 130.293 -4.0034
-19.2655 118.662 5.3539
-40.2859 92.1005 -5.71603
-9.71363 154.753 -2.1764
2.16858 128.615 1.79517
-22.4549 121.389 -7.06933
-31.8695 104.39 2.97569
-7.67878 133.731 -2.18106
-14.8217 147.054 -5.16317
0.191665 107.449 8.02318
-34.1298 112.445 -7.78077
-23.3671 108.465 5.82095
-22.7776 132.026 -3.7898
-35.8598 107.324 -8.27658
-21.16 97.117 -9.73366
5.69465 136.063 4.57501
-7.49067 132.351 -2.3175
5.21153 106.914 5.87177
6.95044 122.994 0.648557
-29.4319 110.337 -9.89705
-24.8055 136.495 4.59647
10.0039 117.359 0.395832
-0.911453 144.737 2.17913
-34.3656 107.689 1.60214
-17.9135 145.424 -4.45657
-21.8005 133.727 6.23431
-36.5776 86.9933 -2.99485
-15.4408 144.431 -4.74659
-3.20956 129.954 -3.80851
-17.6669 125.995 -3.59236
-16.2396 102.827 -0.67679
7.5033 103.715 -4.81845
7.70277 105.608 3.72147
6.83992 101.322 3.18326
-26.3778 134.039 -2.53309
-15.5802 89.8459 -0.3688
-15.7034 120.937 -5.10744
-17.692 128.663 -2.77161
-4.67534 107.472 -11.0764
-17.4264 97.4446 -1.78505
-7.53366 93.209 -13.0169
-10.8698 98.1854 -12.0096
-23.6712 114.821 6.53131
-5.09712 126.932 -0.0423157
-36.9255 104.974 -3.98301
-8.56961 128.451 3.19633
-16.7582 110.306 -10.2307
-12.6427 153.711 -2.52105
-9.46944 106.4 -2.28288
-20.0286 91.3471 -0.873488
-5.66762 105.669 4.54277
-37.1674 104.895 -7.66595
-17.6764 96.0403 0.0554226
-18.6254 130.205 7.55898
-0.952027 93.9104 6.03718
-15.2035 80.1491 -13.598
-29.8213 122.344 -7.61643
-15.9252 94.3306 2.19402
4.87102 96.5866 4.09865
-19.1952 88.6005 1.47936
5.11928 104.709 5.56275
-28.4665 85.5638 -9.75486
-22.9763 136.724 -3.83679
2.73139 126.641 6.31986
-27.0088 135.493 3.68287
-18.4118 153.302 1.9987
-14.6122 140.737 -4.57196
-7.56679 93.5437 5.16251
-16.1585 120.829 -5.2443
-14.5135 113.378 -8.92673
-24.1446 121.903 7.31228
-3.51442 93.1628 6.00472
-17.4122 105.532 -11.5137
4.03269 112.937 7.77097
1.94648 102.84 6.86979
-27.9509 123.468 7.8429
-0.914721 138.584 1.71099
-6.48499 116.522 -8.31916
3.67322 83.7501 -3.24097
-36.8287 88.6697 -9.30202
-23.6327 147.323 5.45988
-34.2709 109.13 1.73887
-10.5239 95.0223 -12.9168
2.16466 90.1596 3.84653
-26.4871 127.831 7.57472
-38.3688 130.611 -1.53161
-2.66483 75.3415 -0.742881
-8.63802 113.456 -1.87319
6.95455 109.453 5.4589
-32.2824 129.253 -0.135852
-1.88031 126.696 -0.552947
-0.429209 92.8799 -11.2084
-30.8436 133.659 -0.652756
-26.4726 107.331 -10.45
-18.2226 96.4502 -0.902598
-10.6159 113.092 -10.1676
-11.5896 121.845 4.39795
-36.2498 104.944 -9.03596
-1.92807 140.799 -2.27581
-17.104 118.534 -6.12543
-3.45478 139.241 -2.23348
-6.54076 94.6886 5.35563
-19.4446 91.7644 -9.99114
-27.8098 94.5631 -9.94506
-11.6054 136.484 5.20528
-30.2625 146.61 3.97785
-11.2461 91.8494 -12.9756
-12.0985 144.77 2.23846
-36.9013 137.596 4.8635
-22.1721 92.9333 -9.96701
-37.458 90.3515 -3.55491
-36.6741 106.897 -1.14057
-26.8292 121.562 8.34369
-11.3713 131.292 5.46501
-34.0282 118.563 -6.01655
-4.78913 135.402 -2.37541
-13.9652 106.718 -0.589722
-35.2424 114.723 -3.15836
-10.1792 112.358 -10.4233
-19.4084 143.275 -3.23272
-3.68837 87.5601 -12.9986
-10.981 80.847 -14.5228
-39.3347 135.932 2.19214
-12.7982 138.544 5.20562
1.95261 94.3253 -9.7797
8.37507 105.738 -0.0492344
-20.8093 132.263 -3.85924
-13.5346 88.4631 -0.485219
-14.038 107.144 0.54322
-16.2175 131.374 7.2893
-40.1846 139.461 4.56842
-34.597 84.4294 -1.00674
2.93098 100.453 5.9508
-1.25516 130.84 -0.130567
-20.9613 122.331 6.75818
-23.4129 105.398 6.58128
-20.288 149 -0.938371
-20.5345 116.757 -8.64479
-29.6448 133.338 -3.23507
-10.9986 123.269 4.10737
-36.1932 112.236 -1.95083
-22.8266 109.483 5.5294
-13.7463 128.592 6.0239
-30.936 126.145 -4.57126
-33.3223 99.4214 -10.1159
-28.8929 125.138 7.05062
5.75359 127.398 6.08093
-4.47719 109.06 -10.0264
3.77374 82.8859 -2.61652
3.23564 90.5548 -8.33001
-2.62123 119.739 -6.17172
-29.7103 121.639 -7.7279
-36.4718 108.969 -5.57456
-13.7761 109.336 2.64165
-22.4582 95.6147 6.06074
-34.076 86.534 -9.95282
0.844475 75.7649 0.0527328
-2.01767 98.2384 -11.9629
-13.6208 151.805 -2.77634
-13.6333 112.41 3.13745
-15.3404 126.076 -3.37818
-28.8295 86.3266 -9.25711
-18.4677 92.8764 -2.31371
1.68385 113.986 8.32719
-33.353 98.5201 -9.59788
-15.94 90.3821 -1.61896
-3.23083 127.898 -0.396816
5.20701 90.2534 -0.298644
-38.9817 135.079 2.23376
-18.0311 135.683 -4.98731
-37.9077 100.722 -3.64483
-4.51415 80.6026 -12.3976
0.95204 124.594 1.87586
-14.2852 140.337 3.43784
-35.8848 135.375 0.241207
-24.7992 140.205 5.10699
-14.1226 132.686 6.17702
-16.0023 107.421 3.62125
-6.71432 139.742 3.79193
-5.6389 78.8219 0.061453
-27.7402 132.005 -3.31069
-23.573 92.2218 -10.223
0.458851 99.6006 6.59613
-21.7514 151.878 2.79149
-20.1339 123.862 7.09829
-38.3922 89.6379 -9.30287
-28.1369 101.302 4.58718
-17.7701 91.9708 0.363097
-33.4415 86.9205 -0.25647
1.84796 125.247 2.67738
-30.8715 129.134 3.11948
7.85638 111.608 -0.257295
-26.3602 135.878 3.83165
-5.00629 147.023 -4.18384
-14.8111 113.097 4.14038
-18.8962 101.307 3.30079
-23.3594 113.047 -10.1084
-17.1676 128.713 7.51532
-28.2805 102.017 4.9566
-29.2829 129.559 -2.62247
9.77328 129.902 3.91969
-13.4864 151.485 -3.38183
-8.02538 87.3863 -12.9003
3.48738 81.6087 -1.84255
8.0771 123.674 -0.00713911
-30.6959 133.407 0.0403313
-31.3831 119.89 1.99771
-34.1125 114.914 0.802226
-32.0835 111.935 -8.23452
-12.865 145.736 -5.32019
-9.17064 114.886 -9.90337
-3.13754 106.152 -10.5081
-37.6267 101.867 -9.32303
3.19838 86.8535 2.62354
5.10456 133.912 5.39819
-25.4462 96.5427 5.81238
1.49271 123.6 3.10968
-8.09382 138.896 4.19203
-7.844 137.305 -1.82925
-27.6839 95.2334 -10.3122
-21.7598 120.21 6.15462
10.65 122.611 1.92492
-14.2888 132.467 -2.34551
-38.0186 101.275 -7.75106
-25.394 114.614 7.72698
-33.9694 119.022 -5.91253
-39.1108 134.651 2.61267
-19.8871 136.011 -3.33183
-31.4575 135.291 4.97542
-7.67338 136.902 -1.56502
-2.00862 113.431 3.94694
10.7695 119.142 0.942977
-21.6978 129.187 -5.18202
-13.0486 88.1344 -12.0687
-17.0202 132.669 -4.31743
-36.2382 109.406 -5.77187
-35.0685 89.0405 -9.86922
-24.4275 87.9848 4.15959
9.57221 118.976 0.0545195
-1.65255 107.182 8.25577
-20.8257 122.447 -5.86875
-32.8414 126.015 1.50428
-3.40124 99.3276 -12.5187
-23.9048 83.0691 -10.803
-16.9008 108.299 -11.4157
-1.77588 75.1606 -8.66792
9.74909 121.334 0.738944
-38.1837 94.816 -9.75035
-9.61018 87.3182 -12.5198
8.97803 139.003 5.28338
-14.0377 140.579 3.29625
-2.86349 133.768 1.8933
6.43989 98.5704 -5.64488
-2.87049 109.52 6.13829
7.94854 114.108 1.09156
-31.3439 125.383 -5.00582
-28.3993 109.098 7.44666
-28.4157 127.649 -4.65891
-5.8092 126.274 -5.22972
4.34328 94.8048 4.02464
-38.281 91.4169 -9.42506
-34.8791 96.9185 -1.40414
-12.4891 139.262 -5.0425
-26.3533 127.951 7.67814
-19.5194 105.356 5.39954
3.15984 143.918 1.28306
1.45662 80.9095 -6.18512
-0.574542 76.5861 -7.75851
0.258301 74.6922 -6.52241
-0.159737 123.55 -5.43314
-39.3251 130.684 -1.12784
-32.9724 105.433 2.82629
-17.2586 145.681 0.691698
-29.7706 136.451 5.38188
-20.8115 85.2681 -0.440576
-9.92386 113.528 -1.54903
-2.57378 78.7668 -10.5102
-15.5069 89.4519 -11.8388
1.76484 147.665 1.6475
-39.5038 137.393 1.54135
-26.1628 133.077 -3.59171
1.33895 144.355 1.69314
-1.05473 147.258 1.57989
6.88186 122.273 5.55568
-5.90215 101.5 6.1036
-20.7562 141.983 -4.86028
-37.3699 87.6967 -10.6696
-32.5397 140.119 -1.73872
-13.8007 128.067 -2.73693
-22.9409 137.038 -3.92212
-10.7224 83.3432 1.42384
-38.7346 90.7683 -9.37162
-16.8574 79.5156 -13.7179
-3.61163 132.562 -2.8459
0.427503 119.84 3.31873
-1.43943 133.41 -3.39506
0.397474 79.5164 -7.55359
3.34093 88.8688 -7.61603
-39.6687 93.849 -8.97399
-13.1174 113.249 2.29292
-10.5108 126.494 -3.63637
-9.94298 133.483 5.274
-21.4304 97.3937 3.08832
-18.4057 142.984 2.63454
-7.35629 92.2728 -13.0258
-36.8326 132.321 0.0453461
-16.9516 138.968 -4.84398
-1.39693 132.391 -3.54158
-9.9155 104.099 -2.18265
-14.0269 131.436 6.29145
-0.113181 143.626 1.92739
-23.3121 133.176 5.47871
-17.8534 94.1504 -0.151365
-14.9852 123.095 -4.31472
-5.45858 134.687 3.02834
-27.6949 136.306 4.78314
-26.4331 129.094 -4.62004
-28.1149 142.732 -3.10902
-38.1223 101.388 -4.92227
3.57766 141.985 0.84743
3.15656 144.396 1.36437
-20.3509 137.724 -3.30092
-14.0049 154.351 0.36487
-10.0423 144.438 1.93585
-19.5204 92.8317 -10.0697
-10.8245 123.311 3.89338
-26.9362 148.059 4.81926
3.12575 82.1766 0.8921
-11.6931 109.3 -1.97504
-33.7153 108.005 2.47214
6.80804 123.179 5.0991
-1.62304 127.336 -0.545952
-5.89018 153.867 -1.42877
-31.1401 104.934 3.74136
-30.0546 133.941 4.09206
-18.8495 123.886 -4.69696
-3.2139 124.88 -0.768199
0.275688 85.577 2.90517
-30.6563 121.2 -7.49812
8.71544 122.887 0.497978
-11.4753 124.71 -4.05092
-29.5542 92.4995 2.90299
-10.0842 128.582 4.66157
-19.3319 127.882 -3.64997
-21.4954 112.788 -10.0307
-18.576 90.3863 -1.49378
-26.0396 134.312 -3.64042
-35.3794 84.8354 -1.38954
-27.5254 144.012 -1.99518
8.46681 121.428 -0.0718225
-26.7472 145.553 -0.57377
-31.0037 133.741 3.90216
7.49988 115.513 3.09632
-40.5538 89.3171 -8.5477
-39.3043 84.0848 -3.88527
-33.9405 134.547 -1.16816
2.03739 77.1315 -2.84409
8.22847 110.206 4.50317
-27.8932 133.135 -2.66354
-10.8544 145.696 -5.56921
-16.7319 133.192 6.96891
-21.0186 100.865 5.74058
-1.08769 77.4199 0.711278
3.48218 126.281 7.05185
-22.1759 132.168 -3.83052
-17.4655 135.05 6.82678
-18.1276 89.267 -2.4032
-4.00264 78.9185 -11.7639
-0.981993 74.7882 -8.00187
-22.7554 95.9327 6.58245
-4.35773 125.55 -5.4362
-24.0077 143.674 -2.68624
-3.04331 134.726 2.03501
-3.01571 81.2619 -11.7131
-32.2388 128.844 -2.33158
7.88852 114.132 -1.07694
-28.1125 136.141 -3.18213
-2.91938 121.76 -6.23082
-18.0766 93.6456 -10.1228
-3.42644 104.873 -11.1456
-27.9632 115.381 7.79873
-26.9759 149.396 2.36961
-8.43605 104.826 -11.4185
-7.41477 139.477 -3.30378
-31.7338 105.761 -9.81565
-10.5371 121.247 -6.29644
7.42902 113.689 5.44409
-22.3808 121.78 -6.74809
-32.5226 97.3479 0.370095
-19.551 98.9078 2.22168
5.42938 95.2674 -6.06084
-19.0236 142.285 2.68902
-23.192 130.373 8.105
-36.6706 86.9565 -10.9155
-23.8731 89.7213 4.73678
-7.52259 125.678 0.978401
-28.3858 106.463 7.0234
-28.1882 125.348 7.35689
-15.2921 86.9978 1.51194
-25.7354 107.246 7.51431
-40.5278 136.449 1.73367
-30.3132 108.363 5.5479
-17.019 92.4607 -0.308071
1.48587 145.34 1.6805
-11.0139 126.918 -3.31325
-32.0008 89.2696 0.966272
-29.998 133.451 0.112576
-11.4971 149.83 -5.78928
-1.73628 87.0605 3.46867
-38.1619 140.429 4.88334
-11.0935 84.5095 -13.2025
-29.6774 106.721 5.72859
-14.1377 127.488 -2.95495
-10.3801 111.963 -1.70727
-24.3081 85.3168 -11.4404
-36.8196 86.4417 -7.83922
-11.8095 120.985 4.38139
-25.5062 123.275 -7.82426
-35.4002 101.856 -0.742623
-5.07287 97.5048 5.88934
-14.0102 131.18 6.27265
-16.0188 111.074 3.67098
-15.7657 96.4898 -10.3374
-26.2887 131.177 -4.2659
-12.3851 93.0835 -12.5757
-27.0285 84.3475 -9.51651
3.7941 82.927 -2.60319
-13.1131 115.554 -8.59738
-21.089 121.28 -6.55082
-17.5562 151.775 0.863408
-21.0195 131.869 6.63115
-4.90038 107.219 1.89325
-39.7092 134.589 0.916426
-0.424366 78.7351 -8.04428
-21.0287 141.101 -3.60488
-27.2447 115.089 7.92825
-30.7669 141.767 -1.59275
-14.2296 84.9617 -0.0539053
-27.305 136.24 -4.616
-5.29962 146.098 1.6911
-10.8656 106.288 -2.03386
-17.1265 85.4738 -1.24748
-25.7242 82.9397 -10.9786
-23.8645 101.349 6.78131
6.23756 99.0436 3.35344
-16.1251 152.47 3.50243
-16.2477 147.081 -1.08838
-35.4281 105.849 0.809556
7.52087 103.837 -4.86011
1.23758 121.919 3.5102
-31.543 145.905 1.86336
-3.32125 143.126 2.63844
-34.2149 110.793 1.76022
-16.2148 96.5832 -2.71182
7.97868 105.171 -1.36903
-2.57232 128.645 -0.30821
1.25282 93.5187 -10.1711
-38.2475 140.835 3.85774
0.238572 121.068 2.29955
-27.2084 99.3452 -10.0818
-9.08396 140.172 4.43301
-36.3081 108.566 -0.950743
-30.6746 105.45 -9.57465
-0.53002 114.579 6.78166
-7.07304 129.022 2.22511
-20.3199 134.214 5.95836
-33.5499 85.6621 -0.980983
-17.372 95.2434 -1.31858
1.74713 85.9267 -8.15589
-16.6557 127.15 -3.05395
-14.2689 96.432 3.65809
6.27096 95.4516 -2.46916
-11.0582 80.4147 -14.6652
-3.96427 78.1807 0.175171
-9.80935 116.146 -1.11889
-13.6934 120.519 -5.2266
-35.2951 112.109 -4.92304
-24.5853 137.93 -3.79484
-10.5262 102.648 -2.15301
-19.8798 110.136 -10.2486
-10.9381 131.481 5.41411
-14.5374 145.832 1.35115
-34.3869 99.2506 -0.707003
-27.5293 132.081 5.12169
-1.23229 75.314 -8.24567
-0.0464864 88.5047 -10.7364
8.82732 139.893 5.16855
7.76179 110.591 3.53492
-10.3582 107.35 -2.22694
-18.2624 93.6967 -0.437026
-11.8261 111.556 -10.8896
-8.42921 84.8771 -13.3347
-34.5135 89.3651 -9.88179
3.24134 79.6856 -1.57507
-9.1812 134.035 4.99293
-32.1733 89.5514 0.849341
-10.1602 92.3296 2.44679
-42.4825 138.6 2.56929
3.73336 91.4398 -7.89194
3.13762 82.1632 0.75309
-38.7577 99.8898 -5.83335
-12.1017 90.6288 1.15966
-26.7848 124.191 -8.17019
-7.6742 109.254 -11.9179
4.34967 124.238 6.34357
-29.467 100.759 -10.5811
-37.3987 133.637 1.15088
-0.269461 82.3751 -9.3703
-33.1138 113.708 3.22387
-3.34201 75.982 -10.0798
3.49774 138.924 0.966133
-30.5116 126.844 -3.447
-27.4926 136.299 4.78555
1.10066 97.1111 5.77077
2.33108 102.324 6.67789
-34.8344 131.242 0.738629
-30.6581 134.165 4.25524
-12.2714 101.574 -10.6556
-34.3002 87.2801 -1.18341
-35.7401 113.538 -1.59944
8.08093 132.759 5.54396
-19.4353 95.0716 -0.468121
-38.8722 98.5034 -9.10322
-5.42449 130.897 -2.95789
-22.6001 125.269 7.50184
-24.6257 91.2539 -10.557
-30.2559 133.289 4.25011
-1.29448 141.526 2.28839
-3.8794 77.7759 -11.2963
-41.7472 138.868 3.92584
-37.8901 141.861 0.767361
-39.1545 86.9332 -4.26901
-25.7244 106.212 7.66058
-22.7549 99.9123 -9.36209
-24.6325 86.6706 3.46151
-17.3006 88.3129 -1.02145
-5.04725 120.177 -7.11513
-15.4115 92.323 0.757437
5.29563 91.1983 -0.171128
-9.38225 103.994 -1.86752
-3.9432 122.165 -0.981847
-14.373 150.702 0.785356
-38.26 84.5772 -5.75991
-28.0886 128.1 6.43623
-3.01123 94.8367 -12.5072
-40.2093 132.957 0.913951
-22.7214 145.879 -1.28038
-9.6887 144.284 1.9756
-16.6898 96.8423 2.45288
1.04594 87.4483 -10.047
-11.8241 150.381 -5.32973
-12.4142 103.481 -10.8833
-38.681 86.95 -7.03326
-19.9734 90.7755 -0.30215
8.47279 109.032 2.19409
-17.5203 90.9599 -0.705191
-6.48663 93.3756 -12.9554
0.448976 107.837 -8.3548
-29.2116 126.597 -5.583
-19.736 137.694 -3.35686
-34.9962 137.385 -1.91548
-15.688 125.425 6.42477
-6.77436 125.884 0.466676
-40.016 93.112 -5.5344
-3.42935 83.8838 2.74755
-18.7617 137.725 -3.44895
-20.2371 133.076 -3.6515
-4.31241 101.555 6.63796
-0.405757 119.653 -6.59916
-28.1669 105.085 6.60307
-9.45101 103.211 1.46928
-37.1405 92.0693 -2.8957
-28.363 135.759 4.97537
3.28176 145.969 1.62815
-12.1966 122.047 -4.80429
-8.79481 103.488 2.9008
-21.3697 82.5117 -1.29453
-39.3092 97.7934 -8.67263
-28.6244 142.793 -2.79674
6.50196 97.0918 -3.71231
-19.6155 145.669 3.15932
-3.35257 136.554 2.29301
-38.3402 100.983 -7.10996
-29.4111 130.013 -3.62785
-7.05798 92.05 4.92071
-18.0496 93.1987 0.175533
-30.317 143.192 4.3573
-25.971 108.038 -10.611
-29.3234 123.079 5.00114
-16.1087 141.829 2.96895
-4.41679 83.1589 -12.9436
-2.6563 103.727 -11.3965
12.4317 124.52 3.70481
-9.66271 93.0551 -13.0915
-15.5963 86.6659 -2.87796
-16.4365 133.902 -5.14674
-35.5289 130.762 -0.998109
-9.4447 88.7836 -12.9608
-1.52516 115.255 2.72324
-2.53065 79.2038 -10.7031
-16.0331 139.994 -4.82552
-6.8767 82.4507 -14.1578
2.24308 120.37 7.52343
-18.8948 138.867 3.62981
-16.7964 118.108 -6.20978
-20.2542 98.7403 2.8456
-29.5482 125.038 5.82407
-32.0638 92.391 1.22722
-1.1963 104.408 7.56068
-35.6119 108.481 -7.24752
-12.0955 131.38 5.57511
-38.7874 100.576 -7.04873
-38.0008 99.6803 -9.80793
-22.9247 81.7142 -11.8047
-3.99891 147.431 0.483377
-8.49709 112.732 -10.6369
-5.65997 85.1405 -13.8867
-6.05581 146.25 1.4662
-34.9038 105.032 -10.0683
-17.772 80.7523 -12.3754
-15.4075 135.528 6.214
5.69306 93.722 2.36898
-28.3654 92.4983 3.53191
-21.2938 95.5083 5.17056
-21.1525 103.808 6.18038
-29.042 145.787 -0.56656
-19.4883 113.791 4.53084
-5.31133 106.006 4.54976
-29.5561 140.373 -2.6514
-21.4939 131.605 -4.27814
-12.874 90.4587 0.569139
-19.2358 107.852 4.55072
5.53212 95.0668 -5.22108
-32.2906 138.255 -3.58173
-23.4617 87.0428 3.60022
-5.42734 119.711 -7.36938
6.86997 99.6513 2.39281
-30.4613 86.2802 -10.915
7.77354 119.361 3.91575
-42.204 137.049 5.64367
-15.5552 122.879 -4.502
-3.37593 81.556 1.63064
-20.6266 112.917 4.82354
-22.1498 87.145 3.30697
-17.4387 94.5705 -0.42848
-40.199 136.026 0.961728
-34.8153 137.416 -2.0746
-24.266 111.384 -10.2522
8.73424 121.679 3.83392
-21.5016 146.904 5.68767
-29.0049 115.807 -8.70628
3.74582 83.7347 0.61116
-21.8028 126.288 -5.44947
-3.42937 132.017 1.4216
-29.4902 120.997 -7.95329
-12.807 103.109 -2.08334
7.827 114.136 2.00154
-22.1897 142.069 5.26275
-26.4173 135.04 -4.26604
-22.0104 107.33 -9.88881
-26.6477 125.653 -7.64966
7.0621 124.023 0.660946
-26.1878 146.617 5.51998
3.16698 87.6094 2.8441
-22.9451 81.846 -11.6283
0.840023 89.0555 4.12734
-11.5836 151.638 -0.405361
-36.5517 108.575 -1.38452
0.823004 146.766 1.85291
-38.66 90.6977 -9.61965
-29.2855 95.4777 -9.68068
-27.8723 119.345 -8.99413
-27.478 106.163 -10.0528
-10.5569 124.644 4.06433
-5.57777 110.465 -0.444573
-13.7784 143.791 2.75975
-39.8187 88.4013 -5.43823
-5.37273 90.065 -13.6498
-18.1485 88.7636 -11.194
-2.90204 120.695 -0.437488
10.6319 135.917 4.51296
-4.88835 77.3014 -0.953747
-27.6676 112.451 -9.3656
-11.696 152.935 0.600225
5.13283 133.449 5.74868
-12.557 83.2405 -0.489562
-31.4978 86.6151 -9.48096
2.49019 86.4888 2.83561
-24.5742 143.356 5.7141
-20.3698 123.135 -5.54305
-5.92527 133.753 3.04851
-1.04104 123.129 -5.73798
-40.2888 89.7058 -5.58467
-7.19853 104.12 5.46605
-3.11615 114.03 0.942897
-3.42329 88.2249 4.0772
-31.6053 102.506 -9.9712
-6.57336 124.202 -0.205148
-17.3274 149.325 -0.784616
-38.5601 84.9928 -6.50079
-28.619 129.558 -3.79844
-22.3558 108.783 5.3854
-10.9352 99.9442 -11.3032
-32.0129 104.575 -10.0241
6.93907 112.468 6.19913
10.1091 138.622 4.69794
-1.68086 129.492 -3.67304
-1.88598 142.657 -2.15949
1.63427 86.6723 -9.11889
6.51922 97.8403 -4.44149
7.6355 124.778 0.919834
-41.24 92.0258 -7.74083
-13.5818 135.301 5.99604
-21.5062 151.524 4.1533
-10.3434 104.858 -11.1344
-10.997 100.624 -11.0988
3.74432 106.984 6.13349
-24.7819 124.116 -6.84345
-30.418 137.562 5.78825
-23.6925 113.859 6.39542
-0.483496 79.0785 1.17665
-32.5062 115.086 -7.81511
-29.6636 136.485 5.30364
-4.30656 129.994 0.790929
3.4168 112.571 7.91081
-13.8676 98.3592 -10.566
-0.936478 126.313 -4.45443
-23.986 150.691 2.36907
-4.7236 82.5878 -13.0214
5.89217 119.708 6.90192
9.47036 119.504 0.231313
-17.528 94.0592 -0.596338
-5.76007 114.063 -8.61448
2.16391 81.7534 1.99854
-27.5073 138.221 4.80756
-19.1188 106.952 4.70177
-20.898 96.0111 -9.62327
-20.9216 131.283 7.5523
-31.0897 134.428 2.24428
-8.72799 101.573 -12.052
-24.5664 114.025 7.08222
-16.3309 147.622 -3.56264
1.90642 122.384 4.81213
-36.7567 129.871 -1.65806
-3.07795 95.2857 -12.388
-25.4642 110.695 7.56224
0.620111 117.185 6.94933
3.32518 81.0134 -1.63919
-12.192 134.65 -2.36985
-0.697378 137.03 -3.32692
-26.0099 107.367 7.68852
-21.4928 114.441 -9.42408
-8.54903 96.311 -12.8902
6.50641 99.0487 -2.07977
-35.6513 84.3936 -1.29812
-18.304 137.591 3.97468
0.117787 116.883 6.13591
-0.0760638 134.556 0.411306
7.26549 101.875 -4.17582
-14.3933 91.2394 -12.3025
7.19743 123.701 1.12143
-24.2155 132.171 -4.04628
-8.28349 92.9573 4.60641
-5.14976 137.496 3.1814
-13.5402 113.977 -9.3143
-18.8131 118.081 -7.62312
-26.793 94.4326 -10.3733
-14.5462 85.1036 -0.324716
-9.05593 114.144 -1.64266
7.69202 105.024 2.28125
-19.4343 148.837 5.0062
-0.459767 107.204 8.12355
-20.5775 87.1495 2.46615
-31.4402 87.4102 -9.0474
-7.34506 88.6911 4.26737
-32.0009 129.321 -1.92285
-13.9465 149.595 -4.4199
-7.94289 148.559 -5.73942
1.40743 143.066 1.30966
-20.1646 86.4306 -0.0260196
-21.3711 95.6596 5.09979
-31.6456 87.3811 1.27861
-11.6469 151.496 -4.9179
10.1988 122.415 2.539
-30.4014 139.731 5.62712
-31.5724 133.634 -2.84583
-27.7851 117.916 7.83702
-37.9065 95.6872 -9.27232
0.290578 142.301 1.52137
-29.1249 109.497 6.99371
-21.003 146.019 5.39427
-23.5573 131.033 -4.27422
-20.9582 88.4266 -9.97921
-25.4936 107.622 7.27785
-2.35899 98.3745 6.53366
-1.67467 144.123 2.21594
-15.5482 99.1695 -2.13787
-20.3904 83.5913 -11.9515
-20.2254 146.971 5.46215
-35.4513 96.0803 -9.06633
-19.2686 145.771 2.91441
-19.4086 152.764 2.93258
1.26726 145.868 1.73754
-8.03503 108.897 -2.11327
-30.1915 126.902 5.58133
-27.3892 124.659 -7.95182
-17.0844 127.525 -2.95201
-3.99489 111.825 -8.51608
-34.3383 115.865 -6.54377
8.58513 125.397 3.99957
-21.9359 125.673 -5.70538
-7.28459 89.4577 -13.355
-13.0215 81.2123 -14.0268
-36.5032 143.073 1.26748
-7.0461 104.396 3.13709
-33.4621 85.7902 -0.787314
-23.8698 130.263 7.91529
-13.601 116.25 4.27741
-27.4447 125.378 7.67348
-29.7613 86.5308 -9.16402
-16.8013 84.7199 -1.62221
-12.3216 138.571 -4.96097
-0.748092 97.0882 6.13994
1.89167 95.2696 5.03588
-29.4625 104.403 5.29768
-34.9716 143.284 3.69667
6.17149 112.251 6.77595
-17.8878 87.7942 -11.0753
-17.9012 93.5702 -1.54605
4.80977 135.462 3.52189
-8.99862 120.256 -8.19843
-29.1796 96.7081 -10.4577
-14.5594 80.6463 -13.7668
1.0618 94.4728 -10.1672
-18.712 94.5658 -9.83098
-2.23467 125.832 -0.598015
-26.7136 134.282 -2.4308
1.55697 139.688 0.705493
-17.7277 149.588 4.75436
3.8916 124.231 6.70736
5.63441 93.1726 0.107024
-32.2123 87.5608 0.81922
-12.2246 124.687 -3.91784
-36.8614 133.024 1.49777
-25.4332 113.637 7.70551
5.94687 95.6789 -4.42498
-31.3476 101.184 -10.0555
7.00484 120.391 5.16985
-29.384 122.325 4.61517
-24.9061 121.709 -8.15498
-22.9804 81.1348 -12.505
-14.0245 124.382 -3.83579
-12.2771 139.664 4.93595
0.357075 120.135 3.03014
-33.6477 124.35 -0.346732
-38.5483 85.0522 -6.78905
-19.1109 126.897 -3.76563
-32.7937 137.872 -3.59078
-8.67335 92.9958 4.25376
-34.9163 106.818 -9.324
-18.0273 97.2957 -1.20453
-36.7251 104.514 -0.932827
-32.5116 105.891 3.22694
-37.4267 137.877 -0.464393
-27.1068 110.791 -10.4986
-4.7997 109.523 -10.1041
-32.9438 124.904 1.10951
6.28142 95.4167 1.27121
-0.777271 133.381 0.0104367
-25.6564 138.835 -4.18263
-23.3535 146.768 5.68818
-12.9831 99.2109 -1.21396
-20.2887 90.2894 -1.01322
-7.57295 147.731 0.784965
5.52281 91.5113 1.14707
-21.0419 124.143 7.20439
-2.74667 118.786 -0.202038
-30.0161 120.962 5.32342
-28.7804 88.6451 2.93822
-5.0323 140.913 -2.10549
-33.8503 112.775 2.18243
-14.3283 92.2645 0.034176
-32.7542 131.487 -2.26757
-3.17571 123.306 -0.623917
-7.03739 101.81 5.82295
-10.9111 110.118 -1.93703
-23.5659 148.493 -0.413523
-26.2663 99.2138 -9.85579
2.3072 79.3553 1.09191
-20.7478 100.887 -9.5042
-8.13003 122.943 0.208901
-8.98439 131.367 5.05481
1.20144 82.0381 -6.95304
-6.12604 80.9907 1.16196
-24.8932 82.5772 -10.8526
-23.2837 85.4684 -11.4347
-34.1232 132.697 2.25008
-18.1424 96.9045 -1.35779
-0.830471 141.692 -2.42125
-13.8658 88.3429 -1.36615
-8.15615 122.525 -6.92905
-16.6538 149.446 1.1557
-21.5173 91.7273 4.33387
-26.1052 141.578 5.11684
-12.958 97.6355 -11.2861
8.51781 124.597 3.57712
-14.6805 122.242 5.97434
-33.8039 119.29 -1.27051
3.38285 122.855 7.81815
-33.6024 136.222 5.29033
-21.6595 136.087 4.87274
3.82109 84.3166 1.2015
-20.7033 115.026 -9.14946
-18.9725 104.79 5.38692
-32.9727 131.37 -2.02737
-8.87943 104.596 -1.43851
-17.815 88.8985 -1.69488
-38.0845 134.209 2.33357
-19.7177 117.767 5.18708
-8.29432 96.3484 5.28545
-22.3106 92.6478 5.06613
3.69016 109.057 6.94706
-36.2874 87.6794 -11.581
-17.8382 110.73 3.6408
-26.6914 148.774 4.20764
-30.0753 121.429 4.10221
-21.2586 101.952 5.89704
3.06677 89.9725 -8.48468
-5.43757 111.532 -9.51072
-16.6641 122.568 6.26187
-3.35697 124.483 -5.36369
-20.0745 93.8301 3.09486
-18.1862 90.889 2.05578
-33.0983 117.573 -7.05886
-23.2961 135.299 4.94575
-3.54215 107.024 4.96794
4.57387 88.903 -3.48993
-34.1723 132.194 -0.117899
-37.7087 93.8 -3.31637
3.80946 142.755 1.0986
-30.6344 102.911 3.18665
-36.5537 132.3 0.92671
-37.8115 99.3603 -4.66597
7.50684 113.136 5.4729
0.0701564 128.541 0.0844352
-8.12698 80.8666 0.434233
-35.5752 112.206 -4.04909
-35.6897 135.784 -0.00599619
-11.501 90.3533 -12.9008
1.68279 76.1445 -4.39339
-11.8028 106.635 -2.09907
8.53014 108.241 1.87115
-14.3902 86.7114 0.116505
-16.2021 110.812 3.57524
7.23832 111.517 1.17191
-22.0705 140.414 -3.63459
6.75349 125.392 4.79546
-12.4303 145.62 1.9388
-31.3758 119.848 2.17971
-20.8 104.658 -10.1648
-5.83491 85.6923 3.33703
-29.4617 90.4815 3.06068
-7.69447 137.971 3.92141
-26.4105 131.537 5.44073
-19.6334 142.451 -3.2449
-25.0542 139.955 -4.97919
-12.1825 101.222 0.942088
-0.316193 138.174 1.2189
7.89038 114.753 0.954876
-29.3949 109.846 -9.76939
-37.2451 88.7473 -9.54087
-15.7141 100.573 -1.96
-3.12762 106.7 6.28339
-35.359 138.133 5.33557
1.17867 142.834 1.30005
-13.9116 132.214 -2.24222
-12.7296 149.61 -1.78933
-35.5612 114.275 -3.05297
-5.81443 132.334 2.89761
-31.1864 123.377 -5.50558
0.849462 105.933 -9.11369
-24.1773 103.071 7.08661
-16.8121 121.22 -5.36995
6.79715 99.4492 -2.98313
-4.79337 93.9963 5.64626
-15.3253 118.451 5.16697
-33.6449 97.8792 0.193208
-9.53996 126.646 3.46292
-18.357 139.676 3.13648
-33.1185 98.2192 0.656093
-17.846 97.9108 -0.799876
-7.49971 140.314 -3.49967
-29.9206 90.3571 2.73182
-0.572698 76.3118 -7.74696
-43.3879 139.571 3.50189
-33.8433 144.807 2.92442
7.20136 115.758 5.2945
9.31756 116.896 0.932274
-17.3446 119.022 -6.08165
6.36311 124.159 4.91186
-23.6479 114.316 -9.30475
-10.6503 103.082 -10.9271
-18.845 101.908 -9.83729
-7.75481 96.8837 5.21073
-13.2869 105.095 -11.3244
-17.4304 138.585 -4.38398
7.37373 128.896 4.63398
-2.44905 77.0824 -9.54357
-0.24404 146.82 1.88818
-6.04868 138.7 -1.56002
-35.3436 113.945 -0.954851
5.75641 93.8139 -1.65077
-3.33823 129.565 -0.0625391
-18.3781 138.128 4.10095
4.42415 140.244 1.36673
-17.6238 104.165 -11.1404
-36.5547 141.878 0.261383
-35.2955 110.529 -7.53157
-19.2141 133.775 -5.05992
-14.3816 113.201 -9.15895
-6.69254 104.679 4.6031
-17.4908 104.14 2.33044
1.01058 113.275 8.35762
-38.9395 97.199 -9.56903
-31.4498 133.369 -2.26887
-17.9717 79.1478 -14.5204
-31.8885 134.598 1.98372
-22.1621 99.8104 -9.33867
-8.38805 147.601 1.1431
-18.0009 101.894 -10.0005
-33.0249 137.525 -3.22218
-30.3608 141.26 4.8262
-2.32378 105.229 7.74792
8.58523 107.026 -0.151338
-9.45674 89.1146 2.3545
4.31415 140.133 1.30676
-15.1927 114.165 -8.11617
4.0147 86.2947 -3.49888
-4.83344 102.549 6.6587
-7.04854 128.988 2.19016
-1.82438 124.624 -5.19189
-14.896 126.314 6.56741
-3.61757 122.082 -6.13659
-30.8742 138.465 5.77212
-17.4424 129.192 7.61926
4.65235 133.561 5.09828
-28.4119 129.846 -4.6319
-12.7765 141.165 3.29113
13.3524 125.715 4.15158
-36.8676 105.111 -1.31932
-8.16412 130.901 4.05495
9.69173 133.49 4.22792
-5.30078 83.5376 2.36472
-33.6728 111.177 -8.69958
-16.2191 133.993 6.59904
6.47233 99.0758 -1.75552
-29.7452 134.348 4.89157
-9.82011 150.609 -5.61524
-7.00835 142.934 -3.57942
-33.6039 117.06 -6.78848
-17.2846 95.4844 -10.0682
-2.2096 113.288 -7.31072
-1.06931 123.807 -5.48875
-14.3851 81.958 -2.5442
-19.1451 132.998 -5.48669
-9.38534 93.8501 -13.0602
-32.1111 98.9465 -10.4445
1.53151 80.7132 1.64716
-35.6532 107.205 0.407564
-19.1503 147.179 -1.38867
-11.7451 117.641 2.63923
-30.2816 133.07 -2.50014
-30.6105 134.681 -2.70785
-33.5168 92.1319 -10.177
-39.4347 140.4 0.714608
-12.7076 83.4049 -0.432005
-16.8719 88.1997 -0.918522
-27.3887 121.318 8.11482
-12.3231 105.911 -11.4316
2.2467 78.6042 -3.32193
-39.0369 98.1974 -8.95225
-10.7434 126.925 5.05271
-20.2877 97.2501 -9.65856
4.65477 130.219 6.12405
-35.49 94.1706 -9.48715
-40.2638 135.406 3.90057
-16.7524 94.2458 -0.527199
-21.2417 95.6166 -9.64693
11.1149 129.271 3.62991
-10.3088 96.7926 -12.7478
-8.04123 144.78 2.04646
-31.5586 119.172 3.14971
-24.2473 131.165 -4.00758
-22.5842 150.129 4.84068
2.78679 132.901 1.09334
-28.1174 114.011 7.68639
-36.8268 100.268 -2.67454
-18.2847 84.8081 -12.4623
-1.53628 120.291 -5.62237
-33.5951 86.3155 -10.5773
3.68612 83.0096 -0.685556
-16.7264 102.952 0.190576
-19.9004 142.577 2.99214
-30.4519 115.787 -8.19731
-0.702943 143.276 2.1654
-36.866 108.153 -5.18699
-8.75995 154.716 -2.08972
-21.976 103.35 -10.1738
-33.7625 115.623 0.831872
-20.1949 112.571 -9.47443
-27.5873 85.7344 2.81151
-10.2301 90.2234 -13.1865
-10.788 141.767 -4.05235
-9.15953 132.537 -2.03335
-17.6572 105.727 4.85191
-12.0887 129.984 -2.29042
-16.2125 96.0982 2.6315
-20.043 118.656 5.4383
-33.7389 117.74 -6.57643
-40.7972 89.8545 -7.36014
-34.7668 116.924 -5.74791
-12.5768 94.7363 -12.4309
-24.5181 115.429 7.31212
7.12269 119.963 4.90169
-6.88001 129.375 -2.81683
0.471726 147.729 0.862119
5.18642 91.786 -2.95491
-30.9204 136.345 5.57652
-34.7978 87.5525 -9.68872
-16.8447 92.6395 -10.9611
-18.3246 92.2835 -0.986957
-19.9611 127.636 -4.16279
-26.3095 89.7911 4.45728
6.09924 108.788 5.94183
-33.5113 130.658 -2.23045
-21.1986 132.197 -3.87123
-24.6991 127.832 -5.62757
-33.6117 136.271 -1.51946
-16.5012 88.5199 -11.2703
-6.67773 105.65 0.722052
-2.33968 88.4628 4.07069
-4.58384 106.028 -11.5198
-33.303 143.945 3.25603
6.94212 108.465 5.18824
-34.0405 118.101 -6.15423
-20.396 81.6868 -11.6964
-16.6364 142.5 1.12673
0.0631944 89.1954 4.38112
2.21766 94.4856 -9.66956
-33.0221 131.111 -0.310131
-4.42527 145.05 -3.34008
-34.4588 137.045 -1.86103
-1.62392 87.623 3.67828
-23.881 117.535 -9.23154
2.36302 98.3577 5.73439
-10.1827 92.1516 -13.1468
-25.72 134.34 -3.25037
-9.08087 142.92 3.21867
-14.8828 150.173 0.154274
-28.0621 105.994 -9.89087
-24.6236 116.799 7.63553
-33.1968 104.72 -10.1293
-10.5061 144.745 -5.21629
-26.4693 144.204 5.31456
-4.30575 121.102 -6.74598
-32.0355 131.869 -2.47428
11.6955 121.749 2.7407
-31.7512 119.069 1.96329
-25.8595 107.493 7.57553
-8.96239 145.046 -4.70058
-29.0782 83.4426 0.914262
-26.9407 91.6639 4.42033
-37.5612 103.52 -4.45086
-4.84514 105.022 -12.0146
-12.8769 134.663 -2.93163
2.0793 82.0424 -5.45793
-4.0132 77.8856 -11.4466
-1.19697 118.357 1.60564
4.65839 121.084 7.73943
-16.2894 87.0288 -0.551122
-10.0732 125.483 3.7389
10.0875 131.212 4.23126
-22.1135 148.893 5.51511
-20.0648 100.515 5.42845
-31.2642 111.281 -8.70764
-3.67486 131.494 -2.96251
-30.0232 138.5 5.74695
-7.93889 133.787 -2.0804
-33.84 99.8829 0.287103
-19.7906 112.664 -9.23996
-1.96114 80.419 -10.7325
4.63514 92.5818 -6.71015
-15.4362 88.3527 -1.81476
-1.53389 146.511 2.05622
-24.4631 117.101 -9.31326
-17.6475 139.434 3.38936
-26.3161 144.267 -1.72119
-9.30979 103.423 -11.2339
-22.8228 127.649 8.00376
-23.9053 114.935 6.7288
-1.81528 94.5332 -12.0308
-31.4038 106.586 4.15989
-12.3431 98.6577 4.57319
-20.2611 84.8189 -12.3128
-2.77448 146.151 2.13658
-3.26221 92.2965 -12.9194
-7.83378 108.091 -1.78879
-36.9234 138.706 5.13973
-31.9413 134.019 -3.22692
-2.10957 112.197 5.45209
-1.64247 110.283 7.56023
7.28255 135.334 5.79515
-3.2857 134.145 -2.419
-13.8162 140.547 3.44483
-31.2127 91.3173 -9.72168
-19.1701 135.323 5.65568
-37.6823 93.287 -10.2899
-12.5017 143.533 -5.33016
-39.8078 85.8132 -7.80996
-22.7274 107.236 5.79617
5.08256 116.526 7.85533
7.27561 103.662 -2.5108
-17.7325 152.394 3.60839
-28.8443 122.064 7.28243
2.39614 74.288 -1.14716
-24.0765 131.991 6.56897
-28.0267 114.458 -9.74645
-26.6653 126.364 -7.21294
7.22316 115.897 3.94516
-35.721 108.015 0.177197
-18.4578 143.704 2.62383
-13.9317 153.433 -0.912214
-11.0722 147.812 0.872334
-4.85163 129.4 0.855865
-25.5917 89.5043 -9.89203
-25.036 90.621 -10.3742
-5.33699 105.29 -12.2565
-2.67571 126.254 -0.787456
7.60498 124.294 0.834129
-12.4696 119.141 4.32799
-30.8428 133.371 -2.65333
-14.7446 138.208 5.46512
-2.07489 136.512 1.3501
6.51275 116.791 6.41294
-31.8254 132.721 -2.68314
0.519753 74.5759 -1.07719
-33.0962 95.7778 -9.25405
-21.276 85.5555 -2.26347
-26.2798 98.4623 6.02785
-0.0130202 121.509 -5.60184
-35.1064 117.687 -5.11572
-10.9758 119.31 -7.64239
-31.5882 83.9588 0.936204
-16.6356 126.835 6.98996
-16.0406 144.445 -4.63472
-14.6437 90.3591 0.24006
0.172835 94.9615 -10.7848
-23.5422 128.776 8.2899
-12.6029 85.4627 1.06965
-9.36125 151.026 -5.45449
-2.45175 75.2548 -9.18911
8.3832 117.124 1.72936
2.65328 85.6034 2.44105
3.70236 139.308 1.02105
-9.45819 105.175 -2.20367
-36.9308 94.892 -2.52052
-23.266 139.041 4.51961
-0.821295 93.9927 6.0025
-19.5004 110.61 4.29505
-17.0476 90.4873 -0.975344
0.771614 120.221 3.71944
-33.9999 99.6759 -0.131957
10.5414 118.984 0.974342
-20.0226 89.1838 -2.10089
-7.53628 87.1334 -13.0865
-21.5823 84.4139 -1.85459
-4.24831 122.107 -1.08002
-31.3751 92.7928 1.73408
-23.4748 123.549 -6.49851
-22.9224 88.2352 -9.53608
-3.69382 146.083 2.01778
-12.7787 132.789 5.87345
-4.90609 136.35 3.2288
-1.30595 77.4111 -8.43887
7.88691 138.238 5.16556
-20.2913 148.328 5.74353
-28.5419 121.458 7.45169
-17.6183 95.7566 -1.24877
-16.4041 139.652 3.52821
-2.09732 90.3276 5.04451
-37.2991 103.005 -5.67746
3.47019 89.4546 3.06838
-7.08905 120.961 -7.81458
-1.71586 146.612 1.98521
-17.5308 95.7592 -1.27861
-27.8295 82.5053 -0.667565
-20.7259 121.827 -6.10123
-35.8061 113.101 -3.96174
-17.2264 89.2441 -1.44694
-20.0415 132.464 -3.95488
-11.566 89.7862 -12.861
4.55092 112.517 7.47017
-2.40888 145.233 -2.74783
-17.7271 95.8004 -9.57803
-7.4391 105.156 0.296719
-36.4997 109.256 -4.76049
-27.8057 145.043 4.53407
-24.123 109.208 -10.0519
9.24111 125.944 3.47991
9.66511 127.823 2.63928
-17.5645 93.3581 0.226891
-37.1298 106.307 -6.71904
3.99951 90.62 2.93252
-4.67194 111.893 0.0399165
-1.36465 74.6154 -8.36877
5.24384 124.254 5.94304
-31.2711 82.977 -0.555791
-33.1552 92.9502 -9.91615
7.18074 101.785 -5.46223
-25.8983 110.216 7.7302
-5.39544 82.5568 -13.5204
-5.73984 127.883 -3.98547
7.77752 126.091 0.852267
-21.8086 96.9404 5.57553
-14.9086 121.061 5.60856
-39.7498 94.0197 -5.4816
-8.84599 103.446 3.18328
-8.13547 144.928 1.91103
3.05679 80.1818 0.146234
-16.6846 108.888 3.45402
-39.738 136.165 1.73158
-19.9798 109.655 -10.4251
-25.37 118.201 -9.44446
-15.9055 103.752 -0.717165
-31.1778 95.6387 -9.38246
-28.8464 123.588 -7.71885
-21.8785 88.5579 -9.81964
-27.4443 134.338 3.58877
6.89653 107.103 4.80432
-29.928 146.484 1.53702
-13.5682 97.1812 4.02151
-36.5936 91.0959 -10.6055
-33.0526 110.638 -8.69345
-42.9765 138.133 5.57715
-12.0084 111.756 0.477221
-20.7978 92.0989 -9.93367
7.60631 112.488 5.49772
-23.2042 91.416 5.44015
2.73624 102.806 6.62212
8.44664 131.248 4.88012
-36.0453 143.825 2.48023
-18.3778 138.121 -3.5846
-17.9625 137.998 3.66775
6.43515 96.6595 0.981574
-0.375909 115.456 6.33905
-15.867 96.1486 -10.5036
-39.9718 137.918 1.49128
-7.07445 154.466 -0.848521
-9.84537 93.8773 3.68715
-23.0911 145.512 -1.38295
-12.9162 148.712 -0.266953
-8.92826 117.071 -1.14284
-11.4969 78.3732 -14.759
-14.4846 107.51 2.21169
-9.35811 120.05 0.289927
2.32357 74.2606 -1.62877
-42.5237 139.1 2.90673
-27.8978 92.4395 3.76115
-8.43572 129.63 -2.64091
2.14653 76.1182 -2.24987
-20.1955 113.652 -9.13199
4.3867 134.824 3.52381
3.3405 93.0916 -8.93834
-15.0217 115.405 4.66522
-33.2196 103.258 1.78904
2.38876 131.705 1.1506
-1.88694 108.196 -9.02307
-31.7545 125.88 -2.79431
-38.9971 141.758 1.47561
-21.7557 82.1452 -0.768392
0.806529 105.518 7.20246
-22.5544 122.647 -6.34936
-26.3421 84.2336 1.71868
-19.9503 87.9667 -2.72455
-28.635 136.28 4.85006
-9.40493 123.471 -5.61213
-36.3767 110.075 -4.76461
-26.4765 98.8478 5.98522
-25.0385 120.278 -8.78274
0.199336 104.753 -9.88326
-9.79691 120.606 1.33642
-3.83411 124.83 -5.33527
-27.3744 129.306 -5.04515
-18.2272 149.505 4.97927
-10.031 118.608 0.447311
1.70263 89.6381 -9.93053
-19.5565 90.7581 -1.16423
-12.5514 145.5 1.9734
-34.28 98.6341 -0.471809
-1.77542 75.3202 -8.66267
-32.419 107.786 3.94959
-9.18636 142.696 3.36818
-35.0738 134.675 0.164225
1.75416 77.8326 -5.04805
5.93959 95.8606 -0.53618
-17.0782 87.711 -11.0524
-0.162554 89.4031 -10.8627
-19.2331 94.3763 -0.375048
-38.7675 138.327 0.386913
7.46426 115.452 2.03727
-36.4528 84.8602 -1.78679
-28.8208 129.428 -4.09074
-10.1266 89.4828 2.00422
-5.21476 132.253 2.61553
-31.6236 125.048 -3.47454
-29.2976 137.579 -4.72006
-37.3378 136.69 0.331174
-9.32214 102.92 -11.3788
-14.7018 87.2145 1.92834
-39.6536 137.956 1.25117
2.62492 112.979 8.27838
-15.5252 95.461 -11.0564
-24.5922 130.877 6.6839
-15.4931 106.109 1.34834
-20.0921 142.084 3.01636
-0.450773 84.3785 -10.2592
-19.4352 91.0038 3.25459
1.21328 131.815 0.0742215
-18.1132 91.9705 2.13248
-29.5994 101.879 -10.3356
-3.01047 75.7599 -9.64738
7.13376 114.22 -1.62081
-1.33504 119.316 1.09648
0.320654 141.228 1.3919
-10.0165 82.9456 1.31252
-31.2456 132.603 1.2384
-21.76 91.6467 4.69431
-21.0889 96.9284 2.36765
-15.5408 88.7761 0.666706
-32.8953 122.055 -6.09006
-32.0489 131.978 -2.66163
11.1374 120.479 1.51147
-31.4681 125.519 -3.16399
-28.1387 111.996 -9.54937
-7.60471 141.158 3.94901
3.78408 100.574 5.501
2.57403 79.4304 -3.32925
-8.08779 90.9019 3.46133
-36.7527 109.333 -2.18724
-0.0258804 132.724 -0.065289
-0.850869 95.874 -11.8681
-12.0605 119.834 -6.06799
-11.4109 95.9245 3.24162
-16.208 153.579 1.77777
-37.0317 99.7928 -3.41077
-17.398 99.3261 -0.745218
2.81192 80.4405 -3.8507
-16.9394 93.674 0.251814
-5.10035 97.4877 5.86654
-37.693 84.5501 -2.40622
-17.1419 96.0135 -2.00493
-17.0019 105.182 2.49797
-27.4482 83.8573 -10.8054
-30.6425 104.364 -9.66905
-34.5287 133.463 1.13086
-0.627919 116.486 4.17309
-23.6294 135.755 4.84126
-24.5844 130.689 6.83273
-34.2935 134.045 3.8725
-12.8512 85.3495 -12.0843
-8.792 116.679 -9.53449
8.40235 107.496 1.92867
-38.4103 88.8903 -8.6575
-39.8169 136.289 2.03597
-36.0034 139.796 -1.17619
-38.2269 131.105 -1.14563
-11.2347 98.4472 4.93204
-17.1668 100.66 -9.71766
6.756 99.4338 -2.82691
-24.4692 138.996 4.65949
-6.30038 75.7941 -11.8886
-26.4771 96.0381 4.53084
-18.4906 144.613 -4.37389
-33.2239 123.612 -0.189815
-24.4244 114.324 7.02184
-14.7025 111.678 -10.1675
-36.8087 140.229 5.18139
-0.970795 78.0749 0.939764
-19.0428 122.162 6.67425
-0.573725 91.4449 5.17985
-20.0172 113.411 4.67088
9.50342 125.814 3.24192
-3.03316 128.813 -0.23192
-9.89082 125.839 -3.98318
2.36709 128.797 2.0427
-22.8052 148.279 5.4643
4.80744 89.7006 -3.21523
-15.3444 150.124 0.624735
-18.906 104.37 -10.5291
-24.4999 89.5224 -10.0453
-20.1102 150.36 5.17338
-19.957 95.2652 2.8909
-31.3398 131.778 -2.37744
6.98014 119.536 4.91275
-25.4168 137.44 -2.3098
-16.1996 95.3055 2.37498
3.81718 134.54 2.61735
8.56455 140.262 5.2322
-14.5183 90.1017 -1.19622
8.01936 127.368 4.6584
0.526726 96.2597 5.64165
-8.66023 101.53 -12.1035
-29.1038 119.125 7.20245
-15.3766 87.5259 -0.352397
10.9257 129.329 3.53368
-17.8324 120.769 6.02783
-30.3097 124.379 -6.07418
-9.94523 98.0603 5.00365
-9.00255 119.243 -0.59322
-12.2998 111.913 -10.8249
-30.1023 133.156 -3.55356
2.02728 79.8602 1.5785
-21.5478 144.139 5.25838
-9.44547 130.167 -2.45417
-20.2141 141.507 4.41833
-29.0741 134.672 -3.67982
1.25164 77.822 -5.78816
-12.4339 129.876 -2.2688
-16.3534 152.141 0.0696564
-32.9301 128.449 -0.859451
-11.4285 144.613 2.14778
4.03191 88.9368 -5.83765
-36.1869 92.274 -10.6622
13.9833 123.371 4.21049
-16.2703 104.274 -11.286
-17.9901 122.407 -5.38101
-36.5222 110.02 -4.42561
-39.5059 87.8256 -8.75568
-6.0132 110.523 -10.8007
3.90363 95 4.31731
-30.3469 141.933 4.42078
-36.8945 110.792 -3.07304
1.82267 95.8663 -9.70381
-8.82359 82.8186 -13.8239
-33.2293 105.757 -10.0905
-3.07199 136.965 2.28248
-26.3657 140.163 -3.8576
-13.586 120.633 5.38972
-12.6949 107.969 -11.7024
-19.5715 90.136 3.06979
-39.7369 133.096 0.572133
-8.40394 94.029 -13.0357
-29.3762 97.0516 2.25155
-5.02999 112.148 -8.85991
2.85274 91.1228 -9.03967
-14.055 87.114 -0.28034
-28.1615 113.744 -9.62016
-19.7646 118.621 -7.70555
-30.6204 109.557 -9.02753
-12.3668 94.4519 1.95118
-30.7951 133.246 0.213838
-0.796275 116.311 3.94207
-11.0359 152.521 -4.51642
-23.3028 119.545 -8.33184
6.47316 124.234 4.82981
-33.6346 105.498 2.49026
-1.87499 118.7 0.676793
-19.9677 91.6822 -0.49421
-31.7813 83.55 0.639244
-4.775 122.423 -6.46485
-20.3998 132.213 -3.9709
-11.4338 126.983 5.32636
2.34587 128.853 1.99988
-25.8905 136.4 -4.61281
-5.7188 100.219 -12.5477
3.07054 93.2731 4.3471
-20.8191 99.475 4.79811
-24.2585 82.9301 -10.6204
-17.3048 145.54 0.696511
-40.6268 137.742 2.13393
-1.92353 103.289 7.71303
-32.8442 133.545 -2.00095
-38.111 96.1515 -9.41605
-5.10554 144.019 3.06749
-30.1612 90.7535 -9.34887
-23.6073 134.8 5.03381
-32.4433 110.099 -8.71619
-27.2848 108.558 -10.5217
-28.1905 85.1551 -9.86973
-9.57457 124.915 2.83244
-9.52114 122.758 1.98014
-35.913 99.2642 -9.52701
0.0273017 113.22 7.90786
-34.3843 113.839 -5.87913
-26.9173 135.141 -3.71069
-32.1438 111.338 4.4829
-6.06463 103.626 -12.5751
-34.4312 93.9364 -9.48075
-12.3356 84.0869 0.742916
0.890489 143.993 1.70064
-4.83239 140.8 -1.94141
6.50622 98.7234 -0.149329
-2.77844 95.5558 6.4811
-22.6308 125.776 7.55989
-16.3654 144.372 -4.68354
-13.47 124.326 5.90079
-26.2123 130.336 6.49445
-34.3822 94.1753 -1.07147
-1.0729 142.989 2.19582
-31.4364 92.1749 -9.69915
-35.8986 129.122 -2.45195
-19.8933 97.7273 1.01935
-20.2423 87.6497 -1.18686
-24.185 104.089 7.10811
-27.6489 102.694 5.8585
-29.9445 125.386 -5.89141
-30.7431 126.553 -3.3071
-16.9454 94.692 1.775
-3.51012 129.906 0.205101
5.17746 92.1121 -3.92356
-29.9672 92.9606 -9.76264
-24.1285 84.6606 -11.783
4.9457 89.1684 -1.75425
7.63937 113.718 3.93821
-26.6086 133.918 3.59368
-1.72833 137.492 -2.59826
-2.98494 81.4916 1.64487
-25.4974 130.056 -4.18366
-12.1805 115.099 1.48954
-27.2474 93.1685 -9.72848
6.19165 100.916 4.17431
-8.96296 130.238 -2.46939
-23.0034 100.636 6.58077
8.4907 122.216 4.23305
-33.9236 135.153 4.50465
-14.2394 146.514 -0.158659
-34.7531 134.65 2.93779
-33.9406 144.903 2.88625
-26.8312 147.393 5.13741
-13.8491 91.6441 -0.12069
-3.82005 91.3625 5.55394
-14.5653 152.891 2.3105
-13.0076 78.6234 -15.0108
-25.2714 147.146 5.38135
-3.32954 112.036 1.60373
-30.0334 135.276 -3.96155
-26.6703 128.325 7.48473
-6.97901 89.6406 -13.4372
-2.01236 109.124 7.63948
-37.0938 89.0004 -8.32785
-23.5654 150.15 0.472005
-27.6361 85.8334 2.83537
-32.0846 113.49 4.51861
-36.9618 99.4896 -9.75287
-12.5932 93.4589 -12.4857
-29.5372 82.3699 -0.240353
-21.0635 108.284 -10.8361
-22.7285 86.2098 -10.5545
-21.5233 85.4365 -12.0191
-19.3014 94.4699 -0.229874
-32.0634 98.6821 -10.311
-34.8177 108.461 -9.08846
-30.6114 130.507 -1.95011
-19.4105 110.994 -9.69315
-27.3479 128.691 -4.72358
-17.6043 138.252 4.43856
-40.7773 91.2633 -8.04738
3.79861 92.1322 3.63253
-40.9673 90.8777 -7.52121
-13.1841 131.688 5.90445
-2.13913 135.085 1.31767
-29.9722 127.35 5.76216
-42.8218 139.504 3.42531
-17.2525 136.296 -4.77127
-3.36983 114.892 0.306972
-23.2993 119.538 7.09523
1.11986 75.8678 -5.47281
-29.9771 122.725 -7.53109
-18.7127 105.518 5.17166
-18.8147 86.6852 -10.5779
-15.6644 144.01 0.869167
-28.0864 128.897 6.26128
-15.2457 103.23 -1.46587
-28.168 84.3584 -10.5612
-5.4334 96.207 5.49152
-12.0001 85.9584 0.983628
-29.9057 138.609 5.74014
0.0683885 107.54 8.09682
-39.9543 95.0502 -9.38996
-12.849 98.1439 -11.1617
1.50385 115.692 8.33925
-14.2487 85.5836 0.346975
-12.1457 122.813 5.06632
-8.39463 106.745 -11.4844
-2.89003 78.6767 -10.7266
-5.71848 84.1916 2.50862
1.38939 134.532 0.426363
-21.6568 131.07 -4.58957
-38.8524 100.311 -5.61335
-24.3693 82.1043 -11.1547
-29.7422 105.8 -9.57308
-1.90086 125.241 -4.8792
-19.3227 108.633 -10.564
-11.2748 98.4634 -11.7073
-37.7376 101.715 -5.64116
4.52487 89.427 2.38472
-31.9104 116.568 4.07524
-18.946 94.7484 -0.00952991
0.518633 126.559 -4.85064
-16.4328 88.0717 -0.171647
7.40823 101.27 1.30661
-17.2098 105.114 3.07145
2.23582 87.6963 -9.33914
-26.0951 126.15 -7.10203
-23.4853 116.054 6.83187
-18.94 130.996 7.14197
-1.22319 96.6524 6.1827
1.65302 127.864 1.46556
-32.5933 131.854 -2.18393
-18.3121 111.162 -9.28177
-6.99859 133.334 3.89584
-22.5698 121.048 -7.28722
-26.0005 83.3699 0.0686351
-22.3376 118.898 -8.65507
-33.7565 95.9983 -9.192
-17.4415 103.502 1.56192
-1.72525 106.318 7.94798
-25.2514 83.4895 0.082627
6.1677 139.641 2.63706
-16.6128 105.876 3.1722
-25.1668 91.4046 4.88832
-40.2381 86.0282 -6.9755
-19.7379 143.923 3.06236
-10.6047 120.142 2.25863
-5.17069 132.175 2.59775
2.59113 117.618 8.24599
-4.21278 129.343 -3.74728
-41.5237 140.574 3.18121
-2.97276 110.386 3.99431
-21.8018 97.6572 -9.75814
-24.2099 101.791 6.94877
7.13102 110.42 5.60444
-23.1225 105.038 -10.5331
-37.2162 88.4109 -10.1545
6.42048 135.391 5.5738
-38.7073 130.739 -1.29809
-17.1334 94.1197 0.247388
1.49716 88.4599 3.74441
-14.6176 103.514 -1.40341
-21.1986 98.3722 3.1009
-13.3873 131.438 5.93816
-14.3571 101.654 -2.31776
-11.7067 151.834 -4.72291
-33.8827 123.605 -3.08113
-17.8192 94.9723 -1.08178
-4.98446 131.5 2.41825
-40.2258 92.162 -5.63498
-9.32541 145.925 1.53328
-21.1988 149.856 5.28104
-31.4136 142.093 4.17813
-6.25408 113.513 -9.24658
-2.39229 118.597 -6.05047
1.81733 89.6714 3.8665
3.26496 79.271 -0.725872
-7.63211 121.922 -0.371806
-1.33345 84.51 2.6255
