ply
format ascii 1.0
comment Created by Open3D
element vertex 1908
property double x
property double y
property double z
end_header
10.9142 148.776 -4.4659
12.4181 129.456 -1.31547
-9.14347 115.2 -11.5315
-10.5908 134.771 -7.94549
14.2707 115.895 -10.0889
10.4273 141.082 -9.58227
-15.9013 129.579 -7.50005
-0.862425 106.795 3.50537
-27.7479 92.7046 -6.69991
-22.2339 83.7826 -6.47277
23.0261 142.089 -3.6934
-23.2087 100.568 -11.7302
22.4516 133.974 -9.13709
6.413 139.077 2.5027
-18.1439 87.8504 -9.03449
-19.9533 124.229 -7.88613
12.1737 142.106 -5.86777
-20.8389 123.214 -5.00885
-20.7389 107.762 -12.5228
22.3954 99.2706 -5.35647
-14.8516 104.497 5.703
19.77 110.681 -8.79768
-7.78075 124.589 -6.67242
12.5194 111.13 -15.9375
-11.8669 84.734 -10.2784
12.5208 127.722 -11.2907
9.9249 122.216 -16.8893
-18.5343 90.4683 -2.20296
4.79395 101.013 -17.9584
-0.828941 141.408 -4.07978
-1.56235 120.528 -14.4366
15.3497 101.422 -13.4359
17.6911 98.1768 0.0662065
17.1836 124.454 -2.44853
-4.30438 123.451 -12.5374
-28.0949 95.7855 -5.70473
-16.9963 144.07 0.697022
-6.29296 143.91 2.53129
17.8323 147.134 -0.164957
-14.2493 146.45 0.398469
19.369 113.039 -0.134181
-4.65371 86.6609 -11.8911
2.80139 140.899 -7.03659
15.5522 116.931 -10.3004
-20.5082 140.896 1.82223
19.6923 115.876 -5.53398
9.75837 97.9736 -16.7129
-8.38446 88.4651 -11.4156
16.0573 146.733 -2.24593
-0.759706 98.3502 -17.0578
-27.5699 105.791 -6.78307
6.21032 153.34 -2.69887
15.5079 95.2422 -0.40177
18.617 120.969 -9.78887
-14.2319 142.527 7.1289
-5.11682 125.367 6.51363
-27.6582 83.8375 -6.4596
-21.8806 136.405 -0.755579
10.4062 145.752 -7.04614
13.4103 109.618 -14.9284
-14.9943 128.696 4.9918
10.5197 140.467 -9.29436
-25.0922 119.784 -1.86691
-21.9252 133.169 6.68937
-6.62255 93.2573 -12.4105
5.31644 125.402 2.69571
1.10257 85.933 -15.213
-3.87947 142.45 3.47015
-17.7884 86.594 -7.95516
-19.1805 143.85 4.36825
-18.5878 109.437 5.4063
-16.2613 109.184 6.60667
-16.9488 135.235 7.66336
17.2691 147.3 -2.67104
4.51656 141.299 -8.78381
12.689 125.548 -7.22245
-15.7585 106.849 6.2279
10.7447 90.7931 -15.7872
-4.0994 111.298 5.62177
-3.08633 134.869 -4.96228
15.1858 144.846 -2.46121
18.0812 144.876 0.463476
-3.23145 91.0688 -0.560184
13.2917 125.618 -6.12698
1.93619 103.306 -1.03298
13.9731 130.144 -11.7759
-7.37265 117.124 7.38557
-19.6683 132.763 -3.10864
21.2565 121.666 -12.558
10.9855 102.541 -1.73576
-3.82057 102.342 3.4491
-15.6285 132.608 -5.23853
-28.1462 120.536 8.05697
-2.95799 99.3639 2.10007
-5.36153 138.378 -5.45341
0.838454 108.251 -17.237
-16.9241 131.686 -3.79051
11.6414 135.64 -12.1566
13.714 129.001 -9.75327
16.4789 135.947 -10.7923
20.9188 108.707 -2.96182
-22.2417 90.7505 -3.7594
-3.24226 95.6843 0.604354
-9.60266 101.402 -12.7382
-28.2356 119.34 1.70852
1.35275 129.094 -11.5233
7.3369 131.63 -14.163
-20.3749 92.1781 -2.22437
11.3576 149.686 -3.88631
14.6212 123.748 1.82283
-26.4944 123.385 -0.185667
-5.30029 122.028 7.115
13.3768 129.915 -8.89393
0.559181 137.936 3.78655
-25.9537 101.846 -2.25188
7.91921 136.227 -0.693578
12.2354 97.8331 -16.0295
5.10762 153.625 -2.05309
-23.0376 100.286 -11.7082
15.2913 137.245 -9.30238
17.6578 144.885 0.734617
-12.0241 85.7016 -8.90209
-18.8189 118.41 5.91946
10.6164 139.188 -10.6443
-0.0667956 111.945 -16.1156
-19.4329 129.428 -3.81353
-17.2383 126.694 6.27192
-10.2517 109.329 -15.0813
-26.1248 129.974 2.32481
-16.5992 132.19 -5.28854
-14.2143 148.348 0.407833
-6.75181 94.3022 2.71998
15.2384 100.199 0.322478
-20.4292 124.936 -3.08555
-22.1774 122.854 -0.0876835
11.5583 132.394 -1.79136
0.956277 119.738 5.2815
13.7359 127.496 -8.92658
18.8539 127.831 -6.20573
15.0507 122.884 -8.87594
11.7076 138.961 -7.83682
17.9659 99.1925 -12.4761
2.17228 114.012 -16.6481
-16.1537 92.0426 -0.651512
-21.8693 123.248 -3.78209
-21.0735 109.016 -11.1232
20.3389 127.762 -12.8827
-17.9379 104.067 -12.1894
22.0427 128.973 -12.3802
-10.5985 102.083 3.81576
21.3255 102.927 -2.19045
23.1331 139.19 -3.26205
-25.4909 134.177 5.11134
11.2535 135.756 -1.5778
-21.385 120.21 -8.95703
1.02984 102.554 -18.1584
8.77855 107.601 -17.5432
-8.16863 118.796 -10.3035
-1.48908 115.255 -15.3574
6.24589 116.739 -2.19415
12.7982 132.595 -10.3411
-15.2712 96.9387 -11.1653
19.5847 134.003 -3.54786
16.2561 128.342 -1.62782
-16.6345 83.1115 -9.89954
-15.8363 83.7203 -9.72925
10.884 96.4282 -16.0413
-19.4263 103.246 3.56957
-9.68334 114.116 -11.6571
-27.3889 100.805 -10.7801
3.78333 118.764 2.95709
13.0948 115.943 -12.1748
8.01455 110.288 -2.95476
13.9841 114.729 -14.1211
-19.4794 124.568 -6.07257
-8.17479 115.279 -13.9631
-17.2596 126.944 6.40703
-31.2689 83.1491 -4.57247
18.5331 115.788 -7.39086
-23.9042 136.85 5.07333
22.2454 105.525 -5.80782
-25.6341 117.009 -5.72535
-13.1085 150.146 1.69366
-16.7093 135.861 -2.74574
-22.9305 87.8592 -3.37091
5.92465 115.039 -2.32042
-7.77977 110.309 -15.7808
-8.59381 119.793 -9.06797
1.40785 104.462 0.699989
15.4604 114.054 -12.492
-22.7674 132.154 -2.76587
-23.6618 135.932 2.82192
5.22192 117.84 -16.1099
4.42367 142.445 4.76325
-3.20429 96.6725 0.91959
-1.55268 117.368 5.76577
-24.1095 84.0624 -7.17403
-22.229 84.391 -8.87629
18.917 144.661 -5.27847
-20.1278 121.225 4.27894
21.5462 101.799 -2.36752
-23.8763 83.8657 -6.99231
17.3961 116.4 1.28806
26.4826 125.924 -8.66365
3.18791 113.725 1.99825
-12.3361 117.88 7.31727
10.7469 125.492 -12.2659
12.7374 129.844 -10.6458
-2.44469 118.336 5.43452
-9.13198 112.943 -13.7813
-24.7066 106.489 -1.75442
-26.0301 122.363 4.09456
-5.38206 124.515 6.88752
-26.8749 91.6556 -9.53137
-26.1975 91.8962 -9.75164
-16.3584 110.737 7.13531
-4.65279 85.3868 -12.0551
-3.6491 108.569 5.0514
-28.2143 120.109 6.45991
10.7485 111.114 -16.9049
3.20378 95.8482 -2.37225
-4.82274 106.663 -16.5866
-21.139 92.0166 -2.58359
-20.3571 125.973 -4.00441
-26.8767 103.049 -10.6187
2.61261 99.2769 -1.76534
13.4785 149.45 -0.980095
-20.9245 121.903 -0.41848
-11.7861 116.182 -9.66694
5.0682 93.8975 -2.09888
21.2348 101.457 -1.34976
8.89203 143.811 -9.28368
-27.1635 103.56 -4.78352
-14.7693 131.894 -8.53309
17.9669 120.637 -2.53633
17.5161 120.938 0.586155
-21.558 122.521 -8.2781
-12.8156 81.2647 -12.7603
-6.39819 89.4549 0.519516
-13.9731 145.333 -1.02379
-4.0296 119.346 -14.6124
4.07415 134.181 -11.5593
-29.6089 122.072 3.52921
10.4132 149.456 -4.83648
16.7572 101.058 -12.3893
14.505 136.918 0.342703
-21.3786 137.956 7.30896
-25.0329 86.6369 -3.32081
15.9423 120.212 -11.3459
18.4971 98.3739 -12.4078
4.26849 144.49 -5.4497
17.9153 137.824 -9.76339
-9.63663 131.084 -6.19165
-11.552 84.7815 -10.476
3.71685 132.576 -12.4885
0.997223 100.869 -17.8734
-3.65541 125.864 4.63144
24.9046 123.603 -9.7174
6.51046 112.641 -2.71525
-1.94273 106.914 3.97795
16.8867 99.4534 0.128861
17.9367 106.515 1.2583
20.4095 145.03 -1.63371
-3.68788 101.662 -15.0712
16.3999 115.353 -8.45726
-16.773 81.7894 -11.5689
-30.0399 91.2672 -6.83191
9.24443 93.3963 0.279667
-19.7613 91.9119 -11.6954
-28.6915 87.9581 -9.58541
19.0763 104.33 -10.3742
-15.3619 141.867 -3.85607
-26.2141 111.987 -7.71277
2.08651 114.508 3.72824
1.94128 118.326 -16.1198
21.1392 131.457 -4.29224
2.90559 136.699 -9.84167
-5.0958 141.222 -5.25638
-10.3377 128.835 6.06515
-25.6644 96.6071 -2.34912
-10.4247 113.588 -10.899
6.34275 124.732 -15.754
20.3392 131.967 -4.02691
14.2415 128.083 1.00027
-3.12405 121.507 -14.1332
14.5287 94.1666 -13.8416
-3.09198 130.33 4.68372
-3.38015 110.45 -17.2574
-20.2931 102.935 2.91772
20.2257 115.963 -4.99604
-10.8521 146.733 -5.60543
-19.2594 106.306 -11.9995
-16.777 116.793 6.63672
7.26381 146.516 2.96105
-0.450835 136.754 3.86808
-2.71262 134.857 3.2919
-21.9764 138.031 6.98261
-24.807 101.877 -11.7828
15.0932 107.734 0.572638
-8.64691 136.147 2.8833
18.7265 134.492 -3.28731
-18.3536 128.568 -4.97741
-23.5355 127.836 -2.25857
-4.06342 111.593 -16.5997
-23.4643 134.095 -0.755513
14.1101 132.869 -8.95229
3.20591 131.085 -12.1841
21.7138 132.406 -4.01991
25.3352 136.288 -6.76576
7.91389 146.107 -8.15554
9.00851 154.573 0.617344
-5.97963 132.72 4.05568
-1.91234 134.608 -5.86076
-29.1767 121.194 2.97228
-9.60462 129.608 -6.2016
-1.03975 105.699 -18.1428
-6.74101 133.333 3.51131
19.493 106.234 -0.065289
-27.5189 79.336 -5.12523
8.99704 104.948 -2.67934
-8.42883 125.78 -6.31683
17.1746 120.624 1.11352
-3.84484 122.468 -13.4826
12.7872 127.264 -7.70695
-7.04371 118.937 7.18516
-27.2894 108.475 -7.25202
4.94987 124.886 3.12994
17.9695 115.325 -7.55284
-24.957 130.288 6.77744
-11.0092 105.739 -14.453
13.7328 127.463 0.948966
-11.8198 132.955 4.61807
-18.3399 100.984 -12.436
6.28794 135.298 3.42104
-2.00123 91.6444 -15.2738
-11.5767 130.875 -7.34237
-22.9936 95.441 -2.00596
23.2047 95.5582 -6.2417
-24.0105 105.13 -0.634143
-16.2937 90.155 -1.18986
-13.7811 120.782 -8.07516
12.8659 117.369 -12.1657
24.7916 124.134 -9.74495
-19.4708 141.555 6.75411
-24.2683 122.895 3.57448
-7.21766 100.899 -13.1195
-7.5151 149.515 -4.8321
12.0647 124.031 -12.3856
-0.772569 97.6706 -0.547216
-3.70058 91.3004 -14.6348
-14.3475 107.816 6.4797
13.1251 122.838 -12.0161
-15.8436 112.093 7.48068
-24.923 84.8082 -2.59279
-31.4041 81.7688 -4.54492
2.57115 145.492 -4.04454
-20.7531 123.411 -4.70679
-25.6351 130.734 1.77628
-1.90181 93.3168 -15.662
12.7416 129.927 0.305879
-19.1119 137.548 7.8591
-27.7985 101.849 -9.73138
5.11113 122.716 1.91064
-25.3603 103.856 -11.1618
6.00947 146.439 -5.81917
6.0997 117.303 -16.1987
-8.75736 126.668 -6.18849
-21.4755 123.197 -2.20969
0.7478 88.2848 -15.0587
1.16101 119.782 5.1963
-18.3051 130.001 7.62618
-21.5153 133.171 -2.67766
27.2506 124.321 -9.61417
11.9337 119.287 -2.08726
0.919581 104.905 1.55513
-13.4693 97.0594 4.03895
-8.73583 127.534 5.98389
2.16466 105.365 -18.179
3.52508 117.946 3.11428
-26.7912 102.672 -3.50276
26.9134 133.622 -9.50355
13.5684 136.703 -8.42637
19.4965 116.372 -0.873762
9.00895 124.245 -16.0996
13.3992 132.545 -8.11357
-26.4826 130.54 3.39762
-29.3251 92.4901 -9.87437
-18.1017 120.708 6.42649
-27.3444 84.0611 -7.4754
-9.87715 107.889 4.85943
-5.111 85.6665 -11.6933
14.7827 125.604 -6.64717
16.4241 128.86 -12.9469
-21.0586 123.082 -1.6837
1.19309 112.161 3.7078
-20.7553 90.3946 -3.43715
26.6416 133.107 -10.5669
23.2186 127.656 -4.64681
-15.6527 112.888 7.59243
20.4415 115.119 -3.96055
13.9532 128.464 -9.75801
8.12144 98.7851 -2.21731
-7.87898 145.311 0.556978
6.83768 151.124 -4.13005
-9.35056 92.4235 -10.3514
-30.0911 93.5356 -7.23385
3.00129 135.79 -10.5127
-4.29262 114.162 -16.1017
0.431333 137.348 -6.25656
-9.68335 145.534 1.94156
13.833 125.206 -5.65689
12.6039 108.88 -16.017
-21.6104 125.517 -3.28752
-20.5673 124.494 -3.48365
3.59287 128.919 -13.5597
11.8376 118.838 -12.9379
-22.1884 120.318 -2.62674
-6.47705 131.14 -5.43438
20.254 112.501 -1.6344
7.60758 153.632 -1.87232
-17.8745 110.404 5.9624
-14.8617 116.591 8.22222
-19.7787 82.9387 -8.58804
-5.47921 109.049 -16.3715
-15.0249 103.123 -11.8366
-16.5632 124.432 6.47963
24.2039 134.045 -5.60464
-4.22321 96.7199 -14.7444
15.3081 126.32 -8.68506
-10.5365 138.611 3.2301
-28.0315 87.8393 -10.8723
11.1916 148.583 0.338537
-18.6486 123.366 6.28898
-19.8574 88.5708 -2.83412
-18.8931 129.764 -3.63901
-12.9084 138.488 5.6582
10.593 99.6824 -1.0681
-22.4034 119.694 -2.3909
13.8638 133.982 0.987129
16.5424 146.798 -2.46385
18.1372 99.9796 -11.9082
-5.16017 118.306 -14.4201
-19.7529 122.118 -8.13357
-23.5886 137.907 4.70384
-16.5428 99.7955 -11.4817
-2.04853 101.084 -16.4341
-6.60248 119.42 -12.919
20.0528 146.55 -2.56641
-27.3803 105.906 -6.25979
-11.0526 150.374 -3.31339
13.465 96.0609 0.207442
-4.45314 111.337 -16.3952
-0.819748 94.0348 -15.8977
6.18672 128.561 -14.8913
1.81171 125.782 -12.7075
8.44699 96.2089 -16.9152
5.4527 128.313 3.3639
-14.7278 146.815 1.63602
13.8065 120.079 0.736905
-18.4706 89.9067 -10.252
4.04051 150.033 -3.37799
-14.5191 108.868 6.82004
-21.5068 107.107 2.23183
-7.90894 147.544 0.897203
-4.30486 109.764 -16.9628
-16.2138 120.19 7.4652
6.40418 100.292 -17.7239
14.4284 116.072 0.904725
-12.6419 95.9869 -11.2269
12.025 108.235 -16.4242
14.3168 119.29 1.10974
-9.85566 109.417 -15.4985
-12.9802 101.918 -11.5963
-8.43529 119.304 6.96548
5.04041 120.105 -15.8539
-29.1485 82.5944 -6.75271
22.5877 97.6596 -8.11619
14.401 133.567 -9.67805
-5.95846 138.023 2.65918
-18.7938 111.781 3.47328
11.6728 96.4484 0.620619
-1.98494 103.596 -16.5854
0.384685 102.727 1.12634
0.474455 106.215 -17.9367
4.52432 144.454 -5.77432
0.911078 136.48 -8.6757
7.04023 145.031 2.966
12.4583 137.477 -9.03849
-4.10204 132.151 -5.33779
19.364 94.7298 -11.3723
21.3184 143.688 -5.19069
14.3522 106.485 -13.9202
-16.0259 138.709 -4.96234
-20.339 130.478 -4.57449
-10.1877 110.936 5.93665
-3.62724 92.2089 0.125984
-7.2204 135.49 2.81524
11.6596 91.7305 -15.2548
2.74608 95.8162 -16.9303
11.699 120.489 -14.1029
-21.1684 122.344 -5.26933
-23.1717 121.261 -7.343
6.9184 100.231 -17.5147
7.47635 97.9769 -2.29486
-4.13895 130.268 4.49613
3.31144 124.546 4.6756
5.18756 125.182 2.88108
6.03843 147.435 -4.99039
2.82589 107.689 -0.570628
8.23285 143.701 -9.18305
21.9052 98.9448 -8.80264
17.6817 136.474 -10.3364
-20.0679 96.8988 -11.94
-1.99587 130.625 -9.53354
-24.6501 130.399 6.57587
2.91697 147.253 -3.71655
-19.9274 106.788 3.40199
-22.3348 122.64 -0.724097
-21.0178 90.9832 -3.20303
8.10717 111.05 -17.4129
-22.8954 106.34 0.977746
9.92152 148.38 -6.58945
5.52813 123.174 -15.0277
-27.2156 130.874 5.66018
-9.13641 107.411 -15.9396
-26.8629 105.111 -5.27949
-8.28745 98.2843 -11.5518
25.7843 129.86 -9.59572
-2.72649 132.413 -7.27185
17.5951 122.376 -9.8485
19.9874 140.628 -7.80315
-21.8321 123.084 2.6067
-13.9643 110.011 6.77197
3.43233 90.5049 -1.38844
5.45971 136.701 -11.0849
-4.86633 92.2223 0.822749
-2.98672 98.9396 -15.7867
-6.88924 137.938 2.32396
-24.3896 107.376 -1.49156
20.6936 105.103 -8.50087
-19.3761 87.2657 -8.29837
5.97443 92.7952 -16.8798
-8.86987 132.828 3.1943
-16.2917 143.182 -0.0712655
-7.91701 142.377 -6.6472
9.77168 126.182 -2.4934
-9.81371 139.67 1.75052
-8.37763 118.297 -10.2744
-8.0666 114.187 -14.4403
2.02911 103.288 -1.21723
15.2152 124.249 -6.57606
-11.0515 116.459 7.07639
0.502185 118.54 5.54177
-8.22418 117.285 -11.5683
1.86927 135.751 -9.53313
13.2847 128.524 -12.4638
-17.6106 133.789 -1.88227
6.61302 136.046 1.60523
-23.3219 119.106 -2.99056
17.3877 123.44 -1.61512
-21.7195 122.978 -1.04113
6.80954 115.041 -2.58007
18.9796 136.675 -2.69226
-7.9685 118.476 -10.8506
-25.1378 128.954 -1.07545
-8.82799 112.925 -14.3764
-8.55875 120.194 6.92869
-2.40316 129.911 5.00647
10.3621 121.755 -2.60395
-5.29216 101.785 3.4698
15.7312 133.117 -0.800432
-2.37254 133.229 -6.66017
12.6581 104.791 -1.54598
11.2214 137.318 -1.84596
-4.14903 139.77 -4.70621
4.01859 87.5126 -15.6729
-18.9293 136.776 -2.02241
18.371 122.466 -6.28026
-23.6894 119.784 -3.99152
-22.782 123.186 -1.30529
10.7024 132.124 -13.5822
7.71164 125.458 -16.2109
-3.08894 82.985 -13.6494
-19.3297 126.922 -7.00055
4.59038 144.95 -5.43343
-1.93703 112.906 -16.1181
20.3066 137.626 -9.45035
-3.4967 123.356 -13.2285
-10.7059 88.3351 2.1925
-14.8864 137.3 -4.50163
-28.0216 84.6431 -10.182
5.20598 92.3927 -16.816
20.7355 110.793 -7.16983
1.21867 107.611 -17.5041
-16.129 121.844 -8.60612
2.39931 123.856 5.16643
-22.3343 87.945 -3.39694
-23.6659 136.003 1.67374
14.3322 115.58 -10.7987
17.3155 138.512 -1.10929
6.75822 129.608 -0.023428
-16.4695 91.8551 -11.6713
13.8146 134.673 -6.89008
4.33585 137.879 -10.4573
9.81119 136.398 -11.9816
-17.0563 110.877 -11.1486
3.32341 115.973 -16.8547
-18.8275 126.751 5.45773
-28.0688 128.925 5.93671
-5.54684 120.763 -13.2983
-7.51043 93.3028 2.63731
-9.79554 112.086 6.27163
15.5297 114.214 1.26778
12.7182 126.949 -11.6193
11.7212 136.701 -1.07137
19.7922 104.309 -0.0962126
0.580294 138.564 3.71575
3.82346 111.553 -0.232216
-10.8302 129.489 6.07305
1.76787 123.337 5.02796
19.0819 126.114 -6.22246
2.60632 128.033 -13.1287
3.56521 116.169 2.29484
5.91504 114.019 -2.39339
-3.55751 98.1061 2.13295
-8.30573 88.2236 1.3984
-4.53277 129.545 4.67717
-5.26665 142.792 -5.36627
20.4155 133.938 -10.415
0.500308 139.557 3.80813
0.545017 120.383 5.40511
4.51051 138.307 4.55588
-24.3892 132.662 6.01658
7.81023 120.747 -16.131
-24.8056 130.331 -0.0923947
0.766391 107.248 -17.5117
12.0106 140.583 -0.700461
-30.1699 123.128 6.02545
-13.0962 95.5166 -11.2921
-4.96701 121.625 -13.1
-8.00937 114.949 -14.3277
-10.9684 86.7292 -8.97422
-0.188375 121.906 5.24827
-19.7493 83.2362 -11.6148
18.4445 119.454 -1.41958
15.087 142.472 0.0805766
9.46488 88.3876 -14.7871
-8.80069 103.704 3.89289
-11.0713 95.3035 -10.5678
7.83646 128.341 -1.94641
-20.1174 91.0207 -11.3823
2.05394 108.548 1.84393
-15.5752 138.996 -5.11209
-20.2347 112.029 0.78482
16.5403 129.86 -11.5412
-0.926424 90.9174 -1.63474
-6.41978 107.101 -16.6148
3.07509 114.409 2.4852
6.5371 107.804 -17.7916
-1.15785 133.743 -7.43977
-27.9194 120.771 8.07223
-6.83785 147.55 -5.55889
-9.24347 111.609 5.83949
-14.4318 95.0616 2.0183
-6.20313 107.943 5.20401
12.53 145.156 -3.78952
14.9065 89.4094 -13.9843
-0.056556 117.955 5.67864
-11.1686 125.971 -7.14559
3.59802 93.7143 -2.24477
-25.8353 110.555 -4.87838
17.2611 118.627 -10.1659
-28.2963 81.878 -6.15597
-31.3645 80.3545 -4.56374
-19.9642 110.025 -10.9657
-8.7484 114.679 -13.059
-20.9722 136.971 -1.10448
-6.83115 120.997 7.10201
-10.4236 111.768 -12.5023
-26.7145 130.505 6.66428
22.3479 102.255 -5.18628
22.6359 98.2859 -6.77351
0.90956 88.9322 -15.4327
-13.4086 90.2775 0.507981
-1.89584 144.41 -3.92922
5.80036 94.3846 -2.07679
10.9064 122.926 -12.6746
-21.6412 131.276 -4.06115
14.6661 143.804 -3.00852
23.6354 122.705 -12.01
-18.0021 121.027 6.4082
-5.59543 101.373 -14.01
-9.31067 121.975 7.43704
-8.80953 136.459 2.64148
3.90263 121.569 -15.624
-14.5497 146.468 1.11962
7.95877 139.644 -10.2022
-14.1535 119.881 8.4341
-30.0599 123.165 4.90737
-9.09688 104.915 -15.188
-16.3305 105.001 -11.6271
12.098 99.6662 -16.2876
12.8695 133.284 -9.02401
7.43656 131.314 -0.898291
-8.29476 104.896 4.1737
12.7079 97.0878 0.680955
-23.6179 120.68 -6.54371
-12.6819 122.158 -7.25724
-22.5714 84.2778 -6.69716
-16.5645 144.806 1.30477
-11.2583 135.717 3.50972
13.0459 135.156 0.764979
14.3135 99.2104 -15.0413
15.1085 128.534 -7.39581
27.2933 127.953 -12.6351
3.09037 111.995 1.50776
-9.60266 90.4035 -9.80137
3.27691 106.122 -17.7608
-7.25077 125.427 6.93843
-21.0695 125.126 -3.9294
-16.0958 145.05 1.36136
21.1865 95.2661 -10.6615
-11.2861 99.5462 -11.1696
-13.3885 129.694 -8.39814
-13.5551 104.075 -11.9302
-4.52791 98.5478 2.94865
-14.6005 146.211 5.65157
-9.08 149.104 1.78697
-15.0785 107.825 -13.8611
-5.23134 135.231 -4.72375
-17.8796 90.9112 -11.158
-13.2494 132.403 -8.8988
10.8189 104.092 -2.14801
-15.6498 118.057 7.96942
13.4253 90.3596 -14.7056
5.92926 142.707 -9.23896
-7.5809 152.037 -2.98029
-5.3462 132.832 -5.18472
15.1781 103.95 0.265432
-6.91828 129.698 4.91165
19.4768 96.973 -0.340749
12.5656 118.691 -11.4544
-8.83247 114.558 -12.9903
-24.8455 111.116 -8.8491
-29.2568 122.571 8.16245
-1.12283 118.645 -14.9521
22.8842 97.242 -6.98974
-23.2451 108.582 -0.59286
-1.56833 108.923 4.50286
-22.5231 89.2024 -4.02325
-4.13298 91.2866 0.113481
-22.7236 84.217 -7.29558
-16.9001 114.407 -11.2228
-27.8176 120.728 5.80127
-26.9406 102.032 -3.61401
-20.5355 142.061 3.93425
-8.67513 126.217 6.59871
-5.26744 84.1091 -12.0808
-2.62659 83.5817 -13.7701
22.2596 127.773 -4.47972
4.91334 131.39 -13.4506
21.2969 106.503 -3.60612
16.8167 121.688 -13.2463
-27.608 128.79 4.21783
-12.8422 120.3 8.65253
-27.5269 103.664 -7.94192
12.3819 88.1066 -14.174
-27.8446 102.277 -6.32918
8.0838 134.415 -0.487267
-13.2152 124.596 7.62063
5.07859 133.972 -11.7801
29.7802 127.901 -10.2605
0.846195 125.978 -12.5662
10.2306 124.02 -2.54077
5.32118 96.1212 -17.1298
14.9916 138.37 -7.29895
7.51807 126.518 -1.92205
12.2554 91.2914 -15.0024
19.694 124.772 -16.2274
-5.81866 102.929 -14.9946
13.9876 95.6842 -14.6273
1.81508 103.857 -0.559558
14.4333 97.5856 -14.9021
0.542893 143.516 -3.88218
17.5692 112.621 -11.4159
14.3193 126.252 -5.42822
-10.0373 118.489 -8.47831
2.05647 121.944 -14.2861
3.10408 120.944 -15.6909
-12.3302 120.26 8.27515
-19.5912 125.769 -2.68169
3.99694 88.5361 -16.0668
-23.1855 109.896 -2.17848
-23.2371 100.395 -11.7171
4.6651 105.593 -2.70347
-14.1449 147.136 4.92161
1.27941 128.761 5.60736
-8.38932 135.075 -6.50918
4.97567 102.387 -2.75487
12.3979 125.404 -12.0293
-12.3544 103.306 -12.3209
13.2272 147.409 -3.05654
15.0548 127.964 0.830608
-14.1734 118.801 8.42735
9.44308 112.617 -2.8347
6.89933 127.569 -0.592625
-11.9353 85.4389 -9.23808
2.47266 107.285 0.013154
15.4412 139.752 -0.821674
-0.795462 131.609 -10.0289
-20.3341 133.92 -3.19418
-22.8746 136.169 0.195302
-3.21016 97.8144 1.57902
10.6199 88.2439 -14.6921
12.8664 138.931 -5.59856
-24.0412 84.5491 -8.72002
-21.5591 123.406 -3.59349
12.8859 116.024 -15.328
-6.95858 109.687 -15.7795
18.2799 121.078 -10.2424
-18.0505 143.372 1.0589
-2.14377 89.4194 -14.7582
-1.35907 105.645 -17.8896
1.97011 124.996 5.27316
-16.9647 131.982 -4.91456
-8.09324 105.124 -15.9366
-13.0756 132.459 5.25959
-17.7646 102.929 -12.359
-2.23628 101.216 -16.2743
2.46735 96.6482 -2.30357
-28.86 96.537 -9.86949
-29.8638 120.123 5.06378
6.85451 142.496 2.72843
7.25233 136.383 0.345508
-23.5679 106.962 -11.7262
-28.6064 125.546 7.66031
16.1204 124.847 -1.73626
-10.9289 151.264 -2.30575
-26.8435 84.0488 -6.18847
-21.3621 123.182 -2.44216
-11.736 95.3011 -10.6591
-5.53456 98.1811 3.30437
-1.78459 92.7144 -1.18209
18.4339 125.303 -16.2522
-14.6415 126.572 5.01012
-8.82435 103.438 3.89798
4.48259 103.866 -2.72265
24.4568 124.995 -7.7139
14.277 121.239 -11.8731
-12.5939 131.634 5.46925
-8.22555 123.076 -7.38949
-30.2118 91.7276 -9.34369
-23.0435 121.739 3.78206
-25.1635 106.645 -9.45929
-4.81556 138.569 2.4037
-1.16418 129.995 -10.9816
10.904 121.771 -2.52961
-1.12279 142.859 -3.92412
12.4607 109.206 -1.78161
7.61397 122.905 -16.354
-26.1367 119.396 0.168467
-9.66173 89.3983 -9.8987
-16.7612 108.514 -13.0611
3.14841 109.032 -0.342657
-21.3474 100.466 1.62107
-20.6678 122.882 -1.78386
18.8464 105.34 -10.177
7.80212 127.614 -15.6432
5.43486 120.226 -15.8416
19.5854 127.024 -5.31719
-21.9972 136.292 -0.887878
6.42197 147.752 -5.17713
-24.3958 89.7166 -10.6982
22.4494 130.103 -4.49664
11.5453 97.2938 -16.199
14.6096 134.845 0.643318
-18.5875 113.66 -11.5873
21.1675 122.437 -9.13612
-14.688 144.35 -1.78926
-24.7085 121.238 -2.78161
-10.2217 108.422 5.12371
-8.31371 119.821 6.96551
26.0575 128.428 -9.22641
-24.1522 122.628 4.76195
7.1447 143.97 2.31492
-10.73 134.655 -7.97407
-14.5114 107.685 -14.2629
-30.0743 82.1434 -3.91444
-24.7055 135.451 6.23539
-21.5319 87.0205 -8.75816
-6.76244 120.783 -11.332
-22.6548 80.9887 -3.41404
10.8118 152.032 0.964683
-23.935 86.5877 -9.20594
9.66799 103.984 -17.4821
-20.3824 124.847 -3.47042
20.0414 145.331 -4.36954
22.4632 97.3205 -4.00241
7.99357 139.345 0.247249
22.9816 137.528 -7.45175
-10.7418 81.3062 -11.7852
-16.251 129.433 -7.87991
-18.7415 82.5469 -11.4626
-12.4826 139.746 4.76158
15.8954 123.654 -7.81149
7.57941 134.707 0.200198
-20.018 125.228 6.95363
3.57158 100.242 -2.06635
-2.38518 109.008 4.77903
18.6626 126.741 -6.37514
13.8744 101.88 -14.4499
24.0344 134.039 -4.79037
0.903078 152.087 -2.96647
-14.4975 112.094 6.9744
-20.3899 103.44 2.9302
-25.8799 105.12 -2.66609
-25.428 112.673 -3.34152
-17.2188 143.709 6.82699
3.7639 90.7018 -16.5769
16.5244 130.522 -11.2474
-15.2292 94.1641 1.21718
-19.2655 123.772 5.83008
19.2111 111.57 -9.37405
13.7297 125.294 -13.157
13.872 132.024 -10.5115
18.2186 123.173 -3.78779
13.9747 114.56 -13.7005
7.67789 137.584 0.110822
16.5488 95.9617 -13.1853
-26.067 89.6757 -5.44271
13.3187 150.677 0.772481
-9.25696 144.701 1.51918
1.67106 152.833 -2.83994
17.3433 103.588 1.01202
-11.7977 103.542 -12.7894
-6.8079 134.16 -5.28699
-23.6169 119.956 -3.9755
-21.3494 101.172 1.76714
5.29341 117.746 -1.10419
15.1093 102.095 0.607654
5.22007 91.5609 -1.52786
-1.55747 152.705 -2.65919
16.7285 100.648 -12.5833
18.745 127.622 -6.36105
4.9452 141.393 -9.19494
1.56511 132.082 -10.6388
-6.98035 134.834 -5.34406
16.4073 103.404 0.840581
19.978 130.076 -3.93213
-6.52536 110.168 -15.8317
-24.4756 123.056 4.02399
-10.1142 88.2709 -9.5056
-30.7694 80.919 -4.21733
16.6774 123.853 -6.98417
-8.55259 86.6537 -10.6266
-1.30434 139.206 -4.4002
-15.8407 104.118 -11.7256
-29.5627 121.899 3.46424
-14.9546 141.043 -3.19221
-10.9474 135.745 -8.51664
-28.6447 82.3221 -3.43914
11.9026 145.572 0.0612899
-22.6929 84.0393 -6.59902
-18.9947 130.375 7.56709
-20.8932 106.823 -12.4208
-0.4276 120.403 -15.0826
7.09128 124.716 -1.72555
13.4075 91.9228 -14.4446
-20.5069 122.335 -2.3645
16.4547 143.649 -5.37334
14.4861 124.355 -15.2033
-17.8921 90.3714 -1.88328
-24.0879 85.7212 -2.40218
-22.0457 122.635 -0.482064
-14.4798 124.205 6.10451
-22.9221 120.44 -8.42786
4.74189 110.318 -2.27802
13.9258 147.5 -2.23273
24.6144 124.746 -8.99157
-6.93795 103.654 3.98326
-28.0486 82.2181 -5.33265
-15.7483 114.362 7.42283
4.74735 118.876 0.489521
-9.96722 148.31 -5.39525
-15.9135 145.501 1.82982
-23.8366 97.5403 -11.9838
-5.26858 112.725 -15.6707
-9.32765 100.426 -12.0145
2.60205 98.705 -1.87135
-12.6958 139.55 5.02835
20.9757 123.934 -7.65931
-27.6132 122.649 6.68135
8.12619 118.008 -2.65509
-8.32087 141.875 2.33834
7.50629 91.3477 -15.5493
-20.2477 125.791 -5.31793
-11.2485 137.434 4.00395
-15.4203 137.806 6.97779
17.2632 128.748 -6.55022
-25.1434 129.46 -0.247633
25.117 129.602 -8.70678
0.79682 126.318 -12.4702
-10.1947 150.916 -3.04531
-25.4837 133.967 6.04033
-1.22289 96.2194 -0.972464
-21.8514 137.525 7.18022
2.5979 127.104 5.36087
-2.02665 131.416 4.40554
-21.8799 122.978 -1.38255
-0.288481 84.5416 -14.621
14.9871 126.79 -10.2628
-18.2357 134.919 6.81879
-0.351776 137.886 -5.33071
-16.3186 112.452 -11.7513
-14.3631 109.661 -12.4264
16.6909 125.725 -3.47121
3.45535 109.008 -0.842713
0.125313 129.903 5.51974
-24.4805 117.466 -7.84628
14.2723 125.302 -14.1447
5.89394 120.698 -1.25824
3.48554 130.873 -12.6803
1.88557 105.234 -18.2099
14.2949 137.559 1.06522
-22.2551 122.53 0.808538
-2.86578 146.999 -3.91646
-6.73969 118.712 7.26253
-23.9404 114.13 -1.32978
4.92445 97.5304 -2.61771
16.4277 134.654 -2.32965
-18.0043 128.489 -7.46842
10.415 125.692 -13.326
14.0819 123.415 -8.83795
-10.3723 111.479 -12.737
-15.9811 137.316 7.20164
13.2929 134.754 -10.8549
-23.7249 120.751 -6.91419
7.88509 117.664 -16.3377
-20.6577 108.876 2.96254
-5.4673 106.304 -16.3918
-10.1465 90.9521 2.84668
-0.0402106 114.85 5.23104
-2.64083 129.595 -9.4607
-16.1092 147.075 4.79668
18.4465 122.676 -4.57597
3.15207 152.21 -2.96348
-18.5187 125.967 7.03154
-9.63915 126.518 -6.44732
12.8151 126.319 -11.8853
0.530461 116.455 -15.5753
-22.7534 125.157 5.92711
-7.48363 118.867 -11.7888
-25.0933 126.792 -1.27568
-13.355 86.6085 0.795539
1.94926 104.638 -0.332932
-10.393 148.542 -5.09324
-7.53738 122.016 -8.74125
-3.34761 83.761 -13.3985
-15.1511 146.986 5.01859
12.6648 149.036 -3.09922
-17.2522 104.08 5.06924
-11.7805 89.6895 1.64245
14.9594 124.087 -6.37002
-23.835 121.412 2.54913
2.89142 129.823 -12.4519
4.03931 139.505 4.54196
-11.243 111.002 6.49798
-13.1272 95.5459 3.48378
8.5534 128.41 -15.4749
-7.34331 121.486 -9.51963
-16.2089 85.7639 -7.74802
-7.92383 142.942 2.25569
-0.579967 142.264 5.24961
-8.26039 143.993 1.12454
-30.6911 85.3929 -4.693
-21.7963 122.636 0.0443318
15.0233 134.759 0.303758
-16.6287 133.287 -2.69247
3.56059 85.8997 -15.5194
-22.7958 102.65 1.04732
-18.2179 125.187 5.50476
18.483 147.601 -2.1187
-30.7562 85.0944 -4.89568
23.5671 138.703 -4.02786
6.46567 119.739 -1.86646
-1.4403 105.573 3.36914
13.6559 134.568 -7.61291
22.4109 133.692 -9.31149
-28.3887 85.7146 -9.5926
-10.0269 114.898 6.99439
-6.23228 125.045 7.20597
-17.5133 127.084 5.98685
11.3548 124.549 -15.1414
8.97866 108.517 -17.3233
12.2098 125.525 -9.98366
-27.5338 79.3685 -5.19405
-9.16323 149.928 1.51024
-28.1136 83.6765 -8.45717
-22.9307 123.848 1.41941
7.35615 128.549 -1.21021
-14.0238 104.542 -12.0073
-12.4928 89.2761 0.826355
13.5187 136.206 -7.25233
9.16456 99.6112 -16.6879
-22.0839 87.0722 -2.68612
1.78047 126.633 -12.5871
-7.40693 106.838 4.90308
-18.6688 106.628 4.44416
-8.35951 82.9184 -12.1861
-20.5753 83.5951 -8.82582
13.5621 125.092 -13.6336
22.3133 98.6937 -7.94186
-5.17547 104.869 4.10012
11.8438 128.032 -11.1453
-20.5018 114.011 0.562367
-4.31148 130.676 4.25662
-23.8385 122.366 1.74927
1.50035 125.576 5.43732
8.1807 108.795 -17.5249
-4.26911 104.781 -15.793
21.874 142.748 -5.41399
-11.1173 99.005 -11.2271
-1.33987 133.486 3.89585
4.45727 95.6719 -2.43331
9.32151 149.953 0.949311
-12.3205 146.82 4.74336
-30.6912 85.3512 -6.19245
-3.56006 106.256 4.22536
-29.7929 84.7486 -7.01354
-3.67254 128.741 -8.6235
10.9092 152.485 -0.595583
12.1395 147.953 0.642865
14.0981 116.802 -11.0743
20.8166 100.854 -9.86158
-24.1578 98.0081 -0.914666
15.2351 122.502 -14.3958
-20.5465 91.2055 -11.1512
12.912 130.104 -10.5346
9.42312 116.632 -2.83066
10.6636 145.64 -6.9035
3.46523 86.5944 -15.7881
-20.7478 120.188 -1.34408
12.0494 117.393 -14.0474
-16.8699 96.8021 1.78274
-1.1562 117.592 -14.8975
-15.2947 130.106 6.59142
13.7201 117.722 -0.0418171
-1.36014 121.168 -14.3493
2.53779 109.668 1.39617
-30.951 81.1576 -2.78264
-24.01 79.058 -6.05322
12.6388 144.708 -3.79967
3.41812 118.195 3.34675
-19.6849 119.31 -9.32147
22.5804 137.48 -2.63998
15.8433 145.455 -2.53257
-24.4342 120.49 2.88185
9.92714 120.191 -2.56945
-25.2529 113.042 -2.83931
10.9473 112.406 -17.0672
-27.5129 98.0733 -5.45288
-24.0223 86.8462 -9.47747
12.3151 127.526 -10.6344
-1.91603 139.133 -4.23125
8.02821 98.9025 -2.26341
-5.11439 111.024 5.50847
-21.2804 105.599 -12.3996
-15.1062 142.35 7.48131
13.564 127.937 -7.31228
-3.61663 134.183 -4.99648
-22.158 105.64 -12.522
6.38025 152.412 -3.48455
6.84007 141.601 2.26492
6.18808 124.573 -0.0925463
-23.35 110.022 -10.9451
-8.75946 142.626 1.65575
-4.20288 130.738 4.26706
-21.9061 135.807 7.27142
6.34678 146.576 -6.12286
-3.11975 85.0723 -13.1315
-11.8211 149.298 -3.34906
10.6776 142.191 -8.57044
-12.9528 134.226 5.21616
10.7361 116.997 -16.8001
-5.92561 95.6772 2.87166
-13.4472 106.806 -14.073
16.8585 144.439 0.823482
13.2361 117.884 -11.0712
-24.3209 90.1874 -5.06354
-16.583 113.704 7.09421
5.93942 98.1526 -17.5604
-9.53523 118.858 -8.68218
10.4171 136.743 -12.1049
-16.3326 135.077 -3.20845
-13.5425 125.821 6.03297
-8.53251 149.442 -4.89958
-22.1118 100.204 -11.9698
-14.4755 113.922 7.68366
-23.1634 123.323 0.0420157
4.495 114.16 -0.8875
-21.2482 122.088 -0.733662
4.03532 120.523 3.06581
-9.99847 90.4819 -9.7922
-6.79206 122.576 -9.40687
-22.8603 122.487 -0.390917
18.3054 115.256 -7.04683
-17.8536 139.494 -1.61782
14.9238 126.003 -11.0507
13.3606 146.203 -2.75987
-19.5074 89.4628 -2.7541
12.4618 100.915 -0.256912
-22.3106 95.0381 -1.75316
-21.2945 122.492 -5.08676
-5.68085 128.839 -6.09808
-15.9826 115.516 -10.5067
-6.02041 122.155 7.108
-12.0712 104.008 4.70108
-21.5951 123.515 -5.07858
-0.0603046 96.9612 -1.52687
-7.82431 88.5686 -11.6236
-12.755 83.3267 -10.9942
13.625 128.439 -7.75419
-7.04387 139.035 2.3303
-11.2127 129.58 -6.7442
-10.1279 134.498 -7.59213
-26.4472 98.5037 -3.41532
-24.3401 85.001 -8.18111
-12.8906 91.7439 2.05601
1.56614 95.2958 -16.6559
14.5259 115.423 -10.9187
14.24 95.074 -14.226
-22.639 94.3585 -2.51365
21.9358 128.346 -12.7807
-26.7691 87.9071 -4.96257
10.9113 120.913 -2.57013
14.991 103.778 0.276217
9.78595 132.137 -2.03467
5.82449 154.288 -1.49831
6.64973 153.407 -2.53745
14.2107 138.043 -5.639
-7.22503 105.032 4.3207
24.5566 137.554 -4.86496
18.666 136.239 -2.78974
10.9532 123.43 -13.3273
-4.90265 126.288 5.39634
27.77 126.931 -12.872
0.359826 98.3225 -17.3411
-9.43346 107.076 4.83466
-13.8689 125.934 -7.39272
-25.8491 112.353 -4.49199
23.8627 123.397 -11.022
7.79403 102.098 -17.4217
-14.9735 118.057 -9.60889
-26.2996 96.5339 -10.8134
-17.8759 141.19 7.17775
-22.099 120.366 -2.68773
-24.7751 95.8051 -10.9866
-18.5719 133.345 -2.6222
-15.9093 138.993 -5.01669
13.5092 128.745 -11.8576
-8.88459 140.293 -7.42731
-25.0831 105.057 -1.82421
14.3871 127.335 -7.97634
17.9383 120.35 -2.13373
-18.6122 127.213 -1.97185
-12.201 81.0798 -13.4836
-22.5618 102.041 -11.9689
15.6214 123.564 -7.43068
19.5647 134.321 -3.47204
-8.11459 153.079 -1.15405
-9.74463 100.51 3.86735
14.8191 127.417 1.1488
-13.1267 133.824 4.98024
3.6716 89.2475 -16.4396
-22.5525 123.998 6.34897
14.5269 133.923 -9.39477
-22.5285 117.647 1.43411
-22.4709 118.784 1.5878
-25.3291 113.976 -8.35025
-2.24995 117.038 5.82741
-6.01393 118.056 6.98167
-14.4524 147.046 0.851927
19.3022 126.42 -14.495
-10.3606 141.064 2.7671
-24.5147 123.418 4.72351
15.4557 118.818 1.61471
12.7393 99.1542 0.590532
-29.7112 94.7596 -6.70401
-21.0219 88.0757 -9.96784
18.3358 124.52 -8.31491
-24.7676 108.195 -9.23298
-24.979 130.87 6.53398
12.5332 128.931 -11.3991
-17.6818 99.5509 3.13101
24.6956 122.884 -11.4235
-11.7798 129.92 -6.99235
17.1377 121.888 -9.60467
-5.30088 95.4098 -13.4844
-25.6995 83.9913 -6.89763
21.8317 108.033 -4.84072
19.342 92.9918 -11.7751
-16.2614 86.8683 -0.639445
-28.6586 123.717 2.56655
7.02692 137.253 0.925752
17.7976 123.779 -7.32748
11.5878 119.508 -13.8753
-17.0897 120.823 -9.4369
-19.4195 123.914 -2.37081
-21.6097 95.1678 -12.1033
-23.5907 121.772 2.94286
-4.14439 140.271 -4.73703
-9.85734 141.408 -7.27945
-17.4786 84.2768 -7.61515
-26.776 100.912 -3.89688
6.86101 135.572 0.680706
-23.5459 91.4853 -4.10649
-9.30062 152.455 -0.0562731
24.3489 130.951 -6.57529
-10.5152 145.332 -5.99444
10.9139 148.464 0.257898
1.29914 140.838 5.04138
14.9653 141.9 -0.148457
10.1757 152.384 0.918151
2.17428 103.687 -18.2346
14.5155 119.588 1.22038
-9.5363 85.6976 -9.75565
-12.8328 137.082 -6.89875
-8.03223 149.807 -4.7315
-3.71401 142.874 4.04798
-19.1737 131.418 7.13877
-25.9453 115.823 -5.15667
-27.4808 82.1721 -3.05989
20.9678 103.196 -7.641
-4.49525 127.627 -8.50797
-8.88095 105.625 -15.6196
-18.5881 126.097 7.20083
9.93858 123.448 -2.5904
11.6457 147.39 -4.26386
17.5772 133.271 -3.32482
12.5517 148.542 0.747064
14.0412 135.279 1.01888
-1.37699 130.906 4.75333
3.88272 124.42 4.11676
19.0299 111.64 0.316786
-18.9057 98.2298 1.51235
-18.4267 82.2634 -9.64324
25.6566 135.784 -8.61217
11.715 146.65 0.0800217
-7.86734 130.218 -5.69773
-6.91383 126.198 6.90087
15.9554 126.23 -10.5258
-20.3052 121.229 4.1136
25.0883 130.938 -8.12518
-3.29802 147.408 -3.98688
-28.0869 128.605 4.96454
19.4045 96.535 -0.53382
-22.9558 122.756 5.11233
4.12835 96.0877 -17.0036
12.3756 123.05 -1.74242
-16.649 133.915 7.51353
13.1814 124.557 -7.45821
11.5697 138.099 -11.0645
20.2952 92.2627 -11.2589
-4.38071 124.049 -11.7067
-17.2198 133.97 -2.75302
-22.9317 85.6584 -8.30534
-10.2897 138.577 2.33073
-8.9804 145.945 1.43954
18.858 112.503 0.575758
20.6778 108.704 -2.06339
-26.8868 99.8581 -11.0935
-27.7431 127.883 3.3699
3.68398 142.808 -6.0704
-21.9795 101.333 1.26276
9.66656 114.651 -16.9489
-7.30011 122.33 -8.85711
-1.32637 114.964 6.00502
4.44996 139.138 4.46794
-4.53963 114.775 -15.9017
1.83106 106.254 0.959593
14.6069 144.446 1.23511
4.34703 141.203 -8.65352
-10.8469 146.257 -5.72369
3.90363 142.957 -6.25872
10.3172 146.969 -6.91956
-23.5542 81.1892 -3.5857
-17.2627 113.781 5.56718
-13.7293 142.519 -4.69144
4.50134 127.45 4.04724
-20.0207 95.7894 -0.201308
25.4631 128.274 -13.6567
10.5873 124.132 -13.0388
-8.03396 138.239 -6.7403
-9.18979 132.888 3.37505
-3.07682 124.542 -12.8053
-8.34472 115.135 -13.6036
15.0264 129.908 -7.24827
-25.6514 114.415 -7.27018
1.96782 145.443 -3.80981
-13.2112 121.078 -7.68185
-12.5571 93.0455 2.89258
16.4386 114.382 1.42217
-18.4697 103.358 -12.5117
-23.4744 136.761 1.84559
-14.3182 139.945 7.01614
3.72456 105.094 -17.9683
-17.6517 105.724 5.2389
-25.6025 119.868 -0.195824
-25.912 112.982 -4.8449
13.09 90.8156 -14.7569
-5.43978 152.829 -2.81169
-9.3325 86.5565 -10.291
-18.4027 121.297 -9.11208
-10.4909 121.595 7.61096
17.0757 132.563 -3.24849
13.9941 134.668 -7.85101
21.7146 93.7021 -10.313
-16.3059 85.9403 -7.70502
8.36993 134.159 -1.24919
-28.4153 123.65 2.13474
-27.9238 83.8859 -9.66732
8.59837 135.333 -1.42838
-2.03617 92.7084 -0.9302
12.978 128.034 -13.5231
-30.6229 85.4537 -5.19077
-19.0474 112.008 -10.8106
-21.5211 122.994 4.18776
-7.89044 128.37 6.10277
9.78798 95.0926 -15.897
18.5773 99.686 0.0946402
26.6575 123.174 -8.25762
8.79051 136.98 -11.2679
-7.33875 101.107 -13.2094
10.5789 144.11 -7.25162
-29.9179 92.8887 -6.94824
5.7038 111.646 -2.51626
-14.5759 118.222 -9.50424
-20.7796 126.66 7.0434
3.50233 151.585 -3.0855
-12.0343 115.722 -9.86716
8.87114 129.782 -2.07026
-5.28431 105.057 -15.7611
12.0794 123.386 -1.92658
-12.1743 144.681 -5.21056
17.8901 116.24 -8.87072
12.8346 133.148 1.15502
23.5788 130.187 -12.2635
-16.6958 129.077 -7.41945
-13.5383 91.6779 1.3199
-27.2085 125.764 8.65628
-19.2556 113.123 -11.3527
-23.8433 101.177 0.0289014
-15.6675 124.982 5.91818
-9.5611 134.795 -7.40688
-13.5849 128.476 5.7811
6.02675 102.184 -18.0248
-29.6282 123.762 7.6397
19.4111 102.635 0.279478
17.6091 119.221 -5.73337
27.1827 125.91 -13.8538
2.51713 124.869 5.29692
13.3248 126.035 -13.7063
-26.203 114.261 -5.97728
1.95212 106.428 0.767917
-24.3329 123.11 3.57949
-28.4072 124.095 8.70242
-29.0906 83.4045 -6.57275
-12.8284 140.59 -6.08155
18.8843 140.62 -0.749552
11.8824 124.313 -12.4174
12.4335 108.199 -1.76184
-19.9077 98.3568 -12.1095
8.26274 152.786 2.22763
-6.08402 152.617 -2.96693
-1.55712 119.294 -14.6643
9.98112 135.488 -1.87906
17.7613 118.821 -6.92753
-23.8837 105.07 -11.0632
11.4126 146.375 -5.53422
-23.4949 106.374 -11.615
20.8323 127.958 -4.31065
-12.1924 93.9883 -10.3527
-24.2249 122.51 -2.26975
-23.2923 137.389 6.39964
-12.337 84.8477 -9.72593
10.3175 108.107 -2.51375
6.41046 128.117 -15.1086
-5.91116 124.277 -9.37994
8.48406 99.2538 -2.15206
-30.146 88.0562 -5.47046
20.2332 125.36 -14.7644
-7.06501 119.33 -12.2332
-24.1106 95.972 -11.2655
-27.9656 128.403 6.50912
12.9432 139.961 -5.16744
-18.1243 144.787 5.20636
12.1937 119.298 -1.88143
-14.3486 141.933 7.0034
-8.69653 130.372 5.5406
-9.13419 113.462 -13.4358
9.99967 149.286 -5.51325
-12.4514 142.961 5.45391
-12.6836 121.087 -7.61777
13.2217 117.345 -1.03192
-23.1047 120.573 -0.512269
21.6073 101.181 -1.88701
18.3677 142.189 -6.23047
24.718 138.088 -5.73538
11.3755 132.878 -12.3477
14.0911 102.475 0.509814
-7.81207 90.0817 -11.8476
0.346286 110.954 3.96913
-22.0406 83.6953 -6.91805
-2.75625 133.805 -5.53195
-3.2979 101.875 3.22193
4.19994 86.5978 -15.3031
-2.81246 98.2783 -15.9173
13.3996 131.576 -7.85281
22.8857 123.311 -9.56461
-2.82565 139.539 -4.19286
-19.0772 116.893 4.39778
-13.7815 94.5368 2.40881
12.7556 138.014 -7.6119
-16.0707 129.177 6.12314
-1.75873 108.993 4.58578
-18.0609 123.453 -8.17994
4.59228 96.7003 -2.53257
-7.10243 102.961 3.79864
0.786442 120.227 -15.3057
-10.7425 128.603 6.23889
-24.9567 86.8105 -9.90701
2.02982 109.663 -17.2835
-15.2272 146.985 3.02286
-12.3825 129.34 5.41712
12.2839 104.506 -1.68923
25.5124 134.259 -8.51476
18.2076 121.253 -0.332637
-8.12086 119.377 -10.0391
5.75281 134.514 4.21978
8.57072 112.894 -17.5145
22.9627 96.219 -5.86085
-17.5773 111.094 -10.9953
12.9088 134.743 -7.75149
-19.2662 127.218 -1.79178
-19.5267 118.403 -9.92294
-2.47323 111.201 5.48689
3.93764 131.464 -12.9395
18.2643 124.65 -4.5462
-6.10314 95.3147 -12.6647
11.9609 133.943 -0.645249
-13.2399 83.7001 -10.8738
-0.100729 122.529 5.15277
-17.8948 127.914 6.51243
16.5961 139.378 -0.766131
5.8282 113.397 -2.4154
-11.0231 148.584 -4.6262
10.1794 125.267 -12.7559
-24.6479 107.762 -10.0852
-2.06628 139.457 -4.1358
-25.6233 106.933 -4.78583
7.86979 148.871 -5.73992
0.602522 101.601 -0.296037
22.9782 135.641 -3.43801
-5.2515 120.44 -13.8018
15.9477 125.962 -7.39605
-27.7243 127.614 1.93327
-21.1021 131.061 -4.17798
-6.53702 108.913 -15.9004
-12.2841 150.609 -1.10634
3.51019 135.737 4.15011
-22.8675 123.725 7.14616
-2.06717 131.18 4.49403
-21.4878 122.349 -0.680346
13.2457 118.19 -1.04373
-0.939068 111.334 -16.5283
-24.1937 122.345 -4.15345
12.6497 128.687 -9.43985
10.8657 105.227 -17.0678
-23.9622 121.387 -4.69933
6.51361 130.242 1.59894
-24.0328 92.7027 -3.90097
-14.3158 102.452 -11.6721
0.54005 125.993 5.52489
-17.5038 103.638 -12.0963
12.8386 122.724 -1.45469
17.7169 100.451 0.184625
1.94834 134.257 4.57068
6.43489 89.5919 -15.3438
21.4815 110.106 -4.8595
-1.26634 124.464 -13.4567
2.30806 149.316 -3.39336
-1.46573 118.838 -14.7584
7.7495 150.605 2.78267
-23.2292 122.641 -0.725052
8.2971 129.38 -15.1922
-15.3041 137.71 6.91342
-16.1008 97.2856 -11.0718
7.58043 140.875 0.973548
-17.2228 113.314 5.63137
16.2916 112.782 1.3858
-21.8433 120.514 -1.74089
-2.87302 118.865 -14.7158
-12.1761 108.45 6.06606
26.252 125.86 -8.21122
-30.027 90.7007 -7.037
-15.0717 107.301 -13.779
-5.87901 120.291 7.14323
-18.4144 106.429 -11.8423
11.9297 144.447 -6.33595
-10.218 107.859 4.92648
-0.744427 111.402 -16.4434
10.4857 123.92 -12.6436
-22.1471 139.927 5.06327
-21.5906 108.176 2.22779
-5.86171 96.6075 -12.939
-19.3645 82.303 -2.24457
-20.7674 124.164 -3.40326
2.22235 140.063 -7.00331
-19.8483 88.4487 -2.7846
4.7742 106.589 -2.68569
-24.6579 98.6134 -0.947416
13.2523 134.898 -7.53481
23.2002 126.502 -5.10789
-24.635 126.82 -1.3636
7.07782 106.287 -2.91922
21.9576 98.3429 -2.6035
-12.9617 96.6986 4.08105
-18.6397 129.411 -2.47733
-1.23842 138.087 -4.75849
-26.6047 100.96 -11.1377
2.57269 120.777 -15.5769
-20.0662 107.645 3.56634
-24.4914 107.844 -10.5681
-20.2743 120.156 4.76153
-13.9705 92.5962 1.5111
-8.66152 143.535 -6.72335
11.8592 118.564 -13.2624
-15.2822 107.466 6.56117
-25.0534 106.779 -9.69993
-1.91593 87.3079 -13.5962
17.2457 123.049 -1.02843
-27.426 130.252 4.96279
-16.3546 145.733 5.67931
10.3192 141.441 -9.85487
-22.1526 84.3738 -9.05306
-27.9887 123.086 8.68857
10.3572 116.632 -2.67469
-1.706 143.288 5.4897
-19.8455 86.2619 -7.59126
-8.38135 122.516 7.53807
18.2149 147.754 -1.72399
-25.8995 124.852 8.50659
25.2434 136.487 -6.82963
-18.9448 123.689 -7.81446
0.982367 92.8751 -16.1074
-17.4405 137.749 7.70009
-17.4982 125.696 5.91652
13.981 133.028 -10.285
8.27842 136.872 -11.1024
8.67266 118.484 -2.68648
19.6379 124.725 -16.3609
-1.44366 145.592 -3.85178
-13.3251 98.1791 4.3916
10.1997 97.7565 -0.554174
9.40991 112.311 -17.2821
4.4498 149.238 -3.61846
-9.7797 111.1 -13.7993
21.2931 93.5285 -10.6263
2.05944 90.2553 -1.65036
9.35535 95.3291 -0.162067
-9.19361 152.147 -1.76914
-12.2848 125.937 7.23505
-13.1358 137.523 6.73351
21.9526 122.911 -9.19696
-23.6028 118.483 0.181119
13.3456 149.012 0.969411
-14.9352 119.478 -9.48345
5.47079 123.57 -14.8799
10.8836 125.67 -14.9193
-21.9987 122.466 -3.01993
-16.159 146.9 3.94385
6.34145 136.064 3.96954
-29.4163 83.515 -3.75019
-5.11982 137.954 -5.36078
12.0603 134.177 -0.103964
16.9941 128.223 -5.08711
-16.4628 132.648 -3.14581
0.116945 125.924 -12.7681
-5.50654 121.968 -12.3756
-29.6997 90.394 -9.53313
14.8196 128.305 -6.3214
-21.6838 88.5755 -3.45572
-12.8907 113.242 -11.2449
23.5576 130.236 -4.9285
13.0302 127.606 -13.6082
1.96409 129.718 -11.4282
17.7387 123.228 -9.78913
4.03928 114.929 0.955875
-19.2599 127.198 -6.7533
2.33191 97.8837 -2.0234
24.0137 139.098 -5.14241
8.98126 140.388 -10.6691
-18.051 130.088 7.50383
-12.9172 112.235 6.7017
6.79151 124.535 -1.59118
4.23667 134.829 -11.3621
-12.3209 133.685 -8.83771
4.67134 137.045 4.53719
-19.7612 117.202 3.73269
-20.1479 122.83 4.19477
19.7752 108.762 -0.980222
7.38307 137.844 0.60695
-19.6335 89.2335 -10.2657
-6.89918 82.5837 -11.9669
-13.9633 148.896 1.09755
-29.0201 89.7873 -5.33805
-8.9158 123.54 -6.68646
6.86569 142.38 2.68457
28.7417 129.216 -9.96567
-12.0712 99.494 4.30293
-24.487 121.762 -2.23945
0.451069 132.083 4.76422
-17.4408 124.789 6.36035
-25.1259 83.5523 -7.55449
-0.65876 99.2676 0.307089
17.6504 126.555 -7.75413
-24.3803 120.847 1.65829
-16.7942 143.873 0.30487
-15.6012 107.822 6.52761
-17.3209 130.009 -6.00826
-0.488466 95.3586 -1.49653
-25.8427 113.629 -7.26736
19.2032 145.552 -4.60323
4.39024 117.187 0.976197
-24.8725 109.588 -4.68766
-14.2189 125.48 -7.11222
13.8119 128.256 -9.96439
-15.5012 104.996 5.90948
3.52805 142.013 -6.76268
18.5986 119.386 -1.07629
-28.0058 84.1809 -7.07275
-30.6559 85.0777 -6.42479
-24.3339 83.1851 -2.31278
6.51933 108.053 -2.94123
9.37827 130.478 -2.07646
-15.6119 100.436 4.56197
-7.77531 95.0698 -11.7934
5.57137 132.267 3.15965
21.2775 102.202 -7.66879
28.7824 126.095 -12.9831
-28.9841 125.579 3.28749
12.8745 95.7776 0.117583
7.9235 151.471 2.50033
-23.6431 123.618 -4.22076
-25.6641 83.5778 -7.96026
-2.42104 96.0111 -16.1598
-2.13068 146.119 -3.87477
-10.9587 116.755 -9.39646
-13.3548 138.166 6.79801
17.916 92.1359 -12.2417
-3.3853 150.029 -3.46158
-20.4416 125.704 -3.83773
11.8027 150.36 -1.6481
-11.0675 111.259 -12.0465
-17.1281 118.886 -10.0668
-1.23393 151.965 -2.88011
-25.7716 104.782 -2.45174
-20.4458 136.779 -2.52498
-8.9663 125.806 -6.42853
14.3142 143.25 0.557391
-13.655 124.974 6.8884
-3.89069 86.9113 -12.5022
-9.963 138.987 2.02817
1.55461 115.268 4.3215
-0.402582 91.6231 -15.6507
10.5539 136.192 -1.97915
3.58013 130.773 4.81345
11.733 123.672 -12.5327
18.1945 98.5677 -12.5883
-23.3331 120.848 -0.228841
-2.9458 97.6826 1.2091
-21.1772 124.578 7.27278
-19.1019 88.9144 -9.44408
-19.9827 111.257 1.55358
-22.1774 122.945 1.09369
-14.6049 96.253 2.50923
-15.3094 147.906 3.9078
7.90166 107.806 -2.90336
-7.3967 130.475 4.5749
6.12975 100.761 -17.892
1.95133 121.164 5.09424
-1.0394 96.7547 -0.894056
-4.71504 111.879 5.76599
-10.3881 120.314 7.24461
-2.05888 104.531 -16.7114
-21.6662 107.412 -12.4112
-13.5855 119.279 -9.13742
5.93751 124.425 0.609307
8.74678 108.012 -2.82812
-5.6257 138.47 2.59533
-6.13917 141.373 2.38791
-7.29882 148.24 -5.43889
-23.3683 135.326 6.73079
18.3208 103.06 0.67579
-16.001 85.1619 -0.261211
-5.36981 100.195 -13.4869
-26.1355 122.045 -0.315009
-11.522 94.0959 -10.2985
14.2275 141.581 0.303371
22.1879 129.385 -12.1055
-26.0408 107.985 -6.0184
9.65838 95.7634 -16.2404
-13.4113 149.562 2.54028
-16.3946 111.976 -11.6378
-18.9912 131.473 7.05489
-7.85357 132.841 -5.52828
13.9986 114.831 -13.0992
16.2492 90.2546 -13.154
19.5561 116.509 -1.13927
6.41676 138.703 2.6915
5.5827 123.315 -14.9688
1.98058 148.111 -3.56709
-20.995 87.8822 -2.98073
-6.95277 123.808 7.59593
-14.9062 145.389 6.31571
4.96932 121.448 1.65665
-20.8847 123.882 0.361382
11.3302 98.0316 0.101166
-18.1978 128.542 6.7509
-18.2826 136.648 7.523
3.62923 103.202 -18.168
11.4219 127.053 -8.2514
0.608285 117.902 5.52321
-23.0844 91.4314 -3.82842
-3.27364 150.479 -3.32723
-16.9943 131.753 -5.25573
7.61278 93.0023 -0.682992
-21.4918 132.363 6.4643
-4.58103 131.288 -5.46505
-18.6484 121.499 -8.93837
-4.98963 121.712 -13.0125
-7.20367 107.292 5.01928
-9.07628 95.7698 -10.9095
-4.09403 101.805 -14.6594
-1.1832 109.867 4.6258
-23.2176 133.898 -1.45127
3.52269 151.805 -3.05061
1.77251 131.12 5.43432
-8.10243 124.874 -6.47818
-21.2763 122.377 -0.330167
-26.8258 89.3989 -10.1618
-7.07192 124.14 7.39749
-10.5487 148.227 2.57631
17.3297 109.086 -10.6086
-17.3297 91.1115 -1.53973
-4.04587 115.309 6.66764
2.69382 128.852 5.22756
14.2801 124.478 -13.8877
-14.3738 119.01 -9.35924
-27.4726 106.447 -7.53976
22.6491 98.5094 -4.03605
-14.9159 139.797 6.94607
-16.3209 88.5798 -1.16103
-17.3049 124.562 -8.43962
0.0298682 126.248 5.38913
-14.2451 139.854 6.99792
-8.69381 81.7882 -12.2501
18.4396 123.686 -7.61559
0.082395 125.895 5.33498
-20.7106 124.12 -7.59948
-11.619 113.865 6.88342
3.09647 126.299 5.02289
-13.4416 88.0452 0.740218
-7.32184 110.109 -15.7896
-5.26629 134.713 3.12821
-23.6226 131.897 -1.05661
-14.1219 116.861 -9.78851
-15.2222 133.547 -4.32581
-25.4532 83.9341 -9.27824
-3.94471 122.232 -13.5221
-16.3943 117.349 7.85938
0.787672 137.607 -6.67295
-13.0264 140.415 5.83214
8.45681 133.424 -1.19689
13.2721 101.588 -15.0653
19.841 145.019 -0.70696
-21.4805 88.3165 -3.30553
-3.05574 126.2 4.57443
-18.2338 102.762 4.13573
9.81867 127.444 -15.6932
-11.3381 145.189 4.19074
-15.8579 139.919 -1.668
-4.18445 152.554 -2.74466
-20.5175 138.111 0.387115
-7.50588 144.546 1.57043
-23.382 84.8073 -7.51661
-20.5949 126.172 -4.03106
-17.6028 129.521 -6.51561
3.90563 100.69 -2.15212
11.8384 146.763 -4.16711
16.5294 145.19 -3.01795
-4.10974 146.406 -4.31183
16.5272 127.77 -14.4367
-25.2636 114.224 -2.94835
-6.30032 95.1064 2.81717
-4.34995 110.284 -16.7607
20.0761 114.331 -1.64141
-25.8843 95.0585 -3.19182
