ply
format ascii 1.0
comment Created by Open3D
element vertex 1903
property double x
property double y
property double z
end_header
-22.0485 116.623 1.81285
-0.60856 82.2811 -0.555251
-2.54891 107.793 13.8183
-0.147805 121.33 10.6002
-13.1876 87.4675 4.75368
-9.18711 128.984 -5.13797
-17.6019 132.269 -3.78668
-0.0769477 118.297 13.2012
-24.6865 131.193 3.99681
-1.05696 139.563 -0.821002
-3.11321 79.4375 -5.27915
0.614532 101.82 5.97347
-13.9096 78.5555 1.02063
-0.331524 114.349 14.2869
-22.2384 123.259 3.84686
1.94081 138.581 -0.725434
-24.4428 133.71 0.941791
-9.61852 87.9469 -5.33551
4.05881 83.9556 0.177049
-19.4738 120.57 -6.97717
-3.79165 142.015 4.85761
-7.47833 90.4732 -0.616353
-22.4644 137.389 6.07822
-16.6951 133.954 7.63407
-16.1385 111.349 10.235
-21.6308 97.9482 -9.01727
-2.80711 119.007 -4.67359
-17.538 120.988 -7.95971
2.77185 123.57 3.35481
-20.0611 122.351 -1.61137
2.05747 140.691 -1.0907
1.42415 143.508 3.45406
-18.707 144.742 1.85675
-4.84331 98.5717 7.82374
2.1024 84.361 1.59685
-18.1139 138.358 -1.91341
-18.0881 129.266 -1.73847
-11.9505 115.414 9.35568
-13.2814 143.278 -3.27682
-3.0408 99.912 10.5783
-22.0506 77.5706 -5.00158
-11.3695 130.958 6.10663
3.0548 105.699 3.67694
-11.3597 83.9457 -4.3368
-24.3324 95.953 -6.18265
7.35652 99.1641 -3.53025
4.2177 105.794 -5.11892
5.38967 85.7925 7.63138
-19.4731 126.238 6.13025
-11.51 117.666 9.68891
-1.40078 101.871 15.2191
0.48237 89.6848 14.1712
-24.2662 85.5902 -7.67574
-10.8692 102.205 -9.41117
-10.4383 106.616 8.96425
-13.4197 125.421 9.73248
0.498457 119.224 7.99074
-4.08748 133.89 -1.73237
-7.79722 137.722 2.99666
-23.454 101.2 -2.43981
-20.1757 122.266 -1.64517
-23.1121 95.8687 -1.10097
-12.8895 79.4769 4.30275
0.262871 115.537 7.07011
-2.11036 93.5499 2.33041
-3.32184 96.3743 4.38673
-23.2383 88.383 -6.73959
-8.19187 152.63 -1.07258
1.06056 98.0222 -5.30503
-1.26466 124.701 -2.8304
-16.4481 111.124 9.98358
-0.4053 79.9379 -1.88827
-0.686907 115.277 13.4663
-23.5082 132.33 -1.4029
-12.7256 149.933 2.1873
-24.1062 137.034 4.59325
-24.2207 120.813 0.739285
-12.3054 135.208 5.66256
-13.9686 137.93 6.20673
-12.4311 120.997 -6.62803
3.82087 110.67 -3.21943
-9.2677 120.651 9.56365
-3.00476 95.1534 0.523015
-11.06 84.6929 -5.16832
-13.6621 139.43 -4.43691
-5.17808 133.844 -2.45612
-1.5883 121.272 9.20662
-9.19555 133.227 -6.84849
-17.4454 87.9162 -9.29954
-2.73539 87.9077 -3.71462
-6.06491 111.779 9.44659
-8.1653 112.4 -5.8585
-2.36171 101.523 6.32144
-21.9304 98.5896 -8.85547
-4.7584 90.3009 4.56776
-6.37107 140.003 4.05623
0.00183977 104.164 16.1245
-2.34257 117.91 9.82023
-0.774108 141.623 4.70161
-3.13927 120.204 8.64484
-8.9187 129.867 7.37617
1.15625 127.832 8.8119
-8.43867 150.869 2.08617
-16.1295 142.838 7.23187
-2.74227 100.915 3.45081
-7.93966 105.61 -8.22927
-11.74 85.8341 -6.89976
-10.5182 148.769 -3.65789
-4.57436 80.0867 -4.19787
-6.87427 78.6854 -4.73256
-21.5731 90.6145 -7.59779
-12.2472 149.027 -1.99632
-6.70358 109.195 -6.73037
-5.48396 88.5813 5.86067
-15.8606 89.4263 2.36138
-17.3196 124.035 7.5074
-8.79576 139.273 2.83518
-10.1067 78.4323 1.51497
-4.44455 143.49 -3.63823
-3.19354 98.1026 1.90505
-13.5503 148.923 0.224164
-14.7523 139.624 -3.67806
-21.8902 140.663 4.60065
-14.0064 124.192 -6.75679
-23.2668 108.72 -4.03342
-7.19647 88.1282 -2.34545
-12.9811 119.349 9.74628
-21.5383 102.464 -8.12688
-1.48987 111.562 -6.37763
-0.0476875 104.037 4.01094
-3.75765 102.645 -8.40937
-24.4309 82.93 -3.83757
-0.129719 119.775 -4.27634
-1.15971 141.049 2.95457
-4.01033 107.589 9.09526
-3.24385 99.103 3.16775
-9.14536 80.095 3.64976
-9.9013 125.78 9.48722
-11.8151 81.3395 5.12812
-3.74683 101.439 9.68439
-7.51355 145.128 2.72843
-7.23073 136.788 -5.90749
-8.95967 138.099 2.422
-10.2276 84.852 -1.01015
0.78196 117.32 4.03021
-12.3502 133.105 -5.29841
-22.5006 130.223 -3.45538
-6.00133 97.1756 9.61486
-6.36865 92.1142 -4.8359
0.995465 120.086 5.87171
-12.7788 98.3174 -10.2678
2.90144 103.567 -6.18859
-4.25241 118.481 -4.18663
1.44243 106.29 -7.15114
-13.2531 99.3698 10.2585
-9.56247 78.7236 -6.28933
-0.122958 104.224 5.40596
-20.5458 96.9306 2.9099
-1.04506 103.133 -7.33393
0.261535 104.641 -7.24927
-6.9283 131.823 -3.54299
-1.74917 85.7063 -2.13711
-15.2446 81.1985 -5.83083
-7.49425 133.028 4.74356
-10.8876 100.355 9.53149
-3.75523 92.1674 1.2647
-1.09116 113.871 11.5662
0.933081 144.35 -1.21225
-10.6919 147.965 3.65063
-15.0489 82.9852 3.73695
-19.3741 119.824 -5.74665
-18.7117 127.763 -2.31555
-22.7898 123.571 1.90843
-7.78466 152.363 1.43067
-0.136112 122.985 -3.41952
-21.8078 116.376 -4.98644
-11.0469 93.7442 -8.40528
-8.09654 84.6841 -3.14516
2.57624 86.8444 10.7387
-10.3405 78.8237 3.34249
-19.238 104.899 -9.59726
-21.0945 112.513 -8.04752
-15.3516 144.019 -0.296301
-10.0692 85.764 7.00905
4.31367 117.491 -2.86878
-13.4189 113.461 9.65617
-11.6645 134.517 5.07724
-23.2924 95.6049 -3.51183
-2.24722 97.0989 12.2376
0.765456 113.058 9.06406
-13.6935 96.0797 -9.74377
2.60159 82.0868 -2.19579
-11.4487 91.3989 -8.94462
-24.3164 134.708 1.58212
-7.51885 129.151 -3.8702
5.52085 86.3604 2.77916
-18.4084 122.816 -7.47808
-16.6475 87.9721 -9.26496
-8.76138 80.7493 3.88976
-19.7235 143.844 2.75506
-21.6609 122.416 0.942906
-3.28682 104.299 -8.24522
-1.38761 107.666 12.4455
-20.4218 134.527 5.01628
1.05778 123.513 8.75098
-7.01865 133.948 -4.42218
-0.211912 104.378 7.04352
-25.0703 130.027 0.526847
-12.9875 135.568 -4.80623
-17.0698 91.5725 2.74467
-6.39962 107.235 -7.56676
-23.201 81.3365 -9.40715
-21.5594 105.085 2.52134
1.56138 87.094 -0.520065
-12.0073 90.1346 5.04774
-20.5195 123.458 -1.24321
-22.1757 89.354 -2.16924
-2.28022 109.308 9.22809
-19.3819 97.6902 -9.43753
-20.7975 78.2908 -1.05527
-7.7276 142.966 3.32871
-22.0026 81.474 -8.59362
-12.8428 105.758 10.3374
-23.7893 86.6729 -2.99177
-20.2368 84.8797 -9.73756
-0.756886 98.6087 -5.15468
-16.4123 109.677 9.63654
-16.0421 99.2812 7.84045
-23.6851 128.708 -2.94608
-16.361 123.867 -7.96521
-3.24147 152.939 -1.79809
3.26721 122.564 2.84493
-8.94046 117.118 -5.28799
-23.416 100.392 -1.4525
0.445182 99.0448 -5.2604
-7.92702 134.988 3.07621
-1.42482 95.7063 -4.91448
0.977088 120.181 8.62481
-21.9359 123.023 0.983071
-22.906 136.099 5.74872
-25.3344 122.215 5.89516
2.88994 86.6846 6.11335
-2.30666 97.2011 7.64157
-20.2207 122.311 -1.61549
2.56006 146.729 -2.13671
-15.9494 137.601 7.23272
-19.0356 85.8056 -9.63773
-5.99764 128.839 -2.65122
1.51997 146.873 -1.77591
0.365294 83.5159 3.23542
3.16762 83.7978 13.3536
-2.68573 95.7117 4.35936
-16.126 80.8792 -6.02465
-23.0987 116.006 -1.41174
-20.8125 125.306 5.46505
-6.63971 93.0708 -4.96798
-20.835 131.037 -5.23644
-8.53093 108.231 -7.31657
-2.63237 106.525 12.7922
0.476085 80.1212 -2.21979
-21.8731 113.368 0.615067
-7.3822 97.8759 9.9912
2.42598 104.936 3.31961
-3.05173 140.346 2.76795
-21.5884 131.191 4.79089
-12.5072 103.695 10.4154
-15.5365 96.6006 -10.6089
-17.1538 135.059 -2.34581
-1.95221 102.856 8.14418
-5.87405 93.6977 4.25197
-19.4625 137.619 -1.10692
-5.74227 115.38 -4.6295
2.69222 133.307 -0.438114
-1.73345 121.409 9.12198
-11.7343 132.793 -6.64618
-21.9933 78.5168 -3.13955
-4.69113 93.8615 2.18368
-19.5588 121.915 -2.26186
2.04053 110.238 -5.03021
-16.7672 116.853 9.67729
-19.1935 137.118 -2.2358
-18.8476 80.6752 -8.39035
-0.584866 114.887 10.6119
1.30929 121.984 4.51493
-11.7438 129.786 7.35348
-2.09503 149.661 -1.41174
0.205542 122.938 9.6962
-19.9894 119.675 -3.81111
-21.7322 102.977 -7.77674
-23.1706 115.533 -1.44161
-18.8032 123.595 6.85447
-9.70814 89.1572 -1.78708
-0.869296 79.6679 -3.19665
-3.01555 91.8609 3.24722
-20.0223 120.762 -3.46784
0.654544 114.467 4.5166
-14.2014 80.0751 4.14782
-0.342827 103.054 7.50872
-3.79909 98.5092 -7.00748
-9.72481 112.083 -6.75192
0.384824 90.4571 -5.16109
3.5872 101.172 -5.67285
-19.3099 121.912 -4.9432
-16.6819 139.42 7.33016
-21.4403 81.1883 -9.23004
-4.86528 85.6412 -3.26357
-21.4552 95.8678 1.54774
-19.9425 109.082 3.16831
-9.44726 145.683 2.78819
2.30702 79.5558 11.2962
-23.5094 93.4398 -2.03165
-24.0755 82.478 -4.63445
-19.8278 122.751 -3.59061
-13.0325 98.4457 9.58941
-19.4573 85.9629 1.2474
-23.1065 79.2566 -4.1021
-22.1317 80.2928 -8.77448
-7.04933 86.7637 6.56283
2.33662 81.6405 -2.59737
-0.107027 86.6935 6.93329
-17.6472 114.921 8.35144
-0.814063 90.7227 12.987
-17.8356 104.746 -10.0757
-13.5196 81.3378 4.51347
-7.95972 83.7384 5.99213
-16.9634 136.411 7.17177
-4.87163 132.906 4.897
-16.9496 143.383 -0.36134
-19.0306 125.401 -5.15065
-17.2401 108.262 8.88509
-2.29576 101.346 6.16727
0.542545 113.473 9.19716
-4.88762 116.309 10.4009
-20.7468 123.065 0.464312
-18.5289 78.615 1.03606
-13.8578 147.898 4.47765
-6.03408 83.9623 -3.0361
-20.4447 124.883 -3.31996
-0.416355 105.013 15.9619
-8.3256 81.4254 4.48911
0.454599 109.614 5.77863
-10.2075 131.958 -7.77672
-13.8186 98.5408 -10.4676
-14.3299 149.041 1.75116
-18.5143 139.618 -1.35955
-4.41978 94.5485 5.62353
-4.74827 96.8195 6.73769
0.422247 98.1297 -5.24887
-3.01019 124.959 7.81181
-12.4661 85.0874 -6.83181
2.14481 86.5992 0.923386
1.19299 87.8667 13.8621
-3.57604 101.006 9.7601
-12.6241 100.362 10.5983
-20.9927 141.55 5.27112
-13.256 149.843 1.77703
-18.5407 104.269 6.60578
-25.4264 122.832 5.21994
-9.12978 111.901 -6.3954
-0.466497 117.029 -4.83152
-17.6323 108.786 8.5132
-9.42103 90.7285 -5.92037
-5.54708 148.425 -3.87766
-3.27735 119.321 -4.34578
-2.30218 112.612 9.84535
-7.13387 104.341 8.52924
-19.2369 115.829 -8.68622
-4.6188 94.1331 4.76321
-22.3589 79.2085 -2.16429
1.07052 120.69 6.33857
-9.56345 97.8078 -9.24349
-1.23652 81.8361 0.764716
-14.7692 127.259 -7.23981
-5.139 113.782 -5.29269
0.652593 91.1921 4.66694
-6.47438 150.914 -3.45124
0.383957 83.918 5.27415
-21.8985 124.002 3.33321
-7.72995 141.179 -4.88814
0.350352 98.3513 16.3357
-14.1327 96.5795 -10.172
-9.20022 144.771 -4.98926
-19.4536 106.752 -9.4404
-1.60052 109.764 12.4812
-22.7949 121.376 1.32882
-19.3065 127.202 -2.47327
-13.1598 92.4671 -9.47031
-0.0698543 130.882 -1.2104
-7.61162 101.19 -9.3266
-2.96114 91.1977 0.564256
-14.8838 82.3546 3.82832
-2.30779 142.054 4.44352
-13.2641 129.283 7.24488
-19.8714 125.367 -4.31127
-22.2733 96.2319 1.03523
-3.73413 95.5734 1.00149
-9.85526 152.301 -0.0845283
-13.1589 125.22 9.90149
-14.81 126.598 5.84061
-18.2047 124.341 -6.31847
-25.0447 121.802 5.21679
-24.6152 126.656 -1.85456
-5.17313 92.3587 -0.349766
-6.11417 130.758 5.61547
3.86226 91.5802 -3.06819
1.46152 112.728 -4.0256
-19.3607 110.428 3.17032
-3.46213 83.6371 -1.85666
-12.2136 149.345 -1.72074
-23.7286 102.056 -5.4553
-4.13643 101.496 7.75736
-13.9642 147.37 -0.714172
1.11111 102.987 16.534
-7.04501 120.569 10.0052
-11.7386 105.843 9.82998
3.68788 117.12 2.83258
1.08483 138.132 -0.484002
-5.04842 94.6095 3.58572
-6.46731 102.372 -9.09538
-21.6349 123.012 1.45684
0.744037 90.8701 1.34474
-13.719 129.036 -8.3875
-10.9451 150.304 -2.43615
-15.587 138.018 -1.43144
-16.4027 133.784 7.58595
-11.1208 115.907 9.33624
-13.4386 136.464 5.28699
-26.9417 128.214 2.7066
-22.2656 123.028 5.48116
-6.61385 95.0027 7.12072
-19.1266 100.796 5.54407
-5.07708 91.9554 -3.07138
-2.96065 117.051 10.0521
-11.5667 150.671 1.41019
-13.4176 83.0329 4.86249
-22.6846 124.798 7.0685
-22.5661 124.439 5.82467
-8.67815 88.0195 -4.71944
-15.1746 98.1699 7.98968
-0.0272935 92.2501 9.63493
4.00065 123.829 -0.913174
-20.6783 86.0329 0.28212
-7.66046 90.6013 -0.733233
-19.3787 110.573 2.93302
-5.53208 144.768 -4.33478
-13.494 116.513 9.56859
-19.5427 96.1785 -9.38387
-0.33405 89.2546 9.52388
-23.4255 80.2773 -5.32246
2.61279 86.8634 10.7841
-22.6838 114.873 -5.79109
-21.1603 123.798 0.275814
-10.0831 88.4651 -1.47214
-17.1297 137.612 7.32976
-5.46461 92.2636 3.76984
-20.8436 119.487 -1.66081
-6.77698 136.266 2.4954
3.43824 115.801 2.74665
-8.58485 132.135 -5.84728
-5.99452 117.632 10.2305
-15.6475 135.61 -2.33844
-1.24802 104.772 15.6596
-18.8153 101.466 -9.857
-20.9127 126.686 -2.91985
-17.8728 117.847 7.59357
-20.9907 121.46 -1.92041
-19.2955 141.579 6.58413
-15.3253 104.924 9.84917
3.51922 127.213 -0.610019
-6.46554 90.5376 7.80193
-16.0268 93.4671 -10.3927
-16.4152 128.996 6.20381
-19.483 100.709 -9.52241
-21.7875 80.3147 -8.77171
-8.4213 114.35 -5.52226
-3.01848 91.9269 3.32369
-3.39177 92.1154 3.91823
0.255052 124.993 8.43637
-5.65148 132.044 5.08986
3.09473 86.5035 5.93389
-23.4652 86.0312 -8.37346
4.7141 85.7 9.92289
-17.6163 81.3972 2.70567
-12.6925 138.045 -5.27825
-8.83173 135.719 -7.13062
-1.24295 115.58 9.70432
-4.68447 95.3379 2.5
-3.02454 131.992 6.41097
-18.3258 115.436 -9.08482
3.59113 119.998 -1.6814
-21.1968 95.8961 -9.18542
1.63078 105.99 -6.96481
3.22294 107.662 -5.5038
-8.7434 129.478 7.61282
-3.31928 94.322 2.09821
1.85714 101.625 -5.50936
-21.5594 123.37 2.56728
-15.7007 126.577 -6.88659
-17.4075 116.996 7.88909
-4.75135 100.116 7.19916
1.82159 128.936 -1.07111
-2.91225 91.3147 2.1893
-16.7204 132.39 -2.41401
-17.8481 121.509 7.89348
-2.30596 97.2023 7.63228
-12.2531 146.896 4.6268
-14.3809 140.067 -2.02384
-3.84169 125.902 -2.24484
5.92332 114.406 -3.7242
-1.96435 103.128 4.26872
0.860342 125.243 11.2051
-10.6418 136.915 3.14943
-15.1803 113.712 10.1713
-19.743 97.783 4.09247
-1.80707 131.467 -1.59267
-6.11354 80.6124 -4.84613
-2.52876 140.744 3.04112
-24.0705 123.167 5.72303
-9.06771 124.923 9.93845
-20.6779 126.564 -2.43703
-0.534388 96.9186 1.74532
3.78518 103.316 -6.26079
-22.634 119.258 -0.114036
3.16116 102.892 5.09534
0.296563 83.9483 5.07856
-10.7355 90.0135 -7.30757
-19.4087 112.348 -9.26915
-19.2996 126.267 5.62399
-21.8957 124.093 5.24265
-11.1561 109.499 9.68522
-21.2752 79.6701 -4.09966
-16.7447 122.487 8.98389
-21.1158 128.104 -4.75786
-0.237541 117.3 9.9343
-21.0185 125.766 -3.12978
-0.740637 142.87 3.64897
-11.9339 77.572 3.07703
-15.7085 133.805 7.68091
-5.32536 95.3534 5.50805
-16.697 80.2389 -6.55332
-13.3946 130.338 -7.64989
-17.4139 115.144 -9.31221
-0.41128 86.084 -2.52628
-3.36524 128.886 7.55232
-16.3699 90.4465 -10.0592
-13.4101 119.323 9.94125
-1.00584 95.3833 14.7203
-23.4218 91.3495 -2.1971
-0.935993 118.303 -5.27332
-22.8038 87.8416 -1.9435
-4.02476 85.0129 -1.88572
-4.60917 121.146 -3.14439
-17.089 84.6623 -8.62182
2.10468 86.4292 5.73245
-0.948574 114.256 11.4079
-21.8696 97.5825 1.95304
-8.59038 110.76 -6.54957
-15.8476 97.3255 6.38777
-0.697463 90.0733 10.653
-0.0902751 89.1292 -4.64568
-4.60713 93.3395 1.96241
-21.7838 110.055 -7.70286
2.40289 82.6189 -1.81008
-6.04262 142.437 3.82333
-13.1677 145.474 -2.88554
-10.1241 150.029 -3.01544
-0.105238 108.504 15.4533
-6.17866 138.824 -4.92929
-3.28021 127.218 7.33901
-3.58029 108.404 9.35928
-14.7642 144.933 0.488888
-4.80235 133.144 4.83488
0.814591 113.436 -4.99178
-14.7207 139.798 -3.1821
-10.8951 84.5426 -4.70916
-18.2278 126.928 6.59838
-2.72549 121.279 -3.77509
-19.9451 121.265 5.21688
-12.7684 100.62 -9.87008
-24.3685 121.672 5.91455
-13.2034 118.541 9.66902
-2.09383 105.362 11.4827
-25.1879 90.1957 -5.52646
-8.17508 87.9793 7.86822
-21.9432 79.9485 -9.14959
-26.9335 126.465 -0.689132
-23.1844 134.41 -1.17861
-2.07527 99.9898 -6.84429
3.47961 86.1848 8.49491
-10.3479 129.156 -6.27968
-20.9671 122.227 -3.79762
-22.0789 81.378 -8.42609
-2.36161 93.0569 2.07662
-23.6333 88.5154 -6.70423
-19.6168 107.775 5.81738
-7.5893 87.8377 -0.285629
-19.0494 124.803 5.08406
-26.5691 123.077 0.29674
-20.7326 117.521 3.59727
-0.971291 89.7937 11.355
2.03428 86.9756 -2.2505
-19.0765 92.6398 1.25215
-21.4223 79.1106 -2.93149
-3.50394 146.572 -2.25548
-21.7776 122.962 5.04502
-4.92056 96.4268 -5.55363
-5.16774 96.1394 -5.50864
-24.2965 92.7076 -4.45139
-21.9847 123.165 0.501134
-23.4263 105.105 -5.85651
-2.33513 86.4265 -3.50455
5.67588 85.1922 0.855882
0.944329 88.5667 2.59724
-14.3347 120.676 10.6763
5.22092 86.6692 6.56753
-13.4174 130.248 -7.89472
4.45312 108.743 -3.67425
0.525138 108.943 15.6269
-18.9844 104.598 -9.80755
-19.6636 99.5175 4.61287
-7.75729 105.996 -8.03734
-1.15619 103.857 4.24703
-16.6094 80.4386 -9.0612
-7.44959 148.586 -4.29557
-21.0689 100.389 -9.05921
-0.559213 116.045 10.5011
-19.149 99.3745 5.27686
-17.945 115.919 -9.12467
-25.3637 127.124 -2.96657
-18.144 80.1148 -8.27147
-0.791227 95.1264 7.35992
-8.8623 80.9289 4.22369
-3.78968 119.043 -4.17846
-15.7204 99.208 -10.7505
-15.0058 110.04 -10.0217
-15.6854 77.5873 -0.758089
-21.1031 79.2324 -3.7832
-0.823722 93.3711 11.7093
-21.3565 110.304 -0.347686
-2.91776 130.832 7.55561
-2.45736 105.366 12.999
-13.0298 77.7263 3.44638
-14.0376 78.957 1.9161
-16.5156 116.019 -8.9554
-21.7929 101.894 -8.31097
0.300665 139.034 -0.645601
-26.9933 126.198 1.05968
-0.945911 105.986 15.5849
-24.2586 122.058 1.32734
-22.872 82.963 -6.11576
-14.9996 82.8168 3.70948
1.46588 100.717 16.5283
-17.0866 113.22 9.58488
-6.73962 92.9814 8.42096
1.85252 112.745 -3.75588
0.0898295 111.892 9.84353
-22.3407 106.669 -2.34627
-22.6493 84.636 -1.41668
1.94537 85.1099 3.71234
-1.63597 91.4653 -0.296644
-8.11077 91.6252 9.8444
4.36401 109.66 -3.63924
-14.1868 126.442 6.78059
-3.642 137.907 3.78669
3.57485 96.9045 -5.33442
-11.9676 136.173 -5.78542
-22.3655 117.468 1.77729
-4.29535 112.288 9.819
-3.85206 87.0931 -4.66116
-15.5161 78.0005 1.33012
-16.0908 93.9867 4.42933
0.47982 109.884 3.86138
-5.36925 154.233 -1.04878
1.80808 86.6985 10.0414
-2.30292 136.288 5.32768
5.11005 116.656 -3.31148
-17.3318 128.979 -3.74197
-7.93239 112.467 -5.74035
-4.22997 95.1337 4.07897
-0.0240954 86.7222 6.45909
2.3828 86.2217 13.8514
-0.330742 91.5499 2.57031
-4.26586 127.506 -2.09951
-23.1119 81.6661 -7.43522
-7.82822 92.6973 9.41704
-22.5791 122.718 0.395318
-0.568782 108.947 11.8978
-21.9354 95.0314 1.01359
-7.26384 95.1429 -6.82756
-18.2973 79.2291 1.42629
-19.3026 127.81 -2.44503
4.66368 80.9468 10.3024
-11.4453 149.419 -2.69454
-22.0833 126.434 5.06443
1.61713 152.643 -2.25533
-3.59016 87.7234 -4.75885
-9.58286 134.306 -7.40545
-19.6138 126.16 6.17889
-14.1093 81.8772 4.21687
-24.668 120.89 -2.35937
-24.3908 94.8229 -7.02002
-22.9577 139.465 3.55954
-2.25734 93.8597 0.443379
-21.2484 121.834 -4.12111
-22.4513 116.809 -1.84832
-3.61635 100.299 7.75511
-1.99584 118.191 -5.25568
-4.28497 138.448 -2.79063
1.17208 119.759 -3.69116
-14.4082 114.697 -9.16747
-14.375 143.69 -1.27242
-6.05055 91.7786 -0.798078
-26.9906 129.919 2.84588
-9.09484 108.597 9.13608
6.87061 88.225 0.787748
-3.34795 104.144 9.54667
-2.22136 104.525 11.2667
-0.813944 100.098 -6.02379
-4.26768 125.058 7.69432
-20.6729 123.733 -2.54888
-16.725 127.68 -5.87142
-0.728435 94.2024 9.37579
-3.14119 92.167 1.91239
-7.55399 85.7777 2.46081
-10.2157 134.805 3.95332
-7.54789 137.818 3.17939
-17.4296 90.3856 -9.58474
-10.1226 141.234 -4.51754
-2.36512 78.7903 -2.84851
-8.86581 128.384 -4.66639
-0.255353 91.0279 14.2214
-20.6394 91.654 -8.73568
-21.5519 138.766 0.956958
2.05878 117.16 2.90092
-4.84344 90.4537 1.46558
-21.3469 126.493 4.98846
-8.1765 84.8779 -3.10867
0.0358323 121.82 11.7188
-24.2529 88.7658 -6.67027
-10.7953 93.8016 -8.33385
0.543225 131.469 8.08584
-24.1479 94.821 -7.39214
-20.0915 108.518 -8.11698
5.44473 86.974 -0.962639
-1.82192 119.379 9.37171
-13.7233 102.13 -10.0496
-9.26197 132.076 4.57243
-24.4403 83.6812 -4.23888
0.62983 81.6846 -1.82233
-13.632 99.1197 9.62334
-17.7017 82.9854 -7.24766
-2.42734 105.416 13.2138
-24.5291 94.3292 -7.05707
1.32924 114.819 8.26201
3.0034 125.791 3.25575
-24.7248 136.37 3.7944
-0.232119 120.84 11.6298
-23.8863 94.3448 -4.93459
-0.414889 89.4945 12.3034
-21.2748 130.708 6.28278
-23.4312 122.189 6.18689
0.778912 137.057 4.68928
-15.0421 98.6446 8.40006
-19.6978 125.207 -4.50523
-6.59435 145.65 -4.81131
-22.9132 101.633 -0.0921451
-3.60617 100.005 5.02671
-20.6321 121.764 -1.55572
-18.0075 116.362 6.60547
-12.5681 129.609 7.08875
0.656433 83.9667 7.43341
-16.2457 120.478 -7.96919
-18.1925 127.614 -2.73482
-20.0466 124.242 5.22563
-24.6644 121.136 5.13136
-22.4321 105.9 -1.25916
-24.1532 131.866 3.67887
-25.2415 122.185 5.65131
-19.1561 124.102 -2.41275
-15.2404 129.708 6.51781
-0.526701 110.558 10.8306
-1.31334 98.6221 12.8347
-3.47824 106.231 -7.89057
-7.1851 119.212 10.125
-2.2155 103.977 11.49
0.157464 112.79 -6.05486
-18.697 111.905 6.51389
-20.7674 118.47 -7.56424
-10.3263 152.057 -0.201026
-24.2777 87.2901 -3.40936
-13.1712 131.469 6.83561
-20.7313 109.764 -0.215467
3.95039 108.723 5.23093
-22.8696 96.0707 -0.544809
-3.42635 138.754 3.34474
-2.09422 149.547 -1.40343
-4.448 100.553 6.61943
-2.16603 122.507 -3.06543
-2.4041 107.664 13.9378
-3.858 105.669 -8.16192
-19.2459 88.0233 -8.9948
3.65632 103.829 4.86108
-21.6817 114.087 0.754216
-9.13041 100.481 9.04923
-13.7557 78.4872 1.48285
-23.6701 80.9979 -9.27039
-10.5539 107.399 9.01914
-8.56599 98.897 9.70187
3.04128 119.696 -1.981
-1.02344 106.632 15.4275
-3.61916 96.2132 1.46808
-7.69087 154.02 0.265708
-17.3858 84.6849 2.98797
-8.10906 147.622 2.45112
-9.94431 144.942 3.04145
2.33593 86.4521 1.48655
-22.5086 129.942 -5.17997
-16.568 109.336 9.48399
-17.5071 101.267 -10.5123
-4.24367 93.2191 3.90921
-20.9631 106.986 2.976
-21.8389 104.8 1.75696
-2.56579 101.613 6.45198
3.88643 113 3.35059
-1.52793 96.2964 3.88031
-4.4386 100.196 6.24433
-5.07748 92.4261 0.953794
-5.2131 100.331 9.70595
-3.64933 133.967 4.59706
-19.6807 125.956 4.89417
-19.9556 98.1803 4.11416
-21.6507 126.352 -2.72606
-24.0647 123.187 5.976
-20.8887 123.544 4.69067
-16.4399 80.0896 -9.22326
-1.42136 102.782 -7.42067
-13.9546 145.665 5.57169
-8.58554 85.5834 0.850058
-2.38671 82.6047 -1.92892
-1.41777 95.8867 13.0454
-2.07529 134.302 -0.941934
-21.8167 94.0864 0.665952
-19.4417 140.29 6.88934
-24.9659 91.5523 -6.47094
2.40115 124.337 3.60434
-7.95981 85.5074 6.67852
-21.1155 80.4504 -9.41797
-10.422 78.7241 2.40132
-26.591 130.419 3.65046
-17.1821 144.776 6.09483
-1.00846 116.091 11.916
0.895232 140.475 -0.69084
-22.954 96.6184 -8.28201
-21.3713 132.816 -4.2767
-1.38517 83.5766 5.32005
-20.8973 93.6245 -9.13962
-21.1643 127.825 -4.4633
1.32581 108.562 2.94368
-14.4292 121.226 10.712
-12.3073 82.3081 5.33109
-6.63369 94.1842 -5.415
-21.1898 133.908 -4.172
-14.2963 143.903 -1.20947
-15.1162 138.691 -1.39363
-12.8897 149.898 0.262558
-23.0172 108.836 -3.44621
-22.3443 125.989 6.94767
-17.8315 141.198 -1.03368
-19.4606 121.609 -5.11505
-11.7868 89.0503 -7.89881
-15.3322 79.6399 -9.24266
-10.8676 97.5069 -9.52235
-2.24195 93.7543 2.07004
-6.15236 125.89 8.9766
-0.133141 92.6291 6.01256
-21.7341 95.7476 -9.06053
-21.9007 90.8561 -1.33473
-23.8933 134.32 0.672774
0.385432 108.421 3.56002
-19.094 111.545 3.52738
-20.2093 121.72 -5.40426
-18.8737 126.258 -3.09402
-16.7153 130.66 -3.73695
-11.7296 91.0818 5.41652
4.60075 85.0222 9.12154
3.32437 83.7253 8.48333
3.59736 83.6272 12.8623
-19.3749 110.877 -9.45214
5.0007 92.2041 -2.08944
-23.3597 114.587 -1.91422
-13.6053 91.3085 -9.9005
-22.4512 135.495 -1.60944
4.35438 95.67 -4.72029
-14.7697 147.668 4.58412
-6.32175 115.471 -4.64839
2.95797 85.8397 -0.732058
-22.2764 88.5644 -1.92863
2.65105 121.24 2.85069
-7.0383 128.011 6.63983
-8.54584 91.282 -5.39615
-21.2265 119.389 -1.31071
-7.73377 78.9251 -4.78459
-15.6313 100.107 -10.7236
-12.7497 115.606 9.4083
-8.8644 95.8585 -8.54627
-23.1331 89.7898 -7.40095
-22.7358 138.034 5.52989
-4.94823 83.8232 -2.47439
-18.8308 92.2458 -9.70495
-21.6657 120.154 -0.87121
-11.9107 135.809 -5.84979
-1.18054 97.6257 12.9937
-18.896 143.521 0.798795
-2.44905 85.6905 -2.32255
0.280565 107.235 4.76154
-23.3502 114.998 -2.49468
-7.37251 115.396 9.91182
-18.6757 141.108 6.98387
-13.6279 82.7437 -5.24098
-6.5083 85.917 3.76285
-22.5561 120.223 -0.300653
-9.45939 86.1379 -5.00758
-13.5933 86.6845 4.87636
-8.04742 92.8779 10.3045
-19.5784 119.648 -6.14906
-4.10517 89.3186 2.45919
-19.6398 120.174 -7.54
-22.6804 137.194 0.748185
-3.27019 92.629 4.27055
-21.6755 85.5259 -0.533597
0.365983 139.237 -0.65573
0.376805 83.7196 8.27777
1.72061 125.465 6.07694
-18.9976 125.054 4.84969
-12.6401 89.9292 -9.29488
-12.7036 93.2241 5.64002
-22.6554 101.783 -7.87884
-10.1266 138.618 -5.63865
-6.5195 92.8692 5.68375
-20.4078 123.679 -0.868337
-11.1937 133.793 4.09951
-22.6292 121.916 3.45354
1.69057 85.3658 4.48863
1.44344 102.414 6.32946
-1.46886 94.9278 5.80078
-18.6564 114.805 3.75064
-17.6802 84.2869 -8.83873
-16.2398 124.065 7.95927
2.91641 123.101 3.2718
-16.4603 145.252 6.08514
-21.1139 100.74 3.19138
-14.3055 143.244 -0.481376
-8.13173 143.789 -5.02256
-5.45057 88.0356 6.55937
-24.1 128.984 4.87247
-11.9341 101.843 -9.38248
-21.133 119.14 -5.58391
-22.637 122.928 3.19574
-5.57766 133.965 4.51442
-17.5161 85.868 -9.66555
-4.23405 101.899 8.92094
-20.17 125.142 -3.61847
-0.432876 82.2673 -1.81539
-20.3187 87.1255 0.176811
-0.861213 109.837 11.5339
-4.93514 99.3432 7.06077
3.03853 84.5785 13.8997
-13.0625 78.9553 -7.25121
-22.6739 108.433 -6.54303
-4.62748 93.2119 0.605556
-0.388262 93.7521 7.18139
-22.3823 112.235 -0.342264
0.893616 104.751 -6.92264
0.498297 81.6229 -1.34546
-15.8632 92.4939 3.62807
-13.7883 131.377 6.96561
-1.18079 85.2544 -0.959589
1.1183 120.609 7.1583
-6.86408 107.411 -7.4007
-10.1621 133.211 3.95591
-19.4955 127.175 7.3929
0.469381 90.9412 -5.28286
-22.969 111.125 -1.79565
6.64516 88.1372 1.70296
-7.80318 140.883 -5.03806
-5.39468 89.3813 5.20392
-19.9765 119.456 -6.14034
-3.65194 116.676 -5.18585
-18.5194 142.56 6.57932
0.540657 121.582 9.09345
-1.65247 104.982 -7.7122
-18.3122 134.264 7.31703
-0.584683 96.3608 15.4651
-27.4181 125.232 2.968
-13.9558 96.985 7.88443
-23.9108 85.3819 -7.96906
-7.0013 121.793 9.88259
-23.3915 126.463 -3.12525
-16.7908 145.661 1.7506
2.37146 85.3914 9.1258
-1.20835 92.7574 14.3201
0.0106407 99.6529 5.03964
-17.4313 115.891 8.85801
-21.2277 121.91 -4.15213
-6.50227 115.055 9.97968
-1.10936 113.573 11.5042
-7.78804 131.038 5.1363
-2.66211 109.285 -7.2077
-15.7387 87.4165 2.83361
-3.72902 94.479 0.701191
0.484338 131.788 8.06241
-3.36776 140.38 -2.047
-23.3712 95.0922 -2.63306
-10.165 138.666 2.76763
-18.6954 77.0759 0.00718753
-19.6382 128.778 6.94427
-1.83847 130.973 -1.68655
-25.4802 87.5235 -5.62655
4.62635 91.3243 -2.63163
-2.52269 140.419 2.68576
-18.7969 104.517 -9.89945
4.20315 83.9873 -0.501171
-14.5411 97.0961 7.4152
-4.0433 141.008 3.86526
-1.7766 106.9 -7.20835
-18.4565 84.9467 -9.54684
-11.5965 102.047 -9.25449
-9.5161 89.4069 -5.64477
-17.8238 109.732 8.56694
-2.77867 134.997 -1.12751
-13.0978 95.8814 7.39257
0.949251 147.22 -1.66366
0.154657 83.8029 3.61932
-23.622 137.09 1.30263
-5.32208 94.5768 3.26804
0.0825679 83.8199 1.41463
-23.3787 105.182 -6.44277
-3.6094 131.809 6.28417
3.24055 82.4089 9.32957
-17.2386 109.676 -9.89155
-12.6556 130.114 -8.19806
-2.81952 123.568 -2.928
-14.251 94.0571 5.55668
-21.2087 125.135 -1.04104
1.48688 107.76 2.90116
-12.7231 86.0438 -7.5055
-21.1353 123.227 -2.79606
-4.90026 81.218 -4.33489
-1.9031 104.632 13.7008
-11.7319 149.57 3.36884
2.84058 87.0426 -1.63846
-21.1901 129.044 7.34463
-6.17507 99.0039 9.88768
-16.9929 138.404 -2.29823
-12.5205 80.2227 4.64442
-3.23948 93.7766 2.1834
2.01555 87.5551 12.9819
-6.23449 140.057 4.09827
-22.5526 113.245 -6.17237
-1.62106 99.1424 12.2261
-9.90524 95.9618 -8.77502
-18.9432 80.7584 -10.3573
-16.3862 92.3271 3.39362
3.11706 79.8574 11.0086
-21.2425 82.2497 -9.58522
0.551871 99.1558 16.2917
-1.40122 107.12 14.9133
-21.3261 122.881 4.30448
-8.19091 90.0993 -2.46555
-7.53076 140.387 4.04297
-3.899 152.675 -2.04105
3.73698 87.3923 -1.8389
-7.33894 94.1423 -5.97839
-8.07059 128.189 -4.01441
-4.73163 107.558 9.2827
-5.22134 98.6652 7.74668
-13.3243 77.9028 2.09824
-4.7098 91.5413 5.08625
-14.6856 132.129 -4.20302
-24.0152 95.3734 -4.79233
-15.3643 80.0168 -8.57758
-5.00622 126.068 8.03943
0.89834 88.9581 5.50481
-18.8058 78.0237 0.641942
-25.8499 121.948 5.71442
-20.6205 125.406 4.23318
-18.8533 138.781 -1.26218
-2.10159 109.924 13.395
-14.4934 124.033 8.97579
-9.30238 92.5353 -7.53809
1.46691 89.7665 14.6136
-20.0079 92.7092 0.935843
-2.14609 91.1377 1.59221
-8.0172 143.138 3.20153
-14.7549 124.237 8.28882
-10.976 132.37 5.17386
-0.37427 143.28 -0.954307
-1.03744 95.1702 -5.02174
-12.0145 95.3884 8.24854
4.68955 88.7516 -2.85856
-1.69627 152.392 -1.63617
-13.9281 109.209 -9.60107
-21.4963 90.0664 -1.32085
0.139724 129.497 8.46347
-2.05552 133.037 -1.07191
3.0298 102.431 -5.85074
-17.4951 115.575 6.79053
-11.4685 113.184 -7.63186
-8.59146 110.994 9.31656
-4.15428 101.805 -8.43647
-1.40706 108.909 12.8527
-17.5453 81.2858 -6.49522
-12.1082 78.1486 3.51038
-23.3153 114.197 -4.24723
0.274684 152.747 -2.19929
3.82419 106.574 -5.33032
-24.4903 94.6021 -6.20665
-21.5108 138.963 1.05791
-3.54749 87.6096 -4.7849
1.22766 126.122 -2.33504
-7.36892 153.785 0.716306
-15.2429 114.444 -9.4073
-20.4217 124.363 -2.72632
-17.9581 137.382 7.48315
-5.30594 102.259 -8.65539
-12.5814 136.587 -5.3169
-3.56847 100.507 8.35652
-16.662 145.048 1.09979
-20.8958 108.512 0.612938
-13.4111 133.463 6.22922
-7.65128 94.9719 -7.26468
0.0925326 88.9993 12.3854
1.84191 90.2286 0.783283
-1.10628 111.919 11.1683
-21.3302 107.333 1.4541
-3.89858 144.558 -2.8519
-20.3095 126.165 -3.74061
-22.6268 124.905 7.04807
1.66462 111.959 -4.22019
-24.7416 93.4483 -6.86285
0.709224 102.253 16.2816
-0.161164 112.182 8.42127
-23.4798 101.125 -2.50716
-12.6603 138.67 5.00609
-20.7856 87.3027 -0.368618
-26.3137 130.867 4.05755
-12.8739 120.36 9.94511
-3.3462 88.4311 -1.78858
-25.1873 127.886 -2.40565
-17.5068 107.15 8.19522
-27.0633 123.811 3.32487
-20.2405 113.167 1.9702
-19.4758 88.0185 -8.93376
-4.86207 96.1227 6.66511
1.06311 87.4539 10.2635
-1.37487 146.489 -1.18476
-14.6944 131.512 7.4169
-16.4364 97.5882 -10.5043
-15.1336 109.671 -10.0079
-26.2666 121.172 4.80061
-22.0215 126.565 7.06275
-13.727 78.5239 1.73316
-20.683 124.104 4.27036
-8.57975 97.4877 9.91232
-1.49101 95.6511 -4.90252
0.379882 142.392 3.88206
-5.47287 94.9857 4.35201
2.71454 107.62 -6.07219
-3.83249 98.0701 9.07491
-8.10338 129.229 8.07408
3.5779 83.5493 4.06334
-17.8617 123.635 -5.64662
-7.52764 79.0009 -5.19127
-20.7597 115.083 1.89315
-9.67437 87.017 -5.25024
-19.5861 127.508 7.66357
2.32692 91.0784 15.8576
-4.78953 125.927 7.8691
-20.3789 105.544 4.34284
-12.1093 81.5533 5.15484
-22.1006 136.186 5.85012
2.14216 103.822 6.76628
-22.2203 121.636 1.06408
5.29586 114.751 -3.70255
-3.88933 95.4435 1.95548
1.855 87.2071 10.5895
1.95088 83.1539 5.19999
-8.9052 97.706 9.91309
-21.872 87.2258 -1.08707
-23.9238 93.2703 -4.42646
-13.598 145.678 -2.37727
-14.5407 120.363 -8.24702
3.14556 116.647 2.73757
-26.4906 126 4.95642
-7.24438 92.1683 -4.7585
-20.9299 77.8977 -2.87726
3.08422 110.403 -3.57913
-7.13486 140.284 -5.39019
-3.16798 92.9567 -4.70251
1.72832 125.05 5.27597
-11.9731 132.449 -6.91566
0.171684 86.0471 8.02932
-4.88501 94.756 2.64791
0.182259 152.69 -2.16798
-20.2391 78.5087 -0.190292
-20.9763 80.8442 -9.42062
-3.66911 97.9358 10.3755
-21.3596 84.9123 -9.3971
-12.4327 116.47 -7.82867
-20.8174 119.471 -4.98506
-9.89921 91.9188 7.77119
-22.8578 119.236 0.248369
-6.42664 144.782 -4.74513
-15.7473 103.13 9.26486
-6.97134 89.9155 -4.55687
-18.7732 116.927 -8.90618
-19.5602 114.697 2.79586
2.75109 82.9545 0.712315
-9.25496 113.977 9.20811
-21.6348 78.0402 -5.08705
3.6268 107.878 3.79916
-1.95163 103.042 7.48895
6.8967 96.2315 -2.11407
-21.1838 88.2998 -1.2138
5.73958 87.4191 0.648982
2.5077 108.759 8.21908
-6.05156 91.7938 -0.746514
-16.174 139.978 -1.18938
-22.2157 122.936 5.44773
-20.3445 126.405 -2.7817
-18.2197 145.577 2.62674
-9.11099 149.021 2.7751
-12.1807 81.3346 5.10973
-19.1695 122.391 -5.31481
-1.31107 90.5917 1.73277
-1.57611 103.653 5.18698
-4.96092 90.2706 -5.01845
-22.6316 104.841 -1.44427
1.49462 89.9075 14.7046
-23.0701 122.831 2.84056
-20.9332 141.946 4.81608
-9.95696 132.05 5.36852
-5.02566 79.0679 -5.6122
0.508884 87.3819 -3.39063
-19.2062 92.034 -9.5635
-19.879 121.32 -5.05546
-7.06342 92.6637 -4.93566
0.711929 105.602 3.58654
-23.1837 79.5257 -4.00116
-21.551 129.293 -5.34507
-0.46006 104.22 6.23454
-2.02449 120.696 8.96593
-25.2294 131.309 0.297453
-20.5986 127.557 7.57563
-1.90328 92.1331 -5.01768
-19.2401 118.321 -8.5319
-11.4702 80.6401 0.588878
-16.7257 141.595 -0.711039
-6.67391 79.3115 -6.03066
-11.4387 95.8699 10.0167
-23.5679 100.565 -2.44391
-19.9233 129.027 -4.42388
-11.5488 125.712 9.78173
-6.43637 108.307 -7.03225
-6.11139 89.968 7.16825
-1.23253 115.003 11.9146
-12.6791 79.6277 4.34763
-15.7737 102.77 9.17002
-1.01294 111.172 -6.28481
0.267768 115.3 7.17355
3.3257 119.268 2.57693
1.31509 139.608 -0.713974
0.729587 128.681 -1.59548
-2.51503 125.032 8.27167
1.13573 148.333 -1.90281
-22.7028 81.6356 -9.49463
-0.856453 86.7494 -1.31175
-25.5986 122.824 5.15445
-0.182176 88.3921 10.1835
-15.1399 91.5603 3.43449
3.68557 114.073 2.87182
-7.12138 104.837 8.62626
-25.1759 90.7257 -5.41564
3.0154 82.3087 -1.82424
-18.6494 117.299 6.65664
-20.9319 126.649 -2.41203
-8.56274 103.773 8.64848
-26.5648 122.261 5.02245
-23.7398 122.833 5.15852
1.4988 81.8306 9.94833
-3.74419 92.9487 2.13972
3.12049 113.255 2.70866
-21.414 120.723 3.72106
-19.0526 122.039 -5.82285
-18.9181 93.5039 1.77299
-5.57968 127.482 6.84663
-0.0215863 93.4801 -5.37348
1.22547 136.738 -0.321748
0.391004 116.611 7.40334
-10.0802 84.6887 -4.16117
0.50934 131.56 -0.767416
0.800573 130.16 -1.09763
-21.6813 122.702 5.15244
0.0263846 119.815 9.6292
0.121627 108.486 11.3239
6.06497 99.3082 -4.61025
-8.48963 107.549 9.2081
-3.02629 97.155 10.1825
0.790023 141.191 -0.730498
-0.551482 111.412 14.8769
-23.2284 136.875 5.54826
-16.2492 126.6 -6.58891
-24.6581 89.4484 -3.65059
-8.81261 111.141 -6.49588
-11.8406 79.8698 4.36993
-22.9847 121.147 1.70736
-12.0189 103.09 10.2286
-21.8238 78.6733 -3.82901
-23.8595 99.4859 -5.09132
-19.7893 112.973 2.32148
-9.96638 98.0823 -9.40885
-21.5596 79.2932 -9.45904
-8.77931 92.7977 -6.96378
-22.5273 128.644 4.6891
-25.2256 86.6066 -4.97229
-7.05838 147.058 -4.6934
-18.3106 134.979 7.5341
-18.0827 101.399 6.78343
-0.736054 89.194 10.2855
-26.9246 123.478 3.97833
-10.6956 93.005 -8.36717
-20.1182 114.993 2.66129
-6.64609 106.015 -8.20488
-11.2391 126.25 8.86695
-16.6819 119.044 -8.16326
-3.02143 93.3315 2.17464
-0.377821 91.9347 2.87735
-24.1003 120.862 -2.75226
-3.64181 89.5036 -2.51704
-5.44553 104.27 8.54237
4.8425 81.0782 10.5175
-9.17032 85.8031 -0.565816
-10.1028 150.506 2.4222
-16.0416 111.262 10.2349
-18.843 107.555 6.57508
-21.6377 136.63 -0.491792
-25.6317 121.28 4.59481
-6.99618 144.904 3.03157
-14.3128 140.049 -2.37941
-0.110536 124.316 8.59438
-5.74672 154.09 -0.89917
-2.56703 81.0308 -2.24742
-9.45938 145.08 -4.98062
-21.9253 123.915 5.25602
1.44719 110.36 2.99391
-21.2658 122.563 0.954054
-9.21474 103.789 8.69798
-22.5325 125.065 5.69923
-10.0762 122.335 9.58557
-23.7027 80.666 -4.92278
-1.19171 144.753 -1.14994
-12.8491 90.0726 4.52877
-17.1145 117.664 9.51786
-18.7427 86.7169 1.48146
0.109246 86.4149 -2.77917
-17.0507 115.735 -9.1376
-0.0846927 135.591 5.94388
-17.7927 128.948 -3.45759
1.25536 121.768 6.01477
-13.8383 87.5251 4.27439
-21.2615 79.3824 -8.33216
1.21446 125.097 7.97338
-22.8956 116.469 -0.960199
-10.6594 103.805 -9.83248
-2.767 98.0398 11.0192
-14.691 88.5228 -10.0082
-8.07736 86.8877 -2.45946
-10.9086 79.1351 1.75828
0.531128 109.048 10.4266
-5.89159 154.214 -0.713729
-21.9205 111.224 -7.29643
-23.5383 129.004 -4.06443
-5.38101 136.34 -3.44264
1.82915 148.562 -2.17199
-3.71704 89.6519 2.73629
-4.31767 97.0187 7.45902
-20.5455 122.472 -4.64561
3.54661 85.3374 3.47604
-13.3669 131.863 -5.46567
-18.4588 111.052 -9.68762
-4.67611 140.377 -3.55487
-11.2398 129.119 7.33572
-4.98599 112.049 9.63107
-18.5812 80.6657 -9.06802
-23.0619 87.9922 -6.6292
-19.1279 125.971 5.95962
-6.42479 118.25 10.0615
0.701651 119.199 -4.19535
-21.7563 100.389 -8.82517
0.000296686 80.3411 -1.5796
-25.3859 86.3233 -5.31356
2.29721 140.524 -1.1573
-18.7937 135.514 7.39512
-7.76995 123.621 -3.79879
-21.683 116.809 -5.21839
-13.0209 112.668 9.81848
-25.1721 122.778 6.34479
-2.89856 94.8841 2.24179
-9.16742 102.372 8.80205
-14.455 90.6739 -10.1559
-1.5233 84.2733 -1.46025
6.04452 98.7452 -4.42663
-3.93888 101.966 8.47721
-3.53454 100.723 8.872
5.95798 91.3311 -1.79029
-1.59553 103.634 5.41583
-3.28805 114.773 10.2653
-20.5787 123.9 -0.550745
-8.73586 132.79 -6.25559
-1.48426 103.889 8.43365
-22.1801 78.9523 -2.78961
0.184898 91.1016 -5.27472
-16.2198 127.652 -6.28546
-18.607 131.933 -3.72697
0.30847 109.648 7.27542
-7.76085 87.2248 -2.11021
-22.2172 140.3 4.02
-16.6677 111.715 10.0084
-14.3063 143.188 -0.421085
-23.8264 97.9919 -7.0372
-7.13677 91.2828 -0.837422
3.7671 121.953 -1.284
-5.65061 153.58 -1.32814
-14.7498 80.5753 4.14799
-16.0424 135.445 -2.36645
3.08749 108.732 -4.68171
-11.378 106.141 -9.51167
-16.8144 97.2519 5.57682
-2.68995 102.451 6.62765
-17.2186 96.9287 4.95368
-2.65591 136.943 4.91242
-8.08084 102.071 -9.53361
-19.6318 84.1249 1.06115
-18.117 135.692 7.49488
-18.4397 77.2721 0.247912
-4.76097 140.749 3.89695
1.05204 119.922 6.91851
-19.0088 86.751 -9.62798
-2.47008 132.953 -1.21874
-24.0318 98.8066 -3.57713
-17.9153 124.749 -5.16496
2.25267 131.505 -0.560264
-19.6464 120.897 -5.04597
-5.36461 78.5667 -5.10118
-12.9877 79.3431 -7.05841
-9.20253 152.801 -0.106759
-21.3873 131.851 4.22304
-17.1528 129.919 -2.86337
-22.5522 108.672 -2.96167
-7.72431 130.298 -4.24285
-0.654178 99.8197 2.28082
-5.33112 78.8618 -4.68441
-18.3803 126.473 -2.59402
-13.4815 89.3608 -9.65038
-15.7958 131.051 -5.0097
-8.82779 89.2512 -1.93013
-12.634 82.5706 -4.79007
-7.20944 92.4426 9.10939
-1.8019 108.682 13.3448
-10.301 120.174 -5.42083
-21.104 122.202 -3.28618
-27.2895 128.542 3.39598
-14.0171 141.028 -3.73706
1.51516 85.7569 4.87891
-16.6227 144 6.71394
-1.35146 95.1098 14.1191
-8.45817 83.983 -2.87735
-22.0491 134.884 5.19144
-13.872 147.903 -0.791864
3.91133 82.212 9.21391
1.41565 91.3288 1.54087
-18.534 89.2079 0.753698
-17.1932 92.4178 -10.1525
-17.6881 128.562 -3.38461
-9.00986 96.9106 -9.07892
-15.6142 113.731 10.2654
-12.2286 99.492 10.3648
-4.65318 110.75 -6.71589
-9.07015 79.7999 -5.56743
0.661626 81.7462 -0.99543
-26.5806 127.183 0.285873
-22.6296 128.32 -4.11077
-0.960096 96.0232 14.1901
-9.3126 89.8649 7.49763
-4.1089 102.189 -8.44097
3.66092 84.6431 -0.848589
-9.02182 145.954 2.68522
-5.54125 84.4599 -2.78365
-12.7264 146.931 -2.7396
-25.1162 90.7125 -6.20347
-10.6891 109.7 9.42291
-0.900662 112.484 9.13159
-8.39153 127.532 -4.12134
-22.2656 126.613 6.93977
-24.0685 130.11 -1.06831
-6.0469 93.7089 4.65304
-24.5331 121.665 -3.50647
-21.3267 122.728 0.672308
-2.33777 128.146 7.95065
-17.1597 79.8273 -6.93846
-0.970529 95.2386 -5.02093
-17.7443 113.286 -9.57422
-9.05254 78.2814 -7.4649
-12.3373 109.896 -8.57506
-5.69374 95.8573 9.01843
-0.755735 93.8455 10.2539
-12.8256 146.093 4.93614
-15.2602 143.087 6.84346
-4.49002 114.826 -5.37594
-5.31179 143.275 3.98246
6.20249 100.328 -4.81084
-15.9095 97.6047 6.66662
4.54264 88.4674 -2.89398
2.22946 87.2573 13.2346
-12.4324 87.801 -8.42492
-7.83598 110.734 -6.22851
0.11223 85.4784 -1.77407
2.19544 126.476 -1.40132
-10.6735 95.7223 -8.71194
-19.9193 85.8719 0.859055
-1.17529 115.37 12.283
-4.88327 103.885 8.26229
-21.644 120.31 3.65945
4.3386 86.705 7.47615
-7.16625 101.45 -9.36373
5.69931 87.8102 0.763663
-17.3261 94.0533 -10.3149
-1.87052 108.658 14.4295
-0.937043 103.3 15.647
1.00908 134.256 7.07581
2.47208 82.0378 -2.25806
-3.29982 97.5637 1.78601
-3.42383 100.538 9.40671
-4.89949 95.2139 3.67898
-7.24616 88.8279 8.70541
-23.8 82.506 -7.77908
-15.878 130.631 -5.25539
-13.2236 148.724 3.96927
-7.36261 123.252 9.62679
3.56778 82.6611 9.06707
-18.9766 112.677 3.30129
-12.646 114.382 -8.05287
-4.18321 90.6053 3.79344
-9.82742 151.28 2.06852
-15.5004 100.461 -10.6896
2.96588 85.3071 4.57353
0.793867 115.605 -3.72699
-8.2749 128.734 -4.34122
-2.58557 93.1012 4.90696
-0.340894 84.5521 -1.17256
-19.3567 140.347 -0.646535
-2.82422 92.3088 3.23
-14.2143 139.633 -4.26905
-12.2189 150.371 1.42652
-9.28148 89.4542 -1.95856
-12.3851 127.667 -7.70156
-6.08474 85.7501 4.96258
1.08957 86.4642 -1.94227
-1.04715 107.111 10.7883
-16.1577 127.359 -7.02559
-0.318336 102.018 6.4467
-15.7879 78.8447 -9.81996
-19.131 107.609 -9.65699
-6.60024 134.261 3.89209
0.163118 89.4129 -0.412085
0.68528 139.234 4.32492
-6.8286 132.273 5.05102
-0.540164 143.746 -0.981011
-1.80955 136.43 -0.82128
-24.1332 130.048 4.15889
-6.13121 126.618 -2.58855
-20.917 103.331 3.38765
4.43699 113.642 -3.23386
-16.0963 99.954 8.11704
-0.672478 113.169 10.4926
-11.6111 147.975 -3.2656
6.06196 86.1219 -0.262408
-22.138 122.469 1.82445
-14.2642 143.714 6.49474
-2.47276 95.5615 6.62745
-14.4284 125.185 -7.0817
0.0472743 114.979 -5.22953
1.14701 111.677 -5.82549
-6.65686 85.0683 -3.9357
-2.2011 141.313 -1.29831
-11.3277 134.47 4.13408
-18.9035 111.229 5.20235
-14.5477 146.017 5.80674
-8.57333 139.465 -5.7005
-4.58715 87.8343 -4.17746
-5.11855 91.8847 -3.23468
-2.85861 95.3222 1.11118
0.442191 90.7143 -5.24294
-18.2176 114.374 5.92605
-23.4174 101.141 -6.39445
-10.5315 133.525 -7.20088
-23.5033 100.489 -5.57019
-16.6603 137.397 7.21789
1.9308 126.967 6.27296
-23.6889 93.3605 -3.81048
3.74351 83.6966 3.84831
-4.94305 137.756 2.45551
-18.1698 131.607 6.21053
-22.9928 133.909 -1.42273
-23.2437 120.292 -2.35868
-0.705698 142.097 3.79617
-19.3247 124.528 -2.33963
-21.029 119.393 -4.84226
-1.81927 93.4947 -5.00139
-9.40143 83.9811 6.34298
2.29534 107.778 8.84246
-7.07245 120.387 -3.45155
-17.8714 137.908 -2.18753
-22.245 109.611 -1.98437
-11.1782 78.1847 -7.1796
5.06757 92.8329 -2.49285
0.135463 125.708 8.566
-17.6877 84.2241 -8.72484
-1.6224 94.7266 0.874252
-8.5386 120.146 9.7895
0.795781 82.7951 0.281228
-10.2869 139.991 -5.31185
2.13725 83.4668 8.35925
-14.8105 143.52 6.75692
-21.9687 127.295 -3.73684
3.68803 105.849 -5.8684
-17.5911 138.809 -2.129
-20.9917 123.574 4.42637
0.882543 118.833 4.91779
-15.9327 126.23 -7.94386
-1.79304 139.33 4.3426
2.45616 137.342 -0.687775
-10.089 80.4456 -6.34839
6.75066 89.3828 -1.49592
-20.9082 126.414 -3.56167
-2.93546 146.327 -1.81972
-6.78307 94.2672 -5.50566
-20.9829 122.875 0.643518
-15.2411 77.8231 0.967664
-19.724 123.652 -1.75523
4.94933 85.1844 8.67822
2.30132 86.5951 15.0856
-13.7882 145.178 -1.50282
-15.1985 95.6629 -10.1779
0.719733 88.6703 11.387
1.52239 105.746 -6.93436
-17.8934 137.343 7.46385
-15.6642 127.561 -7.52361
-14.4158 128.39 6.91254
-16.5199 137.756 -2.10717
-0.113951 121.376 10.3437
-14.2111 143.759 -2.32645
-21.9066 122.635 -0.526556
-4.25492 93.1175 2.82427
-14.1914 141.643 -2.44615
-15.5663 87.6305 2.86383
-7.29967 110.895 9.4219
-1.17795 104.258 7.64391
-4.06721 107.86 -7.77205
-13.9057 139.393 -4.43243
-18.5632 103.438 -10.1526
-17.0895 83.1266 2.98865
-18.7787 112.946 5.1758
-0.0785966 116.097 9.05319
1.07606 117.363 8.55174
-5.09335 142.292 4.48869
-13.0103 131.514 -6.85609
-17.4527 116.011 -9.05285
-10.2581 102.286 -9.5117
-0.909391 107.594 15.2967
-9.49883 110.528 9.17589
-13.4759 87.6086 -8.64263
-25.0672 121.63 5.32565
-23.2009 113.016 -3.81492
-12.1776 125.809 -6.9068
-8.96068 86.686 -0.660701
-14.1912 111.638 9.90222
2.85694 83.7773 2.18118
0.636934 87.9793 3.12963
-8.86588 99.8507 -8.95333
-22.8731 122.48 0.829567
-6.52306 87.3259 -2.5792
-12.6443 105.985 -9.95652
-20.0427 120.438 5.6403
0.652698 108.335 10.724
-20.2355 137.3 7.22871
-9.35578 82.1171 3.18754
-23.5482 136.213 5.55824
-7.20381 87.0696 -3.63472
-5.45545 131.278 -2.41838
-5.33473 86.6121 5.27138
4.32221 83.8366 4.36246
1.90782 124.687 4.59784
-8.67348 121.706 -4.15004
-12.8268 97.4703 8.91373
-16.1592 131.841 6.75658
-20.604 93.5275 1.03306
-25.5139 123.118 1.78013
-9.97778 84.9768 -0.931653
-14.7443 79.473 -8.27498
0.907962 143.258 3.43552
-18.6383 94.4684 2.67676
-3.70448 97.9729 9.09923
-16.4872 95.8009 4.88098
-12.5034 133.093 -5.12463
-5.42507 114.133 9.94485
-5.04526 98.979 7.07318
-18.4711 80.2734 -8.06667
-14.7789 140.026 -1.32886
-12.94 137.493 5.02721
0.525083 145.863 -1.39124
3.24014 107.91 3.41137
2.21747 91.9287 16.1644
-26.3416 121.644 4.95783
-22.2431 114.21 -6.5419
0.0174339 94.5493 15.8498
-14.3842 94.4114 -9.76817
-3.93345 94.1377 -0.701721
-15.7099 146.168 2.03569
-24.063 128.259 5.35942
-3.28952 126.663 -2.10828
-20.8948 80.9985 -8.09111
-19.2987 119.889 -5.51628
-23.0895 110.808 -2.13608
3.0203 91.6391 -3.96093
-22.2905 125.509 -4.56765
-2.30145 123.088 -2.98106
-4.00931 97.9104 10.1033
-12.2148 85.0712 -6.65826
-20.2919 122.22 -3.5254
-2.6695 101.947 4.89718
-11.1142 78.7827 2.32684
-2.66196 131.586 6.98725
-24.4387 84.8258 -3.55353
-1.06805 110.854 14.9507
-26.9734 126.699 3.94749
-14.8034 124.215 8.09029
-24.8316 92.4715 -6.5535
-0.165013 139.409 -0.721746
-10.4779 87.1865 -1.03012
3.23251 102.134 -5.78867
-12.6709 149.521 -0.784137
-4.47492 125.567 7.68683
0.857449 98.4311 4.19683
-20.4899 79.2666 -8.53562
-15.4372 108.549 10.1361
-5.07115 139.431 3.38164
-12.8174 147.479 -2.31086
-25.0135 131.633 3.9885
-21.1477 126.063 -4.72029
-20.949 140.643 1.07424
-18.5642 133.005 -4.06731
-10.9531 120.08 -5.7273
-21.4465 121.869 3.53158
-2.48966 102.043 6.75311
-21.6066 96.4458 1.87177
-10.8195 127.376 7.92383
4.54036 87.4089 -1.40454
-23.8164 123.366 3.62349
-22.1805 123.567 4.42712
-18.6309 91.9158 1.45393
-18.5664 104.463 6.57134
-13.0525 132.488 -5.06655
2.16902 102.432 6.12213
-10.4225 109.824 -7.8149
4.86843 85.6996 3.52554
-22.3786 106.122 -2.84044
-20.8283 124.614 -0.843501
1.69955 119.576 3.52256
-10.3507 141.513 -4.29262
-8.40864 90.3649 -5.38784
-18.8444 124.958 -2.60648
-15.669 120.381 9.65703
-17.7462 129.287 -3.30924
-15.3789 145.259 6.26591
-24.1303 84.6872 -8.43528
-24.2686 127.175 6.4354
-24.1512 85.5053 -7.73424
-3.32765 98.7445 9.78451
-5.1437 95.0533 3.84298
-3.50261 140.546 3.12375
-17.1434 82.3719 3.07696
-17.8523 84.4925 2.7535
-1.89873 110.423 -6.52012
-6.58154 105.214 8.7891
-15.5743 111.81 10.0256
1.16151 99.6526 -5.41024
-4.73852 124.083 8.6256
-21.3795 128.008 7.34571
-17.7143 127.811 6.71911
-11.6665 79.7133 -6.92123
-4.69698 98.6783 7.88664
-11.231 78.0967 -7.21263
0.911528 119.4 4.46181
-9.39151 88.7636 -1.46782
-10.2028 136.725 3.27128
-22.7689 120.949 0.516409
-0.26033 93.7375 5.22943
-2.58818 105.199 9.93536
-22.6821 95.278 -0.0889243
-2.5866 92.1212 -4.82876
1.53475 98.0669 -5.4301
-15.7037 96.0063 5.45227
-3.05416 98.3221 10.3513
-21.5657 90.5932 -1.12761
-2.35827 100.42 13.2638
-23.3743 102.076 -2.03826
-11.553 105.788 9.66978
-18.4819 123.087 7.08117
-0.76202 141.016 3.42979
-0.861833 87.5013 -1.09033
-8.51665 84.5918 2.22272
4.80357 105.692 -4.19125
-0.671398 94.1408 15.2063
-9.83747 139.621 -5.53313
-13.5657 138.249 5.28593
-26.7212 125.995 -1.98685
-1.34935 93.7641 13.6218
-21.0366 123.853 -0.388881
-1.85482 134.181 6.0152
-20.1219 124.387 4.32821
-4.21355 109.361 9.60214
-6.53546 126.282 -2.80308
-17.8093 146.201 3.07375
-18.1652 144.954 5.19936
-7.63788 115.55 9.90767
-4.8999 86.9801 -4.49897
-23.2559 113.03 -1.82312
-11.0827 109.813 -8.04946
-17.2902 85.0499 -9.50679
-7.57891 136.458 -6.43538
3.65132 106.456 5.50446
-16.0289 140.029 -1.13419
-20.6789 122.899 -1.51025
-3.92867 100.85 7.50816
-17.8515 105.823 7.4215
-22.1461 122.796 1.44071
2.94736 132.136 -0.475994
-0.451452 117.112 -4.75738
-20.6571 122.712 -3.50061
-14.6486 115.223 -9.17595
5.81103 91.2812 -1.89695
-7.83807 83.2875 5.73389
-2.21647 112.103 9.79044
-15.5003 126.808 5.48075
-3.36574 123.009 7.94242
-20.454 117.437 -8.0318
-3.36114 98.2963 2.39938
-15.3927 123.964 8.22754
-23.6831 81.3221 -8.70715
-0.531369 101.406 15.4606
-8.76931 115.92 9.52982
-0.989071 98.1413 -5.13024
-21.1518 78.7148 -3.63058
-20.0891 126.24 -3.44261
2.12863 103.299 4.59097
-11.7829 108.958 9.98632
-3.57884 97.8034 9.41968
3.1528 101.88 -5.69339
-3.30004 92.9367 -4.71614
-19.6325 133.614 -4.04836
-6.52904 90.847 -4.5093
-9.13607 99.5028 -8.96235
-0.454753 131.599 8.16249
-21.6536 111.107 0.0680418
1.56755 147.12 -1.85207
2.33277 104.874 7.2519
-20.1636 121.965 -5.26543
0.776368 130.04 8.22082
-9.68175 101.47 -9.33461
-8.55465 117.821 -4.98051
3.98509 107.495 4.30326
0.742835 117.388 5.97555
-5.57673 136.641 -3.7035
1.78848 85.86 7.8642
-2.12415 101.752 13.2775
-4.62542 96.0189 5.73345
3.92601 81.9917 13.6975
-0.502789 83.3752 8.93446
0.391272 119.233 8.17451
-3.47395 146.388 -2.21176
0.467626 115.306 5.56673
3.20691 119.449 2.61508
-26.2059 126.874 5.17621
1.20654 144.407 4.00632
-0.0562659 96.1769 -5.11175
0.482078 143.929 -1.02644
-6.89908 89.1485 8.69636
-22.4878 122.387 3.29985
-14.3392 89.4069 -9.9936
-13.1607 127.564 8.67111
-10.4161 91.9827 6.8978
-14.7909 113.679 -9.49454
