ply
format ascii 1.0
comment Created by Open3D
element vertex 1901
property double x
property double y
property double z
end_header
-35.7962 140.493 0.523968
-14.316 121.732 -7.24869
-17.3818 119.593 -9.24966
-32.7941 109.121 -1.87311
11.1646 127.813 -3.85806
-1.34322 109.685 -10.7241
-34.7286 136.553 4.63325
3.22031 138.514 -5.15753
0.18185 93.4042 -12.502
-36.5276 133.664 -0.403621
-36.2701 127.231 -3.06434
-27.3809 122.705 5.17222
-2.82161 114.154 -9.53726
-23.942 89.7692 -11.9646
9.30609 121.833 -5.72929
6.71411 129.32 6.25054
0.586045 132.783 -3.47879
-13.4039 147.711 -1.35898
7.12187 104.177 -9.85873
-9.72378 138.634 3.36468
-34.7685 129.295 -0.539707
-25.0312 134.123 -3.14659
-22.9277 128.659 5.89136
-15.6813 141.55 0.419512
-1.2178 125.749 -5.14098
-22.2945 119.717 5.93272
9.30777 129.838 -8.53489
-23.2929 144.043 5.36261
11.8392 128.271 2.00264
11.1566 134.647 4.14076
-28.5424 125.385 -5.84337
2.53862 123.972 -5.98753
-33.5987 109.603 -5.89653
4.41194 127.632 3.86693
-33.6067 102.359 -2.98661
-15.1443 117.32 -9.68906
-29.6058 144.451 3.73691
-37.3397 133.755 2.84693
-14.0599 129.868 5.63773
13.4528 126.187 1.94281
-31.1895 139.458 3.73315
-26.8295 95.1032 -13.9663
8.39318 126.69 -5.06467
6.5925 120.378 -10.3144
-19.3211 148.402 5.14667
12.7067 131.616 -6.93456
4.81389 103.511 -10.9708
11.1182 142.56 -1.18873
1.62744 140.356 -2.95906
14.9475 117.439 -1.02875
-28.6317 138.701 4.39968
19.2444 119.78 -0.299097
9.43664 124.214 0.391381
11.655 133.967 3.88456
20.4879 128.803 0.784964
-20.0787 144.734 -2.24807
2.58174 97.0692 -11.7618
12.6333 122.046 1.28343
-17.2688 138.448 1.52085
12.9352 130.117 3.30701
11.8338 118.555 -2.13143
-0.9503 140.07 -2.40278
-6.37138 113.571 -1.77886
18.4408 136.275 -3.67152
4.16589 147.828 -3.16999
10.7725 144.583 -4.03881
2.33538 120.695 2.18733
-28.1256 86.9425 -11.1373
-14.1571 102.375 -13.9174
-31.7484 142.977 0.471282
-10.4716 138.901 2.94112
-6.57612 136.392 3.36007
11.6589 121.491 -9.73845
-6.20176 127.595 -4.59019
-40.5799 136.002 3.25985
-0.162979 141.369 -2.49644
-19.8653 139.127 2.92654
11.1849 122.132 -9.22986
-22.8152 127.558 6.79248
-3.48775 111.674 -11.4021
17.7066 136.653 -3.66797
-20.9093 138.173 -4.14673
-25.0602 126.612 -7.19821
-4.71575 153.299 -2.72847
-2.95868 113.158 -10.0919
-26.123 137.816 -4.42721
-22.6028 95.3799 -14.2812
-13.7131 132.423 -3.91572
-30.4114 129.327 -1.7749
11.8174 121.091 -2.67098
-7.75611 134.419 3.92988
12.2885 145.225 4.31614
19.7156 127.169 -5.61207
-8.54748 125.68 -5.71527
16.3819 121.052 1.62791
20.0462 135.721 -1.10659
-6.75141 135.176 3.49806
-26.9775 131.231 -3.8995
-5.13115 112.849 -1.93351
13.3158 117.294 -1.66922
-33.74 107.178 -8.21944
-24.3494 100.031 -14.2934
17.1536 138.563 3.64611
9.9985 145.968 -4.86804
-13.6207 143.031 -5.91076
-8.48611 111.218 -1.14853
-27.8645 116.401 4.42507
-6.58686 152.02 -4.6278
-30.9491 136.47 4.89693
-27.4758 125.189 5.17168
9.6212 123.91 0.0350225
-28.9044 136.282 -5.36204
-24.181 123.238 7.08082
-27.821 130.883 -2.89454
-32.3854 119.1 -6.45984
-15.8183 144.035 -0.172682
-25.9326 110.759 -12.6439
-17.4326 147.688 3.13845
-28.9973 119.483 1.00103
-24.7965 134.916 3.70694
-39.7691 138.634 1.58521
17.6756 120.716 0.431868
-19.635 140.874 -4.47729
-14.4107 150.73 -1.70218
-28.0875 128.592 -4.9308
-39.1604 133.947 0.962057
-26.5565 89.0478 -11.116
-20.6122 95.0401 -13.5639
-31.3094 124.345 0.0890325
-14.4238 96.579 -11.8184
-30.3928 133.76 -4.09341
-19.3845 110.481 -13.8223
-26.7512 130.929 3.59608
2.09809 133.206 -0.0654906
-33.5353 107.46 -2.78034
-33.0499 112.609 -3.68937
3.13876 128.926 0.809417
-30.18 119.329 -0.724639
15.033 140.255 4.15416
9.88002 125.733 -1.42071
-11.5476 137.791 3.1892
-31.9112 111.383 -9.29071
-11.0118 117.4 -9.76499
-36.126 95.0926 -9.01392
9.91048 122.402 -7.77769
-6.29326 119.928 -0.556738
-0.804815 125.665 -5.02317
-6.50176 136.707 -2.56267
11.2009 118.628 -6.28221
-3.10747 149.529 -4.6902
18.6952 124.651 2.28973
8.01875 115.597 -7.42452
-29.1594 118.963 -9.14861
11.5294 141.082 -1.19415
-28.3091 118.776 -9.71038
9.98249 146.081 -4.45654
-13.9151 124.69 5.51717
-35.2843 85.696 -11.6794
-30.0294 132.225 -1.51741
-3.14731 114.548 -9.6542
-3.80365 142.429 2.19555
16.7973 144.211 3.00371
-22.9121 134.971 3.61994
-29.4448 95.1078 -13.2155
12.7421 118.162 -2.76413
-23.1487 85.588 -13.6127
-18.8155 134.758 4.08784
-22.2639 128.638 6.5724
-25.6835 133.826 -4.1213
19.7988 129.344 1.60857
-30.3957 126.038 -3.1155
-26.7724 127.212 -6.22044
-30.2664 124.905 2.62519
-7.01461 133.009 -2.90786
9.81299 120.75 -8.09062
4.98476 107.03 -9.0878
7.46999 126.595 6.26025
-34.4972 100.88 -10.0599
8.34634 124.808 5.02548
21.143 120.719 0.748962
10.28 145.189 -2.733
-29.2456 131.148 2.48866
4.06706 100.915 -11.3648
-34.1447 101.584 -12.2885
-18.8872 88.6632 -10.5614
-16.2882 143.663 -0.349337
1.52607 115.895 -7.17211
-16.9325 145.075 1.25254
11.418 119.583 -1.11182
-20.8602 108.432 -13.5299
-42.1958 137.09 2.784
-33.0812 103.67 -11.9817
-22.606 131.811 -4.73499
2.38266 124.798 1.00374
-23.7277 144.773 -1.29068
-14.1269 107.673 -14.5023
-18.449 133.647 -5.3913
8.07368 118.113 -9.18128
-27.7827 126.417 -4.92354
-9.83565 109.245 -13.9507
0.452402 128.342 -3.76029
-12.1273 145.149 0.942551
21.6084 130.894 0.451099
-11.9724 100.821 -12.5722
-0.225738 128.151 -4.00869
-29.8845 107.322 -12.3025
9.4048 129.03 -5.76807
-0.615628 108.5 -10.7744
-17.6834 119.765 -9.22046
-19.7604 150.001 0.0492602
-1.83966 98.0833 -13.102
9.80819 140.707 4.96537
-2.49865 128.928 -4.43766
9.74239 126.529 -4.08151
-33.3346 97.7999 -5.657
-8.39392 129.268 -3.56301
-12.0338 100.24 -12.3338
-15.2052 103.749 -14.5691
8.94819 113.509 -7.37484
22.4099 125.063 -2.08823
-10.4889 131.201 4.40065
23.238 130.148 -1.61229
-22.8428 121.719 -9.10902
-4.66915 130.754 2.47084
-5.49381 111.211 -13.0831
0.817339 151.874 -3.78107
18.8421 126.842 2.22895
-2.89199 108.466 -12.5788
-13.5125 131.46 -3.57943
-26.0387 96.3081 -14.5077
16.2074 132.049 -5.42452
-29.9244 116.965 0.394548
-32.243 106.955 -11.3799
-3.74951 125.77 -6.58593
7.0291 149.339 2.11242
-29.0076 119.944 0.595604
20.527 124.257 2.78076
-31.0735 112.486 -9.33596
-9.43754 117.308 2.50783
-4.70223 132.768 2.41641
20.1868 125.568 1.20281
-26.2076 119.475 6.27053
10.6897 127.061 -3.74407
-4.0233 140.989 -2.9709
-19.9207 108.736 -13.8859
-19.3466 142.377 -3.45938
-20.9145 130.005 -5.94329
-31.9022 114.853 -8.179
-14.5515 129.989 -3.74308
-32.9896 119.036 -3.72495
9.91273 134.14 -8.18901
-8.96149 126.425 4.27225
-5.04533 113.383 -12.1396
10.0646 132.949 -7.46204
-12.4362 134.95 4.42222
-29.2145 135.678 4.90993
-33.3822 88.0864 -12.8935
-5.31815 126.445 1.10672
-16.9797 143.589 0.593061
8.50432 130.841 5.32053
13.1254 124.778 1.43425
-36.0514 98.3829 -8.5551
-19.3988 133.839 -4.64325
7.46914 122.119 -7.39009
-29.7579 131.98 -2.67581
-30.7352 114.562 -9.08137
-8.78852 121.031 -8.59821
16.5804 138.532 -2.54758
-27.1214 130.246 -3.93174
-25.1041 96.6521 -14.5868
21.0508 134.653 1.39026
-30.3952 134.769 -4.71911
-16.8915 136.862 2.89687
-39.0205 135.693 3.68109
-30.7745 119.461 -8.19303
24.6212 123.788 1.64715
-8.46114 119.856 2.27304
-15.9989 132.992 -6.27551
9.63793 105.132 -7.67926
1.52487 111.88 -8.32551
-33.6521 103.178 -2.9685
-29.9938 129.757 2.62446
-29.7498 144.661 1.61463
10.33 121.076 -3.29458
-23.3035 101.311 -14.2236
-33.5949 87.0945 -13.5238
-27.8545 140.258 3.66347
-15.6386 88.2117 -11.3306
5.365 112.429 -9.0723
18.6361 125.065 1.82825
-4.02866 99.1363 -13.7886
-26.896 121.403 -9.5689
9.27023 128.145 -5.81667
-20.3374 150.491 0.481082
-15.5351 150.822 3.14165
-21.7607 141.113 4.43367
-3.26416 129.546 0.949897
-12.0319 151.545 -4.41259
-32.662 91.1701 -13.8732
4.52991 101.828 -11.4312
-23.6815 123.493 -8.45893
-23.9308 91.1529 -12.5299
11.8477 118.026 -2.27254
-36.0516 133.392 3.40238
5.51943 96.3541 -9.76647
10.4365 120.958 -0.480379
-15.9412 141.641 0.203979
-33.2052 108.818 -8.80617
-27.9156 104.756 -12.9303
11.015 121.528 -6.12887
3.60766 132.651 0.238411
-32.1285 110.171 -9.78791
19.2754 135.789 2.33591
-9.31579 131.231 -3.1158
9.15606 128.892 -6.9189
-9.59337 123.213 -6.90502
-24.5416 128.459 -6.15039
-13.5434 151.516 1.98387
13.8585 149.6 1.76997
-33.9198 129.024 -2.24867
-11.5448 150.076 -0.978218
-4.40325 128.209 -4.43016
-29.7378 111.407 2.67946
-18.382 127.935 6.61593
-25.126 132.838 -3.42936
-6.14315 126.918 2.01367
-16.4824 122.996 -6.65434
8.19224 117.214 -4.984
13.7626 123.968 2.50703
-34.0383 103.142 -7.54896
-30.3021 102.637 -13.1995
3.93409 141.941 0.731105
-37.362 132.672 1.46638
8.29115 115.656 -4.162
-34.2677 107.705 -4.11581
-13.1692 107.372 -14.466
-27.7328 120.355 3.17962
-37.6613 132.911 1.44208
-29.5233 121.788 -8.42391
-30.122 131.549 -1.30116
12.153 119.201 -6.06303
15.9568 138.988 3.83736
8.48144 125.4 -8.11734
-26.4864 115.94 -11.4238
-13.6407 146.544 -1.11836
-10.7569 117.979 -9.5414
-24.2628 94.1505 -14.4267
-11.1327 120.217 -7.97075
16.849 121.044 -8.785
-23.5915 128.95 4.83458
10.2028 146.313 -2.51208
6.54997 142.037 -5.87391
11.4726 133.184 3.82614
-28.2175 100.392 -13.7703
-33.4026 106.636 -9.24355
-5.92536 137.191 -2.53655
5.10404 145.939 -3.49796
7.88758 115.986 -8.06004
-26.0847 127.684 -5.27895
19.1655 121.689 -7.88539
-16.7064 132.247 5.41158
10.1171 133.214 -3.87594
3.76076 103.046 -11.2366
-0.894153 120.47 -6.67494
-0.0783493 122.32 -6.20755
-7.40701 137.509 3.5709
8.77507 126.535 -3.37629
-30.1388 90.3438 -13.6954
-39.8449 135.975 0.817607
-36.1679 83.5918 -11.0779
-25.3907 133.141 -3.21317
-9.6626 131.536 -3.06733
-0.708054 134.403 -2.75294
-10.7403 102.16 -13.1365
-3.0577 136.192 2.28244
-31.2471 128.632 -1.01545
10.2236 126.771 4.26305
-13.936 124.353 -5.74982
-29.5548 113.404 2.63654
23.6193 121.832 -2.85804
-14.419 94.9063 -12.2349
10.3047 139.753 -5.96285
-26.8356 118.742 -10.5436
11.4769 138.195 -4.06624
-11.3729 139.253 2.41326
-23.5531 84.5978 -12.6462
-15.7247 150.244 3.00654
-13.2479 91.2837 -12.5688
22.2105 130.392 -0.602807
-25.0707 141.976 -3.99134
9.17351 120.397 -5.43436
-31.2222 109.624 -10.6886
10.938 133.455 -3.42289
-22.6663 83.7706 -12.6436
-26.6314 119.388 -10.4372
1.15304 137.411 -3.14242
23.2079 123.397 -2.24783
-11.8439 135.218 -4.89964
5.75282 109.755 -9.08884
-31.4505 124.039 -3.36573
-5.51353 120.184 -0.825866
7.00687 106.987 -9.02739
-9.49698 152.164 -0.374998
-33.6345 87.3387 -13.7895
-20.8087 142.309 -3.28899
8.45266 122.688 -1.24479
-34.2725 87.2929 -13.8425
-12.3625 100.07 -12.2807
-3.15061 108.925 -12.6554
-6.50251 96.0397 -13.7842
-17.0728 126.108 -5.14206
-11.4418 134.426 -3.83648
-23.9789 110.544 -13.3735
-9.96879 142.722 1.11669
-1.88702 135.179 -2.30921
-31.8077 100.63 -13.3397
-27.7845 110.385 -12.4378
-25.0851 146.388 -0.129197
-40.3837 133.522 2.77124
-8.3918 119.943 -9.58811
-32.0814 122.467 -1.10205
-11.1638 127.411 4.53241
-30.352 141.574 -0.574338
-17.5843 152.206 1.70949
12.2442 120.001 0.294192
10.5982 126.56 -0.515116
-7.48836 124.238 -6.84172
23.6066 122.964 -0.562735
-11.7495 132.864 -3.37072
15.5681 120.992 2.026
-36.4276 131.88 0.0872903
17.4195 142.829 3.10378
-19.789 127.223 6.28573
14.937 140.06 -2.70871
10.4002 121.298 0.500913
11.1906 121.14 0.0363605
-22.9054 149.428 1.07146
8.06323 147.154 -5.18889
-7.04363 129.431 -3.56594
-0.0261716 101.622 -13.3291
17.2048 120.823 -8.5125
11.2289 137.065 -3.51989
9.11442 103.498 -8.44888
-10.0872 114.375 2.04924
-28.8441 145.869 0.902287
8.03531 116.248 -7.35902
18.3146 125.242 1.95667
-22.1108 106.711 -14.1252
-10.8865 121.72 -7.25056
19.3312 119.653 -0.288118
-36.107 91.9868 -8.4485
-25.49 94.2498 -14.3553
9.67849 123.893 -0.0489895
13.0018 122.623 0.603198
-16.0344 114.94 -11.3076
-34.597 139.409 -0.9176
-12.3409 147.176 -0.511696
-11.9708 106.357 -14.4132
6.27917 146.024 -4.37162
-22.5729 134.467 -4.35247
-14.6907 118.149 -9.12859
8.91088 103.298 -8.76953
-6.28479 152.15 -4.50781
-20.9585 89.3692 -11.3746
-37.581 89.4125 -10.9617
10.1632 145.521 -3.84575
-1.74791 92.2041 -13.1126
1.94764 123.441 -5.25481
8.69697 125.492 -0.255716
-33.7967 128.848 -2.33347
-37.3983 89.0711 -10.253
11.4837 122.176 -1.82779
12.6037 118.3 -0.311565
-17.3519 127.236 6.2779
-19.1858 133.807 -4.48787
6.5451 139.153 2.13326
-27.5918 113.052 -11.4251
-34.069 102.278 -11.8136
10.4411 144.353 -1.82288
-29.9686 117.084 -0.420006
0.145471 90.0248 -12.2639
9.33298 145.159 3.67155
-34.8971 99.6204 -8.51837
-8.04291 133.116 4.1424
-21.888 101.712 -14.1571
-3.51944 88.2794 -12.9879
9.01946 113.728 -7.88587
18.9674 140.063 -1.12228
-15.8888 140.783 1.23182
-24.2557 131.999 2.82731
6.30791 121.25 -9.76683
14.1236 118.248 -0.479182
18.8533 141.693 -0.202991
-30.3029 116.588 -9.08147
8.46686 120.596 -9.22554
-28.7633 135.702 4.72529
-30.306 114.781 0.74454
-1.60547 129.312 -0.144434
-27.8098 98.5144 -14.285
-7.23024 117.882 -0.104886
7.24475 134.498 5.35735
10.1604 121.986 -5.03497
3.36318 130.376 0.727944
-26.9116 115.83 -11.0734
16.1953 138.488 -2.78686
5.53437 136.808 1.62338
-9.5055 122.494 4.08633
-23.9156 136.494 -4.15134
-6.95899 141.339 2.52633
-35.0329 87.1822 -14.0753
7.67052 121.55 -9.21789
6.91109 108.478 -8.95759
-35.6762 136.415 4.5257
-28.6017 142.663 -2.30565
-25.3608 139.015 4.21317
10.6378 124.379 -7.20178
-17.2548 97.7637 -13.0162
4.83003 108.43 -8.5313
-19.3459 96.9262 -13.7368
-13.679 133.73 -5.09867
11.9314 135.197 -4.82767
-23.6663 122.013 6.7263
21.073 128.555 -4.44134
-16.6753 129.537 5.77895
-8.63374 146.717 -5.8591
-16.255 118.959 5.0536
12.0718 131.709 3.65131
10.5231 120.354 -1.22894
-1.14051 140.075 -2.38672
-13.5971 126.304 5.62337
-10.2775 142.604 -5.30229
-8.67655 122.639 3.20823
-25.2028 110.42 -13.0967
-29.2143 136.122 4.87581
-7.85858 106.402 -2.51336
-34.1369 105.197 -9.54091
5.96559 96.9174 -9.6058
-22.9059 129.828 -5.44722
4.45498 134.862 -6.51765
-28.6793 131.597 -3.91666
-4.39316 124.313 -0.245121
-37.574 87.1128 -11.3461
-15.4027 144.943 -0.0116813
-39.4385 132.958 1.56102
2.118 142.271 -2.93513
12.5665 121.85 1.27109
-34.3049 106.286 -4.30055
-11.1521 132.451 -3.21953
-41.9948 137.145 3.23249
-33.9716 103.212 -3.45436
-31.4124 90.3332 -13.8447
-18.0453 129.575 5.77904
0.0154621 98.5047 -12.731
-29.8319 132.822 -1.35501
6.13069 135.53 2.8333
-25.6966 130.2 -5.37363
-19.3064 148.603 -0.881039
-23.1703 95.6089 -14.4202
9.18488 131.427 5.12852
-20.5985 126.741 -6.71437
-23.7066 121.814 -9.60491
-27.539 98.7894 -14.3375
-18.4871 130.774 5.05807
-3.26876 103.096 -13.9146
-22.4921 145.095 5.27812
13.9087 122.413 -9.7057
-14.0656 148.469 -1.04558
-27.2096 141.935 -3.57343
-18.4773 117.778 -10.9183
-7.22439 147.168 -5.41373
-31.7998 122.886 -0.248384
-4.57245 96.1013 -13.3511
-32.7697 118.826 -5.90897
9.53489 126.179 -6.58193
-0.889926 118.291 -6.79082
-31.2538 132.737 -0.258939
8.13704 126.052 -4.24374
2.85158 100.508 -12.214
-5.3033 106.345 -13.4424
-20.7658 96.6791 -14.0496
0.00101228 117.272 -6.893
8.76333 102.82 -8.93447
-11.5252 145.141 -5.97832
10.0554 111.962 -5.14393
-29.9128 129.61 2.6029
7.11066 135.648 4.66545
-21.2342 119.887 5.41812
-21.4072 136.258 3.10032
16.9774 140.131 -1.69698
-9.31765 102.98 -12.977
-22.2551 119.14 5.97001
-4.64419 113.132 -1.89176
-28.5108 125.784 4.66824
-25.7245 134.638 3.95542
-13.973 140.671 -5.53673
-24.1166 137.446 3.72065
13.0919 118.445 -0.488375
-10.0033 152.171 -0.189006
-12.8623 129.127 -3.55105
22.6384 129.55 -1.07132
16.2155 116.465 -2.53572
11.3889 127.135 -3.27458
-30.9411 130.491 -3.15658
-10.3199 99.2905 -12.5168
-7.57129 90.437 -13.2555
23.0387 121.531 0.00743815
-27.6851 109.1 -12.3567
9.70874 150.209 -2.23734
-7.65456 140.168 -4.77578
-23.0006 149.141 0.691526
-30.1976 115.578 0.174315
-32.4774 88.9745 -12.261
13.7807 148.594 1.24816
0.343385 118.87 -6.79524
-13.6903 130.077 5.38083
-2.95737 140.56 2.30475
14.2217 143.39 0.238475
-25.1328 85.7656 -11.9283
4.22148 106.393 -9.39138
-19.6984 142.365 3.85347
-27.8259 135.614 -5.72988
3.79401 154.639 -1.76664
-21.3197 85.0057 -12.8429
15.5893 140.518 4.20441
9.19135 117.656 -4.90011
-11.8762 96.9843 -12.4332
9.94673 137.561 -6.363
17.7755 126.314 -6.77277
-8.69911 136.211 -3.62269
-12.235 91.6762 -12.8591
11.6323 118.024 0.964833
15.8629 122.213 -9.37489
-30.4466 123.161 -4.85483
-10.2567 152.024 -0.219377
-11.6708 153.989 -1.96197
8.35385 142.962 -6.41824
-35.115 87.3841 -13.7179
10.1643 143.145 4.4657
-0.104334 95.2207 -12.6154
0.710557 119.291 -6.90497
24.333 122.124 -2.51825
10.1 107.863 -5.09494
22.6398 127.216 -0.632904
-0.195697 127.773 -4.20402
4.6382 148.088 1.6659
-33.8257 101.613 -12.4073
-29.014 132.272 -4.22247
10.071 124.058 -6.49359
13.6206 143.447 0.360326
12.8534 119.048 -5.99931
10.3799 120.87 -6.92669
17.7343 139.354 -1.87535
-35.1598 99.2069 -7.37229
2.7552 127.205 0.798219
-11.3449 131.509 -3.28823
-32.5899 136.58 -3.48809
-10.6635 119.084 3.99435
13.7622 123.451 2.84759
8.56077 128.377 -2.97046
8.35034 150.19 -4.28508
-12.8011 114.401 -11.2046
-14.7389 121.182 -7.6765
12.0108 116.966 -1.47368
17.2725 143.825 0.112834
-17.9583 106.954 -14.338
15.2188 121.939 2.7389
0.420983 116.236 0.926088
-8.98768 146.497 0.202883
8.55815 101.924 -8.92889
-8.00906 121.576 -8.62071
20.7884 121.621 0.655977
-42.299 136.712 2.62103
-26.8365 127.053 -5.33347
-0.982869 120.901 -0.86027
14.549 137.541 3.20389
-13.0729 96.2373 -12.3159
-11.8019 127.195 -4.32328
-41.6216 136.901 1.88718
15.6161 116.69 -3.54969
16.2796 131.627 2.63314
10.1202 137.384 -5.84426
-8.7705 128.558 4.45909
-20.083 118.264 -11.0674
0.798887 126.831 -0.469583
-7.91587 141.155 -4.93996
-30.3527 130.934 -3.70317
-31.0928 124.571 1.21066
11.9997 120.237 -5.28667
-6.8354 140.138 -4.43925
-22.3645 148.279 -0.541333
-20.1249 93.1066 -12.5434
-27.6925 109.651 -12.4164
-5.22222 134.685 -2.84895
-32.098 100.099 -3.18553
-4.19208 120.123 -9.05788
-27.318 133.128 3.50417
8.54119 128.987 4.84776
10.4925 136.418 -5.28727
-4.24657 126.91 0.392433
-16.9042 136.891 1.64705
-41.1306 138.061 2.28059
-1.15361 129.346 -3.95455
5.07474 125.897 -9.30903
-1.4689 125.65 -5.27097
-9.98273 154.308 -2.0791
10.3824 115.139 -2.70842
-6.2736 137.134 3.20075
-8.2066 134.923 -2.74518
-32.8314 95.4725 -5.78885
-1.57989 114.639 -8.41822
-7.59305 124.66 -6.35868
-31.9519 89.8432 -13.5186
-25.561 126.136 5.93553
-30.9508 116.8 -8.61443
-22.537 134.24 -4.31095
-23.8759 89.356 -11.6457
12.4406 119.235 -4.73865
-9.24969 95.6151 -13.5023
-7.68431 114.355 -12.0216
-21.0176 119.787 -10.0948
-23.5429 144.835 5.13787
-12.3208 117.148 -9.51298
-9.17595 109.937 -13.7633
19.2477 137.027 2.63568
20.6094 137.053 1.7114
3.22612 136.616 -5.81629
-11.954 110.672 -13.8651
10.5345 115.215 -2.54082
-33.0374 129.411 -1.28456
1.87616 106.036 -10.1617
10.1256 145.535 -3.51072
-31.2837 144.05 1.58514
-28.8795 134.015 -4.66998
-28.3033 99.653 -13.8854
-16.1664 107.4 -14.5796
-7.0885 126.386 -5.52497
5.38577 129.82 5.91329
6.98513 129.684 -9.11621
10.3098 144.774 -2.09885
-11.7417 137.783 -5.92663
-23.229 130.126 4.29436
3.32388 144.567 1.17857
5.7394 142.603 -5.1453
-12.3268 114.891 -11.0493
-4.66131 99.2753 -13.8072
-29.4437 130.9 -3.80583
-15.6873 88.0007 -11.2865
-36.185 138.972 4.39115
14.9636 132.528 -6.0089
-7.05305 93.3852 -13.6289
22.8785 129.939 -2.56307
-13.5825 145.082 -5.47895
17.9963 126.211 -6.75775
-27.7545 128.468 -5.93237
11.0781 120.075 -1.88911
-36.9545 132.468 1.82989
4.57147 134.281 0.749407
-18.0109 120.379 -9.00739
-0.949554 110.5 -10.0719
21.4702 124.539 2.1865
-6.27061 140.428 -4.22258
4.04999 142.203 0.799282
-31.6847 123.157 -0.0222705
11.89 125.723 2.36203
9.25493 119.868 -5.37197
9.80441 129.198 -5.39359
-21.0268 139.725 -4.20792
-3.39549 138.292 2.27843
-10.5113 109.146 -13.9984
-4.76765 152.39 -3.72035
-29.8918 124.704 3.18003
-2.81101 121.689 -7.62015
-19.5894 141.889 3.20691
-33.1093 107.736 -9.18951
-33.7428 106.551 -3.05459
-1.52635 137.425 1.93132
-20.649 118.803 5.23742
-26.7415 105.278 -13.2561
22.4304 123.846 2.35345
-27.3533 124.416 -8.34911
-8.97648 148.68 -6.05674
-14.9225 122.611 5.19674
10.4983 140.265 -2.10207
-16.0745 146.424 -0.17724
-10.2101 89.3734 -12.5942
9.77225 144.769 3.98756
-33.0073 143.701 1.50749
8.43696 118.15 -8.11667
14.2507 117.903 -4.14097
-35.4118 99.2293 -9.01855
23.241 130.04 -1.42138
-36.9853 86.4794 -11.8507
-13.7506 125.763 5.66047
-11.4334 135.42 4.32919
-12.8834 119.968 -7.86857
-8.17433 113.504 -12.3263
-33.4906 140.582 3.18848
11.4796 137.998 4.43829
-18.3642 140.45 1.52787
6.29576 136.875 -6.83527
-28.2488 88.1145 -11.0803
-14.0809 146.354 -5.62365
4.97228 136.617 1.14023
-23.1541 101.263 -14.1845
-34.1096 102.21 -4.73253
-40.0647 136.438 3.7849
7.53854 105.998 -9.53126
1.21465 144.652 -2.70386
-14.0095 150.033 -3.39022
13.4744 146.143 4.19314
-22.7734 143.002 4.99088
5.7902 120.568 -10.0211
-36.5364 132.535 0.571258
-33.9441 107.463 -7.59772
-34.0268 95.2127 -6.96699
4.61413 113.609 -8.4414
-19.1343 142.965 2.40556
4.85827 146.744 1.64379
-31.0456 87.8773 -12.6177
-32.6546 111.822 -6.52091
-32.9211 110.482 -1.86104
-27.1077 120.667 5.71553
-35.8889 130.362 -0.10294
18.3306 137.2 -3.31175
12.3799 117.393 -1.24131
9.13298 128.235 -5.77388
10.8953 143.897 -2.92162
-3.19892 127.656 0.121775
-24.0718 106.131 -14.1845
-4.98761 121.951 -0.605244
2.20694 118.299 -8.03656
1.71029 139.024 0.713896
-39.674 134.649 1.73254
-13.788 145.089 0.311493
11.7866 115.897 -0.503625
-4.95676 113.638 -1.88581
-12.042 126.614 4.78048
23.4466 127.709 -1.34664
9.43212 122.424 0.453965
9.35206 114.521 -2.76569
-12.5458 145.351 0.679877
-21.2063 148.507 4.90083
-8.63937 139.732 -5.21863
-30.3098 88.1304 -12.7076
11.8305 138.029 4.18924
-15.5327 88.1795 -11.3034
-16.8212 150.259 0.204745
-16.8652 94.9617 -11.6957
-2.84676 146.631 -3.99087
-40.0229 133.074 1.27348
-13.3807 150.897 -3.41752
-29.5499 102.41 -13.2374
-28.6784 138.322 -4.08556
-0.80622 133.957 0.966657
-34.1559 95.9117 -12.5176
8.97931 113.831 -1.36841
-17.7455 130.642 -4.90759
14.9011 141.032 4.25545
-29.302 131.931 3.38523
-32.6069 114.075 -4.77221
-19.8086 146.227 5.25621
16.0965 144.979 0.432172
-30.9175 119.328 -1.36252
9.67556 148.907 -3.9275
-18.0517 136.19 -4.74982
-25.306 125.464 5.99223
21.9421 128.797 -0.488422
2.70777 152.577 -3.25342
-33.5716 131.46 -0.289167
-36.0037 133.442 -0.515262
-34.6824 100.798 -7.61773
17.4745 133.996 -4.76591
-12.9186 152.098 1.76214
-26.1704 86.5036 -12.3754
-29.6816 123.606 2.66688
-30.6578 122.459 -5.26085
-8.62469 110.199 -13.674
-27.9603 127.006 -3.16232
-36.9713 132.577 0.0658785
-26.3398 120.66 -10.0109
12.3808 126.82 1.22963
-26.4289 133.911 3.53256
14.0167 137.332 3.09273
-11.6707 152.621 -4.05967
8.34892 139.502 3.57469
-26.809 134.346 3.96875
-24.0165 136.395 -5.12978
10.6135 120.125 -3.58712
11.8389 116.024 -0.744126
-22.1484 137.854 -4.24637
15.6995 128.106 -7.01719
-2.39136 149.551 -4.47803
7.58232 143.349 2.6564
-3.0226 146.605 -4.04068
-10.3 111.79 -13.4378
-14.1159 109.671 -14.0313
2.32187 153.555 -2.52646
-2.19616 113.88 -1.33942
21.048 124.554 2.46311
-7.63032 89.5561 -13.0671
-29.5683 116.072 2.10975
3.31697 115.098 -8.08865
-11.8107 127.126 4.57231
-37.5303 89.2666 -10.3332
-22.3668 95.0197 -14.1167
-39.6657 134.782 2.10541
12.3594 146.738 -0.373211
24.2323 125.643 -1.74811
-15.754 107.892 -14.4776
18.3228 131.257 2.39825
6.85145 133.375 -7.22098
-26.0984 86.519 -12.6215
-26.5504 145.822 0.346228
22.5413 121.963 0.939538
-32.2119 94.1829 -12.8552
-34.4066 104.837 -9.31169
-17.207 106.543 -14.4851
15.0041 116.981 -4.26006
-33.8877 109.064 -3.57275
11.7614 123.376 -3.10333
0.0655042 128.76 -0.399716
-36.8886 140.48 0.830622
0.691795 123.666 -5.65021
-16.6424 151.335 0.453832
-5.35945 106.917 -13.4709
-7.63987 89.7189 -13.1034
-34.4061 101.943 -7.53826
5.44528 122.592 -9.84687
-16.717 136.981 -4.98725
-33.2958 87.5242 -13.7531
21.7691 125.903 -5.41782
-34.6318 98.8205 -5.93287
-29.836 126.937 -2.22151
-32.1587 118.737 -6.89595
-23.4953 127.241 -6.5784
-21.662 131.346 -4.95561
14.7053 137.017 3.08598
-2.40277 118.791 -1.32158
-24.0903 143.314 -2.21873
-17.2493 151.872 1.24868
-10.6755 129.643 4.38993
-19.8765 98.2574 -13.6833
12.4292 118.606 0.00135552
-10.2146 89.065 -12.5212
18.193 144.12 1.85447
-19.6698 135.471 -4.5982
-23.6172 129.76 4.19044
-26.4059 133.233 2.58534
-7.01215 108.533 -2.3338
10.8867 121.026 -3.66119
-5.11656 153.247 -2.71902
-34.6122 105.616 -6.66241
-23.5592 123.159 -8.60457
13.473 117.514 -4.86006
-21.6664 98.5433 -13.706
2.16258 117.565 -8.03161
-11.0984 150.472 -5.45893
-6.61097 150.456 -5.38826
-6.50513 119.708 -10.1779
-27.1816 126.754 4.79859
12.4584 120.543 -1.73906
-28.2708 103.382 -13.0914
1.52758 141.567 -2.61023
-18.9603 102.131 -14.3841
8.00041 116.43 -4.91852
-8.14635 102.725 -12.8154
-8.85666 139.368 3.11907
-6.63018 126.153 -5.62922
-2.699 118.004 -1.42101
-21.1374 117.984 -11.4358
-32.6727 118.828 -6.07738
-26.5605 92.864 -14.0299
-38.2272 129.865 -1.26279
4.53077 133.687 -6.32547
-30.838 98.558 -13.5675
-34.1157 102.196 -8.31904
-4.66818 122.822 -0.540526
-21.5362 149.994 3.88054
-18.5063 131.771 -6.09821
-28.9523 137.47 -4.93274
-6.87162 146.982 -5.22495
-17.6481 105.02 -14.1597
-25.3488 135.021 3.90304
22.8653 125.943 -3.05438
-20.4274 150.829 1.60577
9.272 122.348 0.669639
-3.26753 112.233 -1.79177
-8.02562 105.51 -13.3311
-32.8739 129.798 -1.03865
0.0656137 121.693 -6.04392
-27.8451 119.527 -9.71437
-3.42597 116.233 -1.62645
-32.6008 131.035 0.0426809
4.27228 125.006 4.43951
-6.02491 119.933 -0.700219
4.19681 145.363 1.36864
-2.72171 124.856 -0.705967
-13.3374 109.916 -14.1352
-29.1417 144.79 3.96265
10.4315 126.957 -1.48775
-27.2685 143.449 -1.54835
4.41751 104.583 -10.5585
11.7531 136.132 -3.88833
-19.788 125.646 -6.95998
12.6881 118.432 -1.52581
3.82705 142.315 -4.35094
22.0919 123.359 -3.62558
-6.27368 130.015 -3.40074
-24.5749 130.529 3.23247
16.5957 127.513 3.37342
7.77153 120.638 -7.44162
-19.1911 126.323 -6.26607
-34.3537 96.7606 -7.70707
-0.790555 101.389 -13.499
12.5141 142.461 -0.1747
-31.3703 87.425 -12.4494
-25.3231 111.878 -12.1524
-30.8509 128.588 2.0683
6.66181 107.095 -8.92307
-16.0451 152.437 1.14791
9.85063 136.105 5.00437
1.18086 97.6528 -12.2986
-31.0299 128.607 1.91348
5.79483 145.594 -4.03236
-8.77269 113.441 0.0041144
10.0287 149.841 -2.24936
9.22399 123.183 0.616193
-10.375 100.504 -12.485
-16.9083 150.665 4.01985
-21.8676 106.356 -14.1148
9.40096 102.349 -7.53655
-21.4316 119.101 5.5767
-9.03307 130.14 -3.30528
-13.8343 111.163 -12.9714
-36.8463 127.893 -3.051
-24.1745 135.36 -4.02857
-30.6759 115.411 -1.39681
-1.44259 144.004 -2.98475
-34.6875 91.5436 -14.0273
20.7481 124.768 -6.35509
2.44152 120.317 -7.10306
4.16762 135.313 -6.48046
-4.22868 129.288 1.60769
14.6716 129.945 3.36904
-0.446758 129.767 -3.35241
-11.1961 151.788 -4.63689
-26.8185 121.024 6.15642
8.08046 117.689 -8.55212
11.2316 134.156 -3.84281
10.7412 140.121 4.48531
-27.983 120.078 2.75232
0.0730096 118.737 -6.63656
-3.69189 93.4145 -13.3422
-29.6075 117.486 1.31676
-30.6469 129.197 1.78692
-4.76568 119.018 -9.73303
0.349305 147.201 0.699679
-19.2297 141.989 -3.68356
-19.0598 149.325 -0.328403
-25.1926 133.623 -3.47538
-36.039 98.48 -10.3774
9.50573 141.958 4.79583
11.816 120.558 -6.42639
-13.0198 106.947 -14.488
5.51099 129.676 -8.38152
8.69182 122.207 -8.55297
-20.2251 141.082 -5.30526
3.03711 133.891 -6.02227
-10.7069 127.845 -3.98242
2.39184 120.773 2.28937
-5.73307 141.944 2.46152
-10.7109 109.524 -13.9572
20.6493 123.513 -5.79981
-2.23685 108.556 -11.9603
-3.55308 108.527 -13.0916
-34.3262 133.395 3.68371
-6.76871 137.399 3.35442
2.73383 109.607 -8.46611
7.73021 126.151 -9.61383
-34.9215 138.563 -1.58349
-25.6445 148.14 1.46147
-15.4755 122.153 -7.36386
-1.47062 114.335 -8.44849
-17.5189 148.175 -1.09688
-20.2257 106.704 -13.854
-8.10115 92.4369 -13.498
-19.7823 86.1465 -12.3245
-12.5249 146.497 -0.606681
5.99078 134.402 -6.75412
8.02685 114.138 -7.54649
-20.0592 141.799 -3.56094
21.9984 126.857 0.197505
-0.438354 144.448 1.61579
-9.16749 95.856 -13.5016
-21.6164 94.9104 -13.7829
-27.5467 128.411 4.2053
-24.4528 99.6338 -14.3669
-16.8474 141.607 0.64566
4.32496 125.487 4.21394
-8.05355 93.0362 -13.5399
3.9571 138.958 -5.9305
4.60673 109.842 -8.52355
-18.8187 137.728 2.04416
-25.7198 121.063 -10.0154
-17.2957 145.312 -4.81974
7.08199 137.491 -7.20333
3.51678 95.547 -10.752
22.2629 124.936 0.355679
12.8856 117.763 -4.04985
4.70953 107.473 -8.92325
-28.5321 131.539 -0.95375
8.59932 101.51 -8.69068
-10.456 135.806 -4.18248
9.69135 130.409 -5.40486
-7.56986 89.522 -13.0602
-7.38554 131.315 4.03345
-13.4294 89.0025 -11.6491
4.41199 110.854 -8.34261
-7.67158 128.434 3.50642
3.95254 142.024 -4.5221
-6.71436 130.039 -3.3899
20.4717 135.242 0.0192686
-25.7681 111.726 -12.1348
-26.0346 147.973 1.68583
-29.9134 120.817 0.723813
-20.4946 130.385 4.97855
16.9082 129.213 -6.0347
12.997 119.678 -0.17036
-30.8134 127.303 1.05155
13.0587 123.458 0.39474
10.764 126.137 -7.98686
-32.179 99.3768 -3.59928
-5.80454 117.528 -10.9101
15.4087 122.892 -9.36463
-36.0948 98.4607 -10.1673
13.4413 139.049 -2.74032
9.97962 110.292 -7.32308
1.47634 130.171 -0.257478
-22.0813 97.0931 -14.1083
-23.7797 138.584 4.19215
-23.0838 112.296 -12.7331
-38.974 137.817 -0.0443397
20.3626 137.683 -0.229951
1.68858 131.828 -0.187196
-2.54384 137.818 -2.39081
11.8839 124.985 -8.69329
-12.7188 146.687 -0.57723
12.0885 128.432 -7.64968
11.6922 150.852 0.45843
8.22285 109.563 -9.56758
13.8391 117.294 -1.28415
-19.8076 117.499 -11.3021
-21.6793 92.3608 -13.1265
-34.9433 92.8091 -13.2837
-9.08872 114.154 0.514284
-11.6728 150.315 -0.611519
-24.1776 137.089 -5.25717
-30.7634 104.639 -12.7358
9.0067 113.937 -9.01284
-24.4723 128.92 -5.97208
-17.8348 104.481 -14.1417
12.2112 122.698 2.34898
-9.42252 122.484 -7.40738
10.7306 142.865 -1.76329
-30.2115 121.483 -6.92006
-4.48546 116.197 -10.3668
20.9965 122.491 -4.6023
18.7952 123.904 -7.45249
3.14513 127.65 -7.54844
4.84943 119.108 -8.41126
11.8977 150.239 0.552944
-14.0737 100.787 -12.945
-13.598 149.242 -0.427028
22.7866 121.482 -3.25481
-3.36702 129.59 1.06852
-28.6092 127.431 -5.75939
3.07309 134.183 -6.08313
-20.7369 122.445 -8.22585
-4.9591 125.191 -6.60938
-27.9277 126.04 -4.89228
-24.8373 127.993 -5.63806
7.99416 133.536 5.83592
-28.652 129.4 3.77093
-13.5283 125.285 -5.28191
9.97736 149.614 -2.81302
-24.5676 126.592 6.60363
8.76928 110.335 -9.46342
-5.21917 112.759 -12.4998
16.2097 140.816 4.00377
14.7515 133.293 -6.2816
7.2954 99.4869 -9.5424
-9.39012 126.716 -4.91956
-27.9947 93.7981 -13.8168
-0.828247 135.965 0.963884
-16.6452 149.59 3.60683
1.94631 119.251 2.3027
3.87361 142.8 -4.18793
19.5757 129.827 1.90025
-32.1092 113.459 -8.20144
-38.3044 130.952 -0.678388
7.56185 112.826 -9.54767
-37.0987 95.1334 -10.0813
-19.3236 103.601 -14.4859
-27.5991 120.312 3.29764
-31.301 124.208 -0.414292
-9.9397 130.488 -3.24308
-6.28385 152.039 -4.57805
3.83891 127.839 1.87297
9.49444 122.592 -5.62097
-33.0597 108.92 -2.18832
-19.0314 143.472 -3.04756
-10.0288 129.743 -3.39016
-17.7904 139.003 -4.96703
11.0298 117.118 -3.17715
2.1511 112.37 -7.93072
-20.5221 94.0723 -13.1527
1.72351 114.185 -7.42326
-4.65752 129.345 1.93941
-32.854 113.702 -4.84539
6.06607 129.983 6.14062
-11.259 97.7087 -12.473
-33.1139 116.733 -6.55462
-26.8382 121.319 6.16568
-30.8767 111.101 -10.1136
-18.2378 149.642 0.0206968
-18.5227 139.111 2.40138
2.48005 134.754 0.852914
9.53759 149.298 -3.80255
-15.5723 125.289 -5.40967
-13.3522 144.296 -5.41075
10.2894 150.036 2.40302
-9.18291 114.151 0.596285
-27.1024 124.889 5.36243
1.93398 97.3568 -12.1565
-33.4903 103.882 -11.4306
-35.0564 94.2638 -12.2313
8.69993 125.853 -6.74563
16.2479 120.488 1.45649
18.1558 141.093 -1.17896
-27.1063 86.1674 -11.3405
-2.51244 137.539 -2.38481
-8.8088 109.888 -0.888407
-18.4602 120.034 -9.33382
1.37822 128.547 -0.372143
-12.1998 130.519 4.49816
11.7464 119.142 -2.19689
-19.1332 135.012 3.63401
-31.9619 112.291 -8.26041
7.39058 131.387 -8.22591
-19.8557 143.126 4.57678
-8.67212 109.651 -1.26184
-12.2722 148.608 -5.73148
-25.0226 91.2544 -12.4431
-7.84781 148.78 -6.00477
-33.845 87.1825 -13.7426
12.2436 130.583 3.06323
-29.9634 137.976 -3.52021
9.1713 140.966 4.59736
-20.6715 133.654 4.06518
-11.8928 145.646 0.730114
-30.7051 124.699 1.85439
17.1363 129.065 -5.9577
0.347901 142.734 -2.58892
-22.3468 89.8008 -11.9654
0.571905 131.182 -0.252523
-13.6755 105.935 -14.5088
-8.03083 147.111 0.00362444
3.90547 126.521 2.31131
-28.0811 145.834 0.729907
21.4732 134.311 0.533763
-24.1506 125.035 6.81288
-9.60891 147.686 -6.08203
7.98871 113.933 -5.0216
-26.9205 144.276 -0.786006
-1.2173 136.448 -2.20736
10.4915 144.332 -2.14441
20.458 139.876 1.30238
-25.8512 91.1655 -12.3597
-13.5201 143.138 1.40336
-34.1381 105.558 -9.10683
11.7639 140.076 -1.35761
-12.6197 134.554 -5.06271
-35.5843 86.8808 -12.2304
-28.9184 120.29 1.02144
1.58725 120.51 -6.33559
-20.9908 141.796 -3.34173
-19.1895 135.665 -4.24692
-29.6954 132.274 -3.63541
3.16246 117.97 -8.38805
-15.6987 115.152 -11.0795
9.4642 123.989 0.265303
-33.0257 117.765 -4.59406
-2.40119 130.853 -3.21328
2.5322 103.796 -11.0895
7.14523 136.893 3.66551
-13.891 152.338 -1.11762
-28.1698 128.511 4.05869
-31.6924 127.456 0.199086
11.7309 124.239 -8.89685
-33.272 102.919 -12.2302
-5.33649 108.919 -13.6791
19.6159 120.213 -8.27391
-25.0023 95.9025 -14.6234
19.5489 132.693 -3.40566
-14.871 103.721 -14.5349
-34.2693 137.642 4.58386
-40.3848 134.02 1.81053
6.53477 127.181 -9.55787
-13.5225 139.829 1.88583
2.39909 105.863 -10.0993
-30.8166 141.256 -0.691524
-10.959 134.585 4.42284
-27.5066 90.4946 -12.7994
13.3622 147.777 0.917852
-5.97116 114.389 -1.72507
-16.9008 126.186 -5.05912
-13.3441 91.3499 -12.5389
-8.97795 139.932 2.83146
-12.6588 141.231 -5.26252
-29.7149 133.285 -4.55168
-29.6696 91.5294 -13.9624
18.3899 126.295 2.26328
-36.603 139.837 0.365709
-4.23299 111.324 -12.4197
-34.0837 104.609 -10.2564
-15.5752 139.924 2.1459
12.0204 130.09 3.09646
5.89364 143.414 1.50057
-16.0257 140.417 1.56772
-0.860949 128.613 -4.07506
-30.1152 87.9724 -13.1584
1.00738 95.1898 -12.2873
-15.8494 146.855 -0.753686
-8.32266 119.116 1.83776
-28.0415 144.782 -0.394554
-33.0493 102.595 -2.33899
2.86103 147.362 -3.02598
-4.02545 142.585 -3.5092
16.849 131.618 2.48828
-30.9558 130.444 -3.04272
-33.2037 105.572 -10.9949
-15.0192 130.93 -3.8778
7.90096 153.922 -0.782536
19.1734 120.952 -8.08167
1.29977 117.63 -7.16482
-11.0288 133.288 -3.30564
-28.244 119.077 3.53145
-31.2731 131.697 -2.90775
5.43016 127.106 -9.16353
-10.898 130.695 -3.21267
10.7465 141.857 -2.53706
-7.06499 128.355 2.98556
-25.06 108.549 -13.5864
18.8331 127.459 -5.70524
-14.2603 150.237 1.97787
0.522918 94.3821 -12.3327
-0.594306 137.869 1.61463
-14.4618 125.73 -5.11689
-8.15974 104.365 -13.154
-30.9428 135.084 4.9313
-20.9202 113.116 -12.8731
-34.7516 130.54 1.62561
-20.9435 111.963 -13.3809
5.19135 119.948 -9.33619
-7.65919 108.599 -2.31772
16.2203 125.682 3.41097
2.01783 136.453 -4.36248
10.7291 144.597 -1.48861
11.2251 150.549 1.93691
-9.22508 123.702 4.13634
-35.7275 135.219 -1.63861
8.96154 119.567 -5.65172
20.0003 134.615 -2.83911
-9.63904 124.198 4.4574
8.06151 114.991 -8.11659
-31.1612 108.597 0.540002
2.11331 132.776 -0.0934335
4.67785 108.625 -8.46099
21.1694 122.15 0.196376
12.947 134.663 -4.9329
14.5396 117.583 -2.49011
16.4069 145.805 1.99376
-5.55768 115.307 -11.7278
10.4571 120.932 0.36425
13.8888 118.386 -5.96337
-25.7466 110.605 -12.8027
24.14 123.011 -0.250649
-22.8657 129.841 -5.65861
2.45982 104.594 -10.7522
-19.5602 121.427 -8.4267
-0.930814 108.548 -10.9811
16.5924 120.793 -8.9892
-36.1703 135.951 -1.71757
-20.592 100.409 -13.7231
-26.0986 86.5669 -12.6602
7.02977 137.136 -7.1919
-18.5063 149.15 4.64766
15.6645 146.607 0.425684
9.43516 153.572 0.178343
-34.2499 102.42 -5.62905
-5.70635 142.656 -4.31073
-5.76898 116.337 -11.3342
-33.4854 133.822 -1.88153
-37.2929 86.7305 -11.047
0.663518 90.7332 -12.045
-30.0087 106.811 -12.3728
-12.5552 111.23 -13.3975
11.2234 118.478 -2.9301
14.9135 141.01 -2.23836
24.3449 125.859 -1.91843
-25.9845 122.187 6.65252
16.1435 135.376 -4.69739
1.44801 118.422 -7.33247
2.65988 122.029 2.41108
-6.9662 97.366 -13.8045
-3.06469 88.8467 -13.2502
-27.4991 140.491 -3.84586
8.40452 126.205 -2.76337
-29.2506 124.488 -6.49693
-2.27841 119.387 -8.059
8.64549 116.339 -5.7756
-23.8393 120.446 -10.5365
-23.2207 85.2141 -13.4935
-0.754225 91.2948 -12.8259
11.5183 136.074 -3.64928
-5.52458 97.6302 -13.8834
-32.8914 110.894 -6.3063
17.5858 124.225 -7.51349
-8.17039 123.177 -7.53982
-9.24799 133.966 -2.93392
-33.5329 113.644 -5.65387
-16.6636 127.221 -4.56712
11.2128 124.379 2.77502
11.2146 146.839 -1.91669
-3.69475 101.804 -13.831
11.4745 150.974 1.43707
-13.3896 91.474 -12.5227
-3.2359 146.332 -4.0617
-8.86022 110.502 -0.622577
-40.763 136.282 3.37033
-33.5282 88.4672 -12.6403
-22.8554 137.373 -4.39129
-4.38536 134.843 -2.66318
-14.166 126.314 -4.80105
8.7422 125.533 -0.877491
9.10962 125.6 1.08162
-18.5969 125.381 5.56047
-11.0472 133.103 4.62907
-23.5588 145.402 -1.11472
-29.4786 112.896 2.75513
-31.1821 115.415 -2.79935
-2.14471 118.813 -8.11407
11.2236 121.096 -9.50505
-3.73834 106.988 -13.7288
19.7016 133.944 1.92931
8.41024 122.823 -9.58218
20.091 120.267 -7.565
22.5942 124.761 1.55305
-32.615 121.85 -3.29708
18.0317 137.555 -3.03645
-6.14011 130.064 3.04943
9.65186 105.136 -7.6258
-33.8137 132.031 3.00034
-2.14773 123.213 -6.5814
10.3016 149.586 -2.04084
-37.909 138.502 -0.217743
-4.46217 128.321 1.14648
11.0494 110.296 -4.12519
-37.4228 91.7896 -11.0695
20.8196 132.898 1.4114
-35.6918 87.3901 -12.0031
-20.9261 150.344 0.808454
1.74937 97.7974 -12.2541
4.55735 104.373 -10.6198
-30.5485 130.858 -3.09799
11.2307 133.39 -2.60942
-3.20812 114.898 -9.58212
-30.1594 126.227 2.05107
9.68123 127.18 -6.73404
11.014 110.795 -3.75618
-24.9699 140.357 -4.91888
-18.1391 116.547 -11.3078
1.56494 106.193 -10.2443
4.74931 132.747 -6.48638
-13.2372 110.291 -13.8809
-7.09713 117.3 -0.4996
2.54954 123.055 -5.83803
3.78832 139.393 0.505269
-28.4076 106.034 -12.6329
-17.8431 144.153 -3.4714
9.63373 125.649 -2.68265
-5.82964 102.762 -13.4864
-3.27402 137.167 2.28665
-5.82199 153.825 -1.52673
-31.2214 89.9491 -13.4191
-7.21392 116.277 -0.770206
-29.6784 87.4094 -11.253
-14.9134 131.565 5.13296
-12.3582 129.521 4.62428
0.500368 153.394 -2.51104
12.088 119.795 -0.253379
4.60894 117.175 -8.94734
1.82688 100.88 -12.7354
-29.0891 120.521 -8.85036
-16.0425 136.232 3.92668
-20.5621 125.881 6.14193
-34.4805 87.4076 -14.0024
-28.1744 131.298 -3.48027
-12.7093 111.389 -13.2121
-20.5317 134.803 -5.37029
2.12107 117.796 -7.97557
1.79609 141.618 0.879241
9.82792 121.919 0.0406995
-29.0481 139.877 -2.60961
20.6367 123.535 -5.87065
-34.603 128.421 -1.77132
-17.0292 137.998 2.12345
-19.9564 126.995 -6.5729
8.95202 123.207 -4.88673
-7.97447 135.821 3.89806
-0.215776 125.575 -0.819891
-6.75252 143.221 -4.5037
-2.02748 125.873 -5.51873
-42.075 134.456 3.78382
-9.60146 91.2124 -13.0806
-30.4809 121.805 -6.16071
2.15623 123.481 -5.28328
8.99172 148.873 2.56617
3.64355 140.64 0.603027
-0.81963 141.833 1.71362
-11.3971 98.2621 -12.3596
-2.89472 132.421 1.78936
9.59655 130.059 -2.92887
-18.2566 120.685 -8.87861
11.0781 141.553 -4.03935
-26.0839 124.84 5.68265
-28.7432 110.055 -11.7032
-1.82397 132.301 -2.82777
-0.826998 110.105 -10.1642
-32.1502 102.929 -1.31553
-21.406 132.759 -4.91531
-17.968 131.49 4.76349
-18.1353 147.75 4.68351
-30.6282 87.5005 -11.8022
-22.23 94.8206 -14.0232
-24.3626 146.684 4.56233
-29.8839 134.836 -5.12312
4.7383 131.234 3.66401
-18.8488 124.706 5.65872
-6.07384 127.215 1.99941
-32.5745 116.965 -7.05285
-15.9236 90.2754 -11.2743
8.86962 113.879 -8.40786
-3.2696 145.025 1.50393
-26.3972 139.579 3.69766
-19.7637 120.942 -8.91787
-30.5751 131.01 -3.62006
-19.3508 150.114 4.50281
15.5757 137.186 -3.62696
11.3164 143.93 -0.790467
8.10648 121.412 -9.11288
-27.0177 87.6811 -10.6581
6.25582 142.589 1.80778
-22.492 125.215 6.9025
19.7618 124.511 -7.10351
-33.5371 93.5989 -12.7557
5.12264 139.923 1.15423
0.677451 117.392 0.934297
9.38314 129.531 -7.66087
6.00675 128.336 -8.97867
-23.6155 139.279 4.48493
12.0595 128.446 -7.61672
6.04467 149.697 1.64642
-36.4263 92.2146 -11.9774
4.00367 132.72 -6.28374
-22.5342 98.5219 -13.9151
-2.18753 88.5112 -13.213
-25.7405 100.857 -14.5585
1.74401 105.332 -10.5209
15.0969 123.479 3.35831
10.264 134.248 4.73962
-17.7996 122.409 -7.68494
-12.7178 138.802 2.30439
9.70493 112.451 -8.111
-32.59 139.33 3.88248
11.7981 121.03 2.04531
-18.3658 136.536 -4.34389
-25.4854 131.633 2.7783
-4.89059 132.607 2.55763
-11.2496 133.25 4.63544
-36.2803 85.4623 -12.6439
-32.6178 111.116 -1.36854
-36.2302 130.546 -0.573254
9.26875 126.184 -3.20022
-21.4917 142.341 4.53824
-18.6943 127.657 -5.19319
-13.4458 144.669 1.0999
-27.3233 90.2808 -12.2598
-34.3585 108.36 -5.63312
11.4139 128.12 -2.45948
-5.32765 92.1007 -13.4793
-19.3841 137.795 2.18447
-30.4199 116.676 -8.98959
-24.7637 134.752 -3.77904
-8.3017 118.261 1.4567
8.11501 136.307 5.14291
-18.2826 115.299 -11.7832
2.28582 134.194 0.468679
4.42449 133.856 -6.3324
-18.6869 147.25 4.38128
-17.7782 147.194 2.78445
-35.9783 130.64 0.264255
-7.39697 140.324 2.80985
8.09967 101.674 -9.42675
-8.01903 117.375 0.728226
-29.3473 136.862 -5.16662
5.45665 135.156 -6.63203
3.35929 147.269 -3.01514
-30.636 136.092 4.9214
-9.08121 152.468 -3.98529
-7.13472 134.529 -2.82707
-4.84845 112.857 -12.1648
-17.234 111.044 -13.2241
-34.9256 99.6319 -6.38746
-25.7407 88.7766 -10.9405
-27.1295 90.9286 -13.0464
4.27455 95.1841 -10.2284
-21.3487 109.187 -13.4349
-3.67264 139.796 2.37181
-34.1464 98.7999 -12.7064
-27.4882 120.02 4.17625
12.6779 143.382 0.105369
19.9229 119.477 0.289941
22.193 127.463 -0.0478311
-8.14405 122.716 -7.86754
9.47923 121.433 -7.90254
7.40675 144.261 -5.97776
-36.0968 129.494 -1.69252
10.3727 133.178 -6.14056
-25.0936 137.974 -4.89091
-1.68537 128.968 -0.202023
11.1083 137.894 4.73172
-23.0403 123.779 6.74153
-0.457645 139.24 -2.45595
11.7683 116.458 -0.0762835
-2.8405 118.643 -8.37618
9.21495 110.847 -9.09969
-33.2821 130.499 -1.07376
10.1035 112.151 -2.87593
11.4738 148.702 2.86316
-6.29677 153.165 -3.34027
-28.4707 119.908 -9.23483
-18.8551 127.398 6.39736
15.3651 123.662 -9.0186
-8.49122 110.073 -1.49197
10.0419 128.029 4.23934
-19.6571 140.651 3.37455
7.12993 98.8268 -9.37861
5.70796 149.635 1.50585
1.05345 112.811 -8.16412
-9.57948 119.413 3.33821
-31.1313 131.36 -3.46889
-26.7156 123.374 6.03238
-25.3269 145.542 4.88495
-1.18396 121.062 -0.960838
-23.3539 127.576 6.20944
-29.6007 112.494 -9.84806
22.7813 124.293 -2.03808
-1.25237 133.784 1.2652
4.22059 140.951 -5.16775
16.3112 116.392 -2.98078
-31.7795 107.961 -0.654257
11.5898 130.688 -3.2025
-3.40777 97.0608 -13.349
-13.6001 130.504 5.12213
5.81711 142.113 1.54274
11.892 116.799 -1.51425
-10.9555 146.619 -6.05064
19.2269 137.714 -2.19609
-26.9808 141.255 3.80963
-37.6735 88.7609 -10.8169
-5.55541 116.032 -1.60009
17.9362 143.771 -0.0348158
11.6137 140.639 -1.13298
-18.494 120.937 5.56729
-27.5485 119.921 4.08873
-22.5665 124.359 6.62592
-12.0597 142.426 -5.59842
-33.69 108.795 -6.72121
0.715706 127.966 -3.90447
12.6941 131.794 -6.40039
-15.0376 140.604 2.04899
10.8919 135.42 -6.78835
-12.1025 153.269 0.13407
12.6752 118.033 -5.98672
-28.3499 123.692 -7.8812
-0.154934 133.194 -2.98271
-14.4511 146.697 -5.43877
21.7538 132.723 -0.139018
-19.3388 145.663 4.2294
-22.3014 129.856 5.98364
-33.3518 109.884 -6.09327
12.1122 128.996 2.42301
20.1668 130.803 1.32329
-32.4032 137.152 -3.04554
4.32929 125.463 -8.87091
-5.22047 146.778 -4.70411
6.75672 102.415 -10.5419
12.0502 120.423 -9.38047
-16.7405 121.124 -8.21059
-12.4002 151.886 1.1445
-4.34495 152.057 -4.11221
-4.05796 123.249 -0.649809
11.6943 123.296 -3.00512
1.16854 122.584 0.407199
13.2032 122.385 0.520341
-27.1875 124.513 -8.35492
-10.5593 121.162 4.32016
12.824 119.306 0.551245
19.4046 138.905 2.12635
7.9814 145.804 -5.4285
-24.6583 86.1751 -12.9277
-34.8021 130.986 2.16163
-5.90835 110.885 -2.03487
-2.68835 133.865 -2.53433
-32.6899 132.309 -2.73852
14.0267 120.275 -8.14457
17.2504 135.085 -4.7464
8.55208 124.169 4.64892
3.8307 153.763 -2.61747
7.43639 119.365 -10.0644
-9.0091 141.092 -4.92998
18.6236 122.057 -7.81605
-32.4396 108.68 -10.4005
-35.9166 88.6301 -12.1189
20.5658 135.415 0.264523
-40.3339 138.251 2.1032
-8.78745 115.745 0.778023
13.7088 132.538 3.01733
18.1437 120.346 -0.224411
0.523055 125.646 -4.67065
-28.9548 132.052 3.47369
12.603 121.325 0.844882
-2.40556 104.431 -13.4535
12.0725 148.33 0.605834
9.81736 146.371 -5.00627
-11.4431 148.412 -6.10916
-30.4743 101.38 -13.3129
-21.983 112.446 -13.1559
-28.2258 137.012 4.72806
3.74731 111.385 -8.08658
-16.0805 141.635 -6.11972
-27.3007 87.7174 -11.1565
-11.6432 101.771 -13.1424
-28.1576 114.53 4.45474
3.09661 135.397 0.623953
-29.5426 108.536 -11.5236
22.2618 122.107 -3.55387
-29.1234 128.534 3.29388
-10.56 118.385 3.76706
23.4847 128.601 -2.68187
23.6999 122.981 1.11687
4.31935 139.789 0.715331
13.65 118.951 -0.38847
-13.1831 145.287 -5.5977
-29.0964 125.036 4.10119
-2.29897 118.216 -1.31132
-27.8149 132.199 2.88414
-31.2687 87.6071 -12.4904
13.7382 135.598 2.89805
7.82937 113.077 -9.62219
6.34218 115.296 -9.79161
15.8926 146.302 1.50167
14.1874 128.002 3.32564
9.32369 127.276 -7.2006
12.1077 124.008 -0.137487
-2.54319 141.205 2.20517
-35.3215 88.1374 -12.4904
-8.66564 135.256 -3.07617
-13.1753 101.69 -13.4103
17.8217 136.154 -4.04815
-36.0175 91.0223 -8.39066
-26.4158 125.957 -6.32988
2.1481 103.782 -11.2204
-22.2793 149.055 0.144259
5.0048 108.005 -8.69345
-21.7206 115.03 -12.1819
-11.231 140.577 -5.33891
8.17636 114.861 -8.39061
8.99867 125.737 -1.63566
-28.1673 122.746 4.32365
-34.9179 98.5425 -12.5261
-9.10193 144.653 0.608289
-15.7123 145.327 -0.681736
12.5679 120.696 0.638061
3.29439 129.89 -7.15489
-31.6859 112.751 -9.01084
8.45581 148.986 -4.56646
20.5595 138.078 1.04903
-8.00691 123.852 2.8568
0.0337477 150.222 -3.80249
-33.4163 109.162 -6.96473
-5.82638 135.653 -2.7559
-21.6544 140.096 -4.55919
-14.6206 106.169 -14.6203
11.7648 119.94 -0.0161764
-26.1213 86.5306 -12.2845
3.98487 105.287 -10.2211
-29.4039 131.8 -3.8959
-12.7271 135.186 4.36671
-7.6479 123.827 -7.2482
-6.76559 150.417 -5.44652
-2.43928 94.8986 -13.024
6.49037 142.379 -5.772
0.951514 142.25 -2.59259
-18.7378 98.7235 -13.5941
7.26372 111.14 -9.37469
17.2623 133.97 -4.88772
8.45521 112.371 -9.23121
-15.2546 132.713 5.02204
22.6624 121.876 -3.32309
-35.154 127.284 -2.39989
-38.5465 139.584 0.915658
-24.1123 123.568 -8.66454
-20.4799 94.0512 -13.1106
0.768289 144.217 -2.63428
10.0716 123.424 -0.109969
-37.3861 89.575 -9.95696
-24.2783 138.294 4.08241
8.73386 128.48 -4.36619
-24.8653 124.325 -8.70166
-40.9846 135.203 1.33421
-11.6515 131.525 4.5343
-31.3156 140.896 -0.840787
0.942867 127.536 -4.07074
-31.8041 131.81 -2.90566
10.1729 148.792 -2.75654
3.28413 136.679 0.314998
-35.0072 96.8207 -12.5753
-1.34829 109.302 -10.9361
8.24607 137.228 4.86339
-32.6384 112.648 -6.58389
-36.1686 92.3122 -12.3867
3.29143 132.081 0.156548
-26.0121 140.007 -4.51063
-4.96271 94.701 -13.461
5.41257 149.347 -3.21204
-19.4794 110.824 -13.7606
-17.6158 116.574 -11.1399
11.3111 132.277 4.17831
13.1175 134.439 -5.1044
-9.36089 92.8054 -13.3418
10.7963 144.684 -1.41397
1.58783 102.551 -12.0824
-5.81937 130.021 2.8848
1.53177 114.499 -7.32999
-31.1146 129.95 1.85126
-33.0733 98.0926 -4.98318
-26.4656 130.644 -5.24199
15.5563 146.546 2.13384
-30.6107 127.491 -3.20553
-23.8249 109.654 -13.4923
10.1193 108.864 -5.09436
17.9402 119.316 -8.61713
14.9215 132.485 -6.02969
-29.3331 128.398 -3.94893
-6.02456 89.7317 -13.2551
18.263 122.868 2.25432
-17.9298 129.626 -4.04554
-27.1879 102.249 -13.6213
-23.4244 94.7008 -14.3848
11.1615 148.86 2.76466
-24.3699 91.6814 -12.676
-20.675 134.451 3.63431
-18.732 149.283 4.68579
-7.98586 111.88 -13.0508
-8.899 123.921 3.83924
8.88138 121.88 -8.73731
2.28176 137.027 -4.48284
-9.9106 123.546 4.45678
-8.67011 143.714 0.858594
-26.5946 131.299 -4.33673
0.931525 137.381 0.776594
-18.9238 97.8757 -13.7032
-23.3011 144.612 5.20281
-7.68498 148.259 -5.88066
-0.806264 138.437 1.89728
-0.188185 104.238 -12.1809
12.1842 121.358 1.61195
-0.655637 124.766 -0.886653
-13.5794 92.4279 -12.4455
-5.63717 113.665 -12.226
3.14144 111.301 -7.91236
-3.56017 114.929 -1.69167
-6.38311 153.22 -3.26682
10.5943 143.725 -4.33644
15.3609 136.868 3.0349
-15.3548 138.109 2.20047
-7.09013 110.445 -2.04716
-30.307 116.497 -9.09253
9.59411 121.122 -5.11468
