ply
format ascii 1.0
comment Created by Open3D
element vertex 1351
property double x
property double y
property double z
end_header
-23.8495 134.201 6.46641
19.9478 132.453 -10.4119
7.5642 137.903 -7.38592
-9.59575 119.475 10.2031
13.4909 134.589 -10.945
6.59241 138.227 -6.39821
-16.5191 127.446 -3.33773
18.1789 130.922 4.63062
-16.9185 124.185 -6.49289
-20.1973 123.735 -2.58314
23.7481 142.671 1.44867
-7.83997 135.724 -8.15776
-31.1562 123.243 4.95257
6.86697 138.647 2.56821
22.2339 125.332 1.90708
-15.5748 120.408 7.20299
11.9332 128.315 1.47489
11.2924 146.291 -7.4153
14.9608 128.425 3.5237
-10.7498 115.383 10.187
16.8441 126.105 -7.73658
13.047 120.347 2.46671
16.5533 140.363 -6.91307
16.6842 119.815 7.08529
23.1839 141.844 3.15689
19.6317 142.82 -5.64182
-16.473 122.017 -3.49112
-3.7474 125.185 -7.08805
-27.7428 122.7 2.78754
3.03718 124.618 7.01964
-15.9974 126.311 -4.26536
22.3803 124.457 0.486732
18.2219 138.013 -6.88508
-18.1978 119.35 -2.34057
17.6602 130.068 -4.08075
23.5827 138.305 2.89178
-12.9517 116.688 9.95845
23.9522 142.673 1.25191
-21.2858 134.891 -1.63246
8.89028 138.612 -7.90216
-5.5932 114.698 10.0304
14.9391 132.749 6.31968
3.64569 142.063 0.456395
-20.54 118.985 -2.23067
2.78605 140.861 -4.28285
-15.175 127.852 6.7976
-25.1567 121.373 6.01485
-14.7569 122.697 7.34979
9.30077 126.267 -7.92084
-5.30845 126.982 -8.1098
-21.4278 118.847 3.40435
0.139282 142.912 0.140925
16.0486 134.443 -7.85224
10.4681 154.015 0.214203
14.1419 127.25 2.46104
19.4578 142.104 -5.94864
-20.8326 128.106 7.37382
10.1931 144.153 0.766276
21.911 126.008 -6.62707
18.0208 126.244 -2.77382
-15.4023 119.868 7.52865
4.54604 141.827 0.563347
12.5178 128.069 -11.0733
-16.8002 120.687 3.6977
-27.0491 120.055 4.11957
26.3339 124.128 0.348096
17.9573 126.131 6.27181
-7.9847 141.391 -6.76521
-18.5179 133.724 7.1252
-16.1704 123.754 5.51485
-8.51743 130.755 6.33885
10.7453 149.515 0.961134
21.5282 122.423 1.84395
10.5609 123.777 1.82339
-19.5883 135.193 -2.0376
16.0729 129.486 -8.88987
-25.9063 127.644 1.31331
20.1034 129.473 2.64571
-14.0222 114.986 8.54457
-10.2508 136.944 4.75389
16.0457 143.292 -6.28256
5.77889 140.358 2.29024
0.0680955 131.206 6.16276
18.8 127.665 -6.50107
8.43012 136.44 -7.08988
17.7726 127.268 -10.066
-3.91115 136.221 1.95514
6.85401 135.831 3.77801
26.5141 124.871 -1.44203
-5.06293 133.16 4.26923
5.69398 145.43 -5.39596
-13.8153 143.874 6.61879
23.6034 144.686 -0.608999
9.43229 122.1 2.26596
24.1556 124.141 0.403451
17.4753 129.108 -7.43777
-16.0251 132.787 -4.93334
14.5865 130.908 5.4404
-18.2149 121.046 -3.55128
10.3423 126.48 -9.26072
21.5778 142.83 -4.22429
19.1501 126.95 4.38995
-12.5043 127.704 6.6339
-2.8282 129.067 7.04083
3.94811 138.988 1.65526
21.717 126.574 -6.96669
8.09493 147.245 -6.60106
15.3914 127.42 6.21164
17.4026 129.679 -1.87211
-22.0877 126.898 -3.02492
9.18265 153.369 -1.30046
16.4683 122.142 7.79249
18.8661 125.918 5.5518
21.9741 123.634 -1.2287
-8.11763 129.882 6.92503
6.48136 153.444 -2.72703
1.88439 136.505 2.68887
-26.2301 121.562 6.05265
21.5303 120.822 7.60091
-13.5309 147.789 4.17755
-8.85737 141.281 -6.75255
7.28874 144.773 -6.45547
14.6119 136.523 -10.3395
16.3532 127.272 -2.7566
6.65391 132.41 4.55019
11.826 151.077 -2.28181
-20.7998 131.991 6.58015
23.6468 133.162 -5.93851
17.0616 140.408 -6.32821
-16.2738 122.514 -3.99282
14.7378 149.601 -2.85755
8.1576 124.987 -5.97012
16.5992 138.096 -6.66557
-26.4287 123.714 6.98062
23.8838 132.003 -4.79809
-5.43205 136.195 -5.99421
-5.35532 148.137 -4.27021
-11.1065 150.471 -1.56367
-30.6956 124.386 5.53186
-22.0633 136.638 1.66127
-26.5719 130.847 4.94109
17.2421 133.127 -8.52032
21.9421 130.309 -6.34527
26.4128 134.853 -2.9108
16.8824 130.292 -8.86717
-18.5498 120.012 2.66756
17.1804 148.157 -2.34466
4.64886 126.349 -5.48212
12.3903 152.499 0.683019
-9.17776 141.071 -6.74256
9.33621 129.31 -7.47698
9.77503 131.37 -7.63864
18.0384 134.097 4.31174
-14.0482 134.845 7.11757
-15.591 117.035 7.42933
-25.7911 132.77 4.92577
6.07498 143.25 -5.74566
8.90492 125.017 -7.37687
20.3323 126.943 -0.621493
-12.5336 130.632 6.40573
4.10111 147.137 -4.48155
-18.9159 119.504 2.606
-15.6248 119.698 5.04577
-0.667313 141.078 -0.266204
8.0405 120.726 3.16017
-27.9793 121.977 2.90138
-10.8696 129.476 6.40903
-6.94267 145.069 -5.87757
4.24772 146.387 -4.62035
-8.32012 123.483 10.0188
16.3391 128.099 7.66971
-0.128645 143.947 -3.16444
8.26682 120.183 3.03594
-19.387 138.584 7.23312
-16.8178 121.063 5.47545
-25.6873 123.338 0.777728
21.3766 135.276 -7.93551
4.46275 147.252 -4.63526
-23.9225 134.756 5.28133
-12.6061 136.497 6.31792
7.24791 133.506 -6.60168
-15.0112 126.948 5.35765
16.0134 135.866 5.75099
21.957 145.163 -2.71517
20.3925 137.146 -9.09102
2.51704 120.219 8.40117
-5.29933 115.892 10.2158
16.1164 150.733 -0.596845
15.1593 138.885 5.45141
-14.497 125.587 -7.53077
24.4189 130.761 -4.53033
-17.2419 122.126 4.65552
21.4257 130.682 -9.04518
-20.8642 135.197 7.19754
9.96535 130.967 -7.82577
7.85379 140.218 -7.85547
20.2714 145.976 3.09936
2.75941 122.171 7.81105
-17.7742 123.989 6.47552
17.8175 129.645 -5.67558
13.5462 129.131 1.98002
-18.8783 119.143 0.620756
-20.2705 119.199 -1.6902
7.76923 146.498 -6.46877
4.67905 140.255 1.1279
-13.1575 129.127 -8.47374
18.2363 124.769 7.4268
-27.1035 117.925 2.88526
18.8844 136.135 -7.67998
2.76043 125.533 -6.77591
21.5168 121.609 3.3826
-17.8479 136.486 7.97487
-18.2117 118.948 -1.86464
15.6865 123.415 6.5419
-10.2772 128.682 6.86997
17.0932 132.891 -5.49188
-4.74539 123.628 9.86556
18.869 143.609 -4.92703
23.1322 118.986 5.95298
-21.343 129.798 -1.96964
-17.2126 139.393 7.51045
8.44765 148.742 -6.22102
7.247 151.445 -4.33798
8.46353 133.115 -6.79131
16.637 138.562 -6.61274
-14.1199 126.983 -7.85425
-17.6529 120.413 1.52577
-29.5662 121.65 7.49766
2.75545 124.857 7.28279
2.26318 132.801 4.87388
-24.6509 125.207 7.28076
-9.98258 120.564 10.1519
23.3633 136.04 3.24339
20.5396 137.855 -8.62844
-4.17486 136.067 -5.29635
2.72536 143.641 -0.591771
11.19 125.483 1.63209
-2.86538 118.982 9.6463
4.3253 118.943 6.90963
-4.58305 136.131 2.57934
-1.70745 129.679 6.90873
16.4024 126.225 -7.60404
-6.09401 131.248 -7.36103
15.7757 142.76 4.60566
24.2133 141.024 -1.68158
20.4123 129.96 0.90429
25.4387 138.429 -0.627904
12.0883 128.779 -10.5319
18.6021 129.879 5.10475
-16.5336 127.566 -5.01501
7.67644 125.54 -5.67211
-5.33969 134.836 3.0725
9.84379 128.106 -7.79858
23.6084 138.651 -3.55056
-14.3654 145.613 5.42568
21.5351 129.369 1.8598
-20.9428 118.332 -0.493785
20.0655 124.841 -2.55169
21.352 131.424 -9.57447
18.8766 147.996 -2.05277
-13.52 140.033 6.59042
5.8001 146.307 1.55536
-4.24245 137.617 -5.50431
23.7463 136.535 -3.97733
-9.00634 134.012 -8.82287
4.9126 139.62 -5.2802
-2.9716 124.619 -7.49451
-9.70337 147.39 -5.32173
-7.33332 123.889 9.70165
11.1367 137.959 -9.47141
-14.4293 120.341 8.96882
-17.7856 122.166 5.51556
17.431 127.047 -1.18431
-1.74269 133.249 4.3221
23.547 144.174 0.781496
-16.6263 125.215 5.34907
-15.9862 124.299 -7.32944
-19.9148 118.671 0.278135
-2.69721 131.788 5.32559
11.4597 150.004 -4.15048
-25.1382 132.533 5.33956
-2.22217 117.416 9.8084
-16.8894 121.565 -2.80398
12.837 129.12 -11.3303
-17.6129 125.175 -4.20164
21.6937 124.811 -1.68836
-6.65881 130.992 -8.16522
13.306 129.307 -11.2624
-23.1374 130.119 6.02369
-12.6753 146.032 5.08996
19.6833 148.231 1.39109
23.136 127.721 2.31684
0.554826 119.816 9.26704
20.2823 147.349 1.87976
-22.7856 133.819 2.39432
20.5572 124.996 -2.63842
15.864 131.464 -6.13835
-31.9221 122.747 5.8656
27.9464 130.317 -3.73521
24.5464 137.232 1.29543
18.4526 132.463 4.02388
1.44973 133.018 4.64178
16.1235 121.83 6.73554
21.1916 124.35 5.05858
18.0043 127.967 5.20236
21.259 125.013 -5.6827
11.8597 124.932 1.75495
17.8502 138.204 -6.4691
17.9117 140.823 -5.6072
16.4662 126.46 -8.07798
-2.54217 139.384 -0.201259
14.5966 131.618 -10.5644
-1.18391 139.594 -3.39636
18.0741 138.666 -6.50832
18.5979 132.788 -10.3776
-7.41211 127.672 -8.04861
21.0151 133.19 -9.03558
21.1742 122.254 5.95607
14.4399 135.696 -10.4505
19.393 138.691 4.07297
15.4552 139.794 -7.89749
18.2469 138.917 -6.58656
22.3076 144.663 -2.6436
15.1289 128.398 3.97929
2.88094 124.437 7.1795
-0.757478 129.814 -6.787
13.9516 133.527 5.90834
16.6184 125.671 -5.18121
7.03214 147.19 -5.92144
-15.2252 139.251 7.58443
17.5072 130.438 -5.48926
-9.78831 124.526 8.69554
-15.4729 125.575 -7.0157
-20.3192 118.039 0.845687
0.171133 140.278 0.156353
-14.2223 144.466 -1.65114
-17.6552 124.582 -4.91202
-2.71785 129.906 -6.10231
15.8992 143.363 -6.69094
20.035 144.793 -5.26229
-7.27131 127.479 -8.12692
2.63738 139.02 -4.19529
-14.7304 140.499 7.48774
26.1741 134.752 -1.16653
-23.7688 127.159 -0.551776
-3.76923 119.803 9.66602
-18.0124 120.661 1.77369
-4.33728 131.807 -5.75129
-15.8782 123.336 -4.06416
10.9398 153.424 -0.291579
-1.21658 142.3 -0.0351663
26.997 128.027 -4.31082
6.60128 136.433 -6.23459
5.78982 131.627 -5.57576
-6.6103 148.479 -4.71734
15.7702 126.055 -8.23996
-8.88726 145.778 2.73908
18.2302 141.543 -5.53018
19.8169 125.59 5.38707
0.268631 138.817 -3.34714
8.63274 134.094 -6.87634
-2.13129 130.107 -6.41239
17.1377 129.759 -9.80548
15.337 144.875 -5.86882
-2.93948 138.106 0.823391
12.0976 149.485 1.1518
17.79 134.979 4.65661
17.6672 130.536 -4.37953
-12.5607 140.315 -5.31008
-16.3047 126.112 -3.67692
-0.336625 128.425 -6.85143
17.8187 130.985 -6.01339
23.3289 145.778 0.152119
23.9011 138.684 -1.77633
-8.43255 151.911 -1.61619
-20.6899 118.513 0.157021
-11.8045 123.587 8.96649
22.8827 140.804 -4.85568
26.2026 123.509 0.162968
-1.94213 148.887 -2.5926
7.47179 130.079 3.89411
17.2589 136.198 -6.92
-15.9729 121.085 -2.70382
20.9283 124.507 -5.93545
17.9679 127.604 -7.48433
0.161243 139.382 0.512135
-15.4255 116.574 6.43433
6.30283 141.416 -5.95544
25.078 141.574 0.525689
18.49 133.436 -7.61539
15.6624 125.623 5.59345
4.03547 137.4 -5.05424
17.2603 132.201 -5.15717
-15.5395 134.295 -4.95196
-24.157 128.494 6.29135
-9.39372 142.691 -6.04237
-18.768 128.066 7.54088
17.6734 124.51 -6.38615
18.9504 132.286 3.10651
25.1856 130.335 -5.17348
-10.2904 144.791 3.63226
18.59 135.332 -7.97767
-22.1716 125.754 -2.54287
-19.3911 142.794 4.43151
11.7082 131.164 1.02857
-19.9705 142.045 1.93168
-9.37117 145.21 -5.57866
17.7693 127.281 -10.0485
22.1457 122.773 -2.53997
16.7306 135.284 5.45773
16.9533 139.871 -5.54121
5.16143 142.252 -5.23974
27.8485 129.255 -1.827
-13.9633 122.862 7.21662
-0.14726 151.94 -2.64202
-27.1283 128.611 2.86563
21.5545 142.731 3.59835
-8.7366 124.771 8.73237
18.6984 136.808 3.603
-0.949549 131.452 5.87197
-9.27005 141.31 3.49674
-11.2757 142.988 -5.29732
-11.2763 140.774 4.50087
-24.4253 123.628 7.05303
-9.02199 148.315 2.55283
19.1943 130.702 0.96623
-16.3909 122.131 -4.06831
0.708963 125.481 -7.12186
4.05985 131.34 5.75757
9.60346 152.254 0.909247
16.2245 142.775 -5.80705
-3.60795 127.016 7.60481
24.1135 124.695 0.607243
-8.14735 136.978 3.17861
-3.57293 125.997 8.62706
-16.5322 123.082 -6.25338
21.4864 122.156 1.95615
-16.3679 127.311 -3.69998
6.12583 122.096 4.43122
-21.5165 121.499 -0.904926
-8.46276 134.868 4.46265
-11.3887 142.17 -5.32803
18.3519 135.335 -7.6766
2.1155 147.557 -3.62736
20.0484 130.77 1.24235
4.32308 139.95 -5.01069
-10.9888 142.606 4.27541
15.3717 141.602 -7.46259
-7.17285 133.54 -7.9933
18.9498 147.821 2.17937
21.5766 142.82 -4.23169
-6.5203 138.461 -6.79638
15.4909 123.284 5.44363
2.73169 127.551 7.37257
19.5463 124.672 -4.69615
-1.08897 131.974 -5.8679
3.87734 120.369 6.97579
10.4119 130.086 1.33921
17.9958 149.239 -1.3445
-9.94627 141.608 -6.05517
-11.0156 127.978 6.64004
-9.12913 136.442 3.87235
7.48034 136.563 2.75506
5.24718 133.748 -5.34254
-7.55514 116.553 10.4414
-30.9169 122.844 5.37138
20.0691 135.473 -9.25231
-4.41545 115.851 10.1207
-28.7004 123.398 6.72503
-14.9122 127.702 6.47632
-12.6619 137.348 6.00793
21.1187 125.449 -8.50455
6.29739 134.453 4.42086
19.6053 142.253 -5.94892
-27.6017 121.506 6.10324
8.90186 144.867 0.812041
14.7491 136.336 5.92413
-14.0075 115.216 8.56828
-7.85522 145.267 2.51479
-19.4532 126.555 7.50471
22.3485 125.218 0.396074
14.0389 134.208 -10.5096
1.26868 133.271 -4.23487
12.7974 146.516 1.42079
21.9258 136.842 -7.41296
-15.5202 120.732 8.01069
10.7193 132.56 -8.96893
-5.48699 137.783 -5.99815
-12.8259 146.904 -1.45028
-25.2086 128.253 1.53203
29.5914 126.521 -2.35407
-19.8665 132.798 -2.93345
-8.35345 118.952 10.28
9.91506 149.021 0.80032
-5.38869 147.488 -4.48854
14.3047 152.236 0.294629
-23.6856 121.31 0.817735
16.7643 136.788 -6.99681
15.6091 146.768 3.82902
-4.11068 131.379 -5.97345
17.7484 126.195 6.47523
-14.4955 127.47 -7.60202
-0.756481 130.488 6.53843
4.599 130.359 -4.94871
-7.82317 143.169 -6.43105
8.89914 126.26 -7.4219
19.6284 126.774 -5.04287
-13.21 127.373 6.1635
-16.2986 124.046 5.38084
21.2306 147.653 0.383458
-17.5304 132.325 -3.88429
-21.1991 133.574 6.75126
6.45525 134.209 -6.10296
20.636 131.065 1.5148
-17.55 142.407 6.67812
5.49853 143.188 1.69918
16.0057 151.153 0.945137
-11.2544 138.583 4.52181
28.5037 126.825 -2.98797
-28.3859 119.732 5.23574
15.2691 128.412 5.25603
23.8977 136.536 -2.76099
12.4368 131.197 1.36896
2.26418 131.063 6.51549
7.74064 145.911 -6.56461
-15.4701 117.272 0.813662
17.4174 148.116 3.18641
16.7791 125.508 -7.55908
3.19597 128.288 -5.11996
8.24806 123.826 2.62801
-24.3302 119.141 3.27156
-5.59376 139.968 -5.86325
22.7458 140.238 -5.31516
24.5527 137.406 1.23295
8.46755 128.146 -6.36758
-4.59398 121.07 9.78651
-4.52875 130.877 -6.08209
9.12166 125.483 -7.8653
-17.0994 126.953 -3.50193
17.6288 126.526 -9.208
27.4366 132.019 -2.73523
-13.3698 128.132 -8.3649
27.0181 124.648 -1.66464
16.0169 125.082 -7.94654
-12.8444 144.573 -3.32853
-6.01572 124.348 -8.22902
16.8463 133.179 -8.68825
6.76533 150.711 -4.50098
9.09439 141.898 -8.23117
3.31635 142.465 -4.48911
21.7472 124.052 3.69046
23.769 144.416 -0.575768
3.55048 133.156 4.67712
-12.3632 149.919 0.934032
21.3661 131.084 -8.74746
5.2546 138.528 2.52137
-25.5761 119.414 3.69682
21.7841 131.499 3.50844
-8.14049 151.917 0.806525
3.70676 143.403 -4.66502
2.87922 129.91 6.60688
-4.546 138.434 2.40432
22.3093 123.889 -0.663239
10.0994 129.19 1.51757
-7.7055 152.781 -1.14976
-23.5061 119.237 2.75256
-15.0491 136.117 7.17082
-10.0951 126.001 -8.10579
-7.89825 124.604 -9.28481
19.42 138.477 4.0349
23.6102 130.36 -5.17352
-16.1891 121.148 -3.26702
18.724 127.008 -0.143937
-10.9935 113.461 10.2432
19.2233 128.239 -11.663
5.61025 142.493 1.9845
22.6602 132.818 -7.95155
22.5779 141.26 -4.72298
-22.218 135.836 0.398534
5.78619 124.723 -5.74291
19.2235 124.333 -3.90816
17.293 128.024 6.01183
-5.14813 141.206 -5.53676
1.8458 132.443 -4.34719
-4.27611 121.139 9.82185
28.6772 125.253 -2.41085
-4.69282 133.293 4.19643
27.5875 126.341 -2.42252
-22.5848 128.57 6.69887
12.8553 144.158 1.62225
-21.5755 129.518 -1.80237
-1.81488 149.219 -2.5079
-27.1588 121.536 2.63023
-2.91362 134.433 3.13071
11.978 135.513 0.928499
15.9549 121.248 5.77087
-9.14658 134.607 -8.73045
24.782 132.239 0.314515
14.1311 127.306 -11.3359
16.9925 129.794 -3.83902
18.7456 144.388 -4.77257
28.9623 124.422 -1.13157
-20.6718 118.806 -2.98457
-1.5663 148.033 -2.63347
15.7473 141.554 5.19051
-5.67732 140.74 2.89542
-15.467 121.229 -2.02734
-3.08491 133.971 -4.9664
-2.37675 139.347 -0.481749
-2.64495 140.178 -4.02701
21.3239 124.168 -5.51166
-3.97356 135.194 -5.07549
16.1791 138.404 -8.79149
21.9956 131.713 -7.76565
15.4853 122.006 4.75236
-16.9516 128.396 -3.44252
-2.87387 130.401 -6.16282
-15.2048 124.008 -8.76916
-7.21667 138.389 -7.49388
-14.6682 141.938 -2.80653
-4.48165 130.421 -6.03272
-29.806 121.741 4.70231
0.882836 131.431 6.08982
-17.8116 120.31 -2.59883
-21.872 118.842 1.72377
-21.4432 139.034 3.12198
20.3366 131.874 -10.4309
-14.0643 135.963 -5.38582
19.0074 133.932 -10.1706
-0.113637 122.045 9.13087
16.2412 137.3 4.42558
-16.6997 125.686 -3.44529
9.15325 135.384 -7.27231
-18.7675 118.082 -1.3472
-6.08306 139.425 -6.39952
17.9041 125.931 -2.39297
23.6368 133.61 -5.58862
-20.3453 130.774 6.68823
-19.1837 129.565 -4.79742
3.18868 120.612 7.66016
20.2343 132.371 2.83193
21.4953 138.512 -7.39442
-18.8635 121.847 5.02871
19.8221 146.038 3.24851
3.88137 152.483 -3.24017
29.0537 124.255 -0.39636
19.3483 134.23 -10.0943
-16.5572 121.465 -3.26791
16.1795 133.733 5.34276
14.1622 144.475 -7.59212
-25.1693 120.604 5.39214
10.7173 126.286 1.54501
-16.823 132.733 -4.2396
-14.7509 147.601 2.41745
18.3369 135.636 -7.40754
-23.4351 136.378 4.14761
16.9836 137.948 -8.7337
-20.5878 123.725 6.96269
22.893 123.545 -0.487682
8.47707 122.921 2.67327
-12.0942 114.894 10.2482
-12.6076 140.841 -5.10332
-13.3416 145.436 5.72065
-17.4689 139.744 -1.1213
1.36488 138.379 -3.63398
14.4406 144.591 -7.28424
-18.448 120.154 -2.09831
18.5777 127.777 -3.7452
20.3386 126.763 -7.02091
13.9357 133.232 -10.6085
25.0593 123.268 -0.351375
19.1098 130.874 -5.30526
17.2385 140.346 4.74723
-15.3518 119.017 5.52568
-9.21346 149.143 2.39807
21.2761 126.424 -0.630304
17.6991 126.548 -7.33641
20.2598 124.79 -2.50727
9.80515 153.284 0.956878
10.5183 142.854 0.893732
-15.2276 116.612 5.30713
-16.7269 121.875 -5.86568
24.2968 132.613 3.04438
16.918 137.837 -6.72312
-8.43762 119.996 10.1796
-14.5237 144.572 -0.91287
5.46864 134.223 4.6191
27.4826 127.392 -3.83844
27.8329 126.147 -2.64373
-7.92398 140.305 -6.93329
-17.496 122.537 5.73653
23.6147 142.859 -2.32547
-19.0467 137.406 7.64662
17.8089 121.44 8.52212
24.1421 131.887 -4.0282
-11.1791 141.98 4.41826
8.30812 137.67 1.19153
14.2472 120.695 2.96706
21.5802 122.589 1.94075
-7.08973 143.114 -6.21577
-17.0075 125.142 -4.07228
15.6876 147.605 3.53815
8.27678 121.006 3.01089
-29.2927 119.755 3.32976
17.0441 135.331 5.24263
15.3682 137.994 -9.64971
-22.6214 127.434 -2.80378
-26.1271 132.251 5.489
-17.0191 138.408 -2.11914
8.61622 132.332 1.94775
26.4815 132.528 -4.27452
17.502 129.846 -3.56918
16.0426 119.132 4.57525
-3.6395 131.378 5.64021
-12.5411 143.764 5.96089
27.2986 125.162 -0.717541
-29.4743 124.027 6.60341
-16.7328 121.293 -2.8748
-6.01315 123.144 10.0005
24.9082 133.809 1.03961
-21.3994 120.457 4.19004
-10.1276 141.086 3.70524
-16.5968 120.85 5.67364
-17.36 121.094 -1.4889
8.39583 143.394 0.781565
-9.8146 137.329 4.41291
25.2546 141.007 0.654636
-18.467 128.366 -4.35912
9.90806 132.953 1.49319
4.10219 146.965 -4.49912
1.21569 131.506 -5.24649
22.7882 144.894 -1.88231
16.9654 129.205 -5.67825
22.8524 119.859 5.74994
-9.90611 151.631 -1.1346
-17.0756 144.842 4.83184
-16.2986 133.417 -3.33952
-23.0592 126.212 7.32845
9.36593 128.243 1.80871
19.699 148.539 0.823524
-3.20922 150.504 -2.53273
19.4407 137.846 -8.01322
-14.6101 142.347 -3.87068
-23.0378 133.649 6.63249
12.3439 144.133 -7.71573
18.8251 149.098 0.149618
7.60167 130.89 -6.37213
-10.271 151.576 -0.947443
10.3863 145.482 0.843807
23.6191 134.32 -5.0174
-19.0573 143.374 3.12548
8.09342 133.21 2.11817
-5.62817 140.418 -5.91976
-25.4919 119.466 3.52853
-9.79056 131.391 -9.02391
-6.39536 119.241 10.0208
-12.3461 133.361 -7.02442
13.5524 131.471 -10.7768
-6.56543 153.391 -1.13714
-5.1137 128.96 6.86239
-16.5305 123.112 -6.73559
11.4951 131.063 -9.92784
-16.5739 136.667 -2.3517
1.45963 126.198 7.77499
-9.9461 148.889 2.72891
-31.3738 123.543 6.26777
-16.2422 121.762 -3.24839
-16.414 134.279 -3.7102
-5.6711 143.781 -5.40284
14.1313 144.531 -7.59829
17.0784 137.942 -6.99375
-10.6166 145.803 -5.10357
-20.7209 132.621 -2.181
17.0948 131.907 -9.33643
-12.35 149.689 1.63078
-16.2292 128.454 -4.73375
7.33945 147.051 -6.13254
9.69543 135.66 -7.68408
-17.7244 122.074 -4.85834
4.30642 121.214 6.32515
15.7581 128.847 -7.85154
10.1052 136.017 0.790233
11.6841 146.404 -7.37483
-21.1643 130.793 -1.49202
-1.54287 147.331 -2.72274
-13.6383 129.542 -7.00652
11.264 123.028 1.9575
-9.6201 147.848 2.88048
-0.170814 123.627 8.6111
-21.6852 131.314 6.4723
-14.929 116.386 7.50096
21.5936 122.766 -2.4971
0.833642 125.833 -6.95449
18.7995 136.765 -7.46232
22.1056 134.18 -7.3253
-1.55646 127.65 7.33529
19.1748 127.512 -11.7609
12.3912 146.07 -7.40992
5.57187 125.828 -5.47708
-3.64869 130.644 -6.13788
12.9372 130.617 -10.9635
-0.00247344 133.263 -4.81823
25.8791 133.724 -1.63683
-15.4854 139.521 -2.69439
-11.0891 137.244 4.93458
-12.8901 141.252 5.91411
-9.68192 126.475 7.81076
-17.6352 139.211 -1.26238
2.9639 140.637 -4.37431
-7.852 127.566 7.42198
1.11915 136.834 -3.54044
-23.5654 128.159 6.5766
-14.9428 127.369 -7.47279
4.15782 117.233 7.43035
7.04461 118.048 4.40009
12.5611 131.453 1.38312
-13.0511 122.793 -10.0545
-22.6325 125.903 -2.30457
-7.45788 129.265 -7.9194
5.72054 138.378 -5.70457
21.7254 127.407 -7.05777
14.2258 142.278 -8.12075
22.108 131.249 3.50175
-18.3719 121.18 3.92932
-0.0822808 129.15 7.17601
24.8565 134.088 2.50382
21.5741 140.134 -6.4169
-2.1492 122.549 9.25037
-18.0351 120.382 0.386743
2.7758 141.14 -4.25952
18.2585 127.533 -11.0738
10.4616 134.027 -8.4267
-12.3475 149.088 2.62094
7.14729 134.646 -6.58361
23.6288 145.032 -0.129751
-9.26753 130.638 -8.58848
-17.135 122.047 -1.90604
-4.8723 129.084 -7.55783
-26.7815 130.185 3.56061
5.50738 134.668 -5.47801
-11.328 143.49 -5.25161
9.67439 154.435 1.13425
-15.0034 116.282 7.32687
15.3165 137.341 5.74277
-2.90849 131.979 5.2259
14.1929 134.259 2.70945
-22.9066 121.524 0.167244
0.58028 153.54 -2.43398
23.5542 133.332 -5.02384
1.93322 133.469 -4.02394
-22.134 138.701 3.60377
-11.8152 133.441 -7.42073
-23.2601 131.626 2.30545
20.9249 123.739 -3.31811
0.438913 153.107 -2.72481
-6.44103 139.483 -6.81385
1.45816 130.599 6.70745
-12.1595 124.276 7.03257
-12.0927 145.785 4.79196
24.6315 132.48 2.67482
-3.17475 134.171 -4.87418
-9.95859 146.192 3.33199
-3.70935 138.6 -4.9332
-24.3435 134.626 5.95366
24.8232 135.458 1.42036
16.9213 139.577 -6.90577
-24.647 131.961 5.4888
20.5624 124.679 -3.71553
8.58202 128.363 2.06845
-5.66301 128.581 7.65745
20.1605 142.119 4.00208
-7.21872 142.73 -6.27381
-25.9471 123.846 0.945889
14.1423 126.801 -11.2886
-23.3721 131.208 5.75778
-3.95245 133.175 4.57389
-18.0913 119.603 -2.29454
-1.61711 145.856 -2.99604
21.3118 126.179 -0.371053
-31.2276 122.822 5.52185
-17.0234 120.805 -2.6116
15.5879 134.089 5.6712
0.936987 120.226 9.07333
-5.53137 134.511 -6.19555
24.3835 143.84 0.0687195
22.2939 125.853 1.6371
7.46164 135.608 2.79233
-11.7773 117.397 10.5071
1.70852 128.537 -5.57886
15.2784 125.48 3.96506
-21.64 137.943 2.27069
-5.35645 124.065 -7.52907
22.2406 129.974 2.85176
13.7609 143.376 -7.97629
-9.37497 149.372 2.3884
15.0051 130.213 4.79269
7.22668 131.272 4.18758
-26.8475 126.352 7.0585
15.8009 126.371 -8.34569
-17.4089 135.526 8.0265
-2.09501 152.968 -2.0035
24.4787 139.052 -0.706685
6.91929 123.1 -6.1557
20.3488 137.39 -8.95582
21.5118 127.065 2.07636
-13.0268 130.165 -7.82438
-15.4516 118.08 6.69336
19.8938 146.999 -2.97515
-18.4342 120.6 -4.19844
-5.23244 123.16 -7.46223
13.3334 120.953 2.58368
-21.5768 135.242 -1.0279
-0.195899 140.554 -3.41528
19.0189 124.024 -5.0267
0.0467283 153.914 -2.23674
18.2378 128.576 -5.30308
25.1305 133.299 2.09728
-29.7162 121.96 4.3804
3.59813 136.686 2.5496
-18.0127 135.712 -2.08483
15.7283 131.992 -7.80628
12.2498 138.333 -10.3884
15.4448 131.819 6.4734
4.93127 118.383 6.55904
17.4386 129.835 -1.9045
-22.8739 135.127 1.47541
-12.9398 147.033 -0.972937
6.54452 123.686 -5.90178
18.9329 125.736 -2.75897
23.9406 134.799 -3.23276
-25.1367 116.666 1.98693
-7.48292 133.186 -8.29714
19.347 125.128 -2.61944
0.986097 146.292 -3.32959
23.1101 145.541 -0.595742
15.4691 127.348 6.90128
12.7844 142.774 1.33371
7.43391 136.839 2.66126
17.4803 128.624 -2.3214
17.9645 126.096 6.28696
6.82742 133.08 -6.22881
14.1012 149.244 2.53951
-3.86959 133.218 4.53995
18.9756 127.542 -4.27061
-16.1352 121.945 -2.65707
-3.77901 128.094 7.2293
10.3352 151.636 -2.98979
19.2841 129.112 -11.4623
12.3452 140.832 -9.20589
9.27147 154.018 1.26851
-3.24714 129.003 -6.11658
-17.7597 119.331 -3.19002
6.91692 141.262 1.52477
21.7588 131.982 -9.39643
16.6175 125.511 -6.97285
0.611293 125.551 7.86704
18.577 127.007 -11.3886
-6.28797 146.442 -5.29388
21.3022 129.362 -7.00599
-26.3077 131.396 4.6302
9.07041 121.238 2.52585
-7.23755 133.521 4.27444
24.4263 142.337 0.956903
-23.0306 122.398 -0.451904
-4.1119 153.562 -2.0531
-25.5642 122.328 6.68038
14.1838 133.072 2.69221
23.9498 122.954 -1.01534
-15.9747 124.312 5.44576
16.2776 128.63 -7.85029
-9.5029 148.813 -4.31752
11.1581 137.499 0.782081
10.8068 152.468 -1.39626
-8.53276 151.385 -2.12401
0.510793 127.086 7.45806
-21.6723 137.365 0.723672
16.3713 143.452 4.37964
-4.6996 120.401 9.7217
-29.8813 122.564 4.35818
24.3092 137.471 -2.09628
-2.43999 148.83 -2.75121
4.9574 135.61 3.4229
-8.362 143.965 -6.10213
20.5667 140.29 -7.31658
15.85 131.967 -8.61911
-5.48838 126.609 -8.21635
16.3392 148.719 -1.95611
19.7034 128.928 -11.2917
-16.5089 121.637 -6.16925
15.2843 124.612 4.05738
-19.5541 134.687 7.17486
-12.2547 137.315 -6.83523
-8.55931 146.619 2.63435
-20.8929 117.548 1.81023
-23.7445 123.425 7.06134
10.6568 139.983 1.22894
12.0161 126.127 -10.6827
-19.3757 130.341 -3.75983
-20.8613 118.644 0.816812
26.0588 136.672 0.0323695
12.6234 132.231 1.27621
-19.2918 122.429 -2.9864
20.0478 126.522 -0.451002
-5.40834 140.816 2.67404
-16.4265 129.487 -3.54872
-8.64404 141.706 -6.74483
-5.97032 131.283 -7.19476
6.0363 118.25 5.40984
-23.1705 137.045 4.01063
-17.7848 119.728 -3.54095
-20.8788 140.409 2.54229
-15.4746 118.111 7.74685
-16.4548 121.195 -3.77543
-5.89371 149.185 -4.29552
-17.932 119.256 -0.538159
24.3005 143.859 -0.0907718
9.27705 131.174 -7.34828
15.6026 127.033 -5.12646
-16.9759 118.913 0.599903
23.495 142.066 2.42307
-7.67513 150.819 -3.38971
-6.92771 146.851 1.97661
-25.5231 121.127 1.91072
-12.8387 120.3 9.97248
8.44252 138.725 -7.79015
-3.08457 147.825 -3.08602
18.4755 133.859 -6.53122
-23.0047 130.431 0.83541
17.6005 134.791 -7.99178
-3.37506 135.113 -4.6656
15.7231 121.892 5.5055
-9.4181 147.17 -5.42375
25.3681 128.055 -0.444205
18.9675 126.095 -6.37735
11.2101 141.139 1.12283
20.1391 123.015 7.74736
-15.3076 132.382 -5.87416
15.4558 128.287 -10.5419
21.9038 130.768 3.26157
-14.7546 129.454 -7.09648
14.8861 131.835 -10.0963
13.0548 147.633 -6.50057
24.9574 133.443 2.39991
22.6937 142.601 -3.69216
-14.6649 125.175 -8.74586
-6.4286 146.171 -5.41655
2.7872 118.621 8.3437
15.4004 132.322 -5.58733
8.64441 139.235 -7.96492
25.577 123.294 -0.230358
-15.4123 118.587 4.66474
11.6063 123.294 1.913
-17.3629 123.163 4.87005
23.758 131.906 3.75183
21.5592 128.198 -9.9205
-16.1891 126.975 -4.32776
-4.84828 148.766 -3.7006
21.0657 128.42 -8.77514
-21.9632 118.062 -1.92262
27.0558 126.97 1.41749
19.0827 128.395 -11.5301
19.7453 147.773 1.80481
8.44297 146.247 0.797251
5.59077 142.118 -5.43322
-27.0724 129.23 5.89222
-14.553 122.314 7.73454
-17.6563 121.107 3.11311
5.87334 124.847 4.81354
-20.6369 119.298 3.28339
27.3339 127.555 -3.99195
23.8454 126.022 1.31424
20.9623 126.597 -0.473519
22.034 125.723 2.47838
-17.8588 140.883 7.13577
23.6479 136.412 -3.02438
-24.1119 122.153 6.65114
17.5935 129.759 -7.93818
17.2399 128.637 -6.52664
1.3878 131.412 -5.19503
-14.522 141.757 -3.32143
-23.378 136.829 4.57939
-10.7071 117.381 10.2622
-18.6688 142.317 5.98739
-1.34291 139.224 -0.188639
14.1862 148.588 -4.44852
19.9428 127.765 -0.05776
15.1868 142.578 4.61793
0.762821 149.194 -3.0543
-9.65899 118.899 10.1812
-27.8164 126.566 6.80412
21.5751 147.309 -0.06903
-17.5305 119.83 -1.73549
-14.2351 117.107 8.89708
17.7243 124.982 -6.70787
5.21767 139.395 -5.42385
-21.8414 131.501 0.037533
-2.96552 127.862 -6.52553
14.6475 131.879 4.74418
19.3276 130.609 2.63448
6.26989 134.06 -5.95746
-19.2308 136.837 -0.958713
-0.115346 123.635 8.61105
-17.1087 121.839 -3.58685
20.7971 123.55 7.03339
9.11285 148.595 -6.57447
-18.6034 129.607 7.25297
-20.5983 136.855 7.50242
20.0044 142.396 -6.09845
-16.1058 118.291 3.45572
-11.2913 139.293 4.55417
23.6655 138.239 -4.23347
-0.0499978 133.065 4.77945
-10.0418 139.717 3.90369
9.94576 124.175 1.86851
18.7451 138.208 -7.35695
-1.68897 124.698 -8.26939
28.4381 125.298 -0.400652
17.6031 133.634 -6.17409
6.46616 118.027 5.00673
21.9572 145.816 1.20842
21.1263 134.832 2.67475
16.5099 126.725 -3.15597
11.4344 125.65 -10.3347
16.4413 129.244 -9.55322
-16.413 137.531 -2.27395
1.48862 130.259 -5.3901
11.8094 149.188 -5.00829
4.33655 128.025 5.82389
-3.97988 136.541 1.98848
21.064 129.48 0.207851
-23.7498 134.704 4.96821
-12.5178 126.13 6.37847
-0.717464 120.08 9.44494
-19.7374 137.035 7.66669
-2.34678 128.838 7.18576
-5.62618 131.649 5.59679
22.2568 141.098 3.12019
12.6928 142.123 1.10153
21.1118 127.805 -0.191629
10.2684 137.769 -8.56843
18.374 142.003 4.69234
9.81231 143.045 -8.44802
12.1229 142.375 -8.75005
-3.46993 134.582 2.89418
-12.4324 119.48 10.1507
3.67532 125.673 6.35272
23.9915 136.164 3.24998
17.082 135.047 -8.89577
10.4123 135.312 -8.16623
12.6237 148.116 1.58219
-5.47383 129.686 6.50233
18.872 130.689 4.41533
-16.5188 120.931 6.0273
11.6581 147.898 1.02045
-6.3201 127.518 8.47836
5.96653 153.463 -2.65538
17.0237 136.755 -8.86274
-6.4081 135.871 -7.28557
21.0482 143.053 -4.78377
17.325 137.619 -8.51427
-8.03009 148.832 2.11858
-8.7249 147.719 2.59001
-26.818 127.322 1.66177
6.20604 145.968 1.36112
-20.2085 118.801 2.84626
-7.93542 124.663 9.25526
15.3724 129.501 -6.46134
14.3763 131.501 5.77827
-18.4224 144.087 2.0119
-4.48203 137.089 -5.59822
18.0513 134.628 -7.0194
-23.707 127.816 0.0503069
6.88149 137.325 -6.71883
7.12855 136.423 3.47551
27.2073 127.602 -4.1479
-15.4626 143.116 -1.72738
-17.2314 122.342 -6.9879
23.607 138.708 -3.7921
27.3798 129.482 -3.97266
-24.3253 133.143 4.8902
-17.6924 120.973 -3.71654
23.1413 131.385 -5.54774
-21.1588 132.298 -1.52254
-13.663 139.655 6.83325
-15.4636 125.69 -6.64595
-22.929 124.937 -1.79242
1.2368 148.502 -3.22859
12.4611 136.907 1.16267
-10.6763 150.257 1.7663
-9.25428 150.962 1.68331
-17.0565 124.079 6.35464
-16.2337 130.342 -3.10759
-15.3918 143.887 6.54912
15.4477 126.185 4.35088
-16.3166 118.252 0.496257
24.008 140.576 -2.11804
22.3761 122.615 -1.70189
10.2605 127.736 -8.56447
-19.2058 139.913 0.223527
24.8058 131.817 2.43619
5.33736 146.802 -5.07669
20.0041 127.854 -0.0346799
-16.3925 138.907 -2.14199
16.6411 141.696 -5.93327
3.82221 142.354 -4.72216
14.9707 128.208 3.4659
-7.3917 144.543 2.60442
-27.3375 119.43 4.85981
-3.08142 127.595 7.36944
-18.884 119.391 -2.78892
7.72058 137.447 1.71269
-14.1911 117.202 8.90348
9.1331 139.718 -8.25241
24.4349 140.265 -0.639233
-28.6702 127.771 4.17088
21.9451 122.619 0.780883
6.92138 143.219 1.34117
-8.377 141.079 -6.82046
6.58133 136.439 -6.22774
-24.7489 128.787 1.77203
-8.22328 130.749 5.88895
-12.5367 129.248 6.50917
-18.439 124.848 -4.08365
2.31634 116.907 8.78775
16.6261 138.546 -6.56023
-15.6958 128.266 -5.69267
15.7393 147.132 -4.19215
-2.46802 140.239 -3.94945
-14.3063 127.204 5.4501
21.505 124.873 -1.83172
15.8805 130.727 -9.24058
-22.9818 122.377 -0.473108
-16.1916 123.021 -4.17861
-18.9823 136.259 -1.483
-25.5987 122.938 0.894345
14.475 150.366 -1.61596
22.8929 143.919 1.51241
11.0025 137.663 0.820355
7.747 142.037 -7.40861
1.20267 137.841 -3.58492
-14.7455 140.396 -4.69669
-20.8888 117.957 1.30887
-22.7302 137.511 3.6156
-4.12051 126.415 8.42714
10.7727 137.694 0.841718
-22.8493 134.081 2.28837
16.6974 126.625 -8.10865
-7.09488 125.421 8.60321
-20.2194 118.731 -2.69332
10.767 141.483 1.10482
-13.9122 126.671 -7.99413
13.0068 129.957 1.67383
-2.50198 139.558 -0.512874
27.1635 132.489 -2.38947
19.1757 140.749 4.3839
26.2029 137.584 -0.0072472
18.0041 123.459 8.52565
-13.094 141.588 -4.90364
18.4547 134.038 -7.14878
-12.9878 142.478 -4.93967
-22.3051 135.878 7.01948
14.8879 125.84 -8.13389
17.4744 125.383 -3.30911
-19.3714 142.875 3.52159
-17.4959 120.261 -4.06584
3.5107 137.639 2.05989
9.25131 154.803 1.23973
-27.7799 127.314 2.72023
-18.4394 126.518 6.92888
-23.7968 129.029 6.19417
-15.4393 120.618 8.09327
13.6735 135.718 3.44515
2.23274 132.801 4.87613
-3.09212 148.948 -2.86162
-14.8329 141.165 -2.55923
12.7205 148.967 -5.07665
-16.4159 127.394 -3.66869
19.3816 146.069 -4.70155
24.4921 131.181 3.25222
-22.3391 138.617 4.4992
17.058 130.263 -7.60627
13.8635 135.542 4.82597
16.3745 141.219 5.0635
10.684 126.679 1.55524
-13.5335 139.023 -5.74584
-4.5782 126.711 -7.12959
16.5704 127.531 7.24635
12.772 146.829 1.45975
16.9877 138.432 -8.45133
21.4628 126.079 0.232391
14.6496 126.504 -9.1743
3.30368 117.946 8.0408
18.8297 129.464 -11.1457
20.4821 137.992 3.48899
-20.1235 126.947 7.49659
-7.88717 120.732 9.95502
-5.03992 143.406 -5.07295
-14.6145 141.993 7.4298
-18.5083 131.022 6.8611
17.3393 136.963 -6.82036
-17.6524 119.657 0.535825
-18.785 120.768 -2.12584
7.04521 140.657 -7.00143
6.29773 122.396 4.29544
-1.0332 117.59 9.72959
2.50131 124.037 7.63154
9.8497 139.37 1.21493
7.73441 136.966 -7.10388
-28.5177 126.389 3.46495
-3.62282 142.897 -4.03108
-30.2283 125.515 5.93151
-1.43734 140.654 -0.546653
4.74411 151.46 -3.58283
4.82426 117.413 6.88413
27.3385 130.32 -4.41414
-10.6791 140.627 -6.30032
23.7448 136.474 -4.06746
20.6172 141.704 -6.67132
-5.58858 135.049 -6.37265
-4.85245 141.423 -5.34568
6.53809 134.131 3.96053
18.4088 133.842 -7.84779
-9.2049 146.844 -5.53744
-7.30606 130.965 6.08103
-4.31118 128.202 -7.07918
-19.5809 117.936 -0.247705
-23.0468 116.832 0.93377
23.2738 141.275 -4.23686
17.7727 129.299 -7.17685
8.61074 146.172 0.827942
22.397 146.692 0.411627
17.8885 127.975 -7.07167
-28.7548 127.251 5.6431
3.30709 131.858 -4.72373
-22.5306 117.659 0.787097
-16.0198 124.996 -3.76539
2.49293 141.724 -4.07226
-14.8065 135.428 7.13985
19.1675 142.591 4.53005
-16.4154 132.243 7.52733
-19.4011 119.468 2.79931
-20.438 127.935 -4.29095
-17.3191 123.474 -5.79973
13.0626 145.502 -7.47176
-3.21777 137.39 -4.77063
-20.1117 128.848 -4.34654
-5.62637 144.238 1.61986
12.0057 125.61 1.68351
17.0689 118.661 7.37399
-10.4658 127.662 -8.40587
6.43156 130.285 -5.48701
