ply
format ascii 1.0
comment Created by Open3D
element vertex 1904
property double x
property double y
property double z
end_header
-27.7423 95.1471 -6.43487
-26.0451 130.111 -4.46101
-9.88312 102.26 7.31375
-5.00169 123.461 8.94156
2.34693 132.555 -7.88112
-5.03082 140.902 4.65499
-26.1459 123.096 7.29558
-27.5946 117.574 2.41107
-33.2277 132.773 -3.12985
5.94896 119.224 -9.69801
-6.68739 133.388 8.56351
13.5516 132.383 -5.32512
-0.346873 83.077 -13.1634
-1.69354 153.718 -2.51155
-29.1064 108.858 -3.04653
-1.90488 119.106 4.35701
-10.5185 144.714 -6.46872
-21.6425 89.9461 13.9155
-24.7737 102.764 13.6204
-16.566 88.8508 5.37335
-11.5838 124.129 10.6273
-0.60929 133.341 -6.49936
-16.8077 127.071 -6.64526
-22.0273 149.299 -0.745443
-18.6658 118.081 12.1122
-22.2171 101.612 -10.2364
-34.0375 129.912 -1.17968
-21.6203 84.7611 10.2443
-21.8597 126.538 -6.99004
-12.2658 147.206 -4.90085
-1.34516 152.45 -3.33586
-22.3581 123.029 -7.67614
-3.84224 80.8986 -15.1744
-23.8266 126.061 -3.30074
-23.7386 108.716 13.8668
-16.5318 100.109 13.1386
10.233 127.153 -7.21084
-33.7291 129.039 -0.375135
7.96883 115.694 -9.73677
-15.2863 150.606 3.52361
-6.14361 130.482 -5.18541
-2.29635 130.597 7.58271
-5.8508 144.929 3.54146
-21.5878 89.1657 13.8984
-8.4251 86.6494 -16.6671
6.47508 143.828 2.0578
-33.7056 127.155 0.392354
9.43465 115.075 -9.51534
-8.20787 111.977 8.36301
8.75508 116.363 -5.05472
12.0012 148.83 -0.661027
-12.5838 105.586 11.4348
-10.8763 142.017 4.86408
10.5066 123.46 -6.78574
12.0344 142.433 -5.09406
-25.3784 132.491 5.19883
13.1648 144.438 -0.862533
-27.4236 123.566 -1.15767
-7.31048 102.409 -14.0213
-4.01448 107.928 6.05797
10.2827 126.711 -3.12426
11.9872 130.993 -6.64411
-11.6912 129.883 -6.23981
-24.0772 143.105 4.67887
-29.0901 102.428 7.34178
-28.2855 91.0063 10.9863
-31.9013 86.9677 1.76849
5.24586 148.85 -4.27466
-18.4475 93.9926 12.1023
-12.4096 130.273 9.7057
-28.2284 79.93 -7.40176
-24.2913 147.39 -0.885644
-19.5144 92.8471 12.6187
-9.61063 126.707 9.77764
-20.2869 103.038 15.2902
-10.6791 147.827 -6.15135
-25.7408 122.993 7.69305
-6.72872 115.931 7.86096
-4.70256 132.503 -5.28323
-15.2918 143.875 -4.63313
1.64467 122.184 -9.48894
-27.8136 91.4047 -5.86577
13.7649 132.78 -5.10942
-22.0447 119.668 -8.61993
-30.3551 141.452 0.360013
-16.7646 105.455 14.1049
10.128 122.891 -5.3619
-26.1391 116.118 11.3216
-22.279 103.655 15.0701
-13.9711 96.943 -12.3344
-27.7822 119.753 -3.58077
-26.2201 94.1756 -8.00912
-27.0531 125.745 5.01307
-9.7299 126.636 9.76082
0.752218 138.612 6.18345
10.293 122.625 -7.71964
-24.8792 115.57 12.5556
-30.3754 101.946 3.73062
-28.6902 103.952 2.80524
-29.378 109.714 0.676696
10.1296 127.234 -2.17564
-30.0899 97.7306 -0.137831
-25.1855 126.564 -1.74641
-21.9017 85.5699 11.4819
-20.4477 135.624 -2.44859
-2.27515 126.889 -9.27367
-27.1557 112.885 10.2793
-4.07379 109.342 -14.5529
-17.2559 122.867 12.2703
-18.1749 93.9657 11.5623
-18.1873 108.978 12.7004
-21.2273 99.0927 16.7337
-13.5195 127.612 10.7905
-21.9179 148.565 -1.2505
6.86805 114.79 -9.94955
-22.3518 118.326 12.1218
1.23178 105.034 -14.2629
-30.3154 100.155 1.8719
-3.91301 144.856 2.89125
-15.2898 113.851 12.9409
6.34479 114.048 -10.4331
-17.2338 144.72 4.29875
-9.92598 140.584 4.36694
10.1428 145.234 -5.95656
-10.4326 91.6014 -15.4289
-17.7302 88.919 5.71716
-20.5031 131.457 8.75188
-10.444 80.2846 -17.706
-21.2365 87.3776 -12.5737
-26.4395 126.684 -3.06952
-24.1969 147.183 -1.04426
-19.3845 97.8577 13.8567
-19.3517 112.477 12.499
-13.9638 115.162 12.636
-28.0889 125.733 -0.316187
-17.1891 142.796 -3.68728
-10.5508 146.498 -6.06704
0.669674 122.145 -10.0133
-25.4782 117.956 -7.9336
-20.532 78.8013 -12.4157
-6.73758 91.88 -16.4479
10.2778 131.115 -10.0092
-16.1997 134.353 -7.47198
5.59343 140.093 -8.14519
-28.6204 123.882 -0.679597
-20.8573 134.938 -3.67463
1.09052 82.3509 -11.5209
-24.5181 141.006 4.2863
-9.54206 126.917 -5.71114
1.55256 137.596 -6.55269
-27.8646 128.635 -3.55877
-16.0437 121.15 12.3362
-16.4581 99.8395 -11.3714
-19.6842 119.579 12.3275
10.4065 150.23 -1.47619
-10.0299 136.281 -7.18196
-16.5407 140.058 5.40057
-19.2549 148.989 4.53609
-31.6282 82.5075 2.16302
1.66088 120.705 4.46528
-4.36515 102.291 -14.4094
-28.5766 127.249 0.946818
-4.79223 123.609 8.77054
-21.3743 133.192 -2.93391
-22.4155 100.926 15.6568
-31.07 92.6784 -0.567639
-13.8007 113.116 -9.89621
-20.1851 89.9476 -13.2113
-5.5035 104.961 -14.3114
-23.5641 93.3182 15.2146
-26.5966 129.208 3.38031
14.308 131.506 -5.83841
-33.9698 126.395 -0.629033
-30.181 132.807 4.0263
-13.219 153.56 0.179121
11.1345 121.583 -5.79673
-9.66939 86.7003 -16.9028
-26.5752 101.468 10.4825
6.50208 141.105 -7.82673
11.203 149.327 -1.16665
-36.6814 133.725 1.42175
-26.8177 88.2462 12.4609
-1.47722 113.979 5.11083
-17.1568 144.574 4.33814
-7.10712 130.19 9.50949
7.42056 146.869 -5.44311
-14.1222 109.654 12.3124
9.91259 153.109 -0.0133456
0.322106 99.4015 -14.8268
-12.6869 138.976 4.99099
11.9487 140.301 -5.6738
-25.5593 125.843 8.2327
-18.6151 91.1871 9.22162
-5.50235 96.8428 -15.5864
14.5597 136.406 -3.73642
9.87797 144.934 -6.09317
-20.2425 128.979 -6.04244
-2.77501 83.9209 -14.5576
-11.4655 130.171 -6.26842
-23.764 102.301 15.285
-28.1134 114.041 6.4264
12.8584 134.519 -3.24457
-28.2189 83.0483 10.9223
-27.2102 130.954 3.21321
-4.65269 111.088 -14.0816
-3.93208 108.334 -14.7696
-28.4132 142.56 -0.905244
9.94545 127.707 -2.65118
-18.8577 89.7355 -13.5115
-13.0597 149.042 3.54298
-30.6794 130.24 0.340142
-18.2848 96.5921 -11.1326
-23.4022 123.561 -7.65741
-12.974 115.321 -8.92682
-12.5761 140.9 5.10174
-26.039 119.117 10.6411
-25.3251 123.839 -2.21702
11.0873 125.593 -7.41701
10.029 128.02 -3.13291
-25.5145 132.107 -5.24463
-10.1437 107.935 10.2244
-34.8354 131.469 -0.15302
-8.11631 122.709 10.9392
-22.3985 86.3635 13.0567
-25.6872 132.051 4.16456
-34.692 132.941 -2.5803
-0.671849 140.258 -4.20844
-17.7988 91.5345 8.43026
-29.89 92.1679 8.87473
8.52866 126.917 -2.01477
-4.69214 123.219 8.5828
-7.28339 109.851 -13.5183
-19.4248 97.586 14.4281
-22.7347 99.7975 -10.4777
4.46501 118.709 -10.5744
-31.5218 141.101 0.523922
-22.6492 93.9248 -11.3426
9.93647 149.709 1.88295
-24.7811 140.588 -2.88812
-16.0728 86.8401 -14.8555
-20.3523 119.424 -8.67394
-14.7731 117.887 -8.32581
-30.0818 101.908 5.96199
-18.4883 130.658 10.0655
-2.95225 82.6298 -14.902
-6.52701 136.473 6.81436
-18.2023 137.892 5.8842
-7.05815 122.783 -8.34219
-16.4728 147.238 -2.24629
-7.80802 142.313 3.84701
-19.7934 133.165 -4.96067
-1.77417 121.736 -11.3181
5.23784 116.337 -10.0897
-18.4133 131.086 -7.42407
-23.3946 98.2927 14.9609
-7.42116 125.398 -6.4303
-4.28534 107.604 -14.7502
-9.2052 93.3393 -15.0394
-9.00548 135.316 -5.97968
-30.0443 80.7341 -1.11024
-9.95156 105.629 6.87461
7.1636 122.843 -11.2968
-31.0173 139.296 -0.818469
-3.72633 122.113 -11.1793
-32.1609 87.3303 4.63498
-18.5321 105.859 14.2794
-23.5142 128.146 -3.83732
-3.36176 129.311 -7.68662
-17.5819 105.747 -11.2411
10.9725 147.746 2.74475
3.87652 129.03 -9.78017
-28.4733 113.122 -1.38876
-10.6813 124.22 10.4728
-6.03571 148.635 -5.67019
-23.826 149.039 2.82209
-25.6501 108.32 -8.44512
-13.9359 135.706 -8.11307
-25.2516 103.737 -8.9603
-20.9392 88.7197 12.6817
-3.56821 141.675 -4.292
-18.9738 143.102 5.03786
-25.3186 128.439 -4.00497
-8.59274 107.842 -13.8526
-21.5653 94.4753 16.3022
3.63794 139.499 3.16953
-16.9942 91.2762 6.48233
-30.463 130.96 1.80635
-27.3222 125.814 -1.08354
-10.55 106.744 -14.0391
-25.0856 82.8042 -9.90582
-11.4159 94.4443 -14.1421
-13.5429 147.471 3.50154
1.45911 129.259 3.26289
-2.47494 132.68 -6.1051
-27.4242 140.509 2.63313
-23.2312 78.463 -10.9913
-16.4482 134.391 -6.97793
-22.3421 144.738 4.35168
-19.2149 120.61 -8.53054
-20.2715 95.716 -10.957
10.8802 132.767 -4.03452
-11.977 134.123 7.56218
-24.2211 129.312 -3.25497
-22.9815 89.2328 12.887
12.3023 143.201 -4.57691
-15.0001 125.575 -6.38296
-5.1363 136.026 7.30724
-27.2693 142.767 3.03764
-31.0288 93.8858 6.56317
-5.98919 139.61 -5.50263
2.61942 134.748 -7.66063
-4.74185 75.0223 -14.8367
-31.3473 137.356 -1.24402
-5.93632 118.28 -11.9664
-26.063 100.47 11.4697
-19.6386 117.628 12.2693
-6.02219 138.922 5.8826
-15.1354 153.248 3.01372
-22.8772 100.76 15.8173
2.74897 125.443 3.63153
-30.541 89.236 -3.14619
-29.3309 103.754 1.0678
-27.121 123.76 4.62098
7.39591 104.693 -10.0272
-28.4684 104.692 9.51333
-4.87791 121.019 -11.2703
-22.0409 129.713 -4.26339
-7.45466 146.976 -6.29144
-35.4236 130.442 1.22121
-28.4883 88.3549 -5.76825
-9.95405 106.576 8.14149
-28.4854 80.2076 -5.56676
-6.45913 116.838 7.75019
-23.4396 91.9443 -10.6001
-8.82002 141.503 -7.26939
8.68697 117.737 -4.22316
-20.8551 84.7535 7.9808
-10.8308 119.722 12.0869
-11.9301 136.382 -7.88991
9.44541 153.86 1.24061
-12.4618 82.1475 5.76068
-27.6212 121.885 3.81648
-18.9032 146.92 -1.8089
-34.7703 128.28 -0.288396
-10.6623 96.2371 -13.4417
-34.2151 135.216 2.83264
-19.1382 92.5137 13.753
-2.04807 128.718 -8.5477
-8.68718 99.5926 7.4264
-5.26732 108.311 -14.6393
-4.3479 119.209 5.66347
-19.171 87.1827 -13.6442
-7.8465 152.21 -4.13931
-25.1087 83.714 -9.52779
-9.53147 124.548 -6.2026
-21.6122 130.062 8.51666
-6.8987 150.091 -5.49579
-28.1999 109.375 8.40794
-12.4437 129.841 9.82259
-27.0936 138.894 2.62276
-15.0762 139.412 -6.3819
-14.2849 142.51 -5.49253
-9.85128 106.188 6.90405
10.3446 122.308 -4.94744
-2.97028 151.874 -3.85628
-31.9709 136.002 -0.96703
-16.5026 94.1115 -12.601
-34.2364 131.5 -1.29054
-9.22867 146.296 4.96645
-5.58901 84.2786 -16.378
-22.7933 123.831 11.3661
-3.79116 138.387 -4.08899
-3.80924 110.833 -14.2409
3.63665 131.649 2.75371
-15.0648 83.1477 -15.8481
-24.7385 126.283 8.64777
-19.0202 106.99 -10.7149
-19.5662 110.942 12.5181
-0.449105 147.896 -3.65096
0.789878 149.991 -3.54161
-16.7325 97.6789 10.285
10.3091 121.547 -7.32281
-10.5248 116.88 -8.83384
-7.846 118.089 10.5641
-18.5975 148.797 -1.0448
-28.6945 102.057 -6.73924
-1.74858 102.951 -15.304
-26.1384 122.212 -5.50599
-1.47706 152.614 -3.23916
-17.6664 130.513 -7.35775
-30.3409 96.0096 6.68698
-13.3973 142.965 -5.63066
-3.96486 136.407 -4.19562
-2.69084 123.606 -10.6901
-32.814 126.064 -1.56054
-27.0677 114.948 4.1697
-1.40106 97.6572 -15.5614
1.5685 145.681 3.74081
-10.8813 139.693 -7.65294
-28.4069 130.658 3.19487
-12.3938 127.43 10.2064
-21.696 86.1989 13.0624
-30.1307 135.479 -1.95814
-28.8851 117.332 -4.58643
-0.0541839 93.8351 -14.1094
-15.7386 107.961 -12.4153
-26.0325 128.899 5.47264
0.175372 139.774 5.80453
-29.7782 104.553 0.650807
-29.9159 104.19 -2.15549
-22.0976 132.898 4.54246
-26.9141 127.35 -2.05573
-1.75608 123.886 4.3855
-29.236 81.3906 2.58272
-23.218 134.334 -4.53864
-24.492 127.572 -2.67528
-25.1482 141.294 -2.36297
-0.237404 120.757 4.10435
-26.6631 116.113 3.11784
-4.71924 145.976 3.73101
-15.4272 96.9506 -12.0317
-15.2508 108.11 -12.4028
-12.9151 103.202 9.17507
4.18648 96.6108 -11.1193
8.11294 145.258 -6.53724
-30.584 94.1966 1.32241
-12.9021 82.7772 -16.8889
-21.2709 133.344 -3.02152
-8.73517 119.108 -9.01708
-22.494 128.261 10.2989
-31.079 85.1136 6.93542
-28.1071 85.0973 10.1486
-21.3917 133.572 -2.57911
2.16344 128.588 3.11304
8.07483 125.522 -11.0436
-28.4086 123.896 0.155526
-27.8213 125.465 -1.1927
-10.5639 107.439 10.6304
-11.2882 76.4315 -18.006
-26.8587 126.545 -3.43504
-26.5912 103.649 -7.96812
3.80153 127.805 -9.8153
-4.79734 110.133 -14.2806
-15.7593 106.656 -12.1441
-7.8387 145.899 4.7345
-17.6117 131.419 8.91762
-8.70833 118.937 11.2262
-23.6566 133.019 3.82635
-2.85922 125.928 7.40483
5.17362 107.814 -11.0688
5.28982 110.659 -11.7979
-29.3586 104.334 1.44678
-28.0979 104.597 10.1092
-4.29806 125.33 8.46374
-17.3548 130.546 10.0172
-21.7501 128.828 10.3589
-6.05938 117.764 -12.0628
-4.85409 121.885 8.48576
-24.2263 103.619 14.7819
-21.0685 83.5231 10.6155
-17.7995 127.359 -6.70805
10.2639 124.775 -6.41521
-35.8339 130.033 1.79553
-1.68986 138.805 5.80852
-5.58408 151.654 -4.39698
-16.776 91.7724 10.0881
-28.6864 99.9261 -6.65117
0.926527 78.8336 -10.1797
-7.60321 141.006 -6.23728
-36.5707 130.556 1.35135
-31.3439 135.533 2.57513
-6.65352 121.196 -10.0756
9.06604 115.627 -5.49082
-7.31868 85.6701 -16.4243
-31.5871 127.575 -1.25213
7.80854 122.627 -10.7731
6.13222 128.835 -10.5415
8.22121 121.188 -10.7558
-8.17167 143.803 -6.68818
10.0714 125.704 -9.92172
-32.004 84.5262 2.29648
8.59597 104.541 -9.14156
-21.3826 121.8 11.4929
-19.095 94.3481 13.5288
-30.9267 125.899 -1.0822
-27.7949 124.143 0.901493
10.7238 133.964 -9.50674
-31.9465 86.5196 5.7106
-3.59211 97.9567 -15.7952
-31.7687 128.634 -2.66592
2.05619 137.54 3.78672
-25.2212 130.644 -4.44258
-22.6603 144.108 4.54392
-22.0619 84.9811 13.3949
-26.2219 110.269 -6.99618
-28.0246 80.0795 -5.14319
-0.339587 127.849 -8.37049
1.07127 150.81 -3.58331
-18.8912 102.491 15.3624
8.44298 123.649 -10.8303
-21.4715 96.0324 15.7713
-31.1837 83.1274 -0.677156
-36.1196 129.662 0.0171067
-28.1437 102.459 8.14605
-15.0014 111.191 12.7858
-18.4555 148.98 -0.940921
-0.904897 149.103 -3.94312
-27.084 78.2994 -7.7041
1.26939 96.5518 -13.5423
-28.1636 95.2242 8.28113
-7.4369 126.074 10.2095
8.7085 124.149 -3.63265
-27.5672 79.7939 -3.68359
-16.8414 153.378 1.43473
-3.5019 106.166 -14.8754
-10.6377 104.889 7.59211
-13.0246 104.182 -12.6112
-6.08702 134.247 8.27954
-30.0393 88.553 9.1658
10.0078 127.802 -9.50846
-1.59052 102.032 -15.3868
-8.54677 91.9752 -15.9138
-26.0243 124.166 -3.47354
-16.3741 129.681 -7.68167
-26.8474 115.831 4.48795
-31.4805 126.899 0.395269
-8.84962 124.761 10.6408
-29.032 84.681 9.57883
7.33827 134.068 -8.69352
-7.73782 86.5382 -16.5901
0.995029 92.9898 -13.2839
3.47317 122.646 -9.85622
-10.1836 151.194 -4.76057
-13.8978 82.8267 5.48865
-24.597 138.798 -4.36293
-10.4993 129.195 8.79267
-11.1725 147.732 -5.84114
-2.26916 145.554 2.85904
-14.6953 140.346 5.29793
-7.33094 112.422 6.63499
-2.90736 103.679 -14.9756
-16.9159 109.69 13.061
-26.8169 94.6401 9.52174
12.3864 119.273 -7.93297
-24.4986 100.666 -9.03037
-18.3154 142.051 4.73558
-28.1051 119.247 -3.98888
-19.2597 138.501 -3.53671
-30.7467 95.6394 2.8259
-13.8023 95.7071 -12.7065
12.6521 132.14 -6.30828
-4.44479 116.858 -12.4932
4.65239 136.626 -8.26446
-7.18159 113.209 -12.6956
-21.8213 144.556 4.40005
-27.4108 92.7548 10.1954
10.717 148.588 2.26514
11.6242 147.628 -3.33914
-29.7265 87.5588 -4.20216
0.916193 124.648 3.6322
10.4756 131.216 -4.24656
10.0541 111.55 -8.36048
-12.9479 115.75 12.6331
-2.07345 79.8219 -14.0071
-12.6683 135.594 6.71359
-19.6633 149.319 -0.944402
-26.6434 125.351 -1.49852
-16.7631 105.418 -11.4435
-18.7704 151.337 -0.0178337
-3.75192 149.769 -4.75896
-27.8585 127.545 1.35556
12.5089 137.624 -5.06641
-15.8025 102.801 13.9833
-19.09 90.2988 9.00363
-21.2631 127.138 -6.94594
-14.6928 100.713 8.89428
-15.868 116.116 12.3183
-26.7267 105.566 -7.53604
-13.043 133.576 -7.85335
8.7987 135.975 -9.02396
-25.4579 82.5333 13.7707
-9.78374 111.098 -12.9663
-13.9536 145.699 3.70268
-15.8373 147.228 3.94344
10.3678 119.575 -6.6667
-12.7502 148.422 3.58234
-12.6815 149.442 3.57207
-22.1242 88.3589 12.0881
-32.9511 133.925 -2.57998
-6.77906 111.997 -13.0358
-27.4314 127.752 0.491431
-27.1254 111.605 -6.36314
-14.7614 84.326 -15.7317
-20.8523 133.506 5.8649
-29.3527 82.2528 4.04663
10.8489 118.495 -7.67767
-34.7802 129.958 1.51485
-7.86665 92.9943 -15.6328
-18.3193 135.846 6.25175
-7.42793 119.505 -10.3624
-5.73815 110.415 -13.8131
-15.9578 139.07 5.02728
-0.589156 109.309 -13.7155
-29.8423 107.41 0.660394
-10.6741 99.8928 7.32188
-21.9742 97.1018 16.0954
-19.1589 127.592 -7.32813
-26.0323 117.022 11.416
-7.19566 131.062 9.21629
-2.94933 146.519 -4.46991
-14.0719 100.498 -12.107
6.43061 148.253 1.73917
3.40645 143.091 3.3301
-26.7904 117.362 6.16156
-2.56391 85.8263 -14.4883
-29.8924 128.265 -0.461859
-19.6448 129.612 -5.58092
7.94188 137.854 2.96846
-12.6151 144.085 -5.38195
-6.4157 102.797 -14.0196
-14.2523 127.94 10.8935
-7.57114 83.4559 -16.9508
-9.55691 114.262 -11.7977
-27.2844 113.49 9.81765
6.48086 141.477 -7.70266
-23.5953 100.397 15.3486
5.87391 149.901 -3.92492
-17.9556 126.051 -7.12291
-9.81899 116.663 -9.35796
-13.3767 101.756 8.20949
-18.7479 95.2817 12.0888
-31.4015 137.007 -1.19886
-2.74341 86.9433 -14.7483
-25.9812 82.1815 -8.978
-23.2618 124.389 -4.63242
-28.3253 109.054 7.62472
-28.9266 96.5608 -5.69599
-31.1469 89.9522 -1.60507
-7.40913 139.855 5.11513
-27.6753 106.347 -6.4247
-26.8546 99.6537 8.69759
-17.6452 147.922 -1.3922
-13.6844 138.021 -7.4662
-26.1071 144.227 3.84807
-21.8349 85.9381 14.5948
-23.8263 149.163 0.183353
-3.47092 139.097 5.44001
-26.9519 116.915 9.47805
-8.56159 123.674 -6.36723
3.11055 103.198 -12.9712
-26.2601 107.651 -8.21368
-10.6838 111.76 -11.9801
1.18893 132.421 3.73714
-13.4676 130.028 -6.93987
-26.6342 121.076 -4.90861
-11.5099 116.702 -8.4429
-32.169 85.7269 4.47993
-5.18403 98.4944 -15.2395
8.07913 132.124 -9.582
3.48027 140.132 3.40848
-14.0499 96.8236 -12.3573
-18.5521 97.61 12.5812
3.05595 116.327 -12.4894
-14.7227 122.924 11.8656
-30.9884 92.0675 -2.04671
-19.4394 92.0076 13.8223
-21.2306 88.3885 14.0363
-27.5438 126.406 -1.04304
-13.2939 110.638 -10.6802
-2.20131 100.711 -15.39
9.89887 127.279 -2.98663
-13.8051 120.229 12.3306
-5.70675 84.0597 -16.3991
-23.8894 146.633 3.44849
-27.2529 85.7942 13.2375
-25.4378 94.5157 10.7479
9.84277 121.28 -4.61546
-31.9002 88.6324 3.08012
8.99247 121.28 -7.55653
-14.9348 88.5038 6.08628
-27.2968 86.6634 -6.92114
-21.9946 87.3846 13.9972
-0.672596 144.046 4.29138
13.9647 123.765 -7.77961
-30.853 82.9766 5.5521
-2.3677 98.0981 -15.7214
-27.4913 111.233 -6.09664
-28.977 88.228 -5.37928
-15.6444 101.837 -11.4608
-22.1267 130 -3.90852
-25.4681 94.3585 10.7837
12.3771 135.282 -3.26484
-30.4285 86.5326 7.53347
4.90897 132.695 -8.71868
-28.1872 84.0318 -6.38849
-3.57095 150.271 -4.60574
-26.0977 137.087 -2.92478
-26.8435 131.35 3.56898
10.3254 122.087 -7.40421
-28.1373 127.454 0.752618
-6.49134 87.6707 -16.7456
-26.9114 82.6538 11.3781
-29.2388 105.598 7.84272
-30.3768 81.7768 -3.15867
-23.6535 101.926 15.4214
-35.4795 132.158 3.27604
-11.8646 138.979 -7.59963
-4.0094 80.7933 -15.2384
-18.6832 115.522 12.2868
-32.7605 124.913 -1.17205
-28.9418 93.5295 8.65908
-14.1356 148.728 3.51075
-27.8444 116.072 -5.78139
-6.65414 113.332 -12.8647
3.50577 96.8721 -11.9425
-30.2873 101.309 3.90512
-17.1583 129.817 -7.02015
2.18589 133.702 3.45434
-28.7739 83.0834 9.99284
-15.0423 115.256 -9.55803
-26.3998 86.2481 -7.54581
-19.0538 143.401 -2.21316
-2.89446 132.928 -5.7779
-24.3589 101.675 -9.00583
9.44513 111.285 -9.10077
-22.1616 149.046 3.98754
-19.6761 83.2454 -13.1942
12.053 139.768 -4.07002
5.78121 113.737 -10.675
-9.59518 87.4996 -16.7951
-12.2472 139.193 -7.25389
-27.6979 128.854 3.19764
-27.6866 110.643 8.90704
8.53392 139.635 -8.40913
-30.1406 96.8205 -3.42919
8.24087 115.769 -9.81893
-7.87754 109.355 6.29685
-21.8206 101.976 15.3878
-7.83956 143.639 3.8441
-17.3408 131.246 9.35182
-16.141 129.869 -7.99548
-21.5254 132.655 -4.28053
-16.2334 128.685 10.7823
7.35873 139.57 2.17147
-0.576527 133.486 6.69273
-28.5297 127.937 -2.09445
-6.06709 138.183 6.20283
-16.9006 77.8476 -14.89
-9.22837 105.156 -14.3091
-0.635456 127.64 4.62663
-27.4768 110.658 10.8956
-3.97917 122.354 7.5572
4.64999 130.038 -9.80535
5.37514 137.311 2.32068
-26.1838 144.54 -0.913063
-30.1837 133.171 3.83972
-22.0152 90.2565 13.4171
-3.77075 96.1999 -16.0417
-18.9307 129.664 -5.91962
-5.17646 136.106 -4.3408
-29.0074 134.441 4.71696
-21.899 114.079 -9.67055
-20.5318 151.15 -0.0784422
-23.3705 99.9849 -10.0838
-25.9567 117.744 -7.4792
11.243 149.472 -0.617364
-2.25752 133.469 -5.54098
-16.5001 148.143 -1.36088
9.53022 130.524 -5.23046
-25.2554 88.3163 -9.31612
-3.00687 123.227 -10.8015
-5.00841 132.955 -4.77013
-14.1604 141.601 -6.06806
-3.05186 123.068 5.97239
-28.4778 91.7508 -4.96067
-27.7724 91.2483 -5.92082
-30.6322 127.985 0.311924
-27.9418 129.488 2.49599
-19.3838 93.9208 11.8203
-23.5289 104.67 14.8486
-26.0043 127.85 5.5712
-10.2759 145.952 4.96531
-15.1888 153.369 0.862974
-27.1356 136.195 -2.81794
11.0818 130.453 -6.55956
-15.863 101.399 12.0841
11.7762 136.148 -8.11812
-20.3467 95.7092 -10.944
-14.3862 95.1057 -12.7381
-18.7538 113.482 12.2225
0.807245 129.434 3.76844
2.95752 84.2518 -10.433
-29.3532 81.2476 5.4979
-28.4101 108.469 9.05559
-25.7428 105.574 -8.07002
-20.704 129.088 -5.13762
-7.51263 108.143 6.01142
-25.2333 142.295 3.78551
-19.2501 144.25 4.89623
-16.9875 97.8473 11.1784
-17.2495 127.083 -6.46379
-16.4997 115.299 -9.73511
6.79838 122.157 -11.3265
-15.8065 77.0715 -15.8649
-23.4774 140.858 4.89812
8.40304 138.416 3.42718
-17.6567 98.7048 12.8564
-28.5106 85.9195 10.3104
-10.3074 114.964 -10.0582
-15.9801 108.736 -11.5795
2.59312 134.436 -7.60958
-35.1299 127.527 -0.512158
0.372518 99.6829 -14.8368
-30.0724 130.629 -3.4138
-19.7275 130.149 -5.90464
-16.6579 133.556 -7.26761
0.672246 134.713 4.41399
-14.7203 149.079 3.55372
-5.99531 144.341 3.304
-18.8826 104.683 -10.6675
-25.0443 121.073 10.8485
-10.1214 153.268 -1.77341
-4.63725 118.888 6.02356
-18.7987 146.922 4.25833
-25.7772 84.6102 -8.85623
-28.8447 106.045 7.09316
-19.6607 96.7579 13.2691
-15.7025 85.0353 -15.0647
0.686936 134.103 4.65842
-28.9384 109.758 -0.691616
-28.2912 106.703 4.95822
-27.4078 92.6025 -6.23859
4.5478 131.856 2.88644
-29.27 96.7536 -5.29337
1.53152 138.826 4.8697
-28.9297 121.436 0.697589
-7.65001 122.794 10.6998
-28.0538 113.506 3.41288
-23.1145 124.717 -4.00135
-30.154 95.8811 -2.06535
-6.73379 143.068 -6.17307
-33.5501 138.079 0.759379
13.1103 146.844 -0.518193
-23.0133 97.3858 13.2841
-9.18629 82.7985 -17.32
13.2316 143.095 -0.643877
-19.2738 140.652 -2.29696
-32.2166 130.3 1.05658
-8.03116 78.3754 -17.1727
-16.3877 145.258 -3.62772
-24.2334 126.41 -3.17568
-1.5426 144.629 -4.0052
-27.6797 130.369 2.90183
4.37802 136.416 2.3481
-7.66796 134.147 -5.20102
-22.3692 94.8568 -10.9324
-17.2982 86.9829 -14.2954
-20.9742 151.764 1.00798
-13.4798 102.422 8.95142
-12.8522 141.657 -6.57913
-26.0248 99.0125 -8.84227
-3.96809 136.126 -4.21176
5.07881 152.675 -2.97221
-3.74771 140.215 4.9616
-9.78476 135.185 7.37957
-26.9809 106.764 -6.77733
-14.2098 102.675 10.5457
-38.9166 129.732 1.7198
-29.2549 122.614 -0.161098
-5.1115 138.276 6.2001
-29.4823 108.822 1.43175
-23.3999 128.296 -4.03614
-18.3225 131.592 8.18932
8.62326 108.389 -9.08126
-14.443 142.401 4.06779
-24.1855 140.999 4.65364
-11.3439 95.1304 9.40751
-15.4931 94.7521 8.72108
-15.2769 128.629 10.7585
-20.6174 84.1068 6.30194
-20.1815 123.355 11.5332
-18.6807 100.77 15.535
-11.8879 86.5514 -16.5456
-17.4048 133.336 -5.6435
8.88022 126.221 -10.9289
-28.4532 114.322 -5.33628
-28.6289 109.853 -3.12109
-3.71335 132.29 -6.03539
11.4608 131.323 -6.02441
-21.2233 106.979 13.6719
-8.48764 111.52 9.37372
9.7685 150.995 1.78946
-29.8661 101.931 -4.37874
-7.3289 136.722 6.58739
6.21189 102.345 -10.7595
10.4288 124.916 -6.60299
8.5077 121.01 -7.11346
-4.56073 150.74 -4.59375
-17.8941 96.7157 11.3504
-13.0781 111.585 -10.2573
11.1237 119.337 -7.81843
-20.2396 99.319 -10.763
-26.4157 116.411 10.992
-15.137 150.299 -2.79281
-32.2866 137.389 -0.812111
-19.3861 92.6586 12.681
-33.0662 125.215 -1.11951
-13.9361 110.43 12.3138
-13.5348 104.891 -12.5677
-22.8044 108.167 -9.95608
0.921921 134.915 4.41184
-10.5586 136.27 6.65227
-16.284 152.069 -1.17619
-13.1544 119.884 -7.56591
-18.2509 126.031 -7.32648
-33.9431 130.95 0.283191
-26.2874 119.104 3.81803
-26.0614 125.45 -0.816458
-18.1138 125.729 11.1402
-24.7063 147.763 2.74995
1.96262 120.932 -9.87822
8.45789 140.46 2.91372
-3.18506 116.988 -12.2543
-4.54678 125.293 8.69166
-28.8811 103.61 -6.52291
-19.2886 84.3229 -13.413
-21.8171 95.3834 15.0631
10.7043 127.069 -4.96744
10.5393 121.584 -8.2032
-7.85689 117.438 -11.4297
-31.0791 91.0835 -1.74529
-13.6189 105.539 12.5727
-17.1577 117.28 12.1439
8.51581 122.062 -7.40675
-14.8935 110.866 12.6663
12.2041 142.162 -3.50194
8.25952 135.487 -8.8816
-12.3415 143.37 -5.89712
7.35805 154.638 0.0596868
-17.9512 106.573 -11.2794
1.86622 86.6681 -11.3589
-18.9994 106.031 14.2522
-17.3359 138.184 -4.55757
-4.04294 137.925 -4.07773
-21.1157 82.374 -12.705
-6.78302 147.043 -6.03733
2.55151 122.022 -9.08884
-11.3043 112.198 -11.0631
5.73553 145.864 -5.90888
-30.614 95.466 1.78192
-17.5358 135.872 6.62961
-22.3525 128.442 -5.15487
7.10446 100.023 -9.30888
-22.477 109.637 13.3105
-4.9548 114.446 -13.3254
-11.1837 114.221 -9.93029
-28.7191 116.317 0.371267
-22.8253 127.768 -2.44559
13.1466 136.066 -4.97092
-0.365423 76.5453 -10.1257
-29.7436 105.847 -0.18942
-27.2971 112.305 9.15873
-17.9456 133.574 7.76446
-29.1032 136.991 2.37569
-29.4628 97.8215 -1.5071
-30.8376 93.3852 -1.5369
-30.8714 97.7673 2.23397
-25.9663 96.4454 9.50133
-27.574 133.689 -4.67521
-23.7808 84.795 -10.7794
-32.151 133.982 -2.65709
-10.0019 103.744 -13.9278
-3.01447 126.473 -9.44867
6.44147 97.3025 -8.99609
-16.9193 152.129 -0.999728
-13.2665 114.092 12.6992
-32.7958 134.745 3.24084
0.217015 122.896 -10.2376
-7.91709 96.4286 -14.5737
-18.6178 134.258 7.56754
-30.123 90.1412 -3.61265
-18.6025 132.966 7.94911
-28.9674 105.824 7.21514
4.47836 138.572 -7.97995
6.3805 141.907 -7.55701
-19.7543 93.5992 11.4912
-14.0244 143.57 3.99473
-29.712 105.864 -0.660752
-33.9706 128.366 0.22896
-27.8664 96.1399 -7.0704
-24.4751 126.469 -2.26622
-30.0317 125.307 0.858798
-27.8685 128.026 2.64552
-18.7159 112.041 12.3868
-21.622 87.3911 13.5422
-2.13563 147.67 -4.26792
-27.266 127.084 -3.30463
-19.4353 138.365 -2.8281
-13.8617 119.486 12.3371
-22.2401 114.334 12.8181
9.21698 126.517 -10.8514
12.3797 144.192 -3.20856
10.1045 129.654 -3.39052
4.65018 107.052 -11.2264
0.561325 132.769 -6.949
5.54101 101.752 -11.0766
-31.0296 137.046 -1.40973
-7.6213 135.114 -5.43669
-16.1489 92.0599 8.27732
8.54402 116.644 -6.32345
-25.7421 125.682 -1.71298
2.42687 133.449 3.17772
-26.4237 129.121 4.68763
8.18847 151.929 -3.07255
-31.1112 92.3256 7.30872
9.82126 121.664 -8.29267
-11.3236 128.348 -6.09976
-33.9464 129.162 -0.0858175
-1.56893 100.29 -15.6246
-30.2701 100.548 -2.93807
-12.9437 101.248 7.83149
-5.80395 105.568 6.0429
-30.5366 95.1238 1.50651
-9.24648 124.844 10.5478
-15.1064 103.944 13.5695
-15.2677 130.091 10.2026
12.8826 142.566 -1.52173
-17.8814 141.081 -4.33378
-26.2343 109.831 -7.34222
-30.7624 134.536 -2.31015
-24.9977 107.184 13.794
-15.5927 136.767 6.78666
-23.1089 125.747 10.8818
-24.9773 104.39 -9.16594
-12.645 123.017 11.2274
-31.2333 127.068 0.797079
-7.39667 145.172 4.19907
-13.462 143.431 3.96074
-4.89886 89.1988 -16.3809
-23.8993 121.886 11.5821
-12.9231 110.413 -11.0163
-17.026 137.009 5.99142
8.10304 150.511 -4.26942
-20.508 151.21 -0.0396325
-4.1783 128.782 8.56758
-28.5571 134.089 -3.48602
-8.87112 110.061 8.90449
-3.70524 114.987 4.86613
-27.9297 145.464 0.883421
-2.56983 153.374 -2.74637
-3.66245 88.5128 -15.7299
-21.7148 126.741 -6.93784
-20.0424 115.314 -10.1032
-26.4193 99.8059 -8.50552
-10.8261 111.959 11.7667
-17.453 141.852 4.587
12.6443 134.012 -3.91652
-24.2816 78.7932 -10.5742
-30.2084 138.505 -1.29129
-0.933471 119.853 -11.9528
-3.19087 138.658 5.72415
1.51963 136.08 4.18495
9.72488 136.016 -9.21571
-19.3235 88.8788 12.9251
-21.1026 139.03 5.48605
-23.9596 84.0146 12.9997
-17.9133 91.7157 10.6889
-29.3499 108.394 2.90462
-12.5476 145.582 4.3413
8.11509 107.646 -9.32664
-12.4607 93.2627 -14.1026
-21.1321 148.929 -1.21154
-20.8418 96.1618 16.4353
1.09261 145.977 -3.76098
-18.125 121.046 12.0033
-3.1655 120.593 4.8822
-9.80875 126.578 9.75305
-19.9393 86.7164 10.3943
1.41846 144.889 4.5554
-16.4562 141.867 4.58404
-25.8993 145.034 3.48843
-30.2226 127.649 0.257922
-18.2569 151.79 -0.240253
4.91997 92.4121 -9.82241
-30.0681 98.1129 5.25351
-18.7336 140.498 -2.48855
-29.2286 140.202 2.05486
13.1221 143.108 -0.953972
-23.3498 122.659 -7.70104
-9.08543 120.083 -8.14428
-32.1399 84.6457 4.98443
-0.159968 113.618 -12.4828
-12.2188 96.0582 -13.0469
-5.89367 111.539 -13.4883
-23.155 140.404 -3.32392
-29.024 126.741 -0.840269
10.8476 140.274 -7.43917
-9.1709 99.0054 7.6044
-3.61749 93.7216 -16.0439
-23.0873 137.723 4.57643
-23.0013 88.9783 12.5542
-22.6716 100.328 16.1552
-9.06796 102.505 6.99306
-22.7366 129.464 -3.91727
-24.2323 125.497 -4.71743
-31.5174 90.8185 5.7527
12.3413 148.764 2.9696
-1.2624 93.6041 -14.9586
-19.9329 84.4347 5.84765
-13.8707 97.3822 8.02131
-10.5672 116.939 12.0665
-27.4733 125.908 -1.08191
-31.013 94.847 3.78565
-24.5621 79.9095 -10.8768
-6.80519 154.693 0.228081
9.81948 144.512 3.10656
-19.6939 136.68 5.72128
-0.068805 95.0928 -14.4847
-14.1534 119.372 -7.92144
1.14765 137.728 -6.13183
-1.91195 125.856 5.97134
-27.6126 104.728 10.911
2.92665 105.253 -12.4686
-29.0474 119.149 -3.12116
-26.1951 124.123 -1.58273
-12.1025 147.151 -5.02938
-3.64358 141.692 4.24104
-16.6716 85.3858 5.48644
-24.79 97.6826 10.947
-5.94333 111.174 -13.5547
-20.2619 143.394 -2.4719
-21.6041 134.454 4.69155
-14.6662 133.352 -8.80148
-7.89027 140.591 4.66047
-29.1282 79.4384 1.20924
-23.2037 129.373 7.46033
-7.89039 84.9934 -16.5818
-13.8246 152.747 -1.59345
-12.5637 124.371 -6.57856
-31.3024 91.2247 2.51231
-4.96943 128.765 9.05321
-10.4866 141.153 4.32867
6.00981 144.542 -6.52231
-4.49752 112.487 5.14424
-14.173 152.355 -1.83169
-28.6599 82.4259 9.06764
-5.97369 125.297 9.76169
-26.8383 90.8378 12.8476
-9.22749 105.405 6.80888
-7.71709 76.9143 -16.9196
-16.8318 107.685 -12.0994
-19.6163 128.497 -7.20897
1.55618 137.27 4.36642
-26.2857 140.665 2.83397
-24.0422 79.057 -10.8419
-21.6189 100.62 15.834
11.2215 151.767 1.38418
-21.8413 89.2569 12.4004
-19.3803 139.95 5.15955
-6.05717 96.0583 -15.6003
7.94171 111.825 -10.4412
7.28438 130.117 -10.459
-18.1997 119.606 -8.90478
7.27738 140.666 -7.98912
-15.3986 83.194 5.83838
-21.5393 123.37 11.2307
-27.9992 91.8275 10.4096
-25.1479 148.416 1.31348
-10.6151 89.4798 -16.2413
0.250566 120.531 -11.1932
-0.607803 129.566 5.33071
-29.691 87.25 9.66658
-29.6231 98.3079 -2.10925
8.88156 140.676 3.32903
-19.3099 100.161 -11.0108
-16.9306 102.757 14.6486
-0.365799 79.7319 -11.9975
7.89189 149.718 -4.57205
-8.96553 81.0104 -17.3792
-12.1228 140.404 -6.76627
-27.0381 130.341 2.47125
-18.0661 114.717 -9.91857
-18.9568 152.478 2.427
-0.579829 106.551 -14.7802
-13.5116 152.516 -2.16034
-0.952569 112.063 -12.8712
-23.444 128.244 9.51082
13.3145 133.526 -4.15267
-27.9099 109.451 10.2131
2.48677 140.517 3.68972
-20.9494 133.592 -3.22373
1.78203 132.666 -7.12981
2.36062 95.4966 -12.5357
-26.1125 144.803 3.61453
-10.368 110.372 11.3514
-27.3583 113.7 0.532314
-16.3075 91.4358 7.20828
-23.9449 104.167 15.0023
-28.3334 127.084 0.656341
-16.3722 93.5481 10.558
-21.4318 105.576 -10.3241
-18.2698 142.771 4.51977
-13.3932 95.4125 8.28031
2.82662 126.561 -8.88561
-2.86476 112.968 5.01984
4.9829 126.364 -10.5912
-8.55101 141.05 4.30031
-28.2248 120.147 1.07878
10.3911 126.84 -5.52222
-31.3551 90.4936 1.67652
-28.9638 111.26 -3.76381
-31.9456 84.0275 5.99541
-12.3162 132.843 8.05563
-14.6366 148.48 -3.14372
9.05169 127.263 -2.74197
9.4027 141.212 -7.84055
-19.9502 140.777 -2.60053
-18.3984 110.027 -10.7377
-29.5047 86.1247 8.98399
9.9619 124.728 -6.03687
-13.3657 106.097 13.017
-14.3549 127.518 10.9629
9.94819 125.488 -5.89437
-17.9896 149.342 -0.71756
-23.0704 105.238 -9.89837
-28.7474 79.6818 -2.64599
-12.1197 149.754 -4.98629
-5.14006 144.498 -5.23734
12.8669 147.745 -1.46096
-2.03234 100.353 -15.5606
12.6915 137.267 -3.98238
-25.0714 125.125 -3.98452
-15.5144 93.2537 -13.0929
-37.7129 130.723 1.61118
-26.0661 133.231 -5.1835
-24.953 141.494 3.90143
-2.78724 144.299 3.34191
-9.0553 121.308 11.3924
-24.0164 146.063 3.35469
-6.90033 98.0265 -14.5722
-26.7756 126.667 -0.732303
5.38519 106.983 -10.8622
-8.85352 134.273 8.02807
-5.35649 141.243 -5.15876
-23.9984 97.9545 11.9985
-14.8747 146.871 3.72958
-17.3783 84.0976 6.44051
-27.0561 119.541 2.6408
-8.52539 116.71 -11.4448
-10.583 135.677 7.01167
-19.0096 122.429 12.1753
-29.695 84.2205 9.19689
-31.3084 82.2446 4.10891
-2.63272 126.74 7.35001
7.37642 99.9068 -9.08443
-28.9881 138.777 2.02117
-24.8247 139.585 3.46485
-18.1812 140.065 -4.62576
-28.4586 119.631 -3.0426
4.56547 102.259 -11.9578
-22.8039 134.203 -4.47615
-1.36891 145.323 2.51288
-2.59649 135.152 7.55698
-18.1926 148.896 4.12091
-4.94284 105.9 -14.427
9.94269 133.157 -9.49188
-22.9509 144.865 4.30005
-27.6164 98.7559 -7.90274
-25.2979 126.584 -2.72046
-14.3113 85.8958 -15.6621
-15.5577 152.993 3.48471
-18.5787 127.696 10.6892
6.1998 144.241 -6.67741
-3.42624 137.376 6.64228
-2.28849 123.269 4.80181
-23.5491 127.8 -2.49831
-28.6854 81.6023 7.41293
-21.7872 109.215 13.1143
-13.9132 94.2048 -13.0763
-10.2 115.046 11.7068
-28.8109 105.984 3.06717
8.69809 122.143 -7.56779
7.68609 114.948 -9.71272
3.30275 116.171 -12.3223
-23.4749 124.882 -5.23572
10.1383 126.408 -9.55304
7.37916 100.458 -9.32131
-14.2959 125.492 11.2309
-18.1138 140.143 5.56744
6.30899 115.122 -9.84961
-22.6734 143.477 4.56786
-3.76001 124.781 7.933
-25.4189 129.261 -3.99456
-15.6298 138.646 -6.02818
-27.3066 100.187 8.3887
12.879 122.288 -8.87976
-33.7089 128.305 0.539941
13.5013 149.331 1.36358
6.10675 102.417 -10.852
-14.4584 120.179 12.322
-19.994 86.6336 10.6511
1.41847 105.499 -14.0777
-27.5918 145.687 1.31063
-8.30921 145.796 4.87151
-13.6917 93.8977 -13.2043
-8.6167 105.924 -14.3951
-17.5094 150.95 -0.824383
-33.764 128.81 -0.681942
7.54156 137.793 2.60966
-9.29173 117.555 11.4416
-3.76713 125.323 -9.57562
11.9976 144.019 -4.95552
-10.9675 133.941 7.94205
-30.6089 100.238 3.43924
-35.157 131.519 -0.182803
-12.8742 105.147 -12.843
-7.10285 106.591 6.00866
-26.5129 116.558 10.8829
-7.50254 139.22 -6.1401
-31.8626 86.9554 1.61638
-5.55052 122.833 9.38567
-11.5171 112.377 -10.8271
9.79815 129.334 -5.93066
-27.4359 103.631 -7.52688
-1.7347 90.9586 -14.8426
-26.5389 114.144 -7.36607
13.1263 149.75 1.12416
-1.36585 126.898 5.46064
1.56735 85.6417 -11.588
10.3066 128.707 -7.11386
-29.0302 115.914 -3.82945
-5.69184 141.689 4.32669
-12.5494 102.239 -12.9274
12.3254 138.573 -4.68327
12.2971 151.049 1.27996
-27.5732 127.28 -2.14607
1.59908 117.492 -12.3477
-30.1014 88.7908 9.0961
-15.9616 122.313 12.3392
-31.4934 82.7326 3.40552
2.36812 126.947 -8.3244
-21.0714 91.0082 -12.5184
-9.95338 152.932 -2.71377
-14.0899 118.083 -8.09539
-13.8866 134.043 -8.57953
8.28286 126.617 -4.39999
-10.2086 135.16 -6.64878
-7.01031 101.618 7.06639
-23.9518 147.965 -0.66032
-26.9942 125.088 -2.31878
10.0215 149.806 -2.94067
-28.7248 134.777 4.87853
-20.7429 110.649 -9.94003
-26.8479 124.752 6.691
-27.2451 104.525 11.4947
-25.0991 129.198 -4.14739
-28.1037 105.499 -6.64496
-20.5205 78.6635 -12.3651
-30.7895 84.3434 -2.26434
-6.90376 146.259 4.54179
-7.23529 126.276 10.0981
-5.80206 135.999 7.1955
-9.9185 100.844 -13.118
-13.2171 112.105 12.5814
-11.2408 112.832 12.0642
-24.9443 118.407 -8.16023
-21.6202 87.8821 14.7506
-26.7465 126.508 -0.858787
-3.53029 78.2125 -14.7259
0.820597 105.533 -14.5989
1.86452 122.868 4.02423
-18.6698 148.951 -0.97586
11.0876 121.132 -5.94023
-26.0916 125.861 7.53615
-29.5767 127.091 -0.831147
-8.43633 108.593 -13.5937
0.932962 132.423 4.05922
-25.9036 140.294 3.0172
-30.6131 87.4564 7.58102
-17.3916 91.8084 8.72144
-9.11449 93.6007 -14.9487
-7.88182 132.843 8.55928
-26.1085 92.5618 12.2297
2.82509 108.274 -12.3546
-1.81944 146.314 -3.9882
9.68317 128.639 -10.3804
8.29686 148.194 -5.21619
-25.0879 91.1572 14.125
-27.9685 126.13 -0.991854
-10.7211 103.619 7.93989
-2.77043 117.723 -11.8884
5.41596 93.7033 -9.48481
1.58779 132.193 3.46073
13.9051 134.82 -4.3036
-7.08689 94.9154 -15.4061
-5.77556 118.374 8.01316
-23.001 91.2792 14.688
-25.5868 137.543 4.28447
-33.1118 133.282 -2.88521
9.9626 126.204 -5.97059
-23.8444 144.195 -1.96447
-17.0313 104.509 14.654
4.4167 137.106 -8.31541
-31.0602 83.6939 -1.2826
4.42035 118.487 -10.5963
-5.11834 108.751 5.49562
-0.723749 115.747 -12.1352
-18.8053 93.2892 -12.4832
-29.5672 102.344 -5.09328
3.90846 137.99 -7.77308
-16.5707 103.796 14.5703
-32.1448 128.91 -0.0812063
-27.4265 111.19 9.49231
-16.8121 128.121 -6.89709
-4.84501 137.784 -4.19282
13.1614 135.407 -2.94023
-4.01982 97.8066 -15.7829
-26.9785 140.285 -2.63393
-18.7755 131.389 8.55977
-7.09263 117.062 -11.9047
-23.1411 125.405 11.0557
-24.5125 128.116 8.36126
9.43122 119.441 -7.66376
-28.3079 124.948 3.06585
9.73523 131.545 -4.33025
0.870344 144.865 -3.99329
-17.529 123.6 -7.66202
-37.3902 127.976 0.888902
-4.18622 132.495 -5.67362
-23.6242 110.296 13.4171
2.20757 141.052 4.06576
-2.77333 128.301 -8.51835
-9.73918 137.436 6.16597
-22.9143 140.243 5.19268
0.576821 128.717 -7.54559
-21.4544 127.517 -5.75265
-12.4028 131.626 8.68943
-29.1856 115.694 -2.73737
9.49438 129.648 -3.95467
1.68557 120.585 4.49045
-3.24936 82.8964 -15.0582
-22.3372 112.645 -9.22425
-7.27199 128.745 -5.36972
-10.2335 76.6351 -17.5936
-27.5975 96.0747 8.52071
-12.4766 92.7409 -14.3125
-1.66553 95.3263 -15.5152
-31.3613 89.8797 1.01469
-11.4508 104.361 -13.422
-21.4241 113.345 -9.64711
8.79976 120.374 -10.9551
-6.58128 139.058 -5.82388
5.70095 131.313 3.46899
-5.42545 106.38 6.0014
-3.97248 115.291 -12.9402
-25.7068 109.783 13.2081
-8.6698 134.052 -5.55471
-8.23662 111.505 7.51657
4.69328 140.472 -7.36608
-29.0119 105.439 6.06017
-23.7767 94.9254 13.5879
-25.0122 115.375 -8.69082
-26.2905 116.633 -7.33097
-27.396 112.63 8.85422
10.578 120.718 -6.28244
-25.1119 116.264 12.3346
-2.37721 123.453 5.11699
9.25119 123.986 -8.78828
-18.4453 87.9974 7.54503
-33.6546 128.786 -1.70212
-31.5843 82.3461 1.38364
9.52824 150.963 1.70867
-30.6058 81.1052 0.00958208
-25.4227 80.2309 -10.25
-31.0192 85.6833 -0.874358
-20.9418 95.8405 16.3216
9.30831 143.336 -6.95552
2.36095 89.0964 -11.4059
-29.0207 123.789 -0.946066
-5.07564 123.891 -9.25092
-31.1843 139.064 -0.884739
-9.14728 133.201 8.35973
-28.4072 127.616 1.65207
-30.0071 103.018 -3.19871
-5.20689 88.0947 -16.4527
-2.4002 109.254 -14.4794
-28.1135 126.976 -0.484209
-33.2146 137.256 -0.351614
-28.4634 89.0818 -5.58393
-32.7038 132.74 -3.30332
-13.8389 113.031 -9.942
-16.0882 124.756 11.6281
-23.7097 94.5384 13.5916
5.79754 102.018 -10.9462
-30.1584 134.97 2.93321
6.78129 150 2.38515
9.50338 126.056 -7.35334
-7.29342 116.009 9.75554
-0.164528 126.622 -8.79035
-20.2791 105.092 -10.6391
-17.2954 120.962 -8.3289
-9.32299 141.435 -7.34809
-15.3625 80.2911 -15.6992
-28.8036 82.0131 8.18802
-24.1291 128.845 8.47652
8.77349 130.265 -3.70778
-12.1042 126.252 10.2061
3.46969 106.865 -11.965
-18.5287 129.75 -6.13124
-26.1971 142.798 -1.29808
-4.47416 86.922 -16.0321
-24.6056 125.691 -1.55086
-21.4806 119.858 12.0313
-17.6802 135.846 6.35822
-36.7414 132.96 2.56396
-28.7207 116.112 0.300544
-28.2445 122.604 2.93731
9.11336 119.988 -10.3738
-27.9447 81.7441 -7.40072
-31.5968 137.699 1.68101
-18.023 144.57 4.26737
7.56016 129.594 -10.6721
-25.8346 130.566 4.04185
-2.69342 131.611 7.63237
11.7237 130.931 -6.34353
-21.4676 87.7418 13.5043
-20.8438 92.2619 14.0365
-28.2216 110.3 5.79528
-7.64742 81.281 -16.7773
-21.4288 132.098 -3.80116
-32.4257 131.374 -3.23753
2.00429 123.41 3.95759
-25.1838 93.9595 -9.52961
1.09072 138.884 5.64044
-8.44308 110.334 6.90623
-22.5847 138.986 5.07953
-23.3744 105.265 14.6852
-29.6389 104.695 -2.92422
-16.4693 92.4214 8.08287
-14.7221 115.898 -9.22818
-1.65239 119.637 4.32312
-19.2581 134.008 6.85986
-18.9054 96.9332 -10.8304
-24.2622 127.144 -1.95175
-3.59641 132.975 -5.52624
-6.74299 129.348 9.44468
-5.77041 134.956 -4.53626
7.11649 150.548 2.31761
-20.2921 151.791 2.85267
-6.73975 95.0088 -15.5289
-19.7287 118.771 12.3755
-10.2962 86.6831 -16.8798
-30.863 97.5535 3.45809
-26.3094 101.493 11.2786
-24.6265 85.4013 12.7134
-28.1575 88.741 10.8132
-22.8681 127.3 -4.9056
11.7779 119.016 -7.81564
-27.1004 114.972 4.5156
-38.226 129.551 0.576383
-18.4971 123.538 11.9044
7.67194 104.11 -9.79513
8.34034 127.861 -3.36818
-2.91694 121.594 5.08099
-28.2185 109.089 8.94097
-22.3744 146.383 4.05146
-21.7539 110.434 12.7332
11.241 130.178 -6.316
-3.45275 119.635 4.90263
-21.0527 117.986 12.657
9.91133 127.326 -6.20596
-18.0188 88.6904 5.90486
-13.5721 131.009 9.89407
-25.7163 129.458 5.69722
-29.3788 119.435 -2.35159
-3.34197 126.568 7.97002
-2.54893 113.744 4.91088
-26.2476 125.688 -2.84398
8.91896 125.09 -7.79842
-31.2349 137.822 1.588
-13.9027 115.161 -9.1693
-8.63893 137.264 -6.49345
0.239845 113.233 -12.763
-20.0267 77.8093 -12.62
-26.9462 139.088 -2.85114
-19.6289 79.1242 -13.0508
11.3808 148.303 2.71444
-32.1462 86.7531 2.88414
-9.54762 135.477 -6.42118
-10.4937 106.851 9.75518
-21.8318 144.086 4.54335
-26.6231 118.575 7.11042
-28.2975 101.467 7.99619
-28.6902 128.132 1.93831
-16.872 137.21 -5.07625
-10.9162 150.379 -5.18861
-27.1437 83.0033 -7.80928
-26.9667 130.818 2.93853
-0.411985 139.035 5.93311
-23.0844 97.5641 13.6307
-29.849 88.4116 -4.12799
-22.4027 130.138 -2.31673
-6.06382 108.585 -14.2556
-31.2496 83.2639 -0.423774
-24.624 88.9072 -9.87995
10.2262 130.291 -6.92218
-20.8807 84.0313 9.13389
-27.0299 122.365 4.94878
-21.3294 82.2809 -12.6399
1.48555 96.9416 -13.3949
-1.82721 132.571 -6.39225
-22.7699 110.693 -8.93725
-31.4623 87.1832 0.101961
-31.1996 81.1523 1.77355
-19.5054 101.773 -11.2889
-3.08708 98.6957 -15.6594
-22.1708 149.568 3.6507
-19.9181 137.063 -2.77744
-19.2927 84.705 5.25079
-21.574 136.62 -4.73423
-1.49335 76.3451 -11.6006
8.315 125.358 -1.2725
-3.13167 87.3616 -15.1037
-26.8031 139.32 -3.24041
-6.90649 134.161 -4.9467
-19.4875 120.718 -8.47454
-28.2612 100.088 -7.22982
-29.4317 127.201 0.547921
-27.2543 127.137 -3.20022
-1.45901 149.662 -4.19784
3.68171 119.637 -11.1061
-11.3675 120.77 11.9409
10.41 129.21 -7.8268
-29.8727 80.9624 -4.13392
-21.9963 101.835 15.4391
-21.2871 145.048 4.68018
-34.806 129.43 0.449682
3.71456 97.7393 -11.9222
-17.7522 117.732 12.087
-21.6233 127.534 10.8349
6.11464 147.036 2.04317
3.06011 152.822 -3.02083
-18.7791 139.053 -3.05758
-22.0456 128.865 -5.27761
-22.9364 128.888 8.7037
2.50652 84.8441 -10.951
-17.7361 107.52 -11.7291
8.86862 119.941 -5.45274
-14.2185 101.262 -12.2252
-16.0415 137.258 6.25002
-28.271 126.804 0.200858
-23.0326 119.316 11.6857
14.1215 124.047 -7.56503
-29.0959 92.2119 -4.61079
-28.2599 115.204 -5.48884
-1.19448 132.86 6.88886
-19.6909 130.449 -6.15194
11.1531 137.84 -6.69081
-23.3979 117.125 -9.10654
-7.99968 126.915 -5.64888
-11.5642 142.796 5.06675
-25.7175 129.911 4.6944
-30.7792 91.9298 7.83394
-27.6992 104.556 -7.37174
-1.6106 121.082 4.18371
-30.2843 81.3106 -1.38542
-26.7546 102.862 -7.93491
-6.8976 85.5583 -16.3646
-2.2195 144.198 3.62044
-26.9698 115.046 3.56502
-21.2727 130.663 8.79323
-5.91329 142.01 -5.55782
2.20729 132.47 3.10765
-29.1497 107.686 -5.49485
-2.19323 126.505 6.61505
-2.47441 140.391 5.20573
-33.6087 134.931 -1.11239
-25.6759 89.1276 13.6366
-19.5092 125.251 -7.46428
2.50823 116.785 -12.3654
-24.0717 102.263 14.6546
-4.7707 135.988 7.39592
-20.8203 84.0297 6.47046
-14.5847 116.22 -9.04113
9.84135 122.504 -8.84091
-27.5002 100.742 8.31592
-19.5427 110.313 -10.3926
-8.74297 144.906 4.88214
-19.6934 151.801 0.381239
9.01682 141.266 3.34336
-5.37614 131.328 -5.28632
-20.062 128.442 -5.81035
-29.2633 80.778 -5.62057
-21.0773 95.2824 16.2787
-25.9752 121.218 9.70757
8.53405 104.922 -9.22091
-22.4581 140.297 -3.53454
-17.0248 92.315 10.1135
-23.8004 119.246 -8.52158
-20.0471 98.0762 14.7282
-18.7556 151.842 3.60249
11.588 125.364 -7.44916
0.359238 89.8696 -13.3003
-4.26009 140.69 -4.49356
-12.1108 118.068 12.3974
-1.20409 116.72 4.56034
-26.479 126.564 -1.36466
-6.06877 130.344 -5.27478
-26.2928 118.618 4.96601
-31.1679 92.8706 7.07807
-18.1128 141.399 -2.43924
-7.10929 121.559 10.3799
-30.3056 89.6478 -3.57684
-15.5073 129.983 10.2981
-5.01294 104.713 -14.3727
4.32173 147.382 3.20279
-2.20499 120.392 -11.5063
-26.18 119.598 8.70727
-20.2527 99.3017 16.3139
-6.29021 138.666 -5.6885
-16.377 82.929 -15.1497
-24.6623 82.5905 13.7314
-23.7331 108.899 13.8002
-8.56295 104.97 -14.2689
-19.095 128.686 -7.21352
0.311575 127.42 -8.20728
-26.1166 93.604 10.7779
-26.5014 116.528 10.8959
2.47401 112.536 -13.1319
-21.5399 97.337 16.5876
-3.12079 141.209 -4.00029
1.94439 132.816 -7.2534
8.25967 145.815 1.87403
-27.1249 116.24 6.25478
-19.5431 137.214 -3.06729
12.1351 139.331 -2.85132
-29.7193 106.599 -2.93005
-32.4229 134.981 3.03662
-29.9455 104.225 -0.740832
-7.54664 132.266 -5.03289
-3.91594 79.4965 -15.1207
-13.8719 102.388 9.58484
-13.9158 135.456 -8.36541
-25.108 106.778 -9.04111
-14.1849 137.566 -7.47765
-12.4327 114.213 -9.24678
-23.6972 148.687 -0.301206
-4.34326 127.432 -7.67335
10.122 143.168 -6.29693
-29.5221 125.226 0.992502
-1.91989 114.299 -12.4363
-32.2028 84.6847 3.73095
-2.69498 103.853 -15.0704
-12.5893 120.642 12.1438
-23.304 84.8561 12.6776
-9.14567 114.708 10.9724
-6.20831 104.279 -14.1837
-21.8013 101.972 -10.5053
3.17433 126.897 3.43229
13.0307 136.359 -4.5099
-29.8284 97.5451 5.98617
5.02017 90.5512 -9.49391
10.2224 132.053 -4.44858
-26.2026 101.066 -8.33256
-13.5142 87.2562 6.50917
-4.32369 94.6879 -16.2353
-34.2073 127.705 -0.509574
-30.9398 94.8701 6.351
-7.79563 90.118 -16.5525
-15.0937 111.049 12.7711
-9.40196 91.7798 -15.6919
-31.7486 83.5161 6.74668
-8.69833 147.576 -6.5163
5.72728 109.767 -11.271
-16.5587 107.83 13.226
-17.1707 116.867 12.2027
12.5701 134.994 -4.78035
-12.3065 107.215 -13.6356
12.3468 138.488 -3.53008
-24.6402 113.611 -9.03895
-30.8782 89.232 7.7014
-27.6954 130.085 -3.70953
-20.1158 118.747 -9.10289
-2.55162 144.313 3.38922
4.88115 128.737 -10.2634
-18.494 77.7049 -13.6447
-30.5538 95.1675 0.691568
2.70906 110.849 -12.7085
-10.399 117.446 -8.57562
-27.9317 87.6503 11.4542
-8.65558 136.827 -6.50517
1.88463 102.975 -14.0317
-6.4115 108.47 -14.1827
-27.8553 105.493 -6.83196
2.14468 131.727 -7.88877
-9.8889 136.011 -6.94173
-3.55089 153.389 -2.68371
-18.0041 94.7258 -12.0722
-7.04114 115.191 7.98014
-21.9751 144.142 -2.31689
5.81187 132.741 -9.00045
-18.8257 134.524 6.90574
-29.3701 134.748 3.62802
-15.8057 137.001 6.52991
-28.6629 94.2727 -5.41923
-7.84366 110.556 -13.3657
-24.2538 125.43 9.72304
-30.4644 130.372 3.31279
2.31388 136.418 3.82906
-15.7879 116.461 12.2435
-28.0788 113.674 5.29433
-12.1107 98.0165 -12.4247
12.3551 128.835 -4.75463
-23.7171 123.544 -5.33782
-1.83358 133.679 -5.50442
9.41776 129.714 -10.4003
-28.5005 112.933 5.19355
2.59441 147.468 -3.69894
-13.4762 101.533 -12.5627
-0.664974 130.66 -7.34333
-29.8791 139.104 -1.07958
-7.14622 142.294 -6.28113
-10.8767 133.176 -6.58553
-28.0843 109.776 5.85811
-22.6625 114.701 -9.51014
-22.8353 111.219 12.881
-22.4727 92.7008 -11.8098
-13.6612 95.3394 -12.8239
8.79282 122.807 -6.92366
-27.1293 85.7583 -6.63842
-22.3041 133.1 4.33725
-9.04983 118.299 11.3698
3.81984 145.559 3.52074
-30.863 97.3933 1.99893
-33.0448 137.53 2.19481
-16.0598 126.615 -6.64374
-28.9632 102.083 7.41928
1.36285 99.1515 -14.1974
-9.09017 126.399 -5.71969
-2.07587 88.5356 -14.7468
-31.978 88.6735 3.67962
-17.523 94.8201 -12.1505
-19.755 87.1707 8.31959
-20.7357 113.162 12.6381
-23.5536 148.393 -0.557738
1.01809 137.849 5.4283
-8.93822 90.694 -16.3658
-17.9075 132.693 -6.08651
-27.043 146.181 0.583364
-26.3682 102.58 11.934
-36.3815 127.079 -0.453296
-28.8364 127.092 0.482483
-23.2982 83.8557 -11.4491
-23.5988 100.954 -9.46562
-24.0197 123.368 -6.68853
-21.7356 103.436 15.1348
1.56146 137.941 4.69346
-29.7294 124.954 0.735921
9.44527 115.457 -9.93368
-28.7445 121.766 -1.43919
4.15204 152.896 -2.93341
-28.7071 84.2923 -4.85818
-30.9557 92.8929 0.933153
-24.4217 124.789 -5.04913
-27.7501 127.409 -1.28732
-25.0201 137.847 -3.90517
-8.878 111.096 -13.2979
-28.3443 115.789 -5.26361
-1.64962 120.032 -11.6623
-3.71051 118.913 -11.9999
-13.3703 142.759 4.28839
-5.5755 123.823 9.55568
-28.4501 80.825 -7.23384
-29.6634 100.793 6.35598
-17.2436 110.306 -10.462
10.0763 127.281 -6.65218
-17.7552 98.2248 -11.0291
-21.8954 86.3774 14.6059
-19.1548 149.321 -0.870245
-9.18499 145.256 5.05173
-28.5473 108.07 7.4197
-1.59587 91.8312 -14.9077
9.86051 128.533 -6.1946
-30.694 92.8878 7.66946
-23.5857 149.508 0.726292
-34.4951 132.718 -2.64159
-31.9668 135.992 2.50953
-17.8038 85.5426 -13.9422
9.23718 119.751 -9.71627
-29.4982 129.686 2.52719
7.9143 126.677 -2.35976
3.13058 102.181 -13.1002
-21.7168 90.2831 -11.7888
-27.4725 134.762 5.48073
11.9471 140.288 -5.1882
1.3189 144.909 4.52784
-15.5356 153.415 1.53379
-1.29508 106.721 -14.8931
-14.8767 153.006 3.96255
-22.47 84.05 -11.9257
-9.91128 78.7986 -17.9156
-21.0755 130.362 -5.00373
-21.5255 109.001 13.0544
-27.8817 96.6234 8.51135
