ply
format ascii 1.0
comment Created by Open3D
element vertex 1941
property double x
property double y
property double z
end_header
16.388 117.232 -2.31284
-14.3094 85.5219 -11.5161
-19.6512 105.862 0.761946
11.6767 98.6774 16.9232
20.0361 107.042 1.49073
-3.90262 121.196 14.7835
3.28897 82.8954 20.0659
-13.4698 89.885 -12.7915
17.7845 124.465 1.19306
18.1347 86.4039 15.7019
5.15431 138.109 -4.00109
16.6399 147.164 -2.63936
23.027 91.6536 3.56855
11.4554 128.86 -10.5362
16.9016 85.0444 -7.00789
22.0943 101.936 5.44469
26.3932 132.07 -1.62188
24.275 121.191 -1.32294
21.8928 145.761 1.11464
18.665 111.837 -4.13945
24.5204 77.3041 5.81771
2.6163 135.144 -3.39722
3.29898 93.612 18.5442
0.179314 98.8552 18.4911
6.15617 104.503 14.8764
13.9659 135.192 -9.27135
-11.7559 116.239 -10.192
-11.3207 79.2976 16.5324
-2.61794 126.633 13.3512
17.2319 121.353 -9.84538
2.21179 83.7062 20.2865
9.07504 109.355 11.6148
4.83207 128.917 -4.0312
-7.29543 96.252 18.2395
-1.63511 102.188 -14.4588
25.7111 124.622 -2.0089
16.9743 108.646 -7.1992
-20.7523 99.9278 -0.768338
16.6481 145.981 4.37217
20.57 91.4981 -1.88188
15.1652 131.405 -7.7603
29.6371 129.536 -2.94638
9.13537 87.9853 20.0315
6.85636 119.665 9.12594
24.2971 120.696 -1.50368
11.3579 144.286 -6.81263
13.9383 130.891 8.83161
14.5054 125.506 -5.93674
13.3291 134.851 6.80232
16.9716 130.616 -5.19997
10.9922 100.643 15.7495
24.2769 125.32 -0.021007
20.0433 94.6432 13.672
15.9652 135.848 6.48008
15.6131 106.137 13.2236
10.1407 103.165 14.6145
24.3964 140.876 -0.952532
-19.5982 101.235 -6.6904
23.0898 87.5652 4.7849
9.10754 144.423 -7.01942
25.738 137.082 0.813733
-3.01132 131.79 -4.63248
-16.6163 116.468 3.88024
-20.8808 101.993 -2.15678
13.1695 123.591 -8.04302
-3.39176 116.923 -9.57365
18.7835 124.153 5.61357
22.7646 97.5879 6.56493
10.9896 89.2621 -12.0149
-3.05085 108.366 17.4693
17.6594 79.0289 -3.57423
-15.3484 116.311 -8.21504
-12.781 80.2411 -13.3646
7.50603 134.19 -5.43341
7.16286 97.5433 16.6505
-20.1431 91.0653 -1.73364
3.6724 117.619 -8.16209
20.071 78.8699 12.6526
5.54548 89.9797 -13.8466
-13.33 91.2085 10.9104
-6.35965 125.002 -5.94317
17.0435 91.2024 -8.44748
17.5232 124.517 0.934117
10.5049 126.346 6.17996
19.1128 117.914 10.5265
15.8663 137.887 -6.28306
8.81514 136.439 3.94495
7.22881 96.5337 17.2809
23.6128 142.545 1.61574
-5.62093 114.374 16.31
-13.736 81.1203 -12.7162
10.4704 144.88 -6.75989
22.7412 78.1236 3.31552
-3.58393 117.742 15.4757
19.0113 124.61 4.3622
17.9208 109.387 13.6049
4.51661 89.3226 20.1387
-11.0635 95.6185 -12.0816
17.2374 106.805 -6.90509
19.9644 119.514 7.41938
-12.0683 85.6593 -13.286
6.03161 98.0012 16.5611
13.0419 98.083 -10.8753
13.987 127.476 -1.47315
-8.224 74.9129 -14.8716
22.1736 105.542 5.08365
12.1103 76.964 -12.1376
-18.4916 108.589 4.56079
19.9877 110.856 10.6855
13.7265 131.003 -5.09475
-16.4257 119.913 -4.06801
15.5647 97.5072 16.2073
20.8488 133.819 -7.16418
22.75 96.8743 8.9966
-7.74373 82.9043 -14.7752
15.7818 127.921 -4.28924
7.06378 77.6167 21.2766
14.8683 142.683 -6.10718
4.20861 120.244 -5.89666
-16.4781 116.821 -1.93897
9.18455 95.8302 -12.8794
19.0114 133.76 3.9813
15.0813 128.612 -5.11795
-14.9205 84.8987 -11.0866
13.9605 123.877 8.33094
-15.9103 114.343 10.3764
9.58945 140.691 -7.89348
18.8233 130.683 -9.50097
-18.1268 107.141 8.37417
-3.39684 128.302 -5.33641
-14.9722 113.469 5.824
15.3942 118.388 -3.49299
15.2176 147.926 -2.37595
5.87274 130.389 -4.52593
18.6719 119.309 3.39023
0.674061 120.765 13.3973
-19.5122 106.451 1.83426
8.37126 123.408 -8.43021
-5.66946 91.7026 -14.1986
-19.9763 92.2028 -1.04206
-16.5407 117.501 0.0740045
-7.03848 104.79 16.3099
-20.3955 111.813 -1.83067
-16.7838 88.0927 8.46864
-5.0848 102.922 -14.1282
23.3815 141.312 -2.47353
5.09568 126.302 8.22254
12.1586 130.834 5.45618
14.3323 123.03 9.46301
7.53271 90.0718 20.017
-18.6505 90.3592 3.67783
23.1556 124.73 0.853337
-9.52305 99.9846 16.7579
19.7604 133.672 3.62458
-5.35487 96.6365 -13.9257
8.81107 132.975 -6.73212
17.5863 122.038 -10.1707
16.3392 129.852 -7.08943
5.56882 87.7735 19.8208
11.1486 144.342 -6.79922
-2.81774 101.914 -14.4206
-17.0818 75.1314 -7.36646
19.2355 147.696 1.77127
16.577 127.298 -4.26183
20.656 92.0121 -1.74866
11.1998 110.996 10.7894
-5.17538 121.939 -6.38695
-0.0467059 87.1757 20.2479
23.4853 79.6743 5.14375
13.0097 107.892 -9.93492
22.3322 79.9878 2.13427
-2.86441 126.053 13.431
9.08467 113.579 -11.1198
6.7606 95.5025 -14.261
-3.08783 116.699 16.121
1.37052 124.996 -5.1927
24.9361 128.576 -1.27376
-19.583 93.5054 0.823301
-19.6787 93.1808 -1.33721
14.0524 127.219 -8.02179
20.1377 101.4 -0.758356
-3.15786 99.011 -14.0966
14.7603 128.086 -6.57251
20.2134 138.708 3.80852
-19.9875 106.699 -2.1065
18.7384 140.597 -5.29957
-2.87187 77.0342 19.3331
2.44335 118.201 12.2195
-19.3286 89.678 0.980312
27.1392 134.887 -0.850814
20.5344 103.633 0.167548
18.2392 127.047 3.31413
14.8764 117.264 -3.4179
-18.1294 92.7607 4.67578
18.1954 83.7424 -4.11972
-4.08466 85.7375 18.9609
-20.7039 104.061 -2.57428
23.9416 80.9582 6.6698
26.7153 125.894 -2.82306
-6.85958 89.3749 -14.5135
15.9173 118.658 12.0414
14.9493 128.916 -3.77343
18.9609 134.744 -8.05813
14.5493 104.345 14.1121
-6.5334 106.674 16.9225
8.84383 121.654 7.92116
18.6796 148.008 1.84758
1.29637 136.423 -2.793
17.1585 129.137 -4.64359
22.1512 107.982 5.0059
-6.5303 85.4748 -15.071
13.9372 128.431 -9.70851
3.27145 80.2681 20.2801
13.9815 78.3725 -10.0867
14.9642 93.3785 -9.37241
-0.972857 115.237 -10.8385
18.3682 98.1457 -6.55322
1.98923 88.0944 20.5393
17.728 121.816 -2.2677
-3.50021 83.0398 18.5232
-5.137 130.734 -4.80557
-18.4933 107.96 -7.92058
8.31812 97.9204 -13.8237
4.5876 118.314 10.2532
-3.66031 75.8034 -15.6959
-2.17204 78.0055 -15.2841
13.8965 128.118 -2.69442
16.6448 122.852 -3.83531
-14.9372 116.686 -8.88114
12.355 77.6883 -11.7475
2.17894 93.3368 18.8248
18.3664 113.13 12.8516
14.8817 116.137 -9.39487
12.9314 81.9036 18.5564
9.50392 105.66 -11.2724
-15.3432 115.843 7.87529
-20.1435 85.3832 -4.02681
4.05347 92.6273 19.109
-15.6494 118.215 -1.99774
18.787 109.625 -2.18716
9.18015 138.41 3.89655
6.06566 98.7449 -13.8067
20.0522 117.317 3.24977
9.76497 85.0138 19.7663
-20.2902 84.1336 -2.43691
-12.6464 80.1236 -13.3954
8.13693 121.532 -6.34039
-12.9268 113.014 -10.1829
17.3312 123.206 10.8184
-19.2792 97.3609 -7.12246
0.104214 98.4732 18.5403
11.6347 87.3389 -11.7593
7.82798 78.964 -13.4169
-13.01 89.7217 -13.0629
1.06297 114.534 -9.26663
-15.921 114.97 1.43597
12.9954 97.0634 -10.9101
-13.4889 92.1314 -12.4853
-5.83114 80.3833 -15.4434
-9.54322 115.426 15.5419
7.19875 83.0365 -13.4928
7.49822 118.737 9.21647
-16.5728 78.7976 -8.73361
15.1304 94.3119 17.1034
11.5133 100.296 16.0004
4.12493 137.003 -3.96925
12.3227 147.278 -5.83209
14.5585 128.89 -7.48817
20.5693 97.4922 -1.89271
1.27523 106.553 17.4286
-6.79712 122.411 14.5303
2.7541 110.227 -11.7127
29.3465 129.713 -6.05568
24.0283 142.114 1.38387
19.8462 137.216 4.16729
21.4693 104.798 3.49336
21.2361 101.094 12.1249
21.3383 144.269 3.08727
-14.1892 101.737 13.8288
19.6684 119.695 8.77233
3.52933 76.4562 21.8501
6.77463 81.5708 -13.6628
23.2716 128.754 -7.43169
13.3735 119.278 -8.27596
-13.7294 79.4093 14.9402
16.5455 121.574 -3.83736
9.60044 121.644 -8.12027
17.8167 83.0874 15.9148
22.5455 83.8327 2.07201
7.91759 133.786 5.61183
16.389 126.877 6.69693
21.4635 80.6298 11.0948
7.74948 127.352 -5.84016
-5.5045 108.57 17.5594
7.51704 106.098 13.2191
12.3468 108.335 11.6713
7.81689 87.8831 20.1874
7.09646 128.812 -5.32891
-4.22599 109.152 -12.8829
19.3291 116.024 10.025
18.1566 83.095 -3.70507
21.7031 89.797 0.608015
-1.70968 77.4139 19.7595
21.7587 91.4361 1.39797
-5.53193 77.5879 18.3317
-19.5367 94.7448 0.667559
10.1641 93.7601 18.8553
-15.643 84.1549 11.0938
13.7301 133.723 8.03553
-18.2316 84.0349 -7.34541
-2.51292 91.8326 -14.9565
2.01583 132.097 11.1526
15.0647 129.628 -8.39331
-13.7164 111.948 -10.3564
-19.4079 99.1689 1.93189
5.54907 133.414 -4.466
-18.8648 115.892 -5.76114
1.51908 120.278 -7.44097
-1.44826 122.095 -7.79116
-9.18605 96.8855 -12.6101
1.28003 135.267 -2.76709
-9.8893 96.3361 16.2441
8.42597 101.282 15.0899
23.4716 77.6995 9.00922
7.09592 96.1236 -14.1881
27.1056 126.3 -2.81952
18.4055 123.779 -10.9047
13.871 116.27 10.1366
16.438 95.592 16.0355
6.45723 78.9234 21.129
-18.3966 88.4201 5.25233
12.0015 86.8237 -11.6303
17.2197 122.253 -1.50467
21.2725 144.165 -2.56585
-7.68674 122.188 14.7074
-4.8062 110.095 -12.1619
-10.5402 122.474 -8.54462
21.1132 108.766 3.37645
-15.129 90.3833 8.94702
24.7664 121.259 -1.62704
10.1761 132.409 -8.28758
16.1139 103.258 -9.42073
-6.83415 75.2541 -15.3624
-14.6612 90.3853 9.43474
18.3385 140.474 5.27956
-1.89839 79.4288 18.8775
12.2923 75.9221 -12.0349
-12.8416 107.336 -11.8012
4.64589 102.377 -13.2085
24.4771 77.9918 6.6012
16.8902 96.0667 -8.14135
10.0771 133.779 4.22564
-11.0973 103.171 -11.6687
15.0194 142.075 5.86595
22.9599 85.4064 6.29229
-2.10008 126.893 13.3762
13.9144 106.561 12.3061
19.088 122.791 3.52075
24.6171 124.759 -9.71217
16.4789 128.604 -5.44005
-2.04321 103.175 -14.3789
10.9143 93.9553 -11.6611
19.8738 78.096 -0.349879
9.00789 109.256 -10.4659
27.1772 129.834 -6.47034
-11.544 111.729 -10.7246
-4.34028 108.191 17.4488
3.1405 129.814 9.89893
-20.355 103.187 1.90392
26.4407 126.156 -2.57479
21.2678 142.12 3.82179
9.19087 86.7257 20.0474
2.06275 106.385 16.9086
-18.9086 97.6917 3.85124
-4.78282 118.808 15.371
1.45398 125.618 -4.729
-8.73249 96.1142 17.2948
0.919404 89.0053 -15.2505
-19.6378 111.563 -5.08819
8.08818 85.0959 20.2669
6.71615 112.711 -11.0345
-3.29265 120.994 14.8923
17.5446 125.165 1.60425
2.47575 110.929 13.991
-17.0866 109.174 11.7547
15.1144 132.582 -8.11817
-0.567076 103.53 -13.8952
-18.2215 114.873 2.82155
15.8919 126.772 -7.61915
2.23629 93.184 18.8883
-12.3967 96.3817 12.8402
3.1805 87.5343 20.3276
16.3769 135.764 5.68922
-19.3205 83.858 3.05628
15.3189 77.4957 -9.24897
11.1112 97.0733 17.597
23.8766 137.678 -4.0762
-3.21478 82.6422 18.6523
18.199 123.183 -1.49736
17.9846 112.453 -5.09496
23.0634 142.5 2.24396
3.56818 113.091 -9.11725
25.5975 130.519 -5.5102
-4.56765 125.537 -5.60718
-16.5139 89.1777 8.04298
-14.5309 101.486 -11.4333
-7.71005 95.4411 17.9918
10.1233 112.039 10.4874
14.4499 110.551 11.6186
6.60326 87.5168 20.0611
-20.3342 111.667 -2.77226
15.9051 125.779 10.5378
27.2314 133.788 -1.7019
19.6486 114.395 10.2836
20.7928 98.7925 -1.13691
28.1654 127.51 -8.05802
20.7946 137.362 3.41907
-1.33766 85.2929 19.4807
14.626 128.703 -4.88413
-16.1172 117.305 6.90728
-10.508 82.0745 15.7572
3.04371 122.642 -5.35733
-17.7422 76.5064 -5.82226
19.4128 106.72 -0.105926
3.38714 97.0465 -14.5888
7.9067 92.267 -12.9298
10.1806 89.344 -12.3285
12.7834 97.0034 -11.0395
21.3262 111.115 6.9624
-1.92916 75.0563 -15.7884
27.0241 126.37 -8.49135
15.3882 124.546 10.7308
-2.30096 129.433 -5.57656
-16.225 117.875 0.725136
-6.4293 109.851 17.2934
-9.74786 110.504 -10.8997
17.2712 120.047 -2.2375
7.71566 105.609 13.6665
17.8385 113.885 -3.10965
2.80238 82.8179 20.2099
17.2956 121.834 -7.01158
14.5003 129.515 -5.94357
15.9381 140.389 -5.41613
-1.68274 105.584 18.3196
29.1308 131.818 -3.98624
-9.73379 95.8312 16.3835
-12.6404 119.017 -9.87355
-10.1439 82.2662 -14.211
11.2386 90.78 -11.8851
17.6831 120.642 -1.23783
-9.40518 122.082 14.3332
13.0642 126 -7.55905
22.4124 122.482 0.61044
13.9907 118.744 -4.55508
-10.5253 113.014 16.2415
14.9235 136.561 -8.53155
-4.09414 80.7701 18.2195
-17.6669 112.14 -8.6188
-0.477864 110.974 -11.649
18.9678 117.481 1.11298
5.40339 134.927 7.49673
5.45263 98.2098 16.5678
13.8988 118.48 9.56786
20.055 107.569 1.46189
9.02985 141.998 -7.39636
30.545 126.041 -2.8197
5.62961 133.913 -4.42903
18.5421 93.9221 14.9102
1.57124 99.7429 18.1803
30.9479 126.549 -4.40328
0.148959 121.817 13.5641
-0.931325 94.8679 19.4841
-12.6423 92.4018 11.5495
-19.0719 94.2802 -7.06051
-4.40089 92.1219 -14.3079
-20.0143 83.1912 -2.4417
-11.5829 111.929 15.8741
18.3972 118.755 11.3682
26.9841 130.018 -6.26514
-4.89338 110.029 17.6461
10.0055 133.425 4.27972
15.9232 81.5967 -7.8227
15.1732 120.021 11.3073
-7.01356 104.554 16.4556
10.9463 132.326 -9.31791
0.435248 88.9629 -15.2718
19.2664 112.325 -3.28925
19.2735 128.484 -9.9751
6.37459 117.395 9.89844
19.609 91.9358 -3.24309
-20.7619 100.487 -0.507149
21.6365 95.7082 0.290943
14.9822 131.454 -7.8471
19.7239 114.364 9.79423
16.1223 135.417 -6.29865
-0.341425 108.067 -12.7855
-19.7714 102.58 3.39549
16.4109 135.514 -6.41757
-14.2087 121.783 -8.90144
-1.691 114.657 -11.1298
-16.8656 107.694 11.2104
-5.0205 93.0443 19.0983
11.3784 94.4719 -11.4655
1.54883 119.573 13.0793
22.9752 91.1748 10.3095
17.5893 146.4 -3.28912
-10.6891 118.797 -8.48538
16.9271 94.409 -8.16936
4.24204 107.395 -12.481
-3.0369 80.8624 18.6792
17.2781 120.906 -3.24273
-20.189 90.9875 -2.28072
-10.5368 93.9643 14.6637
28.0554 126.079 -8.65032
2.87016 105.782 16.6288
-11.4919 118.95 -8.99807
22.4163 135.395 -5.68286
-19.301 87.7281 -4.56989
0.519115 113.116 14.9531
15.4913 134.306 -6.25489
1.23477 119.324 -7.78592
14.629 116.272 11.1331
19.7357 113.205 -0.668916
13.1409 82.42 18.3407
19.3992 123.904 2.66172
17.1538 113.646 -5.61967
-19.8954 97.0005 -5.88146
2.25555 91.4195 -15.114
-17.4661 108.326 -8.99
18.3252 92.7954 -5.25785
4.61021 109.516 13.2458
20.1412 118.91 6.98915
7.99171 108.501 12.134
20.3193 110.217 9.92638
-18.9455 112.301 -5.29324
-16.3589 114.174 -9.14636
23.1511 85.9818 3.80024
21.7996 108.639 4.58975
17.2945 84.0927 16.5381
20.1157 124.248 1.90755
11.1389 118.162 -8.24832
17.0144 104.597 -7.24845
-4.76322 84.8067 18.7299
-3.35523 88.186 -14.8571
17.1795 142.136 5.5323
18.7036 80.7348 -2.63164
-17.5356 93.4907 5.55479
14.4557 102.969 14.8872
26.0182 137.711 0.87138
2.18562 118.603 12.4917
11.0218 119.396 -7.94046
5.48228 82.9027 20.6792
15.3313 75.3679 -9.67123
18.5914 98.1738 -6.03894
6.62228 86.8937 20.2423
22.6775 93.1231 10.6345
-13.0533 106.895 14.5824
-17.924 103.307 -9.0409
-0.566444 106.163 18.031
-13.4978 89.8102 -12.7674
-20.3834 101.941 1.78478
12.2208 114.929 9.61889
-18.6831 93.391 -7.28676
3.05604 128.036 -3.82917
3.11183 110.582 13.7014
11.3506 108.464 11.6858
4.40845 80.7715 20.5538
-7.10662 112.866 16.7595
22.2911 125.239 -10.9416
16.0129 108.879 -9.10847
18.8664 86.2108 15.127
-12.2886 84.0633 14.9778
18.2653 122.963 9.56408
7.14599 119.004 -8.5249
-20.4023 106.896 -3.14647
-8.92101 106.86 -12.5714
-12.1207 84.3612 -13.511
21.4249 121.226 0.997705
-3.38028 94.9021 -14.6178
5.13008 98.1988 -14.0287
0.657202 108.367 16.8914
5.76996 131.588 8.25019
-17.7326 100.964 8.10351
21.3118 130.914 3.03406
18.43 89.1178 15.4004
16.2053 133.337 6.52326
-20.7214 86.17 -2.69969
24.597 78.0726 7.09572
14.6061 142.634 5.51293
-20.8879 102.397 -1.47581
1.81291 84.1414 -14.8351
16.5298 129.765 -3.25642
-10.5361 118.098 -8.60204
-13.5914 92.0234 10.4358
-17.7307 112.573 -6.57405
-2.84097 76.1988 -15.5294
-9.20497 98.7869 16.8338
-7.56531 79.9629 17.5677
-19.5923 104.929 -4.99681
-4.48433 115.935 -9.07559
-15.3747 118.444 5.18246
-18.7106 93.6724 -7.34617
6.56126 125.183 -4.74149
13.8657 128.59 -9.72271
-19.6742 105.234 3.97005
19.1276 93.0375 -3.94619
-0.295758 78.8327 -15.6414
10.0239 107.049 -10.6363
4.0027 133.769 -3.8902
15.2647 92.597 -9.26736
-20.2742 107.604 -2.18603
-2.68192 126.386 -6.11166
24.5486 125.817 -8.78333
15.0965 134.179 -8.55365
11.1954 79.553 19.5874
4.43648 99.2634 -13.7772
16.998 97.3742 -8.16893
27.0078 126.996 -8.19849
-13.5249 90.9806 10.7069
-18.1033 117.137 -6.78666
16.1017 96.5289 16.0398
2.23039 84.0638 20.2462
13.5336 122.879 -6.78852
-5.70318 109.81 -12.0375
-3.94588 85.134 -15.4042
-17.9095 77.9963 6.83001
4.88766 114.709 -8.88613
-15.42 117.504 3.38207
-18.8065 88.0362 3.45065
14.6659 127.732 -0.652962
19.9019 134.056 3.51011
0.707388 116.533 14.1852
-10.3769 104.726 15.0856
12.4703 96.0343 -11.2063
14.7353 124.766 -6.62501
13.6717 128.236 -5.59553
-12.8489 94.6132 11.3505
16.573 122.068 -3.6328
-15.9536 107.182 12.877
8.5013 138.76 -7.02068
20.0637 132.825 -8.0926
-19.7663 92.9182 -1.34837
15.393 113.582 -8.8174
-18.3562 88.9288 4.67981
19.5124 76.3338 0.531276
15.3873 126.357 -7.07087
17.0771 122.565 11.2208
-20.9609 103.102 -2.36924
16.7652 109.515 -7.85737
20.101 136.698 3.89861
19.2394 115.561 10.4455
14.4577 131.589 8.66037
1.35491 106.247 17.4161
10.9798 135.739 4.00307
18.5586 132.209 -9.12463
16.7139 129.737 2.58507
-18.4704 108.568 -7.04728
-5.60019 109.348 17.6091
-17.9886 111.102 3.02821
9.44635 126.953 -8.98584
7.92215 111.611 -10.7498
11.8672 76.7705 19.8857
21.9286 78.9801 11.205
-4.19472 112.774 17.3499
5.60835 109.244 -10.9253
8.63215 138.948 -7.15496
6.03401 78.1101 -14.1974
23.8713 81.5277 6.56682
22.7373 98.1129 4.36829
-17.668 86.6951 -7.30923
18.012 100.489 14.7551
18.8332 124.188 1.74714
-18.2433 108.869 6.15486
11.5433 100.316 16.0032
-1.37022 106.421 17.8936
17.3143 89.7584 -7.2849
15.861 131.568 -8.04602
-14.7601 117.357 -0.902977
22.4444 79.9736 2.29211
16.185 147.203 4.14156
22.013 126.803 -10.409
20.4686 99.5166 -1.19927
-9.46067 104.928 -12.5488
12.1329 87.1519 18.5164
11.0864 136.466 3.89316
-18.042 75.4232 -4.47351
-20.8795 99.0413 -3.3144
23.7258 134.113 1.91279
-7.23324 89.1843 -14.4273
8.37548 123.329 -8.31668
15.759 94.5933 16.6573
22.4878 97.7385 7.64605
-11.3485 83.4345 -13.9787
-14.1783 118.341 -9.23112
16.9883 134.635 -6.40522
26.674 132.523 -4.23586
18.6767 89.101 -4.76434
-14.2647 110.671 -10.5818
5.41471 105.971 14.142
-17.8826 104.138 -9.44491
22.4098 88.5617 2.3036
7.62727 98.31 -13.8463
3.81082 119.026 10.4634
19.6452 93.9962 -3.41152
22.6536 93.2347 10.6235
11.746 138.057 -9.09257
15.6266 123.74 -2.66828
20.1356 77.0129 12.6447
-1.55349 92.9584 -14.8147
15.113 128.73 -8.40605
16.8181 136.647 -5.90674
14.5866 112.391 11.654
-11.1154 88.0238 -13.9512
19.3953 147.98 0.814676
18.4847 114.398 12.5198
17.7395 126.719 1.87169
17.6932 120.798 -6.73138
22.7612 92.6904 6.45552
18.7213 124.195 5.84926
7.05348 125.171 -5.32337
19.5408 136.2 -7.7641
-4.85958 113.924 -9.81978
1.01819 99.1146 18.4041
16.5328 126.652 0.988346
15.25 119.489 -4.30579
22.8534 85.8952 5.40867
5.31692 123.633 -4.71055
-0.80931 109.432 17.396
1.76801 114.74 -8.65851
7.00289 105.695 -12.8838
18.8161 103.554 14.1308
4.08247 78.8452 -14.7001
-4.52621 121.067 14.7775
-9.42373 90.2059 16.5826
-1.07567 92.8737 -14.7929
-3.69477 85.2651 -15.4262
15.1972 124.33 -4.47941
22.7427 93.9723 7.58917
-8.11451 103.462 16.4218
-17.5054 76.3121 6.00344
21.4956 113.764 4.40026
0.139456 108.296 17.5297
19.0287 122.694 5.92907
24.2813 129.986 -6.15359
17.9232 85.6407 -5.93567
-5.41369 129.05 -5.81739
-20.5182 92.9973 -3.01313
-16.1813 115.518 2.09546
12.8392 92.0728 18.3704
15.0371 143.997 -4.99632
14.5834 132.723 -5.76908
-17.3093 105.748 -9.16627
-9.23867 79.9748 -14.5731
19.4551 116.789 1.96167
-16.8786 112.048 12.236
4.15206 93.4147 18.604
14.6188 102.931 14.9818
-16.3662 104.932 12.0626
30.0262 128.345 -5.50252
-13.7597 116.395 14.0552
1.72865 96.8419 -14.8231
-15.1399 114.457 6.87031
-19.0307 97.3144 -7.50165
-4.45766 88.1857 -14.7991
-17.6642 95.2443 -9.11566
15.1112 134.596 7.54688
15.5971 87.9592 -9.55866
21.9708 106.308 4.18269
-20.4457 106.602 -2.93228
19.6384 145.969 -2.51804
-15.3935 117.813 4.99601
16.1493 112.197 12.7052
-15.1024 111.778 13.8166
-3.20227 102.062 -14.3935
-3.67832 121.211 -7.20082
-19.6766 82.5695 -3.63953
22.4097 140.817 -3.73622
18.5137 146.975 2.81694
14.8848 131.091 -7.78911
22.3173 80.8554 1.56882
-12.8492 100.787 14.6384
14.6595 103.822 -10.3315
19.2381 100.855 -2.65308
14.6423 137.557 7.49791
22.5706 76.65 4.0478
17.4771 116.928 -0.735941
18.7859 147.734 -1.09632
-17.8747 78.5509 -5.50371
22.797 94.7852 3.53263
-2.8875 119.66 -8.15473
7.287 86.4262 20.4475
-5.25596 105.782 17.6805
-18.8026 114.421 -4.95538
-20.158 90.8307 -1.74951
-5.25359 95.7176 -14.1216
19.0133 125.376 4.00268
4.20807 94.4439 18.1091
19.1799 88.2843 14.8589
-19.3582 97.7651 0.720351
14.7427 105.106 13.6866
16.6614 110.869 -6.62999
-14.9808 74.9665 -12.0196
16.9168 131.485 -8.93804
-17.0928 99.6832 9.58915
-8.2096 97.1211 -13.1096
-3.36059 98.4417 19.3459
1.78841 101.555 -13.6168
15.3512 126.89 1.11492
3.8978 120.366 10.0605
-10.6118 119.067 -8.38768
-11.2038 88.2955 14.2831
21.0297 125.703 2.03432
-18.5575 93.4178 -7.46829
16.7283 113.125 12.6538
27.3658 126.271 -8.54133
13.9836 95.5216 17.6141
20.6329 79.8235 11.7592
22.721 84.5283 2.25615
-2.47214 87.1053 19.3849
11.1848 84.3852 19.1794
-2.15618 110.297 17.575
21.3724 134.49 3.18318
8.05699 91.8833 19.6501
-17.2327 107.627 -9.00081
22.3211 142.607 -2.52257
24.2251 80.829 7.43626
-2.33859 112.78 -11.3425
19.2346 117.666 10.2904
19.067 130.699 -9.33744
11.4536 133.702 -9.29955
10.9485 143.474 2.7897
-17.1261 85.3484 -8.91466
17.1564 105.282 -6.63615
10.8537 126.706 -10.458
17.6402 135.105 4.74337
1.30566 122.348 11.9766
10.8496 119.234 -7.84825
-2.06077 103.706 -14.3205
18.1937 145.44 4.07906
1.46794 120.988 -7.01157
19.8687 83.9954 13.514
2.52535 81.8326 -15.0117
-10.7616 104.123 14.9266
18.6316 120.01 -1.25738
26.153 136.672 0.626938
14.5732 113.113 -9.47558
-18.5577 78.5494 4.68515
22.9281 85.1448 10.479
-12.5617 116.544 -10.3455
15.6252 126.31 10.1861
18.5264 106.77 -1.8099
-20.5915 86.098 -1.83245
-7.58873 122.183 -6.35664
13.8507 122.647 8.51886
12.3973 103.182 14.3282
8.72236 117.158 -8.78536
-20.7593 87.7558 -2.66007
-16.3254 98.7669 9.82718
-19.2454 91.4213 2.02045
8.59088 90.3318 -12.8763
-5.70818 110.493 17.5833
13.3945 119.889 -8.98084
-8.02971 94.5194 17.8389
-4.68248 112.51 17.3761
14.6402 94.325 -9.56402
28.1239 131.714 -5.28069
18.0766 123.114 0.37225
17.3116 122.559 -10.0063
17.2063 126.733 1.14914
-15.1787 87.9315 9.90808
13.9423 130.655 -5.78244
-13.4244 81.3873 14.8669
19.6212 87.3702 -2.20757
-2.077 120.279 -8.53438
2.27983 78.9932 20.4366
-15.3547 118.488 5.54232
-4.87905 107.56 17.5475
-19.7442 100.25 -6.09699
-19.924 94.4516 -5.77593
8.31015 129.255 -6.3947
0.0194014 117.938 -8.9679
20.6285 97.1085 12.5705
18.4909 120.975 -10.9319
3.09714 100.396 -13.6601
3.90147 109.395 -11.506
13.8964 119.159 9.39423
-2.94689 89.9435 -14.6595
-19.0239 81.5037 4.50431
19.2258 123.055 2.95855
-17.1718 98.9157 -9.13789
21.5112 96.6321 0.0679248
15.7551 105.073 14.2552
23.3928 86.7915 7.89077
3.50558 106.369 15.5007
-14.5735 99.804 12.6967
16.4752 147.384 4.07344
10.8621 85.1769 19.3958
18.5919 79.9439 14.7138
15.7536 76.5351 -8.9448
15.4682 130.602 8.90866
-20.3855 104.945 -3.99552
16.2735 136.22 -5.71868
2.72154 97.8231 -14.4523
-16.6828 74.565 -7.98517
-4.61659 75.9561 -15.6363
-0.494362 109.942 17.0814
22.9878 88.0819 6.9083
3.91287 107.128 -12.8218
-18.2632 108.865 -8.11373
20.3158 98.1239 -2.48019
25.9759 132.986 -3.62309
-15.0723 80.6415 -11.1063
-7.16008 77.1842 -14.8997
-7.30535 118.693 -7.61104
4.81841 128.094 -3.96525
17.905 124.343 1.31135
5.06716 92.3722 19.4044
21.8058 120.52 0.392695
-18.2711 76.3358 3.91617
23.0892 91.1559 3.71087
-18.7723 107.67 -5.87544
15.2768 90.6368 -9.78198
-5.01021 129.051 -5.35037
-20.1029 106.211 -2.49873
14.3851 137.412 7.685
-16.2709 94.4038 -10.6835
15.671 87.7494 16.9592
14.1905 135.492 -9.13905
12.0013 140.368 3.64849
4.59513 120.738 9.57413
-4.88295 78.3007 -15.3713
14.9754 137.421 -7.78671
-19.2071 102.838 -6.31252
15.9107 128.407 -5.65323
-4.69917 80.655 -15.5586
21.5532 103.299 3.85985
-7.18703 99.3488 18.1916
5.85328 87.0576 -13.7192
-13.3226 78.1504 15.395
9.20995 135.279 -6.86444
5.75221 122.508 8.65685
15.9388 125.268 -5.93166
22.6128 99.0769 8.02017
-2.7422 105.518 18.4449
-7.24784 109.643 -10.8269
17.4532 141.471 5.60418
14.8383 120.805 -4.85135
-0.318314 125.863 -5.13853
20.0879 85.9596 -1.01134
-6.03788 93.0308 18.8213
-19.1935 96.8586 2.66425
-12.0827 119.656 -9.4631
-7.07432 123.884 14.3628
7.79309 94.3672 18.2853
-19.6956 91.4358 0.765931
10.2387 97.4531 -12.3586
12.8768 123.247 -6.97771
16.7786 109.569 -7.70483
-17.3268 76.703 6.75322
-17.7137 115.662 -2.12967
-4.29494 104.505 -14.1143
19.0227 128.512 -9.95924
-15.5136 82.1836 12.2669
-17.4843 100.603 -9.36048
23.1003 121.539 -0.424693
22.6332 96.6363 10.1038
-18.9776 95.9962 -7.50497
17.033 130.025 -4.43615
-15.2506 120.831 -7.7885
3.16031 115.104 -8.17022
16.3827 124.106 -0.761109
18.9372 87.9241 -4.1428
2.44516 103.08 17.0603
14.6645 102.311 -10.0344
10.6707 115.981 9.14823
18.6205 77.8838 -1.73654
1.85522 80.5831 20.3984
-12.9476 90.1001 11.5654
-11.9261 107.736 15.22
12.6603 136.411 4.90484
16.0425 126.545 0.824248
17.4568 108.915 13.4426
6.21007 127.687 -4.5717
7.25573 133.966 5.96808
23.0495 123.18 0.425057
19.1778 112.982 -3.50641
22.6897 85.5758 10.7182
18.32 92.0088 -5.39689
9.73951 78.997 20.3846
16.8309 82.0525 -6.91439
-4.26453 107.968 -13.2647
-16.4356 106.179 12.1872
17.8762 80.2567 -3.31164
1.23803 111.45 -11.611
-6.89748 124.347 14.2593
6.18034 117.492 -9.04308
21.8374 87.6887 12.1213
22.9967 134.201 2.45388
18.9087 120.038 1.33176
24.3726 140.973 -1.05013
-18.7271 84.57 -6.40264
23.9516 78.7639 8.92897
10.5894 97.1033 -12.1402
11.8807 113.533 -10.7313
-18.5531 113.755 0.496392
15.2454 125.184 -7.03526
-17.1158 116.821 0.894559
15.9177 79.3737 17.5915
20.4785 140.111 3.82351
17.8558 93.4181 -6.98498
-1.00563 81.9057 19.6562
-19.6805 92.2415 1.46244
-14.6371 95.501 9.79145
21.7416 126.865 2.11641
-14.0369 117.597 13.3652
-2.59759 116.714 -10.2286
4.62581 136.832 7.92807
-2.19345 103.425 18.6222
-14.8505 112.689 -10.5303
-13.7257 81.7486 14.6227
5.08078 90.7056 -14.139
14.9001 84.9318 -9.88011
-5.33923 108.888 -12.7133
-16.3865 88.1409 8.78319
-0.0691045 112.044 -11.3091
-1.88412 107.846 -12.7993
23.1487 125.322 -10.5109
22.7508 86.5955 10.9302
17.2326 108.789 -4.9632
18.0827 91.5248 15.2274
-12.2659 110.291 15.3839
19.4092 124.228 2.25332
7.78218 102.39 -13.6307
6.64573 93.3209 -13.8916
16.6276 132.92 -8.12717
4.50059 92.0289 19.5708
6.11269 95.9115 17.4686
30.4905 127.858 -5.79197
-19.1811 106.413 -0.978525
27.3074 130.234 -2.53023
-15.5398 88.7836 -10.0741
23.669 80.4102 6.2546
-5.02768 79.1125 17.6567
1.6984 122.479 -5.94197
-14.8624 114.254 6.41294
16.8866 101.414 -8.20347
13.2672 119.659 8.75158
-12.2249 115.234 15.3383
10.4611 94.9028 -11.8693
-9.38286 97.5489 -12.5633
14.5286 91.9828 -9.89729
-6.2786 125.194 13.932
22.8481 143.901 -1.21843
17.5259 111.344 13.1909
20.592 116.798 7.38998
9.09093 91.9552 19.5307
2.82017 104 -13.0999
20.6585 96.1487 -1.54767
-20.7872 92.3488 -3.74689
9.18966 131.082 -7.81077
-0.248699 88.2707 20.3946
-18.3316 85.1669 6.80081
-11.7999 104.009 -11.3846
-17.0934 76.1671 6.57791
4.56027 124.157 8.74197
3.29895 124.295 -4.65436
17.5595 84.3318 16.2579
16.3336 117.3 12.3495
14.4167 119.696 -4.34629
9.22028 139.049 3.91677
17.5532 123.758 0.237473
-13.6582 118.325 -9.89587
17.5514 89.8476 -6.35571
-4.14 120.652 15.0272
20.2604 107.089 1.80231
-2.67713 112.995 17.1146
6.98905 117.588 -9.44706
-7.6338 80.9723 -15.0978
-4.56602 118.988 15.3451
12.8977 136.122 5.2722
16.8509 130.119 3.66695
13.8016 118.502 -5.12517
10.0608 102.504 15.1513
5.50026 127.901 7.97181
14.6509 128.725 -4.49443
7.35165 134.066 -5.39679
-19.0169 89.6332 -5.40786
-16.0989 116.372 7.92439
-18.0114 109.813 9.30638
13.5873 145.119 -5.97236
3.7386 117.743 -8.09327
2.00253 86.651 -15.0704
-15.803 116.59 8.4999
-17.9661 92.6205 -7.91635
12.8242 107.992 -9.91162
15.4186 112.014 -9.47742
17.0469 132.142 -6.52229
28.3451 133.151 -2.72081
21.8458 100.305 2.09501
17.5232 107.498 13.2081
21.1371 90.8276 -0.903073
18.7232 77.7235 -1.55123
20.2993 144.595 3.70679
-11.8177 113.794 -10.1855
-17.439 81.1259 8.56947
-1.09348 98.5971 -14.4914
7.99937 122.426 7.88271
-8.31258 93.8079 -13.3968
-1.26082 90.3204 -14.8888
-14.6895 94.8449 -11.6952
4.22005 135.966 8.51377
-2.07649 120.534 15.0179
-2.36242 115.963 15.9188
13.7611 102.007 -10.3776
22.0671 131.091 -7.35139
-15.5581 77.7637 -9.98109
10.5289 83.2423 19.3295
16.7794 77.6348 -6.15058
-5.2779 95.6707 18.8732
20.6169 145.116 3.21876
-17.5076 76.1614 5.80168
22.4088 128.084 -8.98823
14.6476 135.61 -8.83553
-6.91348 98.1671 -13.1047
3.78196 88.2222 -14.5969
-7.51172 85.1033 17.6186
-8.31379 119.129 -7.58316
28.3792 123.803 -1.64689
-0.953878 126.053 13.686
-10.8602 93.9584 13.873
-15.2984 119.933 -0.224395
22.4726 141.196 3.28581
10.3403 87.9957 19.661
11.4743 119.791 8.09101
19.1498 123.554 -0.39769
19.9183 89.7384 -2.84766
-18.0221 83.4081 -7.34031
5.08101 90.1878 -14.0887
-5.21634 110.43 -11.9593
-3.41858 104.755 18.5576
-13.589 119.234 -9.94468
13.6246 140.071 5.45464
19.6786 90.4997 -3.23998
-8.51103 85.6116 17.3515
17.2737 101.111 14.9735
19.0543 78.9515 -1.62476
-15.7427 80.7934 -9.24528
23.1141 96.367 6.08092
-18.7959 88.6125 3.065
-11.4726 106.358 15.0912
-13.6502 79.2395 -12.8911
-16.514 106.474 -9.64979
10.0732 127.765 -9.40673
8.61836 109.259 -10.7342
4.47398 130.59 -3.98029
9.86734 102.006 -12.8621
-16.3675 97.8132 9.02227
-20.533 89.6641 -3.85781
-19.4171 76.8706 -3.26699
16.7992 109.924 -6.27412
2.60943 79.8477 20.4127
23.9981 79.9551 7.19672
-10.7209 88.5576 15.3053
-6.31598 83.292 18.1666
-14.7471 79.8455 -11.8242
20.2769 144.268 3.87874
14.8163 134.57 7.69459
-5.45759 85.4169 -15.1126
13.1893 109.302 -9.43718
-1.35433 98.8454 18.7077
3.86873 133.549 9.73067
21.1784 115.08 3.97339
22.139 103.206 7.29831
7.45618 103.38 14.9456
-14.3912 102.201 13.6886
23.3877 85.5322 9.23665
-12.2506 111.409 15.5767
17.4597 104.456 -4.92019
-9.00098 119.885 15.1154
-13.4086 97.9637 -11.8693
5.14771 128.101 -4.05084
-2.76452 129.542 -5.29341
-16.1658 79.5848 -9.02743
-18.842 99.2893 -7.46565
16.2646 128.325 7.7883
-13.0341 89.9014 11.5029
13.8309 126.802 -2.95236
-5.53044 91.5132 -14.2785
11.477 118.098 -8.88009
15.2873 131.631 -4.7002
2.94737 128.286 10.1559
-17.9449 84.9636 -7.39836
-16.2592 76.8894 8.43305
-1.50513 97.3304 19.2104
21.8281 132.319 -6.95872
-10.1566 96.3847 15.9392
15.5659 91.0873 16.8011
-2.78918 114.644 -11.0715
21.3776 90.3293 12.6456
-15.839 81.5591 -10.1239
12.5135 142.004 3.89272
13.762 142.593 5.56052
4.55786 120.166 -5.89152
10.7558 142.082 3.01208
17.6697 121.893 -3.00383
19.4312 113.442 11.6208
21.5537 87.3693 12.3569
-1.28831 81.8671 19.5668
11.171 134.761 -9.16731
17.5912 141.212 5.57936
5.48396 113.295 11.4366
5.25262 134.566 7.70293
23.1722 85.5332 3.55884
22.2294 124.226 -11.1087
11.2991 83.521 -12.1118
11.236 91.2264 19.1019
-17.8108 105.03 7.74897
11.3393 113.581 -10.5294
-20.2523 96.7249 -5.16757
1.95719 92.09 19.5379
12.4448 125.106 -10.5353
-15.8685 117.121 -7.23084
15.1594 124.312 -1.89071
-10.9548 118.867 14.9269
3.70197 132.745 9.62999
1.47216 97.8422 18.2399
-0.222986 91.1331 -14.974
21.3177 106.693 8.5579
15.5363 120.308 -4.49083
15.3724 116.619 -3.02805
13.5637 136.031 -9.43951
13.6241 106.137 -10.4709
-15.075 113.907 13.2093
7.82438 115.297 10.0552
27.2689 130.489 -5.97331
-15.3575 78.3714 -10.3864
-5.84353 108.939 -12.3587
18.6553 76.253 -0.583262
15.6866 131.271 7.29971
7.58567 138.492 -6.37169
-11.9968 109.56 -10.8748
-5.62657 78.0599 -15.2889
22.3024 145.434 0.96819
20.725 111.073 0.812592
9.53442 126.176 -9.33044
-12.8646 116.345 -10.3973
11.5182 144.727 2.51617
-2.18754 124.924 -6.35927
16.5991 79.5903 17.0146
18.1513 86.8426 -5.57558
17.9722 97.944 -7.26904
-12.606 96.4012 -11.6843
-7.82694 76.262 -14.733
7.05013 122.771 -5.51052
18.9097 89.1339 -4.42388
2.46069 111.775 -10.4026
25.6733 138.547 0.729094
-0.71906 76.4633 -15.4508
4.77979 134.416 8.92952
-18.2269 113.712 0.710683
-17.8682 95.879 -8.70082
18.9867 146.673 -2.21743
17.7067 111.853 13.1704
21.2051 95.6119 -0.447103
22.7634 97.7344 4.41609
16.8346 77.9011 -6.17236
5.37512 135.593 7.78939
22.4549 144.354 1.51951
15.3124 129.326 -2.10666
4.06866 117.455 -8.29357
17.9396 122.164 -0.41769
-7.29959 115.085 -8.78505
-19.3033 114.854 1.9812
12.4726 117.927 -10.3658
4.73983 119.076 -6.96953
-18.8939 106.257 -6.37434
15.2362 110.781 12.0922
-15.2401 118.896 5.43747
21.7976 78.1599 2.45789
9.51879 105.165 13.1048
21.6125 84.9321 1.13565
20.9406 137.885 -6.56595
31.3498 125.476 -4.78428
4.97938 83.708 -14.1307
17.6346 91.0047 15.4895
-1.74524 101.274 -14.4965
0.113229 101.847 -14.0292
-6.23219 101.23 18.2879
-8.61377 84.4982 -14.4965
20.0081 146.142 -2.14398
8.15887 95.0189 -13.2829
-8.3752 97.0864 -13.0306
0.0501909 86.2884 -15.3807
17.033 98.4418 15.6584
13.9246 117.498 9.78733
23.5428 86.7715 8.55662
12.8112 119.77 -9.65823
-18.8052 89.09 2.73593
-15.3068 116.452 -8.07405
19.8151 87.1163 -1.83724
18.0653 116.784 -0.0344663
31.0117 125.162 -3.81046
-20.7898 92.7675 -3.7528
-19.7232 87.3746 -4.04319
-9.8496 117.897 15.0156
-8.94344 95.9381 17.175
5.14101 98.3277 16.5695
1.8316 78.4963 20.3566
-17.7607 110.173 10.6825
15.2767 126.188 0.381633
13.4965 111.448 10.8947
20.3041 108.593 1.42183
11.6555 124.136 -10.2872
-9.27755 95.3722 16.874
19.8113 135.935 -8.06606
16.5639 85.3969 -7.57157
7.23313 76.0742 -14.4222
18.6825 143.868 -4.39361
-12.2772 106.597 -11.9046
-19.4994 101.32 3.1894
15.1964 117.435 11.3621
4.1941 118.469 10.3977
-7.5957 123.112 14.4652
-16.5142 74.8083 -9.8077
-14.9225 78.218 -11.7776
3.27636 120.711 -5.93184
15.9469 120.352 11.6338
22.9826 143.69 -1.25357
13.7401 128.475 7.26396
14.8852 129.385 -2.78384
2.38398 90.4639 20.3398
27.0468 133.903 -1.67376
-18.6732 111.228 2.11377
7.45538 105.892 13.4391
-3.83797 120.076 -7.4098
19.5634 113.331 11.4945
29.426 129.552 -6.22039
-7.49106 82.7413 -14.9017
-18.4296 108.65 0.963667
10.57 117.685 8.67008
19.6265 104.483 13.7014
-3.37068 75.3057 -15.8046
-1.63443 83.7853 -15.5091
-4.83655 128.663 -5.28584
20.3279 97.8417 12.8348
5.74383 103.042 -13.2063
22.6504 96.7539 3.78781
6.23978 104.123 -13.3472
17.5478 111.023 13.2179
-11.4412 75.2597 -14.0865
5.77417 121.853 8.75705
19.5511 118.926 -3.16469
12.522 116.832 9.1505
-4.69195 118.746 -7.72417
-4.23986 111.161 17.6075
-16.9255 113.473 -8.28894
3.39258 112.46 12.7514
20.3528 86.5163 -0.820246
-2.70419 89.4038 -14.7858
-3.1917 93.7368 -14.6702
-6.47125 90.8203 -14.5033
17.2332 122.495 -7.29712
15.1901 94.0228 17.0905
5.60878 86.5075 20.0819
-20.3453 93.5951 -4.6378
20.7504 134.261 3.27217
18.6075 148.604 -0.555397
18.1674 126.762 1.48997
15.4645 138.601 6.3188
16.1546 107.771 -9.2494
20.731 77.3263 1.25093
2.04664 90.981 20.1357
9.57466 76.5323 20.9189
20.7555 109.223 2.24227
24.0793 136.323 -3.92669
-1.51971 133.096 -3.4698
26.8464 125.663 -8.72818
-6.74919 108.755 -11.7793
14.7361 90.7593 -10.0501
23.4317 127.617 -8.27804
-2.69805 84.0109 18.8493
4.48131 128.471 9.11856
-6.15024 86.5695 -14.971
11.8408 113.336 -10.8188
13.615 126.374 -7.76291
9.69262 120.874 7.97447
-16.5598 93.2414 -10.1285
20.4223 103.929 12.9988
4.37515 136.74 7.87572
21.3255 92.3408 12.5256
15.1108 124.893 -1.45196
5.03852 133.288 -4.05378
19.8583 141.438 -5.54665
7.56 123.499 -6.94203
-20.2285 109.105 -3.2658
20.6123 123.319 -11.3962
17.6932 120.749 -5.36149
-14.9316 119.757 -3.10728
-16.2518 114.589 10.9
14.0393 118.417 -4.71116
-18.4768 117.527 -6.42517
16.0712 124.855 -0.527022
16.8362 132.423 6.0078
13.4644 117.126 -9.95905
17.6408 76.4068 -2.01511
-8.45131 84.7345 -14.5697
-5.74507 92.7354 18.9483
18.8456 110.284 -2.65401
25.5461 122.477 -1.90381
-6.22017 85.0586 18.3245
18.6912 87.7686 -4.67935
-13.105 81.7408 14.9467
-5.47674 127.546 -5.56093
12.4345 125.083 -10.5857
-2.39152 118.163 -9.27796
-14.6254 79.4768 -12.0092
-19.4018 95.3387 2.19257
-2.1425 101.726 18.7176
-19.2206 107.232 3.0207
1.99212 118.863 12.7052
17.2422 77.1944 -3.82892
13.8801 89.2471 -10.5486
16.5211 112.492 -7.0733
-1.34028 89.0353 -14.9755
6.98111 122.414 -5.25656
-6.09357 124.893 -5.57359
21.7086 104.736 9.10612
-19.8276 103.256 3.76151
-19.5948 116.995 -4.4589
1.03458 117.746 -7.93329
11.9187 108.441 11.6282
14.18 96.272 17.4446
11.4711 124.255 -10.3571
-14.5608 116.957 13.3733
3.51418 105.27 16.4516
10.6878 129.34 -10.0296
14.8429 123.019 10.9182
12.7321 126.403 -10.4179
10.6382 101.413 -12.7439
-10.8949 120.402 14.4462
15.6481 133.436 6.95112
-16.0116 118.592 1.54916
13.8507 130.957 8.80411
-10.8511 79.0584 17.0233
20.4433 86.1544 -0.518445
15.1381 126.004 0.177497
8.39659 89.9112 -12.9441
20.0717 77.5731 12.6072
15.674 119.231 11.871
-3.88823 113.742 17.0944
-11.3129 93.7535 -12.3191
17.821 76.7496 -1.95948
-5.10503 94.4212 18.9146
24.5325 127.41 -0.715644
2.8675 111.793 -10.04
13.4176 130.339 8.86396
17.5799 132.992 5.05363
-10.7101 110.662 -10.9751
-9.72094 77.8805 16.3027
20.3049 119.412 -5.20972
-17.3088 94.5786 6.77362
-11.7891 112.28 -10.5722
-20.5291 96.4257 -1.75116
23.251 86.7961 7.37618
4.42771 126.018 9.03279
-18.5547 78.5847 4.76154
17.06 104.607 -6.91446
16.3385 133.72 -7.7057
18.5228 119.525 2.08522
-20.5384 90.4324 -2.91306
16.2338 126.067 -3.06223
25.0174 129.347 -1.29789
-12.7253 104.573 -11.0252
23.7135 139.941 -3.00158
-8.65037 95.678 -12.9748
17.2941 102.521 -5.92202
-12.1042 110.314 -10.7722
12.2315 105.608 -10.903
-15.8789 117.095 2.57375
5.90819 130.707 7.67582
-1.76174 100.001 18.6817
11.3255 131.47 -10.1122
-3.11232 99.3844 -14.1858
13.8301 77.5793 -10.2269
-1.1288 132.816 -3.58676
1.90297 121.724 -6.11455
-17.641 89.3247 7.21265
-0.270479 125.103 -5.69038
9.57833 137.542 -7.87106
-16.5493 86.1855 -9.49498
-11.9328 115.012 15.5817
12.7098 97.6805 -11.0807
-14.5658 120.608 -0.864674
22.297 97.8757 2.25627
0.435338 75.5911 -15.6414
-19.9676 78.6559 -3.5501
7.03816 84.7805 20.5058
17.6336 87.5767 -6.19752
13.9524 130.8 8.86236
16.5362 123.844 -0.748528
-12.0899 75.3969 -13.7592
25.0424 138.488 -0.0248795
18.8611 148.23 1.26617
16.2657 129.409 -6.8939
23.2973 121.018 -0.670642
23.7377 134.358 1.88212
16.8152 128.232 -9.32197
-14.6313 111.855 -10.4398
23.0225 97.2431 5.46858
17.6762 120.516 -7.30692
21.7575 105.333 4.01983
13.5326 133.409 8.26324
13.8242 104.254 -10.8547
2.91173 104.065 16.7612
29.3474 126.228 -6.76538
14.6412 139.228 -6.92731
14.3991 113.472 -9.37879
3.73367 120.083 -5.99677
17.5547 89.5868 15.6803
6.03321 135.749 -4.44814
-16.4412 102.138 -10.2801
-18.4886 83.3114 6.37555
17.7956 88.073 -5.94563
20.1043 107.565 1.58976
-16.2594 99.911 -10.2333
-7.31327 98.9523 18.0932
-0.898499 122.85 14.3136
6.95799 104.829 -13.4154
21.8073 139.967 -4.54024
-17.135 101.275 -9.9833
-10.5207 88.7167 15.7131
-16.1754 75.8875 -9.11334
-16.5547 90.4262 -8.77368
-3.69907 76.3719 20.1449
-8.20739 82.9523 -14.5836
-16.5956 116.087 6.7292
-4.60405 102.323 18.7031
-19.6789 105.854 -1.6272
7.40737 106.825 12.7843
15.5335 80.1366 -8.42601
-5.13861 112.571 -10.405
-15.1234 115.481 8.0881
23.5927 82.7248 6.98344
16.4453 107.451 -8.67906
-11.1282 105.085 -11.8595
17.2644 89.178 -7.07549
18.5873 89.4814 -4.89248
-19.6589 93.1408 -5.86298
-4.04506 91.1191 19.5045
22.5273 99.6496 5.87634
-12.3179 123.716 -8.34763
9.24413 115.213 9.61957
15.4267 148.155 3.44274
16.3561 124.012 -0.839379
14.9004 124.765 -5.0048
-6.22521 99.6433 -13.5851
16.1749 118.101 -3.22385
18.5912 77.4735 15.1803
10.0113 124.719 -9.95299
20.5196 137.285 3.63854
18.4598 105.885 -2.04331
17.7488 107.225 -4.07502
-19.9457 82.8577 -2.26589
-5.93487 110.669 17.565
-2.60473 88.0651 -14.8996
8.00477 99.2056 16.0442
6.7367 88.8469 19.9004
-19.0969 101.795 -7.20699
18.714 98.4145 14.4501
-10.2305 86.342 16.4433
4.78753 79.157 -14.4059
20.4541 85.1259 13.1344
4.01132 135.569 8.76888
17.41 92.6914 15.5473
-7.0714 83.0074 -14.9914
-14.3051 120.276 3.16929
-11.221 90.972 -13.1667
29.0024 130.943 -5.22437
-7.92388 91.6406 -13.9613
-2.77353 96.3799 19.7408
18.7893 127.566 -9.96356
15.8065 79.7036 -8.30182
3.40935 118.892 -6.9344
2.71589 119.599 -6.73075
16.3411 92.8307 -8.4376
-20.3669 86.2335 -3.25872
-19.8325 75.0885 -1.21207
-15.3568 92.3585 -11.2022
-7.86224 78.7725 -15.0666
-17.7076 78.554 -5.90283
19.1684 87.6532 -3.37154
12.2421 107.994 -9.94655
14.8088 82.6681 -10.0776
-14.8271 114.552 12.9205
29.0086 129.473 -2.57826
19.7469 118.989 8.71501
16.9496 85.8236 -7.25219
-14.2876 95.0622 -11.6568
12.09 87.8161 -11.5697
16.634 118.587 -3.23588
5.71271 89.5646 -13.7527
-14.6028 81.6321 -11.8976
3.45182 132.676 -3.85971
-13.2248 97.6157 -11.8294
14.6992 122.087 10.4245
-19.617 76.6979 -0.752341
-20.2986 85.8798 -3.53657
0.711424 85.9173 -15.3092
20.5184 86.2327 13.3599
16.1151 127.081 -5.4461
2.32463 79.4853 -15.2584
17.5972 125.444 0.0335407
24.8283 124.663 -0.91178
-20.4425 86.1743 -1.37843
-17.1385 110.732 7.84848
-15.9533 91.4227 -10.5394
13.4341 116.326 9.58314
17.4002 130.396 6.05871
16.1479 123.257 -2.38697
-15.655 86.3468 10.2624
20.3258 112.524 8.73231
-2.23553 126.515 -5.77025
20.627 117.08 4.99103
7.86672 116.112 -10.0195
17.5431 125.254 1.68612
-2.83867 84.4709 18.8614
-16.5153 110.15 12.6018
17.9369 133.614 -7.61631
16.1864 107.224 -9.19709
-1.15574 91.3143 20.3842
-19.0884 107.065 6.95165
-17.2017 111.785 10.6104
8.83927 134.905 4.62876
10.6895 126.165 6.24181
7.63096 87.7782 20.1669
-9.83089 93.1275 15.9532
-16.8586 74.5776 -7.72207
-15.7169 117.397 6.4516
5.12498 108.997 13.1548
21.4128 91.5664 -0.140769
14.5469 104.623 -10.4028
6.81685 135.349 5.6732
19.2838 85.7449 14.6302
19.3474 113.578 -0.486947
21.0522 88.8968 -0.552714
14.7297 120.323 10.3557
15.164 137.774 6.39612
-17.2875 107.939 10.3846
-16.1726 82.0174 -9.28194
15.2835 82.1442 -8.85004
-17.2995 117.05 2.71411
15.563 129.562 -7.76296
-1.12904 95.0019 19.5578
29.6514 128.104 -7.82785
-20.3757 85.968 -1.10612
-15.2556 94.9853 -11.6168
11.1379 99.7285 16.1038
8.84637 85.2981 20.0938
16.1045 120.824 -4.21931
-20.2138 115.397 -3.41794
-4.54046 102.866 18.5421
4.48073 76.6967 -14.9311
3.70944 109.328 13.8215
-16.4141 107.74 12.6241
9.4534 121.741 -7.07687
21.8249 125.268 -11.0227
20.7578 117.992 -2.47812
13.7136 114.068 -9.55323
-0.870569 130.06 12.705
0.961142 113.977 14.3132
30.905 125.383 -5.21947
14.0579 124.338 8.44136
-16.9416 111.968 11.2168
21.8536 99.6191 1.67516
16.7585 113.277 -6.64388
14.0666 113.234 -9.65952
-9.74902 102.335 16.1402
1.20599 103.756 17.7726
14.2664 127.248 -0.568347
9.10348 88.5834 -12.6917
18.4471 90.8488 -4.90025
-18.3636 82.13 6.68574
16.6592 110.563 -7.1724
-9.39527 78.4056 16.3429
24.6898 129.133 -0.958277
11.7534 99.3887 16.4274
-7.35313 121.411 14.8295
-17.7705 97.869 -8.53777
20.6003 108.664 11.2983
15.9605 129.908 -6.33596
20.3544 120.883 -11.6103
-10.1899 99.4785 15.9227
-17.6524 111.178 -8.68886
1.65077 94.3974 18.4124
-16.7492 119.17 -2.89072
-19.2055 87.0166 2.7946
-17.695 110.14 8.05523
-7.4669 88.45 18.228
-3.11106 126.543 13.2956
18.9298 115.708 2.1958
18.7393 121.377 9.85753
12.9692 100.861 -10.8629
10.2007 76.5007 20.6672
29.7236 127.178 -7.40712
26.0722 126.846 -8.26681
22.5777 99.5083 5.892
-16.4882 115.75 6.33983
-17.1832 105.909 10.0594
-14.2579 84.2904 -11.3236
4.93589 102.343 16.5543
0.774644 114.007 14.5365
4.72434 105.153 15.3515
-15.039 120.14 -0.288065
13.394 122.985 -6.90933
27.8536 133.943 -2.99015
6.58198 108.347 -11.7031
13.5008 121.34 -5.66087
3.61784 101.264 17.1946
-10.6787 118.065 15.1052
2.89915 104.132 16.7597
24.6048 140.723 1.42164
11.2799 88.4362 18.9987
13.8197 123.892 8.11117
-3.47635 111.063 -12.2762
30.2593 128.017 -5.02733
18.6586 133.312 -8.90041
7.77331 105.904 -12.9242
6.1266 107.034 13.3244
16.7544 88.5203 -8.06029
13.623 104.407 -10.8867
15.635 132.254 -5.39409
-3.81267 85.2174 -15.4161
14.0605 146.488 3.98529
22.9799 89.8158 10.2214
2.9677 112.7 -9.32228
20.2432 94.5378 -2.29328
-7.92067 75.8556 -14.7828
-3.36488 113.563 17.0894
16.7761 75.8078 -4.60332
10.8469 134.112 -8.78421
17.3615 106.373 -6.14418
16.3873 130.1 -5.65138
21.3978 106.068 10.1262
-17.6118 75.9919 -5.71813
20.9662 137.315 -6.69034
-11.8712 88.2027 13.6273
8.12378 126.005 -6.43867
19.3874 100.651 -2.5826
-0.990699 112.606 16.6731
-18.3738 87.7512 6.28117
21.1182 107.143 2.87422
16.3844 135.595 -6.23077
16.9039 89.4025 -8.51415
7.17274 94.0084 -13.6479
-20.102 103.488 1.32425
16.9567 129.883 6.76835
14.3995 125.903 -0.821979
-18.4183 99.946 3.94027
15.2918 128.481 -5.46992
18.6107 140.655 -5.21056
21.6208 128.79 -8.97933
19.5199 104.909 -0.866424
-11.5086 83.1877 15.2582
-5.58619 127.345 -5.66674
-1.53472 91.7915 20.3927
16.6559 135.489 -6.27133
-17.7856 108.997 4.11824
-7.51975 88.3175 -14.4131
-8.74448 101.715 16.9376
16.0612 138.722 -5.61746
-14.4497 90.2365 9.70694
13.7294 84.277 -11.0547
15.0495 130.869 -8.11437
-18.5904 94.6892 4.02089
-3.86732 122.257 14.2605
16.9746 103.739 -7.34159
11.9826 101.376 15.7962
19.8232 135.792 3.83708
-18.6294 81.6022 -5.64401
12.0787 137.61 -9.27822
-8.50618 105.941 15.6174
0.338666 121.681 13.3355
-8.0045 115.556 -8.59024
17.8633 119.798 -2.87156
6.48191 107.26 -12.0159
-17.1951 112.94 -8.53149
-8.77259 125.968 -7.71937
21.0292 89.7042 -0.853511
-18.9023 95.1492 3.47867
-5.8987 100.546 18.5893
16.8792 110.037 13.2851
21.5719 113.172 3.58823
-7.38565 91.9796 -14.1409
-17.7393 109.429 7.42389
-19.1246 107.385 5.03994
21.8894 142.224 -3.04175
-13.5486 107.404 14.2448
1.94674 87.0066 -15.1685
-4.36335 105.441 17.9312
21.5795 128.583 2.54161
18.3455 144.984 -3.97444
0.0893971 78.7837 19.5543
18.6498 86.3043 -3.75836
-10.9391 91.9261 13.7433
-3.63534 83.21 18.5411
3.20186 99.3498 17.2531
7.62777 83.56 20.3715
18.0372 93.0695 15.1728
19.9616 119.736 0.547994
-7.82997 101.947 17.2625
19.9798 88.9653 -2.31343
1.38242 96.2614 18.4539
16.9511 127.753 1.52718
28.3788 130.66 -6.13579
18.7785 121.949 6.59594
-16.2283 114.838 5.23273
16.2101 136.893 -5.91167
1.88177 101.602 17.7415
-2.21373 77.5166 -15.2412
-13.7082 88.6634 11.1298
-17.9326 116.353 4.52182
20.0794 132.578 3.55984
22.5717 99.0776 9.30143
18.5391 144.401 -4.20149
-1.53177 109.651 -12.279
10.831 93.4262 18.9296
18.0145 120.16 -6.87694
-2.01076 109.447 17.6786
4.66117 113.439 11.6974
15.0627 116.314 -8.47282
-17.9766 109.246 1.88549
9.26131 127.637 6.04033
17.975 100.899 14.6386
17.5604 97.0221 14.8543
7.44311 95.2042 17.9504
20.7928 76.6547 12.3436
12.5786 114.016 9.90001
-15.9678 88.0434 -9.77431
16.9745 86.1708 -7.18986
12.8766 139.3 4.43462
27.438 134.102 -2.98879
6.30458 131.732 7.49079
12.2828 98.7991 -11.545
4.31918 83.6678 20.257
-8.36547 101.791 -12.8591
-17.86 103.464 7.98322
30.1176 127.38 -6.30628
19.9205 78.5844 12.9128
-17.0708 85.9956 -8.79826
12.1667 80.0396 19.1327
-18.9886 113.617 -4.09203
11.9608 114.665 9.57107
18.9006 90.6081 -4.27769
-19.4385 77.24 0.134167
20.2724 76.566 12.6902
24.2152 120.057 -1.31531
18.5588 132.424 3.97959
-19.4471 96.2109 -0.550929
-16.1461 116.336 -0.777726
-15.0489 89.8474 9.22688
7.11652 107.507 -12.1727
-19.9273 77.5563 -3.14527
10.2314 129.097 5.47331
12.7187 96.7559 -11.0729
20.8674 95.3299 12.8903
-10.2622 88.6926 -13.8079
14.6091 102.287 15.4882
-15.2673 86.7977 -11.0108
-18.8627 82.9524 -6.33047
20.8677 92.286 -1.38906
22.7934 91.9275 10.7455
-14.1336 100.151 13.3164
-7.33095 92.2842 -14.1021
-19.6576 112.683 -0.142961
24.7246 133.394 -3.56161
-6.09841 119.056 -7.50486
14.1266 120.594 9.27646
13.2702 104.332 -10.9375
-11.6709 105.323 14.9574
-4.12504 92.7419 19.3642
-20.5332 105.276 -2.33454
-18.7593 88.777 3.08803
7.92145 87.4857 -13.1203
-14.6281 85.7963 12.1978
8.5883 89.3011 -12.955
-2.65281 111.611 -11.7899
-6.83353 127.205 -6.64456
28.1219 129.781 -6.66227
1.27403 107.607 16.5565
-5.79547 112.106 17.3282
-13.711 112.01 -10.3575
21.9231 83.6887 10.5389
-19.4108 114.73 -1.95272
-19.6932 111.184 -5.4316
14.4114 142.797 -6.42527
18.6724 119.638 -5.19132
22.5172 123.933 1.15694
22.8572 91.0702 3.23753
18.5381 133.648 -8.81051
-5.94144 113.138 -9.99733
-15.6506 119.536 -1.49042
-8.64247 86.0608 17.3829
-0.797866 93.9691 19.4529
17.7005 78.7431 -3.21235
-18.8025 76.3208 -3.93413
-20.5704 99.7779 0.163412
-17.5898 95.3363 6.66176
-18.1784 96.9111 7.07896
-14.7499 82.4091 -11.3191
2.32281 78.9091 -15.2622
13.3886 134.906 7.65288
24.4082 140.918 1.53922
-0.583582 108.995 -12.2595
-3.53314 126.514 13.2652
-1.21817 121.476 14.6019
8.95928 136.365 -6.79507
-10.0823 113.581 -10.1013
-19.9205 108.012 -4.41915
20.2672 145.63 -2.40735
7.66415 115.101 -10.4534
11.4201 136.436 -9.57597
-13.843 98.6464 12.9196
17.0506 107.531 -7.41047
24.7997 127.444 -1.14937
6.43226 96.1708 -14.2738
18.7041 133.104 -8.95177
17.5665 147.261 -2.00107
6.18151 75.766 -14.6656
22.9467 89.2418 5.12658
20.5045 112.948 1.12551
9.6179 80.4905 20.1691
17.2276 125.152 -2.94025
-15.7288 88.4991 -9.92733
13.3421 127 -9.84225
-6.38347 92.6766 -14.0724
-18.7411 94.8003 3.67386
16.7529 92.4356 16.0241
7.21129 82.6233 -13.5929
11.6883 85.4984 18.9781
22.819 93.7826 3.027
13.886 147.839 -4.18093
