ply
format ascii 1.0
comment Created by Open3D
element vertex 1939
property double x
property double y
property double z
end_header
-10.5512 133.251 -4.73621
-21.3933 121.108 3.02756
-5.65142 152.291 -2.26918
6.15824 85.9493 2.27117
17.8367 123.383 12.4392
-19.3219 89.4287 -3.4377
7.75299 107.502 -1.68553
0.86239 101.85 8.66865
-1.34209 133.051 4.76202
13.3386 75.9644 7.04041
-12.9944 141.427 8.66605
16.8251 92.9832 2.39825
23.5226 78.311 14.8519
-18.1125 94.9525 -1.44993
-7.56454 95.2934 -6.25455
-17.647 119.524 0.709634
-16.688 116.054 5.59085
-17.2062 129.885 7.28279
12.5727 115.145 -1.27412
-6.32363 106.748 -6.47535
13.6934 125.497 3.67113
14.8982 106.946 8.68757
9.27873 80.874 4.19761
17.1863 92.751 2.47256
-18.4125 123.523 0.665071
-3.11076 117.269 -2.97999
16.1869 87.7487 3.42604
-11.0496 112.312 -8.10752
24.4885 84.7136 10.7373
-15.7632 106.363 1.76846
3.57353 100.211 9.6719
22.1163 105.092 2.32233
12.4111 93.0527 10.354
6.5786 81.1814 6.55973
-7.39551 146.527 3.03991
-15.461 143.961 4.16867
9.57246 134.992 4.90631
-12.0697 89.8238 2.48358
18.9029 119.848 0.764102
-17.3247 107.663 -5.62568
6.8781 113.068 -0.676613
-14.9841 124.537 9.19222
1.61383 114.092 -4.63212
15.8336 118.098 -3.73328
16.3388 82.8762 7.49884
-17.6965 89.9501 -0.511691
-15.2623 142.629 7.84217
25.2334 99.3169 12.4902
-17.0535 120.621 -0.222676
-18.4803 114.742 -3.71688
0.746569 123.137 -1.57629
3.12823 91.8472 -1.5029
-7.87783 138.504 -5.89965
-9.73226 148.926 -2.70514
7.92637 123.487 -0.238733
1.10319 77.7593 2.80078
12.0263 100.147 -2.19238
-20.4398 123.004 9.48451
-1.81797 124.781 8.89079
-3.27553 119.889 -2.66692
3.42363 94.2774 9.7089
-16.4089 132.086 -1.75002
5.8661 121.627 -0.0375573
18.444 99.663 0.874407
-6.89979 107.928 -6.56408
-4.6926 112.52 -4.31352
-14.8577 124.017 -5.01914
21.7708 120.772 2.75082
-16.9469 119.33 1.35761
-9.22194 107.571 10.8673
-14.9983 79.5317 -5.65425
-15.932 143.49 5.95828
9.78031 84.263 2.73323
-5.71153 90.8483 6.50168
12.5751 130.125 -5.72925
21.8222 89.0672 6.42665
-15.4781 77.716 -2.42188
-16.4234 112.089 -6.81931
-19.1175 89.3778 -2.94881
-15.5917 120.968 8.76465
-9.56557 141.431 -4.35084
9.66468 99.5722 -3.0688
-2.84727 89.8139 8.21962
21.0945 109.483 13.739
-10.0987 89.1437 -7.47541
-7.43366 140.673 3.89445
20.8534 80.4287 8.40238
16.7968 92.8293 16.1652
-1.90935 119.907 9.27513
17.8796 76.1984 8.50502
-2.47825 139.385 3.25251
-3.74712 120.293 -2.76048
-9.82177 97.3231 -8.19876
0.576195 127.319 6.33445
8.50658 94.536 5.72444
6.81085 116.694 7.75633
18.9327 115.712 14.2816
2.12832 143.711 -1.4089
-18.1871 120.203 5.51449
-4.98955 111.842 -4.53944
15.1982 85.8059 7.48616
-17.8088 136.561 2.44864
1.82035 96.2523 -1.38649
6.04014 110.201 -2.03923
-11.1786 129.846 7.54462
-17.7724 120.196 4.77162
-18.4957 131.331 -0.924006
1.17872 106.652 8.06201
15.619 83.5831 11.353
-5.49219 79.198 -1.13336
-14.2621 139.668 9.08179
9.95381 127.894 3.27822
7.57058 130.097 6.48916
18.3139 110.189 -1.97869
-16.0641 124.815 1.21539
25.0612 88.3093 10.0535
-7.44703 85.2414 -1.76987
12.5219 133.752 2.61812
1.89551 128.241 6.95472
-11.0014 76.911 0.607238
-9.92732 126.02 6.67738
-2.84688 123.462 9.56963
0.658398 95.7215 10.476
19.5433 116.65 2.98992
2.60701 147.029 -2.37799
-13.9306 140.406 1.20496
-0.421692 117.996 -3.28617
-14.5255 78.9855 -4.57934
20.2474 104.069 -0.0261984
-6.97724 98.873 10.8611
-11.0458 121.536 10.1653
5.42938 126.181 8.14946
-2.61627 91.1742 10.266
-8.34712 103.23 10.9
22.023 96.4143 15.5425
3.05303 114.73 9.88546
21.502 108.627 2.40796
-1.21936 139.324 -1.16203
-7.63497 134.441 5.61639
2.05738 114.392 -4.49758
-18.1128 112.836 2.35913
14.0166 130.766 6.51052
14.2578 86.4354 8.81939
-10.0818 89.5951 3.82908
-15.6911 122.993 0.872829
14.195 119.155 9.89345
16.5821 128.348 0.523708
7.31475 142.243 -4.73486
-7.60517 135.775 5.04749
-9.87415 137.998 6.61183
-10.7727 125.649 -6.1007
13.8733 94.08 12.3519
5.83471 102.455 -3.19805
13.3896 128.437 3.11029
22.8781 110.469 12.6434
-15.7079 90.1636 -6.27364
3.2109 84.3883 3.12801
-10.29 102.983 9.19861
-15.7138 122.988 -0.578718
16.7656 79.4732 7.79055
9.41837 96.1284 10.1889
-9.27044 99.4493 -7.8271
-11.7969 148.269 0.0610672
22.46 113.99 12.3339
15.9536 80.4014 7.19442
10.2963 131.331 -4.37145
11.7287 110.389 3.57281
-3.87932 93.2404 10.1641
8.14094 118.762 4.52535
6.90606 112.053 6.51525
15.0396 77.7676 8.05707
-1.54718 122.604 -1.75662
-16.6546 84.5373 -5.568
2.0857 148.103 -2.37582
24.1777 92.8814 7.67877
23.2795 106.092 5.21924
-12.6452 109.183 8.27285
13.0859 113.862 -0.676415
13.9352 83.0533 4.63239
-16.4342 104.192 2.36584
-12.9381 88.396 1.60684
-16.3176 121.638 -1.40742
-3.13363 90.5556 8.7101
9.33474 137.889 5.04195
-8.22623 79.6328 -0.0867901
20.893 119.927 10.7984
-5.42613 86.8068 -0.809989
25.4559 100.988 10.7822
-5.58067 86.88 -0.955167
8.92566 93.0664 9.54186
9.18243 89.3244 8.03451
2.55053 99.4191 -2.29094
-17.6914 134.59 9.37752
-18.5065 120.329 4.61604
-23.7731 123.768 5.59909
-21.9286 127.855 6.28348
13.7278 133.399 6.34057
8.90859 108.611 4.18836
-9.64643 106.553 -7.84391
-2.75657 96.3362 10.63
-23.5385 124.114 3.70306
13.2804 89.024 8.8161
-6.29243 150.644 -3.14355
24.2484 92.5875 7.86658
-9.83106 144.894 -4.19284
-17.2451 126.935 -0.262356
-2.00394 94.0893 11.1393
8.93697 87.9727 0.879642
-0.436463 127.991 6.49256
10.0486 116.716 3.09799
24.2494 107.059 8.29342
5.25334 96.5116 7.01654
-7.24341 107.69 10.8376
-15.5697 93.1995 -6.83857
21.3993 116.459 5.14318
-19.4318 90.2063 -4.31871
9.77822 85.5528 4.65407
-12.7972 109.973 7.37626
23.3121 94.7109 5.79761
-5.78132 130.756 5.23241
9.13358 99.2069 5.03443
-15.7125 81.7265 -4.76852
4.66534 142.167 -3.05297
-8.2802 148.061 3.16028
6.7844 110.126 7.8091
-16.1719 128.95 9.26368
-17.9059 120.958 8.56627
-12.9712 115.989 -6.78569
-4.75547 117.444 9.24886
3.91993 102.858 -3.84074
-11.0845 98.2746 7.48293
-19.1544 88.0029 -4.30882
21.7489 119.055 10.3912
-1.2083 145.003 -1.38659
1.84024 104.407 -5.8601
-14.7593 134.5 -0.144777
-16.3456 80.7028 -3.83236
7.35538 89.5797 6.29882
-3.57263 106.482 -5.86194
2.00646 78.5775 4.67175
-2.6577 137.456 -2.3604
-15.5079 122.975 1.2759
3.89065 110.834 -4.47625
-14.6499 131.649 -0.0906466
24.9819 104.082 10.9065
-13.9329 130.903 7.24672
9.62833 131.103 -4.03341
-15.7407 125.787 -0.414846
1.09473 102.548 8.53031
-11.9191 148.227 0.390747
-12.0466 139.324 8.66248
5.34322 142.091 2.16735
4.75517 100.102 -2.65327
-8.95373 147.153 -4.22911
-5.46707 122.731 9.62634
13.4028 121.87 3.76177
16.6386 83.1515 12.777
-15.8858 121.666 -3.39849
-18.8544 103.033 -3.69931
-0.46154 141.568 2.34018
23.3833 102.043 4.54341
-3.2204 131.805 -2.16085
24.7437 80.628 15.6866
12.1397 103.131 4.59905
-11.4801 108.254 -8.28488
-22.3042 120.688 3.28414
3.46657 126.498 -1.17889
-21.7221 119.859 7.52205
-9.58376 126.795 -6.29351
-8.73894 126.242 6.8879
-2.56384 77.4573 3.44564
-0.976069 76.2916 2.82701
-13.4581 117.503 -6.58946
-14.0551 112.853 4.99116
11.9491 101.952 -1.37814
-17.3662 112.316 3.11846
-10.3569 85.6753 -5.7518
-10.2855 84.1952 -1.91557
6.5927 82.887 7.82895
-1.15155 143.339 2.48798
8.96828 122.154 -0.892747
-8.81244 106.919 -7.44211
16.9402 91.0122 15.6834
-11.7087 133.069 -3.07743
-17.6489 86.9366 -1.18676
-5.08841 111.297 9.53331
-23.3882 123.985 3.70773
11.9392 120.046 -3.50493
-11.4155 149.524 1.74727
15.4614 115.339 -2.75476
-23.9263 123.696 4.41854
-14.4004 118.198 8.29561
-13.6727 129.879 8.01228
11.6622 116.987 -1.89087
1.15529 102.281 8.58926
-7.61671 121.633 10.6734
3.03449 150.858 -2.86431
7.62162 113.402 5.43588
6.93671 118.251 0.109719
-11.6933 93.0901 -8.06497
-20.5559 129.783 7.9271
10.9932 111.6 3.4073
2.71635 78.8347 3.65184
-20.0743 125.48 9.98026
-12.8757 80.4288 -5.71622
-6.93953 106.055 10.8015
21.2811 86.8019 16.0856
-2.96753 105.072 -6.63086
-8.63122 134.715 6.68919
-8.35633 99.5364 10.2002
9.31802 120.285 3.49146
-20.5347 130.193 2.31261
-15.8276 125.297 9.47421
-7.2193 126.529 -4.8762
-16.0302 135.246 9.78523
-17.3473 120.792 -1.25005
6.50663 117.467 8.01234
-0.916241 121.81 9.18827
-6.6462 118.342 9.62492
13.8852 86.963 7.65715
22.5978 84.5238 8.81571
-8.87092 109.631 11.2146
15.0042 122.691 11.8868
7.0144 108.27 -2.18626
-1.98488 94.8963 -1.60361
-20.5111 127.732 8.77391
-1.32614 115.043 -3.98683
-15.964 95.9727 2.49583
8.01858 108.992 5.2743
-15.169 77.5162 -3.44504
1.399 115.203 -4.39075
2.3725 130.213 -0.412935
-20.7145 126.025 9.58364
-17.9172 119.377 7.70552
-14.0982 127.041 -3.53282
-5.44814 79.2684 3.31828
14.9915 83.8761 6.86352
14.3991 87.8888 3.03918
-0.794415 137.871 2.99341
2.63501 87.9515 10.1056
19.8121 92.9405 3.27424
-11.9856 128.275 -5.55157
-9.43843 149.998 2.94604
-13.1634 138.268 8.99101
18.3866 92.9612 17.1952
6.0659 80.1235 4.39044
-1.42564 117.228 -3.1442
-18.603 109.582 -0.958693
1.02393 127.285 -0.795704
-8.66968 91.83 5.45237
4.58503 124.227 -0.389146
1.16849 128.323 -0.716919
-19.5689 120.934 6.80077
16.4643 86.4817 14.4817
-21.1185 126.14 1.83513
-19.8981 128.61 0.0734401
15.2306 77.8087 8.0815
-15.2338 121.681 -3.81232
-1.2858 99.0736 9.75615
-0.869266 103.86 8.4629
7.74327 99.0688 -2.84575
21.4082 101.851 15.3227
-23.5646 123.892 6.93647
-20.7304 130.79 7.66893
-16.8829 119.837 0.876362
26.4318 81.9343 13.8478
8.75599 110.695 -0.403779
-3.64902 114.025 -3.8867
4.32126 117.295 -1.66591
-13.5926 112.994 5.40447
6.56051 84.089 3.29657
-0.934205 86.4971 9.14893
9.01427 107.937 4.14421
14.2732 88.5237 8.77354
-13.1457 91.3037 2.6706
-8.39533 114.735 10.9819
-8.90734 105.858 -7.90538
-14.5353 91.3539 -6.91888
-19.1682 137.536 7.70631
-9.87014 119.821 10.4615
14.3007 119.692 6.54801
-17.6268 140.028 7.00728
14.1152 111.778 6.36574
3.53012 105.881 -5.44291
2.4424 128.497 -0.541702
-18.8185 133.363 -1.10819
-17.8015 104.216 -2.24391
0.770512 105.682 7.98078
4.97966 120.778 -0.682617
22.6186 96.209 4.2587
-8.84074 87.0525 3.39019
13.377 87.0757 10.0341
-8.14786 97.6819 9.40915
-18.19 108.749 -4.64017
-5.97119 75.9794 0.838117
1.13162 81.0612 7.19327
22.674 117.604 8.93142
-14.0549 136.887 0.0270592
-16.653 100.205 2.46816
9.01991 123.917 -1.6592
10.5151 98.2359 12.6633
-13.1113 143.762 2.25454
-8.09677 143.317 -4.91859
-17.297 120.626 -0.247246
21.6589 77.081 10.6373
2.94278 88.0169 10.1683
0.74746 153.416 -2.24121
7.54016 122.046 6.84735
-9.30433 92.3518 -7.1034
-20.6573 135.244 6.49974
-2.69675 125.845 8.24626
-0.269979 103.5 -6.47378
13.8345 113.581 4.81062
4.7297 138.891 3.62219
-19.3787 119.342 3.50033
5.73688 92.1208 6.70686
25.3971 100.349 11.6678
2.85702 128.377 7.22079
24.1058 86.5568 15.2406
-12.4892 80.7863 -2.46133
16.4809 96.1718 15.5469
3.90264 143.648 -2.57819
-6.4903 138.681 3.40058
20.7461 94.8554 16.3881
-0.309526 115.14 -4.51035
-16.199 126.539 0.0722463
15.3373 107.021 10.1013
-20.0906 126.422 -0.976105
1.07512 78.0685 2.83324
-5.91014 134.117 -5.08699
-0.472845 107.893 8.2061
-16.1147 98.4949 -7.34689
-8.20655 142.569 4.45724
8.13362 102.308 5.46681
16.1233 115.371 14.26
-17.2055 120.273 6.88056
2.57713 125.013 -1.55136
-14.2753 89.6363 -6.47486
-14.6356 108.482 -7.98146
-18.1786 139.36 4.31152
25.2792 79.8215 15.556
-14.4412 96.555 -7.29466
-17.2661 119.817 4.81404
13.9581 89.1373 9.64046
-10.0879 74.7875 -0.141271
-1.15609 139.485 2.80008
5.67599 142.686 -3.98577
-19.9456 136.778 6.24336
19.8536 80.6596 12.6229
-12.5177 128.603 -4.56629
-1.94138 87.1463 0.16346
-10.562 144.351 6.33249
-0.904426 119.352 9.34106
7.78977 92.903 6.15369
-15.7528 126.379 10.2874
-14.3015 142.938 2.22641
7.98076 124.567 5.73405
-8.54401 112.282 10.9169
-16.878 81.6477 -2.99222
-2.60622 79.6856 4.75554
0.883093 138.006 -0.426801
-17.5075 123.308 2.24765
2.60847 145.623 -2.10026
-12.434 79.6441 -2.19767
-17.7301 85.0854 -4.6118
-2.9725 137.387 3.62475
-4.43661 115.737 9.33261
12.8846 101.647 13.8263
-13.0344 142.569 -0.75286
11.4017 106.302 -0.46809
-9.63366 90.374 4.40002
13.8045 130.724 3.52141
-11.3416 122.263 8.78875
20.499 110.688 0.157746
-5.90629 109.705 10.1204
-7.06344 145.028 -4.76494
7.47261 134.697 -3.906
-5.32973 85.3815 5.55275
-13.9995 145.532 5.08962
23.3073 98.7601 14.3267
8.49488 78.818 5.582
-18.6883 99.2399 -5.32295
18.6203 82.4117 13.4425
15.36 94.0183 1.97845
-0.966782 102.252 -6.38291
6.23933 105.121 -4.46522
26.4223 92.465 11.4434
9.61628 94.9039 5.12121
-18.0977 115.836 -3.78197
10.9866 116.911 -1.31091
23.1061 107.923 12.9829
-11.0273 139.059 -4.0034
-18.4212 102.386 -4.84106
-14.4115 122.428 8.03044
-19.0641 95.43 -3.02047
-18.3146 105.403 -4.37557
10.2619 132.957 2.93375
-7.66824 84.4521 4.29229
-15.9646 114.387 5.34247
-18.0676 115.828 -1.39687
-10.2658 111.242 11.1548
10.9714 91.6255 10.4341
-11.3841 142.906 8.01317
16.398 88.3697 15.265
-16.8317 120.511 0.334383
13.3591 100.679 14.3762
-6.46723 119.517 9.75056
-7.31673 132.312 5.89563
11.9376 97.1147 14.0206
8.38168 81.4103 5.25184
20.8224 114.337 4.09074
-3.59771 103.855 9.19568
1.01738 88.1139 -0.380062
0.492091 108.983 8.15608
21.3435 103.294 1.07764
23.6327 102.182 5.04311
9.01814 141.743 2.73576
8.2503 96.7344 -1.43807
-16.7765 121.226 0.729342
21.0647 86.1665 16.1514
14.8455 93.3791 13.5633
22.3786 78.8345 10.0539
-9.16247 85.3355 3.11299
-1.4328 126.519 -1.2578
-2.09652 141.526 -1.77994
-14.6553 94.958 -7.0791
15.5024 112.721 14.6514
-5.14443 130.781 5.24099
24.5249 103.055 6.91637
5.70493 138.43 -3.37583
5.0474 89.9151 -0.858015
-10.3454 132.976 -4.87013
14.9604 76.6264 7.87413
-4.03046 125.403 7.89712
25.5003 97.8449 9.14088
-16.3139 84.5322 -5.63026
-8.86956 83.3308 0.0337399
22.4696 79.3026 9.96005
-6.39422 86.4972 4.79221
-5.17528 110.584 9.66282
-10.0759 103.846 9.71462
-1.03398 122.018 9.13465
26.5021 84.2905 13.4718
-13.3179 101.909 6.75677
17.5274 116.096 -0.904455
7.72965 87.9949 5.81795
20.3216 121.833 1.60098
5.45283 96.8598 6.94802
16.6313 121.354 13.1281
15.6217 87.6627 8.40742
-19.5588 126.571 1.44111
-11.9615 83.9405 -6.05349
-8.03881 85.481 3.88834
-17.8329 120.988 6.30135
-18.6943 120.007 3.93143
0.929945 125.381 -1.18017
14.5096 99.6284 15.4578
-4.40292 108.082 9.15746
22.8975 100.214 3.72812
25.0287 103.792 10.771
-14.7259 126.792 9.96819
3.64374 119.669 8.23943
14.4472 133.203 8.83399
3.98416 120.312 -1.70708
-13.4655 105.899 7.25107
-5.20686 106.398 9.77806
21.883 81.9549 8.99775
-0.594922 129.433 5.88163
11.3941 101.282 11.3617
-2.92625 96.3632 -3.35949
8.47083 135.519 -4.46
24.3398 111.907 9.14242
18.134 124.751 11.1151
13.0047 125.046 -4.94899
-12.4823 77.2277 -5.65867
-12.143 115.245 -7.2304
18.4434 122.589 -6.43904
-4.9678 87.1558 5.6391
0.685955 102.685 8.48467
-15.8812 116.891 -6.29581
-11.9665 115.649 -7.13118
-19.9533 124.796 1.17941
18.2662 114.41 -1.82059
4.72936 122.625 -0.501265
11.0111 91.5933 10.3984
-12.6641 115.33 8.52129
-3.64112 142.286 2.64651
9.11764 133.697 -4.21825
15.0228 118.573 12.7794
26.5691 87.976 12.1491
14.1374 131.399 4.16288
16.7428 122.226 -1.48338
8.43577 95.0816 5.33719
13.1465 101.284 5.41617
17.8319 123.887 -1.38267
22.4442 109.217 13.2832
-14.9585 128.437 -1.57508
14.2195 129.558 4.7377
8.24321 135.201 5.63761
6.14914 109.436 -2.68764
14.6268 126.47 6.37471
-15.4666 124.61 8.44722
22.6598 112.049 4.75813
8.85226 131.717 -3.68418
15.0964 94.6502 15.5917
-0.316818 115.247 9.66792
9.76801 113.04 0.0506469
-16.147 124.419 -1.00804
-12.0815 127.484 -5.65828
-0.778554 129.536 -1.17293
-6.14593 113.329 -5.0247
10.0619 128.971 3.21552
14.5158 87.4375 3.19387
3.98683 129.763 -0.0337037
7.06562 84.9367 8.78358
-11.9841 84.431 -6.60102
0.37434 151.886 -2.31538
-14.482 142.958 2.37538
15.3687 84.2417 4.40737
-13.7277 124.96 7.47093
-5.43771 112.345 9.4893
-16.1119 89.2639 0.288274
13.0038 119.636 -4.12373
14.703 94.2957 15.3483
24.7903 82.9662 15.5501
-2.86003 124.64 -1.82191
14.56 115.349 -2.59428
9.03809 132.704 5.71689
14.392 118.66 11.135
-3.91907 83.4316 1.11594
-18.3923 121.304 3.98016
12.9521 101.585 -1.33031
20.4152 91.9117 4.06763
0.524343 130.998 5.43013
-14.5244 139.593 9.12305
-12.112 114.617 -7.49427
13.2627 115.667 4.05261
16.8065 106.033 15.8919
20.9046 102.879 0.670363
2.40275 100.439 -3.58109
-17.0598 87.1983 -4.32661
22.9044 115.001 11.4111
-1.98501 131.174 -1.48681
25.4626 98.6892 9.12534
15.9135 102.587 15.4499
5.50707 106.79 8.43436
-15.2916 128.395 0.39215
-2.03206 100.931 9.2467
1.15364 116.573 9.41045
-11.7442 83.0617 2.00158
25.4426 98.7724 12.0098
14.389 114.722 6.75145
-4.54222 81.0812 0.865626
-1.34673 101.017 9.11914
-6.85283 83.1091 0.639356
7.4644 95.4719 -1.11891
-17.931 126.988 8.02654
-11.7405 105.299 8.19019
-8.27645 89.9364 -7.03915
11.9036 123.649 2.52476
9.47613 82.0389 3.6637
8.14418 93.4007 -0.205856
24.7467 86.1428 15.0012
-2.68061 122.966 -1.87094
16.5992 129.508 9.64046
5.74178 115.105 -0.864616
-15.531 127.23 -0.00080067
-6.17611 85.4706 0.340548
-11.7737 128.02 -7.26492
2.96164 142.424 -1.66822
13.7554 103.633 13.9416
-3.34989 109.186 -5.09459
-15.3665 124.918 -0.404977
0.200006 105.975 -6.00523
3.95754 138.474 3.67681
1.54002 90.6555 10.7925
22.6026 114.003 7.62805
6.90274 131.281 -2.77646
-15.421 95.4979 3.31523
-12.2959 73.8674 -3.38768
-12.63 131.725 8.48228
-17.1709 80.8548 -5.72796
-16.3403 142.286 6.90842
5.44872 108.068 8.75879
-9.07954 124.034 7.92796
8.09203 91.3773 6.39396
20.4058 81.3632 11.4633
-18.8656 125.134 0.102564
9.11019 85.373 2.3855
-16.506 121.073 7.95906
14.5112 100.808 15.0655
-2.01535 110.676 -4.93193
18.8521 113.593 -1.94186
-13.606 80.2923 -5.46044
10.2954 89.3672 7.16
19.6898 121.822 11.3969
10.6997 80.3278 5.46961
-3.78644 92.4857 9.82072
-12.6102 147.7 3.84924
-14.7654 124.838 8.15479
18.9758 126.166 9.02343
-11.1266 119.806 -6.74984
12.7923 115.718 3.66202
-6.82083 102.824 11.0065
12.3108 87.9831 7.07976
-4.28886 96.389 -5.74212
14.6512 112.545 8.32184
2.29184 91.5248 -1.33302
-8.91853 114.139 11.152
13.7329 87.1602 8.53816
-17.9653 97.66 0.0848251
-14.4262 96.8105 4.7684
14.8618 106.675 8.59454
23.9862 97.0316 14.2277
21.0601 85.181 15.8098
-4.50085 137.031 3.40799
13.7992 134.307 6.44053
-12.3403 80.4114 -5.55653
-7.81569 100.809 10.896
6.73463 118.47 0.0206965
-1.30186 80.2878 2.20673
-5.98193 130.132 5.7252
-7.11125 151.006 1.73877
-9.05522 124.272 -5.68435
21.4555 118.802 11.6495
-2.31829 134.493 -1.57756
24.7345 82.0179 15.7761
-10.3194 87.4112 -6.58835
14.2411 116.075 5.61119
-0.260032 141.024 2.41049
13.0206 88.0596 2.24816
18.9577 116.724 14.0846
14.7659 130.167 9.67543
-13.8793 97.1798 5.23531
15.7939 86.7383 14.1537
-11.0215 116.136 10.362
11.7188 95.2986 5.99353
-6.85319 111.011 -5.63885
5.45065 116.472 -1.16793
20.2141 84.6022 15.2605
9.21849 91.2189 7.91218
-11.1711 80.2855 -1.25653
24.8992 104.783 11.2837
25.6905 79.895 15.0376
7.98845 81.1147 5.03644
-18.4117 98.0995 -1.78744
7.49697 84.5874 7.97827
11.5867 87.8148 5.99588
3.67694 122.27 7.9242
-17.311 121.085 5.91852
0.321336 151.727 -2.27706
-2.11563 108.941 8.38784
-0.170661 122.814 8.65012
4.79423 103.17 -3.69469
-12.0384 147.94 0.384703
-9.08376 85.968 -3.96989
-4.31157 93.5845 9.64272
-9.92086 97.7029 7.84009
15.2732 120.878 12.6066
-17.2343 97.0571 0.986154
-10.0891 110.783 -7.65414
17.7179 113.775 14.9647
9.11266 140.544 4.57382
-20.7687 127.447 0.11656
13.0988 111.803 -0.55223
8.98116 92.829 8.26146
4.53783 100.328 -2.59353
14.5779 87.9887 8.90728
-18.6387 112.558 0.822985
11.5925 106.447 3.81831
7.92414 87.7186 6.69127
-3.60674 122.099 -2.82634
5.19876 141.754 2.02726
-4.81844 77.0907 1.97012
-3.19871 86.3945 6.61403
-3.95921 150.898 -2.10529
14.2124 98.0893 -0.276183
9.05452 90.1071 0.106518
22.3687 97.2261 3.65331
12.7577 88.0389 8.63661
-15.9937 117.579 7.02444
-13.2299 125.378 -6.02705
15.2066 129.641 10.071
12.9544 96.8467 0.0190217
-15.063 88.3269 -5.23535
-10.9395 125.139 6.25469
-16.505 124.806 -0.263872
23.8889 108.33 6.03989
-18.493 113.255 0.434409
-16.9094 82.3068 -4.11146
-2.04944 117.735 -2.97194
0.659044 83.4146 3.35027
-17.3611 101.828 -6.61318
-1.52127 138.162 -1.21694
-18.4251 106.938 -0.922713
12.3103 88.2031 1.80508
-18.3387 109.216 0.207904
5.65875 130.916 7.59599
-12.3485 74.6717 -2.79438
20.1896 112.224 0.414089
9.90763 115.01 0.164213
-16.1398 105.274 1.89709
1.21855 130.158 -0.839035
3.21984 85.6856 9.61425
-17.0335 121.334 5.92456
-15.4683 135.333 9.63269
-9.14319 118.392 10.7591
-4.2243 128.743 6.69528
12.9761 123.925 3.0864
-12.3025 126.691 6.79914
19.5738 124.975 10.0575
11.9031 103.137 -1.02868
3.61584 132.597 -0.119273
-11.5041 113.732 -7.83477
-16.2059 118.815 6.37863
19.0852 109.092 15.0343
-0.688824 82.2195 7.41758
-18.4332 109.145 -0.383243
-14.8265 113.395 5.3333
17.5555 102.732 16.7202
24.5199 80.4644 12.2347
-5.91724 142.215 -4.68453
-14.0438 82.471 0.822422
-8.9026 124.2 8.24171
14.3498 89.0793 7.01298
-9.53125 101.095 9.46894
-0.405663 116.349 9.88423
5.24299 93.5778 -1.92715
25.4881 97.2296 12.5674
19.4858 76.3729 9.2905
0.238066 113.895 -4.84212
-6.95068 103.079 11.0455
-9.20908 121.113 -5.30105
14.7695 93.7617 14.6653
8.69466 96.3931 -1.26034
1.08777 134.803 -0.226566
-0.380132 121.752 9.15127
-15.5925 85.6984 -5.50163
-22.2866 127.286 8.55085
-7.28228 89.9343 5.14178
-7.88775 92.2832 6.20084
6.81928 78.5443 5.52861
-7.16842 120.646 -4.95402
-2.65836 93.3393 11.5299
-6.99222 151.06 -2.70023
-17.1953 111.5 3.01546
-1.79214 111.958 -4.63261
-3.09204 91.3531 9.72743
20.9006 119.684 9.10093
-18.6492 119.562 8.30854
2.35769 123.293 -1.97758
22.5187 106.849 4.22754
13.1085 112.959 -0.32618
7.05744 128.936 -0.946781
-17.5646 118.825 5.42088
2.43557 131.178 6.11598
22.5352 114.23 8.68617
18.1145 101.079 -0.0352292
13.6472 79.9212 6.21503
4.39434 97.2885 8.46346
16.8042 121.512 13.0997
10.3086 134.876 -4.90593
21.4174 119.001 6.80647
6.61915 91.0179 -0.839468
22.2397 92.5933 5.41799
-10.0798 73.8527 -1.14278
-5.20796 118.598 -4.28667
15.5038 107.504 16.0299
-9.08322 97.8194 -8.10928
-1.47166 81.4075 1.51241
10.6777 84.1149 4.41908
-4.02605 147.887 -2.60918
12.3118 102.008 10.7268
-17.7691 118.409 4.19708
-15.2413 81.4846 -5.98748
-12.2075 98.7717 6.99123
-17.0068 119.441 6.89023
-6.29872 148.584 -3.69389
19.636 111.179 14.2396
6.22246 118.069 8.27747
-9.64791 126.494 6.84829
-3.31014 110.803 -4.67536
-17.96 139.953 4.28464
16.231 98.0156 15.2735
-16.8464 88.0743 -4.64267
-13.7679 81.9797 0.797185
4.83774 79.7902 3.4487
-5.56712 134.531 4.61431
18.7129 100.33 16.0914
-13.701 78.2584 -0.0953766
-17.057 96.5318 0.896537
-15.3015 105.794 -7.991
-4.53387 134.902 4.37618
0.727083 140.058 -0.765072
8.84991 90.6164 6.67022
9.77183 79.2167 5.90571
-15.3919 83.6634 0.38822
2.10309 117.017 8.97266
22.8497 105.872 13.7782
-15.9391 80.4779 -6.08933
2.406 103.021 -5.2385
-15.3171 129.957 -1.65406
4.22833 117.802 9.14327
7.93422 103.944 7.30897
6.72652 100.113 5.92662
-17.775 113.53 3.24195
8.39855 102.437 -3.75521
-17.5286 120.602 3.06532
-20.8083 127.318 9.22906
7.14398 131.689 6.94865
-17.0975 81.5588 -0.672917
-16.3737 122.473 1.09603
14.4022 122.09 7.45584
9.51564 122.176 3.57207
22.5026 108.925 13.2679
1.60412 119.236 -3.3088
9.27988 106.575 4.10209
0.37525 109.464 8.22111
-16.6745 96.8404 -6.96639
-11.4568 112.807 9.83014
-9.96162 102.992 9.61713
-7.05735 81.8732 -0.483551
20.4108 116.515 4.36141
23.847 82.7296 15.4487
0.411002 130.676 -1.12116
-17.9267 119.775 -1.76581
13.5102 111.291 4.52181
-16.3789 121.262 -2.70898
-5.81467 104.363 10.595
-9.00153 87.0014 -5.80053
22.3733 94.4252 15.8078
20.5752 121.034 9.45084
-1.61248 143.641 -1.43105
-16.9372 120.71 3.7759
-11.2667 97.3682 -8.44025
-15.9891 117.284 6.89339
-12.9917 126.174 -5.78193
-14.9463 105.239 4.78353
2.99456 136.489 4.43649
5.83571 109.115 -3.69756
-3.03481 100.915 9.38527
-5.42606 92.0267 -5.15324
-1.1147 128.629 -1.18124
4.14481 141.065 -2.25827
-14.2348 129.336 8.7747
-2.3448 113.505 8.7055
-2.16784 110.874 -4.82943
22.7192 119.642 5.18476
-16.415 119.219 6.24365
7.83579 128.751 -2.49161
14.603 125.997 8.16604
22.1875 113.38 5.02349
-17.9143 120.916 1.96325
-7.36504 82.6664 0.0865851
13.4492 130.599 2.84203
14.6101 109.243 8.60223
-8.69194 101.759 -7.24873
-6.99327 92.1317 6.65388
-4.62348 138.692 2.982
-15.0178 92.3126 2.38752
-10.5205 147.684 -2.72333
10.0205 97.1214 12.9087
17.1809 90.4692 16.5619
-17.3231 101.187 0.850495
14.1603 87.4223 3.09696
-1.63789 121.184 9.1471
-12.4302 76.7905 -5.77931
5.375 128.273 0.210835
0.987486 125.015 -1.26126
-1.39477 153.925 -1.92315
-10.0498 80.1625 1.71752
11.6468 102.389 4.88517
19.5647 107.002 15.2236
9.4475 91.413 5.77075
10.2038 77.837 6.71334
17.2611 126.609 -1.56623
4.62949 79.7652 3.40357
-13.2977 133.33 9.14881
-3.82705 116.265 9.51308
-10.7123 135.766 8.11161
-17.2722 106.956 0.0443292
-14.9613 117.082 -6.31054
-13.7483 137.524 9.16288
-1.37654 77.4258 3.83948
12.9662 102.13 13.8212
-16.8228 127.142 8.91685
-8.31003 88.5805 -6.72528
9.722 108.998 3.78542
-19.6892 129.584 0.702651
8.18363 90.0637 7.14411
10.4888 127.513 -4.35351
22.6663 105.723 13.9701
6.17488 96.8349 -2.52682
-3.88847 92.9698 10.0228
-18.5573 93.5602 -5.51785
18.3535 114.54 0.267526
-14.9964 81.2025 -4.53083
0.53492 106.157 -5.86851
-12.1028 106.128 8.16273
-16.562 122.081 5.86302
6.05592 116.624 -0.793601
-16.3897 120.37 0.919454
14.4961 105.051 7.61481
6.04981 94.8322 6.66788
14.4055 86.9002 9.28648
21.6596 117.042 12.1143
13.7429 121.047 4.20736
6.55756 103.453 -3.9544
14.8488 79.2377 7.42859
9.84825 136.57 4.37492
14.3313 120.545 10.8376
13.2313 104.516 13.5105
14.2628 106.936 -0.991112
17.4736 93.4341 2.41367
8.84217 91.0553 7.56935
-18.8913 135.396 3.2749
18.4255 110.633 -1.92714
-8.3018 99.6799 10.2745
-13.2024 138.299 -1.49221
-5.60778 133.134 4.67772
-7.11444 87.8007 -3.50753
-16.74 126.933 8.95085
-16.531 85.4257 -4.72632
-1.55174 109.514 -5.37417
6.5291 137.721 -4.04951
7.06245 101.427 6.07545
-18.004 101.443 -1.21298
-23.4796 124.775 4.55425
18.0995 93.6475 2.4587
-1.24724 112.472 8.55763
14.51 107.478 7.73405
22.101 78.3532 9.83109
-6.54766 76.214 0.946626
2.70138 145.27 -2.09603
15.3941 102.905 15.1226
-15.7104 128.786 -1.64993
7.87976 79.1987 4.39132
3.89495 121.267 -1.40602
19.4208 104.887 15.8686
-16.2261 122.181 -0.18309
11.5701 137.851 1.84285
-20.2238 129.419 1.55368
-0.259184 115.087 -4.55046
-10.8406 138.544 8.17986
25.2179 93.7342 13.6579
-6.99975 106.53 10.7938
7.86771 112.742 -0.224027
6.94432 132.273 -3.07195
15.9601 127.215 10.5937
17.7558 98.1995 16.4734
-17.0868 117.663 -0.758737
4.59358 108.453 8.86435
5.53851 92.7857 -1.55326
6.5156 135.315 5.21638
-9.05448 95.8274 -7.50292
-9.93204 148.35 4.34943
-4.78485 120.504 -4.16551
-8.46138 148.628 -3.59503
8.57921 128.095 6.29882
25.0767 102.449 11.7932
24.1826 108.402 11.3443
-8.02738 139.979 4.83513
13.4921 92.3262 1.55969
10.9226 120.265 2.83916
16.5998 82.483 12.343
5.77053 137.663 4.02466
-7.47519 88.1157 4.42664
24.6624 84.3769 11.0007
-15.0131 106.234 4.19137
15.3109 87.7026 8.47528
-17.3337 120.752 0.0109774
-14.4851 141.102 8.68476
15.0222 117.422 12.9845
0.169214 98.8091 -4.29425
-4.1337 123.614 9.61524
-18.8923 119.617 3.38562
-8.77276 107.258 -7.26534
2.0273 104.667 -5.80957
9.43374 81.8047 3.72853
5.6604 80.7304 5.82423
7.94339 132.857 -3.47539
10.6203 93.9217 11.9499
-12.9993 128.975 -4.26564
-5.15507 132.064 -3.39855
4.83066 105.041 -4.74344
-17.1854 104.406 -0.93333
12.6264 109.98 3.90987
14.274 116.604 6.59837
-15.3545 144.237 6.24229
10.7196 123.304 -3.74339
-9.62025 151.243 1.09917
24.9219 100.873 12.3946
-21.7297 119.428 3.52266
-6.44667 128.242 6.88795
-6.27427 110.255 -5.55866
7.20051 92.5676 5.95271
9.52976 96.6655 10.6115
19.1456 107.293 -1.13231
-19.2679 134.652 9.00413
5.18316 124.225 -0.061329
-16.9835 129.386 -1.39653
-23.6216 121.83 5.8081
-10.9103 96.2437 6.37348
-17.9434 121.195 3.85949
-13.0539 136.463 -1.57179
22.9386 79.6225 10.451
-18.7501 127.135 8.21681
-8.7393 126.437 6.92778
5.0668 84.0047 3.29272
21.4914 81.757 8.69319
-8.46565 147.694 3.44638
8.02829 90.8589 7.17004
-16.2341 133.215 7.96565
14.7933 88.4124 8.59254
-17.0376 120.568 -2.64304
-6.03828 94.9885 -5.85863
-3.24226 128 -1.9808
-1.52324 104.506 8.4945
15.7369 110.568 15.1269
-1.9206 94.0375 -1.16241
20.3915 100.617 1.12903
13.4789 115.488 4.23145
-16.8546 120.839 0.619062
19.6344 89.2326 4.17615
2.9909 137.5 -0.5927
-10.55 125.588 -6.18929
-9.05939 136.876 -5.27431
-14.519 88.5827 0.804532
-9.73348 146.075 5.11181
20.5445 123.049 9.70112
11.8401 135.365 2.35169
-15.0715 102.11 4.52246
-4.32134 143.505 2.64483
22.2177 101.408 14.8913
5.54826 140.561 -3.76523
24.2827 88.7338 9.12552
-4.74538 94.372 -4.96068
-6.03541 79.6997 0.700093
-19.138 126.886 8.52901
-11.4428 137.459 -4.41578
14.4678 124.747 8.27598
11.3678 133.341 -4.95284
0.709787 84.9879 8.7519
24.7709 90.3754 9.10258
18.9149 116.116 3.18962
-17.0399 109.565 2.31457
13.0856 77.7552 7.56306
20.4663 88.7545 5.16247
12.2266 87.9746 8.54035
-23.3549 121.341 5.36152
-0.97419 130.74 5.14388
4.18809 106.308 8.31005
-13.9885 76.1978 -1.59835
12.8047 121.96 3.39788
21.7112 83.3475 15.1145
22.4961 91.1473 6.24199
-6.15937 153.235 -1.15639
-8.63579 151.929 -0.623014
19.4545 108.623 -1.11622
-14.8701 81.486 -5.16792
-13.7632 114.069 -7.44999
-12.3885 99.3048 7.05719
9.12837 92.1323 0.285355
-12.2617 81.8269 1.30963
-16.8521 125.463 9.1084
-18.7793 120.169 3.66656
-3.62307 89.9318 -0.573303
-11.27 137.56 8.24919
11.5757 105.212 4.0354
20.1127 83.0637 7.28312
-16.0246 116.241 -6.48898
-8.80815 90.657 4.80567
-12.4832 109.323 -8.32757
21.1473 90.6023 5.16818
10.9058 80.1872 5.58626
-0.486922 104.599 8.29188
23.4649 80.788 13.5229
13.1621 87.6594 5.77894
-3.74935 129.293 6.64979
-5.37858 107.611 9.79617
-15.6979 99.2052 -7.64233
24.1834 85.9722 10.0162
-0.23654 123.276 8.53095
-22.8787 120.065 3.82264
-11.2163 108.321 9.92591
-0.492247 91.4773 11.7472
-16.4302 123.497 0.528455
-9.35831 81.6493 -0.65008
12.1126 79.5964 6.08731
18.4567 109.079 15.3012
8.00736 125.05 5.66936
-5.15826 102.597 10.7859
-1.12507 105.236 8.36078
0.585189 84.9674 8.69208
17.5345 105.118 16.2401
19.9874 116.485 4.12419
15.0207 104.062 15.3382
-9.48307 150.167 2.56587
-16.1609 124.427 0.55301
7.62132 104.474 7.53859
-18.6698 99.7566 -2.68116
-15.9612 105.444 2.32355
-13.874 78.256 -6.10023
-14.026 134.986 -0.293661
-6.97301 133.402 -5.77423
-14.6394 89.457 1.1315
-16.6813 90.225 -6.04796
10.8118 84.3989 4.60205
-15.6955 120.282 7.95575
13.0642 81.0051 5.47656
7.35032 121.563 7.46665
-2.18448 108.621 8.38925
19.0762 116.039 3.89386
-3.08651 126.485 -1.90729
-7.53788 119.359 -5.34858
4.25331 143.573 -2.92587
-4.1025 132.214 4.523
13.7273 133.463 6.30771
18.4202 114.8 14.6551
25.9999 93.3744 12.0785
19.6383 94.4212 2.84388
-11.8178 134.105 -3.08841
2.95087 77.2466 4.09101
19.3017 117.127 13.8478
3.98054 140.59 -1.95779
-14.1037 75.5261 -2.3196
16.8317 94.0003 2.2084
-5.75498 152.376 -2.11155
-10.5944 93.7417 5.03734
-9.44334 86.6399 -5.98956
7.36389 134.216 -3.83143
8.38069 142.231 2.94799
-7.04652 135.332 -6.2683
0.197428 81.7371 7.43713
11.2633 100.389 12.889
24.3927 99.2984 6.47321
-16.3432 122.959 4.09401
-7.02574 108.096 10.7519
4.33361 132.777 6.20669
-15.3231 123.881 -4.37512
10.6255 128.288 2.64523
-1.6425 81.9078 1.22289
-6.94489 109.276 -6.1857
25.1372 97.0976 13.0432
17.2076 81.9355 11.3257
11.4154 94.568 5.41888
-1.39484 131.981 -1.36672
17.0526 93.2563 2.38804
4.48391 96.0181 -1.85802
-15.1801 98.7336 4.39618
5.16841 95.2305 7.71382
-6.36278 146.59 2.53519
12.1003 134.455 -5.42692
-22.7356 119.404 5.86349
-10.8085 121.441 -6.03049
-1.97007 135.479 3.56778
-3.919 145.329 -2.93865
-17.6206 97.1809 0.514728
-9.52651 117.555 10.8973
12.6512 114.717 3.69894
-9.97313 151.111 -0.532928
19.8963 113.626 2.13175
16.9888 94.1763 16.6185
13.9452 103.815 -1.0196
5.90109 77.0428 5.29326
17.0919 105.693 -0.730831
-16.2534 111.136 -7.0606
3.60176 115.087 9.81114
19.9679 108.757 -0.676834
-0.362497 121.113 9.11584
16.484 82.9197 9.7339
-14.6964 102.494 -8.29763
12.1817 116.594 -2.03339
7.07503 142.505 3.01223
0.972621 106.355 -5.68657
-1.47383 120.551 9.27368
0.495887 106.754 -5.90548
-13.0677 147.329 3.2994
11.1643 114.793 -0.163868
-15.0923 84.2636 -6.41392
-11.1839 99.6953 -8.35551
-22.5686 119.127 5.91205
-23.2099 123.103 7.23337
-3.03148 78.9738 4.20941
6.54105 131.055 -1.87697
15.953 128.83 0.510945
-5.65671 129.038 6.15672
15.0113 110.422 10.9267
18.3006 118.377 1.31112
12.9237 119.512 3.44524
-14.0494 100.711 -8.42111
-18.0223 119.408 7.79111
-15.4603 141.732 8.31913
12.6012 79.6524 6.07387
0.885372 120.511 8.55394
-14.2915 78.6982 -6.20761
-17.4525 129.285 -1.5498
-2.55261 95.4618 10.7827
-13.8272 126.43 8.53746
-10.8737 89.5848 -7.44465
-4.37472 117.475 -3.48836
6.75886 118.12 -0.0695396
20.0521 97.4909 2.02839
1.8076 100.317 9.39801
-22.8152 122.323 7.25706
-14.1161 142.388 1.54994
20.6305 80.6393 12.4576
14.6859 84.445 7.29051
6.49627 135.9 -3.49512
-22.982 122.417 3.47001
10.4 99.6121 12.1316
21.1733 118.296 3.0365
-4.96681 91.133 -2.03227
24.8195 103.919 7.87591
6.51422 121.137 7.88393
6.28227 106.319 8.28874
-18.3557 92.2032 -2.66116
3.20818 93.6615 9.21759
4.06887 78.3688 2.82269
-1.70329 136.058 -1.21781
-10.1363 91.539 4.58543
22.1238 95.2215 4.17763
3.78322 107.158 -5.08035
7.34579 106.928 7.18022
8.25472 112.969 4.54559
7.3388 85.4357 8.81381
-5.37729 85.9434 5.4432
-16.4556 101.181 2.633
-3.79154 93.7945 -3.44524
-0.266965 94.0821 -1.05743
-19.4945 124.581 1.13554
-4.77512 120.561 -4.17392
-18.5597 123.996 3.01404
-6.99283 81.1436 3.18868
11.6596 99.9111 -2.51541
-3.84851 145.651 -2.83348
-22.154 129.582 5.6493
-7.04274 145.535 2.92614
-10.806 79.7222 -0.674667
-13.4316 93.1446 3.27119
-18.7698 118.98 4.37702
-12.5394 84.3292 2.08161
-7.64079 139.957 4.33132
-6.11094 109.701 -5.74672
-14.3023 134.195 -1.18659
4.65396 84.6171 9.28532
10.2162 126.118 -4.09862
14.8967 85.5856 8.1848
-14.3958 95.1792 4.10114
-13.1678 145.721 2.95759
-13.0002 95.8844 -7.62559
4.44741 119.098 -1.63762
-7.2517 115.925 -5.80494
-17.7258 122.984 7.39844
13.6848 106.33 5.40913
-9.80965 83.9862 2.94945
4.99274 85.5462 2.45636
15.8991 123.391 -2.71917
-3.98668 127.632 7.03523
18.4197 116.772 14.144
10.3249 107.722 3.78101
14.3754 119.551 11.1641
-13.0008 125.873 -5.63405
12.0486 102.773 4.78878
6.32473 91.9239 -1.02473
-8.50052 98.1117 -8.02698
14.2423 128.928 7.7117
-21.3555 132.409 7.55883
10.9124 84.8785 4.41443
9.4219 118.934 -1.25942
-12.3111 106.825 -7.97389
-3.78816 94.7221 11.2148
-15.0438 122.546 -3.32247
-14.0746 125.639 -5.59152
1.3484 85.8045 2.14206
10.1357 92.9001 6.59235
-13.7316 144.825 4.00313
17.6689 109.098 15.64
-17.6882 138.847 2.89037
1.51606 94.0166 -1.27156
-0.629367 139.07 2.79796
-14.9723 90.7829 -6.8512
-2.94926 128.007 7.38531
9.66484 83.9411 4.05374
11.3853 132.475 -4.72827
19.6635 78.8523 8.73483
12.6116 134.599 2.3643
19.0518 121.661 0.499268
7.0478 98.1226 5.74907
-2.22276 132.529 -1.77446
13.484 112.059 4.21855
14.6167 125.747 11.1854
14.709 113.242 8.37412
9.57281 85.1078 2.43208
5.76468 137.839 3.96759
22.1001 109.759 3.57857
-17.8567 116.983 -1.69145
-17.0336 121.008 6.36179
8.10271 128.458 6.57601
-15.6734 120.89 8.42827
-15.7854 124.407 8.13706
-13.8157 130.213 -2.64174
14.4522 116.588 11.7224
-17.4341 120.232 0.9943
8.57246 126.374 5.19366
-7.79509 146.744 -4.31687
-7.42397 149.395 -3.5559
-19.9722 132.291 8.21896
11.6699 86.7451 5.33602
-11.3587 93.4493 -8.16292
-18.7566 119.411 4.15238
-16.8431 120.033 0.744731
24.6331 104.792 7.27744
-12.5953 79.1964 -5.09351
22.9943 111.025 4.58857
-10.1274 107.668 10.516
-16.1576 125.25 -1.71485
17.4517 125.969 -0.344549
24.6309 97.2984 13.5585
-13.4871 143.216 1.90461
-21.0333 131.894 8.0975
-6.95346 111.431 -5.77354
21.8763 93.4522 4.68855
13.1206 129.822 2.37444
-6.9265 134.79 4.61903
8.07536 92.6634 9.09217
13.1369 109.884 4.0912
14.611 114.393 -1.89456
-18.2003 113.885 -4.5315
8.06571 88.587 5.54542
1.14001 88.8858 10.617
3.27775 138.992 -1.10909
13.4883 131.748 2.53513
-14.1319 132.516 -0.474005
12.4302 85.9936 7.64838
-12.1996 108.272 -8.26503
16.6317 105.572 16.0807
14.9076 104.938 -1.03306
-11.7577 81.3541 -1.10779
-8.91712 83.3361 0.00453794
7.5444 108.318 6.56519
-10.4576 91.0296 4.04031
7.08578 122.651 7.71092
11.1667 97.2207 13.6098
-21.5043 129.757 4.43133
-8.49246 130.462 7.00614
-1.01774 104.41 8.39864
-14.0539 144.787 4.18942
16.4543 126.03 10.8878
16.5764 127.283 -0.453274
-7.77829 152.477 -0.774416
-11.4206 127.569 7.29396
4.22602 131.356 6.8886
22.8367 110.863 12.5997
-4.30094 130.26 -2.75298
-14.8716 131.458 -1.20633
-14.3336 81.6743 -6.54165
19.5373 109.612 14.7036
-0.0505404 108.964 -5.81554
-9.79849 109.487 -7.60505
-8.7491 123.721 9.08238
-17.8619 140.539 5.7514
6.28587 142.564 2.19644
-22.2291 131.236 8.19476
-14.7366 81.2397 -5.97263
-19.0694 124.872 1.06986
-21.9262 131.512 7.67932
13.8118 133.869 6.75544
-20.7831 126.177 1.26104
22.7011 112.699 5.77296
-16.0956 118.918 -3.16493
-18.3277 127.133 8.0592
-7.15503 136.23 4.75991
-19.2846 93.1088 -3.55287
14.4304 123.143 11.0789
-17.94 103.034 -5.01069
-1.04447 98.2755 10.0849
-17.2437 107.781 0.623201
-13.8686 129.855 8.13011
-2.96767 116.626 -3.07972
-0.998002 113.957 -4.43074
1.9288 92.3656 9.3388
-3.48669 90.6931 8.31604
5.48663 112.132 -1.85332
-17.7015 117.494 3.11297
-3.15391 143.009 2.29896
-16.6595 120.483 4.86596
-17.3257 94.436 -0.829051
22.8917 91.3883 6.60962
18.6633 125.1 2.29838
-10.1002 110.015 -7.74363
5.80563 90.4521 6.63952
-3.84253 146.377 -2.72974
-8.04592 83.8487 4.08969
7.10364 119.765 7.58554
13.3603 91.3683 1.54698
22.6575 108.075 13.356
0.899683 113.841 9.38087
15.1197 124.197 -4.53102
6.18121 100.901 6.89982
-7.38838 116.61 9.93438
-0.376039 106.506 8.13166
-3.61839 109.415 8.71721
17.1356 124.915 -6.58945
-7.00057 112.691 -5.90219
0.302649 78.9044 2.03745
-3.49154 84.9028 6.5874
-8.06256 79.5984 -0.501553
2.11102 77.5453 2.87612
0.868154 85.4458 9.24729
13.0931 127.09 -5.5545
-4.23673 144.455 2.37597
-11.5882 120.437 9.94647
4.47146 105.9 -5.51298
-5.13677 103.196 10.6252
-2.98704 126.777 7.87698
-1.21815 127.624 6.18922
-10.1314 81.916 -0.563499
9.86586 126.285 2.92883
1.54461 118.881 -3.51112
2.96213 129.169 7.38361
15.8478 96.3788 1.54485
4.49783 102.573 -3.53882
11.8409 95.5265 6.08881
-2.97839 129.35 5.77256
-14.2192 110.75 -7.98989
-3.05875 99.4994 9.82505
-11.1054 114.387 10.4736
24.5982 77.3432 13.3969
8.54705 104.318 -2.39882
18.4102 80.9125 10.0241
-14.2967 119.165 7.93353
14.3783 116.183 7.39183
-12.8917 119.735 8.96341
-13.6638 112.53 -7.82119
-23.2323 119.394 4.48275
25.9142 94.1787 12.0383
23.7644 101.702 5.40382
-2.55055 130.595 5.11633
-8.32865 79.4492 -0.270028
11.0669 99.9604 -2.81061
-13.2141 99.0043 -8.22564
7.99076 94.2539 5.97429
-18.8344 112.251 -0.227202
-16.6574 133.022 7.81658
0.760695 82.2389 7.90749
-14.3554 108.949 -8.00285
16.0805 78.1811 8.13079
5.05649 90.6452 -1.11189
-16.922 124.525 10.2805
9.76135 102.694 -2.07607
-6.97151 79.6468 -0.95397
-16.9616 120.85 1.04955
-17.4438 99.6713 -6.86891
-10.5813 139.936 7.21985
3.70934 121.76 -1.41773
-19.3873 120.826 8.46258
-5.07002 124.55 9.20567
-14.339 107.435 4.12509
6.68611 96.0028 -1.944
4.75138 102.958 -3.62931
19.1059 106.381 15.4713
3.62511 128.175 7.62048
15.4104 126.673 -4.92194
2.77912 83.9451 9.21013
8.58973 90.6505 7.63196
-12.3341 76.2538 -0.131606
24.4362 108.141 9.29765
9.12473 102.182 4.52091
-17.1903 133.562 8.26263
19.1334 76.2429 9.27104
-17.2508 108.266 -5.82526
-16.3771 125.332 8.8778
15.1993 114.715 13.881
-8.5598 140.52 -5.29391
5.41922 102.017 -3.01417
20.7577 109.662 0.265511
-2.34793 89.8642 8.9938
25.1211 89.9423 9.64714
7.93134 107.275 -1.67186
11.0152 85.2594 6.04482
3.41367 90.8603 -1.39979
15.686 105.117 -0.832693
-16.2134 123.588 0.657099
22.3234 108.289 13.6032
-21.7401 130.78 5.87338
-10.8527 85.548 2.55881
-1.74491 88.6962 8.87598
0.65427 115.534 9.85406
1.02939 135.021 4.09357
-1.28842 116.505 -3.48118
-16.5155 111.829 -6.82216
21.7963 116.26 12.3347
-2.27594 129.898 5.17891
-15.544 88.3432 -0.103845
-11.6823 100.662 7.85375
14.3238 94.8203 15.1064
-17.2573 101.672 0.987796
7.87777 90.7293 7.39926
9.57027 136.612 5.2524
-7.40369 107.279 -6.82454
20.8084 100.283 1.42096
23.6732 96.3061 5.7394
-13.0389 79.1665 0.596711
-7.5102 126.747 7.94955
16.6909 79.426 7.79302
-3.34529 99.3551 -6.73693
-10.5337 137.402 -4.85423
19.9976 93.4035 3.24597
19.4309 87.4633 5.04085
12.2078 126.179 2.31645
-18.1889 105.747 -4.60111
1.5597 113.245 9.36981
-21.7439 131.425 6.80238
-12.0154 87.8399 2.03346
-7.33282 136.879 5.03124
5.98445 120.63 -0.138631
18.81 97.8772 17.1067
-13.9267 132.313 7.84722
-3.72235 114.712 -3.67196
-8.24217 87.0371 3.71829
-18.5523 120.787 6.82139
17.0161 98.037 1.3901
-17.9359 90.8132 -1.65241
-5.03334 89.0245 6.1169
1.59776 106.311 -5.41248
-11.3412 132.653 -3.41268
-3.00223 131.621 -2.02552
-18.2862 120.168 2.80328
5.16472 96.8083 7.11378
16.1341 128.043 -2.14149
16.006 79.5733 7.56914
16.6674 92.6491 15.8556
24.0468 109.839 8.19182
-16.7579 121.489 8.8778
-15.5879 129.613 -1.43726
13.4181 115.373 -2.15003
24.2321 92.0898 14.8369
9.84113 97.0034 12.4197
23.922 89.3994 8.567
9.86155 135.724 4.81986
13.0806 126.252 -5.291
-14.1652 83.2348 0.986015
-17.0301 140.445 7.96685
-15.1783 125.476 -0.428893
9.56621 139.548 2.66131
4.51447 79.0896 3.2776
-16.8868 121.33 7.64242
10.5336 100.68 5.3242
-9.87121 114.667 -7.4325
13.1073 99.7089 5.67623
13.3347 87.87 8.81466
-14.0873 106.137 -7.99096
20.1098 124.15 9.94543
1.06172 122.207 -2.01715
17.8444 98.3535 1.44927
-0.275622 82.0392 7.45658
-15.3629 124.67 -0.730703
-1.25786 105.164 -6.70683
-10.8719 148.581 -2.01085
7.56603 119.102 6.77199
6.10787 126.273 0.128462
16.0804 80.7248 6.98746
10.1777 99.7765 5.24527
-2.49858 94.4273 11.1099
-16.8573 97.4755 1.86407
10.0707 81.9861 5.82503
9.068 105.451 4.67612
13.2713 115.435 -2.07944
-8.41716 123.119 9.61957
12.0261 95.871 6.23117
-5.20838 134.23 -4.14009
-14.3781 113.198 5.29107
5.08728 111.67 -2.38919
-16.9823 120.858 1.14109
4.01468 89.183 9.86668
-16.7836 121.253 7.25325
-17.3303 123.408 8.1751
-9.2357 86.6678 -4.77422
24.6826 95.9503 13.7737
3.61249 132.792 -0.122024
7.94242 86.4635 8.57968
-20.1622 125.754 3.49446
14.2629 87.1773 3.17103
14.6239 114.357 7.99286
25.9847 94.6234 11.7995
-17.3744 123.763 3.35352
-12.5281 118.556 9.79882
-11.6157 107.291 8.98933
-13.8313 124.44 -5.26548
7.21274 107.142 7.44389
14.4374 106.87 7.33035
14.5641 104.675 -1.14683
26.0456 87.9772 11.4745
-1.15103 100.688 -6.335
18.4831 93.0054 17.197
10.9537 97.2287 13.5137
-12.812 83.2959 -2.57879
-18.2895 107.98 -0.236831
13.2421 112.201 4.07669
-18.473 120.547 5.07617
-18.3517 128.733 7.47894
9.24378 90.9197 6.78072
-13.6584 124.227 -6.38575
14.6221 126.557 6.07839
8.16805 129.722 -3.29804
-16.3788 123.51 3.83465
-9.90388 106.374 -8.01087
-5.35419 140.391 -4.8173
-4.12079 95.5868 11.3213
-5.03863 105.451 -6.30359
-2.84814 137.01 -2.50709
-14.3706 122.515 -6.06212
-9.62249 88.5408 3.53149
15.8246 88.2142 12.0209
-17.4842 100.026 1.2527
3.55733 137.753 -0.978532
-0.688055 97.9034 -3.93741
-9.8925 116.303 -7.18755
-20.7907 133.278 6.98561
-18.3597 110.145 0.828555
-1.86665 97.3667 10.4683
13.9484 129.502 3.79322
-8.05701 126.529 -5.46419
-16.9428 139.115 2.03828
-5.63758 103.4 -7.07716
13.3856 86.1816 9.20518
5.53862 140.416 -3.7286
4.64334 128.32 -0.147379
-6.35646 86.9206 -1.59807
24.1888 88.6113 9.06378
18.9412 124.28 11.2949
11.478 111.829 3.37291
17.8938 113.354 -2.56388
-13.2419 88.4905 1.46046
14.4092 127.822 5.2346
6.18279 94.5277 6.62422
14.0102 91.398 1.8321
-12.9068 134.135 -2.12258
7.16999 139.09 -4.90001
-12.9302 141.454 0.109044
1.73142 141.4 -0.80958
-17.0443 134.193 -0.290068
-1.23718 109.467 -5.50419
15.337 107.673 11.4844
-2.96983 85.3399 1.10663
0.824987 78.3503 4.90946
-9.6057 98.73 8.95407
21.2872 114.632 5.06937
-12.0903 89.2285 2.37062
20.5725 113.586 3.03506
-18.4488 109.917 0.0796198
-16.4724 136.6 0.721033
9.12391 89.1238 8.04401
-4.94832 107.134 9.54083
-14.4969 124.983 8.45952
9.85392 139.183 2.36237
-13.7991 78.062 -4.21747
12.7881 89.7514 1.58631
-18.2563 92.9818 -5.77348
-18.9702 133.089 -1.04938
12.0924 102.388 12.2989
-13.8205 146.236 4.8203
1.49699 128.268 6.85886
19.039 125.34 9.86732
8.64669 87.6398 5.15174
-7.22106 76.3774 1.03322
20.5924 89.8841 16.3607
7.85391 117.912 5.67018
1.61434 85.4322 9.68629
10.0484 81.4002 4.14901
-0.725258 85.4889 8.43625
-18.0392 136.997 8.81751
4.23042 109.215 8.8816
-1.13902 140.811 -1.23113
-10.1835 132.527 -4.8664
-16.864 121.11 5.55775
-0.308609 137.38 2.99973
19.4858 75.7735 9.34836
-1.53444 99.4847 9.63897
-18.2281 128.909 7.41317
-0.440344 117.134 -3.60654
-9.53275 85.1068 -3.28247
3.2403 135.379 5.0969
-7.43112 81.5183 3.05163
-12.7954 76.1793 -4.65646
-13.8133 83.5694 -6.44356
-0.183858 124.133 8.22035
13.2426 85.796 3.13965
-19.6995 84.5185 -3.19204
10.0597 112.859 3.52708
-5.72452 79.6091 1.09874
24.9794 78.4197 14.8184
12.6694 98.048 13.3975
20.7096 94.027 3.53566
22.8483 111.122 12.5429
15.4544 119.896 -4.17234
11.9203 96.2216 0.125769
-16.699 121.241 7.32114
20.2845 75.6622 9.71562
-2.29149 151.437 -1.61348
11.2789 97.5484 13.3894
-18.9467 94.4416 -4.1516
-15.5896 126.294 -1.35532
6.60895 127.233 -0.0437279
21.0537 108.472 14.245
14.3106 123.436 5.8415
-1.89168 89.2186 8.85753
-13.9421 124.702 7.12131
6.9058 91.2579 6.02476
18.2883 114.857 0.123793
-14.6131 130.872 -0.446854
-11.5971 80.1162 -2.23713
-18.3255 82.4193 -1.99211
-20.8129 122.116 2.67229
-13.7887 144.282 7.32625
-16.5317 124.191 0.866353
-2.81573 90.0321 -0.0385402
15.7662 108.406 16.0396
10.8269 90.2978 9.96179
15.1216 120.633 12.483
13.0843 97.8818 13.6874
-2.22229 119.676 9.23871
16.11 104.717 16.0964
2.84774 112.585 -4.55942
1.80561 142.754 -1.02865
-6.54737 99.0918 10.9377
-7.75624 144.363 3.51694
23.9862 92.5885 7.48188
-19.4869 129.133 -0.117706
20.6932 113.782 13.4928
-8.72111 129.122 6.65419
-16.1286 80.8472 -5.7214
-4.25238 95.497 11.0003
-19.3448 119.879 6.57512
-9.59852 93.6895 5.7589
5.65363 122.919 8.20457
-10.8924 100.455 -8.20178
-3.37478 138.446 -2.92569
-5.3304 132.357 -3.52733
13.2881 95.7225 13.9923
-9.15161 103.429 10.4545
-7.76563 153.659 0.374989
-10.2224 84.566 -2.87168
-18.4015 105.266 -2.15601
4.75772 139.077 3.53023
20.6647 113.165 13.6128
8.71865 120.599 -0.472715
-15.8327 131.91 7.23779
7.07493 107.579 7.71083
-10.5471 124.336 -5.80151
-7.27537 130.201 -5.36809
-13.8659 134.955 -0.426646
24.118 107.472 6.99672
24.5006 107.914 9.44549
9.47638 138.582 3.71383
-10.7013 137.302 -4.79946
-15.7849 81.7273 -4.67785
-5.48557 94.4449 -5.26142
-16.4064 86.2721 -0.635194
9.97909 119.04 3.07402
23.6475 102.474 13.7332
-9.99591 117.929 10.6357
4.59479 111.959 -3.32037
11.6432 100.564 13.5082
-12.7985 90.2336 -7.31524
15.331 125.163 11.8677
-16.2115 120.707 -0.170013
-18.2341 114.344 -4.45224
-20.3034 120.115 8.78812
-8.41696 107.689 -7.05574
-14.4163 117.164 -6.32282
-7.09668 136.639 -6.31491
14.3576 82.3739 5.07566
-7.06762 84.7279 0.462948
-16.7231 117.959 -3.00929
24.6981 107.169 9.87492
-9.37002 133.43 -6.03524
25.6656 79.1943 14.3853
-12.1785 108.507 8.66767
21.434 94.1544 16.1935
7.0178 98.044 -2.42653
-6.37251 90.5388 -5.22228
-2.30762 127.813 6.61066
10.0751 90.5566 0.395944
-17.5351 120.021 3.84093
6.56933 142.779 4.35492
10.4239 116.102 -0.473646
7.94085 92.3593 6.98859
7.09001 80.0595 4.40359
-4.44663 139.319 -3.68534
21.9545 86.3506 7.5593
6.18752 80.237 4.00801
11.6032 114.958 -0.312106
15.231 132.72 9.08137
21.4883 103.245 1.25974
11.4488 117.652 -2.25118
-18.249 127.117 -1.29467
19.7854 113.255 1.1497
-12.0426 127.051 7.59208
-14.4117 95.0758 4.04201
-16.8446 124.134 -0.200548
-10.3828 104.834 9.62868
-18.3999 93.5452 -5.69605
15.3031 104.061 -1.09833
11.513 77.6726 7.19982
-2.86038 123.717 -2.00916
-18.6929 130.666 7.53131
14.1318 103.686 -1.05913
-19.2559 83.4186 -2.54995
-1.89543 85.8462 7.60975
11.9132 93.4843 11.1299
15.7232 86.4744 13.9837
18.2952 84.7101 5.51179
-5.59506 141.06 -4.68155
16.6567 80.1684 7.46953
-22.3482 127.541 8.48955
21.0051 80.2456 8.54629
25.2057 80.8182 15.4663
-13.1212 122.432 8.30169
14.1677 104.182 10.0415
-10.2809 89.9785 3.88925
17.5279 91.477 16.881
-0.486569 115.315 -4.37296
-12.8924 76.6378 -4.57282
-16.3765 141.582 7.53718
19.5157 125.287 3.79035
-8.56689 87.0021 -5.04561
-15.9023 122.881 -3.93155
6.57858 130.298 -1.13163
-13.4323 89.072 1.53283
-16.7451 90.275 0.734783
-3.77706 93.2773 10.3429
11.3763 98.7254 4.82081
-3.89824 123.422 -3.22918
0.626773 101.913 -6.14378
-9.64625 100.933 9.34372
-12.8691 118.732 9.40367
7.34865 94.9326 -1.02166
