ply
format ascii 1.0
comment Created by Open3D
element vertex 1805
property double x
property double y
property double z
end_header
-8.62665 132.537 -5.23538
-8.30453 112.026 -6.94015
-8.21048 151.261 1.39537
-13.9828 125.592 1.29568
16.6155 92.6179 10.256
25.919 86.9723 13.4725
-9.05163 88.5285 2.32519
6.24472 81.5108 7.68376
-14.5113 120.639 0.232943
-14.7922 117.883 1.02312
-0.445778 122.213 10.1405
-14.5721 95.6253 -1.36975
-2.95168 77.9443 3.23444
-1.53297 127.277 7.40107
-9.38352 121.812 9.4046
20.9249 83.9229 13.6322
-16.3759 135.635 10.3956
-13.5772 121.614 7.70215
12.0593 77.4324 6.33436
5.80175 90.305 11.7037
27.6186 109.56 11.077
2.34598 87.9079 9.11293
-14.029 117.388 0.579285
-10.1086 124.056 7.99839
-10.2861 103.246 5.66781
-14.1251 124.735 -1.28723
9.99116 92.7851 7.20875
-4.38497 115.992 -5.20397
-2.8661 106.121 12.0833
-13.5608 93.9333 -4.7311
-10.964 107.711 -6.63422
-5.7899 138.104 5.06092
0.0657764 111.447 11.8493
-1.7489 143.615 2.61563
-8.58514 130.719 8.73538
-2.30099 136.89 4.0286
18.3118 96.4426 11.3459
-9.34081 106.131 -6.02014
-15.0741 118.035 1.76315
-15.1097 113.439 -0.599057
25.5745 81.9602 13.16
-16.3486 119.687 -0.430646
-9.75153 119.881 9.01128
-8.55041 100.956 5.75727
-14.1718 89.3797 -2.52902
9.70364 78.6799 6.97048
19.1577 81.6569 7.09704
-5.97708 81.5635 4.03586
-0.657071 99.147 -5.38861
24.7213 110.943 12.8065
-0.769427 96.0118 -4.72848
-14.8564 106.598 1.36209
11.885 79.3419 -2.48519
1.44712 111.041 -7.22525
-5.86899 98.4638 8.35594
34.0412 85.0744 9.82088
14.106 84.2198 -3.44075
-6.34645 134.208 7.83743
-13.9426 117.24 0.882909
-15.2504 114.591 -1.38704
-17.1369 127.306 10.8633
20.0285 101.7 8.63722
-13.5589 125.148 -2.13956
-1.3502 87.1711 6.38084
24.1618 90.2106 14.5762
5.27169 83.69 9.13857
14.8088 101.325 4.71851
16.8449 95.4927 5.82815
18.1475 123.034 8.04831
30.729 99.6217 11.6716
4.86689 129.741 7.11608
1.67537 116.65 10.8329
11.8413 77.6908 6.54261
-9.91029 107.759 -6.54171
-8.23915 94.2142 -6.845
-11.2703 146.245 5.95996
27.0337 94.4932 14.5384
19.8237 122.051 9.74896
-14.4984 98.0876 -1.61292
19.8171 85.8038 6.45695
-0.326092 102.955 12.1865
-16.2895 121.102 5.8019
17.8022 84.5999 4.01335
-19.5265 125.372 9.04589
5.94293 76.5389 3.34012
22.2647 110.899 10.5016
-12.3604 84.6509 -0.469731
-15.2919 121.747 -0.0904043
11.3864 108.725 7.77588
11.323 118.255 5.44346
-16.4242 133.971 2.94381
14.3539 86.1087 4.49059
-11.0061 129.708 8.85639
-3.35576 74.755 -4.60996
-12.1715 111.625 -6.18676
-18.5828 117.077 5.64136
-6.74261 99.0598 -7.08033
21.4131 79.5563 -1.51791
-8.19914 108.021 7.8563
-11.8768 135.132 -1.9109
-5.37784 121.95 9.74051
-10.1666 133.938 -4.07529
-14.636 92.6081 -2.62446
0.987686 96.1303 -4.53977
-1.29006 110.668 -5.39728
7.28237 81.7454 -4.29404
2.59853 112.407 10.6245
-12.7568 125.454 -3.43811
-15.1981 120.921 7.12971
9.56908 88.9753 -3.72494
-6.87897 85.9695 3.88176
4.01671 99.1207 -5.58074
2.56152 75.5804 -3.37679
21.6122 81.5262 14.223
3.8154 77.8431 -3.97674
-9.9103 89.8923 -5.5936
0.113516 136.286 3.90296
11.3768 96.9483 -6.41252
6.97887 107.906 10.23
-14.7697 110.216 -4.20604
-7.65746 92.6578 4.41101
-2.07456 83.666 -5.94109
22.8561 83.598 14.2071
-12.5379 94.0033 -5.59232
9.71195 122.703 7.50339
-12.9769 123.472 9.13645
-3.60951 86.3585 -6.84644
-16.4812 119.507 5.42128
31.607 96.0208 11.4209
-7.11115 148.474 -3.3941
-7.32849 100.994 7.31783
-13.6826 133.447 0.878166
18.1009 86.5288 5.3094
-13.2538 84.0135 -1.25233
-5.6518 137.897 5.108
21.7026 112.47 11.2997
12.4276 114.596 4.06664
6.61027 88.3452 10.6902
-3.75131 124.555 9.56118
-15.0874 139.968 8.31017
33.4094 89.0879 9.60497
-20.4343 117.282 10.2787
-16.1492 121.301 8.26442
-6.28752 95.97 -6.8521
0.112165 87.2262 -6.35346
-2.20714 97.177 -5.30167
15.7639 110.868 2.34539
10.5132 120.094 6.14595
-16.3045 121.115 -0.661447
-14.6004 93.9913 -1.77184
2.98857 78.129 -4.17186
28.1036 86.6968 12.4705
-15.1985 121.375 0.0562941
15.1584 101.282 4.816
0.0885782 95.5806 10.5432
11.1771 121.486 3.9516
27.5888 93.6467 14.3238
-9.54228 77.6161 0.814098
-8.86028 78.4758 1.79088
27.3261 90.5082 14.2456
-21.1922 124.063 4.29597
0.498755 98.2649 12.0233
-10.7891 133.561 10.1579
31.8723 91.2565 12.0239
-5.80136 84.2908 4.75644
24.636 81.7597 13.5818
0.770802 87.4113 -6.02558
-0.784533 113.14 -4.92638
18.5602 81.2312 5.88217
-14.9394 116.649 3.9375
-18.8677 132.046 4.53968
-5.93582 98.492 8.31909
2.69415 79.7601 -4.61409
-12.5769 113.577 -5.80782
-12.0956 141.213 -0.186217
10.8264 81.8578 8.45167
17.1936 90.2899 8.57435
31.8937 95.8905 10.6188
15.342 91.9259 6.56647
-9.40684 106.825 6.1409
-15.1875 110.158 2.49062
-4.89913 78.2915 3.63324
-3.22928 129.593 -2.98793
16.8811 92.8489 10.6423
-15.1257 118.899 -1.14528
3.71206 95.1803 11.4336
-12.4425 114.07 6.40625
-7.92581 130.581 -6.37196
4.28578 78.8653 -4.30728
-9.22287 136.448 -4.35812
-3.70421 132.013 5.90518
-8.38784 124.197 -5.16805
-6.46682 141.272 4.7593
20.7683 105.252 7.2046
-5.855 115.85 -5.80983
-8.14574 150.349 -1.79888
20.3841 84.543 -3.72164
-2.24037 77.1056 3.04605
-13.9791 119.485 6.01864
-13.8976 127.677 0.174168
-13.7239 102.236 0.192949
20.5069 81.8385 9.83508
-15.2637 119.273 5.42322
-2.68846 103.703 11.857
-4.31655 138.313 -3.58472
-10.6334 148.109 1.32433
-15.6419 119.916 6.58806
-2.20654 102.889 11.8312
17.1042 87.3509 6.29774
-17.4352 119.509 9.03718
13.7299 87.9298 7.05107
1.322 126.389 -2.69466
-10.9157 145.373 2.23511
-11.7423 85.5868 -3.0185
12.5748 94.1535 -6.02793
4.92525 107.562 10.9611
4.22654 101.803 -7.73356
-7.01154 144.48 4.68244
10.8605 122.828 5.0563
23.5498 95.2949 12.35
-13.4746 130.312 0.735459
4.71829 113.59 10.1709
13.8175 105.078 4.49926
-2.20597 92.7027 7.39536
-6.33608 119.376 10.83
11.2881 105.198 7.58644
1.56468 104.226 -8.42654
-1.70675 104.551 -8.3228
-20.9291 116.317 11.2546
-17.3954 119.463 11.9598
1.29526 79.1546 -4.41169
1.15742 82.7131 7.84971
14.2192 90.2576 6.8372
-12.4659 78.8357 -1.56249
8.96413 97.2728 8.61763
3.83783 104.139 -8.83248
-13.9891 117.897 -2.70541
-14.0336 132.485 0.557492
-4.64246 85.1475 5.13645
14.8926 79.4378 -2.37805
11.3494 97.9131 -6.64072
7.00145 79.4677 -3.83691
-6.52871 88.3521 4.26724
11.2696 118.701 5.3066
-11.8768 102.033 3.73594
-6.2579 93.7194 -6.39915
14.0124 82.2524 6.86291
-19.0693 116.025 2.16196
24.1367 93.5398 12.6529
11.9717 120.59 2.80947
20.0897 81.1879 4.08853
-17.0116 124.288 11.9547
-6.64562 133.807 8.15187
12.5717 96.096 -6.55457
-14.3559 117.861 2.24591
-7.6508 143.108 -4.48453
5.1561 80.2814 -4.49078
-15.7749 139.819 6.19898
-11.7811 140.069 0.0137838
0.26127 93.285 9.72795
2.90904 99.0743 11.4237
22.1289 109.611 8.5932
-13.2232 119.546 2.59904
-13.8192 116.931 -0.330071
25.0387 89.0783 14.673
4.74725 91.8007 11.8917
16.3981 80.8064 -2.32346
-4.78951 139.408 -4.14533
23.0511 88.923 10.7005
-7.50247 139.858 6.5491
-5.87842 110.516 11.0415
-13.3359 119.787 6.99474
22.2806 119.028 10.2988
5.59269 99.8942 -6.13439
-18.9988 129.226 7.3883
9.96987 89.0178 9.42581
-4.70444 85.9239 -7.23272
-11.0195 139.085 -2.25203
-17.6873 119.225 1.06012
-5.6243 134.511 7.0361
13.3037 111.852 2.96666
-9.96831 145.24 -2.79467
-10.1346 96.2213 2.76283
22.4761 117.426 11.3879
-14.8221 91.415 -2.75084
3.25381 108.983 -8.55858
-3.95819 111.924 -6.2647
4.85373 99.8541 -6.12154
-4.32175 137.677 -3.61222
20.3977 85.4237 7.28281
-7.16465 150.888 1.99281
5.91786 131.246 6.23472
3.27657 114.973 10.3617
0.0893366 137.551 -1.32942
8.67026 94.7772 7.82384
-12.0004 91.8866 -5.25779
13.5508 93.4093 -6.11566
-21.5491 116.3 4.38676
-6.65339 89.3258 -7.15925
-6.56599 135.119 8.32091
-22.7084 118.495 6.18237
-5.79764 132.762 -5.07272
-2.19311 142.894 3.05158
-14.0403 127.202 0.531578
-9.95434 139.047 9.8728
-7.44309 93.9126 5.58734
-14.2449 97.8899 -1.1535
3.96919 115.694 10.3384
12.0396 111.127 6.62533
5.62902 115.918 10.2079
0.707295 116.448 -4.74157
8.76368 100.769 9.56925
19.1051 96.2304 12.1449
-21.4107 122.868 7.53514
-0.29618 122.902 -2.65857
-1.5274 118.713 10.7341
18.7786 103.284 4.95137
2.54097 84.3957 8.72962
-20.2926 123.198 10.3177
-1.1931 85.5195 -6.42617
-12.2045 95.6625 -5.89198
9.62252 120.652 8.23296
19.2647 80.1679 5.16559
21.2399 97.1017 12.5584
18.637 88.374 8.83174
6.93458 92.5033 9.53409
20.9612 83.8491 9.22948
18.5676 86.3375 -3.82844
-14.3953 115.106 1.48136
14.7116 76.404 -2.59326
7.27354 75.9804 -3.31538
-7.74272 99.6229 6.37487
6.13493 104.017 -8.42822
-11.7731 75.2365 -2.30307
9.374 78.4426 -3.01852
5.71606 122.944 7.80096
-16.9465 119.075 2.26813
7.65873 129.876 7.12617
-5.07407 136.955 -4.43075
-19.0921 127.003 4.3238
21.3409 114.641 8.45808
13.0719 117.296 2.28889
33.3956 89.5001 9.42947
-14.6735 127.004 9.06164
-14.8317 118.529 2.96496
-11.9976 81.0885 -3.28668
-10.4663 96.7188 2.71869
11.6996 98.5891 5.34215
9.57784 123.898 7.33542
-0.772841 94.5044 9.68726
9.19761 126.646 7.15583
-15.2597 139.62 8.30493
-5.66139 121.052 11.3304
14.7196 89.3031 -4.99798
4.47093 96.1351 11.2849
-0.898974 135.178 4.41071
-5.0956 97.7948 8.64756
-7.42962 114.273 9.02825
6.59011 80.138 7.06006
-15.493 101.808 -2.39032
-14.3852 142.676 5.5371
9.20732 90.4321 -4.06978
-14.3979 119.434 -0.566071
-13.6599 131.004 0.478013
9.90088 89.6725 -3.9762
18.4159 98.5859 6.36328
6.4939 111.411 9.87009
-0.281071 97.4622 11.4206
-13.3557 121.35 7.0796
-18.0232 132.429 2.50743
-9.73172 148.814 -1.70263
-2.46079 104.63 -8.20162
-10.5646 110.228 -6.83167
21.6971 110.904 8.99931
-5.75956 126.354 -4.28076
23.015 116.145 11.6831
10.7269 81.8059 -2.9584
-6.20064 141.968 4.34374
-9.1998 108.308 -6.62606
16.3126 80.2612 4.32132
22.6461 117.546 11.1896
-9.37704 126.976 8.32288
-6.56521 123.758 -4.42291
-0.452048 136.042 4.10148
-3.38314 119.664 11.5832
-14.7194 119.261 7.14489
-8.32066 89.3735 -6.26112
-3.0628 94.4484 7.86336
3.12691 94.1005 11.7246
-4.69412 146.556 2.66011
10.0859 107.53 8.64077
-11.3028 75.2146 -3.44897
18.5623 98.2766 11.6977
-2.62879 84.785 5.76818
-12.583 140.8 2.60134
16.3448 91.3255 8.80022
0.22081 108.897 -6.66224
17.3443 104.841 3.70668
18.8529 105.884 4.41648
-9.03324 119.76 9.46401
13.3805 108.141 4.21914
-6.82764 108.932 9.83559
26.9163 92.2385 14.5428
-2.0828 102.66 11.8175
20.69 104.186 9.5601
-4.57287 116.176 12.1476
-8.81227 105.245 7.82886
-14.8541 122.203 7.42868
31.7133 90.2763 12.2117
-13.2277 81.9732 -0.787375
-2.91138 119.181 -3.44894
-15.3165 115.817 -3.76447
-16.4059 135.884 10.2527
22.1396 91.2003 11.2416
4.70461 103.095 -8.49045
16.633 102.177 4.61179
0.204259 113.848 11.3304
-14.6669 102.957 -0.809695
1.93015 118.394 -5.47032
19.47 100.161 8.93945
-8.05585 119.176 10.3285
11.9012 86.1966 6.06121
18.5524 84.4441 5.28483
19.9599 102.954 6.91422
-8.09723 139.508 -4.97041
-7.71306 76.7863 -5.83933
-4.24665 93.8083 6.80446
8.94397 132.732 5.90228
-4.37443 134.079 -3.9884
-4.06703 100.295 10.1864
-7.99985 84.5658 -5.55072
-3.19293 91.0375 -6.39976
5.29159 88.5375 -4.69346
-6.98289 145.431 -4.19718
-11.3765 122.88 8.9768
-3.53665 146.285 2.27591
-8.44652 83.3727 2.6468
-14.8187 135.12 1.53651
-10.233 138.787 -3.26625
2.38147 105.775 11.4662
-0.915113 138.85 -1.70943
5.36633 101.323 -7.36102
-6.9006 131.861 8.166
5.2382 133.391 4.82863
-14.4177 103.775 -2.87687
23.0898 101.929 13.0781
-8.28717 108.757 7.50508
3.42588 83.7019 8.95417
-7.78005 141.003 -4.91646
2.28277 95.6557 11.8192
-21.3211 119.301 8.14209
-20.7017 124.631 6.53171
-6.67242 151.377 1.50393
-17.714 130.447 1.71185
2.65208 109.855 -8.21653
11.7452 117.605 4.40739
-14.3259 123.034 -0.321535
7.13878 112.223 9.67264
-5.38529 133.408 -4.90006
-7.95993 104.863 -7.28824
-6.89039 112.448 10.0378
-1.26504 76.6468 3.03103
-14.7654 116.532 4.49986
5.95999 113.524 9.8966
29.0907 83.9715 11.6086
-18.0582 133.615 8.43229
-18.1745 125.508 11.6869
10.3979 97.6086 -6.22855
-15.5455 129.267 0.401254
5.68121 75.4378 -2.89763
-10.8188 100.818 -6.93996
0.700277 75.8376 -3.7627
-13.0766 119.269 1.11434
5.26867 102.624 10.1397
-15.5728 106.542 -1.16722
-15.8988 117.48 7.03616
-13.9739 119.012 0.0211762
-12.7954 111.614 4.67
-9.60983 119.686 9.04331
8.07277 92.9275 8.33449
9.67839 113.893 9.04761
-19.7926 117.635 11.9426
21.5691 91.8627 11.6156
-13.4499 90.1485 -3.31089
-15.2229 114.565 0.2547
23.2145 109.643 11.6883
-19.0814 117.727 12.2377
-22.9438 118.01 5.29036
29.7838 92.8661 13.3636
6.01383 93.3402 11.3711
21.1426 82.9008 12.157
9.91445 107.816 8.76846
-14.2317 119.767 7.15025
-13.8397 122.674 -3.60213
24.2574 91.6678 14.3888
-17.9876 131.577 1.76801
-13.4633 122.078 8.63642
-14.4214 119.421 4.30421
-2.11387 76.7886 2.95999
-18.316 119.976 0.535342
-4.15127 102.931 10.9299
0.866125 123.219 -3.16238
21.5034 110.546 6.80908
2.96047 100.7 -7.09207
-6.54616 105.488 9.45738
22.6724 109.321 10.5722
19.8808 86.272 6.91118
11.8767 109.504 7.19228
6.73935 82.5012 8.32001
-6.95131 146.266 4.03167
-9.63797 114.894 -6.14637
-13.9227 97.5324 0.330574
-13.5226 120.473 7.549
-13.8773 121.729 -0.469904
19.3303 101.198 11.0319
-1.51853 133.943 -1.89187
-11.0944 125.013 10.2066
-0.532351 137.001 4.02194
1.18419 81.3612 -4.69407
-10.0514 74.2995 -1.25157
6.70895 92.335 -4.36343
-13.381 119.246 -1.03325
33.0919 90.9582 9.67903
-6.27799 78.4307 -5.08693
2.92347 117.921 -6.73815
2.76716 120.255 10.005
-17.0236 131.177 1.1892
-4.99142 136.941 5.30999
-12.1096 85.9724 -3.08732
13.0141 89.8837 -4.68838
9.1349 80.3623 7.78931
-4.23012 77.8094 -5.61999
24.6396 81.304 13.49
34.1841 82.0774 7.71484
12.0976 108.595 6.90746
2.28417 112.692 -7.52372
14.5888 81.0596 -2.45965
2.03739 123.615 -3.68641
-1.78342 78.0052 -4.751
-12.8084 142.349 8.64834
23.9453 80.3911 -1.34504
-19.6384 128.164 9.50355
-13.7658 124.779 -2.02293
-2.89903 99.7486 10.803
12.0949 81.0826 7.46457
29.8909 89.8633 12.5301
-1.7331 96.2854 10.1074
-12.8888 144.206 3.68839
-11.4464 120.503 -5.14979
17.5153 90.0226 8.88627
-15.6218 139.986 6.84402
-21.5394 117.257 8.12407
21.0689 82.2171 13.9482
17.9239 86.313 -3.76926
-14.3285 122.652 10.7372
21.545 78.9268 -1.27023
-13.9816 122.188 -2.66174
13.4499 106.615 4.94908
-8.51639 135.971 -4.7595
12.0688 109.183 6.93678
-14.2102 125.497 -0.448092
32.49 87.4989 10.9792
-8.9723 128.506 -6.64339
-11.7032 140.226 1.81489
-12.0189 80.8749 -4.07747
-9.45817 115.629 -6.00656
-6.58162 94.4182 6.15152
2.15288 122.707 -3.88133
-9.58888 111.117 -6.96311
21.8162 120.397 10.2355
-20.5625 124.75 3.77612
-18.2572 120.42 12.3916
-18.1305 126.806 0.0454287
-21.3604 123.297 7.1582
22.0426 84.5583 -3.56758
8.15273 103.652 -7.89685
-9.74325 127.629 -6.4398
-12.5952 131.776 9.19276
-9.15211 101.711 5.63918
-8.92135 88.9934 -5.46123
4.13628 77.5292 3.77424
-1.70277 107.251 -6.44867
-4.80686 127.377 7.1414
17.197 92.6725 10.8468
-13.6311 98.1593 -4.90932
-19.0833 123.045 2.72991
-13.3609 119.477 1.64548
8.63071 91.7245 8.16883
24.3954 82.0815 13.7515
2.49392 117.202 10.8105
16.4546 90.2585 7.21861
-11.8463 91.9746 0.466677
-12.0565 80.628 -5.21532
-10.6157 113.963 -6.11533
-13.8996 128.882 1.42602
21.4545 79.8794 -1.64134
-3.67768 125.105 8.89905
-12.1328 137.371 0.604341
-6.18319 109.225 10.8148
12.3155 85.6534 6.04486
3.82333 130.295 6.69529
1.16739 82.4917 7.81104
-16.5307 120.769 11.709
-3.87431 76.4609 -5.9888
21.3175 93.4667 12.0155
-5.20641 137.624 -4.6169
6.80748 76.9015 3.84322
17.3206 105.334 3.58822
-4.81493 82.009 4.48931
-0.268878 96.1891 10.6556
6.94113 123.539 7.46074
-11.7427 117.138 8.17446
-19.2952 116.78 11.2245
1.63609 84.3631 8.30749
-10.7449 125.19 10.7379
-21.1452 124.14 6.31266
-9.30019 87.9356 -4.41548
5.79496 80.242 6.91083
-1.94423 125.085 8.62029
-4.69909 147.317 2.38561
14.5145 110.77 2.6484
27.8481 105.481 12.2855
-9.1932 141.235 9.24495
21.0325 117.133 11.1345
8.90195 90.8376 -4.03174
-11.3003 143.634 0.333562
5.05906 101.564 -7.53755
8.28629 95.598 9.13857
-2.03768 78.4761 4.6947
0.733015 125.114 -2.84992
-2.80253 86.4429 5.59138
-9.6409 141.611 9.16786
-16.0423 121.191 7.84234
-1.35067 78.4266 5.1632
22.522 102.051 12.9443
8.33921 94.8217 8.59649
23.4488 89.5708 12.6669
0.148406 142.267 2.52879
-13.1401 119.211 1.28629
-4.89787 120.755 11.6371
15.4256 96.0436 5.27219
22.3967 110.849 10.7737
-1.60885 144.294 2.3392
3.22508 110.51 -8.03342
-1.11961 100.684 -5.71519
19.2376 101.254 11.4831
-14.2868 119.95 5.95386
8.49384 117.807 9.09096
8.58291 114.965 9.48938
5.67497 93.5852 -4.32241
-2.27496 136.188 4.35115
-7.27125 124.867 -5.01618
32.8102 90.9454 10.6847
-13.6968 119.515 2.87305
-8.79704 89.2946 2.68714
15.3545 86.7003 -3.79489
-9.64068 117.574 -5.9704
-15.8647 126.537 9.81566
6.29806 102.377 9.92074
-9.87215 148.973 3.55029
-14.0807 119.189 1.54238
-3.49033 79.8262 4.76002
19.7908 118.141 9.16468
-2.22956 77.7207 -5.18563
-8.1574 85.9381 -5.1285
-10.1505 130.583 8.61628
-16.265 118.531 6.14104
-13.7149 137.476 2.77992
-5.45861 110.618 11.7249
1.20578 80.9881 -4.6308
-5.90688 129.466 7.33634
29.7898 98.9645 13.1386
-5.26757 140.088 4.39229
2.81789 87.0029 9.32462
-12.6521 74.1968 -3.99769
-7.46506 114.47 -6.48908
-12.8238 81.7333 -0.348212
-9.03156 101.375 -7.15196
-14.8434 121.791 7.69326
21.3921 106.11 9.98195
-5.48413 90.9547 5.48941
-12.0823 119.358 7.27442
-13.9846 119.953 0.171745
27.7557 86.1013 12.4181
2.95847 116.064 10.524
-4.95054 113.224 -6.30085
14.9339 94.8679 5.30669
-15.4752 118.575 1.49441
23.058 92.0842 12.1131
-16.3161 121.038 7.67643
-12.8195 100.784 2.2741
-0.211919 90.3911 7.83706
8.58112 134.168 4.49569
-10.3628 109.616 -6.87571
-7.94592 100.022 -7.09261
8.72482 95.1243 7.90192
-13.5692 114.468 -5.39018
12.6899 113.775 3.65847
19.563 104.285 5.70156
-15.3807 120.895 7.22178
-13.1156 122.574 -4.50462
-17.6615 117.317 2.19855
1.98361 83.8014 8.47027
-5.24659 102.129 -6.10537
-18.1689 128.183 0.528979
-10.8001 114.052 -6.03811
-12.9765 98.8061 1.84399
20.4908 84.6511 7.32445
11.2396 124.747 5.16161
-18.1757 120.256 12.3418
7.97304 75.8071 3.55951
-12.1756 110.337 4.79619
27.8161 106.557 12.1268
30.2189 89.0981 12.166
0.889312 100.852 11.8275
-10.0268 94.4742 -6.0617
-11.7139 141.089 1.79501
-7.13644 92.4906 4.78547
-11.2031 115.833 7.25103
-8.41147 126.486 7.32266
-4.72768 100.255 9.7129
21.5611 92.4733 11.7036
-10.6733 83.1071 -4.94766
-3.63207 140.812 -3.15354
25.4891 81.4034 13.105
-7.13734 81.5114 -6.04168
-20.8432 118.567 9.26082
-17.7631 132.408 1.50003
18.2499 95.4779 11.7299
15.7487 81.7766 4.20324
18.4322 97.0462 7.5699
9.6426 78.5012 -3.01039
2.55726 118.246 -6.18743
-3.46671 142.543 -2.82273
20.4624 103.939 11.4259
12.3187 109.066 6.58281
-12.8496 84.4205 -2.56188
16.5381 111.456 2.45939
11.6134 82.0075 8.09217
0.600023 77.259 4.82609
-3.01049 132.519 5.00302
-14.3745 113.741 -4.80568
-15.0993 123.665 10.8524
-13.776 117.599 -4.71513
11.9747 86.337 6.02929
-1.74263 138.962 -2.08248
-7.15203 110.035 9.17531
-11.424 126.325 10.3921
-19.7086 123.639 11.4865
-14.9228 101.372 -0.71418
-9.24573 116.532 9.71696
-15.8971 118.343 2.0702
-12.5928 81.6233 -0.111178
-12.3974 100.396 3.09905
-1.56053 86.3276 -6.54487
-8.7122 143.742 7.77538
-13.8247 131.467 9.73189
-3.98642 122.655 10.7678
-1.3912 120.905 10.4318
1.84781 111.82 -7.57103
0.647234 86.3216 -6.17344
21.8177 94.8445 12.0426
-13.3749 129.502 0.100209
18.3792 94.5626 12.1641
27.0738 106.301 12.9854
8.08852 78.0272 -3.20796
6.85965 112.766 9.64539
-8.11882 142.925 -4.3567
2.51307 118.111 -6.20451
-14.5439 135.876 10.9368
13.238 94.0203 5.37237
25.2523 87.3251 14.1177
-7.3498 121.95 9.79751
-4.44667 109.338 -6.92537
13.6535 83.3489 6.67565
-3.64798 99.8363 -6.10939
-7.38203 139.882 -5.19505
-11.9876 78.2273 -4.05879
-1.37044 99.2925 11.4724
-16.1239 135.142 4.79681
-15.9349 122.275 6.61603
1.06325 114.853 10.8451
10.1658 98.9994 -6.60513
-10.8798 120.218 -5.28802
-15.2042 118.658 2.69255
-13.4431 122.247 -2.18753
14.706 83.1479 -2.94152
23.9884 79.3624 -0.887821
-8.48094 148.445 -2.89584
11.0647 91.2498 6.55218
-0.714189 138.414 3.73627
29.9868 90.9279 12.8659
-7.00995 102.12 -6.62744
-7.02692 101.196 7.79744
-1.6709 117.841 10.8642
-2.72545 139.145 3.65387
6.73058 81.2958 7.64542
5.04747 121.023 8.83195
-7.79989 114.611 9.123
-9.13663 80.2852 -5.14336
-10.5968 95.4576 2.17538
2.54109 95.7461 -4.39562
-20.6805 119.836 10.6582
-6.4409 73.8174 -0.852873
1.15734 74.97 -3.58193
14.9479 88.2978 5.21079
-10.2306 124.941 -4.76141
-4.76007 118.273 -4.4265
24.3448 86.88 14.2518
6.63819 76.2707 -3.29038
-12.8456 86.3401 -3.11429
0.605364 118.485 10.4088
26.7974 92.1288 14.5841
-18.4257 127.753 11.2644
-4.24357 91.3643 6.20673
2.73723 96.8388 11.6114
-12.9358 138.61 2.83587
-6.18367 85.0577 4.48016
-10.4244 135.907 -3.94372
5.46783 125.764 6.79933
5.15371 100.207 -6.39977
-8.95946 117.43 -6.00386
-8.45804 133.712 -5.63054
7.43274 101.941 9.61572
-13.0614 120.336 -2.19138
2.46687 95.8361 -4.40261
3.40283 117.995 10.3944
1.79272 124.099 9.72086
18.8195 102.465 5.18872
18.7966 107.056 4.26127
21.1816 113.657 10.2073
-2.58342 144.485 2.5871
-14.3189 119.775 4.81519
1.97543 77.4487 4.80845
-8.5555 147.36 -3.49736
9.84601 104.874 8.32468
15.921 90.3709 7.50105
-19.2239 119.64 12.6257
22.2029 85.5691 13.8129
26.1926 100.68 12.486
25.8381 89.3854 14.7664
-4.13511 76.034 2.47021
-1.59343 112.658 11.9406
8.23907 99.5816 -6.15338
-21.3336 122.866 7.78904
-9.34677 123.095 7.56938
-8.30702 101.266 -7.05695
2.90794 106.884 11.5255
-13.3377 82.1261 -1.90098
0.147416 85.8118 -6.42965
-13.6856 143.696 4.80048
-12.512 136.785 1.24918
21.2156 114.633 9.29581
-2.12567 139.735 3.62309
-6.38498 74.7892 0.957802
-12.6316 144.716 5.28944
-12.1198 93.1901 0.157197
-1.14463 129.859 -1.95035
-4.90036 102.818 -6.70812
-6.35017 107.007 10.3177
1.29645 86.1857 7.87914
-22.1773 116.503 5.0484
-2.75856 102.936 -7.27309
4.75815 107.533 -8.39341
-6.25757 85.8952 4.33719
15.0738 85.6124 -3.71077
-8.41629 118.636 -5.73144
23.0413 81.918 14.2508
35.2345 85.8301 8.5142
-14.2839 119.994 6.33514
-8.17691 105.152 -7.31069
7.4004 99.2695 10.3392
-10.064 123.447 7.13564
-7.54166 108.857 8.70518
-12.6434 129.219 -2.62073
13.7251 87.1023 7.5518
0.973628 80.7404 7.15612
-14.3665 120.654 5.14678
-0.864186 85.8563 6.61967
-14.502 136.981 3.51096
-12.4538 87.9604 -3.50668
-9.5571 89.2315 -5.2396
-1.3594 135.466 -1.73662
2.47208 87.963 -5.68972
-1.50119 95.4239 -4.82754
-13.8369 99.501 -4.06211
-10.6658 139.771 9.99851
29.903 91.3429 13.0438
-11.868 117.787 -5.12612
24.684 89.54 14.6339
-14.034 98.0683 -0.141568
-16.0538 120.906 8.21276
15.2183 80.7937 -2.46555
-2.22654 79.7184 -5.0279
-21.8976 121.081 5.24071
-14.3994 134.854 1.43807
4.92174 76.621 3.06467
-12.897 144.456 4.81788
32.7639 84.3505 10.3951
-13.1298 95.4403 -5.32641
11.5751 88.8198 7.91186
12.6952 111.739 4.53681
-22.0574 118.034 7.19869
-7.94678 145.356 5.50714
-14.861 106.598 1.35868
1.67299 125.7 -3.06264
-4.85918 133.165 -4.2532
-12.6747 77.1137 -2.69548
6.523 90.4733 11.1956
-5.73711 139.021 -4.97054
11.6977 97.4008 -6.57313
-5.36486 134.689 5.81467
-9.23098 113.057 -6.74657
6.54414 81.2178 -4.41821
-13.9925 127.318 0.692829
-1.80809 120.384 10.7378
8.77997 111.214 9.55561
-5.14241 74.3824 0.904815
1.97041 84.8286 -5.74764
7.2104 84.8774 -4.43442
17.0296 94.2346 7.22487
-19.1729 128.487 5.68354
-15.1057 122.105 0.0539965
-6.88059 117.379 11.0689
-12.4209 97.9039 -5.65997
-9.30669 140.588 9.36511
-13.036 120.145 1.13504
-19.5934 123.453 2.97642
11.6525 105.052 7.3979
5.62114 90.0306 -4.07873
-2.67272 94.0283 7.86447
23.7616 82.1751 14.0213
1.20037 110.195 11.5389
-21.2043 121.718 9.03866
24.008 117.037 10.7096
-5.84582 98.8606 -6.95293
0.324338 78.436 5.86253
-15.4852 118.611 3.1429
-5.81061 133.313 7.1423
-9.95678 124.44 7.55946
-15.1669 119.621 4.43936
3.17617 116.485 10.5826
1.96582 113.123 -7.42787
-6.86271 116.745 -5.89968
3.90583 98.8028 -5.39032
-2.65765 109.281 -6.36601
-16.5792 121.259 7.53351
-9.77953 131.95 -3.55689
23.0768 82.6113 14.3841
20.8739 82.8822 12.6088
-12.025 143.38 8.15661
-9.02544 140.016 9.26449
-3.47839 100.495 10.6493
15.1222 106.533 2.94193
10.3719 120.38 6.27162
-7.8753 142.172 -4.63092
10.9179 89.226 8.25556
11.5906 97.3618 5.51596
0.437081 105.477 -8.62606
3.50654 109.672 -8.36206
-3.66777 100.913 10.6246
6.79509 106.591 10.1866
33.3956 84.4462 10.136
-11.7943 75.9173 -2.16567
-11.8218 101.341 3.68848
30.1758 86.7341 11.4781
8.22769 132.258 6.10559
-11.8557 104.13 -5.85781
-17.6583 132.968 10.6548
26.7094 111.399 10.8981
6.44379 105.324 10.2825
-13.9389 125.127 0.935973
-2.10872 139.224 -2.26919
-10.1789 131.376 -3.68107
10.702 127.798 5.21215
-11.1796 127.244 -6.07144
2.04341 138.424 3.01966
-12.5361 123.807 -4.04106
6.24861 90.0188 11.5465
-6.49378 130.373 7.88966
29.4611 100.356 13.0882
33.6396 88.235 9.70722
-14.3392 118.209 0.781546
-6.93097 80.9297 -5.98463
18.7715 94.5475 12.2501
2.02512 103.071 -7.77855
6.5851 104.711 -8.60692
-12.6654 129.54 -2.16438
23.4686 95.2799 12.3019
-13.3872 90.4475 -3.54107
-11.02 105.518 4.72231
5.96349 126.085 7.12067
-1.66639 77.6046 3.36801
-10.6808 146.93 -0.466746
-12.7965 124.231 -3.63127
18.6385 123.693 9.10741
12.4735 76.7585 5.72544
-10.3748 114.274 -6.05216
1.42706 83.2381 -5.24541
0.632225 89.861 -5.82264
-13.3601 122.224 9.20353
3.70572 111.002 10.588
-20.8461 119.113 9.62562
17.7765 95.764 7.39159
-5.71354 133.112 6.99993
1.6053 98.299 -5.18659
23.3897 86.5622 11.0092
13.4353 110.672 3.07071
3.56935 86.2959 9.93313
-12.6431 78.295 -1.11868
24.7414 107.928 13.2241
-12.3368 92.7631 -0.539883
-9.4786 132.82 -4.37402
-14.1154 87.9511 -3.10244
9.77231 103.33 8.70237
-14.7551 120.385 -0.441394
-14.9627 105.997 -3.22671
-10.2082 87.121 -3.99248
19.6326 89.3072 10.7885
4.45092 78.1875 5.72155
-2.30198 79.9994 5.04056
-13.3181 120.458 7.67457
17.8312 95.883 10.3593
-17.2146 133.873 6.0005
-0.168079 86.5938 -6.52698
-13.3286 86.0412 -2.98401
-5.5496 86.0712 4.57555
3.1423 122.907 -4.62817
1.69348 113.76 -6.8812
4.31127 99.109 -5.59693
11.0205 85.2022 -2.96063
26.7615 82.5587 12.6874
1.8973 125.008 9.22704
-13.8762 120.216 7.41118
-0.372098 107.422 12.0702
-9.15545 149.306 3.34211
-13.7154 96.7115 0.577459
6.62678 82.0957 -4.45854
8.08213 114.039 9.4703
-4.76767 141.992 3.67179
-5.49817 84.2196 -6.98779
-0.040826 81.5676 7.01105
-13.5283 118.969 3.06012
13.1599 114.797 2.49233
19.469 84.0516 6.60903
-12.0023 121.597 -5.2059
11.7308 124.113 3.38226
9.63234 91.6063 7.54698
0.938526 113.966 -5.66677
14.3045 112.768 2.41663
1.76082 133.345 5.25065
-6.8827 127.903 -4.79389
23.5394 105.391 12.1355
0.526553 115.857 11.0558
5.37814 77.6864 -3.72533
-15.485 132.708 1.43405
-13.6065 142.957 7.34606
6.05935 105.655 10.3783
-5.6044 135.803 -5.31846
1.96224 121.948 9.67783
-6.04293 97.7501 8.01992
22.4076 118.391 10.6054
-1.07743 84.8362 -6.30603
-6.10209 93.3529 6.04691
-8.45977 146.453 5.34414
-10.0582 118.442 9.05672
28.6854 85.0714 11.8025
-13.5285 119.053 3.18879
-0.156156 94.2063 -4.88629
-9.93528 120.179 -5.72024
11.41 123.715 4.00725
23.6926 93.4565 12.1353
16.9926 94.6614 6.82432
25.8542 103.554 13.362
-15.371 119.779 0.270833
18.6926 97.3207 8.04921
-9.20209 92.5346 3.47593
10.2332 78.0634 6.54258
15.1796 93.4352 5.68102
10.9101 115.278 7.78247
-17.3994 119.546 8.60513
-6.89163 145.978 4.04482
-0.359844 76.004 -4.42749
23.2851 108.333 13.0947
-8.18702 90.8859 3.38366
-13.0118 123.706 -3.72155
12.9972 90.6794 5.89865
-6.07598 139.597 -4.92383
10.125 95.7536 6.75938
18.8199 105.365 4.42785
21.8254 87.4012 10.6941
-12.4762 145.121 5.02138
5.32254 91.4166 -4.17011
-14.0382 120.116 -2.09191
17.1241 93.3205 11.0835
13.6222 83.5293 6.51326
-12.9578 79.5349 -3.66626
12.2378 94.7917 5.39466
-0.394853 110.05 -6.0174
0.167469 75.2356 -3.91983
-13.8276 118.266 1.09736
7.90487 113.071 9.44917
16.3301 103.541 3.99083
13.771 87.387 7.63978
3.08877 112.44 -7.68074
26.4484 85.6369 13.1322
31.4864 95.6833 11.7798
18.056 89.4928 9.05604
-1.38639 133.116 -1.9853
-17.8058 133.317 9.60865
-3.95618 81.541 -5.68371
-14.9297 122.07 8.41956
-3.05766 97.5496 -5.81209
-12.6848 76.8783 -2.92296
20.0049 117.81 8.61005
-14.1268 122.633 -2.13841
9.73988 76.8726 5.25893
-9.36635 143.26 -3.71463
19.1681 87.2992 8.36648
-1.56156 123.018 -2.77474
-9.57704 115.929 -5.96721
4.28905 74.9355 -2.95175
-14.313 141.011 8.49668
4.68788 96.973 11.319
24.2276 96.2173 12.8696
9.79794 103.995 8.5422
-5.02034 81.4593 4.27595
30.7434 86.4008 11.3019
0.863449 141.073 2.73444
-3.39687 134.155 -2.9891
-14.9351 119.195 4.66341
-17.9779 127.706 11.607
-4.22858 130.198 6.85491
-8.96599 98.5565 4.55559
11.09 77.6408 6.33936
9.26852 122.057 8.28657
6.80113 83.9615 9.14253
17.3175 94.0867 11.6173
3.11416 106.71 11.4366
19.1124 79.9194 7.39087
17.7054 84.6467 3.18422
-3.1189 124.053 -3.29348
-9.24415 125.377 6.67133
10.6898 94.3175 6.68481
-14.0657 103.688 -3.12906
-13.559 108.895 3.54229
14.2279 88.4024 -4.46783
9.07261 100.888 9.42823
-6.17388 106.524 -6.81261
28.5603 82.5413 11.658
-3.57874 139.074 3.94572
23.8135 91.8197 13.7778
19.9425 104.44 6.17151
3.13883 122.48 9.55726
8.90664 76.8343 -3.03081
-5.70366 77.8755 2.99253
-15.2409 121.281 6.55647
-21.1048 120.425 9.21955
-0.375329 96.7576 10.9109
-13.5776 121.25 2.85421
-10.1774 83.3058 -4.93893
25.2089 106.096 12.7126
-14.3901 116.789 -2.52676
34.3151 88.1255 8.51098
10.8696 115.661 7.78846
-6.0831 134.34 -5.46276
1.17643 118.29 10.4728
-4.08114 115.608 -5.16062
-2.34473 92.3404 7.11451
-12.9973 115.69 -5.13255
8.36333 104.237 9.31284
11.2795 126.552 4.77022
2.4284 93.5928 11.7786
-16.3748 121.295 7.57638
-13.8816 121.748 -2.24629
-14.8003 139.494 9.02845
-11.1379 117.477 -5.57175
-15.4084 112.356 0.799059
14.4155 108.004 3.05077
10.7344 123.425 5.73882
3.30083 97.0485 -4.57095
7.3448 94.6958 -4.29758
13.349 76.105 5.33674
-6.41101 77.3592 2.44128
17.2157 92.5042 10.7851
20.4154 84.185 7.49838
-12.4577 138.489 10.3111
7.56776 86.5458 10.0211
-8.67594 74.2746 -1.77565
-0.701367 134.363 -1.57469
-5.29079 143.474 3.50335
-3.7756 123.183 -3.95418
-21.9026 116.127 4.88373
-4.30247 86.9498 -7.42603
-16.1082 120.558 11.049
-0.0674305 111.971 11.8543
7.81486 103.938 -8.03912
20.3238 82.6222 -2.53116
11.0764 123.032 4.53146
-0.827539 89.3138 7.24932
13.6737 107.703 3.7026
2.841 75.9974 2.36901
-19.5854 125.317 9.55402
-14.6521 99.4553 -3.47003
12.6573 113.603 3.86601
1.6465 131.085 -2.42302
19.687 104.421 5.80992
7.07973 84.0434 -4.47184
-12.472 91.8308 -4.97977
-5.78146 116.834 -5.57474
-10.4257 99.4359 -6.92281
-12.1172 81.4178 -5.06642
-10.6739 78.0531 0.520379
25.1161 90.8422 14.6686
-0.0777572 97.0078 -4.67432
-0.00854658 111.133 -5.87357
0.421875 75.9665 -3.92804
5.28098 85.6856 -4.92964
-1.40128 120.048 10.5703
-11.2517 135.93 10.6908
-9.23149 106.376 6.65719
4.50535 94.124 11.5029
8.90476 103.906 9.09266
-5.28216 82.6861 -6.18745
-9.71857 137.396 9.8615
-2.89271 143.121 3.13691
-6.01368 76.5648 -6.14542
-15.3722 112.367 2.7888
29.7192 90.6797 12.8827
22.7926 113.591 12.3239
1.86611 101.319 11.274
-8.24451 113.401 7.83255
-12.3708 78.9179 -1.47307
8.83778 99.8499 -6.44467
-3.31927 106.151 11.9119
15.6501 94.6291 5.54664
-8.22841 130.467 -6.60297
-14.0579 116.753 4.79205
28.0971 106.294 11.8758
-7.02141 118.591 -4.9655
6.89414 92.8496 9.88914
-4.32762 115.004 12.2758
13.0182 95.9313 -6.70953
-0.335673 129.819 6.90789
-7.64841 108.933 8.50801
-2.00544 126.22 7.92954
-11.6732 134.409 10.5652
29.4856 84.9896 11.5868
-10.6214 112.285 5.71898
-7.00253 128.001 7.77954
12.0571 97.7668 -6.83326
-10.4815 143.043 8.68181
6.00823 114.305 9.95815
20.9197 84.8395 8.34005
-3.94935 108.63 12.0318
-13.616 110.8 4.26182
-14.0452 119.013 -1.78156
-13.7848 119.54 -2.16435
-7.56693 139.201 -5.25019
-2.73381 143.936 2.81308
23.6438 99.0441 13.4698
-11.3928 97.5292 -6.26413
-4.75748 74.6508 1.23672
-6.95228 89.4187 3.90249
6.42294 113.584 9.78259
-8.04671 74.2345 -1.3826
-5.17581 106.294 10.9844
-3.61361 130.889 -3.0702
-1.28232 133.606 -1.87436
-5.93774 113.006 11.3007
-13.1041 89.6801 -3.36103
-2.34841 117.728 11.0769
-3.48918 93.526 -5.36657
-7.1451 107.302 9.61182
-0.719684 98.0937 -5.08089
-16.1358 131.331 10.6848
-0.308789 107.753 -6.79616
2.60168 112.968 10.5368
-15.7104 111.139 1.82971
-1.95009 119.448 -3.15643
-4.91477 124.686 8.4083
-11.6746 141.288 -1.04257
-4.07842 99.1784 9.89037
18.7791 98.9552 10.1913
-13.2989 123.983 0.327264
-10.5566 123.097 7.3722
-7.55594 95.9413 6.31741
-14.0757 119.049 1.77965
-0.646953 135.342 4.29127
-2.06869 125 8.71283
-3.49303 107.862 12.0761
-7.37808 97.5184 -6.67053
-1.8641 90.1709 -6.46296
-12.667 124.418 -4.37767
18.6572 92.8614 11.6883
-11.8391 125.652 10.5085
-14.0946 96.4856 -4.6158
-5.26554 99.0103 8.998
12.5765 88.5603 -4.25677
-8.14125 74.2429 -1.95606
8.61541 96.2848 -5.47211
-1.71769 95.8285 9.92569
-2.72213 92.7196 7.10895
-4.4044 88.9706 5.53317
31.2119 94.3992 12.5272
-5.25649 88.5526 5.18758
2.98978 90.3338 10.3217
5.81764 100.375 -6.52686
0.694852 135.125 3.99604
-14.5621 92.7335 -3.57132
-5.94251 114.215 11.4271
25.4838 101.641 12.7962
32.4723 82.2723 10.452
12.7879 114.78 2.79898
0.249687 123.345 -2.80333
-14.3038 115.293 -5.03323
-5.77118 75.1335 1.51258
1.64027 113.889 -6.76305
8.27372 83.3533 8.92144
-9.05481 92.1353 3.39294
8.78854 76.6322 4.76311
-9.22178 105.959 6.94181
-14.3545 138.365 10.2473
-12.9467 129.182 9.37503
-5.68747 126.334 -4.24619
-14.7603 124.969 0.947052
-9.77117 118.114 9.39642
-12.8919 143.211 7.95711
-6.5944 83.4973 -6.65603
9.05228 127.889 7.21492
18.7721 99.158 11.7373
32.7425 92.974 9.20633
-3.62187 96.8214 -5.83642
-19.2778 127.241 6.83353
-14.3542 120.044 6.58843
-22.4224 116.69 7.16824
-1.84774 94.0727 8.54187
28.1072 101.216 12.9164
-9.12823 151.354 0.218565
-13.8806 128.939 0.166127
6.40295 86.1018 10.7262
1.3435 126.07 8.82165
-2.51923 141.163 3.77162
-11.0187 81.1427 -5.59725
-14.0057 121.437 -3.62705
-7.32444 117.905 -5.65479
9.3721 113.557 9.11181
-15.0805 121.061 10.1237
-7.73326 138.061 8.30319
-9.17261 113.091 -6.75293
7.32742 101.844 9.64315
6.40915 102.642 -7.77794
12.2932 91.2496 5.80455
-11.5178 121.846 7.41675
2.61729 80.9058 7.15935
15.5392 106.685 2.938
-9.07206 136.044 9.32499
-17.8448 133.094 5.54796
30.3297 84.7751 11.3417
6.37084 81.186 7.48259
-16.7061 117.918 6.08748
8.24536 79.9849 7.45583
-17.9414 134.099 7.97289
-14.4259 119.642 -1.60656
17.2614 77.817 -2.08814
7.31726 77.6533 5.24803
15.7662 94.8156 5.55616
-2.08229 119.752 -3.22517
0.0638202 95.9593 -4.63262
16.9574 85.9323 3.74404
0.0301197 135.148 4.09436
-6.6258 143.304 4.6427
-15.0242 120.75 6.12447
-15.4056 120.99 6.93667
-10.0852 145.316 -2.57713
8.67947 120.052 8.36153
21.8888 106.01 11.8256
-6.13202 122.311 9.22812
6.12638 77.8264 -3.68666
-21.3542 116.628 9.89274
2.65951 85.205 8.65872
5.5174 134.341 4.331
-0.569069 94.1845 -4.91958
-9.84928 90.6844 -5.99232
-15.0048 118.68 -0.746852
3.06852 138.153 2.98983
22.7586 85.2085 12.0199
-8.71843 86.6343 -4.87512
-13.506 142.936 4.02997
-6.14204 99.6668 -6.93774
-3.32619 84.6417 -6.11511
-5.04272 98.8421 -6.7261
-18.7877 125.611 0.519053
-0.869342 84.1172 6.84263
-4.08418 108.879 12.0376
16.6891 86.074 -3.67422
16.5967 93.5298 8.93511
-12.2399 109.443 4.60858
-6.84044 137.854 6.10701
-3.34378 92.2846 -5.77734
30.0237 83.7744 11.3448
15.8006 83.0742 4.8372
10.4783 132.378 5.31602
-16.5739 120.448 11.6394
-12.3383 76.7314 -5.30465
-13.6312 127.564 9.58084
-9.28035 138.122 -4.45688
23.1856 107.893 12.8386
1.53646 95.7647 -4.47916
5.54172 105.459 10.4196
-19.5836 125.785 4.47358
-12.9931 139.629 2.83616
13.3901 97.9053 4.66741
-4.39741 108.174 11.6967
-2.27554 104.197 -8.02158
9.55722 85.722 9.09602
-3.35338 145.625 2.42036
-7.4242 78.0276 2.20812
-3.29516 116.203 11.7035
-6.07177 91.5171 -6.39358
-19.5583 116.076 9.52884
15.5193 112.054 2.15483
9.22457 91.3662 7.86294
-14.0738 122.249 -2.44384
10.3019 128.234 5.84356
-11.3807 80.209 -5.06893
-19.0972 116.939 11.1022
-1.75665 86.5445 -6.59973
18.8258 85.6273 -3.86846
-14.9824 115.099 4.126
-9.27448 129.539 8.24439
-15.8078 111.376 -2.40341
11.4501 123.405 3.69043
12.9415 94.139 5.38633
1.81638 115.572 -6.55969
0.827546 102.286 11.8394
29.7926 90.8505 12.9141
26.4332 88.8926 14.4677
-14.9756 114.147 3.45756
-12.8195 125.273 -3.92873
18.4928 80.6614 5.31746
-19.6162 125.14 9.27124
16.6333 90.7354 8.03698
-12.5674 97.3692 -5.61499
7.82997 86.3447 -3.89947
8.31087 79.9147 -3.55868
2.85579 102.687 10.8333
2.9071 86.5132 9.19859
8.29132 86.1324 9.44491
-2.95198 104.821 11.9018
1.44675 120.065 10.0079
0.895229 87.7701 -5.99147
21.397 114.167 7.84375
8.99861 93.1977 7.73741
2.0919 113.277 10.6648
-11.4798 110.069 5.0186
-10.2033 124.228 9.62659
11.2429 87.2772 7.36033
14.3849 88.101 5.50359
-6.40197 145.006 3.74502
21.6472 107.265 9.79506
-9.47311 98.0441 -6.57029
-13.3616 121.537 0.667434
26.4868 110.668 11.5915
-10.4898 74.4375 -7.01028
-12.2311 90.7532 -4.55883
-10.3402 118.411 8.8499
-6.25685 89.7612 4.46599
-16.3996 132.571 11.2695
14.7626 110.613 2.57417
3.94089 97.1158 11.4304
17.0518 94.023 10.4567
4.66437 77.0479 3.30311
-14.5602 97.6701 -4.10544
3.54713 140.14 2.52307
1.67349 134.001 -1.39423
28.9952 83.7683 11.6172
7.53946 103.904 -8.01909
-13.3302 120.822 0.848186
-10.9173 95.1062 1.73861
14.1335 87.4634 -3.95034
17.6997 96.4858 6.52206
19.39 101.11 6.586
6.60022 84.2131 9.24117
-14.6534 125.673 1.2077
9.32168 91.7074 -4.14107
12.0243 81.0851 7.50862
12.5715 114.66 3.52548
-2.65644 84.2992 5.81374
8.19462 119.272 8.53509
-18.9358 118.259 12.6909
8.98744 131.318 6.52257
-3.56295 128.493 -3.32952
20.7193 116.532 8.31354
-13.2169 104.009 -5.08925
-5.13327 142.345 3.69223
26.7403 89.6304 14.4034
-17.6443 131.746 11.2499
-0.74952 93.0921 8.80507
-15.4376 107.479 -2.53666
11.939 81.6847 7.81153
-5.38369 85.1715 -7.23686
32.7657 92.7357 9.35905
1.41017 75.8049 -3.56238
19.6167 81.4886 3.95864
5.30206 117.788 9.69355
-11.1406 91.5039 -5.56559
-6.55722 89.666 4.22144
-5.74112 142.812 -4.26819
-13.2054 81.7799 -0.775045
-9.90388 74.8643 -6.58667
-1.56706 78.3446 -4.62928
-10.5221 116.284 8.46846
-14.6433 95.7337 -3.1676
-7.99025 115.036 -6.46253
1.00762 81.0756 7.31109
-8.21558 79.1745 -5.30932
9.14988 84.9123 -3.41566
-20.0607 120.492 1.86602
-9.38861 120.714 9.36527
-13.2444 102.832 -4.4422
-19.9561 121.421 2.78151
-8.18353 103.615 7.16105
-16.6552 124.654 11.8204
4.09583 75.5639 1.81205
15.882 83.5029 4.95318
-10.2539 130.93 8.73401
2.06244 126.564 -2.96564
9.55655 121.217 8.02309
-14.048 118.997 1.83882
3.13544 106.491 11.369
-12.6837 79.5187 -3.07918
17.8713 80.579 -2.15362
3.30716 83.9539 9.01097
-14.738 127.137 9.10127
25.998 104.707 13.1597
30.8029 92.0531 12.8567
12.4495 109.618 6.02777
-5.88747 141.322 4.18855
-5.59306 148.783 2.21273
12.5358 116.869 2.80257
10.2711 90.8479 -4.23461
-4.27639 74.5572 1.23193
0.668766 84.6637 7.72489
-0.289549 111.975 -5.44603
-7.57981 118.836 -5.17865
26.4898 84.6772 13.098
-1.24699 111.84 11.8685
-10.6292 105.667 5.29603
24.8561 112.243 12.3475
-11.4379 140.466 -1.90407
9.96417 110.235 8.95863
-8.65154 78.6519 -5.37403
-17.8896 134.315 9.37106
-12.954 83.3265 -3.28713
8.99839 114.493 9.31054
0.967389 134.682 -1.3408
-5.33006 81.8851 4.31688
-13.7549 119.383 1.66011
-2.97097 123.726 10.4966
11.6138 95.3423 -6.11293
-0.0868489 125.615 -2.36251
-3.22986 101.587 11.107
20.0177 103.253 10.2582
-16.7515 127.083 10.4736
5.25969 107.883 -8.46597
30.9734 94.4481 12.7227
-16.0323 120.847 11.0613
6.30349 103.187 -8.02812
21.3407 105.507 9.66787
-10.7922 123.191 7.26625
-10.5928 147.372 1.24517
-7.95907 96.4635 6.06768
0.0439387 132.387 -1.52259
-14.3199 108.501 2.77484
-8.0474 125.337 -5.21026
1.34954 113.098 -6.5524
-13.0596 142.175 3.22787
0.749563 131.825 -1.88673
2.53778 115.034 10.4362
30.451 83.2156 11.1421
-13.0103 86.7469 -3.20921
0.896747 116.437 -5.00268
17.8364 95.6042 10.2822
-7.24326 144.104 5.10046
-8.2027 135.89 -5.06215
7.49918 79.4285 -3.66194
-0.37441 131.091 -1.63481
3.29023 89.3283 9.74057
19.315 88.8158 10.3651
-6.97756 117.893 10.8795
7.53741 116.079 9.80289
-10.9815 126.456 -5.5016
21.8074 106.933 8.48487
12.8195 88.8603 6.17252
1.24789 98.1961 -5.15573
-11.6596 127 -3.94834
21.4167 90.5981 11.3971
-9.15016 128.127 -6.55539
-7.7143 143.648 -4.38048
-18.7581 117.024 8.62535
7.54811 99.9982 10.1176
12.0397 78.8025 6.74072
-8.25947 101.632 -7.02002
-3.9513 120.977 11.4207
10.912 101.312 6.77824
-10.4496 105.872 5.42309
24.0965 79.3404 -0.84336
16.832 89.9839 7.21049
-4.23904 91.6834 6.23831
13.9946 115.485 1.97127
-8.08116 119.553 10.2091
-16.2301 134.176 2.48412
-11.6258 81.3902 -5.35712
-15.4061 105.723 -1.49682
-13.327 102.731 1.12905
-1.08938 74.4703 -4.22284
22.4246 99.9249 12.4312
-13.9398 117.646 0.810819
17.8925 95.8585 10.1247
16.0842 91.0996 7.65989
-10.5922 75.2872 -3.76713
10.2043 87.7145 7.88246
1.60642 88.1153 8.29331
-0.298168 104.486 12.239
-2.27833 136.76 -2.70023
-6.12817 107.648 10.7016
-1.60443 95.3616 9.7247
7.45544 96.4678 -5.05951
-13.6726 104.169 0.369641
-4.17834 97.1471 9.03551
-11.7457 140.516 0.994407
-3.69239 89.4631 5.85262
-3.00874 93.2377 7.23255
-13.326 91.124 -4.00623
-5.05056 121.572 -3.81541
-12.102 81.1757 -4.8954
4.31321 132.992 5.02452
10.0729 79.6365 -3.34623
-4.00616 100.314 -6.07962
11.6963 108.674 7.47319
-10.3324 76.6477 -5.84544
14.7508 78.4108 5.12964
-16.6083 119.692 10.5143
-13.5985 117.259 -1.51366
-0.766606 94.4251 -4.84334
12.6093 87.1789 -3.69887
-11.2651 113.119 -6.26474
-13.4261 125.345 -2.17397
21.6673 82.019 14.161
11.5441 125.248 4.65074
-1.69442 88.1561 6.39946
5.58243 134.781 4.08735
-8.72466 133.431 -5.30493
8.90856 95.8544 7.93701
22.9958 86.8546 14.8559
17.5536 101.911 4.75699
8.48108 131.676 6.62206
8.08464 97.0726 -5.46015
-14.3185 115.563 2.85582
21.5106 89.7011 11.2154
17.3128 85.5471 -3.71258
6.86244 132.468 5.53677
-3.43509 136.44 3.98485
5.95147 122.123 7.97637
-15.5758 140.237 5.50414
-5.36516 140.752 -4.26744
10.1098 97.5725 6.46744
10.0437 87.912 8.07797
34.3183 82.1855 7.68302
-8.88962 113.391 7.2664
8.38314 92.6079 -4.0694
-6.32632 136.347 -5.83967
-12.3256 139.781 -0.839663
2.50416 75.2122 -3.29219
-4.92737 108.492 11.5179
-17.0402 120.335 7.92585
-15.4087 118.005 3.82869
-9.66472 89.5225 -5.43311
-19.3642 119.244 12.5857
2.88727 75.9825 3.00354
3.19005 101.246 -7.42373
27.7733 99.9639 12.9146
-14.0226 120.166 0.850258
-3.84708 144.742 2.78462
5.8597 81.2256 7.56373
-13.7539 92.86 -4.29305
-20.0525 125.413 7.3083
-1.45972 129.389 6.65218
-13.0908 126.425 -1.60323
1.83749 111.416 -7.62852
-0.895746 138.451 -1.65492
-6.3451 120.651 -4.22274
0.855065 125.366 -2.84029
19.5134 87.734 9.60212
-10.1699 103.854 5.82206
18.3141 121.622 7.80903
-9.52067 96.0823 -6.06933
4.28531 78.575 6.2058
2.93984 126.586 7.66069
-10.1067 140.294 -2.94805
15.1276 109.032 2.68381
17.8237 102.005 4.80204
2.93812 83.5825 -5.11853
9.02936 104.771 8.84382
-15.3147 135.471 4.19398
-11.7071 146.648 4.77372
-8.30398 104.905 7.97731
-0.963903 102.146 11.9777
-1.43292 118.078 -3.54342
11.8435 108.875 7.26413
-12.3532 93.9736 -5.69111
-3.12819 132.223 5.43881
1.33567 107.747 11.5642
-15.0651 102.711 -1.06086
1.74087 109.957 11.3741
-5.26432 129.534 7.01419
-20.7952 116.991 9.82
7.60175 93.5483 9.15057
-15.4029 118.857 4.59648
-6.92703 125.015 6.73499
-13.6349 121.207 0.172175
-12.5897 136.853 10.7096
-21.6977 116.345 9.86722
-14.1354 84.2194 -2.36728
-16.8235 132.772 1.58404
-8.9149 133.157 -5.0516
-8.91974 126.03 6.44096
34.0521 83.8389 9.23114
8.85291 77.5089 5.79767
19.1068 85.2525 5.51621
13.0727 78.9209 5.86469
2.38416 106.781 -8.61286
9.66062 85.8695 8.92498
19.0703 86.3316 -3.90935
-14.5675 123.167 0.310921
7.96229 113.875 9.47486
-13.4425 120.081 3.24975
21.217 85.7969 8.52128
13.5224 83.8932 -3.29444
11.9728 80.5026 7.29597
-6.2839 77.7366 -5.14009
-8.57048 99.486 5.1875
-14.1458 121.964 -0.688642
15.4579 106.346 3.01584
-7.52767 137.779 7.82369
23.9173 87.4745 14.8855
-13.5223 130.817 1.02292
-13.1752 121.545 7.81765
-6.89987 73.9304 -1.66528
4.44929 86.8174 10.5967
-13.2615 102.074 0.668868
-8.8716 132.473 -4.89499
-4.66725 91.2658 -6.39814
-4.92183 96.5455 8.31277
-16.1475 110.421 -0.412047
-11.7887 97.9247 2.67555
-12.7853 94.3367 -5.47451
-2.38867 115.022 -4.54089
7.61538 122.54 7.80076
-1.65083 77.7413 3.6282
12.6236 111.383 4.85432
-10.8895 128.115 -6.04999
27.947 94.8328 14.2364
-15.1811 119.096 2.05864
1.17546 98.2197 -5.18921
2.71572 80.8264 7.12356
24.5025 115.165 10.6151
-12.4575 81.2212 -2.61896
13.7104 87.1121 7.55992
-10.7059 148.282 2.58455
18.6611 122.922 8.97165
-10.0442 123.384 7.48402
7.59259 123.734 7.78214
-9.15549 83.6906 2.00809
-11.2149 75.8692 -0.632273
-16.0766 136.288 10.2262
-17.7976 128.887 1.00024
5.09223 89.4704 -4.4522
-13.0876 129.951 -0.701904
12.5525 91.6686 -5.27618
-13.8166 120.251 -1.90831
19.0275 95.9802 12.094
-6.69925 107.106 -6.43223
-14.0193 138.795 3.71083
24.8266 79.3086 -0.572132
28.645 99.5467 12.9806
-13.1443 130.771 9.05605
-14.5052 126.691 -0.716088
-4.55968 139.202 4.34459
-2.96764 90.1259 -6.78348
-13.6568 119.277 2.4882
-9.99093 82.9147 -5.35732
26.0966 92.6848 14.8361
5.97563 99.9405 10.6824
-15.9737 121.833 8.0698
28.0433 82.4529 11.8918
20.9391 119.415 10.9741
-7.97631 138.022 8.76925
-1.40304 105.624 12.1601
-1.02879 110.123 -5.68073
-4.71277 135.315 -4.29957
-12.7222 100.48 2.7661
2.31867 98.0729 -4.8837
2.60695 114.233 -7.46127
