ply
format ascii 1.0
comment Created by Open3D
element vertex 1923
property double x
property double y
property double z
end_header
-3.60939 109.844 -6.55774
10.2225 123.419 -1.05596
-23.31 125.519 -3.57274
-14.055 116.665 10.6389
4.36364 125.359 8.12996
-19.6448 88.9737 -0.45293
-25.4429 129.058 5.65575
7.37492 139.25 8.09495
-1.60503 129.521 -1.64336
3.39544 139.556 4.17618
-18.1755 128.596 6.78969
-10.4111 133.005 4.65906
9.21725 129.984 2.08417
-4.68481 103.122 -8.19401
-5.47335 89.6488 8.7219
-9.08999 122.201 -4.51483
-21.9268 122.504 3.62991
1.77896 105.792 3.0215
-6.47627 85.092 -2.26106
-2.76139 103.801 8.03492
-21.5096 95.0707 0.1155
-15.3579 138.661 7.27065
-12.0829 124.94 9.96765
-19.6314 104.579 4.10443
-21.4057 117.295 1.91565
-9.90548 78.5651 2.06964
-6.89763 113.824 9.52474
4.41403 140.357 -3.08511
8.43523 130.579 9.95864
1.66488 102.349 7.24945
-6.219 120.093 -3.15969
-16.011 126.243 5.21603
-11.6998 105.427 -9.63849
-2.22021 108.468 -7.0389
-8.51604 83.1855 7.30802
-22.1271 92.7013 -1.09219
-22.4356 134.732 -2.20323
15.2204 136.15 2.30175
-1.02851 101.712 -6.70829
-12.3635 93.788 -8.98069
9.40271 132.034 -2.66079
-16.7908 102.193 -10.3557
6.26332 125.124 2.29799
-7.066 103.879 -8.4985
-12.0176 111.044 -8.39935
-14.9848 112.765 -9.58162
-5.5719 137.568 -4.24053
13.2927 133.644 0.43608
10.4766 123.594 0.698438
-16.625 122.884 -7.6972
-23.3076 130.306 -1.72398
1.07131 101.754 -5.02996
14.8541 132.918 11.8463
10.9941 136.576 10.5308
0.918284 104.043 12.0622
-20.2141 141.525 1.31574
5.03737 134.172 7.06872
-22.7013 84.835 -3.00574
-1.69116 98.1587 9.65127
-12.7473 107.243 10.7133
3.9783 128.664 5.32838
8.5686 143.695 -3.9431
1.41502 113.104 13.097
-20.0532 92.528 -8.83461
-14.8644 77.1094 0.0236214
-12.2836 81.1952 -4.71012
-11.628 121.341 10.1679
2.22004 148.838 -2.46115
-1.01911 100.847 -6.33788
8.70802 146.045 1.32597
-23.6153 137.341 3.90063
-21.6848 120.842 2.54647
10.0218 128.76 -4.14691
11.8475 134.379 0.926685
-3.73952 119.199 9.1605
-2.59495 147.052 -1.71196
-1.39366 153.994 -1.94049
-21.6827 113.152 -0.487261
-5.33484 97.2566 10.326
3.8643 130.639 5.84984
-22.6413 95.9398 -6.66582
-12.9316 147.068 4.78106
9.57898 144.023 7.47913
-17.5052 116.353 6.64803
-4.56674 91.1235 -3.99868
-16.1432 83.6704 3.36603
-11.0267 86.539 6.46166
-2.13964 100.944 7.71299
-21.3366 132.437 -4.04713
-8.04657 116.79 9.90173
-23.492 127.237 6.55217
-18.173 127.174 7.27767
9.76035 129.785 -0.886032
-20.5733 120.168 -0.928456
13.8417 145.967 7.5252
7.28491 134.207 -3.51089
1.45081 128.451 -1.26173
0.732295 101.474 12.7805
-17.2953 85.6457 -9.34265
0.782886 104.836 11.5492
-20.0563 78.9697 -3.18165
-12.457 83.0391 5.70083
7.40249 117.686 14.7745
-12.627 138.512 -5.12745
-1.59152 97.3973 8.61849
-6.5558 88.3754 9.4441
1.48346 112.918 -4.53824
-1.41331 101.547 -6.95198
10.8112 128.431 0.449443
-20.9092 121.088 -0.897258
-7.11684 117.947 -4.08959
9.46935 146.458 -3.52296
-0.793664 99.5022 -5.2402
-23.4488 91.4865 -5.43348
-6.43125 132.061 4.98364
-1.67427 141.122 2.80227
-20.2368 99.3759 3.03241
-9.29569 145.366 2.43463
-10.0795 86.8857 -5.83978
-7.80667 82.358 2.27801
-8.6117 78.6611 5.07311
-4.36453 137.856 -3.28953
-21.6091 81.7569 -1.48054
-20.6209 96.5803 -8.66479
11.3305 143.801 -1.70213
-17.4057 83.4191 2.53573
-13.8628 149.101 2.33828
-9.5696 101.298 -8.81648
9.97009 139.4 9.60836
-11.1517 131.968 6.02862
-12.3443 77.3084 3.8189
-9.57371 109.267 -7.66869
5.20605 136.214 4.05119
-7.87311 84.1324 7.68367
-14.9819 86.9321 3.06572
-16.6867 80.0561 -8.20882
5.93206 134.344 5.99207
-21.8666 83.3534 -8.71735
-15.7646 98.9819 7.49024
-20.446 78.0865 -1.51898
8.84056 128.668 0.50471
-11.486 97.3623 10.2301
3.44523 131.361 6.18253
10.3146 135.574 -3.31669
-2.56415 111.959 -6.17168
-3.56617 129.311 -1.84216
-1.64124 102.839 -7.65683
-3.82536 140.087 -2.64222
-4.82578 117.617 10.0251
11.7015 126.205 1.98957
-6.01181 87.3484 8.88746
-8.44738 87.493 8.58445
-26.3157 122.267 3.69575
-2.07855 96.1426 8.23662
-3.79903 119.387 9.11721
-6.28629 100.711 9.17541
-5.17067 139.573 3.49544
-5.01161 121.408 -2.66752
-8.76909 91.9756 9.56652
7.91119 127.719 -3.71396
4.61509 129.278 7.3811
-9.48167 76.7971 4.23885
-17.0962 81.3891 2.90667
12.5789 127.297 9.14699
0.476899 125.701 -1.90425
0.4105 142.746 2.6155
-16.6765 135.258 -2.1384
10.6865 130.015 3.91355
6.21951 119.05 3.1565
12.7211 127.453 8.92464
-9.39465 126.638 -5.66867
-17.4352 109.09 7.29237
-20.9961 91.5655 -8.1664
9.35988 128.135 5.15223
9.60966 129.534 4.80223
-13.7447 142.188 5.89585
9.8632 150.726 2.04169
1.23434 115.986 6.98384
-21.3299 116.636 1.48275
-22.5896 98.9462 -2.69096
-18.7573 125.967 -4.52541
-22.5967 123.018 5.9098
-19.7688 117.559 -7.83086
4.28853 126.847 2.707
-18.4612 124.912 -2.50077
-18.6223 123 -5.02875
2.12694 118.701 10.5402
-5.24792 109.732 9.78449
-5.49695 127.171 7.15358
-4.12364 88.4368 0.277683
-2.44507 129.594 -1.67124
-10.503 96.1937 -8.66204
-10.3772 145.76 3.0452
2.64667 125.048 4.93048
1.30926 114.485 6.57052
-19.5932 83.3456 0.46563
-3.8733 114.831 10.1799
12.579 137.172 0.0697705
-3.00975 108.518 9.51151
-6.83976 141.417 3.16192
-17.4152 130.265 -3.29089
10.396 149.848 1.17236
-12.7298 143.402 5.21504
8.71428 132.881 3.55752
-5.99311 86.0241 -2.77802
10.9381 145.041 -2.82439
-26.4839 127.343 -0.201512
-19.0521 125.85 -1.62705
2.86701 139.168 -1.25514
-18.4758 125.151 -3.43785
-25.3547 120.945 1.14577
11.3923 128.321 2.66652
-1.82737 97.8002 9.8111
4.38515 110.784 2.62409
-23.5548 135.811 1.36354
-15.3619 80.1512 3.30502
3.60399 106.006 15.7212
-5.22225 127.956 -2.52804
7.74759 133.655 9.64891
3.38972 138.153 -1.42128
-9.42738 139.457 -5.5916
-20.0269 79.0122 -2.43966
-8.57835 120.83 9.42261
0.552119 140.372 -0.739697
-21.1021 82.3856 -0.960541
-19.1667 143.92 4.28891
-3.93005 119.981 -2.84222
-0.675655 118.046 9.7016
-7.88425 148.671 -4.27234
-22.2085 112.244 -4.19554
-5.35977 149.859 -3.38915
-20.2736 122.177 -2.21257
-6.57518 105.526 9.11526
-3.55738 104.936 -8.01904
-10.3295 129.334 7.16223
-5.66189 90.8733 -3.51325
-19.1611 101.856 4.69433
-8.85953 82.7402 6.93443
10.7041 127.07 7.44184
-19.1266 121.746 5.13492
-4.82316 91.3631 7.72309
-4.08177 125.583 7.86261
2.49437 127.791 7.50514
-2.09392 108.492 -6.97944
5.18903 125.081 11.6978
0.603675 101.948 7.21693
3.92717 113.646 2.43259
-15.8137 133.251 7.49461
7.845 128.848 10.1268
9.61326 142.252 -4.24225
-20.6463 117.597 -6.85424
6.05979 150.841 -2.66611
-19.7975 143.038 2.81982
-15.7538 144.988 6.2679
3.47011 115.003 -2.50186
-23.9429 137.07 3.10774
3.74415 138.6 4.61597
-9.49236 122.401 9.52725
4.85458 132.463 -1.62013
-13.3641 90.2102 4.26999
-12.6735 137.181 5.07603
-20.8212 133.979 -4.01982
-18.5861 125.26 -3.19393
-23.2223 124.076 -0.791493
-18.2196 89.1872 0.846568
-22.7931 121.813 6.41049
-18.5084 144.707 2.66997
16.7902 139.078 10.2523
-13.2635 126.497 7.05623
-15.4239 143.057 7.29941
-16.0904 135.428 -1.96403
-6.0995 137.528 -4.69078
-3.69264 140.939 -2.50243
-15.7325 93.4323 -10.1083
-15.9784 124.576 6.69371
-5.01394 131.719 -2.53352
-23.9808 136.855 3.10088
-16.1002 124.279 7.06352
0.376758 142.524 -0.882724
4.74744 122.715 -0.786491
-18.7208 94.8526 -9.11661
-7.9805 114.244 9.368
-2.14114 94.1945 5.06874
-17.5667 113.653 5.60795
-11.287 130.985 6.36371
-9.45773 127.864 -5.60615
12.0552 130.011 11.3559
-17.1688 101.179 6.84179
-20.111 132.699 4.87851
-19.5001 114.321 -8.44244
1.91582 116.77 3.4925
-23.2714 92.1948 -5.17852
13.0173 132.794 11.7528
-14.9184 137.31 -2.03924
-2.12423 133.716 4.92532
3.76116 138.39 4.66075
-2.03393 96.9893 5.89055
-19.1166 95.5354 -9.11898
-3.151 91.7799 3.5445
-19.3693 77.8652 -6.88428
9.57849 144.922 2.43093
-0.00374511 123.631 8.89646
-17.5069 114.204 4.65591
-16.9577 90.0649 -8.85173
-16.1293 109.78 9.41628
-12.4098 119.841 -7.62941
-7.80753 137.055 -6.74568
-19.4109 107.752 3.28537
-0.669264 100.4 -5.8531
-18.0954 123.956 6.50653
-25.1775 127.62 6.09209
-4.51136 132.112 4.93915
-7.18709 120.456 9.76334
-18.5411 142.859 0.631412
-10.8942 93.9473 -8.23968
8.60914 132.773 3.78225
-9.357 105.962 -8.46776
-19.0922 77.5953 -2.89626
-21.8883 116.282 -0.89232
-18.0638 77.4712 0.641
-0.693589 129.785 -1.69189
4.57145 125.775 10.8525
-20.7208 125.399 5.5347
-9.08636 86.3914 7.59186
2.89207 105.948 15.4084
8.91003 119.351 10.5452
-23.041 122.623 3.32508
-16.0968 132.42 -2.67366
-14.352 93.4677 -10.2033
-14.9315 130.678 -5.3523
9.31077 149.626 -3.09837
-12.7628 115.72 9.8129
-15.8445 92.1681 -9.89036
-21.7177 121.735 2.83267
-5.72993 116.89 10.3481
-21.5197 120.334 2.08776
-19.451 111.671 1.86114
-0.0889068 98.9469 5.80485
4.65943 128.346 2.68457
-9.4652 131.178 6.43772
2.68241 151.661 -2.40214
11.4737 124.577 8.33225
-25.9548 129.607 2.76169
2.35131 136.323 5.09811
-18.4695 109.726 -9.1301
1.17698 110.138 7.17613
-11.9341 94.4409 7.29438
-8.89642 98.9489 10.2434
-10.3704 151.526 0.966344
-14.3408 100.198 -10.4868
-18.6239 117.527 -8.62163
1.07592 118.916 8.26175
-17.2451 102.624 -10.1267
-11.9405 110.693 -8.40313
-12.4503 103.013 10.6273
2.90391 133.111 7.01729
-12.2705 150.23 1.22191
-24.2888 123.845 6.8742
-14.3737 133.817 7.23465
-1.49395 100.419 4.46754
-20.2579 121.824 -0.7895
-13.8344 86.6249 4.30194
-6.82943 87.165 8.63051
-4.39002 142.287 -3.85908
-4.98512 136.81 -3.63736
7.96259 120.633 11.5199
8.08721 128.414 6.16716
5.27535 122.332 -0.871794
11.0782 136.701 0.348561
-10.7029 89.442 -7.71397
-18.4438 80.2654 -8.51642
-3.02458 132.718 5.02242
-18.8771 143.615 5.37556
-8.86232 108.161 9.34604
8.84729 140.472 5.16129
-16.3038 80.8474 -6.38315
4.98042 131.408 9.57212
-23.9673 124.623 7.17067
3.58142 110.47 15.0487
-20.2833 117.282 3.41044
-6.36362 130.888 -3.53177
-20.4911 106.682 0.26733
8.93541 143.972 -4.13155
-9.77886 135.165 3.93456
11.0065 129.927 8.87488
-18.3716 128.789 -2.47283
-12.7853 148.565 3.99991
-24.6186 129.169 1.1492
-24.3094 123.038 -2.6584
-17.6003 79.1274 1.68754
-7.0374 120.188 9.85298
-18.643 84.8327 1.31896
-12.108 81.1152 5.45464
-19.5749 125.136 6.16404
5.7627 147.351 2.45376
-21.8902 91.4424 -7.89565
-13.9087 89.8156 -9.84975
5.47914 131.667 -2.79749
10.0224 125.594 0.192572
-6.54799 112.698 -5.05784
-20.6835 101.323 -8.15376
-8.42616 81.0255 5.96397
-20.0687 124.149 -2.12295
6.22062 129.259 -2.63103
-10.6595 140.523 2.88645
-4.46261 92.7221 -4.0096
-8.20443 145.769 2.00762
1.79606 112.36 -4.20151
13.5813 133.872 -1.35829
10.771 130.665 -3.6535
-6.92975 117.933 10.4223
-17.4465 128.677 -3.0484
-2.44459 110.601 -6.34071
-4.67053 86.4208 7.82913
-12.8108 136.485 5.11339
-2.21213 134.111 4.70026
-4.75308 104.156 8.93215
-22.1187 124.498 5.82819
3.53242 146.035 -2.87185
-15.5109 120.403 -7.90379
12.9539 148.491 2.98802
-13.9311 116.009 10.4923
-19.3129 107.39 -7.77438
-6.28582 113.82 9.64269
-3.38335 98.9031 9.25927
-6.90162 91.4271 10.7382
-4.29963 148.36 -2.87058
8.51674 135.936 4.60208
13.3854 135.075 -2.29758
-0.614887 108.851 -6.04934
-3.54618 96.0947 8.41513
-6.25306 114.98 9.98129
-8.47852 88.5099 -4.56483
-19.1909 80.2657 -8.2751
-2.29751 151.306 -1.60279
9.83399 127.678 2.67358
3.4776 126.921 10.25
3.9216 129.279 7.82219
0.713779 111.36 8.10033
-16.6387 124.595 -7.46275
-6.82588 143.473 -5.01389
2.52177 140.732 3.78868
-21.1739 105.06 0.20668
9.27562 130.37 0.0975315
-18.271 134.386 7.33949
-8.33469 102.975 -9.09517
-21.5319 98.4882 0.151256
11.0193 124.168 7.07475
-21.7359 90.8827 -7.72378
-6.38069 85.551 -0.165422
-17.5667 127.096 7.25382
10.3541 136.96 -4.04766
5.47795 127.386 -0.65289
-19.6821 108.005 1.57339
-22.6023 137.07 5.92266
5.61731 133.412 2.95212
-5.05233 85.7028 2.62336
6.46865 119.117 4.93826
-19.1201 123.922 6.00002
-14.5778 139.422 -3.04059
-10.2528 87.7432 -6.42146
1.20403 106.191 14.3393
-7.81921 124.75 9.74676
-1.11053 97.3352 10.7212
-14.0637 86.2652 -8.92447
3.59442 128.537 6.12023
-13.7064 146.564 -1.06142
-13.4287 96.6891 7.97263
13.3869 132.614 -0.590453
0.813329 127.847 -1.61538
16.4494 140.048 10.3108
-20.6527 92.1329 0.331126
-8.14388 150.347 1.95372
-23.5886 133.739 4.75969
-7.02208 86.4559 8.0555
2.90818 126.378 9.45517
1.36521 111.783 12.7271
-14.2325 108.197 10.5638
-7.92347 151.36 1.78864
-21.7277 96.4743 -1.60902
-21.5285 122.247 3.45522
-5.65707 112.809 -4.9424
-1.6457 98.9902 8.73201
4.02331 123.332 -0.828335
5.9327 133.956 5.93143
3.21366 111.194 -2.83651
2.82401 124.038 11.2108
-13.0389 142.63 5.32173
-20.1887 85.5663 0.00974068
-22.5181 122.864 4.68572
-8.36749 84.1048 -1.17682
-15.5205 106.059 9.34677
11.1137 126.25 8.00891
3.50353 113.83 8.53619
-16.0839 139.324 7.36468
4.53639 146.781 -2.87885
-12.3001 83.601 -5.43288
-20.6342 121.416 -4.0064
3.60162 145.293 -2.881
-19.79 132.4 5.85729
0.610978 106.255 12.1077
5.11108 118.809 -1.49586
-3.96552 122.968 8.73068
-8.5112 142.629 2.42624
5.31063 147.16 3.35959
-5.36567 140.9 -5.10576
-21.7927 106.789 -6.40315
5.32252 129.405 6.8746
-26.3394 129.296 4.52373
-10.2974 122.35 -5.18246
-2.76542 106.199 -7.3626
-12.0876 83.2989 -4.60051
-15.2147 113.58 10.2892
-0.220663 103.183 -6.6929
-20.2836 123.08 -0.0909163
4.14945 127.837 8.5366
-7.01249 106.365 9.30408
-14.3735 142.976 -1.27869
1.76165 112.717 13.8475
-19.8499 124.339 -2.64092
10.7711 126.847 -0.129225
-7.42127 81.0861 5.49161
12.2907 135.922 11.5683
-21.3994 123.544 -1.7207
7.80947 125.288 11.8414
-20.5423 122.932 4.54077
-4.98816 86.7024 -0.0504226
8.20129 136.133 1.99413
11.4533 130.138 -4.21711
11.6291 138.38 -3.69104
-23.3276 136.878 1.75233
-8.55168 136.32 -6.9714
-17.0176 81.2921 -6.44264
-3.74932 111.423 -6.01553
-17.7098 128.833 -3.25299
-13.6517 144.826 -1.1076
-2.74602 94.1491 4.87186
2.89346 119.931 -1.55558
-21.2855 122.524 5.48246
-14.272 77.0147 1.54099
-14.9172 99.8028 -10.4942
-14.7004 138.724 -1.95582
-21.0183 97.9461 1.5333
-5.1254 135.217 3.09661
-5.15465 133.823 4.3598
-10.5123 84.7527 -5.16551
5.06337 112.129 -2.34645
-9.9393 139.03 2.66613
-14.0227 100.243 9.54933
1.98552 120.573 5.00974
-18.1828 128.322 -3.27131
12.5065 144.231 8.59994
-8.88525 88.5689 8.20289
-17.7948 86.9558 -9.09731
-14.0769 115.965 10.5744
-4.86487 113.075 -4.8269
7.90712 122.639 -1.92664
-4.67787 139.872 -3.66043
-12.06 130.839 6.60924
-10.3502 92.3045 -8.26654
5.43215 147.824 -2.61427
-7.87406 112.383 -5.73941
-14.5061 94.1083 -10.2764
-5.34023 134.343 -3.21127
-18.3512 132.033 -3.80628
-12.9603 86.6378 -7.74707
-18.9883 77.0281 -0.577544
-27.0472 125.328 0.548313
-10.5366 78.4204 -7.03315
-2.38677 123.461 7.48118
-22.7767 97.0179 -3.96946
0.125943 98.447 2.18748
1.73647 117.477 5.64205
-21.1906 121.309 0.299259
9.29406 146.964 -3.69225
-22.0117 138.798 2.04756
-18.1521 120.043 -8.10691
13.8513 148.425 5.83064
-0.175874 143.921 -0.95742
6.91671 128.398 2.44188
1.0651 121.17 -2.97128
-8.31163 152.67 0.629405
-21.4086 123.922 4.49052
1.66691 105.815 3.74137
-19.6239 123.354 -1.58209
-6.44051 135.118 -5.05593
-20.5711 121.859 -2.2081
-19.9756 123.691 6.5995
-4.51228 114.988 -4.31219
-17.0303 132.74 6.98004
9.74045 150.072 -1.76589
1.93134 108.93 2.73134
9.9834 130.167 3.22789
-10.1704 108.773 -8.07262
4.32014 111.91 14.7129
-17.4631 140.678 7.31726
-19.986 123.229 6.3613
-8.43277 141.411 2.9484
6.21142 126.185 2.16651
7.45655 150.061 -3.05669
9.68829 130.767 -0.580182
-22.2909 106.154 -5.61044
-12.1629 107.408 10.7408
3.0782 134.199 6.80493
3.45169 129.836 -0.42311
-6.97956 106.29 -7.46268
1.91763 115.619 -2.24877
2.91535 120.307 3.11658
-21.2739 121.241 0.189665
-16.8714 126.848 5.03342
-20.2259 124.714 -2.41231
-5.89307 119.797 9.88836
-19.6832 107.638 -7.64287
1.74318 127.289 8.21522
15.9175 137.293 3.42159
1.20931 104.815 6.62928
12.6123 132.004 -2.7019
-5.81154 141.645 3.39772
-12.9111 84.0417 5.52135
3.96834 136.772 -1.71714
-14.9766 77.0552 -0.146405
-19.4919 125.065 -2.84744
-3.48574 94.601 5.55871
2.5161 120.333 9.74099
-19.3826 125.85 -3.86563
13.2988 135.068 -0.331895
6.80499 152.385 -2.48962
-18.0787 76.0801 -1.25598
4.34083 125.783 10.8795
10.8618 136.015 -3.64925
-4.98712 116.722 10.3495
4.15359 112.563 8.23462
13.2901 139.746 1.86797
2.31847 120.378 10.076
7.62967 140.461 1.51069
0.160749 115.464 9.23603
-2.70695 94.0482 4.87269
-20.6768 78.2756 -3.13899
5.86039 134.993 -3.13858
2.48356 119.384 3.46888
5.24339 131.538 -2.2809
-0.0418177 116.594 -4.63086
-13.5648 105.682 -10.1727
17.6019 144.329 6.44835
9.08365 133.451 -2.94775
0.060614 135.178 -0.385158
-4.12819 98.2503 9.66936
-21.909 116.782 -0.49086
-21.3363 135.744 6.03336
12.1509 128.628 -4.18085
-15.2014 99.0121 -10.3342
-7.98763 152.805 0.796916
-21.2193 94.0006 -8.50292
1.5365 108.366 13.0606
15.2268 144.945 8.23269
-8.12284 83.5131 -2.26964
-14.277 138.581 -4.41539
7.88237 126.647 2.55671
-23.1996 87.3654 -6.19991
4.87151 129.75 3.27166
-13.2545 128.857 -8.39799
-0.735095 109.451 -5.9486
-8.43093 151.742 1.5715
-10.3834 131.119 5.54799
-2.69087 128.778 7.37171
-14.4221 143.742 6.96879
-19.0423 117.912 4.80861
10.7001 144.783 -2.99892
-13.3065 136.155 -4.16848
-13.1806 113.271 -9.18636
2.70709 137.077 -0.802769
-16.8263 112.806 7.6299
-18.1087 126.607 -2.4603
2.40308 107.432 2.55616
-11.3027 108.736 -8.54505
-3.3703 153.267 -1.77117
-18.9834 131.517 6.45354
-5.24889 128.574 -2.59857
-11.5295 119.577 -6.99687
8.02075 132.592 -2.72933
-13.4438 133.662 6.30521
-13.4742 77.8417 2.41906
8.77079 119.429 10.8111
-13.8975 149.03 2.57913
-14.2792 131.999 -4.25679
11.3867 150.634 3.56724
-8.76044 144.896 -5.00513
-2.59513 100.155 -7.23968
15.7977 135.064 10.5531
-17.352 126.476 -5.33079
17.9456 142.002 8.05822
-13.7552 149.112 2.79369
-1.41067 106.702 8.42957
-13.2467 144.405 5.94465
-7.34048 113.321 -5.26189
10.0475 134.517 10.0211
-8.7672 127.79 7.80074
-10.6724 125.902 -6.39975
1.56434 102.974 14.0044
6.75014 155.088 0.279675
-17.836 91.0225 -9.12754
-19.0334 127.493 -2.20093
-10.0084 114.334 -6.94898
11.2295 142.226 -2.13159
5.2201 129.796 2.63397
-0.333279 102.152 -6.27689
8.21537 119.648 12.4005
15.7905 142.698 3.82435
-13.1439 137.32 5.52495
-18.6437 116.26 5.22535
-5.75945 85.6864 0.110562
-21.5189 82.1421 -6.29799
1.94518 103.378 8.23721
-0.52107 136.583 4.68805
-18.5146 99.6128 4.87847
3.58148 113.825 -2.26412
-19.8169 137.119 7.49872
-13.7364 88.3093 3.81058
-20.1949 111.49 -8.0451
8.69021 127.743 4.08438
-2.65204 93.7566 5.05095
-5.56575 134.976 -3.55155
7.52351 149.988 0.951163
-18.6782 120.888 -6.2039
11.9533 129.794 8.86983
-18.3043 126.998 7.54672
-19.1499 85.0366 0.894415
5.52824 136.464 3.17462
2.83758 112.202 9.88571
-7.13208 118.654 -4.01454
12.4981 148.992 2.9468
-20.3585 125.423 -3.07287
-13.9905 129.084 -6.14804
9.95474 123.411 5.17697
1.52004 129.218 -1.01195
-14.513 142.132 -0.468501
-14.7454 111.813 10.2228
-4.24044 135.456 3.08849
-7.08478 90.0194 9.28097
-6.27237 128.721 -3.37207
-20.5201 117.967 -6.23459
11.2916 124.974 8.58636
-20.4954 125.194 5.82797
-21.5454 129.09 5.55996
10.1655 148.231 3.03571
-9.62889 137.428 -5.8577
10.6082 124.054 -0.377542
-9.18577 81.6848 -4.45985
6.27131 143.529 -3.08931
5.1429 132.378 9.3048
3.77028 124.679 11.9554
-17.7493 111.668 6.00556
-6.92504 86.6286 -2.43132
-10.5285 148.042 3.36732
-11.9775 115.79 9.54818
-14.161 103.789 -9.97871
-3.06533 133.705 4.48206
-20.9028 97.0012 1.65882
-22.1194 93.7225 -2.04381
-26.9173 126.824 3.33139
12.6332 135.655 11.675
1.41249 148.669 -2.10366
16.0131 140.245 3.97504
-12.7095 79.4199 -6.47822
10.6193 130.871 -1.33966
-5.40931 104.433 -8.5136
8.91491 135.344 4.01953
9.81915 147.154 -3.50757
-20.0707 121.848 -2.41569
-19.094 127.158 -2.45016
1.41406 146.458 -1.75983
-11.2324 134.487 -6.23398
-5.79264 119.354 -3.20899
5.74509 113.564 3.28506
-19.3279 91.423 0.943522
10.5555 151.763 1.90494
-10.7488 134.128 4.7904
-1.30836 100.152 6.91
-15.5568 134.977 7.49145
-19.3815 128.102 7.79059
-4.33115 125.128 -2.09286
10.3048 132.005 9.52489
-25.7034 124.933 -2.35088
-16.3324 123.954 7.38102
-13.3224 144.404 6.02197
-9.29647 139.933 2.67277
-18.7343 95.9453 -9.15433
-21.5629 99.5587 0.452916
1.56436 144.113 -1.36643
1.51501 111.068 5.21187
-18.9198 131.848 -3.67688
-7.29917 133.983 3.44354
9.86069 150.027 1.8477
12.7005 130.762 -3.62511
4.46695 107.974 8.79024
-11.2 114.874 9.57289
-19.4811 123.637 -1.12657
-4.77316 117.974 9.85487
-19.28 107.108 4.63331
9.33895 123.953 4.14972
-26.502 127.114 0.190472
-0.135433 103.123 3.78698
0.480911 142.366 2.45641
-16.4267 132.464 -2.38468
-22.7521 91.2842 -7.27375
11.068 144.982 -2.38512
-13.7989 140.4 6.02699
-10.4134 85.658 -6.05246
-22.3277 113.414 -4.71451
-20.2622 131.315 6.39773
7.08208 128.003 2.41783
-7.13578 86.4579 -2.63304
-0.185472 117.665 9.69024
6.14716 134.888 8.63613
-8.40102 131.745 4.73113
-11.2075 129.922 7.31247
-13.9297 79.495 3.78032
-6.93183 84.0835 1.72111
-16.5673 80.0635 -9.51593
-17.8037 139.745 -1.31683
-8.88567 137.777 2.58158
11.2307 125.749 8.00652
-0.712839 98.6088 9.86153
11.3033 133.687 -0.0804271
-7.16062 129.963 -4.36087
-18.5684 104.574 5.23124
10.0138 125.821 6.05958
-5.1471 90.342 8.80662
6.49582 138.243 1.89767
-8.63798 138.447 2.21653
11.3001 127.942 3.26974
-3.92026 143.97 -3.02279
-26.4581 123.491 3.48293
-24.4557 124.936 6.86717
7.86289 140.806 6.83203
0.56093 100.143 5.95793
1.65479 113.203 4.74593
-7.5282 85.106 -2.10306
1.24292 106.83 11.8303
7.89312 128.572 2.12961
-16.8093 129.732 -3.23081
-9.42486 77.6063 3.43026
11.1237 137.395 0.789893
-18.7986 120.386 6.08023
-17.6404 85.4932 2.13741
-21.235 90.2358 -7.46044
-15.3955 80.375 3.69084
-13.1048 86.1132 -7.50761
-21.6737 121.465 0.223282
-12.8531 117.282 -8.37216
-21.5139 91.0532 -7.76082
-7.41617 134.236 3.26032
11.0462 127.71 1.81195
-15.8595 136.179 -1.93994
1.66382 148.104 -2.1669
3.6548 126.776 3.83877
-13.288 77.13 -0.299715
-18.4696 90.2669 -8.17329
4.81199 128.284 2.64682
-13.0189 132.341 6.72457
-24.2347 121.563 4.26826
-1.98697 92.9464 3.12083
-23.0162 85.2564 -7.34791
1.75526 117.392 4.88339
-12.5895 127.574 7.65511
-0.460534 103.749 7.73864
12.7715 127.511 9.70926
-16.5684 136.993 -2.01371
7.50139 126.242 4.04118
3.56833 143.434 3.34505
-8.63849 91.1434 8.54742
-3.54669 153.335 -1.8154
9.52983 151.75 0.248597
-17.849 132.291 -3.95443
-14.5347 95.243 -10.0973
-21.1289 120.548 1.89404
18.2903 142.518 7.58269
-16.2269 86.0051 -9.39306
13.0177 131.903 0.610246
10.4599 132.886 0.329274
8.83761 126.69 6.78138
-0.159839 127.687 8.7535
-14.4719 123.494 8.51025
-21.6974 103.193 -2.93036
-21.6829 135.782 -0.909656
-23.0563 83.0541 -3.95774
-25.9211 121.846 1.60566
-16.1463 125.943 -6.57361
-22.6234 138.441 2.25956
-12.7357 113.247 9.81578
-17.5117 83.9614 -8.95588
9.97743 148.108 -1.97722
-10.6281 127.755 -6.59438
7.85356 132.306 -2.66244
-7.44135 123.401 -4.03659
9.67943 143.385 7.89064
-19.0027 123.233 6.06337
8.89387 140.068 5.08112
9.61461 152.106 1.41143
15.6368 135.503 11.1464
-23.5777 90.7386 -4.38829
-4.88938 142.984 -4.45679
1.59501 109.182 14.6482
-5.96273 125.012 9.43832
-11.7607 84.4561 6.30061
-0.231496 119.099 -4.07919
-22.2698 100.71 -4.23566
4.44691 114.085 -2.51634
-10.7946 106.765 -9.05177
12.1007 126.723 9.30084
-21.0309 120.694 1.60014
-16.4356 146.063 2.54849
-9.1646 87.6834 -4.91531
-2.46797 99.3855 8.26445
10.1491 152.061 0.589693
-9.40867 112.197 -6.82289
9.99906 146.973 4.14902
5.5166 130.273 -2.10095
-8.62373 102.004 -9.1444
-8.83446 152.752 0.164385
7.64497 131.61 9.41182
-20.4517 118.072 3.74071
-24.2964 128.748 -0.455734
-5.22552 126.728 7.95498
-23.5861 86.0712 -5.93316
-0.915102 133.492 -0.929045
5.00294 114.663 2.61817
10.3081 148.322 4.75996
-15.3362 83.8257 -7.1222
-13.6465 112.506 10.0381
-4.43314 95.0124 9.27955
-15.6424 117.378 10.0626
16.0925 137.094 10.7565
2.84688 110.915 14.8884
-19.2517 127.836 -2.5534
-18.3407 119.63 -8.09518
-1.56009 132.118 -1.60141
-12.5213 86.1444 5.51217
-12.7181 148.353 -1.51166
4.763 122.708 -0.784841
2.58052 106.472 15.031
-22.53 97.3031 -3.42295
-15.3163 129.167 -5.93193
4.66435 133.121 8.1169
-16.5096 123.978 7.26303
8.65472 141.911 -3.89801
2.19535 136.765 4.87459
16.1509 144.908 4.51257
-3.15794 131.911 5.71626
-18.9063 125.929 6.92817
5.09284 134.944 3.1722
-13.816 93.7302 -9.93327
-14.7015 107.269 10.0913
2.65182 126.803 6.33958
-18.2093 76.7126 -1.50098
-18.8156 135.525 -2.77778
-9.20048 111.552 -6.68288
-21.0395 105.819 -6.62709
-2.65605 130.811 6.97393
-18.7946 89.2556 0.373298
-13.3328 144.89 -2.57215
8.64706 124.436 5.75832
-20.2731 79.9984 -0.720011
-10.8726 143.404 -4.63744
6.61922 141.378 1.57295
3.6687 128.748 9.85938
-7.76203 139.931 3.11908
-7.72364 82.3945 -3.32553
-19.5825 77.6122 -1.85128
9.66274 121.026 10.0804
-25.7592 131.25 2.03574
5.95925 124.028 13.0039
-11.6547 104.906 10.7677
8.82894 143.987 6.64247
-6.96558 91.8725 -4.2105
3.83727 119.191 7.9995
-7.58908 145.828 1.92004
-10.2458 146.979 3.16258
-21.6144 122.064 2.79198
5.18393 114.063 2.78638
-8.03954 131.705 -5.73545
0.284879 135.939 5.31041
-10.6385 114.318 9.74197
-15.5 111.164 10.2987
-19.2882 80.5018 -9.14183
-21.765 123.072 3.94453
6.07566 118.823 3.07047
-1.2723 115.26 -5.3022
3.90151 141.963 3.78801
-7.52211 88.2443 9.05888
3.79112 117.624 -2.18214
-6.84124 126.565 -3.44744
-20.4932 126.25 7.6845
11.5913 137.859 -4.12928
-12.0257 87.2223 -7.9241
-22.5349 94.4675 -7.39008
-1.62313 129.077 7.74899
1.8332 118.531 4.22918
-16.2302 77.395 1.4272
-20.6538 94.0048 1.05617
6.03027 119.034 -1.63378
-21.1329 78.9542 -1.85714
-14.5787 86.0968 3.88733
-4.14322 98.5096 9.7197
-19.8821 125.848 6.20925
4.81953 140.92 4.6279
-14.4031 142.438 -2.55866
10.7929 129.517 4.26657
0.860737 103.899 5.27887
-8.016 117.392 10.1402
-13.4154 125.299 -6.68201
-7.71076 83.9617 -2.46511
13.5601 142.014 2.73272
-12.0208 76.8223 3.78195
-8.65583 78.861 4.21928
-22.0222 127.24 -2.58538
8.43635 129.705 10.2077
-7.34415 130.24 5.39419
-20.3956 126.872 6.94357
2.25258 136.106 -0.415985
-12.0731 78.7804 5.27801
-5.41256 85.205 3.67727
-6.20511 120.277 9.97802
-21.444 135.562 -1.57908
-18.7074 84.7472 -9.61731
8.14817 125.522 2.57905
-11.7148 141.019 -4.18266
5.60511 152.226 -2.56181
-7.93489 90.4706 -4.86439
16.2098 139.526 10.6824
5.27616 111.129 15.135
-4.33979 88.698 7.10211
-9.95093 78.3073 -6.48194
16.1196 143.521 8.37386
-4.19954 98.6396 9.77163
13.4399 133.245 -1.2007
-16.9644 113.353 7.48566
-14.7444 141.463 6.65312
-2.7377 95.9822 5.3342
-12.0636 113.424 -8.23218
1.90709 119.458 4.24672
-18.7418 124.287 -2.51887
-1.61505 116.177 10.1367
-18.3047 109.845 3.27429
7.4625 128.694 -3.35473
-13.6646 110.086 -9.59657
3.57293 108.716 -4.17903
4.8683 151.509 -2.44194
-26.9023 124.402 1.81113
-4.04967 99.9213 -8.01496
5.50565 131.062 9.52211
-5.77889 151.347 -2.97678
-13.1881 111.688 -9.20128
6.52256 122.149 5.44616
-19.9868 115.68 2.73309
-13.905 140.678 -2.59749
11.1466 131.34 -3.31302
-9.45336 138.998 2.41089
-0.939719 135.584 5.44097
-9.4066 81.4033 -5.0113
-17.0035 109.238 -9.72332
1.58108 102.334 14.4043
1.22684 103.682 3.73938
10.2464 124.725 -0.733464
-20.8788 104.311 1.07498
4.57042 122.344 7.70694
5.47187 141.494 2.54
-16.3593 111.927 8.9491
-11.0576 102.759 10.7978
12.7891 128.293 9.29931
-8.78889 82.2991 -3.30381
-21.5612 90.1292 -7.45438
-1.62359 103.98 -7.37686
3.99356 132.468 6.16778
-9.98467 138.935 -5.58149
3.70323 114.346 8.13333
-12.2776 88.3643 4.87405
11.5831 126.273 1.73267
13.0375 145.426 3.64634
5.20651 147.07 -2.75298
16.7687 145.774 6.53771
-19.439 78.0215 -7.53069
1.19781 104.158 13.7147
-21.0278 97.1164 1.43361
-16.1231 128.386 5.86455
-12.2334 127.899 -7.84729
-1.49742 108.429 -6.6682
8.59643 144.344 -3.95072
-20.0921 98.5595 -8.85118
2.68287 114.326 -2.15526
-17.5802 80.2741 -9.21197
-21.02 91.8575 -8.35433
5.75771 120.682 14.2617
16.0289 135.534 10.0453
-2.99261 91.4907 5.88952
-12.9688 96.5909 -10.0047
-14.6502 125.794 5.93125
0.167291 139.262 -0.634173
6.18002 129.193 9.93898
-6.06426 124.641 9.60814
-21.6669 83.0679 -8.62859
12.6326 136.386 -3.00145
-2.50457 94.6113 2.79081
-14.7845 91.852 4.27011
6.99725 147.031 -2.9039
10.5661 142.447 0.677837
5.53315 143.7 2.68686
10.5652 126.385 -4.449
-1.6378 142.727 -1.13872
-15.882 134.936 -2.86852
4.46566 151.849 -2.41422
8.86355 138.232 -4.19471
8.84706 148.549 -3.4217
1.27176 110.888 13.3843
11.5094 143.787 -1.13575
-3.20894 96.74 7.59986
-0.962468 97.2291 10.7918
-7.15398 136.796 -6.2491
-19.4452 139.506 7.03451
-15.3742 80.0249 -7.39845
-13.5202 92.3474 -10.0357
-9.80376 87.571 -5.56215
-24.3927 128.869 -0.104726
-15.9414 114.321 9.69595
-19.3264 102.684 -8.50029
-11.18 108.252 -8.64553
-9.83572 78.6728 2.27564
12.4313 138.648 -0.631203
-0.140443 103.323 6.51526
-13.8079 140.875 -2.32849
-18.5067 109.058 5.62473
7.77994 133.383 2.74026
-10.6685 86.9027 -6.97786
-15.9685 106.799 9.02674
-13.6417 143.203 -2.74329
-10.3612 85.3207 7.27322
-9.78309 142.7 2.47718
15.4605 135.492 11.6818
9.95691 147.8 2.02123
-21.1718 131.169 -4.8638
-23.1108 129.005 -2.17742
-17.9751 119.868 7.49388
-16.8927 132.071 -1.46071
8.40215 116.528 14.6579
-24.6222 132.652 1.47017
-22.137 111.542 -3.86037
4.23022 132.167 7.70768
-3.16178 127.366 -1.81722
-14.903 79.9336 3.48971
-15.2627 81.9959 3.7188
-9.31512 141.729 -4.60392
-22.736 136.108 6.21462
-10.4954 135.916 -6.35784
-4.71915 87.6333 -0.518392
-5.85867 93.8772 8.16129
-18.6969 98.3141 -9.30232
-11.3156 133.59 4.41841
10.2168 127.819 -4.3309
6.68892 133.153 5.19871
-26.3551 129.339 4.49784
16.5801 142.499 8.57537
-21.789 93.8495 -8.00823
2.76624 110.144 2.62077
-22.101 125.271 7.69264
-5.40954 105.201 -8.20401
8.40585 118.515 13.7775
2.3452 114.063 -2.4992
12.7712 138.658 10.4182
0.380676 136.546 4.71931
7.34711 152.579 -2.17627
6.74173 142.258 -3.32762
-17.6453 86.1594 -9.39506
-10.1977 96.9101 -8.95197
4.12718 129.48 5.92324
-1.43535 109.934 9.33393
-20.2715 82.0517 -9.1103
2.66977 114.384 2.81555
-22.7965 133.375 -1.10876
-10.6705 140.045 2.87012
0.798734 113.067 8.19295
-1.7422 140.246 2.1353
-5.51022 94.1629 9.63831
-9.71145 151.152 2.16979
4.41853 109.584 -2.55658
-11.2705 135.534 4.29292
-1.53767 100.138 -6.37103
-5.74355 96.86 -6.28659
8.61361 143.037 1.62841
-9.27258 128.808 -5.68052
-15.2081 128.178 -6.34361
-19.9177 108.056 -0.248134
4.39894 113.707 14.8647
-21.5957 96.4703 -0.859628
-10.4955 145.517 -4.61504
-20.3952 106.931 0.201078
7.90477 140.663 6.72199
-14.9753 134.112 -3.2203
-14.868 133.974 7.7519
3.70484 123.808 3.03506
-18.7077 87.7635 0.223694
9.17829 139.459 4.30614
-22.4475 83.0868 -7.72778
-7.48833 110.973 -5.92463
-1.95968 133.58 -1.41604
-19.8676 113.183 -8.09376
-16.9689 137.402 -2.43989
8.7065 125.443 7.15942
-15.0572 88.8894 2.8087
-1.8823 119.694 8.71816
-19.8771 126.578 -3.20168
-7.06814 111.104 9.51407
-24.2457 131.041 4.463
15.0104 141.636 2.7357
12.3236 136.593 -2.10163
-9.43058 104.399 -9.20129
-17.978 126.758 -2.07021
3.29263 125.238 -0.691083
8.06378 135.16 2.55597
-16.2979 132.235 -2.6545
-14.2701 143.16 6.6334
-5.58007 112.582 9.52168
-7.82066 133.103 4.08004
-1.86982 134.899 5.03177
-17.7741 110.874 6.42774
12.135 141.179 -1.31012
1.51795 144.255 -1.38651
4.49302 143.998 3.88289
-19.74 133.635 -3.91513
9.25096 125.041 7.27019
-6.6859 139.424 -5.8102
-7.06281 129.524 6.26524
-20.6422 133.154 4.98665
-16.8449 101.973 -10.3657
-3.5802 90.7319 7.40738
-2.14006 148.572 -1.46186
16.3674 142.462 3.91998
-16.4776 108.485 8.77522
4.10498 123.558 -0.791438
-22.2402 125.168 5.94328
10.9903 131.114 -0.827099
15.0518 137.328 2.33268
-10.0567 126.692 -6.06091
2.51283 114.232 9.51723
-22.3465 100.233 -7.09824
-18.4866 138.152 -1.40549
-0.300568 106.604 8.06407
2.16069 103.334 8.12698
-19.9222 128.664 -3.32576
-10.0496 129.878 -7.18069
-16.8514 125.274 5.22992
-21.2117 137.642 6.83645
-25.2592 128.721 0.927105
3.35269 124.589 -0.772608
-13.6325 81.3544 -5.08286
-21.9909 126.173 -2.393
-23.5225 125.472 -2.52189
7.14052 138.74 1.46176
-16.3352 133.025 7.34844
-17.2429 80.1616 -7.74806
8.33725 145.117 -3.84437
-11.7674 87.501 -8.11084
-2.86804 92.4262 2.93597
6.56823 133.1 9.38811
-0.384533 143.576 -0.978509
10.6954 148.416 5.22742
-20.7677 116.301 -4.56456
-21.3804 131.554 -4.59453
1.06213 135.225 6.00018
11.192 131.551 -0.305121
-7.21543 87.0634 8.45512
-21.7226 103.713 -0.715103
-22.2374 100.599 -5.83098
4.12927 118.432 2.24068
-11.7044 90.0239 5.43382
-5.87112 101.955 8.77317
-14.1781 122.366 -7.90842
-0.356377 135.913 5.2307
-12.301 113.295 -8.45168
8.01593 117.646 14.3558
11.7347 134.558 11.6812
0.36334 134.86 6.33052
2.09445 127.509 -1.37759
-20.2413 120.472 -1.74572
-15.7145 121.308 -7.655
-14.3121 145.313 6.21874
-22.2558 89.1412 -7.0366
-7.33721 131.504 -4.62058
5.48256 142.647 -3.35347
3.19101 120.929 -1.42406
-3.60923 128.108 6.91096
-9.36565 138.904 2.39084
6.30102 135.566 -3.64869
-1.1042 137.676 4.42585
-8.06605 96.2685 -8.42131
-10.1055 132.499 4.78743
-13.0126 117.019 10.0301
-8.47428 78.8914 -6.76282
1.79965 109.551 11.7521
7.33213 145.782 1.33343
-17.6154 80.1144 -7.97534
-10.9098 135.277 4.25533
-11.1791 127.029 -6.99894
12.7207 135.115 0.678143
-13.3134 132.727 6.61773
6.16603 139.411 2.17986
15.6994 141.848 9.65821
0.10721 100.005 2.70228
-8.87704 115.716 9.52999
-23.6435 90.7536 -5.57294
5.55798 123.343 6.9594
5.78501 129.676 6.50746
-3.91515 118.251 9.50511
-17.7434 124.132 -6.45504
0.0329046 141.931 -0.879707
5.99992 115.418 4.76148
5.4351 136.738 -3.38181
-11.9626 86.4299 -7.29469
-19.237 106.795 -8.16962
10.8323 124.826 8.2366
-11.4049 107.807 10.603
-9.2637 110.295 9.47787
10.4712 125.288 -0.571
-0.444387 101.554 10.7428
1.51135 153.977 -1.82318
-24.5597 131.996 4.26194
8.35568 124.909 4.14078
0.592384 99.1763 11.8994
-20.9104 115.958 -3.32525
1.86148 112.121 10.9287
11.2895 127.612 2.81175
-5.79625 93.7816 10.1657
3.01564 114.371 2.73366
12.0438 132.945 0.86294
5.51204 154.993 -1.29091
-5.13065 135.178 3.13012
-21.448 82.3261 -8.06857
9.33914 148.987 1.46164
-19.122 134.882 6.88843
-22.7338 126.025 7.5269
-0.127735 119.781 9.32935
-8.63264 138.923 -5.87105
-15.5292 147.883 2.68658
-20.1174 123.378 4.84726
-22.4164 122.013 2.19522
2.52379 145.569 3.55063
8.24403 133.464 -3.03044
-21.8169 114.459 -4.26874
7.81078 137.961 1.99078
-18.5553 117.273 -8.69517
9.11033 145.315 -3.74104
-0.502995 102.826 4.28543
2.19834 118.408 11.5941
-13.0442 131.203 6.95466
4.70058 144.436 3.93812
-7.99014 81.4442 3.51073
-7.06583 152.481 -1.72825
6.932 121.804 4.13643
-13.0797 86.5265 -7.74045
10.0821 147.461 2.29238
-17.2746 93.0461 3.02262
-21.6006 84.3798 -1.39298
-4.86294 95.0343 -4.39822
-11.4219 106.642 10.7494
12.1659 129.169 10.2864
-18.1777 86.0452 1.70226
4.37467 148.694 -2.62051
-8.60258 124.043 -4.7965
4.62105 130.795 5.47973
-11.9766 91.9298 -9.23018
-11.3001 138.258 4.54546
4.80559 129.413 3.12787
-17.6278 92.6622 2.33136
11.4643 131.727 0.0156739
-21.8821 110.303 -1.82064
-12.858 107.929 -9.64564
5.81888 121.811 2.80216
-2.48058 92.8553 2.44988
-21.3036 123.023 1.38915
8.7856 151.82 0.654396
4.83474 117.884 -1.99244
-21.1985 121.455 2.32494
-1.53888 122.947 -2.31684
-0.943323 150.339 -1.6882
11.1151 127.296 1.82239
17.3645 141.731 8.53271
9.3761 138.415 9.46512
-12.9876 125.436 -6.736
-8.54214 134.914 3.63817
0.48977 123.783 -2.51853
-20.3116 115.56 -7.56289
-17.7524 128.669 -3.32389
9.39527 129.43 -3.6842
-4.21379 113.018 -5.11943
10.1954 139.506 -4.23379
2.79583 128.842 -0.543054
-16.4567 132.886 -2.04899
-0.958271 102.428 9.7364
-13.0678 134.463 6.36999
2.71873 106.633 15.0258
-13.4894 90.1121 -9.91891
-16.0155 84.2145 -8.72042
-25.8618 128.38 0.696701
-18.0347 81.0826 -8.18004
-18.4493 108.938 4.37388
6.71788 141.698 -3.45304
-7.14346 88.0436 -3.37176
-21.431 120.975 -0.644071
11.5314 147.513 0.202599
15.7486 138.107 3.32851
5.63255 129.368 2.58553
-20.5878 122.299 6.4096
11.2874 144.074 -1.76916
-6.59537 104.328 8.85131
-17.4779 133.168 6.82317
11.9834 127.726 10.4608
-14.1645 113.366 -9.41205
-15.3678 106.579 -9.53812
7.77946 137.767 5.56637
2.41263 107.119 2.50197
2.39953 149.89 -2.63195
-13.992 129.533 6.07811
-22.074 132.227 -2.95409
-19.9544 138.181 -0.315458
12.0161 151.272 1.76235
3.58578 128.023 9.82034
-9.11886 92.5664 9.72233
-23.7519 121.703 4.62947
-3.32947 89.3242 5.66345
-7.80143 117.273 10.1191
0.583172 106.09 -6.55815
-3.33871 90.7719 4.18353
-1.3172 101.237 8.74676
5.96596 136.448 6.87876
2.74597 113.159 -2.58351
-21.1565 111.087 -0.31999
-15.23 111.545 -9.82562
0.927853 115.074 8.42749
-16.5879 83.4366 -8.34054
-12.9387 113.46 9.78388
-19.0971 76.5433 -1.78973
8.88961 125.516 1.13384
-0.422461 132.158 -1.06873
-22.3548 129.564 -4.94287
-17.3046 114.559 -9.15288
4.48719 109.204 8.46839
-23.994 125.228 -0.992147
5.66089 142.869 2.57523
-25.4344 125.987 -1.85854
-8.8573 103.638 9.3232
-5.40383 90.0214 8.83077
-7.2409 92.9265 -5.9726
-26.5107 125.398 -0.949062
2.15034 116.854 3.32655
-10.9414 132.546 5.65232
8.91811 133.205 2.83532
8.92418 129.062 0.456646
10.4175 149.677 -1.03772
-15.168 104.953 9.51148
8.6479 143.494 1.60003
-19.8048 124.419 5.13511
7.49869 123.29 -1.86893
8.71629 127.214 -4.07152
1.05394 108.588 14.3387
-17.192 109.789 7.96557
-19.7094 112.925 -8.24789
-2.56265 138.463 -1.34848
-8.16738 134.967 -6.66289
6.79998 117.29 -3.10427
-6.54775 144.25 -4.87095
11.4825 140.758 2.02782
-10.5189 141.757 3.29156
-1.76932 140.512 2.34998
-24.4268 121.68 0.053045
-21.6554 121.662 2.84161
-13.325 110.431 -9.31139
6.84673 139.024 7.26848
-21.5698 128.094 7.02085
6.52644 126.83 -1.57309
-22.0629 111.612 -1.75579
8.21417 128.717 6.00428
6.01431 144.085 1.87832
-9.11637 132.925 -7.17805
-11.1638 97.8716 11.0287
4.82694 131.682 5.41739
-3.7697 92.1307 -4.09483
-9.76968 150.941 2.23489
-8.13424 108.386 9.42483
-22.3615 127.633 -3.86861
-3.13503 126.237 6.89042
-16.1864 88.1116 -8.6977
-25.6933 133.517 4.19932
9.52845 126.357 -0.633064
-19.2254 122.084 -2.05436
-13.833 125.173 -6.97683
7.54047 128.442 3.26619
0.260594 103.558 9.35967
-25.0414 128.99 1.68825
-8.5193 80.4578 5.70076
7.89073 129.952 2.58366
-2.97345 97.607 6.87415
-12.6314 79.0654 -7.32747
-2.36056 135.225 4.49634
10.8005 149.88 2.66619
-5.95996 126.863 -2.92291
-23.7787 125.893 -2.26375
0.753963 121.282 8.62821
-23.2953 87.8311 -3.34558
-19.0843 125.197 -2.90082
-14.4125 133.678 7.26018
-10.3214 124.08 -5.34757
-12.9441 134.98 6.4842
-4.3387 105.166 -8.1741
-3.9892 123.429 -2.25054
-10.102 121.861 -5.12645
-0.0753032 147.865 -1.57321
-9.92592 135.116 3.95604
-15.8565 109.242 -9.74873
-7.5169 81.992 6.79043
4.2546 113.663 2.35014
-22.0115 107.135 -5.71276
10.532 125.809 -0.510607
-5.85261 138.948 -4.8979
12.8582 135.904 -1.60064
-19.4733 80.9919 -7.89097
-5.67302 91.0298 -3.59029
-2.09799 97.0352 3.42596
3.94173 134.648 -1.30946
11.9236 139.501 -0.124838
-11.0608 96.5478 9.98722
10.8298 124.447 -0.356979
8.90356 153.373 1.03666
12.4298 134.234 -3.27562
-21.9168 125.756 5.78213
-19.481 125.978 -2.88468
-0.561339 117.06 9.82799
10.5483 123.208 3.76251
-14.1813 121.942 -7.83964
-3.37627 139.954 -2.27737
-21.6317 110.77 -1.2051
-14.2078 111.873 10.1109
-10.6536 78.4094 -7.17349
-8.30493 138.001 2.31394
-20.1385 86.1885 -0.211305
-16.2807 90.5433 3.02152
-19.5831 124.789 -2.76455
-11.9721 134.794 5.97508
-19.9391 80.9081 -7.94431
2.89341 113.023 -2.51505
-15.1608 133.962 -3.1369
-12.6214 84.2165 5.71547
-19.6555 88.8249 -7.66727
-6.48126 128.308 -3.55401
-22.2845 124.139 7.82488
-21.9566 114.402 -5.17847
-21.8677 92.0237 -7.93177
-16.4206 82.0625 -6.61225
-21.206 99.4321 -8.30089
-2.64033 134.495 4.24017
-19.9809 116.288 -7.86528
12.7676 140.799 2.41292
5.72456 116.4 2.99624
-3.96681 88.7866 -1.50022
-3.43084 111.786 -6.06423
9.37454 144.889 6.51827
-9.71256 138.939 2.56934
3.7762 140.952 3.78823
-10.5041 100.551 10.6035
3.83437 140.781 -2.43159
-7.00259 113.716 9.47392
-3.49537 94.5768 5.51849
-15.929 97.0985 6.13842
-22.2108 111.607 -4.75871
-2.3123 141.513 -1.5063
-18.881 106.348 -9.15125
-19.3716 122.155 4.96494
0.0400775 135.861 5.34393
-19.8493 121.993 -4.78228
-17.3397 125.093 -6.72229
0.663086 119.078 9.02306
-17.4752 124.683 5.40255
-20.4706 107.168 -1.13485
-15.2681 98.9241 -10.2978
12.0059 144.256 8.39908
-9.97499 85.2559 -5.22218
14.0991 147.475 6.33146
9.6701 131.185 -3.03845
-21.7643 120.414 1.11656
-17.7686 107.872 -9.69327
-14.9663 82.1445 -6.28391
-5.9378 100.816 -8.75124
7.30625 120.403 13.4157
5.70839 134.655 -2.98634
-6.26412 141.401 -4.82633
-3.12654 133.508 -1.8092
2.37905 127.043 7.35841
4.19596 128.799 4.95488
9.34386 123.615 -3.94831
5.4909 137.075 -3.49582
-20.898 111.138 0.0675108
11.0044 128.296 1.66782
11.8835 142.444 2.98823
0.0851293 151.909 -2.15272
-17.2669 132.981 7.0227
-21.8587 126.864 -2.7184
-23.394 133.711 0.423772
-15.5665 124.483 6.97298
-18.5428 124.713 -3.23287
-1.22725 138.654 4.31473
-17.8083 105.367 -9.32718
-12.822 78.3328 3.84169
-10.1352 89.5457 -7.06733
-18.4704 100.416 -9.26747
-7.17696 145.784 2.02913
-2.35404 97.1613 8.28646
-10.4587 82.8353 6.54986
-1.19389 98.1205 6.1427
6.43884 130.756 2.50292
-13.2477 146.424 -2.01552
-11.8592 88.5193 5.16447
4.46784 129.31 9.84722
-21.3367 128.098 5.34562
4.1323 144.752 3.66711
2.7843 123.955 10.4947
10.9009 134.565 0.533583
12.0297 130.442 -1.10319
3.31825 124.244 12.1409
-15.0705 89.1664 2.89207
-7.13634 120.121 9.84338
0.996197 144.642 -1.32647
4.53114 134.682 4.1616
9.7634 152.134 1.52381
-27.0026 125.56 0.718517
0.0867962 97.1497 11.8995
10.0245 129.761 -1.36952
-16.8591 129.622 -3.23886
8.27031 123.246 11.8992
1.75477 106.462 2.71966
1.49084 116.465 -2.5547
7.6018 133.425 4.47629
-16.2944 112.48 -9.70023
7.6485 120.387 11.6834
-1.85263 132.059 6.27086
-12.6339 122.22 -6.85429
-10.8235 133.49 4.19889
12.5065 130.501 1.55853
-14.7214 79.6661 -6.34212
1.06409 116.808 8.32152
-22.3785 114.097 -3.56701
-21.2189 120.14 -0.469733
-15.1836 126.303 -6.97812
-26.0508 127.511 1.26993
9.26806 154.703 1.09331
-22.649 97.9528 -6.58162
-9.78348 79.5517 0.877636
5.89039 135.346 3.00017
-9.98623 104.928 9.72612
-18.051 141.676 7.12287
-23.13 92.3363 -6.90484
-17.1544 124.498 6.25502
-4.21245 124.168 8.59532
-7.41172 88.611 9.00108
-22.8625 97.8753 -5.5334
7.80549 129.264 4.47647
4.46508 111.614 -2.19176
4.70986 119.284 7.13587
-10.7965 90.7476 -8.69109
-10.6036 98.5701 10.747
-22.9578 88.084 -6.384
-6.51321 91.7222 10.5466
10.7574 142.461 -3.40803
10.9968 126.002 -4.41586
-8.9717 114.517 -6.11473
2.33588 123.113 4.90902
-18.0914 128.673 -3.11988
6.24492 120.245 6.06443
-9.62698 101.411 -8.84857
-9.51489 80.701 5.74231
-20.1794 124.631 6.41445
-2.33208 98.8881 8.32675
-10.0345 149.082 2.79502
11.6 138.17 -2.92845
-12.086 147.593 -2.84622
-19.0622 124.513 5.18168
5.49857 136.937 3.19438
2.38827 145.492 -2.04589
10.849 138.528 0.886339
-15.8218 106.612 9.17139
3.69061 109.939 9.42703
-6.21063 136.574 -4.72179
5.00079 133.861 7.06287
-20.1464 111.664 -8.06038
-10.5753 132.9 4.97559
-11.4101 148.157 3.78604
-18.2435 113.761 2.95563
-14.0146 127.285 -7.17189
-20.819 94.2906 0.91659
-19.0394 119.305 -6.6724
7.42032 128.137 2.46321
11.3309 134.711 0.0132814
1.37122 111.506 13.5973
-14.8849 79.3628 2.49467
-6.77637 129.514 -3.92624
-24.5413 122.663 4.20322
-2.49516 95.4259 3.5214
-7.01078 132.391 -4.27871
-14.0556 148.732 3.53543
-21.2273 110.56 -6.78345
-19.8937 140.174 6.49006
-5.27726 107.864 -6.69781
-7.33879 121.413 9.60585
-20.6476 83.9984 -9.09762
-10.0113 109.84 9.91283
-15.115 107.501 -9.48078
-25.3333 131.947 1.96171
1.96894 116.156 10.9131
-17.3282 123.088 -5.72437
-7.18101 118.581 10.2192
-2.28907 120.364 -3.52686
5.03967 150.979 -2.43385
-15.0814 123.311 8.65772
9.10822 120.273 10.3743
-12.9515 99.6793 -10.299
-6.45322 135.339 -5.08208
-11.4521 87.465 5.76774
-6.79524 132.65 4.89395
-2.85272 137.335 -1.50145
11.9589 147.994 2.13424
8.55846 121.62 11.5139
2.55475 143.973 3.14439
-14.8308 123.54 8.394
6.99902 139.368 7.14441
-7.34232 123.545 -3.9774
-22.2343 112.416 -4.37505
-21.8911 109.602 -2.20862
-24.4638 123.509 3.97823
-21.8386 137.52 1.43455
14.0623 130.498 12.4398
-19.797 124.949 4.15165
-0.676447 154.124 -2.09467
2.05072 120.955 5.63869
2.10656 139.447 -0.964153
-17.8487 138.902 7.44763
0.087442 111.466 -5.49927
9.81465 151.074 2.08743
6.57951 130.287 -2.85468
-19.2394 124.822 -1.95401
-8.35289 78.6136 4.58453
9.94946 130.228 3.24568
-2.7555 127.039 -1.75128
10.9281 134.48 0.332849
-18.4411 135.854 -2.58627
0.0592101 103.142 3.53725
-15.589 146.658 2.40647
-23.2195 129.545 -1.95847
-19.6582 121.029 -4.78569
-11.207 146.712 -3.88502
-13.5657 123.722 9.20156
-23.0849 86.3716 -6.05696
3.6684 119.83 8.1874
-5.5148 129.486 -2.75945
-18.4523 100.596 5.21357
-21.3437 109.834 -6.75162
-8.80678 132.755 4.01701
-15.6641 99.3728 -10.1442
-17.5228 112.869 -9.31454
-6.12382 89.4074 -3.30454
-24.6514 121.493 4.42701
-15.1565 148.066 2.07866
-16.9964 106.822 7.43109
-21.6232 120.673 2.50202
-9.62002 103.832 9.56179
-18.1135 101.23 5.81975
-0.817514 97.8399 5.98356
4.30249 139.89 -2.86678
-6.20719 87.9936 -2.68012
-17.322 141.213 -0.74213
3.31551 126.619 10.4721
7.78745 119.478 -2.69407
-19.2228 127.91 -2.52178
-5.48299 131.336 5.09736
-4.6157 114.619 10.1115
-13.2319 130.453 6.4761
-6.10651 83.3771 7.04874
11.2457 134.61 -3.0984
-19.78 95.6109 -9.02162
-15.5581 131.66 6.84124
7.27759 136.209 -3.77274
-11.7252 85.1163 6.32613
-17.431 86.26 -9.35413
11.7255 142.933 -0.809314
-1.01148 113.903 9.72153
-3.2217 110.501 -6.53052
6.02886 139.744 -3.80672
-16.7937 113.282 7.87684
-21.446 123.613 4.46318
-10.9061 137.562 3.96438
4.71093 136.202 -2.58482
-6.86913 85.1732 7.7812
-19.9962 89.6769 -0.476935
7.88287 136.861 8.90833
-13.2364 83.1222 -5.87391
-12.2619 134.005 -5.24523
-13.4776 117.599 10.4145
-9.01714 110.079 -7.16007
-18.4749 124.946 4.77353
-15.6828 107.451 9.3604
-6.23506 84.7347 2.2005
-26.0394 129.893 2.76511
-1.12541 101.832 9.6232
11.2934 140.803 9.35043
-9.32264 86.9594 7.27083
-18.2509 129.145 -4.38396
-11.16 83.1083 6.59146
-16.5793 118.426 9.22849
0.687064 102.889 11.8834
0.0281668 136.507 -0.427105
1.16057 116.671 8.07569
-15.7668 80.679 -8.88859
-13.7097 79.501 4.2306
-20.4471 94.1924 1.3436
-12.1814 112.673 9.97537
16.7843 140.436 4.62758
-2.99992 103.427 8.08348
-13.1534 85.728 5.20032
4.4269 130.806 7.36849
-18.2726 135.001 7.49637
-19.1286 79.9691 0.373187
-22.9764 85.7904 -3.59888
2.48433 134.12 -0.433448
6.08444 130.753 9.59451
-11.7062 108.075 -8.95534
-5.72861 85.4215 7.47754
10.8137 150.549 2.83201
-0.590765 100.223 10.992
13.1399 135.66 0.0643673
-19.097 111.182 -8.884
-20.5388 117.732 -5.80849
-10.9377 145.348 3.61362
2.29257 141.656 -1.37393
-14.445 110.072 10.5922
-9.35608 117.686 -6.19705
-7.38317 135.513 -6.2605
-22.2199 99.5622 -1.24523
-14.7671 99.8019 8.73184
7.21777 154.011 -1.19526
-6.6301 110.427 9.60371
-12.7655 77.0672 0.558802
-20.6838 117.777 2.5189
-7.51989 133.416 -5.63601
-21.6928 95.257 -0.445076
11.995 147.606 2.14564
6.93773 134.542 9.33975
6.32499 148.769 -2.65571
4.41547 142.283 -3.18311
4.58231 149.947 -2.3973
-13.9524 77.153 -0.602372
-16.4307 136.833 -1.86121
-25.0165 130.99 4.72933
9.91051 148.258 1.82625
-2.76526 96.894 5.66442
-8.57415 81.9476 6.38648
-11.309 104.154 10.8561
-8.46925 144.237 -5.00502
-19.4195 93.2599 1.55827
-16.5248 121.473 -7.73792
4.37604 110.247 8.45679
10.7183 127.42 -0.0593903
-23.0862 83.7374 -3.24813
12.0625 127.729 8.81451
-14.4914 122.185 10.2354
-21.7224 122.177 2.37693
-20.6886 121.156 -0.473997
6.84965 132.579 -2.81467
16.933 140.023 9.90497
-8.48721 148.732 2.28958
-26.4174 128.068 4.59381
-19.2317 78.5044 -5.34689
-5.58148 144.14 3.05168
-6.50693 87.357 -2.52709
-21.466 103.645 -2.7265
-20.7785 139.398 0.703571
-20.0997 122.851 -2.43372
-21.0099 106.165 -3.00876
7.30635 129.714 -2.96936
-1.42294 123.848 -2.17785
-22.1537 80.3731 -4.73729
-19.1424 118.208 5.02375
1.47191 110.127 5.26968
13.1901 150.264 2.97966
-21.9222 121.778 2.88058
-21.1963 110.968 -6.81358
3.39107 152.067 -2.39798
-1.04626 97.2398 10.967
-19.0762 94.9443 2.50845
1.67455 111.677 -5.24995
-14.8268 140.269 7.22419
-5.86541 120.145 -3.07441
-14.6136 82.6828 -6.52643
12.856 150.945 2.12424
-16.4095 123.335 8.19653
-11.4157 109.393 10.6278
-8.94912 144.389 2.15159
-23.273 136.873 5.37427
-8.52925 140.058 -5.35667
10.6618 131.192 -1.01693
-5.99615 151.148 -3.15674
4.65716 134.71 3.77076
-0.881508 147.327 -1.38219
9.00059 140.001 -4.23834
-6.17465 132.599 -3.51114
-14.4774 90.3421 -9.81533
9.9215 148.138 -3.64837
7.60039 127.197 3.46969
7.52898 121.27 -1.70622
-12.5165 83.4454 5.77057
-19.674 106.318 3.82018
-17.3509 91.5411 -9.44846
18.0985 143.484 7.12562
10.7641 133.03 -0.324198
-21.3821 91.0296 -7.74083
-21.7817 94.9051 -8.05267
-19.7537 108.136 0.837465
5.55069 146.095 2.75401
