ply
format ascii 1.0
comment Created by Open3D
element vertex 1922
property double x
property double y
property double z
end_header
-2.65718 122.393 10.0137
3.81817 137.777 -3.76984
9.59128 146.564 3.80162
-3.84205 87.6186 -6.71601
-8.64739 94.8158 13.9843
-11.1935 128.233 -6.01155
-21.1802 113.105 5.92406
-25.654 109.158 -6.98796
7.7854 101.253 -0.716361
-1.97259 124.79 8.09352
5.1958 103.153 4.89499
-27.4923 82.7404 -3.64078
11.7809 147.388 2.28222
9.15455 127.36 2.876
-5.57463 85.6734 -5.71817
9.07885 120.92 8.16966
-1.54555 78.4448 1.18252
-18.5305 118.799 -8.47027
2.9998 120.038 4.91527
-10.0748 91.7514 6.3597
-2.35062 132.812 -1.98252
4.23996 141.414 -3.94766
1.44313 116.348 2.24995
6.81197 103.797 -2.95655
-0.520797 107.1 -8.34622
8.19999 152.619 -1.7408
-9.64755 100.958 11.2069
-22.1875 91.2412 -0.246052
-4.36013 88.8258 -7.59853
9.87742 147.322 2.37402
15.737 120.199 2.60496
-11.9032 92.976 -8.41983
-11.8919 90.2143 -7.35903
1.52807 78.0418 -5.38804
-8.85643 76.8788 -8.82683
-11.7367 91.5713 10.5864
-0.44156 81.4201 3.28841
16.824 141.096 7.81403
8.35358 106.158 -0.713409
-2.21691 126.447 -3.74168
5.35434 149.365 -2.61951
3.82757 116.213 -5.17253
-5.86654 92.6532 -7.52211
-22.4577 124.326 -2.03851
-27.4684 83.4576 -3.40666
3.6858 138.118 -3.66954
6.44669 112.349 6.45187
-14.3364 111.395 9.29466
-4.76353 134.616 4.73506
-4.53831 101.139 1.41753
16.9873 127.666 5.70669
2.01299 147.477 -2.64301
-24.6973 116.234 -0.108974
-2.20872 86.844 -6.26015
-1.87281 78.3715 1.34768
-22.9414 129.354 -5.49131
-12.0729 97.5327 8.09665
10.4761 123.74 -1.9791
-4.57001 148.413 -3.46743
-17.5862 106.053 -10.667
-1.10252 126.503 -3.78604
-1.19344 77.5778 -7.13385
-7.0613 100.884 7.1258
-10.7462 132.583 4.46953
-24.6973 118.053 -2.45059
-24.0209 114.939 0.340837
-21.956 117.018 -8.71662
-26.5657 91.5377 -3.64509
14.7047 118.747 7.59257
5.7772 125.707 3.90706
4.26017 132.672 2.30348
6.20538 149.471 2.03284
6.27755 106.942 3.98267
-9.02858 97.1236 2.5588
-18.4601 81.3474 -7.56369
5.29861 125.927 -4.0697
-2.61159 115.428 8.5272
8.62762 119.114 6.12777
-10.4467 94.3267 8.47235
5.43728 131.699 7.44228
4.97326 95.9539 5.46293
13.7408 120.115 9.71267
-16.0488 99.2716 8.03327
-1.09813 125.924 9.68606
11.9128 138.181 -0.819298
-6.47549 116.554 -5.77807
8.25508 151.952 -2.32577
10.7357 121.354 9.76109
-8.73487 89.6228 0.486355
-7.22049 108.603 -8.58107
2.63518 129.758 5.78104
4.9339 101.271 5.04065
2.75552 85.3322 -4.37334
17.0696 136.4 7.27232
-5.67208 97.9495 1.00215
-8.89683 151.528 -2.31245
-9.6211 95.9469 0.951818
-23.0319 102.149 3.83459
6.69002 99.3859 4.01892
-0.369102 143.233 -1.90381
4.66381 89.0468 0.12515
-12.0049 95.9836 8.32004
5.61496 102.715 -3.44565
-25.7797 83.0843 -10.0306
15.4585 144.957 6.7656
11.9544 131.007 0.0980206
-19.3415 128.172 -1.3076
-25.0126 81.7364 -1.52918
-9.86382 104.361 7.37514
12.2958 141.793 2.55727
-21.5168 117.008 3.99713
-10.7449 145.1 -5.12203
-29.0129 89.3265 -5.35568
5.35306 115.902 5.25867
-2.21544 127.451 -3.42385
8.48927 120.748 6.18138
11.3727 130.498 0.0949033
-26.8512 93.2803 -8.73052
16.8262 134.348 4.91073
11.8048 139.387 -2.46319
7.39797 105.045 -3.06528
-14.6262 125.037 -6.35108
-24.4261 92.104 -8.66899
-1.0914 78.7666 -0.0646209
-19.0376 104.355 7.95688
8.09321 127.512 3.03984
7.39628 103.871 3.42626
-24.7166 108.041 -7.46006
9.10119 147.189 1.5214
0.971311 145.554 4.82163
7.36044 103.165 3.34137
10.6848 120.622 -2.19493
7.95483 109.632 2.63781
-14.9623 113.188 -8.68603
6.51854 97.1486 4.12134
-5.89176 92.131 2.8943
-11.6244 87.8294 4.73052
12.1596 122.884 11.3031
-21.4604 90.6447 -9.79334
-7.80269 97.3923 -1.82189
2.12979 93.5171 7.00051
-2.92058 135.659 5.84346
-12.6422 86.3438 -0.494593
-14.7522 78.9376 -8.7553
4.58601 124.478 3.29518
-22.8819 115.008 -8.5525
-6.38535 88.55 -2.23579
-0.982877 80.5293 -6.55539
-25.8129 104.728 -7.99157
-6.45317 111.011 -8.13983
-9.39092 99.6581 -10.142
6.21479 127.445 4.97937
-22.4019 120.87 -4.0317
10.7849 150.889 3.19684
1.46165 117.73 -4.60803
-5.84707 91.5137 -0.650386
-9.64773 98.0271 7.92576
2.28443 128.835 3.75012
-12.7586 114.423 -7.73377
-25.4246 106.922 -1.5654
-2.7205 107.262 6.294
-10.8172 148.512 -4.33069
1.28712 81.454 -3.37228
-15.9277 90.5803 -10.1735
-7.25768 92.7041 -1.12163
-7.88367 93.0862 1.8531
-22.6278 124.645 -3.34108
9.24237 122.134 4.15585
-22.7354 86.6544 -10.6304
6.18162 102.478 -2.76401
-15.6242 139.186 -3.59452
-19.133 96.2661 -11.2398
4.48879 144.991 -3.48622
-22.6074 110.68 1.52995
-27.1477 95.8547 -5.24104
-5.07678 86.7947 12.6921
17.6039 123.746 11.0704
-2.73486 109.41 -7.8622
-25.8481 100.343 -0.153959
-5.68393 120.886 8.21163
1.62646 136.119 5.57727
-16.6724 132.637 -3.48804
9.11359 107.584 1.06234
10.085 125.108 2.05754
-12.9372 76.715 -10.2258
3.71247 114.951 7.12007
8.33668 118.684 4.55806
10.3051 117.186 -3.81562
-10.1794 117.381 9.44399
12.7295 119.307 -0.911692
2.23109 99.4416 -7.51936
-4.67342 84.1113 -4.83824
1.66706 153.509 -1.99918
-24.3043 119.85 -1.03411
-8.24303 136.409 2.90249
-16.0446 83.5216 -6.90507
0.489295 119.63 -4.59801
-15.8114 102.542 -10.385
-5.14399 130.313 -2.43014
3.3502 116.655 10.3247
-19.1721 131.861 -3.24709
-2.18628 80.0976 3.51444
-5.14777 95.0179 -7.30254
0.517608 137.193 5.14592
-9.8659 117.219 -5.38988
13.7029 143.092 3.10617
-13.002 122.78 -5.71966
5.29201 109.049 -4.7955
-6.11178 102.729 -9.66338
-0.485343 81.1223 -6.37127
-8.95824 142.903 3.54635
-5.14939 80.8775 10.8195
-6.83119 122.635 -3.57465
1.74885 109.459 -5.20656
-14.0096 80.7264 0.207465
-2.70763 85.6421 -5.5075
-5.76695 94.3164 2.65839
8.29406 121.764 -0.881758
-8.71393 146.903 2.04641
-2.43426 107.351 2.11301
-24.756 113.678 -6.99752
18.5537 129.312 8.80257
10.2536 140.286 0.038933
7.51727 135.312 7.86063
11.5971 139.665 -3.6251
17.8137 132.258 9.53171
2.19866 82.6607 -5.12344
-5.65778 141.86 4.65337
7.17389 140.859 1.49804
-11.5184 133.461 4.33137
2.3613 97.3325 8.91479
-1.71324 83.8027 6.7875
-1.58856 96.7603 -7.89521
-9.55687 82.452 -6.14655
-2.20031 82.4857 -5.59962
-8.00643 97.5213 -1.2473
1.9964 118.855 11.855
-9.31467 102.294 -10.2716
12.5719 132.927 0.0804509
1.11613 81.9945 -2.64012
-19.8479 136.403 -4.05986
-17.4829 128.926 -7.12611
-5.9417 135.22 -3.89229
-6.33417 108.814 8.70583
0.218391 129.433 7.31895
-17.1174 133.635 -2.38739
-4.52387 80.3156 10.1828
17.3529 142.612 6.23882
-4.00193 120.657 8.43399
-21.8165 121.008 -5.89728
-24.9182 79.5642 -1.81941
-13.3344 119.242 -7.43037
-5.68799 110.876 10.2762
-7.96306 107.509 8.57183
-12.8401 132.291 -8.00398
3.50576 135.402 3.07972
-25.6849 112.911 -3.35278
-9.09822 89.3095 12.56
-3.03304 139.56 -2.2386
-8.58115 95.4735 -1.7285
-24.3966 79.4247 -8.7122
7.08437 135.293 -4.55656
-0.307269 94.6589 -8.21254
7.05431 147.01 1.3373
9.13389 121.292 8.12516
8.25401 122.617 7.81129
1.80411 130.98 5.73665
-3.65392 108.528 13.7263
-17.6407 129.637 -4.53852
10.5313 129.311 -0.716885
-5.71601 98.6364 0.461466
8.53978 107.775 -0.746577
-25.3846 80.5806 -9.49771
2.10656 115.229 3.89416
-9.80766 86.6642 -6.26171
3.16276 106.172 -5.87648
16.6457 132.677 9.92279
0.334903 78.6979 -4.85406
-8.26023 80.3813 10.8972
17.4836 141.333 6.07085
12.5445 125.509 -0.160459
-4.27059 137.05 4.74717
15.3535 125.019 11.8263
16.0701 133.817 3.03942
-5.04787 101.151 3.85649
6.62777 134.878 1.87776
-22.593 123.982 -4.35619
-6.47914 77.8729 -6.50131
9.44978 132.476 -3.52372
-12.668 89.8671 7.90851
-19.6402 114.524 8.37912
12.405 125.778 -0.126702
-9.28813 134.665 -7.00632
-5.49965 95.8101 13.4702
2.14448 124.45 6.39544
5.68271 102.548 -3.37602
-14.5484 121.378 -7.41453
-4.95471 100.945 1.13248
15.6724 129.31 3.89886
-21.7139 90.2287 -9.73231
-26.92 92.5253 -8.57478
-27.7419 91.1327 -4.19896
-18.9141 89.9821 1.03358
-5.42126 130.449 7.12178
-23.4589 98.2219 2.54323
11.6603 126.325 -4.01328
16.4939 120.29 3.4133
-2.66813 108.504 7.29397
0.274798 125.773 9.83267
-7.97706 108.787 -8.24684
-15.9258 136.562 -3.29349
-26.219 101.934 -0.954822
-6.92803 120.702 -4.13164
-16.675 83.8012 2.33018
2.11826 81.6911 -3.59019
-5.97423 87.1237 13.1067
-4.61037 127.119 -2.90035
12.2531 136.073 -2.70987
-13.1618 78.4419 -8.36602
-11.1772 131.416 6.35245
-6.80854 96.4348 13.8773
8.51829 124.906 6.86261
4.38872 106.638 5.99519
8.73617 104.389 0.99371
-7.30716 132.745 -4.23638
-23.281 122.907 -4.27574
-9.33931 92.2425 -1.0451
9.56998 116.129 -1.29855
-6.49727 124.414 -3.276
10.692 152.75 1.44858
-26.7839 80.7808 -4.91623
10.5004 119.195 2.43124
-2.52915 137.885 4.88257
9.40434 126.294 8.12043
-10.3952 133.031 4.23414
-24.0601 123.957 -2.15863
4.20043 125.485 -3.10406
-0.171987 122.591 3.75555
-6.21591 79.5928 9.87449
5.57283 154.125 -1.47063
6.71481 134.964 1.76043
-8.71032 92.4396 4.33974
8.85898 130.86 -1.39682
-18.8886 82.8104 -7.71997
6.95288 154.432 -0.678609
1.50721 82.4016 -0.0987747
-7.83462 82.5022 -5.9881
-25.8867 80.3989 -5.62997
5.20583 118.647 8.24523
-25.4978 82.4876 -1.78098
4.63803 120.336 8.50187
-19.8963 115.809 -9.6106
8.01305 152.767 2.61957
-14.5793 115.829 8.79875
-12.2404 137.739 2.73444
-20.6391 127.928 -2.64361
-15.7551 85.7469 -2.78682
-10.8191 124.821 -5.23417
7.32276 112.748 4.49103
2.95304 114.819 11.4173
-6.57017 86.298 -6.45444
-6.13851 111.09 -8.29353
13.5748 121.259 14.3824
-23.5686 83.1046 -0.223466
-3.29717 94.6441 12.7446
-17.362 101.553 8.67255
-5.7371 105.955 -9.10188
2.92213 126.916 6.33462
17.6949 121.654 4.4828
10.4423 119.03 3.741
-22.7243 124.195 -1.25515
-10.0377 104.442 -10.2028
-0.952587 132.629 7.5027
-20.0538 80.442 0.266893
-5.34496 110.382 10.1959
-23.2136 91.2949 -9.0041
-11.0686 150.435 -3.19319
-11.41 148.12 -4.13118
-14.3692 131.691 -6.80052
-24.0918 98.6098 2.18065
2.62991 103.027 -7.54243
18.6127 126.42 6.24655
1.15702 125.811 9.6278
-8.98383 106.073 7.88245
-0.998657 116.928 -5.12591
8.24242 122.966 1.62205
10.4445 133.741 1.10092
-8.44566 90.3875 1.94711
1.33973 130.34 7.02013
5.01817 90.694 -2.65058
6.92161 126.311 -0.23221
-17.5485 131.554 -3.314
-0.623697 88.1267 -6.75974
-11.0061 140.803 -5.50656
-8.63927 107.479 11.4731
-20.9467 125.686 -4.86183
4.16008 115.495 6.06595
7.00746 128.381 5.08821
-19.367 100.433 6.63743
7.88395 137.08 4.04124
-6.42352 124.116 8.20412
11.2592 132.018 1.58917
-1.86263 136.111 -1.74581
-0.726659 120.438 12.3426
5.73965 113.705 5.73222
-10.6408 96.4304 9.45007
-6.67756 144.935 -5.18452
6.37853 138.885 5.92401
-2.11088 122.166 8.3684
-5.24716 103.365 7.47969
-15.5006 127.468 -6.88911
-5.12481 113.768 12.7616
-14.6518 84.2447 -1.12146
-22.5949 107.838 4.66686
-18.5857 132.809 -3.65949
11.395 126.923 -4.14266
-18.6194 103.754 -10.6344
13.9281 135.548 1.02788
6.00378 146.007 -3.07925
-22.6018 126.404 -4.0275
-26.5672 80.7618 -2.9077
-22.727 99.9382 -9.89207
-20.2297 87.2237 1.42849
-11.7663 86.0832 4.48056
3.27825 119.406 3.38647
-7.11483 109.513 -8.24398
5.1631 115.227 3.80697
-10.0534 121.803 -4.63979
-22.0092 87.9451 0.40023
-7.87292 109.259 9.93116
-16.7757 117.239 9.56684
-12.3452 102.718 -10.407
-23.5028 81.7689 -0.135952
-17.2317 86.1033 -8.82314
-18.725 115.386 9.18633
-7.03809 94.219 13.5303
5.79781 153.235 -1.92681
-8.46315 94.8119 -1.71959
-1.29364 83.0261 5.70533
-23.4462 130.223 -4.40272
-14.2468 132.768 -5.30433
12.1016 132.415 -0.0321575
0.488284 116.072 5.77648
6.56082 99.9269 -1.26926
-3.25073 121.868 -4.9385
-4.46241 148.438 -3.39131
-6.27501 102.668 1.49445
1.41901 102.571 10.4943
-9.54637 130.373 -5.69439
3.29096 134.369 6.11744
9.04717 116.095 -4.68794
-5.00504 79.9309 -5.92355
5.55644 130.285 -4.53222
-26.6033 102.489 -5.34205
-27.0387 83.2384 -2.81146
-9.15741 110.845 -7.28096
-14.6393 105.413 -10.3065
-13.4933 103.15 -10.2624
-23.5307 104.584 3.51435
-4.87885 141.408 -4.16561
-20.6719 81.2863 -9.96124
-18.2262 110.551 9.29003
-25.2578 80.3643 -9.41772
1.55375 101.713 -7.70073
-25.4273 80.7707 -1.96805
-9.36113 97.2817 7.9452
6.38669 135.821 1.59419
-24.4187 118.72 -2.1355
14.8166 119.349 1.79178
-10.4974 128.902 7.6751
12.0888 147.879 6.08037
0.0608604 123.372 7.24047
-23.3219 127.157 -4.17297
-15.6055 109.553 -9.80442
-22.5254 96.8708 2.39441
-1.92095 84.8124 6.96656
3.22552 133.767 5.36971
4.48884 118.979 8.30161
-17.3273 88.7746 -10.1319
3.59617 102.234 -7.02972
17.0115 141.661 5.0431
-2.70826 106.211 -8.69226
-7.14075 115.105 9.51286
-12.3597 90.7338 9.63535
-5.63624 107.18 8.15121
5.41737 135.357 2.45626
-9.20448 104.901 8.89431
-21.6549 132.616 -5.05857
-20.1199 79.0796 0.364085
-5.14489 104.684 -9.25253
14.1876 135.74 1.44538
-2.27046 111.425 2.71919
9.49978 109.965 -1.66019
-10.8122 89.8056 4.88109
9.71144 122.803 5.54398
-4.10613 103.695 2.93166
-22.3323 110.321 3.62297
-8.53377 97.6772 2.07314
-1.37976 97.1732 -7.84626
6.65762 149.978 -2.95405
8.26927 124.741 -1.98544
-28.7436 87.9527 -7.58422
-7.70587 137.594 2.62668
-15.3165 117.925 -8.70667
-18.651 105.174 8.45808
1.51421 125.563 -2.88735
4.63584 107.545 6.18225
-6.26499 104.002 6.96977
-11.7833 95.9807 11.9827
-0.365262 152.69 -2.19227
-0.918191 128.756 -3.14367
2.02496 132.423 -2.60081
0.657831 108.201 11.9559
-4.62123 140.571 -3.65599
6.78685 123.506 6.00447
-12.4786 144.018 4.32758
0.306117 78.1716 -5.75843
-2.75987 141.854 -2.30884
-6.37676 108.019 -9.20607
-21.0309 89.9369 -0.170482
-11.0215 110.238 8.46542
-28.197 94.9238 -7.38092
-10.1089 95.7797 2.92417
5.58511 131.468 -4.2082
-7.55088 131.098 5.60028
-1.63519 78.5729 -0.000590811
-6.63258 102.58 6.22903
4.95625 103.697 -4.57256
-7.53688 89.2892 13.4402
-19.9339 98.9728 5.16035
-2.18618 91.6598 -8.34123
-0.710656 106.529 2.98492
-6.59068 115.567 9.6537
-23.1609 109.022 3.73162
-13.678 92.6389 -9.61299
12.3162 135.661 -1.56711
18.3216 121.489 12.3218
-2.27985 102.469 5.0018
1.32403 119.707 6.23269
-0.140149 119.513 12.4032
-11.1386 127.184 -5.97112
-20.427 80.316 0.329657
5.15743 137.607 6.5416
-21.3273 125.12 -3.02904
2.86528 119.955 2.56829
9.94763 147.511 3.68726
8.51891 118.825 -1.37453
1.92096 123.115 10.4287
-16.4789 139.874 -1.94258
2.63046 117.993 5.06628
-13.9029 113.784 -8.21302
-9.82412 102.564 8.74136
0.64726 125.083 3.8399
-12.0358 150.902 -1.41091
-14.5964 81.6172 1.66636
-13.3257 127.064 8.02008
1.06377 126.35 8.99315
-16.9722 106.557 9.32819
-4.98763 120.007 -5.15471
12.0287 131.326 -3.47431
-8.7035 96.4759 3.98716
-17.7161 101.504 8.41816
-7.36483 116.222 -5.36753
1.28639 110.868 12.7039
17.2287 140.85 7.74921
-3.25958 130.669 7.81324
-21.5056 98.9125 4.05455
-3.01203 84.8394 8.9303
4.53808 89.0081 2.61916
9.01391 132.095 -0.30223
13.5286 149.553 3.15253
7.86912 152.159 -2.2662
-9.16879 92.9507 5.77222
8.37382 142.453 1.75082
6.28135 102.527 3.97318
5.12915 98.6703 -4.31225
-2.24862 94.1446 -8.23691
-16.1584 128.893 -7.33003
8.76329 131.451 -1.36311
-15.9562 112.188 -9.39156
-8.71167 112.49 -6.65987
-10.6769 95.5203 10.2225
-11.9522 136.732 -6.41215
-10.1023 88.7655 -0.305498
-0.557733 112.81 7.03284
-20.9486 89.5221 -10.1963
-3.84397 91.8267 -8.17124
10.0703 149.947 -0.616823
-20.8825 88.9355 -10.4233
-12.4607 90.4683 5.58821
-13.3413 133.658 -5.51257
-6.37859 109.991 8.92709
1.88027 121.555 10.5555
18.6633 129.571 7.34822
-3.30131 93.7751 12.2268
-13.8826 89.6508 -3.42991
-19.3795 135.448 -3.82926
-4.80702 104.193 7.0116
3.98734 104.145 6.22954
8.41868 102.659 0.749913
-6.29988 142.527 -5.495
-21.7213 92.0028 0.46352
-19.215 101.506 -11.2134
6.45912 96.6656 3.76864
-1.0079 138.931 -1.75135
-25.2459 88.6704 -1.74681
-12.9385 150.726 1.47884
-0.486515 132.911 -1.6906
8.85947 122.191 8.55021
4.70172 113.29 8.29796
5.1642 101.054 -4.93044
2.75917 92.7445 5.98107
-6.67422 132.605 -3.75104
-6.07455 120.262 8.47986
0.931805 122.592 -4.00444
8.39756 119.856 -4.34275
2.21379 102.323 9.22608
-17.4737 78.9222 -10.6648
1.79042 124.597 10.8437
-13.0211 86.7517 6.80971
-25.5848 96.954 0.278211
-14.0717 80.9988 0.260443
-17.9449 130.006 -3.68038
-0.783001 112.893 2.34312
-22.5828 110.439 -8.71026
-5.48799 103.83 5.78992
-4.26912 91.4496 1.58293
13.8299 135.1 10.6561
8.39059 108.681 -2.90178
10.3131 133.938 -0.202816
8.1766 128.752 4.34746
-4.25086 142.295 4.26985
10.1872 120.132 2.3223
-16.3766 126.84 5.97471
-13.3483 86.9543 4.8492
3.80989 109.883 -5.84299
1.42565 84.7043 3.10443
-14.9761 115.807 -8.61743
-6.67695 143.281 -5.54082
-21.9218 79.0541 -1.93744
-18.2263 110.207 -10.2595
-21.2304 116.636 3.76949
12.9844 138.704 1.01893
-10.0255 95.083 -7.52313
18.8386 127.238 6.78223
-27.6037 96.7943 -6.11294
11.2431 144.771 2.29818
2.18084 103.882 -7.26692
3.45396 105.364 7.26449
-8.01267 152.37 -1.80242
-10.4331 96.641 8.96878
-7.52158 93.6667 0.940591
3.33246 94.7456 -2.84823
-1.07512 106.163 6.34108
-4.98401 86.0267 -0.281386
-11.3587 150.878 -2.30226
-4.88143 79.4337 10.7966
-5.2593 80.0504 11.1193
0.793809 82.0228 -2.41531
-26.4255 103.254 -1.87342
6.9459 124.002 -4.63485
14.8553 119.119 9.96822
-12.9779 87.7579 8.50937
-7.25258 85.6037 12.7628
-23.4675 98.9259 2.86711
-3.69132 143.562 6.37934
-11.5764 118.731 9.49552
6.65221 116.016 2.14673
-26.4048 79.3223 -1.67935
-7.74232 118.393 -4.7384
8.94231 141.718 2.85676
1.17542 86.5495 4.39749
8.03449 114.796 -4.297
1.81026 124.128 2.11205
-24.917 103.651 1.50966
-6.02304 135.932 -4.3152
-13.4148 87.2501 4.93264
-14.0987 89.8137 -8.45805
-16.4352 107.09 -10.6911
-9.58515 97.962 0.595316
-18.5014 89.8165 1.26604
-9.28488 87.2298 3.44621
7.4366 102.558 3.11358
3.93585 107.62 -5.98511
-19.6312 106.414 7.87229
-13.9835 120.596 9.0707
18.6557 124.196 6.96666
-22.8009 123.803 -3.92808
17.6715 140.469 6.86975
12.171 132.931 10.6876
-21.3847 88.6783 -10.4962
8.32207 124.75 8.87619
-9.8471 106.046 7.75063
-9.65696 93.26 6.38567
-8.26844 96.0562 -0.700828
6.03928 127.394 3.07045
-24.3019 106.74 2.30835
14.1407 123.396 0.780113
-7.41205 104.439 -9.78032
-23.6424 109.07 1.84998
14.5629 118.805 1.85285
-4.74264 109.421 10.0686
-1.06792 113.359 -6.48991
-11.1127 116.066 8.71897
-6.55964 100.666 14.0116
-10.9251 102.178 5.07178
0.823304 122.531 2.7246
8.70423 127.595 1.99701
17.836 119.706 7.70119
-1.32947 135.304 -1.66384
-12.3008 86.0134 4.50197
5.57146 128.044 3.6672
-6.30837 79.4758 9.80473
8.28977 139.346 2.10052
-19.9048 100.723 6.39076
-7.80049 92.8209 -0.749546
-20.4877 124.981 -5.79826
7.51446 135.182 2.52936
10.5177 145.611 6.54335
-8.97968 80.9986 -7.15991
-20.0404 118.471 -8.85675
-10.225 90.9731 -4.67428
-5.81605 108.683 8.79548
-5.57867 84.4905 -4.98045
3.62739 123.24 5.16615
-6.48757 93.6506 2.34246
4.46862 142.73 3.35338
-2.79693 105.126 13.8287
9.3689 120.784 0.266535
14.1108 120.592 12.7044
-13.4637 93.5672 6.02734
-12.9819 94.4251 8.10872
-11.7469 132.587 4.9736
-10.908 100.031 -10.0662
-2.89835 122.25 9.50367
6.34734 133.529 7.78668
0.383389 85.6719 -4.584
-6.79742 138.761 -5.48466
-12.7125 88.3957 7.12723
1.46556 115.626 12.6593
-13.5481 150.123 -0.0663056
14.8751 141.515 8.91003
-12.9101 87.1245 -2.25695
9.90731 146.728 2.82585
18.936 123.848 8.92189
5.30919 112.17 8.71879
-9.18557 77.8839 -7.34374
10.2596 145.095 6.58373
-12.9688 121.977 -5.83748
-1.04464 119.875 6.81895
-4.45654 89.0182 1.14258
7.21747 133.011 2.5379
-5.63744 115.157 10.0906
-0.471207 118.108 6.89472
-1.715 104.284 5.8187
13.2588 148.706 2.96973
5.36627 136.237 -4.66395
-9.00793 97.3722 4.4137
-1.95281 111.885 8.17395
9.11246 130.527 9.50058
-12.3816 142.073 3.49858
-8.86595 112.529 -6.62019
-1.72712 116.338 4.44676
-4.38123 108.677 -8.45693
-8.50967 141.15 -5.6192
-11.1694 122.163 8.96993
-1.12502 106.167 -8.60785
-12.3524 144.875 4.174
-16.892 114.141 9.17516
9.94922 124.801 1.81634
-15.6243 116.227 -9.08665
-5.42417 78.1112 -6.2242
-10.1518 96.2211 13.5641
-14.4928 96.9188 8.61599
-24.6586 108.058 -0.865034
1.22482 129.48 -2.18494
-15.8493 106.931 -10.592
0.97838 111.423 12.8537
3.46295 96.8392 -5.72844
-9.73067 99.2774 13.886
10.5854 119.373 2.35765
-10.3921 118.788 9.75581
-17.9247 130.587 -2.95126
-1.59763 140.237 4.67128
-11.2999 142.348 -4.62618
3.87331 114.538 7.35755
-0.20748 79.4553 0.211845
18.6072 130.765 8.36801
-8.69784 142.727 3.75709
-18.7751 79.6524 -8.73529
3.85139 95.961 -2.65016
4.81353 123.08 -3.00656
12.1443 136.719 0.111373
15.3889 127.933 3.12101
7.79801 106.635 -3.17374
-25.831 83.5739 -1.93222
9.49069 125.328 4.76255
-10.9813 118.171 -6.04805
-2.26654 105.805 3.61982
4.94014 129.73 5.24737
-10.7636 92.4655 11.9459
-23.5601 98.8865 2.76127
-17.2704 112.643 9.20211
6.53627 141.883 1.36155
-0.594114 134.162 -1.54045
-8.91494 132.046 -5.64482
-2.59558 109.083 -7.91392
14.3996 141.331 2.29214
1.65728 115.845 -5.07848
3.94087 89.3162 -4.3575
-14.9653 128.881 7.04846
-28.5246 85.1981 -5.03354
-0.689374 105.57 4.03295
4.90481 127.132 4.83259
-5.21035 126.294 6.85386
-21.4841 113.107 3.10537
-7.64512 94.9349 -1.39459
4.99526 129.764 1.8992
-0.766373 91.7011 -7.71772
-11.5749 126.006 9.31577
10.2239 119.407 0.32306
-0.183611 91.1803 -7.11506
6.46953 98.4829 2.35745
-1.04243 104.758 3.97911
-4.8674 112.441 9.20155
-15.1898 116.754 -8.65376
-5.85034 102.353 14.4316
7.37544 126.933 8.64619
-8.56141 151.324 1.99165
-11.2817 83.8882 -5.57853
-18.5678 101.684 -11.289
-13.5083 93.1525 -9.58894
4.15816 96.1352 6.49019
-9.55839 122.032 -4.31796
-22.9147 118.686 -7.89256
-26.5223 102.624 -5.56393
-19.9166 128.179 -1.90598
-24.3189 119.389 -1.63678
-19.8029 129.924 -1.48284
-6.71175 140.328 -5.97868
-6.52119 94.7576 3.24742
7.1572 151.362 1.83361
3.41974 133.262 3.22448
8.31982 121.769 7.47578
6.80463 131.742 8.03421
-8.93346 91.6544 -3.5587
15.7917 140.338 3.61031
-4.87151 91.6235 -7.97305
-5.16272 103.94 5.73112
-8.56441 90.762 -3.24152
11.4962 118.546 3.37123
-7.65729 114.556 -6.0054
-29.2033 89.4335 -6.83793
-15.3197 106.636 -10.4635
-6.72227 136.227 -4.94347
-0.698542 111.787 2.30013
-1.36086 107.143 2.32099
2.21436 84.0023 0.238946
-11.3643 88.768 5.08402
13.8661 134.359 11.0091
-4.51596 142.691 4.93263
-8.0683 111.519 8.90061
2.8748 114.593 10.0933
9.79838 143.698 6.18382
-3.37449 116.699 9.1447
17.3161 136.616 6.10987
-9.54893 142.115 3.76972
-24.9306 78.6859 -2.76367
9.00637 126.589 2.1845
-22.9969 105.155 -9.53125
9.69895 111.031 -0.252431
4.96428 103.855 -4.57206
-1.50852 113.816 7.82396
-4.07059 111.976 9.22159
-24.5164 90.034 -2.19371
8.08702 124.58 6.93978
-22.9562 97.9959 2.7709
-9.28705 129.029 -4.98753
8.86343 152.863 0.85361
-13.6409 87.0943 -7.56796
-4.22867 110.855 -7.79174
-3.20861 106.672 -8.52628
-0.0764992 98.8277 -7.92802
2.70127 101.549 7.95358
-2.8872 116.131 8.79345
11.7497 147.778 2.19724
-2.86736 138.851 -1.93699
-2.14601 111.42 4.58189
-11.6293 146.621 -4.59586
1.67071 98.966 9.80352
-26.1397 107.862 -6.53371
9.04546 143.985 5.17564
8.54394 109.884 -3.51455
-16.5819 114.258 -9.79933
-18.7365 79.2786 -11.8034
-13.6787 83.0025 5.96496
7.84953 123.465 1.05501
-14.9411 141.087 -1.97163
-5.78475 137.792 3.48628
-4.54976 123.905 -3.84441
2.01978 80.8946 -5.58713
-10.3971 120.934 9.22248
3.62481 109.41 9.24435
-19.8203 95.2143 3.13623
-24.3288 82.4113 -0.890727
-22.179 123.292 -1.56656
-7.1607 137.151 2.78127
3.07599 114.025 11.3975
0.201829 127.159 6.64571
12.8532 149.998 3.73822
-20.3478 122.279 -8.15001
-7.78467 103.373 6.83577
11.9355 133.751 1.40447
-3.06063 103.956 6.31112
-7.02752 101.803 7.94012
-0.82686 115.017 7.19257
0.760591 135.427 5.92924
17.6034 127.147 9.55868
0.125921 141.447 4.58415
0.330963 114.803 13.1115
-12.0983 126.647 -6.398
-26.098 86.4603 -9.88587
-0.935117 133.405 -1.58895
2.86485 124.607 1.71237
-8.9497 89.6506 -4.95131
-15.9202 122.593 -8.11102
-7.19494 111.186 11.0455
-11.0979 100.795 7.97365
-7.13882 118.747 -4.65981
4.6023 125.761 2.7401
-13.2699 89.8865 -7.93498
8.3521 124.063 7.67541
-4.24778 103.987 6.61463
1.43298 84.9595 -4.85773
-0.727761 102.048 12.1752
14.1256 120.004 0.402925
8.50207 127.436 -4.95642
8.04331 152.495 -1.90477
1.29681 99.0428 10.3707
-1.78234 118.505 7.52597
6.73157 116.249 3.88439
-19.6037 106.569 7.93172
-2.01245 111.671 5.65788
5.03488 145.841 -3.26441
3.96504 142.902 -3.65535
0.378399 88.6707 6.44535
11.9173 136.439 -3.44085
9.07164 123.785 8.16361
5.63521 105.904 4.95386
-21.3603 126.021 -2.17029
15.2226 141.637 3.10407
4.56014 120.318 8.53922
-22.9469 86.8158 -10.6472
5.04757 143.392 -3.72509
-2.81058 100.692 13.225
17.9304 132.715 8.24273
-24.177 113.289 -0.0122986
1.17225 143.446 -2.15767
-6.31591 111.688 13
10.2263 122.542 -1.29954
-18.0638 99.0921 -11.3262
-14.1344 97.4749 -10.1551
-1.58393 120.163 12.091
-12.2513 89.5786 -7.32412
6.65263 96.0008 2.57359
3.99697 145.047 4.17986
-11.2159 93.7462 11.6023
16.9108 122.142 3.16381
-22.611 96.1617 1.73998
-19.7838 98.7633 5.02572
7.41819 136.112 -4.50779
-13.7874 97.0534 -9.98781
5.75095 124.339 6.48074
-11.3585 91.4697 -4.72105
-2.44933 112.348 -7.56474
-8.5978 96.2212 13.8865
9.29016 109.034 -0.733694
-4.05697 79.8073 8.93602
14.4121 129.369 11.9761
-2.64037 106.961 4.79605
-18.2078 105.443 -10.7028
-14.0454 79.0401 -8.57622
2.65143 88.9384 4.36823
-21.2203 117.672 -8.91043
18.9839 121.226 12.5016
11.3692 119.441 2.61669
10.9404 143.624 -0.421464
-6.37171 89.3683 -7.45004
-2.61574 119.429 -6.08858
8.30995 125.797 -1.84252
-16.0697 117.226 9.16272
-19.5978 126.019 -5.96808
4.55519 124.995 2.98619
13.3723 121.744 -0.576684
-1.59823 97.3015 -7.7663
-25.6637 114.518 -5.57803
4.47536 123.039 9.89017
-9.98464 100.061 2.75456
-4.4122 87.6326 -6.85878
-23.8929 88.2365 -9.87667
0.718145 124.049 -3.72047
-23.4916 121.402 -1.82548
8.46194 127.289 -2.02113
-7.93175 76.8679 -8.89143
-9.16992 90.835 13.036
-11.4778 107.988 -8.59769
7.69222 113.847 -4.16292
-24.4852 92.9796 -9.25125
-4.30089 85.1335 11.7793
3.07175 133.306 5.38178
-9.33616 93.8042 0.404389
-14.2125 100.194 -10.7117
-8.41739 119.956 9.2621
2.81887 125.641 1.93418
-0.454484 78.8208 -1.22168
10.7742 130.979 -0.417468
0.908694 94.0451 -7.12751
-11.4877 138.259 -6.0856
-10.7536 88.9526 -4.98394
4.15563 123.674 -2.85955
9.38998 122.5 8.31502
-5.02558 104.096 2.71525
-6.43897 92.4887 13.276
-28.7737 92.0461 -6.84292
-11.0483 99.2277 -10.1315
0.816373 124.578 3.24933
10.3084 131.985 -3.39594
1.13649 90.3579 6.44239
-12.4919 116.382 -7.01413
-11.4278 136.315 -7.0595
-2.59647 141.146 -2.17673
13.2714 130.375 -0.587097
18.2178 122.358 5.55007
-21.6583 116.274 3.06262
-24.1317 114.224 0.310629
-2.95451 102.182 3.31675
-25.6893 87.1772 -1.614
-26.5255 97.9689 -2.26345
12.1353 126.059 13.3169
10.43 142.019 7.64386
2.75105 85.5723 -2.07522
0.07743 126.236 9.30825
8.81154 142.318 3.60819
8.58962 147.774 -3.56484
-23.8772 122.833 -2.06996
-18.6851 132.189 -1.33317
11.0613 139.798 -0.30096
6.18738 145.35 1.61383
8.10126 117.382 -4.98598
2.61374 105.616 -6.039
5.72636 112.491 7.2741
-27.7237 93.0582 -3.57661
7.97024 118.983 2.87443
-20.6394 82.8947 1.32509
-9.41566 81.4777 -7.02392
17.6 141.686 6.76779
-22.7027 124.064 -1.43782
7.24604 138.061 4.55234
-11.5011 94.7757 8.9755
2.55788 89.726 4.84287
-13.7155 90.7122 -3.79974
15.3448 142.91 3.90991
-12.3383 110.938 -8.17814
11.8702 118.222 4.27313
9.15104 145.817 -3.7053
-18.6515 79.5317 -9.48753
-10.4052 95.5378 6.74926
13.974 124.831 1.44191
-3.17511 105.582 7.24684
-19.4442 112.62 9.05343
-0.0413527 145.386 -2.07023
3.62584 123.194 5.14372
-22.7085 117.236 -8.41822
-9.55334 132.312 4.72652
-6.76387 120.974 -4.06919
17.8376 133.285 8.49955
-5.05389 97.0408 13.5401
5.63813 128.927 2.07782
-18.5012 130.358 -3.95599
-3.01071 129.781 -2.77941
-6.21075 102.713 1.35481
-9.69287 149.205 2.68511
-7.10501 132.2 5.04915
0.539576 97.1592 -7.90211
8.50364 140.351 2.12619
-9.56225 79.6045 -7.45272
-21.0645 115.394 3.27071
-0.876776 122.181 -5.08922
-10.0092 102.941 10.9984
-2.64175 109.313 8.57743
-10.2963 94.8126 13.5653
-25.3978 110.33 -6.78386
7.59555 110.803 -4.49301
-21.3219 93.5414 -10.8756
13.2484 138.511 9.27979
8.66527 129.879 -1.28686
-7.05479 91.2321 2.99766
-25.9464 87.6023 -1.81509
1.87146 118.546 2.17474
-0.833646 105.429 5.69996
7.23186 132.877 2.41997
-26.3512 97.0527 -9.01053
8.33833 103.259 -0.0143001
-8.56507 88.7729 1.8158
-15.4538 140.322 -3.71132
-22.9478 98.5826 3.17044
3.94442 100.827 -6.55018
-20.0954 100.28 6.04033
-5.05916 82.5137 11.6872
8.09093 119.052 3.19416
-23.0559 121.409 -1.85994
9.30647 146.301 4.13553
-5.87665 125.335 7.30454
-5.94192 124.445 7.78874
-21.7594 132.458 -4.85768
-27.8416 82.1514 -4.38975
-14.3606 146.918 -1.77947
11.5724 136.908 -1.13338
-15.4828 99.8176 -11.0566
-26.6256 102.48 -5.24678
4.15513 128.577 -3.05427
19.3385 125.289 9.13338
-11.2005 97.7679 -9.52
-16.775 143.561 -0.925564
-2.01643 114.992 6.34882
13.5101 148.39 4.94911
2.46649 117.51 3.09637
-13.2894 87.0012 -2.51867
-16.1074 101.585 9.07815
-25.8603 102.525 -8.6896
15.3536 146.026 4.94911
-9.01366 95.968 -2.73254
-6.62429 107.807 14.0189
3.84881 136.917 3.82758
5.93489 114.273 4.733
3.97244 84.9391 -4.2042
8.95343 109.112 1.67449
-3.92493 78.521 7.07717
-23.4441 122.88 -3.3582
-28.854 91.8106 -5.78381
-23.7954 126.645 -4.11385
-19.8958 93.2156 -11.0926
0.96584 119.511 2.00852
-7.54149 150.902 -3.75777
-5.38632 92.8527 1.93008
-0.874384 78.4715 1.01021
-3.24334 134.269 -1.88606
4.15838 154.559 -1.57628
-1.97932 80.9932 6.77673
-23.0503 104.133 4.15988
-12.4355 120.704 -5.95466
-22.2041 123.966 -1.83341
-12.3173 147.672 3.8403
-11.9458 80.8521 -7.71435
-0.187919 108.343 13.1553
-27.034 96.4056 -8.51185
-12.3416 88.1035 5.42516
12.3789 138.278 0.4867
10.5319 121.389 9.63606
10.0042 128.911 0.273532
-2.67599 102.448 -7.92271
-9.12072 144.304 2.6975
-9.23721 89.7213 -4.80917
15.8751 128.689 4.56452
-6.94881 134.046 -4.37294
-4.35278 87.9729 -7.08748
4.54018 122.406 -2.97351
-26.1266 103.723 -1.09354
-7.56162 105.834 13.8294
-11.4912 138.985 2.43815
6.32269 137.968 1.50776
-10.9004 89.536 10.7781
-1.06864 83.5024 -5.26767
6.9015 125.116 -4.69611
-17.5377 112.395 -10.3247
-11.0856 98.1449 1.73551
-24.2859 108.714 -0.767686
-27.1005 81.9106 -9.7279
-28.8903 86.1125 -5.22127
5.99561 116.918 2.5017
-7.68899 151.612 -2.91474
-21.6641 123.993 -1.86012
-22.4703 125.256 -4.17698
-13.0157 86.7257 6.72332
9.26228 123.533 0.260401
-0.799209 91.5243 9.88035
-22.7001 82.344 -10.8779
3.54566 94.0834 -1.99388
9.17062 120.64 7.73172
-2.84735 103.617 -8.42792
-4.28988 126.027 7.64615
10.6258 139.773 0.31912
7.02647 140.011 6.36086
13.2894 131.719 -1.01644
-21.9222 125.503 -4.28205
4.23011 87.8178 -3.18192
-26.6675 101.758 -2.3333
-10.9589 144.125 2.67289
-2.44916 130.474 -2.82062
-8.89146 135.693 3.07001
-10.9985 126.511 -5.85095
9.29018 126.616 -1.63845
5.44572 111.888 -5.6259
-16.4584 119.357 9.80405
-10.5188 106.567 7.8301
-14.4397 130.179 -8.61786
-8.63792 107.055 10.568
-22.9526 99.907 3.72483
6.5345 124.573 6.09627
-0.425658 81.9514 -6.02908
2.19927 84.2659 -0.862978
-5.38364 127.994 6.69588
4.83779 131.126 1.91482
7.17385 117.811 0.970267
9.23196 150.338 -1.99334
0.193019 79.5975 -0.742546
-24.277 97.7921 1.71769
-21.394 91.2469 -10.1074
-23.0383 123.172 -4.86276
-25.8836 79.2107 -8.44222
-16.7545 99.3887 -11.1885
-0.206969 106.063 -8.44049
-11.2262 115.914 -6.41503
-18.3514 105.046 8.63667
-11.1841 112.131 8.53463
-9.81341 101.02 9.75175
-12.5407 132.983 4.86228
-12.4664 103.024 -10.4663
8.27802 128.104 1.25264
-16.4778 113.961 -9.72309
4.77605 134.373 6.69971
-26.8731 101.884 -4.80382
-25.0716 106.907 -0.254797
1.90955 95.692 8.34682
-3.06749 79.2521 4.19346
-20.83 125.29 -2.43066
-5.98116 86.6186 13.0063
-5.39546 116.147 11.4493
2.0424 108.876 10.4638
-0.0230179 144.536 4.20858
10.3208 120.877 1.67896
-2.08164 78.4566 0.120815
-22.3132 125.508 -1.5498
-1.44002 134.262 6.66407
-13.3414 116.478 -7.4702
1.70462 109.95 11.3367
-14.3073 77.5327 -9.68016
8.51285 133.986 -3.85213
-24.9336 93.8104 -0.623748
-8.76174 103.516 3.87049
6.5121 131.735 7.80196
6.78806 116.313 5.42946
-17.8695 137.236 -2.41489
1.66311 141.21 4.25084
1.66403 83.0924 -5.68588
9.80609 128.865 4.22872
-13.4138 126.087 9.59237
-19.2539 112.787 -10.1718
-15.2539 119.074 9.00257
-23.2179 119.789 -7.35834
-7.54866 134.517 -5.23178
-18.6258 81.0958 -7.75752
-4.47139 115.081 9.45837
3.90042 87.6443 -2.14143
-0.82959 91.0396 -8.05804
16.8946 142.871 6.98096
15.0391 136.003 10.2755
-26.3607 79.5745 -1.61864
7.79572 130.539 1.54216
-26.5013 103.204 -2.74646
-6.73721 101.905 6.40619
-1.94748 128.441 -3.29571
4.81743 131.854 7.22291
-17.7097 131.398 -3.11744
1.40842 129.177 6.06276
-25.7315 115.839 -4.67871
-14.4472 138.162 4.59545
-6.58033 103.416 4.97839
-11.7117 138.062 2.64218
-8.00567 153.571 0.50422
-6.36114 98.1934 -7.81705
10.9326 118.944 6.47733
8.53676 122.62 8.31417
-24.126 88.882 -1.15297
-7.45725 138.211 3.15941
11.4674 147.337 6.35789
-22.1557 126.349 -3.72838
7.48294 128.849 7.87012
0.810376 85.5205 4.45493
-6.70355 96.3288 3.81756
-29.3078 88.2237 -6.28022
10.5547 126.849 12.11
0.981652 138.786 4.8506
-15.8677 103.637 9.25544
-26.0284 97.5504 -9.14561
6.74815 100.205 -2.13323
-26.4465 101.359 -1.37479
-16.4614 136.597 -1.92466
-5.83293 132.064 -3.08029
-2.11979 88.3404 -7.00969
0.287893 151.773 -2.34534
-10.6001 81.5357 8.3055
-1.76501 96.1843 12.3078
-7.89654 92.7257 1.44656
-24.2048 90.9835 -1.76553
6.52103 154.886 -0.479543
0.0561272 118.125 12.7036
11.9016 130.689 1.65959
-9.94228 122.323 -4.39754
-22.9342 96.124 1.40358
-20.5243 119.78 -8.466
-0.891052 104.268 12.1299
-10.9136 133.622 -8.00395
15.7023 135.35 2.5876
-27.7611 80.9363 -4.28696
7.7319 127.155 2.34416
-23.1703 111.942 0.147932
10.6447 130.287 2.69936
-25.3472 117.56 -2.30493
-2.43089 106.86 13.6903
14.303 133.014 -0.199261
-15.5384 128.75 -7.20673
0.0705678 82.1643 1.68894
-23.6956 97.7821 2.17221
-2.52613 122.942 9.2493
-4.45475 109.972 8.55957
11.0198 118.515 3.08604
-1.89784 127.007 -3.65855
9.2985 145.689 3.26575
3.38377 86.8475 -4.8122
-7.03145 101.769 5.56447
-13.3605 88.585 -4.47583
-7.92918 89.5085 -3.03447
8.93548 124.11 -1.19974
6.21341 99.4645 -2.44265
-3.8442 100.314 3.84792
-12.8337 114.589 -7.72782
-12.0239 93.263 8.68405
-3.03826 137.199 -1.85829
5.43885 94.3277 3.87821
-25.2404 106.595 -4.02733
-10.032 90.812 -4.65809
-6.55865 122.468 -3.65843
-23.446 119.258 -6.35695
-27.5216 93.8076 -2.72638
-25.5581 108.731 -4.80659
-29.0135 90.0951 -7.29287
-0.30586 93.603 9.88149
8.84438 119.566 0.908194
-9.22436 95.1623 13.8322
6.1532 123.571 6.80599
15.0401 141.567 2.91847
0.718401 119.08 -4.36077
10.397 152.547 0.858578
-10.0032 103.847 9.13346
-17.5148 107.538 9.35355
-2.44231 79.3618 6.1515
8.37011 116.929 -4.86009
1.18542 115.628 12.7641
5.09561 129.008 1.85116
-25.7389 112 -4.62513
-8.58154 98.2025 0.684012
-17.4221 114.882 9.53831
3.32569 93.276 5.5098
6.9696 116.382 -4.47927
1.71109 113.402 3.936
14.418 119.732 12.1954
-21.624 110.177 5.9526
-26.6434 83.5448 -2.46959
1.5518 103.899 10.7453
-21.3587 124.487 -4.54606
-19.1893 81.0664 0.297587
-8.73688 95.222 -1.22376
-14.8683 129.296 -8.07166
12.3239 126.505 13.3896
17.1851 128.542 9.42947
-7.61084 88.4758 1.61048
-8.88858 93.6743 -0.478809
-8.19019 90.5379 1.56651
5.33633 129.364 1.80911
17.1778 126.461 5.43798
-15.3365 83.159 -6.65492
0.0031936 128.992 7.68107
4.86422 126.98 1.96795
-24.9459 116.89 -3.77707
8.99717 131.928 -0.891465
6.64234 143.946 1.47741
-9.1635 96.5625 13.7116
-23.7151 112.045 -8.44805
-5.07889 142.757 -4.595
-8.08146 97.4817 6.04985
3.68037 96.1215 -3.71535
6.28903 131.75 4.23141
2.13917 139.388 -2.5713
5.36518 91.6543 -0.359512
-7.70751 97.006 -1.78647
10.1289 113.465 -1.55916
-9.97328 145.711 -5.35194
8.1942 120.337 1.3418
-16.8706 126.724 5.6346
-24.2542 98.2025 -9.85629
6.58778 96.1543 2.48743
-25.028 100.505 1.51876
3.76793 115.26 8.10384
5.5049 95.5128 0.166057
-24.2376 88.5537 -9.62012
-8.51691 89.1804 3.09839
6.3086 147.195 -2.84765
-8.63367 109.939 11.2779
-19.2533 101.291 7.13808
18.4755 128.259 6.59807
-17.4261 127.171 4.97846
0.888857 90.2029 6.57692
-9.42719 94.7749 7.85058
-18.8619 110.824 8.9514
-14.5233 107.975 -9.99436
-17.6412 79.9604 0.113156
10.4057 119.119 6.99284
-25.8687 115.317 -2.38572
0.907172 131.75 -2.2277
-0.278255 108.968 5.82144
-0.0610076 78.4368 -2.41109
1.78928 152.082 -2.35059
-9.14917 112.913 8.68183
-14.0265 128.63 7.78064
4.51063 154.888 -1.45227
-15.8033 141.517 -1.34169
12.0542 118.592 4.77422
-17.3422 80.7646 -7.82599
1.14756 150.137 -2.52136
14.6408 139.511 2.42659
16.9844 135.299 4.83656
-8.48047 93.7729 -0.151689
11.0415 126.056 -1.31934
6.80036 99.8436 0.0697691
-5.78289 103.093 6.90558
0.0452314 104.544 -8.01126
-11.7 147.046 -4.39474
2.94555 123.788 5.94774
-3.81354 107.667 13.7306
-2.9686 101.391 4.37498
6.1456 130.001 3.1353
14.2682 128.534 12.1522
-21.5102 125.282 -2.08894
-17.4402 110.868 9.59587
-9.24403 97.5516 7.61455
10.0333 149.956 2.14313
8.12227 126.477 -5.05187
-3.27879 85.2258 9.44013
-21.4064 113.487 -9.67855
10.1961 121.019 -4.46239
4.81122 128.039 5.21288
3.29967 116.986 -4.72847
0.382022 141.272 4.54892
-8.29154 78.8791 -7.16771
-8.2461 96.8064 4.21715
-13.9976 115.408 8.90754
-20.9231 85.5921 1.39262
3.52884 95.2985 -2.60291
-9.13076 104.893 9.93017
6.43217 127.761 6.09709
-13.608 135.902 -5.30962
-12.6054 103.214 7.47687
-19.0641 102.733 -10.9672
-13.8038 93.2776 4.642
-7.18855 132.671 -4.13563
-18.6061 81.2312 0.666128
-2.08524 111.227 6.23772
1.28757 141.328 -2.24191
4.82434 130.083 -4.25031
-28.8465 91.8724 -6.00111
-19.128 126.013 -6.31347
-1.15889 118.812 4.67088
-16.3101 136.603 -3.11986
15.1884 123.617 12.7254
-4.32566 96.0824 13.3161
-13.22 137.333 -5.86409
-2.96917 96.5929 13.1109
-0.354916 110.174 -7.18087
-20.5357 127.272 -3.05269
10.6679 152.687 1.48108
-13.9437 85.4724 -2.01384
-8.39135 100.06 -9.95219
-14.5384 131.024 5.81589
17.9982 128.36 6.37951
-12.0944 132.454 4.73749
0.745599 78.7813 -2.52016
0.199718 110.817 -5.92824
11.9192 123.439 -1.33965
8.92581 124.142 -2.17277
-10.5593 115.083 8.73583
-26.619 97.8291 -3.57878
2.12924 84.4865 -2.29759
-14.7374 89.5884 3.71115
10.8044 140.475 -4.21615
1.58052 120.842 2.05368
-16.0708 85.8246 -8.47424
3.70958 87.3793 -2.23748
2.12964 121.251 6.19747
-10.6544 137.348 -6.74039
-21.2448 124.245 -4.62364
-6.22839 104.283 14.3972
-14.905 99.3453 8.99962
7.15083 118.884 8.2015
10.5273 118.751 5.19019
-9.99187 99.9212 11.9892
-21.3332 113.979 3.62252
-2.10851 112.279 3.09992
12.199 119.163 7.34676
16.1215 121.962 12.4816
4.42153 107.593 -5.87574
-18.4417 82.2959 1.56255
-8.15898 98.3797 4.42995
17.341 139.911 5.20127
1.31399 115.756 12.7015
-12.6292 150.98 0.362636
-12.1489 84.6646 -6.05526
3.30396 133.306 5.28172
2.09731 121.459 10.1523
-9.17279 97.1099 4.14502
-12.051 94.6325 11.1527
9.75517 127.333 11.1734
16.716 135.987 4.03681
-10.596 100.224 -10.1459
8.13944 120.956 6.44017
2.46578 133.008 5.56775
-24.8099 107.371 0.1633
-18.8167 83.857 1.55329
19.6166 124.725 10.0374
-9.53818 89.498 5.79809
15.8209 128.794 4.50026
-5.89861 97.1112 0.102821
-8.44221 110.517 -7.47086
-7.47612 91.6495 3.83736
-14.1251 81.3898 -7.60893
-7.06109 95.7202 -1.53337
-6.69787 103.805 5.12296
-3.01697 105.68 -8.88116
-0.677497 121.237 12.05
3.22897 120.506 3.01731
-13.1541 85.8138 4.49709
-4.02821 100.87 13.8735
7.51754 112.524 4.41557
-15.3523 144.097 -0.741272
-4.39836 132.214 6.35649
2.06647 129.904 -2.36
0.524801 116.858 -4.70376
-1.31032 115.795 7.27482
-25.7002 112.906 -5.18212
-10.921 92.8847 -1.84652
-7.77284 137.206 2.68871
-24.9455 99.717 -9.52518
2.13048 136.347 -2.38089
-10.2218 90.3243 5.10445
-8.0099 129.311 6.26985
-5.86538 99.9016 13.8084
-13.0829 135.393 -5.91457
1.5959 114.065 -4.85709
-15.83 96.7015 5.74134
5.48787 131.902 1.81963
7.18655 137.679 6.79456
-6.24145 94.8254 3.07262
-9.22611 90.1191 -4.58937
14.4934 145.44 3.89722
-2.47769 107.201 -8.34277
-2.50096 140.555 -2.11381
-2.12305 123.735 8.41635
-18.8579 87.0133 2.34946
-7.30391 100.623 5.76508
-8.10306 111.046 -7.32784
4.56161 143.572 -3.77152
2.69118 106.861 8.58693
4.80017 97.0552 -1.31861
-6.58278 102.858 6.34987
11.9574 118.06 4.14276
-7.70244 113.512 9.08776
2.61428 138.633 4.9815
-25.6637 111.26 -6.0259
14.2359 137.068 1.67534
-21.0993 81.3046 -10.903
-13.1802 83.3364 -6.26195
-1.86766 112.807 5.29522
-23.7216 99.8598 3.06258
0.520915 131.094 -2.13038
-16.1885 115.912 9.05731
-9.2864 152.442 -1.17884
-15.4364 131.337 5.79939
7.90533 120.25 0.475178
-22.1746 126.188 -3.92055
-2.48063 121.543 11.0555
-13.4358 132.634 5.8258
5.2857 126.442 8.4406
15.6794 125.685 3.94783
-1.49467 138.9 -1.76459
3.84169 97.1636 7.29639
-13.971 132.644 -6.71928
-9.96689 89.4497 11.7725
-7.38035 92.978 3.86026
-7.32999 124.237 -3.45945
12.2555 119.041 6.46637
-7.27875 107.37 -9.41262
-13.1068 85.1381 0.146994
-14.4189 96.9336 8.88229
-15.1827 115.152 8.97952
-18.068 90.7617 -11.1713
-3.42319 132.656 6.40188
-3.35436 133.665 5.69596
10.1252 119.188 -4.53372
-12.4447 89.4473 6.90804
6.04037 124.775 6.27333
3.70234 134.799 5.85187
-15.3481 87.168 -8.93451
-24.554 117.025 -6.56039
-15.2425 114.307 -8.8099
4.61201 98.1952 6.6867
-13.0835 104.533 7.68829
4.42479 97.0139 -3.41949
-6.97346 124.296 -3.38387
-10.13 82.6187 -6.21127
0.81051 78.9787 -5.72381
-3.49092 116.322 12.8133
-15.7798 131.49 -5.38205
19.2724 126.468 8.86334
-5.44263 80.5013 10.8602
-6.67652 101.98 7.14318
-21.7606 90.3385 -9.66964
-9.90107 143.185 -5.23866
-23.6153 127.508 -3.53306
9.05433 122.272 1.04874
0.957175 109.802 12.1988
-8.72096 95.4095 -1.24861
-13.3842 86.0652 7.80383
-7.24208 77.0205 -8.34498
-16.4931 88.5405 3.09729
-1.83997 99.7754 12.8307
-5.0271 112.333 -7.82456
-25.6953 114.968 -4.29979
-11.8331 147.338 3.44795
-18.1818 108.623 -10.2024
9.7132 124.054 1.64607
9.9195 130.588 -1.38088
-4.17392 108.502 -8.40509
-8.89278 100.007 14.0773
10.2027 143.859 0.316198
-8.84543 138.064 -7.15184
-10.5508 84.1177 -5.79338
10.4429 131.751 10.3186
8.14575 137.914 2.90061
-16.9841 133.429 -2.20884
-8.36435 91.353 1.67366
-0.510626 125.186 7.25247
-14.8354 83.0061 -1.63552
-26.0931 107.521 -6.21865
-9.95674 152.739 -0.534884
7.3882 127.706 -0.840509
7.78485 135.512 3.71061
15.9442 120.926 2.11301
14.0038 121.429 12.8286
-22.1494 90.8055 -0.432197
6.28561 112.677 -5.11948
-3.47911 105.688 7.39009
-12.8866 91.1249 -4.33628
-10.5186 115.221 -6.20736
-9.23638 84.9861 11.0609
-8.93878 90.6065 -0.940634
-9.65617 95.3789 -7.31138
8.21373 145 1.34816
-11.6563 100.547 7.76993
3.17932 101.508 7.11844
-6.76672 134.679 4.55541
-13.2261 146.049 -3.62801
-8.78267 141.688 4.43838
19.3327 120.478 11.2782
-20.8462 87.067 1.1265
-7.41334 90.3888 -1.90885
11.0631 136.333 -4.3956
-15.067 113.502 9.18108
11.5473 123.762 -1.45913
1.5558 114.588 12.7426
8.96247 141.521 2.20036
8.19922 129.407 -1.10359
-17.27 78.7182 -10.2505
-19.2295 93.6273 -11.1835
10.9506 127.813 -1.3801
5.42235 138.872 1.66591
-24.7665 116.814 -5.56736
-23.3099 119.734 -6.52752
8.73509 122.859 8.44892
-3.34292 115.284 8.98984
9.85446 148.03 2.067
4.07153 123.95 4.2109
-9.00181 91.1981 3.8247
9.44821 122.147 6.72332
8.41593 122.261 -5.04921
-2.02471 112.145 4.62913
11.5313 136.507 0.514317
-21.8279 124.726 -1.43447
0.872068 112.032 -5.14826
-25.9779 116.312 -2.78874
6.00306 127.247 5.09766
-7.75328 81.7752 -6.53495
-6.63936 97.5772 -0.558417
-19.3877 88.0041 -10.872
7.77273 103.572 -1.74974
-1.31488 117.337 7.16691
10.7582 119.364 7.47417
3.71998 89.9183 -4.41689
-9.62553 97.7005 1.66796
6.57343 147.855 -2.90936
-8.38659 106.726 8.37595
5.79565 122.816 9.39272
6.73939 133.692 3.65305
-26.3697 87.5824 -2.15161
15.3936 145.673 4.04689
-8.83731 93.6452 -0.949612
-0.914774 117.654 -5.16475
-10.878 108.014 8.26738
-13.4285 138.992 4.4248
9.12984 122.229 2.21718
-8.5295 105.693 9.69401
9.51482 122.512 5.02974
4.62059 142.32 2.80587
5.19738 90.8594 -0.272446
-26.2351 89.3754 -2.58712
8.25086 118.516 4.26369
6.79619 154.737 -0.305093
-19.8609 93.2922 1.94811
-10.2082 99.0475 11.6706
-2.38092 127.931 -3.24255
-7.64622 91.6054 -0.395077
3.31931 145.14 4.34859
-0.485842 88.439 7.6204
-2.31656 115.544 -7.07156
2.78448 131.202 -2.61412
17.024 130.968 6.68481
-17.3983 134.108 -1.32117
-13.6588 115.283 8.93823
-10.0253 78.6661 -7.53714
11.3903 141.334 -1.74222
-5.47459 79.9321 -5.79282
17.1477 131.125 9.48453
-12.7378 107.238 -9.31827
-18.0933 141.304 -1.51076
9.04608 124.962 7.41364
-10.2991 147.49 -5.1454
-0.587711 126.792 7.67496
-6.59329 109.638 9.86283
18.6628 121.026 13.2595
-5.72937 117.485 -5.79758
-13.3453 145.046 -3.63475
15.8775 129.441 4.84663
2.47235 95.4234 7.68528
-19.5103 130.013 -1.64991
-6.77293 101.717 1.59976
9.08016 107.329 1.04152
-8.31215 94.2364 -0.991153
-5.87326 99.0114 3.01348
17.2731 136.935 7.18625
4.91174 89.5038 -0.119964
9.70667 127.173 7.56168
-9.18703 106.828 8.10729
9.59898 145.28 2.39899
4.97112 144.453 2.74533
-25.1172 83.5854 -10.4011
-2.39469 112.587 7.19407
3.33997 114.718 -5.23704
-4.53809 130.35 7.34937
-4.93667 79.0448 10.0651
-7.6063 101.012 7.77875
-18.6521 137.456 -3.17448
14.9108 119.217 11.215
-18.6314 104.911 8.41147
-7.21088 103.447 4.64652
-14.5762 86.7941 4.38409
2.72791 141.557 -2.8515
-5.34379 137.515 3.85159
-14.0331 84.3922 -0.240445
-26.2267 100.78 -1.0706
-26.3803 83.0831 -2.33974
-7.23609 104.663 5.27577
-0.213119 116.306 13.0094
12.7107 135.223 -1.06574
-21.716 119.509 -8.59174
12.7174 134.621 -0.787788
-8.38387 104.042 4.37793
-0.426971 116.297 2.22733
-5.41448 120.341 8.3032
-17.2729 105.738 9.18639
-1.23922 117.578 12.7716
13.9323 119.707 9.29653
-27.0514 96.7164 -4.93985
-8.66791 87.8405 12.5601
-15.0969 103.147 9.35613
-16.1078 96.7737 5.6184
-14.1723 121.151 9.20897
-17.7076 133.083 -1.21924
-1.91003 107.158 2.16706
17.5142 127.965 9.42549
-2.18895 116.467 13.0398
11.1502 148.608 1.48135
-5.08957 143.915 -4.61458
4.83251 145.887 3.42094
-10.8912 137.723 -6.33769
2.35501 134.431 5.04811
8.35359 150.779 0.771766
3.13953 112.93 -4.87913
6.99246 106.058 3.60758
-3.76534 142.753 -2.93799
-8.00512 94.3438 -0.786296
-4.82799 79.0443 -6.18022
14.1238 121.108 14.7124
-4.59582 144.952 -4.00868
5.53924 129.622 8.36023
-6.97787 88.8638 -3.40937
16.1566 130.473 9.73427
7.35817 126.255 -4.95309
11.523 140.264 -1.22437
2.56735 105.748 8.93185
-13.8368 120.959 9.10228
10.0783 144.555 -0.0969558
-8.8305 116.346 -5.40982
-14.1538 92.5846 4.0856
10.6863 128.463 -0.70679
-6.00578 150.427 -3.82746
-24.2274 117.541 -5.56647
-10.4888 98.0213 1.14955
-14.2056 81.6268 1.44685
14.418 124.176 1.62444
-11.6141 93.2036 10.519
-1.07634 113.881 -6.19492
-22.9841 123.522 -3.62116
-3.31923 118.364 8.33387
-13.7448 84.8927 3.73355
4.06112 104.06 6.043
-25.4166 81.9971 -9.10648
17.4869 134.103 9.64177
0.958498 90.9206 7.01679
-6.06775 141.39 4.26872
-5.13999 87.6179 12.7557
-10.7544 90.637 5.79034
10.1658 119.244 4.42596
-20.7321 127.508 -3.75006
-16.4937 116.932 9.36874
3.33864 86.2901 -3.17419
-9.26689 149.801 -4.10486
11.4181 121.47 -1.92835
-0.857894 78.9299 -5.61722
16.4618 132.528 9.92279
-11.3327 151.735 0.181459
16.216 129.075 5.72779
9.62596 130.799 10.5416
-21.4172 113.848 2.65698
-15.0158 134.457 -3.53844
17.357 140.078 5.2403
-18.8859 79.7362 0.0474242
9.35429 145.213 1.90404
9.97945 129.066 10.951
-7.99638 109.347 10.2964
2.26573 136.072 -2.45402
4.3217 94.1858 5.01328
-24.1051 117.187 -7.03292
9.19967 128.693 7.53943
-12.8572 87.4029 7.03984
-7.16043 101.63 5.26781
10.1596 120.056 1.91086
1.32958 81.2679 -6.1662
-16.8783 125.784 -7.84076
1.74684 128.319 7.85403
-3.55106 86.8039 10.8933
-25.6607 98.5975 0.497067
-28.4545 89.5357 -4.45393
-22.8297 97.8369 2.70965
-6.35103 127.297 6.75182
-15.9031 106.663 -10.5286
16.219 134.419 3.13514
-22.4697 123.402 -3.98262
-22.1317 126.407 -3.55814
-18.2429 83.5671 1.71097
-10.5737 134.306 3.43715
-22.9096 124.141 -2.66985
-25.0604 82.9658 -10.4077
-4.6515 109.652 -8.3475
-6.70669 102.02 2.63046
5.69636 123.969 -3.88548
-0.0317606 89.1176 7.07835
8.52571 133.754 -3.81361
-23.6471 109.716 0.0879141
-2.56218 90.5756 10.9486
-21.5783 128.529 -5.1815
-14.4004 129.541 -8.42654
19.417 127.814 8.42364
-5.07363 103.618 6.41119
-26.3067 79.6651 -2.62956
7.19122 125.563 0.329924
-21.3957 125.877 -3.37405
14.676 118.947 7.9892
-9.32777 92.2496 -2.20355
-11.1818 92.1045 -2.02591
-11.8754 95.6865 8.48257
-18.8666 101.495 -11.3321
-5.4088 129.515 7.00261
3.48973 84.4631 -4.45883
-1.91629 145.638 -2.12571
13.3664 122.238 -0.457379
11.9973 149.701 2.37027
11.2849 126.86 -1.66521
-4.04356 85.7982 -5.7082
0.619714 121.788 6.94952
-12.6663 133.837 4.53699
-16.4644 98.2378 -10.8982
14.3527 119.652 12.3675
-3.94481 119.24 11.3193
-11.757 145.047 3.62866
-5.29953 138.691 3.71749
-20.5767 108.331 6.97132
-8.28922 106.923 8.09778
-8.53383 92.8884 3.63709
-2.324 127.996 -3.25015
-1.8131 89.9967 10.4111
-9.78452 86.3487 2.60388
-25.8241 97.6759 0.0298385
5.33798 99.9789 5.35491
