ply
format ascii 1.0
comment Created by Open3D
element vertex 1536
property double x
property double y
property double z
end_header
19.679 77.8777 5.77174
1.11872 81.714 2.86083
1.45494 90.5369 3.29443
17.3887 110.075 12.6682
17.7748 100.515 13.3383
8.52095 101.297 2.85255
0.0228584 96.6363 8.48295
8.23647 108.681 -1.74235
14.6589 142.329 5.37646
-6.6042 81.0224 -4.17116
5.46102 84.6247 3.59621
8.84468 108.383 12.3007
-3.90067 97.6586 10.011
16.2214 128.071 6.49318
4.31102 108.111 5.58624
-4.15892 98.9904 9.55683
18.493 134.65 5.05858
12.0381 133.273 8.55182
4.53646 128.785 8.04619
-0.657387 81.4579 6.26378
18.2339 91.3859 13.1395
12.3115 118.436 -3.37031
5.25865 87.3687 -2.60724
-8.89269 106.224 10.7427
6.542 84.5242 2.62021
7.41172 101.472 -5.34689
1.57745 85.3789 3.59792
-6.00939 92.6902 10.6808
15.5976 128.172 7.6704
-3.57491 97.5476 10.0176
-11.7251 115.125 10.5274
21.5369 131.516 2.82921
-11.2405 78.377 5.49641
1.93604 91.528 3.27994
16.893 116.092 10.5195
17.5085 123.822 8.2757
15.9626 121.261 -0.823976
-4.05998 109.697 8.66628
-3.81645 92.442 11.3466
19.4077 78.2211 3.51787
14.0423 131.826 8.51756
20.7253 78.9478 11.9931
14.3183 88.1809 13.3662
15.0446 115.488 4.24532
0.174325 121.439 8.32578
9.99834 102.181 -4.56229
-13.3448 104.844 8.92017
-17.92 79.1609 0.659135
-7.69947 107.468 10.0751
10.184 113.531 3.74175
10.3036 97.0838 12.3844
7.24864 130.805 5.01291
19.1299 123.92 -5.00999
19.2997 107.09 12.0711
-10.9256 105.573 10.775
5.53339 84.695 3.97122
0.797116 91.0841 -3.26024
3.37757 108.108 7.59713
21.0454 122.319 6.1046
21.5893 129.303 4.45968
13.0037 112.529 -1.22425
20.2381 98.676 7.73422
9.26688 108.143 2.99642
-2.20477 103.551 7.88929
18.7389 107.193 12.5213
4.53184 86.7927 3.22376
16.0475 88.1454 13.0566
11.7956 89.6609 13.2613
-8.95823 96.6648 9.74239
8.97987 115.112 10.8628
16.799 119.437 2.79801
-13.6917 84.0527 5.23185
10.1734 108.976 7.65786
12.1747 90.3006 -2.19016
-1.96852 88.4376 -3.61442
21.0535 133.224 2.29533
5.22978 89.5481 -4.58922
9.40838 106.855 12.3977
6.02044 84.0372 6.19043
1.0676 84.7904 1.99285
14.2433 83.6018 -2.69952
9.33432 125.937 1.39305
14.8593 107.078 13.8599
-6.00786 81.0099 -5.10813
14.2212 87.3471 13.2555
11.2817 102.431 -2.39265
8.81359 110.186 -0.459777
-11.8519 99.6677 9.56409
8.73305 121.393 -0.243083
0.87905 82.8605 5.20518
15.4801 130.885 2.07292
18.5267 143.798 3.4896
22.5073 129.457 -3.75582
7.72759 82.8161 8.68706
12.9486 107.79 0.360256
14.7305 123.891 -0.596449
9.75623 105.572 5.49243
15.1142 110.38 13.3458
-1.29973 90.2345 7.67106
21.3441 126.33 -3.93645
16.7858 117.856 3.32695
11.6165 87.1994 12.571
18.5718 113.177 7.93643
9.03066 116.494 11.2757
21.6 94.3672 11.3374
-13.8146 103.129 8.31675
21.0461 140.549 -0.717707
5.66044 96.3008 3.88701
9.66568 80.5313 7.22388
11.7584 108.106 14.0255
21.3048 129.396 -3.97076
17.0372 96.5035 4.80601
6.61972 85.7503 -1.4892
6.30356 99.5223 10.6934
-3.94611 109.456 8.6701
7.33402 89.8194 7.49721
-6.24953 108.289 9.041
17.0842 116.325 7.82647
16.0021 115.819 5.26099
-1.39259 81.3594 6.89421
12.3845 84.0022 -4.53222
16.4983 85.0787 0.29043
4.87124 87.1926 2.60642
7.5258 97.4 10.8734
-0.431457 113.024 8.97614
10.7547 86.6639 -1.87069
22.2269 126.349 6.69187
1.56961 89.9973 3.33094
18.4962 113.144 6.17941
3.01539 89.3249 3.46356
12.9712 130.058 8.72289
20.3501 93.9077 7.90755
20.7948 98.2986 9.84198
20.3033 96.0208 7.59352
14.4798 119.178 -2.03946
21.1773 137.335 1.6969
-0.900006 90.4509 6.92587
14.4701 121.966 -1.77811
-0.720368 114.284 9.45184
9.82533 84.3424 10.5884
1.47859 83.284 0.611185
9.22744 105.882 3.29257
12.2028 141.704 6.9327
20.8267 123.559 1.07548
-9.06205 88.1755 6.52841
3.57418 99.4662 2.59611
16.897 84.2359 3.77373
3.30275 86.2538 -1.94714
14.1668 118.87 -2.66814
4.61911 114.592 5.47169
-0.283529 95.9336 8.96556
19.2509 124.361 -5.51921
11.098 129.519 4.48257
15.9829 119.679 8.13931
10.9025 105.592 -0.971725
4.3904 124.114 8.03673
-8.09037 103.754 10.7961
-5.88348 74.5853 5.12341
-3.09444 82.8063 -2.86323
0.0453733 126.003 7.2011
15.5777 107.179 0.0736797
15.0026 145.214 5.07606
4.55183 82.8063 -2.48185
10.7346 95.1391 1.19576
17.6598 122.255 3.41558
-11.1264 112.5 10.5422
9.17972 104.651 13.6843
-1.47545 78.7653 -4.36493
4.32971 100.632 -3.94674
8.51167 80.024 5.97044
4.5901 94.3024 1.6831
13.4642 120.199 -0.579851
20.6476 93.5418 10.2822
5.10175 119.214 5.30773
-7.3374 106.899 9.70527
17.3311 88.5312 6.45308
19.0144 123.316 7.26244
6.79846 125.295 2.8803
19.1087 105.646 7.16223
16.1797 136.064 6.34758
13.1672 97.6942 2.06142
12.6165 135.186 8.67992
17.117 120.768 -0.396772
4.79722 96.8079 1.53647
14.064 128.038 1.11937
15.0222 141.573 5.25066
9.57175 122.093 8.48173
6.88468 102.115 9.53721
14.3976 78.7239 10.068
-12.8759 74.4429 4.71784
5.78545 133.95 6.33071
19.1837 105.854 5.67544
-12.5037 88.4417 5.42789
1.77074 86.6695 3.93334
9.2286 109.424 13.0277
15.1589 115.285 -2.02591
18.0997 125.064 7.58467
6.43357 102.005 10.4165
-6.17402 77.0411 6.68761
9.06996 106.587 2.82352
10.1138 99.4743 -1.2317
18.6575 134.563 4.94172
13.4818 121.669 -1.00243
0.543886 84.6219 1.05258
1.12443 90.1865 5.84315
15.2411 94.7093 4.18586
-17.0776 77.0133 2.22099
21.4464 99.6885 10.1149
14.1081 99.812 13.858
22.1526 128.77 2.12103
2.31166 126.807 8.66564
0.182656 79.4071 -3.92704
16.7926 121.429 -0.872073
-0.689731 82.6091 6.97991
11.8865 93.3643 2.10927
-12.3045 101.502 9.53508
20.0981 90.4699 12.1505
10.3961 120.584 6.92833
10.6068 131.694 8.93916
0.162676 114.315 9.51636
1.54903 107.134 8.28427
-8.33103 96.2776 9.98733
-0.607223 82.3603 -4.27494
4.67925 93.0398 -5.04561
9.58444 99.8312 -2.05822
7.87973 104.081 10.967
7.40765 111.92 1.50947
9.39735 97.6327 12.2656
-15.724 92.7461 4.6882
21.1347 91.0952 11.6487
13.4915 82.5858 -4.67139
21.1066 122.586 3.74373
0.401547 97.0131 5.81464
10.3636 101.409 13.4805
4.19731 109.505 6.42995
7.23839 87.5314 -2.71943
12.5467 126.936 9.3331
4.15578 97.6636 7.01477
22.0335 124.638 0.794479
-10.8518 81.5693 5.994
21.6108 134.395 -1.65763
19.813 107.974 10.3345
15.7279 118.921 8.26138
-10.8407 91.5053 6.61682
4.43588 106.895 4.31701
-1.15326 94.8311 9.20952
14.6978 120.518 0.476143
-16.5385 80.3237 3.11746
6.53389 114.686 1.81272
-5.03172 79.9108 7.45753
16.133 144.715 4.61125
1.47977 84.2809 -2.19954
21.3647 124.016 5.59459
23.8255 127.626 -2.05879
3.65346 82.3773 1.49139
20.1553 96.7704 6.4381
4.01952 93.7773 4.04272
-7.43852 102.173 10.4549
10.2072 108.679 6.90814
4.17251 92.6821 1.44573
-2.92316 89.2732 -4.42156
17.4917 109.83 12.666
3.63597 90.8411 6.70043
21.6713 79.7366 10.0964
3.45855 93.8858 2.34776
17.6318 121.99 3.8306
2.89811 119.195 9.04119
4.18305 131.501 7.83745
12.0515 84.8818 -3.51936
2.22219 81.2676 -3.39599
5.01553 91.5168 -5.44343
16.1427 123.956 -2.47419
18.6619 107.126 5.58222
-8.80227 87.9463 6.57152
7.4884 84.6583 -1.61902
18.0471 124.36 5.7833
9.96225 118.69 2.61305
-6.97401 82.0132 -3.44071
18.0479 109.788 4.16582
14.4506 115.81 2.7587
-14.9601 98.9535 7.15805
13.7202 100.249 1.24828
13.5342 93.0002 14.1954
-12.3597 88.0083 5.54637
9.51381 113.019 0.836779
20.8204 127.139 4.14061
12.1253 115.541 -2.90674
8.72904 118.768 -0.836898
15.8445 114.484 -2.41954
-0.723227 106.596 8.68223
0.170767 94.8778 -3.57861
10.5613 115.168 -1.56189
19.5008 78.9987 4.5378
10.9456 111.44 13.8526
-3.85271 95.5722 10.0317
-4.50437 81.2183 -4.95545
5.35219 106.054 1.75338
-11.6152 87.7091 5.88248
9.70671 92.7926 -4.53988
16.4381 130.045 2.43438
2.89635 87.0048 0.811775
-15.7168 93.6541 5.21331
5.22849 83.9831 1.33193
17.0248 111.756 -0.704833
-7.54828 89.5419 7.15635
19.1143 87.3178 12.4181
2.05848 100.15 3.79632
13.0208 105.423 -0.724583
10.0801 93.0553 -3.69082
2.65222 93.7867 -3.96249
20.9497 126.324 7.73452
1.44671 92.0572 2.45227
4.68558 117.759 6.91009
22.5955 76.535 11.7104
6.88142 82.8794 7.3587
7.42436 89.9316 7.61141
3.82493 88.1199 -3.88474
8.41092 82.6373 -3.03684
18.2438 89.2694 7.36835
2.1719 125.203 8.86628
9.29088 108.115 10.4877
11.2193 111.47 13.7947
1.87763 87.6602 5.58019
7.1989 94.5071 10.5737
10.4402 95.4415 0.932893
7.9107 85.5461 -1.42987
15.8205 85.4868 -0.782797
23.2592 130.033 -1.15136
21.1771 128.122 4.57172
-6.87043 99.8569 10.3107
11.5729 117.3 -2.19699
17.3151 88.2472 6.13524
14.7213 83.945 -2.64506
12.8901 120.803 12.9705
17.8603 95.6636 4.95518
5.02398 85.3192 3.41072
15.1654 117.164 12.7216
6.27589 83.1442 4.06276
17.9805 100.768 2.76189
5.26119 91.1015 7.03128
22.3062 89.8915 10.8719
17.0987 90.3421 13.1924
2.6683 99.4881 2.56235
6.11759 127.284 5.97223
5.20895 121.66 6.4285
0.616968 121.571 8.0521
1.56813 92.1304 2.01839
7.49576 83.59 -2.58274
-17.2513 80.4116 1.94548
-15.4108 93.0322 5.22009
16.8735 124.596 6.1182
-2.70499 80.0539 -4.48043
4.26517 117.201 7.68976
10.9451 86.2736 -2.09655
1.77066 122.623 8.36533
12.2665 92.1164 1.33256
-13.966 87.4845 5.00745
11.0471 84.4958 -3.80035
13.4252 92.9111 3.07752
5.84639 115 -0.29508
13.4013 98.2101 13.9671
6.28556 84.1599 6.12405
19.8472 124.495 7.85877
-2.12367 91.4939 9.26182
7.10586 93.1181 9.24426
-12.4336 84.8949 5.73078
15.3874 98.1427 2.85816
20.2978 129.145 -4.15833
15.6279 123.106 0.319608
2.42981 99.4357 2.93898
17.8319 83.9089 4.21609
20.1969 120.718 2.00402
0.279368 82.7304 -0.353187
0.646915 92.7194 3.35195
19.6358 106.675 7.4368
16.8824 99.516 2.97713
0.561098 97.9805 7.84673
16.2655 130.564 0.770784
0.41146 82.658 -3.90661
17.0949 113.957 1.13381
2.25415 109.069 8.48874
21.1721 124.655 -0.0315186
-1.65409 80.8752 6.71425
8.8055 103.051 6.71875
8.21225 80.3418 -2.3277
17.5822 124.806 2.15139
8.91307 79.6541 5.04503
-0.187953 118.221 8.87062
16.8849 117.633 7.09942
5.08154 84.1755 4.00793
12.7255 83.3381 -4.38334
5.41864 94.7157 1.36203
19.445 112.226 10.5378
4.48579 130.242 7.68882
-14.2382 86.9167 4.87325
-9.50139 75.2798 5.39633
10.3136 129.791 5.93565
-7.87832 81.3099 -4.8333
18.3337 119.673 6.55836
1.5517 94.429 -3.60907
19.822 121.909 5.46251
16.5257 125.482 3.6738
6.41402 110.034 -3.06631
-13.4038 75.2152 -1.63249
9.74422 104.864 6.99258
19.4272 128.913 -4.3478
16.4928 135.809 5.84817
21.2554 125.677 5.72538
7.11038 83.1628 -2.38353
9.78833 85.1213 9.88553
0.935966 89.4294 2.98589
3.93085 115.86 8.33179
-6.41286 118.491 9.30466
20.45 80.8049 8.41764
11.0696 110.384 0.647166
17.3118 85.479 5.34258
16.1959 77.4789 9.98628
14.5282 117.87 1.93625
5.17965 102.255 1.84453
22.0166 84.7619 12.1798
9.89754 107.839 8.72948
17.2515 130.969 7.62715
-12.8641 100.532 8.98945
12.9484 103.561 -1.39011
1.34308 118.154 8.85203
15.8514 123.48 -2.60386
8.13193 112.484 0.0379037
12.7711 140.79 7.17524
13.6686 130.583 1.66225
3.68522 86.6252 4.28085
-0.67827 81.0248 0.95531
16.3112 103.128 13.8462
14.9627 118.543 0.0690991
19.1702 112.107 6.19909
1.3788 93.5261 -3.96058
2.82245 89.535 4.20215
-0.106327 78.8886 2.172
15.5504 114.82 -2.53258
17.2827 84.4457 0.988023
1.42515 111.567 8.93936
4.81945 100.955 2.56811
6.43556 86.9645 4.67743
2.98542 94.7689 5.54487
4.52836 107.915 4.24841
21.0388 96.5268 10.0145
8.84431 103.175 2.71058
15.5841 81.8829 0.536659
-9.02638 96.9744 9.86575
15.2537 125.784 5.58443
19.9935 98.9848 12.4093
3.91903 128.14 8.59216
5.20101 87.0346 4.34048
10.2861 115.555 3.26351
-1.30785 85.4776 -2.27731
9.24034 129.796 8.24899
2.9273 100.344 2.65246
0.822475 93.2669 3.0859
-0.0820038 112.404 8.79492
-12.0202 109.539 10.5954
12.27 131.786 8.88047
-7.13995 87.5061 6.86658
18.089 136.779 4.39159
-0.601347 105.781 8.07175
5.49981 87.0189 4.25883
4.82322 119.573 7.18435
13.9517 89.3893 3.02647
20.5561 105.35 10.9015
19.8652 121.118 2.13226
7.71236 84.4427 4.03439
-5.2774 102.322 8.87051
11.0092 82.3234 -3.12744
-13.9481 75.4581 4.79834
15.7347 80.4895 0.481451
-0.577273 81.2446 -4.00711
18.3977 120.415 -0.0979152
2.33321 88.5581 3.10047
14.5585 96.1404 14.2791
10.5664 118.794 3.71419
-9.49384 116.303 9.63848
21.5842 124.845 4.09691
4.22114 95.4333 1.60317
-8.41535 98.5425 11.2635
4.54339 84.1478 4.44215
21.3421 136.151 1.38657
6.27918 130.782 5.75849
-1.2942 92.4775 6.02998
0.495289 94.408 -3.40279
-0.243938 79.1786 -4.13213
18.1308 98.0904 4.43584
18.7381 83.0895 8.14673
-11.4132 86.2921 6.1129
-2.65836 91.564 9.57691
15.1741 85.7405 1.54214
22.8497 131.259 -0.666732
21.7668 100.384 10.2665
-3.04515 81.7204 8.05481
1.60854 111.823 8.94929
17.9979 79.4281 2.00883
22.1074 124.858 2.23925
-5.00926 89.8084 9.22402
15.5544 107.547 13.5893
-3.89241 81.7035 -3.85881
19.4837 82.2224 12.1969
4.24357 88.09 5.27677
15.3375 125.152 -2.74525
7.99 125.808 1.87916
17.4089 105.32 13.3276
15.6541 120.28 8.7174
17.2849 105.27 -0.499368
-3.08749 77.4369 4.37401
11.1226 93.8465 -1.83152
20.3773 134.832 2.79037
-5.36515 86.8404 8.31027
11.399 125.533 9.82614
5.37937 97.181 9.39695
9.24768 110.997 2.30463
6.78595 83.4099 -2.15717
17.1321 102.353 13.5208
19.5449 134.995 3.8935
3.36751 90.3674 3.0229
12.4132 115.739 13.7154
-2.86482 81.57 8.00762
5.57574 119.259 3.44107
4.4934 85.3876 -2.13407
13.6143 91.0834 -2.26365
20.8672 125.958 3.14748
19.7752 109.531 6.32506
0.610777 85.3601 1.55928
22.1434 92.6516 11.1687
9.27418 119.389 9.27663
9.81949 121.67 8.04361
11.571 90.7246 13.0292
2.33499 94.3009 -3.77998
17.2306 109.354 12.8834
4.89898 101.33 -4.11701
1.14149 82.1664 4.46471
2.95981 119.766 9.09665
11.7198 103.745 14.4215
14.6426 117.109 13.0284
19.3647 82.959 5.82451
15.7373 129.263 4.37721
19.7642 109.944 10.0654
1.85949 89.1452 1.63288
15.2146 131.746 0.784659
16.3453 126.481 2.15441
5.92837 110.581 1.96515
0.941582 89.0055 2.40863
3.14689 107.548 7.64695
14.7267 117.429 0.050334
10.0248 118.189 2.74832
17.7977 109.374 1.63933
16.8217 144.76 4.28332
-4.60984 77.5487 6.74421
-5.99338 76.6166 6.58717
9.21922 103.549 -5.71403
21.4676 126.1 2.1719
9.17407 119.884 1.91989
3.67517 90.8975 -4.71423
15.0936 109.242 0.00237147
9.26069 114.879 12.0352
-12.4136 89.899 5.78646
-15.4988 75.1061 0.248758
5.82392 116.624 2.55699
-13.4373 94.8082 6.35756
15.895 119.216 8.13359
19.1355 122.681 6.75512
15.5968 92.7672 4.18507
5.56109 123.161 4.98474
20.0903 96.6032 6.10802
9.92866 107.22 5.15029
17.6506 124.629 2.17005
16.4599 114.508 5.2306
-1.49212 92.5953 6.37788
5.53425 102.204 -4.43177
6.91369 87.897 -3.23419
5.17831 124.255 7.21221
12.7128 127.76 -0.0546515
-3.41176 83.0022 -2.60927
10.7539 96.5406 12.6706
1.96751 119.872 8.63045
4.84591 93.7217 1.34293
7.59854 103.583 10.8829
18.9419 91.3275 12.8344
13.3681 85.474 12.6491
11.0185 87.0834 -1.87676
22.3458 125.935 4.34972
-2.89097 105.976 8.70422
5.55101 87.5201 4.59622
5.58763 83.8778 4.71724
20.5828 122.467 3.91269
1.05998 85.6858 2.76898
-14.4056 101.978 7.79861
4.32765 99.8615 2.77229
9.14911 112.791 12.6613
13.8198 96.2393 3.16107
8.96616 107.508 -1.60177
11.5712 123.477 11.5036
9.91018 118.434 8.16574
9.33322 98.0727 12.5683
8.2473 93.6296 11.2744
3.71394 115.195 8.50954
-12.5639 75.4335 4.89731
9.17453 93.597 -4.65201
-17.1037 82.0432 1.80548
20.3459 131.041 6.05841
-1.00627 108.887 8.57686
0.631784 125.929 7.50637
12.2664 141.341 6.95392
-11.5262 115.307 10.6331
6.24453 127.158 5.49396
2.17566 104.809 6.98151
2.82403 99.2116 -3.96379
-15.9198 83.1206 3.71255
-12.7839 80.9803 5.2959
4.95868 94.2533 2.09249
20.2158 124.56 -2.86349
-8.78316 93.1035 7.64911
3.061 92.1748 2.49705
8.71622 102.608 2.599
12.4914 91.9813 -2.20268
-7.53748 83.6219 -4.02676
7.65101 107.757 -3.987
-10.7172 115.376 10.5713
7.95697 81.9359 -2.81618
-11.158 90.1308 5.99755
-11.8242 107.901 10.4566
7.20336 84.426 3.96352
14.0647 119.064 0.506142
16.6689 114.853 7.48165
19.8236 107.984 9.90709
21.335 124.588 0.241301
18.3557 105.142 12.9279
22.6394 78.4726 9.62773
19.1816 130.876 7.74802
16.4062 116.179 4.20427
0.00374134 101.954 8.28538
19.6092 111.468 9.13342
1.0164 82.4394 -3.71387
1.42577 82.4408 -3.68286
11.521 129.745 9.25278
19.9604 124.43 3.85203
13.4388 127.028 3.19732
9.19139 112.145 2.19866
9.06677 120.001 10.7432
-0.355429 79.8379 0.375771
1.5922 79.151 -3.68655
21.0453 94.4608 11.7065
18.1162 109.077 4.15534
20.5513 87.3954 10.3818
0.850544 83.7523 5.7787
-11.1002 90.9774 6.25477
8.62951 121.023 1.69695
18.9166 123.62 6.54374
0.493088 83.3674 5.98832
15.542 129.078 3.99486
18.7804 96.9226 4.84932
-5.50787 81.7776 -3.37663
12.5104 80.6891 10.4564
20.4991 127.696 7.95921
16.0366 114.358 -2.06413
-12.5353 89.0037 5.49194
11.1842 89.3918 12.3883
11.9167 81.9088 10.8233
16.5061 140.651 4.72492
20.1787 104.478 11.5434
16.7591 118.552 2.95772
17.247 112.981 -0.478881
20.2798 85.2189 9.90559
2.78661 114.645 9.0686
-9.66339 83.0848 6.55609
10.2799 110.072 5.73506
13.4504 122.425 -1.7175
10.7651 102.932 14.0911
3.81354 102.268 2.70141
1.26526 82.5641 2.19259
1.73225 129.347 9.06217
17.9524 122.264 1.9874
9.79291 127.547 7.54418
20.5272 122.61 1.25131
8.39302 88.0701 -3.39214
13.1655 124.46 -1.27936
4.50222 86.5359 2.3413
15.8521 97.9651 13.631
9.84698 119.154 2.30245
10.945 95.6713 12.7702
19.7122 103.39 6.02799
4.82712 95.7266 -4.81685
7.88721 116.228 1.65047
21.4682 122.579 4.03662
17.2661 113.602 2.26905
11.0884 126.373 3.43865
-11.9652 100.873 9.68547
18.045 113.939 7.11835
21.0705 140.697 1.45775
-14.9403 92.0633 5.43353
21.6302 123.704 -0.00399914
16.6761 123.386 1.30695
8.34869 98.8561 -2.12744
-3.44895 98.8492 9.49886
10.6918 88.2539 11.6501
5.67448 118.036 0.455657
14.0215 87.4387 -2.50228
-3.95881 77.1721 4.63966
13.4657 114.838 -2.11261
13.8544 88.6028 -0.514991
1.66476 111.326 8.96605
-9.33345 101.955 10.8993
20.1587 95.3753 8.40169
11.1083 97.8519 1.25011
18.7199 121.201 4.70807
6.02164 95.7115 -5.51689
-11.513 105.901 10.4831
-16.5279 89.2284 3.97337
9.38647 88.7698 -3.42693
15.7816 142.402 5.00991
-0.947052 89.7287 -3.35051
17.0393 122.83 2.9126
8.33234 95.9353 -3.30141
16.0392 94.3957 5.24021
7.36625 91.5735 8.24309
-5.8805 82.2369 -3.22401
11.2575 106.175 13.7858
10.2804 119.885 12.4901
5.03825 132.914 7.12498
-15.3669 78.6151 3.4652
0.763646 85.079 6.8406
19.271 88.2694 12.3841
14.072 81.9958 -1.01535
15.3219 133.171 8.13664
-7.31742 80.7065 7.03119
20.4562 122.102 6.76387
-12.8819 73.3545 4.22177
8.05077 95.6694 -3.94692
22.5443 133.067 -1.34582
3.43781 89.9289 3.08754
11.5552 79.9318 8.35688
1.40996 87.8671 5.77922
7.54718 103.96 1.88072
-13.801 91.439 6.29874
9.28055 125.79 9.28531
-1.92993 86.1227 8.93038
-2.52204 93.1292 9.68247
20.2302 103.977 11.5342
18.53 107.372 5.03328
-12.0155 80.0299 5.52349
-0.402353 88.6463 -2.76122
3.57277 82.9699 1.49362
16.8891 80.9766 11.6395
22.3257 133.933 0.771894
0.551957 104.631 7.44131
0.817795 83.351 0.952534
9.74383 105.15 6.26232
16.9105 121.117 -0.647238
15.0073 114.98 4.29374
9.90699 93.6175 -3.46495
-6.14116 102.139 9.1821
-1.958 89.2436 -3.65845
2.22914 92.5309 -4.25937
7.45135 95.7441 -5.26698
9.31155 81.7677 8.7136
5.55006 87.5809 -2.91462
13.8296 139.874 6.90062
5.67793 120.839 3.60684
17.8086 123.687 2.59975
-7.24392 92.3688 9.09105
21.4755 80.8274 12.273
-1.58475 90.642 7.78945
11.2373 104.588 -1.2491
-8.94284 111.356 9.98794
21.6761 125.258 2.78668
-7.39903 83.2734 -3.63957
-1.60043 82.9315 8.1085
2.29148 86.9422 5.67364
1.60624 105.429 7.38129
4.16322 90.4275 -5.05067
-1.2135 100.82 8.64477
9.31841 123.358 10.6417
21.0134 123.205 3.86458
17.0597 106.568 -0.563079
-0.410711 77.1683 1.73198
12.5972 99.7081 -0.603086
4.17784 121.267 8.15189
-2.89688 92.5169 8.93413
7.74739 118.361 -0.228201
-7.7488 117.54 9.3177
18.0694 81.5141 3.55095
17.855 79.2963 1.01564
-0.209791 109.441 8.71633
17.9919 126.961 7.38432
16.7624 92.7532 13.5845
-15.3182 74.2369 3.85071
-17.3032 78.1259 1.06534
19.581 130.747 7.44918
1.87788 110.393 8.88966
11.7491 99.7823 -1.452
8.33267 109.506 -1.15488
14.4634 119.18 12.471
16.4277 137.467 5.06982
-3.24 121.981 9.4777
-8.0426 94.4952 9.12951
-10.8104 99.6761 10.2391
22.1717 96.535 10.7608
8.48183 103.123 7.91881
2.57238 94.0333 6.42339
18.5596 135.177 4.89342
3.72087 96.5673 6.4673
8.85467 87.4518 -2.70576
6.93607 89.725 -4.52459
21.1816 82.8002 10.2991
-13.0614 83.1708 5.56828
17.8502 142.943 4.2838
-7.38949 80.7475 -4.12549
15.0998 120.116 0.995982
4.51117 87.1326 -2.2741
17.9137 102.118 13.267
15.2874 124.666 5.70234
20.8498 121.757 4.2537
-8.98263 91.9904 7.17391
2.94539 90.0759 3.57542
7.61247 97.0352 -3.6335
-4.76194 92.435 10.9873
14.0444 116.609 -1.37652
-5.40947 99.457 9.6535
2.4584 98.5994 2.74335
-15.6077 87.897 4.83292
-16.8698 76.2328 1.57766
11.8276 137.96 7.50634
18.9358 121.81 0.58954
6.29131 90.3637 6.43638
-12.6813 103.831 9.72107
22.4823 125.262 -0.997102
-7.52076 109.619 9.91274
0.537062 85.0888 7.20963
-4.54717 111.392 8.60869
5.697 97.1435 1.98741
13.1729 100.259 -0.190197
14.7978 80.2501 11.0882
9.64414 107.135 10.2416
18.6611 120.528 6.2354
7.49903 113.307 1.51645
5.22084 122.259 6.53788
23.2792 77.698 11.4147
-3.27799 108.848 8.62371
19.4017 102.524 7.54272
4.14534 88.1713 3.27849
5.48258 95.5812 -5.25716
18.6914 90.9191 12.9681
18.3957 83.2746 7.70553
14.1174 116.612 -1.19454
8.00987 103.069 8.76865
-11.3502 116.414 10.7118
12.9609 129.624 1.65591
-0.26208 94.2118 -3.51024
16.9014 116.644 8.56422
15.5868 125.804 7.99715
-7.21703 110.051 9.66161
-11.1397 78.6231 -2.44593
10.6522 133.653 8.19967
19.2408 86.8982 8.35426
4.57562 86.2074 2.61919
0.0514037 105.046 7.49163
0.272502 78.7804 -4.72491
18.2771 121.324 7.08344
-6.84742 105.414 9.34884
20.326 89.1427 9.49409
17.4173 132.627 7.50689
12.1822 100.276 14.0577
-12.8115 75.814 4.92412
5.96201 109.241 1.85679
10.1923 108.496 7.03703
21.0145 90.0932 11.7339
8.45274 96.6454 11.0588
17.9786 109.68 3.55251
5.82535 102.083 2.21111
4.97972 78.3538 -3.59308
3.81827 114.489 8.0068
-2.01998 86.675 9.49314
7.26918 130.64 4.97751
-6.12122 78.4819 7.08331
1.44733 80.1962 0.433353
20.876 122.216 3.30387
-2.14738 93.2922 7.87992
6.05469 84.3668 1.74544
17.6926 120.904 -0.495237
9.02515 123.923 9.21721
8.79414 102.8 3.5612
4.83874 87.28 3.12923
16.4943 125.513 0.898674
6.92171 115.689 0.449251
1.64968 86.4373 1.48859
10.5023 92.0089 -4.28979
9.83426 100.344 -2.39499
-12.113 114.446 10.3352
19.8621 92.0758 7.45934
-11.1684 97.0272 8.97493
14.6263 120.457 -1.60479
14.8301 111.381 -1.22013
18.2793 123.99 6.03891
11.1095 123.619 4.42926
15.2059 127.961 1.92198
6.67584 112.273 -1.11235
10.1078 102.818 -3.6624
12.594 103.051 -1.68353
7.9213 103.315 -5.5989
14.4896 116.575 2.6759
14.8348 119.319 -1.04844
21.5053 131.806 3.43992
18.4137 105.04 0.0631246
10.1242 103.241 -3.28543
-12.5614 78.1713 4.22998
9.01116 83.8618 -3.45442
6.38509 126.974 4.92173
9.87614 105.359 -2.05963
0.415543 86.0323 7.30159
5.98516 126.452 5.56267
23.1196 83.6037 11.8035
12.7234 94.0191 2.8822
-2.03529 125.203 8.76933
-16.5499 75.752 0.963698
14.6922 95.3339 3.88067
7.73593 86.3207 6.73893
20.7508 126.353 3.21997
20.7301 83.2194 10.1885
18.5486 113.197 4.58352
1.98733 90.9171 3.22084
19.9966 93.6246 6.80639
8.90848 104.255 2.65557
3.79393 94.0458 -4.30873
20.0638 107.736 8.57042
-7.06177 87.0337 6.88783
-13.1849 96.2247 7.15244
8.4343 103.656 12.0764
16.7118 128.252 1.00089
19.5257 123.108 2.52853
17.9104 109.751 3.32563
-0.868213 78.1438 1.13721
18.9173 112.049 4.27939
16.7434 117.085 8.82555
16.6077 81.2189 11.699
15.1851 128.122 4.43691
-4.79524 106.483 8.84891
15.6939 124.102 4.8228
5.79794 98.5548 4.95225
-4.8802 122.389 9.4459
8.85005 84.1118 8.38155
3.66064 88.7724 5.60099
3.28591 125.305 8.8572
21.8302 126.713 6.21509
13.266 126.089 0.926711
17.9064 126.289 7.58291
8.51613 81.1022 5.58154
2.64769 98.3113 -3.93547
9.38298 121.65 8.85934
6.73161 88.3806 -3.91197
14.6245 124.538 3.36359
13.7974 101.154 -0.778066
10.0302 106.567 8.59927
0.770051 79.697 -3.37899
17.1115 113.922 9.74688
17.2583 122.406 4.40274
16.666 109.209 13.0973
21.6223 139.866 0.0479693
8.65447 88.1827 8.78408
7.13363 108.651 -3.09805
18.9637 123.451 6.47628
17.885 121.864 7.62149
16.1034 130.903 1.99114
13.9228 87.6144 -1.109
10.2208 118.687 12.6415
10.0199 78.9616 6.15947
-9.5832 75.2413 5.34101
21.2598 138.531 -0.953892
4.33908 78.3515 -3.72432
1.24408 92.7547 -4.16024
6.80871 85.8448 2.91948
3.51751 87.8224 3.29159
9.02582 94.5537 12.0127
15.8254 128.958 6.99167
14.5685 115.644 2.81172
18.9379 89.5618 7.45775
18.0407 98.7653 13.2044
20.4014 120.705 2.48153
18.8335 85.3593 8.81011
15.4605 114.662 -0.372762
11.87 83.0687 -4.91357
16.3836 89.9224 4.27334
8.55161 108.797 -1.2939
0.695531 86.5961 -2.64095
20.3778 125.871 -3.92401
23.3322 77.5241 11.5784
3.42793 121.182 8.99426
10.5994 123.256 6.17549
10.3202 128.436 6.29798
9.22406 82.6981 10.0244
10.2024 109.312 0.162727
3.61267 86.2303 3.17853
5.00071 94.067 -5.17883
18.4261 118.713 6.14223
20.0332 136.755 3.3412
17.8589 86.9441 12.8001
16.0347 110.828 -1.50747
4.74053 129.485 7.57749
16.9524 79.6561 -0.107548
0.215796 85.1761 -1.82801
8.9013 110.605 -0.204721
12.2987 113.498 -1.02128
17.3313 122.584 3.0007
6.2839 103.544 -4.55311
-11.0752 115.531 10.8458
10.8006 81.0327 9.40567
3.85193 113.985 7.40286
-16.8181 76.0994 1.93508
-12.9932 108.567 9.91725
8.04248 83.4624 4.32019
17.153 123.923 6.42574
19.8941 103.221 5.43785
18.6048 121.921 5.12973
4.38092 96.7229 1.63823
19.132 109.634 5.67062
8.77608 112.023 2.04605
-7.33791 106.268 9.7619
11.3013 89.23 -2.12683
0.0911269 128.701 8.11538
10.3067 122.475 2.52357
9.35095 89.8042 -3.96861
6.09906 100.253 10.4432
2.17648 89.3165 3.37732
-5.83793 80.965 -5.74704
-0.630047 118.713 8.85948
7.16426 85.4065 4.52501
4.40261 95.1607 -4.59712
-6.9514 101.625 10.0132
15.8886 77.9596 10.1141
12.763 128.497 2.16561
-17.8135 78.9833 0.578654
21.7876 100.029 10.2738
16.5732 117.446 8.88713
19.511 94.836 12.6043
0.981346 105.828 7.66752
15.0919 121.406 9.97602
0.673071 89.4918 3.13872
9.29488 117.703 11.6854
4.91666 94.3519 8.70812
-3.93172 89.9419 10.1684
17.8152 126.73 5.66036
20.3652 88.4787 9.59625
15.256 118.533 8.72819
17.6016 123.384 4.25465
21.3481 122.542 4.26046
4.72635 116.756 6.61137
13.5631 122.297 11.2435
17.7824 117.891 4.99805
3.44018 92.8697 3.46291
18.3678 124.168 6.67372
9.53815 127.288 1.62457
-2.77526 91.9685 9.31824
15.4007 97.8134 13.7734
20.0201 93.5451 12.2594
21.4877 122.327 1.32816
11.0183 90.7386 -3.28394
6.51213 84.4488 2.53271
22.9309 132.472 -0.854234
-6.9121 92.5094 9.58039
10.4111 91.2365 12.1152
4.48763 108.745 4.91784
9.43382 81.254 -3.67309
-16.3638 83.7315 3.535
16.639 124.506 3.82984
0.737264 99.6302 8.36063
15.0686 93.8053 3.72969
16.8491 111.797 -1.21648
21.833 83.8127 11.0403
12.8103 99.4596 0.95638
2.13641 84.457 4.23247
-2.17969 125.509 8.71324
10.0639 107.768 5.63225
18.619 112.814 6.52796
-7.1464 100.997 10.2621
19.6795 111.582 5.31389
15.8029 139.587 5.08093
16.2776 122.795 -2.02365
1.69439 83.219 4.3794
13.3164 93.13 14.2015
18.143 86.259 12.6663
1.35734 87.8972 -3.23361
-9.80559 79.8907 6.46809
1.71442 89.3175 2.6364
20.7532 94.9959 9.92896
22.6215 82.0669 11.3064
9.31567 129.792 8.32646
5.18863 97.7125 -4.30842
20.4382 90.5258 10.2673
8.88757 98.6997 -1.4127
12.0487 139.489 5.59454
20.1563 131.774 4.91704
15.4144 92.8075 3.82503
18.0403 113.746 6.3801
-10.827 78.8468 -2.42492
-12.9322 106.83 9.79211
4.86141 91.9223 -5.26608
10.8226 135.651 6.1917
13.6431 89.4483 -0.0238948
5.30253 122.375 6.0252
3.75403 88.3289 3.42043
12.646 113.583 -1.92184
17.6978 111.442 12.3994
19.1062 132.337 5.11764
14.7303 82.2616 11.8637
10.0894 80.8079 7.9491
-14.5887 91.4502 5.60908
19.6249 111.5 10.0996
1.22224 89.3508 3.60369
-2.36642 88.2178 9.32214
17.0015 94.8355 5.11767
-8.05487 86.1515 6.94399
-3.25261 88.9956 10.4124
10.2978 96.9814 12.3428
-5.54108 90.8574 9.70515
-5.42642 122.846 9.64076
6.43535 120.321 1.12751
5.1294 119.369 4.98126
23.8535 127.757 -2.65575
19.1317 85.8127 12.3462
13.6436 77.6759 7.84598
22.1608 126.784 -4.34269
-10.6889 78.8617 6.0903
9.13142 79.8033 5.94387
14.6217 81.8567 11.7148
7.6824 104.76 1.84108
2.04095 104.689 6.9377
8.70832 83.4569 9.00695
3.88475 91.7126 -4.63277
4.99513 97.1069 4.76453
6.97139 105.516 1.59784
17.3864 123.681 6.02735
4.41314 131.457 7.59836
12.8561 127.737 9.41897
20.291 131.586 -2.85853
15.2943 132.775 8.16238
21.2476 132.724 1.28933
-14.4236 94.7803 5.94211
20.7164 79.0143 7.17825
16.6914 85.0922 4.53524
16.4726 78.1743 10.6284
3.47844 94.9128 7.6688
-9.15183 79.1235 6.64245
21.6457 133.314 1.1161
-1.4687 80.5644 6.31827
13.0585 134.39 8.7585
18.3348 124.241 7.4505
20.1331 97.8315 5.98974
-8.2614 91.9264 7.45281
12.9683 92.5004 14.0237
-3.97661 86.8436 -5.1095
5.74016 97.2434 4.13786
15.1442 124.648 -1.28327
21.5018 121.447 0.597086
0.501379 106.198 7.9742
10.828 103.275 14.3326
3.12687 122.906 9.0104
19.3951 112.42 10.5916
17.97 83.8331 5.39706
-7.03633 77.0371 6.58334
6.03197 121.581 3.27268
18.3369 91.3925 6.34186
5.3327 84.5548 3.88342
10.1703 102.317 -3.99585
7.80306 84.476 6.37289
13.3266 93.8979 3.13267
14.942 127.522 1.56238
-0.0947309 90.8142 3.93747
-5.15644 99.2454 9.65503
14.6026 125.21 9.25389
6.70688 94.7551 -6.09266
12.9103 116.626 -3.69143
6.49519 110.931 -2.13327
8.71587 92.5687 11.2174
18.1819 122.088 1.9614
5.2466 124.9 6.95594
16.5799 120.156 8.03321
12.4227 117.431 -3.22763
-3.67993 82.8833 8.32263
11.0132 102.288 -2.86706
0.0273912 93.399 5.00351
1.60814 80.491 0.760245
18.6682 83.4562 8.22373
-2.87853 114.373 9.31299
13.1877 79.4985 9.79926
6.03282 123.067 3.5332
10.9041 122.293 4.23134
5.49402 121.553 4.15774
-0.264207 77.7631 1.9394
2.74135 83.1652 1.44918
20.3805 106.19 10.8891
17.7927 109.901 12.483
18.0718 109.19 3.77376
4.25288 85.8926 2.81967
13.2452 123.292 -2.13202
15.2811 120.478 0.948756
20.0997 103.386 11.8797
17.0028 123.802 5.78857
7.31671 101.516 7.16046
10.1083 113.177 3.60085
19.1014 122.571 6.02726
19.3003 78.5048 3.7716
21.0284 142.286 0.0955241
19.9076 120.973 2.64519
-4.58529 100.599 9.14181
22.4318 124.543 1.81465
13.7199 88.8881 2.43898
19.8078 96.4162 5.21186
5.59812 87.005 4.22588
0.928552 94.2268 3.84003
17.0964 139.9 4.56338
10.3057 110.116 6.19419
9.58211 106.696 -1.50718
14.5788 141.201 5.50477
13.2282 88.7047 13.3952
12.6963 129.629 0.286174
-1.69128 88.9971 -3.45228
21.2447 132.507 1.48846
-2.02086 115.145 9.60111
5.91595 103.441 -4.61872
-12.4796 79.6231 5.43431
8.71639 80.8976 -2.56699
13.2394 129.79 1.08164
-13.6297 106.172 8.79424
2.49973 129.24 9.01497
18.1648 123.112 3.88078
6.57477 125.075 3.28892
-7.71373 117.886 9.26494
10.4857 87.4981 11.0538
16.355 124.553 0.588511
14.7615 89.3389 13.455
21.3989 84.1856 12.2584
16.3318 91.3586 13.5485
6.08858 95.9085 -5.50797
3.68829 85.9227 3.00247
8.08433 82.032 5.02444
7.5137 86.4161 2.26425
13.1705 129.552 1.24345
10.3168 82.1087 10.3748
20.8841 91.0232 10.4249
19.752 91.9505 7.33589
-5.80517 80.8616 7.21865
-0.290902 79.9366 0.400685
13.3005 78.5876 8.66226
-12.5562 91.0454 6.1564
-0.17905 94.0003 -3.32831
-3.66455 85.9531 8.32329
9.28628 81.6497 5.16958
14.0845 133.924 8.48588
3.87379 88.0596 5.17512
-14.0588 98.2197 7.54438
-12.2493 93.6324 6.98138
7.8363 99.2386 11.7588
-7.79019 101.123 10.8858
6.32427 124.91 3.77342
-14.8232 78.7663 3.8236
17.9409 123.782 7.82491
18.2323 108.538 4.87986
13.3655 121.665 -1.33155
-14.6288 75.3603 -1.08664
18.5086 122.03 5.47636
17.5832 113.73 4.80825
-12.8035 84.7397 5.54536
-3.56607 86.0692 8.482
4.60891 87.3804 3.88688
6.60937 101.121 -5.67639
8.13861 119.904 -0.206814
20.4367 121.848 5.70661
14.2364 97.137 14.1969
4.86323 87.0898 -2.20335
6.21166 95.7573 2.62019
10.0757 116.38 2.99559
8.92106 81.709 -2.95848
5.10624 99.4159 8.92365
11.6122 138.11 5.49031
-9.11989 114.097 9.47215
20.3424 99.2271 7.03029
19.918 97.292 5.04842
14.4985 140.28 6.0131
20.1638 81.3674 7.87805
-4.72664 77.9383 7.12332
10.0079 124.784 10.6241
18.9442 96.6604 12.978
11.1999 127.088 5.0907
-14.5007 88.6684 5.32981
13.217 142.67 5.7891
21.4024 125.807 5.0142
-0.370524 94.703 8.3563
-1.88683 77.5419 3.61192
-2.46199 125.684 8.73012
13.2857 98.2468 13.9537
17.8377 90.6103 13.1262
12.2599 111.431 0.233924
14.8149 122.67 -2.15472
20.5451 123.313 4.01206
-0.269176 93.3016 5.42532
-15.0141 82.4839 4.55227
20.936 125.83 3.3538
2.35129 83.2043 1.4144
20.488 93.137 8.19879
18.0617 108.897 1.43263
13.2082 89.7579 13.7061
-0.70685 88.8874 8.42703
-15.7585 79.3366 3.62646
6.44609 85.8741 2.18769
18.6008 121.325 4.52949
16.5224 121.712 8.61994
13.1277 143.333 5.58024
18.5276 107.492 12.5872
7.28532 101.62 7.4004
3.77199 116.595 8.65693
18.5694 76.8007 10.8127
16.1993 126.81 5.1124
-6.76026 94.4146 10.8947
-16.3985 84.5573 3.94168
18.9767 121.201 5.45913
7.60615 107.864 -3.17633
12.0064 89.4242 13.424
13.1366 97.5093 14.1677
2.88666 91.2294 3.16641
9.14309 120.216 11.0307
10.2934 109.737 6.16166
19.7425 125.617 -4.74607
15.7276 124.131 5.75139
19.5418 125.054 -5.88165
20.8265 125.764 4.07394
-2.91193 77.0318 3.55523
3.62578 93.6823 -4.2179
-15.4625 76.2474 -2.04414
19.5669 120.636 -0.109719
-16.4272 80.064 3.45341
21.3848 100.422 10.8248
0.834238 109.169 8.71436
19.7287 88.8318 7.9142
10.1708 118.672 7.56519
14.7773 80.6774 11.2823
12.7037 91.1183 1.98267
12.9087 90.1976 0.411661
15.0987 86.0988 13.1106
7.79872 120.819 0.39826
13.3685 115.341 -2.51759
15.3162 129.253 -0.717989
14.7207 124.872 -0.501676
18.2234 108.313 4.5292
-7.98357 80.8689 -4.92488
-9.79845 112.721 9.737
1.31794 88.3824 3.31901
-3.71529 91.5314 11.1378
17.5916 125.081 2.0952
14.7205 126.362 8.30119
2.84784 92.4746 1.24916
21.8189 85.2558 11.2706
4.33869 92.514 -4.83735
11.6995 126.697 9.93592
8.22158 100.976 4.12041
16.7409 121.637 8.40271
19.5881 102.318 8.63155
4.00981 122.591 8.41045
16.1727 113.693 2.66931
20.2236 138.106 3.23386
12.1039 92.4034 -1.64346
-5.31193 78.2149 7.12097
17.7733 111.454 3.17809
2.97663 87.7812 2.75561
2.65361 121.365 8.94316
12.963 110.478 0.0779429
-1.75578 101.244 8.46788
17.7519 106.846 13.0653
4.6845 109.783 3.81127
14.4093 114.957 3.13172
10.2932 128.207 9.93878
15.2797 101.836 0.498753
-9.9626 102.342 10.8026
-6.63473 118.894 9.28342
4.67083 112.543 3.64544
0.520161 89.375 3.34558
14.9456 86.1684 -1.24912
1.02825 128.866 8.5754
11.2519 134.211 3.40327
21.003 105.248 10.1593
17.1186 117.159 10.8161
15.2822 80.7896 0.66211
19.9345 123.763 -2.94843
19.6775 83.2327 9.58304
12.2439 140.385 5.38003
14.4096 79.0708 10.3381
2.53104 99.5192 -4.67619
18.6381 124.58 6.6614
-6.92663 101.981 9.96092
2.22413 93.4403 5.82576
16.683 138.732 4.84068
19.5111 111.919 9.95795
13.97 120.032 10.6463
-17.1936 77.2981 2.18954
21.483 123.917 -0.102486
14.5097 126.853 -0.141338
12.9818 129.783 1.59801
7.69003 99.8763 3.30914
5.27139 119.949 4.14523
19.0309 94.5883 12.8078
10.3195 94.3878 -2.26102
3.57922 105.071 6.75422
-8.23551 86.3742 6.88063
10.0423 81.9773 10.111
14.1963 142.068 5.56165
15.7897 99.1067 13.8099
0.571047 96.1168 -3.8318
18.9705 81.6536 4.15897
12.6603 82.5302 -3.3036
18.9022 112.386 4.08119
2.10824 85.6103 4.40232
7.81971 87.4637 7.68403
13.219 129.384 9.08474
0.3699 81.4753 -3.65411
7.54439 99.0856 -3.9
13.6882 119.445 12.8376
4.78732 85.8118 3.74009
6.67715 86.5366 1.85188
9.93931 106.502 5.45967
12.8642 90.0908 -2.41814
15.7439 96.7124 4.11452
21.8757 126.818 -4.61034
-0.984811 80.2865 0.915682
15.4729 131.698 0.883887
1.34414 118.739 8.63856
20.2396 78.9102 7.02871
-8.13192 94.5175 9.0439
-13.2743 101.555 8.84712
-3.00767 125.301 9.10216
16.4355 109.75 -0.782634
7.62611 97.8864 11.3174
17.5459 83.9803 4.14327
4.80315 97.7874 5.66521
10.4503 120.839 2.91531
1.01555 97.4918 -4.11701
10.6463 121.702 3.38289
8.80675 103.658 7.95141
-16.9259 77.3288 3.33495
3.96107 86.4975 3.70871
1.76708 89.6587 1.21699
5.37582 94.7307 1.92053
21.9299 127.594 -2.20499
13.0627 115.892 -3.28119
9.08088 115.958 11.5201
5.88833 90.0842 -4.79308
18.4999 77.9493 11.1292
5.55548 87.3108 4.44917
17.9269 82.9053 12.4591
20.3299 90.2379 11.9872
12.2035 86.1231 -3.02327
15.3739 99.2256 2.56607
17.667 114.414 10.8255
20.0182 88.3448 12.1019
-0.378468 87.5776 -2.52108
3.00857 99.4801 -4.05298
6.58313 81.938 5.14133
-4.03656 121.957 9.34329
4.48057 124.819 8.08334
21.3113 90.6566 10.5399
8.59062 81.7377 7.98389
9.37645 104.948 3.83623
1.5202 96.0235 3.08083
0.236919 111.524 8.78556
5.0862 92.4151 7.77237
14.2738 105.968 -0.267661
-15.8428 89.2526 4.54864
4.14839 109.997 6.36772
14.1932 92.6225 3.26353
19.9093 142.529 2.16267
1.84715 92.3401 -4.24013
14.8822 128.77 8.84836
-6.08258 96.5346 10.5007
-14.5922 74.9877 1.72503
1.34741 123.727 8.12604
-4.25837 83.3301 8.14548
-11.1599 97.9598 9.40845
3.28631 90.5398 2.34228
0.937701 99.1523 7.03225
-2.8542 82.1714 8.13944
9.90576 132.208 7.27846
0.704571 105.291 7.38527
0.84493 84.9108 6.57489
20.8844 126.255 -4.48212
-11.8551 113.404 10.5028
-1.09001 90.3049 5.86081
13.729 130.399 1.41527
9.78427 79.072 5.98774
0.146846 83.5153 -3.13747
-16.6486 76.1606 0.720517
17.3362 116.905 6.84461
-9.53694 90.7101 6.55742
18.7379 121.91 5.57725
14.4599 127.44 8.89965
15.9361 134.484 7.22607
18.0269 109.107 1.10699
-6.64682 85.0076 7.45163
11.7035 138.437 5.58987
12.3287 86.5229 12.6408
20.2471 108.268 7.71706
7.04719 91.9443 8.10698
-2.10369 104.695 8.25545
19.9996 122.54 5.30398
12.18 94.718 13.6955
11.2241 126.44 4.75888
-12.3211 103.541 9.91617
7.68001 88.5944 7.769
9.23242 105.326 3.41153
0.748922 83.1724 -3.77492
-15.407 92.1882 4.8906
-1.49328 78.9032 4.75768
15.8909 98.9737 13.7551
19.428 137.25 3.51079
22.1911 136.692 0.469611
21.7374 84.6695 12.2193
11.4805 102.585 -2.13229
15.9738 127.795 0.20435
8.73583 96.4596 -2.18207
10.8315 121.809 4.21099
22.2193 127.404 -2.84777
14.2785 101.699 -0.804833
10.4112 112.083 5.95024
21.4116 136.908 -0.195136
6.88977 118.844 0.474584
20.8246 129.894 6.70291
-6.55374 81.3548 -3.48426
10.68 124.204 10.6201
2.1173 84.6673 4.09349
7.10862 100.242 10.8951
19.1819 123.114 6.17407
-12.4678 111.689 10.7624
13.8553 119.554 -3.08155
-6.85447 113.027 9.32204
-1.13867 90.2907 -3.69638
