ply
format ascii 1.0
comment Created by Open3D
element vertex 1913
property double x
property double y
property double z
end_header
-18.3197 124.292 -5.88294
-19.462 97.0156 0.455096
5.31615 140.933 -9.76228
-32.1727 125.586 -0.823225
8.3474 133.68 -1.03466
-12.7883 104.752 4.69023
16.618 88.2706 -25.6008
4.98429 124.679 -13.5634
-8.00665 91.278 -19.2652
14.1912 127.839 -12.3944
-11.5422 126.565 5.41049
-3.96557 129.649 -7.94368
-14.8113 86.4839 1.10338
17.248 118.746 1.59766
21.2796 127.575 -1.91567
-22.5455 124.716 0.270641
-24.6187 128.324 2.75648
-0.785474 152.59 -3.05856
-11.7316 116.313 -13.5542
1.67872 81.8873 -4.28896
7.82318 129.647 -1.29539
17.7585 121.727 -7.7266
25.4266 83.023 -13.434
9.13313 83.6065 -26.1715
13.5035 143.379 2.0065
-5.63428 125.188 4.53992
23.1334 126.008 -3.3396
13.172 136.111 -13.7381
-25.0117 121.518 -3.25055
-12.3178 134.48 3.17197
26.6755 80.8172 -14.6386
-13.8816 148.979 -0.23998
9.10139 99.2612 -23.1642
14.7347 85.5386 -26.2715
15.2436 125.978 -14.4224
24.4079 127.901 -10.6467
0.453849 142.192 -6.15732
-17.6928 126.373 -8.26747
25.0823 130.484 -9.79363
20.0213 78.4144 -14.8503
13.3456 124.488 -17.4656
0.440137 128.34 4.48976
-0.122804 75.1298 -4.83325
5.68605 153.702 -2.27803
-21.3581 98.2936 -0.288004
-16.3939 125.872 2.72879
-6.61476 129.322 -8.76572
11.1561 110.296 -1.77054
-4.89508 153.257 -2.3561
-21.2061 98.4696 -13.7551
-19.674 143.82 4.28587
-8.93671 88.0325 -18.9122
19.2983 124.384 -5.60519
-11.5589 101.317 4.33802
-5.45935 147.571 -5.09881
-16.692 125.985 -7.97225
-18.3921 124.287 -6.05828
-27.6489 127.63 -6.22312
14.4204 138.335 -12.1977
6.55827 89.5759 -0.412573
11.8709 107.992 -21.2941
-26.303 129.118 -5.69985
11.4396 145.902 -8.38795
-3.52059 109.513 -19.1987
-15.1333 141.006 -2.70787
24.5741 80.8462 -22.2326
19.1832 139.233 -8.50007
25.5685 124.814 -5.46681
-21.714 115.599 -2.1748
11.4205 145.31 -8.69921
19.4026 140.251 -7.32392
14.3128 120.433 -12.8062
-13.2291 103.444 -16.5721
6.86022 117.627 -18.3634
18.4001 126.041 -14.0106
-4.76088 144.765 -5.2516
22.7975 81.8667 -12.4663
-22.9361 124.148 -0.107717
19.2175 122.65 -4.5414
-22.5207 101.966 -7.81623
18.0844 124.316 -12.0971
-22.8177 118.592 -2.99719
10.4881 152.053 -1.57002
4.5041 142.711 3.00201
-19.3519 128.118 -4.9984
18.4049 142.918 -5.57561
12.6481 126.139 0.207948
-5.17048 129.197 -8.3758
-14.6287 92.8219 -17.1481
24.2355 99.19 -13.0675
0.624481 93.1178 -1.01381
-7.4437 141.472 2.74794
15.4559 132.25 -13.3357
-10.8957 92.3184 4.76069
-14.8456 122.089 7.0248
8.74016 88.8894 -1.59539
22.22 126.281 -2.66109
22.6724 104.933 -6.91924
17.1275 92.5496 -24.6484
-33.3269 122.692 0.347595
-8.98408 96.5388 -16.9789
-6.66521 114.993 6.24873
10.8946 106.931 -1.80345
-16.687 140.315 4.9929
-14.4267 114.105 6.33768
-3.05072 97.394 1.88436
-25.4885 124.843 -0.00588566
0.0706889 139.88 -5.86214
0.08839 117.547 -17.4722
3.1585 77.4493 -7.12013
13.6823 126.406 -5.81383
-12.3003 111.892 5.73662
-4.0469 83.4248 -1.49156
17.3198 123.875 -12.4483
-16.747 92.2125 0.459354
-0.791774 97.1355 -19.0394
0.59468 151.389 -3.80589
-5.18463 145.593 -5.22844
-3.63324 123.776 -10.0435
-2.91494 81.8557 -2.26575
12.9102 134.023 2.68961
-7.94707 139.767 -8.45491
-13.4768 87.3576 2.64577
6.94001 99.2717 -1.82994
-20.1559 125.844 1.8237
12.8402 114.874 -0.232525
10.9213 117.035 -19.0987
6.18955 155.213 -0.412278
-8.24275 135.824 -9.26094
-2.6523 116.52 5.72704
11.5653 133.793 -15.513
19.4716 114.121 -1.08398
10.9043 150.567 1.07366
-7.70399 114.835 -13.7643
-20.0845 117.985 -11.6722
21.4692 91.8951 -19.394
-32.787 121.944 0.11878
-21.7129 120.461 -4.63195
-2.95651 91.2916 0.331601
-17.7171 121.254 5.74305
15.1636 125.994 -11.952
8.37653 103.075 -22.7129
-22.0178 119.081 0.682379
15.5561 117.403 -12.2506
19.2399 102.604 -1.69419
-20.6375 103.094 -1.53267
17.5277 121.253 -11.5117
17.1528 114.732 -17.7735
-20.2198 108.759 2.77642
12.839 91.6091 -2.57258
-4.20217 98.7004 -17.6507
16.2366 145.401 -2.49885
8.12158 134.204 -13.1471
-15.0283 112.058 -14.8418
-19.4114 100.853 2.85729
-12.7022 104.84 -16.1116
1.22851 135.938 -7.17985
-23.106 114.112 -5.72576
7.31043 134.575 -12.558
11.0411 113.66 -19.938
-7.30425 129.491 -8.92555
-16.8706 126.056 -8.8305
25.9186 131.254 -9.31245
19.6478 104.328 -17.6943
-21.8811 121.47 -3.34602
-5.84344 136.417 -7.3546
-10.9868 91.6584 -18.3532
14.5363 89.1452 -5.02561
-8.15995 107.741 -18.0804
-18.3709 120.978 5.15145
4.14524 82.6721 -24.1345
10.1585 109.245 -1.82934
15.7674 132.521 -10.411
3.78155 104.409 -20.5461
12.2227 84.3244 -6.68686
-19.8064 130.719 -7.39835
21.444 89.1114 -7.34378
-17.6533 132.276 3.62628
-16.444 129.607 2.95426
-23.8398 134.093 2.1352
25.3898 87.9722 -11.7266
25.4537 84.0763 -12.6398
-6.91933 138.824 2.62104
-1.77751 130.74 4.50076
9.66232 147.887 -7.86589
-2.86406 130.815 -7.52317
-18.541 120.958 5.00825
-20.1597 110.595 -3.04385
5.71385 143.327 1.8961
14.0661 112.689 -19.3877
-22.2976 122.007 -5.10642
15.1534 79.074 -11.0626
24.4022 86.7078 -18.4781
-2.37156 122.074 5.16736
-20.1249 93.4322 -1.09435
9.57038 93.585 -0.356534
-0.683069 133.283 -7.7114
18.2752 107.272 0.0255512
1.56125 119.34 3.59818
9.72318 136.605 -12.7445
8.13654 153.229 -2.77989
-13.7736 105.641 5.09693
19.6536 96.9318 -3.75209
2.2226 82.7733 -3.54474
9.39347 110.64 -1.81847
12.2273 89.0689 -23.7798
-21.0443 118.167 0.812328
3.96152 115.312 -0.487217
-20.4803 102.364 1.93596
9.17551 133.961 -1.16275
-19.8968 114.141 -1.23208
-14.0018 107.09 5.37958
22.2263 108.846 -4.96088
-9.84585 121.847 6.25094
-19.3469 106.706 -13.1538
-21.7687 109.743 -11.4074
7.45129 99.7767 -1.78176
-13.9822 103.302 5.09694
-5.14065 106.434 -18.9814
2.34967 143.584 0.814091
18.4469 125.517 -4.93814
12.8339 130.183 -11.639
-5.2669 86.8295 -20.0006
-16.7262 114.367 -14.2903
-17.6589 127.723 1.98619
9.94719 139.355 -0.634383
-20.0441 122.5 3.21851
-22.3303 105.334 -10.1516
-5.50963 122.151 5.12211
16.8331 117.24 1.74446
-13.2284 147.579 -1.83254
-8.67038 134.369 -9.28369
-16.4706 91.883 0.460934
14.9707 140.281 -5.89792
-9.79219 142.403 -7.30617
8.16384 138.636 -11.5913
-22.1184 100.842 -11.3996
-5.01165 153.404 -2.14293
-11.6432 110.431 5.19497
14.4109 94.8312 -2.18393
19.2433 121.723 -8.42814
-5.41371 125.456 4.24006
13.5454 103.114 -0.305607
16.3698 118.806 -17.8174
26.0626 129.437 -6.51966
14.1069 92.0137 -23.6556
8.16165 103.615 -22.6686
3.77904 145.524 -6.83235
12.1532 148.699 -5.58007
10.0742 112.615 -19.9907
14.604 123.046 -12.8764
-17.6023 138.513 4.74127
15.965 108.324 0.958786
12.5738 149.37 -4.78515
14.7862 119.655 2.23799
7.83477 124.366 -1.50575
-0.880844 105.671 3.19567
11.2895 112.409 -1.7913
-0.371246 80.6508 -4.37767
-20.7758 109.58 -12.2234
-12.6631 108.246 -16.3976
20.7206 114.742 -2.36004
24.2333 130.788 -9.31601
17.2362 98.7285 -21.8667
-16.2187 108.196 5.88879
18.8374 94.1995 -23.4393
16.5357 120.197 -13.335
24.5329 136.821 -2.34826
10.8829 96.9711 -22.7629
-19.6392 140.306 -1.87406
18.4787 126.893 -5.92313
15.6488 97.2436 -22.8082
-22.4829 122.383 -0.0336479
0.10926 128.632 4.64421
-12.5063 104.985 -16.0955
27.0979 84.154 -16.0386
-22.0111 104.972 -12.1294
-2.93638 108.963 -19.3753
19.0436 103.258 -20.8303
-0.772136 136.271 -6.28915
26.506 82.6215 -14.1933
-10.1013 128.662 -9.89675
16.9597 134.954 -0.538343
-13.3786 114.316 -14.7444
12.0385 88.4577 -24.2015
-1.16221 115.1 4.90834
20.0541 108.572 -12.3586
-15.2943 129.653 -8.80521
-9.78554 89.157 -18.5181
9.81864 119.917 -17.3402
2.55549 111.145 -20.7627
-19.0631 112.882 3.78841
11.9926 132.287 1.21227
1.63545 125.801 3.89292
-18.4989 115.898 -13.0454
-19.0926 136.027 -4.40253
23.2799 80.7774 -24.1713
1.37944 139.585 -6.88646
16.3101 84.5951 -8.13066
24.8825 129.36 -10.362
4.8962 122.529 0.135613
-9.43458 97.5192 4.73276
18.089 119.703 -2.47515
19.3959 120.864 -7.86913
-12.4316 134.674 3.21477
1.1937 101.907 -0.438134
18.5447 110.161 -0.528226
15.9661 92.4112 -24.1866
4.23407 108.175 -1.43801
2.95977 114.436 -18.9583
-17.4276 109.66 -14.6554
5.98673 126.972 -12.4966
25.9732 126.5 -7.10384
20.446 134.134 -1.0854
4.27822 147.827 -6.10085
4.50724 121.983 0.57708
-5.92125 106.643 -18.8069
11.9477 95.6913 -0.759312
-5.67447 145.288 -5.62071
13.9537 120.452 -15.1582
-22.5418 113.351 -9.94011
-9.8861 94.8287 4.47676
23.789 135.308 -5.68344
-4.6642 87.0997 -20.2934
-17.2171 124.972 -9.05486
18.1062 130.873 -2.29665
8.59195 117.044 -19.7226
-21.6411 119.435 -4.91957
-7.93012 104.781 -17.3362
-22.7536 117.055 -2.12919
4.52712 91.3673 -1.1712
-7.26861 86.8286 1.95978
-6.15313 117.767 5.78052
-11.3331 145.083 2.71476
13.7283 129.715 -9.27866
13.4918 127.837 -5.97321
14.4037 131.596 -9.0109
-15.0883 96.0937 -16.8464
-21.9276 138.366 -2.44411
-20.1945 121.573 -7.78212
24.0863 98.8754 -14.0982
20.1607 82.4216 -25.3419
-12.5453 147.178 3.02356
17.9237 106.245 -20.3359
-18.3481 127.548 1.71455
12.8623 139.429 1.83942
14.3988 140.671 -6.29046
17.1076 120.904 -11.7317
6.39019 122.578 -14.789
-14.668 100.766 5.20182
-22.326 109.358 -10.0553
-5.94681 95.5802 -18.2294
16.3077 134.932 -11.5478
15.2722 126.629 -14.3607
12.8944 146.469 1.48435
3.35034 137.025 -9.01009
-8.88085 105.374 4.50697
-5.35367 99.2187 -17.3053
-12.493 137.904 3.12003
-4.31223 140.186 1.22101
-6.20499 102.916 4.35146
-0.287732 86.3408 -0.420728
9.90274 151.731 1.01362
13.3825 125.009 -16.7012
-0.87603 123.018 4.91336
22.0063 111.98 -5.39493
-1.23161 105.888 3.57119
-23.6618 134.065 -4.84884
10.151 138.864 -0.593328
22.367 131.782 -8.38286
-9.00448 130.174 4.02472
-13.2715 112.361 6.13108
-16.8376 141.491 4.86703
23.7804 140.154 -1.2905
-6.13617 137.982 -7.33127
5.09572 122.014 -0.36578
-32.1992 125.427 -1.34288
12.9736 107.059 -0.649432
25.2164 89.6183 -11.4262
4.75485 136.948 2.69356
12.6475 121.822 -17.9191
-29.4753 122.036 -1.70987
13.1938 83.4883 -26.3773
1.2958 81.6767 -4.45651
7.56348 144.641 -9.72683
14.7352 148.181 -1.24027
-25.4536 137.511 -1.0299
-18.8554 91.87 -1.52593
21.2733 107.659 -9.82921
-17.9947 91.4999 -14.2122
23.1744 128.435 -10.6801
6.32722 144.485 1.3472
12.0214 132.899 2.06049
-5.80619 84.3664 -19.3653
17.9211 138.483 1.05885
-21.9424 137.911 -2.60739
8.12671 126.519 -15.6925
-1.12718 110.108 -19.3461
-10.1067 110.405 -15.7118
7.45464 135.313 -12.1971
24.2488 99.7518 -11.8761
6.75535 120.52 -17.5986
10.6054 147.073 -8.31156
-31.4824 121.049 -6.49699
-12.5417 103.39 -16.5993
7.32618 153.298 -2.86636
14.6995 135.836 1.30473
19.6131 125.867 -3.45275
14.1731 149.479 -0.649955
9.63091 113.789 -1.89358
-5.34585 119.019 -11.7849
-23.0462 124.653 0.442207
-18.4974 136.362 4.3143
-17.2825 127.587 -7.52513
13.1662 137.017 -14.2986
10.0553 89.2877 -23.4376
-6.6949 113.057 -14.6208
21.247 101.637 -18.2701
6.73038 134.514 -12.4431
0.771044 99.1412 -0.174854
-12.0786 139.382 -7.4619
24.9347 124.414 -5.73728
-6.08216 154.62 -0.311993
-20.7458 144.257 -0.0173777
14.8992 123.795 -12.647
-2.67867 121.804 5.07697
-13.3188 133.079 3.92761
-3.33664 105.629 -19.518
19.562 115.207 -6.63116
-10.5339 104.093 -16.3169
-7.16651 114.057 -14.1439
5.64471 146.493 -7.7038
-15.3906 123.408 6.34573
-5.74752 90.0421 1.78552
4.68198 102.859 -20.9747
-25.4078 129.177 -6.72855
18.3989 124.561 -12.0828
10.7085 119.472 -17.0007
-0.981913 110.982 4.26761
25.2732 84.0235 -12.5729
-9.26824 113.261 5.54867
-6.17224 99.2397 -17.1871
3.89773 125.435 2.26419
-4.26454 99.9872 -17.671
20.5859 83.6945 -24.5959
-13.2228 143.857 -4.164
-14.1587 119.163 6.47804
2.21116 98.5985 -0.665524
-20.8315 112.581 -2.46959
-17.4549 130.706 3.74396
13.6332 131.87 -11.6465
-0.949258 98.292 0.54323
-13.0396 117.498 -13.5387
24.7834 93.6771 -16.3018
23.1501 141.747 -1.32139
3.62411 123.695 2.33485
21.5711 123.646 -11.2279
-17.3727 92.744 0.325468
22.6898 141.735 -3.62431
-13.1987 146.838 -2.43974
19.6215 121.896 -6.68947
-21.6402 98.2808 -13.2517
14.3057 132.977 -9.25576
-15.6956 138.17 4.56281
-12.2011 123.585 6.76122
22.724 126.198 -2.88693
13.1862 128.868 -8.36323
0.427356 151.852 -3.58487
17.6192 92.1168 -24.0296
10.6786 139.853 -0.561121
12.1538 143.356 -9.97614
22.1652 109.921 -5.25096
8.11703 139.75 0.315841
0.490428 105.602 1.81398
-26.2309 123.259 -0.940598
-4.40341 128.698 4.44507
26.5402 88.4146 -14.9677
4.9052 146.464 -7.22405
-1.78839 78.1155 -3.8023
-6.1642 96.9893 4.18376
-25.636 127.601 2.23182
7.65933 89.1461 -22.7652
18.4959 84.944 -8.2582
18.646 121.69 -7.17698
-14.7766 150.082 0.685018
6.24658 151.545 -4.3847
10.9289 126.88 -1.24989
-10.2455 105.196 -16.6987
-4.2035 111.939 -17.2278
-22.0987 122.348 -4.51709
20.884 110.057 -10.0827
-16.9507 128.705 -6.74501
-17.8021 120.157 5.47766
14.4124 135.133 2.07407
23.4807 128.66 -2.79315
-2.81523 88.9573 0.00795755
-21.7736 136.845 3.84299
11.0642 126.308 -1.27193
-24.5295 138.95 2.84847
-25.7594 136.15 -0.836321
-9.02939 89.6473 -19.1717
-21.1092 126.081 -7.44902
-4.44599 127.674 -8.50591
15.6395 79.0153 -11.4795
-17.3219 137.742 -3.64951
15.1825 92.7 -2.80534
19.3654 98.4825 -3.24132
15.6443 132.493 -9.73838
16.0726 123.205 -11.2086
15.6704 117.952 2.12334
19.5038 97.6148 -3.62484
20.0319 127.094 -13.2859
9.03549 144.287 0.0516623
-22.3442 102.694 -11.8303
13.0043 98.3113 -0.229568
12.3076 113.272 -19.885
-1.81701 89.8372 -21.1206
18.924 125.955 -4.22721
-4.31344 89.7368 0.852968
-3.75363 118.389 5.38455
-14.5632 117.798 6.31404
-19.3143 122.236 4.37371
-18.0622 91.9307 -14.4373
5.64286 150.575 -4.94232
9.49827 138.245 -12.2567
15.4362 134.156 -10.6801
15.9866 130.224 -9.57084
-8.38556 108.395 5.08515
19.6819 116.307 -1.06211
-22.6618 110.669 -8.04857
10.6003 112.035 -1.90303
-21.0491 128.767 -6.79527
-16.2083 102.034 -15.8577
-2.25116 106.443 4.10047
24.6429 131.293 -9.42853
21.6895 139.809 0.354312
-21.1666 100.236 -0.247133
16.4244 122.781 -12.8665
7.81011 119.83 -1.55429
25.1116 124.18 -6.07856
-8.73965 100.394 4.46683
16.16 130.405 -9.61225
-11.5795 96.8641 -16.6695
-24.9431 129.387 2.07249
3.95538 135.817 3.54547
11.292 105.923 -1.83645
10.9752 81.9071 -7.54101
-0.653165 86.2871 -22.3652
13.8584 108.192 0.0324797
-32.6892 121.093 -5.60552
8.12999 111.894 -1.75337
5.34301 115.06 -18.4623
5.54369 85.9553 -2.17056
8.46535 119.106 -1.59791
9.35901 95.1641 -23.1456
13.0072 146.981 -5.27797
-22.333 122.65 -2.50604
-27.2059 135.228 -0.257704
-22.3651 134.981 2.53837
16.8989 116.017 1.69982
-1.69928 102.416 3.05659
-23.5329 130.386 -7.11648
24.6092 131.693 -9.137
-2.31449 84.994 -21.5954
-20.9606 114.025 -11.6285
-3.96835 151.091 -2.98503
-21.0782 107.765 0.344849
14.6573 94.4909 -2.45525
12.5936 119.047 -17.0813
-13.1306 110.19 5.66343
12.7026 124.281 0.342573
-7.69183 154.084 0.642824
12.3131 94.0543 -1.23769
-11.9155 144.544 3.03415
-23.9273 122.091 -7.96761
-14.5562 107.292 -15.9525
-21.9388 106.32 -10.0575
-8.78233 116.307 -13.2117
21.9929 107.274 -9.08261
14.0593 143.194 -5.47243
16.0398 127.222 -6.37807
15.2056 128.923 0.562902
20.0453 91.8167 -5.32393
8.60399 151.886 1.48054
-12.1236 148.776 -3.04392
-32.4082 122.433 0.267311
-16.5428 142.823 4.58845
18.8975 129.883 -11.6535
-19.2257 122.364 -5.71058
3.41426 143.632 2.25897
-12.6801 115.383 -14.2856
-22.0005 143.352 2.77551
2.6207 148.392 -5.3058
-14.2262 96.9803 4.8936
16.3145 117.68 -11.2337
13.7299 117.012 1.41725
-21.9191 107.282 -9.28876
-2.23344 90.6296 -0.0965697
12.479 130.459 -9.59492
-8.74586 97.1852 4.67556
13.6059 142.881 -6.30256
0.0707419 107.753 -20.5885
4.13653 102.299 -1.53388
-9.61313 151.409 -2.60013
-27.1739 133.298 0.819002
18.11 107.698 -19.4883
-22.4094 122.061 -0.533964
-11.1896 146.089 -5.28958
-9.11919 135.909 -9.61225
-17.9646 103.382 4.84548
-20.0535 124.053 2.87045
16.82 128.429 -0.778857
3.43597 116.453 0.466246
2.56254 138.319 -8.07495
-12.0293 130.631 -11.1781
19.7031 143.729 1.54293
7.0076 114.099 -20.0933
24.844 127.026 -8.04285
-20.403 137.001 -4.0585
13.2368 129.079 -16.3377
-9.0771 107.111 4.67762
-18.8815 100.63 3.28122
10.159 125.293 -17.3134
23.9452 100.592 -10.432
-10.2534 130.909 4.89169
-3.30785 134.812 2.19631
18.8492 110.105 -13.9936
25.7749 126.35 -5.23708
-20.2012 121.527 -7.73067
25.3623 82.0137 -20.6315
14.1561 147.812 1.72827
-22.4311 110.798 -6.11423
15.0999 134.684 -11.9721
20.2232 108.364 -12.2819
7.86774 84.0602 -4.44363
18.6206 120.085 -5.8983
20.3374 103.05 -2.53653
-6.62488 107.382 -18.8549
7.45351 124.998 -13.6654
18.5635 127.489 -5.64896
-13.3125 97.5359 -16.8792
4.04622 116.734 -17.599
2.26449 124.164 3.60591
-4.26501 121.961 -10.584
-15.8697 145.86 4.50987
-28.4037 123.898 -0.280201
-0.146092 150.074 -3.97683
12.6747 103.119 -0.711743
16.0543 139.158 1.96617
15.0911 147.175 -1.62808
-5.26133 78.1224 -1.27574
12.9057 128.867 -12.8183
-1.257 89.2692 -0.487779
20.8587 83.8441 -9.90547
-9.35785 83.6352 -17.8483
-20.5559 106.078 0.097022
-20.0681 134.017 3.50051
25.7245 91.0534 -12.8982
-21.6921 134.248 -5.59915
22.2973 86.329 -9.43274
-6.6682 149.752 -4.75034
20.9769 115.557 -4.13004
-3.72328 116.502 -14.603
5.3125 85.7133 -2.26482
-26.1697 137.926 1.35739
-11.2103 135.288 3.35941
-1.6731 100.579 2.27581
8.08314 119.738 -18.402
21.4967 133.186 -8.41528
20.3302 91.6099 -20.7803
-30.6446 123.624 -6.06151
16.445 97.1733 -22.8742
11.5363 130.858 -0.380025
-24.5941 139.406 2.35218
19.0616 135.241 -0.946865
20.7362 95.8329 -20.2549
-21.5641 127.537 4.17543
-10.9303 99.9338 -17.1987
4.18039 109.798 -1.30511
-4.2753 91.7439 1.51111
-11.1302 101.208 4.36814
-12.2487 107.991 -16.4947
-13.6712 115.957 6.02875
14.8121 125.479 -14.0539
-26.3107 124.35 -0.797455
-16.3867 111.741 5.98146
-1.53826 110.824 4.55862
-21.9822 118.617 -7.164
14.662 135.917 -9.16856
-18.9982 129.278 -7.11519
13.4702 132.408 -8.78757
12.9148 128.386 -7.62309
14.4718 100.704 -0.536535
9.64343 115.118 -19.9343
-23.3125 125.64 2.59085
7.39423 139.952 -11.4766
17.2139 136.071 -11.7083
-18.5667 96.9162 1.47884
8.775 113.45 -1.85285
-4.83262 127.749 -8.58834
18.4585 127.823 -5.83868
9.95283 130.76 -15.7391
-11.455 144.556 2.76881
-11.9396 124.182 6.81035
19.5733 116.649 -6.79245
15.4059 121.864 -12.5816
2.06696 109.142 -20.8312
-21.8035 111.453 -11.0829
8.17486 77.5905 -9.09542
8.60446 85.6685 -25.0267
0.000335719 113.295 -18.7551
-26.2215 136.027 -0.482818
-4.84081 114.838 -14.4101
3.22729 79.8491 -6.07871
-6.78663 96.9123 -17.5751
-21.8126 98.4046 -8.41004
-11.8154 128.838 4.63932
23.5937 132.822 -1.54788
-14.0496 119.579 6.51436
-17.1211 92.5093 -15.4867
22.0951 134.938 -5.92103
-7.51637 153.369 -1.05461
19.2307 135.917 -10.149
-4.85576 102.224 4.25103
3.58475 131.73 -9.97337
-3.75097 81.7406 -1.7396
-8.93524 83.5616 2.39549
5.38949 88.2699 -0.853521
11.9994 133.689 1.92336
-11.141 91.5516 4.70157
13.0175 120.401 -18.4692
-5.66639 117.325 -12.4867
-22.5627 102.523 -6.18018
15.4094 136.854 1.28211
-19.1836 114.182 2.38855
17.2889 126.986 -1.79227
17.8888 137.314 0.303598
-18.3998 128.311 -6.56689
17.6231 112.046 -18.8126
-4.03045 139.967 1.19525
3.58845 80.4774 -5.81089
-10.8551 98.0164 -16.7917
13.0259 106.612 -21.908
-17.2848 135.475 4.61424
17.828 105.992 0.0383699
21.0075 90.6378 -20.3582
10.1712 152.182 -1.88972
23.9593 100.827 -12.3417
-11.1224 142.102 -6.44031
1.83891 142.942 1.47257
5.74626 99.3107 -22.1459
9.70068 124.593 -1.66637
1.41729 133.409 -8.34967
12.187 90.4908 -23.8657
-17.2567 136.971 -3.60003
15.5169 128.992 0.241848
-11.148 88.3037 4.18926
-21.5582 114.695 -10.8881
-20.8359 104.055 -2.06881
13.7816 140.128 -9.66831
1.90283 82.9734 -23.3058
-20.0265 101.589 2.5257
-22.0701 125.835 3.19752
-12.2275 133.544 3.48814
5.43118 132.157 -11.2551
-6.04607 90.1418 1.96157
4.20396 139.949 3.01178
13.0877 90.2134 -23.8004
17.6465 123.85 -0.638818
-6.48918 96.797 4.2644
-11.8667 95.7515 4.56278
-22.0157 96.5523 -7.79007
-2.12931 97.34 -18.6134
18.4496 94.5348 -23.4161
-15.1719 134.238 3.6338
-18.4475 134.296 -5.89067
4.83648 92.4807 -22.2868
-8.49077 108.251 -17.2498
8.90747 100.509 -23.2903
-16.6412 118.507 6.91256
1.78979 141.141 2.01879
-19.116 107.873 4.87947
14.7 132.552 -11.5807
-4.78365 137.776 -7.00587
23.5763 79.8484 -15.5679
-17.4798 121.407 -11.4757
-10.5985 130.13 4.80321
14.7984 145.68 -3.12579
23.5359 80.1735 -24.1541
-0.162173 106.109 2.61191
11.9234 136.377 1.18813
23.0559 100.774 -8.23981
-22.5377 104.054 -10.2185
16.9117 116.846 -12.7511
12.2136 138.61 0.960482
-14.5103 113.717 -14.8625
22.1849 129.43 -1.78734
9.25198 81.7305 -6.95354
4.74929 85.1818 -2.48849
12.9266 100.164 0.0482631
-21.5806 128.394 -7.39508
-17.6521 93.6741 0.689331
-13.536 122.855 -11.4406
22.5369 105.325 -8.40828
-11.2958 92.2159 -18.1231
-28.7392 131.499 -1.49532
7.07204 133.746 -12.9799
19.4098 122.768 -6.02627
-9.50476 103.582 4.09359
-22.7097 125.329 1.99677
-20.6038 103.039 -0.699601
-8.20199 144.023 2.74754
-30.4059 124.101 1.7116
15.0609 133.707 -11.9128
-19.3083 136.541 4.42515
-17.3394 93.3008 0.750798
12.9664 134.074 2.67512
13.0089 138.734 2.09754
-20.9214 113.234 -11.8865
-15.4702 147.579 -0.52789
-20.227 142.703 4.38716
-14.7977 98.1499 4.86519
24.1476 89.9649 -9.61669
-20.658 115.3 -0.411128
15.706 97.9822 -22.6041
7.5 81.3554 -6.42354
-20.9464 101.299 -13.75
-19.1561 120.658 -11.4154
23.6028 100.812 -13.5908
-21.1797 121.515 0.452354
-22.1108 131.965 3.15794
25.7228 79.8772 -19.779
-17.3236 133.184 -4.32513
-10.3245 132.176 3.52308
-15.4515 146.418 3.9647
15.3057 133.799 -10.4594
-22.0647 95.6011 -2.7598
-12.2611 116.86 -13.5109
-2.05507 101.687 -18.7363
-2.73943 145.308 -4.3445
-7.21797 137.453 2.61773
12.6136 130.4 2.41481
25.7254 127.079 -6.50694
-4.03163 86.6392 -20.5055
6.20841 125.911 -0.628305
-16.4089 131.481 -6.95937
12.8095 106.891 -21.766
-12.1661 151.506 0.804302
17.2125 132.49 -12.5086
24.42 98.7128 -12.8987
16.0062 129.41 -14.1525
-8.96232 120.506 6.39889
26.0511 81.4843 -16.6053
-19.3553 108.395 4.64615
-4.56329 128.409 -8.38763
22.1161 84.9979 -23.1158
-18.7134 144.21 4.6017
18.1626 121.098 0.375563
2.01589 78.3226 -25.0522
1.52033 135.795 2.65708
-2.5437 149.505 -3.46806
-21.933 98.865 -1.26185
20.2873 125.861 -13.4732
7.33775 100.361 -1.7579
-20.2777 128.075 3.3241
17.0154 89.6494 -25.1346
-1.78503 101.564 -18.7236
0.650788 84.9612 -2.12168
-1.39543 131.532 4.11297
21.2165 92.134 -6.09285
-11.6772 84.4773 -16.53
16.1032 134.044 -12.6417
7.70917 153.781 -1.76982
17.5572 122.454 -6.61791
-20.7978 118.994 -9.47964
-4.58489 105.742 -18.8878
24.8074 93.6393 -14.9741
8.69178 88.9346 -1.54924
19.9698 117.353 -2.1695
-23.5002 133.405 -4.94636
22.6864 100.282 -6.54756
14.4613 129.451 -7.02549
-25.7942 124.134 -0.954329
-6.6933 97.8677 -17.4284
-18.7084 119.95 4.98295
-13.3408 128.06 5.07285
5.40025 111.025 -1.64302
22.3795 126.239 -11.4793
-9.86506 148.569 2.56022
-3.68963 132.555 2.92844
21.037 121.871 -8.02771
3.40833 143.991 1.12646
20.7879 121.041 -9.5804
-9.93882 102.036 4.37007
-8.66594 129.267 -9.28143
8.38992 121.794 -1.61831
-20.7779 122.462 -7.01547
-9.0309 86.8918 2.74428
14.0352 121.026 -13.0181
-10.8602 122.244 6.34199
5.46245 140.488 -10.1521
-5.1811 122.151 4.90991
-18.1768 135.558 -4.37916
18.2976 114.97 -15.2472
17.033 129.058 -3.64767
14.4745 130.303 -7.3666
-10.819 152.218 0.766831
14.0426 96.3992 -22.6811
7.41971 125.932 -13.6105
6.86048 138.575 0.523832
-11.6544 127.285 -10.7498
5.40667 135.829 -11.5189
-19.6292 123.607 3.62414
-25.0993 123.82 -8.25227
-0.700855 138.473 -5.90197
12.7987 109.239 -21.0124
-24.0575 130.444 2.67975
12.7002 136.777 -14.1422
19.7207 145.226 -3.58704
-31.195 120.974 -0.890665
2.23611 138.654 2.55042
3.59989 105.671 -1.42649
-4.75544 143.937 -5.45289
-21.7217 123.018 -2.32234
0.835263 126.434 -12.9955
21.5929 145.174 -1.11268
16.5013 104.057 -21.0362
3.29595 130.437 -10.6605
-1.18257 147.314 -4.14897
13.115 146.559 1.63719
-20.96 101.403 1.32973
5.19618 152.889 -3.39175
26.9465 84.4982 -15.2173
-29.066 132.164 0.801233
-16.7947 143.624 -1.63941
24.6556 136.433 -4.62523
9.53495 124.965 -15.3604
1.09589 111.883 -19.8647
19.3742 106.924 -14.8253
12.2355 103.915 -1.18886
-18.3072 100.283 -14.8163
-10.3762 145.434 2.22072
-9.85167 105.767 4.3349
23.3304 99.821 -7.86496
21.5541 90.1786 -19.6537
19.2945 120.324 -8.49598
5.691 124.972 -13.4191
2.13766 118.682 -17.0962
-2.38085 77.0546 -3.50406
-8.35163 88.8111 3.35616
-5.64234 107.105 4.96195
-22.7445 122.364 -0.415951
4.76326 81.5564 -5.26658
24.8947 131.948 -5.91849
20.1411 108.45 -12.3321
11.6585 139.713 -13.0599
-29.6255 129.746 1.29197
8.59682 78.98 -8.27813
-5.64889 113.304 -14.7642
-2.1043 137.32 1.5796
19.1819 115.067 -10.1815
19.5839 129.407 -2.73259
-13.4664 132.259 -8.44026
-20.951 98.8739 -5.7435
-0.107274 100.868 -19.0369
10.2697 81.1305 -26.9009
6.29691 109.933 -1.79334
1.42762 126.015 -13.5436
-16.1544 124.688 -10.6306
-31.1055 122.798 -4.75787
-10.5227 132.435 3.42078
-3.7097 116.021 -14.9944
-22.224 122.865 -4.80611
7.05304 122.948 -14.6817
-4.6289 149.557 -3.8135
13.4697 80.7228 -9.59044
4.02388 121.529 -15.9501
22.6129 106.95 -8.15342
-14.0374 128.355 -9.72394
8.54929 76.4188 -9.98809
-0.237661 88.1387 -21.7593
-19.1322 127.713 1.9689
3.95735 124.145 1.96729
8.3394 135.317 -0.934088
-5.09809 79.6758 -20.5139
10.5689 151.257 -3.4675
-28.6968 120.676 -8.88462
-21.2369 98.0522 -6.87158
21.5438 88.6815 -21.5224
-20.0022 124.818 -6.57293
12.9071 127.742 -10.6982
23.7123 135.108 -1.61251
4.60445 90.9097 -1.03917
-21.6168 121.613 0.0673982
1.02942 142.503 0.976355
-17.7129 90.1765 -14.2213
16.7227 105 -21.2102
-14.2396 138.119 3.43326
-12.2754 99.3757 4.61444
14.0523 128.312 -5.3942
-6.55196 103.125 4.40173
22.3081 100.184 -17.5499
19.6944 114.213 -13.8168
-9.17779 148.868 -5.39232
-21.9115 106.237 -4.24367
-32.2682 123.366 -2.31955
-21.5372 95.4319 -1.45056
6.86171 146.835 1.02417
4.25847 113.038 -0.985968
6.78982 105.899 -1.68458
4.15456 80.5404 -5.86962
15.5484 127.004 -11.2777
-24.3532 122.275 -2.91713
-30.2504 125.526 1.9279
-11.153 104.732 4.39383
23.7272 99.4609 -14.8643
-16.3617 97.3215 -15.9665
6.19335 143.839 1.3958
22.1054 82.2402 -11.8212
17.5446 122.077 -8.36157
-14.9561 135.922 4.42399
1.45481 130.789 -10.1663
7.89851 119.263 -18.6657
-17.1964 146.522 -0.575906
17.3715 123.123 0.0339152
-18.7578 121.216 -10.024
-11.6581 147.855 2.87021
16.6578 90.1809 -4.83433
13.6696 130.898 -12.3553
5.22206 109.885 -21.0264
1.71103 94.5707 -1.07763
2.96011 131.111 3.3461
3.27876 135.791 -9.08782
-24.3589 122.51 -2.13528
3.61517 116.882 -17.7086
-24.5093 138.21 -1.07239
-3.89187 88.1273 -20.6932
-30.9323 127.125 1.36269
16.8469 133.031 -0.855687
-1.00799 135.988 -6.33559
-24.9206 127.264 2.56679
11.0907 134.304 -0.762761
16.702 83.0878 -25.6188
-5.89991 120.228 5.41943
22.2957 97.7438 -6.21194
13.9592 100.583 -21.5946
-21.2549 107.121 0.233279
-7.65095 117.286 6.34025
20.1631 88.9807 -6.66701
12.9007 142.297 2.17558
-20.6075 121.722 -5.99428
-18.0108 123.911 -5.54707
15.8947 125.252 -13.0631
-12.4764 140.34 -6.56135
2.04437 135.907 2.80596
12.5159 131.779 -9.2181
2.66768 79.1286 -24.8103
23.0451 80.6714 -24.5561
-5.44443 78.1113 -1.16692
16.09 123.416 -8.82449
23.8188 125.957 -3.51079
-1.03662 88.6994 -21.5419
-22.8773 118.441 -7.52285
18.6207 108.18 -17.3347
16.9891 132.201 -1.739
23.5088 87.3755 -9.8467
15.2527 125.507 -5.95317
-8.03626 149.666 -4.91079
16.9657 131.64 -1.94801
19.2304 109.315 -13.4904
-8.74777 143.842 3.02005
20.4538 141.894 -5.44265
4.52462 85.4435 -23.2883
-17.5704 131.012 -6.06418
23.3466 84.1036 -11.339
-21.8103 96.7335 -8.05611
-3.91572 98.1736 -17.8798
17.8919 82.5671 -9.15746
-8.04698 137.345 3.12503
-6.35116 103.537 4.41105
-11.6832 89.7235 3.89099
-27.7537 134.16 0.643349
-22.5191 95.0533 -8.22739
-13.2568 131.676 -9.21403
9.4916 109.729 -21.2186
13.8921 99.0029 -22.3057
-18.9756 118.794 -12.3582
-0.536772 111.504 4.04658
27.1677 82.156 -15.2037
-5.18665 99.087 4.06873
-21.2451 101.301 -4.29936
-14.3827 129.489 -10.3821
23.6879 133.823 -6.85917
-18.6464 122.05 5.14018
21.7077 102.751 -14.7598
2.64842 118.549 2.5184
20.0706 110.416 -11.5603
-18.4922 129.375 -6.91793
8.18185 112.111 -1.75592
-9.61955 138.118 2.94109
20.248 126.559 -13.6406
-4.86879 128.851 4.41241
-19.5881 122.686 -6.57277
23.636 138.08 -1.57389
-22.0854 99.687 -12.5025
-21.9298 98.3553 -4.84151
25.1837 88.281 -11.2939
25.7589 126.154 -5.33285
-0.603282 101.923 1.63532
-4.11217 136.074 -6.62011
4.94261 118.614 -17.5352
20.3784 98.5187 -20.5414
17.2331 124.132 -7.70155
-9.5627 99.2708 4.64075
19.4528 117.825 -6.12759
4.57584 148.521 -5.90106
16.1696 116.477 1.91594
16.4362 109.453 -20.4173
9.29019 122.759 -16.4533
-4.07557 107.716 4.81555
-3.65159 139.663 1.21582
14.9672 127.639 -13.2001
7.3318 126.086 -1.32876
-22.1992 124.738 0.105651
-5.33129 106.514 4.69286
14.9503 93.1918 -2.67472
-0.125353 106.402 2.64508
10.7382 141.127 -0.315287
-20.5907 126.326 2.00486
-34.9738 122.089 -2.09386
13.4371 133.322 -11.4384
-18.2141 94.0004 -15.39
5.67988 88.9806 -0.537313
1.22536 104.127 0.20325
-1.86788 103.228 3.41922
21.9877 123.401 -5.70639
-0.345715 98.8488 -18.946
-12.7412 146.953 -3.20407
-14.0253 101.95 5.07362
17.0171 122.926 -10.3761
-16.1499 105.191 5.53646
-12.8391 135.646 -7.67314
6.19704 124.764 -0.963474
-4.52009 91.8567 -19.9209
6.74194 140.191 0.920748
-19.971 110.579 3.01306
18.2539 136.024 -11.1216
-26.2497 136.502 0.074028
-6.41965 112.299 -14.9632
20.4063 97.8116 -4.32485
-24.5542 127.255 3.28202
-7.4061 120.314 -11.0203
24.2314 97.4604 -9.015
-15.3161 93.7215 2.91009
-13.9337 90.5436 2.13021
0.16091 79.9857 -23.0525
-0.859964 76.9796 -4.59782
1.83977 125.125 -14.0929
-11.441 114.451 5.72092
20.4616 142.217 1.43351
7.54538 119.052 -18.4697
3.67786 122.312 2.03475
20.507 121.167 -8.11509
2.37503 139.421 -7.94378
-0.774323 87.7139 -21.9923
14.0997 143.695 -5.24478
9.48071 100.747 -23.0568
-22.6187 121.765 -1.44705
24.7358 79.9179 -15.2577
24.2884 82.9079 -12.4982
-9.56364 137.535 3.28023
11.2293 141.105 -12.6327
-8.77595 128.976 4.63137
-0.448459 79.5804 -22.9258
-11.1378 122.855 6.56642
-4.01347 119.79 -12.1369
3.59269 119.869 1.21182
-3.45526 80.4653 -21.5795
-9.05216 142.859 3.30791
0.933738 112.251 3.13738
15.0419 123.172 -12.8412
1.87861 91.7362 -1.16952
-4.06415 101.44 4.08282
-19.7196 145.792 0.425509
12.7949 151.877 0.253251
-9.44118 133.501 3.33415
-6.78653 138.284 2.52895
3.52851 81.8609 -23.9834
-20.702 121.59 -4.12632
-21.3866 125.711 2.3115
-13.8319 99.8607 5.02758
-12.6631 140.274 3.27972
-26.6256 120.88 -8.25575
-22.8363 140.484 -0.582232
1.81714 103.399 -0.60748
10.6085 150.777 1.06297
-21.2883 99.9274 -0.358683
-9.20955 152.694 1.79488
0.907426 118.159 4.13562
-3.04254 137.701 1.47399
11.1461 86.5316 -25.5007
6.69834 100.125 -22.6298
-5.45453 143.914 -5.76174
2.44144 102.65 -0.97031
15.7471 146.269 2.52892
6.22547 129.703 -0.108624
-20.1176 122.674 -7.71969
14.6351 127.343 -12.8447
13.2378 134.326 -13.2076
11.1327 92.9082 -0.83397
-24.3012 128.028 3.46208
-13.3157 130.416 -11.0792
3.58975 143.927 1.78773
-10.7619 110.027 -15.5029
7.26089 89.9989 -0.478863
-16.4631 91.8648 0.455357
-5.38917 95.1228 -18.3719
12.51 145.173 1.46048
-3.01212 120.727 -12.6824
6.56877 98.9212 -1.86837
-4.48937 91.0276 -20.2662
20.9039 93.8005 -5.20188
6.39514 114.952 -1.60886
18.852 94.3201 -4.13747
26.6619 129.538 -6.97641
-21.7558 141.971 -1.12011
9.69577 146.16 0.349094
-19.4151 124.349 3.05145
-12.1872 134.544 -8.12872
21.8972 80.9802 -12.8039
7.08958 88.388 -22.7763
-7.6988 135.564 -9.02239
-21.7764 100.461 -5.68753
-9.09427 130.996 3.3492
-6.72307 125.644 -9.8116
-21.7467 135.588 -5.53924
5.16046 87.7209 -1.09902
14.9846 93.7179 -2.64903
19.7443 85.2395 -8.41058
25.8277 88.6797 -13.0989
-15.0363 108.123 -14.9483
20.8412 83.4872 -24.4719
-11.1398 138.492 -7.88406
-15.2846 133.189 -6.13434
13.37 79.5281 -10.0597
6.07426 132.402 0.233565
-14.4753 118.814 6.45273
25.37 79.9558 -17.1622
2.04476 126.483 3.60897
21.133 130.656 -9.08643
2.40609 104.41 -0.787586
-3.61083 114.447 5.88975
-16.2834 134.299 -4.61489
15.2213 133.844 1.53699
15.8881 101.732 -21.2845
21.554 134.216 -7.30689
-1.63789 88.2595 -0.265097
13.1703 127.966 -6.51495
3.04997 120.283 -16.2031
20.6254 87.8521 -22.3901
-13.5286 97.4486 -16.8672
18.9758 97.2881 -3.06992
17.0249 128.751 -1.13825
-6.86705 103.217 4.43028
-14.3944 145.807 3.76797
12.625 122.456 0.376667
1.11585 82.3561 -3.86376
11.0446 138.968 -0.464032
-15.386 112.313 -14.7501
25.1808 80.736 -21.4878
1.39701 142.212 -6.76111
25.6792 82.6128 -14.2349
-18.5466 113.763 5.66015
10.4696 128.961 -16.713
13.6456 124.433 -14.7008
5.91987 119.454 -17.8258
-7.65499 106.15 -17.9632
13.4913 133.992 -11.2041
11.6885 147.015 0.884307
14.2881 139.476 2.88684
6.22403 85.6134 -2.48942
-0.962455 82.318 -22.5784
25.3446 87.329 -11.3106
2.35545 76.6546 -6.77083
11.9099 89.1373 -23.7362
1.88892 115.033 -18.9376
-30.834 123.856 1.62735
12.6887 149.606 1.17677
17.812 98.7158 -21.7363
20.9064 133.909 -8.68908
2.17896 150.79 -4.25113
-0.199655 106.7 -20.3924
12.0378 124.699 -0.541729
21.7475 95.9188 -18.5241
3.94189 87.9259 -21.7844
24.4487 92.7745 -17.0069
-15.9608 125.336 3.80508
10.0374 86.1912 -4.50031
-22.3856 113.803 -4.09974
-0.910304 127.06 4.97734
7.08025 123.607 -1.2823
-10.5084 125.452 -10.2137
15.0203 86.4774 -6.84001
23.6583 132.093 -4.15813
-4.54981 117.228 -13.1801
12.8655 107.335 -21.5716
-21.792 109.214 -7.00363
-9.02398 121.05 6.38244
25.0847 135.747 -4.62682
1.69264 103.199 -19.8341
8.38089 115.224 -19.8879
-1.10535 101.847 2.3205
-13.2953 128.879 4.92441
13.2312 123.147 1.98129
-6.50631 132.871 -7.91876
-22.8211 96.7867 -4.7544
13.0962 140.629 -10.2026
20.3132 144.361 0.784641
-10.0261 152.34 2.11927
-0.581548 110.519 -19.354
-13.386 151.006 1.29455
9.14612 115.449 -19.9615
-3.79859 85.1318 -20.5155
15.2627 126.279 -11.7713
6.29154 85.0805 -2.83889
11.1719 134.56 -0.555159
21.7372 88.1831 -21.6437
9.26974 136.277 -12.7569
3.27107 111.195 -0.391128
14.3096 107.607 0.19868
-11.5109 128.935 -10.7653
-9.6773 130.429 -9.73308
16.0141 144.59 2.41433
-20.3679 117.244 -11.5896
-22.5408 122.065 -4.55083
-28.9772 132.85 -0.440511
10.743 85.6542 -25.7892
15.8287 123.71 -9.17939
-5.43755 111.232 -16.3014
-13.0331 141.895 -5.50833
-19.2078 134.031 4.15718
6.62273 147.033 2.36137
3.81977 82.6568 -4.11493
-22.658 110.689 -8.10155
23.985 140.121 -2.03037
-1.49149 132.436 -7.66416
0.358186 116.418 4.24982
-14.8808 87.7533 -15.7268
-13.7074 150.838 0.420434
-12.7306 130.192 4.59526
21.4645 84.6889 -23.7036
26.0162 89.4457 -15.6243
19.4689 111.68 -13.4307
20.4328 126.898 -2.48191
18.7519 106.878 -0.684453
16.5537 123.394 0.341487
15.4633 128.015 -10.4422
14.2245 148.615 -1.4866
-10.526 149.576 -4.41561
0.559763 109.151 2.5397
19.7822 125.355 -12.5197
-11.8959 133.192 3.56125
-9.18582 111.753 5.27757
-8.63708 138.944 2.95801
-26.2113 120.69 -8.22707
18.6756 128.105 -5.7059
15.8706 117.633 -13.9064
-20.5363 109.667 -4.68509
23.2866 139.322 -3.03952
-6.42388 85.3442 0.677729
19.4761 82.4949 -25.9416
23.2017 99.9913 -7.72055
15.6722 91.2603 -3.82729
1.66175 150.4 -4.31662
-4.46824 122.971 4.35616
-19.1208 96.34 -15.203
-19.6704 103.74 -13.1688
4.11377 111.932 -20.3504
-13.0587 118.119 -13.2629
-4.97477 92.4711 -19.3808
-5.19583 83.2541 -19.9901
16.7566 120.544 -11.8175
-17.4501 135.137 -4.58461
22.5181 90.5477 -19.0085
1.08876 82.756 -23.4188
21.8076 89.1789 -7.57081
12.4941 129.949 -10.8067
16.8479 123.049 -12.1042
-21.2567 135.529 -5.85265
-1.38296 148.335 -3.8647
24.2618 99.4705 -11.3185
-5.68216 117.288 -12.4966
5.1295 123.859 0.244009
7.59783 133.547 -13.2283
-23.8605 138.182 3.51958
25.772 79.5222 -19.3598
14.9629 108.303 -21.1729
14.0741 137.366 2.19895
17.3694 83.1019 -25.2136
-18.8651 106.426 -14.3381
-6.68214 125.721 -9.75256
-5.59335 134.62 2.65711
-17.6682 129.374 -6.19883
12.1171 95.4913 -23.1092
2.89596 134.551 3.6864
-3.61364 97.0497 2.08879
20.2467 92.4232 -21.1184
19.5868 136.409 -0.434846
0.812737 76.3693 -5.36229
16.4689 101.478 -21.3434
14.4675 130.832 -10.153
3.37504 82.7393 -3.8925
20.9831 93.5153 -19.7896
-20.271 109.66 -4.17883
9.35682 76.1013 -10.5258
24.258 91.234 -17.5292
19.3686 127.399 -10.6855
-22.9702 120.902 -2.96817
-19.1072 121.642 4.61211
-5.69298 98.0922 4.08565
15.2385 95.7946 -23.2308
-10.294 152.1 -1.44032
23.6773 127.41 -10.9761
24.1133 82.6245 -12.5148
0.642288 78.7732 -23.8729
8.97914 141.168 -11.4234
4.51101 89.4348 -0.329748
11.1906 106.675 -22.2625
-5.9601 86.5203 1.27421
17.1988 129.756 -4.01346
1.20314 145.854 -5.7635
13.8378 92.1421 -2.5859
0.623852 119.887 4.40119
19.9653 83.0668 -25.271
-6.60955 104.671 4.48002
15.2485 149.737 -0.840482
-23.2047 129.461 -7.67425
-32.8102 123.624 -1.15502
-10.3885 152.49 -0.378872
23.7397 127.203 -11.0434
1.88441 138.381 2.4657
-16.9954 131.133 -4.61618
-20.7306 102.769 -0.31007
15.3634 143.516 -3.52868
19.4061 147.192 -0.168972
5.40072 143.472 -8.5489
16.5162 148.504 1.34994
9.71517 152.839 -1.51848
-6.03354 86.8464 -19.8047
21.2506 136.402 -7.51439
-10.4015 114.719 -14.2843
-1.66179 126.14 -10.7001
-20.8207 117.807 -11.063
-10.5907 82.4129 1.24768
17.2913 128.671 -2.09021
-22.9371 121.244 -2.58879
-8.92654 135.893 3.4926
-10.1617 143.375 -6.87523
-21.8728 129.861 -7.76356
-8.71164 99.8155 -17.0378
25.2437 91.6276 -16.103
4.98192 102.579 -21.1587
-2.22715 146.121 -4.22849
0.989416 127.465 4.17028
13.4497 120.843 1.90232
5.77284 100.82 -21.9467
-18.4858 96.0437 -15.534
-13.0492 106.951 5.19341
13.7205 128.932 -12.1381
-12.9062 109.026 -15.8682
14.9263 136.6 -9.77355
15.9254 97.5039 -22.7877
23.914 137.662 -3.68085
-0.993821 114.641 -17.9411
22.4319 110.092 -5.92325
15.5903 117.539 -18.1596
5.92515 124.833 -0.685454
16.0861 135.16 -10.1782
13.7707 131.16 1.95194
22.9717 133.774 -1.13613
18.0906 111.518 -17.7299
0.848668 138.589 -6.59544
18.6353 80.945 -27.1668
17.7459 107.768 0.556459
8.23692 97.9723 -23.1494
14.4742 128.568 -6.57843
-1.49024 129.517 4.73591
9.70899 80.5533 -7.80975
9.85807 107.956 -21.8865
-1.57329 117.298 5.33826
11.765 120.338 -0.73645
-19.3441 113.209 2.96428
-18.0187 93.1782 -15.2617
-21.4306 117.761 -0.15527
13.0888 145.308 -7.70923
1.74748 77.3727 -6.01217
14.4931 124.883 -15.7572
-9.60962 90.1406 -18.9951
6.77579 153.254 -3.12919
8.5688 128.769 -1.38909
-18.3665 120.54 5.10428
5.46797 105.964 -21.6593
-7.58391 152.476 -2.15051
-13.0975 139.604 3.48045
-28.0361 128.156 -5.89614
4.00673 96.3151 -21.8089
-8.06197 91.3434 3.27644
0.964346 140.03 -6.58546
-4.40779 130.463 4.07496
21.5307 98.8575 -4.69834
22.7676 104.703 -11.4471
11.6769 102.544 -22.5494
4.59315 128.662 2.04282
15.196 88.3348 -5.81553
-11.4915 114.896 5.81589
0.333324 84.4909 -2.26432
-18.5991 124.739 -6.10198
24.9831 122.326 -7.42202
20.3342 100.271 -3.36948
-13.5423 137.469 -6.32841
6.47586 132.905 0.321538
9.97123 149.035 -7.14962
19.9303 86.2488 -8.08073
7.10819 147.802 -7.57292
-22.2382 116.329 -6.74029
21.3728 137.37 -7.42464
-30.6225 128.371 -1.71521
9.83193 145.33 -9.96317
13.5567 133.706 -12.2837
15.0511 128.286 -13.1036
10.2282 85.9483 -4.81084
18.4716 129.16 -4.14179
11.168 93.2576 -23.6538
-11.4482 138.208 -7.87739
24.9611 83.6461 -12.5576
1.22721 130.384 3.89547
-22.0996 98.1887 -1.21513
-4.39707 129.57 4.55648
-27.1843 135.966 0.688546
-20.913 123.067 -6.90107
3.77697 107.781 -1.32856
-5.0296 86.914 1.58591
24.4527 79.8839 -15.5137
11.3088 130.485 -16.4964
-7.04162 112.66 -14.8521
-20.9857 130.431 3.77676
-2.71698 99.8323 -18.1622
-26.6853 122.669 -0.943269
-20.4172 122.224 -5.64263
22.5919 138.131 -0.0640561
-1.85736 134.181 -6.71517
-1.34503 149.84 -3.53366
-17.7788 131.109 -4.15207
19.2257 83.4013 -25.4902
5.56325 103.536 -21.3156
1.19791 131.736 -9.41662
3.75568 88.6498 -21.7308
5.45531 131.255 -11.3402
-13.3449 96.4014 -16.8507
8.58613 90.44 -23.1754
21.2804 123.81 -12.3596
22.7855 90.5034 -7.77867
18.521 137.82 -9.8385
-12.4067 136.947 2.77048
-4.48932 93.8679 -18.7994
-21.5717 99.4768 0.232627
-3.72875 94.7317 -18.7636
-9.38154 110.43 5.17967
-3.49966 125.477 4.57162
15.1837 136.546 1.23169
16.5299 104.866 0.487103
-16.5144 147.157 3.85123
-10.4834 141.603 2.64808
10.4488 115.715 -20.0807
17.4303 87.9646 -6.63626
-14.4039 123.257 -11.1473
7.48777 136.679 -0.386071
-17.8324 147.617 1.16776
6.30478 113.961 -1.6528
-19.3725 112.736 -13.325
-12.7037 107.523 -16.1645
-22.3736 122.437 -4.66219
-29.4638 132.249 -0.900153
-7.5549 81.3355 -18.6174
19.5832 137.712 -9.49042
-12.3775 131.281 -10.7719
16.8004 115.975 1.77328
-3.71986 122.496 -10.6881
13.3785 126.19 -14.9937
-29.882 126.87 1.94688
-14.7204 145.505 -0.972705
25.4819 135.33 -6.11437
9.07604 149.016 -7.09903
6.87069 95.6839 -1.40749
-12.1612 135.908 3.30561
-16.9671 127.4 -8.4136
15.249 110.309 1.02293
-2.8102 110.435 -19.1029
15.4422 118.806 -18.2162
6.96908 116.257 -19.2447
11.6663 125.962 -0.771929
12.8359 122.995 0.812427
-18.3579 94.2872 -15.3583
15.0376 86.3071 -26.1401
-14.9059 131.211 3.81448
-20.6535 122.05 -7.76926
12.8428 141.574 2.14859
21.064 122.741 -5.91549
16.2341 120.586 2.2082
3.28743 120.037 1.87745
-19.9962 119.516 -11.2944
1.231 90.6898 -0.999185
-13.5527 132.58 3.98289
-4.19788 100.73 3.94914
20.6508 97.3779 -20.0035
-17.1627 133.532 -4.19579
-8.16109 110.939 5.24741
13.6742 86.7934 -25.8268
-4.87792 81.4244 -0.94937
23.7472 141.109 -2.13612
11.5518 125.059 -0.909361
6.55502 130.6 -13.3794
-7.9621 91.916 3.17302
19.2902 126.101 -3.70092
1.35421 142.921 0.974721
12.2311 82.8848 -26.414
20.9413 78.4898 -14.2905
26.3138 83.0956 -18.4512
12.222 138.122 1.15919
-19.3966 107.678 4.3759
25.0888 93.8141 -10.8181
15.288 137.178 -8.23591
-6.8009 120.524 -10.8372
17.3575 105.859 -21.3414
24.5132 126.947 -10.2247
-15.8741 103.135 5.20099
-10.5433 148.241 -5.22229
15.9981 147.145 -1.84941
15.2282 129.706 -10.1484
6.12143 82.6204 -25.1839
13.2598 129.013 -14.8826
-8.19336 113.365 -14.6748
6.2124 143.729 -9.12642
-33.666 122.312 0.0529861
-5.03974 131.331 -7.70556
-7.51603 93.1773 -18.6914
-17.8028 147.184 3.00009
11.4354 114.694 -20.0047
-20.8895 97.0454 -14.0715
-17.0215 113.445 -14.3981
5.25263 131.437 1.60369
-23.4066 127.409 2.93869
-5.89168 116.622 -12.7172
0.0395759 78.4438 -23.7213
11.7097 120.895 -16.5977
18.0316 122.093 -10.0331
2.68276 143.15 1.91996
-21.1036 139.674 4.20986
13.5594 123.673 -17.39
14.5963 145.144 -3.81718
-2.31241 139.244 1.21913
-11.2802 125.963 -10.3875
22.1576 129.688 -1.85514
1.55252 97.679 -20.1633
-10.0964 146.026 2.15307
24.1045 127.197 -3.07752
22.8286 131.111 -2.24384
15.6036 136.993 -9.97032
23.7995 125.049 -11.2898
-11.1682 133.196 3.12706
-28.7502 133.053 -1.21751
23.5052 102.439 -10.7431
-13.0564 101.048 4.69212
6.10321 131.921 -12.2556
-24.0438 140.43 2.46186
10.0394 126.906 -17.0698
0.122494 102.042 0.670188
6.43481 141.129 0.966624
-29.8965 124.996 1.87007
4.93396 120.983 -16.6261
-20.4479 141.282 -1.68025
-17.0521 102.83 -15.3057
-12.0152 144.469 -5.31667
-32.2434 125.728 0.417636
5.50447 146.209 -7.6795
26.1238 80.7759 -18.9956
-11.7134 94.9254 -16.9277
4.58944 140.841 3.13873
2.65753 124.388 -14.5576
7.14345 79.68 -7.19722
-17.008 93.8061 1.4875
-28.1194 133.595 0.730353
14.0183 146.856 -3.76878
-24.4407 131.335 -4.84647
-22.0595 121.814 -7.21271
23.6897 82.3251 -22.6024
23.9794 121.487 -7.66847
17.1663 121.409 -11.5495
-2.79766 144.585 -4.57011
-4.08958 79.4171 -1.58584
17.3489 114.68 -17.2024
9.03533 142.472 -0.00331115
15.6479 121.926 -12.9531
21.2898 114.805 -4.32972
27.1359 129.04 -7.12261
16.2772 112.354 1.45055
26.5171 127.998 -6.11594
4.64798 105.553 -1.7327
-15.371 93.7525 2.88026
-0.284283 88.9819 -0.550027
16.1615 128.75 -0.159936
21.52 109.558 -8.31862
10.3887 116.489 -1.73064
6.30108 140.226 1.06164
10.2903 138.316 -0.556952
10.4441 86.8583 -4.32982
-22.1397 102.253 -12.0821
-19.9199 94.1762 -14.3849
-14.1628 109.039 5.80269
9.72065 126.322 -17.0842
7.3831 95.242 -23.4487
-13.2744 122.369 6.76241
17.0602 124.823 -8.15067
12.5343 93.0939 -1.41562
13.9515 129.098 -5.30501
23.164 98.0554 -7.2832
-15.8077 103.401 -15.9254
8.94102 147.127 0.482606
-16.7097 95.8163 2.9035
14.4057 127.175 -12.5127
10.9355 118.759 -17.4977
-5.93602 138.849 -7.00302
-6.39143 106.92 -18.7516
10.385 127.57 -17.0358
-26.1475 124.363 0.21204
1.51252 106.949 0.631582
-17.3697 130.689 -4.24008
22.444 102.744 -13.189
-13.7521 143.263 3.66127
-24.9167 123.772 -1.51567
-0.64944 107.155 3.35064
13.8329 126.14 2.62223
-19.5904 112.999 -0.254798
3.67787 77.4329 -7.32227
2.12624 99.8893 -20.0519
-14.0403 121.081 6.88845
18.6899 109.42 -16.2333
-17.7995 91.44 -0.965506
-14.4887 144.898 -1.70078
-1.5523 116.893 -17.1326
22.2731 85.2516 -22.7857
-4.83846 104.071 -18.4433
25.2217 90.5916 -16.4478
-16.2596 127.194 2.8872
6.49383 83.0802 -4.55472
9.31547 131.469 -15.1126
14.4983 128.672 -10.8662
6.9438 91.9856 -23.3915
7.09787 133.046 -0.0464761
14.5786 123.871 -13.2263
-9.51627 136.534 3.52665
1.7497 76.2822 -5.9512
-20.8245 143.604 3.75917
21.1659 135.543 -0.550987
-20.3521 109.798 -4.20672
17.6512 115.905 -16.3183
15.9334 124.917 -10.7483
-5.94504 94.7008 3.47657
3.22247 137.222 3.00915
-7.66283 140.864 3.05616
-1.91136 132.558 3.32362
-3.71027 109.35 -19.2161
-8.32559 130.907 3.38336
15.5701 124.055 -9.80594
-21.5858 120.454 -6.62745
-15.0304 146.067 3.93283
7.32147 128.081 -14.4553
0.0518745 122.399 4.72475
2.63657 89.9129 -21.3368
-9.59098 136.775 -9.79821
-7.90904 143.092 2.73669
-15.6224 136.197 -5.27596
14.5375 130.38 -13.6182
2.26425 101.978 -19.9555
-11.8582 134.19 3.1939
-16.5185 115.43 6.82468
18.0703 109.462 0.0243947
-22.2646 97.3685 -1.58379
13.1244 132.394 -15.1167
-26.8399 122.706 -8.27939
-18.3942 99.8634 -14.9026
-17.6354 137.171 -3.78185
15.0522 101.243 -0.452134
20.4263 96.5513 -20.9245
20.0178 91.2175 -5.53671
-25.2374 118.976 -8.15693
26.2455 133.03 -7.20056
0.724349 105.604 1.45073
-14.2457 148.125 3.5088
3.10838 86.9234 -1.35456
16.5725 98.6698 -22.0565
18.1085 121.29 -1.58454
8.7015 149.425 0.716859
16.6644 144.969 -3.52721
-20.7624 117.661 2.12631
-10.5997 129.953 4.7935
12.2703 151.208 0.933395
8.41788 82.0339 -26.7303
15.3711 118.091 2.2337
17.0628 123.191 -11.4709
5.57427 148.603 -6.38345
-11.0172 106.853 4.78384
6.91123 150.045 -6.00948
27.004 84.7132 -15.5413
20.4292 134.621 -8.64452
-16.2951 95.7148 -16.4821
1.67243 122.943 3.81528
-14.3029 129.732 3.93695
-1.1506 127.408 -10.1659
25.5269 81.209 -14.757
13.2272 92.0041 -23.5458
22.6307 104.941 -7.52603
-12.9053 147.649 3.22706
-8.86226 139.908 2.65534
7.92521 78.0165 -8.71599
16.0719 93.3584 -3.19115
-12.5282 149.921 -1.66734
-21.7146 121.493 -4.79608
16.8033 142.711 -5.2604
-14.9597 134.209 -5.81801
-22.4061 95.8726 -11.5039
-23.1561 120.187 -3.29438
-19.8003 141.016 -1.73656
-2.1184 103.528 3.45657
-13.053 138.193 -6.8764
1.35309 79.0219 -24.1284
-6.39373 80.0155 -19.6427
9.36182 137.894 -12.2483
-18.1778 106.388 -14.4527
-20.7941 140.28 4.2054
16.3105 119.122 -17.6304
4.88559 137.408 -10.946
-10.6589 152.34 -0.112503
-19.3969 114.25 1.55173
3.81398 88.7627 -21.787
9.68082 152.344 -2.44988
15.6253 135.365 -10.0558
-12.378 144.155 -5.20671
24.259 82.3269 -21.8531
5.27622 124.601 0.221275
-19.4929 126.865 1.89865
-17.9725 124.406 -8.75994
5.11344 88.6224 -22.3926
14.3631 133.755 2.11591
-26.9189 132.323 -2.92279
-14.4981 92.4419 3.18443
12.1201 128.432 -0.0931331
15.865 114.526 -19.1628
14.2402 129.896 -7.40714
-17.086 133.406 -4.34635
-11.5236 114.387 5.71304
-31.1443 127.667 0.935756
-20.2881 138.391 4.76312
-19.7438 119.58 -10.0414
4.5077 142.626 -8.29183
15.0051 89.8111 -4.78104
13.1122 104.662 -1.12361
-4.70722 91.2142 -20.1528
14.8106 123.77 -13.1594
25.8753 126.439 -4.92274
11.0173 78.8788 -9.3726
8.21397 113.326 -20.483
5.93456 134.242 0.92974
21.8442 87.1468 -8.48566
1.11806 88.3072 -0.0561678
20.6683 111.041 -2.6757
-7.86783 85.4926 -18.8281
19.4041 87.9908 -7.07213
0.64703 104.073 1.0736
7.38957 82.3563 -5.59138
2.04853 133.398 -8.46838
18.56 147.705 -0.494792
16.5233 126.044 -1.53009
-0.501634 78.4779 -4.72099
-13.2106 144.883 -3.45623
-26.4654 135.584 1.62803
6.58816 144.902 1.11965
-13.9899 117.541 6.1647
-26.1288 122.175 -2.60459
-10.823 104.192 4.23313
-9.57933 107.225 -17.8249
9.49455 96.5535 -22.9345
-4.10933 92.3142 -19.8846
-9.49368 152.552 2.08433
-1.74493 121.766 -13.8729
-20.4273 110.729 -3.20226
-28.6612 131.647 1.2781
20.4967 104.329 -15.0492
14.1049 148.769 -1.92706
-4.17041 129.619 -8.0032
8.5204 88.9997 -1.43641
8.71815 85.3154 -25.2255
-12.3352 87.6371 3.16118
26.8111 126.903 -7.58331
1.77714 102.286 -19.6736
-20.2171 108.718 -12.3346
19.3365 109.525 -12.7832
14.5195 125.393 -5.61506
5.00091 138.635 2.1692
11.0869 96.4144 -22.9622
7.73346 119.815 -1.55184
-12.2792 123.35 -10.5175
-17.6292 127.077 1.95992
