ply
format ascii 1.0
comment Created by Open3D
element vertex 1924
property double x
property double y
property double z
end_header
10.5275 126.867 -4.40501
-8.1129 113.597 13.9901
-12.356 107.44 17.001
8.67572 110.363 0.582893
-21.8807 126.186 17.0607
-25.9831 129.587 -0.777485
7.89665 109.611 -2.48461
5.6669 149.359 3.82946
-34.416 132.521 7.63767
-23.7959 126.495 -0.0232538
13.691 146.934 1.46297
-6.78334 82.6153 -2.96694
-22.6706 118.263 20.7495
-8.6319 132.976 13.8689
3.79438 112.067 -4.37643
3.2331 89.2732 0.126452
11.7202 121.887 1.07092
6.63314 101.612 -0.482148
-10.148 77.8044 -1.38617
-27.4157 123.074 -0.349043
19.7011 129.995 0.40425
-22.2548 123.636 18.9606
18.2358 122.185 -1.46906
3.25562 99.7627 -2.6987
-16.0812 150.536 3.4935
12.2847 120.383 7.26847
-30.5566 121.246 3.5685
10.0799 129.592 9.55898
-24.2609 145.806 2.13255
-31.2015 102.012 4.36622
7.09483 98.9852 3.12194
7.77842 114.418 -0.245152
13.6143 130.428 -4.1958
-1.78689 77.7622 1.79976
-9.18853 119.904 16.724
17.0737 143.298 5.49023
-21.5994 132.754 12.5447
0.424016 137.21 -4.90546
-25.4664 113.819 -1.78935
5.62917 149.661 3.9473
9.73077 126.706 0.452277
8.91767 139.625 6.44663
-31.6872 106.458 10.6462
-11.9642 117.173 -3.04112
-20.4874 131.582 9.35477
5.47126 144.763 -4.41595
-19.8444 130.134 -2.15804
-5.93762 100.982 -5.84939
9.77466 120.727 13.7292
12.0515 125.502 -5.84978
-26.9217 126.88 3.10821
-29.0743 119.93 16.8106
12.247 138.595 -2.00354
-25.4365 120.261 19.8362
-28.2026 118.392 19.0675
-5.69972 130.479 13.6586
9.19264 106.112 14.6607
-8.01406 146.232 -4.78787
-13.5875 134.669 12.0974
10.2669 138.737 -5.75153
-7.39505 132.801 13.8851
-20.3556 138.736 -0.269022
3.84096 147.595 -2.91293
12.6071 119.735 4.4896
8.26096 143.198 -5.71739
9.22724 130.411 9.80387
-26.9528 99.9929 2.03976
-2.18314 137.782 -2.3038
-15.1485 136.906 7.2691
6.78696 96.4128 2.58303
21.3974 133.955 3.30829
-23.8766 125.198 0.888826
-2.47921 128.955 10.9134
-19.4263 141.699 -0.50102
13.3801 128.375 -4.01464
-3.51153 85.5833 -3.60379
-14.3404 142.76 -2.72904
-14.8627 96.9101 -1.56893
-19.6397 134.829 7.73855
13.6882 118.213 1.45838
-24.0247 132.645 1.25659
-28.0864 128.776 5.10524
10.686 121.442 3.46024
-14.5277 138.655 -3.30992
1.59215 127.472 -5.05215
-23.282 125.284 18.0136
0.62276 82.8866 -0.626094
7.25855 116.488 -3.5998
12.1673 118.515 -5.56796
14.3131 118.281 3.78132
6.70002 88.0878 9.44508
13.1977 124.755 5.99603
-16.88 149.674 4.22142
11.8059 117.455 4.95456
7.33622 99.686 4.43383
5.07675 115.886 -4.23481
6.53081 112.836 17.3029
-15.5405 142.097 3.16299
-3.90277 116.012 -5.85453
1.25568 142.976 7.06334
-29.682 125.281 6.26848
-4.38128 141.916 8.28347
-15.6954 124.045 -0.46603
6.47302 119.969 -5.76049
-16.0754 91.4499 0.560754
20.6465 124.856 2.96904
9.71763 153.077 1.46197
21.7797 124.925 2.12949
16.677 128.474 7.49626
7.49469 149.921 -3.61977
-26.5669 128.731 2.43209
-0.696677 135.527 9.58457
-10.178 127.51 -1.57828
-6.96916 141.197 5.54561
3.10015 82.4953 6.8094
0.186558 97.0625 -4.44808
-21.6712 97.3086 1.58116
-21.9932 94.2554 2.22476
20.3412 136.365 3.20361
-28.6091 106.988 1.77531
1.53134 127.708 8.51498
-8.3414 126.1 -3.51123
6.22328 127.391 12.5228
12.4186 129.661 -2.73832
11.4144 120.64 -5.81415
9.53451 113.913 8.17641
-11.6105 119.341 18.3968
1.07378 145.317 -1.98613
-26.4417 130.772 7.71512
-22.5948 97.9547 1.44833
-28.3459 132.434 5.86783
16.8954 118.886 4.6663
-14.1945 89.9873 0.249454
13.2125 129.765 -2.22812
-5.4625 140.405 -2.11165
12.8395 134.197 -2.20359
2.88091 88.2529 -0.184955
8.21482 104.867 15.6565
1.78619 80.4938 5.47696
-28.0948 119.221 9.63836
19.3747 126.889 -0.689818
18.7166 136.847 -0.440395
7.27648 99.2967 3.94657
-25.2635 130.306 7.30608
17.3002 129.487 -0.273263
-12.7382 133.056 -2.81013
3.87581 83.8828 9.12703
21.5123 121.589 1.0868
5.70171 91.6985 4.87913
9.07037 99.1929 9.01145
-25.3346 123.752 -2.48304
-12.3382 125.323 -0.882825
-16.039 130.86 -3.28061
8.29655 138.635 6.48293
16.1291 127.633 7.99643
9.11549 95.3779 12.9142
-10.79 128.526 15.3914
-15.2147 136.064 -2.44948
14.9652 131.342 7.7356
-27.4124 140.71 4.34963
-30.4663 111.001 2.86131
-18.0185 120.392 19.643
-27.5684 122.724 9.33646
10.8951 124.946 -3.10667
-31.0943 112.981 15.5906
-1.5141 139.926 9.16902
-7.69894 113.161 13.9193
19.9118 138.323 4.66806
8.27488 132.744 10.3526
-22.5647 93.8926 2.41691
-4.61758 81.306 -2.89389
12.082 126.246 -0.847443
-30.2578 133.063 6.11426
20.1224 121.303 5.22959
9.83688 119.242 11.361
6.59229 140.196 -5.77963
8.05147 98.2865 6.30349
-23.8733 137.486 -2.88352
-19.814 141.123 -0.660329
-0.102559 78.0971 4.61203
9.77124 107.637 14.2136
3.3519 129.042 -5.75055
-15.2118 120.92 19.3854
4.74147 149.188 -2.87957
4.32144 84.6506 5.30615
-27.7362 142.652 2.07678
17.0726 139.243 6.20295
-0.889594 85.0822 -2.2028
2.75374 122.274 11.0173
-17.2362 96.9449 0.11607
9.10033 118.198 14.7688
-16.0438 93.6389 0.412468
-12.7269 91.4876 -1.12166
-33.1917 128.736 0.346513
-2.14439 150.577 -3.08931
-2.86623 141.496 8.28858
10.0359 116.222 3.20477
-0.166057 82.4153 -1.08588
-13.7376 148.944 -0.983733
4.73139 109.769 -4.29252
8.23913 154.175 -0.108015
-30.4742 112.76 13.382
-22.9097 138.301 6.17898
-26.3675 124.155 12.4256
11.3001 129.585 0.593384
-24.0996 133.024 -3.4135
-10.4404 143.144 -4.54484
-24.1942 118.844 20.5894
-24.3213 130.295 -0.504413
11.9082 129.88 7.56065
-26.7536 114.405 -1.59802
-26.0177 142.432 0.565804
-22.1875 135.263 6.59107
4.28516 93.6779 -0.18884
-15.9126 137.347 9.24376
5.07524 103.042 19.0274
9.26689 112.354 3.34281
-26.8142 131.929 -0.101218
-16.8889 123.467 18.7741
-4.51102 137.642 -0.666092
-31.378 110.878 4.24119
13.1514 142.242 6.5626
17.3179 120.032 6.66873
12.3087 149.272 1.36284
-5.121 104.79 17.4928
12.9444 146.264 0.348691
0.903598 125.941 9.13517
-10.9687 103.514 -5.3346
-28.1504 103.043 2.19545
-14.7738 137.401 6.11954
-22.649 133.59 0.820388
8.1508 135.894 -6.25828
13.7614 145.566 1.51565
-24.7935 128.172 1.34768
7.8082 104.853 2.79154
8.82208 125.073 2.97883
-33.2703 129.65 5.23776
-2.7172 130.202 11.469
6.51323 116.026 16.7234
5.35466 111.712 -4.27552
-11.9738 124.685 -1.37223
-24.178 93.7846 2.82558
20.8636 136.592 3.54054
4.38721 84.9937 6.37169
-32.6729 130.364 3.45261
21.0529 120.743 6.28797
8.77127 123.659 -2.63866
10.7463 127.791 -5.4743
6.03446 144.901 -4.59438
-17.9372 132.509 14.8258
-20.2041 123.333 19.003
-10.7075 79.797 -0.901083
-10.2302 76.3704 -1.32232
-27.1885 129.462 0.531053
3.29425 102.992 19.4858
6.18914 92.8797 4.80906
-27.0423 120.752 -1.77704
-10.8065 131.911 -0.40908
-24.15 113.149 -1.82038
1.57008 82.157 3.63717
-14.7647 145.407 2.06713
-31.9599 109.59 6.84911
-1.2398 102.933 -6.13872
-14.7179 149.061 3.45196
-27.9076 130.266 6.524
-3.69003 144.012 6.28388
9.95545 117.061 13.8062
8.51988 110.556 -1.71763
-1.21869 113.833 13.6674
11.2195 125.931 1.25436
5.51894 105.685 -2.57789
-0.567137 131.12 -4.57958
-13.4692 127.203 -0.175076
-32.7794 105.742 11.6943
-2.29895 105.584 18.2198
-32.2874 110.419 8.98101
0.383481 134.006 8.20935
15.8885 117.643 0.238463
8.18357 122.935 14.2806
-22.8995 139.379 -1.58128
-28.4874 107.933 1.49736
-24.8739 127.066 -0.153556
-9.84996 86.1281 -2.33263
-31.0753 112.684 15.1339
-28.7683 118.644 12.5091
11.0023 141.451 7.04121
-24.1004 136.945 5.39729
-6.32016 121.687 -6.18047
12.4728 126.396 7.71393
-10.3283 129.421 15.1238
20.3197 120.402 5.22044
-27.6213 125.568 9.86888
-22.1538 143.188 -0.0328957
19.6249 121.39 -1.26978
-6.55954 152.747 -3.13139
-13.638 149.351 -0.531345
-3.22515 75.7896 -1.3627
-20.8305 129.234 -1.32835
15.3652 117.024 -0.286619
-0.655297 84.9612 -1.98164
-16.0726 116.155 20.4155
-30.4147 119.728 2.67963
-17.4189 94.685 0.617786
7.42915 94.6923 5.93111
19.2122 126.941 5.65569
12.2998 121.108 -5.1125
-14.6501 110.177 -3.75062
19.529 139.281 0.815461
-28.8818 133.744 3.97127
-4.63721 107.388 16.0733
21.5345 128.929 1.46219
-26.023 130.163 0.738897
19.7122 134.475 5.28661
-12.9963 138.778 9.13219
-28.4244 125.505 4.15805
10.6638 114.728 8.84847
-1.46237 109.521 -6.15151
-4.30756 143.553 -2.3928
-31.072 111.832 14.3684
-29.9809 119.971 1.25586
7.84328 145.934 3.53399
-1.17265 78.3977 -0.441457
-18.6581 132.988 11.494
-14.3418 146.945 -1.63543
-25.9848 129.106 -1.25436
7.67873 130.529 -6.25225
-31.525 132.525 -2.12899
16.0073 134.905 -3.25617
-18.1628 138.725 -0.441148
13.2265 121.851 5.45724
-1.66562 77.4095 2.84544
13.6561 134.651 -3.48465
7.03202 136.794 6.39214
-12.5642 117.028 -2.81817
-30.7076 114.706 9.52828
-26.0858 126.835 13.9961
-4.91596 117.083 12.3769
-22.5161 127.264 16.3261
-27.7371 129.679 6.8144
12.6097 119.03 0.54603
10.2101 109.476 13.8785
-23.8306 134.072 7.5836
13.2516 121.192 -3.16254
-31.4283 130.482 -0.811327
-18.0219 114.268 -3.33268
1.87084 113.312 15.4181
8.7249 96.1117 15.4115
1.50991 111.791 16.2857
5.22441 89.0328 5.46945
-9.2487 88.5977 -2.89115
-25.2537 105.218 -0.433313
-26.9454 129.66 -0.243084
6.76109 138.674 5.31097
1.11939 135.959 -4.92314
4.71217 135.773 5.9339
-18.1832 143.559 6.0631
6.17052 86.7401 11.4723
9.91442 151.846 2.00136
18.1276 128.976 0.35462
6.83818 103.818 -1.67751
10.1837 128.197 -5.63323
13.5553 143.374 6.30135
-5.32905 121.698 -6.42632
-26.7577 114.26 -1.50357
-10.2733 144.273 -4.49302
-13.7252 138.653 6.03257
-27.505 124.241 2.67895
20.2584 121.514 4.3223
12.0271 117.489 5.41433
6.96179 103.994 -1.47158
15.7067 125.369 -1.05418
-14.8632 134.476 13.0195
-27.9441 120.024 11.6997
-18.5593 134.04 9.63915
-20.8602 93.1523 2.14197
1.08077 123.527 10.0282
14.6014 126.375 -1.80346
-22.5358 128.65 -0.566869
6.39182 92.5661 5.6151
18.8177 128.812 0.141903
-22.4312 120.11 20.0156
-28.9681 118.209 8.43685
-20.1024 92.6163 2.04314
-8.71747 119.134 -5.64414
7.55151 117.072 -3.94432
4.79749 102.033 -2.6951
8.35227 152.081 -1.99561
12.9778 125.33 7.36122
-28.7875 130.157 7.44333
-30.2162 134.264 -0.920563
-22.2388 128.686 -1.82063
-19.239 136.715 6.08799
9.88202 150.173 2.56457
-11.9108 139.11 8.09274
7.10408 140.057 4.73824
7.9109 108.202 -2.10284
-8.59691 94.7469 -4.34392
-26.3876 127.996 13.1218
2.5922 85.8621 0.494467
8.38187 99.1992 7.57225
8.75217 94.2615 14.9795
-7.49329 116.375 13.6858
-7.75794 119.807 14.6911
-22.7224 129.963 -1.63196
0.303291 86.1229 -1.46048
-2.5398 76.2515 2.70729
-13.4776 110.755 -4.21147
-30.8732 129.258 -1.9557
8.3676 133.33 9.93422
-19.5297 120.479 19.8217
21.3801 131.187 1.75351
-2.94371 128.436 11.3632
-22.2937 131.325 9.72655
-2.92074 145.548 -2.39117
10.2992 121.877 1.4837
6.18311 115.712 16.9944
10.888 150.9 0.303264
-25.5739 123.76 -2.06429
1.71173 100.124 -4.29221
-31.8625 109.022 4.40194
-18.8228 118.637 -1.80702
-8.81473 151.913 -0.109871
8.48349 127.235 -0.096681
5.19715 133.995 -5.21381
13.573 127.798 -3.54472
12.8839 130.956 -2.74922
-0.0253473 96.3989 -4.30551
17.0168 142.327 0.00355973
-0.379807 88.1734 -2.93536
-26.9483 124.645 16.3358
-5.0814 136.449 11.5314
8.2905 92.5738 9.88361
-7.5972 106.242 -6.65679
-28.4974 105.118 1.83076
-0.412568 102.298 -5.65298
-28.9945 119.958 14.867
-20.6335 142.016 6.43899
-15.6726 126.093 -0.108987
-23.6143 124.944 18.3093
5.3677 85.5207 9.87266
11.8899 140.869 -1.42734
-29.2624 121.112 7.33367
-31.6099 132.619 6.42383
-4.17697 133.791 11.6835
15.68 121.842 -1.99
9.62773 127.208 -0.514124
-8.35582 87.8318 -3.42585
10.5892 134.737 9.31422
-12.5549 111.654 -4.84319
9.85242 119.767 13.7318
-23.8676 129.971 1.61439
-11.3924 122.079 -2.4926
10.5057 125.373 9.21699
-32.6964 132.401 7.66675
-28.1671 102.655 2.31658
5.72234 102.869 18.6383
-10.4839 106.201 -5.98577
3.09377 93.536 -1.10812
-20.82 133.033 8.92222
13.4351 124.087 -2.39044
-12.7261 148.892 1.91613
10.6641 119.561 8.72674
-30.6862 112.68 14.0317
-11.9826 119.609 -2.3927
-1.23394 131.542 -4.84188
17.1743 128.351 -0.926195
-0.802904 104.065 -5.78695
-33.648 130.146 1.68427
14.635 134.479 -4.01821
12.3597 137.958 -1.06254
5.54299 130.424 8.60907
8.46378 145.304 -5.05277
-2.21689 75.1451 0.482751
5.77484 144.063 -4.69556
-23.4636 138.644 -2.62832
9.2264 116.681 1.97401
-25.7859 106.673 -0.680291
-15.4774 80.3636 1.98465
-3.8859 133.564 11.5413
8.07866 113.948 15.4364
1.09189 127.55 -4.73721
18.5592 140.348 0.299257
-30.6441 120.618 4.31338
12.3187 129.466 -5.4912
-6.0296 139.538 9.51027
-26.3926 109.462 -0.213097
-32.2115 132.538 7.57296
-13.7694 137.526 7.55039
-12.3518 143.705 2.5313
-28.0491 121.529 15.0666
-8.84164 98.4397 -4.04016
9.62756 113.944 8.5103
-18.7342 110.414 -2.95753
-1.82393 135.604 10.5652
11.1868 127.81 -3.26698
-21.4152 99.7542 0.172204
-14.1986 141.704 -3.0806
8.25498 134.635 -6.24797
9.46351 124.534 -3.29834
17.0161 137.276 6.23699
8.14133 153.261 3.43269
-24.5128 124.861 18.0926
-16.2477 103.969 -3.54078
18.1854 124.598 7.50437
-27.1721 124.262 16.1346
18.7317 143.776 1.41707
-19.2323 131.013 -2.26094
6.24681 151.057 3.87194
-18.9915 139.899 0.511956
-14.7739 117.441 19.9674
11.739 134.237 -5.51034
-2.95846 123.976 10.4652
-0.101657 116.795 -6.03331
-7.78458 140.938 4.20821
-14.8413 147.99 0.396308
13.5213 132.254 -2.31324
-21.3679 133.979 1.11976
-9.51506 106.889 -6.1873
-17.7855 118.281 -2.05791
-24.5159 118.099 -2.82087
8.32458 108.172 1.37512
8.12491 109.209 15.8987
0.544084 122.996 -4.19485
-31.5745 135.859 1.06634
-9.72065 140.733 4.82295
7.7441 105.653 1.17275
-16.1354 151.425 1.40364
2.18153 108.419 -4.60858
15.3873 139.536 -2.06412
10.4108 135.369 9.18409
4.01273 143.197 -4.55027
-31.8462 108.447 10.9532
2.86508 147.815 -2.40324
-31.4712 112.822 8.73153
-23.2237 133.429 1.57644
-27.9797 130.265 -0.22211
-21.3217 129.683 -1.27015
-33.6704 134.491 2.62721
13.3249 141.558 6.91184
-27.1514 130.581 0.865083
-5.95713 130.234 13.8961
-0.653679 139.788 9.37681
8.14092 92.8874 9.43617
-22.3437 112.862 -2.25509
-32.1688 130.447 1.48464
-27.1873 93.2067 5.74079
-27.3443 129.823 0.643952
13.9972 127.153 6.54095
-6.48815 119.526 -6.57044
-28.3325 128.184 7.47239
-12.0381 91.0991 -1.27332
17.7522 127.996 7.57385
11.3504 122.682 -4.07113
18.0237 135.299 -1.58387
-20.1868 140.637 -1.18864
-8.4407 122.321 16.3504
-19.3201 119.753 -1.49563
-14.4069 131.215 -1.87562
6.81476 126.868 13.1868
-11.5736 146.267 0.146569
-23.8945 132.011 13.6681
1.89432 101.723 -4.02918
4.95554 153.11 -2.22316
3.42296 85.6163 2.53858
11.0768 121.054 -6.28524
-11.2094 114.483 -5.29323
14.3924 139.073 -0.747938
-12.2126 99.0557 -2.99933
10.8714 117.238 11.4092
-23.0175 127.771 -0.222509
12.0935 147.331 -1.53647
-19.1408 140.527 -0.233633
8.68933 97.5866 15.5004
-17.4776 146.965 5.85901
-21.0587 118.14 -2.24482
-1.36461 84.1175 -2.41868
14.8321 129.336 -3.27285
-8.13905 80.3078 -2.55113
-29.4323 120.835 2.10693
-19.9437 135.699 6.48921
-20.6353 127.699 -2.43532
11.7192 128.389 -6.02603
-27.9505 133.314 8.8751
-26.222 126.434 0.834901
-24.937 129.102 0.523809
-24.5942 129.937 13.6019
5.0844 127.761 9.63668
-27.5401 130.603 0.688847
-8.29948 98.2262 -4.33005
-10.8977 147.112 0.154165
8.90294 92.5061 11.783
-4.97987 121.065 11.8786
-6.87412 120.026 -6.37514
-32.0235 129.244 1.02217
-14.3761 144.067 -3.00893
-12.9995 121.743 -1.67675
6.54322 97.8279 0.969049
-14.9772 113.351 19.9089
-26.2452 129.178 -1.46656
-9.45698 135.749 -2.88213
-14.1821 109.063 -4.73735
13.4744 137.425 7.68811
-0.0711385 107.524 17.7327
9.1084 129.283 -0.0329575
-28.1221 129.904 -1.36711
11.6917 123.662 -3.29773
-28.4233 118.921 11.888
-0.230156 88.7336 -2.91209
7.3853 103.137 17.226
-22.1055 140.456 -0.796571
9.99821 129.373 -3.02878
-18.5159 101.573 -1.562
-0.325969 122.261 -4.4708
6.42105 116.788 -5.17491
-27.0613 122.565 -1.74549
-27.0006 96.2404 3.64895
-31.5476 108.432 12.6694
3.0768 123.664 -5.87503
7.01798 111.262 -2.88769
-4.77605 75.8744 -1.50107
19.9248 137.177 1.94494
13.6904 146.089 1.54163
-24.3315 132.539 9.64375
-22.1663 135.813 -1.52167
19.5996 129.459 4.1911
-24.5838 120.573 20.0067
-12.5209 96.1485 -2.65892
18.669 131.526 6.69066
-28.1617 123.23 8.85256
15.421 120.472 5.98428
1.78311 113.748 -5.63208
6.54201 131.67 10.5738
-16.823 123.089 -0.539663
-19.314 149.481 1.34783
-0.32763 113.946 -5.848
-9.76179 129.747 15.2614
15.5297 142.843 0.0802217
-1.23679 144.722 -1.7487
-23.2451 125.853 0.182827
-11.7161 150.584 -3.68895
8.28615 115.116 15.1818
6.58442 150.245 3.3557
-17.5522 126.795 16.8548
13.6613 122.053 -1.64907
-23.9035 132.453 -0.402163
10.7872 131.002 -5.40215
-20.1102 141.518 -0.375381
7.08646 133.771 9.95794
-26.0412 130.379 0.191343
-33.105 131.604 7.81313
-28.3727 113.35 0.780424
-4.86096 106.043 -6.95372
-23.7132 132.681 0.568187
-4.00697 85.5556 -3.66212
-17.7623 131.188 14.6877
7.30952 98.3125 3.43449
-24.8576 135.3 7.47779
-7.58503 139.857 -2.93353
12.1117 134.101 -1.32582
-2.74955 101.201 -6.43966
6.78699 138.655 -6.06326
-8.35119 120.968 16.0317
0.0897868 77.8333 5.48208
-16.5209 143.833 0.338846
-12.3562 110.215 17.7329
-9.14482 112.226 -6.12707
11.6902 132.574 -1.61314
-22.091 134.878 1.46363
-20.824 143.185 0.411173
-6.67284 123.899 14.8088
-11.992 125.864 -0.918481
-28.3954 132.017 5.35449
9.87404 131.12 -1.26946
-4.34553 143.058 2.89887
-22.6023 113.371 -2.50812
-4.39873 120.423 -6.37362
-11.6821 94.8339 -2.48998
15.0033 122.161 5.86487
-13.2746 130.016 14.8999
10.2993 147.868 -2.56059
-11.2481 111.43 -5.84888
10.5351 125.415 -2.2129
-0.655766 153.302 -2.37713
-28.9268 139.066 0.566812
-8.00729 133.77 -0.271927
2.11061 119.538 11.9544
-13.6275 111.615 19.546
21.4448 131.299 1.74325
-11.995 95.7099 -2.69721
3.29864 116.31 15.4437
7.84244 113.388 0.270542
-10.2969 86.2772 -2.00882
10.3914 117.165 13.2116
-25.1431 133.545 -3.44037
11.928 140.576 7.50872
4.25944 149.899 4.60019
-11.4083 126.836 -0.772632
11.786 122.799 -6.57065
20.9313 133.652 2.46081
3.35776 144.983 -3.7037
6.33389 100.761 -0.7185
-22.4406 130.587 9.16784
-23.7125 129.121 -1.11966
2.74709 137.77 -5.08839
0.639855 143.635 -2.2416
-13.8225 81.6897 0.236333
-19.1791 127.629 -1.53861
7.94848 119.205 -4.96125
-29.8029 114.755 7.21694
20.0492 130.734 0.870621
-26.4792 125.457 16.1105
-14.4294 99.1983 -1.92384
-3.08798 128.119 11.4788
-15.2173 113.764 19.9869
4.86865 85.4193 7.53148
-7.09986 105.647 -6.46119
8.48236 97.5482 15.6828
-12.4651 98.719 -2.59557
-8.81335 137.814 -2.9945
0.966354 125.542 -4.38747
-29.9745 116.933 11.3906
-5.84175 126.089 -5.01739
-13.3594 137.68 6.98506
-3.90307 113.804 -5.79323
-25.1308 131.207 10.2469
-3.70959 73.9428 -0.396037
6.24722 102.067 18.2374
-19.9081 130.346 -1.02092
-23.5652 126.918 -1.60131
11.2939 119.088 7.8281
-28.981 122.519 6.88517
-21.7434 117.823 -2.27732
14.0218 124.004 6.905
6.20517 99.5645 0.0508028
11.292 115.558 11.1124
8.14226 98.2591 6.55597
-18.685 133.84 -1.47328
-26.5132 121.653 -2.1598
-6.64613 145.685 -4.05062
9.06412 136.033 9.43121
0.589232 141.628 8.02284
9.36133 96.5533 12.5261
20.2637 140.61 2.3384
-26.4319 133.098 1.10726
6.62636 102.323 18.0867
-4.63986 102.283 -6.53682
-22.1657 122.869 -1.80343
18.5835 143.128 0.995021
-25.9414 113.644 -1.69445
5.11512 140.831 -5.46227
13.3866 124.927 -3.7773
-8.94106 139.216 -3.80168
-3.37014 140.684 8.67408
-33.5136 98.1701 7.2906
11.0877 121.114 -7.14553
12.9561 136.65 -2.90402
-15.7276 140.27 4.50701
-16.4253 135.053 -1.04529
-9.026 151.326 -0.0854329
-5.30116 84.9605 -3.54757
-19.3462 120.121 19.8839
5.72129 113.663 17.3108
-26.3093 123.341 -1.61471
11.1665 133.756 -2.34411
4.13963 108.273 -3.72934
7.60742 118.091 0.455655
-27.706 95.2122 5.29344
-28.7911 129.648 6.62774
19.5092 121.597 -1.30703
10.5334 145.435 -4.51612
-1.42528 109.678 -6.15801
-29.2311 133.728 -1.59576
14.1635 127.123 -2.48527
10.7158 126.977 2.21262
-28.8385 127.557 5.15859
10.1766 108.717 6.16855
-28.7323 128.904 6.00383
2.41462 81.3845 5.92024
5.76191 143.49 -4.83253
3.07444 94.8255 -1.32875
11.608 124.488 -1.04892
11.4603 126.392 -2.73251
-33.4394 134.014 1.25865
-0.414697 122.526 -4.50276
7.7864 104.553 16.4598
-11.2885 116.941 18.1475
9.65994 111.741 3.66713
-3.98903 130.149 -4.88401
-16.9715 141.496 -1.1027
-15.1097 145.824 2.63133
-4.62862 118.77 11.882
-5.18012 142.552 2.82109
9.267 121.205 -0.985302
-11.0089 124.561 17.9114
8.75788 120.364 14.687
8.67412 149.219 -4.05384
-14.4824 126.217 16.9357
15.3171 127.944 7.77182
-9.64017 133.2 13.3213
-5.14077 142.724 5.68485
-23.8372 90.5794 4.71552
7.84192 96.2599 5.35885
-17.9466 140.732 5.96187
-16.635 114.612 20.3564
-24.11 129.958 0.114442
-26.4604 115.412 -1.92309
7.66918 116.198 1.54134
-25.8017 108.825 -0.688589
-27.5876 142.001 1.43247
-19.3945 119.674 20.078
15.196 123.088 6.40661
-30.5089 113.353 13.103
-18.038 123.488 18.78
-7.79219 127.047 15.5697
-13.1411 111.468 19.2185
-14.9561 145.62 2.37201
15.218 131.608 -3.13646
7.43364 102.263 4.50178
-6.67614 109.629 -7.04624
-9.42915 115.191 15.3267
-33.243 132.662 7.66372
13.38 118.336 0.405583
-15.2211 112.128 -3.13397
6.9315 96.047 3.26228
-3.1171 109.848 -5.84278
11.5821 143.915 5.89605
-7.87945 106.667 -6.80097
12.9702 126.719 0.548422
-13.7616 123.578 -0.739549
15.4969 144.116 1.21876
-30.053 119.27 6.64004
10.5525 130.254 8.96695
-0.908837 85.0395 -2.20888
-2.31011 88.885 -4.007
8.57726 133.119 -6.17429
-20.4946 135.705 -0.810966
-1.73134 138.196 -2.43637
-1.66179 84.9681 -2.85906
-21.8373 128.666 -0.610054
-7.81761 138.096 10.3193
-9.7629 150.214 -4.03374
-11.7342 138.695 7.41639
-10.2112 118.079 17.3621
19.9616 120.223 4.67046
-29.6622 140.915 2.35747
-28.2179 130.627 7.2543
-30.7124 108.264 3.00221
4.17872 120.066 14.6263
19.207 128.57 -0.0049146
7.50263 103.326 17.015
-14.3548 114.004 19.8046
-31.269 111.787 14.886
9.32977 129.196 -1.64162
-5.48785 152.277 -3.22494
-25.6294 138.15 -1.06115
-2.6594 135.735 -2.74689
1.55065 144.481 -2.68541
-1.95282 100.106 -6.15761
-21.3556 139.955 6.41047
19.1385 137.235 5.8641
-24.5904 123.574 18.3024
-3.87896 118.446 11.8439
-17.1115 133.437 11.3
-25.023 127.835 16.8139
6.06256 146.766 3.89606
3.10754 146.456 5.23047
-0.529943 109.581 15.9391
-5.3271 102.867 -6.35842
-23.5194 89.0082 5.18516
1.82295 89.3211 -1.36987
1.2664 141.334 7.28225
15.4968 124.293 -1.44178
-25.4888 101.471 1.11848
6.66868 141.244 4.52751
9.60204 141.538 6.35513
-18.5355 148.941 4.79332
-24.7726 133.46 -3.64189
-7.00403 140.08 -2.73172
3.97616 108.413 -3.88857
-17.3174 112.612 -3.44004
15.7525 140.499 -1.30748
14.4462 127.17 6.98079
-15.3965 138.762 4.46041
-19.748 90.0897 2.67186
4.12444 121.579 13.1702
-34.0248 133.581 3.63265
-28.4823 140.233 3.43512
-9.66015 107.288 16.2777
-26.9128 129.631 7.51316
8.74799 97.3936 15.4011
-25.6183 109.426 -0.614196
5.64075 87.5135 6.61358
7.12621 89.5698 9.13908
-31.9073 133.101 -1.06196
12.4366 127.451 -4.85469
-5.38884 152.368 -3.15289
4.65227 133.2 6.93953
-7.57796 117.631 13.8763
8.14004 133.54 10.0285
-23.2951 144.093 0.246834
-26.6249 131.548 -0.262006
-1.26083 129.214 -4.46608
-8.94857 138.94 -3.65754
12.4948 149.116 1.53753
-21.2091 133.417 12.0182
13.5914 124.85 6.35824
-2.36465 112.434 14.1055
-1.28419 107.875 -6.21011
-20.89 125.458 17.6509
-11.338 147.388 -4.49952
-12.0314 139.273 -3.70302
-3.0583 94.9812 -5.42993
0.442654 109.987 -5.54206
6.38164 120.689 15.5028
-21.5569 132.827 -1.1006
22.4271 122.839 2.39334
2.91141 148.697 4.70775
14.9834 117.926 0.513664
9.89354 109.139 3.45447
-24.9936 126.611 1.26964
-8.84308 140.629 8.47138
-16.7414 146.583 5.14755
11.9521 120.95 -5.43202
-24.711 99.0943 1.25759
-32.9744 128.919 1.54119
-19.4868 124.194 18.271
9.06754 126.504 10.2521
-28.7118 117.954 11.0155
9.76623 119.914 13.0269
-34.2427 131.713 2.86917
-8.20485 134.444 13.2549
-9.28679 110.613 14.963
-8.39113 118.591 -6.24938
-20.5342 120.807 19.7963
-14.66 112.587 19.784
22.1565 126.727 0.282259
-0.785866 114.396 -5.7871
-31.6783 106.215 10.5576
-3.81042 99.4941 -6.34206
-27.5756 129.11 2.95487
-12.766 113.051 19.0051
-23.801 139.282 5.50202
1.2494 108.133 17.5968
0.378397 134.343 -4.84289
-18.8326 146.591 -0.253932
22.1459 124.338 2.18871
-13.7679 81.7382 0.211173
-16.3019 151.266 1.08844
-9.23468 140.193 9.40527
-0.0106311 110.369 -5.89945
-21.6718 139.772 -1.70299
-4.07108 117.943 -6.06992
-14.0262 150.244 2.93512
4.87657 139.776 -5.76401
-2.99792 136.771 10.7668
-18.1175 121.282 -1.29966
-15.9361 144.038 -1.33639
-23.2936 131.389 -0.063159
14.5751 119.525 -1.42855
10.7931 115.221 6.14491
-15.4829 126.155 16.9709
-27.4548 126.087 10.1566
18.9545 123.806 7.55582
-16.9583 101.993 -2.45124
-32.7437 130.282 0.686373
12.1386 144.176 -3.2674
12.227 142.779 -1.6786
-10.9768 133.978 -2.06492
-27.145 130.108 -0.0164812
-25.1994 129.168 -0.155734
-1.91135 138.468 -2.14746
1.07015 130.302 -4.69304
-24.0723 131.989 0.99234
9.7167 149.371 -1.96067
-8.47738 117.146 14.6353
9.49125 107.202 7.02328
-13.4847 93.8762 -1.61627
19.2252 122.598 7.26634
1.46401 101.647 -4.36931
12.739 148.016 0.456912
8.62328 123.503 -2.68192
-25.8178 130.009 -0.353267
-23.7834 134.574 -2.89472
-1.26618 130.342 9.72443
-5.7177 119.471 12.3224
18.7356 120.526 7.06668
-31.9597 135.878 1.20354
-10.7314 88.9563 -2.07777
-27.3949 95.172 4.95009
10.5953 111.926 13.4937
-4.66535 109.873 -6.3552
11.5365 119.963 -7.26887
-18.0874 125.397 -0.84811
6.0073 131.117 -5.98573
8.23415 96.9447 15.8799
-24.5576 128.095 16.795
-10.5553 110.671 15.4811
-6.49844 131.478 -2.67704
7.91875 111.963 -2.78105
-25.1307 124.693 1.02241
-32.9027 102.939 7.71031
-31.6774 132.776 8.00203
9.99691 131.455 -3.41421
18.8517 144.219 2.77105
-10.1534 94.148 -3.27667
-19.0055 138.848 0.00882001
20.1629 133.498 4.85344
-19.3757 149.769 2.63522
-5.74007 153.199 -2.69288
-28.448 130.705 -0.580064
-11.3505 92.3789 -1.93228
6.90392 98.1942 2.16029
-5.7508 153.858 -1.5219
-0.29092 151.853 -2.77147
6.00334 90.8991 6.05325
-12.3109 147.757 1.03935
-12.4433 139.431 5.40746
-34.0154 128.958 3.32636
-10.0703 124.271 17.5513
-11.5486 109.289 -6.11103
5.54502 91.3731 4.81096
-15.6532 150.337 0.198656
1.3568 94.4868 -3.16197
-28.4628 133.945 4.48896
-7.31774 129.562 -2.87951
14.0581 131.183 7.89951
-29.3171 118.248 0.716096
11.5904 120.611 -2.3451
18.0505 121.467 6.82176
12.6374 120.297 4.53301
-1.41056 82.101 -2.03335
7.09304 100.2 3.88878
-21.9791 124.217 -1.71931
-0.898417 77.5068 3.93003
-6.93599 154.103 -0.924662
16.6925 131.651 -1.85064
-22.0622 136.793 -2.10451
-21.2535 131.437 8.82641
-14.7653 78.7961 1.99368
13.0766 119.955 5.268
-25.6838 126.335 0.468036
-6.3967 141.789 5.70289
19.4309 122.815 -1.91541
15.7121 132.977 -3.32013
-15.1469 147.858 0.73589
-14.0841 147.819 -1.75605
18.9107 134.891 0.576481
-16.2458 136.018 11.3388
2.67118 130.934 -5.41163
2.43936 83.7437 2.0149
10.6507 115.194 12.9942
11.706 120.435 1.18754
16.4996 119.211 4.91079
-6.53357 113.547 -6.87478
-5.61425 136.484 11.8528
-17.2026 143.572 4.14868
1.04392 82.5269 1.52259
-27.9207 101.217 2.56695
-15.6868 114.279 20.1197
-30.6527 116.128 4.14614
8.51079 94.9557 15.7031
10.9487 131.481 -3.24298
9.51016 137.287 -6.49111
4.87386 147.546 -3.41565
13.2052 146.472 1.48391
-3.58756 125.8 -5.73484
-28.8365 123.239 3.65124
12.4819 145.278 -1.4231
-17.9656 103.772 -2.40987
-25.7547 144.783 2.59263
-7.59866 140.851 8.84492
-29.3627 119.437 16.1309
2.9731 116.438 -4.46305
20.3278 121.726 4.16713
-22.6227 92.0271 2.78764
-12.5355 118.835 18.9935
2.23553 118.102 13.008
-27.9204 128.778 6.97353
20.3157 126.935 -0.815666
-1.80562 117.126 -6.14268
-28.4666 125.448 4.21659
-4.00292 111.308 14.3741
-0.586572 124.541 9.7542
-28.0705 134.084 5.6224
17.3805 136.045 -1.98169
-1.36976 111.829 14.5743
-30.0596 106.145 2.48965
-15.1259 108.76 -4.28603
-3.4294 117.698 11.9738
7.67839 103.925 2.56316
-27.1094 127.604 11.8848
-9.50502 144.423 -0.251437
-16.5376 131.78 14.9945
-16.2039 95.4615 -0.336803
-0.683809 77.1319 4.75092
-0.455099 134.229 9.57842
-8.92613 136.422 12.1418
9.48049 122.699 1.92492
-12.7001 100.284 -3.52775
-7.11029 128.316 -3.57281
0.684184 131.383 -4.80123
8.60044 132.718 10.084
13.3504 134.15 -2.80216
-29.9389 128.385 0.0842911
1.03924 104.552 19.5933
-7.82538 78.9022 -2.48743
13.6759 130.211 7.62609
-33.7496 134.489 4.5361
19.6813 135.898 2.66681
0.043305 88.3417 -2.62505
-26.8445 123.649 14.1032
-16.9568 117.407 20.5526
-16.5969 85.7962 2.33688
19.3039 119.718 5.83942
5.37614 147.71 -3.60806
-1.09277 114.738 13.2935
-10.8521 139.098 7.24659
-18.008 134.32 9.05508
-4.75075 113.251 -6.14226
12.2608 131.544 8.08351
-18.4757 134.477 -0.97565
-32.0422 109.42 7.03944
-12.9484 146.468 -3.47693
4.93666 103.57 -2.80224
-4.22495 137.953 -0.724205
4.37825 104.472 19.3386
12.1726 144.382 5.98738
-7.28969 140.627 5.17966
-11.9729 91.9977 -1.6458
-25.2815 131.078 9.85735
-3.57661 123.69 -6.02027
0.514922 139.181 -4.35356
2.93182 81.9907 6.22026
12.9335 132.421 -4.62893
-8.86087 116.102 14.7883
-5.18114 141.063 -2.15854
-29.2999 133.744 8.4934
-23.2231 137.779 -2.92427
-26.7867 128.996 2.77112
-27.8787 100.036 2.65302
4.25555 123.671 11.367
-9.9944 107.522 16.2564
-24.2686 119.029 20.4996
-15.3325 97.4983 -1.29793
6.0205 113.367 -3.71218
-6.84069 76.5566 -1.85936
-19.9265 120.68 -1.37844
-26.6576 115.478 -1.82999
1.10332 109.011 17.3434
-27.4539 122.086 12.7929
-22.4533 139.306 6.6561
8.58303 120.644 -3.17148
8.9629 105.659 8.2041
4.46251 141.608 -5.09646
-25.9902 130.454 7.72664
9.03975 96.5546 8.91856
-22.5154 145.337 5.01786
-23.9551 132.734 -0.177664
5.82541 147.22 3.92009
-29.828 137.071 0.114749
11.4629 141.454 7.00627
6.65013 110.243 -3.29758
-5.96306 147.415 -4.06636
-27.6163 129.225 6.31723
16.5828 132.25 -2.22021
-22.4524 145.186 -0.187691
-20.3543 133.46 12.3533
-3.29756 79.46 -2.25971
18.0867 123.055 -2.01279
8.49043 127.557 0.326933
13.5782 137.993 -0.776061
4.53846 90.1918 1.85746
-23.9878 139.463 -1.50626
-26.5704 143.985 2.58149
-10.111 91.9053 -2.62523
-29.8882 114.136 5.97448
-0.90978 107.449 17.3254
-12.9952 136.092 11.7647
-10.9643 127.533 -0.828336
3.8129 90.4899 0.733945
-20.5321 136.966 -1.21189
11.1982 134.945 -5.89872
-14.3563 106.64 -5.45833
-27.9142 122.026 15.885
13.1565 119.955 4.97804
-32.0714 108.262 10.5593
-4.04637 132.267 11.983
-2.82524 153.613 -2.2943
14.8272 135.23 7.0171
6.14134 88.7109 7.15495
-27.2454 121.64 11.1821
-16.8778 112.276 -3.40887
17.0405 126.033 -0.936927
21.036 127.432 1.75601
-5.12862 130.859 -3.9955
9.39003 129.101 10.4941
0.482147 137.477 8.18709
11.4013 143.855 -4.18135
-5.90654 132.184 -2.84587
-18.3315 100.01 -1.10198
-12.9692 132.647 -2.53973
-2.60782 128.509 -5.41964
-19.5586 146.817 5.97949
-20.777 134.961 7.40884
8.61333 118.453 0.654723
19.3951 127.591 5.55538
-25.1357 133.706 -3.24168
20.0362 125.983 -1.21236
-27.9359 128.181 9.46843
6.08206 99.5359 -0.555892
5.11873 112.365 -4.13316
-4.86772 110.164 -6.39525
3.39748 84.8127 3.43642
18.0602 141.858 0.0459794
-26.7423 125.928 12.3167
0.349895 90.5203 -2.75541
-4.5486 113.345 -6.05463
11.559 125.426 1.10126
-33.3359 129.287 4.4339
-29.5851 119.076 15.5581
0.0822719 120.255 -4.51324
2.72151 82.4352 7.51449
16.0436 134.183 6.89045
-6.45876 107.522 -7.01164
14.5193 140.433 7.19936
-20.0506 141.398 -0.452357
12.4007 131.816 -4.04019
-3.21491 111.235 14.5131
-15.066 136.904 6.68377
-25.6576 97.9962 1.93114
-13.3112 122.089 -1.42813
-12.5413 126.861 -0.153585
10.0753 143.13 5.9209
9.5024 126.617 1.47642
-15.0356 131.591 -3.58602
-5.65247 102.362 -6.00966
-22.4133 132.004 -0.247086
-12.4282 121.176 -2.0927
-5.79519 112.337 -6.54003
-20.5133 148.908 2.0109
-24.6182 129.759 -0.432546
3.41325 83.4182 8.96255
-6.65162 107.457 15.7675
13.0386 122.099 2.40691
-24.9866 124.662 18.0296
16.7742 142.387 6.12624
14.8781 131.115 7.83543
7.57252 121.279 -5.28008
-33.4452 131.235 -0.0253589
-3.21217 124.646 -5.71619
-13.4268 97.1564 -2.21376
16.1081 129.696 7.4987
-30.8501 112.926 3.7468
10.243 129.012 -0.649252
19.005 128.173 6.69595
-30.2379 134.512 7.49409
-4.01009 87.6698 -3.96068
-11.3464 92.3657 -1.93107
-32.2406 131.235 4.07339
3.00088 138.344 -5.19714
11.5193 120.756 -0.792556
9.618 103.269 13.0944
-23.9587 132.487 1.15911
-12.2198 116.68 -3.06532
-13.4452 126.853 16.0628
14.2155 120.02 4.78343
-26.2175 130.753 -0.39951
-32.9452 103.733 9.79112
-15.3026 151.817 1.47492
-31.1444 133.837 -0.884871
-1.41832 94.3689 -4.64178
18.7123 127.304 7.58057
-20.4962 140.468 -1.38193
20.0352 122.065 4.50469
-10.5427 147.286 0.0651048
-13.0848 75.4345 0.600213
-28.5468 124.472 8.89549
-26.0503 93.7094 4.68489
17.8693 127.968 0.170859
14.7813 131.371 -3.44996
-25.3003 97.9221 1.79055
-30.7557 115.862 12.8726
18.9092 127.472 7.31798
-30.3055 113.647 6.39877
1.29283 84.0296 -0.504664
-7.44553 134.511 13.2109
7.18231 90.9592 8.05331
18.05 135.387 -1.56845
-10.2188 116.765 -5.59738
14.1478 118.456 1.01398
6.83562 88.1637 10.3987
12.8527 132.114 -3.54605
6.65524 115.577 16.6219
10.2451 119.248 9.86768
-8.63406 121.116 16.4197
10.6412 130.78 -4.32152
0.100591 113.889 -5.94694
-10.245 139.806 9.1841
-31.887 101.719 5.01195
-20.2073 136.058 6.516
-9.23589 106.083 -6.38167
-13.9206 143.043 -2.90582
10.8852 125.947 -3.28176
2.96734 130.011 -5.54927
11.8117 125.327 1.6689
-28.508 131.874 6.50274
4.45147 87.9858 3.88256
-17.9139 143.426 0.76535
-7.95181 119.947 15.0167
-24.5995 131.188 -2.40885
-9.79126 98.4458 -3.59254
-26.8637 124.799 14.9755
19.2077 125.351 4.66872
-4.15934 111.099 14.45
-22.2363 133.872 8.16383
15.2107 141.65 6.78004
6.06166 109.369 18.0384
-18.7449 132.929 11.9393
10.4747 131.621 -3.12132
-10.6273 125.561 -1.92793
6.86782 151.16 -3.11408
-30.4747 115.579 10.2221
-4.67516 141.201 -1.94416
-23.8548 98.6637 1.32199
-24.055 130.089 14.4844
-5.63469 109.976 14.8306
16.2467 146.794 2.26187
-5.29194 148.146 -3.83347
-15.6892 146.123 3.29569
-17.8616 139.238 -1.20569
-32.6569 105.392 6.07949
-25.3623 128.302 -0.119102
1.26684 99.0275 -4.31818
-9.53239 143.824 0.513893
-17.9892 142.122 5.65834
11.9666 139.436 -2.32424
15.4921 117.947 2.76784
10.8173 119.527 -5.34952
11.7664 124.879 5.64831
-31.3464 112.039 7.98998
-11.5601 148.027 0.837692
-3.98177 99.5426 -6.3195
-24.4806 140.541 5.45833
13.8935 132.351 7.82002
-15.8213 137.047 5.52452
-20.3803 132.518 14.0788
-31.0691 110.371 13.853
18.7375 119.588 7.17844
-3.78626 143.296 5.04272
-18.4651 133.227 -1.499
-20.0118 129.366 15.0014
2.22908 115.008 14.7296
-5.39435 115.508 12.8674
-5.4795 109.276 -6.8562
-12.7537 81.7121 -0.24131
-26.5121 132.449 -2.82544
9.68484 130.928 -2.91192
-9.6249 140.408 8.7255
-3.44496 118.023 11.8884
-30.211 130.408 -1.84695
2.87679 114.61 -4.48145
-6.42956 102.495 -5.65263
-32.3491 109.137 8.41255
6.14799 127.926 12.4083
-17.7897 118.186 20.634
19.3109 122.282 7.19246
-7.31143 142.041 2.62343
-16.0806 94.536 0.0104579
-23.5494 126.009 0.497902
-22.1889 146.321 0.160834
10.4556 132.607 -6.33849
-22.962 139.132 -1.92781
-3.26686 129.1 11.8611
-11.2239 111.148 16.5573
15.6162 146.14 1.25809
-3.36026 132.1 -4.39846
-26.8314 123.446 13.3477
-3.43287 81.2493 -2.83809
-13.1619 111.545 19.2714
-14.2938 117.199 19.8263
-7.8329 133.752 -0.199453
-6.52217 131.481 13.8263
11.4569 126.866 -6.18649
-22.4303 145.693 4.93827
12.8187 127.826 -4.28228
-1.97859 91.4632 -4.29807
-14.0133 119.24 19.6691
10.8508 108.176 12.4491
-7.1253 104.434 17.242
-5.82248 117.339 -6.62437
8.26306 115.516 15.2263
-22.7702 98.5217 1.30288
-26.2142 132.343 9.35885
-0.757662 106.838 -6.07106
-16.3436 144.847 0.834512
-25.4097 130.401 10.553
-25.7026 120.228 19.7542
-8.48726 143.961 -0.239812
10.1211 135.684 -6.50601
-31.1925 110.925 7.04885
-26.3632 124.942 13.8278
-3.01237 126.536 10.9315
-28.5017 131.482 5.32986
-33.4618 129.054 -0.149438
-12.7219 112.691 18.9313
10.2171 114.623 6.65302
9.30671 123.028 -2.62317
-20.498 130.529 14.7495
-11.402 144.29 -3.96444
-5.19198 143.189 1.4246
2.31879 118.279 -5.14534
-9.31483 137.043 11.3816
2.36401 138.475 6.83349
-27.6232 135.178 7.76712
11.8822 117.444 5.14812
13.7792 117.186 -0.140579
-4.88748 125.471 -5.94298
8.76406 141.767 5.27064
-1.72312 120.478 11.0096
-19.3568 102.074 -1.63786
-34.6722 131.799 5.85091
3.85725 131.86 7.25938
15.3002 128.453 7.88947
-30.2175 105.792 2.80415
12.6913 124.173 5.5639
2.13296 92.3847 -2.00823
9.04271 94.9134 10.4161
-14.7219 106.012 -5.22605
-2.80117 111.858 14.2978
-10.6205 138.271 10.489
5.35825 147.872 -3.55325
-2.38492 128.492 10.7184
-22.3764 123.701 18.9358
-21.2036 115.599 -2.97286
-16.312 131.803 15.0183
-10.9123 82.9927 -1.33018
-31.8361 137.629 2.28379
-21.6436 112.717 -2.44213
-18.2607 124.263 18.1939
-7.90115 154.169 -0.140944
-13.0835 82.1167 -0.10049
-0.400275 97.8513 -5.01686
-14.0793 139.673 3.61477
-11.1529 104.12 -5.55441
-15.6846 144.451 -2.26127
21.5895 120.15 5.0939
-10.67 92.9594 -2.48985
-18.522 133.213 -1.52766
11.0911 109.025 11.8018
-1.49487 105.754 18.7099
-31.6467 106.479 10.7288
-9.53886 85.0616 -2.23398
18.8134 139.326 5.48244
-2.71349 132.436 11.389
-31.7681 109.9 4.82562
-8.62298 83.7205 -2.72098
15.8496 127.877 8.1072
-26.2351 143.919 1.4256
-24.6151 124.94 0.0309439
7.13847 114.504 16.3917
-25.95 129.692 11.2997
5.92263 102.429 18.463
-24.1977 121.441 -2.18583
12.7954 120.487 6.53344
8.76593 96.0817 15.3739
-14.8813 147.348 -0.564246
1.88992 79.9781 6.44269
-15.8731 150.249 3.87748
-28.0525 131.924 -2.76307
-23.8013 124.811 -2.54598
16.4566 146.146 1.26263
7.03534 116.004 -5.01536
-27.5358 136.845 4.5061
15.2288 134.833 6.97971
-0.814181 144.032 2.45164
9.51203 100.44 11.7963
9.63596 123.644 3.94086
-19.8782 131.164 -1.84016
-9.41607 130.009 15.3112
-1.68534 123.17 -4.99875
13.1863 122.569 -3.85598
-30.1212 118.131 6.63846
-18.0749 127.579 -0.867306
8.8988 95.5332 14.3958
10.7615 125.38 8.80811
-28.1449 133.599 5.51452
7.75705 114.114 -3.94805
15.7383 124.291 -1.48387
-7.89462 75.4304 -1.66499
-13.522 136.594 -4.05936
-30.9402 111.746 14.0036
-12.0222 148.851 1.4083
13.0887 128.087 -1.19379
-0.79237 136.361 9.35746
-31.0803 108.708 12.3088
-28.5872 131.532 6.20952
-4.87839 74.4525 -0.98818
10.6146 114.744 8.39848
-31.7801 106.851 4.73188
-28.5688 131.505 5.81049
4.43922 130.875 7.76441
-15.9779 134.42 12.5216
14.127 134.017 -4.48614
16.5355 127.23 -0.801363
8.39493 114.323 5.05654
-1.79619 91.01 -4.2203
-16.591 123.832 18.5735
10.7819 119.518 8.38845
-2.45073 88.6489 -4.00844
-8.86522 114.143 -6.52878
-9.1899 140.559 8.77452
-14.3601 147.816 -1.01736
17.3702 137.077 -1.55419
14.7337 148.757 2.16796
-2.28804 137.376 10.5345
15.3838 134.447 -3.639
10.3548 127.161 0.607635
-25.3291 128.433 0.797531
18.6574 132.656 1.00633
-23.9238 97.6765 1.58647
-9.07494 125.849 -2.99869
-13.1796 135.874 -4.22836
-24.3918 130.37 0.970649
6.53804 133.935 7.76913
11.1294 111.038 9.05707
-2.10651 120.039 -5.55955
-6.08054 119.013 -6.65539
-7.22474 126.106 -4.1269
6.5173 96.5641 1.59569
-27.7637 128.364 6.41072
-12.5849 89.4602 -0.759606
-2.12849 118.432 -6.09218
21.1515 124.682 0.157027
22.5242 122.639 0.654954
-17.9223 138.91 0.330683
17.7857 141.972 -0.088094
-26.3728 129.769 -0.630084
8.67593 95.4072 8.706
-19.6313 125.833 17.2833
10.4511 127.298 -5.01452
-11.724 145.375 0.0119215
13.1457 135.811 -1.19155
-29.0888 132.253 5.65806
20.4785 125.8 2.27735
-28.1905 131.017 6.88094
-12.5197 147.979 -3.63711
-21.8732 96.7052 1.72417
2.55968 152.868 -2.45574
-17.3239 138.624 6.34095
7.98365 102.814 5.48767
-22.1529 107.923 -1.8803
-11.8805 141.536 -4.21157
-25.0876 129.225 -0.652218
-22.2408 91.4887 2.81168
-21.7433 132.446 0.75162
6.0958 123.641 -6.53069
-11.8368 89.3971 -1.35445
-29.148 114.754 0.539696
-18.4379 137.893 5.88184
-4.89161 137.404 -0.536404
11.5812 127.856 8.55618
8.58018 124.924 0.841168
9.21898 98.7281 9.45503
-23.5079 105.288 -1.26659
-8.78517 153.447 -0.617251
9.32526 101.028 12.4836
6.92746 88.6592 9.43541
-13.6562 109.799 -4.60396
-32.198 110.572 8.95547
-34.1431 133.849 4.60021
15.7268 133.346 -3.47323
-1.81202 128.702 -4.80642
-3.00091 143.536 4.46991
-5.91147 132.593 -2.59507
-17.6259 138.484 6.24325
-2.78282 116.571 -6.22688
19.7586 125.776 3.4386
-9.70217 125.627 -2.56004
12.0548 118.648 -7.08115
-16.4014 111.148 -3.13736
0.191563 137.149 -4.92983
9.15789 121.526 -1.58965
1.9303 126.985 -5.2623
21.4191 123.323 0.0571203
8.862 122.812 13.7667
-27.6796 133.967 -1.35299
-14.7345 147.479 -0.654584
5.34587 140.06 -5.75624
-31.8641 133.546 7.37174
-28.076 133.951 4.59507
6.71337 145.201 3.80939
-10.8135 151.002 0.923777
8.4392 142.21 -5.9035
9.40916 129.222 -1.97696
13.0306 132.725 -2.92282
-10.4981 122.598 -2.7089
8.10775 114.764 4.73394
-19.7199 129.942 -2.08206
-14.6774 79.9788 1.40098
10.1498 108.83 5.58272
-26.189 122.028 -2.38504
-10.9237 150.568 0.973639
10.5128 116.651 13.1704
6.49796 87.5464 11.6023
-9.59432 133.383 13.2167
13.1092 131.235 -4.70721
-7.75211 122.489 -5.10618
-28.105 129.426 5.53465
19.2122 138.327 0.27179
-18.8825 140.458 0.354878
-28.6128 128.825 0.383944
5.44684 97.0983 0.0713361
19.3658 128.617 4.50694
-27.7056 131.134 6.25631
-23.6108 125.494 0.629327
-23.1034 103.494 -1.11609
0.288392 86.4343 -1.60165
-27.9547 129.719 6.42678
-9.63729 86.8937 -2.65107
5.17195 149.42 -2.98655
8.36637 118.729 15.1659
8.93739 138.416 7.60145
10.4908 106.208 13.1671
11.0196 132.877 9.03034
-10.8759 84.9838 -1.3064
-31.1501 105.78 3.6694
6.27603 93.1003 4.73995
-18.2623 114.487 -3.26292
19.9727 120.331 5.8226
-7.16937 124.769 -4.36593
-1.41076 131.534 10.0937
-17.7057 148.202 -0.129287
-13.1899 115.478 -3.18797
-1.21579 144.474 6.09516
-32.2375 104.965 8.76731
-2.27504 134.744 -3.26
8.95751 149.573 2.59192
10.9734 125.231 8.68341
13.6003 127.918 -3.62084
2.19008 107.716 -4.38373
7.69524 100.921 5.32054
-25.5575 132.943 9.44185
9.5999 122.717 1.23381
12.1894 143.517 -3.02598
-32.3687 132.194 7.29108
-26.3016 131.22 -1.08635
11.3028 120.485 -2.62413
-30.1567 132.974 -2.50794
1.84882 124.739 9.57228
12.0713 131.431 -3.65762
5.80474 150.543 -2.87357
-17.5661 121.433 19.3335
-0.91486 84.4523 -2.10751
-4.69207 153.919 -2.14175
-2.16518 109.066 -6.02907
-19.1607 131.102 14.2169
5.9183 137.83 -5.91555
-0.118975 138.481 -4.04809
11.8556 131.437 -4.36892
10.0292 134.81 9.64092
6.1493 96.4814 0.893417
6.58259 87.6267 10.7252
-8.29776 118.396 -6.29752
0.614949 142.464 -2.82846
-15.2965 83.8529 1.33038
12.5971 123.336 0.223938
-3.28317 135.722 10.9023
20.1905 123.428 6.58558
4.11925 89.4372 1.11192
12.891 119.996 4.80143
-30.3268 135.995 4.89137
-7.63786 119.391 14.3345
-21.6975 135.056 7.32304
-26.567 131.338 -0.770842
-7.79641 125.237 -3.99829
-22.5908 93.9931 2.40788
-12.2625 121.477 18.7713
-21.6633 120.858 -1.61333
-31.4528 108.017 11.6491
7.74958 141.726 -5.79383
-19.5555 133.402 12.6465
-10.6646 99.3142 -3.50745
-30.547 117.823 4.47502
-12.8632 152.944 -1.24328
3.17014 149.331 4.56505
11.5762 127.917 8.57342
2.58896 144.626 5.95329
-29.2391 137.708 3.39839
-22.1372 88.9007 3.97425
12.9614 125.426 5.44914
12.1432 129.333 -2.80055
-34.2657 128.953 4.39024
12.9099 124.144 7.43705
11.1551 126.229 -3.38533
-7.38584 120.108 14.3352
11.5794 131.724 -4.90673
11.8446 139.55 -4.19279
-19.3935 149.069 3.95082
12.7127 124.435 5.2514
-29.7981 115.423 1.35544
-9.24126 76.3439 -1.56446
-0.364635 137.111 8.73432
-23.1096 130.534 9.26208
-0.335031 140.219 -2.92723
8.82566 106.488 6.34014
0.510384 100.803 -5.00014
-2.03569 137.012 10.423
-13.5905 122.471 -1.12684
10.1982 127.509 -3.12873
-23.4874 142.944 -0.0638991
-18.0133 119.039 20.2974
-26.1758 104.349 0.411106
-0.754309 78.4032 0.413318
-34.7744 131.086 5.8797
-20.1459 136.228 -0.402634
-0.469642 94.9041 -4.18231
-15.0493 133.954 -3.36235
5.09896 130.373 -5.86661
-12.0711 94.909 -2.36869
-12.7011 151.97 -1.49905
-14.1357 132.657 14.4186
-15.0235 151.938 0.888577
0.282333 92.1109 -3.24149
-23.4263 141.934 -0.285927
-10.1109 122.601 -2.88309
7.64143 103.446 4.68626
-11.6367 125.523 -1.29048
-4.49545 132.797 -3.38134
-28.0901 130.918 -0.553446
2.87317 140.99 -4.91324
-15.5306 104.419 -4.16201
-4.30803 116.765 -5.89267
-26.1142 130.292 2.46349
7.96829 122.034 -5.67355
-16.5662 149.523 4.45067
-32.5006 131.147 -0.340951
-24.0892 143.595 0.735401
3.20584 83.0382 7.20617
-14.0806 131.579 14.673
2.37485 135.478 -4.89855
10.2382 138.052 -5.66836
-22.8806 133.677 8.48027
-0.576943 79.3071 2.36615
-5.44834 98.8824 -5.88706
-25.6355 125.217 17.7822
-15.8267 136.95 6.81876
0.512156 124.002 9.85239
-23.3484 132.121 14.5759
-13.7202 122.568 18.8827
-15.9175 102.704 -3.31837
-15.8117 137.351 8.87625
5.49718 102.988 18.773
-31.1088 112.447 14.9393
3.12164 141.068 6.22702
7.62958 117.605 -4.27855
-3.61281 114.642 13.0342
21.5915 129.815 1.04365
-1.31826 144.336 4.07881
-26.1868 132.982 1.69935
1.13074 146.658 5.36984
10.6664 125.307 9.05765
-26.6854 122.571 -1.98878
-23.9379 130.378 0.876645
11.3513 122.462 -7.03276
-11.9324 136.482 11.9276
10.415 111.94 7.69668
18.3824 130.059 6.73397
-30.1908 131.454 8.19294
9.92948 109.463 14.145
7.80771 137.014 7.41447
-21.1955 129.88 15.1936
1.88006 95.6537 -2.87038
16.9258 146.218 2.86885
-24.8306 131.682 10.5954
-10.3721 110.845 15.3824
-33.1536 99.7277 7.27016
9.02705 112.616 -0.797323
-24.7956 138.537 -2.31965
11.7203 130.953 -5.16829
20.4825 134.134 2.28963
0.516518 126.701 -4.27508
12.5378 125.399 5.1217
-27.3177 128.818 6.439
12.0353 127.901 1.94826
-6.19801 109.202 -7.06193
10.7823 125.866 -3.76621
11.1589 113.618 12.1284
12.0564 118.544 -6.9604
14.1496 118.258 2.0561
15.9073 147.055 1.15724
-34.0809 132.488 7.80439
12.9225 136.425 7.97484
-1.26224 127.868 -4.57042
11.8376 118.884 7.33802
-22.4066 130.875 8.9142
-28.9919 131.823 5.15205
-1.19457 112.053 -5.99971
-26.9749 118.238 -1.79372
11.7928 133.723 -5.32686
-25.1302 129.964 8.11573
19.2259 121.918 7.04384
-21.8853 107.89 -1.93067
-23.2009 119.828 -2.05094
-28.049 131.841 6.59734
21.0907 131.274 2.88383
1.16897 146.521 4.65508
-22.7574 117.495 -2.34512
-31.0963 129.702 -1.67057
6.2279 100.627 18.081
-13.0707 138.755 6.05425
-32.2882 105.989 11.3996
-30.5061 119.749 3.51275
11.4862 151.116 1.81891
-26.2115 130.034 6.5457
-27.4869 131.175 9.11466
10.9039 130.174 -0.256492
0.742953 154.137 -1.88762
-26.2251 124.697 13.3613
6.4067 148.073 -3.84389
-18.6635 148.372 5.16979
11.2029 116.543 4.90875
-27.3854 139.804 4.45298
-0.659098 118.105 11.9168
-8.88447 90.1648 -3.31218
-33.2784 129.597 5.18499
-20.5638 123.352 -1.79405
-19.3361 133.429 9.93229
-11.2325 134.377 12.4558
3.27164 125.923 -5.89299
-18.6333 130.325 -2.01511
-10.8727 115.797 17.6781
8.33184 101.998 6.18168
1.87634 125.73 9.20491
13.1989 131.629 -2.73219
9.70063 120.607 12.9818
-13.2174 78.6111 0.775231
9.77003 134.758 -6.55561
12.4939 127.469 1.43913
8.71673 138.571 7.11948
-30.8596 115.092 12.1063
-6.47528 131.781 13.7299
-27.5158 130.692 -1.66848
-21.4108 148.008 3.44471
-8.88271 124.989 16.6897
3.47939 132.414 7.04256
9.17371 101.971 14.9848
8.82648 147.118 3.16412
-26.5909 98.6163 2.1505
-27.9207 116.431 -0.863832
-9.82014 138.355 -4.07551
19.3121 136.046 5.67511
-12.2675 116.145 18.8222
-32.0375 134.814 6.22979
9.00914 115.534 2.98662
-7.57325 124.423 15.7333
10.1999 108.96 5.52748
-32.8866 99.9 6.34423
-29.2567 124.211 4.15928
-15.6886 83.3506 1.48234
9.04754 135.65 9.55387
-33.9508 130.227 1.29309
-19.8179 136.886 6.51619
-28.4879 128.039 6.01519
-19.7756 133.483 13.7697
-6.72617 110.518 -7.01636
-1.13711 151.488 -2.95814
-6.91508 117.115 13.307
1.91936 148.104 4.21464
19.7841 126.544 3.62719
7.4908 92.8652 7.95953
-18.971 116.825 -2.33288
-2.74646 124.433 -5.65837
-0.982827 128.215 -4.37883
11.1898 129.238 0.546129
1.99908 127.685 -5.28502
-30.091 109.696 2.6549
-17.6932 128.303 -0.723763
-14.2508 116.535 19.8332
10.5609 116.399 7.09648
-30.5466 117.027 3.92853
-4.32849 115.015 12.8542
2.28738 135.771 -4.92902
3.79069 85.1428 4.13849
-20.0828 125.118 -1.79347
9.04681 137.444 -6.61699
-28.0867 131.827 7.82463
-11.1043 96.4228 -3.30646
-23.7011 130.739 14.9851
-1.70647 138.81 -2.12716
-29.1788 116.14 8.1527
-21.3637 126.4 -2.08553
1.27202 122.956 10.2623
-16.3377 83.0295 1.81656
-23.2255 131.636 10.8914
7.23826 137.891 5.75091
-23.0344 127.94 -1.93432
8.17058 91.3199 10.0886
-16.5741 118.612 -2.18708
11.3695 121.26 -1.92935
-28.1334 122.05 17.2061
-23.0876 92.4221 2.87058
-1.86762 88.6731 -3.84123
-26.2791 128.479 3.1894
-18.7592 91.0986 2.08503
-9.61085 113.233 -6.13681
-3.77649 130.184 12.4924
3.38794 121.465 -4.98376
-28.897 119.141 13.4019
7.62649 139.086 -6.13356
-13.5371 111.961 -3.81527
8.96568 110.398 1.27082
-28.1941 115.015 -0.31726
1.50127 116.307 -5.50835
-28.6254 123.946 8.33417
-26.4977 128.578 2.23849
9.75636 121.481 12.6412
-8.7321 153.104 -0.591215
-26.9655 138.813 4.44468
8.33872 137.966 7.1191
-29.4309 115.5 7.76011
12.935 134.271 -1.96447
-14.4957 92.7159 -0.396342
1.99873 147.897 -2.27137
-10.5616 148.417 0.423385
