ply
format ascii 1.0
comment Created by Open3D
element vertex 1387
property double x
property double y
property double z
end_header
8.90383 110.047 4.15249
-28.1841 107.604 1.94673
4.41948 105.128 6.85446
2.82187 87.425 -6.58993
-5.56347 89.2595 -12.5163
2.41614 91.6136 -8.83539
-18.1565 92.6737 -1.70551
-13.1479 105.701 -0.249017
-9.36092 116.645 3.63675
-12.483 98.2735 -6.84698
-7.34101 95.4309 -13.4243
-12.4805 106.65 -14.8438
-17.171 111.357 2.84666
-13.2028 104.181 -0.198667
-1.04921 105.437 3.14383
7.70576 111.821 -6.13013
2.31005 101.104 -11.4572
-25.1323 90.9415 -2.31182
2.75681 76.5396 -2.80579
8.90455 119.899 2.7255
-20.946 97.2628 -11.319
-35.6253 87.4867 -11.8043
-7.01426 97.1289 -13.8786
1.02116 89.553 4.93501
-33.0638 103.305 -12.7329
-1.70388 88.2514 -9.6745
-16.6915 114.659 3.97563
-7.63223 77.9167 -8.71825
-0.413691 93.2296 -10.8639
-10.9183 104.259 -2.01283
-20.7741 93.1947 -10.6415
6.24202 115.3 -11.9536
-11.521 91.7237 -13.0632
6.47509 102.849 -3.62568
1.59824 116.891 3.77515
-16.3327 102.923 0.67253
-33.1836 104.414 -1.96799
5.77093 114.651 -5.4236
-15.5124 86.6768 -12.2149
7.39284 77.9795 2.12879
-13.5114 83.7998 -11.3149
-17.3853 93.7993 -11.0914
-11.2172 106.15 -14.4046
-7.04801 108.519 -4.70457
6.05998 106.264 -6.40251
8.56391 112.758 4.80258
3.17194 93.429 -8.5624
-30.9368 110.97 -0.744081
-2.0683 78.3325 -3.22951
-4.13986 102.542 -4.18794
-29.3566 110.471 1.01041
-31.6994 87.0586 -9.73834
13.5062 122.139 -0.537405
-28.4111 103.886 0.80532
-1.40001 103.042 -13.3242
-28.7797 102.559 -13.342
6.16429 81.4056 -0.151932
-15.6832 80.0005 -11.8436
-2.74395 95.9264 3.24785
-16.6557 94.0363 -4.56729
7.52538 91.5749 4.20827
1.31763 78.8562 1.11441
-3.16535 107.8 -13.9067
-0.536775 97.8629 -11.4308
-25.9077 96.9036 -12.7783
-7.79507 109.996 -1.2372
-19.0459 96.3258 1.09666
-26.3334 100.124 -12.2636
4.18235 85.606 -4.31547
-27.4214 84.6292 -12.371
-19.0998 91.5982 -1.35284
-15.6611 92.2594 -11.9459
-28.9428 91.8475 -3.64676
-2.03161 98.5442 -12.5619
-23.8151 110.726 5.09943
-23.6927 116.729 5.77287
5.94346 76.4266 0.30487
-35.1561 85.5108 -6.76069
-15.2869 101.645 0.520835
-6.02301 81.2571 -5.74028
-1.13803 78.4649 -5.27021
-30.4518 86.5387 -9.63698
-14.8993 85.8021 -10.8212
-17.0204 114.754 4.23926
-39.739 89.8668 -8.43404
-10.5129 110.714 1.29481
-14.1915 96.2528 -6.66485
-22.0386 96.3624 0.267567
-18.3481 93.1159 -10.5462
-6.17154 119.293 2.20899
6.88803 95.6785 5.0468
-2.15974 107.309 -13.6031
-15.6194 93.7545 -6.58208
-10.7714 113.215 2.38029
-9.28706 93.7004 -13.2857
-19.6922 92.71 -10.4787
-26.9727 97.3856 -12.8184
-25.7394 88.4096 -2.24531
-20.2866 87.9485 -10.1002
7.37104 81.8761 3.71843
6.21915 95.5285 5.20891
8.42522 104.347 2.13882
5.67772 108.314 -10.745
-23.4781 110.28 5.09533
-21.354 91.8979 -1.28251
7.1551 79.5036 3.64048
-2.92555 106.216 -13.9447
-7.35575 86.9532 -6.36937
-39.6348 91.7089 -8.4557
-17.3844 115.1 4.66674
-19.1961 113.218 5.20546
10.2869 121.651 -1.10155
-35.792 104.422 -7.28698
5.48135 105.471 6.18986
-27.5379 98.0859 -12.7377
-6.0242 86.4944 -4.98993
-38.9573 98.8874 -8.35654
-23.6434 86.6957 -5.87116
2.34183 98.3577 6.25094
-7.10088 86.4062 -6.43985
6.62486 82.0266 0.235819
-2.84728 81.5361 -7.92733
7.9121 83.8399 1.51222
0.0854163 112.881 -1.04903
-9.86488 103.371 -5.93024
-24.0678 105.782 3.73077
3.14172 110.508 7.19807
-9.9427 84.3773 -11.9885
-0.143584 93.6814 4.58884
-15.7081 98.4861 -11.6866
-5.85736 96.7977 -13.5572
-15.1307 89.1815 -7.25052
-24.8458 99.6189 -0.130948
-12.8935 112.629 2.53597
-31.7418 96.6328 -4.12674
8.88215 108.383 4.08978
-39.0743 92.893 -9.9665
-4.3425 107.465 -14.0768
8.35475 107.854 -1.47379
-19.1315 94.7517 -10.6145
-2.2154 97.4344 4.19907
7.90276 83.6392 1.73773
-30.2807 85.2602 -11.2583
8.66016 111.278 0.361178
7.57238 80.1636 1.31865
-25.7255 112.962 4.64303
-34.702 90.1405 -11.0008
7.19121 91.5033 4.38774
5.54872 121.913 6.35274
6.11907 105.317 -6.11738
3.0818 123.043 3.48842
-16.5925 90.9121 -4.56961
-5.11101 117.274 -2.57457
0.676831 94.0703 -10.4828
-26.6726 86.2689 -10.4602
0.298894 100.184 -11.9606
-8.96252 92.5 -13.1644
7.30295 112.761 -2.6524
-2.99354 103.073 1.98306
8.18343 104.806 2.01505
3.33629 79.1414 2.82891
-11.6009 105.494 -0.757907
-7.20775 98.0781 -1.50433
2.91391 99.9587 -10.7005
-8.89477 105.953 -1.89662
4.20498 92.5999 -6.53714
5.36204 79.1774 3.92098
7.66014 112.375 -8.336
-22.6788 89.4465 -1.85457
-24.8528 89.6734 -1.95369
-17.1572 96.5422 -11.3572
-3.93382 106.765 -14.1227
-17.0412 102.957 -12.7011
-8.83278 88.0784 -11.9055
11.1977 121.521 0.00829279
7.56056 97.8055 -1.59277
-28.6817 86.077 -7.19731
-38.6213 98.4887 -7.60848
-7.55015 93.8041 -0.0978803
7.50143 93.671 4.38082
-37.3613 94.2091 -5.77503
-4.66661 101.182 1.93554
8.74473 107.677 0.443761
-8.55406 103.746 -5.5064
-14.3712 105.785 0.195642
-1.1585 107.862 -1.1384
9.38696 113.697 2.99468
-15.5471 116.976 4.42104
4.76874 84.4579 -2.60564
-14.7828 85.7762 -12.0411
-0.570694 80.1568 -5.73911
-21.4162 103.102 3.35137
-2.49281 88.6281 -10.2462
-4.91391 85.8008 -3.83427
-4.18538 110.047 -13.8083
-6.92 98.3701 -1.90227
3.53065 93.74 6.37055
6.08721 93.907 -4.27143
3.54539 119.376 6.60888
-24.9142 83.1083 -13.4185
-12.6008 80.5266 -10.8125
-28.2023 93.4489 -3.91843
-3.95941 102.052 0.200814
-35.3785 88.1915 -10.3751
-23.6849 90.9932 -10.7982
-1.09552 105.423 3.02176
-25.86 102.63 1.53371
-18.9767 88.3334 -6.24069
-40.0738 87.3449 -5.03575
8.7446 113.004 2.44684
-36.3519 93.8431 -11.695
-0.369822 116.488 -3.43267
11.9349 119.007 -6.37554
-16.8846 89.2907 -5.14188
2.92053 79.5727 -2.99319
2.12135 105.652 -12.6071
6.2227 106.49 -7.95013
-11.0822 119.092 4.45242
-28.2988 84.6055 -5.52351
-23.3281 93.6598 -11.2639
6.07079 114.757 -11.7459
-24.2639 88.5043 -7.83808
-7.13113 89.1585 -4.24417
-28.4798 95.8568 -13.1262
7.6525 118.297 -6.0865
7.37976 85.2628 3.88169
-37.7958 87.8953 -9.57912
-8.19909 79.2369 -8.32409
-23.8643 86.5561 -12.6587
-36.0646 87.8376 -10.1932
-26.8776 86.0551 -10.7491
-23.9022 87.6092 -6.65527
-31.6159 106.394 -0.699246
-30.6924 110.834 -0.206269
-12.983 93.3274 -6.10139
-22.2575 93.8045 -1.71873
-5.02882 88.7762 -2.49645
8.56204 97.0481 1.14675
-18.6299 106.939 2.04255
-19.8854 107.825 3.44976
-12.6265 114.716 3.10325
-8.78885 78.2622 -9.64615
-2.34053 92.3308 3.4208
8.69628 109.615 -4.71679
10.9247 120.139 -5.32237
-4.11229 114.887 -4.3541
6.08737 105.072 -8.00451
-29.7321 89.8565 -2.54019
11.1294 119.174 -2.29044
-10.9444 99.8843 -13.3256
-36.7027 100.099 -11.487
-6.43837 82.6744 -9.96513
3.0031 103.614 7.12103
5.7221 90.6627 5.04945
-35.5295 92.0596 -12.6237
-2.6434 85.5366 -9.37526
16.6413 118.403 -3.15608
-19.9277 103.574 -12.4011
-38.6517 84.5184 -7.29673
-11.9336 109.864 1.29664
-23.1578 86.7126 -3.77628
1.07051 102.888 6.85738
-19.9758 89.3213 -10.2858
5.21925 98.9186 -7.70232
-23.2386 88.3058 -7.03099
-23.5405 87.3303 -10.2306
13.9892 120.125 -1.07777
-32.7268 99.9716 -12.7633
-37.8613 97.1747 -7.38078
-12.9947 101.399 -2.38381
-14.242 99.3378 -2.188
-1.4033 89.5537 2.21396
7.95462 116.178 -4.96951
-15.6505 98.4948 -0.527228
-15.8568 89.3063 -6.18055
-28.9386 97.5674 -13.0279
-18.9599 87.7064 -13.3915
-9.30846 102.583 -13.5507
-13.9882 100.732 -0.782166
7.98107 105.837 0.734829
-21.6563 105.024 3.75752
-23.8743 105.391 -13.0927
-34.2231 107.177 -4.06891
-21.985 94.1197 -10.8212
6.62529 100.578 -3.43387
3.63472 92.3251 5.87813
-13.3627 93.035 -6.7213
4.67306 104.256 6.71033
10.049 121.719 1.99676
-4.14476 86.3332 -10.1247
-33.4241 105.824 -2.33933
-27.4984 93.0875 -3.69688
-28.8464 112.295 1.66475
-19.8695 115.926 5.69382
-5.13659 102.449 -14.5963
-6.80706 111.259 -3.30803
-17.8881 114.804 4.82257
-14.2285 96.9921 -11.9624
-5.84416 91.2353 -2.0325
-26.3716 104.317 2.09602
-26.2833 101.31 0.233187
2.77009 79.3415 -3.08572
-15.3071 116.951 4.382
-19.6992 105.991 2.62035
-15.8805 110.722 2.60193
10.2479 119.823 -3.5355
6.79257 75.4343 3.47779
-5.31095 84.4514 -9.86755
5.64709 114.401 6.97022
7.17562 95.2816 4.8708
-23.2429 95.7119 -1.48045
-10.6759 81.9996 -11.9671
-26.2684 83.7673 -14.0609
-33.3115 87.1013 -10.0432
-28.3024 84.8204 -11.8536
-15.1942 117.955 4.83509
-40.1037 91.0554 -6.66869
-12.8219 82.6125 -11.1485
-1.376 85.8989 -8.91732
-6.51219 116.261 0.57056
16.1795 120.44 -5.18815
-30.0516 83.8988 -6.75979
-22.3499 109.647 5.20467
-37.5885 101.345 -9.53685
-2.98396 110.845 -4.81612
-12.5491 91.0745 -12.6457
-2.0547 102.664 4.05762
-18.6348 93.671 -10.5109
0.897079 109.238 -13.1629
-0.142796 114.992 -3.01917
6.10981 104.308 -4.94221
-22.3078 86.4526 -4.64858
6.93688 75.8705 3.03394
-5.59066 94.4011 -12.4302
16.5695 121.163 -6.27017
-13.9227 107.188 0.368277
11.0896 120.218 -1.4768
8.14397 113.558 -0.867337
-10.9686 88.2515 -11.8286
-8.45443 89.4062 -4.14611
-34.1268 107.561 -4.05436
7.88428 84.7672 2.84639
-27.5451 95.6563 -13.0933
3.52239 96.5087 6.48118
-12.1376 81.4046 -11.7466
-10.1129 94.7756 -4.26938
3.46446 84.8684 -4.31285
-1.50457 80.395 -1.22924
-26.4441 88.2716 -9.6689
-2.82941 83.7584 -1.54972
5.45976 91.6096 -4.09435
-9.78047 95.8864 -13.8984
-20.2966 81.9303 -12.4457
-26.5829 89.3721 -2.07934
-22.1701 89.3425 -10.0674
-9.13362 89.7429 -12.7733
3.11525 114.428 7.04817
-13.1501 80.7189 -11.4512
-26.2121 91.7256 -2.65228
-0.415343 107.608 0.866302
-4.18894 94.8189 -12.1179
-2.06306 109.02 -3.50448
-3.14377 80.0911 -7.2529
-2.22316 82.8703 -8.03053
-16.399 80.3357 -12.3144
-17.0093 85.2229 -11.2372
6.53652 113.707 6.44653
-1.65066 79.0163 -2.3071
-26.4924 108.196 3.02476
-6.78537 105.401 -15.0464
10.413 119.852 -3.31273
5.93108 73.6487 1.37651
-13.4901 82.4575 -11.8951
1.05512 86.4502 -7.4344
-4.4046 102.592 -4.97431
-9.54102 105.381 -14.1225
6.42537 115.911 -6.58251
8.74671 117.781 -5.17281
8.61769 123.602 3.0111
5.22402 82.4949 -1.08293
-37.144 100.4 -6.95361
-11.9993 79.5196 -12.7738
-25.6071 99.5242 -12.0279
-38.6378 89.2181 -8.67786
-38.2653 87.1 -3.79493
-19.2657 81.1471 -12.4908
6.79224 98.0206 -3.58673
-8.72454 109.15 -0.406739
-34.8723 85.3481 -6.88179
-10.8248 116.536 3.8771
0.0150547 109.253 1.41266
-22.2949 84.0184 -12.0159
-15.0912 88.0168 -10.8963
-8.47814 92.4315 -13.0248
6.56504 100.425 -3.47213
-3.39706 77.6411 -5.9917
11.2637 121.162 -0.166831
-15.0912 110.756 2.5228
4.47721 98.7534 -9.63015
-11.7599 92.2143 -13.147
-32.5206 106.356 -1.39261
-10.7873 118.431 4.32105
-8.98174 82.1013 -11.4313
-20.9541 106.92 -12.9137
-34.3284 101.775 -3.05913
-12.9371 92.4763 -12.9669
-5.13838 85.5085 -4.22739
-22.3114 82.9075 -13.7481
-7.64518 109.123 -2.81947
-20.5332 87.821 -11.2454
-15.351 105.029 0.279812
7.73483 108.444 -5.51814
-1.82193 106.363 -1.92744
8.3229 98.8108 -0.202538
-31.3033 98.8037 -13.0481
-8.44494 96.2842 -13.8018
7.99082 115.847 5.4257
5.86915 81.5442 -0.401455
-2.59724 105.654 -3.18505
-35.0438 91.0285 -11.7238
-28.0964 92.5111 -11.4864
-33.8799 88.0343 -11.3203
-4.49181 97.7565 -13.3377
-7.74501 117.179 2.90035
11.0679 122.255 -0.925255
-23.8757 105.846 3.8443
-19.1595 91.2178 -1.59765
12.2013 119.135 -1.88005
0.224084 93.6659 4.89437
-22.8633 105.64 -12.8717
-1.75626 96.4677 3.8623
4.41929 87.704 -4.5969
-29.1957 85.6699 -4.16934
-29.2694 84.8057 -6.64488
-5.89298 118.108 0.888138
-7.59596 94.0532 -12.9062
-19.158 102.994 1.61268
-35.535 87.4142 -12.0046
2.82588 93.1386 -8.73514
-9.73851 103.334 -5.88583
-25.2061 102.013 1.57593
-37.0784 86.2109 -3.52709
-30.9393 105.053 -0.383128
7.05681 111.755 6.07057
-37.3621 90.0703 -11.7597
-8.67923 107.744 -0.987393
-4.25418 97.601 2.62621
-8.58816 106.065 -14.4201
-30.0061 110.245 0.604838
3.15623 110.049 7.07841
9.81774 118.196 0.0374723
1.96652 102.74 7.06315
7.32238 114.913 6.08485
-22.3402 87.3013 -13.0486
6.78493 107.912 -6.69489
-14.6003 103.247 -13.239
-4.13543 104.904 -5.16519
8.8228 114.766 0.7933
-40.1685 93.1114 -8.87836
-31.4548 101.96 -12.97
-7.2957 105.736 -5.90341
-2.26164 84.5359 -8.79458
3.65244 82.5874 3.47722
-12.8801 96.8583 -12.7487
-39.0114 93.4261 -6.07725
9.09381 111.226 2.15159
-20.7188 106.437 -12.782
-14.3457 82.5373 -11.9545
3.02632 107.748 -12.1572
-22.703 86.691 -10.5209
0.568135 76.2047 -1.07347
-24.5297 100.972 1.17536
12.4989 118.198 -6.573
-13.5341 93.2008 -7.65765
-22.3671 83.5655 -12.0649
8.19292 113.139 5.34178
11.0856 118.708 -2.89425
-16.6695 108.728 1.90662
8.80574 112.787 4.43461
-11.9379 102.885 -13.2132
7.86539 90.8489 0.85412
-22.2383 87.8485 -11.7884
-16.3352 88.7377 -12.4588
-32.1263 85.8853 -13.6801
-26.4353 95.5834 -12.8573
3.88271 76.2851 -1.78953
8.49403 110.868 -4.23668
-14.361 117.994 4.95712
-12.5567 107.419 -0.076613
9.50364 110.195 1.39295
-22.5404 114.117 6.36994
-40.298 86.1795 -5.86926
-32.5487 90.0839 -3.18456
-37.9415 89.0605 -10.1477
-1.92238 111.195 -4.18526
-9.21479 97.141 -14.0393
-11.9086 96.6686 -7.64178
-0.663523 113.456 -3.06193
-13.2743 83.0538 -11.9726
4.96531 84.3841 4.31342
-14.2977 90.9105 -6.51894
6.51997 94.1037 -3.42166
-2.98647 115.696 -4.3901
5.39563 78.4942 -0.456825
-13.9205 91.5218 -6.81603
15.1429 124.524 1.40304
11.382 122.524 -0.867238
-4.96885 108.41 -5.6682
-11.9358 118.026 4.8135
-3.06112 106.657 -4.42291
6.01632 113.224 6.66787
17.378 119.793 -2.78645
-13.792 113.69 2.84558
-20.2758 89.568 -9.9993
10.5304 120.991 -1.27045
-37.388 83.7762 -7.75504
-31.1264 86.1078 -3.98522
-29.5689 96.4355 -12.9764
-23.9743 105.585 -13.0878
-8.90212 115.779 3.00309
-21.626 97.9107 -11.7968
-14.4836 80.5661 -12.1049
-35.5342 105.532 -6.69061
7.113 98.9294 -2.27694
-40.0102 89.413 -6.04418
-9.67684 94.724 -5.11932
-1.15816 78.161 -2.41328
-17.084 95.9322 -2.64395
1.35266 92.4191 -9.67131
4.88831 90.3206 5.50679
-8.9303 108.918 -15.3271
5.61456 93.2333 -4.76358
-36.0655 98.0363 -11.2701
4.41623 77.0447 -1.20502
-36.7907 94.5445 -5.90198
-28.8049 94.2749 -4.08391
-1.23721 87.4894 -9.32487
-25.8154 103.315 -13.3029
-31.5179 101.015 -13.0599
8.53386 107.196 0.53474
-4.61323 91.4282 -0.442746
-13.3762 105.986 -14.6988
4.69532 95.1842 5.81044
-28.4803 103.319 0.541169
-12.3566 93.2351 -8.1592
-6.65926 94.3401 0.419541
-3.67721 105.91 -14.1952
-13.7909 91.9838 -9.99073
6.71362 99.387 -2.95753
-15.5086 82.485 -11.7207
-24.916 86.156 -11.3899
-19.5524 96.4787 1.29254
0.932476 110.583 6.22376
1.51282 87.6211 -8.28243
7.30475 101.908 5.26126
-24.2229 87.4585 -9.83648
7.21996 99.9748 3.26052
3.09308 106.35 -12.0488
-1.09559 101.537 5.12448
-20.5467 89.9112 -1.6544
-10.8174 102.605 -5.39521
-21.304 99.2712 -11.7872
-1.66988 87.7962 1.3768
5.78548 101.465 -4.89776
3.89155 124.783 5.91564
-37.8397 87.1451 -9.32148
-9.26072 91.2278 -13.1384
3.06936 109.205 6.9902
-5.40362 119.204 0.690866
-17.7025 98.8575 0.658468
-31.6727 87.1836 -9.73293
-23.0252 83.0195 -13.4929
-19.7112 90.048 -10.3064
-11.7021 102.847 -3.71211
7.31756 80.7641 3.20649
3.57118 74.063 -1.70708
1.38596 97.169 -10.3361
-16.1406 93.4096 -5.18025
4.25626 92.955 -6.79664
16.3406 120.986 -3.19586
-27.9764 85.3325 -6.58498
8.37007 97.2916 2.20425
6.04933 106.282 -7.0084
-36.7904 104.144 -9.1022
-37.488 100.541 -11.0606
14.8577 118.285 -3.62453
6.2374 91.7163 -2.42946
-6.89976 90.8827 -2.54499
-30.6806 96.0898 -3.96222
-1.30376 112.769 -3.85117
-1.54254 89.1818 1.95976
-27.2455 84.441 -14.5775
-20.6345 90.7651 -1.00864
3.07262 108.678 -12.3006
7.08564 76.3187 3.39183
-17.9357 91.2201 -11.0469
-23.128 100.716 1.52592
-17.2196 106.976 -14.1269
8.38599 118.261 1.20716
-12.4583 93.1407 -6.44333
6.15594 100.985 -4.20414
-21.3956 87.6724 -3.32288
12.367 118.062 -6.14348
4.14357 111.652 -12.5963
-20.721 87.8867 -9.48143
-5.87646 97.5502 -13.7811
8.4401 115.533 -3.97198
2.07121 112.847 -13.2155
-0.919513 101.014 5.09081
-34.3968 100.446 -12.4169
-9.81925 91.9158 -2.64403
-14.7084 103.937 -13.715
-20.6252 84.2559 -12.1937
-19.8181 88.0302 -5.34369
-9.11268 95.6299 -5.49573
-39.1521 89.7867 -4.84822
-5.49034 101.152 -5.24269
-20.0075 99.475 -11.6613
-26.3007 87.8638 -2.37573
-1.37886 86.557 1.41989
-11.059 92.1734 -4.16429
4.73278 93.231 5.9623
7.35316 94.3618 -1.72203
0.0507276 107.29 5.80662
-29.0018 108.927 1.39919
4.22471 124.624 6.16281
-24.9443 107.372 3.84062
3.37675 80.7549 -2.66182
-22.239 96.2987 0.077476
7.35201 112.699 5.99191
-10.5952 111.973 1.91772
-5.3837 78.4453 -7.19898
-7.99531 78.0019 -9.19059
-8.18248 85.9652 -11.9949
-9.49123 86.2332 -11.6818
6.15142 105.497 -5.38144
-11.7349 103.111 -3.20552
-12.0286 89.7237 -7.30971
-39.2874 89.8223 -4.932
3.13577 120.625 5.89683
6.65273 115.951 -10.5009
0.0901761 85.3931 -7.52724
-13.2568 85.8377 -10.0707
-12.1823 93.078 -8.26071
-32.8735 100.217 -12.7421
-17.1729 89.2224 -12.0866
-21.7257 88.5688 -7.93868
-18.3038 83.1455 -11.9641
-18.0129 88.2139 -5.98414
5.39194 82.5404 -0.906416
-38.8446 87.2847 -8.70351
-13.5176 99.7281 -3.95928
6.30544 114.418 -6.58687
17.6469 124.577 0.723152
-34.3935 93.5828 -12.1657
8.32732 92.6725 2.19674
0.842459 88.8464 -9.20312
7.34267 78.8626 1.78737
-32.4091 103.594 -12.7419
7.62973 94.8093 4.20441
8.95597 124.004 2.35122
-30.7182 85.0436 -5.08679
7.3944 98.7208 -1.79959
-0.768801 76.2967 -4.56863
3.58157 89.666 5.65692
5.26779 81.0403 3.74749
4.13214 87.0729 -4.81878
6.34804 81.6716 4.29527
-4.86713 101.233 -4.30539
-35.2611 89.9287 -11.5517
-6.34394 99.3886 -0.685907
4.43476 100.807 -10.3899
5.84831 101.74 -4.63791
-27.7043 103.017 -13.3718
-34.7674 100.322 -12.28
-7.67288 88.7897 -12.3606
4.27223 86.8431 5.2193
-35.7626 86.6242 -3.18307
-14.2932 118.116 5.02772
7.72639 112.039 -5.41976
0.690392 89.7062 4.81448
-34.9341 105.173 -5.43539
-14.4444 92.7695 -7.93763
8.32048 92.5359 2.30201
-38.7471 86.412 -8.35996
11.08 122.022 0.0529669
1.16748 95.2029 -10.5344
-8.92054 80.9568 -8.15559
6.05374 105.891 -6.92925
0.0934045 111.535 -0.0300197
6.2061 88.5452 -2.26762
-10.2204 103.903 -5.29395
6.3683 104.24 -3.79106
-38.5996 89.5618 -10.881
-18.1999 116.308 5.38214
-16.0369 91.516 -11.9787
-36.5305 99.1584 -11.5726
-6.11607 116.794 -0.224558
-13.5469 93.1122 -8.83137
-13.9408 106.116 -14.7744
-18.6021 103.366 -12.8604
-10.447 85.0017 -8.84888
7.96617 111.944 -0.277757
-29.1885 101.164 -1.36999
-10.4931 108.754 0.211374
7.06074 99.8339 3.65521
-27.9989 93.9018 -12.5887
14.3227 124.188 1.39257
-11.8301 107.702 -0.295878
-6.76142 105.684 -6.10358
-36.6781 90.129 -11.5713
-31.8921 98.195 -12.7576
-19.0134 105.569 -12.9783
-25.78 94.6737 -12.514
-5.20663 105.994 -5.71052
-24.4167 94.9471 -11.9916
-20.1633 99.8367 -11.6909
7.36897 108.37 5.67566
2.9288 100.872 7.03794
-7.88356 97.4084 -0.613878
7.09317 113.144 -2.49013
7.73097 116.741 -5.446
-2.22892 92.757 -11.6866
9.82213 118.514 -4.02367
-4.63737 80.3585 -8.16346
-14.1546 85.2192 -11.6997
-15.2022 98.1699 -1.29805
-10.6923 100.542 -13.3519
-28.3454 110.892 1.89618
-16.918 86.0298 -13.4888
-25.1448 93.9842 -12.1109
8.44804 93.4193 0.932086
-28.7136 87.7544 -9.70623
-15.5005 98.8708 -11.717
-12.6059 106.35 -0.295542
-21.5886 89.3998 -10.0624
-7.63738 109.472 -2.39918
-10.8549 84.2043 -11.9659
-16.6838 104.384 0.706945
-5.96759 102.939 -14.8138
-21.6225 98.051 1.30844
-25.5236 85.6948 -6.77548
6.85362 114.358 -11.4767
-0.553979 85.1399 2.24243
-12.6829 79.981 -12.1204
5.54688 81.234 -0.709832
-17.6867 85.866 -13.8015
-1.98836 112.372 -4.34937
-14.9128 101.152 0.203292
-30.5427 83.812 -6.77756
-17.9167 94.2873 -10.8866
-38.9777 98.803 -8.82132
-16.0749 80.3404 -12.5914
-28.7813 86.0278 -3.99421
-8.0978 112.393 0.776429
-11.1799 112.866 2.34323
-2.25468 81.3325 -1.60859
-22.2921 107.736 4.52057
-20.25 85.6102 -11.6585
0.633077 97.1604 6.08102
3.84431 118.15 6.71346
11.2854 123.238 0.720209
-35.0617 102.917 -4.35775
-36.2358 85.6323 -3.58892
-17.2775 82.056 -11.4746
-11.2377 93.6068 -6.58086
7.30318 113.029 -10.6291
-33.3824 83.9346 -5.00767
-25.6107 92.1934 -11.8222
-32.5967 83.2502 -5.62835
-34.2758 101.441 -12.4342
13.3193 118.431 -2.35893
-16.5263 99.8403 -11.3193
-7.26949 86.1142 -6.67211
5.52263 76.296 3.46763
8.77134 121.721 -1.38054
-34.6487 84.1166 -4.34477
0.35569 110.133 2.46669
-0.124754 92.9607 -10.6283
-30.1451 85.135 -11.0384
-5.70739 79.4255 -7.93961
11.3881 122.758 -0.903798
-5.75248 86.369 -4.70751
7.64452 91.2959 -0.435459
-9.66869 82.0573 -11.6617
6.36626 82.4976 0.0262604
5.28073 99.0329 -7.47834
-22.4326 112.818 6.14953
-22.8345 87.5527 -11.2555
-39.307 95.5712 -7.6918
-36.5762 104.67 -8.75454
-21.0279 111.06 5.23197
-25.6088 105.935 3.03317
11.2592 118.291 -3.83924
9.01206 121.543 -1.97085
-21.2051 103.604 3.39472
-0.0506539 108.197 4.92641
-16.3033 97.9682 -0.232659
9.34571 110.374 0.970242
3.74017 100.8 7.1477
-11.1698 95.2076 -6.36485
-16.5156 88.0086 -10.5109
0.41259 101.942 6.34274
-11.1441 96.8951 -13.57
-4.12384 101.789 -0.37728
-3.04968 85.6054 -9.51397
-14.368 103.124 -13.1784
-31.3471 84.7304 -5.90988
-8.69688 113.346 1.90567
-1.48549 111.753 -3.5999
5.08652 89.4636 -4.05056
-0.237641 87.047 -8.6671
-2.31454 96.4467 -11.6859
-13.052 112.437 2.53605
-8.02805 86.0095 -11.9869
-24.4133 93.3534 -2.71206
-5.83181 109.876 -5.21975
-33.2166 107.851 -2.74249
-8.32175 89.878 -3.66129
-5.20473 77.5961 -6.57434
3.30715 97.5679 6.25729
-22.3235 95.1689 -11.183
-6.44377 86.2297 -11.8993
7.72726 87.6291 1.18616
-7.03717 98.6388 -0.330382
-22.7386 92.6456 -10.6918
0.882055 88.7164 4.57264
-11.3079 87.8813 -8.59954
2.975 83.3791 3.21786
-11.0581 97.4302 -13.556
-28.2073 100.415 -12.9117
11.4543 122.53 -0.604289
6.22886 83.3157 -0.430848
8.6468 111.505 1.82586
-3.71788 105.03 -14.3117
-6.9488 95.1568 0.899819
-5.31059 94.8078 1.63319
-38.6747 92.5549 -10.2207
-4.0699 113.425 -4.77149
7.60821 116.393 5.68798
5.34229 104.208 6.1311
-20.2208 99.0823 -11.5967
-11.0842 90.4793 -12.7665
-11.577 83.3175 -12.0955
0.902173 108.737 6.51642
6.41388 115.392 -6.74096
8.48554 107.097 0.900189
-36.0916 89.9465 -3.69021
3.30401 106.301 7.01357
12.2514 118.543 -5.4476
-34.1447 90.6388 -3.22758
9.9737 119.595 -3.89279
4.5084 110.728 -12.3092
7.35933 118.061 5.9382
-34.8941 87.6057 -10.8776
6.213 96.9002 -5.72002
-36.4884 103.151 -11.2591
-27.447 103.329 1.01187
-27.4174 94.2708 -3.59402
0.462856 81.7472 -5.06927
-19.0596 95.5576 1.00417
7.49631 112.203 -8.95638
-0.329351 107.948 -12.9526
7.74674 90.9313 -0.145172
-24.9056 91.8079 -2.57104
6.12255 104.545 -6.94814
-17.1049 89.571 -4.9035
-24.5277 89.2433 -1.85226
-6.7665 89.3953 -12.7265
-25.849 105.706 2.84362
11.6964 119.907 -0.850146
-15.6998 83.7656 -11.2998
-37.8863 87.3466 -9.74672
1.62992 101.042 6.88779
9.78157 122.022 2.33784
8.54224 118.922 -5.7942
-32.6121 92.6823 -12.5306
-2.12879 89.8375 1.41913
-10.5481 107.604 -15.0268
-23.666 102.605 2.61799
-11.3643 79.1068 -11.4253
-11.1948 102.521 -4.9876
6.16622 106.957 -7.22531
-17.6813 101.707 1.08856
-5.76026 94.4169 0.604449
-15.4859 104.784 -14.0551
-9.45414 85.564 -11.7927
-25.4723 97.2823 -12.603
-21.5546 92.4233 -1.40221
5.44782 77.8909 3.98112
12.3062 118.135 -6.07396
4.78094 76.0228 -0.947552
8.23413 114.94 -3.27163
-19.0505 93.7025 0.327506
4.98235 94.8028 5.67331
8.13034 102.822 3.52336
-7.85621 79.1788 -8.24455
8.56377 105.316 4.27801
7.67181 89.9546 1.75094
7.2377 98.6431 3.43217
-8.50065 81.7178 -7.70646
-0.544028 107.229 0.719867
-12.2386 87.2676 -9.10124
-37.1963 90.8913 -4.2843
4.8919 94.1322 -6.79569
-36.1934 88.7108 -3.41809
-21.1312 87.9224 -9.49454
-5.37096 112.314 -4.69011
7.44692 106.466 -1.65803
-37.6264 86.265 -8.86242
8.2434 111.604 -0.614681
-27.2566 93.9723 -12.4659
1.33906 115.966 1.11476
-12.9504 115.323 3.46288
-7.7314 83.6288 -7.03051
-0.431411 81.8747 0.950487
-25.1954 84.8232 -12.4264
1.00222 86.1413 -7.25781
7.38165 79.922 1.07053
-23.234 104.333 3.49948
-28.4723 100.896 -1.18576
-13.0016 95.4749 -7.66448
-14.9112 107.037 -14.8104
17.0552 122.375 -3.21334
-10.8154 118.82 4.3142
-15.0169 90.1116 -10.8277
-38.8805 98.6785 -9.74227
0.569532 78.2959 0.154291
-3.52649 84.1016 -8.90552
4.46642 80.4913 3.64772
-17.5282 97.5508 -11.1977
3.76484 78.4029 -2.11811
2.25086 88.3307 -8.04529
-20.8856 102.377 2.67454
-10.5001 118.297 4.17201
-33.2398 100.174 -12.6704
-0.571277 114.768 -3.51403
-28.7503 87.431 -9.62493
-26.7184 91.1968 -2.44829
-2.73714 117.025 -4.31419
-3.592 85.8863 -1.97068
-31.5425 101.33 -2.04484
-3.86974 116.045 -4.16431
15.0875 122.876 -0.62176
1.38349 77.1149 0.217071
-23.1065 83.0653 -12.0633
-13.9919 90.815 -10.5617
-37.4612 86.3592 -7.60444
-1.37414 89.2891 2.20542
-28.5115 95.1029 -13.0929
-19.6423 81.8032 -12.3635
-6.04839 113.772 -2.97622
-14.1802 90.1933 -11.0931
-26.6479 87.7381 -2.38765
-22.3091 88.4846 -7.82475
7.59416 119.093 3.93289
-35.5446 88.9899 -11.917
-10.5889 94.4436 -2.10026
-20.1427 87.777 -9.03538
-25.513 91.2206 -11.3893
-20.0889 87.6712 -4.71185
-13.971 87.6994 -11.0704
-2.28398 82.0341 -7.79861
-20.2522 88.7814 -2.72017
-15.5198 91.5839 -5.17971
-0.187451 86.2677 2.85511
-27.1432 90.2686 -10.9459
2.61419 75.1011 -2.57569
-36.9176 101.942 -11.17
7.69695 105.231 4.98737
-8.93261 90.5925 -13.0231
-21.9127 96.0031 -11.255
-13.3241 92.0901 -6.95305
-24.0684 98.9352 -11.9361
-8.80623 96.2386 -2.42662
1.66275 104.022 -12.6404
-18.7651 104.386 1.54466
-3.35817 104.805 -14.1496
-22.8775 88.148 -8.22623
-3.83939 97.4833 -12.828
2.83536 88.1057 -7.19331
8.57711 110.725 -2.19639
-4.28227 83.7603 -8.95542
-0.472044 90.9266 4.38174
-10.4064 88.3771 -11.939
-24.0548 86.1522 -4.5352
1.10233 99.2584 -10.9482
2.91185 83.3884 -3.50295
-10.4952 84.5323 -9.03007
-17.061 97.0609 -11.3406
8.41243 111.012 -4.29353
-16.3992 87.0042 -12.7009
7.78893 111.87 -2.98924
-24.1019 86.2008 -5.55342
4.87641 98.8537 -8.738
-1.79239 107.977 -2.60871
-23.1766 94.5716 -11.4178
1.90668 116.36 5.58741
-19.9835 110.469 4.57688
3.09352 93.3485 -8.59826
-33.0169 97.6821 -11.92
-2.75166 98.8496 4.23075
-30.3775 92.721 -4.29341
1.40228 115.926 2.02101
6.9588 112.851 -10.7866
10.8691 119.914 -2.72707
-8.97912 80.5969 -8.24537
-28.659 96.3124 -13.1647
-23.3467 99.9684 0.975411
-29.7112 84.8964 -11.4041
-0.866835 81.0974 -0.140438
-0.467411 105.923 3.1893
-38.5364 87.4034 -8.97597
-19.3343 106.339 2.27426
-20.8966 115.919 6.12172
18.0461 122.836 -0.878467
-24.5206 83.5478 -12.5063
16.5622 124.179 0.88042
-17.2272 88.4108 -5.03077
-6.93365 98.689 0.993328
-20.7945 87.2285 -4.72955
-36.8867 87.8757 -9.30316
-29.9667 98.7896 -2.4923
-29.0896 112.118 1.39825
7.15028 99.0901 3.46065
14.5749 120.822 -1.12702
2.3977 77.5376 -3.17831
-11.1516 84.6718 -9.3283
8.19514 108.381 5.0653
-1.17703 92.1956 -11.0982
6.13578 105.176 -5.93167
-30.6453 109.514 -0.0805716
-28.6179 85.7216 -6.97029
6.21598 105.418 -8.58263
-34.4205 92.2951 -12.7398
-14.5345 85.7412 -11.938
6.34636 89.3021 -2.139
-13.2709 88.0479 -9.42651
-14.9286 116.227 4.08927
9.30795 108.959 0.529224
-0.298159 86.3512 -8.43798
7.89158 84.2143 2.43829
-12.9158 93.4121 -7.59502
14.0411 122.758 -0.0839043
-14.7977 101.913 0.411739
2.58482 118.818 5.78365
-25.6516 105.426 2.84958
-6.21285 76.8398 -8.6748
-36.2577 101.795 -5.79223
8.33213 116.325 1.85274
-14.9606 92.5055 -12.2402
7.26412 81.4747 3.85276
-7.62727 112.268 0.126415
2.48959 120.977 4.3465
-38.0205 100.729 -10.5615
1.36151 116.983 -0.153934
14.1546 122.138 -0.833735
-11.2282 105.312 -14.0287
-12.2953 103.753 -0.355331
-29.8992 107.845 0.80417
5.57414 102.787 -6.75567
-14.6412 92.0587 -6.28325
-2.80319 108.707 -13.8956
-27.3477 99.1466 -12.4358
6.38675 99.2671 5.49296
-30.1451 92.9832 -4.36114
-36.668 84.9838 -3.85169
-8.52942 99.4712 -6.68082
-27.1944 103.865 1.41174
-12.6669 93.3774 -13.167
-24.573 107.544 4.08496
-17.5776 95.874 -1.58089
3.77843 104.976 6.9445
9.26754 113.102 3.58911
-22.8772 94.4787 -11.272
-27.1519 87.3213 -6.98189
-9.75926 103.227 -5.92245
6.23344 83.0341 4.61164
-3.7743 87.5757 -10.4475
4.53469 103.838 -10.9401
-19.4097 103.175 1.7212
8.92852 110.241 4.16135
-30.634 85.9646 -13.2037
14.8363 117.971 -4.22256
3.56347 117.678 6.69911
8.22854 100.878 -0.71773
-5.2108 82.6497 -4.95425
2.25572 85.042 -5.69974
-18.1962 100.163 1.20185
-3.58031 79.0348 -7.01717
10.7119 118.13 -3.17558
-24.4927 86.552 -6.62585
8.79974 115.706 -0.517371
7.30005 112.808 -5.15522
10.2847 121.967 1.83639
10.8202 119.295 -3.06364
-38.4704 100.095 -9.07479
3.38345 104.994 -11.8013
0.658943 89.6201 4.77565
-18.9875 118.334 5.95669
-37.3331 87.2816 -9.70184
9.28798 110.791 3.51356
17.4467 122.94 -2.8281
0.0798939 90.0918 -9.64574
-16.7168 88.2227 -7.53143
5.14973 87.6216 -3.28831
-12.4526 89.2822 -12.1857
5.34896 111.587 -11.577
-35.803 100.847 -11.8949
-9.05194 80.5041 -8.32743
3.27862 101.895 -11.4537
-12.9804 87.0027 -10.8637
7.0936 86.2638 3.95757
5.75108 97.8434 6.26205
-16.1898 92.9732 -11.4281
0.543874 94.0837 5.24227
-20.3495 105.596 3.24001
-23.7493 83.1569 -13.8242
-31.3645 85.1374 -5.24952
-16.0997 95.9666 -4.22204
-21.9357 105.236 -12.669
-9.66443 94.1951 -0.911775
5.85471 110.216 -11.3214
-4.37797 101.695 1.96431
-28.6987 84.4719 -13.3026
-35.2269 105.217 -6.05496
-38.2675 93.8024 -11.8288
-16.4404 88.3147 -12.5047
7.97665 89.2581 3.50673
5.97887 114.641 -5.15641
8.08247 111.746 -0.725146
-19.9431 90.0434 -1.49323
5.7555 81.476 -0.509785
1.34831 89.5555 5.09611
-26.3414 99.5303 -12.2143
16.0024 119.292 -1.99983
-9.5196 108.306 -0.330237
4.78962 93.0859 5.93788
-14.3768 94.8816 -11.9959
9.02345 108.572 -0.585868
-12.1165 115.598 3.48962
-17.1956 94.7863 -11.4063
-35.9819 100.064 -11.8358
4.23295 92.7257 -6.61086
-1.85589 91.3829 -11.2075
-17.5447 83.1746 -11.5875
-3.92773 104.425 -14.3965
-12.7826 87.8118 -9.25202
-9.94195 119.47 3.8002
6.83039 100.137 -2.93206
2.66341 99.1271 6.52849
-28.9328 89.7946 -2.32755
5.73044 122.309 5.89515
2.71193 111.158 7.13467
-15.006 92.1471 -12.3336
-0.805565 83.0909 -6.93862
-3.15887 115.349 -4.42706
-28.9544 90.8927 -10.9421
-30.7287 94.3692 -4.95992
12.5065 119.468 -1.43152
6.78044 83.0239 0.303121
-24.0581 111.218 5.14627
-36.0918 87.3773 -10.3694
-29.8021 89.319 -10.2857
-36.5566 87.5818 -10.4597
-22.4055 87.1778 -13.1554
-11.1242 108.605 -15.071
-8.73008 112.193 1.25983
-9.08068 95.3669 -13.7303
8.05368 108.148 -3.22574
4.51638 88.3648 5.21713
1.11612 112.694 4.15004
-16.5983 88.1977 -6.99298
7.51504 93.6932 4.36208
-10.5937 104.462 -2.70676
2.16754 91.4906 -9.03236
-29.9842 102.761 -13.0505
-3.07978 95.6471 3.14386
1.19015 98.7985 -10.7326
-1.97909 114.158 -4.35745
-31.7692 97.3818 -12.4343
-8.38617 100.445 -14.1053
-2.93932 108.821 -4.76577
-24.9771 105.923 3.33534
4.6727 84.689 4.24347
-2.49004 114.813 -4.62917
-36.3311 96.4659 -10.8046
-16.3606 100.616 -11.5741
-23.9032 109.463 4.77292
-14.1111 92.3951 -9.18205
-10.9479 88.4585 -8.15096
2.02542 110.111 7.20232
-8.27376 103.62 -5.54198
-22.6805 93.7051 -11.0344
-14.5877 117.305 4.61293
5.52686 96.6245 -7.06862
-2.55832 103.558 1.16317
-39.0178 90.6578 -5.09155
-22.7149 99.1731 0.71896
-16.4582 80.4534 -12.4723
5.88149 92.0527 -3.34624
-38.0451 100.338 -8.17242
-16.8575 97.2297 0.013939
-25.5989 102.472 -12.7987
-23.8325 102.687 2.61154
-17.9634 91.7727 -2.32539
-19.3783 94.6707 0.591726
7.36877 106.136 -1.32683
-5.8243 91.8447 -1.4934
-22.0158 88.0925 -7.26448
8.22192 98.5139 -0.349862
-29.885 106.406 0.575441
-23.0542 86.2842 -4.58694
-34.2669 98.4439 -11.6198
8.24943 99.5593 -0.421735
7.20357 113.237 6.0839
13.9308 117.409 -6.36116
-18.3746 103.873 -13.0227
-25.9522 110.532 3.75007
-2.72707 83.809 -8.55578
-34.6894 100.895 -3.69473
-0.341474 85.5332 2.5937
-11.116 80.7617 -11.0988
-14.0238 100.796 -12.02
-28.6935 99.5617 -1.65164
-16.9439 89.5147 -11.5965
-17.123 100.576 -11.4389
-34.9622 84.7705 -4.0018
-5.85974 99.583 1.74691
-12.7019 98.5326 -6.69212
9.05766 115.884 -0.694126
-10.0258 115.2 2.8948
-25.2191 88.0503 -2.40522
-11.0964 104.143 -1.66884
-4.9316 100.822 -3.74072
-14.6418 98.0569 -2.94749
-22.0162 108.009 4.57123
10.9029 118.856 -2.65182
-2.86837 79.7802 -3.03107
-8.19394 92.1064 -12.9625
-11.2431 79.6671 -10.3136
-11.8631 84.5415 -9.74056
-1.75712 104.662 1.08786
6.52375 83.192 0.023183
2.57792 120.946 1.53191
-5.20156 82.7699 -8.75892
16.4598 119.708 -4.26139
-12.5355 100.527 -5.06324
-17.357 113.676 3.857
-26.2381 102.169 -12.8275
-11.6899 111.547 2.03948
-21.4772 85.1718 -11.9823
-0.290132 94.9619 -11.1017
4.08584 78.7586 3.42277
-0.211803 95.0573 -11.0616
-3.6894 78.3605 -4.57191
-6.97423 82.7547 -10.6659
6.37255 74.1481 2.54636
-1.27347 95.9734 -11.2182
-27.6278 84.6456 -14.635
-22.5346 115.783 6.96073
2.9961 118.099 6.46409
-23.9855 101.512 1.72171
-9.54757 86.0226 -8.12417
-10.7154 107.033 -0.971843
7.76589 82.2704 2.84545
-10.7459 90.8401 -3.96762
-36.8776 90.5087 -12.0097
-8.59337 88.4416 -12.1189
-11.2268 111.457 1.85848
-14.8672 96.6199 -5.11339
4.30643 123.924 6.33074
7.88263 100.396 2.2019
8.76155 107.564 2.39412
-21.4847 99.3627 -11.7714
-9.07422 95.377 -2.94833
-24.0108 110.715 5.03269
-1.02688 103.987 5.62745
-37.0704 98.4033 -6.70555
7.1431 112.807 -7.46162
-3.31499 77.1563 -5.62552
-30.047 92.0802 -3.96974
-7.62248 81.362 -6.97476
-25.0521 95.7128 -2.51125
-3.8033 114.864 -4.43004
-8.43266 106.162 -2.40329
-8.341 95.9013 -3.86818
-6.13522 109.028 -5.47023
-14.0847 87.4089 -11.5638
2.75618 75.6697 0.373154
7.04192 105.501 -1.22395
-8.1323 109.177 -1.21472
-22.9618 103.722 3.29939
-6.35009 106.032 -15.0302
0.716783 110.944 5.29975
5.33187 84.3417 -1.87525
-0.0409568 81.5516 -5.43972
-37.2928 84.9385 -8.05665
9.22366 115.275 3.07061
1.18249 93.2654 5.62221
-13.5869 92.557 -6.6518
-10.4268 88.3572 -11.9266
-26.8333 86.1886 -7.14764
-24.5902 115.213 4.86363
-10.5677 111.196 1.53877
2.46167 102.662 7.06572
6.13376 104.195 -5.74362
-37.1148 84.8098 -4.88644
-17.3112 89.719 -9.22842
-9.63411 78.8976 -9.35751
-9.95164 83.812 -8.74737
7.15305 122.104 5.09588
-13.0032 90.8743 -7.69605
-4.64421 109.274 -5.51103
-24.904 94.4339 -2.75371
-8.86683 86.8802 -11.7001
-14.3882 84.7906 -12.0934
-12.3416 116.615 4.09617
-6.23767 99.2095 -4.87282
-10.1467 83.5369 -12.1704
-29.1851 94.1088 -4.22653
-2.38687 79.2591 -2.89425
-20.4187 114.202 5.55264
-32.1488 95.0769 -12.3018
-32.9581 83.7641 -5.23381
2.87735 106.03 -12.1965
-11.9931 119.221 4.94894
-37.5379 94.0802 -11.7639
4.52169 105.201 -11.1197
-5.10214 98.3553 -13.7964
-4.37048 91.5777 -12.3043
-12.0875 95.4382 -7.86209
-6.56063 85.1369 -6.01918
1.58909 94.591 -10.0408
-23.8469 88.1294 -2.31662
-27.7906 90.4225 -10.944
-24.29 85.7863 -5.12766
-31.4197 98.573 -13.0097
7.60228 92.2713 -0.322146
-21.8111 87.5529 -10.7613
-35.5734 87.8415 -10.5476
-26.6811 108.556 2.8995
2.41852 80.2791 2.47242
-8.71296 95.5133 -3.73495
7.77129 117.143 2.54279
-29.0858 90.2308 -2.65642
-36.3198 103.312 -8.03999
-36.0544 102.478 -7.45068
-29.3183 94.1882 -4.29204
1.02057 111.212 6.20081
-9.29259 81.0596 -8.52676
-13.6751 119.557 5.81217
0.228611 94.3511 5.02867
-20.0919 91.5742 -10.2372
-27.372 92.2209 -11.4997
-39.6982 96.2403 -8.33785
1.02317 115.792 0.293387
-29.0429 96.0918 -3.6301
2.42731 82.7562 -3.64943
-34.7654 92.3346 -12.6064
-28.1204 85.9445 -3.89102
-27.0841 84.2855 -14.4236
-9.3394 116.35 3.47271
-0.743182 92.2664 4.27154
-20.7823 96.0582 -10.8928
-22.9812 85.6447 -11.9681
7.26308 91.1394 4.25954
-37.5434 87.1427 -9.51126
7.34163 90.2942 -1.048
8.24546 111.219 -3.7843
7.87356 85.1796 3.36902
-12.901 85.6507 -9.91066
-19.1664 105.31 1.76852
5.15756 98.6558 -8.01937
3.40058 86.1387 4.74344
-3.81005 86.5959 -10.1499
-5.36909 100.332 -1.76834
-15.2539 86.1507 -12.1707
-1.92792 103.281 4.15672
-39.9759 91.9182 -8.1493
14.5967 118.942 -1.67326
-23.5259 86.7794 -3.62449
8.50401 95.4238 0.264439
-36.5997 87.2445 -3.34621
-13.9662 89.4379 -11.8833
-33.4162 105.654 -2.29679
0.169573 112.96 -0.825427
