ply
format ascii 1.0
comment Created by Open3D
element vertex 1928
property double x
property double y
property double z
end_header
30.4975 103.312 -13.8627
13.7304 112.408 -0.717694
20.2053 127.825 -14.1728
18.9138 104.138 -4.33435
18.219 132.777 -9.47546
28.3078 94.6908 -11.7477
33.7992 111.492 -3.29966
-5.49585 86.1021 -5.01102
24.8382 122.852 -10.5679
8.1547 77.7254 -6.20379
20.3311 99.646 -14.9112
3.34969 93.8978 0.79282
18.6923 141.393 -0.315804
35.5313 88.6644 -4.83825
38.5364 91.1447 -3.67721
12.3169 87.5772 -1.84116
39.3337 89.1337 -8.32766
42.6694 90.9735 -4.28708
13.9657 108.52 -0.727409
32.5875 103.637 -12.6983
-6.96476 105.406 1.39375
-3.39833 78.1391 -18.0726
16.2558 93.6674 -3.68576
2.40176 96.7283 2.34863
35.1448 109.931 -4.48847
25.3536 118.736 1.0687
-2.70582 89.8696 -3.20433
22.578 127.851 -7.62909
8.95255 105.72 0.594474
27.4972 106.741 -13.8345
-5.73148 118.103 5.66283
39.471 96.6066 -7.64809
5.61423 127.976 1.52079
14.5444 117.362 -16.3684
-3.01343 99.4988 1.79572
-5.56306 84.8947 -16.5122
17.8479 116.184 -16.6588
26.9697 91.9857 -11.6399
11.4485 89.9257 -10.8529
24.8053 120.291 -9.3145
29.5575 138.516 -13.6159
-9.54146 80.7705 -15.0152
31.4091 104.791 1.041
28.0531 116.626 1.9215
14.4773 76.6402 -6.21872
27.1412 101.259 0.966067
15.8931 131.751 -4.81737
1.33588 121.712 4.66157
12.446 98.5549 -1.66468
41.8491 89.6006 -3.57107
5.08847 126.473 1.31347
16.8753 145.992 -0.870451
22.83 122.966 -0.39555
36.4294 92.7096 -1.66306
25.8912 82.6455 -8.24635
-0.191353 87.6706 -4.15834
-6.94667 77.0644 -17.0443
2.37417 119.854 3.91457
27.6293 126.635 -8.61085
34.5561 99.3501 -11.5
30.1936 113.824 1.93851
-7.48691 118.352 4.76535
16.6293 77.9956 -6.94104
20.1843 133.056 -1.93793
-3.54466 97.7426 0.733746
37.4583 86.4228 -6.87143
18.114 131.252 -4.5911
13.7358 129.365 -2.21312
26.2902 106.906 -0.667002
26.4454 135.836 -13.1302
13.0275 102.708 -15.6914
32.257 86.6104 -5.68216
23.7399 145.731 -2.63404
25.1823 85.0491 -9.24768
-4.89222 84.5603 -16.8337
30.7826 86.7523 -5.8331
16.7231 80.5263 -10.035
2.26258 111.678 3.68136
26.5502 126.68 -7.90199
16.4114 141.895 -3.89999
-6.61246 94.6588 -15.1644
3.58232 76.1048 -6.6951
-12.5729 92.4772 -11.7487
9.10549 85.6397 -1.21614
8.84691 113.698 2.15148
4.85656 84.3247 -14.9246
21.1719 129.794 -14.5807
11.4191 102.278 -14.7407
27.5852 127.84 -6.59824
19.5897 132.791 -3.33957
24.0822 83.9457 -9.5817
12.7368 133.76 -0.0438038
20.0717 128.846 -10.7681
26.6002 99.4713 -14.4052
12.7106 140.3 -0.5253
15.4217 82.6088 -10.3248
-6.77191 78.7125 -18.3625
30.0777 139.674 -13.5091
25.2713 95.9752 -13.5853
-2.85828 118.314 6.4384
-8.72234 115.064 3.65488
30.9073 100.369 0.240866
-9.92822 94.6956 -14.1465
23.4253 133.048 -2.92658
26.3991 114.622 0.361342
19.2756 95.6799 -14.2491
22.5021 131.25 -1.41237
30.6688 114.402 0.928147
0.807113 83.9885 -4.55194
-3.04097 108.136 5.09339
25.3385 108.648 -2.12709
23.5648 123.977 -12.3822
20.3614 130.364 0.242344
24.612 128.009 -6.79534
23.2338 108.322 -16.6112
2.12675 95.3671 -11.4229
-9.06124 86.3305 -8.32539
36.5434 95.9222 -0.793611
3.03361 121.529 3.87395
-6.12175 113.304 3.52487
8.32602 117.434 -14.2274
11.0209 85.2754 -11.183
40.9002 95.3946 -4.99567
9.70087 117.255 -13.9836
37.4109 100.615 -8.94061
1.01586 121.084 4.52495
35.2332 87.0757 -6.08266
7.5695 95.0675 -11.3386
23.226 119.22 -14.971
4.54723 114.123 3.10437
-7.66261 93.3492 -4.04967
26.8439 116.961 -12.7062
4.60054 103.384 -14.7557
6.4137 130.411 1.86831
19.9438 133.986 -9.33014
10.9561 99.903 -13.6043
25.9634 131.146 -7.42479
31.8701 137.104 -13.6243
1.7655 127.441 3.53097
-1.29899 123.351 5.4488
23.9419 148.301 -3.06093
30.4398 110.025 -10.7772
17.901 131.674 -13.0333
1.75918 103.164 3.64961
25.7545 89.3578 -3.52127
-4.9614 78.3204 -18.8605
2.07107 94.7742 -11.74
18.947 118.438 -4.7006
20.3216 129.345 -14.2778
-4.69815 81.6521 -16.1996
25.7779 133.041 -6.74148
-2.91424 76.3333 -7.21945
34.3219 106.377 -9.80377
2.26812 115.886 4.26543
25.9553 86.5349 -9.62513
21.4651 118.1 -15.9533
38.352 96.7167 -9.11754
1.3381 108.462 -15.0874
11.5499 93.5255 -11.7254
16.4071 82.9745 -10.2438
29.9254 108.989 1.89539
19.5625 136.564 -11.8343
-1.79052 75.9112 -7.06097
37.5937 97.9129 -9.2931
20.8835 126.324 -13.7059
21.3523 87.8631 -11.846
17.9984 130.89 -11.9475
13.8306 93.5466 -2.6399
-10.772 107.537 -2.45718
10.1867 134.282 0.581921
6.4989 87.9602 -13.6242
4.9084 75.0324 -8.36561
-8.79193 114.5 2.74623
-3.3472 97.6735 -13.2544
20.0057 110.185 -4.40638
26.6227 128.762 -4.04667
12.1873 119.03 -15.0707
20.3494 126.949 -11.6348
-6.45806 99.1602 -1.66621
-0.144694 84.4073 -15.9628
5.20402 81.0283 -16.7465
29.1747 138.76 -14.0881
1.1168 94.6285 -12.5871
12.4489 96.3122 -2.37868
12.6901 90.9762 -2.10085
-10.7156 78.5426 -13.9525
-7.73225 73.7965 -11.5698
1.56349 105.028 3.87722
7.04476 76.1162 -8.05991
36.1217 105.469 -7.47739
28.3999 99.3077 -13.4087
27.4411 140.513 -10.2063
28.0237 142.705 -8.60949
25.3039 91.9374 -1.54382
-8.37907 95.1612 -14.4331
26.0321 131.656 -6.85849
-6.34561 82.1788 -15.997
10.4525 111.268 1.43065
26.3815 128.459 -6.59991
11.081 85.0184 -1.65891
8.24331 135.546 0.0423427
5.18388 106.031 -16.0119
-10.9519 84.247 -13.1366
26.1121 95.3002 0.0325563
25.5078 125.169 -11.7567
27.9512 84.2552 -6.97504
9.03837 136.072 -0.163327
12.5679 135.602 -0.870412
14.684 87.5631 -2.50245
27.6296 89.0987 -4.36795
27.6352 117.021 -11.9816
20.6161 99.6841 -14.9069
39.3041 90.1106 -6.08289
2.76836 87.8834 -15.2961
13.9677 120.902 -3.56293
19.0201 97.3311 -14.5246
-10.9116 84.0744 -10.5535
5.14772 85.8693 -3.21532
27.3675 139.588 -8.96865
16.4775 134.908 -4.94519
17.1727 105.076 -4.7515
32.0412 115.425 -2.14548
19.9228 126.811 -11.9444
-7.788 78.5238 -17.3785
10.7017 84.8162 -11.7679
21.1658 87.6241 -4.81102
42.2112 91.9522 -3.98263
-10.2155 91.271 -8.27829
19.5957 136.541 -10.557
29.0302 93.6395 -10.4368
18.6476 87.9092 -3.2061
23.0724 129.236 -15.4533
26.5127 132.573 -14.4678
-9.83449 86.3597 -12.2729
12.9439 117.393 -1.44259
-5.71658 84.0252 -5.47909
21.5015 94.959 -2.61818
-7.90627 85.1806 -6.95742
2.50735 97.3243 2.84799
28.7467 116.527 1.79948
15.0526 95.3647 -3.33849
23.8678 129.516 -2.05496
21.0671 133.482 -0.607171
26.1619 138.099 -12.8378
8.68678 128.58 2.2033
24.1813 132.997 -5.40519
-4.48005 102.508 1.628
10.3918 97.55 0.159897
8.941 121.631 1.77674
29.0534 109.395 1.26162
-3.52867 97.3253 -13.2694
31.1763 105.485 -12.5416
3.79006 87.3965 -3.23235
22.7424 126.423 -12.3465
9.28406 116.904 -14.136
19.8243 79.0624 -7.97143
13.6142 91.7215 -2.49128
11.3763 83.8503 -2.27711
6.88529 85.8003 -14.4362
14.9763 134.959 -4.56111
-8.84678 117.633 4.02032
35.1247 95.1955 -10.7393
22.6162 99.2982 -2.68577
27.9218 107.044 1.09712
18.8733 87.3998 -4.67292
-8.6088 112.361 1.42947
14.2221 135.277 -3.64272
-12.1917 90.7965 -10.6542
-11.4142 89.4308 -12.0307
32.5398 135.267 -13.3123
0.233478 120.569 4.73631
20.7142 149.901 -1.23861
8.61716 90.1651 0.446052
34.9154 93.3388 -9.22519
21.0801 127.421 -3.22034
32.9894 110.149 0.443832
1.08113 116.865 4.2805
-10.4373 77.5344 -14.8904
-11.947 93.7279 -12.547
25.8781 131.075 -15.403
28.7337 112.207 -10.6765
18.4255 142.354 0.205314
28.2664 96.9396 -13.0196
-0.832 96.9322 -11.8165
25.4495 86.0978 -6.66486
18.591 137.49 -10.8024
27.9487 140.205 -7.21976
25.8665 147.389 -6.35936
25.7434 100.432 0.355102
30.0776 119.879 -5.99951
14.9882 123.317 -4.34437
31.2563 84.8511 -4.86736
32.5612 134.49 -14.4774
10.5538 95.0768 -11.8052
25.1949 140.014 -10.6163
12.8857 78.8641 -5.17766
19.9312 124.69 -4.26336
-0.393175 105.866 -15.1337
-7.4253 117.406 4.97008
-8.86949 96.3341 -13.6718
18.6864 93.202 -13.6272
25.6374 86.0703 -6.71833
8.63911 115.015 2.83597
-1.21092 102.377 -12.2071
34.5483 109.419 -5.65816
-2.17317 91.1329 -2.91839
35.3234 93.0779 -1.44264
37.9294 86.4294 -6.97596
6.81591 122.592 1.79462
19.3636 78.4426 -7.87206
16.8541 131.446 -4.83389
0.89635 81.537 -16.6255
4.13361 83.5738 -3.38043
10.5158 86.467 -10.7249
26.61 99.2214 0.81793
-8.90269 102.676 -1.31193
20.1322 87.9641 -4.58562
17.8358 132.064 -10.4309
5.93624 90.9267 -12.5951
-5.66786 122.269 3.8867
27.984 122.397 0.500856
-4.55794 98.3432 0.680346
13.8375 118.724 -3.43043
-12.0519 93.3508 -12.382
25.8872 99.4424 0.578277
10.1573 95.9078 0.00340586
29.3933 91.344 -9.09446
22.6331 129.697 -6.04507
17.557 87.1229 -2.70023
16.4158 100.517 -4.22428
4.78514 81.6942 -3.86655
29.5535 126.119 -11.8182
4.85697 114.822 3.40074
27.1693 129.379 -5.91634
22.264 130.201 -5.28904
30.479 135.256 -16.3045
1.5653 92.001 -14.0035
16.9568 113.778 -4.65049
33.8787 96.355 -0.348979
20.6411 108.571 -4.34219
15.2976 119.143 -15.5135
12.1158 130.032 -0.641087
42.0931 90.5895 -6.07049
27.1439 139.513 -11.5102
6.54055 88.3383 -13.3772
1.7237 123.262 4.55068
38.5354 95.1653 -8.92024
37.3053 103.201 -2.03976
-5.99993 93.4882 -2.67726
-11.4612 90.7191 -10.2795
31.8509 91.3589 -7.05451
22.0654 129.444 -6.10497
26.6425 138.843 -11.6973
12.8663 76.1835 -6.98913
27.4502 139.106 -11.9679
3.82097 82.1228 -3.72104
25.0804 124.923 -10.7013
26.37 81.927 -8.41445
-10.8548 88.4828 -9.19825
21.434 121.697 -12.5726
14.0262 131.605 -4.09625
0.301025 95.0261 0.534337
25.8468 99.5904 -14.5333
4.86246 102.808 -14.375
34.3533 95.3813 -10.6559
18.1161 117.061 -4.66185
20.218 132.201 -6.51544
19.224 93.1853 -13.5629
-7.56681 90.8987 -4.7583
21.1052 126.099 -11.8848
22.2995 130.754 -8.33543
16.2788 144.137 -2.29938
4.17488 101.115 -12.835
-9.53104 92.1155 -6.49021
17.6087 103.623 -16.4302
-7.32214 73.1345 -11.1078
28.3107 82.8947 -6.10134
11.6781 113.708 -15.331
28.1334 137.224 -7.74817
14.4336 120.093 -3.79682
24.3281 141.477 -4.17163
16.9681 135.716 -4.65502
20.7403 128.484 -14.5011
13.5343 132.737 -1.37504
14.6592 77.8087 -6.25489
20.7018 101.408 -3.85584
7.7748 113.124 -16.0062
8.82442 115.704 2.84334
25.3623 127.85 -7.52895
14.0336 134.36 -4.16584
19.0847 78.7877 -7.52679
5.66042 123.111 2.63647
23.1923 127.321 -14.3371
-9.48403 106.276 -2.24344
2.04811 106.457 -15.8885
-4.76455 108.406 3.88728
-10.5591 80.2272 -10.2622
-4.4187 74.4488 -8.00975
-10.4305 110.21 -0.707138
-1.03799 122.897 5.67796
0.0377695 95.1633 -12.6326
2.66144 78.1748 -17.4921
-9.43032 113.202 1.94076
32.3072 113.142 -0.567289
13.9554 113.885 -1.51212
29.6538 116.974 1.02494
27.9657 97.3568 0.548353
8.41249 105.887 0.835318
-9.7564 93.3346 -13.9377
35.6156 100.146 -10.8415
11.196 132.434 0.631217
-9.13045 113.542 2.08324
21.8504 102.692 -15.2076
27.3122 114.386 1.37184
35.7495 90.3123 -7.81261
12.9941 121.949 -2.82168
2.17241 93.8757 0.188137
21.2482 141.172 -1.49423
42.6293 89.258 -4.65247
26.6319 122.076 -9.20596
30.5329 94.9361 -1.90803
29.1374 122.999 -5.05595
20.8192 103.582 -15.7582
-0.768344 92.7975 -14.5315
10.9126 103.164 0.0099078
25.8761 131.866 -7.11297
21.7581 138.937 -2.85039
26.4201 96.2218 0.128026
-10.6422 88.5211 -9.0496
19.6334 129.495 -11.9231
0.871873 96.8471 -11.3477
29.1239 108.32 1.56738
14.8228 117.74 -16.1919
-10.1197 85.7058 -12.6086
41.3363 94.7248 -4.66954
25.8191 121.148 1.67104
22.5509 126.701 -10.0696
34.6447 106.927 -0.530816
-5.98491 115.622 5.80625
9.86744 86.0075 -1.15366
16.6078 126.715 -15.4597
19.6367 127.969 -12.1669
-8.64804 94.2602 -4.80303
20.1958 121.218 -15.7475
0.38778 106.771 -15.3236
39.875 87.6997 -5.6239
2.07323 110.597 3.80063
-9.5989 92.9631 -6.30742
11.8322 89.1733 -1.26893
36.0504 99.238 -10.1152
21.1018 102.201 -15.3539
15.1646 113.748 -15.8654
26.4011 130.03 -4.77095
32.0559 136.612 -13.6433
17.617 108.672 -16.1219
3.4648 120.759 3.86651
-8.16373 78.3681 -8.52168
33.6301 91.8983 -7.64629
18.0009 132.02 -4.5947
37.8396 88.8429 -7.75691
22.7541 125.766 -12.6724
23.2488 113.192 -16.384
-6.21862 90.9344 -4.37949
26.3821 93.5506 -12.6198
15.9663 95.4682 -3.73682
8.263 113.62 -15.5744
-1.35349 123.863 4.64669
-2.59185 84.83 -16.0806
26.9415 125.268 -9.8447
23.5769 88.8801 -4.01171
5.76617 100.915 -12.7097
30.3727 135.599 -16.0782
40.5693 95.4314 -2.87034
26.1307 143.247 -8.4147
26.8001 116.394 1.30273
-4.32624 116.466 5.98712
35.6929 108.172 -4.11622
-9.06123 86.2774 -12.8951
-4.01398 79.0447 -18.9572
24.8179 126.56 -8.39137
33.8377 89.837 -2.98099
-7.19983 112.167 1.50556
32.6336 94.8026 -1.4036
36.9082 104.055 -2.08974
3.803 91.1626 -13.5762
0.133098 81.6748 -16.7391
9.56813 105.149 -15.05
26.6842 114.511 0.907075
29.8542 132.84 -9.83604
32.1276 84.1226 -7.20142
12.3347 140.152 -0.174739
17.2656 95.7684 -3.91854
1.46843 124.781 3.61135
-8.8972 94.837 -5.38067
20.5074 150.537 -1.47328
-7.53488 76.7318 -9.03453
23.8046 119.244 -12.8366
24.2747 100.006 -1.17422
8.21623 101.977 0.44089
23.4465 133.851 -4.22538
24.8396 88.6017 -11.3114
-2.34939 80.2206 -17.8155
-1.10469 87.4159 -4.37164
29.2688 129.389 -9.37176
33.7566 111.426 -6.35805
-8.73987 87.3896 -12.887
24.8212 95.4258 -13.4129
20.7885 135.246 -8.36746
0.576066 78.303 -5.83679
11.8834 80.3991 -11.9397
13.0806 98.4016 -2.63995
17.848 86.4423 -4.38739
30.0211 136.103 -16.2213
23.0964 82.8503 -9.49242
0.805309 129.257 2.52332
26.1167 124.867 -11.9362
35.1159 106.385 -8.4879
12.3117 122.73 -14.1819
5.21916 105.423 -15.8828
16.9206 102.669 -4.16968
15.893 94.2544 -3.706
33.843 110.737 -1.8812
15.5388 83.0304 -3.94794
10.7211 101.063 -14.0032
-10.9106 81.8973 -10.0835
19.8061 77.4869 -8.54837
41.2179 91.6766 -6.38464
6.67755 104.035 0.918686
14.9316 120.51 -4.17528
13.8445 126.729 -3.86289
-11.6166 99.384 -5.16006
33.4941 113.683 -5.59563
22.6707 137.964 -13.4215
28.5954 133.62 -6.82979
18.6397 131.27 -4.41191
-5.69841 79.3166 -7.04127
21.482 128.035 -2.35426
29.8059 118.957 -0.444059
-7.91898 113.802 3.38742
30.743 82.207 -9.07141
20.6612 137.626 -1.18192
-7.56706 78.6507 -7.87718
25.0031 81.2476 -8.10215
19.7672 132.099 -0.902453
17.4312 130.15 -13.3197
13.4886 78.6741 -5.36396
15.6991 87.6895 -2.20549
36.4264 89.9178 -3.60949
30.2561 139.319 -13.2334
-10.1969 80.8607 -11.723
30.2604 105.392 1.0567
22.7847 137.409 -3.53318
34.2597 105.542 0.329737
17.6048 87.8052 -2.82295
11.6687 113.533 -15.3232
-7.92071 84.5848 -15.3065
3.54989 109.144 2.52371
29.391 128.174 -9.59727
26.7087 92.6159 -1.52728
27.4946 90.4092 -3.56056
-8.93897 74.0475 -13.5523
-3.58625 113.109 5.86033
8.33989 101.001 -12.9317
24.5999 119.215 -12.4125
-0.843843 125.984 3.45266
-0.726035 90.0896 -15.8768
8.70691 80.2499 -14.7169
18.4543 129.434 -12.5115
2.52032 77.8131 -17.4182
12.193 81.8113 -11.0207
12.7096 122.697 -2.434
15.5816 99.4037 -15.4659
34.2725 112.212 -4.99686
-5.27541 97.0814 -14.4993
20.9044 132.769 -6.01622
31.3654 82.2011 -8.95343
22.6058 90.1042 -12.2761
15.3009 103.526 -16.6257
22.016 135.799 -2.78732
38.5444 88.5543 -6.49669
5.87133 89.861 -13.2096
24.7395 102.143 -15.0521
-0.718338 73.2952 -7.71102
16.6057 118.981 -15.179
13.0201 78.6288 -5.29274
23.5652 129.008 -8.22743
-3.78639 83.4053 -5.28489
14.2925 93.4613 -2.85731
26.1671 131.871 -6.14988
31.037 84.9813 -5.09447
31.6371 90.8146 -3.5138
0.0172595 103.312 -13.1771
0.447212 105.297 -14.8815
13.4762 133.069 -1.21328
23.632 125.294 -10.9077
26.9903 142.987 -7.10391
24.7046 132.661 -14.7099
16.4382 109.349 -16.1516
31.6462 113.763 0.0267094
27.5709 141.793 -10.6035
38.4767 98.8718 -6.05079
30.7812 97.0783 -0.522241
13.1438 119.316 -2.56113
24.9075 127.427 -7.89133
33.3582 99.5722 0.292591
-7.1495 118.471 5.0242
25.1764 141.988 -9.33402
26.9191 87.0108 -8.37382
19.0793 120.059 -4.69209
-5.94929 116.886 5.68467
-6.87761 91.6374 -4.31554
29.3783 130.662 -11.2652
22.8584 140.316 -11.6774
0.793834 81.7305 -16.5325
13.7501 91.2091 -2.51709
-10.5417 94.3418 -8.01212
1.41535 96.0683 1.50795
21.2952 96.5198 -2.95228
18.3771 129.216 -12.5846
-6.31797 82.6587 -6.13364
-2.55049 101.413 -12.8658
23.759 81.7018 -7.82227
4.08118 94.7733 2.09543
-1.1086 98.9391 2.21328
21.4317 92.5839 -13.0881
26.8721 93.8445 -0.771915
5.27189 106.354 -16.0221
-6.41038 106.133 1.98865
-2.13479 83.8999 -16.5203
-0.244496 94.8937 0.0899421
36.3258 100.838 -0.32995
14.5963 86.5758 -3.85966
19.6683 134.719 -11.4766
21.766 107.709 -4.03598
39.6946 97.0431 -5.73571
30.8761 133.789 -16.4628
40.6047 88.6743 -4.9649
2.11318 76.1884 -6.98891
28.3287 142.044 -8.83714
25.0054 105.227 -15.8725
8.27401 119.535 -13.734
9.05489 110.093 1.37144
22.7148 129.637 -6.46775
9.70144 88.8486 -0.472949
12.878 99.6474 -2.09463
24.0195 117.406 -2.47278
18.4378 132.128 -13.1684
-11.3673 91.6906 -12.1898
14.4645 125.465 -14.1551
8.21614 112.365 1.74836
3.03691 114.694 3.42341
11.9454 128.36 -0.411275
32.0149 86.7261 -4.80412
-2.67892 108.999 5.55624
20.4087 114.441 -4.52777
2.10409 75.2368 -7.57646
8.18276 75.8483 -8.1667
30.1028 136.563 -15.2317
38.0231 88.7822 -7.43288
40.0589 88.0806 -5.84841
27.7435 134.615 -5.85112
31.6627 137.978 -13.39
13.5994 114.744 -1.27693
18.7443 134.265 -3.71129
29.8396 98.1865 0.474159
26.0139 121.321 -8.79125
-10.8263 82.1309 -11.3614
7.74366 79.7063 -15.7956
9.18796 137.121 -0.36604
22.1159 87.3331 -5.0077
33.2288 110.984 -7.3581
15.9409 81.9062 -4.33642
16.2889 102.69 -4.2147
2.28339 98.0419 2.93646
24.1538 128.521 -6.32649
-4.47441 112.52 5.4978
27.6561 138.73 -12.2511
6.18614 79.2957 -16.9411
19.6735 131.521 -10.7291
8.05888 102.751 -13.892
-0.443127 108.34 -13.5971
-4.4209 122.615 4.08412
-6.39232 79.8847 -16.562
24.4557 137.399 -4.18992
22.3475 127.577 -9.7361
38.5118 86.0692 -7.07988
38.2903 91.2202 -3.3523
-7.00743 91.9885 -15.1292
5.29954 91.1262 0.577162
35.88 100.203 -0.334606
-3.67441 119.052 6.32652
26.2173 113.263 -0.313791
39.1361 91.2452 -9.00822
13.9784 78.1579 -5.66963
2.25673 114.398 3.61802
4.31026 101.776 -13.4517
-5.91829 78.3327 -7.27834
38.4606 86.6528 -6.16506
8.71638 102.062 0.37402
28.1522 139.073 -14.7555
-6.18229 90.6728 -14.9027
-8.50325 88.1023 -7.35038
23.9134 130.261 -2.97248
5.11838 103.621 1.46102
31.427 96.0194 -10.1052
-1.26985 74.2741 -7.34228
24.7968 89.613 -3.3613
13.5236 132.84 -1.34461
29.3731 89.9624 -8.16686
23.5075 114.6 -3.04457
21.6788 128.941 -10.9007
16.4626 140.406 -4.10693
28.9385 133.181 -7.34079
26.1196 116.992 0.662457
19.715 135.142 -0.607655
-5.63647 83.8469 -16.0589
8.97717 87.8045 -0.434081
8.62343 128.553 2.17635
32.2572 110.628 1.09507
-1.30013 93.8821 -1.32687
40.8205 89.4977 -3.62558
-5.9514 95.639 -14.6496
-5.16508 104.953 2.52782
7.62337 100.675 -12.6557
23.5212 129.192 -8.93595
26.3738 125.706 -8.67049
13.6364 114.712 -1.33833
3.82527 81.7688 -3.90308
-10.7033 84.865 -12.7602
27.3883 124.948 -1.48079
6.85068 124.136 1.06299
18.4648 135.525 -1.05877
17.9652 114.439 -4.72634
38.1923 89.373 -4.54432
22.9154 81.5386 -8.88234
23.9028 102.193 -2.10588
12.0696 122.17 -14.2889
24.8776 113.389 -2.14368
28.0209 81.4787 -8.82423
17.2559 147.815 -0.323869
-4.50446 114.434 5.99571
-7.33355 80.978 -15.849
21.4144 137.415 -1.91478
22.3825 120.147 -13.021
28.0327 118.191 1.87568
22.0093 132.031 -5.55298
39.1363 88.2941 -6.18553
30.5838 134.269 -12.7366
-7.95988 82.0294 -7.53707
10.7705 121.507 1.27764
14.6754 105.898 -1.53548
9.37937 128.875 2.00034
28.3391 95.2167 -0.768787
25.3551 116.068 -13.6545
2.61877 89.8107 -2.45896
14.8154 128.732 -4.42996
-3.23956 97.3172 -13.0009
11.1672 123.985 0.934961
40.507 88.098 -5.44833
25.3072 119.903 -9.63976
3.01758 122.381 4.15842
23.6693 102.283 -2.36992
29.258 90.9112 -4.24713
27.4398 98.4241 0.955916
38.4955 94.8171 -1.3838
-3.24802 78.0905 -7.16935
30.0588 134.602 -9.11019
16.3159 98.765 -4.07357
21.028 134.535 -7.5146
12.5537 79.7787 -11.7048
25.4169 102.383 -0.35591
21.3239 128.482 -7.73324
21.1206 127.755 -11.1705
35.2654 86.2449 -3.11416
12.8944 78.0501 -5.49955
27.5933 131.91 -6.23871
23.2406 84.1701 -7.45287
14.4575 110.499 -1.62056
23.2485 85.3371 -10.0415
-6.10911 78.6729 -18.5445
-5.91914 114.253 4.29383
26.9553 124.35 -7.13192
-3.18853 95.5925 -13.0448
18.314 99.8693 -15.2299
-10.1953 78.0701 -11.8633
19.8548 123.798 -13.8132
-2.87616 87.947 -16.4486
1.30469 98.7923 2.97407
31.5489 116.385 -6.78644
27.8321 120.929 -6.8881
38.4976 99.4265 -2.91052
26.6806 134.349 -6.0531
18.1345 134.126 -11.9716
12.159 102.772 -0.324496
24.889 104.683 -15.614
10.7574 84.0838 -12.0045
41.7015 93.7244 -4.0188
35.7288 89.2748 -3.91067
13.4832 84.4821 -10.7477
25.6477 143.184 -4.37216
4.69673 120.498 3.80418
24.8109 121.876 -10.1066
-9.27177 89.846 -6.8059
29.6349 119.584 -0.615993
37.1916 91.2913 -2.55337
21.7034 131.093 -5.46468
19.7429 131.155 -0.450594
12.026 101.25 -0.58558
4.82311 88.9664 -1.68786
15.0624 116.55 -4.24779
24.6734 102.983 -1.55639
16.7405 141.977 -3.75381
-13.1193 93.3258 -10.6791
-1.53127 105.098 4.43357
5.15632 121.512 3.51298
34.083 104.948 0.901253
-3.61872 109.032 5.0718
24.6637 82.6555 -7.67573
16.4307 87.8483 -11.4007
5.79002 100.996 1.32955
26.9725 99.3895 0.930759
-2.13138 99.0201 -12.6587
31.9443 117.929 -3.49003
-1.85018 94.5586 -13.1663
28.5607 117.596 -10.7757
6.1647 87.3317 -14.2448
2.7499 78.9219 -4.89594
31.414 86.1962 -5.15104
5.71375 91.9105 1.12666
27.9065 92.3806 -2.37511
3.83682 101.915 -13.6393
1.78232 96.4262 1.8455
16.7252 127.373 -15.4016
6.98761 94.3958 1.0136
19.4216 132.936 -13.6325
22.7391 89.123 -12.0158
24.7466 101.597 -14.9486
36.8855 103.338 -8.13447
30.8927 133.079 -12.4516
27.894 139.764 -7.81038
-3.11269 97.9951 0.995761
32.5062 115.384 -3.17846
20.0839 121.409 -15.0999
33.9691 97.4414 -11.4432
16.6506 128.755 -15.7407
-9.3434 104.965 -1.51344
11.6189 122.642 -0.0326766
2.32915 103.857 3.4358
-10.771 90.0787 -9.07573
8.2741 91.1845 0.655519
33.2712 85.9985 -3.84302
-0.840679 93.8438 -1.1705
7.76491 111.663 -16.3017
11.2782 97.9588 -13.3777
27.021 91.531 -2.40259
19.0372 98.8415 -3.90563
-11.931 83.7499 -11.5244
21.8523 125.071 -11.6033
14.2623 119.005 -15.6997
30.811 135.441 -14.74
12.6142 107.779 -0.00543883
11.8504 108.015 -16.7697
4.12931 84.7824 -3.29806
27.3445 130.133 -6.95023
21.1647 130.995 0.634591
0.538208 80.0514 -5.50448
20.4426 134.161 -0.121625
29.8105 120.406 -1.25865
11.9446 87.2554 -10.5131
25.3994 125.28 -10.1325
17.9094 133.072 -8.55399
17.2871 129.592 -15.0031
36.859 96.6862 -0.65124
-6.72759 91.4596 -4.33622
-6.09339 93.8016 -2.44644
25.76 111.091 -1.74919
27.3082 120.078 1.90485
30.9679 84.3946 -7.96493
-2.53634 95.515 -12.7947
37.8925 89.4008 -5.20827
20.1865 136.006 -13.8034
7.96274 91.2556 0.981307
42.032 88.3784 -5.45611
-1.25765 72.6099 -8.19885
8.29333 103.116 -14.0554
26.9334 110.9 -0.425356
40.4966 96.1813 -4.99987
27.1024 105.469 0.635889
-10.2017 107.462 -2.35422
11.0697 91.736 -1.49823
24.6047 112.541 -2.4318
27.4393 123.285 -5.93951
29.6627 97.424 -0.169874
30.0446 84.7239 -5.76714
5.64551 89.1519 -13.665
11.1017 98.7062 -13.3958
-6.41536 107.4 2.04065
27.4855 87.2255 -8.06281
25.5934 146.521 -4.10713
16.9828 127.104 -15.2863
26.3958 138.345 -5.95179
20.0374 132.676 -7.58694
35.5979 100.566 -10.8566
34.3105 90.1079 -7.24831
15.6854 89.6093 -2.90399
27.5212 107.299 0.958461
18.4909 142.556 0.110182
5.68093 95.4445 -11.1846
26.762 140.518 -10.1727
-0.208013 81.7985 -17.0031
23.1151 108.999 -3.51622
24.7982 129.794 -6.39379
28.6088 117.946 -10.6809
2.48704 100.697 -12.6504
9.33825 102.644 0.299983
22.2144 79.4996 -8.5138
33.9805 101.845 -12.2065
-5.52508 86.0421 -5.04304
20.4893 127.443 -13.3331
3.2507 112.988 2.83922
22.4962 120.247 -11.987
17.643 132.67 -11.3125
19.848 95.9563 -3.4505
35.0205 84.4913 -8.16641
17.7119 142.089 -0.747675
1.16962 110.737 -13.5392
22.6205 139.227 -12.2026
-3.38072 101.563 2.39236
4.63284 90.5898 -0.464857
-4.52005 100.371 1.15821
23.9856 86.69 -10.5004
17.5674 134.18 -8.40869
7.29131 115.36 -15.1872
-11.5016 93.8569 -8.6503
18.3618 136.675 -0.177329
20.5344 122.068 -12.8969
23.9865 115.846 -2.66028
33.1934 87.203 -4.52933
2.6942 75.5713 -7.98122
-3.35033 100.73 2.2133
21.7644 91.7183 -1.52131
18.4784 86.3216 -5.58262
26.1127 143.623 -8.04378
19.4695 125.432 -12.1393
11.5606 107.129 0.240698
30.0507 90.002 -4.94366
21.0587 106.2 -4.39488
21.7438 126.703 -10.6826
37.19 88.1818 -6.80728
7.99093 93.3533 0.926576
21.9254 124.132 -12.2776
8.86961 114.128 2.35909
19.0993 86.6337 -5.55637
21.7831 124.045 -11.5518
39.2676 98.2426 -4.49991
17.341 102.7 -16.3731
25.8983 105.795 -15.5628
8.45168 79.2688 -5.15207
26.9149 132.8 -14.875
15.0119 132.108 -4.49921
-9.30831 92.7892 -5.98024
14.9009 86.8294 -3.48936
-7.00351 111.489 1.76743
17.2809 141.551 -2.13006
21.067 87.5191 -4.93343
20.6231 102.458 -15.5908
13.1066 91.34 -11.9286
21.8995 123.822 -2.97421
20.0445 130.782 -14.2226
-8.52759 93.3978 -14.6587
5.54532 94.9557 -11.1664
27.0342 119.654 -7.44936
19.9833 84.1333 -6.39377
37.459 102.812 -2.10322
17.5209 95.306 -14.0143
-8.3667 107.726 -1.1449
21.3212 96.0061 -13.902
-0.00776615 119.308 4.82801
22.6954 102.231 -3.12803
20.7854 132.977 -5.99656
16.086 90.7319 -12.6666
28.5673 132.918 -16.4825
21.9135 84.1 -9.82415
13.3125 138.45 -3.4902
7.36226 134.919 0.275834
34.0032 84.6708 -6.85153
-4.11669 73.6046 -8.44505
26.6625 109.418 -0.945309
23.5018 149.123 -3.62409
14.2847 103.103 -2.18854
11.9645 117.598 -14.8498
7.903 99.5124 -12.3019
-9.61513 78.1653 -10.2528
34.0112 100.067 0.0101469
30.159 92.835 -3.24615
31.1839 108.172 1.56144
12.0491 98.4309 -1.15519
27.375 107.315 0.76652
-7.20489 81.6663 -15.7167
-0.419013 77.1838 -7.21152
2.24209 108.727 -15.6605
11.9341 114.768 -15.3614
0.342985 119.446 4.55971
35.0464 86.9782 -5.52423
21.7297 150.276 -2.04934
23.3532 129.094 -15.5365
25.7714 109.293 -14.5933
10.1113 95.734 0.00279113
15.632 95.2229 -14.0781
-3.58659 79.2163 -6.73628
33.9881 109.309 -6.9149
24.4574 90.3211 -12.145
9.19108 91.7195 -11.0377
28.3419 123.036 -0.0795522
26.328 118.436 1.68175
22.2519 129.1 -6.48253
32.4064 112.257 -7.78706
27.6054 106.724 1.13745
-7.60659 89.6161 -5.34341
24.7614 91.6148 -1.69495
14.4168 85.1997 -10.9941
28.0171 119.988 1.03198
23.4591 133.14 -3.04287
27.207 124.85 -7.29899
28.6296 139.678 -14.6139
23.8851 117.307 -14.6391
0.976429 90.5751 -2.60496
-6.99058 73.0522 -10.7594
0.129648 125.52 3.39506
31.7138 136.831 -13.2752
3.78797 79.0414 -4.88655
38.9761 93.3921 -2.10407
26.0436 98.7914 0.624633
-8.85321 84.8363 -14.3611
9.31501 121.21 -13.9088
21.1881 87.3629 -5.08428
19.0659 133.362 -10.7839
24.6581 101.295 -1.08813
21.5615 95.9573 -13.8515
-5.49168 95.2176 -14.4345
1.98083 92.1515 -1.16215
25.0927 134.744 -13.7582
30.0119 114.748 1.75369
9.87221 90.8299 -11.0098
0.0928247 91.1539 -2.54291
-9.32686 83.482 -8.98383
21.9512 131.753 -14.8636
7.1628 103.505 0.767293
12.8262 140.118 -0.0736456
23.5128 129.888 -5.8713
17.9964 80.9019 -5.94501
21.0482 125.141 -12.4805
19.7718 93.414 -3.25231
11.6159 86.7907 -1.89703
6.84182 82.765 -15.5051
13.0218 122.673 -14.5094
-1.34128 119.303 6.03427
0.261542 91.9259 -1.86361
28.5357 90.2611 -4.2275
30.8829 131.203 -13.3834
-7.1671 95.9188 -2.55083
6.90213 97.4189 1.49481
13.0243 137.31 -1.3241
-5.84601 79.1483 -17.6083
-6.47231 74.0739 -9.85881
-1.68812 78.3843 -17.874
-8.09562 88.258 -13.2463
-1.49408 94.7086 -0.659058
27.0122 83.1658 -6.87895
21.4124 134.282 -9.1592
5.67652 78.6035 -16.9421
21.0699 130.144 -2.26922
26.66 140.882 -5.23685
-5.43331 97.6038 -0.818337
-7.49859 102.111 -0.589991
42.5624 91.2209 -3.86993
18.2227 132.221 -12.0316
14.8129 113.866 -3.58061
19.6477 86.6317 -5.76479
35.1629 86.7932 -5.64547
10.378 124.308 -11.991
30.6688 133.997 -10.9979
32.4368 135.046 -13.2279
-0.568019 96.0855 -12.0232
-7.04268 95.9423 -2.44202
28.95 116.933 1.6045
28.9709 136.039 -9.16958
14.7568 78.6547 -11.0987
19.1874 100.271 -15.1872
6.52629 83.5404 -15.1979
24.5417 84.4588 -9.5636
0.452559 108.217 4.54743
-2.56506 122.905 5.61632
25.8373 130.139 -4.45625
37.0661 90.1331 -8.60949
21.782 126.384 -11.0302
-6.30611 91.2163 -4.30581
8.13418 106.288 1.03047
26.7768 146.268 -6.11583
15.0472 134.664 -4.62691
15.4229 114.836 -4.28373
-0.774364 86.4795 -16.0258
37.5145 89.2512 -8.64363
24.1548 121.245 -9.83204
17.2428 129.988 -14.3588
1.48909 103.38 3.73834
21.2727 133.068 -9.6957
-10.4397 93.9401 -13.7022
16.7847 108.696 -4.67318
-4.19356 79.6047 -17.6693
23.2802 128.635 -6.93943
11.8763 94.3327 -1.97877
10.1266 80.8301 -13.2371
14.0203 128.082 -4.18101
30.8004 111.048 -10.0467
0.792264 101.533 3.61073
-8.36626 90.2827 -13.1968
25.9736 132.796 -14.1288
8.31635 110.743 1.46969
26.407 96.098 0.0928982
-4.40366 95.7023 -13.5757
29.237 83.3958 -8.44383
-11.4823 86.4156 -10.6317
22.6907 85.9114 -6.58053
22.3994 124.453 -0.0299304
24.9112 146.097 -7.76664
38.1321 94.7695 -1.2044
-3.45264 102.488 2.56262
0.65509 90.4904 -2.79937
10.015 90.4736 -0.106224
15.4933 78.0896 -6.51809
25.0345 126.734 0.972396
17.342 144.767 -0.517499
1.64107 108.859 -15.1154
1.17695 96.6307 1.84797
2.26383 77.2495 -17.3088
13.1274 137.303 -0.834058
-9.20708 76.4721 -16.7957
24.8945 131.598 -7.78782
37.2694 102.37 -1.51279
28.9324 99.7418 -12.9364
27.692 133.129 -5.85231
24.6636 117.687 -1.49817
1.82972 84.5785 -3.9919
22.1968 116.791 -3.68501
-8.57619 118.78 4.29555
13.5688 131.428 -1.69798
24.5274 81.9939 -7.93218
1.79081 91.4633 -14.3214
40.6492 93.6196 -2.3285
24.5131 129.962 -6.34255
-6.58066 86.0652 -5.65023
13.3446 135.436 -2.75112
38.0296 100.205 -6.05646
-4.65823 107.069 3.92324
29.1941 140.505 -11.8645
23.564 89.1892 -11.9098
-9.92398 77.7291 -16.2629
19.9302 100.87 -3.93941
27.2566 125.846 -9.07992
24.2234 126.983 -7.75743
1.73379 77.3649 -6.11081
17.5608 137.814 -1.95728
8.95954 107.165 -15.7932
41.1613 89.0075 -4.7274
19.1571 135.149 -2.08987
2.0715 112.097 3.69026
39.7692 93.6573 -7.96181
20.4708 84.662 -10.2174
22.71 92.6121 -12.8311
11.3406 102.652 -14.8192
4.69195 92.6744 1.15514
32.0065 117.432 -3.21101
39.1109 92.7362 -3.05045
10.031 79.889 -13.5955
36.56 93.3899 -1.37604
39.5175 88.1373 -6.4931
32.6923 95.4557 -1.0943
7.46638 94.8555 0.895289
15.8031 120.895 -14.5384
23.1136 112.822 -16.387
4.23238 127.218 1.3998
-11.2405 98.2589 -5.48571
-10.0664 90.658 -7.92478
16.9446 103.148 -4.40677
12.5681 107.011 -17.1362
25.51 123.809 -10.2396
-7.42278 98.3793 -13.6732
27.2025 103.434 0.925881
-3.29693 87.5642 -16.6252
-10.8432 82.0372 -10.0563
34.6205 103.079 0.242818
27.7957 121.988 -7.26901
24.9159 125.111 -12.168
-4.17153 86.5493 -16.9907
27.6143 83.1147 -6.66239
22.2531 124.942 -0.919891
-9.77671 90.2803 -12.3009
23.2167 120.34 -2.77296
18.1528 105.551 -16.7224
38.272 100.11 -7.74346
0.84412 81.8608 -16.4669
5.44462 83.1657 -15.6961
32.8709 95.1118 -10.0517
24.754 111.675 -2.43507
26.6861 125.616 -9.01289
0.670034 95.4397 -12.3305
-3.89634 87.196 -16.9074
23.2271 123.966 -12.3683
-8.18608 95.3526 -4.29324
21.3138 115.526 -4.18901
32.4172 134.38 -14.4275
15.1921 114.086 -15.8429
19.9175 131.63 -6.52447
22.0758 123.51 -2.54402
29.5846 133.66 -17.0328
32.9842 114.321 -3.37057
19.9746 98.0517 -3.62279
21.9403 129.707 0.200311
-7.18511 92.0862 -15.0338
24.0856 143.289 -9.85963
-11.0707 90.9251 -11.9443
-10.9862 108.548 -1.5553
14.6538 126.295 -15.6829
26.9474 89.6109 -9.79328
3.9009 99.0304 -11.5529
31.9354 94.6285 -9.49719
5.98431 129.615 2.02812
7.72391 95.0173 0.821871
26.034 86.5546 -9.51772
-8.51065 112.556 1.71814
25.5228 132.831 -6.51295
25.645 137.664 -12.9195
22.3074 111.615 -16.3273
18.6124 110.311 -16.1174
-1.20732 72.6633 -8.15881
8.88108 81.4165 -4.13613
25.022 128.562 -1.33676
27.1183 140.75 -5.6847
24.157 128.122 -6.34969
8.95551 91.7079 -0.013702
23.0836 96.1257 -13.6932
-3.93402 103.941 -12.9557
28.468 91.9319 -3.08087
20.9054 79.5063 -8.35574
27.8921 138.88 -12.7798
17.302 89.8973 -3.2074
17.0733 91.6041 -13.0611
2.77376 76.5633 -6.24421
15.7656 113.705 -15.861
18.7046 135.313 -0.145432
-7.91563 95.4388 -14.5534
-2.47418 112.252 5.94644
40.4651 95.9817 -5.9288
-10.1419 77.9114 -12.3495
22.7468 131.511 -1.75117
15.3183 88.2716 -11.449
33.4964 86.1476 -3.93145
8.62291 101.687 0.393188
3.07062 101.917 -13.7398
13.7211 119.839 -15.4106
5.3009 93.3231 1.6845
22.6825 143.619 -2.16496
39.4097 89.5663 -8.50645
3.52706 126.125 2.85413
38.9843 97.8968 -5.85916
18.2169 114.979 -4.68989
16.72 127.581 -15.452
15.938 114.654 -4.39719
-8.51506 105.518 -0.625485
-5.77698 104.038 1.66676
2.86766 117.063 4.12686
34.1886 110.939 -3.46023
31.7743 135.119 -12.8412
19.4666 132.589 -8.9193
17.3091 111.208 -15.8219
16.3738 107.48 -4.02638
30.8667 134.923 -14.6605
11.2322 131.291 0.30847
-6.21339 112.278 2.593
-8.14446 92.6187 -4.46447
15.6438 141.158 -4.17128
-9.4859 107.5 -2.07654
28.5065 92.0226 -10.3391
20.9193 103.912 -4.09811
26.7863 129.208 -4.64005
21.04 119.38 -16.359
15.401 103.659 -16.6701
32.3188 94.8792 -9.75204
3.53407 96.5404 2.58372
17.3021 109.95 -4.75445
4.63332 132.082 0.746403
17.7823 86.6847 -3.67329
-11.7253 89.4214 -11.9607
12.8135 108.771 -16.4303
18.9659 134.377 -9.2786
22.4916 126.131 -12.8414
21.4961 78.1144 -8.8535
31.1588 101.542 -12.6954
-8.43331 103.528 -0.675809
18.5334 146.152 -0.889338
-10.1896 106.069 -3.19255
41.3745 90.6406 -6.75275
-8.62825 117.525 4.20297
14.6906 121.848 -4.19393
37.0598 88.2792 -5.22916
2.8052 127.498 1.62323
26.979 141.416 -7.5834
11.975 112.577 -15.4935
37.224 88.3183 -6.51739
24.2363 113.796 -2.54836
-7.59058 74.2129 -10.4268
22.8695 127.108 -10.817
39.6402 97.9286 -3.53564
-2.68734 98.3721 1.31724
13.0656 125.746 -1.83442
20.6086 108.968 -4.32092
26.7043 94.214 -0.478728
26.3514 100.708 -14.7817
30.5383 116.374 -8.53157
10.2128 136.403 -0.306782
14.1885 90.5946 -2.65951
2.80153 107.835 -15.6897
32.7627 90.5322 -2.94408
-8.16815 108.101 -0.805772
-4.9194 111.051 4.30087
17.1169 80.0636 -9.98313
11.7978 127.097 0.0423352
38.6751 96.0836 -8.72467
26.6263 129.257 -4.32904
27.8582 90.3482 -9.61791
23.8984 127.389 -14.2696
-2.65185 88.3076 -16.3728
19.0687 137.54 -10.9166
-12.0848 101.009 -6.07775
35.8405 86.4774 -5.87436
20.1492 131.317 -0.989871
15.7959 103.371 -4.0021
0.64823 97.3762 -11.3656
-7.25804 110.334 1.12296
11.8577 95.2879 -1.88353
0.641191 80.4557 -17.1661
36.5418 100.742 -0.376107
-3.32838 109.028 5.39663
15.5004 100.163 -15.6052
-8.68372 93.1009 -4.99592
30.2336 115.723 0.378397
3.21348 96.227 2.53032
-10.8757 93.9328 -13.4302
20.6376 109.72 -16.4193
3.1887 96.0428 2.3951
-4.07144 75.7406 -7.33197
16.3404 95.6916 -14.1795
-12.8502 96.8313 -8.35734
27.469 143.307 -9.89604
-3.88722 115.096 6.31583
31.7977 98.3249 -11.3295
32.698 95.7708 -0.954011
-2.63753 97.4333 -12.5606
0.0106556 90.4947 -15.6661
9.69821 79.6962 -14.1787
19.3414 107.402 -16.4678
17.2851 130.6 -14.6128
20.6756 120.324 -4.28772
16.1322 144.717 -1.83342
9.92217 81.7636 -3.65384
21.3299 95.457 -2.76921
14.1075 87.1695 -10.935
7.6217 90.399 0.890243
31.8853 88.8147 -4.69796
27.0408 108.547 -13.236
4.64234 123.668 3.38836
2.26864 85.4595 -3.79794
12.6183 104.02 -0.608282
13.6503 132.768 -1.68551
39.2311 93.8235 -8.68126
15.6927 110.656 -16.114
15.8653 108.44 -3.53605
10.5744 88.1147 -0.781634
2.97909 75.5854 -7.12264
30.3022 135.33 -16.7069
22.9369 130.37 -2.02129
-7.13029 94.6718 -2.91081
5.66245 98.0723 -11.3436
-9.80768 112.819 1.51567
15.3628 86.8444 -11.4269
3.75149 128.944 1.68918
28.1748 120.759 -6.27635
-8.25778 115.722 4.56824
22.082 140.32 -2.40684
5.30396 91.8621 -12.3301
12.2433 134.809 -0.0921164
4.10802 91.9606 0.352337
25.8533 129.766 -6.89236
38.4256 99.1634 -5.63259
24.5238 140.148 -4.72988
29.3827 115.355 1.95536
10.0353 89.3264 -0.385289
26.6449 106.256 -0.0535631
12.6545 91.7847 -2.12489
29.8734 121.345 -1.64061
28.2185 121.506 -6.8034
23.2526 128.707 -9.74591
24.3982 114.615 -14.8312
24.522 112.25 -15.5172
30.7125 86.8583 -5.91968
18.1578 126.265 -15.5938
9.47181 84.7615 -12.8885
19.9503 125.455 -4.3011
21.7656 145.314 -0.967815
21.0186 133.618 -14.2534
-8.34742 88.3824 -13.0076
21.8894 124.744 -2.71519
17.4838 130.661 -4.71275
22.9056 103.569 -3.06676
22.7801 79.4505 -8.5963
8.74676 96.0494 -11.3555
25.1128 143.549 -8.30501
22.4024 105.762 -3.64582
-7.61 93.5248 -15.1497
13.6187 100.153 -14.8196
19.598 128.844 -12.0452
-5.37822 94.8068 -1.52053
-5.30774 91.8656 -15.4844
4.40039 97.2052 2.28053
11.126 116.359 -14.5072
-11.4545 88.2787 -12.201
6.18677 81.5519 -16.0627
28.9705 120.446 -0.246175
32.5056 91.1648 -6.81696
-0.845398 94.6044 -0.507323
11.4017 90.9324 -11.1742
19.4197 133.311 -1.15197
18.9356 147.716 -0.415366
27.3412 128.772 -15.5175
27.9985 131.352 -7.20985
27.0149 98.7279 -14.1941
29.6874 122.195 -4.71316
-3.96447 101.473 -13.2618
-7.20882 112.655 1.826
18.8564 101.342 -3.89776
41.6726 92.7707 -5.40964
40.349 91.542 -8.07977
27.4544 141.794 -10.2518
24.1115 90.8323 -12.3113
11.5117 121.535 -14.2304
-4.88103 72.3628 -10.0162
9.81978 109.132 1.14272
28.4502 84.1653 -6.62674
29.9801 134.936 -16.7103
17.8201 119.619 -4.76048
-10.699 90.7861 -9.15216
9.59604 104.734 -14.8117
27.0303 125.213 -6.65154
20.6541 138.212 -1.28418
-6.37994 96.8965 -1.81412
-2.09182 77.3231 -7.28657
26.245 128.927 -6.66235
28.3502 104.32 -14.6604
34.5849 93.6667 -9.42231
19.2658 79.7743 -9.50784
34.757 99.1547 -11.4565
-3.19138 82.3558 -5.71399
18.0594 120.788 -4.76083
24.5367 83.9174 -7.78778
21.2351 132.2 -6.11328
20.5721 88.7845 -12.1787
21.7477 130.632 -10.5179
28.5833 88.2158 -5.56921
24.342 97.0731 -13.8675
35.4456 101.117 -10.9631
11.9184 108.945 -16.4499
4.74885 107.621 -15.6826
5.3795 86.9119 -14.4903
32.0779 114.46 -1.08408
21.1868 102.66 -3.96331
-8.92714 79.9602 -14.8938
15.1464 98.4255 -15.0823
2.38587 87.6295 -15.5201
34.3788 104.456 0.764507
-10.8655 107.473 -2.56202
-0.967831 82.6897 -16.9441
-10.3395 83.7181 -13.8149
27.035 134.804 -13.738
15.8547 107.921 -3.20967
22.0655 125.581 -12.7645
22.0167 115.324 -16.4122
0.083931 92.2572 -14.5579
18.4039 82.0814 -5.85825
17.4216 134.947 -9.07295
12.883 114.799 0.303266
29.9967 107.442 1.48732
-7.17371 105.909 0.81568
20.8647 130.594 -1.45302
33.9775 105.439 0.811984
20.3838 79.3497 -9.12013
35.8285 91.4656 -8.27486
0.818519 93.8025 -13.3665
9.36276 114.02 -14.9906
-3.31717 95.6392 -0.383033
27.0129 126.095 -8.78062
21.3797 150.969 -2.41971
26.7351 126.268 -8.69466
-5.29281 100.397 0.425026
3.50866 108.872 -15.5259
16.5428 111.321 -15.7908
24.6747 123.515 -13.226
-2.67509 78.6429 -6.71653
18.2366 112.541 -4.79498
27.8386 95.837 -0.0378542
28.6554 120.916 -5.6729
-4.44216 96.0954 -0.338998
11.9865 101.456 -0.414607
36.2225 105.958 -5.45808
40.7246 88.5708 -6.66096
30.4207 101.839 -13.396
29.0035 96.9604 -11.9917
1.66223 90.4194 -14.7566
21.3609 133.865 -7.79445
29.911 121.841 -3.93713
18.8994 132.107 -10.3105
-4.28326 109.801 4.35139
1.17156 89.4577 -15.5454
0.131139 104.342 -14.0702
16.698 133.663 -4.8232
7.44719 102.29 0.585602
31.1513 85.601 -5.18973
5.4793 113.487 -15.0337
34.681 85.5812 -3.62016
26.6594 119.493 -8.50435
10.7965 98.345 -0.000846275
26.2453 147.634 -5.8185
-11.1841 94.2778 -8.3488
2.2097 93.7521 0.0949416
18.1138 96.1647 -3.87144
-10.2479 79.7059 -11.5532
38.0832 99.774 -2.40872
10.935 108.623 -16.7759
19.6803 132.981 -8.83781
31.6253 93.4014 -8.05204
1.19083 96.1658 -11.6832
14.4728 117.735 -16.2231
9.36509 114.796 2.55618
6.62844 95.9733 1.45079
-0.27797 112.629 5.11107
-2.08894 98.8542 1.76725
23.5069 105.253 -2.88328
33.4454 99.8174 -11.895
18.6499 100.104 -15.2117
-5.46511 85.8628 -5.04667
-11.8978 92.3041 -12.199
33.3563 85.8599 -3.75829
23.3141 103.761 -2.78972
18.2248 91.0551 -3.23543
39.3118 97.5167 -5.76962
26.8164 91.3535 -11.3183
-3.30917 114.813 6.33025
11.9362 113.097 -15.4618
10.1181 96.0704 -12.054
0.331155 105.512 -15.0328
27.7536 100.894 -14.6823
-9.04223 93.7553 -14.4961
37.7318 89.6913 -8.96361
3.13303 130.23 1.13857
26.5021 99.0221 0.769174
14.8452 96.8167 -3.46829
29.5552 138.399 -13.5663
15.184 109.642 -16.4966
-2.85519 104.128 3.9228
31.8918 93.3487 -2.19774
5.43297 118.688 3.37017
11.073 122.542 -13.1898
7.92104 76.9496 -7.69357
22.9639 81.0923 -8.49478
32.545 87.6474 -4.98288
30.0286 97.0155 -10.5034
23.2765 92.2661 -12.6565
29.3666 88.8354 -7.91655
26.8769 126.58 -4.75577
31.7134 117.092 -6.60664
13.1261 106.424 -17.0275
14.2255 136.236 -3.12143
18.6103 115.194 -16.4839
25.8091 81.6038 -8.34168
24.9178 138.045 -13.1371
32.5765 103.398 1.05546
-9.78716 95.5695 -13.8293
25.6404 132.268 -6.05562
18.4024 87.9459 -11.5401
12.8403 105.498 -16.8494
42.7371 90.4038 -4.27933
-10.8415 82.2125 -11.5048
29.7411 85.7211 -7.40206
-7.57007 98.3357 -13.6575
30.4887 116.422 -8.63209
9.70341 114.237 -14.7772
-0.55823 86.9589 -15.9779
-2.18442 120.107 6.2834
13.7887 120.345 -3.36159
19.607 133.152 -9.23167
14.4746 100.752 -3.48611
-7.5331 83.8134 -15.8416
13.5076 95.3783 -13.5611
3.91798 77.7622 -17.1834
20.1823 145.184 -0.782218
33.2816 92.3748 -1.91429
27.7576 132.739 -15.546
5.61102 95.1411 -11.1762
25.6771 113.263 -13.1026
14.6697 125.675 -14.9211
30.6235 107.788 1.60693
18.4647 136.875 -9.90415
34.1645 93.4931 -9.06456
20.0337 112.965 -4.61842
16.0394 79.9942 -10.0861
-1.19077 119.829 5.89314
26.0979 130.981 -6.57991
2.77144 75.6295 -8.13764
20.3334 127.993 -13.535
24.6925 133.187 -7.4595
6.33129 105.283 -15.4645
15.2087 81.7481 -10.2635
27.7605 123.852 -3.71643
-0.64293 98.8624 2.40341
14.3142 106.632 -17.1049
28.4213 107.312 1.08676
-11.5718 93.3587 -8.89807
15.2782 94.6642 -13.8849
13.4695 103.382 -1.05587
23.0799 125.295 1.07602
14.5715 112.916 -2.55522
-7.73804 91.6644 -4.57526
-3.30304 103.425 3.09861
26.0461 132.144 -6.26417
33.387 84.6057 -6.47162
26.3737 131.076 -5.74511
16.671 111.403 -4.60124
0.0739426 94.7169 -12.931
3.55599 125.085 3.69321
39.0395 89.0334 -6.97783
21.2994 132.322 -7.28539
36.6032 105.302 -4.88473
5.40104 111.477 2.00492
20.3032 126.243 -4.24295
29.1045 119.767 -6.21315
3.652 78.7879 -5.07739
36.0231 85.6217 -6.72938
26.9454 125.888 -0.752266
14.7801 132.159 -4.41753
9.79408 84.0313 -2.67438
20.4072 124.116 -11.598
20.558 133.04 -10.3602
25.505 132.551 -7.26267
-2.99055 123.613 5.22169
2.20603 77.1661 -6.00221
23.8626 112.972 -2.90334
-0.815054 94.1902 -0.921766
18.0314 124.207 -4.63407
32.5196 98.2915 -11.4529
24.8474 109.279 -2.5025
23.6309 143.066 -3.37389
23.6441 133.447 -14.8546
6.70597 75.0675 -8.54278
-4.28118 92.1528 -2.58472
-12.3588 100.615 -6.30348
12.7406 95.9044 -13.4496
40.1112 91.7879 -8.37487
14.7815 112.395 -2.93881
16.6349 116.15 -16.6564
12.068 86.8307 -2.30781
32.948 97.3818 -11.1547
27.9067 96.6314 0.279273
-2.79213 84.0717 -16.4517
-6.26238 98.3107 -13.9312
18.193 123.604 -16.2944
21.0524 108.991 -16.5805
17.4866 129.01 -14.7379
30.7698 93.6741 -2.54034
23.8117 125.574 1.48066
14.0381 120.24 -3.52895
32.8224 106.297 -10.6595
19.714 144.447 -0.79231
-10.4632 86.1164 -12.1733
2.2501 112.813 3.39432
23.2785 108.449 -3.38429
18.0897 131.204 -11.765
22.1302 130.993 -0.897681
17.1215 112.003 -4.71648
25.1628 81.2894 -6.72764
6.70238 83.1276 -3.15351
11.5836 119.119 0.720577
33.9381 98.519 -11.6265
17.1756 80.5283 -5.6064
32.5868 113.949 -2.08959
29.2732 136.96 -12.3904
8.11688 111.972 -16.3565
23.6538 128.796 -6.81358
17.1247 92.9093 -13.4465
-4.38155 80.2411 -6.69493
19.1187 126.169 -12.4733
39.2869 88.454 -7.10838
24.1296 142.243 -3.86339
26.6139 143.828 -6.53217
-11.3491 88.0533 -10.5508
-6.66957 108.334 1.46824
15.2661 105.01 -16.974
-9.17137 74.6188 -16.4859
18.0568 119.18 -4.74591
12.9548 114.829 0.110892
3.29391 89.9519 -14.2259
-2.80984 103.701 3.77209
-8.80517 87.4049 -8.00087
25.2198 148.081 -5.0121
-10.49 94.5348 -7.87963
29.9522 98.2868 0.549179
27.4037 123.523 -5.19261
8.31881 110.577 1.4715
38.7468 96.1814 -1.22225
30.4806 92.5596 -8.97002
24.1366 106.832 -16.512
-11.1603 91.1037 -11.9885
19.2397 139.846 -0.656934
30.3313 119.292 -1.17925
37.5686 89.4831 -8.76613
9.22756 86.2407 -0.80301
-8.41163 92.162 -5.02253
24.9765 109.346 -15.5641
30.7282 133.763 -12.5155
18.4714 85.3934 -10.946
25.1505 128.457 -6.9119
14.4019 107.857 -17.1083
12.7827 104.43 -16.3253
24.4613 84.1999 -7.69777
6.95162 90.4855 0.754268
26.4586 130.477 -6.84902
7.20889 88.6293 -0.429214
35.7437 88.3803 -5.30894
-9.25572 96.0994 -5.75157
30.849 128.932 -13.1939
-4.42991 116.852 5.89808
29.7026 91.582 -9.03773
3.34332 129.404 1.50421
15.2658 122.925 -4.55408
15.6905 123.988 -4.79272
37.3464 87.8435 -7.75884
10.3955 80.6698 -3.92597
26.1371 133.056 -6.53111
36.3464 91.1505 -8.47425
40.2825 96.4298 -3.32273
27.6418 100.46 0.694029
36.1186 89.7363 -3.47007
14.7213 84.4901 -10.6912
21.9649 124.302 -12.1947
31.8735 89.9241 -6.40223
-4.66471 119.659 6.30945
22.7141 123.292 -0.327844
-6.69628 78.8744 -18.264
27.1833 94.9789 -13.3114
10.3198 91.9038 -0.939393
4.60656 106.358 1.97691
-4.42045 87.3591 -4.20715
-10.1894 92.6525 -7.73523
26.4805 87.8825 -9.69196
36.1175 98.4815 -0.207973
28.7562 138.491 -11.6188
-6.38539 118.183 5.56531
20.0728 133.529 -0.150511
26.1703 93.5993 -0.662336
34.9567 100.164 -0.21794
13.975 107.083 -0.819065
8.696 116.254 -14.4894
22.9046 126.143 -10.4585
10.5229 88.4197 -0.660727
11.795 83.2605 -10.6942
-4.26399 90.5885 -3.63223
19.41 143.597 -0.584433
30.2238 105.834 -12.7666
-2.4966 125.652 4.23238
25.6195 148.417 -5.72338
24.4453 141.02 -10.3312
11.4038 133.53 1.07795
42.5041 90.5307 -5.65519
-7.05754 89.7622 -4.78471
21.5567 123.705 -11.317
-10.1223 80.5578 -12.5263
27.9395 111.971 -11.2235
36.614 105.038 -4.25528
-5.56371 88.6599 -4.4277
11.6535 87.1269 -10.5185
21.0876 124.525 -3.91915
9.62189 81.3972 -3.87291
20.1511 78.7381 -8.35061
26.7052 138.408 -12.5959
24.0154 118.527 -2.27671
28.4608 123.511 -0.977212
8.47169 97.8449 -11.873
21.98 92.8839 -13.053
21.1403 115.015 -4.25689
38.3028 92.5527 -2.49107
25.7689 124.768 -9.98633
30.4368 121.021 -2.82457
25.6284 87.6105 -10.4794
30.668 102.092 -13.4465
24.5609 113.592 -15.1888
-6.57489 83.7215 -6.01361
25.0409 148.572 -6.23618
13.3586 78.6481 -5.34463
10.2947 113.818 1.89581
15.8982 121.946 -4.62373
27.5896 88.6935 -4.68997
20.6538 131.917 -9.02733
23.3172 123.58 -11.2419
-7.65383 81.7695 -7.19911
11.8734 120.831 -0.863738
31.4687 105.62 1.03374
-2.12935 116.423 6.50211
1.31575 113.381 3.83806
21.6417 118.742 -16.092
39.2057 87.1576 -7.18235
31.2768 119.401 -5.15843
23.85 96.6867 -13.7578
15.165 94.1433 -13.698
15.5945 130.541 -4.63642
15.4983 102.493 -4.14445
28.9398 113.278 -9.65128
18.4 126.33 -15.4859
22.7983 135.443 -14.1382
19.6174 110.796 -16.102
30.5871 137.823 -13.5067
-8.98185 77.5654 -9.83214
17.5305 94.2276 -13.7338
12.4702 88.5382 -1.02014
23.8022 121.569 0.564586
19.8751 130.762 -3.70025
18.2217 118.939 -15.6828
21.5486 79.4493 -8.40095
5.86964 123.735 2.15076
19.2699 107.713 -16.4006
10.5439 102.259 0.0911112
-12.7836 98.5077 -8.07106
30.5282 111.396 1.8233
23.193 97.5795 -14.0582
11.1007 88.7461 -0.553686
24.104 125.897 -11.4011
21.8975 121.785 -11.2613
24.6684 115.129 -2.11613
18.8816 128.882 -12.3906
6.16844 121.673 2.66634
16.7288 130.785 -4.8555
25.1669 113.224 -1.95917
18.8183 109.005 -4.82549
34.3353 89.7145 -7.1611
19.8842 86.7905 -5.72148
16.7608 82.3319 -4.75921
-9.461 77.3924 -10.5344
21.922 131.31 -7.75928
26.5454 123.29 -6.9007
23.4076 122.747 -11.1842
38.4261 94.1036 -1.47045
8.22947 82.8112 -3.05284
24.7543 104.081 -1.77702
5.72127 115.059 3.35182
41.124 90.0505 -5.49796
-1.62168 83.7914 -16.5462
38.0403 88.8928 -6.07202
20.9722 133.711 -0.765085
23.3243 127.604 -9.57286
41.659 89.431 -4.5938
-8.35914 117.336 4.42741
25.3983 107.943 -1.90021
20.4538 131.828 -2.2313
26.8425 139.728 -10.735
13.7863 132.493 -2.19245
20.7271 83.5147 -7.25466
7.0566 112.679 2.10498
4.43934 122.843 3.86951
20.1765 143.638 -0.712904
27.0615 133.447 -14.9994
3.18701 104.509 2.84586
9.84058 90.9891 -11.058
20.1171 93.5728 -3.08628
5.14826 84.6399 -3.20837
26.043 83.8099 -7.40382
34.9856 87.6859 -5.28748
22.7568 123.026 -0.54324
21.6048 89.9815 -12.3775
16.561 81.8065 -4.56661
10.4515 127.469 1.46214
8.73095 99.6154 0.749392
14.387 127.975 -4.32533
31.1033 135.523 -13.2094
20.5928 94.9586 -13.8215
37.8458 95.6129 -9.72785
0.128777 88.7389 -15.7698
-8.30286 112.155 1.15828
-4.97006 80.3554 -6.6962
3.41454 83.4538 -3.59709
38.551 88.3427 -7.65857
18.0936 144.156 -0.457413
1.85214 120.738 4.06634
27.1574 138.762 -6.5584
30.2378 102.463 -14.0132
19.4492 129.942 -11.9416
-12.6325 99.0529 -7.06863
42.0747 91.1493 -5.32116
28.4227 114.028 1.99549
-4.88361 118.249 5.82644
15.952 122.759 -14.3687
0.855357 116.403 4.34829
-5.36159 94.0742 -2.07153
20.4425 132.051 -0.0477382
9.5401 105.049 0.282709
-6.13636 111.285 2.77089
-4.50458 120.025 6.22304
2.56753 117.141 4.11707
0.704995 73.6565 -7.23525
17.742 130.133 -12.3159
9.66474 79.1437 -14.8038
6.05834 119.242 2.85534
26.7043 129.45 -4.60087
14.2257 113.004 -1.72578
24.0365 103.089 -15.1094
24.6675 127.172 -8.5616
33.1567 99.1103 0.450678
38.5309 99.0631 -7.10395
17.4534 133.894 -10.1086
26.3399 125.524 -8.80719
3.35174 102.188 2.6782
