ply
format ascii 1.0
comment Created by Open3D
element vertex 1929
property double x
property double y
property double z
end_header
10.8451 125.124 -6.31776
6.82172 126.618 12.2058
10.9431 125.853 4.03975
-19.3618 112.45 20.9776
1.6425 133.884 7.41527
-27.1924 122.65 9.53744
-19.836 117.094 -2.06312
-1.61715 121.841 10.515
-31.1251 109.08 16.6548
-27.7265 127.381 5.90342
-6.64978 92.9446 -3.98988
-18.2971 128.909 14.6012
10.0249 123.627 0.991062
-7.51785 110.882 -5.74233
-24.322 135.451 5.82096
-0.0411682 75.9235 3.89829
-6.16246 101.962 -4.98305
-23.9195 144.105 3.9535
-26.8768 142.255 2.11905
7.18852 92.2872 3.93812
22.8664 119.67 4.52822
-26.6015 128.473 6.34141
10.9836 119.593 12.7604
10.9407 101.134 11.4889
8.54836 101.878 0.575939
-0.0197618 77.1126 1.7749
-31.8227 104.281 16.6375
9.07824 138.771 6.52369
-4.57972 109.717 14.5908
10.0009 125.946 -5.62107
-19.9859 78.7328 7.89511
-0.710634 75.5401 3.19352
4.20679 130.653 -4.88151
-19.4873 138.117 -0.0885096
-5.4212 108.221 -6.73296
19.9826 123.614 -1.96469
-0.237611 137.893 8.86657
-24.6099 127.76 1.99052
-12.6503 142.346 -2.97252
20.3714 140.73 1.53438
-17.6283 150.131 1.55753
12.1074 131.317 -3.19128
-24.6485 122.377 -0.520494
-28.452 87.6935 9.86678
11.1432 135.499 -5.94267
11.1045 122.13 2.78224
-16.8067 112.557 20.8387
11.4771 122.345 -0.990476
0.258563 117.036 12.3049
-20.7868 130.824 8.92295
-3.64225 142.892 4.63904
-10.6226 118.981 -1.8857
-3.72719 77.3601 -1.80393
-19.1174 99.0474 0.0324482
1.7823 110.152 -5.38875
-20.7901 138.504 -2.26274
-8.69088 118.333 -3.92258
-8.62522 123.085 16.7957
-14.0385 111.647 -2.70034
-29.5129 114.328 11.9636
1.08699 132.86 -4.05419
5.72392 136.7 5.62499
-18.0591 140.983 5.70105
2.32029 103.578 -4.30143
-9.03519 117.6 -3.895
-14.9731 129.499 -2.07891
7.27511 119.057 16.1758
-3.8288 81.1897 -2.72217
-19.0622 148.444 4.2988
4.8679 84.3802 2.09824
-26.2409 127.643 11.8616
9.98649 123.854 -2.20744
-19.7641 110.326 -1.99277
-18.0427 112.493 -3.09597
-18.5712 85.7653 4.8496
8.86154 114.572 -3.03769
12.5713 145.644 -1.80449
-30.602 105.608 10.2085
-33.1399 128.025 4.3841
12.7856 122.863 0.214203
3.40806 139.386 -4.8227
13.8765 140.85 0.11971
21.1971 130.541 0.326738
-25.5082 117.485 -1.91737
-1.23124 135.657 10.2156
6.25942 134.254 6.64541
6.8622 104.368 -2.43166
9.67345 131.028 -6.13624
4.75348 127.899 -5.47967
11.0921 118.801 1.40463
-10.4134 148.49 -4.28075
21.6819 128.256 1.87406
5.82302 102.146 -2.86588
-17.4904 132.592 12.3445
9.70331 99.4532 7.4929
-13.2702 149.311 -0.933589
7.82086 100.413 -0.681903
-26.3661 137.117 -0.894393
-31.8517 132.76 6.59064
-1.6244 98.8527 -6.0174
-12.4015 145.782 0.617296
-30.058 129.515 7.22681
-28.072 114.296 0.695866
-31.1872 98.8728 8.0691
20.5773 126.643 3.68368
3.24924 92.2111 -2.53906
-25.8108 127.073 12.9172
-26.1612 129.693 -2.11288
-8.43814 113.613 14.5977
-19.9925 135.11 1.32664
20.5718 136.722 2.61905
-5.10029 104.829 16.9296
-11.541 127.529 0.142551
-0.913935 148.895 -1.72473
-2.8852 143.384 6.22551
12.1242 151.64 1.16504
-29.2373 131.341 7.32871
9.06162 97.723 3.83165
-20.4337 82.805 7.1239
6.40064 126.29 11.1036
-24.6939 125.297 0.614583
-9.93869 105.661 16.8653
-26.3899 129.519 7.24634
-30.0981 133.03 6.49481
-13.276 152.478 -0.525428
-26.0548 130.705 -2.39279
-31.3176 99.9866 6.25148
5.59487 108.07 -3.40235
-29.2412 114.725 10.6483
-19.9533 131.993 -0.488528
13.9022 121.171 5.30623
-27.3125 130.618 -3.93599
-19.0245 87.5181 3.82664
13.9537 140.731 6.88578
2.26621 122.554 -4.13315
-9.8544 125.473 16.6725
-30.2761 131.818 6.86634
7.31993 136.146 -5.47695
6.24598 84.9376 8.12504
-14.4175 80.2435 3.07682
-19.3082 92.5218 2.44175
-20.1027 138.796 -1.47404
-20.4365 128.333 -1.89003
-27.9237 132.466 -1.9267
-18.5255 132.353 -1.88299
9.2929 136.571 -6.50997
-26.6654 81.7162 10.195
12.0477 131.278 -3.30303
-10.0716 118.337 -2.26452
-15.3962 146.808 0.769465
-23.0868 128.315 0.682404
-24.3061 143.449 4.18148
-12.5735 137.708 6.57687
-16.754 100.919 -1.47282
8.19767 113.488 -3.22585
1.80033 91.9659 -3.48185
-30.5197 106.342 5.16874
1.37412 112.806 -5.75587
10.9432 140.111 -5.17908
-15.5116 87.2066 2.3816
-33.0898 131.991 5.69761
14.1851 122.275 5.93383
-24.0781 118.392 -2.42748
-15.5458 143.89 2.49975
-19.448 134.914 6.26452
19.837 117.818 4.98674
12.7758 125.119 8.20379
0.276222 120.524 10.9511
-30.4976 127.422 -2.87977
-33.2117 129.99 1.59053
15.8478 143.789 0.878137
-1.46101 134.903 -2.6523
13.2145 122.857 5.79476
11.4806 123.892 3.50752
-26.3919 140.626 -0.337911
16.4516 137.978 -2.16705
-6.34558 134.809 -0.0342798
-19.7177 136.078 -0.438533
-25.0089 127.493 0.347398
11.594 123.656 -4.12412
-20.1382 141.632 -0.0429341
18.6453 128.596 7.28051
-24.264 89.3259 6.47266
-24.1556 92.5453 4.99688
15.952 127.891 -2.42193
-11.9426 84.6933 1.05341
4.41994 138.237 5.54244
-0.252252 137.559 -2.87898
11.8228 116.48 8.99145
-9.35451 151.63 -3.11729
2.99694 126.277 9.03961
9.59363 153.069 1.44957
10.1329 97.5398 8.24843
11.555 112.915 10.0287
-30.9056 88.1025 11.2764
15.8002 147.55 1.79947
2.04135 124.68 -3.98254
13.0587 137.451 -2.65069
15.225 127.577 -2.90833
-25.7526 125.429 15.1254
-21.9853 138.502 -1.80442
-20.9156 144.654 5.74728
-24.5399 128.098 2.80358
-15.2233 131.425 14.9799
-25.3714 92.1159 6.04314
-8.50307 139.773 7.20137
-6.12117 105.816 -6.41554
-29.208 131.2 6.56097
-14.6844 88.7126 1.83649
9.3111 104.586 3.72156
-1.79167 77.3757 -1.603
16.7652 139.312 6.26708
-24.8999 128.309 -2.39586
-24.5645 91.3649 5.78358
-25.0017 129.094 2.45919
-0.137232 88.5859 -3.89748
-7.57751 129.726 -0.56257
-15.1413 134.107 12.9913
7.07481 92.702 2.35166
-19.5622 138.105 6.75662
12.5805 138.442 -1.42576
19.3391 139.4 5.11717
-29.0664 116.706 14.3261
14.8285 142.101 6.45981
-12.6676 129.483 14.6466
-17.5701 145.165 4.73941
-17.5938 136.971 -0.110459
2.9558 108.981 -4.64158
-24.6865 121.429 -2.60323
-23.4514 108.454 -0.839036
4.76399 138.309 -5.51858
16.5444 127.874 -1.90242
10.6084 125.05 -4.4114
-18.244 100.843 -1.35102
7.15863 91.4607 4.05945
13.8547 127.769 -4.03053
-28.3527 137.937 -0.0175759
-22.184 116.794 -2.3928
-15.3746 136.409 5.60263
4.62981 117.919 15.1103
-27.7694 130.639 6.68668
-28.7655 130.825 5.40292
-7.18729 117.205 -5.86564
1.28282 126.745 8.78417
-18.5023 145.662 5.50488
20.586 125.263 3.58866
-23.5955 144.199 4.04322
-19.5201 127.646 15.36
5.19438 120.036 14.595
1.42858 132.04 7.77465
11.17 102.573 9.48967
12.0623 108.965 11.219
-8.10799 122.489 16.4476
21.2133 137.183 3.1099
-28.1781 128.925 -1.9527
-31.2392 129.324 -1.07493
11.5103 122.937 -1.01185
-0.305099 146.983 -1.32076
-28.2047 83.6673 11.0851
-22.3357 129.675 -0.885878
2.6093 115.281 -5.21961
-12.4969 152.35 0.181836
-23.4295 129.432 0.568219
-26.9074 122.255 1.19242
18.1793 139.177 5.76772
-14.3873 142.728 -2.63535
-8.06293 122.979 -2.5219
-28.3804 105.383 2.33667
-24.0678 122.732 0.282234
18.8822 125.834 7.58318
-1.63315 150.39 -2.04326
-27.7392 119.541 15.2227
-19.876 87.1828 4.50283
8.78612 114.438 -4.05305
19.0298 130.696 0.508631
-31.5201 103.089 15.5551
-7.11721 152.669 -2.56348
5.38101 116.269 -3.46033
-11.7069 137.988 7.20013
-4.02128 122.524 11.5386
3.01887 101.21 -4.27976
8.99086 115.003 15.9461
-0.711387 108.53 16.0102
0.713448 79.644 -1.67523
19.0386 140.3 0.0737039
-10.4486 130.969 13.4734
-24.3768 116.914 -2.322
-25.9041 124.664 15.0729
-12.5585 115.399 -2.21246
-14.2228 108.331 -3.44137
-11.2295 114.022 -3.08944
-15.7001 109.313 -2.90649
-7.28406 141.437 2.86195
-25.3757 142.364 4.28855
8.40563 115.259 -1.02916
10.5958 101.823 12.9822
8.67374 116.176 0.423267
-25.0914 86.6815 7.95415
-23.4622 130.333 9.75205
-8.52291 152.929 -2.08045
-4.29025 93.977 -4.9816
-25.2622 128.003 3.57004
-1.98251 147.759 -1.74161
10.8022 126.202 -3.97573
-5.28055 131.05 -2.26931
-32.3455 101.438 10.7292
-27.2141 126.847 3.81445
-9.73483 152.705 -2.12621
14.0338 124.706 5.53551
11.1664 108.061 6.45297
2.61795 84.4714 -1.0096
-25.2429 129.888 8.00702
7.61569 132.651 10.5298
6.28703 134.103 -4.95648
-30.7045 130.768 7.08001
-19.1377 148.278 -0.0531717
-13.2844 123.563 18.0175
-7.31017 130.77 14.0438
-12.4868 134.583 -4.31545
-13.5527 141.447 -2.89741
12.4264 134.204 -1.33324
12.3382 133.22 -1.80591
-33.2061 132.101 5.36926
-30.4548 105.8 5.59049
7.65698 146.801 3.31384
17.9187 130.501 6.95537
-22.2241 112.845 -2.32341
-23.2691 99.8929 0.721635
-23.6407 114.023 -2.40038
-12.9036 99.2463 -2.05516
-27.484 128.78 4.77766
7.49721 118.815 -5.35837
-27.897 98.9237 3.41043
-6.69104 140.828 -2.70207
12.702 145.909 -1.28895
-1.33135 131.693 -4.63477
-25.8348 95.9103 3.9139
-6.49269 108.215 14.9489
-31.179 103.808 6.12655
-17.3998 90.9947 2.27696
-14.5817 108.297 -3.32043
-9.79654 143.736 0.873972
13.4991 123.125 5.93213
11.0616 102.87 11.2926
2.70035 128.619 8.15777
-8.44815 77.6392 -0.302028
-15.062 94.4922 0.232274
-11.184 127.337 0.237176
18.0379 132.944 -1.46112
-17.8403 136.455 0.158306
-32.2076 130.688 6.7939
-4.97035 122.751 12.8595
3.74761 104.488 -3.67855
20.439 130.793 4.70783
-1.79445 102.69 -6.50619
7.51136 86.4901 8.90297
5.81848 131.357 7.86203
-17.0702 93.2673 1.67215
16.8594 126.046 7.80702
-5.76698 121.785 -5.39896
1.82174 130.43 -4.17108
-19.1825 133.519 10.5919
-16.5144 81.6684 4.00141
18.3395 128.291 -0.443112
-29.1479 109.738 19.1979
10.8871 127.597 -5.32658
-10.0778 145.115 -0.294103
-7.12642 131.883 -0.235693
21.284 128.599 -0.435993
-2.33352 141.061 7.97668
-15.8028 79.9928 4.04508
20.1734 129.417 -0.230972
-33.4483 98.8221 13.8723
-24.3184 84.0001 8.66429
7.90488 133.891 -5.63854
-13.2286 146.509 1.26472
-23.8567 130.303 13.0245
-4.10433 124.715 12.3874
-12.1589 146.94 -3.63864
7.24933 98.1123 -0.077493
-30.2909 90.2817 9.43574
-25.4457 127.627 7.32627
-21.7842 118.126 20.1063
7.99175 141.948 4.13105
-29.1851 105.938 2.96629
-26.8297 85.5264 9.64426
13.1651 137.963 7.76522
5.21392 120.149 14.558
-1.6562 88.3058 -3.91129
-8.93906 138.302 9.96891
-31.522 103.192 17.1916
21.2388 135.722 2.77339
-9.7738 150.577 0.930854
-23.3218 84.1384 7.86979
1.2863 117.447 12.4369
-30.099 85.951 11.9309
-27.1459 106.476 1.73698
-19.82 111.416 -2.20433
-27.4775 128.086 5.7708
7.51476 132.304 10.5043
-30.6901 108.56 10.2844
13.5448 132.13 -1.79883
6.5707 127.918 10.8289
-11.1649 144.406 1.48356
-17.9465 138.269 -0.165066
-1.13977 123.905 10.0594
11.8816 129.682 0.848287
-6.08154 129.844 -1.98677
9.68585 145.339 -4.84207
-21.6989 118.456 -1.85364
12.0548 148.373 -0.684519
-16.5944 103.777 -2.39057
2.19453 128.361 -4.22449
-22.9602 129.535 15.6515
18.148 145.035 3.39056
-32.8376 99.3332 10.8317
1.6349 81.7733 -1.33786
-20.7278 140.151 6.07888
-17.4439 97.8263 0.20314
20.2784 131.906 0.914244
-2.57177 143.387 6.28564
0.481467 117.727 12.061
4.96427 152.656 -2.20423
-11.7669 125.189 0.0513478
-9.72842 153.042 -0.314272
-8.36401 136.234 11.5234
15.6712 133.513 7.14935
-24.9531 128.044 -2.43613
-16.0884 144.412 0.801092
9.77508 129.306 -0.0913106
18.4788 142.311 -0.0937351
-34.6546 96.9939 16.2557
0.141081 145.179 3.47924
-1.73962 112.289 -5.26761
-5.41587 110.344 -6.68207
-6.629 149.099 -3.8393
-23.3854 81.0479 8.3999
10.7189 124.709 4.84864
4.04085 153.213 -1.83616
9.17458 127.606 0.495307
13.4588 135.43 -1.77105
2.78797 96.2695 -3.73299
-25.7611 84.275 9.62183
-11.586 141.816 -3.62081
12.6995 128.997 7.05558
12.197 121.77 4.22767
-11.2504 147.385 0.420308
-10.5757 135.492 12.0624
9.30232 140.341 -6.02797
15.1271 148.224 3.60609
-6.59335 140.381 4.36911
-8.05538 114.483 14.3782
-8.43208 111.66 -5.49638
-10.5841 102.502 -4.85087
4.49303 133.536 6.50939
14.2308 149.578 1.75056
3.77599 131.405 7.26089
-5.95094 140.864 3.79414
9.68254 147.538 -4.39951
14.4543 121.487 -2.28746
6.8684 143.697 4.06121
-25.5334 103.054 0.927462
13.745 119.164 4.04804
1.50794 143.181 -2.58729
1.87126 103.414 -4.66897
-6.30517 117.441 -6.1018
-34.7637 93.3395 14.7702
0.42265 139.48 8.57844
-12.6854 148.886 2.10049
-9.57881 115.051 -4.62088
-6.80997 124.311 -3.37274
-8.76495 132.615 13.2289
-20.0923 133.122 0.0753349
9.6951 121.027 -1.10872
13.0567 132.396 -3.93627
-21.548 118.078 -1.8795
11.4676 112.911 9.93316
13.9333 135.868 -2.86092
-27.2901 132.18 4.9561
4.91064 121.881 -5.66397
-14.5921 113.223 -2.4213
-1.90048 76.4555 -1.39356
2.53834 94.2931 -3.42867
10.6222 113.98 7.62129
-19.1775 136.735 1.11304
-23.207 133.151 7.5509
10.9201 115.081 14.4562
-19.441 129.64 -1.63411
19.6029 126.328 -1.18124
-16.1191 129.26 -2.45893
9.64191 120.513 -3.06965
13.3754 133.343 -2.75926
-8.66606 140.715 3.71617
6.18092 141.39 4.87741
-0.0578413 139.707 8.9165
-28.2204 134.585 -1.06476
-28.7855 132.512 8.02036
18.4908 128.976 7.0841
-18.1684 120.483 -0.967815
-19.726 132.822 13.0895
-11.3165 126.782 15.3176
8.34149 94.974 3.63998
14.2925 143.307 0.526956
-10.4942 136.616 11.1442
-3.64473 115.678 -5.72032
-32.5756 132.727 5.96695
-30.8952 129.185 5.85357
-9.44659 105.391 16.725
15.7843 134.297 6.99591
-20.4557 137.721 6.60584
10.8504 112.612 7.24885
12.5481 148.174 -0.4216
-27.8765 130.829 7.64674
-22.0308 130.766 0.832213
-32.5927 133.958 2.35016
-13.9424 136.066 11.2432
13.2777 130.968 -0.993972
-7.72718 126.517 -1.88988
13.3382 120.012 1.22619
4.74725 81.8111 6.70881
8.84227 136.44 -6.27159
-22.9406 87.1024 7.27225
-16.6664 133.312 10.7904
15.1349 123.83 -2.10778
-9.04467 137.901 10.1715
1.04459 95.3118 -4.31862
-2.43321 97.0501 -5.74944
-25.202 110.118 -0.850969
11.473 132.79 9.14676
-15.7754 143.802 -1.45418
0.127529 97.2105 -5.34794
-10.8519 125.516 -0.158605
9.3055 105.821 0.819868
-18.0548 91.5397 2.32928
14.4378 129.619 -4.24764
-17.4238 134.241 8.61431
12.7754 118.458 7.4829
11.1299 122.241 12.1919
-12.8626 96.0386 -1.56427
-28.0838 121.704 3.61644
-30.5221 133.306 6.5579
-7.72744 131.986 0.169327
-22.9505 96.718 1.70181
12.2859 131.663 -4.35156
-26.7767 118.99 10.1596
0.306761 104.31 -6.04451
-11.5949 100.361 -3.6443
-23.0659 128.769 0.272603
-3.45931 144.575 -1.53922
11.7777 143.591 -4.14559
3.6946 146.464 4.66245
-11.4818 150.117 -3.49242
9.69266 109.196 15.856
13.673 120.346 -3.8975
0.427182 122.21 10.3631
11.4483 117.952 2.27993
-25.3716 138.566 3.92177
-10.5722 90.0036 -0.63243
9.27223 104.782 3.10613
-5.96016 129.316 -2.41485
-26.1818 134.823 -2.04611
-26.6602 130.908 -3.82316
12.0362 116.808 12.1997
-11.1132 108.528 -5.42693
-11.426 99.5167 -2.97744
-25.3896 114.39 -1.82791
7.98461 110.304 -2.98403
-21.9542 87.0306 6.57763
-26.7084 103.314 1.6687
14.2538 134.179 7.622
7.57875 132.724 9.5172
-14.1376 130.295 15.0187
-32.9528 93.3901 10.4629
14.7703 127.37 -3.12854
-28.0881 118.827 15.2529
-6.62326 133.01 13.3152
-20.4167 148.101 3.15263
-31.3908 130.12 6.89629
-32.8122 96.9076 10.1562
-30.5332 106.952 10.8146
10.4917 136.362 9.09518
-30.9699 133.585 5.33167
12.3822 141.643 -1.17011
-2.92396 136.608 10.5772
12.4759 138.872 -3.93341
12.4225 124.511 2.60618
-7.56734 88.666 -2.3045
-20.1017 130.518 9.41344
-21.8525 130.405 11.6346
6.61403 128.325 9.92872
-2.64315 95.0003 -5.48641
-28.1055 135.271 3.98849
-3.54646 136.919 -0.637483
-25.7696 124.454 2.21039
-1.11484 100.709 -6.22311
-12.3707 152.42 -1.32138
10.8814 127.352 -2.76993
13.4308 144.009 0.621179
-28.492 101.32 3.25472
10.8622 95.3588 11.6188
-28.0092 119.008 0.183223
-25.4193 127.556 -0.656251
-25.9004 128.219 8.39745
-11.2766 152.669 -1.61317
-20.898 84.2295 7.05452
-16.7067 134.703 9.75043
-0.535874 109.859 15.4186
7.65468 114.13 -3.05686
-26.9295 135.417 -1.51321
-3.29128 95.3278 -5.40974
-16.1543 103.52 -2.53487
0.939902 123.752 9.85739
-1.5562 118.988 -5.66427
-9.45355 88.9214 -1.25546
10.6998 110.841 14.907
8.88799 89.4801 9.9252
-32.9577 89.2954 13.2884
-2.82663 144.051 5.51518
6.97068 118.878 16.1946
-5.68655 140.797 8.41553
6.34033 120.49 15.3486
-8.9555 99.7778 -3.84735
-23.8802 87.783 7.21032
-24.9989 125.952 3.31008
3.05624 80.0718 4.95958
10.7464 115.338 14.5909
-6.12723 112.549 -6.49801
-1.65199 137.914 -1.50293
6.31809 99.6121 -1.56557
-20.8012 124.922 -1.99038
8.03028 118.343 -5.4005
-24.7842 122.414 -2.44442
-4.35801 147.432 -2.43632
-20.103 134.924 -0.264286
-7.61865 133.964 -0.317074
-28.4129 127.747 1.35684
-31.5867 130.024 6.82414
13.0837 145.43 0.0946991
-12.1476 146.805 -3.67908
8.08768 139.63 5.13143
7.50671 134.957 7.86306
7.08352 126.612 13.3704
-31.8254 98.6884 9.63391
7.70342 139.076 5.03579
10.6793 115.22 4.95328
16.7013 133.536 6.83067
-4.24835 117.869 11.9576
5.67616 130.676 8.06661
-7.81628 76.9832 -0.939445
-32.689 97.1509 10.0255
-27.1554 130.124 5.13324
14.313 141.554 6.647
-20.4002 142.624 0.140764
-13.5922 141.455 -2.87594
1.85079 131.864 -4.287
-28.0544 122.375 7.34539
17.2759 145.399 0.946617
-14.5728 146.266 2.34042
-23.0283 142.64 -0.42416
13.9326 126.461 7.4632
-13.8396 135.789 -3.29144
5.05867 82.9124 5.53189
-17.8153 81.3323 5.04693
-29.3329 131.7 6.79504
17.9914 139.256 -0.777565
-2.85324 98.7133 -5.90721
-13.9082 126.205 15.7664
-32.4448 131.182 6.14455
-15.58 115.299 20.3571
12.2925 121.03 9.58205
-24.2373 127.175 1.67716
11.4243 114.522 8.57029
13.5741 131.729 7.76228
12.555 143.763 -1.54005
-24.6033 118.434 19.9537
-22.3309 82.2328 8.20804
1.27538 125.463 -3.56283
-30.3616 134.387 4.14947
-0.165839 108.315 -5.85257
-27.2112 102.451 2.14754
-33.6581 97.5545 14.8299
1.48745 113.367 -5.65788
11.5982 136.396 -4.29397
-27.0778 129.076 6.57162
-15.5292 122.811 18.4118
-3.61968 145.277 -1.73142
-25.6083 131.031 -3.32211
3.3865 151.925 -2.05681
-23.934 119.002 19.9397
-7.78153 101.881 -4.75025
8.59815 147.442 -4.55448
-14.1743 148.068 -0.245673
11.5083 147.031 3.95507
-9.46494 75.1646 -0.014078
6.00964 86.9452 3.88827
-28.4139 124.921 4.32988
-21.7591 86.8661 6.50308
-29.2171 132.966 7.47852
-32.6942 132.372 6.08448
16.1761 134.335 -3.66039
-18.2939 132.436 12.3976
-26.8822 121.665 0.957623
6.81278 145.674 3.64262
-30.4503 129.085 0.908469
-24.0189 139.852 5.35017
21.7111 132.314 1.15611
7.22501 127.837 -6.29287
-6.58602 107.966 15.0307
-6.12924 132.046 -0.840978
-11.4098 139.287 -3.59853
-21.7378 131.426 -1.35843
13.9971 126.362 7.36937
3.41577 81.6298 4.62794
-29.0037 114.043 9.0873
12.5156 117.348 -4.07451
-22.6641 120.909 -1.85249
18.5355 128.348 -0.132116
-21.7848 105.864 -1.18045
-23.006 127.846 1.10434
-3.68249 130.355 -3.89132
-1.00396 104.388 -6.05495
-25.9151 129.698 7.77938
0.79599 122.927 -3.82272
12.4593 145.185 -2.17555
-20.6753 125.695 -2.23191
-32.1349 87.6907 12.7964
-3.94424 113.016 13.2895
-27.9548 116.549 11.2904
-11.4541 142.037 -3.58112
-6.47816 109.889 -6.19216
-29.2401 118.292 5.98147
21.1194 132.115 0.981342
0.580286 89.3718 -3.8683
-4.38762 149.382 -2.54802
-13.5924 77.4681 3.15853
-25.5011 128.379 8.45178
-21.0394 131.929 8.39903
-31.0508 135.074 0.185207
-9.66546 122.177 -1.70464
-21.5451 147.352 1.22809
-28.763 127.327 -2.40791
6.24778 87.4523 2.11898
9.78755 125.327 3.05141
12.0176 122.252 -6.15851
-29.7179 131.301 4.81045
4.70687 136.429 5.7537
-11.3943 104.629 17.3201
-15.1977 136.191 7.88593
8.46802 153.53 2.90831
13.9036 143.641 0.991279
1.17439 108.445 -5.59037
8.53306 139.003 5.68031
12.359 131.662 -4.56614
-10.433 139.218 7.86011
17.4237 144.491 0.858241
-4.5363 81.0799 -2.67264
-3.84953 107.043 -6.69494
-22.627 133.606 7.06405
-30.2774 108.258 17.8429
-31.7905 127.55 -0.250707
-29.3303 130.437 -3.60573
-22.0879 119.228 19.857
-25.8324 140.558 -0.631136
15.2269 145.423 5.16316
-23.69 128.323 -0.464558
-21.6085 125.624 16.6342
17.5846 144.857 0.885543
4.36356 119.664 13.1705
-11.7772 105.686 -5.38735
-25.4222 139.757 -1.21601
3.64166 133.528 6.4082
9.43813 119.83 -0.247387
-10.1107 113.504 17.2792
18.9069 120.379 6.86794
15.4463 137.268 7.00311
-5.08472 139.772 8.91796
-32.8691 132.911 5.22863
0.68389 88.346 -3.53551
8.1238 115.99 -3.98828
16.5945 129.555 7.88315
18.4108 117.79 3.04747
21.6348 132.478 1.20968
-10.931 113.085 -3.33562
-12.7015 138.033 8.06372
-5.93218 129.913 -2.11575
-5.57236 83.6838 -3.00353
-31.2329 98.051 6.49486
-18.8637 119.353 -1.17935
6.05326 143.066 4.50032
-10.9556 125.265 -0.201767
-2.27722 114.129 13.0284
-15.4452 106.92 -3.99788
14.1301 126.038 6.15672
18.5853 133.735 -0.952417
-13.4592 132.345 14.088
-17.1346 134.515 7.96487
17.287 138.407 6.00988
-21.1586 124.594 17.3641
-27.4819 130.364 4.97756
-9.71225 110.472 15.668
17.5764 134.193 -2.35476
6.37386 95.0074 -0.0941164
-27.0328 108.97 1.28825
7.33651 140.346 4.514
-8.77868 138.923 5.7414
-3.159 116.775 12.0905
20.3189 137.789 1.20968
9.73585 125.586 11.1204
-21.0221 138.612 -2.07994
10.1285 126.411 -2.43097
3.25463 150.174 -2.02761
-3.74469 106.949 16.0367
-28.1147 118.87 15.4943
-26.932 96.0246 4.7573
-28.294 117.215 13.1574
2.88178 110.617 17.5742
-29.8465 93.0329 8.56456
20.3947 135.186 2.03307
9.42056 108.065 -0.204943
-22.8792 90.6961 4.87588
12.6168 124.851 2.4219
3.0462 91.2083 -2.3696
11.765 127.99 -5.73447
-15.1919 146.232 -0.517567
-24.6183 124.526 0.370224
4.4787 116.916 15.5081
-30.5361 105.517 5.72425
-22.2283 130.606 10.3873
-18.2879 88.446 3.1315
11.0759 147.756 -2.16141
4.26824 132.352 -4.61836
1.52741 109.366 -5.41778
-28.9909 128.158 0.0393728
14.5207 119.795 -2.14509
11.8824 119.557 2.3528
-27.2174 129.69 -0.592444
-2.36168 133.853 10.797
11.0346 98.3355 11.3051
14.9478 136.979 7.30356
5.18809 112.083 18.2103
-7.035 106.382 15.7107
-28.6637 84.3101 11.1772
5.03165 114.005 -3.41711
12.3702 116.28 10.3137
-24.3175 106.299 -0.839648
-20.9611 129.334 -1.2621
-27.9506 126.558 5.00651
9.98688 93.774 10.0079
-31.9138 95.8239 8.22062
-24.3873 127.746 -0.150422
-22.0943 113.977 21.0011
13.7719 135.565 -3.10747
-27.9153 118.46 13.9172
1.77224 122.535 -3.63536
9.8022 142.014 -5.22101
11.6699 124.384 6.09796
-15.6696 133.069 12.6911
-23.2472 102.814 -0.251406
2.97047 128.58 -4.71566
5.11437 122.232 -5.90596
-24.2418 129.005 13.1751
-28.4679 115.404 9.93744
12.3475 141.667 -3.52479
6.03164 129.963 -5.60544
2.43127 99.211 -4.50408
-21.0451 144.004 5.86144
-8.86327 105.051 16.5836
6.10788 124.859 12.3833
12.2541 151.715 0.829849
8.78675 127.778 11.8345
9.19497 118.232 1.02821
0.922435 137.005 -4.37602
-2.0385 87.8178 -3.84878
9.70731 129.947 -6.43826
-5.15878 97.7567 -4.92934
0.684033 140.304 8.12411
-10.4093 124.707 -0.561517
-1.32522 120.254 10.8957
10.375 111.017 15.2299
9.63135 107.988 15.871
-3.54937 135.209 -1.4497
10.4277 128.557 -0.5659
-12.2365 135.249 11.8429
3.45704 138.016 -4.7669
8.04703 138.538 5.46057
8.9138 89.9192 9.53277
8.26515 118.109 -5.1348
-10.8306 83.1285 0.460644
-25.9878 125.376 12.3997
1.68053 143.047 6.4843
-20.869 108.125 -2.04409
-12.9273 137.286 7.33796
-11.1452 92.242 -1.43697
-27.0039 128.042 0.194663
-28.1443 124.707 4.27307
0.751274 112.971 14.4217
2.44798 142.895 5.82347
11.5832 121.774 3.78248
8.00371 147.898 -4.16407
-10.2779 98.4745 -2.94665
-22.5718 136.596 6.06422
5.82657 89.8941 1.10157
-25.8282 129.085 -1.31179
13.9399 134.349 -3.06146
-10.8414 149.373 -3.92011
20.9511 121.908 -1.67282
-6.5346 87.2455 -2.83995
-26.665 94.5462 5.78709
-6.60211 117.663 13.4287
0.248538 116.603 12.5164
23.41 122.748 -0.0427947
9.94945 141.209 6.22093
20.3205 128.926 4.16204
6.17309 142.765 -4.7866
-1.25544 129.586 -4.23438
-12.3508 110.767 -3.38193
-9.24046 120.149 -2.34351
13.6813 135.506 -2.53643
-27.3401 129.981 8.44699
-31.2311 94.9424 7.65644
22.1262 121.156 6.1517
4.95572 117.13 -3.83387
-4.78263 131.886 -2.42378
-22.828 116.135 -2.67359
-6.10721 118.835 -6.02708
5.07182 87.1214 0.647725
-4.26927 124.722 12.6618
-29.4147 113.117 8.92952
-12.8606 98.0869 -1.64051
-11.4262 152.645 0.325541
-4.77261 98.7126 -5.2194
-25.0895 127.167 15.1849
12.6855 121.12 -1.85521
-28.5489 115.197 9.72292
-32.8821 89.5518 13.0538
10.3273 104.342 7.4145
8.95636 103.132 0.849869
8.73682 124.203 13.7588
10.3977 126.025 3.88998
-9.7818 128.316 15.0785
-19.675 148.534 3.22582
9.83118 128.781 0.207395
4.07935 145.291 4.76579
-5.30067 98.3838 -4.90215
8.6502 114.661 1.94807
-2.6541 140.835 -0.57618
2.34616 121.024 11.1087
-17.1814 116.251 -2.0417
12.0943 128.117 -0.716185
-2.89805 137.295 -0.84764
-18.6199 77.9064 6.69882
-24.6401 141.318 5.33913
11.3509 151.274 0.34674
-22.2094 114.901 21.014
-14.4862 96.6293 -0.408751
1.05827 140.754 -3.21614
-27.3258 124.257 8.85024
-29.9908 108.332 13.2152
1.28737 77.2824 4.80318
3.77499 140.609 -4.82681
-15.3661 108.935 -2.84774
-5.75648 136.786 10.9838
-31.1893 129.973 7.00205
-9.77982 142.971 2.17878
13.1712 129.156 6.20191
5.79544 116.251 16.7769
-2.54349 80.9067 -2.73261
-14.8707 81.6919 2.84783
1.54697 152.772 -2.05571
9.08985 97.8903 4.10467
10.3654 148.953 -1.58278
-33.5334 91.6169 12.3681
1.10354 110.717 15.7871
-33.9129 130.927 5.82924
-7.58024 83.7633 -1.35032
9.30747 113.655 2.93454
-9.7839 124.064 17.3986
-19.5136 106.194 -2.01441
-18.4964 85.3993 4.98148
-15.6507 108.585 -2.7843
2.67654 96.0126 -3.71298
21.6053 125.072 2.7148
13.7871 122.463 -4.05703
-4.31561 114.666 -6.22886
-18.9945 147.078 -0.215795
7.26414 90.3727 5.84172
-9.86182 129.343 0.299606
-13.7285 126.174 15.7778
-7.09956 88.8613 -2.61464
-10.7725 110.993 17.5006
11.2706 103.797 11.6786
-27.0115 121.18 17.3931
-18.4083 130.902 14.4361
-5.90079 131.248 -1.41303
-29.2702 110.333 18.9508
20.5893 138.001 4.30526
7.64387 120.119 15.7422
-30.8044 108.439 15.3289
-0.239119 134.203 9.70909
-20.1177 129.391 -1.21884
-32.1589 134.916 2.66708
-17.2078 82.1209 4.5925
-19.9402 120.459 19.4471
18.224 131.737 6.84297
-6.00551 125.956 14.6565
-24.2115 144.861 2.01037
-12.053 105.299 17.2788
12.6492 132.571 -4.4844
9.71995 113.102 2.80884
-6.36545 119.372 -5.75106
22.5618 121.633 3.26505
6.70163 147.427 -3.91156
-0.98316 134.382 10.2772
7.05034 120.688 -5.3687
20.2026 121.607 -1.28136
12.7619 110.981 10.3359
-26.1449 129.556 7.22859
2.21858 130.563 -4.32744
3.47048 97.6973 -3.58788
-4.28408 138.401 9.45883
-5.11525 120.88 12.3889
-23.7122 103.14 -0.198965
12.0557 133.349 -5.27812
-29.4296 112.878 18.065
10.4076 122.929 2.17487
-17.1137 127.024 -0.861922
-26.5052 82.6837 10.0334
-1.40414 89.2946 -3.99657
-24.7755 125.954 0.353084
-9.00236 86.3876 -0.909166
6.26793 132.787 -5.03424
-7.7836 140.669 8.2153
-22.8691 85.1663 7.48252
-30.5311 100.198 5.22232
-27.6145 122.197 3.61551
-8.2663 129.61 14.8774
-21.6484 126.496 -2.20349
-16.8837 110.73 -2.9256
11.6322 109.162 6.42936
16.1938 142.202 6.32046
4.45111 143.524 5.08144
-16.3239 119.445 -1.32737
-17.3174 134.88 6.63112
-27.8517 130.333 6.4655
-10.7281 107.378 -5.49001
1.22313 135.555 -4.41117
20.7031 135.871 4.13196
13.8925 123.012 6.15239
16.4326 137.54 -2.34769
-7.47457 152.303 -2.915
-3.02659 85.1653 -3.53965
-25.6375 126.856 13.5508
5.76946 131.886 -5.10506
-10.2894 109.511 -5.62515
-6.55608 128.927 14.4559
-9.12953 119.704 17.0639
-16.8105 131.217 -2.15964
10.4076 123.199 0.867688
-20.0286 132.456 11.248
12.8486 118.487 3.64995
2.46339 113.951 14.8727
5.55519 112.85 -3.65376
7.13251 126.745 13.2518
-24.4 117.982 20.2039
-13.1294 108.662 18.5122
-9.60177 122.415 17.466
7.5448 146.845 -4.43852
-20.4151 138.031 6.53362
-28.3634 92.1696 8.02697
-11.9745 112.053 19.0818
2.33087 109.074 17.582
-6.64958 128.679 14.611
-30.2841 110.959 8.427
22.1611 121.8 0.263417
17.1214 123.532 -1.99257
-14.4599 137.106 6.04658
5.42643 139.42 5.25606
-9.68241 100.371 -4.05417
2.5501 86.9326 -1.58035
14.1768 125.279 7.11749
10.1463 125.4 4.27516
-17.489 149.443 3.41261
-22.8468 130.313 0.643883
-2.3182 130.038 -4.70466
15.9026 138.394 6.83498
-26.8138 127.132 6.28556
4.41345 98.5948 -2.63454
-2.12731 111.735 -5.39349
6.14325 122.471 -6.02593
-33.1412 99.6286 12.0663
-7.70176 124.377 -2.68271
-4.88677 133.574 -1.45049
-26.9292 84.4778 9.90332
-12.0097 102.457 -4.50929
-1.23938 121.635 10.5289
-12.9992 100.84 -3.50822
-25.4285 126.539 14.2171
-30.3741 126.677 -2.16592
-14.0154 120.861 18.9189
-20.0412 100.06 -0.620981
12.9502 130.072 7.65099
-16.1156 149.616 0.0505297
-19.3259 129.697 14.5042
-32.9608 132.487 1.04482
-22.8976 142.821 5.19468
-27.9763 113.113 19.8586
-6.27846 144.176 -3.18151
-16.6336 135.962 9.02648
-24.1467 134.644 -2.48976
-13.4089 106.613 -4.92799
-33.8247 131.07 5.08671
-25.1591 86.6888 8.02064
14.553 135.143 -3.62037
12.4921 128.735 -5.24243
16.1158 117.465 0.562243
-16.7857 95.4565 0.998336
-2.47823 107.675 -6.0979
0.582632 102.232 -5.84431
-6.24688 115.115 13.1816
10.9353 103.99 9.31608
-24.9403 129.798 -0.777647
8.86184 144.271 3.63948
-7.8172 127.089 -1.53579
12.9652 148.109 0.859804
14.5876 128.872 -3.99461
-18.7284 128.449 -2.04088
20.9846 139.979 2.31988
-9.83792 150.346 -3.71867
-1.18295 101.206 -6.28267
-30.3956 131.913 5.1697
-26.7952 108.017 0.394071
-14.4981 119.224 19.3633
-4.09504 122.868 11.5903
-22.1874 117.878 20.2833
-9.69588 116.091 -3.74995
-30.55 108.219 5.96099
-10.4984 103.368 -5.21078
-3.67376 125.856 -5.34896
1.74846 90.5891 -3.24155
-2.85453 85.6558 -3.62474
12.5414 136.118 -0.926037
10.7618 127.419 -4.74209
14.4756 146.786 5.09356
-27.0351 92.6679 6.92506
14.5013 137.98 -1.41493
5.63735 137.14 -5.47122
8.27622 121.673 -5.28627
6.29078 150.43 3.47375
16.0481 138.847 6.70448
1.27494 118.34 -5.12143
4.32454 85.3473 0.363995
-8.70854 121.774 -2.29086
-2.72693 86.7027 -3.70682
-18.61 132.379 10.3569
-9.40789 117.19 -3.56949
-18.0077 129.44 -2.14114
-8.1094 152.919 -2.14415
-5.2588 115.297 12.77
7.57898 140.122 4.62513
7.61771 111.769 -3.17375
-15.6867 92.1765 1.51424
-30.0747 111.93 8.84339
-28.3163 115.573 17.6294
-20.1578 125.832 16.6627
2.17019 132.127 7.20963
-12.4918 137.668 10.0474
-30.9914 105.655 12.4806
2.337 113.783 -5.87412
-25.0456 132.118 2.64323
20.7469 121.625 -1.4803
18.6446 118.527 4.79143
8.44744 143.75 -5.36757
-16.2081 117.946 -1.6879
-20.1161 105.589 -1.40034
5.94033 105.907 -2.70065
-12.5062 146.467 0.843326
10.9097 113.055 9.02323
-18.3994 119.316 19.6279
1.59232 107.78 17.7376
5.22757 130.49 -5.11442
5.80074 137.909 5.33717
-3.17263 129.656 12.2639
9.97264 113.192 3.66237
-15.1423 137.422 5.08212
3.17134 122.48 10.71
-22.3446 133.977 -3.29149
-4.26401 130.491 12.6956
-24.0789 128.487 -1.20143
-27.7732 126.093 7.91786
-9.59993 119.556 -2.30347
5.22329 94.7178 -0.84499
12.901 120.126 3.6886
-16.721 127.782 14.9691
-9.17948 126.11 -0.692051
-7.48348 119.022 -5.03429
-5.72586 142.227 1.56751
11.8953 127.853 -0.52947
12.2353 122.136 -2.27032
-5.24238 78.3012 -2.23149
10.0492 115.432 3.52609
-29.8376 108.976 13.9847
-16.9867 133.541 -0.693482
-11.8115 134.733 -3.8611
2.67411 104.192 -4.07689
10.4254 141.25 -4.80907
-21.3869 104.959 -1.18246
9.2132 91.6466 9.05297
13.9868 124.435 5.62349
2.27023 78.3726 6.23364
-22.4713 132.661 1.39491
9.20543 143.734 -5.08852
12.249 121.114 1.31594
-13.4784 130.949 14.4726
-23.9005 97.1481 1.89145
20.4861 125.004 7.2534
-2.2654 123.74 -5.34809
-33.6582 100.016 16.2672
-32.7231 91.5105 10.9658
20.8768 140.239 2.89491
-28.2881 133.405 -0.909009
9.88926 120.359 -3.59154
0.388857 118.821 11.5563
-31.8005 106.862 15.5491
-20.9951 139.032 6.18215
-5.85888 106.156 15.942
-28.4792 122.85 6.72819
-25.2826 128.373 2.53845
7.51349 145.924 3.47414
-25.3058 80.5615 9.70883
-11.8593 80.9056 0.91728
-27.9933 125.062 4.85094
-10.7526 75.0977 1.15073
-15.4499 129.837 14.9782
7.17198 91.1613 4.80408
5.38265 99.9146 -2.29014
-32.8129 97.4122 11.3202
0.314755 113.59 13.918
-8.98584 116.712 -4.66344
-25.4499 95.3644 3.89748
-3.59043 135.962 -1.1105
8.37756 103.326 -1.09008
20.3623 129.029 4.8305
13.7183 119.212 3.74747
-27.9795 130.446 -3.58646
7.99181 101.126 -0.652987
4.61214 134.827 -4.62254
-27.9549 115.257 8.63296
6.16312 97.5374 -0.504974
-29.5557 129.486 7.41077
-24.9905 119.235 19.4889
-13.5875 130.648 14.611
8.25761 131.86 -5.58788
-31.4027 86.7568 12.1499
-33.3264 95.9523 11.6207
12.0267 122.748 -0.395325
0.259927 74.9401 0.562634
-13.0882 118.864 -1.28412
-19.2413 88.1156 3.61147
-2.61491 120.867 11.0005
-13.3379 147.364 -2.53742
-14.9118 127.425 -0.31756
-14.5467 139.346 -3.2459
8.01809 107.181 -1.84655
-11.4998 138.834 -3.49759
-9.14182 111.59 15.0035
-5.96381 119.888 -5.71906
-26.6176 96.9511 3.73058
10.4016 147.224 -3.42241
9.43023 110.029 16.0606
15.8462 128.53 7.5204
-15.2789 89.95 1.87516
-11.2975 139.263 5.13462
13.2688 133.296 -1.81039
2.68868 140.127 -4.54217
-5.3312 140.607 8.64728
1.63705 111.648 15.5975
-2.22445 116.768 11.9959
20.5016 134.94 4.5307
-24.3087 115.106 21.4222
-33.9573 130.008 6.47286
-4.25838 87.0072 -3.79615
-4.85796 134.629 11.8771
-27.8135 103.988 2.11059
-15.5486 148.964 -0.181258
-16.3112 120.67 19.0325
-15.747 149.495 3.77442
-22.0163 130.343 8.83908
11.0287 125.229 -2.56806
-8.00508 153.485 0.341475
-31.0953 106.345 7.43636
-7.07848 107.497 15.2313
-26.6303 124.815 11.1345
3.2048 100.064 -4.23635
5.44004 139.249 -5.60378
8.8514 121.751 -5.13078
-2.90393 132.752 -2.95959
3.96085 136.332 5.90377
10.2734 103.924 15.4883
-29.0815 110.9 4.95571
18.424 127.227 -0.436844
-27.6553 127.056 4.87123
-2.39851 153.175 -2.13656
-23.3108 127.446 0.644029
-20.7323 139.541 6.10858
-20.168 131.694 9.25725
-4.99098 126.133 -4.34496
12.0352 146.459 -2.3658
8.35307 92.0543 6.7629
10.1826 112.296 -0.790052
2.23563 127.167 -4.37879
3.62014 149.868 -2.11697
7.28311 141.368 -5.4655
-29.1872 110.619 5.78688
-6.97638 142.677 0.603784
13.4575 147.477 1.50272
-3.6065 125.645 12.1179
10.5162 100.397 13.3729
-28.2962 90.6067 8.59606
-18.928 83.2556 6.18357
-27.6805 130.53 4.09687
7.59549 109.153 -3.05652
-26.5887 137.184 3.90186
1.45899 85.0933 -1.99141
-15.738 128.003 -0.65214
-4.88241 131.013 -2.76908
2.97119 124.818 9.63882
10.8052 133.211 9.43297
-7.79847 126.269 15.7999
-25.624 126.02 2.41566
-6.46982 141.208 3.0537
-23.4563 115.633 21.1781
-6.33189 125.511 -3.52861
19.0898 124.569 7.37273
4.23666 82.764 3.94083
18.1882 136.993 -1.65575
-18.6907 118.105 -1.5538
-16.4801 124.778 17.3485
-25.7266 131.071 9.25897
3.501 138.838 5.93028
8.86938 122.976 14.6408
9.33435 129.014 11.5673
0.663916 130.942 -3.91748
-14.39 123.045 -0.133716
-15.2847 94.5433 0.359802
-19.1362 85.0361 5.36412
18.7557 120.143 6.74888
-14.7442 144.518 -2.01127
21.7621 132.211 1.13635
-26.8399 97.743 3.26242
-19.1354 112.61 20.9859
-32.1531 128.705 0.761429
15.3864 133.735 7.2179
-16.0687 140.584 -2.60056
-23.4574 138.178 5.31871
-13.927 93.4864 0.0943646
-22.7989 115.979 21.1113
8.21756 133.326 10.4873
11.7726 130.053 8.83945
5.49388 103.295 -3.09094
1.03503 106.912 -5.53154
-30.535 110.601 10.7956
-1.0996 125.061 9.70272
-1.7587 128.263 10.4729
-33.5031 130.096 2.96665
21.6568 121.148 5.31173
-22.7752 95.1848 2.3461
3.09501 133.908 6.6767
-19.2185 132.162 10.6977
-14.6989 126.84 15.4131
-26.7662 130.296 -1.14458
-24.1165 127.51 -0.342245
-28.4797 122.428 6.52135
19.7892 131.092 6.34577
-22.8942 127.883 0.813635
3.31838 131.679 7.13172
-29.3229 96.7591 5.71876
-2.89671 81.7162 -2.75696
-25.4501 128.036 -2.88607
4.9287 107.356 -3.5335
12.0948 121.422 -0.148359
10.0458 132.25 9.88682
1.20843 77.4986 4.28064
-3.42834 96.8885 -5.53358
-28.5638 131.052 5.72032
-17.6666 140.273 5.17062
-9.65666 113.018 16.5146
-26.5985 131.055 9.02288
18.5708 140.516 5.60435
13.7879 120.712 5.38658
12.1906 121.017 4.02047
-25.393 123.266 12.7633
-27.9786 110.138 2.23625
-18.0546 138.892 0.209699
-20.3881 139.282 6.26007
14.1718 149.695 1.81867
-26.7664 125.913 10.5569
0.924784 111.263 -5.99596
11.4642 138.263 8.01603
11.27 111.075 3.56848
-7.78999 133.187 13.2473
8.06341 125.522 13.7107
-20.0661 134.45 1.09335
-15.3715 86.3445 2.80238
8.47257 115.581 -0.740971
-9.0027 143.95 -4.43451
-30.0722 108.166 3.88082
11.9296 115.094 12.9701
-3.9204 111.792 13.8179
9.82625 129.456 10.8575
-11.496 149.907 1.59572
10.6074 135.301 -6.47322
-31.7018 93.4995 8.89298
-25.4549 137.846 -1.47621
8.96855 153.813 1.74232
-0.180012 143.282 6.41831
-26.5422 132.346 4.3788
-34.0568 97.3473 15.5492
8.64799 138.634 6.11152
-14.8109 151.446 2.35563
-16.0632 136.447 8.27747
-4.59151 121.424 11.9219
-9.28975 142.957 1.50953
-19.2848 88.6532 3.36224
12.6267 136.601 -1.33009
-25.3128 119.404 -2.1768
-4.8092 91.0189 -4.3889
-3.56038 133.755 11.2374
-22.1794 99.9085 0.184933
9.95091 113.813 6.57355
4.81567 151.558 -2.36109
-1.17569 107.281 -5.73607
-19.1389 149.205 1.7557
21.1357 123.341 3.63624
-24.5479 109.817 -0.794889
-30.0713 108.391 11.7454
12.536 118.041 -2.33455
-18.7762 128.026 -2.05581
4.27418 113.069 -4.25523
1.7559 117.318 -5.41479
-3.94134 121.343 -5.99644
-25.0488 124.638 0.567376
-12.4125 107.495 17.1074
-31.9454 102.215 10.7553
3.66539 95.0265 -2.7041
-7.02461 82.4011 -1.87113
9.91056 127.288 -2.71093
1.38293 141.927 7.03297
8.05368 98.088 0.597815
5.24393 124.399 10.9034
21.7543 133.603 2.47198
-24.1567 91.4081 5.51173
-25.6097 93.4781 5.6771
-27.0268 132.569 4.35084
-13.7584 129.991 -0.895293
18.1807 131.928 -0.502247
13.4753 132.782 8.11277
-6.76597 137.741 -2.00989
-22.2101 80.4625 8.18379
-23.058 102.001 -0.0174974
-3.02914 144.268 1.82667
-28.7735 115.564 15.1326
-26.2031 129.927 -0.842297
3.90317 143.571 -3.92406
-16.8023 150.604 1.45408
3.37659 82.7399 0.530742
12.8834 121.558 9.05936
2.43118 132.872 -4.46294
-32.6749 100.485 10.9702
6.80426 140.427 -5.43391
-12.5773 114.402 -2.65792
-21.0453 118.082 -1.66767
-8.79388 148.788 -4.2265
-29.0863 114.711 2.0624
1.3268 138.215 -4.42477
-13.8018 148.144 -0.989422
13.4402 129.697 -2.3147
0.698363 109.325 -6.00307
-24.4204 127.522 -0.646202
-27.275 119.22 13.1685
1.91521 139.704 -4.32769
-10.4588 74.7841 0.808173
9.4806 92.9801 9.1574
-3.29061 87.3399 -3.78355
-24.5258 142.152 4.88913
6.83251 108.614 -3.08353
8.80907 145.261 3.43592
11.7533 132.105 -1.18177
-16.0582 86.6958 3.02992
-21.2251 137.493 -2.97681
-29.9631 110.954 7.87475
12.6713 127.242 -5.03076
-30.6939 131.439 5.17788
10.7721 120.603 13.8087
7.68324 104.608 -1.99209
13.3058 119.996 -0.48726
-21.7748 109.377 -1.59255
-28.6667 107.854 19.7819
-0.110348 133.857 9.56153
0.419291 114.894 13.3299
-25.6146 128.327 8.49516
-5.02754 116.473 12.4341
-11.9538 140.073 -3.76267
13.5857 117.34 -1.27816
-25.7784 114.923 20.8602
-4.38884 117.916 -6.127
8.62679 120.53 -1.37359
-4.96892 128 -3.8137
-23.8541 130.692 -3.44256
-8.88562 125.325 -1.3232
-30.0075 129.677 7.26042
-22.4343 100.446 0.219
-9.25666 125.294 16.9549
-27.9559 124.686 5.95625
-10.2386 125.152 -0.481701
4.73049 134.738 6.03797
6.0939 120.799 -5.82642
1.92022 125.671 -3.96654
-29.5143 110.604 3.78741
11.8076 115.15 6.24263
-5.94517 128.537 -2.79744
20.536 128.662 3.86043
-10.6696 128.163 14.7373
7.99812 98.9174 0.740018
-13.8754 93.28 0.191483
3.84595 142.04 -4.4031
9.19185 109.659 16.2931
8.49747 101.465 1.11906
-29.3408 112.671 3.35951
13.4617 125.3 -4.91703
3.30599 144.97 -3.20413
-25.0637 124.807 1.4389
10.3627 128.9 -2.73481
-25.6646 90.0371 7.00692
22.0927 121.77 0.470636
-7.87788 140.06 6.16065
9.74948 148.124 -3.73186
-23.5081 121.073 -2.15858
-22.7262 111.179 -1.27077
-23.3137 130.871 11.4565
-23.7639 141.717 5.51312
-17.796 148.49 -0.267632
-27.4196 130.765 4.95676
-16.7798 80.0575 4.7547
-3.38353 97.0253 -5.56871
13.0606 126.016 -5.07925
-18.3293 136.359 0.550608
-15.4832 138.671 -2.03749
-26.0926 85.6246 9.47467
-11.9587 130.792 13.6733
-7.64767 112.616 -5.9416
-9.0221 112.521 15.089
-19.1844 149.324 2.16433
-14.6543 133.077 -3.25152
-25.7638 129.487 -1.55062
-13.3958 108.396 -3.80181
-9.28194 153.562 -0.469317
-22.5458 86.3567 7.28539
-21.4013 135.681 6.14496
-17.6137 113.047 21.0886
10.2132 147.599 -3.42042
2.43477 136.437 7.64378
11.0176 148.367 -1.73713
11.1567 127.263 -5.97306
-0.373054 145.224 4.3634
-14.6255 82.9313 2.77913
1.52638 117.636 12.4325
-8.47042 149.899 -4.03492
8.19402 115.745 -1.36847
-30.2976 130.648 7.54652
-22.2276 129.674 9.61432
13.6039 128.735 6.30228
3.09653 105.801 -3.89482
-31.9534 88.6939 12.3295
-14.3423 128.718 -0.57738
2.74811 103.829 -4.09044
10.5946 102.375 14.6741
-27.3388 127.363 -1.99338
3.31527 115.743 14.6483
11.7889 132.873 -1.4594
20.9789 139.954 2.91973
13.1808 127.6 -1.67957
-25.1995 143.073 3.87951
-10.3 117.555 17.8771
-18.1721 136.94 0.142137
-16.7886 135.724 8.77829
6.0901 116.851 16.6252
10.043 127.755 10.7079
11.8561 107.385 13.3327
-21.2844 97.432 1.44833
12.3806 129.899 -5.47483
-6.29892 140.994 7.92788
20.0728 138.904 0.78856
-1.36926 91.6547 -4.62982
-11.6751 122.697 18.2036
7.17256 101.178 -1.62906
8.49766 88.7422 9.39331
-21.0943 136.59 6.44607
12.6168 143.297 -1.32006
9.83422 112.418 0.907914
-6.12791 150.914 -3.37611
-10.173 149.041 -4.12323
-28.4979 108.224 20.1005
-28.9151 110.016 2.79192
-30.8316 133.384 6.01793
0.214253 91.1314 -4.18107
6.41672 126.059 11.4298
-29.5065 109.872 18.6654
11.5245 106.02 12.7178
10.4457 115.996 14.8306
-27.0353 141.899 1.70399
19.0391 120.915 6.86538
2.88539 118.155 12.6539
-26.4459 134.179 7.39367
18.5477 126.514 7.85498
10.1145 98.9195 8.53719
-19.8429 135.323 1.14041
-8.86795 135.731 -2.76735
-27.2537 127.363 6.13641
8.82404 134.494 9.98632
-33.8283 94.1802 12.7858
10.8066 101.301 12.3303
-16.6886 131.112 -2.77257
-14.0707 148.412 2.80232
1.02554 111.683 15.1729
10.2843 123.412 0.548767
-4.07581 85.8659 -3.62646
17.6723 125.563 -1.51521
-27.5979 131.048 5.83373
-19.6941 129.391 -1.19305
8.638 120.352 -4.54606
4.67879 118.963 14.2114
-26.9789 121.049 16.2103
-19.2729 79.9438 7.19397
-8.93403 107.657 15.5153
0.0230716 126.064 -3.72067
-0.327581 131.215 -4.17297
-12.7539 86.1226 1.33573
-0.418207 82.0051 -2.86241
13.5582 117.957 -0.917816
1.20637 111.017 15.652
-15.3408 149.02 3.69111
-15.5862 118.006 19.9512
-16.0005 121.031 18.9497
-27.9613 116.092 10.217
-18.866 130.967 14.3068
-0.976455 127.235 9.44482
-27.1528 107.706 1.14522
-11.1902 142.561 -3.63702
4.94445 97.2734 -1.64717
-25.3388 109.634 -0.512304
9.20218 117.861 1.287
-10.7139 125.459 16.7075
-20.5161 94.2217 2.28475
13.4461 128.079 5.92825
-14.1589 133.338 13.4655
-26.1747 138.306 -0.484842
20.8302 140.644 2.22351
-31.9541 101.147 13.3826
-18.5377 134.446 6.9633
-22.1497 78.532 8.45051
7.20592 114.445 17.4439
-29.49 118.036 5.41578
-26.1134 127.556 4.12294
-6.45431 110.262 -6.20395
-30.6625 102.531 8.33001
18.2744 131.903 -0.249014
-10.6852 109.254 16.7711
-27.2209 138.809 0.107938
-6.57389 110.773 -6.1706
-7.92609 137.814 9.9873
-26.6925 128.273 6.99301
10.9779 120.706 11.5968
2.06784 142.666 -3.26366
9.88589 132.389 9.91173
-31.7997 106.855 15.5347
14.3908 121.098 -2.41728
-4.62876 115.419 -6.25484
3.5177 116.613 14.5574
-2.13457 152.92 -2.20629
-15.5178 147.912 3.53016
-26.8148 85.6296 9.62086
-14.9459 124.908 -0.0350433
-16.6421 125.777 16.8254
-13.2322 138.171 6.06493
-6.58818 117.263 13.4109
-32.9704 130.264 0.352639
-30.908 99.7237 8.76176
15.9342 133.655 7.03544
-15.9893 93.8653 0.975852
-5.86571 114.163 -6.23012
-14.9215 125.552 -0.05023
17.2506 118.245 3.7208
-1.30366 100.466 -6.23009
-17.3475 146.896 5.46572
-10.9946 130.536 -0.256517
-14.501 135.034 -2.31786
-8.76906 122.135 -2.16567
-28.2041 115.078 19.1874
18.6061 124.786 -1.8163
-12.52 80.3351 1.73453
-14.422 99.7901 -2.26497
-27.8182 133.748 -1.2067
15.3141 123.526 6.8411
-14.725 149.033 3.43198
-27.1448 134.837 6.35257
-28.3019 117.268 16.9056
-2.14646 116.929 -5.86879
19.3239 140.899 4.31913
-26.1217 135.924 4.90682
-23.4568 123.623 0.785425
11.0974 125.029 -4.26573
9.98622 110.355 0.892301
11.6603 122.825 -0.790361
-6.55844 138.053 9.70851
-5.39758 138.247 9.57289
0.162097 145.931 -1.37684
8.64972 101.898 3.20904
-25.5075 142.74 0.243723
13.2958 124.369 1.21535
-3.64045 95.3237 -5.33999
9.09903 148.726 -4.26177
17.7876 138.783 5.85214
-16.0314 134.555 10.934
-14.9456 136.438 6.11134
-14.4867 138.226 -3.22008
-13.0479 146.437 -3.1506
3.52432 99.747 -4.02897
-16.6842 113.736 20.6196
22.5701 120.213 5.04418
-13.0948 129.435 14.8514
-27.5943 112.862 20.3975
15.3235 124.518 7.32793
-12.8041 76.027 2.63872
-26.7278 123.12 10.4112
-14.8426 147.327 0.253863
14.3464 128.262 6.6205
-17.9163 132.503 11.2928
-19.1598 119.252 19.7091
1.17609 107.672 17.6412
-25.2323 129.411 7.55158
-16.2771 136.672 -1.23157
-3.6644 100.602 -5.8397
-22.312 136.774 6.22102
-30.5389 127.42 -2.80328
11.0379 145.429 4.66773
3.60192 119.004 12.8957
-27.396 136.704 -0.77838
16.1623 122.366 -2.24134
11.19 125.576 -3.36438
-24.7858 122.218 -0.71739
10.2299 104.182 15.4626
-30.9433 127.761 -1.11617
-24.4578 130.446 10.8168
9.53756 124.375 1.46178
-29.1135 119.552 5.86185
5.77202 129.182 -5.61035
-10.8751 148.475 -4.20945
8.48647 95.3818 3.62462
8.67876 115.806 0.00194829
-22.9462 111.456 -1.35064
20.233 124.684 -1.75782
11.6879 127.701 2.65843
-11.6015 88.1297 0.455777
-28.2711 134.922 4.65936
6.06923 109.873 -4.10106
12.4657 122.711 4.85553
-6.0495 79.2426 -1.90348
-22.1513 145.178 4.78863
11.5947 134.501 9.15421
19.5263 135.287 0.716009
-26.607 110.845 0.989013
7.80328 121.013 -5.03653
-23.1215 129.586 1.5116
6.35109 133.563 -4.94664
-27.9183 124.533 7.29695
-14.6826 100.843 -2.63701
-4.68353 123.769 -5.41368
-3.90432 111.209 14.0683
-17.8741 129.819 14.3895
11.3035 107.168 9.47593
-29.4727 112.8 17.2671
-2.12986 128.476 10.9458
21.0457 128.473 -0.585892
16.96 145.436 0.975358
-2.7519 115.138 12.5633
6.67455 121.089 15.2698
-15.2398 137.957 4.58114
9.27224 104.545 4.45258
-3.81606 152.974 -2.37102
22.637 126.636 -0.185844
-20.594 123.232 18.2737
-14.7671 128.956 -0.720759
7.1786 92.4632 3.64499
-25.4824 127.019 1.93759
2.6654 123.66 -4.4672
-4.16057 128.381 -4.25428
-13.8424 77.8611 3.30964
7.32402 96.1244 0.489509
15.8013 143.876 5.48396
-25.3085 118.403 19.7146
12.4905 135.777 -3.8235
-27.6492 91.1623 8.0051
4.3339 83.4814 2.24252
3.45789 134.634 -4.47752
-28.4284 133.814 7.04949
13.5425 135.925 -3.28716
-28.0548 127.958 6.00106
-18.7081 104.776 -1.80207
-15.6985 99.8237 -1.67267
-8.74605 101.848 -4.72868
0.451673 149.527 -1.59658
18.0788 120.604 6.73062
-27.7923 133.378 7.79009
-21.2962 120.498 -1.62638
10.3708 107.317 5.02622
-0.84249 134.778 -3.54816
-6.2128 100.584 -4.47266
13.0148 147.556 0.380479
10.8008 142.354 6.37382
8.65924 123.492 14.5767
-28.4878 91.624 8.36714
2.12148 141.82 6.27272
-20.6986 144.468 5.91553
13.612 122.7 5.98713
-2.42524 142.569 7.05904
-28.4014 106.45 19.3333
7.57554 118.67 16.2852
3.60386 146.642 4.65838
0.490367 113.875 13.8341
-11.5501 132.708 -2.57918
-1.96192 117.204 11.8534
-24.4795 124.638 -0.346204
-33.9752 130.532 7.05402
-28.5659 114.598 16.6166
9.07618 100.278 5.76587
4.16725 144.425 4.92019
9.6118 128.304 -1.33027
-9.93276 138.819 9.54157
-1.48793 104.214 -6.18094
-10.4114 123.029 -1.10936
-10.0829 122.444 -1.45417
9.03649 154.436 0.688031
4.49596 82.3209 7.81626
-25.1786 128.127 -2.8598
-16.7902 100.213 -1.26468
-20.407 147.494 0.183747
-9.52536 107.895 -5.63674
-10.4797 126.793 0.0946302
-6.10573 121.255 13.6566
-8.2918 139.728 6.41886
-28.9648 114.653 9.80013
-30.5222 105.039 17.0399
-10.3586 136.269 11.4065
10.8648 111.965 4.88312
-10.0786 113.029 -5.04996
7.74284 110.084 -3.20609
-6.68674 116.679 13.4767
0.304045 145.229 3.32767
-20.0268 128.644 -2.17312
2.48152 120.344 11.4868
-22.0541 130.145 9.50242
-30.765 134.175 4.31637
-30.2641 104.964 3.91903
-12.5128 78.3384 2.49458
-23.7005 92.8791 4.20793
-20.3931 127.048 -2.29228
-12.3283 135.779 -4.15211
-27.4306 131.913 5.95443
4.74907 145.111 4.5515
10.0186 142.719 5.54231
-23.322 136.955 5.04123
-28.6329 103.202 3.19725
1.81153 136.5 -4.33222
-7.19995 142.549 0.855349
-13.9285 148.219 2.5722
-8.29455 137.581 10.1667
-9.01844 140.365 -4.03035
-9.68669 113.858 -5.25872
8.67891 118.262 1.03227
14.4071 136.754 7.59882
-22.9204 139.517 -0.866319
-19.0629 115.292 20.8062
-25.2655 128.291 7.01933
-4.71603 145.267 -2.35455
10.6749 121.195 -0.0741673
5.93902 96.2051 -0.4408
12.9277 131.316 -1.39876
-12.8853 120.833 18.8212
-29.0048 128.078 -2.5781
13.8185 128.545 -0.237367
-26.0891 93.7328 5.93395
3.59157 147.871 4.67894
20.249 131.575 6.11296
-28.1941 135.878 -0.934882
0.698745 135.136 8.17341
9.95307 134.755 9.73273
-18.5202 124.536 -1.68272
6.87741 126.255 13.1126
-28.4306 130.113 8.2655
17.5465 126.764 8.00042
15.9518 125.771 7.67555
-5.68581 97.3646 -4.60674
11.6923 105.405 13.5866
9.66841 129.813 10.7665
-11.5136 131.662 -1.3276
-28.6828 85.31 10.7333
-11.7903 124.395 17.4821
12.5731 125.465 5.7813
-4.90438 96.561 -4.98891
9.56838 123.725 -4.61769
-31.2765 101.842 17.0574
-7.52876 130.108 14.3403
-30.2858 127.29 2.12256
11.2608 103.082 10.5629
-24.3546 132.777 -3.07253
4.27027 136.77 5.72618
-29.1329 108.693 19.2728
11.2764 123.631 11.7252
21.1649 122.077 4.07407
2.26953 127.524 8.47316
-31.5012 102.994 15.4308
-7.99279 121.642 16.2863
-24.5685 129.352 -1.23403
-27.2208 120.207 17.3826
5.23567 141.764 -4.77931
-24.1977 98.5186 1.40465
-10.3178 113.664 17.5243
1.99075 128.063 8.29608
-4.73401 124.403 13.2605
