ply
format ascii 1.0
comment Created by Open3D
element vertex 1924
property double x
property double y
property double z
end_header
5.68482 130.512 13.8512
8.05364 113.646 18.5368
-17.8595 87.4718 -6.7852
16.5504 119.623 -4.00287
4.84817 128.62 -8.39176
-8.11205 89.7331 -14.4357
0.202605 143.293 10.3285
-20.9707 126.566 7.80771
-8.64185 77.8679 -13.1709
-21.6876 142.486 4.48937
-14.7018 141.262 -6.7337
-16.7324 124.089 -7.00507
-5.65529 123.483 17.9832
9.65434 92.2951 -13.6965
17.4119 120.672 -1.7548
-13.4465 131.291 10.9512
20.8284 92.4834 1.81155
15.0164 117.192 -8.71339
0.376393 142.147 -5.10398
-19.239 100.261 6.16317
-22.769 139.145 0.00978418
-24.7724 127.087 -4.09537
-19.6301 91.2734 -5.41596
3.03268 105.284 -15.9211
0.996951 142.309 -4.94279
19.8256 133.288 4.82132
-11.0896 132.807 12.9283
10.564 118.381 17.0199
18.6153 117.521 6.02057
15.8937 125.124 -9.43918
-6.44772 148.648 -5.65883
2.5155 115.839 19.1542
21.0397 95.5775 2.05999
-12.8514 129.301 -11.1498
-8.84619 134.263 13.5003
1.38786 144.391 8.45911
-15.9663 122.984 -1.49251
8.78889 117.879 -12.5437
-8.32479 143.926 -7.64562
-19.0809 89.2403 -4.96304
-20.0945 130.954 -6.65085
7.12671 149.192 4.3286
12.3342 102.502 -11.9685
-15.8639 147.124 6.51285
-0.940275 108.236 -15.9953
-17.364 121.44 -6.99921
-12.8471 105.706 15.5233
16.9717 142.737 6.57898
17.7282 128.409 -9.79032
-14.1676 137.862 -8.00218
-19.2838 102.859 2.71436
-20.3224 127.074 -6.29907
-9.7694 131.417 15.6342
-1.19589 122.03 18.4188
-13.3029 150.104 2.85743
-13.4303 142.276 9.15652
17.0186 125.269 0.528885
15.4369 124.066 14.2963
16.3232 107.68 -7.38742
17.8816 98.4256 -4.35195
16.6365 147.375 -3.17368
18.315 146.346 4.17742
15.721 134.201 11.099
17.3865 131.467 -4.42887
-17.4773 88.5615 -7.44827
16.2797 125.096 -9.62053
5.82217 91.4978 -14.8958
-7.53004 129.193 -11.8572
1.30943 132.395 -8.00722
16.1719 106.421 -7.64555
-16.661 126.466 -8.11059
18.3806 134.651 -8.49962
19.4517 128.493 -9.99451
-7.40023 103.781 -14.9569
17.6629 131.877 -6.37923
-17.1062 118.902 1.14616
-4.65827 114.727 -14.7145
-10.8787 134.372 13.4584
17.7428 114.903 2.41525
13.5065 135.625 -11.4994
-16.1772 128.486 -8.76008
15.1266 117.398 -6.64056
11.9478 144.194 -8.02973
-15.1736 119.395 14.0833
-20.0205 143.894 6.08913
8.48656 98.1555 -14.4717
-13.9387 111.35 -12.5332
-16.455 118.843 12.9059
-22.3453 140.692 4.66999
-22.535 136.286 5.75986
-9.13605 79.7708 -13.1004
-17.7445 109.085 0.718792
21.0176 141.507 -4.73839
19.0111 135.079 5.22126
22.7213 119.72 0.115834
26.4596 130.618 -1.65034
-11.8275 86.2149 -12.6784
-17.3006 113.143 -8.16656
-26.6327 118.476 -3.72496
15.4195 127.465 13.4188
13.5895 127.08 -2.43104
-16.7186 99.7702 -9.99094
15.4093 130.584 -2.66318
-2.34095 116.266 -15.2759
-7.77025 151.144 -4.25675
-19.3373 113.775 -4.34078
8.07375 81.4058 -13.3307
23.8189 127.176 0.252483
20.3818 145.646 -2.58099
-16.8231 120.283 -6.16965
8.24994 128.239 13.8708
-16.637 128.777 -4.50129
-17.0105 136.579 -4.63354
-19.3378 99.4669 -4.95538
-13.5545 148.852 -1.8052
8.08088 144.296 -7.25411
16.3412 100.888 -6.02368
-6.74066 145.246 10.789
-13.3826 112.916 16.3803
23.3835 132.478 -5.51626
19.3271 114.102 11.3445
-16.4446 112.716 13.8855
-16.7593 120.299 0.897683
22.9725 142.926 2.46983
-18.0459 129.651 -5.19504
-19.462 116.29 5.21836
-16.5654 105.27 -10.7558
-0.966881 139.145 12.0336
15.9552 79.2135 -7.67009
-18.1906 110.764 7.76878
16.0781 103.159 -5.76785
15.5005 130.493 -6.90702
14.6667 125.465 14.2285
8.39022 113.883 -13.8905
-11.4474 91.1882 -13.2737
-20.8186 80.3466 -3.27048
-14.3796 121.502 -11.8161
-18.7333 108.207 2.91597
-19.1207 97.3225 -6.50201
-3.39529 147.358 9.58275
-16.3569 125.258 -6.8841
23.9896 135.343 0.771696
4.76696 93.3203 -15.2036
19.9725 112.826 9.37221
-17.2225 120.972 9.42355
-13.6115 135.292 10.6198
-17.2031 120.237 -5.27029
-19.8499 102.819 -3.45886
8.95258 128.802 -10.8234
-18.9137 116.456 -6.65299
-16.794 105.674 -10.1876
-9.53228 152.874 -0.481784
-1.39886 88.2974 -14.3838
17.4997 135.876 6.55837
-7.31892 78.9115 -13.9854
-10.1726 104.444 -13.9515
-17.6467 122.827 -4.71295
-5.1869 109.419 19.8811
-17.5899 111.157 2.05415
18.378 123.289 -11.1562
3.64226 144.276 -5.2228
20.899 136.703 -8.08018
-16.1669 132.281 -7.9079
17.4163 131.667 7.89231
18.4194 120.346 -1.48909
1.9014 119.889 -13.947
17.5261 128.969 8.97806
2.54926 145.482 -4.61334
-19.2022 113.241 -0.678419
-16.9988 119.971 10.8457
-0.249447 116.672 19.7868
2.23607 108.29 -15.8073
-15.3921 98.9758 12.0144
-17.9117 99.4831 -8.84719
17.5752 114.66 1.34622
-18.6005 105.325 -0.120867
17.9809 133.898 -9.05969
-5.44193 131.021 16.2576
-0.224355 146.761 9.84623
-16.0038 121.835 -1.64138
17.3394 147.384 4.10123
-3.06743 79.9517 -14.3948
-16.647 127.788 -4.56228
-19.0208 100.823 8.29244
-1.13665 83.8663 -14.1373
-21.2299 137.83 -2.68179
16.0599 84.4233 -7.81179
-5.30657 129.2 16.4786
-15.5804 124.177 3.29688
-18.5953 109.622 5.449
-6.16177 130.712 -11.233
16.0678 143.956 5.5204
-12.3253 149.925 -2.80863
0.264085 126.254 -11.8805
11.9214 76.4058 -11.0993
-8.09961 108.726 -14.5589
-8.42939 80.7112 -13.443
14.7117 131.958 -9.23276
-20.3044 89.3016 5.50957
-8.82796 118.829 -13.944
-15.3854 106.683 14.5705
-0.559323 137.842 12.2742
-11.3911 114.832 -13.741
-1.5566 130.766 16.4105
17.6799 129.72 9.75009
8.39831 150.097 3.50662
-24.4819 119.844 6.45696
-16.4032 124.589 -2.27306
-13.5571 97.9623 -12.7149
14.8436 82.4029 -9.61068
-18.1162 118.007 -8.28558
13.0286 139.511 7.49773
-15.3312 123.125 3.07747
20.3555 88.9477 -0.209489
-17.852 138.728 -4.1245
14.512 120.751 -6.73429
16.1283 137.02 -7.10701
16.1255 138.186 7.58583
-13.5442 128.037 9.63413
-26.6283 118.425 -3.90096
20.1384 137.982 5.47987
21.1926 93.6458 2.4421
-14.7384 83.631 -10.0514
-6.70333 95.4829 -14.8222
-4.18412 105.244 -15.6913
10.7139 135.113 -10.3667
-20.7734 126.59 7.85082
8.63509 105.102 -14.2005
17.8946 123.005 12.3651
14.6257 116.618 -10.3247
0.681568 142.378 9.96145
-19.0504 110.918 -1.16089
-7.67688 145.742 8.89653
15.339 116.691 -6.49266
-15.0197 130.178 6.74426
17.3153 119.234 13.2534
13.1105 121.916 15.4479
9.96452 137.556 8.14516
5.74269 81.7053 -14.1507
0.150893 118.994 -14.8444
-18.8737 96.2461 5.86798
7.77809 138.347 9.10962
-18.3802 103.779 7.66407
-11.5921 148.921 4.77928
-12.7902 86.4395 -11.7233
-11.1566 87.2997 -13.3921
-20.7458 140.445 -1.92605
-1.10082 111.748 -15.8876
16.5077 128.678 2.71651
18.3181 97.5329 -3.63501
-15.8911 126.924 6.93143
-17.4991 98.165 -9.0845
-10.1132 139.051 -9.44572
10.2817 137.303 8.15101
-18.6343 107.671 0.943187
2.82977 132.171 -7.90123
17.9966 127.201 3.77153
17.5745 121.136 5.87571
2.82669 89.1427 -14.912
-17.0286 133.557 8.67499
-2.7634 125.189 17.8582
13.0601 145.2 4.80781
7.7196 135.241 11.5165
-19.0781 124.475 -6.11145
-19.3919 100.886 -3.18588
-19.7958 113.808 -2.56571
-8.91289 125.685 -13.0126
-3.13405 111.649 20.4639
2.00622 92.4114 -15.0543
-23.7245 123.91 -5.22876
-10.1847 109.819 17.3282
15.705 145.751 5.1493
14.6014 102.795 -9.7509
2.7858 138.059 11.6965
-16.2694 140.796 -5.44555
-15.9493 80.0259 -8.95923
-21.0241 144.297 3.15727
-22.1074 126.257 -5.65185
-15.4712 142.054 -6.23511
9.22164 87.4977 -13.2648
-24.9537 121.045 -4.82621
21.7334 120.47 0.380325
-18.1691 101.8 9.93423
-18.5514 104.212 9.21525
-19.405 114.486 -4.35134
17.4224 115.372 13.619
13.6942 96.8668 -9.27163
7.29934 137.805 -8.56284
6.52313 140.505 -7.47602
16.9947 80.268 -7.04569
19.8958 128.806 3.27584
16.3678 118.376 -3.95833
-23.0105 121.918 6.84521
1.25815 124.899 -12.2096
7.11534 139.5 -8.42489
-10.0584 128.968 -11.4676
17.3816 135.06 -7.76491
-8.40216 137.886 13.0306
11.3049 140.015 6.45172
19.5571 114.359 5.65259
8.44718 146.677 -6.99461
9.11196 134.167 10.501
-17.47 101.982 -9.37376
16.1076 108.969 15.0932
5.13929 91.5496 -15.0365
-18.4301 125.436 -6.05078
-5.50501 128.995 -11.4527
9.61559 105.778 -13.0713
-12.2631 86.7597 -12.1986
23.2718 122.949 -10.2603
10.785 145.129 -7.91112
-0.654509 130.947 -10.3048
-18.8346 116.419 -4.27842
3.39965 110.55 -15.1674
-12.1292 133.583 12.2216
-16.2062 121.279 6.92917
12.8764 101.371 -10.6822
2.54691 82.2275 -14.3691
-12.8156 132.353 -11.3493
-6.77483 134.72 13.9928
20.1758 104.696 4.51703
-19.3671 97.6566 -1.63633
20.3335 147.514 0.95491
-1.91695 93.1124 -14.8897
17.3029 137.723 -7.76189
-13.6898 150.188 0.248972
21.013 96.0896 2.24853
-15.3031 126.028 5.68887
1.88703 104.303 -15.965
15.8048 117.526 -3.24689
-10.5901 141.545 9.63138
17.1938 95.7413 -5.03277
17.9005 148.957 0.252256
-12.4313 138.755 10.7292
-21.7527 82.8593 2.1665
1.0823 131.917 -8.51439
25.7446 125.02 -2.16666
-8.71519 114.965 18.4178
11.8378 118.192 16.8211
18.8475 143.068 -4.97137
-26.5928 121.898 -1.73916
9.34394 118.962 -11.5299
-7.74593 119.345 -14.1025
-2.91651 92.797 -14.9595
-18.3252 119.865 -5.5535
17.4722 119.26 4.01563
0.271713 131.774 15.2931
-18.5006 97.1724 -8.34511
-11.9672 130.886 13.8739
-11.8462 127.066 15.8345
-15.3789 132.782 -7.85583
11.2625 115.814 17.3886
-9.50059 121.357 17.6958
18.8948 117.607 8.85568
17.5833 125.99 -4.74778
20.4902 100.47 2.93362
13.5062 132.41 -5.47922
18.4211 108.143 1.0139
16.3202 131.847 -4.7306
-16.6759 119.561 12.3946
6.78671 76.429 -13.2838
15.4028 126.996 -1.92412
27.5163 126.951 -5.28211
5.95325 144.75 -5.86797
6.7592 139.585 -8.01968
13.2907 123.589 -11.0395
-2.68508 117.392 -15.0438
-12.4753 129.783 13.4924
-1.57526 118.739 -14.9373
18.1289 139.387 -6.93238
-17.1021 117.478 11.2594
17.1324 131.788 8.6424
16.6086 118.462 -3.49099
-15.5971 82.335 -9.90018
10.7313 122.958 -11.7188
-4.38287 110.477 20.304
7.04575 121.673 16.9092
-10.0979 116.764 17.8714
-2.30187 95.5915 -15.1486
-7.63087 110.869 -14.4139
22.6946 138.193 3.37362
-15.1617 98.1574 -11.94
17.3071 114.346 -0.313106
15.2021 110.862 15.6746
1.8928 127.611 15.6433
-13.5881 98.051 -12.7126
-16.378 124.078 -1.49765
16.9415 124.828 -0.930749
-19.9462 137.047 -3.23562
13.8119 113.737 -11.06
-19.6487 101.274 -1.09497
10.1367 117.636 -11.2338
26.6157 126.671 -1.48582
-0.207575 134.153 14.9206
2.90918 129.076 14.7252
-10.8707 139.984 -8.5745
-15.1547 99.6392 12.9512
-3.32083 128.522 17.0058
-12.3942 105.666 15.6859
-14.6573 129.534 -10.5624
-17.9242 112.137 -8.11529
8.58716 126.515 14.3104
-15.0369 135.922 -7.64027
1.1643 122.779 17.655
21.0289 96.7846 2.97588
-17.6787 108.746 -7.22966
-9.31335 140.507 -8.68932
13.7203 99.5786 -9.10998
21.5193 143.925 -2.66615
-5.82583 128.26 -11.7054
-17.7444 110.689 6.58921
4.21505 125.25 15.7275
-14.3808 97.5451 -12.278
-19.2206 97.9555 -5.3692
-14.12 124.502 14.627
-23.6452 136.941 4.14612
9.53654 109.259 -12.8806
2.43217 145.762 8.91108
15.8019 127.198 1.15954
8.36892 93.9739 -14.3139
-14.4425 147.84 -1.55649
-16.3365 111.02 -10.8177
-16.8023 131.084 -6.22762
15.9037 135.744 -9.87243
-7.10672 80.1079 -14.0753
20.6191 133.045 -8.21417
20.2814 101.637 3.22488
8.37017 86.8037 -13.5953
-12.7236 112.096 16.4818
20.2287 111.419 6.90747
5.86326 147.569 5.79708
-0.266097 132.291 15.438
0.0435262 86.376 -14.3104
13.8215 128.465 -11.4747
18.875 104.023 -0.0673781
17.9244 132.171 6.57094
-15.8698 140.183 9.98658
16.8334 128.209 2.66263
-19.3018 94.602 3.97431
6.36935 149.713 4.6426
15.0536 130.335 -2.13041
6.08798 135.087 -8.1228
-16.2601 99.3696 10.9642
18.8586 109.949 0.846657
-19.3177 114.843 -4.79009
-2.67167 78.4839 -14.0102
14.9498 144.454 -7.08903
1.43862 95.0458 -15.4966
-1.5324 101.541 -15.8932
2.07365 126.221 -10.7333
23.6377 121.467 0.241474
-6.45855 82.1904 -14.2973
-14.1382 103.686 -12.4282
11.2484 123.537 -11.9196
18.6466 148.219 1.35809
-18.8477 108.323 5.04511
-3.10584 92.2069 -14.9494
-16.9302 95.3857 9.57712
-20.3964 91.6732 -3.26039
24.2833 139.227 -1.4287
-20.8379 90.4044 -0.676169
-19.2822 102.397 -5.65639
6.41168 139.158 -7.72367
19.4999 114.515 5.63156
13.2019 128.881 12.8834
-19.8195 137.497 8.62267
3.33594 154.597 -1.65363
2.29679 140.544 -5.64264
-16.6955 124.004 -6.84239
18.352 122.715 1.80075
18.3674 123.259 11.7706
-1.75108 91.6739 -14.87
-11.7789 144.318 -6.60477
19.8417 109.352 8.17519
17.1043 144.887 5.13364
-11.7421 136.886 11.2608
8.67374 101.59 -14.6224
-21.2688 81.5917 -0.887441
-21.7553 118.063 6.56903
13.8126 110.041 -10.2491
25.8897 130.947 -4.23879
13.2982 85.7558 -10.8985
16.2915 107.876 -7.52192
17.3318 128.607 12.2626
22.4773 137.103 -6.1681
8.95795 135.944 -9.41396
24.2638 136.682 1.05484
7.10342 86.2431 -14.0246
-16.3166 77.0369 -9.32881
12.5356 91.6211 -11.1773
-8.38088 114.693 18.6062
8.10551 107.196 -14.6098
-11.9026 127.984 15.7065
-16.6606 95.2106 9.65746
25.2771 129.381 -1.8509
-17.1077 134.855 -4.42758
7.04161 124.566 15.9055
19.1083 91.4721 -2.36083
3.59049 115.126 -14.0342
17.118 130.836 11.3256
-25.4435 123.974 5.51316
6.04334 136.626 -7.80264
17.7395 141.019 6.64863
12.0449 115.831 17.06
-16.2115 79.4676 -8.90248
11.4318 136.183 8.31967
6.58213 149.692 -4.67271
-11.8103 106.21 15.9798
15.325 109.798 -9.23825
-4.32552 102.038 -15.6006
-17.1755 132.012 -4.36968
-18.626 107.87 -5.11587
20.652 139.832 -6.83803
17.8694 123.416 -0.0037772
20.5725 129.942 -9.03973
15.416 121.575 -4.13625
-16.0821 118.64 -9.13235
9.43798 104.265 -13.5029
27.1838 124.696 -0.719266
-26.661 123.093 2.51876
24.0705 131.842 -4.9823
11.9796 74.6924 -10.8215
-17.0057 127.399 -4.86637
7.37304 78.4855 -13.1586
-11.005 111.185 -13.8908
15.2151 139.751 8.67961
-0.703086 79.2189 -14.048
-0.609007 75.1017 -14.4233
-24.1482 135.39 1.23787
-8.88021 119.833 17.9986
-15.6292 139.912 -7.06496
5.82187 143.729 -6.00244
19.3893 110.508 2.90525
17.8744 146.04 -4.03027
-21.1487 87.7174 -1.32414
15.7024 130.988 -2.31308
-1.43904 132.152 15.8759
8.531 126.448 -10.5723
-12.9401 111.528 16.3451
-9.12292 118.908 -13.8801
-12.3008 134.53 11.4633
-0.912857 137.268 -7.24569
-0.450929 84.2053 -14.0159
9.84959 123.192 -11.0221
0.487422 114.505 -15.4845
7.95379 127.583 -10.124
-0.867536 139.411 -6.22477
6.35952 138.598 -7.77027
17.8409 133.422 7.26088
3.08546 152.659 -2.91822
24.7075 140.252 0.524488
17.6977 121.821 6.78095
23.0318 135.74 -5.39893
-10.2259 98.0158 -13.7085
14.8582 122.905 -7.40723
-16.7025 131.81 -3.91144
0.331774 127.266 16.5793
-17.4864 120.057 -7.00363
12.6427 102.11 -11.3628
13.8856 136.662 -11.2181
-19.3719 99.2778 -3.5566
6.92037 134.467 11.9952
14.9862 120.95 -7.757
15.5703 113.856 15.1903
-13.4323 114.048 16.5529
14.5439 130.725 11.9005
24.368 123.805 -8.39724
-18.4369 143.522 -2.47942
12.5097 114.615 16.9914
-16.3736 115.971 3.04967
-16.1853 143.429 8.95972
-11.8347 150.51 -2.9991
29.2468 126.943 -1.41622
7.51793 115.181 -13.3436
-15.899 125.907 -10.1619
12.9917 134.912 9.31202
9.80692 107.53 -12.6724
-27.2685 120.264 0.985052
4.04382 149.91 -3.80063
-26.504 124.909 1.69037
14.4257 131.921 -10.1442
-17.1582 109.197 12.8596
-23.916 134.044 3.99711
-21.6995 83.0894 1.78273
-2.75122 152.46 -2.47024
20.1691 134.984 -8.08501
-1.24909 119.585 18.9663
-17.7669 117.384 -2.88854
-15.5143 126.063 5.10693
23.4759 124.04 0.876703
-14.6062 74.646 -10.8419
23.0502 132.25 -5.93827
16.8622 139.498 -7.92135
19.8325 101.588 1.39997
-17.1368 117.825 0.0973722
-4.46913 153.831 -2.11839
5.28502 106.531 -15.3979
-16.0678 121.866 -0.820545
16.4306 94.2082 -5.62346
-4.60875 116.837 19.4262
-16.704 130.644 -4.12962
12.7806 140.252 7.17371
-14.5093 118.121 -11.6863
16.4062 122.6 -3.62274
12.3641 117.932 16.6738
2.38993 116.292 -14.4464
-24.6491 128.49 4.63273
-19.5259 99.257 -0.887871
-13.4551 120.106 -12.7049
-18.5792 133.529 9.00555
-22.5547 138.682 -2.35647
-17.9914 90.345 -6.60336
7.9497 146.232 -6.72017
-21.4503 139.062 6.61675
-5.13434 74.6846 -13.7135
-14.25 125.963 14.4661
16.1627 90.0172 -8.07877
-9.70914 88.5189 -13.8641
16.7676 135.808 -7.40928
-9.00203 100.379 -14.3355
-16.2418 125.613 10.513
14.2143 90.5358 -9.68485
12.859 149.748 -4.30415
11.3073 137.124 7.8881
-16.3638 121.368 1.83471
-6.10611 120.174 -14.1376
0.973999 114.153 -15.4612
-18.5839 91.7317 -6.38854
-2.4424 130.529 16.5669
5.87537 134.318 -8.16528
7.57833 134.852 11.676
-1.08309 98.1491 -15.3558
-18.4441 132.917 -5.04212
18.4413 114.11 3.14082
26.5424 134.956 -0.248338
5.82373 147.594 6.2124
-18.5545 122.58 -5.47954
-13.0201 141.59 9.56395
-12.4188 143.555 -6.68521
13.8264 125.806 -4.31763
-24.2098 132.1 -1.72833
-15.5574 118.995 13.8649
-9.70351 150.283 -4.51105
17.4177 120.143 13.0163
28.3368 124.553 -1.05342
15.2539 124.125 -3.09662
13.8907 77.126 -9.37175
-15.3617 98.4007 -11.8602
-11.5114 147.368 -5.91364
17.7814 124.988 3.99636
-16.3258 97.3253 9.95386
18.0523 118.791 12.648
11.5699 133.057 10.0638
-18.4363 147.167 3.38864
13.8146 139.078 -9.73607
15.6664 135.597 -6.95077
-3.69652 129.008 -11.4208
-6.00197 94.5203 -14.7269
-9.03557 150.963 3.29336
1.74517 109.084 -15.799
18.3517 125.752 2.47499
-15.8677 123.775 6.79422
-0.933487 108.898 -15.9783
11.5016 125.851 -11.9865
8.88355 140.379 -8.89855
-7.10219 128.839 -12.1861
-3.54055 127.194 17.3025
21.3123 93.9486 3.02
-3.9639 114.47 -14.9743
19.7192 108.386 10.3253
13.479 96.0364 -9.77849
16.9649 132.208 10.0512
-22.9285 120.252 6.97176
-15.9582 79.116 -9.24362
-20.7114 78.8781 -3.76245
14.5578 127.966 -0.533516
-9.49929 149.233 4.70599
18.383 109.624 -0.8598
22.4044 123.155 -10.6746
-19.4237 96.223 3.68255
-2.93976 93.311 -14.9327
5.96207 147.994 -5.07399
-16.6067 123.497 -3.65929
-15.5952 123.115 2.74607
8.3673 141.99 7.12326
-16.2329 116.289 8.88497
-17.3351 123.23 -4.60191
13.0305 129.693 12.2598
5.93258 132.844 13.3979
-18.9793 91.7883 -6.0264
-1.79573 137.793 12.1914
17.5035 116.385 1.30991
-15.8922 90.9455 -10.0015
20.6447 101.441 7.18211
11.1027 143.166 -8.8715
-17.0561 134.403 -4.89151
1.58264 96.6089 -15.6235
-0.515278 134.666 -7.97153
14.7214 128.595 -1.10899
21.1896 141.907 -3.95893
17.5847 147.104 -2.98823
14.9037 127.02 13.7539
13.2645 116.201 16.4535
-14.2273 149.962 2.21339
-18.9632 109.021 -3.23172
-1.57419 92.7583 -14.8779
9.33393 121.924 16.3466
-19.5516 126.914 -6.34051
-16.3544 113.335 5.87158
16.3134 143.917 -5.84395
20.636 98.8025 2.11472
23.2512 136.037 -5.1362
-14.7382 130.798 -9.83269
-4.51642 142.03 -6.95418
-22.2573 141.638 0.527198
5.64499 83.3689 -14.179
-18.6506 94.3216 6.03699
-17.6709 98.5043 8.82489
-14.2503 119.077 15.0591
-19.3553 119.936 -5.35158
-19.9273 90.9076 3.54762
0.65931 113.199 20.4623
11.2709 143.401 4.97015
-14.2886 132.993 -10.1345
-13.1796 141.948 -6.83008
-7.08889 134.457 13.9966
-17.0676 120.399 -0.115903
11.5997 142.647 -9.13155
-16.854 108.538 -10.1129
-16.146 121.764 0.583159
-14.7557 118.089 14.8679
-3.90402 121.631 18.4987
15.7922 116.516 -1.44149
-6.00145 120.586 18.5811
-9.7191 149.767 -5.00933
18.0081 126.69 2.56793
-13.6428 132.106 10.0851
14.7789 147.186 -4.17728
-24.8752 127.802 4.73377
13.1331 126.88 -11.8671
14.1784 134.163 -10.4119
-17.2033 119.641 2.76037
-19.7655 91.9704 -5.5412
13.3956 81.5522 -10.8292
14.2013 135.441 -10.9467
14.2702 102.661 -10.007
-19.1504 92.1634 7.6772
11.1215 96.4117 -12.5954
-15.5497 99.1317 11.7479
16.5788 147.896 -2.18151
14.5767 86.0882 -9.54319
24.1276 134.396 -3.50423
-16.4234 114.93 7.26835
-17.0633 118.383 6.74772
17.9628 139.472 -6.81776
-16.3102 123.463 -7.12034
-5.71917 104.105 -15.3507
14.3338 105.282 -9.97202
-16.6077 103.531 12.9011
-13.7385 121.02 15.2776
-18.8016 144.779 -2.10317
19.5584 133.062 4.83919
-17.8545 108.261 -8.53293
-21.0534 88.6794 -2.2823
1.44216 153.239 -2.53176
16.3283 134.876 -8.00383
-17.6413 108.389 11.7931
-5.09794 141.503 10.9822
10.0837 105.67 -12.6158
-21.8401 134.282 6.91526
-27.3646 119.304 1.37144
1.71242 115.196 19.6681
13.0894 142.454 6.28429
11.4305 145.859 -7.65467
17.524 100.867 -3.35173
19.9659 107.974 8.30104
24.021 127.351 -0.526803
15.3849 123.753 -3.63573
-8.08271 95.275 -14.3523
-13.3716 79.1118 -11.4425
5.36093 91.3514 -14.9794
18.8177 120.113 10.1744
13.4068 129.043 -11.699
15.9541 117.698 14.7051
1.82238 130.759 14.4988
-17.5525 114.12 2.00733
-16.4058 137.831 -4.7692
-16.0908 112.127 14.2227
-8.03701 115.307 -14.3176
-26.1177 126.335 2.74016
9.84786 139.589 -9.3471
-13.9083 131.495 9.539
16.5538 87.905 -6.49622
-17.6321 129.866 -4.26004
15.6314 147.436 -3.48443
-18.5533 103.921 10.0331
20.7219 96.9962 1.49355
8.56306 146.508 -7.13316
-3.48361 133.998 15.3509
14.3728 149.991 -2.12768
19.0936 119.667 -1.5525
-17.4463 145.618 7.53238
-6.97034 131.038 -11.4965
-16.6028 137.957 -4.73702
25.5287 122.598 -7.4158
-19.3814 76.8857 -6.68921
7.12869 123.159 16.4348
12.9869 110.845 17.0073
9.51976 136.593 8.79397
-16.503 122.79 -6.16943
-16.2011 94.2626 9.8632
18.209 148.208 1.9129
-16.4028 134.795 -4.9143
-14.9565 109.688 14.8385
17.7025 85.6423 -5.66814
-3.79586 120.941 -14.0927
-4.29247 111.1 20.3208
23.2489 126.448 -8.73248
15.9187 137.974 -7.43957
15.2577 130.621 -8.89969
12.6637 151.67 -1.16923
-10.8374 91.674 -13.4768
13.7818 126.333 -6.84506
11.6916 97.7678 -12.3675
-21.4804 131.492 7.1657
7.00024 140.302 -8.04186
-18.6495 127.912 -6.40343
8.09675 94.5421 -14.4389
15.8936 93.3293 -6.60191
5.9192 122.231 16.8782
-22.3062 141.216 0.37526
5.64664 137.636 -7.20559
13.9899 139.295 -9.39852
24.1186 129.577 -5.97126
20.544 101.381 8.96682
18.815 109.801 12.1206
-21.9098 123.36 -5.4957
-18.7421 123.094 -5.6755
16.6446 112.718 14.5403
-16.4416 113.656 13.6701
-26.4225 124.484 -0.206398
2.85096 115.26 19.1872
-23.754 138.346 1.89704
18.127 124.137 2.96702
-20.088 92.7238 2.71689
-8.74415 125.33 -13.1228
-17.1436 124.473 -4.91794
-19.1466 92.6612 6.5103
-10.3189 120.131 -13.3985
14.1628 131.396 -8.65066
25.4322 137.495 -0.808472
16.9098 124.215 13.4638
8.66204 153.507 -1.18987
-18.674 76.1358 -7.288
10.5694 76.3982 -11.6433
-21.9844 123.402 -5.49169
11.2223 127.69 13.1547
19.9462 103.518 10.814
20.4327 122.173 1.02183
15.2895 134.706 -8.16893
11.2144 133.413 10.0055
-23.3316 125.095 6.61318
21.8757 142.719 3.94648
13.8543 137.022 8.95075
-1.26668 147.134 10.598
9.41492 85.9655 -13.1021
-11.8821 76.3552 -11.7207
14.2864 138.341 -10.1828
-18.5867 105.536 -1.76937
20.138 147.393 -0.762901
-14.339 149.38 0.171204
19.9535 100.749 1.38283
-0.664932 124.772 17.7236
5.6675 94.1251 -15.0397
0.0683993 125.133 -12.3688
19.1667 146.936 -2.21056
-7.95605 107.543 18.7733
-16.4818 125.981 -3.94049
3.39296 99.0208 -15.5985
14.5556 119.103 -5.52418
-22.9124 130.008 -5.02194
18.9407 119.03 11.0571
-13.5111 120.45 15.5218
16.4427 135.94 -7.27778
-20.5771 88.347 -3.10045
16.5211 88.1494 -6.67673
15.6377 150.769 0.595718
-6.75916 115.882 -14.5011
-0.445842 131.14 -10.1199
15.2908 116.771 -8.80554
-23.2995 137.122 -2.39212
7.03058 150.044 4.24228
-7.34659 93.6552 -14.6761
22.9351 126.701 1.77186
-19.9094 127.996 -6.95819
17.9013 113.78 -0.155256
-16.4952 113.429 6.28899
10.9239 150.497 -4.13878
-6.45853 116.862 19.1074
6.4644 111.738 -14.2049
15.9607 127.21 1.43369
-3.66154 153.735 -2.07209
0.149624 131.46 -9.5727
20.0638 99.3178 1.04616
-16.1748 114.822 -10.5138
-19.0085 102.005 -6.82718
17.1686 127.726 6.59107
15.888 143.633 -6.95779
-16.6841 116.799 11.9875
-15.7397 117.524 13.4972
0.334854 78.0838 -13.5968
-6.9553 132.882 -10.4152
-20.5542 140.775 6.932
-2.8868 121.091 -14.2031
-11.5843 138.368 10.7272
-9.77938 140.555 11.4421
12.1583 112.754 17.3051
-12.7698 109.74 -13.0612
-16.5212 132.774 -7.60835
-8.83743 126.673 16.9699
-18.7673 106.82 -3.29702
-12.7823 126.981 15.4293
15.3612 132.212 -8.54855
-10.7508 141.712 -8.32586
-16.4573 117.616 9.68266
15.7574 149.552 -1.13426
13.4629 103.458 -10.9525
-19.5509 111.078 -3.04507
-9.98276 100.536 -14.1281
-19.3438 120.861 -4.87666
19.8489 147.809 0.129063
8.28602 141.354 7.59614
-16.7287 127.952 -7.8234
9.21969 121.935 16.3641
-15.6053 123.754 6.07707
-8.93582 117.703 18.2386
3.76022 128.661 14.6232
-14.7453 105.378 14.6874
-3.02347 143.805 10.3315
3.15698 118.659 18.0985
-11.0706 103.224 -13.6885
-13.4724 133.444 -10.6201
-14.1795 82.8505 -10.565
17.5545 128.933 8.4576
-18.3074 143.013 -2.58618
14.8125 121.323 15.2071
-15.4976 125.819 13.3192
3.46825 92.7028 -15.3074
-21.0531 143.028 -0.949804
-8.40599 129.317 -11.5094
12.46 135.126 -11.1007
7.84382 124.909 15.3681
13.2112 129.085 -11.8804
-8.75066 103.985 -14.6181
6.65561 124.656 -9.054
-16.4573 122.292 11.2551
-11.3897 138.278 10.8706
20.9267 133 4.09659
7.07922 107.337 -14.7986
11.792 116.071 17.1434
1.40225 132.624 -7.91275
-23.6718 137.916 1.04141
-2.15586 145.896 10.2153
-20.974 138.481 -2.24452
-26.6173 123.374 -0.375372
18.7746 125.955 2.60091
15.3885 116.862 -5.81516
15.7089 128.188 13.1443
15.4701 127.208 -8.38759
12.3837 144.432 -7.97627
-6.33246 104.835 -15.2744
19.938 106.744 8.09638
-23.342 135.587 -3.0892
28.5889 124.619 -1.15502
27.9884 126.03 -1.39045
3.42408 119.579 -13.222
1.75591 87.1997 -14.6081
-19.5662 97.3965 -2.56179
3.24479 141.079 9.51645
16.8794 129.071 -9.60959
10.5734 110.601 -12.5594
19.8547 104.056 2.62491
5.3052 75.9799 -13.8609
13.5588 95.6627 -9.74845
-2.75766 125.626 -13.2052
-5.8055 86.4279 -14.5565
-24.0942 129.944 -3.15814
17.3006 110.688 -4.7432
-7.64689 145.245 -7.19704
-9.90483 105.885 16.9531
9.82267 149.337 -6.42097
-7.52536 119.546 18.4804
-21.7096 83.7983 3.56864
17.8235 132.416 5.10006
13.4593 151.425 1.05109
-14.4361 129.075 -9.52636
20.0488 146.302 -2.32306
-5.74524 125.23 17.4766
10.6363 126.682 -11.9409
0.165299 143.635 -4.71208
-18.5863 109.856 6.96096
-4.99845 77.6591 -14.4318
-16.7633 122.589 -1.53028
26.6772 129.905 -1.94083
12.5986 138.27 7.67112
-26.2786 126.857 1.86946
-13.6005 120.35 15.4293
-15.0528 119.911 -11.1777
0.413383 82.419 -14.0875
8.44966 124.919 15.1183
24.2394 133.722 0.0746016
18.8752 108.492 1.94982
-16.8808 135.094 -5.91564
16.6395 139.895 -7.2478
12.1398 111.641 -12.1623
-13.5816 113.856 -12.835
10.0796 149.726 2.98134
19.0743 118.486 10.6079
-2.00135 147.802 -3.90718
-7.88608 142.619 -7.72732
18.5747 110.882 -1.56703
-1.66932 102.83 -15.8997
-1.87369 126.967 -12.3623
12.9939 81.2041 -11.0346
12.1 97.8584 -11.8707
-17.9535 107.972 -0.841897
-13.5726 112.731 16.2533
2.88386 106.447 -15.8892
-14.7771 112.861 -12.3375
-16.3335 121.799 1.83099
11.7742 95.9432 -12.2017
-17.4392 113.575 3.20711
-17.2949 113.67 9.67327
-17.9225 147.319 4.21013
-11.3509 149.741 3.8581
-15.6262 138.562 -6.71909
-13.3213 150.479 1.59531
14.5689 87.7835 -9.34072
-6.6899 146.242 -6.40116
-16.2829 86.4876 -9.16797
9.96395 119.056 16.9251
-10.7516 146.338 8.23704
19.8471 102.061 1.43465
20.8292 92.7845 1.45323
-17.6054 89.5396 -7.14208
22.7242 128.137 -8.37599
16.5956 92.7918 -5.81282
-16.8087 125.773 -4.49519
11.5569 149.147 2.88849
7.24283 82.0555 -13.7508
-7.67787 100.228 -14.6812
24.2586 140.476 -1.77139
-16.504 126.441 6.49352
-19.238 126.01 -5.68717
-15.4918 80.1472 -9.71034
-2.82591 112.952 20.2613
-17.1573 135.442 9.3886
-15.5181 89.6817 -9.74271
-12.807 110.93 -13.0768
-5.65158 126.085 -12.3071
-16.2572 148.326 0.328865
-12.6099 139.071 10.1888
-1.59414 134.172 15.2247
-15.8772 98.6172 -10.9696
20.6588 125.54 -10.7386
-20.4761 130.965 7.89044
-26.7717 117.901 -2.5973
-6.16763 89.1486 -14.7542
18.5369 97.0127 -3.23686
8.2188 123.39 -10.6806
20.0461 100.425 1.44381
18.2536 142.917 -4.93703
-1.98035 91.886 -14.9109
4.50811 135.431 -7.16977
-13.5728 95.1889 -12.0966
13.5272 137.58 -11.1193
10.1569 96.1353 -13.2072
3.5701 133.411 13.7561
15.6311 81.2155 -8.78186
14.7115 120.381 -6.45973
-19.8174 92.334 -1.84125
-11.3554 149.652 3.95482
14.1661 143.358 -8.34959
23.2172 136.115 2.86449
-1.11937 104.431 -15.9767
18.0616 120.807 -0.915742
-7.57121 133.778 14.1834
16.1982 126.669 -2.53741
5.44938 142.444 7.87531
-14.6202 115.04 15.0696
-16.9037 109.2 13.0635
-2.83255 145.651 -5.00686
13.9139 138.719 -9.99384
3.88342 129.407 14.5209
-8.9622 123.656 -13.3702
1.06353 130.501 14.9979
-1.86552 107.567 -15.8675
-15.4818 122.082 2.21976
-11.6887 82.6801 -12.5761
16.9721 130.368 -4.24548
-10.6618 114.14 17.8752
-6.26628 103.037 -15.1796
14.5679 149.912 -1.59616
-11.1668 131.081 14.8488
10.5973 139.364 -9.92897
15.3094 123.975 -6.48628
12.9998 150.619 2.03699
-3.86959 116.458 -14.7512
27.2884 132.055 -3.48132
17.3474 122.985 -1.18367
-16.3428 124.56 5.36034
-15.9417 144.844 -4.25296
-8.18645 95.0348 -14.3253
12.6983 77.1828 -10.4013
16.847 125.573 -5.53461
-21.1662 86.9314 2.55603
-14.3767 128.237 11.1144
8.52117 115.119 18.1654
-16.5214 125.014 -6.57955
18.5022 146.208 4.11498
27.7758 130.319 -4.15828
23.6552 120.829 0.132686
0.726439 80.5225 -13.7388
-1.28848 108.324 -15.9381
-24.2565 136.036 2.41962
-19.4613 100.692 -3.96181
13.8794 144.883 5.17797
11.442 110.678 -12.2269
-17.6287 118.624 4.59473
-18.7387 134.141 -5.39999
-11.6957 75.6516 -11.9745
22.4066 143.425 2.98832
19.4693 97.2933 -1.39229
17.6491 125.036 4.54285
0.271164 128.518 16.0703
10.7262 94.936 -12.9191
-1.0553 136.037 13.9339
-15.0322 108.649 -11.4424
-13.4639 131.712 -11.2024
17.8037 132.647 6.04908
-6.32762 116.515 -14.4037
-8.4648 144.551 -7.63768
16.6252 81.7366 -7.38771
-0.298309 130.132 -10.3748
-16.7091 118.315 -2.00906
19.739 88.9123 -1.47569
-25.1914 119.788 6.31297
14.6643 145.801 -5.57844
15.0021 150.083 1.94687
7.10669 131.352 13.1717
19.8941 104.286 2.89075
17.7031 122.167 6.59505
-23.4869 131.513 4.37361
-13.7181 145.624 -4.61621
-26.3091 123.205 -2.07517
22.9292 142.016 -2.74251
-19.5351 104.721 2.3878
19.4661 111.026 2.34486
3.02835 113.122 19.8231
-15.1948 126.418 13.6593
25.1398 121.369 -0.922959
-23.1336 132.135 -3.48291
0.758621 144.984 8.95767
-1.23289 147.042 10.612
8.41561 86.4594 -13.5589
19.5634 105.334 2.22519
-21.6614 79.5438 0.0569111
17.9078 121.245 12.2384
0.854002 146.016 -4.30783
-2.51068 94.0569 -14.9544
15.0931 130.293 -6.01376
-1.44317 138.104 -7.33264
14.0288 129.86 -4.51472
13.4884 128.184 -6.53568
-6.64091 115.711 -14.519
1.76789 127.994 -9.75656
25.4556 138.22 0.641884
18.4792 117.16 3.89054
2.15302 147.653 -4.06382
-3.01813 153.346 -2.15358
-15.4111 91.9942 -10.9513
3.57661 145.598 7.75904
17.9332 132.291 4.99523
-21.4798 123.058 7.72212
-16.2948 94.6844 9.80664
-19.1141 109.562 -4.82721
9.99923 141.848 6.07824
17.802 126.649 -4.81972
9.72648 77.0772 -12.0788
-5.4286 109.765 -15.28
-18.7582 113.213 -5.74141
5.1226 79.1881 -14.0747
-17.5049 112.032 7.70897
-8.5188 134.484 -10.73
-8.86929 143.131 -7.9399
-14.3743 131.165 -11.0362
18.3995 135.041 6.15107
21.1419 96.8342 4.20084
-8.76806 151.637 2.76484
-6.69807 109.923 19.4471
-14.2788 79.1398 -11.101
-8.94709 129.128 16.5965
-12.9838 147.057 -4.70314
-19.0399 103.509 3.75873
6.1874 131.491 13.5634
-18.5733 116.148 -3.57284
7.63362 137.241 -8.59255
-17.8624 121.803 -5.52447
18.9148 110.442 0.305445
-1.25657 121.114 -14.5088
16.3728 101.676 -5.33416
2.03385 140.08 10.2185
-21.1316 87.4508 -0.989828
-19.2532 134.924 -5.46643
-18.9344 111.628 -6.58349
-5.95281 122.509 18.2023
15.941 131.269 12.2564
-21.2587 82.4453 -0.514676
14.8037 120.099 -7.63648
-7.07063 146.885 7.11928
-3.61711 90.457 -14.5792
10.6958 151.415 -2.93341
-6.47077 93.4591 -14.745
-5.1722 96.1684 -14.9257
14.5596 124.658 -9.84443
4.2843 147.09 -4.71146
20.4915 102.523 6.26691
20.1944 111.929 7.30553
-17.557 134.26 -5.18102
-1.42708 78.2229 -13.9986
-17.5601 115.754 -7.85793
15.0708 143.721 -7.55508
22.2106 134.724 3.76984
-10.283 135.659 12.1788
-6.04209 141.966 11.1974
27.0908 135.303 -1.15033
-16.3441 123.795 1.01165
-16.7148 118.277 4.70138
16.496 110.34 -5.9199
-21.5452 138.606 6.89195
-5.47801 114.733 -14.617
2.96556 76.1705 -13.9179
-17.8793 118.007 3.13766
-17.139 115.742 12.3664
-11.3556 106.119 -13.7395
14.585 118.228 -7.35607
-22.5869 129.889 5.99248
-10.6682 146.422 7.9501
16.4303 87.6285 -6.57914
-8.14992 134.424 -10.5162
14.5479 133 -5.35817
3.06826 140.409 10.0475
-12.2652 134.978 -10.4896
-19.3006 94.4043 -3.21825
-7.59662 108.282 19.1553
13.3288 130.123 -11.6719
-2.16078 130.639 -11.141
16.2365 149.923 -0.686676
11.2122 149.349 -5.49001
11.1406 118.847 16.8627
-19.679 102.988 1.34967
-15.3322 104.589 14.4077
-18.5303 105.874 5.9014
-18.2899 119.942 -7.70431
-16.2139 124.901 5.53512
-18.1658 102.918 -7.48197
-26.5241 119.611 -3.00689
-12.989 142.642 -6.66044
-3.00479 124.103 18.018
-24.0922 136.93 2.3607
-16.7584 113.979 7.35362
-18.8753 80.6087 -6.12556
-1.12774 122.242 -14.2271
1.45965 91.4239 -14.8994
22.3607 131.703 -7.35008
8.83885 90.1973 -13.6635
19.6723 106.769 3.37321
14.999 148.968 -2.94246
-18.0541 142.19 8.56147
-19.0852 100.487 1.82064
0.48499 117.404 -15.018
-8.7341 93.2605 -14.1965
19.9785 103.218 3.30173
-24.0542 132.908 -1.8924
14.1025 122.23 15.2045
-25.7211 120.831 5.95633
-17.5505 101.755 -9.2874
-2.00168 138.996 11.8284
-21.097 87.7726 -0.315244
-16.1628 130.66 7.39611
-19.3311 98.9908 -3.86133
18.0974 125.365 3.14844
-10.7853 92.976 -13.2869
-5.42034 76.8223 -14.1164
16.7261 107.85 -3.60158
11.5702 134.327 9.52321
-16.4966 148.339 3.55536
14.8928 126.848 -8.51106
-18.6933 86.0181 -5.86526
5.76132 128.566 14.1744
-11.2082 126.512 16.0542
9.67467 87.6497 -13.0871
7.71648 133.36 -9.09352
24.264 139.866 -1.83687
17.4815 124.835 -1.39508
0.310455 122.326 -13.7033
-5.27453 77.4098 -14.3605
-3.62264 111.537 -15.4078
-19.7274 92.1443 4.56009
18.2298 108.828 -0.404116
-19.0647 107.386 3.36358
16.1159 149.343 -1.20366
22.2839 126.818 2.16501
-7.33236 97.4687 -14.31
-5.80795 148.794 -5.18005
-5.86244 145.995 10.3117
-9.50627 140.562 -8.59455
-14.0842 123.56 -11.7419
12.4541 149.082 2.89858
-9.46561 111.911 -14.2781
-16.5579 98.8766 -10.0067
-9.23969 121.865 -13.4523
16.2669 119.698 14.4278
-16.2619 133.457 8.7191
5.95814 131.437 13.6413
24.9445 128.1 -6.37997
15.6897 82.5085 -8.53348
-0.664237 90.9955 -14.6453
-14.6279 103.08 14.6977
-10.6832 87.0118 -13.7387
4.16762 106.103 -15.8073
-12.4514 145.678 -5.97977
-18.8222 99.1555 1.05988
-13.788 101.942 -12.8558
14.9055 120.629 -7.83181
-3.24928 120.944 -14.1623
5.4811 143.318 7.53249
-12.2519 136.39 11.3236
20.0036 110.859 9.22486
0.276217 147.775 -3.81993
4.58665 134.409 -7.24424
-4.22952 129.401 16.6433
8.58889 151.891 -4.2782
-16.0602 108.217 -10.4575
20.3319 99.7809 1.72664
19.7303 144.683 -4.25952
-6.50375 135.918 -9.63022
-17.4071 147.498 0.703217
-8.23179 107.434 -14.6635
-16.8214 123.321 -3.80175
-20.1194 90.0296 3.74474
-10.066 129.182 16.1489
-13.0827 148.651 4.67212
17.7091 121.928 3.0457
14.4425 117.874 -9.84056
24.4118 125.164 -0.153476
18.8788 115.732 7.75592
-15.0874 100.726 -12.0863
-9.38967 105.642 -14.3265
-5.9719 119.027 18.8306
1.88279 113.786 19.9301
12.0763 106.175 -11.5297
-18.3086 105.228 8.29541
-18.5889 99.5176 2.98953
-16.9068 127.352 -7.69723
-13.2448 141.264 9.54984
15.1629 109.748 -9.30701
-24.1429 135.584 1.30111
-3.39729 151.533 -2.91511
-16.1523 115.607 3.44538
7.15469 110.376 -14.3849
19.3414 110.324 2.93779
-24.2277 127.881 -4.07518
-15.8346 82.2974 -9.78851
-14.745 147.088 6.38826
0.135228 139.524 11.434
7.66317 134.79 11.6635
-7.77704 141.845 11.7058
4.49889 115.378 18.9661
-14.1664 107.606 15.282
-15.1623 109.154 14.5538
-0.571443 113.454 -15.7358
-21.0681 85.9151 -1.88374
-10.8366 123.084 -12.9099
1.28023 104.319 -16.0383
14.9126 135.644 10.4204
15.3387 82.4104 -9.0129
13.5562 132.449 -5.62707
-15.0112 118.149 14.6103
11.2912 142.111 5.61175
10.5635 125.564 14.187
-18.8986 95.0316 -0.741992
-2.74296 138.164 12.59
-3.24247 124.492 -13.5182
9.47398 132.9 10.8089
-4.26243 128.918 16.7344
3.50867 119.297 17.8134
2.87573 150.265 -3.55845
8.43799 149.831 3.5278
-15.1833 86.7532 -10.3841
4.25313 114.992 19.1118
-6.42049 141.443 -7.48405
-26.8266 119.059 -1.67088
16.2163 128.389 -5.67457
9.17538 125.298 14.6587
18.7086 144.028 5.14068
18.3885 116.792 3.81808
-17.8175 107.724 10.1024
10.2779 145.991 4.37989
-15.8559 99.8827 -11.1159
9.65226 119.12 16.9418
12.1306 110.589 17.4552
19.6018 129.758 -9.29899
9.17426 75.4513 -11.8228
-1.44904 112.83 20.5515
28.4038 128.851 -0.518689
-9.45276 112.4 -14.1961
-4.56823 143.316 10.5848
-18.0737 110.899 -8.49006
-0.612667 146.879 10.456
-21.4405 137.871 7.28784
-4.9607 118.487 -14.1354
9.79874 121.917 16.26
17.6012 130.209 10.5481
2.52982 139.129 10.8455
12.9308 103.47 -11.3616
-15.4284 96.8058 -11.7018
16.4771 131.74 -9.18921
-17.0389 116.773 1.1657
-13.7057 134.68 -8.89013
10.6163 120.018 16.674
16.7384 122.101 -1.22035
4.8502 134.915 -7.2919
-21.1606 87.9554 -1.5585
-17.4479 121.824 -5.08302
-20.0614 121.603 -5.05259
15.9592 86.8675 -7.48529
-0.558971 126.257 17.1958
-16.9495 106.458 13.1084
3.31204 141.934 8.86517
-23.3998 120.987 6.82205
-3.71822 135.701 -8.57124
16.6127 105.643 -4.77273
-10.0076 139.959 -8.84979
24.6156 132.174 -0.75852
-23.4135 138.156 4.03427
21.0163 137.1 4.9033
-19.8234 93.7622 3.2324
18.5517 110.125 -0.796877
13.4327 137.787 -11.0952
6.80423 133.538 -8.77937
18.66 112.283 -2.94115
19.8668 88.5616 -1.15251
-6.83315 152.967 -2.05712
-11.1189 135.146 12.3248
-18.282 129.591 -5.03584
-3.29835 107.8 -15.7389
10.5747 117.904 17.1257
15.1189 148.072 -3.19206
-24.1315 136.586 1.78697
-0.318828 137.932 -6.3554
12.2289 131.502 -11.8366
17.6745 112.471 -4.45199
8.60196 142.438 6.6754
25.3557 130.854 -4.51458
-17.6057 112.296 -8.72195
5.56346 111.295 -14.1464
-18.2835 109.35 -0.615823
11.6847 136.709 8.04985
-6.94885 111.997 -14.5202
-13.0876 126.124 -10.9022
26.4532 124.148 -6.29574
16.8418 124.913 -4.59735
18.0227 101.635 -1.55458
19.363 110.581 2.52709
-20.8692 77.7179 -3.43713
-18.8879 104.759 -1.08968
16.1303 134.016 10.3076
18.5344 114.961 3.71678
11.2057 93.733 -12.4494
-16.36 144.957 8.31183
-14.0948 146.822 -2.93344
8.16188 76.4341 -12.5523
26.6905 134.615 -1.73445
15.0976 107.65 -9.36749
-24.3462 129.368 -2.282
-24.8642 128.429 -2.52303
2.99867 135.656 13.2888
-16.7676 121.937 -2.25853
-18.8752 83.8811 -6.17196
4.38419 122.845 -11.592
2.64006 75.219 -13.6905
11.1716 107.937 -11.6475
-5.11832 119.402 18.9069
-10.202 146.425 8.09927
-17.0624 113.312 3.88813
21.1251 123.754 -10.9476
17.2123 124.654 -0.926171
4.32913 106.511 -15.6837
-16.7965 131.614 7.80485
7.77177 127.855 14.2873
-3.82609 145.923 9.6702
-23.9266 134.853 -1.69665
9.36709 136.366 8.97933
10.2154 150.963 -4.10937
8.51038 79.8371 -12.7837
-17.9843 77.9256 -7.78644
14.6275 134.542 -10.2693
-24.0401 137.147 1.32534
-17.1357 121.882 -5.52133
-17.3732 117.345 -2.21454
-5.52272 90.102 -14.8349
-20.7433 141.392 6.54236
-14.2552 119.022 -12.1849
-11.3882 133.099 -11.4004
-24.3206 134.316 2.26213
-24.165 134.998 1.27506
0.413469 98.0511 -15.6454
-6.13795 113.657 19.621
12.5673 96.1962 -11.2803
18.7863 121.572 11.0007
-10.5082 117.604 -13.676
-16.8951 127.398 -7.72897
2.36284 120.157 18.0083
19.9644 99.7478 1.13482
12.4935 76.3946 -10.5798
17.9085 124.47 11.312
-15.9629 120.227 -3.86175
-16.9655 111.07 4.56645
10.2442 80.0867 -12.2746
15.0055 114.574 15.5215
-11.1206 147.491 6.54978
-7.04982 141.553 -7.94783
-15.4956 125.94 5.04221
22.3849 127.913 2.34445
-18.3383 138.321 -3.9115
18.9024 124.681 1.65917
-23.8388 137.765 1.29996
-16.2495 123.559 4.19045
-16.2206 123.208 -4.41524
9.66932 131.46 11.4059
8.39247 117.23 -13.2156
22.8775 133.391 -5.7028
-16.4414 123.134 -2.34675
14.4671 88.0836 -9.44126
-18.0214 102.232 -8.23919
20.2317 111.003 5.86012
-5.67724 129.791 -11.4633
20.805 99.8014 7.8966
-4.31519 147.048 -4.90516
-20.4131 138.95 -2.48861
-18.5081 77.0288 -7.45995
16.812 122.8 -0.631309
-18.5281 115.623 -0.46462
-4.41072 108.009 -15.6974
21.8159 143.624 -2.54648
13.9565 129.941 -4.56964
13.7972 142.309 6.72036
-2.09421 136.532 14.0904
1.28798 117.463 -14.7522
9.30331 110.411 -13.2422
-9.03885 135.219 12.9112
17.8397 104.591 -1.60314
7.66514 132.717 -9.36812
15.3427 124.85 -1.50309
-15.2716 124.42 4.62498
-9.80531 113.017 -14.0221
24.6168 128.152 -6.44383
-14.136 132.499 9.06996
-3.16452 140.158 11.3591
-17.1367 103.872 -10.5328
13.5136 119.157 -11.3017
-3.85861 123.394 -13.616
-3.07127 120.741 -14.2323
-9.33803 122.214 -13.3969
-17.1493 120.909 8.1839
12.1178 128.457 12.9886
4.22785 152.561 -3.07676
10.8044 109.145 -12.1711
20.401 132.946 -8.43438
-15.1994 132.919 8.71224
18.4827 126.601 2.97098
14.9913 81.6268 -9.5588
-9.9497 143.844 -7.58281
-16.4984 121.759 -9.27714
-14.9872 139.358 10.1846
-4.86346 133.736 -9.46061
11.5863 152.13 -1.08469
24.3334 138.266 -2.74168
-1.32909 141.147 -5.8981
-17.0282 112.428 6.77394
18.5152 118.92 12.1346
-16.334 120.454 13.2016
-4.61274 148.467 -4.54613
-1.40544 97.093 -15.1079
19.0693 145.378 4.48327
-26.8978 121.428 -0.75005
-11.5744 112.296 16.8705
15.2113 136.539 10.1754
-19.2964 111.401 -5.26406
-8.38376 96.0144 -14.2472
-10.5126 127.451 16.3284
12.8639 119.343 -10.913
-16.7222 78.8792 -8.70589
3.36418 140.548 9.95657
4.6636 111.043 -14.4639
17.7829 124.211 -1.16145
16.3651 108.664 -5.78706
-17.7097 116.836 -8.1311
13.2868 99.17 -9.77195
-2.46728 119.671 -14.545
-6.86589 141.968 11.5167
-16.1658 109.048 13.6701
-16.4499 148.329 0.705205
-6.2631 125.151 -12.6947
-7.72043 133.394 -10.6614
11.1622 145.426 4.29067
-18.8663 116.518 -6.74768
-11.5095 120.335 -12.9126
-17.174 128.77 -4.32517
-21.1929 86.6267 1.65924
-0.456065 119.638 -14.8821
18.803 137.091 -7.82744
25.3296 122.551 -7.71883
5.88921 147.7 5.70191
9.60418 82.5987 -12.9724
2.62151 99.4574 -15.6605
-10.8186 116.667 17.6272
-9.70455 80.716 -12.7331
-23.5458 135.22 4.77279
-20.845 122.143 -5.23261
2.32293 121.995 -13.1923
-20.6426 127.165 7.75807
14.5706 147.668 3.88654
9.00949 145.72 -7.70256
-4.9721 144.626 10.4535
2.51768 112.925 20.0162
11.4312 119.249 -10.2016
14.8738 121.784 -8.36842
23.2998 143.362 -1.09629
14.2538 127.251 -0.605393
-15.8082 109.789 -10.9916
12.5303 86.6376 -11.6154
5.42315 108.512 -15.0093
20.3811 101.847 5.89285
20.136 136.568 -8.5181
0.863731 131.174 -9.15705
20.1735 109.907 7.56462
-0.385252 142.192 11.4069
-20.9436 88.8198 1.59415
8.01079 139.644 8.40829
-0.728685 103.152 -15.9739
11.9701 100.201 -12.0255
-17.3677 124.943 -7.80456
0.605187 145.447 -4.41598
-19.4571 101.467 -2.40369
15.108 115.44 15.417
-17.7472 116.881 -8.12665
-15.9602 120.698 -0.346895
-21.4755 126.027 7.66441
10.6123 137.158 8.09921
16.9892 98.9481 -5.40964
-4.74849 136.402 13.7432
19.0402 138.773 -7.606
22.8703 144.106 -1.07298
13.8954 132.825 -5.91117
14.6389 133.746 -6.17515
-2.48286 122.154 18.3609
11.3713 118.058 -10.3377
5.47199 138.157 10.8002
-6.32925 140.169 -7.90014
14.3434 119.026 -11.0372
8.90612 106.8 -13.9061
-17.3208 125.38 -5.92274
-4.44748 113.602 -14.9937
-14.9965 127.329 12.0785
17.561 121.822 -1.65618
-15.2092 125.42 -10.5871
-18.924 98.5899 2.70179
-5.99939 143.973 -6.49929
-16.5019 109.237 13.3823
-6.66025 113.018 -14.6428
-16.7167 107.92 13.3461
-16.5507 121.924 11.4179
-16.7622 127.31 -4.35578
-1.75569 125.641 -12.7891
9.11796 100.496 -14.2368
-16.4497 116.381 9.71813
-2.27582 102.738 -15.8384
-6.05044 124.216 17.6455
-16.2922 114.41 -10.6829
4.3638 141.158 9.35251
-12.4368 127.475 -10.6059
12.2655 143.35 5.40415
14.5608 119.157 -8.61698
17.9977 97.4871 -4.18531
12.6956 150.217 -3.77972
13.2839 129.934 -6.37354
-14.44 120.462 14.5128
14.6443 101.094 -9.06315
-7.4845 87.5053 -14.3909
17.6349 131.748 -6.66621
3.65172 107.772 -15.6905
-19.6632 102.881 1.50527
-8.37904 80.0372 -13.5154
5.05681 99.8049 -15.4265
16.5404 126.14 -2.34844
10.2337 132.294 -11.0744
-16.09 127.019 -9.76034
28.9825 124.776 -1.30964
20.1424 107.875 7.23694
5.25854 144.447 7.1159
19.9333 104.083 3.32817
-17.3707 111.513 6.8855
-0.127633 84.508 -14.0571
15.7775 145.059 -4.94367
-10.1438 141.298 10.2294
-13.5278 131.828 10.5232
-8.51634 100.965 -14.4964
-14.0546 122.759 14.8039
-18.3147 78.4306 -7.39792
19.3363 143.126 -5.11985
23.8216 140.626 -2.39228
4.60597 123.958 -10.6956
-5.11424 93.6254 -14.6724
-21.0802 123.578 -5.70752
22.2533 137.861 -6.19584
-14.8761 120.85 -11.4617
-27.3439 119.536 3.55641
5.2945 127.314 -8.35355
-24.4132 120.865 -4.90471
3.34587 95.7777 -15.5819
11.9697 148.289 -6.19932
-18.9488 107.992 5.7912
8.68112 148.693 -6.25988
12.0364 118.659 -10.4367
6.35128 144.131 -6.18177
-19.5202 115.455 -3.74306
15.9056 127.448 -2.37021
15.4036 118.219 15.0579
16.7745 128.994 12.6263
7.5014 151.14 3.78027
-11.6872 128.477 15.5631
7.94334 121.331 16.8756
1.25411 96.0523 -15.5164
4.18396 108.697 -15.4902
-21.4258 127.958 7.45614
14.421 122.625 -6.94755
26.1483 125.933 -6.76186
2.64396 139.839 -5.80464
4.97097 142.345 -5.95108
12.3539 108.195 -10.8563
-17.9259 119.874 -5.56265
8.05143 145.421 5.39703
-0.431612 75.5265 -14.1928
19.772 89.9815 -1.49235
-27.2691 119.826 2.79052
-5.94846 118.555 18.9366
16.3687 137.517 8.12342
13.203 108.969 -10.3423
-20.2349 141.637 6.91062
16.4216 106.901 -6.84043
1.38287 139.207 -5.73548
-8.65896 114.608 -14.1688
25.2131 138.361 0.390193
-15.8715 129.941 -8.61829
-16.457 125.175 -3.85029
13.2124 132.977 -11.7326
-9.67878 152.14 1.50043
-16.8803 132.559 -3.93993
-3.12215 87.6854 -14.4134
14.3095 118.156 -10.1432
16.3915 139.325 7.53528
-17.8749 125.124 -6.3332
-4.85736 138.882 -8.52801
8.08002 122.443 -10.208
-4.8399 136.396 13.7086
17.6257 123.887 4.34166
-5.15266 89.2372 -14.7746
-17.7165 101.42 10.3032
-17.3097 116.824 -8.39449
-3.34499 98.404 -14.9394
10.6228 127.833 -11.8633
-17.3328 111.065 6.19841
-9.38467 82.7908 -13.1189
-16.8277 127.733 7.62627
-24.2359 123.323 -4.91456
0.627484 96.2243 -15.387
1.59048 126.549 -10.8245
0.181323 147.921 -3.79369
-19.7398 78.8668 -5.00539
-25.9332 126.068 3.69954
24.697 120.465 -0.414002
-13.0071 146.923 6.90642
1.53976 125.357 -11.733
11.6576 114.463 17.3792
-15.4295 121.652 13.7951
2.60824 116.597 -14.1903
-11.4705 119.99 -12.9721
-5.1528 103.894 -15.4664
2.23916 153.604 -2.29334
-6.2529 135.137 14.0006
-8.39129 112.176 -14.3179
-21.6973 141.136 5.33713
3.47659 122.475 -12.4504
17.1786 114.761 0.481876
-7.10951 113.068 19.4251
15.2272 87.0204 -8.55007
-18.0949 126.131 -6.1566
18.7373 127.083 -9.9765
24.8846 137.51 -1.35142
19.9665 109.664 8.10419
-15.944 128.479 -9.33343
12.789 139.094 -10.3663
0.810198 125.177 -12.1877
-13.7826 137.078 -8.97204
19.031 101.072 -0.126505
-17.983 92.7187 8.9692
-4.53122 146.216 9.86414
19.9279 106.199 8.15336
16.8631 100.627 -5.36927
5.33851 75.526 -13.8897
15.807 106.637 -8.82274
20.2827 96.0356 0.521047
15.4328 108.826 -9.1168
-9.19259 128.691 -11.7281
-4.48518 108.406 -15.6393
-21.741 80.1675 0.43864
3.43835 126.179 15.4418
-9.20794 77.6633 -12.9102
-10.8448 149.451 -4.92961
-25.4929 120.681 6.0967
-17.1691 116.906 1.18748
-0.163179 80.4331 -13.9515
-18.3817 103.139 4.84865
-8.34975 115.045 -14.2496
-6.61395 136.922 -9.49445
-19.4672 89.93 8.00893
20.5288 92.8837 0.351313
-1.56932 152.683 -2.433
-10.9347 119.076 -13.3195
-2.42903 112.613 20.4127
16.0158 134.69 -8.20862
0.645915 114.396 20.2211
-15.0618 115.443 -12.0042
18.3776 123.142 9.92494
-7.27647 131.298 15.858
15.5581 94.1641 -6.95699
-18.8495 109.606 7.14882
-17.0026 89.512 -7.84038
-5.33319 84.6622 -14.5616
3.4561 139.444 10.8617
-21.2445 79.6692 -2.60471
16.7649 128.562 -9.60646
-18.9982 109.648 -1.93111
-18.1689 113.846 0.886118
-3.67228 130.509 16.5595
10.2361 134.271 9.89318
10.7101 122.424 15.7997
-7.17819 110.725 19.4098
14.9957 147.024 -4.21839
22.6197 130.733 2.43848
-5.95225 134.293 -9.61157
-12.6454 137.756 -9.16773
17.4146 130.173 -9.6089
-15.6068 122.798 -1.69973
-16.8903 122.331 -2.79815
11.59 112.044 17.6199
-14.9775 84.5294 -10.1031
-19.5337 115.331 -4.82584
11.3599 124.727 -11.9673
13.4445 111.668 -11.3324
1.27948 137.113 12.1898
-1.77598 93.517 -14.8602
-16.8659 133.255 -6.31466
-13.878 131.371 10.0482
-0.795382 77.5908 -13.7572
-17.6959 117.554 2.10442
12.0774 101.969 -12.0417
2.0745 150.324 -3.44756
20.1665 123.065 -11.1115
-13.7881 128.997 -10.5541
22.7857 136.981 -5.76816
-2.59341 142.738 10.6546
-16.542 146.01 7.832
-6.83281 116.12 -14.473
-13.0556 119.434 16.3384
23.3924 121.149 0.321189
8.11577 148.101 -6.24234
16.7993 113.816 -5.39045
-22.6856 137.959 5.61866
11.7392 97.2934 -12.2774
11.998 125.288 -12.0107
14.8619 123.485 -7.13996
16.6801 106.795 -4.51631
-10.0606 111.265 -14.1795
-16.5562 139.114 9.86048
24.1426 131.254 -0.727354
-13.731 96.8542 -12.2845
-14.8335 109.839 14.9782
7.43993 75.5733 -12.8606
-19.9286 91.8784 3.98848
16.3537 108.744 -5.43499
17.1428 126.96 7.45401
-19.6011 96.7228 3.05646
-21.5307 84.8528 3.01325
10.4264 138.218 7.67157
23.0544 134.293 -5.30588
-17.8798 111.587 -9.08885
-23.6521 130.92 -3.7471
14.7778 120.701 -9.83501
9.62071 121.553 16.4396
-3.16983 131.949 16.1395
-19.0258 97.551 1.13466
-9.13223 127.422 16.7954
-27.1507 121.122 1.07946
8.95328 140.775 7.4141
-17.7605 142.962 8.55605
16.4875 133.335 -5.34787
-7.01271 120.048 -14.1354
-26.453 119.437 -4.10043
18.4128 134.438 -8.69625
10.0406 130.643 11.5659
-15.3497 99.9243 12.6764
