ply
format ascii 1.0
comment Created by Open3D
element vertex 1937
property double x
property double y
property double z
end_header
-14.2366 116.877 10.9738
-22.186 137.842 -3.90729
10.9923 115.258 1.27072
11.119 114.735 2.91981
-8.98565 85.2631 2.4928
3.09406 90.8877 11.3074
14.8507 121.714 -1.00336
-27.6798 107.542 8.09141
12.7786 121.864 5.75036
4.73409 92.9441 11.7061
-7.44973 95.5434 -4.40367
-26.632 126.467 3.23524
11.4859 94.6991 0.72706
-11.9882 134.64 8.43732
10.9432 129.085 0.898457
-25.443 114.696 6.69714
-7.73898 149.672 -4.1117
22.1187 121.902 2.97659
-22.8681 112.833 12.4692
9.25628 117.95 -1.48269
3.42188 121.027 5.58892
-5.10353 85.7705 4.60275
11.3929 115.875 5.98381
9.06854 129.612 8.37352
11.248 91.8612 10.9072
4.79638 132.561 -6.69727
11.526 77.2564 7.00212
-24.9796 123.779 1.00919
-4.41843 121.809 -7.24073
-26.5529 120.424 5.8535
-24.5334 119.757 -3.90957
-12.4919 142.298 4.85169
-2.17134 93.5456 9.67196
-10.612 122.407 -2.20898
-5.84243 88.2942 5.39803
-11.6488 106.854 -7.02149
-14.2611 149.357 0.772836
-13.0599 137.057 5.75036
11.5655 111.894 -1.05428
-25.1952 123.168 0.325857
13.6098 119.707 -0.172161
-24.0314 123.783 8.82883
1.87883 143.284 2.17915
5.06185 134.27 2.49759
-15.4043 103.153 10.3748
2.24085 124.741 -5.54246
8.06893 101.768 -3.96882
0.159557 112.228 -5.59895
11.3497 119.316 -0.39141
-0.452653 117.475 1.82187
-11.5808 129.541 -1.9583
-6.07473 131.065 7.79626
2.19224 107.189 9.36226
-29.2274 109.854 5.34096
-25.702 112.216 9.01328
-9.91865 98.4691 -4.11205
6.86869 144.875 1.77218
-22.9793 117.582 -4.5652
14.5699 133.541 7.16964
-4.13277 84.5726 -1.31159
19.8612 129.546 6.56049
14.336 127.864 -3.89114
-19.6296 121.631 -3.40701
10.4675 123.21 4.45822
12.4819 145.873 1.78573
14.3656 92.9907 8.87233
12.1495 84.2342 10.2009
-22.0337 128.065 9.68638
1.22638 104.896 -5.89356
-0.297886 124.283 1.2713
11.4363 92.7176 10.9193
10.5816 112.2 11.4831
-11.6028 110.818 -5.09635
13.5989 119.568 3.91533
2.59296 121.697 3.31403
3.02116 126.102 -6.14353
-19.1946 121.987 13.6303
11.6913 77.1714 7.05647
-25.0144 126.538 1.2554
5.11089 90.6175 11.5454
4.3142 81.9166 -0.115729
-15.9578 91.302 10.2494
-11.2328 112.96 -4.15803
2.09898 119.216 3.51372
19.9779 132.724 0.6967
8.6391 134.089 -6.2946
20.2843 125.976 0.823421
-10.5404 133.363 10.3201
-8.17415 117.695 7.15362
-26.0471 130.998 -4.34798
-24.3094 127.325 -1.89632
7.81176 135.604 8.51939
11.5677 122.821 4.92797
-15.35 147.218 0.699136
-17.1924 143.978 6.66717
10.6418 113.044 0.731354
-9.56604 91.8512 4.38073
-24.5706 119.537 -3.9164
2.61793 146.993 0.514981
9.90678 87.9975 -0.0188947
-3.13727 123.08 1.408
-10.4737 97.9855 5.14804
9.19884 153.933 0.881134
14.0002 102.166 6.78285
10.8757 122.712 4.12988
-23.0393 132.672 8.38508
16.143 117.531 0.644094
-22.1072 133.984 6.37021
12.3885 146.209 5.89468
-3.50777 137.033 -1.45498
-3.23371 143.966 -2.12485
-25.0154 118.42 7.02264
-26.4947 119.775 0.594955
-7.24176 131.468 -1.11433
1.5213 119.789 -5.30759
-7.88615 136.593 8.7229
4.35898 129.502 2.79227
-4.67988 100.41 -5.76658
-20.7431 116.4 -4.59448
8.13973 120.914 -7.19756
23.7946 123.858 4.10575
9.13624 86.6187 10.7949
4.04654 118.794 8.70143
8.07828 131.309 9.04153
-25.892 112.086 8.43753
-17.0643 100.717 11.724
-20.221 137.384 -3.12528
-1.0078 90.1833 9.08543
-26.5755 124.016 4.2744
12.1222 127.972 -0.523147
-15.546 106.204 -5.49198
8.70005 81.4759 2.55834
10.9527 92.4775 0.627708
4.23488 82.4548 -0.535981
11.4345 84.2374 2.74763
-25.0736 138.672 -0.263163
-22.6498 129.335 -0.542352
-29.3317 110.851 3.29446
-25.7129 122.436 0.210141
10.6407 124.206 8.24351
-6.19379 143.017 -2.85275
-15.6067 142.661 6.0728
-6.35547 95.6512 7.25475
-28.5772 135.112 3.57687
-12.7519 123.343 -1.83457
4.78181 112.385 12.6114
19.8299 141.013 3.55915
6.85551 136.392 -6.47042
7.83156 145.753 4.14999
-1.46088 142.388 -1.72175
3.98448 145.719 -4.61308
13.3277 109.39 5.6431
3.69339 126.311 -6.77284
9.80276 85.2754 1.24589
-9.7541 101.751 5.14931
1.78525 100.04 -5.97501
2.75906 124.68 -5.60756
-30.2761 130.21 0.247629
11.3144 127.644 -0.775713
9.66677 106.133 11.7254
-11.8404 138.597 4.82091
-4.87404 122.263 -6.86209
-18.1515 103.606 12.629
-18.7066 147.707 2.67872
-1.29343 93.664 -5.4805
23.5168 123.465 2.62938
-9.9088 129.708 10.9794
12.9484 120.012 -0.0263127
-8.6081 88.9621 1.80143
-12.7812 109.868 -4.48153
-11.2333 137.595 -4.55404
-10.3958 85.2854 4.0701
12.8581 143.297 1.73187
-2.91418 125.121 1.68755
-25.0712 125.1 0.844274
1.28988 127.939 -5.60777
-16.8718 107.442 11.3951
-1.46821 119.07 -6.59621
12.3733 127.906 5.89743
-25.16 132.981 6.8023
-19.7594 129.686 7.9296
-13.2387 134.394 -4.23388
4.24631 96.1654 -3.93919
-4.80337 88.8557 -3.75254
-10.5477 126.868 12.0283
-4.76869 132.69 6.415
5.08181 146.917 -4.45676
-8.25691 140.725 4.67153
-8.28078 124.95 -2.26281
-25.1441 117.031 6.41255
-21.5338 133.204 -1.42225
-15.8992 115.385 12.3347
-16.4691 99.8626 11.354
12.0964 120.941 -0.992867
24.0511 125.384 4.61548
-3.61131 102.083 -6.44428
12.1585 136.978 -2.91143
-3.73474 123.546 2.04003
8.11196 98.174 12.0436
5.34549 87.5099 -1.60352
11.6545 112.312 -1.84143
20.3031 137.142 5.65244
-18.6122 108.677 12.9131
4.65619 90.2489 11.4466
-8.14929 139.494 5.32899
-10.6454 138.142 -4.40832
-22.529 127.93 -1.49982
13.2632 91.1148 5.10707
24.2835 122.603 4.47238
3.44465 95.9423 -4.09393
-14.6978 137.909 -4.73479
-22.5831 105.108 11.8353
8.90062 125.554 1.49064
-8.7253 92.6618 2.66504
19.8224 128.795 1.23989
-8.1603 89.9767 3.34338
10.8176 113.126 11.3542
-13.7526 103.805 9.01478
-5.69797 127.183 5.10951
-17.9463 94.8459 10.6583
18.5023 133.196 6.57825
5.86419 113.537 12.7641
15.8619 131.284 7.52932
-8.64439 118.004 7.9561
-9.52535 104.95 6.12747
1.26067 127.526 -5.58255
-8.54624 120.972 7.96375
-24.0556 127.23 0.141076
-21.7135 115.068 -5.30497
2.69798 129.093 -6.18655
10.9151 119.795 -4.88197
3.97739 138.541 1.12528
-1.52431 126.554 -6.69831
-7.8782 90.1446 4.16615
-17.9946 120.599 -3.27857
11.0932 126.9 8.09834
-22.5508 134.748 5.66228
17.6698 121.874 7.92685
-20.6916 140.953 6.91247
9.22871 126.009 1.68788
-22.3196 129.083 -0.607364
-6.66191 116.039 3.33252
-22.9351 111.117 -4.79934
6.56044 81.6231 5.99779
17.1496 128.753 8.11971
-25.4805 126.81 2.83451
11.7252 144.492 0.905751
11.0502 143.41 -0.483176
14.5792 89.6506 8.06188
3.98399 122.481 5.94155
11.5869 92.4113 1.79244
-8.20264 127.064 -1.68617
-8.45613 88.2724 2.22292
-18.1764 124.926 -3.94402
13.5837 106.333 6.53443
-20.2032 109.67 -4.98428
7.6531 130.833 9.36499
-5.31136 95.9838 3.97046
-18.5038 121.479 14.1177
-22.6961 103.872 11.6534
7.93296 141.179 -5.96197
-8.18554 142.264 -4.2016
13.2819 97.3796 4.75734
-10.2713 121.492 10.2073
7.10179 92.8681 11.8514
16.2034 116.725 3.83786
-25.3156 126.269 7.09806
-8.18322 117.63 7.156
-7.00901 116.838 4.15784
-24.344 130.922 9.84148
22.031 123.994 7.94864
17.9472 129.146 7.79314
11.8932 110.263 -1.07606
9.40476 104.737 -3.64971
8.51369 131.784 -6.49192
-19.75 106.284 -4.75481
11.1199 148.754 1.26463
-22.9721 132.652 8.41761
-14.8059 144.985 -1.14179
8.41537 100.54 -3.48555
-17.0281 101.444 11.6982
12.3767 111.243 0.224116
-18.5294 127.896 -4.3182
-5.38891 83.5321 3.42514
-15.526 108.06 -5.19051
-5.41045 139.945 -2.90115
2.64799 143.156 1.79718
-0.30385 112.253 -5.68267
-0.594792 108.668 -6.25378
13.1841 109.672 4.68658
12.5706 96.2137 10.4009
-20.738 134.066 -3.43661
-12.469 106.763 8.61362
-11.0166 144.838 3.66842
-6.62703 112.425 2.62931
10.8667 130.195 -0.717835
-11.5456 122.023 -2.26178
12.8869 93.6331 10.2077
-23.5739 112.997 11.5993
-0.661032 106.088 -6.74861
1.41753 85.0455 6.45047
13.6316 122.186 5.94727
10.8324 121.379 -1.66398
13.2497 127.658 6.4842
-8.00626 113.169 4.98001
9.1369 142.648 6.33335
12.2147 112.353 8.51613
-17.3522 136.241 -2.94965
0.396551 97.7573 11.0616
-29.3059 129.45 7.24696
10.8649 148.78 -0.640009
-1.81177 86.8615 -3.21463
6.9508 111.215 -4.53818
4.27688 128.43 3.19891
-0.62175 153.299 -2.21219
-26.0745 122.125 2.54278
-2.70353 119.825 1.06313
-28.1162 117.377 -0.91084
-13.8627 111.793 10.4135
-20.1058 117.994 -3.67028
22.3113 125.404 5.52563
1.83683 107.753 7.21555
1.22745 105.289 6.87197
-10.7415 112.662 -5.09356
0.384916 88.3409 -4.15174
-2.3321 133.206 2.89961
10.7963 124.749 2.29466
-10.5917 127.627 -1.43137
-15.742 137.711 7.01989
-10.3837 137.324 -4.7783
-8.18722 118.904 7.34522
-16.1972 117.019 -3.52665
-0.547764 125.044 1.22764
10.8222 127.862 -3.88313
13.2006 110.029 6.42615
-9.76219 122 9.36699
9.16876 150.761 -0.251
15.7683 124.967 -2.75977
-0.907729 108.296 -6.46235
-2.36831 141.101 2.73907
13.6444 103.968 8.7037
-2.57683 140.777 3.58581
-25.2665 127.297 7.22377
14.612 135.131 6.90318
24.8329 123.54 4.01738
-24.7677 111.808 -3.76319
-3.02764 137.985 6.96567
-4.80018 134.379 -1.47444
-6.502 87.1937 3.45913
11.1689 139.798 -0.484093
-28.4038 131.683 6.41122
3.75254 95.7742 -3.9352
23.4178 129.374 2.83621
0.106288 86.1444 -3.19783
-15.9719 122.937 13.3556
16.2481 120.938 7.93872
-11.8561 99.3296 8.52291
7.03136 109.933 -4.40423
-28.4576 135.679 2.08065
5.28866 127.211 5.68245
-20.2722 100.581 11.4214
-15.1912 127.246 -2.27995
-12.0213 112.422 9.07558
-9.46457 100.823 -5.50464
21.3049 133.806 2.60258
8.08757 93.3518 -1.92737
-25.4219 125.103 3.98046
-4.93278 128.527 4.9578
5.47973 108.911 13.0001
-2.93433 82.5274 -1.20007
-11.1353 110.611 -5.84354
-21.4338 112.88 -5.06033
-21.3541 107.019 -5.21721
3.60402 82.6805 7.77828
13.0275 122.533 -3.17918
-19.0082 140.86 -1.07979
-11.8918 134.654 8.42768
-20.39 124.308 12.3002
-12.8128 142.851 -4.58271
-1.61091 88.4896 7.5055
-2.77266 112.479 1.1267
2.05403 108.859 8.21195
12.9332 121.092 1.79624
8.38061 99.6421 -3.10893
-18.0654 120.878 -3.34105
21.1321 121.817 2.84678
6.11945 146.937 0.867319
12.2365 129.861 6.951
3.40155 125.397 -6.29519
-15.1432 131.605 9.94524
-25.817 112.321 8.18357
13.1875 99.0432 9.85513
7.22435 144.32 3.12643
-7.55515 92.7147 1.88334
-23.276 127.275 -2.48847
-9.42446 120.399 9.17482
1.08942 116.167 -5.28691
0.972751 94.2488 10.6366
-17.288 115.811 12.9053
-25.308 125.03 -0.91271
-17.2268 90.388 9.59904
12.5413 121.566 6.11097
-8.86571 142.618 3.52828
1.77234 140.593 2.18831
-17.3765 93.4437 10.207
-19.3915 100.063 11.6653
11.1147 127.987 -0.278855
-18.9015 134.013 -1.93356
12.9109 128.816 6.3563
-2.79452 105.932 1.9347
-3.61693 87.8744 5.93219
-8.01068 139.576 -3.36957
0.410144 122.075 1.4248
-8.11643 118.301 -5.40168
2.4266 113.466 6.70674
-9.75388 90.9441 3.54109
6.95704 106.797 12.6662
-3.25671 84.9992 -1.46303
-9.52533 110.082 -7.20489
-20.2423 121.157 -3.47089
13.9084 124.654 7.93565
-5.04364 98.7174 1.31852
-11.225 122.244 -2.21814
9.91199 153.555 1.10514
-24.3048 119.152 -4.13222
5.0222 81.1026 4.89448
-11.3761 111.565 -4.93794
-2.36165 133.72 -3.55672
-25.4573 112.774 8.7296
10.3428 100.031 -2.11885
-0.0579535 103.255 -6.72232
-22.4384 128.467 -1.36272
8.25274 107.713 -3.66041
10.4899 123.212 -1.3935
11.3998 129.244 -2.4041
22.8572 128.405 2.00476
-27.2199 118.492 -1.46754
-12.4832 96.5539 -2.46272
10.5717 114.297 11.3801
4.47476 80.4082 5.66507
11.9722 84.4296 10.2072
13.5283 93.3109 5.98389
-12.0451 137.9 -4.46154
-21.8418 110.127 12.6766
-8.4753 115.838 -6.44506
5.30485 142.809 1.03865
17.9426 124.72 -0.0741554
8.65113 79.5952 5.47347
-6.91316 144.635 3.53114
2.93057 115.091 6.9435
-22.1519 143.522 1.07695
3.43322 75.1867 4.2487
-9.64398 94.7458 -2.74809
7.53708 147.053 -4.68769
9.35449 149.077 -3.83961
-24.7638 102.971 10.4738
-17.5427 115.855 -4.58283
8.93076 123.697 2.74314
-9.97916 87.7524 5.9057
-26.6301 113.362 5.30314
-0.614515 112.076 2.76309
-17.7982 116.691 13.1855
-3.02233 136.377 -1.74648
13.1559 97.9253 9.93642
-11.4228 86.9758 6.5627
-23.1229 123.407 -3.40985
-10.1929 135.024 -4.98124
-8.70404 84.7664 0.903303
6.54321 86.0309 10.6956
14.3154 137.993 6.60205
6.9544 81.0164 2.22918
9.82475 128.089 -7.49873
-22.0173 131.515 -1.30711
-10.9881 125.234 -1.50655
13.9697 143.747 2.15609
-11.1649 115.391 -3.28335
-26.1374 126.662 4.04873
3.78779 80.4141 5.42957
20.5252 138.56 4.36701
-23.9586 123.622 9.2539
5.28986 126.828 10.4518
3.09007 103.548 -4.88432
-6.39677 137.261 6.75546
-15.3846 120.735 12.7109
-15.2141 148.852 4.55121
12.122 108.911 10.2116
-5.41608 128.562 5.94862
-2.02256 88.402 7.28186
7.17423 105.055 -3.67635
-23.4421 136.976 -4.43907
-2.1868 82.819 3.00373
-6.44882 89.0441 5.67813
24.39 127.063 3.49253
-14.537 117.105 -3.20339
-19.9734 132.493 7.49038
12.3359 121.216 6.2314
13.2005 94.618 9.99077
5.53969 132.712 2.95044
9.93372 125.611 2.86762
-4.66628 109.492 0.628881
0.833721 142.139 -3.36772
3.65107 137.603 1.09216
6.07364 114.042 12.7388
0.40261 79.3619 0.467011
-9.10236 136.479 6.51823
9.77818 78.8434 6.23584
15.2993 129.353 -3.15802
-14.5564 113.961 11.1271
-30.0468 129.151 -0.78192
-3.40741 82.6842 -1.2381
5.78231 97.3828 -3.40648
3.12051 87.9668 9.79638
-19.4331 133.278 6.48332
-12.0071 106.445 -6.97174
-22.0186 113.609 12.9597
14.1597 99.9973 7.26809
4.01906 139.191 1.14634
9.94691 115.179 -5.53353
13.6404 107.821 8.08921
-12.0829 116.528 10.2175
11.6795 135.643 -5.65692
-10.7434 97.1485 -2.79152
-1.90179 107.317 -7.47636
9.83466 116.706 -6.27553
7.85425 122.329 -7.63088
15.0255 124.745 -3.3552
-16.9161 93.3939 10.4925
11.5952 121.926 -0.607
12.813 99.9863 10.187
-12.9771 135.968 6.58736
6.46818 114.042 -5.88855
-13.9214 124.023 12.4617
-4.0406 141.529 -2.33578
-25.4304 109.683 10.3196
-8.37415 102.953 -6.46609
11.3765 130.803 -3.67748
11.7651 79.8371 6.31008
-0.1371 121.809 -6.34009
-12.3591 87.0247 7.17866
-14.8798 99.0231 -3.25024
0.86018 95.0921 10.4609
12.9346 120.84 4.09619
-7.80151 106.283 4.61921
-10.4276 86.6552 4.64517
-5.61196 87.1454 1.93041
18.203 132.819 -0.940303
-14.914 103.473 9.99649
23.7796 127.746 2.58021
14.4583 97.6296 8.02142
-5.23176 90.2963 7.12193
9.84139 92.252 11.2841
-23.1385 138.099 6.12184
-24.7691 125.513 7.16118
-15.1393 147.51 0.621269
-13.1779 148.61 -0.838054
-16.5514 140.163 -2.07028
11.3075 79.2768 5.12703
12.0995 89.4913 10.4437
-16.7435 144.905 -0.0588835
-27.5493 126.163 6.31822
11.9326 117.392 1.45856
12.2896 120.376 -0.867788
-3.46894 85.182 -1.44235
8.20998 78.1567 5.07022
-6.18726 94.1967 7.76374
-21.6043 132.872 7.46484
-3.27316 119.893 -7.4604
-16.4719 103.355 -4.77383
-5.28027 86.2722 5.62312
-26.5741 125.849 2.17236
-0.0621583 78.1115 2.1184
1.72448 143.369 -3.95222
-12.1248 103.848 -6.40559
-16.2704 114.895 12.6264
-13.1927 109.723 9.75584
-0.660148 85.494 4.79883
-3.76385 103.563 -6.9435
1.51582 97.2005 11.2556
3.11085 141.274 1.14428
-18.6335 142.206 -0.561479
12.0929 124.453 -0.160801
9.12047 102.834 12.1985
-28.3583 118.809 1.83757
18.0431 128.074 -0.154705
1.39294 87.2886 7.26374
-31.597 123.451 4.38232
-13.3358 111.776 10.1246
11.8709 138.428 -3.59545
-20.6718 120.574 13.307
7.00923 137.012 7.73067
-25.3028 125.724 3.48709
7.79625 149.064 2.18416
-14.3868 87.6442 8.5342
-16.4136 139.038 -3.28701
-19.3963 125.541 -3.68004
14.8732 128.318 8.97759
8.9549 74.8716 6.20871
-11.2317 112.573 -4.43173
12.1142 78.5739 6.26017
10.4095 92.8588 11.1078
-8.68501 152.23 2.00833
-16.0043 143.2 6.18672
2.14669 83.3477 7.00535
12.7889 106.014 2.73401
6.78859 140.791 3.94491
-6.50495 83.2631 2.78305
2.75543 134.382 -6.4729
-6.70426 133.337 -1.36684
2.02552 115.576 -5.11229
-4.88429 138.638 7.56656
-3.70902 123.199 1.93533
11.4384 137.933 -1.18872
-13.7235 135.708 -4.85509
17.655 142.485 1.72581
3.08584 108.303 -4.72999
-4.22713 127.341 -5.44377
1.25457 142.516 -3.73244
10.3341 103.036 -3.17677
-12.4205 87.3106 7.44941
-18.2897 117.385 -3.97285
10.2245 148.221 -2.04657
-18.1499 126.769 11.4107
19.1768 140.763 5.22444
9.24029 125.787 -1.41847
8.24405 95.7598 11.6776
-10.7655 139.574 -4.42056
-7.49925 91.6071 4.2716
9.20776 119.476 10.0954
-8.42323 152.346 1.8137
-6.08117 136.436 -2.95626
0.719168 106.99 -5.99573
-9.09661 103.376 5.20458
16.3417 136.692 -0.659413
-1.07251 95.6411 9.75968
-25.0676 126.686 7.46353
15.4956 146.358 4.77643
-15.1193 94.9567 10.8325
11.4551 121.706 -0.736168
-14.224 138.007 6.03048
-28.0842 119.121 2.63518
-3.25122 115.999 -7.44127
0.912329 78.9001 1.24483
-2.50551 123.667 1.3344
12.3674 147.171 1.32384
-11.2296 105.837 -6.956
8.93943 100.699 -3.33735
1.78489 86.4121 7.24071
-22.8173 109.325 -4.28599
23.2201 124.146 3.67456
-11.417 91.609 5.73853
-27.1312 111.11 7.83679
-17.9276 147.619 4.77361
-22.7448 118.794 9.86072
2.1933 80.7763 -0.73259
-17.8088 104.574 -4.57538
11.7254 132.346 -2.0834
13.5334 107.001 7.64687
-8.66035 144.508 -4.80007
0.648322 121.845 -6.1604
12.9851 121.698 5.24635
3.25674 148.011 -3.61266
4.78362 114.914 -5.34669
10.2917 124.646 -6.96696
-9.83637 97.3741 3.54059
12.4398 88.4586 3.37752
4.63009 121.238 10.6741
10.7459 112.044 11.4022
3.34978 154.095 -1.92039
-8.28235 150.664 -3.29845
0.053589 132.249 -6.37049
-16.0449 140.416 -3.59326
-22.0082 124.713 11.0572
12.7665 108.82 9.51019
-23.6558 137.504 5.41828
11.9083 101.687 10.7427
-17.1514 102.578 11.7547
8.83863 126.461 9.10082
15.4223 130.127 8.13589
2.58681 122.691 2.91358
-2.92404 112.423 1.08532
-27.7068 126.532 4.60101
11.7209 126.141 7.53044
11.7726 84.82 10.2386
-5.68295 117.352 -7.54435
-4.06713 84.0066 -1.31146
20.7035 125.558 6.15975
2.58322 77.6972 3.20709
0.884724 143.761 2.76088
-2.93878 100.457 7.66347
-25.5618 126.907 6.94064
4.88412 135.471 -6.82044
14.3169 88.5749 6.86181
4.09355 83.5881 -1.27945
9.17085 75.0007 6.25219
-7.48904 90.5539 4.08891
-16.6468 141.448 6.9264
12.3107 84.3959 10.2201
-8.35948 126.532 -1.75487
-5.06034 140.036 -2.71545
-8.33151 134.797 -3.68597
6.34981 149.17 0.754384
-0.690914 126.708 -6.42569
8.63729 131.536 8.68322
-22.2384 135.632 -4.44711
-11.9919 112.883 -3.90574
-26.3117 120.757 1.29002
13.7664 148.295 4.61881
-28.512 131.611 6.44745
12.2835 122.638 4.60236
10.6905 148.837 3.80483
7.17452 123.628 10.3915
-23.2782 124.958 0.600302
1.37136 110.806 4.89109
-26.1747 127.295 5.33499
2.21843 139.478 1.89046
-13.8963 124.347 -1.71932
-8.9977 137.581 6.03871
-12.7952 134.748 7.75585
22.168 120.386 8.41038
-6.46302 114.75 2.73663
4.51998 119.081 -6.10936
-0.345334 149.836 -2.17824
-5.3557 96.5664 1.60064
-6.0894 84.2655 3.6534
-8.73917 95.6247 -3.45096
5.30782 81.2442 1.01269
6.7891 82.6737 0.894219
16.1195 123.849 -2.22845
-7.95189 126.904 -1.78806
5.23885 130.496 -7.02045
9.03173 83.8252 1.31281
-8.41902 121.383 -3.36482
12.1066 104.061 1.55204
14.68 144.326 6.26231
-13.1838 112.576 10.1263
-26.9185 104.571 8.94385
10.0508 138.849 -6.10494
6.63349 101.618 -4.23747
-3.10062 83.5073 3.12565
7.00738 143.469 3.29088
-2.36796 106.722 -7.7675
-18.4539 122.72 14.1623
-27.0656 137.94 2.92038
12.3422 130.122 -0.669271
12.4364 116.902 2.81853
4.91632 81.5305 7.68455
14.102 118.907 4.54583
-20.3015 106.372 -4.84892
-17.6582 104.729 12.1216
13.5331 103.667 4.56783
-16.1922 100.761 11.24
0.274393 143.703 3.08265
18.0093 119.671 8.39658
-10.1526 121.479 10.0049
2.65003 82.6684 -1.56482
-5.1784 127.271 -4.44341
16.3536 130.851 7.62063
18.0829 133.729 -1.13821
-6.41272 82.2699 -0.54929
16.8261 126.982 -1.25612
-4.60669 142.187 2.66153
-21.463 129.998 9.91742
12.651 132.057 7.85817
21.2069 135.065 4.62609
-14.3287 130.654 10.3695
-3.80346 117.104 0.850687
-10.1229 100.655 5.36916
-12.937 125.815 12.6276
12.0398 84.9581 2.97131
11.5122 128.022 0.729469
-24.1986 109.332 -4.30105
-10.7911 141.446 -4.82596
-2.47586 84.4126 3.83547
-10.3253 91.1315 6.38048
11.1941 142.208 -3.36321
-1.04458 84.0576 3.52411
-17.1654 109.952 -5.4425
-6.1499 114.18 2.29272
-23.0748 124.077 -2.87533
-25.9479 129.579 9.82941
8.87251 137.623 7.96212
1.90695 138.874 -5.81732
-15.1275 127.556 12.7269
-2.50034 130.687 -5.57932
11.529 141.115 -3.25403
13.1801 117.781 -2.01034
-22.0987 113.431 -5.10295
11.1212 124.688 -1.9231
12.6114 149.819 2.11818
0.398966 135.419 -5.81423
-8.54205 133.484 -2.31632
-4.51487 90.4098 7.55182
12.209 118.912 -2.38752
7.02667 121.718 11.9402
-21.0264 129.017 9.12264
3.45353 147.568 -3.81818
-11.1211 137.65 -4.54025
-11.1557 109.259 8.56407
6.05251 75.912 5.20959
5.51198 143.685 -5.32075
-26.039 118.908 -2.87809
-16.9044 105.926 -5.87124
9.17633 126.65 -7.59525
8.31604 143.452 5.53626
-11.9732 125.31 -1.60179
13.5489 108.252 3.28011
-24.4842 126.319 -3.23617
-7.71899 114.444 4.76016
-0.232873 125.13 -6.3206
-15.124 108.89 10.4099
5.0677 129.365 8.06004
-5.76648 126.049 4.80314
7.11261 90.9932 -1.88861
8.46496 153.312 1.231
10.123 82.2139 2.64521
-21.5284 115.102 -5.21887
-6.60072 93.9589 4.81968
-6.56148 119.7 -6.54856
-6.54301 83.2724 2.83385
13.6478 88.6834 9.56784
-21.6823 122.167 12.1792
-5.69723 89.9068 -3.96566
-19.164 143.683 -0.203804
8.25776 126.296 -7.64727
-11.9309 118.463 10.9422
-20.0475 132.357 7.6867
-26.221 113.182 -3.22409
9.82549 81.3855 5.25128
-18.2527 109.652 12.9522
-4.2109 99.3607 5.13517
16.3046 140.449 7.00116
10.571 115.066 0.805755
10.0532 124.895 -7.23301
-30.1288 121.983 -1.08442
-15.4972 98.9399 -2.95376
-6.26477 110.381 1.98746
8.35447 104.983 -3.53027
2.23281 143.636 -4.43315
6.63849 87.1012 -1.02366
13.8841 129.896 8.54783
1.7875 91.7976 11.0771
-10.2982 88.7206 -2.23717
-9.69804 99.264 4.08035
-1.65269 80.3533 -1.15443
10.3273 142.15 6.3453
10.3169 101.226 11.6754
4.70044 131.495 -6.88759
-15.1118 146.68 0.405289
11.3914 109.614 -2.91823
-23.3264 133.513 -4.98516
-19.9321 118.144 -3.50372
11.7375 96.8844 0.461258
-26.381 120.593 -0.247224
13.2071 108.497 8.84977
-8.21501 88.8285 -3.11635
-29.0746 125.749 7.91172
0.749046 91.5997 10.7636
-3.96842 99.473 2.0233
24.2888 123.911 6.60363
11.7376 110.207 -1.96096
1.16273 97.4687 11.2417
14.0214 78.446 7.55493
13.0842 119.503 0.465074
1.24437 105.158 7.17601
13.5234 108.765 6.58145
9.70368 105.95 -3.572
-9.4349 87.7663 -2.32598
10.7701 144.501 6.17642
-6.59235 146.416 -4.01552
13.2943 120.443 2.67998
-28.931 133.178 0.152402
13.4991 75.4993 6.4564
-18.3624 146.373 5.86308
-18.4853 130.584 -3.51703
-16.3336 139.057 -5.38686
-2.27831 131.389 2.53973
3.12976 135.535 -6.50951
-4.36665 134.103 6.80241
11.5777 142.8 -1.75234
10.7546 138.365 -6.01164
4.78737 94.7962 -3.21546
-17.7562 123.004 14.0175
-23.9667 127.387 -0.986674
-31.0415 127.126 7.01612
-13.3795 131.716 -5.14991
4.68843 82.5495 8.22833
-15.2216 148.455 0.898779
-0.539003 102.548 7.13771
-25.7984 132.457 7.62396
14.596 140.964 6.9478
14.2579 124.994 8.19562
-6.98761 86.1895 4.58262
-7.3756 116.104 4.56564
2.41398 139.263 1.74406
-23.1556 111.319 11.9728
-4.73661 79.6728 -1.48559
10.6308 87.1445 10.7816
-25.0506 126.149 2.75392
-18.4764 131.587 -3.31428
2.70302 97.8505 11.9431
17.0255 127.173 -1.12778
13.4977 105.789 7.80841
-24.5041 114.353 9.09631
9.69128 125.33 -3.42567
-20.9619 103.921 12.4146
7.87202 129.598 9.13052
-10.3893 86.2922 4.93641
-27.5669 132.317 -2.06671
0.053735 151.744 -2.32451
-5.80619 86.931 2.73911
-17.8446 146.314 0.977196
-23.5873 138.271 5.95562
1.82065 96.3263 10.9368
-15.3459 134.059 7.10997
3.09201 116.603 -5.53089
8.41309 88.8291 -1.1215
22.8819 125.307 3.30242
8.82868 96.3865 11.5921
-3.95631 76.8866 1.51288
12.6637 100.157 10.3121
14.2691 88.9679 6.74086
10.2334 105.853 11.5347
-29.2204 109.877 5.30521
14.2476 122.962 -3.97341
-0.570557 95.0121 10.0062
16.2058 119.655 -1.50076
11.3297 126.603 -1.50431
-23.2259 122.579 -3.46361
-9.06371 89.0353 5.57204
5.41854 133.262 5.68611
2.48367 100.147 11.5688
-1.28512 89.6595 8.54468
-13.0962 110.093 -4.3921
-25.5006 126.072 2.11957
-8.52595 103.887 -6.97156
-23.7964 126.468 -2.24974
12.2289 78.6214 7.25979
-14.3014 124.282 -1.83053
13.692 108.839 3.30096
-10.4334 100.15 5.98988
-5.38228 113.958 1.52434
21.2589 126.559 1.3853
-9.91086 134.212 9.88062
-17.1572 105.257 11.5529
12.9874 123.606 5.923
-16.4956 110.42 11.626
-1.57934 129.444 1.998
-0.912162 134.79 -4.23577
10.5957 151.999 1.09789
-19.2617 121.752 -3.41511
14.3386 119.313 -2.85645
-7.25979 86.1833 4.61156
13.4262 123.428 7.06935
-28.4978 131.576 -1.92279
-27.7151 133.09 4.78842
3.40601 133.377 1.8493
-8.69072 85.4879 2.48681
-8.00189 147.988 -4.4664
-12.7114 96.1851 -2.46979
-8.56007 106.05 -7.46158
2.55454 103.119 -5.23398
-3.34895 142.116 2.51369
-15.8517 149.076 1.48985
-22.5655 131.035 8.73768
-4.89111 90.9976 7.74987
-24.0511 126.207 0.988505
3.93748 90.2766 -3.12962
-5.23249 108.457 -7.90128
-3.71785 134.111 5.72155
-28.7092 126.787 7.437
23.3109 124.107 4.71859
-31.2613 126.317 4.87064
2.17735 115.214 4.70773
-14.8982 145.191 5.93245
-18.4136 113.149 -4.88197
-14.5364 101.95 -4.97924
2.15202 108.338 9.46318
9.43599 80.7587 8.89987
-13.8023 89.1785 8.16181
3.45161 106.151 -4.50661
-22.0139 116.2 12.3073
5.31987 82.5127 0.174744
-20.6405 117.355 -4.25985
-11.4811 108.559 -6.40075
-15.7694 139.992 -5.09885
-24.737 127.211 -4.01938
6.54205 103.396 -4.17669
-17.2764 144.021 -0.523974
15.0312 134.601 -2.68938
2.10606 108.058 9.21585
-20.9591 137.482 7.3202
-11.4069 144.738 3.7469
-2.39973 135.284 4.22927
-4.96076 123.994 -5.79309
12.6403 104.811 2.77333
-18.2793 144.185 7.09988
11.6671 123.149 -3.57781
-16.0192 133.793 7.11553
-4.8527 88.2179 -3.47685
-22.0182 111.186 -4.69305
-19.2855 139.058 7.15825
-0.829483 97.9595 -6.37878
-23.3042 122.402 -3.77431
5.57985 102.885 -4.37644
-4.52178 83.8843 1.78555
13.6264 133.588 7.49138
21.7456 128.849 5.3007
-16.1361 137.471 -3.75088
9.30464 126.919 -1.5937
-12.7782 96.4947 8.86236
-6.04604 135.979 -2.64755
-6.76594 90.3644 6.22268
5.00971 97.5121 -3.97664
14.1219 96.8343 7.16313
10.8785 84.7489 2.14642
-2.82498 136.706 5.5867
-4.0366 139.261 4.14052
13.2569 119.659 4.59847
-24.6153 126.61 8.99744
11.9888 79.4839 5.22265
-11.12 133.394 10.3782
3.46965 92.8785 11.4253
-23.324 132.249 -5.24023
-12.7621 142.637 -4.54849
9.24228 121.611 10.8876
-16.9669 105.249 11.2797
0.576072 107.416 4.91974
-23.384 127.126 -2.75072
9.70082 134.029 8.74763
18.8471 129.662 7.39882
-16.2983 120.644 -2.67553
-24.3608 118.142 -4.10109
-18.731 101.38 12.7132
-9.06733 130.309 -1.4597
13.5845 107.992 6.94892
-26.0469 137.158 5.15342
-0.239215 93.5999 -5.03599
-25.6417 127.073 6.90588
-5.2733 87.269 4.394
2.08219 82.0476 6.46241
-0.602851 88.4381 7.77027
-25.2714 110.821 10.283
-12.3474 151.353 -0.450287
-13.2854 125.322 12.5828
10.638 129.911 7.84869
-4.04554 126.967 3.08365
11.1039 127.795 -0.741851
-11.3283 109.729 -6.12992
-9.82066 92.5102 -3.01461
-10.3343 91.4751 -2.784
-2.95846 129.782 2.45138
-26.496 126.983 4.17512
10.6855 99.9782 -1.73343
-1.6262 94.3302 9.81748
7.67295 118.677 -6.73278
-12.728 91.9589 -1.22972
10.9942 126.451 0.345731
5.21774 130 4.08471
-15.6103 96.9835 10.9928
11.6466 128.922 1.08889
-17.0093 132.258 -3.24213
-25.6272 126.188 2.87837
-10.5943 99.8622 -5.10307
10.7163 119.237 -3.83791
-8.31881 137.66 -4.34884
-3.99529 129.789 3.98293
-0.0496874 106.255 4.39243
-21.2516 131.568 -3.26624
9.21488 119.963 10.2627
-7.24276 135.853 -3.49952
8.11446 85.953 -0.214957
-10.4549 98.3558 -4.01404
11.9646 115.049 7.44017
-5.31898 115.85 -7.65036
-14.5258 106.455 -5.19658
0.662899 85.6819 5.9368
-17.4345 130.287 -3.57334
-1.8036 113.978 -6.51156
11.2707 87.2356 1.55012
-2.59026 133.252 3.2928
10.5172 139.968 7.15585
-22.9992 117.451 -4.57881
-5.46046 90.8701 -4.25568
-6.15951 97.9924 1.15203
7.18708 114.541 12.7049
-12.901 137.872 -4.90915
4.46339 122.005 9.68337
-0.300837 124.317 -6.43564
-2.74633 87.324 -3.45739
-14.3158 88.9447 8.77178
-15.3026 123.895 13.182
-10.7815 150.03 3.28635
11.9198 135.709 -1.76262
-2.99109 88.2458 -3.77102
-0.74337 134.356 -4.73058
8.44025 136.83 8.22584
-23.7381 126.694 -2.82296
-2.35332 83.256 3.5755
-11.624 147.14 3.78264
11.8171 97.6204 0.415755
0.167761 116.002 -5.43188
-4.58884 108.027 -8.02411
-18.0243 135.887 7.55571
-5.91356 130.727 -1.92621
-0.617694 95.4231 9.90927
11.5093 128.083 -1.49373
5.6874 140.563 1.12647
-27.8106 126.507 5.12089
11.5568 140.179 6.78586
15.4292 122.087 7.96895
-15.6753 131.096 9.44302
9.6823 115.516 -6.36935
-0.352802 149.032 -2.0969
-24.37 116.341 7.76223
-26.8241 119.811 5.21344
5.42677 135.866 -6.91378
10.7277 121.376 -1.84876
-16.3051 110.263 11.3889
-29.2584 125.702 8.15626
-25.6371 118.377 6.1805
11.0138 148.015 -1.10717
13.2364 97.7906 3.26343
12.2258 131.122 7.62581
-6.81929 120.993 5.16763
4.96872 124.309 8.07508
5.11567 126.401 5.79954
-24.7824 126.749 9.02844
-24.1089 116.489 8.3749
-3.21706 101.272 1.88394
10.6028 141.11 -4.23314
2.71055 112.921 -4.986
10.2732 144.603 5.94561
9.66211 85.9275 10.6325
12.0934 114.587 5.51992
-7.76572 97.5483 1.67539
-1.06497 139.271 4.68758
-7.4519 98.4169 -4.22156
-19.1479 138.624 -2.97873
13.0286 110.189 5.20035
-2.85761 116.924 0.843441
-13.4508 148.214 4.80365
-22.3453 132.431 8.26509
12.2528 99.3379 10.6108
-12.626 132.782 -5.42115
9.81854 129.037 -0.0887594
10.2353 146.269 -1.60736
-20.794 128.542 10.0779
5.41382 130.734 9.14988
4.94924 124.158 8.34522
13.4894 105.985 8.87219
-27.7058 125.451 5.78034
-7.95347 87.0501 1.99186
-2.13319 118.71 0.954596
-0.935053 112.005 -6.08157
-8.89412 91.1223 5.07036
-1.2946 138.996 4.81727
3.15474 81.5033 -0.595664
16.9447 129.644 -1.90931
-19.1377 131.917 -2.19457
-6.83852 137.69 -3.9299
10.5206 126.468 -1.00336
13.2394 105.033 3.72589
-18.7671 143.562 -0.319128
-4.24837 108.809 -8.09173
-24.9404 122.98 8.05717
4.59535 136.696 1.37648
-15.855 116.943 12.0802
-7.73229 104.334 -7.20673
-4.77656 89.7829 7.01075
4.42942 108.799 -4.27206
11.0494 134.181 -1.90691
11.567 126.49 0.102732
7.19207 143.952 4.00536
-3.65986 131.269 4.15424
12.1475 140.223 0.510434
1.66348 81.8349 -1.6783
-1.84392 87.6097 5.84673
-30.2688 124.542 8.16395
3.73723 79.1234 1.7476
2.90801 110.37 -5.037
-0.0546864 80.1707 -1.27748
8.14816 78.7456 4.33529
-11.9965 119.048 -2.80244
-18.2291 138.645 -2.66777
-29.3842 134.956 3.46725
3.5276 82.7381 7.7782
-6.83325 86.4281 5.44037
-7.4816 126.601 -2.13339
-6.95343 111.91 -7.44293
7.09092 115.883 -6.27556
2.11427 110.669 7.87909
22.2502 129.175 1.99572
-24.7821 109.917 -4.15805
8.6713 151.418 -0.643244
2.26473 83 7.07897
-28.6359 128.548 -3.22737
-16.1667 109.72 -5.12969
16.8997 135.148 -1.21559
-7.78166 124.738 -2.69627
-5.00445 98.3008 6.73828
13.7939 132.345 -2.16507
-2.28748 129.666 2.22651
-25.6177 103.823 10.252
-15.3943 138.454 6.34714
1.782 103.386 11.7163
-0.270999 128.995 1.58619
13.5962 107.402 6.35385
16.5497 141.858 1.21799
13.0107 132.584 -1.62464
-25.9577 126.568 1.34637
-6.63242 136.052 8.8741
-9.69205 138.851 4.95915
12.3707 146.272 1.16453
-11.2443 111.554 -5.11984
8.56643 154.178 0.493786
10.9318 144.672 -3.4724
-1.30694 133.175 -4.79463
8.95989 154.051 0.80257
12.3168 120.683 1.35033
5.03275 98.2877 12.2349
12.7026 135.028 -3.80279
-24.0672 121.945 9.35091
4.67859 132.457 -6.73126
13.7426 126.137 6.03053
13.2698 97.2657 3.96136
-0.867282 110.035 3.29102
-16.7253 140.835 -1.57601
16.6995 120.262 -0.851473
-2.92129 100.183 -6.69197
-19.3288 127.071 -3.84416
-30.1762 124.081 6.93957
-11.9733 104.554 -6.58689
19.9837 135.193 0.584462
11.6614 110.671 -2.66028
-5.97898 107.832 1.76439
-12.5682 117.138 -2.94254
-14.7367 135.121 -3.55595
-2.29482 116.839 0.836223
10.221 125.672 -1.58542
-23.1908 134.676 6.10085
1.09315 86.0324 -3.53792
8.99448 121.021 -3.73931
-5.72766 128.017 5.91587
-6.93122 89.0278 -3.37748
-14.4814 127.815 -2.21344
21.6183 134.533 4.72531
11.8033 127.776 -0.751151
0.611042 141.617 2.85186
-24.0701 129.708 -4.38556
20.9981 129.982 5.49911
8.60277 98.1605 -2.41934
-16.2967 118.13 12.2682
11.9153 106.148 10.4621
1.8733 87.4515 7.95425
5.16147 144.739 0.833599
14.5205 88.171 7.77034
-8.84851 93.3904 2.4601
-26.1742 127.307 5.39362
15.506 135.787 -1.61838
-5.31297 113.661 1.38134
-22.5207 97.7667 8.92901
-15.6391 116.373 11.9676
-1.7672 99.8412 9.92065
-17.4007 137.606 -4.77896
13.6091 107.49 6.19246
8.78386 150.08 2.72789
-21.9732 123.566 11.504
-11.6107 106.614 7.81375
-13.8651 127.53 -2.0642
14.1592 132.373 7.65106
3.84757 96.3388 -4.12742
3.24358 116.417 6.99604
4.47466 135.08 2.29055
5.62152 111.327 12.9139
-4.56274 86.7358 2.13273
-29.225 112.021 2.79282
10.839 151.771 1.13275
4.14257 97.0987 -4.33684
15.4343 117.172 0.274485
-7.91916 88.7852 4.80654
10.1602 127.494 8.56999
-8.58565 93.881 2.23771
-25.4656 129.908 9.79422
9.41739 89.0027 -0.522338
-23.3627 126.341 -0.432257
-13.2659 147.114 -2.4642
-4.07408 86.5578 -2.53093
0.851592 97.8711 -5.84167
-12.8046 123.546 11.9732
6.10062 136.636 5.29559
7.61547 90.2871 -1.55078
-22.555 114.548 12.0491
6.66419 122.043 -7.52683
-13.6353 122.719 12.3391
-4.55306 86.0289 -1.97691
9.74525 118.291 9.34065
20.9567 125.177 6.29235
-10.3666 96.7639 4.80063
8.52336 109.064 -4.48902
-8.49056 92.9079 6.43376
-13.5143 105.257 -6.3843
-1.45791 139.086 -2.11271
13.8926 143.553 6.45682
-5.84815 96.9517 6.72531
13.5925 96.6885 6.11443
-24.8483 117.952 6.77618
13.2171 104.513 9.38038
-21.3152 112.368 13.0017
-2.89109 153.008 -1.96475
-1.61875 137.679 -2.45686
-26.0708 125.386 7.52025
11.5326 149.352 1.6208
-6.1242 94.3363 2.86199
2.06269 137.477 -6.13501
-14.4071 109.859 -4.5861
11.9229 122.701 2.68203
-7.99294 93.9285 6.85155
2.57816 100.447 11.6235
-14.8165 100.144 -3.85397
1.84028 147.722 -2.81898
-11.4492 114.456 9.07774
-11.9733 98.5417 -3.80915
0.552923 98.1111 11.1258
-23.4441 119.203 -4.43066
-13.8633 145.222 -2.75499
12.3068 129.953 6.97192
13.3875 102.312 5.10731
-6.29699 131.112 8.17332
-4.16378 99.4261 1.85983
-5.70965 115.616 2.13028
-3.05669 150.463 -2.20223
-20.6808 132.189 -1.2047
2.35496 154.309 -1.70431
-12.0349 98.5676 8.60307
-3.67314 105.67 1.24327
2.52601 116.222 5.00201
2.89263 103.126 -5.03485
-20.0763 100.73 11.55
-0.982681 141.628 4.65299
11.0162 121.827 1.98532
-29.2441 112.742 2.53516
12.9456 110.798 1.1526
-15.8996 138.319 6.96295
-4.70531 101.347 1.08233
11.8122 79.1605 6.74485
9.94059 100.784 -2.8654
-23.7974 132.916 8.03751
-25.5852 127.722 9.11832
8.82901 80.6092 8.49014
13.4829 105.962 8.42771
5.54251 88.8769 11.3366
13.2961 109.391 4.48468
-25.7537 127.268 4.6811
-9.79953 109.955 -7.05723
14.6632 79.1967 8.12925
-7.47541 91.6289 3.59155
7.99203 123.73 9.81684
-20.1348 135.647 7.2731
-23.0981 119.544 -4.57598
6.70218 150.383 0.65271
5.73156 134.809 -6.76105
-25.0044 127.12 0.193898
-21.9549 139.15 7.04095
-11.732 107.363 -6.58207
-0.504032 92.9368 10.2378
4.40282 102.618 12.9134
21.0817 136.426 5.53609
13.5423 118.35 3.15859
7.13528 114.168 12.7369
-8.90844 91.6879 3.99388
15.1254 117.386 0.431023
0.691142 135.773 -6.16432
-3.19739 130.02 2.94328
-28.0386 135.148 1.07359
-28.8069 134.818 1.58856
4.94661 122.165 10.8338
7.66449 92.2067 -1.88913
12.0482 100.838 0.00620074
-11.7661 148.621 -3.38867
-13.5589 103.236 9.06641
-19.4226 135.285 -3.50388
2.92278 100.119 11.8252
11.8675 78.4856 7.21528
24.3599 124.152 6.3379
11.1635 113.43 6.01363
12.3038 119.219 -0.126958
-20.8719 105.519 12.7045
-22.1005 131.437 -1.76114
6.28301 95.7997 12.1466
8.42148 114.491 -5.94444
-14.2238 124.437 12.6968
13.2311 81.4533 4.93869
-7.31489 94.8221 -4.47165
-13.7288 105.016 -6.29894
5.9702 122.527 -7.37108
-18.621 132.609 8.4351
-19.5585 132.382 8.58191
11.4325 136.296 -5.53189
7.00275 96.5028 -2.49389
11.4322 135.512 -1.56157
-10.9022 120.247 -2.55882
-14.5008 94.5683 -2.42399
-4.03253 139.575 -2.22642
7.11859 150.754 0.920669
10.6278 106.475 -3.57778
-24.7244 125.3 2.25871
-10.9976 119.52 10.6144
-11.9271 96.3151 7.41988
3.31714 83.6349 -1.65507
18.4589 118.141 7.25812
-1.82504 133.132 2.85367
12.4313 136.973 -1.98434
11.9134 121.528 1.8159
-13.067 147.544 -2.39998
17.8764 121.929 0.519975
-6.08482 92.0434 7.53623
4.92168 99.2624 -4.59752
-21.6026 132.663 7.64824
-17.6471 113.561 12.9673
0.711374 96.6499 10.6419
7.42752 107.688 12.3871
-11.2379 127.808 11.7274
12.6416 139.676 0.00738155
-27.2938 125.404 8.44219
5.71914 153.688 -1.77186
2.72866 127.061 1.96327
-15.9537 134.152 7.00461
-26.1017 124.878 -2.17169
7.829 95.6727 -2.26071
10.0619 123.073 -5.84657
2.0461 108.164 8.58506
1.76575 136.753 2.08183
6.35281 137.459 5.75187
-9.20696 116.224 8.47247
11.308 121.246 8.10079
-8.67503 116.353 7.7479
-1.6514 132.532 2.7243
-8.39561 93.9364 3.06862
-27.1614 116.74 5.05341
-25.2077 140.925 1.87621
11.6147 148.279 1.1534
-23.0587 137.34 -4.13652
7.4199 106.552 -3.59048
-23.813 138.084 5.68488
-0.0864904 93.0631 10.4042
-22.7068 127.625 -1.80573
3.48735 120.686 -5.46781
6.59071 120.958 -7.12131
19.1672 136.805 0.307208
3.19905 140.196 -5.84382
-28.0892 118.932 2.81175
4.76029 82.8117 -0.459787
6.2687 123.403 11.3301
-22.2818 132.24 -4.88415
-30.216 130.359 5.54602
-3.075 101.871 -6.61893
8.46365 137.363 -6.35348
7.42577 103.934 12.3688
-19.6278 142.44 7.03203
-18.2919 127.43 10.3596
0.301769 86.5341 5.95048
10.5878 82.1873 2.99153
12.737 121.909 4.40303
17.1343 129.305 8.15025
-25.6123 125.247 1.19062
5.25347 82.0896 0.450362
1.21251 99.1691 11.1862
-0.348095 91.2154 -4.67003
-22.5807 103.403 11.6403
17.3443 120.57 0.592606
-11.8823 123.183 -1.88628
1.19702 86.8587 -3.62531
-1.95701 82.4249 2.6058
12.2113 103.051 2.19105
0.377079 126.018 -5.96199
-0.252047 116.012 2.18638
16.5853 144.175 2.40361
14.3952 121.693 -0.4424
10.3699 78.4111 5.53205
-0.339387 122.221 -6.37322
11.4977 123.042 -1.24696
17.1828 120.885 0.150164
-6.25737 146.627 -3.78262
6.87146 149.878 0.705554
-24.8676 122.53 7.86892
-14.2514 87.7385 8.5944
0.45251 126.165 -5.91626
4.80071 121.842 -6.40539
-9.51688 142.926 -4.91504
-0.396545 76.2975 2.74046
1.05357 136.848 -6.10331
1.9623 144.994 -3.35592
-16.5646 129.774 9.76311
-25.5249 126.06 4.03754
-9.61513 84.5496 2.74922
-30.2063 130.5 5.66547
21.7916 133.996 5.56952
17.1015 144.484 5.177
10.9791 130.259 -3.45479
8.32689 85.0957 10.4164
-14.7557 92.4151 10.4639
-15.5621 131.521 9.62175
-11.2937 94.8042 -2.10869
-1.41637 103.594 3.8432
-7.20998 120.745 5.80952
-23.7477 140.453 6.01824
-17.6255 129.775 9.18636
-9.05376 92.9088 2.89125
-23.7297 116.553 9.44072
13.0581 109.891 1.64145
-13.1404 131.883 9.95357
2.31652 108.392 10.078
10.0865 139.718 7.33194
-3.6751 94.9535 9.14367
12.9495 120.079 4.96873
-12.2678 94.3379 5.87474
9.32854 121.614 -3.70313
-28.7882 128.708 7.91796
-25.1446 141.446 3.31645
-9.12314 121.008 8.71899
-18.7991 146.888 1.44261
-26.7003 112.645 6.26503
-3.80513 133.9 -2.41584
9.53521 126.511 -0.310345
5.20943 85.8256 10.2926
-25.8835 116.373 6.06141
-21.0761 140.214 -0.687516
4.881 151.928 -3.02569
-23.2252 118.941 -4.47536
7.06141 90.8872 11.5001
16.4637 117.72 2.18442
-16.1135 123.525 13.4467
-17.6904 138.315 7.43152
2.36704 114.328 5.56596
-13.0839 135.129 6.72818
-23.4189 143.105 3.43169
9.62518 78.8829 6.15556
7.87985 125.69 9.89162
18.0018 133.843 -1.2284
-7.53686 94.631 6.60292
-26.515 131.124 7.98444
-15.2596 94.9321 11.3426
20.0823 126.757 6.69527
3.33816 81.1372 3.75187
-1.26243 141.189 2.52898
-2.13435 140.681 -1.68559
-5.56971 109.531 -7.78159
-4.13199 149.219 -2.39388
-8.64378 99.8926 -5.01774
13.854 97.43 9.00664
14.7908 80.3739 7.16501
-3.00489 83.5965 3.27197
-26.8658 118.064 -2.23761
1.95129 139.129 2.13558
-7.1623 125.851 6.78299
-12.486 127.213 -1.80174
-14.5234 112.456 -4.64427
11.8826 133.444 -5.56258
-1.1762 128.98 1.80392
-2.13999 135.443 3.92725
1.26901 128.782 -5.83173
-21.4319 119.643 -3.87224
-1.06581 96.5945 9.70842
-0.721591 100.092 -6.94883
-24.4647 99.9436 9.24817
13.3763 127.055 6.09097
3.8865 131.779 1.93536
-11.376 138.853 4.67135
-13.298 145.691 4.96495
-7.67405 146.394 -4.55396
8.4891 114.509 12.4026
-0.537456 143.146 1.13088
-6.93057 127.757 7.38032
-28.8284 110.382 5.44002
21.7234 134.582 5.55212
-20.7958 118.006 13.2261
17.4781 136.312 -0.300571
5.02943 128.206 7.53342
-26.046 117.864 -3.0024
7.58958 95.7282 11.9846
-3.09656 115.866 0.716375
10.8193 113.61 -5.06484
9.962 114.183 2.89984
5.18675 130.722 7.95367
10.6829 142.321 -4.15177
-22.6422 135.194 -3.75797
13.2927 92.2453 5.32736
-14.2982 134.216 -3.72761
-3.98723 128.24 -5.31631
-26.6284 112.044 -2.72339
-5.4083 86.3603 -2.3123
6.32898 85.8845 10.6065
-22.9304 126.548 -1.8402
17.7181 139.498 1.2112
-7.94223 152.925 -1.2147
5.31149 125.658 11.006
-21.9883 129.735 -1.66374
17.4549 137.192 6.7081
-29.8796 122.505 -2.06418
-20.5697 99.5157 10.7913
-11.1822 150.387 3.0854
-27.5054 123.702 3.41917
10.5523 145.179 -0.89319
11.8579 118.64 -1.1184
-8.89517 140.026 -3.94593
22.0643 126.742 5.46913
-16.5961 106.925 11.0294
-14.1534 141.999 5.75946
9.67406 122.769 1.0628
-23.9678 142.501 2.6549
13.4467 103.852 4.34881
-14.311 117.765 -3.11783
-7.85816 127.711 -1.66932
-12.2729 106.869 -6.41934
-10.1574 135.07 9.46414
-15.7124 101.62 -4.13496
-15.3479 129.988 10.6506
11.4262 93.1278 1.34345
-24.2252 126.502 -2.22444
17.1557 119.941 0.489471
20.1878 121.295 1.35613
8.71696 85.7871 0.254159
9.32384 124.72 -1.13026
10.2195 101.794 -2.95874
5.70233 145.698 0.914142
-5.30614 97.9697 5.64597
-14.2117 93.3588 10.0214
12.578 78.3129 6.33819
-26.2464 125.04 -1.6078
17.7599 126.274 7.53964
3.47386 142.249 -5.3814
11.2269 123.745 8.08462
6.74192 138.806 6.5843
-3.41714 100.559 4.47036
11.6827 112.234 -1.72736
16.6187 120.306 8.05748
-30.8469 128.032 5.16306
-27.8009 135.507 3.74553
-6.66847 98.2563 -4.57757
-19.0859 104.4 12.803
13.1376 93.0079 4.38329
4.34364 146.231 -4.5191
13.9726 119.979 -3.26404
-15.1154 117.884 11.6725
10.6466 129.385 7.8927
-11.4734 122.774 11.593
11.7475 137.269 -1.75899
-3.22835 98.3637 -6.40331
-12.227 131.063 10.8692
-22.4251 130.669 -0.767556
-28.8168 131.851 5.88585
-18.6024 116.897 -4.18164
-13.5712 93.8531 -1.99658
7.85279 143.068 -5.65849
-23.8003 124.241 9.04098
12.1626 124.79 4.16318
6.17709 129.738 9.64557
8.20856 125.761 9.55408
1.07539 79.5909 0.371224
-26.9652 119.97 5.10681
-14.4356 131.706 -4.88726
2.52778 116.238 -5.19555
-10.6396 144.144 3.45927
0.192911 82.9242 5.6746
11.9817 139.535 -3.76933
-25.8825 126.527 1.99353
-2.15436 153.974 -1.9458
-5.22568 141.488 -2.60164
11.6302 79.292 8.409
21.3234 121.702 8.04067
-0.922295 99.0839 10.414
10.7121 91.0299 0.610603
14.1212 122.15 -3.98003
6.24309 145.176 1.33379
10.7469 129.03 -2.95576
4.46634 126.511 4.16867
14.0528 119.95 -3.20621
3.6146 142.923 -5.24109
2.21872 118.686 -5.66489
-4.56991 97.6868 3.49606
-15.366 130.413 -5.31468
6.49803 109.162 -4.16962
11.0264 127.719 -1.03458
-6.97305 95.9237 1.64577
13.3394 96.7043 4.65726
-22.724 126.421 -2.23017
4.46878 96.5511 12.2721
-11.0142 91.5836 -2.31431
-9.69215 93.6143 -2.81095
-21.744 129.469 -1.11391
-0.685912 82.5498 -1.98293
5.07396 129.366 9.26013
0.982856 93.6677 -4.55823
8.43798 138.528 -6.33683
-29.0054 132.295 -0.665538
-16.6021 89.9797 9.89691
-5.67223 102.088 0.684598
4.4611 100.642 -4.77297
9.97116 124.591 -4.86553
-13.1538 115.802 10.2681
0.587111 115.802 -5.3562
10.482 119.501 -1.67665
-7.64446 124.742 -2.79295
0.105584 128.921 1.48359
7.85953 79.0842 3.77888
23.0932 124.807 2.95774
-31.5601 126.282 6.50086
5.95025 80.8011 7.30406
-12.7283 125.849 12.5725
20.4972 133.186 1.09949
-8.06255 85.8528 2.17725
5.94598 99.9735 12.3893
-23.6827 128.191 0.164307
-30.4292 130.97 2.66288
19.1149 142.08 4.81001
-17.2068 99.0752 11.8029
-7.85779 86.5986 -1.82772
9.37174 78.9884 4.47862
-20.5362 103.965 -4.77169
-20.251 133.699 -2.62468
-26.1469 121.169 -0.62265
-19.967 140.513 -0.995886
10.0346 143.39 -4.69221
-9.04081 122.098 -2.62224
-21.1479 132.818 -1.18113
11.6754 150.242 2.84453
2.05132 130.713 1.36193
10.5988 108.715 11.3425
-10.4001 144.562 -5.02005
-26.1315 125.31 8.3584
-14.3714 96.7256 10.3458
-12.4454 98.447 8.84382
2.46431 106.278 9.82293
-20.8541 125.522 11.7336
14.675 147.553 2.45292
-22.4154 120.149 -4.1816
-4.56085 127.522 3.69495
-30.0688 127.111 -1.00817
6.38523 80.8687 7.57387
5.92672 138.426 2.51707
-10.4235 121.941 10.4639
13.6876 134.254 7.20642
3.849 86.0103 9.17433
2.28053 105.725 9.24243
-18.9693 122.142 -3.37603
2.78057 81.1849 4.04083
19.2656 134.545 6.41271
11.778 146.059 0.148314
1.47038 120.799 2.4449
2.97826 105.603 -4.81964
2.50976 101.287 -5.41327
11.6524 135.614 7.78562
4.84127 87.6287 10.8659
9.3337 120.357 -6.78436
-29.4354 114.453 2.14304
-13.0547 106.035 -6.38042
-9.66343 144.323 3.26925
9.78216 124.571 4.10066
-17.9901 109.682 -5.58106
2.09452 111.485 7.19344
-7.35544 126.535 -2.2749
0.472819 134.278 1.87184
-5.92102 95.9701 -5.31456
-3.72676 77.1692 1.26673
-14.2308 98.4608 9.92428
-17.0634 118.526 -3.02269
0.445313 139.545 -4.17566
19.4957 124.57 8.01865
12.5293 133.324 8.12477
-26.3755 111.038 9.13059
-11.1268 136.57 6.77526
-22.2911 99.4668 9.87557
9.31128 114.745 -6.11615
-6.9222 95.7532 6.64017
-23.9266 119.52 8.99168
-8.21306 132.978 9.88035
-14.3791 123.256 -1.9114
15.2259 127.136 9.06646
-25.5658 125.101 -3.12292
-5.91432 124.238 -5.02209
10.0591 117.847 -5.8268
10.9953 140.409 -0.754294
10.3083 100.902 -2.48768
13.0204 121.262 1.41984
4.30097 117.885 11.2771
4.54707 87.5425 10.5317
-12.5812 92.4107 6.03629
1.88325 104.486 -5.53801
2.33697 111.522 8.35399
15.7894 138.315 -0.584026
9.74903 113.505 11.895
-17.5434 118.233 -3.23342
-28.8729 112.232 2.96734
0.619376 139.575 3.45185
23.6826 123.379 7.36969
15.0082 118.017 3.92873
-8.35772 129.637 10.1761
13.5234 93.2316 5.94235
-13.0009 134.937 7.26955
-27.3857 111.581 6.87008
11.6507 109.503 10.6944
-20.973 113.804 13.4306
-3.14382 112.645 1.00946
-1.52865 87.1305 4.74854
7.25217 143.151 4.60128
8.84447 144.124 5.65882
4.17788 105.866 12.9877
-14.5595 145.269 -1.38489
-25.0702 124.997 1.5453
-19.0748 118.737 13.8535
-4.44591 131.191 -3.21294
-9.92016 121.222 -2.47311
-6.21938 108.04 -7.71013
1.84899 84.8496 6.79485
8.29594 138.594 7.64648
11.1978 139.774 -5.1768
-6.43898 117.894 3.45929
12.5703 107.972 1.92258
-5.57359 85.5374 3.23099
-5.09502 140.132 -2.70189
21.5467 120.81 8.24262
-25.2109 126.292 5.6746
7.49383 145.908 -5.02228
14.7422 76.2427 6.75685
-13.6455 140.332 -4.7948
-20.908 106.212 12.7528
-13.6721 107.635 9.35717
-8.36449 93.4802 2.83898
-27.3356 133.101 4.90406
-28.2468 125.077 8.33235
2.1054 138.326 2.06109
6.29376 77.0106 5.30138
-13.3319 114.782 -3.69686
-0.830467 133.255 -5.34239
-5.06264 136.03 -1.91776
9.96343 143.627 6.08623
13.1182 110.617 6.92136
5.23805 130.541 -7.01418
11.2627 117.638 6.20432
-13.7209 115.002 10.3741
0.00497608 131.819 -6.30302
-26.8122 121.591 5.40483
9.45363 123.259 0.0604384
10.4219 145.815 -1.27396
-16.08 127.856 12.3871
2.44725 132.867 -6.48676
3.39875 118.578 6.41572
-22.1631 144.26 2.31308
-6.41874 113.549 2.45218
-17.3723 103.095 -4.23124
-12.983 149.353 4.12961
14.1515 148.078 4.4366
-18.4775 136.196 -3.58114
16.6568 120.314 -0.989618
-15.4055 106.616 -5.37509
3.6122 117.743 7.73706
-19.6811 119.084 13.9316
11.9301 77.9071 6.81478
14.6093 118.035 3.59717
5.95076 105.72 -3.87758
-7.98773 129.271 10.1157
11.3771 121.078 8.01539
11.695 112.52 -2.5666
16.5383 118.652 7.18618
20.9634 131.455 1.93162
-1.8085 82.9111 3.73553
-6.48303 89.5077 -3.64183
-2.10575 102.068 3.08388
14.1034 118.967 0.316729
7.62671 146.851 2.17271
-12.3807 114.795 9.56324
-4.88052 128.586 -4.12209
-22.3006 142.14 0.126788
-27.2925 124.587 3.80995
10.4017 87.6183 10.9047
2.26237 85.2384 7.32954
9.66949 133.495 -6.3331
2.56572 107.075 10.596
-3.54205 83.0834 2.12718
11.7514 146.03 5.70728
-24.2307 123.493 8.75516
-8.24742 92.528 3.59475
-0.720559 81.2141 -1.57476
-5.2747 136.275 -2.27097
2.26292 96.0306 -4.52562
4.73264 92.2402 11.6619
14.5757 120.36 -0.724261
4.3125 132.558 -6.87299
-21.8418 138.726 -1.63783
-31.2117 125.182 2.19174
10.3864 95.984 -1.19189
-8.79279 107.256 -7.52314
13.8381 94.3565 6.65275
13.277 100.685 9.70397
-8.93393 101.936 -5.99043
-5.74133 142.645 3.07459
-7.63959 135.437 9.15942
-20.1357 129.053 8.54542
-23.9083 125.252 1.45114
10.3304 141.409 -4.75373
-6.07761 149.275 -3.70869
-27.7558 136.514 2.2504
-1.59432 91.6103 -5.06164
10.1947 119.094 -1.55704
-29.0765 132.61 -0.249691
12.9555 99.7945 4.22599
15.6423 121.054 -2.61168
-0.920923 106.263 -6.9076
-22.3136 143.185 0.933037
0.375494 135.559 2.24728
-5.57813 95.6415 1.4894
-1.36889 140.395 5.37621
8.71454 120.033 -7.17395
7.15277 112.495 12.7787
-15.2193 102.35 10.4578
12.0824 114.171 9.5804
-19.3629 144.524 6.50322
11.564 123.149 -3.45126
4.40059 151.375 -3.21342
13.7915 123.335 7.42901
-16.2047 139.637 -4.66994
24.429 123.281 4.20515
-0.588962 135.064 -4.40365
-3.26277 130.509 3.20984
6.141 108.456 12.76
12.8268 132.916 -1.53393
-6.23406 113.615 2.25093
12.653 109.457 1.30175
-0.362227 102.559 9.26347
4.00999 89.1848 11.2007
-1.04435 82.4646 3.92684
11.6136 90.9086 10.6727
5.67213 134.233 4.28344
10.4928 126.094 1.84956
-29.7626 130.087 -2.1158
1.51307 91.2625 11.0132
-23.1369 129.363 9.25818
