ply
format ascii 1.0
comment Created by Open3D
element vertex 1867
property double x
property double y
property double z
end_header
-10.1666 134.342 -7.84817
-5.8517 106.1 -16.1321
-13.2666 107.49 -13.7199
-7.47095 92.879 -3.10118
-15.4403 88.1384 -14.2568
-3.1861 133.144 -7.43573
6.1112 91.7418 -15.0721
2.61625 97.2655 0.270114
-8.70151 95.077 -16.887
14.9246 132.494 -4.3986
9.98414 81.093 -16.2266
-6.26457 119.272 -11.4011
-11.9078 125.297 -10.5113
-9.45792 134.792 5.70235
15.3247 79.4307 -7.74964
-7.62549 137.018 -9.03506
9.12993 130.441 -11.0489
8.69613 124.754 0.886266
12.5471 100.304 -4.8365
-13.6205 102.232 -4.96756
7.21048 122.025 2.10588
4.4284 136.003 0.624045
-8.88197 146.821 -5.47591
-4.62359 131.299 2.53056
8.75225 150.533 0.48172
-13.2956 114.966 -12.8487
2.17407 101.118 -0.0671439
-19.7352 117.213 -0.381905
-15.0805 138.557 6.97885
-6.23495 83.2642 -17.8589
-11.0636 129.122 -9.83543
-13.3426 96.8191 -7.63736
8.27699 99.8306 -16.0576
-12.2705 96.3405 -6.71324
-19.6037 127.065 -3.81471
-19.0652 118.661 4.5379
14.4729 105.338 -5.66121
9.16202 92.2061 -15.5087
2.58548 81.8226 -17.4701
-18.3595 133.053 6.81713
-11.3218 149.157 0.422841
-14.6595 121.115 -4.546
2.45743 89.2492 0.210828
-1.05533 146.181 -4.35898
-0.533409 132.611 -6.91387
-10.4332 150.373 0.527419
-12.3992 107.438 -4.44025
-8.74772 114.767 4.46861
-2.95281 122.562 5.15015
11.7464 93.1393 -4.5346
1.61158 152.122 -4.33241
14.3301 118.624 -5.10774
-12.0797 143.434 -0.719311
-2.56252 139.108 -6.3443
-7.30102 148.022 2.16629
-21.2771 124.314 -1.02034
-15.7523 113.731 -2.74613
-1.92479 84.3312 -17.594
-12.3142 141.698 -3.32969
-18.8038 133.253 1.13718
-6.35131 126.787 3.35754
-6.95444 144.193 -6.82073
-19.9332 121.504 -2.00888
3.63992 79.6952 -3.53839
-1.50144 74.1906 -6.49075
-17.7276 119.023 -1.79884
9.51759 106.324 -0.967029
-7.20024 117.206 -12.6612
-15.3599 114.107 -11.8065
1.46855 140.823 -5.67034
10.7861 137.723 -0.420253
-19.7435 132.415 3.26116
-15.9824 100.004 -12.7954
-13.9184 128.161 -4.01324
3.62272 141.327 1.47453
-12.0968 101.094 -3.77464
-1.44237 83.7361 -17.602
-2.88826 113.351 3.26016
3.40062 120.287 -14.3435
-13.2875 105.852 -14.2325
-10.4651 132.069 -8.63887
-3.76085 142.901 -5.63445
16.5759 139.983 -0.603961
3.27862 132.196 -8.36226
-6.03044 79.0154 -5.43682
-17.5938 119.089 -1.97433
-19.3525 121.604 -2.72219
0.434207 80.8882 -17.5657
-4.52868 81.8245 -4.11692
-0.0226018 98.846 -14.6998
3.88443 108.027 0.837516
-15.5677 96.1527 -10.2737
3.81656 92.0086 -15.4724
5.78043 81.6085 -3.00123
-12.253 95.2965 -5.5656
4.15158 139.756 0.618768
-1.77143 100.846 -14.9444
-8.02719 109.85 3.77531
-13.4916 73.5813 -12.4969
-3.24772 88.7356 -17.4552
-10.6971 137.95 6.49647
9.47851 78.1467 -16.6077
-14.8464 85.9193 -12.2699
-9.53386 96.968 -1.1473
-18.091 120.34 3.48889
8.17125 106.871 -17.6811
-10.9004 89.2272 -5.64905
-19.9657 121.149 -1.88211
-8.6645 119.316 5.13858
-18.7791 120.79 2.10836
12.2624 75.4217 -6.91791
-17.8082 123.067 -4.13473
-1.96315 116.067 3.77367
-12.163 97.7496 -6.04687
14.9499 94.158 -4.82827
-9.61141 137.625 5.69892
10.5309 124.093 -2.29457
8.38046 114.751 1.16631
8.71422 133.268 -11.9529
-12.1562 103.772 -2.46516
-14.8412 120.858 -6.4003
1.11154 124.112 -10.0423
-19.8894 119.593 4.15243
14.4779 87.6938 -3.78717
8.43641 89.0471 -3.03383
-1.74852 129.425 2.42227
10.1508 88.4544 -3.57675
0.679776 119.924 3.77752
-15.7271 97.4632 -12.9816
-2.64705 133.662 -7.18361
-19.7756 132.457 2.7165
7.03299 109.405 -18.5331
-1.7638 119.707 -10.3703
-12.8894 79.593 -16.5248
-13.47 105.926 -5.68135
1.14911 111.166 -16.074
-1.87139 136.884 1.82319
-2.1085 125.407 3.49245
14.5299 119.27 -5.10778
-11.9663 140.966 6.76051
-0.410883 89.9334 -16.8883
-11.8137 102.134 -15.3536
4.93293 103.968 -17.3757
9.46468 110.158 -0.333882
6.30459 105.699 -0.386093
2.3289 86.1838 -0.864732
-15.3819 119.414 -0.258202
-4.23814 132.058 2.18314
-4.65834 122.7 -9.96062
6.4416 129.311 -10.206
-13.6657 122.049 -5.47948
-7.70706 107.269 -15.8998
10.5342 138.623 -0.75082
6.15578 139.414 0.57773
11.5022 150.214 -0.113053
1.265 122.705 3.81617
1.81812 103.711 -16.823
14.3217 141.125 -3.30592
10.3834 128.292 -12.1991
-7.83433 87.2188 -4.85517
-10.9247 129.469 -8.42935
-8.25103 76.2023 -17.8058
-2.37565 117.267 -11.3867
11.2779 89.0453 -4.17142
-14.6144 81.2396 -13.4139
-13.3867 136.55 -4.93713
-0.582305 119.048 -11.0845
-15.4587 126.329 5.43146
2.63784 120.475 3.0178
-11.7804 85.1086 -6.96755
-11.5769 108.537 -14.6324
-4.74673 84.4826 -4.2066
17.6185 95.3938 -4.64678
17.632 133.578 0.0837467
3.55128 143.784 1.0588
0.0148054 125 -9.01977
-9.19693 145.965 -5.64998
5.43155 116.182 -16.1678
-6.01115 107.826 4.19839
10.9731 136.616 -2.56551
10.8756 91.1739 -15.6365
-19.9728 117.381 0.143135
-7.58372 93.8967 -2.48844
-0.0457571 81.0344 -17.4937
-4.61033 95.5771 -15.5592
-0.929661 73.9588 -6.82512
-16.3922 124.613 -5.44068
-15.653 84.7484 -14.1774
10.0899 140.154 -0.689071
11.1836 136.332 -0.458038
6.71494 96.3588 -1.41906
-0.219165 126.643 -8.51051
0.469996 89.2655 -16.7553
-13.7676 109.78 -3.08952
9.66906 123.975 -12.2202
8.45124 116.561 0.837427
-6.09479 114.423 -13.5504
-14.6763 105.141 -8.04649
12.7039 115.866 -4.89092
-10.679 89.9626 -5.5428
3.25285 89.0839 0.0388968
-10.7068 137.738 6.4614
-8.12618 149.891 -3.48559
-5.37432 109.241 -14.9014
-12.7284 82.8037 -8.22289
-2.17337 118.439 3.90137
9.33937 100.604 -16.4719
8.90889 113.11 0.43723
-14.0945 122.825 -8.47581
9.0145 153.125 -1.41744
13.4052 134.243 -4.03195
4.17721 141.581 1.68005
-6.64379 82.366 -4.93671
14.5585 147.571 -1.10196
9.01061 96.824 -15.9077
-9.28029 122.872 2.79169
9.10116 95.3382 -15.4912
2.49315 151.635 -5.07595
-14.4194 120.962 -5.8409
-2.10315 142.939 -4.87951
-0.760295 98.5673 -14.7654
-15.0977 111.412 -12.3656
4.89653 105.12 -17.7164
-14.9747 131.25 5.5972
-12.2881 74.2958 -16.2598
-3.13724 116.449 3.8411
10.0846 83.1 -5.05791
15.2456 113.736 -5.41274
-13.5592 82.5698 -15.4392
-13.3471 139.723 -0.562479
8.02336 88.4933 -15.2215
-4.35752 145.207 -5.04146
-5.41581 123.325 4.90925
-0.366744 147.55 -4.48849
-6.48358 123.86 4.40289
-10.1109 89.7844 -5.22563
7.88792 93.7791 -15.2269
8.58456 85.1871 -3.94221
-5.16793 140.427 -7.30678
-12.3775 102.945 -2.85472
11.5279 100.478 -4.87533
-13.0581 123.929 -10.3056
18.2751 97.2952 -4.69787
-14.4995 102.09 -7.87841
-3.9772 128.437 3.13692
-6.72719 151.009 -3.38456
-8.37556 138.031 -8.06187
-16.2728 116.664 -1.25019
7.59487 88.1051 -2.14352
8.10992 110.602 -18.4291
-13.804 121.999 1.80807
-10.7638 129.973 5.49267
10.4307 151.497 -6.35525
-10.3226 124.948 -9.98577
-8.10071 86.3246 -16.9779
-15.3843 115.015 -5.43991
-12.9422 90.1542 -7.64598
11.1899 110.098 -3.32856
-0.429489 143.517 -4.79342
-12.5917 89.257 -7.62584
-0.462387 111.018 2.00601
-14.4153 89.8701 -10.6554
-11.348 94.9843 -3.9686
-19.4982 118.323 -1.61299
-5.44274 121.245 -10.3953
0.83771 98.8957 -14.6515
-11.2073 103.381 -1.3251
-4.64805 132.619 -8.18718
-14.7638 100.544 -7.55153
-0.283179 120.939 3.85991
-14.5962 101.521 -7.77249
-1.55375 146.936 -4.08525
-15.0558 118.884 -10.4235
5.14729 129.926 -10.0454
-14.7649 116.371 -1.62732
-7.83992 134.829 3.93221
-14.4767 102.481 -7.10556
-8.94613 74.9113 -7.39684
8.4133 130.357 -10.0139
-12.7994 102.616 -3.60315
16.5972 141.142 -0.688501
11.2107 136.357 -2.54066
-6.18702 152.802 -1.58084
-16.0643 127.139 -5.67214
8.02867 119.058 1.08141
-16.8344 119.974 -3.98735
-19.8842 120.656 6.87808
5.33942 87.6102 -16.1273
-22.7235 119.182 4.15538
2.17375 140.295 -6.07598
7.00855 83.5289 -16.6494
-11.5571 123.106 -11.0817
0.405687 84.945 -17.1451
5.72172 139.653 -9.40468
1.31684 115.088 3.35824
-4.52964 111.456 4.08365
6.9049 112.378 -17.748
-13.3432 131.016 5.35991
-14.8072 88.822 -14.5684
-9.91245 104.215 0.34564
-10.9479 107.201 -1.49414
10.8299 135.845 -1.78664
-13.7419 90.209 -8.9978
-2.01141 76.8 -5.16325
0.788567 135.338 1.53952
5.60924 141.341 -9.09646
-4.16579 114.87 -12.9426
8.10242 104.027 -16.8103
8.07963 120.78 0.590021
-5.48959 145.572 1.63786
-10.8158 108.136 -14.4497
-14.6239 106.754 -6.63835
-6.3424 97.3857 -16.4245
5.92893 154.292 -1.52744
12.155 151.649 -3.00473
11.2435 104.64 -3.02665
-1.80725 100.286 1.89861
9.14919 84.6523 -15.8982
-1.17736 80.1216 -3.75735
14.0528 149.782 -0.340886
-11.9137 145.107 4.87033
-0.676681 91.9285 -16.4376
6.61959 125.904 -11.8577
11.9557 80.4642 -15.6461
11.8285 74.7362 -6.75521
-7.61792 76.6672 -18.3269
-2.2644 149.402 -3.59534
-4.2091 94.3799 -15.7104
-15.8919 116.251 -6.47817
-14.8468 99.9291 -7.52242
-11.2079 146.516 -2.38728
-8.8142 114.439 3.8447
1.26239 115.748 -14.494
-13.6036 119.42 -11.244
15.4354 84.555 -6.38967
-17.7895 137.326 2.30412
-14.3043 125.507 -4.38139
16.2044 108.943 -5.55174
1.7032 100.651 -15.5804
-14.1419 130.733 -4.19708
11.9022 114.121 -4.38138
-10.7023 115.91 3.81275
-17.8176 118.354 -2.32015
2.4974 130.699 1.72775
-10.3728 123.76 2.33968
-22.0995 119.209 5.32035
5.77065 83.4284 -16.9099
-7.27155 135.879 3.36535
-14.5256 116.309 -0.962058
-13.8507 90.619 -9.16164
-20.1382 119.145 1.9517
-9.63835 95.5789 -1.97294
-2.16161 129.19 3.22773
-13.3021 122.811 4.52208
2.42262 105.782 -17.6712
-21.3931 121.018 -0.706793
1.80913 77.0838 -4.48254
-10.4905 109.485 -0.0524463
4.72717 97.5037 -14.9052
-14.5253 114.627 -0.800572
-11.0814 92.9957 -4.85211
-16.5777 133.587 7.27925
-11.7599 143.869 -2.1782
-7.83828 119.291 -12.0259
-18.9801 128.125 -2.66597
-2.63469 111.612 -14.1314
3.68303 124.898 -11.7518
5.57252 77.7801 -17.0882
9.0971 136.115 0.343303
-10.5559 100.008 -15.9332
16.5151 92.4153 -4.38191
-15.7752 108.078 -11.8108
1.98074 130.434 -8.45124
-14.558 77.0793 -15.3207
12.0062 84.9179 -4.56181
-12.4078 103.401 -2.85733
-3.07006 90.5012 -17.4617
-16.2967 128.834 -5.02926
12.7249 107.636 -5.1156
-7.72368 153.155 0.435773
-6.36368 78.1513 -5.60875
14.0163 117.358 -5.0787
-12.3926 126.103 -9.29527
-5.93158 113.655 5.19301
-14.3155 95.7499 -14.9722
-12.874 122.073 3.96356
-12.8362 146.586 2.37588
12.4717 104.13 -4.83354
0.230048 125.489 3.69301
-13.3714 107.294 -5.29606
-2.76835 136.331 1.79921
0.369457 133.432 1.72319
-6.7753 90.0599 -3.8275
-20.174 118.948 6.90723
-6.20172 86.5427 -4.60757
-20.3679 121.988 -1.75903
-15.4192 117.917 -3.62551
-6.58884 142.692 -6.98452
-14.5059 123.243 5.96738
3.00199 104.855 -17.5958
-20.088 126.573 -0.762532
-10.1021 111.169 0.997558
1.48341 136.746 1.21874
7.68748 132.969 1.325
-15.0009 83.81 -12.6041
8.63797 140.191 0.80318
10.5804 134.65 1.01688
-9.18855 103.643 -16.006
-20.8818 128.203 2.56478
-14.0156 130.841 -4.01091
-14.9017 132.584 6.51341
18.3098 93.5608 -4.1755
6.27554 110.128 0.942051
-12.664 78.5191 -16.7065
-12.5805 103.691 -15.2022
10.51 93.724 -15.6892
-8.42073 102.502 0.896592
-14.9856 117.988 -9.565
-16.5987 140.525 4.93818
-11.7701 84.1752 -6.99203
-15.579 118.409 -0.211401
-8.1622 100.856 -16.2772
-11.1584 103.16 -15.9888
-0.292433 77.0031 -18.2208
-2.46217 87.1427 -17.4863
-7.27154 108.658 4.36663
0.499785 115.387 -13.3886
-13.433 133.265 -4.39634
-10.269 103.944 -15.9791
16.2087 91.7647 -4.06639
-13.8406 127.236 5.81283
7.88408 151.792 -5.60444
-13.9616 77.1939 -10.8225
-4.09895 132.819 2.10445
-11.6564 128.352 -10.5034
3.40013 150.177 -6.01795
7.59913 117.551 2.05086
-13.7688 100.125 -5.79113
-13.8889 83.2777 -10.7714
16.0901 101.918 -5.27401
-15.3163 94.0305 -11.5784
-3.11529 110.286 -14.707
9.83602 130.37 -12.6383
0.152552 131.639 -7.15379
-1.72699 88.3387 -2.5754
-4.21943 103.008 -15.0689
-0.185545 98.7693 0.837012
-16.5264 125.46 -4.92557
-22.5641 121.07 5.02935
15.0342 110.936 -5.52773
-14.3909 119.625 -4.03615
10.3607 138.649 -1.16043
1.94641 117.487 -14.5796
-15.5052 115.836 -3.99812
-5.65285 127.066 -9.71296
-15.4423 118.44 -6.27784
-3.26056 74.3774 -6.46616
1.88913 128.438 2.32376
-22.7583 118.883 4.25373
-6.70762 137.719 3.07062
4.25985 111.425 -16.8459
1.59353 124.576 -10.2186
10.8246 120.436 -3.28563
-4.20926 92.0856 -1.4393
17.2896 142.053 0.447837
-5.50533 130.783 -9.24872
9.27157 120.134 -1.42796
13.2857 127.767 -4.4623
-11.5269 129.442 5.04963
10.0463 112.925 -1.17905
-13.3943 117.021 -12.0076
-5.60948 151.834 -2.80732
-5.98507 116.913 -12.4109
13.1224 110.773 -5.09942
-14.4977 100.919 -7.0453
8.60618 144.483 1.40906
-6.75466 123.86 -9.82096
-10.6624 144.092 -4.51895
-13.6341 79.3027 -9.69915
11.6101 106.175 -3.38993
4.49732 86.4458 -1.58905
-0.72272 90.0688 -0.793805
-11.4136 149.082 0.843654
0.870226 150.902 -4.82922
2.58925 87.5952 -16.8957
-16.1647 115.306 -3.10444
-0.0385851 73.6273 -6.62327
-6.43039 140.672 2.16833
-1.46614 90.6083 -0.854879
-1.59158 133.744 1.8511
-4.2477 119.843 -10.796
0.471172 145 -5.05687
11.7352 126.814 -3.85774
-6.28984 99.9356 1.7972
0.991111 79.6671 -3.80208
-0.496035 87.9347 -17.4081
4.88294 133.662 0.952274
-13.6152 134.3 -4.28408
-20.629 118.195 1.1581
-11.9398 115.612 -12.9301
-14.0356 94.3794 -10.6224
8.83433 113.75 0.604209
4.26139 118.667 1.93593
6.1925 144.514 -9.18406
5.59681 82.9734 -17.043
9.39622 101.622 -16.6828
-6.66379 138.748 -8.67377
-16.8788 120.01 -0.287463
3.73562 101.2 -15.785
4.3583 121.228 1.59218
3.58296 140.618 1.1682
-1.44529 138.367 1.93812
13.0759 92.8175 -4.7926
-20.1811 119.161 0.835472
-15.5797 108.865 -12.0398
1.20168 148.248 -5.39689
-8.47246 125.143 2.59428
-13.8259 87.5302 -14.5914
-2.81303 81.8395 -17.629
-12.3295 102.165 -14.8836
5.75781 85.8482 -16.4124
-13.6752 86.1372 -14.5307
5.10088 79.3439 -3.68593
-12.1171 115.547 -12.9313
-9.08478 149.633 -3.12652
12.7727 130.439 -4.03539
1.54871 122.197 3.67682
-3.36944 97.8854 -15.2013
7.71403 97.9768 -2.1258
13.3784 145.451 -2.29781
-18.5109 118.807 -1.58644
5.12262 78.4664 -3.97543
-19.7058 131.463 6.63636
4.26427 119.584 -14.7708
2.95949 104.394 -17.4552
-0.872306 126.916 -8.33991
-8.51813 122.844 -10.1302
-10.248 97.9391 -2.78807
-8.79662 90.4421 -3.9705
-11.362 143.604 -3.22335
-11.3367 146.268 -1.6378
-6.3174 99.7876 1.70701
-12.8508 99.1545 -5.69494
12.9569 138.831 -3.27148
2.97385 74.6655 -5.65323
-12.4235 131.915 6.38881
-11.51 128.629 -10.7248
-12.5489 133.288 -5.08354
-9.96002 75.2375 -17.1603
-7.49746 116.585 -12.8673
-15.4053 100.554 -13.2393
-5.42961 100.391 -16.2007
-15.3305 87.1778 -14.4771
14.0161 151.216 -3.11927
-8.34511 116.619 -13.1174
4.2585 81.774 -2.98743
2.60986 105.064 -17.5018
1.61493 105.525 -17.2718
11.8772 104.356 -3.9376
15.9165 96.6488 -4.98047
-19.4373 130.123 -0.289137
-7.15626 104.364 3.05236
-14.5116 116.545 0.0074232
-6.7665 79.753 -5.69917
7.06567 116.664 -15.7794
1.72075 107.676 -17.7837
5.41872 99.4751 -0.420366
4.08059 146.595 -7.25822
-8.05131 144.128 -6.44941
-0.789717 137.387 -5.91215
-13.7443 132.558 -3.76397
10.2231 152.4 -3.03189
8.33799 102.358 -1.22322
-14.5858 116.464 -12.0887
-1.94939 120.311 -10.1376
-13.3118 134.561 -3.16791
-7.35151 138.346 -8.61668
6.96295 98.8053 -1.07514
3.42216 134.63 0.849892
9.12458 114.049 0.243708
-15.6793 117.143 -3.23176
-8.71602 129.299 4.21697
9.6662 132.347 1.21033
-8.21425 130.345 3.95635
-15.7311 129.131 -4.76224
12.9409 90.2433 -4.46201
-20.4777 126.288 6.42007
-4.1723 110.717 3.76819
-4.17747 114.078 3.8887
-19.6811 129.496 -0.0624539
-8.42555 121.988 3.48371
-11.3037 137.374 -6.42404
-14.2235 120.015 -7.99173
-11.8484 101.752 -15.2519
11.8359 117.096 -4.22665
7.78888 85.3211 -3.31481
4.28784 77 -4.22858
2.89379 86.2352 -0.567053
2.11686 90.6299 -16.2923
-5.7174 113.631 5.00701
3.92256 124.92 -12.0463
-21.0376 129.023 4.3689
1.95277 124.572 2.88601
-14.3315 120.651 0.833016
-0.26875 146.727 -4.59162
10.2789 144.5 -0.0534032
1.06252 92.2352 0.857486
8.24405 125.679 1.3331
-10.2184 79.128 -7.41451
-8.17476 148.722 2.3514
-19.6016 118.47 -1.57713
-13.924 105.757 -6.49203
13.4784 109.775 -5.32591
6.0684 120.085 1.93147
-14.7924 99.2225 -14.315
13.3712 137.922 -3.77614
14.9481 75.4679 -7.24962
15.6432 149.414 -0.374854
1.87383 74.046 -6.16218
-3.02786 102.492 2.41334
-4.79549 103.972 3.39444
4.6185 138.966 -8.17955
-1.76848 73.5913 -6.72602
5.66272 86.8976 -1.50519
-16.9806 127.966 4.9868
-11.9577 127.702 -10.0671
-13.2422 106.696 -14.3039
-8.64624 94.5275 -2.50474
-1.2009 128.896 -7.77296
4.42535 117.125 2.10542
2.8387 122.945 -12.5495
-9.28415 88.5872 -4.53759
-7.45235 149.285 -4.26708
-16.1954 116.03 -10.3055
7.36312 115.531 1.86375
2.42076 124.109 -10.9716
-19.5176 117.797 -1.40882
-8.95245 150.13 -2.75603
-20.1846 119.867 1.69785
7.68186 93.0149 -2.89388
0.706355 125.251 -9.49704
-1.35202 122.71 -9.65564
9.19858 109.636 -0.284735
-8.14251 137.543 -8.2763
-11.141 88.1603 -5.73569
9.13007 142.619 1.75868
-14.284 120.448 -5.92888
-10.4151 138.28 -7.08612
-13.2293 74.0984 -11.8231
5.79449 121.365 1.88089
7.92822 117.646 1.64852
-15.4633 121.078 3.7058
-13.3475 106.031 -14.2567
-9.69187 83.8876 -17.3996
-15.3922 131.512 -4.74378
-15.4356 124.888 -4.31056
-14.0507 90.5216 -14.4765
13.8336 109.392 -5.48928
-2.38901 91.0791 -1.15384
-12.1657 106.566 -3.24872
10.2908 80.9886 -5.0831
-14.9916 102.73 -12.5242
9.27725 143.691 -11.022
-15.4995 83.7149 -13.557
-14.8885 117.948 -5.12997
3.79057 79.8703 -3.47028
-16.2753 100.863 -11.1735
-5.82097 83.5222 -4.6993
-11.6043 104.036 -1.34258
2.01735 105.301 -17.3383
-1.21246 142.289 1.19193
-9.00196 143.055 -6.41714
-5.98647 106.33 -16.1147
7.65991 92.9993 -15.1732
7.81136 102.317 -1.09534
-18.3085 119.901 6.12239
1.7718 119.699 -13.0225
-1.10262 100.133 1.33235
0.588371 125.526 3.29838
-13.4028 75.1429 -12.9087
14.6092 75.8383 -7.25631
-21.6105 120.568 2.8297
-5.23097 138.119 1.63934
-13.0266 132.166 6.34874
13.0802 151.126 0.129604
10.6547 107.471 -2.00796
-19.1125 119.428 1.79944
-14.2421 123.686 6.08593
-13.3852 122.167 2.63949
-12.4571 133.645 6.9672
4.34716 134.61 -7.58921
-6.22607 85.4168 -4.71818
7.80955 127.945 1.98477
3.52587 152.78 -3.74228
-12.888 144.8 4.78379
-1.80607 126.694 3.6112
-3.85471 112.887 3.85857
11.639 133.588 -2.95792
8.19661 94.1022 -3.09933
0.397549 141.239 -5.15116
-5.61396 151.281 -3.08866
7.04377 96.8982 -1.63563
14.7253 129.508 -4.6167
-14.4121 84.4606 -11.902
-0.4621 128.925 1.7182
-14.728 89.6713 -12.187
1.84686 121.359 3.60923
-14.1784 124.956 5.98769
7.87973 139.963 1.25713
-4.97857 88.262 -17.8099
-10.2498 103.345 -0.769362
-2.60474 80.0594 -3.67615
-11.8338 108.004 -3.4112
-1.86362 73.4989 -6.74061
12.3485 141.985 -2.10821
-16.6205 111.55 -5.35566
4.74288 127.12 -11.5258
-15.1966 122.695 -6.2501
-1.80656 141.359 -5.35262
-10.8082 143.9 -4.47737
12.68 79.0848 -15.8186
-2.60295 109.934 -14.647
-0.0962691 125.155 -8.90797
-9.85592 80.2385 -6.79768
-4.39703 80.208 -4.47074
-16.5391 107.412 -8.8575
-13.864 99.6227 -6.26122
-1.52286 105.213 1.71417
-9.67677 80.0093 -17.7797
-14.3647 124.508 -5.52903
4.95443 133.126 -8.24408
-3.21868 132.677 1.86367
-15.008 134.584 7.40889
3.21705 120.717 -14.0414
-10.8697 110.16 -0.961801
11.7649 119.404 -4.00449
-17.2389 134.692 7.0042
5.77658 95.2948 -15.1661
-13.9639 128.004 -5.24301
13.1245 127.857 -4.3755
-13.8924 143.28 5.50818
9.8496 153.001 -1.24994
10.6833 127.32 -1.21188
4.16088 141.22 -7.88784
-6.20302 95.0448 -0.657655
-14.8157 104.386 -8.77593
14.5226 108.547 -5.61959
16.7633 140.906 -0.343608
-17.8304 137.965 4.62228
-21.4459 117.576 4.32021
-0.403119 120.572 -10.5492
-14.6129 109.931 -13.031
7.01778 98.5353 -1.17598
5.02307 106.46 0.249786
-7.06411 131.061 -9.94875
-10.4784 149.07 2.33982
-11.4824 96.4405 -15.7882
4.92675 106.952 -18.2534
-1.436 83.8027 -17.6068
2.78768 134.888 0.897452
-10.3103 132.172 -8.79221
-21.3863 116.688 5.30895
-6.80896 92.7958 -2.78805
-8.06572 151.161 1.2731
-1.3469 111.918 2.57641
4.70466 155.063 -1.55282
12.3132 124.152 -4.31596
7.23382 82.1024 -3.1959
-0.0889187 126.25 -8.60564
-4.91778 111.815 4.43029
-15.7551 141.19 5.45364
-5.3923 84.298 -17.4824
6.33448 102.94 -0.783305
-4.89066 123.933 4.08268
0.0564886 89.7109 -0.535584
1.49763 113.533 -15.7914
-14.3849 126.389 -5.78784
5.79715 112.986 1.76325
11.3189 110.508 -3.61714
-10.7271 122.628 -11.3368
-8.37153 144.611 3.27377
14.9836 82.2271 -7.38432
3.84182 146.449 -7.09928
-14.7744 88.9432 -12.3799
7.56724 132.956 -9.89761
-11.6761 126.4 4.40908
-13.8524 122.117 -5.21087
5.82036 132.041 -8.74986
-12.8244 75.725 -13.3953
-18.5962 136.086 3.90612
14.436 79.0951 -7.52856
1.76528 115.562 -15.2577
-9.16688 142.364 4.77771
-2.20196 92.8134 -16.3262
1.4578 142.562 1.61443
7.23669 95.9793 -2.2301
-13.2063 135 7.18044
-2.68285 78.9692 -18.2993
10.125 79.318 -16.0547
-7.09687 132.492 -9.84225
-4.44839 97.8063 -15.6326
-11.6476 145.566 -0.183445
-11.2199 145.149 -3.10724
16.2251 109.341 -5.54906
11.1409 142.655 -1.83943
-14.8937 104.007 -8.96738
10.8131 95.116 -4.30497
-16.5537 140.943 2.44957
-7.10578 80.7393 -5.65698
-10.1856 107.684 0.85309
-7.58391 110.031 -14.6857
9.08724 102.445 -1.5912
-18.7682 135.975 4.93417
1.38846 99.7405 -15.0449
8.63488 101.662 -1.59631
15.2816 84.0895 -6.67849
-19.2431 121.209 7.09
-16.5537 136.086 0.552183
-4.4035 123.174 -9.98721
10.7027 137.526 0.572543
-11.2772 122.767 2.67937
-2.39504 111.057 3.2118
14.3894 139.541 -3.40529
-13.0653 117.988 1.38304
10.3123 90.1461 -15.3897
-11.2768 142.163 -4.90205
16.5731 137.11 -0.72295
-14.2827 125.336 -4.19651
7.42021 110.083 0.85906
-1.00974 133.226 1.92945
-14.1205 142.259 6.00506
12.5584 106.349 -5.14684
12.179 109.203 -4.76427
-4.90666 151.308 -2.80056
8.37844 83.6671 -3.71625
-4.12913 124.972 3.61469
-5.69817 136.602 2.20967
-1.62227 76.3921 -18.6612
-1.58861 139.635 1.79136
-13.3171 143.665 0.876092
-14.7201 89.5427 -12.0573
-12.985 84.5417 -8.85637
-3.85683 81.973 -18.035
-15.9676 115.344 -3.60533
-0.213877 91.9204 0.558269
-17.3355 137.709 5.77402
8.27668 89.153 -3.02743
-10.7309 73.2812 -10.0236
-7.06567 83.3746 -18.2693
-2.51211 96.6224 -15.0572
-17.6193 138.162 4.76403
9.1686 152.388 -5.29866
-12.4746 123.545 5.58583
-10.2295 82.333 -6.17097
-3.8345 108.105 -15.333
-3.08041 134.441 2.20251
-14.7168 89.0559 -11.7856
-18.8859 119.924 6.58647
9.8512 140.858 -11.4763
7.05211 141.63 0.929324
-12.0783 83.9605 -7.32175
-6.77628 152.756 -1.46043
13.8031 151.4 -1.93755
15.3829 110.034 -5.56197
2.95182 96.8238 -14.831
-2.62938 96.6139 -15.081
-2.26127 129.574 2.90605
-4.73345 126.8 -9.33022
-11.0719 90.4876 -15.3444
-10.1804 122.401 -11.314
-15.2206 117.733 -3.90633
1.52855 111.005 -16.4041
3.52343 85.957 -16.7758
18.4425 87.4313 -5.12949
1.19049 80.5352 -17.7115
-3.98127 94.6632 -15.5492
10.6547 84.6304 -15.371
9.03199 120.323 -14.7646
6.23146 117.976 -15.4284
-9.65147 134.119 -8.39528
-10.1164 91.7424 -16.4046
-10.9337 117.6 3.42745
-10.5241 96.6802 -15.8189
-12.3179 122.536 2.98561
-15.2951 143.191 2.7091
-14.3202 104.457 -12.2646
-7.26622 121.493 -10.44
-3.33342 103.904 2.60734
10.1394 124.483 -12.1663
-19.5069 129.374 5.71437
1.84608 121.125 -12.4568
-19.6292 133.809 5.12341
-15.5342 118.674 -4.06324
3.67648 102.519 -16.6493
-10.7753 124.999 4.1822
-9.60629 127.766 4.43505
4.56886 84.5957 -1.56203
-5.65186 115.708 -12.7896
-10.1573 93.4548 -3.36934
-12.9413 106.987 -5.2364
-4.16229 113.476 -13.6826
-5.21776 145.434 1.52737
2.58415 137.569 -6.3031
-17.61 119.9 1.25348
-15.2387 118.94 -2.26778
-1.23848 95.8576 1.60419
-22.1212 118.949 4.66038
-6.43752 107.498 -15.9328
-10.6571 112.357 -0.360767
2.4353 122.314 2.83785
-8.02494 115.02 5.17877
1.51606 86.8023 -1.22478
0.298109 119.978 3.77231
-7.16339 84.0466 -18.174
-21.9454 124.6 1.25364
-3.8795 83.7935 -17.3978
6.93094 112.136 -17.8411
-3.71079 122.486 5.23199
-15.6322 118.175 -3.34573
-0.361543 125.954 -8.6145
-5.99088 125.431 4.13399
-22.41 120.23 3.15086
-6.29775 125.114 3.71297
10.5776 90.6556 -4.09863
-4.69495 88.023 -3.89806
-9.72367 136.617 6.0131
-19.0084 132.055 6.76453
-3.09334 105.386 2.59856
-13.3951 86.1171 -14.761
-12.4147 138.626 -2.86496
-13.0497 109.777 -14.135
-19.5224 127.11 -1.62033
-3.48063 74.9932 -5.42459
-6.90266 142.751 -7.09745
4.74395 108.282 0.724901
3.42898 128.505 2.37733
-8.23725 144.929 3.07366
7.78175 96.8464 -15.4832
-2.51582 107.771 -16.0318
8.68594 103.8 -16.8627
0.778905 109.56 -16.7434
-8.93547 82.5906 -17.2016
11.0947 91.9279 -4.34394
14.9551 95.9435 -4.91842
8.28151 108.031 -18.0392
-10.1077 125.761 4.12018
-12.5691 123.534 5.65537
6.20369 139.27 -9.86717
-15.9119 99.8642 -11.9651
-17.239 138.743 4.84861
-14.1376 101.236 -5.85838
-15.9392 117.312 -8.48678
9.64345 105.209 -17.4289
11.0269 111.689 -2.95663
6.93091 132.527 -9.37316
-15.8427 100.073 -10.364
8.37414 128.122 1.42668
-4.71567 115.905 4.45562
-2.93623 120.202 -10.2948
12.469 87.7003 -15.4961
2.54862 107.658 -17.672
9.63499 80.6954 -16.2538
-13.4925 127.834 -5.8909
5.17501 109.235 -17.7256
-16.6931 109.222 -9.57239
-8.97403 97.7783 -0.51734
-0.243249 100.098 0.677686
-7.62404 116.838 -12.8401
-14.1552 81.6173 -10.5429
-5.53374 107.31 4.03143
-9.66016 75.3501 -7.72593
17.8426 95.9015 -4.70919
-6.48498 86.8609 -4.65957
2.52616 125.409 -10.4593
15.5077 120.72 -5.11963
-14.9434 118.835 -4.25634
2.43383 131.006 -8.63839
-9.42989 109.403 1.87929
-6.08602 100.656 -16.236
-5.89409 113.697 5.16496
-2.3435 79.0315 -3.87425
-14.8972 110.691 -12.6999
10.4485 125.206 -1.2391
6.93712 95.4416 -2.03797
-2.35605 82.5921 -17.5254
-5.2808 135.207 -8.80735
4.68837 92.9702 -15.1087
12.5137 79.4008 -15.769
-13.7456 132.753 6.48521
16.6223 92.0637 -4.12032
6.71402 118.505 -14.7029
0.111527 153.288 -3.10928
-21.271 128.705 5.56951
-14.8611 83.3076 -14.3734
10.206 128.426 -11.7493
-13.2171 91.8352 -7.75962
-14.8055 122.6 4.28704
11.796 100.169 -4.8705
-8.30844 137.25 -8.40177
9.21829 146.852 -0.173606
-22.1571 120.218 3.12764
7.5157 86.0093 -3.15189
-17.9768 135.928 1.73544
-1.84559 151.538 -3.46619
-15.9256 141.611 4.94456
-20.8019 120.067 6.49152
-10.8199 112.153 -14.4743
7.59476 94.4401 -2.92318
-4.85554 108.856 -15.1164
5.20775 142.379 -8.61949
-13.9763 120.267 1.36544
14.3193 91.1652 -4.58467
11.4646 129.036 -3.18992
-15.4516 138.519 0.520106
-10.7879 97.113 -3.22957
-0.304323 111.588 2.06262
-4.43424 80.8314 -18.5279
-11.2015 127.435 -10.0985
7.04878 96.1546 -15.0971
-5.14171 134.252 2.36816
5.3683 108.328 -18.2129
-16.2406 101.57 -11.203
19.3833 92.139 -3.26955
16.879 146.562 0.424214
14.1944 151.672 -1.3544
-14.4211 119.779 -6.23868
-11.0917 122.517 -11.2138
7.31237 135.068 -10.2438
7.53931 111.468 1.16995
0.0502097 86.2356 -17.3848
16.1646 147.355 -0.00200096
-9.44221 80.4598 -6.49
-1.12256 85.7923 -2.80512
3.96328 119.042 -14.9521
7.54043 91.1914 -15.2043
-12.7857 134.002 -4.86348
-15.8161 116.799 -2.83284
1.51482 105.135 -17.1008
-15.4131 119.022 0.608467
9.94559 129.126 -11.8032
-12.568 122.729 2.60274
-11.52 91.8684 -5.61197
-19.0682 119.045 3.35931
-16.8156 111.189 -9.29962
-7.33036 112.252 4.70681
14.9292 140.318 -3.20071
-8.87786 128.47 -10.8787
-14.2443 127.007 -5.2985
0.865721 108.179 1.04197
-18.9862 132.426 6.72394
-14.532 143.329 1.60347
12.1075 78.6541 -6.73367
-14.6238 131.785 -4.28082
16.9196 79.7618 -8.04683
0.32758 116.046 -12.8517
-15.1409 118.704 -4.91117
-13.3446 75.6524 -12.6056
6.22468 93.43 -1.89314
10.0617 95.6607 -4.03902
-16.0271 117.784 -2.35945
8.95503 131.818 -11.3046
-9.67438 127.149 4.21132
-17.8529 136.984 2.58476
-14.6642 120.966 -9.04145
-12.6062 72.5417 -12.3205
1.48602 90.7967 -16.3239
-7.40969 151.176 -2.78913
-2.70179 101.19 -15.3454
-3.23859 127.924 2.92043
9.78478 150.91 -6.94014
-10.7284 102.493 -1.71349
4.87347 89.3909 -0.75278
4.35532 124.507 -12.6347
-10.7662 77.2436 -17.5258
0.285303 122.214 4.10294
14.5522 104.288 -5.68352
9.27469 125.316 0.244336
-14.4989 101.711 -7.60768
7.81608 99.7926 -1.85737
-4.43752 77.9426 -19.225
-2.68147 150.96 -3.14452
-7.02316 131.451 3.58831
-9.98233 120.901 -11.7906
-10.3723 118.446 3.81565
-7.52754 142.41 2.95866
13.0034 119.111 -4.74128
-17.4323 120.791 2.87935
-11.0357 138.305 6.65873
10.3468 123.299 -2.42423
-22.2483 120.406 0.180707
-10.9853 105.057 -0.148904
-17.6427 132.141 -3.5166
-3.88454 141.909 -6.0331
10.6067 132.948 -0.278072
-10.1489 93.8673 -16.7058
5.01703 103.346 -17.1068
-14.5305 121.566 -5.36054
3.0719 95.1 -14.9335
10.1643 152.6 -1.72142
-8.53551 137.251 4.05383
13.2211 133.061 -4.17961
-2.7445 96.3332 1.46148
-10.6864 132.678 -6.89141
7.65072 92.7456 -15.1878
-11.4238 126.182 4.24259
8.72593 100.765 -2.30165
-13.9047 75.3414 -15.6974
-12.4715 123.034 -10.7764
1.47001 78.9503 -4.12468
-4.46765 101.851 2.87962
-11.5714 130.412 5.73358
-11.7668 125.999 -10.1921
-5.76551 145.07 1.71417
-14.1061 129.086 -4.59538
-8.5481 107.262 3.20002
-15.2086 141.06 0.921836
0.628437 98.1777 -14.7356
12.0062 107.724 -4.42122
-18.8943 135.91 4.17862
6.87927 128.546 -10.4535
17.686 89.861 -3.57738
2.47282 135.698 -6.49427
-2.47643 131.759 1.9198
-9.91407 114.234 2.76955
8.22149 104.087 -16.8325
-8.45507 141.596 -7.01005
-4.93086 74.7317 -6.5448
-15.2307 120.035 -5.14771
-10.998 127.321 -10.0805
9.51028 124.491 -12.0193
-1.15679 97.4008 1.53654
-20.0297 128.674 0.170515
-5.51598 96.3245 0.542328
12.316 104.012 -4.58708
-13.3373 124.944 -8.03063
9.1982 142.428 1.73743
-0.191979 150.698 -4.30809
-13.6106 75.7194 -12.3402
-12.5057 135.674 -4.23308
-10.2396 103.294 -16.0049
-9.11567 152.152 -0.134143
-11.5416 112.514 -14.2645
-12.66 141.55 -2.95508
-8.09396 100.61 1.08094
-7.2319 83.8235 -4.96416
-12.2177 98.7987 -15.6123
9.01352 114.702 0.280744
-9.30139 121.642 -11.3265
7.80063 117.085 -15.2983
-11.5892 113.064 0.398302
-10.9921 93.0057 -16.245
8.98083 128.24 0.588781
-8.1401 112.993 -14.2712
-11.0923 128.966 -10.0287
4.58867 144.933 -7.76102
-16.2651 102.704 -11.627
-1.42004 73.1895 -7.09587
-11.5166 95.2271 -16.1465
-20.7602 118.356 1.08826
-4.67987 108.157 -15.2786
-0.586829 119.189 -11.022
-13.4646 128.322 -3.71467
-14.7792 143.045 1.76726
-3.64595 94.6756 -15.5199
-7.43618 99.4536 1.01194
8.18228 99.0915 -15.9213
-9.57125 95.4841 -2.03139
-8.32447 78.5704 -6.48441
4.56389 111.392 -16.8379
5.5825 154.904 -1.39415
10.8001 88.0638 -3.70621
-12.6215 78.3421 -16.7424
-13.4159 136.182 -4.93006
-18.8617 117.121 3.12558
9.97629 152.486 -3.12747
-8.90174 131.655 4.84357
-10.61 147.427 3.7129
0.16381 90.1376 -0.0646479
14.4029 136.129 -4.13627
-18.7606 132.476 -1.89899
-15.3091 133.516 7.45907
2.62613 142.653 1.8577
-16.1207 140.479 1.57488
-20.3543 125.777 -3.34409
-1.56942 81.4582 -17.5058
17.4874 87.7696 -5.03203
-1.22584 98.1259 -14.8178
-14.9471 87.7077 -14.5501
7.13547 140.93 1.48994
-7.95107 143.845 3.06187
1.40629 96.4238 -14.9031
-2.55637 90.5098 -1.83713
3.89039 85.0954 -16.7723
-1.40727 136.032 1.7224
12.2744 126.248 -4.17273
-13.9268 104.552 -13.232
-14.5839 84.3981 -15.1436
-14.8435 75.7566 -14.4587
-7.8685 105.646 -15.5537
1.79317 110.042 -17.2584
17.3695 86.3781 -5.59517
5.32447 81.1275 -17.1082
17.8996 90.1615 -3.4245
-7.46039 99.529 1.03971
3.77656 137.499 -6.91064
-14.8356 118.059 -8.84695
9.32458 113.315 -16.4967
1.47362 100.505 -15.5101
17.0877 83.2508 -7.34827
2.32371 150.766 -5.345
-1.3466 120.527 4.00451
-2.09347 113.27 2.90516
12.667 107.484 -5.11643
3.45344 110.65 1.10598
2.45846 86.7357 -16.8639
-9.66561 143.854 -5.68849
3.70693 126.935 -10.791
-15.9807 105.772 -11.3321
-5.9732 104.462 -15.3154
-9.57432 111.085 2.02988
-18.7608 129.514 -3.08698
11.1356 109.076 -3.07188
11.6008 103.195 -4.09993
-12.18 103.551 -15.4789
8.25195 133.72 1.04452
3.47785 95.9564 0.0390593
-13.5576 90.8112 -8.43021
-2.80693 81.5676 -3.45547
-15.1764 117.849 -8.62026
-10.4266 112.962 0.574728
-8.64794 92.9795 -17.1683
-1.14912 129.741 1.74982
-15.3137 97.4945 -13.7731
12.4257 85.4443 -4.03939
5.1693 82.6651 -17.1037
-9.12072 101.258 0.0196363
-20.7255 128.832 2.93445
9.16738 152.417 -5.21469
-8.93167 98.2745 -0.270056
-7.46067 119.314 5.59644
-16.3981 119.372 -1.60579
-0.58348 125.549 3.96222
-12.4737 136.775 -3.00033
-10.4696 83.0271 -6.01209
-0.397568 106.271 1.14729
-14.0821 116.237 -12.3138
-12.2936 123.023 4.8554
14.1439 146.907 -1.31433
14.271 144.985 -1.94186
-16.3115 106.942 -10.1593
-21.0241 126.836 2.69072
16.6109 135.327 -0.538463
-8.32429 116.196 4.87302
-0.00720939 98.9725 0.711566
-14.8121 117.264 -4.63992
-2.4757 123.5 4.53319
-8.15055 86.1168 -5.12999
-6.13338 129.314 -9.36173
-11.5641 132.834 -6.11696
-6.48597 149.072 -4.4306
8.95764 101.967 -16.626
-14.8744 89.0374 -14.5372
-16.3451 105.908 -10.7092
-8.15997 123.789 2.37747
-10.4509 103.131 -1.11326
-14.7869 89.0909 -14.5485
-15.5115 118.832 -1.39807
-16.2837 116.681 -1.26267
-14.6064 107.17 -6.29377
-15.4172 132.964 -3.06034
-9.94333 96.9871 -1.92982
11.8969 84.0637 -5.64308
4.84093 127.881 2.22352
2.92948 150.419 -5.72846
-0.967866 88.8959 -17.3698
-5.13319 119.972 -10.7682
-13.0558 99.8711 -15.0854
-11.0932 105.533 -0.799862
-5.20574 92.2888 -16.9261
-16.1244 119.421 -7.08683
-8.72801 113.234 3.85318
13.9133 93.5272 -4.82597
11.2091 78.9017 -6.02629
7.771 134.336 -10.9579
0.743059 118.965 -12.1253
0.56471 77.0348 -18.0187
-5.56293 87.9898 -4.21125
2.43461 123.253 -11.8115
-14.1211 124.97 -4.7824
10.8406 77.8408 -16.5349
-12.8909 119.317 -11.2155
10.8774 124.709 -12.2973
1.24753 93.0135 -15.5711
-8.76702 120.823 4.53602
-21.2726 125.362 1.887
7.71908 153.275 -2.66123
-14.5206 116.14 -0.94387
-10.4581 107.358 0.299816
-3.45384 110.637 -14.7506
3.16062 115.208 3.08395
-14.3344 120.408 -10.2836
-1.6428 108.825 2.2611
-6.87188 91.2587 -3.54997
7.79409 134.812 -11.1198
10.8284 145.418 0.837275
-15.9705 119.833 -7.20155
9.42454 112.594 -0.163774
-6.30519 125.767 -10.0859
-14.7228 105.37 -12.0518
-17.6547 120.222 1.69742
4.61206 108.163 -17.9553
-15.589 116.533 -2.14684
-20.7398 121.89 6.55339
-15.3886 118.933 -4.0629
14.8474 107.118 -5.68929
-12.772 82.4957 -8.29319
-15.3902 92.3956 -12.9993
-4.6555 90.4201 -2.79575
10.1543 150.721 0.262646
4.7884 91.8237 -1.12684
5.09715 142.476 1.18572
-18.1021 136.515 5.62407
-9.46915 131.729 -10.3961
10.7337 80.5836 -15.9986
1.91546 100.84 -15.6857
12.2205 95.1114 -4.75624
-10.0935 149.937 -2.14406
-8.64631 75.702 -17.2659
-7.53559 119.417 -11.834
7.64513 74.7089 -5.75369
10.8745 121.409 -3.27505
8.30773 125.885 -11.4395
-3.06935 116.027 3.836
5.6285 142.379 -9.02642
-8.64752 87.743 -4.65781
-21.0433 118.722 0.892047
-8.37293 126.532 -10.5429
3.03626 91.7406 -15.8929
6.43714 101.853 -16.2762
10.5724 109.915 -2.03326
12.412 110.864 -4.75843
-15.6143 123.631 -5.27143
9.77892 96.4089 -3.96498
-16.7176 112.217 -5.23561
-14.0122 90.5022 -9.74343
9.84496 116.385 -1.80969
3.38962 96.5687 0.200991
-14.0296 132.795 -3.49308
-14.3195 90.5747 -11.0926
-20.1182 119.174 -0.186439
-18.7765 116.764 4.62009
11.6779 77.2084 -6.93417
-2.21516 130.753 -7.6032
2.4457 111.247 -16.9728
4.72226 107.242 -18.2056
0.608735 128.428 -8.25898
6.76285 151.099 -6.15926
-10.3951 140.029 5.93793
-10.9146 124.121 -10.4632
-13.5181 86.8088 -14.5449
1.12495 80.9594 -3.06432
7.0707 99.5226 -15.7188
-0.757024 93.7734 -15.8244
10.1402 74.1667 -6.43448
-18.4475 132.064 -2.89936
-12.7842 105.179 -3.5229
-16.2598 129.402 5.47797
-5.78117 82.9298 -17.8874
7.98862 133.638 -10.9217
-9.82959 140.901 5.67692
-6.09484 85.4188 -17.8527
-10.2049 120.575 -11.8914
-9.5466 76.0312 -17.6266
-0.52861 132.081 2.07933
2.83418 99.0763 -14.9568
3.63174 86.4232 -0.949817
-16.2377 102.995 -10.2876
3.91794 90.8848 -15.803
16.7163 144.525 -0.0779417
-19.6383 130.29 1.15537
-16.101 119.704 -6.4518
7.26311 120.645 2.13807
-0.0104118 110.494 -15.3222
-5.64094 145.513 1.6918
3.37979 92.0791 0.204867
-15.8701 119.553 -3.96194
9.56432 145.644 -1.24489
-6.26961 109.778 4.37322
-16.4381 107.458 -9.86939
0.798858 109.587 -16.7391
-0.428255 95.8537 -15.1422
-10.774 134.018 -7.09156
-12.729 124.616 -9.52075
-21.119 127.501 2.82182
7.08754 82.4721 -16.7793
-3.61303 78.5024 -4.38797
-20.4322 118.25 0.537531
-4.16405 134.148 2.39182
-9.21614 83.1836 -17.2856
-17.204 127.619 5.01428
2.43127 91.3072 -16.0583
-9.41415 98.9392 -15.7862
-14.4512 121.476 -9.54375
-0.654018 119.72 3.73184
-15.1508 99.4089 -13.9833
-6.17239 138.914 2.05937
-2.91585 116.16 -12.0081
-13.6337 131.397 5.61912
9.38568 90.9797 -3.59447
-15.0833 121.054 -3.77657
6.07432 98.5032 -0.675975
-3.857 142.697 1.69823
6.36777 134.228 -9.23692
-11.6759 107.277 -2.94555
-14.6709 134.128 7.45669
-13.0269 92.156 -15.1533
0.756994 132.144 1.61022
-15.9872 117.896 -1.66888
6.15163 114.502 -17.0082
-14.9571 120.36 -1.7056
14.0515 122.12 -4.87195
10.7967 125.494 -1.96821
0.812231 116.784 3.77468
-13.7078 121.887 -8.45917
-5.25583 152.988 -1.66771
3.81776 106.569 0.443821
-15.7895 116.175 -2.72258
8.81689 154.143 0.0402295
-2.9127 116.145 3.83123
-7.08811 97.0628 0.00172673
-16.3189 115.811 -2.33545
10.5947 146.503 -1.35336
-11.5192 97.5775 -5.06686
15.5287 93.4779 -4.72034
17.1102 140.359 0.382673
7.71833 143.359 -10.4164
-6.71158 103.028 -15.7212
-8.27733 147.802 -5.00238
-15.1335 121.233 4.05331
-21.8892 120.852 2.67758
4.01054 113.35 -16.1704
-11.7678 129.693 5.12872
1.43713 119.763 3.67897
4.13906 125.478 -11.9489
3.77968 117.254 -15.5759
-7.92873 141.047 3.50857
-3.57731 95.5369 0.723641
-2.07755 92.9965 -0.105162
14.0465 76.8588 -7.14897
-13.1604 129.702 -7.07733
3.95036 119.735 2.13844
10.7008 151.715 -5.37081
-11.3133 108.732 -2.2493
-16.9669 112.072 -6.27121
-13.878 76.3517 -12.7348
3.14084 96.9134 0.218739
-1.22313 110.386 -14.6256
1.87684 150.586 -5.21532
-3.7672 93.0708 -16.2977
-12.7082 104.119 -14.8287
-8.00841 100.187 -16.2341
-10.0906 142.216 -5.64897
-15.4516 117.871 -3.59265
-16.7664 108.92 -9.28323
7.1375 84.7113 -16.318
10.509 144.496 0.466732
7.38364 146.574 -9.13631
-16.0668 100.195 -11.4651
-16.0589 118.496 -4.48603
-10.1272 148.74 2.81276
-12.6371 74.4177 -16.1571
-18.8618 132.433 -1.62198
-13.9947 122.102 -4.81232
-2.47077 98.9728 2.1696
-1.30907 103.834 -16.0621
-13.3153 101.196 -4.72349
-16.0641 126.496 5.06511
15.4931 149.22 -0.428395
5.42862 112.094 1.39346
-5.95016 112.263 -14.5011
8.37835 90.7559 -15.3439
-11.0034 98.2154 -15.6472
-6.99464 132.633 3.78758
-15.0486 85.8889 -12.6552
7.35941 100.197 -15.8841
-8.74304 123.96 -10.0109
-12.4936 107.367 -4.58581
-4.95835 116.379 -12.246
10.6928 123.139 -3.07893
9.20348 120.807 -14.528
-3.57331 118.814 4.51141
-13.0351 108.088 -4.10368
2.14861 142.201 1.58227
9.58028 142.379 -11.4454
-18.8641 119.3 5.02152
7.20735 142.877 0.689633
16.9251 139.561 -0.0066671
1.62986 113.565 -15.8474
-4.83814 123.653 -9.9599
11.346 129.477 -2.0904
-13.2442 106.239 -14.3236
-13.9465 120.625 -10.9287
14.2675 84.3801 -6.38182
-4.24489 95.8374 0.760844
-6.73606 93.9661 -1.94418
8.07484 153.474 -1.47322
4.39823 120.251 1.78259
10.8328 126.438 -1.48742
-14.2513 93.5804 -11.0958
-1.31564 116.078 -12.0778
1.52395 93.0672 -15.4822
-1.20816 103.373 -15.8208
-9.19503 136.058 -8.47466
-1.12482 115.089 -12.5731
-18.548 120.778 -3.60646
-9.53658 101.026 -16.239
10.7685 97.7569 -4.41783
16.5328 136.333 -0.822796
10.7109 78.056 -6.20274
8.3586 123.654 -12.4385
-14.8557 120.415 -3.39782
-10.7837 73.8823 -9.54803
9.00289 104.846 -17.1828
11.821 107.177 -3.9231
4.12614 107.212 0.598577
14.369 102.754 -5.33091
4.45232 114.896 -16.2808
-17.6354 123.701 -5.07714
7.00312 149.332 -7.5731
-6.35331 80.4108 -18.0033
0.797475 127.364 2.15551
-11.2692 135.103 -6.47033
7.66951 139.626 -11.0178
9.67776 139.636 -11.4027
-9.92045 126.97 -10.2855
6.07494 83.0883 -2.27125
10.513 117.082 -3.0365
9.58369 123.141 -12.5767
-16.2619 109.419 -6.23225
-9.88498 85.2408 -5.42733
5.79549 144.273 -8.97509
-9.40213 127.478 4.2981
-16.3601 105.87 -10.4453
-18.0705 134.142 0.845546
-5.0274 113.778 -13.8251
7.65929 77.7953 -5.0858
2.94672 113.889 2.57483
-11.9181 119.52 -11.5217
-10.0008 137.917 -7.3096
5.45411 139.214 0.316319
-19.1939 124.078 -3.53366
-16.0187 117.805 -1.7539
16.866 140.708 -0.124514
-13.6575 134.955 7.3122
-16.6092 119.19 -3.5486
8.9252 127.741 -10.7969
-5.76837 87.0748 -4.42862
-4.85661 132.369 2.27589
10.0384 151.216 -6.81114
9.3068 148.006 -8.89903
-3.13323 115.608 -12.2959
-13.5054 122.855 -10.4146
-8.59869 92.2985 -3.3463
8.06375 127.425 -10.8647
15.0425 112.453 -5.4537
-1.74388 146.623 -4.07422
10.1625 152.424 -3.03276
7.81009 133.468 1.06279
-11.3452 97.2568 -4.10415
-3.64142 116.808 -11.8045
8.0684 91.6098 -15.3428
11.4519 85.0859 -4.26821
9.76441 77.1613 -6.1967
16.1912 80.7388 -7.97927
1.06001 99.7573 -15.0835
5.74379 79.181 -16.8923
-11.8278 120.467 -11.2084
4.83537 125.086 1.95353
-16.076 116.173 -7.31044
0.318039 153.024 -3.38813
4.80302 123.461 -13.2694
-13.4946 128.427 -5.86779
-11.1828 139.783 6.65368
7.11956 121.137 -13.4823
-14.4488 96.5488 -8.96055
-7.74487 80.5446 -5.84533
9.11272 78.4248 -5.31767
10.8254 139.45 0.362584
-5.04933 87.9164 -4.04108
4.04384 95.53 -0.247678
-6.82495 129.331 -9.6177
0.690249 145.429 -5.19906
-14.3574 128.074 -3.40186
2.69624 143.971 -6.68384
6.68249 155.067 0.129479
-3.35018 139.258 -6.49218
-15.2206 121.413 -2.09027
8.73515 133.679 1.17324
-19.3321 118.746 -1.87423
-19.714 131.163 3.06163
-12.133 75.9053 -16.9834
11.1576 145.333 -1.90342
-4.96629 97.1214 1.14797
-15.3411 119.513 -3.00438
-17.7381 116.528 2.62941
6.07553 112.838 -17.2274
6.61506 83.8457 -16.6314
3.5559 76.9924 -4.28661
-12.6907 121.989 -10.6649
0.0731209 101.783 -15.7778
-19.2843 117.971 0.275577
-4.52969 91.6562 -17.2004
-16.3935 122.981 5.31517
1.2596 83.1608 -17.1264
-14.4901 74.7502 -14.1239
-16.0315 115.471 -8.53428
-3.97229 79.0014 -18.8584
13.2757 96.6381 -4.9502
-18.108 130.358 -3.08052
-18.7968 120.086 3.77517
-18.7937 135.632 5.25484
5.00834 154.583 -1.80077
12.3415 77.7767 -7.05528
12.1581 133.912 -3.1303
-11.8351 144.639 -0.421473
-13.3967 131.251 -4.6845
-9.90065 109.683 -14.5157
-13.3436 81.5877 -16.1551
-14.3047 122.734 -8.78008
-7.50218 108.616 4.27732
-5.24832 130.88 -9.11124
11.9597 149.125 -0.635815
-15.8932 114.986 -6.32323
1.06084 88.2389 -16.8395
2.71459 108.05 -17.516
17.2968 136.271 0.291962
-3.4723 95.0593 0.53061
-6.21838 123.9 4.79091
-13.3885 126.533 -7.70515
-10.2264 133.919 5.72466
-9.94391 126.274 3.51107
8.16006 109.026 0.28471
1.68866 117.202 -14.5442
-2.06244 119.19 -10.5341
10.9422 136.071 0.691125
-15.9667 135.061 7.33472
-5.21763 123.347 -9.91463
4.39525 85.1408 -16.7484
-19.6444 117.339 -0.723196
-5.50948 129.14 3.15293
-11.3148 144.884 5.05591
0.170037 115.617 3.67359
-5.52923 122.682 -10.0293
6.2336 111.037 1.15529
-14.7693 126.34 -5.75348
-10.2123 110.149 0.969081
-17.3096 124.001 -5.38458
-15.2588 119.749 -8.05109
-0.190143 87.2114 -17.4675
-16.0381 130.533 5.7812
11.5601 129.696 -3.49466
15.2707 142.868 -1.67588
10.4443 82.734 -15.7323
0.83269 147.73 -5.175
3.75545 88.698 -0.210307
-1.77391 141.713 1.41816
5.44692 150.715 -6.24569
-13.9655 128.303 -4.13058
-11.691 123.567 3.53253
-4.37502 85.4869 -4.08149
-6.594 86.3191 -17.9387
11.6589 129.463 -3.56082
9.61248 95.9872 -15.8162
6.78372 101.619 -16.1652
13.5242 75.0806 -7.20125
8.08671 102.28 -16.437
-10.5367 132.129 -8.16889
-14.9846 89.5042 -14.4761
-0.693162 93.0296 -16.0634
-2.50845 82.4426 -3.24526
10.024 92.3419 -3.83936
10.8593 132.513 -0.356376
-0.275661 124.523 -9.13108
-1.29248 94.7371 1.30056
-19.6766 132.222 3.87245
-22.6848 123.052 3.18587
-21.3012 116.716 4.42324
8.03529 83.5895 -16.4635
12.4588 101.659 -5.01845
-0.352398 79.4591 -17.8157
2.88496 132.573 -8.11903
-10.6611 78.9276 -17.1844
-14.5895 120.213 -6.34271
-21.8774 125.734 4.96021
-0.0768392 88.5739 -17.0555
-8.35243 89.2351 -16.1636
-2.84725 123.924 -9.67539
-9.56248 94.7851 -2.54604
-8.78061 77.8431 -7.1959
-1.50747 126.727 -8.31153
3.66528 107.897 0.855868
-4.94945 87.8798 -17.7492
-4.76371 84.1555 -17.3953
-13.4505 80.2701 -9.18635
-14.8868 75.9406 -14.8344
9.66403 120.247 -1.99649
-1.60099 76.0049 -18.6539
-18.5182 123.865 -4.36393
2.61926 87.308 -16.8662
11.181 151.162 -6.44482
-10.8533 80.579 -17.1148
-8.45912 152.477 -0.436668
-13.3645 92.9268 -15.23
3.02167 88.0465 -0.00108851
-5.80597 141.124 1.54378
3.51612 121.672 2.1389
-11.2598 126.997 -9.73058
-12.2941 127.962 5.29666
-12.6999 136.231 -3.02211
-16.1326 102.217 -12.2475
5.24069 77.0762 -17.2132
5.12067 142.448 -8.52808
3.41395 140.904 -7.20209
-11.3872 143.365 -3.24912
-14.0167 77.4887 -10.7679
-11.7905 87.8396 -6.45379
-15.848 140.589 5.66162
-15.6603 118.833 -4.61244
-17.2829 138.498 4.96578
-1.37792 123.749 -9.27449
-16.3357 114.815 -3.55864
-8.29217 105.613 2.73322
-11.5199 134.51 -6.26302
9.01911 118.068 -14.9409
4.21456 138.754 -7.53726
-10.4208 103.888 -0.384769
-13.1382 123.834 5.39122
-12.0615 107.123 -14.6081
8.18025 114.717 -16.0024
-1.0827 133.374 -6.87528
8.76523 127.913 -10.6922
10.9008 149.458 -7.77541
-14.9831 122.265 -6.92709
-8.41422 147.125 -5.35907
10.5514 114.002 -2.47445
-18.531 127.061 -5.12671
-8.89006 112.785 3.13905
-13.3146 90.3199 -14.5717
12.1194 96.4054 -4.8207
6.40385 122.548 -13.4745
-10.3532 123.111 2.68073
-1.44807 93.4676 0.443101
6.15232 123.614 2.38097
-10.0406 131.926 -9.80643
-17.847 118.828 -1.00691
13.6848 151.227 -3.88295
-12.9115 135.468 -4.30819
-6.79787 81.0816 -17.7089
-6.74696 90.5636 -3.72185
-11.6151 124.386 3.06402
16.155 136.789 -2.0268
-14.5662 101.675 -13.0558
6.68719 145.062 -9.2974
4.48594 140.951 -8.20194
-12.2219 97.9623 -15.6452
-8.40721 148.548 2.47165
-12.0318 100.54 -4.08399
5.96852 124.571 2.41578
9.28875 130.885 -11.7407
-8.4205 136.003 4.40952
-6.30214 121.238 5.03295
-15.1757 120.428 -7.69996
-12.6129 86.3735 -14.9765
6.59191 130.991 2.18084
-15.214 121.244 3.2448
-14.1829 80.412 -16.1574
-15.9459 96.9202 -12.0448
6.27119 117.511 2.0618
-5.01653 122.143 5.47837
-9.78469 97.7472 -1.65195
-18.0048 133.25 -1.36813
3.09102 110.653 1.12258
-16.64 126.644 -4.61888
-9.7653 117.835 -12.607
-1.0464 94.9183 -15.4664
-21.0534 126.781 2.7916
-19.3846 133.771 5.51677
2.20411 124.16 2.69612
-5.86224 78.8033 -18.6098
-8.14833 99.8891 0.913531
-10.7032 119.796 -12.0432
-3.78641 105.702 3.00141
11.8895 145.261 -2.15817
9.92659 87.4816 -15.2967
11.8495 122.879 -3.86771
-6.51878 110.331 -14.7546
-1.246 99.242 1.52653
10.821 141.716 0.716668
6.08314 86.1939 -16.2991
8.99194 119.63 -0.970565
3.47016 120.806 -14.1117
-12.8674 128.527 -7.73141
-6.40299 116.998 -12.5059
-3.80836 99.0277 2.23729
-7.80869 152.49 -1.04252
6.3988 110.949 -17.856
-5.63926 145.194 1.67332
-10.3231 110.789 -14.7641
11.0194 139.836 -1.38002
2.22697 111.32 1.46232
-21.7425 126.089 4.61581
-13.3958 120.727 2.00642
2.97534 110.036 1.0797
8.30127 100.611 -16.1862
-21.4081 125.148 1.25057
11.4463 130.885 -1.40894
-11.9 85.9872 -15.4068
-4.85178 90.0734 -17.7992
0.504632 131.593 -7.35569
-2.88655 125.539 -9.03311
7.91928 144.589 1.33452
-8.74576 104.649 1.64773
-9.99785 94.9008 -2.56565
-9.0269 96.3245 -1.21143
-7.53679 133.163 4.32528
-22.1322 120.53 -0.0547415
-8.77243 117.885 -12.8506
6.19068 84.8995 -16.4837
-15.582 108.751 -5.47246
-2.8605 86.9072 -3.44166
-5.7188 82.8072 -17.9507
7.1082 127.04 -11.0543
-2.59109 109.317 -14.8925
-8.44377 122.56 -10.2133
9.23669 90.2064 -3.48798
-2.17384 107.676 2.42469
5.36661 88.6737 -1.01039
-6.37566 137.685 2.68519
-12.8954 137.545 -4.28515
-0.117347 109.674 -15.7971
13.5113 89.6736 -4.26291
-12.7822 137.907 -4.07151
0.805885 81.4761 -17.437
-9.80877 131.658 5.53395
-11.0617 124.725 3.58534
-16.5846 116.712 -1.2061
-13.0203 100.202 -5.01229
-13.0588 85.4124 -15.5378
-9.34226 82.1638 -17.2138
5.63128 91.1877 -15.2544
-3.69142 119.207 4.66214
-4.39617 117.353 -11.8378
-15.9339 119.705 -6.40396
12.0042 119.274 -4.14396
-5.40099 78.2135 -5.1847
-13.9563 78.52 -10.3453
9.96056 143.409 -1.40823
-8.30079 152.719 -0.347516
-0.171998 135.589 -6.13668
-17.76 124.564 -5.45155
0.0820568 89.2571 -0.915998
13.2189 118.362 -4.85359
-4.56901 121.079 5.3402
13.1169 134.99 -3.13349
-2.67065 122.729 4.97271
-11.0039 107.578 -1.61034
-14.2532 124.861 -5.14299
