ply
format ascii 1.0
comment Created by Open3D
element vertex 1922
property double x
property double y
property double z
end_header
30.4343 85.6979 -3.08572
-6.9448 101.536 -0.0528655
-13.0836 121.944 -3.56195
37.0949 90.1669 -3.20747
19.2076 128.08 -4.61433
17.1353 96.0389 -13.1083
-12.0789 97.4856 -6.58687
25.1701 97.7913 -12.4041
0.951621 110.221 -12.5771
24.7127 120.427 -8.24696
23.6884 116.569 -13.9101
16.8545 121.396 -4.35371
31.1123 114 -6.39584
-2.71226 131.5 -6.16181
8.50332 83.2728 -13.3508
29.9141 85.125 -6.06963
-9.99709 129.505 -5.53901
4.86449 129.688 2.49529
-0.92821 78.95 -6.23509
13.0215 120.552 -14.485
13.9441 113.47 0.549417
9.64832 93.8553 -9.92821
21.5132 118.309 -15.1318
-6.41409 79.099 -15.7386
6.46215 87.1231 -13.1873
6.94177 122.323 3.16517
6.22917 99.025 -10.712
-6.86691 96.9751 -13.1795
-6.51589 120.201 6.4296
7.31703 94.1503 -10.2137
5.32408 152.529 -4.77553
20.7841 123.329 -4.05733
21.1719 105.066 -14.6408
35.1527 86.4131 -3.63858
-2.22184 99.745 -12.0312
-13.8706 108.198 -7.39337
-6.97198 141.965 6.77585
-13.0897 118.027 -0.899141
32.4415 99.7472 -10.0582
36.8609 105.449 -2.16665
4.51886 154.544 -1.99282
13.3702 132.293 -14.1882
10.432 142.908 0.28765
-12.5678 126.925 -2.05469
14.9988 95.5148 -2.263
-8.83568 79.1611 -9.21557
13.0457 136.845 -2.01876
26.2057 109.839 -1.70104
11.8222 133.728 -13.2391
32.5816 111.919 1.93365
7.98068 129.239 2.38507
15.0015 114.252 -1.60832
5.50305 123.252 -12.3062
3.48641 77.0612 -6.68363
5.14966 132.973 -7.66251
-10.9434 119.03 4.67932
-11.685 142.923 2.71908
-12.5363 121.147 8.01475
-15.7102 117.065 1.13208
41.1757 92.716 -1.70002
-4.78291 110.593 -12.0556
26.7859 104.489 -13.9856
1.91538 133.931 1.95252
24.1736 121.546 -9.16187
0.197627 102.278 4.41456
14.2487 126.674 -3.02719
14.07 123.623 -2.90802
-7.14602 107.486 -12.3885
14.1369 131.29 -3.02975
14.1311 84.2621 -9.19146
10.4615 88.8058 -9.4223
-15.1472 136.81 7.78703
9.6404 148.182 -0.0505259
32.0581 87.3847 -4.85937
-11.0229 137.988 9.28032
-12.2869 116.676 -0.548595
11.3924 126.384 -11.1813
12.359 112.894 -14.843
-11.674 127.935 -4.99891
4.24079 147.625 -7.19014
38.698 88.3412 -4.45798
1.67635 146.302 -5.65505
13.4826 98.4791 -13.1506
-12.8415 121.622 -5.34016
13.7664 87.9409 -9.48934
-0.559888 74.629 -7.64838
-11.3129 113.497 -10.0765
33.1631 103.22 1.96035
0.556926 130.794 2.64378
18.7463 117.571 -15.5875
-7.43391 81.7689 -7.59267
31.403 118.233 -1.24352
-16.9731 119.919 6.91216
4.349 110.442 3.30932
27.7084 103.226 1.89701
-17.7983 125.54 7.66837
-10.0853 82.4009 -11.3494
0.185617 80.9855 -5.45671
-13.6269 121.28 5.53912
-12.631 117.994 0.216567
12.8543 98.2122 -0.547633
-11.9178 104.437 -9.01205
27.8035 88.1895 -6.05964
-14.3043 130.647 -1.65092
-13.6657 107.912 -3.97663
2.49681 120.679 -10.8387
24.3632 103.703 -2.40344
33.8899 110.998 -4.86573
19.4298 131.909 -0.370677
1.1769 131.091 2.36729
-2.70864 106.197 5.03436
17.9012 117.701 -4.14587
-10.2988 148.282 0.213466
15.9236 108.949 -1.38423
15.1647 85.4919 -9.72974
31.7677 100.755 -10.3216
26.4982 109.462 -1.42708
9.21902 78.1593 -6.36151
21.5804 94.7104 -2.58203
-13.7465 112.91 -8.05294
-8.55739 132.849 -6.69148
19.2926 120.153 -14.8342
-7.2381 126.26 5.85387
-7.98757 78.4194 -8.99135
16.8001 114.624 -3.9353
-6.95848 137.499 7.40791
8.40006 144.565 0.653048
-13.428 116.821 -7.86521
5.31461 122.871 4.51105
0.332162 145.382 -4.77663
3.80365 95.7686 2.32047
0.539949 102.839 -11.9168
14.5102 103.859 -0.646913
-9.95691 147.242 4.61622
19.589 114.637 -4.27105
10.2569 136.637 -0.0191104
-7.49105 143.539 5.63048
-7.2859 117.608 5.54103
-5.82863 141.113 4.10189
29.2638 99.6839 -10.7437
16.5994 94.7351 -12.7343
-15.1176 135.735 5.63246
3.44276 94.534 -10.1278
23.9978 91.1166 -10.6509
32.8744 99.5542 2.25798
32.9109 113.229 -0.665652
-0.557165 125.37 -7.01622
-1.81838 92.5376 -1.87104
-10.9092 141.325 -2.53897
7.12609 95.4796 1.84189
36.1026 103.932 -7.42045
18.6262 100.765 -14.2091
17.9492 119.852 -14.2654
-11.75 119.995 1.44099
-1.71193 111.576 -11.4063
2.23269 128.22 4.11919
37.8124 89.9864 -3.52933
-7.76652 128.981 -8.47573
-3.38039 98.935 1.74833
-12.9694 120.089 -6.89445
3.97097 88.9942 -13.5367
18.1369 103.37 -3.80918
6.63795 128.741 -10.0277
-2.5871 121.941 6.25612
3.48728 122.924 5.16966
-13.159 126.715 7.6935
19.3292 82.2187 -7.83832
1.68101 116.314 -11.2432
-3.49908 74.2119 -8.91795
19.0982 77.5505 -7.11193
0.458626 102.482 4.50532
7.22621 131.364 -8.70466
8.86179 83.5897 -2.84453
1.46999 152.541 -3.89684
-3.71396 114.804 -10.4051
-9.24326 80.6254 -11.3956
31.4663 96.1013 -0.118577
6.52703 122.275 3.57671
13.1017 119.707 -0.924966
-16.5341 130.829 7.78572
1.98969 135.055 1.64778
4.61358 95.6222 -10.0967
4.0141 81.5022 -4.13678
35.7078 98.5268 -8.50226
0.0942585 95.7463 -11.1228
-2.83507 106.471 5.08723
26.5341 87.8792 -4.32258
-8.7181 119.946 -9.05528
21.3962 129.963 -2.01573
10.5156 102.509 0.660652
-12.9054 135.302 9.80923
21.4156 128.752 -0.907894
-5.98934 151.188 -2.97166
-11.9013 103.844 -8.75509
12.8163 116.772 -14.8711
3.49695 135.403 1.30637
22.0096 110.892 -3.78553
26.5674 114.422 -11.2764
15.9346 128.648 -15.2614
35.6091 94.3409 -7.98938
-9.2154 77.0395 -12.1124
-12.9981 116.674 -2.70357
22.4383 80.54 -6.54924
11.9899 121.636 -13.8198
1.30092 129.519 3.60923
-9.74379 105.402 -11.0683
-9.89669 77.4122 -13.8332
-12.2177 135.968 0.314754
-10.1303 127.943 -8.55794
19.9037 109.663 -15.2487
12.6665 100.08 0.00314535
-3.86891 138.548 2.27578
-17.9647 125.753 0.868073
26.0703 92.2368 -10.324
-7.52653 137.273 7.72124
-2.39103 124.004 6.08159
-11.0562 99.6085 -4.12766
23.559 108.961 -3.33822
9.7917 84.0105 -12.0246
14.6337 100.565 -14.312
-6.00843 151.062 -3.0534
-5.59914 116.46 6.58079
8.72606 135.385 -11.319
-15.5251 119.977 -1.70722
-16.4576 132.131 7.43288
23.4952 122.307 0.729757
1.87186 143.559 1.14005
-15.6568 130.066 0.12663
-17.0564 118.571 0.978561
32.4717 114.024 -0.0329491
29.3582 117.306 2.50728
2.10162 114.514 -12.6673
41.2028 92.5956 -2.38828
22.6845 91.081 -10.9696
6.65364 120.994 3.61262
23.3967 120.797 -2.88972
15.9523 92.4149 -11.9976
-1.6622 76.6521 -7.1768
0.089452 115.492 -10.0425
11.9441 144.008 0.0120003
-12.9695 100.994 -6.01755
2.73013 95.0822 1.45142
-7.18682 131.962 -8.2419
21.3377 97.431 -12.9427
15.2816 88.8658 -1.1074
7.39054 111.695 2.38248
18.2234 126.707 -11.9745
-5.97574 94.8101 -13.9532
-17.8759 119.529 6.17939
-4.51619 90.3646 -3.63404
-8.76612 110.486 -11.931
-5.02124 123.822 3.78787
-13.2578 116.412 0.00631638
17.8681 99.2061 -3.70922
29.9865 105.69 2.12215
-4.41641 103.772 2.64598
32.5021 112.954 1.12145
36.0805 99.5782 -8.20472
31.8287 116.619 -0.631024
-10.4632 95.897 -5.38979
9.38875 110.806 -15.6694
9.46469 106.573 1.31004
32.4378 109.803 -8.19237
-16.2568 126.278 -1.78722
29.1097 82.9685 -5.83894
2.41191 135.452 1.50199
42.2989 89.8099 -2.50306
-11.4386 139.106 1.71427
20.0856 93.5457 -12.2295
41.0896 91.0002 -1.42957
0.270519 82.8296 -15.3473
-6.61747 114.568 5.35214
40.1505 97.0985 -4.67593
-9.53352 150.261 1.37573
-19.042 121.252 3.6645
-1.16012 80.7455 -5.44266
-11.9307 124.27 -5.68126
0.84113 92.8185 -1.17023
-9.52597 83.157 -12.7971
21.7844 127.387 -1.05551
12.0119 80.2606 -4.14151
-7.70236 121.817 -7.71573
5.27493 143.935 -8.26858
-12.2162 129.195 -2.06391
31.5275 86.6509 -5.43306
-13.0207 118.643 -5.79326
5.56683 111.146 -14.3504
27.5587 106.406 1.30337
36.5396 105.927 -0.151763
-10.3771 127.969 -8.48054
40.6029 89.6999 -4.34346
4.4533 109.572 -14.7009
40.8343 93.8764 -0.845067
25.4624 90.4685 -9.71015
27.9724 83.5059 -3.46334
-3.83941 114.047 6.47248
14.9642 79.1079 -9.60266
22.2386 118.857 -15.1348
7.60098 125.884 1.99479
-13.0229 139.195 8.50845
32.3768 92.3395 -5.47097
24.6584 83.3971 -5.78186
37.9501 102.204 0.907577
-0.733368 144.118 0.845205
-7.43552 125.719 6.04645
0.886638 125.469 -7.43109
25.5059 114.445 -1.81153
-10.8455 121 5.62196
-12.4975 136.238 0.6089
-17.5942 127.19 4.71381
6.5153 104.311 -14.1894
2.53191 151.896 -4.92892
37.2723 104.41 -3.22647
26.0308 115.754 -0.63896
-8.92126 76.4478 -16.2533
12.9777 127.208 -0.385833
20.2042 118.322 -4.26851
7.9842 79.5452 -14.6337
2.10069 116.922 -11.8906
-9.72434 133.277 -5.00452
-11.6081 110.776 0.236553
21.9238 131.108 -0.860206
-9.8016 149.119 2.12764
4.61715 134.819 -7.05123
-5.10687 131.06 4.82065
20.4818 85.9947 -9.33115
-9.33743 87.9477 -11.2672
18.7947 116.699 -15.8133
-3.10258 120.912 -7.88259
9.42321 136.27 -11.3184
-1.92803 94.8007 -0.413368
31.8876 85.8606 -2.06817
5.843 124.439 -11.8701
-16.0893 133.807 7.73411
-17.7888 125.825 1.32656
3.33295 94.3518 1.0626
2.38304 98.2258 3.3044
0.0541919 116.91 5.78647
15.2338 113.566 -14.9898
-2.97563 141.292 1.63154
12.9432 78.3687 -5.66046
24.7326 117.407 -12.7656
-1.1285 146.461 -4.11573
11.4091 101.161 0.651206
-17.9353 118.953 8.70769
34.3552 92.2395 -0.324816
-15.515 129.554 9.35669
3.68524 144.703 -6.86577
-12.8001 117.487 -1.29026
0.43248 132.955 2.21592
-12.5555 131.744 8.85965
-8.63477 90.6104 -5.6102
1.22851 111.062 5.27489
-5.84036 90.2912 -13.6189
-18.2517 124.448 3.43291
-17.5663 128.162 6.71745
32.9276 96.1031 0.289674
15.4696 106.441 -16.0336
33.1977 91.748 -1.15305
35.4613 101.763 -9.02479
25.852 87.3772 -4.78764
9.73455 84.8229 -2.39341
-9.3634 150.751 -0.226626
9.38693 131.242 2.32925
7.9139 135.602 -10.6761
13.2897 117.867 -0.352483
-11.973 118.28 0.808741
14.3593 82.4177 -3.00007
-18.9841 118.378 9.13422
13.4264 85.5597 -1.86105
23.3047 102.639 -13.5957
37.3948 102.96 1.16495
15.8483 102.037 -3.03283
-14.7981 132.538 0.60024
27.5237 125.328 0.471997
-16.8382 129.739 5.02752
12.1181 84.9284 -9.35229
17.0822 119.006 -4.16974
16.2739 131.697 -4.65045
-11.4869 127.915 -5.36417
14.6182 120.546 -14.1545
9.31234 79.8586 -13.5055
-2.02196 80.9104 -5.59035
14.1429 94.545 -1.93559
19.2673 87.9162 -10.0337
-0.518993 76.1252 -7.09328
36.186 93.9052 -7.63366
-13.6696 114.387 -8.06514
20.9106 128.987 1.25571
-17.6698 118.618 3.90414
-11.9579 129.13 -3.39972
-13.1912 120.933 8.89057
33.823 111.463 0.191786
-16.2325 120.754 -0.594772
0.813959 126.511 4.09132
4.89421 139.637 0.322771
-11.2948 141.446 8.16268
-6.87523 91.6422 -3.68896
5.43151 81.8951 -3.82767
2.61882 82.1452 -4.42763
-3.85758 123.164 -7.76657
7.39858 81.0187 -14.4567
-8.63309 84.8977 -7.77773
-12.8341 102.961 -8.01593
-0.674531 123.696 5.99211
24.0285 117.715 -2.78491
-11.7596 123.866 -6.77765
27.4844 93.9219 0.130856
14.2704 132.954 -3.22662
20.3548 84.5525 -8.17746
3.88962 136.133 1.01516
17.1376 132.068 -4.784
5.32453 155.29 -1.32269
4.58479 129.066 2.57444
22.5007 124.276 -0.835665
34.4906 108.593 -5.91965
0.422064 75.4981 -7.16468
12.0619 97.7986 -12.4764
11.4957 125.084 -11.4355
27.3456 89.8518 -2.51421
34.6037 100.288 1.76756
-14.2846 118.151 -1.59945
19.5489 125.604 -4.35675
29.301 95.9881 0.440655
28.2673 119.902 1.64359
37.9778 101.318 1.31589
4.48552 135.612 -6.95109
-0.729839 98.3563 -10.6571
34.1481 98.3152 -9.53697
12.0626 120.766 0.965226
-12.3674 121.526 6.43447
1.70148 97.7202 2.99713
6.09243 109.962 2.44048
14.2684 91.0146 -11.2896
-10.679 118.814 3.99497
2.0305 104.654 -13.6698
-1.62881 129.124 -6.43855
15.3008 88.1647 -10.0571
-7.59133 141.526 7.65209
24.7585 88.8784 -9.45032
-6.65925 74.3389 -11.2396
-2.07415 126.545 5.16516
12.9407 136.135 -1.89372
8.7693 105.648 1.37867
23.496 99.4228 -2.32621
-2.40399 115.603 7.1961
-13.8046 125.35 -1.21784
37.66 101.634 1.363
16.2622 97.805 -3.06974
29.1232 109.929 -9.93826
11.0292 82.3508 -11.4657
-17.4268 124.091 10.2595
-5.10123 108.214 -11.821
32.6251 94.2335 -7.23099
-10.2958 105.8 -11.1799
-17.9766 125.003 8.77967
26.8666 82.844 -3.62504
2.11469 141.027 -5.74238
-11.3873 117.378 3.68974
-2.42416 132.463 2.98381
-8.58018 114.648 3.41155
6.85622 129.032 -9.88171
-0.690055 122.619 6.69708
12.2375 132.999 0.426069
38.4153 94.5873 -6.98647
-14.4759 138.352 4.66785
8.43565 90.4365 -9.44958
15.8701 127.643 -4.45171
0.18327 120.9 -8.22515
21.3742 95.3265 -12.4145
25.4621 95.9613 -11.847
39.0906 92.9042 -6.87074
19.163 88.3706 -10.2289
2.83473 148.979 -6.05551
-1.37549 150.754 -3.76017
-11.3192 85.1676 -10.3607
17.5594 114.858 -4.0587
8.10896 104.124 -13.6937
12.2733 129.386 -13.6962
-11.9803 118.703 -0.344037
24.8544 117.831 -12.6377
-12.3876 110.605 -0.348338
-16.7717 128.367 1.43641
9.91345 110.775 -15.63
33.755 105.825 2.5774
0.807977 110.444 5.28335
-1.81164 143.393 -4.2795
28.6668 86.7539 -5.57999
-5.58074 113.473 4.62507
-14.9255 117.856 7.496
-12.7606 118.172 -1.32623
2.09214 77.3306 -7.0873
16.0855 98.7086 -3.04134
18.0864 95.2722 -3.31022
26.7389 109.36 -11.8116
-0.36665 117.99 6.34459
-10.4471 132.876 8.68842
-9.55559 121.731 5.07425
8.25981 88.7208 -10.6023
0.370218 141.633 -4.81548
-8.30323 86.8038 -7.32476
41.9618 89.6937 -3.74684
-5.66014 143.23 -5.69423
-16.13 132.217 0.901915
-18.7627 123.928 2.00043
40.1659 95.6648 -4.79736
1.22418 84.6543 -4.42474
9.36391 122.542 2.22089
26.1018 96.4466 -11.9366
35.8818 86.953 -1.99512
-16.0363 119.187 10.4234
17.8376 77.0759 -6.7775
-6.34993 118.112 -9.65788
14.2684 93.7403 -12.1528
-4.16459 83.6249 -4.85793
12.9387 90.3105 -10.4482
9.92455 132.677 -12.3601
31.065 102.16 -11.4875
-12.9481 113.708 0.588978
16.4289 76.2291 -6.58798
-11.1766 110.137 0.143685
4.22026 91.346 -12.3719
23.3353 111.625 -15.2429
27.4124 113.431 -9.88356
-9.40101 91.9761 -6.50013
-0.311279 118.713 -8.74642
2.83267 141.9 0.676225
4.76192 153.174 -3.43985
37.9797 101.864 -5.84138
-13.0397 113.739 -0.838914
-2.97661 133.301 2.96944
-12.4026 133.251 -1.12494
19.5506 125.261 -12.8177
-4.64126 87.4984 -14.6246
-7.07166 79.5472 -15.0631
-13.369 118.359 2.18343
-11.3123 126.723 8.09628
11.2392 106.45 0.654774
32.0136 97.9277 -9.22499
24.4864 97.3825 -12.344
40.4455 90.482 -0.0126412
2.7505 86.6387 -14.3804
30.9021 86.1876 -2.97032
16.0268 107.768 -1.53874
23.1613 126.637 1.77816
12.8358 119.744 -14.8331
-4.29373 84.512 -4.77128
16.2608 84.8831 -3.35564
6.81279 110.348 2.34898
21.4254 110.446 -15.0368
11.9609 132.137 0.241796
-9.75807 86.509 -8.30162
11.3961 142.862 -0.175074
4.21844 113.111 3.48487
2.93921 107.626 4.32328
4.54042 113.277 -13.9155
0.937181 108.694 5.30878
-5.64641 131.643 5.72645
16.4099 123.124 -13.8383
21.6075 128.947 -2.34477
-10.2838 148.043 0.839548
0.745431 141.816 1.02408
43.086 91.0762 -2.53245
5.6554 137.734 -8.70156
-1.71902 126.936 -6.72608
34.2874 96.0437 -8.70693
20.9312 112.373 -4.08665
18.4237 93.7762 -12.4576
37.2964 97.1216 1.31793
1.10025 95.0636 0.968283
8.59537 103.607 1.12427
29.1382 106.535 -11.3292
40.994 92.3056 -3.07265
0.420147 121.282 -8.25892
-11.1822 119.439 4.86894
-0.940972 102.246 4.23826
15.5269 100.975 -3.02497
-7.07208 91.1537 -13.5784
-2.10571 133.092 -5.85707
37.0084 88.9132 -4.56753
20.3011 119.729 -15.5733
-14.7704 128.651 -0.721288
-11.6063 99.0119 -4.94057
13.112 126.756 -13.9966
33.4969 106.932 2.52875
19.6189 115.036 -4.24006
-15.1367 125.978 -1.41665
25.0599 87.2573 -4.78688
13.3358 138.986 -3.3136
9.73495 149.088 -0.941502
-13.1405 118.446 -0.0921842
28.78 104.511 2.19353
-1.18479 103.227 -12.0761
15.877 84.3522 -2.95138
27.7901 97.6702 -11.5552
26.8303 114.11 1.03154
5.49688 140.683 0.197586
3.77617 93.0435 0.485733
28.1994 97.8149 1.82052
-0.895612 150.602 -3.99136
24.2531 82.9999 -6.00915
16.2535 110.597 -2.99008
6.73019 125.614 1.74708
-2.99162 105.899 -13.6922
9.97392 132.423 2.02353
23.4565 89.9685 -3.00879
13.0426 121.325 -1.3466
2.95289 128.516 -8.21462
24.7734 116.768 -12.8696
4.50387 143.503 -7.65386
-0.375248 106.461 5.4389
5.16521 103.245 -13.8109
-12.842 119.439 -3.1554
14.6846 90.4198 -11.0147
23.7626 107.753 -3.17365
-6.41954 102.718 1.03044
14.3868 81.0847 -4.11809
17.4093 110.373 -4.06367
-14.0029 118.301 2.49668
5.86498 80.5133 -15.6319
8.86939 78.4847 -14.6325
26.9246 88.4453 -6.84443
28.7743 83.2277 -2.71387
-6.70726 138.696 6.38278
-7.39946 90.6235 -4.47576
17.961 82.1427 -8.18386
14.7447 132.959 -4.18505
3.21775 106.64 4.03465
31.0528 99.0659 1.8558
-1.74366 140.396 1.65561
33.4594 94.9515 -7.96786
13.2175 81.0361 -3.98533
-7.86542 132.437 -8.61173
14.4975 92.7021 -11.9185
24.8102 88.1683 -9.01318
11.9147 89.045 -9.4861
22.3304 85.639 -6.10684
-5.06066 135.109 4.77001
-3.96311 130.225 -6.9593
-6.88395 85.147 -14.9751
-7.60572 96.9025 -12.8132
-1.02838 111.005 6.36664
5.62686 78.9492 -5.56675
-3.86806 115.506 -9.97791
30.2833 86.8796 -3.72707
-17.7659 117.724 5.43776
23.0252 96.5788 -2.04437
-9.79497 89.566 -7.32941
-13.293 118.253 1.07668
28.8343 99.9918 -11.3208
9.06646 128.888 -9.9018
1.79682 129.256 3.30559
24.5149 120.501 1.42502
26.7248 97.5067 1.22752
12.9811 140.15 -0.759227
5.73735 75.8343 -8.74618
18.3427 109.057 -15.1549
-4.29955 86.4874 -4.33687
-13.0979 117.672 -1.16257
25.6875 118.736 2.05369
22.4437 78.3639 -7.42072
23.4542 98.0899 -2.18457
0.0629175 139.854 -4.83562
-13.8091 118.535 1.73783
12.7424 124.137 -12.5507
36.6204 89.1824 -4.63967
-8.25169 115.371 4.77935
-5.93393 144.868 2.80369
17.973 137.244 -1.68891
-5.47472 125.667 -8.00725
-1.44966 141.509 1.57615
14.0422 125.305 -3.09042
22.7715 129.699 -0.883393
15.8606 122.319 -13.7238
-18.712 123.932 4.50046
5.65917 140.003 0.181104
15.6526 84.2359 -2.87746
33.2287 95.9953 0.401636
-12.6325 117.629 2.60368
28.6758 121.119 0.642475
10.4639 142.676 0.15404
-12.8837 117.571 -1.85112
-10.7324 92.7677 -11.9395
4.2811 122.435 4.68643
-7.19716 142.161 7.295
-1.22727 113.815 6.95137
29.3758 93.9271 -8.19437
28.2827 88.0695 -5.82693
9.20244 105.646 -14.4472
-9.4845 121.033 4.89482
13.094 78.0955 -11.6485
-10.9793 111.551 -10.7763
39.9872 95.2093 -5.01979
6.92669 135.781 -9.58939
33.8921 86.7457 -3.64121
-11.8621 120.239 0.135802
-17.1757 128.765 4.27735
39.4723 94.2763 0.0927334
2.01218 89.5402 -2.78921
4.94934 144.036 -7.99106
-9.18314 116.265 -9.60314
20.1541 125.623 -11.362
19.6093 79.0985 -6.74924
-13.5696 116.617 0.140891
2.84343 136.553 1.205
29.0004 118.932 1.85385
30.8866 84.6242 -2.20459
26.7285 90.5161 -8.54466
7.94714 95.7198 1.63536
-16.173 117.992 5.13638
-12.0714 105.01 -4.13289
-5.35761 86.8352 -4.68287
-4.18892 88.7545 -3.70661
21.727 120.506 -3.94207
-11.6679 135.171 -2.81096
2.22441 91.6306 -1.54589
-6.76817 141.913 5.91307
41.8485 91.3255 -2.309
8.25329 140.569 -10.9499
20.3691 130.678 -3.70443
12.0187 135.668 0.610303
-3.63891 80.0964 -16.6143
29.2379 112.594 3.02997
34.6762 111.073 -2.44571
26.9913 112.372 0.392293
-3.55554 98.4964 -12.9267
2.83496 142.457 -6.32758
12.5655 134.927 0.545203
0.713628 81.6603 -15.7927
4.02153 76.2125 -7.14584
10.2243 130.785 2.03614
35.9351 87.0315 -0.657807
38.0675 101.433 -2.12685
33.1396 103.137 1.91891
37.8459 102.898 0.243006
8.75628 103.783 1.109
20.3072 124.188 -10.5037
-2.4457 78.5912 -17.8635
3.22867 122.981 -10.7468
-5.13587 84.2151 -5.25834
14.5591 124.489 -13.1796
33.7889 109.52 -6.04
40.3189 91.5033 -6.17024
-10.1428 97.7132 -3.91473
22.3111 127.335 1.36431
27.189 112.794 0.952597
-6.61523 113.073 3.59537
1.33952 97.9992 2.99693
18.3343 122.671 -15.7874
-7.46504 100.81 -0.785967
25.862 126.586 1.07139
6.14567 115.968 4.34012
-13.6721 139.096 3.90111
-18.2462 121.762 2.41931
-11.4822 140.558 1.8752
13.7134 123.819 -2.65655
-7.28749 92.538 -3.56733
13.2058 110.53 1.05642
14.5388 118.585 -2.95146
15.7945 95.5732 -2.6015
-13.1225 142.631 5.55355
12.8999 105.602 -15.9299
0.749554 85.7347 -15.1661
7.69621 139.287 -0.0261892
14.0884 83.1647 -2.49645
7.12584 135.102 0.776528
-8.65088 103.448 -0.431143
34.6256 104.757 2.42707
-12.4383 118.146 -5.02275
3.62089 88.1317 -3.03103
-13.8265 107.615 -7.61892
0.697913 106.681 -14.5152
-11.2121 86.0473 -10.1095
-12.4341 110.92 -0.246316
1.0509 128.805 -6.83958
17.5799 122.152 -15.3175
-18.0979 124.561 8.48747
35.7195 86.3403 -4.02306
-12.239 117.702 -3.1543
-1.35695 108.375 -12.2446
10.8088 116.582 -13.6737
2.51166 141.268 0.611388
34.5799 90.2691 -1.03563
2.00084 110.416 5.00093
-1.51134 87.6432 -14.9273
9.33664 85.3701 -2.2867
8.44785 97.404 -10.5565
1.27192 130.235 -6.64781
-9.26765 88.7068 -7.2515
14.2076 79.6321 -4.80068
-5.07341 103.126 -12.0945
-3.76378 76.3129 -7.30849
39.2786 91.0451 -4.82724
19.8261 135.502 -0.686817
-8.72904 122.116 5.02083
13.7267 128.552 -1.4074
31.9933 109.97 2.82626
20.1275 81.8131 -6.0057
1.88436 111.772 5.20387
9.71788 116.09 3.33502
27.8117 103.457 1.90141
-11.5738 106.615 -2.55424
33.2434 113.602 -2.09755
0.174451 152.115 -4.33162
26.9899 90.4659 -8.26749
-1.07922 131.514 -5.93447
13.6218 107.44 -16.0389
-13.0609 111.864 -9.05675
12.8374 124.234 -12.5607
-9.61899 85.2666 -8.51174
23.804 121.521 -0.518846
9.16702 131.422 2.37907
6.1151 137.633 0.406584
9.21665 89.413 0.842011
-16.1443 117.79 1.91565
-14.478 111.764 -4.43787
-3.95494 110.249 4.95519
-9.72589 92.6004 -12.4855
30.2109 108.428 -9.77882
-5.76711 102.248 -12.993
26.5462 85.4246 -6.26051
2.23626 101.696 4.11484
24.3227 108.446 -14.8651
2.8012 74.6988 -7.75421
-6.39933 109.334 2.26627
-18.6461 118.869 9.50818
14.38 112.017 0.230307
19.9667 87.995 -3.40291
-9.91265 125.607 -7.26255
40.4595 96.8683 0.219018
13.2419 82.9196 -2.70543
5.53492 115.843 -14.173
-2.8596 101.781 -11.8254
-8.78757 83.0101 -14.565
16.9737 79.7157 -8.56461
36.2614 95.4912 1.18322
14.9642 95.5497 -2.25585
-5.99015 147.342 -4.7773
13.0274 137.895 -2.95751
-3.31102 89.6845 -14.9141
12.6702 131.582 -0.332424
23.2126 101.408 -13.3399
-9.08867 127.413 7.58443
-14.1496 121.355 5.23329
35.5882 85.0186 -5.05176
14.1741 130.403 -2.29106
25.5705 113.383 -11.9762
21.2508 120.195 -13.7351
-11.5645 120.919 -2.13141
-7.46446 95.0972 -13.8035
-18.1221 125.424 0.969743
42.5045 92.0944 -1.74675
-7.63181 153.546 0.267609
-4.36799 133.188 4.97376
31.473 103.842 -11.5475
-9.94001 125.404 8.31991
2.14464 138.446 1.09171
-11.6307 96.1971 -11.7819
27.8927 106.258 2.03883
2.95387 123.669 -9.84697
-2.62666 134.18 -5.84523
12.4651 84.9242 -9.51344
22.9514 101.192 -2.9442
18.3933 100.229 -3.67475
-5.68795 77.6233 -7.81428
-4.98016 132.622 5.02782
4.77847 97.0657 -10.0619
5.34791 108.05 -14.9275
-0.647123 94.9452 -11.7536
-12.6027 125.193 -0.970301
-3.09734 101.264 2.53338
21.6851 86.3851 -5.55002
11.8215 89.9377 0.100818
18.4489 94.3793 -12.6227
-15.3971 127.535 8.9603
1.97331 111.808 -13.285
3.09605 114.989 4.5223
33.4302 109.955 2.09884
-2.9242 129.289 -6.75955
14.5678 116.429 -15.6363
20.2454 122.981 -12.1676
-12.4614 99.7031 -5.82999
21.3361 128.911 -0.612491
-1.80757 124.097 -7.55492
25.4136 97.3765 -12.2594
25.9619 119.539 -8.73935
17.8116 132.634 -7.39245
21.0721 128.442 0.813773
30.3229 91.2993 -2.89331
-8.35285 78.6627 -15.5002
6.70541 124.559 2.37181
19.5679 88.5578 -10.3571
18.606 84.335 -4.75209
-17.7328 118.762 8.85933
26.5702 112.497 -11.1917
21.2639 97.876 -3.09027
-9.02647 124.115 8.4586
-9.55325 91.7761 -12.2588
-10.7108 128.525 -5.55571
19.9764 123.683 -4.20782
16.4686 81.3317 -8.55166
-9.83907 147.186 -2.80786
8.01832 77.547 -7.88473
26.6089 123.671 1.87746
16.7978 76.8061 -6.38267
-12.6703 114.356 -1.16248
6.47874 102.487 1.75404
18.5987 85.8821 -4.88009
11.2776 80.3994 -4.31038
12.4991 140.799 -2.19955
8.14371 113.522 -14.854
27.6824 114.129 -9.87771
-1.41187 125.478 5.01671
-10.3847 134.328 9.54891
19.519 111.01 -4.23292
-17.1656 126.508 9.87215
10.6219 119.835 -14.0104
23.3668 82.4253 -6.84439
11.7859 116.454 -14.1561
9.08198 85.3449 -2.36154
24.2704 98.6265 -1.67849
-13.5977 109.282 -8.39544
22.4518 124.387 -2.10267
38.2805 91.5171 -1.81063
12.1048 144.855 -0.279658
26.1702 105.781 -13.7652
7.46769 86.9774 -12.4364
23.0697 92.0478 -0.960864
18.9926 126.838 -11.9951
13.8895 91.0381 -11.082
-0.207174 90.2391 -2.89657
-12.1973 100.559 -5.36904
3.03753 116.054 5.01693
40.4861 89.6587 -5.63907
-14.1959 111.773 -6.96404
-10.7121 126.086 -6.96409
-3.70103 99.3856 1.63742
-3.39819 79.2936 -6.61629
25.8355 112.744 -11.9952
1.50202 108.573 5.16782
3.71571 97.0463 3.12567
8.2905 80.8297 -4.6002
-0.244453 115.316 5.95397
18.0774 98.4474 -3.68426
-1.06198 136.837 1.82853
-15.1848 118.991 10.0982
-12.007 118.075 0.941434
-12.1913 119.283 5.10174
41.239 89.4739 -1.98561
19.1585 94.0088 -3.23205
-15.945 119.164 6.63467
25.3371 82.2747 -4.38677
-16.3101 118.844 6.81308
17.7108 104.106 -15.3134
-16.4508 123.748 -1.50861
11.4884 107.197 -16.1134
8.51781 90.7934 1.27408
41.2455 92.5993 -2.20213
36.942 96.1006 1.2248
17.888 86.4919 -9.83385
19.6545 98.8379 -13.5753
23.6745 118.587 -13.7875
9.01883 129.486 2.64206
1.98826 112.486 -13.1334
14.7879 135.633 -3.76004
14.2953 126.13 -3.35005
-4.13477 87.7098 -3.91123
34.7971 94.6667 0.806322
35.8016 103.128 -8.20691
0.925076 82.7353 -4.76667
18.6938 95.435 -3.39502
12.5611 112.923 1.8079
8.80135 131.714 2.14656
8.98814 79.8502 -13.8705
-17.1986 128.713 4.06451
17.7158 108.906 -4.17976
18.3573 129.447 -4.66416
-5.81697 120.698 6.3216
34.8771 102.983 -9.17908
-0.928146 94.1862 -0.688263
24.3801 89.1632 -9.69662
38.1136 101.275 -3.90626
4.88128 93.6687 1.42509
26.6351 85.7642 -5.5466
28.6607 120.346 0.860497
38.8783 89.4252 -2.25655
4.95631 80.6775 -15.9396
37.5025 103.177 -5.52821
-6.05077 128.81 5.38559
-2.22221 114.846 -10.0379
12.756 137.664 -0.156326
17.4682 116.176 -3.92306
-7.69316 109.091 -11.3369
31.1254 93.1865 -1.9827
-1.05436 135.072 -5.34041
3.01926 138.626 0.832959
-5.0235 122.677 4.5904
2.67511 111.845 4.66579
-16.7084 118.901 6.10425
17.4075 116.608 -15.9017
13.4344 133.815 -0.222986
20.9653 95.5295 -12.5657
24.0731 119.155 -11.8756
2.04352 87.2858 -3.65616
15.2356 89.7488 -1.46658
-5.85467 99.088 -12.9687
33.6026 109.051 -7.10208
-2.95954 134.444 3.00728
-10.869 121.483 7.22183
5.39692 113.833 3.59423
38.4469 100.298 -5.23346
6.49187 137.639 0.329115
-3.58702 114.416 -10.5929
17.8483 84.1639 -4.48673
26.8382 111.726 -11.2924
31.2893 93.6485 -6.42281
-12.0544 97.6541 -6.44934
20.3765 113.422 -4.21703
9.04018 138.064 -10.8605
17.1161 87.0113 -3.22461
27.12 90.3171 -8.02369
6.41687 145.137 -8.97446
5.15372 141.596 -8.38687
-17.7982 120.601 6.54128
11.6941 130.181 0.817292
23.5834 106.179 -3.14856
18.6162 119.327 -4.22347
14.7014 86.9753 -2.45237
12.0674 136.342 0.306787
26.2073 127.002 -0.206948
14.1026 88.0245 -1.86842
-5.63543 107.406 3.15175
-1.42232 99.8805 2.91164
25.7912 87.0044 -5.18101
22.8664 123.242 -2.27684
5.43641 121.255 -12.9817
35.2794 109.877 -3.35862
39.7693 99.071 -1.15036
9.01396 101.478 -12.4144
8.53324 104.036 -13.5683
-2.42335 136.661 1.74247
-7.00949 73.175 -12.855
21.0693 129.598 -3.03776
5.78393 81.6003 -4.05967
3.35437 129.289 -8.53208
-8.93262 121.562 5.36932
28.9435 81.2622 -4.89116
-17.1236 124.013 -1.1095
11.0299 142.737 -0.0902546
14.0413 96.2943 -12.8923
-8.95969 104.69 -0.781397
-8.25617 133.064 -7.56475
1.15064 151.148 -4.91874
-12.0162 100.041 -5.28079
-4.53906 131.149 4.61988
9.43355 86.048 -10.7831
29.3824 103.353 2.39796
20.9586 115.96 -4.18941
36.3841 87.453 -0.197812
22.5099 102.852 -3.41292
15.5568 100.018 -14.4734
7.9848 85.0996 -2.65958
1.50148 74.3317 -7.43029
-18.4466 120.901 6.71347
1.13782 135.204 -5.42522
18.7838 110.989 -4.37489
28.9491 119.583 1.2315
-9.68307 119.389 4.46821
-7.13235 82.0889 -7.26883
18.5548 120.758 -15.0383
14.5987 93.5111 -2.08576
13.6825 90.5018 -1.51597
28.3577 86.8363 -5.52283
1.0141 89.6864 -14.7846
2.97771 140.549 0.609259
-6.4397 88.8669 -12.8228
10.6721 81.8436 -11.7727
22.3237 119.641 -12.6008
15.0576 122.697 -3.60546
-6.39065 121.541 5.69208
25.6011 81.5369 -6.05882
21.7383 122.691 -3.86462
-8.28065 137.237 -6.17394
-7.07144 94.4237 -14.132
12.4969 123.602 0.0712491
14.1822 130.987 -3.1744
12.5979 91.4408 -10.4205
24.9765 87.5803 -8.56085
29.746 100.95 1.71995
-9.80827 129.35 -8.21479
-15.1059 128.126 -1.18152
-11.0277 133.422 -2.75342
-4.49405 119.46 -8.30887
33.3298 113.67 -2.37451
-1.61843 126.212 -6.81921
-13.7445 119.194 -3.47165
7.75241 131.123 2.30441
-5.97812 93.8238 -2.15582
27.1885 102.659 1.69555
4.61143 147.259 -7.49883
-1.46823 125.064 5.13754
-4.48981 105.755 3.70046
-3.4015 120.003 7.15562
12.1036 107.097 -16.139
-15.9814 123.543 10.4443
-7.33416 101.148 -0.464056
-6.79562 84.4871 -6.23189
4.04631 133.207 1.49622
15.7105 134.27 -4.66963
2.40215 98.3746 -10.1611
36.4569 103.651 1.701
33.1959 104.136 2.49892
27.158 115.372 2.14692
36.0193 87.0625 -1.15568
-1.45006 129.769 -6.25012
-0.737701 134.786 -5.32575
12.6046 134.218 -13.6507
-12.4442 99.0339 -10.4342
-1.24 104.403 4.76686
-2.36855 137.574 -5.81236
25.8569 87.6331 -4.50312
16.6965 110.279 -3.73823
15.6361 91.6392 -2.42547
2.93307 120.601 -11.4469
8.00526 124.991 2.05448
-7.90992 117.858 5.10443
-14.0543 127.557 -2.36802
-9.18018 122.088 6.27847
-10.6109 108.289 -0.514996
1.51433 113.133 -12.1867
36.3513 107.088 -2.68161
12.6396 126.452 -13.4296
14.0839 95.0606 -1.91537
-3.54516 130.044 -6.83846
-5.79772 82.9643 -14.8985
9.02816 92.0269 -9.78468
17.9923 86.5467 -4.45126
2.9781 130.991 -7.96345
-11.2307 135.672 -3.17136
-10.6596 132.295 8.2985
24.5515 110.801 -14.4516
31.6933 88.5798 -4.3423
9.81203 89.3493 -9.4148
11.3751 136.941 -0.101202
3.42332 127.269 -8.99096
5.6932 101.645 2.02797
-13.7878 117.97 -7.37152
18.7563 92.9923 -3.06011
21.3329 128.119 -0.348373
-16.4652 116.955 7.56585
-12.0876 117.807 2.70529
41.714 91.6091 -4.05169
2.67822 125.16 4.63434
-11.9474 120.725 -2.63149
12.6271 120.362 -0.306882
-7.34435 85.0325 -14.1252
-17.1922 123.45 0.146462
26.9788 95.9089 1.17836
14.1895 130.402 -2.47774
-15.4317 133.056 3.98884
9.50709 98.7951 1.29093
40.7485 96.2605 0.0778838
-1.78791 129.487 -6.37676
-9.44452 76.7739 -14.5302
35.8627 96.6869 1.47844
32.4072 113.154 1.07925
15.1163 98.3053 -2.66639
-11.4166 126.499 -6.8372
-10.8256 142.707 0.300952
-10.9763 123.708 8.40233
9.28498 117.458 2.93111
28.5643 92.6607 -8.41391
34.7139 108.424 -4.97167
2.55743 133.134 2.10049
37.6169 94.67 1.05048
-12.7094 101.627 -5.70935
-17.1711 128.787 4.87063
36.9215 99.5517 1.62494
5.65134 106.685 -15.2448
31.8284 113.037 2.08198
-6.82805 129.178 -7.85516
-1.6563 95.5767 0.445945
13.845 83.4005 -9.06362
15.2741 91.8831 -11.7807
36.7505 104.98 0.389723
1.04459 108.156 5.30692
17.9745 83.1301 -4.35804
-5.04454 127.932 4.70872
-6.59303 139.664 5.40429
1.57203 122.062 5.78179
1.41077 104.549 4.78158
22.0628 89.4245 -10.4525
-2.25421 83.5504 -4.75075
-14.5874 138.753 6.89221
21.1314 130.904 0.697481
-8.60647 126.658 7.21798
17.2737 98.3061 -13.9445
16.1754 103.462 -2.8405
21.0682 118.398 -15.241
-8.76262 80.8767 -8.41881
2.8864 102.614 -12.9894
-14.462 118.085 -1.48347
17.2502 114.479 -15.3678
-14.293 110.91 -6.55608
1.16627 127.014 4.16301
15.798 91.8778 -11.8086
25.0334 106.228 -14.6074
-16.2882 124.542 10.2702
10.8336 111.506 -14.9289
-9.59679 128.939 6.89624
-9.48749 77.8023 -15.2631
5.58517 153.601 -2.64819
-12.6016 124.376 -2.48587
-12.9203 118.009 0.825555
-12.8621 120.212 -2.22868
2.79142 105.136 -14.2482
-0.641223 114.009 -10.1849
6.97893 110.072 -15.184
38.8124 92.2658 -0.837642
-4.66778 135.1 -7.18562
-10.2383 127.234 -7.93187
41.6532 92.416 -1.92993
6.70776 143.256 -9.39525
-11.3591 112.152 -10.3607
9.15476 101.53 1.02065
-13.4984 118.128 -2.34508
-12.0881 121.04 -5.27576
-4.1032 136.541 3.6589
13.1435 78.6378 -5.27925
-8.65907 120.453 5.75583
5.37369 142.236 -8.49901
27.3849 97.959 -11.8857
-13.704 115.33 0.73284
9.26681 117.566 2.89844
4.25544 83.7808 -3.49292
-10.4176 143.67 1.20721
1.32549 97.4524 2.71421
-9.24371 130.065 6.67159
-5.60457 105.402 2.89724
38.6239 99.7345 -4.71162
-17.1445 117.128 5.31388
-9.6926 132.493 8.29826
-3.1849 127.462 4.27625
-5.99396 108.626 2.65186
17.051 78.6847 -6.32099
22.5945 109.063 -15.3275
-6.7898 78.535 -17.249
-5.94558 107.774 -12.2021
27.3282 105.969 -12.9626
31.1897 107.238 2.34551
9.45593 101.94 0.883884
-5.79248 79.4352 -16.4196
-10.1654 147.156 0.817523
-15.0075 135.427 9.0715
5.67067 129.594 2.64021
-3.82992 153.792 -2.12971
0.482133 145.165 -4.83639
7.3981 145.279 0.387783
-13.4322 113.788 -3.11699
-15.5689 129.868 9.53077
-9.01965 105.321 -0.973049
29.9029 112.739 -8.06464
-13.8461 138.069 8.20285
-11.6837 119.585 1.59464
5.71374 112.891 -14.3608
7.64582 89.8557 -10.461
25.0651 88.0538 -3.90716
-17.452 114.531 9.2466
8.19029 122.497 1.9476
28.8222 101.532 1.70405
2.40815 122.612 -9.9048
-11.8671 122.662 -2.10997
-8.60126 87.8061 -11.3803
25.6001 111.55 -13.1979
0.0490517 113.419 -10.6283
1.34991 138.64 -5.20409
12.8949 89.995 -0.886391
9.29219 141.572 -11.1675
20.5161 115.109 -4.281
-10.9988 118.883 -8.12643
6.46242 95.7249 2.13868
6.21879 132.384 1.51895
18.7918 104.599 -15.2998
-0.781612 113.292 -10.4934
11.1082 141.105 -0.449917
42.5954 91.3382 -4.37358
10.7644 146.389 -2.91264
-10.4083 137.321 9.35036
23.2459 106.099 -14.8169
-13.3063 141.486 4.40111
27.805 87.7613 -5.8379
-5.22536 83.4427 -15.1899
-8.45481 122.494 5.51176
36.1406 102.771 -7.92609
2.05691 114.114 4.53138
-12.5701 103.39 -8.02774
10.2424 88.6399 0.0985629
-6.22479 138.049 -7.44635
-8.76737 83.6878 -8.40686
-5.7129 78.4862 -18.5667
-0.47678 94.3518 -0.404044
41.6865 89.5551 -2.37318
21.5743 130.551 -0.253872
1.48665 127.957 4.18031
12.9901 102.961 -14.7742
-15.1573 127.398 -2.09148
6.40054 142.122 0.466181
4.10814 106.577 3.29295
0.114339 119.752 -8.51626
-11.0451 137.426 -0.08864
26.2202 85.532 -6.25808
4.9965 89.9426 -1.47551
25.9441 115.871 -0.776779
27.9939 97.0322 1.54968
1.66194 101.381 4.14096
15.4559 124.994 -14.8739
21.0268 91.387 -0.944968
-12.3627 109.258 -0.901743
5.0566 91.3915 0.0665104
-19.1402 123.293 7.15772
33.732 100.578 1.84271
-11.8143 102.896 -10.3276
-7.21308 116.453 5.82296
7.82873 135.032 -10.5053
-15.1635 117.411 0.727535
3.47479 135.705 1.23768
27.2662 125.077 0.903505
5.2783 82.0647 -15.4309
33.28 95.004 -7.95637
4.77837 79.0518 -4.89214
37.7867 97.4039 -7.52592
2.53566 143.416 1.18659
3.47812 153.461 -2.80838
38.2183 95.5334 1.14783
22.3533 108.482 -3.72613
23.504 122.145 -0.257346
27.4287 83.296 -3.63667
-7.95824 119.739 5.7329
32.0593 115.305 -0.0966868
-9.6054 99.3529 -12.7824
27.0925 85.4859 -5.16321
17.0167 103.872 -3.5938
17.8373 113.689 -15.2251
3.88322 110.536 -14.6717
-13.9899 106.684 -6.58762
-8.55986 128.153 -8.83544
28.4259 89.3092 -6.23473
15.9624 106.595 -15.9984
-8.71847 126.502 -8.24123
-11.5659 111.877 0.614098
35.0089 97.1991 -9.1723
-16.1867 128.807 0.0821906
-13.382 117.451 -1.46627
12.5844 111.621 -14.9752
13.9025 105.77 -15.9584
31.662 112.524 -6.79551
26.5005 119.333 2.49244
2.40975 107.838 -14.8885
14.1806 116.234 -1.23079
6.0637 91.4033 0.860943
33.8014 100.552 1.84127
13.9517 120.176 -2.53727
32.3169 93.6901 -6.60206
-10.8411 137.135 9.35838
16.0843 117.922 -3.93736
3.89716 79.847 -4.73964
12.5849 79.8299 -10.6526
32.207 110.103 2.76704
-9.93296 95.0861 -5.9795
23.5991 104.132 -13.8906
17.9764 87.788 -1.91449
-15.9384 134.305 7.46688
29.8228 92.4401 -1.98239
37.6784 102.971 0.521279
-10.8162 131.062 -3.11518
-13.5922 110.342 -8.22451
32.4222 111.501 -7.41016
29.8507 113.236 -7.54074
18.9253 89.1533 -2.23914
14.0296 98.1535 -2.10841
3.55548 118.422 -12.909
-10.2856 128.75 -8.344
19.1554 77.0695 -7.15624
10.0714 85.6219 -1.64029
-10.6302 90.1612 -8.80927
-12.5121 143.393 4.78376
3.75523 133.321 -7.22201
-17.7756 116.248 9.97132
14.2437 122.13 -2.95556
31.5609 94.0692 -6.77605
13.0958 129.317 -14.3887
-1.5727 78.8748 -18.0787
15.0759 88.3927 -1.6492
-0.795175 80.9376 -5.42107
29.836 84.5715 -2.87523
-0.305017 132.77 2.20912
20.0021 80.091 -6.55136
-12.2228 134.829 -2.12769
3.1338 103.558 4.16628
20.2423 105.875 -4.21325
8.18917 113.251 -14.9617
7.7964 78.4698 -15.2002
-13.9946 118.19 2.84704
26.9248 114.636 1.56821
24.8534 99.1688 -0.989081
24.8668 91.5841 -10.5183
16.0429 85.6299 -9.67452
1.49389 90.1599 -2.69488
28.4528 93.6094 -8.888
-6.68918 146.444 -4.96246
-10.9055 140.953 1.62647
-2.47582 140.75 1.7455
-2.21267 79.7254 -6.0623
-5.30469 89.298 -13.3935
-7.10773 83.5057 -14.8598
-12.5116 116.34 1.81021
33.8958 109.498 -5.85032
-14.5298 132.728 0.650893
24.0847 114.655 -14.0865
14.2892 139.132 -4.01931
35.1738 96.6563 -9.02362
-2.75731 99.7763 -12.4892
38.1416 101.69 -4.73148
-17.3948 114.602 8.99828
6.55535 111.149 2.49923
13.26 134.296 -1.24047
35.7791 97.2919 -8.6792
-4.37603 85.6965 -4.60987
-14.0076 111.841 -7.38479
8.77361 124.434 2.22643
2.46807 113.203 4.46018
-12.1091 130.776 -1.23722
16.9302 131.498 -4.78671
-8.00809 133.428 7.52677
15.4594 129.145 -4.26266
11.9192 129.508 0.552237
14.6045 98.7294 -13.7988
15.1023 120.593 -13.9962
-9.60157 95.5352 -5.37513
-8.31894 105.586 -0.208187
-1.85046 97.7471 1.7133
9.5902 87.4692 -9.64156
31.2907 112.869 2.85583
19.4616 125.32 -4.35639
18.4184 82.5286 -4.42781
-14.1607 107.857 -5.70074
-9.42837 76.4562 -14.3101
14.8253 117.689 -3.10677
14.9528 133.639 -4.34322
21.4102 128.432 -3.05436
25.1719 110.556 -13.9699
-13.2689 104.418 -5.2433
-14.4805 122.147 -2.47774
-1.54278 101.016 -11.6668
12.3227 86.672 -1.70552
0.737865 126.979 -7.06917
-9.84111 150.24 1.026
1.40384 128.74 -7.0395
20.2208 82.681 -5.63178
-7.66406 102.289 0.204182
-7.59215 107.235 0.0992205
-2.97081 130.096 -6.61007
-17.1751 114.149 8.80996
-16.5602 125.374 10.2619
-5.55295 98.0404 -1.02404
-7.51443 84.9235 -13.936
13.2169 138.726 -0.671145
13.3588 138.576 -0.464157
23.0172 97.3371 -12.5642
36.5537 107.536 -1.12789
-10.5893 82.9291 -11.0413
35.7289 108.576 -0.599302
22.0201 96.4541 -2.54089
11.4682 87.2326 -1.21483
-3.44762 128.219 4.07641
-11.8517 97.4877 -11.3952
-10.2141 121.506 4.75418
21.9254 83.6142 -7.7216
20.5107 132.532 -1.98467
-13.7125 114.896 -4.45781
-12.5842 115.771 0.0131807
8.13559 111.947 2.32044
-4.32283 128.446 4.33344
34.6654 107.093 1.55649
18.9998 81.3913 -7.8103
42.4272 91.2634 -4.54587
-0.784076 97.2184 1.79667
26.0434 108.899 -12.8606
-0.76876 129.009 3.83953
35.9773 100.497 -8.50007
5.04516 80.2588 -16.0208
6.54171 75.9148 -8.89599
1.4893 78.4351 -17.7671
-5.69313 107.459 3.05908
6.75937 78.9558 -5.49844
15.023 113.702 -1.34537
19.7836 123.825 -13.2014
-7.7317 144.708 -5.28233
11.0861 142.416 -0.281493
36.3336 106.915 -3.0221
-16.2433 132.098 0.765774
29.9028 101.424 -11.6488
-8.80797 84.7156 -13.3024
29.792 98.7135 -9.85024
2.79224 117.776 4.85268
-10.7589 140.872 1.50868
38.1238 102.862 -3.07306
-4.56537 129.026 4.5898
9.88367 95.9861 0.964991
3.24576 143.5 -6.64167
3.6302 113.813 3.90225
41.2615 89.5308 -1.8479
-9.53243 148.253 3.7567
3.44573 93.0434 -11.1503
25.3942 102.675 -1.08249
5.34051 126.363 2.88251
23.519 112.489 -15.103
-3.41067 139.88 -5.39289
29.7964 105.876 -11.4306
25.3671 97.5988 -12.3294
-6.44282 89.336 -4.46999
2.47352 125.492 4.56556
33.7905 111.437 -4.97596
6.73396 89.2934 -0.928912
-10.7944 123.637 -7.75197
-12.8007 109.85 -1.03564
-12.3377 118.398 -2.45595
-14.0718 118.417 -2.91192
29.1593 100.348 1.91186
23.8226 81.7021 -5.6561
-5.82293 144.006 3.02263
11.1641 103.941 0.576202
-10.0853 104.268 -2.4126
-2.89166 122.401 6.02737
26.9453 115.442 1.98584
-11.9561 119.63 -0.724835
21.9548 115.309 -15.3939
7.61169 120.888 -12.7285
2.32052 107.31 -15.0022
16.8818 107.445 -2.62277
9.79735 137.182 -0.0957027
-11.9581 99.8761 -5.25239
4.82348 112.58 3.12918
18.8211 132.792 -4.43772
-20.3299 121.345 6.35727
39.0431 95.1301 -6.1488
5.25366 127.902 2.21106
4.8139 128.146 -9.86868
12.6362 115.54 1.896
-16.0674 133.591 8.73461
31.0873 92.7487 -2.26592
3.87712 91.5331 -12.3283
-11.186 114.21 -9.89517
7.08159 77.9564 -7.15733
-5.23242 133.264 -7.15339
-10.1167 79.2767 -12.9368
14.5841 108.471 -0.0134244
26.9815 90.419 -1.95714
23.019 125.887 1.60215
24.591 97.1891 -0.762842
7.09351 123.353 2.6851
27.6127 93.5624 -9.90859
6.15269 88.9242 -1.29728
24.3675 116.724 -2.66491
-3.94405 112.176 -11.6914
23.7543 98.8512 -2.07349
-13.673 114.021 -4.34985
10.3682 106.902 -15.5118
-7.84169 123.858 6.98651
16.484 113.785 -3.83893
-6.29356 88.5647 -13.0097
0.743688 128.756 -6.68251
30.7123 102.74 -12.1464
6.60948 95.5233 2.0584
-7.67172 143.895 5.6152
10.248 112.413 2.19127
15.1854 87.4067 -2.91003
12.6564 109.888 1.26282
20.0239 98.144 -3.38251
14.1494 116.278 -1.19501
6.76391 146.882 -8.65661
8.75221 114.223 -14.3005
-14.3429 132.267 10.1429
18.5115 95.3839 -12.914
-13.2449 118.936 -6.81102
15.3334 103.658 -15.6261
28.772 95.5604 -9.85492
17.2546 120.36 -14.3037
-16.377 118.873 3.33241
13.453 102.72 -14.9395
1.07711 89.7758 -2.91725
27.7205 102.566 -13.3873
28.8413 115.032 -9.01612
24.529 116.988 -12.9253
-15.6171 132.691 2.28097
30.08 107.585 2.28208
17.2082 132.793 -4.80711
27.0697 109.382 -0.570093
13.2834 116.585 0.646111
-14.0097 108.869 -6.89694
31.5293 94.5064 -7.20587
-9.30745 84.3835 -8.6451
-16.5009 131.757 7.02875
-2.63653 101.129 2.82793
-16.1407 123.364 -1.68426
-10.1102 138.995 9.05506
6.65442 123.172 3.17014
-15.8676 117.583 9.08739
5.00336 144.992 -7.94145
30.9407 86.1527 -2.92334
17.5543 120.874 -14.9054
6.3649 129.472 2.55987
-9.84453 100.272 -2.3562
27.8946 108.133 1.77318
3.42346 152.079 -4.90685
-9.77624 127.379 -8.28608
-2.99535 103.681 -12.1776
39.5639 93.6302 -6.58694
25.0984 114.23 -12.4696
1.68571 124.532 5.02327
33.6126 110.619 -5.30269
-11.8089 118.032 3.33368
15.4002 135.704 -4.28756
28.4627 113.689 -8.89734
3.28008 151.002 -5.74553
-6.47493 90.679 -13.5403
25.8398 114.594 -12.0335
4.45588 100.81 -11.5874
43.1397 90.9484 -2.9208
8.92466 126.78 -10.5947
-8.72981 125.741 6.7289
14.3411 136.046 -3.06213
10.4075 86.198 -0.559404
16.5074 95.5982 -2.99614
-16.6241 130.622 7.62211
20.4417 90.6062 -1.25377
-8.27176 107.524 -0.698257
10.7968 112.877 -14.2353
14.7241 109.458 -15.7197
7.04927 96.9787 -10.1404
31.1599 91.2722 -3.07425
-5.61132 144.666 2.46428
-11.0965 113.22 -10.2676
-5.76351 113.715 4.78512
0.523155 118.086 5.65332
-11.1574 145.458 5.21812
2.90139 106.369 -15.1446
-16.7117 116.999 9.75529
35.6656 107.307 -3.77987
22.7832 119.907 -13.491
7.95277 107.602 1.85889
-15.6584 128.865 -0.0912035
1.39878 119.993 5.30816
20.535 93.3337 -2.83168
17.9219 107.061 -15.5028
-5.43491 102.285 0.913391
1.62786 128.556 -7.18975
8.65106 130.772 2.57398
-4.72665 138.845 3.49924
35.5697 107.323 0.195936
-7.29262 138.305 7.71096
-9.94699 141.088 -3.72009
-5.21626 122.356 4.90374
-6.29916 137.703 -7.60851
7.39128 84.2972 -13.5933
8.51067 92.073 1.63932
20.6608 87.1528 -9.9133
-1.92554 113.916 -10.4097
37.2233 95.2322 1.14426
2.58012 137.4 -5.86953
8.07132 120.504 -13.0962
36.8712 101.508 -7.60922
-10.3564 148.844 -0.415613
-0.100117 73.707 -8.19297
-10.2179 146.082 0.493252
10.2621 146.952 -2.55649
3.18143 95.5076 -10.2439
-15.9715 127.802 9.52313
24.4816 104.108 -2.33395
-1.56963 121.431 6.89293
1.20922 136.627 -5.23219
-14.1284 118.655 -3.27225
19.1356 105.078 -4.2986
-17.6338 127.797 5.88546
29.5411 111.755 -9.14057
15.4055 83.1901 -8.86793
8.48009 109.678 2.13705
15.3537 111.402 -1.43243
25.4612 98.5068 0.115986
19.2124 135.047 -0.108658
9.28621 76.4917 -8.56773
1.35109 79.0727 -17.6234
7.97442 105.892 1.5597
8.63043 88.8572 0.109498
5.76011 135.612 -8.58134
-12.8763 117.899 0.0764227
26.3814 115.985 0.409775
-4.14509 89.7835 -3.61075
17.1673 102.728 -15.2544
22.8351 124.286 1.21377
-8.73044 149.53 -2.2865
1.91757 108.484 5.06415
3.4708 130.513 -8.50312
-10.8274 121.206 4.93441
40.891 92.026 -3.26632
18.4475 127.37 -12.0686
-8.17247 145.896 5.06403
-1.1221 78.6734 -17.9971
-10.7613 140.42 8.68529
-6.37915 129.092 5.45458
6.33393 123.558 3.35588
37.4908 104.183 -3.9835
18.9901 119.494 -14.9512
33.0311 109.768 2.61698
-13.8909 140.596 5.88447
-12.864 121.977 -2.92511
25.0272 99.7418 -12.9426
-6.54211 126.285 5.52558
19.7285 121.055 -4.36043
-10.7209 100.63 -11.2625
-1.60397 97.0959 1.4606
-1.74188 143.644 -4.2503
8.41015 93.565 -9.82149
21.1784 95.4343 -2.87192
7.3163 138.015 0.144602
34.4232 98.6266 2.14068
-10.2668 146.846 2.95852
0.842613 123.039 6.18521
40.2246 89.3185 -2.00906
7.15948 90.1152 -10.9035
-12.6445 96.0254 -10.2595
15.3418 106.325 -0.803336
-8.86292 75.3055 -13.7192
32.5982 108.321 2.46906
11.5416 121.889 1.48431
24.8591 81.4773 -6.47194
-13.3375 119.108 -0.859822
39.3185 93.6069 -0.734691
23.9611 120.186 -2.48779
32.25 105.618 2.34495
-7.79523 146.104 -4.80421
4.23498 136.589 -6.64951
41.4244 89.5524 -3.77744
-6.71824 96.1521 -13.784
-8.40051 73.9651 -14.6851
-2.32555 106.963 -12.9242
-11.7162 119.36 -2.45565
-17.3644 126.963 -0.304089
18.4194 93.6435 -3.18988
-9.29379 77.6894 -11.1783
14.365 119.411 -14.7732
1.88876 103.834 -13.0738
-3.17757 110.545 5.89835
21.6113 128.804 -1.70894
-18.7316 119.48 3.59389
18.4924 100.165 -14.0919
-8.97847 78.7792 -14.9005
12.5328 79.1496 -11.2591
0.573289 91.2451 -2.36475
3.96741 103.897 -14.1081
13.2276 101.834 -0.278564
31.1634 93.1037 -6.42762
-11.8571 118.099 2.35822
-5.33598 117.283 -9.81397
6.69304 107.815 2.03028
2.0711 109.701 -13.8518
5.05438 119.828 -13.1592
19.2439 97.3059 -13.3191
18.873 86.5638 -4.54805
-7.60805 109.489 0.833232
20.5836 131.039 -3.34516
3.74381 104.757 -14.41
-13.9967 107.801 -4.78027
9.17737 95.2836 1.12718
31.4794 109.703 -8.85662
-10.6226 112.978 2.15081
11.6764 113.161 2.12971
14.2005 131.933 -3.85611
-8.35945 93.6016 -4.52221
0.87657 103.238 -12.3259
20.4736 121.764 -12.4881
14.1931 101.299 -1.62963
0.734247 118.392 5.54161
24.659 120.629 -7.72406
6.50267 111.556 2.56806
18.5226 129.715 -4.62967
18.5922 111.75 -14.8158
-11.8695 124.006 -6.36847
18.4238 131.665 -7.20644
16.9283 94.2985 -12.5579
-5.06997 102.915 -12.1941
11.8785 135.693 0.572439
-4.93455 121.263 6.07657
-6.20136 147.826 2.3171
3.83787 92.3933 0.147764
9.87804 94.6251 -10.2516
-10.6673 137.489 9.33075
14.4024 122.599 -3.10904
21.0127 98.4088 -13.2945
-4.09339 140.714 1.89359
26.3239 87.7837 -7.59366
23.2193 121.828 -2.95118
27.6505 88.9384 -6.49963
12.0289 100.529 0.486525
3.12752 104.207 4.19447
15.461 115.381 -15.522
15.201 81.0013 -4.29807
19.3163 92.4511 -12.0061
-3.36295 100.979 -12.3365
20.372 106.451 -15.4414
38.7123 99.121 -5.94096
-12.2516 117.101 -0.558354
19.9466 92.2531 -11.8514
-3.99786 107.588 4.69163
-3.27573 134.828 -6.00993
26.4006 105.648 -13.6302
-1.57592 87.6836 -3.80138
-13.1363 119.696 -5.6153
-11.0692 93.888 -7.38266
-17.9907 117.847 3.71599
5.43508 108.737 -14.753
39.8576 98.9259 -1.78479
-5.18653 84.7114 -5.20597
12.7871 88.9763 -0.4676
-9.41926 115.478 -9.85774
23.3087 115.888 -14.4731
-12.8462 112.306 -0.121915
35.7852 101.179 1.43051
-14.0265 121.553 5.09636
19.8162 125.534 -4.31111
18.991 101.888 -14.5585
38.2394 96.3765 -7.09226
-15.0904 137.018 4.99309
-7.14084 108.398 0.892603
2.91884 134.068 -6.52032
9.3869 149.831 -0.642989
-18.1967 125.569 0.346179
8.62766 139.452 -0.177451
4.71367 95.4055 2.5705
4.51451 120.792 -12.8072
6.99617 131.519 -8.60372
-12.3338 117.797 2.71435
-9.99121 79.4057 -12.3606
-4.31783 112.954 -11.3859
21.0047 115.29 -15.4384
-3.45286 145.689 -4.15919
30.2639 104.242 -12.0208
2.37288 84.9771 -14.6417
27.768 110.398 -10.3365
42.7158 91.3947 -3.91048
15.1029 97.6796 -2.64018
28.2621 105.523 2.20507
21.2158 124.692 -10.8657
13.9466 113.315 -15.3337
27.3463 86.2892 -5.84528
18.9052 108.467 -4.39484
15.4892 89.459 -10.4768
-3.00342 133.075 3.0014
-11.0693 140.38 1.55825
7.42257 115.957 4.02873
27.1773 93.4606 -10.4185
28.5353 90.9543 -7.31355
-9.75338 86.8734 -11.186
7.44105 142.409 -10.1776
7.71098 95.6788 -10.1145
9.59272 128.435 -10.2515
25.4877 122.724 2.37162
4.55228 118.327 4.7415
9.51013 113.758 2.68604
-5.75974 140 4.30552
-7.17469 85.0279 -14.5259
4.36726 145.194 -7.36238
13.056 124.887 -0.717466
15.668 77.4515 -5.85433
-0.0912393 98.1966 2.53787
30.6673 86.3739 -5.80022
-0.339734 92.3717 -13.8635
4.70751 121.513 4.59634
28.2245 104.546 -13.0483
-11.2366 133.255 9.64895
27.6138 98.4916 1.78899
-9.81011 80.2599 -13.6143
16.0009 112.13 -3.20814
-2.00304 99.265 2.4211
28.5038 100.832 -12.2228
-1.47023 93.2119 -1.59389
-5.26201 84.831 -15.6059
13.9765 140.535 -3.40896
42.1396 91.1622 -3.73995
27.096 103.893 -13.8526
2.44663 121.114 5.03574
-9.15555 145.343 -4.51211
-5.42038 129.973 -7.46248
-6.4218 102.915 1.17708
2.39336 105.824 -14.6842
-8.08186 147.708 4.10585
13.5966 125.954 -1.49906
-9.61832 92.5512 -6.75392
34.742 89.4162 -4.57402
-4.27577 92.0286 -14.687
23.6361 84.1317 -6.47774
20.2601 82.0502 -7.55844
31.3723 97.0156 0.321019
27.6885 104.765 1.92222
-14.6873 119.891 9.68792
-9.92519 90.9886 -7.83857
-12.1562 116.561 2.29252
-14.917 118.692 9.60663
13.4972 114.15 1.05561
26.9914 106.293 -12.9384
-7.00526 114.03 4.81955
8.57274 81.3548 -13.5861
-12.6937 120.575 6.74793
27.6468 92.3047 -9.08129
13.0151 93.5887 -11.6614
1.73636 84.8825 -15.0057
22.478 124.147 -0.387513
30.5149 94.1626 -7.16424
-8.73373 93.6766 -5.08837
32.3565 98.0941 1.25067
36.47 89.2442 -3.27385
1.5241 119.141 5.21357
