ply
format ascii 1.0
comment Created by Open3D
element vertex 1721
property double x
property double y
property double z
end_header
-19.3461 109.437 0.0444736
-15.5516 113.235 13.3969
8.0181 123.648 7.74319
28.4311 128.303 -7.21526
-19.8934 86.2841 0.796602
19.3533 105.657 -0.651669
5.87627 127.058 7.74441
-18.8846 99.9968 3.50111
20.3172 97.6425 -1.94319
10.6801 104.698 -11.1398
-0.384447 108.359 -12.6958
25.5024 125.877 -2.20185
21.8156 121.063 0.569941
8.25987 120.116 8.83394
12.7859 115.864 10.0906
-20.8196 99.7341 -0.522269
16.2734 130.982 6.6931
-13.6441 117.294 13.99
17.0635 81.6987 15.7151
-7.8275 124.961 14.3272
-14.2668 79.681 15.0568
-1.73688 109.21 18.2409
-9.44075 120.877 15.0648
-20.2801 84.2956 0.456395
-17.3147 78.0099 -7.4102
-5.74815 107.021 17.9469
4.2726 89.9671 -14.9121
-8.67576 127.432 13.3646
5.96312 102.934 16.6913
19.3379 121.387 1.03236
-19.6339 82.0695 3.52577
4.33825 115.608 11.4317
17.769 98.897 15.2584
-18.8254 86.4163 6.85694
-7.04756 98.4624 -13.4417
19.859 84.3865 -0.841874
15.3861 78.2767 -9.14724
12.5033 105.922 13.2978
22.7567 93.4862 4.2024
-16.2125 97.3489 -10.5273
19.2604 104.734 -1.29006
-10.2762 101.436 -12.5061
17.2709 89.8525 -7.07711
-3.14891 91.5334 -15.2182
16.6554 114.608 -2.8696
1.8016 87.6412 20.8748
3.02692 122.872 10.4889
21.2694 114.067 5.26587
0.765493 111.208 15.5171
2.01696 77.1139 -15.4535
13.5194 83.7206 -11.3612
11.6149 115.82 -8.368
10.332 97.7264 17.7938
22.7203 95.193 6.61139
10.8993 103.39 -11.7116
18.5061 104.523 -2.43965
-7.94647 93.2171 -13.9729
7.68197 121.693 8.5148
0.115681 118.12 14.3773
-16.5674 90.0575 8.46399
-12.7921 110.401 15.3867
22.356 81.0394 1.97228
20.8268 101.572 11.7103
-18.5875 81.4024 7.023
-5.91993 90.5275 -14.9784
21.6199 101.548 9.9899
21.62 83.9711 10.7575
21.5357 112.203 3.80397
15.4067 116.787 12.2632
17.5238 115.101 0.308412
2.97607 90.5474 -15.194
4.1412 105.501 16.5515
12.9543 105.682 13.4445
22.6916 96.049 5.2837
-17.5164 76.244 -7.43933
-5.02368 89.8276 19.465
-11.3518 106.068 15.2238
5.44598 107.424 -11.6334
6.66535 96.2104 18.2254
-7.5426 86.0522 18.2691
-18.942 96.7511 5.16544
-16.5969 86.211 10.2428
-19.9627 96.71 -5.43639
-8.77695 102.955 -13.1109
14.7198 83.7774 -9.9642
13.5692 107.35 -10.0036
-9.8314 78.4203 -14.4937
-2.84435 90.8536 -15.1978
-12.3718 83.244 15.1847
17.8259 86.7076 15.681
15.6584 106.89 13.1662
21.6408 128.018 1.86971
1.01204 95.5859 -15.2199
22.3802 131.732 1.45018
19.9419 86.1216 13.4349
21.497 103.853 9.91838
20.9823 112.105 7.26064
-8.29082 102.287 -13.2498
7.79696 111.948 11.6988
14.8873 115.98 -7.27123
23.0532 79.5705 5.58682
17.2287 133.116 5.8685
-12.5478 83.2617 15.0753
22.6365 90.2298 8.37936
24.7242 126.299 -8.47325
-19.7836 106.088 2.40024
15.7975 115.711 -6.73539
20.5855 78.7626 0.0722004
-16.1515 89.1124 -8.86456
5.96149 125.735 7.93434
-17.2606 93.5355 6.83535
-11.0199 88.1375 16.1098
8.43924 128.025 6.42343
21.8239 104.444 5.33035
-11.5485 89.106 14.529
-1.64903 86.9403 20.057
5.43288 89.3592 -14.3707
22.8971 130.024 0.674629
-19.9468 106.737 -4.1269
15.6456 125.704 10.9865
20.7516 111.95 7.74741
2.11088 102.811 -13.4134
22.6797 89.1241 8.3846
10.8249 115.474 -8.22973
20.3384 90.3375 -1.69266
0.126132 108.227 17.9482
19.3532 107.893 0.341326
-7.90058 99.4069 18.2426
18.1993 84.769 15.2701
17.2134 116.822 -0.691512
-6.93192 114.773 16.3205
19.6311 108.196 12.9731
16.9094 98.2533 -8.18126
13.4045 81.5325 -11.3607
16.3468 83.3894 -7.00527
-6.88121 117.759 15.6031
9.2502 78.5323 20.9379
18.8638 114.523 1.76552
16.7046 122.788 -5.92271
20.4616 94.7341 12.905
-20.3667 84.0289 -0.928547
11.4734 111.962 -10.5526
5.84162 125.856 7.97602
0.547384 100.76 18.9247
-18.5165 92.7984 -6.79964
5.56877 105.223 -13.2755
-3.05114 92.7597 20.3784
26.7024 125.686 -2.92634
-6.88342 96.8364 -13.6191
-17.8515 99.9135 -8.6454
-16.7625 82.889 -8.0418
5.27672 126.55 8.17443
-6.72776 91.3309 19.1086
-0.940692 80.4451 -15.7832
-18.5338 88.6071 6.8644
-15.9135 78.8976 -9.63457
14.9134 125.283 -0.65463
13.855 103.307 -10.5687
13.533 108.758 -9.51067
-20.5941 92.5279 -3.2674
-19.3565 86.2832 3.82395
1.83701 95.532 18.6439
-10.3345 92.3271 15.6159
18.6258 119.595 -2.03915
18.9221 120.206 -0.326395
-19.1624 85.9231 4.82937
11.5041 116.215 -8.30516
-6.68961 108.58 17.5855
-10.7205 94.1525 15.3434
19.0618 125.92 1.28513
-3.15224 84.4912 19.1139
7.40065 128.318 6.77988
14.1043 95.8751 17.8252
-16.572 115.099 11.0173
15.5627 132.542 7.08558
15.0731 114.768 12.2755
-15.1306 78.2839 12.6405
-9.82601 104.232 -12.5831
-17.4004 99.004 -8.90296
-6.15632 98.0281 19.1667
16.8079 86.471 16.5059
13.1661 119.203 -8.55844
17.3451 114.359 -1.91382
1.08428 83.9467 -15.3018
-8.94415 106.966 15.9093
-4.22182 91.6679 -14.7983
13.8129 129.891 9.23971
-18.8226 78.9444 -4.30565
15.1741 105.409 -9.83076
13.2951 100.194 17.3502
0.854613 76.7592 -15.4535
-20.4582 88.36 -1.29093
-20.3056 99.6675 1.06097
8.95607 108.372 12.6868
12.7616 108.939 -9.48861
20.5469 102.042 0.32345
16.2574 92.8336 16.365
-17.9378 80.2102 8.284
16.0752 115.324 -2.52527
3.47409 100.363 17.7555
18.2246 122.124 -1.5652
12.8882 114.392 10.5462
24.0997 120.468 -1.03077
-10.1718 90.5715 16.2782
16.0405 108.23 13.326
20.4702 82.8648 11.5409
-15.2469 101.865 12.9868
-0.270235 98.7936 19.0704
-1.77535 87.8636 20.2403
-15.7532 102.67 12.5512
-8.0366 88.9005 18.4649
25.821 127.267 -7.79997
-1.64253 119.347 15.5526
-15.4061 115.185 6.44211
-18.201 87.0774 -5.85009
18.7361 119.125 -5.59933
22.59 87.0116 6.93949
-2.40371 123.871 14.497
-19.4486 106.765 1.68396
11.4016 94.1474 -11.5237
19.2784 121.988 1.24888
-13.7189 79.79 -12.8391
-8.87979 82.2125 -14.3835
-4.33992 118.82 15.7195
16.5207 117.064 12.496
19.9861 93.9775 13.4312
-13.5078 102.588 14.3429
3.01138 85.6975 20.5185
-8.15896 107.561 16.2216
22.2954 93.5637 7.74298
-15.1059 81.5049 13.9942
-13.3593 122.329 12.5496
18.8367 133.081 3.99535
-17.905 76.8817 7.48194
-17.7258 108.467 10.1225
-9.28579 118.456 15.2124
-15.6102 100.498 -11.3207
-15.9069 97.112 -11.2315
20.9905 115.303 5.60497
19.8675 104.375 -0.513027
21.7846 125.093 1.39988
-19.726 83.7714 -3.41767
-15.0362 89.4739 -10.656
6.15705 109.972 13
-13.3111 84.7003 -12.0062
20.59 89.7228 12.9474
29.7776 125.226 -4.94767
18.4792 131.635 3.63336
-4.65914 100.429 -14.1733
21.5638 90.978 11.8172
-18.4004 100.441 6.99248
18.2633 119.869 -7.90598
20.2187 103.149 12.793
-20.0052 96.8563 -5.35063
6.62149 88.0933 -14.0391
17.1732 126.273 0.967823
18.1434 124.1 7.68537
-3.23072 84.7167 19.1315
-6.49948 82.2156 -15.2195
-15.9692 92.2136 9.19292
-2.38904 106.03 18.7799
2.33213 115.453 -8.03467
5.08366 119.01 10.2056
-16.3433 90.2558 8.6043
11.1871 110.392 -10.3514
5.88191 77.5264 -14.7682
14.1508 114.141 11.6146
-12.4052 85.1489 -12.9649
-10.1337 92.8069 16.1517
9.89357 104.473 14.5841
-4.74281 102.607 19.0988
13.9994 83.4702 -11.0943
16.5431 93.6169 -8.36447
-19.9773 108.097 -1.52438
11.25 96.3826 -11.7269
-17.8709 76.169 -5.55514
19.8889 91.586 13.561
-11.9002 106.969 15.2396
-15.0003 110.718 14.106
19.4351 95.7104 -3.57805
16.2562 106.982 -8.87077
-16.5086 112.912 10.2725
21.1651 105.505 2.53022
-11.0844 90.4697 15.1101
-19.159 87.7754 3.51134
-12.4266 114.109 15.7896
-15.2603 113.193 13.5107
-17.9816 76.769 -5.61159
16.2042 114.674 -7.66631
18.0271 120.38 -5.74587
9.70376 93.6718 19.3878
-5.68949 111.45 17.993
-14.7732 81.3118 14.4235
20.1107 119.725 -6.92611
10.7101 88.5543 -12.3964
12.5268 108.821 12.1626
18.2141 105.313 14.4514
18.5033 119.587 -1.01457
2.39595 111.158 -10.9786
-15.5313 115.138 8.90102
22.1349 88.7498 2.41897
9.47751 92.448 19.8163
19.4139 78.817 -1.54017
-18.2915 91.7681 5.58445
14.1431 129.69 9.3123
0.766948 83.3714 20.7203
22.7091 87.0282 7.4834
1.02249 99.7112 18.9185
-2.62241 116.467 16.3533
4.96803 100.695 -13.5363
14.5788 127.247 -0.0780329
4.64374 96.4899 -14.7554
-12.7569 94.6682 -12.0348
2.03016 86.0187 -15.1054
-12.7415 118.845 13.8061
-10.7283 76.1311 -14.2909
-12.9911 86.1176 -12.2008
20.9318 109.463 7.35394
4.53747 95.8033 18.1875
17.3017 124.666 8.09055
5.30209 109.27 13.5923
21.6419 111.239 4.16432
14.2006 118.464 -3.75005
2.9196 106.429 -13.1012
14.1104 117.807 -5.29949
9.0511 97.0806 -13.1722
-18.8907 109.081 0.451168
9.66155 90.0685 -12.9111
4.30163 108.976 -11.3683
10.8685 108.452 12.3939
11.8901 97.5931 18.1125
0.60999 113.661 14.8624
-19.0779 106.551 -0.928053
26.3421 121.627 -2.76864
-1.95216 98.7122 19.2875
16.9766 77.5402 16.7058
5.00522 115.048 11.4903
-10.0962 93.4671 16.4094
7.49374 114.57 -10.5781
10.2322 79.2398 20.0528
9.86722 123.706 7.56225
22.2256 93.9539 8.14544
-10.631 116.569 15.526
-18.9266 111.193 1.47699
-14.7614 114.3 13.2767
6.14472 109.553 13.132
17.5267 125.44 1.80038
-16.0376 114.257 8.15874
19.3435 118.733 4.37457
18.8999 122.305 5.35469
-17.5285 97.6515 8.25375
-2.30819 101.184 -14.6781
-17.9335 82.4917 -6.50373
18.7311 118.855 -0.0202904
13.857 99.3293 17.4617
-15.5041 75.9837 9.75947
2.83627 83.8048 -14.9793
-10.093 87.222 17.318
-9.72511 88.921 17.566
15.6304 115.36 -5.99388
-13.2583 100.829 14.5804
24.15 124.983 -0.536354
5.66491 106.632 14.4302
-5.26325 96.6321 19.3895
14.5347 84.0332 -10.394
17.1663 105.378 -6.01533
5.3334 127.262 8.14433
8.06264 105.59 -12.6103
-18.3624 87.128 7.6235
21.2759 107.453 3.70665
18.138 123.717 0.908802
-17.1566 101.783 10.5035
13.4443 130.353 7.80246
-5.72719 87.5687 -15.0651
13.8638 91.4746 17.8833
2.4976 110.776 -11.2814
-11.1233 94.8363 -12.3538
20.2297 92.7308 -1.9384
17.3755 92.7168 -7.59503
-17.0134 83.0412 -7.87231
21.8377 121.677 -10.9823
20.3106 82.1381 -0.868679
-9.91691 99.6208 -12.8502
16.8002 81.2661 16.1052
-9.76147 102.451 -12.5879
-19.059 82.7979 -5.56445
-14.4673 83.7985 14.2132
-6.9504 111.81 17.6822
-0.981772 99.5193 -14.8557
-17.0701 112.3 10.4069
15.3967 124.635 -1.07309
21.4897 83.9526 0.971462
14.2802 121.888 9.89283
-13.0008 93.0593 -12.5475
13.2672 131.711 7.6997
-14.2928 93.7002 10.0208
25.3912 121.386 -1.98293
-17.072 76.1248 7.89942
16.6596 87.7617 -7.52463
-1.73852 91.3734 20.698
7.15325 93.2822 19.6561
3.23573 107.571 15.4735
-19.8068 92.9535 -4.9364
5.46013 123.577 8.77252
19.4139 102.147 -1.51
3.15702 88.2379 20.7055
-7.9204 98.7463 -13.3847
16.9491 99.9525 15.6793
26.5619 121.946 -2.91647
-19.8489 105.268 -1.43829
21.5296 101.685 10.163
-16.9976 80.2653 9.25075
19.4202 76.6419 13.3574
16.1692 76.9838 -8.37087
22.9763 79.8625 5.63429
23.9559 128.06 -0.859617
-0.453468 124.791 13.9487
11.6075 110.983 11.3487
14.7837 111.588 -9.41166
-16.3599 76.9155 9.53251
-17.0502 112.42 9.54356
1.74192 115.32 13.6938
-19.3669 101.133 3.50457
-5.39413 124.562 14.1278
-0.584023 110.932 -11.7222
-2.64453 85.6265 -15.5462
1.43252 78.685 -15.5175
-15.3493 77.4461 -10.9673
-18.9187 98.7607 3.93271
-11.9258 87.0932 -13.1325
-16.6925 112.275 8.06589
-6.24947 85.1518 18.7855
22.223 98.8038 7.84247
-11.9254 90.6899 -13.3122
-19.7607 93.9408 -5.47846
16.6734 88.4177 -7.95802
12.729 99.1748 -11.2913
-15.0422 89.029 -10.42
8.687 77.0708 21.3307
2.70879 104.645 17.5675
0.56039 101.453 -14.2759
19.0456 93.9495 -3.90973
-4.66136 113.233 17.6791
19.7615 99.0285 13.4758
19.4836 131.696 3.60513
-12.355 91.37 12.6894
12.5202 81.4715 -11.8807
17.2028 77.7933 -5.23425
-11.527 88.1145 -13.8067
-16.7666 110.272 5.58478
-1.36124 84.7917 19.8512
18.4366 87.8851 15.2138
-20.1474 94.3136 -4.92413
21.8766 130.785 1.57816
-2.70335 92.5478 -15.268
3.61405 126.521 10.2498
-17.8759 108.936 10.1221
-6.51666 98.6778 -13.5697
17.3734 122.061 -1.87168
22.7341 96.0067 5.43182
17.7008 124.055 1.24371
-19.1478 103.932 -6.68027
16.5288 76.9781 -7.36509
17.4048 125.582 -4.72417
21.2403 105.4 8.72969
23.3016 79.9605 6.99125
-19.1007 86.5357 5.16081
4.11049 104.837 -13.4519
-20.401 89.2363 -1.65365
-10.2912 94.2828 16.245
13.2246 118.294 -6.32565
-2.23035 78.437 19.1597
-15.1492 78.0638 -11.2664
3.13572 81.3893 -15.2866
-14.1472 88.8961 11.2779
21.5819 90.5802 1.54531
9.57181 104.291 14.8246
14.4055 120.702 10.2876
23.11 79.4257 6.40119
-8.59025 110.594 16.5646
13.5433 89.2987 17.743
18.0739 98.537 14.8234
21.4099 76.0458 2.78585
-19.6013 95.2682 2.14334
20.8998 119.071 0.552696
15.5884 98.8008 16.4708
14.6646 125.499 10.7837
20.9961 78.9062 0.549474
19.0422 120.374 0.266036
-17.8735 109.339 5.79774
14.0411 125.312 -1.62098
-17.0229 77.6491 9.35022
-14.9601 118.037 12.9563
15.2793 98.1371 -9.28921
9.15347 111.068 -10.3939
11.0493 80.8346 19.3598
17.344 127.726 1.86377
-15.9767 75.5288 -11.251
-11.6944 93.0006 -12.7678
0.397188 124.337 12.9572
18.3283 124.193 7.17335
14.767 80.5941 18.1158
-2.3758 126.318 14.0357
-11.9814 85.0199 -13.4848
-16.4749 94.0299 9.07521
5.51749 91.0651 -14.1861
-2.08411 93.1768 20.4239
-6.42498 82.6911 -15.2005
19.7513 105.187 13.1984
16.3293 107.792 -8.70078
17.5261 88.1842 15.9483
-8.65705 104.774 -13.2776
-11.9262 112.147 16.0278
-2.25208 99.7712 -14.7238
17.6677 104.864 14.6942
1.62847 98.2556 18.4746
-17.3393 82.7943 -7.34879
17.6644 112.099 13.3078
9.77335 98.7099 -12.9725
2.62152 94.7644 18.6896
0.177976 89.1556 20.9884
1.3889 123.436 11.9847
7.80619 97.4836 -14.0541
-0.799002 83.914 20.0677
29.341 129.318 -5.22311
22.914 79.5298 9.78826
-10.1133 107.063 15.6128
13.0486 100.25 -10.8637
-5.52493 127.739 13.7342
16.4662 115.062 -2.32725
25.0686 125.462 -8.7028
-7.37034 98.4589 18.5407
20.5336 116.883 4.46089
-4.31153 127.395 13.5331
-18.6111 88.1182 6.86737
29.508 129.804 -2.33151
12.7689 85.9109 18.1639
-1.64111 116.004 15.7308
20.6704 77.1886 0.733097
2.94168 113.967 12.8808
-20.3287 95.4701 -1.77093
21.7822 120.257 0.427088
18.0587 122.442 0.258901
15.1914 98.9215 16.6916
13.3684 76.3608 18.5548
3.82331 109.486 -11.3125
-15.7928 97.5148 9.76156
17.7952 107.997 13.6814
-10.196 103.129 15.9057
22.5212 96.3139 4.72563
-20.1863 95.058 -1.7668
19.7281 99.1342 13.5085
16.7782 114.53 12.9355
-19.2831 83.6585 4.10137
-13.5919 105.143 14.5082
-16.0132 112.949 4.09575
8.53721 115.815 10.0912
21.6067 108.081 6.28493
6.74957 90.4837 -13.6985
-16.0532 112.441 4.72047
22.5883 95.3151 7.72391
10.9804 109.516 11.9337
16.1023 128.904 8.3022
17.6415 82.8272 -5.55931
-19.8011 81.6155 -2.88889
6.85768 105.315 -13.0399
-2.91235 96.9917 19.9463
-16.4558 81.9589 11.5917
20.24 80.1629 -0.622511
7.8619 105.559 14.7875
-19.8659 101.703 -5.94178
5.37143 129.61 8.40886
-19.9116 94.3536 -1.70119
-19.4578 76.5199 -3.10285
9.64271 126.989 6.61708
6.24783 90.3741 -13.914
20.9329 104.362 1.52237
-10.1638 98.6406 16.5691
18.5038 119.557 1.81007
13.8492 85.7545 17.7984
26.363 124.242 -2.65526
-6.44135 76.5675 -14.7665
6.04773 90.9288 20.4658
17.331 89.6601 -6.63181
-3.92716 95.7515 -14.7487
23.6202 80.6599 8.20342
-19.9529 84.0652 1.97782
6.80093 122.83 8.3817
0.953025 84.5333 20.8033
-15.369 100.254 12.2411
0.146643 86.107 20.7492
-20.2079 88.1471 -3.5037
8.62205 81.1999 -13.5583
-17.348 81.676 -7.07478
-15.4029 114.1 4.19908
22.7821 127.402 0.679061
16.1202 99.3527 16.3311
14.9692 86.124 -10.1207
18.367 127.944 2.69222
-7.81532 81.9371 17.9405
11.1165 98.3763 -12.1242
13.2273 132.853 8.69194
12.9239 105.895 13.3031
-0.762483 126.67 13.8263
-9.83206 123.936 13.6649
7.1815 110.774 -11.2948
-6.40557 83.8248 18.5691
-2.01615 87.5661 20.0792
17.4413 130.781 5.72378
4.04884 102.475 -13.2483
13.481 120.517 -5.67693
-7.47374 114.032 16.587
-20.4081 96.2205 -4.34652
-8.73531 100.374 -12.9653
10.6895 87.4767 -12.4256
-14.3609 114.189 13.4811
-17.2812 102.355 -10.0118
23.0333 76.9504 9.02664
-19.5888 74.7076 -0.0376998
13.3348 119.009 -7.40551
8.25535 129.146 6.14888
18.9134 85.1472 14.4487
4.4832 101.984 17.4936
14.5991 133.883 7.7561
22.5053 81.7285 4.91407
20.3657 107.996 10.9353
-15.0641 86.4004 12.1563
16.1382 78.2211 17.3032
12.5467 81.0009 18.9001
-18.8689 78.4398 5.98715
21.3038 112.007 2.86145
27.9939 124.976 -8.89922
2.95514 114.944 12.5706
-17.3554 93.3407 6.67381
22.9987 79.7483 5.79194
17.4574 125.01 1.55331
-4.64929 110.505 18.1358
11.9071 75.3663 -12.282
18.304 83.9338 -3.55395
20.042 97.0682 -2.3757
-19.934 76.0094 -2.7087
-0.0709155 94.1033 19.3986
27.1082 124.785 -9.02579
8.44645 87.5231 20.6345
-10.8513 91.2238 15.0194
2.66522 101.29 18.2364
-11.7068 83.876 -13.7983
-17.7212 75.193 -5.28499
-14.9159 116.136 12.8361
18.5315 106.954 13.9175
2.14343 100.553 18.4501
1.75183 129.247 11.6806
-20.6831 100.1 -3.06733
13.036 97.6479 -10.9013
0.0883069 116.817 14.8442
13.2251 120.951 -6.11965
-20.8401 98.8106 -3.17296
22.4384 94.6031 7.41891
19.9014 118.89 7.2854
-18.4238 109.589 8.76932
-0.883022 94.3094 -14.9739
15.3357 126.655 10.1545
-6.5973 124.17 14.4572
10.9141 77.1973 20.3008
15.6266 101.724 -9.36211
13.2195 108.922 12.1471
-1.89285 86.7301 -15.3572
21.6559 108.49 6.09198
-12.2296 80.3653 16.4481
3.25983 103.298 -13.0824
0.53823 107.38 17.9842
-1.00158 87.289 -15.2825
-9.26688 95.5186 -12.969
-5.64628 99.3824 -13.8176
18.3243 90.961 15.1766
-20.698 101.229 -1.18204
6.04284 111.282 12.5958
-4.84815 125.734 13.9086
3.60971 99.691 -13.9863
21.388 123.882 1.24667
22.2177 92.901 8.92461
-15.1356 93.7899 9.53704
22.4114 92.5733 7.81495
-17.1798 106.827 10.6108
-11.5847 85.7193 16.0551
1.3203 103.705 18.2126
-3.20066 75.037 -15.3855
20.0426 78.018 12.5151
-18.7366 110.307 1.4322
-16.317 115.566 4.24233
-6.00256 77.0889 -14.7623
3.09351 116.662 11.9152
20.9039 99.2468 11.153
23.6696 77.7638 5.98353
-2.02125 123.272 14.6851
-9.00317 88.9236 18.1251
8.13494 88.2158 -13.5482
-5.84424 84.3419 18.8066
-3.98198 101.251 -14.5291
-16.483 88.7481 -8.49298
1.28473 108.161 -12.9882
-18.9897 105.115 -6.41693
13.339 120.327 -8.89659
14.8095 126.469 10.4385
-14.863 86.1867 -11.2723
-20.0471 97.3459 -5.18529
14.7246 125.768 10.7809
15.466 126.317 10.2854
12.5988 81.8737 -11.8539
9.82936 96.3827 18.3077
22.3173 85.5359 2.85661
21.8997 93.9712 9.98799
16.9093 119.699 -3.10898
5.29456 110.574 13.0862
6.49863 75.9196 -14.6517
-11.8891 87.1357 -13.1596
16.9829 104.605 14.8648
15.4809 103.575 -9.72037
18.5664 121.798 0.486817
7.39252 94.4192 19.0797
1.16717 107.596 -13.2719
16.9505 91.8552 15.7884
-19.9794 75.2687 -1.47766
-2.48372 87.5065 19.8443
-17.9968 90.7937 7.04446
21.4488 99.5965 10.1394
13.261 77.6005 -10.8999
-10.7342 125.119 13.3876
19.588 86.9721 -1.83402
20.7027 84.3877 11.5871
21.0484 95.6248 -0.175497
1.60279 107.251 17.3055
-2.78227 83.9883 19.2747
-15.7222 103.283 12.7093
7.63196 88.2062 20.8231
-3.49442 100.866 19.3771
17.3307 106.381 -5.819
22.5657 89.9528 4.85038
-4.97225 93.9498 19.5106
-19.2388 97.0819 4.71213
-7.74687 90.3259 18.59
-19.1225 79.4979 4.57822
13.5405 129.077 8.68437
4.65311 104.386 -13.3908
-3.78476 97.1709 -14.4247
20.7115 78.8548 11.9411
4.46568 88.3703 20.4561
13.7362 128.371 7.57746
12.7795 100.711 17.0263
12.0432 114.453 10.2521
-9.1867 89.4733 -13.983
29.2262 131.851 -2.85095
12.3393 105.362 -10.8446
1.27901 111.527 15.0092
21.5974 127.734 1.93938
-17.7844 100.922 -9.21355
29.6958 126.083 -7.4247
22.4388 85.0597 5.65086
-0.838892 100.883 18.9052
4.88883 79.0529 22.0423
8.51505 97.5996 -13.6549
-18.7579 99.667 4.81412
11.7272 124.118 7.55434
-18.9988 77.1752 -3.68513
-3.57464 120.243 15.7322
19.9939 120.248 -9.77728
-12.3049 112.814 15.9205
-17.9316 80.029 -6.06552
2.40627 112.018 -10.1407
-11.4917 103.256 15.0156
-19.4345 81.9626 4.08739
17.8053 120.755 -2.04436
14.4633 77.2922 -10.0078
17.5937 99.7044 -7.43357
8.35245 97.9676 17.458
-11.6163 97.2732 14.0816
19.6109 88.7649 -2.46893
29.6001 129.945 -3.14591
22.1844 89.0605 10.9068
11.2153 118.969 -8.40935
-4.52179 97.4208 -14.2703
-18.1867 109.595 1.68259
-14.0282 88.4854 -12.221
15.2623 89.8167 -9.93081
1.65442 91.9084 20.1798
-15.6632 99.2415 11.2876
-16.1755 84.7781 11.1696
19.3235 76.4279 13.4883
-17.7988 110.912 10.2709
-16.689 75.7512 -8.45837
6.28398 81.3989 21.3822
20.1683 101.201 13.0248
-12.4846 86.2855 -12.6828
-5.25995 106.88 18.1143
-20.4358 79.5047 -0.636444
-1.60843 102.052 18.8392
13.5085 129.164 8.83681
2.75091 88.375 20.7831
17.5202 93.8898 -7.40676
17.7517 121.853 -4.85289
21.3091 111.824 2.95364
14.5153 124.99 -1.08186
22.5633 91.0144 8.92463
16.1624 81.8525 16.9867
-12.6602 94.8216 -12.0016
11.0269 116.69 -8.23217
-19.068 92.9055 -6.0856
-12.7853 123.195 12.8209
25.7321 131.915 -1.51632
3.94148 119.656 10.5896
22.6091 82.7382 6.10206
23.1694 77.9253 4.22192
9.98324 95.4934 -12.3235
-16.8588 105.494 11.8097
3.29078 128.611 10.2961
-15.5993 86.7458 10.9886
-19.7491 102.798 3.88493
-6.58119 86.0285 -15.1109
-16.9011 103.871 -10.1681
18.702 96.4767 13.8497
10.4474 89.8234 19.5827
21.427 102.546 3.36999
17.0597 123.373 -0.445033
7.27464 127.38 7.01069
24.8375 127.066 -1.70353
6.77691 109.901 -11.5334
13.6728 124.399 8.36071
-10.0631 96.5606 16.639
-11.5432 83.5821 15.8398
21.5259 93.8705 11.7444
2.8638 86.2386 20.6042
20.9214 84.5803 0.601929
-4.73636 111.704 18.0041
20.045 77.9307 12.5438
-20.7092 101.812 -1.21706
-7.88333 96.502 18.3703
19.4831 104.555 -1.01809
-20.6673 89.8019 -3.40909
-14.171 87.8726 12.221
16.4428 79.0588 -8.04749
-18.9319 91.4361 4.07217
20.8884 114.399 7.06111
-3.41168 78.0798 -15.0814
17.4793 111.743 -5.4015
-19.0852 91.1557 3.57577
21.6985 102.491 9.94663
2.58906 86.1169 20.6301
-17.5253 88.6031 -6.98505
-17.9907 104.528 8.55121
-0.91662 126.919 13.9501
-6.76598 86.0891 -15.0981
17.2913 90.7597 15.7123
11.4745 113.619 -10.3898
-19.7089 104.846 0.713343
-5.6913 110.21 17.9911
-8.45188 80.3653 17.7404
16.553 130.489 3.30374
-5.99736 102.933 -14.098
-13.0178 86.8395 14.5178
-15.4163 119.327 12.6665
14.2426 118.266 10.4413
-10.8901 93.7731 14.9017
21.9819 93.74 9.19021
17.2136 100.296 -8.04462
19.8912 117.662 3.54704
16.0078 87.2832 -8.8325
1.12788 77.7664 21.0219
16.5248 97.1791 -8.52161
-4.19483 124.935 14.094
8.60267 99.3829 -13.6104
-11.6416 88.5866 -13.7934
8.44939 105.401 14.5515
20.6437 110.26 2.193
13.2838 116.032 -9.021
20.5757 84.9188 11.9532
-19.2097 93.5295 3.07591
-7.35781 79.7022 -15.2737
-9.6348 95.8713 17.1428
17.5404 99.0556 15.4725
15.3333 103.059 -9.81349
20.2532 89.8996 13.2299
12.9405 98.0959 -10.9601
7.71834 100.727 16.2705
-15.7955 110.967 13.5529
20.0246 87.0194 13.501
-17.5481 85.8264 -7.1847
-18.5949 97.7956 -7.74544
20.6292 108.673 2.58115
-19.2263 79.3682 4.08228
-1.68321 91.0586 20.6898
-20.7544 101.571 -2.4995
11.0955 95.2393 -11.7346
5.35789 90.8769 20.3822
23.1726 122.389 -0.162118
20.8435 105.254 11.1105
10.0225 106.966 13.2066
-20.5804 104.913 -2.44075
-11.2349 113.236 16.349
-7.56128 83.616 -14.6928
3.06324 119.251 11.2348
19.1535 88.2854 14.5001
21.8094 89.8321 1.85966
-8.69276 96.9711 17.6662
-20.6238 102.287 -4.49396
-18.9453 91.9918 -5.75364
-16.1041 113.793 8.99944
-0.861871 102.01 18.8428
13.6447 126.323 -1.03413
-20.7973 99.2645 -2.83815
-1.25222 78.3372 20.0966
26.9903 126.013 -3.01783
9.73007 128.882 6.09185
18.4198 95.8506 -5.70061
-0.884188 108.426 18.1555
29.1191 132.339 -3.07277
1.14127 117.104 14.1455
7.84372 123.375 7.89204
10.5075 111.096 11.3845
18.5242 120.295 -8.81211
16.287 87.8742 -8.38809
-9.42395 76.5153 -14.3419
22.5595 88.6388 7.3701
-9.81438 101.244 -12.6473
17.9715 121.55 -1.52325
12.0164 105.083 -10.9193
22.52 91.9049 3.49971
18.2381 119.606 -2.95348
3.46345 108.227 15.0587
12.3527 110.946 11.4558
-17.8562 95.9795 7.81097
16.1314 88.4423 16.6537
-16.1718 93.1444 9.26737
21.0741 122.178 1.30536
15.459 105.064 14.632
11.0571 94.9568 18.8565
-15.5663 92.4165 9.35951
4.07947 125.269 9.58722
0.596923 97.0869 -15.0847
-2.092 106.415 18.5898
13.5862 78.9367 18.6615
-19.1121 104.192 -6.36777
10.1798 128.147 6.27622
8.70849 116.75 -8.9463
17.06 114.69 -1.84203
22.0845 92.8112 10.9443
16.1034 105.753 14.2149
-4.65952 116.25 16.664
-12.8849 78.9909 13.9526
-20.6131 100.564 -2.79392
-5.03835 94.9374 19.3586
20.8266 115.975 4.46187
11.8298 90.8282 -11.6947
15.8497 77.8064 17.6044
-4.44952 127.307 13.5513
3.3254 114.337 12.4327
-12.4731 99.7624 14.605
-16.09 83.1518 11.7655
-15.3554 78.4862 -10.4435
21.4594 102.757 4.02089
19.1883 80.7402 -2.33613
-13.0496 86.9986 14.3392
-6.71321 84.1749 -14.9044
14.0719 81.6339 -10.8666
20.607 111.915 1.12882
16.3909 76.4494 -7.49027
13.682 79.0394 18.6426
17.0887 127.288 2.24463
6.66806 94.3384 19.1719
2.77684 99.716 -14.1121
18.2909 107.962 13.7904
6.49072 100.485 -13.3684
3.71334 96.9828 18.0082
-14.3612 104.962 14.2166
-18.5139 85.6723 -5.89228
4.50673 82.4517 21.1186
3.43376 102.335 17.8376
-13.0091 91.0617 -12.8423
-6.3634 105.045 17.1145
26.9774 127.887 -7.49919
14.5617 94.5974 17.5631
30.4 124.45 -1.16238
-15.6404 83.6542 12.7253
14.4779 114.5 11.9496
10.4876 83.8845 -12.8684
25.6942 129.177 -2.44329
7.16878 108.364 13.1492
20.5561 116.662 5.87135
17.6599 127.574 4.65905
3.81871 94.7286 -15.0241
6.08211 105.154 15.5974
-1.87985 126.158 14.142
16.3541 103.63 15.3005
-6.25561 84.4304 -15.0689
14.6503 109.02 12.8837
-14.8848 77.5484 12.4239
-19.5433 77.5001 2.53382
6.54896 128.488 7.15982
19.8817 99.6367 -2.23646
-15.6543 78.1541 10.9441
11.3938 116.224 9.59524
-1.0999 84.0615 19.8932
-13.3159 78.7959 12.5575
-19.0979 90.3905 2.54623
1.39413 109.741 15.6631
-9.90796 106.027 15.5069
-16.8167 102.422 -10.1853
-17.7829 101.926 -9.18266
14.4202 121.732 10.3176
0.041594 111.138 16.207
13.0013 119.116 -9.26635
-19.4739 85.5476 3.53189
17.722 105.075 -3.50543
15.4163 102.938 -9.74945
-1.13135 77.8207 -15.2807
14.2769 126.894 8.99731
22.3742 91.4669 5.6669
4.14982 116.636 11.1974
20.0208 119.434 -5.94323
-7.15548 119.835 15.4729
-4.83237 102.272 19.0897
16.8142 115.043 12.9453
-14.9304 85.4975 12.9453
14.4798 117.061 11.2306
-6.84369 88.2656 -14.7608
-11.6827 100.75 15.486
-7.37989 82.2597 17.9712
2.5509 86.3281 20.66
22.5105 83.7081 6.89271
15.8969 134.022 7.01698
-14.4555 87.3562 12.2578
-18.8831 104.785 -8.11923
30.3593 124.557 -1.17107
16.6454 89.1824 16.2355
14.8528 76.9355 -9.91211
7.12733 117.008 10.1802
-7.08363 113.346 16.9747
10.2642 105.487 -10.9565
9.03937 82.2211 20.2645
-6.87953 96.5444 -13.7109
4.85459 108.011 14.3561
18.4442 107.323 -1.60093
4.07283 107.989 -12.1893
14.7596 81.7705 -10.2461
-20.1144 75.0588 -2.67463
14.9602 116.166 12.0217
-12.4836 93.5796 -12.4194
19.6681 92.7014 13.8741
17.2842 96.6534 14.8687
19.8621 100.877 -0.934119
-15.4391 99.5879 11.8708
-15.0222 88.5568 10.5124
21.2566 86.7751 11.9809
-3.54381 117.352 16.3263
20.1172 97.8528 -2.37823
-14.7907 95.1322 9.85838
6.97084 100.753 -13.453
-2.51943 121.788 15.0432
-14.564 81.8669 -11.6647
0.719881 79.1541 20.4482
22.5012 78.1075 9.9842
-5.01168 99.0316 -13.7943
22.2305 130.02 1.17198
-16.5523 117.662 11.2475
21.8811 78.3786 11.2177
-1.06314 79.3708 19.5683
-14.4427 87.4056 12.2311
0.0129172 89.7271 20.9085
17.4569 98.3871 15.3124
-3.49937 84.56 -15.5081
17.9599 124.734 6.77627
-8.29759 81.6674 17.8344
-18.7127 85.1068 6.84461
19.879 123.393 1.46766
17.8433 77.0889 -3.24707
7.90204 105.583 14.724
13.6787 128.01 9.08112
21.0416 86.494 12.061
9.86205 109.153 -10.2922
21.3814 97.7704 0.276319
1.5069 76.678 -15.5294
6.75598 114.653 11.073
14.1948 119.241 -3.9845
13.5278 134.072 8.37518
13.7798 105.259 13.8738
3.68139 122.61 10.0831
18.6736 113.655 -0.874854
7.12565 102.527 15.915
2.24891 104.839 17.6731
-6.92576 89.5052 -14.7072
-5.03197 102.098 -14.3627
18.726 93.7268 -4.39651
2.20978 129.281 11.2006
3.25997 98.5254 -14.3461
17.2481 105.359 -5.55916
20.6036 92.2803 12.6634
7.40309 104.907 15.7043
-3.612 79.7332 18.7033
6.36635 97.101 17.6742
17.0275 122.367 -2.3703
27.7948 127.343 -7.82024
-19.305 99.087 -6.38711
-17.0263 112.593 3.3123
19.4758 102.062 -1.43317
-16.8471 77.9485 9.61532
-16.4007 99.1728 10.3089
20.928 103.981 11.4048
-19.4515 82.4504 -3.94378
23.5782 81.7451 7.40005
-5.07075 77.2906 19.0265
18.7713 127.237 1.77524
20.4476 87.4191 13.0564
16.5401 108.736 -8.13375
-19.7952 94.3471 1.25644
7.23448 113.036 -10.9414
17.5504 122.099 -0.700125
-20.7471 92.62 -3.60971
-13.7945 83.4567 14.6087
-13.3248 123.243 12.4147
-17.3979 92.7329 -8.34613
-11.4027 79.2246 16.5856
21.7379 99.4868 2.10475
26.9172 131.48 -2.12945
18.4136 118.324 1.22627
-19.0213 97.4307 -7.26983
-7.96814 106.234 16.2341
14.9949 92.857 17.2837
-4.46274 80.4503 18.3818
14.6121 103.691 15.2505
19.9349 107.297 1.64287
17.4629 122.063 -4.00863
-15.5255 118.444 12.6786
18.1462 99.357 -6.29569
18.5623 119.577 -0.904893
22.6271 88.9323 3.52098
-16.9233 112.426 12.3604
-10.3836 103.342 15.6626
2.88101 81.101 -15.3342
-9.88087 80.2765 17.0529
-20.5535 91.1889 -3.75154
15.8116 80.5421 17.4465
18.4405 108.87 -2.04885
-16.6237 109.856 12.7197
10.8365 78.6238 19.7932
-14.5331 98.549 12.2164
8.8379 87.1524 20.4838
-9.86461 95.0979 16.8153
3.81125 95.2125 -15.0036
13.527 119.902 -8.01499
8.55077 92.0532 -13.0069
-11.3069 97.2642 -12.2555
-10.2591 86.8652 17.1466
-8.14755 79.4576 -15.0859
16.3124 109.446 -8.85893
-11.084 123.922 13.3512
17.7459 105.708 -3.59927
-18.3048 99.012 8.19403
-8.33673 124.359 14.3522
-6.42968 75.3816 -15.0799
7.73544 117.989 9.64963
3.08922 77.6474 21.8753
-19.2716 80.2506 4.37772
11.4672 96.1651 -11.6192
-10.4652 82.4782 16.1796
-20.1791 85.6208 -3.48883
-19.5566 79.4339 -3.79499
5.86524 112.562 -10.2699
18.414 119.471 -6.89132
3.01308 116.876 11.9491
-16.1037 86.9692 -9.59157
-16.3554 117.006 11.4887
-17.7813 94.5261 -8.6352
29.6851 128.383 -4.29095
17.6658 120.293 -1.60548
-17.221 97.6107 -8.91357
25.4417 131.875 -1.36426
-1.8037 109.929 -12.3443
16.0434 92.0325 -8.91545
19.9743 99.071 -2.65516
20.4835 94.6403 12.8776
17.8805 124.45 1.56104
-18.7501 98.9346 -7.45741
-14.6811 103.844 14.041
-5.45324 94.4031 19.2847
-13.11 88.4308 -12.732
15.9664 104.751 -9.41367
-0.787908 128.605 13.6746
-3.32926 77.3101 -14.9988
-17.7227 111.136 9.86423
16.7008 128.848 2.11049
2.79697 110.403 -11.3758
15.3328 83.1616 17.4547
18.5901 115.737 11.9355
-9.62458 82.5581 -14.2408
-17.4499 91.4143 8.1087
-11.792 111.074 15.9547
15.7903 131.889 6.93725
-7.31792 119.764 15.5112
22.7732 94.0643 4.83647
-16.3112 87.2673 10.0327
-20.0303 104.804 2.79651
16.2993 108.759 13.4567
-15.8728 101.402 12.0442
14.4586 99.3504 17.2532
18.2496 112.932 -4.41901
21.3059 117.887 -0.208141
1.80637 105.961 -13.056
19.9742 93.1078 -2.4081
18.9946 122.676 4.88785
1.80763 86.3781 -15.1991
19.0744 123.131 4.01665
7.67517 92.6069 -13.3459
-15.5564 114.359 4.84605
-16.2192 100.929 -10.7544
-15.3493 103.335 13.156
-19.3333 99.9227 -6.48629
-20.8662 98.1676 -1.83725
23.5773 122.432 -10.494
-12.5744 82.5763 -13.1998
12.3799 116.398 -8.34226
-4.30284 77.9913 18.4286
-17.4084 85.5993 9.0035
18.025 100.353 -6.09237
21.055 90.1404 -0.355249
-15.5924 112.618 13.5568
-13.4474 89.3319 -12.7631
19.0484 121.004 1.59923
-1.69768 115.263 16.0865
-15.9766 117.788 9.50656
17.0069 124.963 8.03874
11.9688 110.365 -10.013
-1.8359 77.1576 -14.9942
22.3202 81.8159 2.38453
-15.126 98.8965 -11.5786
-6.89607 92.2048 -14.4702
17.0726 102.472 -6.30815
-19.1499 111.075 0.985862
12.3023 114.219 -10.1196
5.02736 118.517 10.3383
-11.7507 90.8844 13.6987
-19.3553 87.037 3.28527
-14.4447 88.9613 10.9135
-16.7182 117.783 11.0059
3.30504 95.202 18.4856
17.555 120.17 -3.61967
-15.2198 99.4073 -11.5444
7.92253 98.2027 17.2595
6.18248 107.279 13.9165
15.5117 133.434 7.11919
4.04695 119.653 10.5234
-10.3335 85.7602 -14.3333
19.4304 95.5949 13.6484
11.1829 110.207 -10.3173
13.3702 114.869 10.6255
-17.5229 75.4915 -6.67689
-19.4193 100.884 -6.75927
4.05491 87.0531 -14.8746
22.1873 92.9846 2.72344
-7.53208 125.54 14.3137
18.6456 90.8916 15.0162
17.63 83.1954 -5.53447
-12.4047 79.1526 14.9639
8.93602 90.9206 -13.0488
-17.2071 92.8267 -8.66176
-19.2048 107.121 0.493504
11.3771 122.503 7.92936
14.6791 125.035 -0.57938
0.557739 91.9696 20.3609
29.8895 126.955 -7.53195
16.3655 109.471 -8.72481
19.1729 77.6212 13.5791
21.973 107.442 5.36845
18.3045 78.4921 15.0647
10.5676 93.1397 19.4275
6.69968 75.0528 -14.6701
-3.77499 84.8327 -15.493
-16.0101 120.48 10.9316
-1.93447 112.737 17.5798
2.77698 91.9854 -15.1877
19.7052 113.785 0.860352
19.4058 95.9807 -3.71694
1.99725 124.482 11.3063
-16.286 83.0446 11.3275
7.92453 119.711 9.03451
1.65283 96.1171 -15.1342
-3.8582 98.6309 19.6815
1.48174 119.12 13.4843
-18.5758 107.764 8.23719
-9.21327 119.233 15.3055
7.02226 120.262 9.07964
-2.23516 90.9796 -15.2723
-7.62129 98.4988 -13.3682
15.701 125.221 -2.25464
-19.5516 92.203 2.65745
12.5678 97.0307 -11.1469
22.636 85.8176 4.92266
-6.91126 101.912 -13.8608
15.5516 116.213 -1.83173
21.8559 90.9491 11.4002
16.4269 76.3867 -7.35907
16.5781 110.192 -7.55046
10.4645 111.7 11.1533
-14.889 94.8018 -11.7752
17.9243 103.228 -3.56667
17.3214 125.433 -3.6852
0.182383 87.4197 20.9027
2.35075 107.608 16.2301
16.5153 86.7176 -7.64686
10.4607 87.0867 19.6634
15.661 130.328 8.10384
22.5794 85.5688 3.34987
-16.359 115.288 4.8427
0.116676 101.648 -14.3599
20.0648 117.33 3.90909
8.69599 102.023 -13.3312
0.162032 76.497 21.8489
-8.2459 81.1058 17.8496
30.3369 125.512 -1.54327
-18.0123 76.2928 6.97901
4.99141 108.719 13.9866
-6.18161 122.435 14.6702
16.7472 93.4514 -8.20742
14.1268 114.042 11.5981
22.7363 93.8685 4.34408
-3.84067 82.5656 -15.4879
2.02708 87.8604 20.8593
-19.5098 82.947 -3.81921
-20.3415 90.7106 -3.94169
13.8306 121.942 9.03875
20.2756 111.77 -0.116309
-15.8176 75.0695 -11.347
13.2817 89.0206 17.907
4.91606 111.387 12.9677
-19.3575 77.5019 3.05363
19.44 100.142 -2.66447
-14.7824 79.5672 14.3216
-18.8862 96.571 5.0715
-17.5635 92.828 6.54557
-14.1188 78.6187 -12.6279
6.5972 81.4141 21.3083
-16.0043 90.3771 -9.42108
-17.5974 89.8214 7.75151
5.39897 129.779 8.3819
16.7317 115.809 -0.0415201
-18.6789 107.864 0.415513
15.2364 84.9098 -9.32577
7.51151 89.5016 -13.5482
-18.8472 109.761 0.847219
16.2355 96.8684 -8.72884
12.5592 117.217 -9.8289
-2.85469 102.3 19.1873
-8.93543 103.642 16.3799
-17.3163 74.4759 -6.52668
-19.8692 79.2089 -3.48706
17.964 124.039 8.12688
9.02149 114.401 10.4668
-15.1682 78.4242 12.7276
14.4254 98.5101 -9.8535
19.0824 124.877 0.668009
-10.5727 103.604 -12.191
-7.38466 109.29 17.1426
13.6727 118.03 -5.69151
1.79428 122.369 11.7538
19.9264 111.206 9.68836
19.3975 107.381 0.515097
-15.7172 117.388 9.07023
18.9222 86.5485 -2.89703
-18.9668 98.8817 5.68764
-0.630798 94.1425 19.6032
-7.72217 91.8022 18.7058
-19.6369 94.6448 2.13287
-19.6822 82.6388 -2.72439
13.7224 88.5305 -10.7823
18.335 119.637 4.03169
-16.8072 103.887 11.5468
14.0132 128.54 9.62981
15.3771 116.055 -2.36214
16.635 129.166 2.48539
18.236 118.972 2.09436
-19.1855 107.627 4.03684
11.6502 90.6179 -11.8373
15.8459 88.146 16.8553
12.5789 107.557 12.5405
-20.5507 87.8181 -1.9077
-16.0187 85.4082 11.5529
-4.08738 84.9741 19.0819
15.2479 118.336 11.7666
16.2184 123.027 -1.98565
16.8001 109.307 -7.03132
15.0452 85.3849 -9.76952
18.263 127.094 3.13589
-10.6913 98.9947 15.8057
2.27126 99.1576 18.2053
19.2934 122.611 1.22087
-6.91191 79.4572 -15.2472
22.2865 90.7064 6.36316
17.1346 117.079 12.3128
19.3679 107.917 13.3464
16.3579 92.6932 -8.39781
-2.99963 87.6046 19.6791
-2.46901 101.061 19.1406
6.03833 83.6343 -14.2823
-6.72816 103.74 17.5761
6.51212 107.898 13.5777
15.7396 81.4674 17.478
-19.8577 93.0797 1.42392
-10.3646 95.1294 16.2068
9.25775 89.9741 -13.1027
10.2865 97.9203 -12.4358
19.403 80.4608 -1.9365
21.683 110.423 4.60942
18.6603 105.54 -1.79461
11.0965 77.4647 -12.8759
0.491735 80.2186 -15.6677
17.4847 132.653 5.06576
-9.69744 100.156 17.0648
-20.3778 85.2446 -0.655535
-18.9435 89.834 3.25365
16.0102 123.886 -1.15582
21.9305 94.4208 10.6793
16.2796 115.758 12.717
1.65121 85.4927 20.6947
-0.152537 112.646 15.9107
6.4532 79.7275 21.3959
20.1236 115.359 8.30046
0.0383402 77.1062 21.3468
17.0681 79.0186 -6.2513
14.5218 82.4252 17.8981
-3.26752 106.984 -13.5052
28.5367 128.153 -1.94763
-16.5672 91.6752 8.69919
16.1843 103.633 -9.08628
11.5094 76.2412 -12.575
-8.398 81.4159 -14.6945
-4.33563 121.059 15.3443
11.9581 99.7821 17.1034
15.167 100.45 16.7498
-4.90693 103.211 18.8812
17.8352 113.035 -4.83939
-6.90732 88.0934 18.7255
-3.80914 80.1673 -15.4616
13.6036 123.34 8.49475
18.9689 92.9032 14.6413
4.55954 84.8729 -14.5938
17.6502 94.2808 -6.91693
19.159 121.752 -0.681544
-16.94 112.493 11.6382
-17.0894 74.8076 6.69303
1.69973 91.0938 -15.2918
19.7914 110.469 -0.388498
-18.7284 108.566 4.27606
15.6049 94.2115 -9.01248
-2.41873 104.827 -14.3516
4.92662 90.3189 -14.5468
19.9535 126.454 2.40595
7.75601 89.9115 20.5711
-15.9759 107.727 12.9902
17.6146 124.663 -2.5928
-2.78198 103.821 -14.4743
30.1484 125.287 -8.46768
6.99857 102.874 -13.3692
-15.5578 77.031 -10.5445
17.1783 79.4301 -5.9007
15.7786 76.4525 -9.34294
18.2742 118.034 -0.790514
-19.2577 107.141 0.836449
20.2754 112.986 8.20887
-20.6062 101.056 -4.56193
5.56836 111.625 -10.37
-12.0303 90.1022 13.4516
-11.3312 79.1393 -13.858
-15.3617 94.0467 9.46114
20.3821 81.7039 -0.885985
3.0034 92.5805 -15.1626
-18.6445 74.8848 1.79435
-13.3498 87.7652 -12.3765
17.7903 122.498 -1.88647
18.9095 81.0098 -2.64389
14.6599 126.967 0.722023
13.8721 114.677 11.2357
-10.0497 96.4441 16.6711
14.4986 109.445 12.6527
-10.7551 108.566 15.8392
-19.2149 97.9734 -6.79231
-7.78194 114.114 16.5252
19.9777 78.6945 12.3646
-1.90532 100.591 18.9907
17.5033 105.301 -4.4091
22.6012 89.8167 4.70714
3.90258 106.121 -13.3141
21.6408 95.5461 11.6296
-10.5138 101.431 16.5161
14.9256 78.1264 18.2159
16.7123 94.6617 16.1017
-1.2307 103.784 -14.1768
-18.2369 91.847 -6.55432
20.1891 113.073 1.06445
16.771 103.461 -7.59396
13.9541 82.0714 -10.9425
22.521 84.2823 10.2994
-1.86045 112.303 17.7103
5.2936 130.597 8.77341
-6.15627 87.3216 18.8938
1.20527 75.9661 -15.5296
16.5173 127.062 5.80389
23.013 85.0381 8.60811
17.4025 124.411 0.812029
15.6285 77.8652 -9.1212
-19.7641 106.749 -4.41115
-9.30347 103.865 16.0248
3.77561 117.175 11.3015
-18.2782 96.762 7.42244
2.4495 103.471 17.7572
20.8551 94.9922 12.4855
-0.74384 109.79 -12.0848
18.1548 86.0952 15.404
7.74271 117.599 -8.79467
-20.3735 87.4934 -3.15821
22.7152 87.762 5.12538
14.8802 84.1213 -9.71922
17.5088 86.5857 -6.25874
-8.09338 81.2701 -14.8387
2.51338 91.8463 20.0343
6.95906 127.367 7.16735
9.75176 116.213 9.64999
-20.1522 81.86 1.63674
19.8655 115.56 8.71649
-3.15216 86.8086 19.6471
8.82989 105.179 -11.9948
20.7025 101.728 0.577826
15.2781 112.172 -9.46158
18.4503 118.406 -0.626092
-8.49181 102.914 17.0751
-9.91948 104.366 15.3538
-18.9862 89.9725 3.03979
20.7119 95.0838 -0.805313
-16.9664 100.839 10.3888
18.2971 120.072 10.7829
-19.5443 103.014 4.25481
16.5364 114.803 -2.70656
21.3712 105.491 3.41452
19.9276 79.3575 12.2802
-11.4421 76.4538 -13.9318
19.0905 123.662 0.263416
13.2864 125.079 7.79557
3.06953 82.1722 20.4941
-16.0319 101.657 -10.8538
-4.59328 83.2505 18.6925
-9.55014 117.844 15.1688
-1.37634 115.15 16.0498
-10.2843 104.2 15.2213
14.17 82.4384 18.0285
-17.4232 74.8771 -6.46367
-0.532987 90.1578 -15.3264
3.05816 84.3294 20.4036
4.28923 101.121 -13.5604
10.1713 113.677 -10.3402
11.4283 100.781 16.7479
23.012 119.875 0.0728303
16.3497 112.725 -7.30987
-12.6988 95.9936 12.8874
17.2713 134.112 5.97178
-15.7222 79.0732 -9.82658
17.6492 126.018 4.88805
19.834 83.3446 -1.12976
4.91557 122.963 9.30792
12.6249 81.3508 -11.8299
11.9 124.276 7.54721
16.6575 126.267 0.939334
4.34565 108.145 14.5887
-4.97317 106.949 18.1604
26.8921 131.742 -2.10488
14.7975 123.02 -5.11236
-19.4856 92.9576 -5.51131
-15.909 114.919 12.3831
5.20076 125.337 8.42222
6.36628 105.626 15.1152
-18.0933 106.423 7.91641
12.3479 101.275 -11.4466
-9.95355 126.058 13.6457
-15.3965 101.388 12.6345
15.5974 100.187 16.5603
3.80032 84.4705 -14.719
9.33417 111.093 -10.4014
12.1948 91.2841 18.8611
16.7023 79.3973 16.5848
5.04428 125.453 8.48479
15.9603 93.4861 -8.74371
15.6646 93.5157 -8.95162
8.56859 102.624 15.955
14.9426 115.412 -9.0667
9.90562 88.0964 20.0236
14.1723 99.3598 17.3533
-16.6702 95.9568 -10.2584
16.1353 116.741 12.6486
-2.46193 84.62 19.393
1.91176 115.412 13.5415
-2.48921 85.1368 -15.5791
22.7347 90.0452 3.72353
22.7608 85.5536 9.43054
2.76804 102.074 18.0293
7.11434 95.9581 18.4197
16.5473 130.282 3.35579
22.1187 97.9043 7.6791
3.20439 98.7516 -14.2856
10.3202 107.669 -10.2869
-15.3495 89.9844 -10.4275
3.88717 89.2788 20.6009
-15.153 89.2494 -10.3059
-9.74029 78.0663 16.1916
22.6938 119.568 0.271581
-0.830239 76.998 21.2211
6.97431 94.6599 -13.9873
5.59873 75.3959 -14.7664
19.4418 78.3214 13.1554
21.3341 96.3812 0.351204
22.1976 82.1363 9.59437
-8.40914 80.8517 -14.7723
-6.50205 86.6977 -15.0782
5.75004 93.0514 19.8494
-1.6063 85.913 -15.464
-20.6931 102.231 -4.26269
-4.34163 128.333 13.4467
3.61925 93.7633 19.18
20.0635 85.804 -0.732204
14.7433 132.545 8.16443
0.400606 126.15 12.6865
27.7343 130.606 -2.78455
5.81134 106.944 -11.8427
13.185 117.109 -9.81628
0.354969 131.159 12.4406
17.6349 104.778 -3.90467
-13.797 99.9918 -12.0056
11.7882 76.3123 -12.4254
23.4277 80.7223 7.07994
-15.9884 88.7732 9.43458
20.1026 118.441 5.67023
23.5082 79.1252 7.73946
19.1331 78.7726 -1.91334
21.6181 100.487 2.24589
27.4047 124.442 -9.19395
16.2401 94.3208 -8.58161
5.16235 96.8076 -14.5979
-11.8987 78.6726 16.2094
10.2862 77.7231 -13.2008
-20.1771 79.2273 -1.85326
12.8783 117.435 9.66231
13.7546 87.662 17.6835
-13.9338 78.5239 15.4255
5.94821 92.5541 20.0815
11.7736 77.241 -12.5093
-4.94703 116.369 16.468
12.4053 130.292 6.23932
-16.3646 115.838 6.44796
-13.899 82.1815 -12.2737
-18.5407 89.7094 5.37627
-16.246 83.8474 10.9979
-19.7206 106.258 2.54558
0.365757 111.613 -11.5143
-20.6714 98.4779 -0.700103
0.810833 109.99 15.9943
5.19778 79.329 -14.8787
9.80653 83.8952 19.7316
-20.1223 77.0766 -2.52702
12.2282 115.167 10.1506
-19.8683 76.1227 -2.74793
19.891 77.3291 12.8424
18.398 78.2516 14.9683
-18.4094 95.1626 -7.92468
13.6048 107.085 -10.1064
-11.8961 109.445 15.5774
-10.7296 94.3815 15.3329
18.492 122.021 -1.50156
18.2233 128.421 3.98424
5.73939 125.777 8.04655
18.1427 120.861 -2.29663
17.8981 126.966 1.79585
13.9396 115.129 -9.3129
-15.1925 119.71 12.7455
-14.0781 100.885 -11.8742
8.60641 117.711 9.43699
3.66092 89.2996 -15.03
13.0088 115.418 -9.45516
-5.29827 101.279 -14.2698
-11.2373 78.4681 -13.8556
16.0068 90.161 16.3759
-7.42667 118.383 15.503
22.384 82.9792 5.62963
13.0051 107.037 12.716
-5.8961 93.5986 -14.3664
-10.4413 121.918 14.4849
16.1158 75.999 -8.05942
21.1759 95.0656 0.0223292
5.4056 103.448 17.0843
27.1732 123.639 -9.5302
-3.80192 77.0116 19.7429
-15.1325 117.126 13.0424
15.255 112.692 -9.21906
26.3198 124.801 -2.70074
-18.9631 80.6143 -4.61276
-0.370632 126.008 13.5196
14.9636 95.8053 17.2369
9.07841 105.847 -11.4756
-6.90864 90.617 18.9638
-13.0539 91.881 11.7308
-12.4839 92.5839 12.3302
22.0747 102.143 7.83299
-16.1158 88.099 -9.23028
13.3687 119.626 -8.34584
-15.2675 102.097 -11.1705
-12.4087 75.7327 -13.6166
-12.6905 116.255 15.1049
15.0585 99.7873 -9.14324
-12.1336 91.3964 12.9614
-19.416 84.8861 -5.05422
21.7793 106.057 4.29774
-6.83618 126.404 13.9873
18.7846 79.8949 -2.61478
13.8297 116.74 -9.20426
20.9214 115.299 6.57022
-17.9012 90.4938 7.52116
-3.61753 116.622 16.7559
