ply
format ascii 1.0
comment Created by Open3D
element vertex 1192
property double x
property double y
property double z
end_header
-22.596 120.381 10.1103
1.0142 79.5455 7.96488
19.4122 98.2567 -0.845539
7.04188 103.372 7.83903
-29.1305 90.4711 0.541284
-18.4369 95.062 -11.3168
15.0852 76.3188 -6.00768
17.5262 97.6829 -3.7325
-6.11696 115.462 10.3382
7.06378 81.6384 8.71001
-1.63532 113.387 8.44033
-17.7944 104.713 10.5425
-27.8368 84.2471 3.9276
-13.8877 116.951 10.6777
9.41339 85.9865 -8.73912
-22.3748 103.034 9.23256
-26.5913 113.024 -4.18553
-30.0665 90.4826 -2.05713
-17.6038 78.8724 4.47717
-23.9788 112.8 2.72718
0.958533 86.461 -11.2455
14.5885 81.7146 -5.63683
12.3744 88.2471 -6.15368
-0.450146 101.673 8.10536
-27.3429 91.2702 -7.56705
-16.2669 111.068 10.6999
-26.6113 109.051 0.992496
-8.95294 80.0165 -11.3999
8.35704 100.513 9.73268
-15.6897 88.6202 9.21511
20.79 80.7017 4.44856
10.3613 91.3995 -8.78174
18.0003 91.8064 8.76945
-24.7269 83.3375 4.945
11.6153 90.8623 9.95973
-25.6174 77.9528 2.06584
-14.3739 98.343 10.6026
1.27885 96.9908 -13.1091
-7.3489 119.965 10.3749
-8.10066 87.5692 9.8196
-1.91681 94.4806 -13.1006
-22.5252 114.073 10.2419
-30.9933 79.7606 1.14827
-14.1503 88.0425 -11.9015
-30.7344 79.4987 1.24521
-22.5382 105.54 9.81129
-0.770448 81.6468 -10.8463
-11.9792 83.8798 -11.9212
-18.8222 101.113 10.5266
-17.9408 119.516 11.1074
14.2152 79.7859 7.67247
-3.29636 79.7104 -10.6693
2.69209 92.248 -11.8255
-32.4989 81.2956 -1.77779
2.80518 78.0868 -9.65681
15.3816 106.828 10.206
-25.0923 87.7777 -9.41239
-26.3916 108.708 3.70998
-27.2528 97.1636 2.01937
-28.4158 94.5741 0.305966
-6.52526 97.7504 -12.4812
20.3638 94.2817 1.29032
-21.1333 94.9145 -11.0204
-26.4295 97.7444 4.48563
10.2848 76.2469 -7.74352
-5.94063 109.055 10.3587
-3.58405 99.2419 9.23409
-31.3481 88.4649 -4.97332
13.871 94.2785 9.59716
-22.2197 116.484 7.93721
-26.6669 112.597 -4.37011
-17.5765 84.6066 -11.5573
-0.0173952 105.536 7.31507
-8.01472 78.3839 -11.0704
14.0027 80.3947 7.72265
1.52155 93.6991 9.22268
10.567 82.0245 9.55143
-22.2758 119.462 10.6799
19.6917 77.6891 6.17577
-14.9021 79.4867 -11.4405
-10.2347 108.234 10.543
-27.2213 106.595 -1.74337
-24.6822 105.707 -8.13571
16.6143 97.373 9.08383
-3.8615 83.1638 7.99199
-26.3121 114.267 -5.38835
-2.21188 100.302 8.76909
-16.4495 91.4065 8.97261
-7.15108 82.1768 -11.6261
-27.2409 100.764 -0.441647
-4.83443 100.315 9.57493
-26.3059 109.481 2.66101
1.08524 103.264 7.31331
18.1741 103.664 7.1116
19.7605 91.529 4.47693
-26.3142 107.082 -6.83092
-25.5004 90.7429 -8.44818
-26.6764 79.5864 2.67583
4.51559 82.6901 9.03416
-24.094 118.568 1.11827
17.5604 94.263 -2.25745
-0.488601 96.8801 -13.1767
20.1376 82.4026 6.10619
4.16377 82.0225 8.68125
-13.4949 93.0407 -11.8074
-26.0168 103.435 3.40463
-12.1948 102.994 10.0845
-2.86373 98.2512 8.88784
-23.035 89.9061 -9.74463
-17.2923 108.852 10.817
-28.4669 87.1185 3.20405
17.8629 105.764 7.01862
-21.6418 102.851 9.63197
-10.3666 111.98 10.592
-1.8633 100.975 8.60271
-6.81613 98.9524 9.69236
-26.113 103.605 2.54024
-13.6047 87.0637 8.95033
-13.367 84.6089 -11.7095
-32.8996 81.2289 -5.40734
4.53107 102.339 7.40385
-4.6165 83.72 -11.5339
-27.8357 84.3288 3.91806
-3.35986 94.8422 8.79346
-26.4451 80.9067 -9.23815
-5.02145 92.4788 9.40925
-25.9511 87.0342 4.27001
-9.95063 96.7311 -12.4958
8.21555 98.4201 10.4428
-22.4074 119.243 8.63005
-15.0807 76.8877 -11.2931
15.3003 92.2778 -3.91044
-30.3638 90.6631 -3.06178
-14.3869 108.08 10.5837
-2.70491 91.852 -12.8265
7.80971 92.1673 10.8431
-15.7152 104.812 10.0031
13.4195 103.936 10.6188
-1.86635 86.0705 9.10443
-10.5725 96.3708 -12.3859
11.5316 94.575 -8.83194
-30.6071 91.5739 -6.36439
-11.6645 107.158 10.4074
-9.57317 88.6688 10.0305
-4.01019 75.0185 8.00151
-1.29796 74.5699 -10.5802
7.40271 75.6221 8.89285
-12.9774 97.4598 -11.9024
0.0415826 82.9699 -10.8693
-19.7278 102.931 -11.4472
11.0471 77.9665 8.65058
-13.4458 82.6491 -11.8274
-4.99538 89.694 -12.7139
-19.0862 88.216 -10.8437
-14.9633 85.4726 7.86043
-19.4319 93.69 -11.515
-30.9895 78.9721 0.747195
-9.53945 118.922 10.7175
19.0817 101.131 -0.479338
6.61644 86.54 -9.20656
-5.29904 99.1581 9.61896
-14.643 122.024 10.8573
-28.4069 77.7905 -8.7501
-5.19152 90.6853 -12.7322
-0.223043 91.4646 -12.3188
-20.8454 106.921 -10.7671
-1.92765 88.8062 10.5423
-28.8379 88.9596 2.95481
14.2658 109.576 10.3317
-5.22474 99.0319 -12.5051
-19.2457 124.638 11.2789
-1.37286 92.7232 9.15054
-8.45316 101.18 10.327
-15.0081 82.7286 7.13672
-24.0769 113.216 6.92416
-19.1378 87.1877 6.62374
2.53532 88.3455 -11.2812
1.95147 90.7753 10.6653
-16.1078 92.8675 9.9323
-24.8873 114.443 1.05584
14.6224 110.017 10.2605
3.64585 95.6447 -12.3654
-21.5802 76.8887 -10.6808
-30.0885 87.5434 -7.22903
16.9201 79.4652 6.44521
-18.6786 119.601 11.352
-6.19726 95.7211 -12.8614
-25.8516 87.7083 -9.01912
-30.002 93.3285 -6.76542
19.7561 88.1469 -0.39798
-18.1091 88.2515 -11.3036
6.8332 94.5158 -10.8225
14.0108 93.3785 -5.31619
-16.5513 89.357 8.73238
-22.0357 94.9658 5.4846
19.2098 89.7233 -0.915894
-17.8817 99.6505 10.4015
-7.26133 79.8006 7.38235
-26.78 100.176 4.81865
-16.4615 99.6837 10.3954
-21.292 80.2143 3.49488
-9.4814 98.1053 -12.2692
-22.6712 90.5848 4.68092
-24.6682 111.584 1.90001
-18.5557 87.6837 6.76496
-0.378192 91.725 9.65439
-1.84451 113.199 8.5982
17.4302 96.7672 -3.36279
6.84025 85.7065 -9.14076
-13.5054 102.802 10.1086
-4.63246 91.674 9.51633
-23.7849 117.717 3.91695
19.5439 99.1045 5.69362
-33.5519 80.4115 -3.10658
-29.2889 99.7026 -4.93097
-19.0627 108.007 10.7835
-10.6769 97.0516 -12.2241
-24.3955 120.471 3.88773
-1.53517 92.7814 9.12576
-29.1854 97.2127 -7.30539
-16.555 115.093 11.1856
-25.3622 96.7071 -9.3952
-25.7899 112.957 -6.77063
-25.9707 109.884 4.31689
4.2766 83.2461 9.28829
11.515 78.0522 8.48164
18.0831 96.3438 8.35069
17.5254 80.1629 6.19462
-18.3154 116.035 11.3717
8.13819 86.9418 9.49188
5.39647 97.2429 9.53485
-22.9731 106.562 -10.0367
-30.0175 84.9476 -7.82606
-18.7532 108.898 10.8452
-7.7538 78.4758 -11.0971
-9.38528 83.4607 8.33935
2.11912 78.1039 8.26225
19.2162 80.5068 5.2387
12.4278 104.334 10.0153
4.85591 96.7547 9.50653
-12.4646 79.0773 -11.3077
-23.3795 101.359 -9.40438
3.68784 88.8133 10.8599
-27.225 95.1885 -8.10065
-26.4102 114.707 -3.78333
-19.2683 86.4278 6.70558
4.81225 82.6518 -9.71992
-6.05617 104.662 10.2085
-4.67633 76.4598 7.3093
4.99673 96.8339 9.54061
20.9055 81.0319 -0.500496
-7.24683 92.0024 -12.8431
-28.2391 97.3377 -0.101305
-5.91742 97.4231 -12.6721
-7.58524 106.157 10.0716
14.7513 96.8203 -6.35067
-0.214442 79.655 -10.2984
-3.02774 78.0352 -10.5299
-24.7324 88.9743 -9.2177
-21.0597 90.3818 5.37946
15.7724 94.3208 -3.88051
10.1961 91.8624 10.2939
1.66041 78.985 -9.80002
2.6514 83.3142 9.22969
13.3472 109.511 10.3408
-23.754 117.885 1.70271
-19.9266 111.578 11.2983
-26.5544 111.066 -5.13342
-20.8715 85.9843 6.34369
-28.2125 105.07 -0.678932
-23.4589 87.5191 -9.74175
19.3121 92.201 -1.29598
-15.1723 95.8517 -11.2873
-21.1172 96.297 -11.1787
10.3438 81.6683 -6.92459
-32.521 82.0887 -2.28852
-26.9476 104.725 2.00594
-8.55176 88.086 -12.2869
-26.381 112.096 -2.12291
9.38403 93.9087 -9.6335
-15.0087 111.087 10.5837
4.35809 95.7525 -12.0097
-2.14303 114.624 8.8445
-23.0081 108.05 -9.31344
9.1682 83.7613 9.39599
10.9711 84.8934 9.78265
-19.5494 120.378 11.6857
-27.5486 87.6875 -8.55496
-18.7981 106.307 10.7026
-12.6825 80.2461 -11.6213
9.66119 75.3522 -7.91102
-14.5845 77.6891 6.55595
-30.4692 87.8443 -6.94403
-19.074 79.3561 -10.5914
-20.316 97.4435 8.36496
-25.4688 109.909 6.66034
20.3037 88.0093 3.10921
9.49484 77.4178 8.91676
20.999 89.943 1.54496
0.384935 85.0556 -10.9749
19.4956 104.028 3.13954
-25.7058 80.5457 -9.5514
-21.8291 89.6946 -10.1405
-7.87747 94.9557 -12.7842
-28.8871 89.454 2.74335
-22.6973 124.009 9.37621
-31.4269 82.7726 -0.466123
-24.347 89.4223 -9.32906
13.2248 80.2921 -6.58045
-9.72744 85.2462 -12.1884
-10.9485 112.08 10.613
6.71313 78.8532 -9.07594
-19.0002 103.968 10.6947
-14.3001 92.9383 10.2214
-5.87301 83.5929 -11.749
-28.3673 102.491 -1.269
-4.68069 89.0219 -12.6007
1.90512 109.319 6.36199
-7.41889 99.5786 9.81176
0.214473 75.0829 -10.311
12.1301 88.8838 -7.58361
1.87487 94.0013 -12.4255
-12.6625 77.015 6.59897
-29.3855 94.9623 -5.11966
-16.5973 86.5878 -11.9102
9.76098 80.4608 9.36929
-8.14226 92.8366 10.4189
20.7527 77.0962 -2.13435
-4.53719 75.0179 -11.0806
-24.5352 98.2241 5.03084
-8.54562 88.7957 -12.3957
-18.5196 104.503 10.7276
6.37589 83.7474 9.00179
-4.24957 87.4125 10.2554
4.86034 79.683 -9.25341
-29.216 90.904 -7.20037
8.49596 86.783 -8.95258
-28.8221 95.6099 -0.810414
12.7029 80.1146 8.14753
-28.9803 93.6417 -0.155818
11.5704 103.635 10.126
-4.83345 83.2155 7.99122
-29.9367 94.0776 -4.49721
-7.67833 97.9128 9.75475
-1.93695 90.8817 9.85733
13.5083 82.9573 9.11768
9.27327 75.1016 8.74604
12.6651 81.1772 8.71756
-26.6011 89.6792 3.72845
0.399892 96.6281 8.26604
-30.3697 80.7828 2.00091
-7.84136 120.327 10.4671
20.0159 98.0737 4.25985
19.4827 83.2674 6.56985
-24.405 118.938 2.19858
-27.1005 104.24 1.6139
-30.1923 83.3591 -7.72809
18.1621 94.8818 -1.94186
-0.343936 93.7612 9.00924
-17.9054 90.9444 -11.7969
0.998336 94.5461 8.87194
-8.35676 117.208 10.3742
-8.99284 75.9465 -11.3508
8.00346 81.6368 -8.76874
-9.23672 86.7041 8.95608
6.93201 92.1412 11.0675
-22.2212 118.998 9.44943
3.97066 92.5417 -11.6161
-20.5982 107.926 -10.3983
-18.2501 121.358 11.3099
-13.3942 75.963 -11.8296
-11.8009 80.1685 6.60677
-24.6656 106.673 -8.44182
-26.4104 77.5645 1.66332
-28.2299 97.1276 -0.20279
-23.5353 120.139 7.80087
2.46687 91.5109 10.3073
-24.181 83.7626 -9.49982
-5.74964 111.658 10.2118
13.9185 86.2094 -5.6948
5.50283 79.7392 8.53608
7.65267 92.0422 -10.1322
1.54562 88.9621 10.7483
14.2265 95.4286 9.40543
-9.01746 103.145 10.4548
3.38672 76.2985 8.51716
-24.839 88.9679 -9.16308
-26.7518 100.798 4.57076
-21.5019 94.8891 -10.8685
10.0638 79.8371 9.37208
-4.81721 84.1137 8.22862
19.0299 102.665 1.48115
10.2866 78.7473 9.08566
6.92283 77.8763 -8.77815
0.888688 92.7184 9.46915
-4.84854 75.8378 7.50294
19.6842 83.1502 4.00505
-26.7135 97.6622 4.22988
-31.7959 81.0607 -7.2506
-18.9374 93.309 7.55983
-28.786 97.7141 -1.46926
-1.38626 90.5857 10.1867
10.9313 84.3356 -6.55679
0.314557 111.598 7.04128
-24.8593 93.7423 4.6074
-27.3178 98.1946 2.80463
-7.24122 91.3245 -12.7532
9.78474 80.9713 -7.61866
-33.0189 81.8867 -4.94815
-13.5857 79.656 -11.5123
-32.5603 79.1494 -6.72945
-11.4048 82.9054 -11.8846
6.45144 88.5532 -9.96444
-13.569 106.535 10.129
9.13475 100.082 10.4551
-0.411611 84.4597 9.1731
19.5144 101.397 4.14318
-31.8917 85.6479 -2.62089
16.7797 77.7722 -5.03879
-1.24048 90.8416 -12.4829
-20.0861 100.777 -11.5026
-18.1949 79.2754 5.37913
6.61125 88.7222 -9.95161
10.0813 74.6884 8.58901
13.5331 89.1743 -5.22827
4.94889 76.6656 8.65539
-18.634 111.702 11.2214
20.705 79.6409 -1.78694
-27.8044 99.497 2.13857
-19.6159 90.4547 6.34779
10.3031 94.5867 -9.26401
9.61505 76.2814 8.78819
-21.3476 89.1909 5.45346
-23.9402 113.276 7.72273
-23.2035 105.762 -9.69724
-20.9175 97.4079 8.09234
-23.7802 84.0867 5.34496
-28.21 91.5644 2.90307
19.5376 89.7009 6.58535
7.21486 103.009 8.03333
-17.2224 89.8427 -11.9304
19.6922 93.2835 -0.834391
10.8426 109.4 8.50703
-2.55727 100.461 8.80874
-22.5531 104.201 -10.2823
7.49502 101.619 8.60466
-23.9986 115.181 1.91904
15.9077 86.6907 -4.2485
-28.2152 100.32 -2.98934
3.20276 84.7525 9.85763
-5.57934 80.9078 -11.2058
17.869 75.8016 6.83492
16.741 90.3814 9.28437
19.3432 90.0225 6.89785
-10.5968 95.1594 -12.3456
-30.165 91.0835 -2.79429
-24.5147 115.905 -0.127523
-15.1936 117.011 10.8866
18.8967 98.0303 7.4447
3.45835 86.7903 -10.5918
-4.64169 91.2486 9.61544
-19.1213 97.7246 -11.1745
-27.879 101.579 -6.92485
1.84889 103.32 7.0422
-24.03 112.384 2.864
20.049 98.1901 2.54992
-29.7355 87.5421 1.62938
-19.9684 123.304 11.4532
-12.313 103.534 -12.0429
-25.7116 90.7218 3.63281
-24.6296 106.246 -8.45468
19.3754 81.8607 -2.48095
16.6534 83.1744 -3.00968
-16.2481 104.237 -11.1643
22.9297 76.4541 4.36565
-0.786685 102.915 7.85885
8.0637 89.2943 -9.5694
2.47362 92.9002 9.74754
17.4655 95.1514 9.09701
-4.5364 80.8157 -11.0705
-24.5881 111.894 1.48118
-0.918454 83.1255 -11.1114
-6.5153 99.5088 9.71971
-14.5051 98.746 -11.5843
-25.3849 81.0724 3.38103
-8.32311 76.7391 -10.9481
-22.0093 77.4595 -10.6841
11.6179 96.7285 -9.03763
-8.16895 95.6568 10.3159
-22.1585 118.735 8.70988
-11.4025 83.1658 8.38797
6.66727 95.7011 10.8742
3.99684 86.3046 -10.2114
-6.5651 77.3608 6.73639
-23.8292 108.619 -9.12753
-16.7011 122.636 11.0827
-32.9576 78.0509 -6.02266
-24.0393 112.363 4.00246
-28.1726 105.248 -5.02919
-12.5683 97.7556 -11.8347
19.9522 84.9738 0.41454
-25.416 94.1627 4.78284
-11.8706 99.4912 10.5154
-24.331 83.2773 5.10529
-12.6786 109.572 10.8526
-25.644 79.5988 2.54058
-13.1874 101.594 10.2647
-6.43692 96.116 -12.8957
-4.706 98.0853 -12.7166
-27.5819 89.9718 -7.66391
-25.1629 100.503 6.36598
17.85 99.2836 8.12379
6.84886 87.8886 -9.48349
-14.7243 101.218 -11.7486
-20.7446 107.365 10.9225
-33.0823 80.5372 -2.01939
19.4923 92.6145 -1.18561
-0.101797 95.3175 -13.0301
20.7153 94.0565 4.03112
7.91584 93.5258 -10.3103
-17.0334 81.4877 5.66028
-22.662 115.357 4.97413
-19.257 90.3729 6.71277
11.4928 87.1774 -7.27524
18.8597 77.3627 -3.93145
-23.2966 99.1462 -9.7618
-0.128977 97.7553 -13.1351
-12.6685 86.5067 8.8289
8.54506 79.462 -8.17686
-28.8306 101.81 -4.93737
-11.6558 84.9095 -12.001
-12.5026 114.797 10.636
-27.9896 103.58 -0.164584
-22.8346 105.468 9.59007
-5.15546 113.191 9.99732
-21.2398 93.4544 5.99056
-17.7843 79.8745 -10.8789
12.9032 86.7625 -5.74823
-1.95186 86.3238 9.19483
19.7047 91.5831 5.2114
-4.91543 113.958 9.95926
-16.4316 111.334 10.7622
-28.0082 100.842 -7.14846
-11.4688 96.8518 -12.1068
0.636879 86.195 -11.2579
-17.6291 104.064 -11.2237
7.87888 97.0582 -10.5481
-28.0308 105.82 -4.22533
-23.9709 96.4457 -10.0114
-9.58483 80.9662 -11.7348
10.7639 109.964 8.22804
-25.6247 104.85 -7.80803
-20.2412 96.8745 -11.3247
19.4529 90.1971 6.61732
22.2952 76.5487 1.50964
-13.7374 102.766 10.1198
18.1786 88.4865 8.37012
-25.3946 113.397 0.771411
6.85546 76.1813 8.8553
-29.6208 95.0192 -3.5182
12.6974 76.7911 -6.93382
-4.3337 88.2625 -12.4652
18.0564 82.6875 -2.32689
-28.9693 93.3798 -0.127668
20.4746 86.9097 2.93233
-6.75243 89.8282 10.5386
-26.1717 82.6482 -9.33701
-2.26534 90.0757 -12.5578
18.4383 92.6391 -1.99325
21.1581 80.4657 -1.07735
-1.14051 96.2491 -13.1667
-20.4547 105.764 -10.9321
16.8672 88.2246 -3.52961
-2.76388 102.502 8.60104
11.5428 86.5582 9.83663
-12.8002 88.2343 9.25945
-12.6662 78.2745 -11.1072
-17.693 121.083 11.1981
-17.9292 102.669 -11.4835
-13.6305 87.38 -12.055
-21.7984 107.198 -10.1993
-22.3216 91.1067 5.00135
1.80092 78.6397 -9.77197
-1.79331 89.1669 10.6703
-25.7648 108.075 5.24566
8.06132 101.984 8.7105
-28.0889 77.9803 0.333077
-22.4697 86.9533 -10.0237
-13.0843 77.5057 6.24923
-15.6695 91.0525 -11.8065
22.1886 76.5024 1.11364
-1.89063 95.6894 8.62086
3.08127 76.7057 -9.69564
-20.7513 96.2054 7.63098
-3.63398 87.0713 9.89919
-19.6109 111.743 11.2919
-23.7366 95.5992 -9.99489
-23.7546 78.6532 -10.4596
11.9486 104.514 9.80221
18.7423 96.0953 7.81864
-12.0832 91.0052 10.1879
-5.22641 86.1095 9.42151
6.65094 90.5708 10.887
-16.8806 120.424 11.0769
-27.9581 106.124 -4.20199
9.4888 79.7986 9.32697
11.7381 98.3042 10.4907
17.832 83.5297 -1.7142
-19.9442 106.963 10.8505
-6.91391 91.6115 10.0339
-5.44674 97.685 9.43494
-23.8636 118.48 3.96715
-26.7115 92.9538 4.04556
-27.8539 103.75 -5.74893
-10.9289 81.0622 -11.7392
18.138 89.599 8.48156
-12.7294 77.0605 6.58664
-18.0041 84.0667 -11.3964
20.2123 95.1825 0.466441
-14.5447 88.345 -11.805
-29.6262 79.5002 -8.7899
-24.0809 112.84 5.22559
-20.6084 123.869 10.903
-6.91768 96.5122 -12.7727
6.12915 108.882 6.38565
8.27938 87.88 9.68709
2.4776 78.1239 -9.69356
-21.489 86.5715 -10.1661
3.08756 80.6618 8.32518
18.9971 93.8259 7.544
2.15947 86.3264 10.0981
-18.8392 90.5815 -11.5849
-11.8333 76.0936 7.32745
10.9136 100.36 10.5134
-2.50122 75.3572 8.06608
7.58315 93.2137 -10.3813
7.64964 79.0859 -8.69543
-5.37066 115.03 10.1398
1.71371 95.6238 8.59799
-10.3244 97.3197 -12.2177
-22.6335 120.44 10.0423
-12.3757 112.592 10.6038
-20.4565 113.715 11.241
-4.46036 91.9284 9.42405
18.0841 104.147 7.13905
-7.19362 77.6183 6.60907
-1.28805 97.2505 8.27661
-10.2664 102.154 10.3213
-31.7339 86.6708 -4.54914
-5.1294 103.97 10.0152
-3.07437 88.5898 -12.4127
-12.1308 77.7047 5.498
-27.1271 100.601 3.57039
-8.83993 80.9871 -11.7609
-9.32474 95.0096 -12.6355
-28.4129 98.5 0.0799019
-15.3041 78.6956 5.14765
8.58216 107.628 7.25472
-23.6675 86.4742 -9.71294
12.1147 110.45 9.54212
-15.7629 100.002 10.5239
19.4622 86.957 7.03185
2.12992 86.1204 10.0382
15.4143 94.3185 -4.31926
-18.6753 102.282 10.6733
-7.7047 78.1667 -10.9747
1.28475 76.2563 8.43257
-26.7918 108.432 1.75228
-4.14513 94.4624 -13.0347
-27.6398 106.425 0.302698
18.6094 98.3374 -1.75964
19.8209 89.8489 3.59044
11.2536 111.425 8.29135
-25.8353 95.349 4.24664
-20.469 95.5838 7.37552
-20.9492 105.894 -10.8278
-22.7821 84.3579 -10.0993
19.779 85.4764 3.10088
-18.5041 82.0455 5.59688
-9.79668 93.3337 -12.3083
-3.40705 106.793 9.13179
19.8644 84.7482 4.26799
-14.8232 94.7445 10.5123
-25.2133 108.163 5.9172
6.77467 103.64 7.65061
-0.243475 79.8056 7.83872
-4.95436 102.932 9.86889
-18.8065 82.1016 5.59916
-22.6918 84.272 -10.1281
-21.4392 117.59 11.0904
-27.988 103.29 -6.20327
-14.2274 81.3418 -11.6981
4.88656 85.3575 9.73895
20.7102 84.7379 1.15492
-26.658 109.022 -1.92904
18.2545 79.1245 6.44237
-20.1223 93.7097 -11.4182
-9.4613 111.204 10.641
-4.70795 75.0059 -11.1074
1.4382 88.4294 10.6297
-7.09172 95.6696 -12.8458
-29.5938 96.2782 -7.0299
-21.7674 109.763 10.7431
-27.1518 87.5497 -8.65966
-29.3118 86.8609 -8.12472
-29.3246 98.8587 -5.29059
-29.3716 99.7031 -5.43799
12.368 97.8288 10.5039
9.39832 107.361 7.7125
-4.85306 97.1887 9.28859
-25.6973 105.613 4.42303
10.9698 92.5449 10.3919
-4.83316 92.6185 -12.7248
1.995 98.3536 7.84296
-28.6787 94.4858 -0.0722557
-25.4581 103.181 -8.43706
15.1789 96.6499 9.75092
-23.8097 119.725 4.06709
-16.536 91.0133 -11.8099
11.2737 81.3457 -6.54911
9.73478 77.2924 -7.62435
-26.9216 108.354 -1.7805
-16.1288 81.0328 5.93931
-16.6125 120.87 11.0775
-8.77013 90.1898 10.5192
-19.2771 92.5885 6.81466
14.4376 82.0992 -5.83293
-14.1389 95.4439 10.5364
-10.6699 107.715 10.4373
5.53562 97.5308 9.45092
-21.8208 102.382 -10.4672
2.59891 103.44 6.81321
-12.858 96.3393 -11.959
19.7877 99.0703 0.7584
0.000253893 85.1476 -11.0919
-29.2608 89.5712 -7.32571
-33.446 80.4208 -2.83222
-21.0941 105.334 10.571
-4.35032 80.7856 -11.034
-21.2689 78.2949 -10.7672
-10.9803 93.9177 -12.0952
-22.5732 108.147 -9.36701
-13.9547 81.1721 -11.7555
-9.11222 80.5937 7.80448
-3.76066 107.993 9.36675
19.5371 102.429 4.3189
15.5757 92.1619 -3.80356
-24.9945 110.309 -7.19831
11.1569 87.7221 -8.00313
-23.4616 116.798 1.04174
-26.8421 103.595 -7.62078
20.1252 91.2661 0.755429
-23.3953 91.523 4.33021
3.52587 91.2782 10.8496
-32.4689 79.1949 -3.43062
-28.3802 93.6714 -7.65909
14.6582 86.871 9.49906
-15.3856 96.6568 -11.235
-28.86 95.3457 -0.736831
-26.2135 88.5279 4.03863
-26.1214 113.9 -5.80792
-1.90781 116.671 8.69856
-12.6307 117.663 10.6467
-28.5018 97.6299 -0.734681
-21.1905 97.4334 7.87618
-23.3048 86.7569 -9.79977
11.6096 76.8261 8.42192
-11.7286 116.705 10.4898
-19.7811 107.002 -10.8524
-22.3631 97.4386 6.34066
-24.4701 88.9131 -9.38153
-13.6422 91.7542 -11.9916
-22.4509 104.613 -10.4351
-19.7845 90.4698 -11.1835
13.77 83.2357 9.08127
-4.94715 75.1118 -11.1207
-2.90139 82.1866 -11.2877
-27.2141 102.67 -7.29471
3.04292 93.5232 9.85551
13.0039 92.9071 10.1259
-23.6906 76.5894 -10.1452
9.59169 92.7766 10.6059
22.8178 76.6394 4.05754
-2.70784 94.8757 8.77269
-1.29222 82.3162 -11.1118
-4.86569 89.6706 10.1752
-16.9306 96.1051 10.1782
-26.7549 100.404 4.77105
19.9799 96.3554 4.91202
-2.52475 84.2119 -11.3804
-16.4122 93.2057 -11.6097
-16.6012 92.8352 9.69407
-2.25348 90.6265 9.9147
-24.4314 88.6479 4.33465
-10.9778 77.0854 -11.2717
-22.2287 108.944 -9.56064
-27.1296 107.665 -3.89257
5.23713 80.8456 -9.31571
-12.4466 104.059 9.91303
-27.8405 103.493 -6.94308
-2.31229 76.3422 -10.4686
-31.1489 85.5072 -5.654
11.3442 97.1998 -9.0899
-26.7507 96.9546 3.04085
-21.3514 108.776 10.8193
-8.82102 108.883 10.6455
-21.0655 116.159 11.5262
-15.9484 117.182 11.0472
-24.3594 105.962 7.87031
-19.6618 95.7862 -11.3688
-14.5385 78.1089 -11.1337
-25.6039 104.876 -7.80262
1.79457 105.244 6.82335
-10.7508 100.589 -12.3968
-10.271 89.0688 -12.3053
8.36387 95.2513 -10.2138
16.3334 77.7737 -5.23862
-21.95 116.209 10.883
-29.2894 90.1435 0.378228
14.2192 107.014 10.458
8.22619 77.5782 -7.87807
20.5183 87.2858 0.92149
-2.24472 80.7234 -10.7357
20.649 83.5797 0.529793
3.4004 87.9595 10.7
16.3394 79.797 6.39277
-3.36904 88.0244 10.5316
0.659487 96.8449 8.20188
-27.9847 86.1977 -8.85379
-24.4247 93.6885 4.4939
-26.8389 107.691 2.91528
-23.0396 80.1765 4.59066
5.7806 96.673 -11.4367
-25.6089 91.5329 -8.28738
-23.7137 79.6454 4.32813
8.0256 109.245 6.78849
-17.5734 78.0199 4.50105
7.65151 95.3341 10.9305
-20.436 87.4455 -10.489
20.9405 87.5567 1.47329
-22.8495 93.082 -10.0486
-13.2462 78.1633 5.37548
-6.00139 99.4998 -12.6255
-23.4279 122.178 7.45953
6.3604 101.791 8.08826
15.3239 93.2036 9.43287
-17.3498 84.4492 -11.5317
-22.8696 114.896 4.81888
-4.454 96.8134 9.09774
19.4952 86.6612 0.0260722
-9.77164 95.2949 -12.5317
-13.3984 113.946 10.7709
-1.29337 95.8325 -13.1998
-31.8214 85.2412 -2.14776
-21.7713 100.961 9.03967
8.53425 89.4975 10.3425
-24.3462 106.864 -9.07737
8.79811 93.9637 -9.9632
5.35729 82.2351 8.86338
-9.373 80.764 -11.6654
-9.10151 116.778 10.3634
4.45901 90.8629 11.127
-22.9822 87.2089 -9.87241
-16.7996 103.093 -11.3653
-13.6694 103.322 10.0366
-3.82201 82.0463 -11.3752
-14.2569 94.9163 -11.5679
-0.97809 109.939 7.72653
-28.9926 78.3298 0.880459
10.7902 99.8213 10.546
-16.8485 91.7996 -11.7541
-27.5168 106.459 0.928754
-24.8345 87.2335 4.5597
-30.1905 87.0156 -1.15321
-5.44044 75.256 7.6778
6.48446 91.9011 11.0556
-9.98949 110.136 10.7971
-30.1484 81.7216 2.16939
-23.4351 121.959 6.86876
20.472 95.5611 2.9458
-7.46128 104.796 10.2352
-13.9573 92.6152 10.2188
-29.1068 92.3316 -1.46655
-13.705 97.8872 10.6616
9.82185 102.752 9.69448
-14.5281 78.9785 5.33486
20.6712 93.093 3.44694
-3.87204 101.768 9.11518
-0.859348 85.8742 9.24271
10.4059 110.219 7.82895
18.6227 95.0459 -1.51256
-26.3874 77.214 -9.63017
-23.2735 113.916 4.38877
-22.9759 118.522 7.37937
18.3593 103.099 6.83536
3.40747 105.766 6.56449
-22.6838 109.712 10.3325
-21.2016 79.2966 3.86136
-18.034 95.4155 -11.191
-22.2389 106.771 10.2821
9.70976 109.364 7.47225
-15.144 111.059 10.5738
-16.1262 102.103 10.2315
14.1249 108.399 10.3729
11.0383 88.7535 9.66641
20.3476 96.8398 2.28496
-18.7548 81.8917 -11.0394
-28.5901 99.2285 -4.31831
10.2008 83.21 9.52935
-24.9279 81.5014 -9.42138
19.3022 100.805 3.0579
-22.6212 83.5455 5.60608
-27.0743 103.384 1.25103
-5.22587 86.4393 -12.2434
-6.92359 112.259 10.5973
2.46097 77.0093 8.43502
-18.1284 90.6055 7.57318
-21.3379 84.7257 -10.0237
-8.99618 99.5641 10.4758
-15.9888 87.1435 -12.0507
-32.1619 79.4159 -2.48064
-26.3139 113.058 -5.72533
19.6706 83.8875 3.6071
-28.2287 81.5416 -8.52805
-3.59139 88.8303 10.1904
-23.8362 109.433 -9.00173
2.03288 78.6964 -9.73209
-28.5697 79.4175 -9.35983
13.0938 90.2128 -5.96137
-9.67511 86.609 8.75398
12.911 84.6553 9.55711
1.20416 75.1273 -10.1512
10.1592 83.4161 -7.10819
7.36244 77.9986 8.90967
17.2279 107.163 7.94452
-7.23778 82.203 7.96641
-1.64517 80.4677 -10.5997
-3.11043 91.893 9.27816
-6.41323 91.0978 10.0818
2.65771 105.261 6.57847
-27.2256 93.5972 -7.79016
-14.6666 119.341 11.1387
19.3106 100.371 3.53838
-26.1786 84.4455 -8.82215
-26.3492 113.047 -1.81149
-27.0632 108.143 -4.35752
-13.485 97.3341 10.637
-16.6519 90.5413 -11.8479
-14.1769 84.575 7.90994
-26.3426 113.778 -5.39554
20.4155 87.9468 2.97216
0.0135817 81.2873 -10.6166
3.91377 77.2999 -9.56727
-24.9566 108.799 -7.01512
10.8913 86.5489 -7.7679
11.1869 89.0856 9.69844
-3.88286 114.001 9.61745
-12.6275 109.297 10.8109
14.8232 89.4143 -4.52981
-11.2602 93.5027 -11.9559
19.1804 80.2672 5.18309
-5.51577 83.1155 8.00799
18.1491 90.7074 -2.47024
19.0551 88.208 7.38957
-29.5891 89.5316 -7.20025
3.93785 88.9801 10.8782
-16.7303 119.875 11.0836
-21.0424 120.033 11.3691
-25.7242 95.3759 -9.03056
-2.91746 96.8147 8.62877
19.7573 77.278 -3.34339
-7.46971 114.582 10.3737
-26.4934 95.2937 2.571
4.07852 100.816 7.68953
-3.42103 80.1495 -10.7557
-11.3148 80.6341 -11.6553
1.77256 91.1265 10.4118
14.5509 83.472 -5.4461
-24.755 105.776 7.28023
-22.5112 91.6402 -9.71826
-10.6007 120.578 10.5515
3.996 80.2406 8.46701
-12.9803 91.4321 10.2712
-21.8719 80.6366 4.83555
-17.292 77.9688 4.24292
12.3311 85.177 9.68673
3.78981 88.3131 10.7606
-20.8613 122.948 10.6454
10.9991 75.7382 -7.53082
8.13146 94.9476 -10.3393
-15.8946 98.7358 -11.426
-30.4678 87.7797 -6.92306
-15.2977 89.6284 -11.8278
6.65931 103.57 7.63988
-28.4953 87.8839 3.22465
-8.31317 109.76 10.6775
3.81998 75.113 -9.34719
-2.99758 85.0565 -11.5341
-22.9019 123.338 9.18749
-22.6944 79.3296 3.47104
2.67747 111.203 6.03242
-23.5766 85.2296 -9.81458
-5.59336 79.0279 7.54116
12.9987 97.0471 -8.21102
-18.7923 84.0284 -11.1659
21.125 79.532 3.703
-5.05267 83.8452 -11.6323
-1.27081 78.6679 -10.4374
-29.9855 84.1516 2.11876
4.70686 94.2719 -11.5859
20.7913 83.8266 1.43819
-10.2765 101.439 -12.6393
-2.95639 96.5773 8.59504
-24.358 120.623 4.03888
-18.6827 81.1824 -10.9733
-17.5378 77.6685 -10.7968
-18.0233 118.153 11.1721
11.2137 89.8733 9.84526
-22.4597 116.735 6.08769
17.4257 104.855 8.32015
-28.6779 93.5109 0.489478
-10.2814 115.089 10.3915
15.8029 84.4141 8.6355
-26.4848 94.4158 -8.23426
11.8187 92.4899 10.3125
-9.45255 119.702 10.6338
-26.8528 95.2124 -8.33396
10.6921 88.4398 9.65914
-30.1579 89.961 -1.99467
-16.1023 78.2173 6.17616
9.98351 105.543 8.35019
19.0701 88.5876 -1.38014
1.47511 92.7531 9.54652
-29.652 92.4506 -2.86588
18.3855 102.888 6.86319
-27.2041 100.353 3.47392
15.1187 76.6056 -5.96588
19.5364 99.9216 6.08072
-23.7223 108.346 8.54855
-14.4909 114.636 10.897
14.3247 104.709 10.4528
-26.1178 100.316 -8.43857
15.1768 100.172 9.98288
-19.7702 109.384 11.0326
17.5553 86.7209 -2.78343
-18.1742 95.7412 9.48757
0.430873 103.248 7.54299
-5.37686 92.4739 -12.7196
0.817145 82.9096 8.85544
-27.6123 106.227 0.820624
11.5322 103.128 10.3602
-15.131 99.7535 10.599
-26.6223 113.045 -4.54692
-1.72522 102.168 8.25922
15.6288 85.0864 -4.1154
-26.0004 81.0486 2.95152
11.4258 84.4247 -6.36777
-21.1832 93.3815 -10.9821
-21.4589 115.661 11.4075
2.92962 95.5486 8.98643
-5.98293 77.3643 -10.6847
3.61395 100.274 7.70898
-26.9446 108.632 -5.86021
-2.0467 92.9513 -12.8681
-20.7964 85.6308 6.36817
-21.3866 92.9502 5.85643
4.2443 97.6074 8.79842
-18.8238 117.134 11.4084
-20.463 81.4791 -10.7419
6.4067 86.6202 -9.22855
16.5486 93.7305 -3.08648
-31.9996 80.7861 -0.840617
-3.1602 109.076 9.15382
0.188689 109.851 7.09101
0.913079 75.0035 8.35696
6.73346 79.0413 -9.05706
-19.4935 87.0746 6.59075
-27.2231 107.724 -6.0603
-3.33317 87.8446 -12.3442
-8.50997 88.0834 9.99778
-22.4917 93.7045 -10.4346
-15.4996 87.848 8.89155
-25.0149 105.667 6.89042
-20.662 87.5332 6.20722
20.5862 84.1656 1.78145
4.6009 78.5373 -9.38957
15.8852 106.356 9.68037
-26.5907 81.0043 2.8993
4.38203 94.1656 -11.6824
-0.109147 113.558 7.258
-6.58288 102.241 10.0035
20.9069 77.9259 -1.51257
-14.6142 81.8202 -11.5932
-15.2758 77.6212 -10.9176
13.9062 83.9652 -6.03379
18.3029 98.8044 -1.88983
1.89736 78.2772 8.20883
-9.35194 79.9981 -11.3832
-28.9704 91.8663 -0.483617
17.3813 76.9501 6.78784
7.91662 105.367 7.46965
-14.154 105.656 10.0225
-8.34942 100.895 10.2941
4.04819 82.11 -9.97156
15.9173 75.8305 7.21312
-28.5039 85.3349 -8.64762
-23.7411 81.7021 5.10771
6.75043 110.642 6.16807
4.29295 105.337 6.72307
16.1644 93.7945 -3.3548
7.08342 77.4372 -8.56854
-26.5155 114.022 -4.64854
-33.4582 78.8145 -4.445
19.4787 99.3801 4.05396
-13.3671 88.6788 9.29683
-1.22749 78.8349 7.75039
-22.8165 94.4339 -10.2942
-25.5509 98.2292 4.80638
-23.3397 115.236 6.8368
15.449 88.6632 9.4408
19.5902 82.8381 6.55286
-10.0811 86.9384 8.85933
19.877 85.795 5.10937
-23.7157 115.901 1.23732
-11.9563 103.656 9.98106
-4.56381 85.3476 -11.8176
-20.2732 94.6734 -11.3715
-27.1291 87.3649 -8.72917
13.4822 104.421 10.6135
-24.2011 111.519 8.54785
-26.4781 111.185 -2.7569
20.1847 84.001 5.491
17.2034 79.6354 -4.44193
4.06112 100.38 7.79512
18.3658 85.4811 -1.38376
-26.3834 107.223 4.1147
19.753 84.3253 3.7253
-7.06919 88.8712 -12.4883
17.5841 75.1823 -4.59966
-29.9962 86.238 0.149364
0.161543 89.7507 10.821
14.607 77.4616 -6.1055
-7.37111 93.1324 10.1823
-28.3434 84.4813 -8.37456
-12.1431 112.984 10.5667
-9.63477 106.113 10.2209
-0.198579 80.606 7.83894
-26.1389 95.4271 3.56595
-15.5308 77.8819 5.94983
-23.4898 102.028 8.15657
17.8952 97.8899 -2.98598
-30.0144 92.0924 -3.35269
20.3915 83.1378 0.418888
-19.5967 93.0807 -11.4837
-25.4941 88.5671 4.17113
20.1703 83.8942 5.46616
-16.2989 108.678 10.8276
-33.1559 80.2524 -5.12376
15.6959 104.599 9.90862
-19.0823 77.9861 -10.7554
-26.8334 103.989 -7.67625
-19.7392 87.663 6.41407
-13.3732 95.1114 -11.8051
13.5589 96.0838 -7.18359
-12.4828 93.8111 10.2835
-26.6789 97.5683 4.21293
-18.8607 78.2945 -10.7052
-16.5085 81.2621 5.83623
-15.366 89.3057 9.4315
15.3324 81.7073 7.74317
-4.50354 109.976 9.95365
18.0088 95.9791 -2.49646
-11.2351 81.7788 -11.8319
-7.71355 97.872 9.77316
-17.8607 80.2715 -10.9272
19.6202 96.2235 5.45784
-12.8579 85.2911 8.88059
-11.8282 77.5214 5.6228
11.4961 77.0376 -7.33098
-22.5787 101.726 -9.82874
-31.0707 88.8799 -5.12575
11.7831 87.6203 9.74666
-23.3776 119.454 7.60794
-20.9564 87.056 6.24225
-10.2602 96.7699 -12.4125
11.2829 111.576 8.26657
-6.27339 79.47 -11.1043
-22.8137 117.23 5.32526
-9.93079 100.537 10.4309
-15.9103 91.9555 -11.7218
-22.9104 91.7367 -9.47791
9.91964 97.2622 10.7532
