ply
format ascii 1.0
comment Created by Open3D
element vertex 1940
property double x
property double y
property double z
end_header
-21.2031 139.571 5.40218
-17.7877 126.761 8.22502
9.21524 118.863 -3.12392
-5.46374 90.6609 -2.7621
16.068 129.586 10.5097
2.74332 98.3821 2.96805
-20.3507 92.51 -7.753
-16.7046 112.578 3.80788
4.36839 96.468 -4.10422
-6.3702 92.4708 -4.55233
-14.0499 80.2775 -9.44251
9.30677 125.32 2.6501
-15.1722 99.7639 -9.87232
0.418575 86.4407 0.437244
16.0862 111.085 0.506204
-6.55532 143.73 2.51324
-21.4416 130.085 -3.28146
5.77202 141.893 3.55565
20.1795 132.85 6.38581
-19.2992 121.539 -0.631672
-20.235 92.6575 -0.596451
2.14591 130.547 -0.676028
-4.91238 145.738 -3.97167
11.6093 138.412 -4.87214
9.78204 138.464 -4.75452
7.6865 106.499 3.01671
-9.99216 149.88 -2.75648
-1.08536 106.555 8.46571
-10.3024 151.34 -0.97711
-19.1161 106.552 -7.05446
-15.7029 125.948 -6.01227
-0.741988 113.332 -5.32196
12.6372 115.166 14.0431
-12.1387 132.307 -5.37631
1.98978 90.7124 3.45107
5.59708 109.141 -1.55551
-11.1261 145.815 -3.96164
14.7392 116.102 -2.76394
-22.0961 84.1648 -4.29585
-2.09847 127.858 6.69717
16.4513 99.0918 11.1749
-22.5291 129.932 -1.43167
-9.92904 128.907 -6.83761
11.3028 124.276 11.1332
12.0404 104.987 15.8672
1.02099 92.0336 3.90622
3.70946 105.816 13.2087
10.3245 147.719 -2.92208
13.2482 127.012 1.88893
-9.27705 96.9619 -8.47577
7.679 113.936 5.78616
5.94017 134.767 4.01432
-21.1032 121.613 1.85894
-23.5411 134.57 3.76124
2.23164 86.7216 1.50106
-5.33232 113.465 9.37419
2.93948 91.4569 3.11003
-3.22021 109.229 -5.85144
13.4748 120.471 2.19828
-14.3522 83.1438 -6.49339
0.117476 134.387 5.11132
-4.66851 126.985 7.24425
2.28616 140.788 -2.02247
3.54067 151.382 -2.68792
6.49176 124.977 10.8841
13.1571 132.706 8.75795
15.0874 109.02 12.8372
-12.2941 98.6044 -10.0252
11.7998 104.323 16.0352
5.14326 94.6736 7.89637
7.3118 147.451 0.818874
10.6691 141.938 1.91309
10.0768 134.232 8.26171
1.18202 115.316 -3.87554
-11.4105 88.4934 -9.01713
-17.5583 128.405 -1.64841
-8.09676 116.066 -5.75832
15.139 128.138 -1.42867
-16.6282 94.2391 3.64674
0.0562446 141.282 3.32955
6.05071 122.846 9.03986
11.3469 132.266 8.48902
-5.28909 128.12 6.28943
-17.3541 99.5757 -8.95753
13.7371 126.727 5.4835
-20.3205 102.797 -6.90049
-7.69784 121.457 -3.93535
3.73208 125.329 6.25891
-13.2832 112.281 10.3586
9.46713 118.402 -3.35537
-13.6692 92.1396 -9.52575
17.4678 130.804 2.93827
-7.57004 130.451 6.86047
7.521 129.69 9.22038
-7.95773 103.345 9.53572
9.97639 147.165 -3.94017
-6.68554 152.945 -1.33804
12.6248 148.013 0.656176
8.59052 115.671 14.4475
9.80282 140.314 6.24468
8.87601 154.644 1.42788
-19.0638 115.848 3.78713
-0.999439 138.871 2.20292
4.26238 95.029 5.02087
6.68256 147.911 -3.16261
16.1355 122.865 7.64689
-16.1982 125.359 5.20448
-19.5293 122.148 -4.0231
0.474253 132.146 5.84352
13.8538 126.345 1.20513
8.60525 88.472 -1.20532
-3.65337 105.013 8.89524
-12.1963 113.827 -8.75952
-19.519 111.614 1.25231
-17.1156 100.236 5.19369
17.5205 125.845 9.51058
18.7881 125.323 8.93778
-25.5682 125.21 -1.06153
4.17041 125.746 5.26273
6.876 117.974 13.4517
-13.9475 132.029 -3.77067
9.11376 120.871 3.68013
-6.96822 99.6684 9.91384
-21.7233 95.4046 -4.97469
-11.3489 149.603 3.49047
-10.2996 114.389 -7.50172
8.24113 100.406 -3.82042
3.85461 148.032 -3.20742
-4.805 108.45 9.51536
12.9076 116.741 3.95955
-20.648 109.946 -1.08183
15.1938 130.433 1.53265
4.93565 112.759 10.8551
18.2506 129.068 4.13084
7.31381 138.242 1.45489
-7.44618 131.112 -5.17796
-10.4114 129.914 6.43483
-1.70598 142.292 1.70703
13.8653 148.412 2.26234
18.333 125.37 3.59804
9.43299 152.637 -0.543575
-19.4454 121.256 -1.65187
15.7108 126.072 10.4094
-14.848 112.318 -9.31647
7.84796 121.513 1.99692
-1.31011 140.64 -0.998194
8.86461 116.164 4.10413
16.0471 96.3744 4.58428
15.9474 105.016 1.05569
-1.72894 128.746 -1.5729
7.55847 123.159 1.44319
-19.3986 126.413 7.79372
-13.5427 118.925 -7.99705
-10.2102 132.456 -7.16669
17.6339 125.39 0.965291
-2.81992 117.339 9.51729
-8.73364 110.89 -6.76251
10.2075 99.8369 -2.5936
-18.2073 124.727 -0.0592206
-8.73726 115.237 -6.34571
-24.7748 127.182 -1.02626
-8.1206 141.137 -4.78575
-21.8589 136.484 6.60752
-15.6194 113.411 7.87949
-18.3019 121.318 -1.31473
11.0278 89.1187 -0.047074
-0.0506582 117.677 -4.66869
9.83867 88.348 0.684626
5.57758 109.715 9.95821
11.9618 128.018 5.55025
14.9624 120.485 0.19657
11.9085 125.466 5.74056
17.5574 127.393 2.71572
0.237831 122.174 8.01834
4.39023 94.2457 3.17128
-15.3714 131.848 -2.95632
-11.0195 122.717 10.3906
-25.6868 128.855 4.0455
13.8481 95.7763 1.93861
0.683096 99.4518 5.36534
-0.702069 86.8465 -1.55216
7.79433 130.569 5.69637
-17.5329 141.737 0.133432
16.8058 140.838 8.67566
-12.683 133.025 -4.22236
-4.9915 130.673 5.10357
1.67002 149.969 -2.67999
-15.5738 82.947 -8.1471
-9.32458 78.8232 -6.92636
17.2912 125.76 8.68591
-3.06086 139.361 -2.08907
12.0797 132.083 1.27372
-5.81356 136.916 -4.41421
1.29405 89.2871 3.34486
-3.09657 111.814 -5.14498
18.7846 129.601 5.07168
-17.459 89.145 0.788268
-21.1763 90.2185 -6.98545
10.6336 137.758 7.41055
-15.0378 91.7141 4.05335
16.9186 127.548 0.0861308
13.7396 128.215 1.45502
11.1495 149.726 0.0502597
-8.80763 140.229 -5.13936
-17.9075 130.535 -3.05704
-18.7928 93.23 1.44726
-19.2617 142.785 3.29691
19.6725 128.656 9.95648
1.8678 93.9989 8.51927
-8.92773 146.601 -4.84176
-22.1262 88.8371 -4.60331
11.4155 133.097 8.63342
-23.7049 131.534 1.12167
-19.6016 125.506 -1.29484
-11.5049 120.978 10.6666
11.4617 151.629 1.54082
4.17007 95.3956 9.6406
8.8138 132.22 1.38633
6.20294 124.64 11.1459
-17.9433 141.329 7.25291
1.85068 108.659 7.70275
-18.6868 92.7874 1.37033
8.54963 123.056 -2.60284
13.3855 117.525 0.685361
20.4752 140.8 6.0394
-0.194503 134.882 4.88351
15.8163 113.844 -0.583978
14.8083 117.348 8.65918
-12.9441 138.25 6.30235
2.81481 98.9887 11.5004
-1.10048 121.491 7.62811
3.19562 104.257 10.3832
17.9424 124.345 10.3722
15.6804 113.246 7.88434
11.8481 123.118 -4.52762
17.4333 130.768 10.4526
4.9351 104.027 -4.78617
-11.861 81.1441 -3.99378
5.25857 133.779 5.08591
0.707775 98.143 8.31981
15.8739 126.542 8.8509
-2.04724 134.869 3.40144
5.01253 97.8806 5.1154
10.6142 141.694 3.6447
-21.2988 114.246 -0.990978
12.1915 124.585 10.6931
-11.5687 101.863 -9.40613
11.5868 111.139 -2.15039
6.32426 106.246 9.43424
-14.5763 83.75 -8.52584
-20.4955 121.549 3.63355
-17.8268 127.616 -1.76304
-19.1741 83.218 -8.81069
10.1972 108.229 -1.0976
13.8057 138.443 -0.558319
4.48687 108.206 -4.14197
-2.21656 138.47 -1.28763
7.1477 116.272 6.98799
-5.37081 104.112 -7.97432
-18.6758 122.322 5.5763
2.83161 100.393 7.07654
7.45272 136.534 1.25275
2.81678 149.218 -3.01428
15.5275 114.213 1.81868
17.6307 130.585 3.23945
0.2675 96.8654 5.02885
14.3774 116.959 -3.20723
-22.2261 134.167 6.10386
11.4582 145.677 -2.53935
3.3471 104.362 4.82561
-16.0732 121.572 8.11386
9.89428 140.627 1.45648
3.40865 92.624 3.90028
2.14564 100.596 10.5973
-3.30856 91.9336 -3.2678
-20.7724 120.374 2.34878
15.0581 113.832 8.90358
-19.7306 96.6674 0.648959
-17.9224 79.2076 -8.23978
-13.827 140.482 6.89593
7.67746 122.61 12.5444
-19.7563 84.398 -8.2964
-20.4398 107.061 -6.5114
-13.6272 83.6163 -6.4631
3.19534 111.631 5.68079
8.061 143.965 -4.06868
14.2694 137.036 -0.465958
8.83185 123.146 12.5538
1.72513 111.151 8.06369
-14.7315 117.824 9.83595
-21.1638 99.2961 -5.98284
-23.257 133.913 2.36107
13.7349 130.441 -1.8855
10.6276 136.807 3.38273
17.3153 128.606 1.83599
15.1477 114.548 0.58105
-7.94142 129.138 6.82126
19.7036 138.156 3.74092
2.1248 95.7542 9.07268
-6.7661 91.0474 -3.76542
-13.0792 139.509 6.20666
20.7816 131.868 6.37469
-16.7703 135.07 7.96584
-11.0963 106.902 10.8104
14.5142 91.2399 3.71326
3.73938 144.097 -3.42792
3.1106 102.857 3.8114
7.12659 141.404 1.2354
1.57205 89.9338 3.33154
15.9601 127.217 8.64648
16.0751 110.241 1.05403
5.7857 112.218 2.13101
11.9044 131.903 8.68627
-8.09197 83.4089 -1.70162
3.71985 96.286 5.74738
12.1594 143.098 -0.65488
5.33373 111.235 14.5526
13.3535 131.082 -1.23399
-1.92693 129.492 -1.6152
9.73136 113.436 -1.74839
-18.2419 144.353 4.70139
-20.7757 120.753 5.11871
-12.1335 132.393 -5.25177
10.6598 144.607 3.6345
6.52342 104.791 15.8648
-17.0355 92.5264 -8.76434
19.8986 137.536 4.84196
13.0261 131.445 1.82211
-10.9394 96.7158 9.47904
-24.4449 126.779 -2.44236
3.56844 152.881 -2.46294
5.16305 112.133 10.1308
7.93046 107.112 4.48425
8.88908 116.009 3.99052
-16.9202 114.739 4.68254
10.5678 140.067 1.90115
-17.3698 82.383 -7.70715
-18.7845 107.391 0.658094
20.8067 126.804 6.09663
4.87801 100.52 5.95177
5.81511 120.804 9.36359
-19.0514 99.9297 -8.47496
0.475273 91.4903 4.37715
-11.5439 145.27 4.76527
10.805 142.151 6.91183
15.7816 147.886 2.35126
-8.02725 114.879 -5.88705
5.37716 120.32 2.18944
6.1239 148.132 1.98485
10.3734 141.714 4.65134
16.5835 101.36 9.69465
5.14919 88.6355 -2.20616
-9.38354 94.5751 -7.59914
-18.7911 122.477 -0.578848
4.08983 153.825 -2.01392
-18.3448 88.6269 -7.10161
-17.7796 144.24 5.54706
13.8765 129.222 -2.77675
-5.11152 127.388 6.85333
14.1147 90.1284 3.48801
13.3991 133.489 0.555915
18.0366 122.461 4.42833
7.07796 108.726 7.97734
-16.6549 124.208 5.73737
11.971 125.178 5.25049
-6.11464 98.1605 -7.90498
7.01113 102.13 -3.87516
-1.68751 107.524 9.04175
11.0785 130.802 -4.1736
4.96645 102.551 -4.29766
14.377 148.185 5.60964
-13.2419 117.62 10.6825
-0.681805 153.27 -2.05987
3.52017 109.897 -4.17501
-0.369565 122.526 7.65435
-22.8057 132.651 0.388404
-11.4983 125.846 -6.61452
-18.618 122.734 6.98591
-11.2286 146.461 4.38934
12.1299 89.8995 0.844508
12.8246 130.285 -4.28308
-17.8716 137.26 -1.47584
0.154372 141.089 3.07936
-16.3747 113.893 5.01127
-4.57058 141.942 -4.36843
16.18 129.708 10.7073
15.0973 132.989 -0.997328
13.2476 151.405 1.26308
-2.45268 127.329 6.49714
-18.4501 92.2698 1.34096
-12.2242 80.1871 -4.70999
3.50437 103.648 11.3823
-20.1968 121.478 6.01392
-6.24988 82.1402 -2.17773
7.00445 108.75 -1.18389
-14.3133 142.871 7.31228
4.08311 102.416 8.16164
13.2603 126.909 5.90433
13.3714 127.681 -4.05404
20.4755 139.631 7.53986
7.65989 118.299 6.80154
18.1181 124.215 3.26446
4.45678 133.804 -2.10369
15.8648 103.436 1.18465
-15.4433 128.994 -4.7475
-5.16466 154.578 -0.931111
15.7358 118.206 8.02567
-13.788 140.091 -1.77936
12.4666 103.93 -1.09103
9.45818 143.535 0.718996
8.71778 121.037 5.73489
-24.7994 120.834 2.48034
15.1707 129.91 9.28785
-20.3899 120.379 -0.58717
-9.36689 144.585 3.01661
-13.246 91.4648 4.90822
8.05256 128.958 6.0342
0.0249413 86.8925 -1.42975
-10.6944 121.932 10.403
11.992 131.519 8.67241
18.6234 137.3 8.41961
-7.9252 89.1943 -4.3599
14.052 115.648 1.70163
6.52882 110.297 14.8245
11.2274 93.7881 0.427949
2.43768 103.062 5.09272
3.66968 98.475 12.0918
-16.3725 89.9036 -8.10989
-11.7467 116.506 -8.04859
3.96087 109.202 -4.01992
-21.5951 122.183 4.07054
7.09142 110.635 2.35821
13.6283 106.612 -0.464021
11.1775 130.545 0.642846
17.7908 124.603 10.7583
3.43332 150.197 -2.84102
13.0424 125.197 10.3517
17.178 139.641 8.98447
6.26051 110.403 8.75311
15.866 145.457 7.14577
13.3407 126.764 1.14121
-14.7094 135.801 -3.52974
-20.3703 122.049 7.81001
7.24595 126.076 -2.69372
-8.72371 132.864 -6.93438
-18.9671 125.768 7.88188
-12.4478 102.949 10.5549
7.77491 148.781 -3.45792
-16.8563 130.07 6.95685
-25.131 120.842 5.20549
-21.6959 83.6643 -4.7283
14.1151 129.182 1.10695
20.3072 128.036 9.68858
13.7523 116.988 11.2374
-1.75722 138.688 -0.981344
0.169779 102.397 -6.17346
-21.1809 104.15 -4.75369
-16.3623 79.9882 -7.68497
3.63562 102.39 8.35659
10.6817 99.5051 -2.44508
13.4105 125.114 0.319165
-16.3197 130.848 -2.58933
6.627 102.558 3.63808
-17.1832 91.4277 -8.77041
-16.7896 130.065 -1.98483
-5.3999 101.992 8.94462
3.79237 107.14 2.98562
-13.4655 142.292 6.47494
12.0363 123.317 11.0557
10.191 150.983 1.54256
10.1743 123.546 -4.35768
4.28454 102.935 8.58948
16.0902 96.0455 4.96047
-25.6418 127.614 5.31172
-1.8641 129.934 6.79953
-18.817 80.4784 -5.4271
14.8165 105.478 14.1255
14.0394 106.588 14.6412
-24.6324 121.031 5.21074
8.78388 99.8712 -3.51407
17.3993 129.493 3.05071
-13.4742 145.137 -0.962272
-4.74263 114.343 -4.0552
13.3135 125.771 6.43731
-12.9671 84.5015 -6.61031
7.60836 87.5185 1.79201
9.66341 110.387 15.0812
3.81291 105.632 -5.20764
-21.7887 125.449 -2.1085
17.2446 123.091 -1.26726
10.4256 125.975 -4.6177
-3.75588 116.824 10.0239
11.5021 132.703 8.61769
2.94442 137.438 3.65978
9.00479 110.917 -1.60067
-18.4897 81.668 -8.98885
-16.3936 125.025 5.62191
10.6434 141.636 3.42612
4.62384 101.292 -4.24693
-1.15869 92.1785 5.2143
-20.4578 137.615 0.458564
16.0059 121.499 8.5445
-7.35681 146.577 2.20374
13.2422 114.774 3.70773
-22.5173 121.533 5.8658
5.78208 114.536 8.78506
-19.6302 116.456 -7.09394
-1.13154 129.075 7.06084
12.8365 121.531 10.2858
4.23307 108.972 2.65295
-8.22152 131.268 6.34185
-8.01289 123.252 9.90499
-16.6217 124.172 -6.31433
8.03449 109.603 2.97414
13.2047 127.936 0.422358
-14.7128 115.317 -8.52434
-17.3581 126.945 -1.69817
-6.91699 133.991 -5.52438
-9.53302 81.0342 -3.59557
-17.3 117.252 6.82291
-13.5237 129.796 7.0438
-9.97954 84.4048 -3.78439
-20.2527 82.6728 -6.53546
-1.68793 109.161 9.32196
19.9281 142.994 5.31452
14.7858 147.152 2.54554
1.9678 100.656 8.13286
-17.1282 109.475 3.14587
-21.2688 104.968 -5.41305
-20.636 121.017 2.63916
-13.8836 113.663 10.2626
-10.6872 131.045 6.55856
-13.6913 139.709 7.07229
-19.6354 101.687 -7.3902
-21.5414 126.737 -3.3376
-12.7505 130.626 -5.8928
13.1668 117.343 12.775
-3.01114 142.239 2.32285
15.1735 112.209 11.3966
-17.3867 138.374 -1.6138
-13.84 116.77 10.4281
9.62002 136.397 4.40239
-24.2101 124.378 -1.07471
6.16151 102.099 3.79879
4.25164 117.965 -1.53688
3.00848 115.359 5.86529
-5.43793 152.482 -2.39978
-10.9079 123.068 10.317
-22.6175 122.225 -2.10462
-13.7983 129.969 7.37107
4.74128 108.195 12.5604
18.4081 127.423 9.67155
11.704 141.213 0.258353
13.0071 115.515 4.58445
-18.0154 124.913 -3.14901
16.6675 111.45 6.35513
-17.4867 145.184 3.22309
-7.10099 82.4788 -1.88148
0.804486 141.982 2.67451
-17.9535 102.433 4.22469
5.3166 94.402 8.06031
-18.2072 134.069 6.83171
13.3062 124.109 7.81534
-10.9684 90.132 -9.02865
16.8319 101.268 8.36823
-16.4702 80.1267 -7.78106
-11.4478 109.327 10.7505
6.68504 100.73 3.93894
7.05863 109.314 -1.13229
-21.9812 88.3574 -6.40517
-18.8093 112.709 -7.93667
-19.2437 121.627 0.810434
-12.1549 96.3427 -9.77812
-20.7287 114.955 -5.69345
-13.8467 135.728 7.41542
-12.6919 139.372 5.65768
-10.6068 98.8911 11.0534
6.77484 136.976 2.57899
-12.6144 85.8725 -8.33301
-10.7219 127.339 8.28004
-15.4226 112.745 8.08426
-10.324 132.784 -6.68341
17.6307 137.282 9.87762
-8.48784 89.0564 -5.11679
-12.9506 109.786 10.6574
7.82143 122.198 -1.62727
11.7095 115.022 -3.00559
7.23863 122.522 -1.25661
-4.65556 127.585 6.5404
-23.0022 124.597 0.47294
0.836989 97.8659 7.71858
10.5421 134.846 2.33781
10.6384 131.549 8.3526
2.41171 98.6112 9.64549
-25.1943 121.371 2.92448
-14.6642 103.878 8.65065
-17.7847 126.143 -2.74427
12.3537 105.268 -1.3091
-13.1532 137.959 -4.82128
6.06312 113.659 2.102
-2.79538 140.76 -1.9877
-15.4699 126.423 -6.71884
-2.86448 141.314 2.17851
-3.05729 109.304 9.53086
7.9037 122.925 7.03009
0.411569 118.613 -4.0474
3.91914 113.138 3.2681
1.81972 140.288 3.28205
9.85088 130.452 -4.14369
14.3952 136.949 -0.157114
-18.0588 121.132 -4.20824
14.2142 136.789 -0.540605
13.6664 129.861 3.67701
6.79733 135.618 2.15974
-15.0917 96.8048 6.09046
20.1409 127.104 6.95537
-19.9955 79.055 -4.87919
12.6984 100.524 -0.949848
-21.0264 110.061 -5.31009
-10.5589 123.497 -5.16218
-17.3059 132.562 6.14544
11.9447 113.519 14.683
-11.9915 139.689 -4.32981
1.58758 142.781 2.38566
-20.7003 120.428 0.591145
5.08863 98.8706 3.02803
-13.7918 97.6602 7.86026
6.16274 125.617 8.93103
-13.3915 119.12 10.1089
1.83417 99.438 7.17642
15.1322 123.29 -0.411884
-7.59684 97.126 10.7052
6.52775 113.104 7.56515
-9.09145 146.832 -4.80487
-1.78426 100.261 9.4005
-18.4657 125.707 7.58849
-16.9975 94.0718 -8.78141
5.09812 107.352 -3.61693
-2.43327 86.1111 0.510315
-8.58836 146.015 2.68004
-10.7841 106.005 -9.49858
-0.0276419 102.548 8.01688
-19.2358 126.263 8.30967
18.0225 128.22 11.4362
-10.1698 118.486 -6.65546
14.9219 123.449 4.14209
-8.82656 109.806 -7.25775
-3.10971 145.108 -2.07741
-9.39808 148.291 3.22459
-14.7854 100.514 -10.0374
11.8599 150.306 2.85296
21.2831 123.446 10.991
15.2115 123.339 0.944271
5.42746 117.614 -1.6193
1.73947 120.647 8.4165
-18.5712 123.178 1.1066
5.13422 108.531 2.36763
14.9524 133.602 -1.10254
5.80933 139.852 3.77416
-21.2303 102.244 -6.12397
6.34526 111.844 8.12637
6.75172 125.43 10.5153
6.73917 115.191 1.8672
-17.9313 129.433 7.78871
-8.53662 83.3174 -1.95996
3.17326 129.16 6.99069
-9.66586 102.476 10.9367
14.0193 118.899 -3.33545
9.28787 109.707 15.1981
12.8469 129.261 5.65475
-18.2047 119.164 -6.17221
-4.83562 104.708 8.85423
4.48534 89.0206 3.0465
-18.1915 114.065 2.86564
-3.94104 149.106 -2.43572
-17.3762 109.897 1.97813
-21.0301 118.577 0.56354
12.7624 117.424 -3.70116
-16.8005 99.7571 5.45194
20.1822 126.643 9.13084
18.2594 133.546 2.57608
4.52336 93.9166 -3.62111
-0.773387 135.696 4.35953
17.2912 128.805 1.72516
12.8456 107.965 15.2413
0.919814 96.5379 7.88659
-21.7333 134.332 -1.98077
14.0012 136.804 -0.0872718
-12.6356 129.454 6.24735
13.7443 132.023 8.56462
-1.10174 98.424 -4.30503
-25.1419 121.25 2.98333
13.505 131.589 -3.10627
-5.82423 129.712 -3.24154
12.7597 108.084 15.2348
-19.8924 120.115 3.92347
2.34527 106.234 -5.95268
-16.4466 112.161 5.80833
3.64172 104.723 3.90945
-12.9604 108.43 10.6973
8.09269 126.815 9.49233
2.22313 93.1244 -3.70093
12.6962 109.4 -1.64171
15.2724 125.975 -1.32385
15.7147 122.872 6.09316
5.06567 92.9764 6.10648
9.79274 94.4813 -0.0874495
7.66168 147.232 -3.62675
-15.7329 132.014 -2.54945
13.6338 129.533 3.25916
-1.64881 98.7936 -5.38813
-0.504353 96.9281 -3.0871
-17.2022 125.911 7.34001
6.20539 143.903 3.09389
-10.1922 150.987 -1.5221
-14.7703 126.068 5.51622
4.39744 96.406 2.68948
9.64098 138.734 5.07544
-14.2557 127.381 -6.45358
12.8879 149.055 4.4395
4.1143 125.628 5.3966
13.7211 130.32 -2.66429
-20.5827 112.673 0.37248
17.1276 136.345 0.904103
3.79868 114.632 3.59987
-18.271 121.273 -1.31906
6.74705 107.034 15.1224
-5.59873 109.557 9.4215
12.6155 132.306 8.79731
-19.3437 100.048 -8.32423
7.57078 94.0183 -2.0437
-12.5083 134.431 6.58668
-2.67273 94.5436 -2.83385
-18.2625 104.903 -8.14147
-14.7349 105.485 8.74383
12.8946 114.967 8.60167
7.484 114.337 2.24266
12.6589 133.448 -0.0770921
-15.6596 113.906 7.01142
13.9302 126.078 7.21111
13.959 117.227 9.23778
-5.68158 108.392 -5.95139
-16.3318 118.86 -7.66226
4.09627 114.288 -1.53459
-14.4069 120.211 -7.60438
-17.4716 102.872 5.21129
-5.22986 115.91 10.0227
-16.974 80.2529 -9.23178
15.2728 107.792 0.58957
-14.7906 126.744 -6.32528
-10.6123 82.7183 -3.1681
13.9295 111.312 -1.56846
16.952 101.853 6.61612
14.1819 148.104 2.25012
18.6206 124.553 9.08939
-3.87703 95.8727 -3.69177
6.39364 149.184 -3.10134
20.3213 139.038 7.22154
0.900256 96.7164 7.57161
18.1804 128.883 10.021
-7.68996 112.471 -5.94318
-17.393 112.026 -8.83304
-22.9017 125.665 -1.69873
12.2107 126.525 9.17703
-13.6921 127.288 6.33347
-25.0655 125.77 6.09725
-10.9694 126.284 -6.84914
-9.90947 94.6701 -7.9007
-19.0758 135.011 7.28722
5.96992 122.829 11.3643
10.37 141.94 6.69846
14.2042 121.352 -1.86518
11.6412 105.06 15.9665
7.28132 103.649 -2.45957
17.3341 125.086 7.28748
-15.9036 80.3307 -9.36734
20.1804 142.057 5.60248
10.526 95.4122 0.300566
0.636472 142.658 -1.30884
-6.65387 141.988 -4.81271
13.1825 116.12 12.1888
-3.27189 97.0486 -4.37075
20.0423 140.926 4.8007
13.0944 121.547 -0.413851
-1.52804 124.479 -1.96399
-4.06282 134.078 3.83198
-18.9926 122.423 0.282372
-21.3907 86.1875 -3.15662
14.6288 111.25 13.4397
-12.4217 94.0071 -9.3902
-6.19053 149.189 -3.76958
-13.4182 140.359 6.56472
7.23483 141.177 1.20251
-16.385 101.028 -9.41783
5.98052 126.059 9.85726
15.9153 100.39 13.1236
6.75744 130.016 7.0607
12.0831 100.258 -1.5504
14.0002 116.449 -1.31363
-18.8274 125.63 6.99287
15.1472 112.142 11.9728
2.37351 148.151 -2.84338
6.67038 141.626 1.73282
-26.2652 124.968 0.70967
1.89808 132.881 6.27963
10.7446 136.698 -4.5314
-3.85374 142.592 -3.15528
11.9765 117.519 -3.83196
-21.5324 97.146 -4.17845
-5.80845 144.655 -4.46894
-18.0646 116.247 4.49683
-16.7975 122.604 7.53894
-15.327 121.776 8.872
-8.40663 97.7224 10.8475
-1.0398 113.754 -5.25769
12.2383 140.841 7.90262
-18.3931 123.879 -1.6848
-20.4889 121.47 1.20134
-19.3955 128.595 -4.45575
12.2814 110.147 -1.96548
1.82046 97.5755 3.03072
-20.6907 110.735 -5.83171
9.04808 116.856 3.97438
5.89847 92.6294 4.79937
-10.3777 136.233 -5.80962
4.18148 94.1837 2.70107
15.0014 123.024 9.52897
-16.6399 115.415 -8.62133
-20.3818 119.178 1.83026
-9.50647 127.667 7.55495
-12.9745 129.971 6.70033
-19.408 125.131 6.83576
-17.5292 133.117 -3.34783
5.72117 121.738 9.43895
-13.4208 108.964 -9.4811
1.10768 99.7013 4.79819
-19.4067 119.18 -1.11814
8.81492 118.763 3.52929
-15.6775 109.412 -9.33072
-17.2826 119.158 -7.71221
16.4597 99.566 3.56701
-6.29203 95.8936 -7.22796
-20.8312 103.772 -4.02377
13.8947 130.715 -1.90634
5.95544 123.263 9.0875
2.84534 137.809 -1.76654
10.2981 92.4062 -0.0581859
15.2582 129.626 2.28103
0.360037 86.3783 0.749971
13.9581 122.381 2.09752
-10.2754 148.282 -3.63201
-24.7108 122.018 4.51845
-6.55598 102.812 9.15186
13.6739 138.8 9.03127
-20.6377 93.4904 -3.5591
-11.4044 150.078 2.74142
-3.10991 136.749 2.26082
7.77618 146.693 0.563932
16.9309 100.689 5.04817
16.4475 126.346 8.21592
13.2406 125.932 -0.0947287
4.00677 103.652 -4.43198
10.2931 136.843 2.39767
17.7058 125.498 2.29217
-4.83008 95.4466 -4.27243
6.5413 126.308 -1.55305
-13.484 145.502 -0.973675
-12.8324 110.91 -9.27875
2.8319 90.8172 4.70319
1.75965 121.1 -2.64819
-11.3336 99.7721 10.5908
-19.8748 117.41 -6.17153
7.16455 108.887 7.74776
-20.2813 139.295 1.12755
7.18858 138.764 1.56498
4.41419 101.302 3.485
1.33764 97.7463 3.88704
18.3496 123.162 7.43296
16.4897 130.43 -0.0065732
-16.6359 131.858 -2.32233
4.14361 109.461 -2.984
-12.6514 138.33 -4.90341
-18.0384 143.062 1.34232
-13.9351 109.512 -9.46962
-21.505 127.769 -4.22619
17.2142 124.092 -1.07524
4.59077 109.228 -1.9892
9.5984 95.4678 -0.66263
-11.434 91.9164 6.42482
-8.47767 111.988 9.80057
-15.5755 115.911 -8.37378
-5.3211 121.705 9.55888
-4.24257 148.459 -2.77428
1.96638 106.325 -5.89691
-23.5926 122.085 5.61058
-18.1283 131.997 6.21805
-18.3507 140.507 7.26664
-21.353 81.8757 -3.86309
12.7849 140.896 7.91515
9.28565 102.974 -1.49981
13.3065 114.987 8.089
-17.5148 132.315 -3.4782
15.825 126.394 8.93381
-4.29236 123.289 -2.22795
-21.2357 94.957 -6.98917
-1.91595 130.422 6.4002
-14.9457 100.684 7.78601
-9.92499 104.454 -8.99988
-24.9757 129.433 3.16589
-18.523 136.938 -1.30955
12.6945 105.716 15.6233
15.4493 123.839 8.24809
-19.7487 124.701 6.40139
-13.9216 142.696 6.96221
-26.0522 124.102 3.9615
17.5331 142.405 2.2803
7.88015 135.645 6.769
-15.7877 101.779 -9.98727
6.10621 125.217 10.5448
-17.9269 123.238 6.736
-8.93161 123.215 9.97661
-17.8725 129.425 -3.99607
-15.694 133.596 -2.2239
-13.2434 128.913 -5.92715
4.72552 136.325 4.38153
-20.5866 123.46 5.19681
9.11431 126.654 5.54646
2.86262 125.361 7.36996
-21.7111 83.5346 -4.54773
-7.69861 86.0055 -3.18892
-19.7228 123.64 0.0314997
-5.49758 149.984 -3.35028
-4.06278 143.143 -3.44291
-9.90702 151.163 2.10903
3.08351 115.417 5.67275
-8.18042 100.098 10.2233
18.8247 125.41 10.5514
-0.442986 134.267 4.72599
1.35973 127.493 -1.83452
-19.9225 138.949 0.592395
11.3001 117.498 13.7654
16.4611 127.545 7.83072
9.84788 99.7893 -2.90513
2.1631 112.73 -4.55963
-19.7539 102.216 0.883301
8.27643 139.625 0.602338
2.12244 91.5707 3.04425
11.1991 130.906 1.36988
-21.057 120.463 2.40574
-17.9111 100.289 4.18615
-23.4187 130.991 5.05395
5.19274 106.571 -4.06453
-18.1945 140.381 -0.251185
-8.62263 151.464 2.1696
4.53813 111.244 12.2947
-18.3559 104.333 3.96709
18.8894 142.735 3.40445
-16.9438 129.19 7.00646
-19.996 116.645 -5.28323
21.3021 124.103 11.1232
-18.1972 125.318 -1.01862
-22.6083 131.549 -1.06252
-14.4159 147.737 1.47233
5.25851 124.156 -0.641173
-21.8842 85.037 -6.4941
13.7279 117.096 10.8692
8.85579 128.471 9.12358
-18.1275 122.327 -5.31285
12.1945 129.795 -1.24115
-8.93064 101.725 -8.44255
3.82983 123.817 6.04885
18.1975 141.896 8.30457
13.0838 129.011 1.86784
-18.1608 110.508 -8.56352
-21.6556 122.663 -1.948
-3.55415 105.812 -7.49775
-8.51661 112.482 9.87255
-20.5995 82.5961 -4.79149
13.2778 134.992 0.440208
-1.62946 96.494 8.75843
1.01517 115.976 -3.89701
6.74851 150.703 -3.16627
-12.7629 137.699 6.32473
16.3364 103.646 11.2561
16.0206 137.752 0.588613
-19.8754 123.441 0.675121
8.71897 117.673 3.03134
-7.53225 123.127 9.77886
13.8283 123.313 0.106791
11.0391 127.617 0.73336
13.4534 128.643 8.86892
3.94246 116.538 3.41093
-8.32743 90.2514 -6.00381
-7.91779 110.459 9.46098
5.98952 90.0803 4.07658
6.56967 133.288 -3.98932
-10.7305 149.533 -2.77571
21.6235 132.175 7.04843
9.38923 136.007 4.48761
-2.15434 138.628 1.50715
8.14948 150.797 -3.49931
14.5295 133.519 10.4985
-17.2914 87.1479 0.675878
17.9184 128.611 7.97685
-16.8538 111.376 3.40708
-8.32583 109.409 -7.18794
12.5192 118.737 -3.85555
-12.9425 96.6357 7.78683
14.6286 120.783 -0.0629361
0.355969 129.633 7.49505
-19.1788 104.553 1.90596
18.6482 145.298 4.44331
-12.8645 97.4095 8.57064
7.75558 103.989 3.70937
-5.62825 114.584 -4.29425
-10.9111 118.349 -7.23042
-3.19476 148.454 -2.15749
-5.5361 95.1832 -6.03973
-20.4289 109.979 -0.743466
-14.7989 135.248 -2.22351
11.6309 119.267 12.2119
21.1361 124.521 9.53829
13.2005 124.25 0.171974
-20.8215 93.9004 -7.42609
10.4433 141.551 4.53542
-10.2861 79.3246 -7.72681
3.22639 131.278 6.43454
-21.0554 136.942 7.09143
-12.2683 124.134 9.25014
-16.3012 146.453 4.69247
-3.51396 123.715 8.7211
2.11391 89.8669 1.8047
18.0182 127.228 9.32601
-23.558 121.809 5.24428
-2.72136 113.858 -4.72242
1.63385 117.46 -2.59626
15.3628 94.9034 7.37732
15.0446 107.144 13.1503
2.61064 141.815 -2.4361
-0.524133 127.995 7.08123
4.57873 111.373 11.9633
-5.58938 127.204 8.35809
4.38784 109.423 13.4362
-3.20834 106.266 -7.3297
14.619 144.765 7.51783
16.6629 106.008 4.87656
-4.80589 110.757 -5.13027
8.0173 110.643 14.8315
-0.893015 139.626 1.35757
19.2788 125.248 8.5756
14.4998 123.594 9.91202
14.3979 134.872 10.0211
-10.9769 114.453 9.69824
-11.609 110.439 10.4263
-4.11655 88.4427 -2.12303
18.0841 122.967 7.41328
1.06174 125.417 8.03171
18.9562 123.053 6.45258
14.4119 90.7789 4.13266
12.3203 127.832 4.15451
-18.3015 94.7773 2.32368
-21.2814 98.5787 -5.29026
2.90981 94.6264 8.50663
-24.5613 124.536 6.62408
0.47079 118.88 8.66011
14.3143 123.617 6.7629
14.4273 137.046 -0.309264
-15.179 91.6051 -9.28877
3.69837 109.555 -4.21767
-17.4016 100.716 -8.81356
-13.6628 92.4637 5.28517
-21.9104 90.7834 -4.89682
8.99293 135.99 0.915829
-14.6003 103.067 8.63935
-20.2679 103.55 -0.926642
-1.10329 112.823 -5.46724
-13.6445 120.002 -7.80174
13.1925 127.195 -0.0136814
-1.38961 94.4966 7.64394
12.483 97.5909 1.125
-14.6751 111.979 10.0011
-14.4815 146.992 1.45273
-15.3599 97.9568 6.5624
-3.1042 131.534 -1.77964
15.3307 132.459 -1.81826
7.13478 115.11 14.4196
-3.0692 131.101 5.38553
15.4262 108.143 0.646033
3.35987 88.1946 -2.11016
0.740786 116.975 -3.70137
1.05913 92.0341 6.35772
5.28609 123.675 -0.656382
11.2512 108.559 15.4774
-8.84499 115.109 -6.44863
15.3157 125.748 3.99588
-5.92307 86.7725 -1.06339
3.14913 95.7075 5.99269
-2.74709 124.567 7.7592
-24.7318 120.268 4.84732
18.319 134.739 10.0749
15.2383 118.019 8.45547
16.7905 104.595 5.91199
-19.5252 121.964 6.34497
6.07651 104.782 15.6857
-21.0952 109.309 -5.09379
18.8737 137.828 2.3551
9.09201 130.62 4.78181
4.86106 89.1536 2.55857
4.53087 118.697 -1.17501
-8.598 122.949 -4.36989
-20.3199 86.1395 -1.67785
-12.8356 94.9233 6.68402
6.77072 104.126 -2.66009
-12.4547 86.274 -8.81284
15.6463 121.969 -0.87625
-21.144 81.8168 -4.10052
15.2835 128.615 8.45912
-23.4154 124.279 -0.12187
10.2023 138.452 1.52635
-17.7383 113.894 3.01787
-17.7759 81.5607 -9.15865
-19.5062 142.671 4.08124
-20.7701 82.631 -2.02444
14.5849 147.184 2.54053
-0.251871 122.591 -2.20724
-15.5495 135.06 -2.69736
14.8689 124.798 2.56883
8.73882 117.753 -2.80782
14.9694 135.202 -0.624241
-19.5365 82.2319 -7.96669
12.306 124.15 10.7263
1.43751 135.121 5.05956
16.3591 97.4548 10.2216
5.87349 128.678 4.22593
13.6229 118.531 0.652691
-3.22755 110.92 9.3173
-21.2261 123.651 8.58173
4.43235 129.867 -0.8575
-13.2284 84.9291 -7.41685
13.9035 120.056 -3.32794
6.46802 153.717 -1.6621
-3.6403 106.246 9.13491
19.0222 126.803 9.43958
9.80654 142.021 5.91423
-10.0579 82.6928 -2.73912
17.3417 121.642 0.282093
-7.66922 150.903 -2.7162
-6.5857 113.128 -5.09714
16.8082 99.8045 7.57419
-16.1949 117.086 -8.08072
8.87162 119.825 5.316
-20.8811 140.526 3.21569
-8.1998 143.724 2.3881
-14.0527 105.071 9.54279
8.07377 119.148 -2.52899
3.4821 107.478 3.74929
18.4307 125.296 9.32313
5.3891 100.384 5.44795
-12.4205 113.677 -8.82912
9.48095 136.184 0.809043
-13.303 84.1394 -6.58306
1.23746 91.0081 3.95412
0.900314 98.9648 -3.2856
13.1714 122.288 0.527524
5.93605 119.303 9.01814
-2.40221 133.872 4.01686
-4.15945 130.464 -2.18332
-21.0839 107.081 -3.83943
2.08361 129.538 7.2861
-8.0449 148.944 -4.09175
3.57808 135.59 -1.70647
15.0184 109.622 13.1866
-15.9675 105.063 6.73261
20.257 128.011 9.59929
-11.0442 117.613 -7.49485
14.1536 120.279 -2.3143
6.98242 121.28 8.04561
12.1079 145.513 1.39171
-10.9999 117.198 9.7463
15.7983 100.373 13.562
0.622843 102.972 7.77789
13.3929 115.798 10.7482
16.3739 122.945 1.9506
-9.61003 106.626 -8.61237
8.55732 120.73 -1.99158
14.2864 94.262 2.43956
17.1383 122.098 7.41363
5.37092 137.22 -4.05263
-19.3563 125.487 -1.24854
-18.9532 138.406 -0.223832
-24.3733 120.523 3.67465
11.0326 111.859 14.9513
-20.7926 99.7804 -1.3731
11.5714 145.182 -1.20497
-13.3927 138.221 -4.81589
4.46846 109.092 12.312
3.58822 104.78 10.4157
2.87732 103.29 4.72639
-15.7055 100.398 6.97712
5.56623 120.449 9.66084
14.6245 131.722 -0.7644
4.66592 136.872 4.14731
-15.8762 144.171 6.74538
8.59461 153.3 -1.49188
-22.2108 88.6442 -5.49567
-7.17593 145.817 2.17914
-3.47132 124.579 -1.92028
11.5885 111.076 -2.14553
-20.7837 122.451 -1.35117
-8.25198 93.2504 -7.06952
10.7133 137.971 3.36021
-20.8989 123.009 -1.77967
-22.085 88.9595 -4.28939
-14.8217 143.431 0.0519175
11.306 97.9156 -0.912777
15.19 101.232 1.06115
3.00787 100.185 12.1355
6.06222 87.9437 2.49162
6.5088 103.08 -4.29097
8.3373 122.217 2.21996
-17.7835 114.013 -8.41459
-8.25377 86.8904 -3.84769
18.6651 133.19 4.23538
-11.5274 104.346 10.7885
-6.74599 137.174 -5.90103
-17.6079 144.472 2.07987
9.20011 127.257 5.43779
-17.0417 115.679 5.7478
-11.2006 123.999 -5.74532
10.0024 134.382 -4.05571
12.7694 151.639 1.02691
-16.8561 131.845 -2.24958
-1.58225 149.306 -1.40133
20.3817 140.392 5.6001
1.44886 107.535 7.86824
-15.4112 127.988 -5.24543
16.0443 102.395 1.86122
-13.7887 91.3499 4.66756
-10.9737 124.753 -6.11957
-7.02071 107.452 -6.89906
-10.4828 135.95 -5.92451
4.24816 133.052 -1.71236
-10.9353 79.5003 -8.40489
3.15154 112.96 -2.00617
-15.2661 140.415 -0.419493
-10.8953 145.005 -4.25957
18.7647 122.987 2.51984
-11.7338 100.112 -9.81957
-9.13985 145.512 2.87283
-25.5031 121.951 5.02167
17.3877 129.452 8.55489
-7.71252 85.9238 -3.15743
8.90453 123.468 5.49997
12.3395 127.524 3.45654
7.91763 111.309 5.82278
-11.4094 139.419 4.94517
6.89907 103.101 6.02774
-11.2721 90.3444 -9.16891
-9.37935 117.121 -6.59049
19.3853 125.916 11.4985
-12.4921 104.875 10.7075
-4.62552 87.8227 -1.73478
2.26499 109.17 7.21429
-15.2525 108.265 -9.37312
3.28631 93.1436 2.71433
10.1223 140.752 5.53383
3.77636 87.0724 0.777532
-18.1106 105.86 4.38787
7.31193 147.493 0.823701
-20.4174 123.387 0.978299
3.23345 89.4296 -2.89256
6.4355 124.974 8.58608
-19.128 134.469 -3.03784
1.5578 114.539 8.60855
-21.8211 127.228 -2.7067
-5.0911 118.131 10.0067
-17.0409 91.2015 1.77098
16.3347 121.664 8.2687
18.7527 144.251 6.151
-12.6738 149.367 0.468511
-8.08183 147.182 -4.611
7.85432 106.768 3.593
-20.2548 119.984 3.65617
-5.69872 93.7393 -4.20449
-5.06503 121.563 -2.57809
-19.3726 118.883 -1.19816
10.4147 133.596 8.27554
-2.21059 139.264 -1.42969
18.8479 128.745 7.8772
5.1727 118.531 -1.23475
14.7114 132.776 -1.26184
-2.9566 93.8983 8.48388
8.83684 127.526 5.92723
15.7177 102.671 13.2291
13.6125 139.865 8.64141
-12.9531 143.389 -2.69183
16.6958 127.559 -0.714967
-1.89082 116.169 -4.51148
7.74549 104.169 4.13401
-3.55999 134.359 -1.79602
-4.50059 103.813 -8.06883
9.60465 130.081 4.16404
-1.42975 125.294 6.90471
12.3244 98.0358 0.549677
-21.4102 132.1 -3.11921
20.4189 139.016 7.54713
-16.1138 142.635 7.29861
-14.9128 117.11 9.85087
4.90508 114.622 12.2762
-6.25679 143.846 2.50884
14.9627 125.245 4.92689
-1.50958 102.184 8.31307
-6.46697 130.029 6.2128
-0.129983 102.945 -6.75215
16.4479 111.698 5.11302
7.15932 102.305 4.97353
-18.662 90.8095 -7.79138
18.4984 124.076 3.92416
-15.8375 100.289 -9.90084
12.2932 146.038 1.60471
-12.3733 122.857 9.82093
12.9038 118.299 3.12018
-9.39001 127.714 -5.73203
-15.6416 88.7718 -7.68735
-12.225 103.532 10.6351
-9.99193 84.461 -4.00144
-6.56085 132.1 -4.01003
-4.33588 136.369 -3.09321
15.2767 93.3752 4.7067
-19.7334 137.075 -0.0617389
11.9113 128.26 -0.984044
4.62055 104.955 -4.93219
-18.4786 125.384 -3.11748
-19.1408 131.163 -3.09788
18.8711 125.797 8.93059
-5.15872 131.385 -2.7203
8.3571 127.842 1.52173
16.168 122.6 1.75734
-18.748 117.799 -7.68413
18.166 125.604 11.2439
-20.2439 131.396 -3.52849
3.23058 94.1932 2.78872
0.998301 99.4419 -3.37726
4.38157 108.783 14.2899
12.7425 138.224 8.84691
4.87887 108.573 11.9527
-20.8615 84.0334 -6.43506
-2.85699 143.72 -1.88371
-20.0347 104.74 -3.42116
-13.79 133.442 7.60995
-10.4802 110.734 -7.93391
17.991 124.68 10.8632
-5.61913 143.62 -4.59347
-16.3291 115.127 5.5491
-8.0991 117.282 -5.62649
-20.5887 121.661 3.72737
19.5584 139.768 8.44194
-11.4119 112.354 -8.29278
19.7067 126.849 9.91554
6.92805 130.342 2.40698
7.7358 130.227 -3.70544
-10.7716 133.488 -6.02659
5.07774 121.05 -0.766987
13.7399 133.262 -3.67472
-5.8646 111.254 -5.1217
15.8992 136.881 9.99386
16.5683 106.022 7.16423
-14.1966 95.8987 6.09794
10.0278 104.444 16.4132
-20.1822 132.614 -3.35463
14.7797 94.0136 7.20347
13.899 150.975 2.49372
-13.0243 90.6345 4.63407
3.36569 93.2593 4.74719
-17.3144 87.8861 0.557043
-12.3484 81.7808 -4.50138
4.7954 103.062 -4.38539
-17.7825 96.9026 -8.90644
9.12408 153.408 0.806932
9.37752 148.636 -3.96129
-26.1662 124.181 2.92865
20.1508 127.462 8.46544
5.08376 111.342 2.38448
-13.43 102.501 9.64731
16.5986 122.731 8.06443
7.36318 115.015 -2.37983
8.78976 114.388 3.46323
6.84351 121.039 -1.20338
8.56981 127.519 1.47549
13.5313 115.304 13.6909
3.99894 95.9705 5.59393
15.8417 99.2589 2.91349
18.4663 132.417 4.59477
-6.37232 120.863 -3.2579
5.94483 122.452 9.17024
-23.0028 124.768 -2.07714
12.1133 100.98 -1.18885
5.73939 110.679 9.53208
12.1291 129.335 1.6835
2.3864 115.571 7.54356
14.1201 112.072 -1.39115
-11.3836 79.2892 -6.67667
-24.7334 123.639 6.35596
10.4388 120.746 12.2138
-17.2482 84.0104 -8.9244
13.8925 114.551 8.4751
5.46234 112.434 2.24889
1.61579 105.371 7.29093
-8.0375 152.754 -0.818795
14.4037 128.473 2.70719
-10.4791 92.5394 7.16398
20.2595 135.623 8.33897
-6.83166 91.3055 -3.79003
-4.33338 134.772 3.17252
1.98254 114.185 8.12077
5.03382 102.756 8.06045
-14.8697 79.8145 -7.27321
4.73038 101.008 6.5608
-8.93205 107.971 9.99899
8.92028 118.179 4.73125
16.278 106.794 10.759
16.5655 101.6 10.5187
11.5897 100.601 -1.57971
9.64724 88.013 2.0643
-20.884 98.8464 -1.28072
7.60927 91.1431 -1.50763
-20.5416 123.023 4.29552
15.771 122.903 2.54795
-1.36577 136.878 -0.869669
-20.7779 120.337 2.29734
-18.6653 97.9376 3.19261
-17.518 85.8313 1.08311
3.36995 96.3536 10.0666
-8.99286 90.6027 -7.4432
-13.9226 92.9576 5.4571
-19.8738 98.0028 0.838546
-18.34 113.933 -8.23632
-2.92817 110.631 -5.57007
-24.8902 120.301 4.14185
1.38415 91.5287 3.11315
17.2785 130.352 10.9969
-12.447 131.538 7.08018
18.1543 125.001 10.8768
-20.6201 113.713 -5.95349
-18.4183 124.116 -2.1804
16.0783 123.917 9.31398
-17.8904 109.026 -8.37148
6.4663 99.1574 3.98579
14.966 92.8873 3.94143
10.522 127.276 -4.35702
-16.2787 103.11 6.62009
-4.61242 88.9663 -1.93847
-6.05245 125.036 -3.12261
-6.13891 134.024 3.44368
14.5735 110.782 -0.929404
-3.22909 120.889 8.96152
2.68247 87.7158 2.68588
11.565 128.424 9.32948
16.6203 101.822 3.48558
3.54525 125.953 6.6044
-9.99037 150.613 -1.99653
15.4784 131.13 11.1193
4.78225 111.685 -1.16683
0.91072 101.106 -4.81808
-0.931965 145.222 -1.33748
-17.902 115.591 4.73527
-1.20276 104.681 7.90516
-11.8131 98.1113 9.68762
15.2035 94.3555 6.39431
-9.73948 142.458 3.37503
11.798 145.006 -2.26481
-19.4021 106.25 -6.88486
-17.3522 131.795 -3.61375
-24.2218 127.945 6.86568
-18.899 104.332 2.68408
19.5941 129.074 10.5746
-25.3521 121.121 4.20629
-10.8712 131.323 6.67409
-21.127 112.037 -0.969566
-16.2423 93.0417 3.23773
16.0868 123.86 -1.50193
3.34124 101.457 3.30167
10.863 123.682 11.5231
-10.548 139.258 4.52414
-20.0789 121.095 -4.25064
3.94434 102.999 2.79096
-17.0753 141.468 7.51637
10.2771 102.554 -1.12045
-17.0313 93.0407 -8.75207
-10.7186 122.931 -5.25918
11.1459 137.925 -4.95018
-1.43054 87.2748 -2.14642
-15.8971 134.28 -2.23757
-10.584 112.518 -7.74661
0.725819 131.655 6.37073
13.436 129.185 -0.977818
0.209493 135.691 4.56309
-20.2769 125.315 -1.40113
-12.0286 98.663 -9.97317
15.9256 119.39 6.29552
16.7814 99.5871 5.33199
1.46209 132.308 -0.465444
6.32487 129.396 3.51068
-20.9946 108.944 -5.31794
-0.0366786 107.844 -5.9163
-20.3746 128.981 -4.63997
-10.9252 95.6047 8.87323
-1.06294 91.3832 5.08078
-3.50363 110.13 -5.4141
18.4951 137.595 9.75729
13.3685 115.945 12.6353
6.06003 119.959 1.89997
13.4975 142.707 7.56044
18.5931 132.864 4.79238
2.91774 93.2573 7.88424
19.5304 142.357 6.83169
16.1291 122.564 6.48284
-21.269 134.374 -2.51239
7.44869 145.803 -3.715
-13.8482 84.3874 -7.95207
-14.0399 124.96 -7.27218
-6.1671 141.887 -4.78162
-2.53463 131.55 5.23034
-19.7534 117.363 2.66778
-8.55402 85.3256 -3.63423
13.8346 136.828 -0.121453
-2.91632 110.637 -5.57539
-3.96418 124.301 8.8511
14.6173 121.403 3.73687
1.36745 91.7561 6.43886
12.9304 130.853 2.84068
17.0875 122.641 1.49474
-14.7204 135.471 7.45564
0.777854 127.574 -1.86777
16.4434 122.709 4.82647
-18.4774 82.9739 -8.18384
3.35815 152.199 -2.59677
-22.2393 123.234 -0.0167908
-18.3974 116.253 -8.11865
-12.3562 79.1546 -5.64361
2.4346 92.2675 -3.72154
0.00954826 99.6767 6.29957
1.74884 94.5504 6.09049
-19.9459 137.675 7.38948
9.39204 136.196 8.00144
-4.40712 124.623 -2.2136
14.7253 93.8709 6.88887
-20.2727 138.23 7.13198
-8.14899 129.324 -5.20575
1.66548 93.1414 -3.61591
9.62259 137.12 7.69754
-3.2596 135.646 -1.58413
-9.66255 116.532 -6.83863
18.2072 142.462 8.03478
13.5202 131.911 -1.97083
14.4935 125.534 5.28445
13.9557 118.59 9.11147
19.8166 132.3 6.09174
-25.6538 125.382 -1.08559
1.18645 141.066 -1.25699
-9.23204 133.567 4.2457
-5.06138 95.8227 10.6029
-15.7011 134.874 -2.28248
-13.2813 101.234 9.53677
20.7686 125.325 9.33325
-12.0935 84.7533 -6.33741
-16.6716 138.36 7.85609
7.4911 104.531 16.089
-1.58656 147.844 -1.33349
14.2325 121.871 -0.572646
-24.7609 120.287 5.68933
10.7223 123.107 -4.3736
-14.2302 142.724 -1.32882
-21.0181 81.8716 -4.25051
10.036 126.655 9.25
3.79386 95.7724 8.67859
12.1317 147.012 5.86261
-17.377 83.7477 -8.42446
-11.5148 88.0347 -9.02127
2.55082 88.6223 3.09737
16.8026 147.268 3.79742
-0.303936 147.84 -1.82425
1.31557 128.097 7.82439
13.0015 127.657 3.80988
-7.40033 123.184 -4.07841
19.5125 125.1 9.71854
-3.95245 150.068 -2.29848
0.33407 96.2637 -3.01857
1.91741 90.6178 3.40122
-17.8846 89.8345 -7.23664
-22.0233 126.693 7.25644
1.35948 116.305 8.81233
-1.54312 91.4163 -2.85182
-9.67417 115.528 -6.93057
2.83257 92.1685 2.43588
11.5741 105.82 15.9024
-5.09682 144.339 2.52279
-19.4839 124.968 -2.36472
-21.024 116.551 -0.175506
12.6524 110.261 14.7942
16.5174 97.7706 7.65156
14.7665 134.766 -1.40709
11.032 146.431 -3.4839
-9.95481 146.039 -4.6612
-19.4644 124.993 5.85617
-19.758 118.651 3.18
14.1233 121.719 2.73569
17.8514 122.415 3.53412
-11.2522 123.048 10.4108
-15.9245 127.514 6.56094
-13.6915 99.9726 8.86754
3.71019 98.5756 3.04654
-13.658 146.307 -0.0302343
-25.2882 121.946 4.89303
-1.76584 89.6026 -2.94779
-22.9339 130.873 4.9573
11.7148 125.728 5.40505
3.9922 102.437 12.3967
-13.8175 120.068 -7.75258
-19.1658 103.205 -7.19807
-16.1555 127.056 6.84057
-23.1077 136.296 2.5771
-15.574 104.87 -9.27744
-5.42226 96.9836 -6.1502
-19.2959 125.971 7.33963
-15.3799 103.363 7.57841
-0.783163 123.365 7.40376
-2.15171 124.006 7.45613
18.4541 124.845 9.01249
-6.5925 130.496 5.18019
5.80955 122.588 9.4286
-15.2071 91.9179 3.93742
20.1779 126.83 9.23063
4.446 107.393 -4.63617
13.2662 118.31 9.7264
3.2181 119.682 6.81835
-1.05433 90.611 5.11641
7.48023 110.29 6.96359
-21.5466 86.9586 -3.14664
-8.97459 132.419 4.73695
-22.509 120.121 2.57606
14.7996 144.618 2.76224
-17.589 108.076 -8.38152
16.3058 96.9703 7.23965
-11.1961 143.82 4.58523
-20.1748 115.165 -3.39107
-0.735227 120.034 -3.69698
-16.6255 78.1105 -6.85814
5.53864 115.317 9.18463
-7.39815 98.0797 -8.27545
8.15731 121.228 6.66327
-5.11322 125.19 -2.53962
9.01896 119.273 4.27563
19.6156 125.965 4.71257
4.82957 152.776 -2.51397
8.51305 129.123 1.48971
-16.6813 124.715 5.53533
-5.44171 139.473 -4.7704
0.961255 98.3033 7.50515
4.26365 101.717 -4.11344
1.85184 102.019 -4.32349
3.37458 131.882 6.46006
-0.146139 112.616 -5.23816
-6.36836 113.284 -4.91799
-9.4671 117.164 9.73203
6.70997 126.889 -2.30662
-8.71613 81.4388 -3.3405
-21.4074 112.668 -2.40193
-18.9844 143.206 4.6189
-12.8635 129.978 6.6137
-5.34191 94.665 -4.7121
15.693 120.995 8.78823
13.7059 134.687 -4.15791
-1.29069 134.64 -1.03656
14.9205 122.813 3.7896
-0.0644599 92.0537 -3.21536
13.6216 129.098 2.58943
-4.36368 122.485 9.46768
17.5702 125.339 0.764988
-6.34788 144.527 -4.72236
18.2463 130.723 10.0399
13.6286 133.324 0.582561
13.7851 112.805 -1.83108
3.84876 93.5839 3.79891
4.62643 112.428 12.3644
14.5007 136.249 0.0153161
5.8784 99.7079 3.40173
-0.325424 112.353 9.40867
13.9547 111.479 -1.54915
15.826 107.96 0.833734
-2.13683 100.93 -7.17632
13.4487 116.801 1.00049
-17.4153 117.065 -8.23906
-4.44384 96.8561 10.5598
-14.9618 134.842 -2.93905
-6.62916 133.228 -4.52426
-17.2794 130.112 7.30821
-19.1607 136.343 -1.58669
14.6099 135.302 -1.56635
2.08411 120.111 -2.6076
15.0084 117.401 5.80596
-8.02377 131.363 6.01724
14.8254 129.035 2.48804
5.02895 107.575 -3.4897
-12.2016 91.6907 -9.504
-14.03 144.617 0.766898
-20.0169 110.166 -6.90015
-18.1688 144.435 4.15807
-9.06243 130.766 6.05162
13.7728 138.538 -0.18457
2.0595 101.656 -4.04665
-13.6165 133.822 -3.57839
-22.768 120.635 2.24059
15.836 125.308 9.03533
6.69193 149.671 -3.16953
-18.8646 109.762 -7.97991
-10.0163 141.777 3.68046
-3.3588 95.5892 -3.35844
-10.6156 99.4382 11.0052
19.6253 125.372 8.57094
14.3453 115.131 -1.85601
-9.08563 117.378 -6.35157
-11.9723 113.98 -8.68908
8.18101 150.387 0.527225
18.1317 132.936 2.99488
1.09656 97.3173 4.28897
-8.81601 150.986 2.28448
14.9333 125.924 3.35498
5.40389 145.368 3.48315
5.23376 88.4455 -2.09602
-17.7697 112.432 2.63684
-1.67503 86.778 -1.25138
6.41814 128.371 8.81995
14.9387 113.728 10.1484
-2.04822 121.661 8.23447
-9.0993 119.418 -5.31006
6.54939 149.083 -3.13597
-10.162 104.036 10.9161
-16.651 112.056 4.58875
9.5272 136.077 8.13257
7.80991 125.287 7.29981
-11.4699 83.5564 -5.11879
6.31044 147.247 2.12969
-0.289624 97.1925 5.83796
-1.1413 103.646 7.78571
-24.4352 120.715 1.4515
-8.08879 138.053 2.49042
-14.6938 141.319 7.37346
3.31458 106.439 4.26731
9.59154 128.908 2.0617
-17.4682 79.8536 -7.90289
8.56603 116.667 14.3193
1.10944 107.773 8.1222
0.712562 126.747 7.84634
3.36596 110.373 -3.8197
-17.7061 116.793 5.28044
19.3798 138.435 7.86379
-12.9898 137.557 -4.6571
-16.6054 141.247 -0.274979
16.9524 146.976 5.31964
-6.57964 136.881 -5.60704
-1.30759 141.228 1.56608
-11.3268 83.9933 -5.64346
-0.437949 97.0414 5.93768
-19.0704 118.935 -3.76869
18.861 125.743 11.5839
9.6818 128.643 2.71122
-8.42191 123.684 9.99065
-3.12292 122.335 8.81597
10.6064 116.792 -3.12757
-15.7882 104.785 -9.25595
10.3822 137.533 2.40756
11.6834 88.8339 1.98851
-0.867927 96.7054 -3.14134
10.7202 90.7805 -0.263041
11.1768 99.8685 -2.09609
15.5118 95.7072 3.42855
-1.089 102.773 8.01679
10.4583 88.4966 0.562085
-18.1979 139.244 7.61106
1.26182 86.1423 1.04706
-12.184 136.096 -5.07015
7.43686 112.576 14.5072
7.91914 98.9305 -3.49819
-0.34066 141.456 1.57594
-13.8986 119.32 9.72221
-9.15203 138.879 -5.6162
-23.2375 127.927 -3.50816
-20.9251 121.125 4.02087
-17.5685 103.392 5.01173
-20.6425 123.117 4.76677
-19.9121 120.875 2.25439
13.7924 121.863 9.79448
14.2929 117.99 3.98625
16.0649 96.0779 7.95413
13.0125 143.212 2.13145
7.27283 101.479 4.50965
8.55634 94.0765 -1.28381
8.88683 89.5108 -1.21981
-0.804349 126.584 7.07444
-19.2475 122.234 6.63607
-21.8808 84.1318 -5.12478
-15.4762 94.4131 4.56969
2.2015 141.651 2.76849
13.9658 137.434 -0.115973
2.79829 104.756 6.12256
-20.3015 103.118 -1.04415
-4.5864 134.781 3.11232
-3.31304 123.749 8.57867
10.0317 122.759 11.9363
-24.0875 121.796 4.21487
4.86997 112.484 10.9337
-19.9077 92.3434 -0.203753
-11.6584 107.83 -9.17207
-15.6093 102.426 7.38412
3.31372 97.0481 5.98128
7.60828 106.679 -1.2992
-18.6111 138.261 -0.510477
-14.8946 88.8935 -8.08285
11.6109 151.632 1.47434
18.0948 128.912 3.9805
-7.14749 110.014 -6.33684
-13.1542 119.835 -7.80495
16.5469 99.7925 10.56
16.8219 100.058 7.35174
2.92961 128.767 7.27734
5.47134 130.514 -2.23022
8.43407 151.715 -2.94982
16.7759 133.766 -0.479607
-13.2431 134.694 -3.84258
-5.72674 94.0208 -5.10075
-13.9546 89.2379 -8.75973
7.07281 130.306 1.79687
13.7601 132.758 -2.53773
6.46678 136.368 4.09
-3.59933 127.439 6.43428
3.92076 154.127 -1.85199
17.7275 125.129 10.5104
6.48777 133.888 -4.10216
5.45784 119.964 10.3807
-8.98287 89.0674 -5.82652
9.13363 137.508 0.951083
-25.0924 130.881 5.48916
6.29167 129.131 3.36225
13.2963 118.289 1.251
-10.4665 126.991 -6.49522
-21.2253 124.217 6.67755
-18.7356 107.356 1.04417
20.491 139.889 7.03872
16.6579 112.133 7.05142
8.10553 131.951 -3.56691
8.71911 136.574 7.4045
-8.25482 101.985 -8.61179
-17.0203 87.0455 0.968676
6.61353 103.031 6.6551
6.6028 138.915 2.3631
-10.8426 125.609 8.75029
-11.0128 117.926 -7.39552
-21.2509 102.844 -4.46143
-7.62634 91.538 -6.40256
-18.0883 119.882 -7.4464
-12.7781 83.0587 -5.88538
13.0984 133.8 0.256511
14.9436 113.675 10.3131
12.4491 134.33 0.1975
20.3804 126.418 6.02833
14.4202 127.869 -1.54384
-12.2731 117.234 -7.93938
-19.654 123.762 6.53744
4.77047 87.0392 0.100923
-8.02917 127.244 7.71793
-19.4656 103.17 1.17828
6.22265 109.394 -1.36279
15.8322 126.674 10.7923
-5.26381 87.3975 -1.39791
2.84573 127.363 7.39394
3.42963 102.934 -4.26967
-1.34293 146.257 -1.28342
16.8469 100.296 8.31214
-4.52849 148.984 -2.9223
2.31744 128.014 -1.41202
12.8486 126.351 -1.27845
-19.8247 135.246 6.79049
-19.3802 89.2677 -1.28926
-23.3405 131.935 0.825946
19.7766 143.323 5.95369
-9.38944 119.714 -5.2889
5.63966 132.746 5.15617
4.36858 87.5826 -1.29048
14.8754 114.436 1.42743
-4.285 122.294 -2.21069
16.7217 98.5356 8.13967
12.8515 129.711 -4.06419
-19.9556 125.524 -1.86483
-8.11975 143.209 -4.8986
-13.5783 124.45 6.83051
6.99303 125.057 -1.49094
18.3107 122.805 1.89672
1.25465 120.41 -3.21401
-19.6897 81.408 -5.97646
-20.9564 96.0869 -7.31737
5.76048 110.611 14.7058
4.92497 85.99 0.932947
-15.2153 97.029 6.16053
4.96602 94.8877 8.8126
-16.7847 136.637 7.96904
-11.3706 92.4994 6.76057
14.1988 124.743 10.214
-0.479298 91.0206 4.51936
-13.2608 111.846 10.2361
-15.119 125.718 -6.43905
9.38585 126.706 2.15894
17.7822 122.823 7.72271
14.6307 95.5738 2.45424
-18.3869 105.075 -7.84755
-17.9053 128.171 -1.48523
-7.36307 111.51 -5.8191
9.33107 102.002 -1.83943
-4.61051 142.022 -4.4257
-7.13016 107.209 -7.03771
10.9913 88.6478 1.03088
-8.99125 118.899 9.57124
-11.8111 94.8257 7.33353
-16.8836 124.084 -5.14287
0.68276 138.021 -0.755181
-16.3859 126.514 6.82593
-20.6665 129.426 5.61076
-20.3628 127.817 6.47808
-13.6414 83.652 -6.48459
1.4637 147.043 -2.48466
-5.5512 105.459 -7.25316
8.98771 91.0974 -1.04845
19.2796 143.229 6.43067
13.8698 101.807 -0.656777
-19.2736 123.747 0.260567
13.7121 142.98 2.19905
9.78257 117.431 -3.06487
-1.58112 112.536 9.56107
-17.4808 77.203 -6.43272
10.5411 136.31 8.03012
