ply
format ascii 1.0
comment Created by Open3D
element vertex 1938
property double x
property double y
property double z
end_header
4.40657 114.514 -5.79747
12.7254 125.753 5.79318
10.6951 132.443 8.56976
2.26895 115.035 14.6034
11.819 140.57 7.69394
-17.0202 135.309 6.43277
-23.8853 124.667 0.423005
17.6959 143.014 5.65851
-6.41987 101.026 14.6724
2.30706 132.463 -4.39451
20.7838 122.139 -1.1258
11.1938 148.889 -0.272276
-13.7754 151.384 3.04419
-17.1449 102.797 18.4339
-19.9762 134.923 -1.23328
22.2583 125.289 3.33064
-0.419332 107.555 15.4027
8.29996 106.543 6.43945
7.60457 95.4932 11.0827
-23.2598 131.875 -3.2846
-30.6791 128.942 2.66823
17.2837 120.132 5.39967
9.85589 120.881 5.30872
-28.0551 126.361 2.86509
9.6757 118.142 8.04978
-6.04705 123.426 -3.91488
-6.34859 138.777 5.66041
8.53734 123.023 2.70922
8.47243 105.644 9.09663
0.575342 141.843 -2.06558
7.77243 103.686 14.4352
8.92178 107.428 13.1304
-28.966 124.601 3.08862
6.78097 149.273 -3.34033
-12.7027 124.358 -3.4199
-19.5662 129.625 10.3509
11.4902 120.655 6.42875
13.2962 144.618 1.93894
9.04035 106.665 0.362622
2.29447 120.053 7.74426
-10.0742 136.622 6.19934
-32.694 133.706 2.48996
7.87017 115.017 2.8625
6.68212 138.798 3.37024
9.4583 136.508 -6.63052
-2.06179 136.454 8.66831
-16.0125 135.27 5.99626
7.39448 112.286 -4.3542
11.1664 123.928 1.49783
2.95645 96.1489 -4.11608
-0.338995 131.342 9.11488
-33.2143 127.066 3.43928
12.6685 128.918 -3.03551
1.20081 144.889 3.46719
7.11489 119.53 -5.94068
-2.7062 125.999 10.6195
-0.652062 107.507 16.909
-32.4493 133.034 6.77323
8.48046 129.957 -0.796821
-30.9666 123.001 -0.199664
2.05171 114.785 11.6506
-18.8165 141.676 6.54016
-7.66244 108.534 9.95941
-5.74904 114.844 9.735
6.81409 130.495 10.7601
8.13852 113.378 -3.6793
0.817027 135.528 6.88253
17.8081 141.575 6.47104
7.02478 94.1016 14.5417
7.23985 99.9503 1.70388
-10.2623 106.565 -7.80034
-12.3669 140.164 4.47666
10.3233 129.551 -4.8144
7.00803 91.7416 10.6106
10.9941 147.905 3.77978
12.1178 133.148 -1.47341
13.0364 139.975 0.22726
8.40576 105.864 2.6595
-2.96558 98.444 -8.14704
-27.4152 115.848 4.06
-20.9493 142.146 -0.575109
-4.82839 139.644 5.63177
-9.84665 97.0161 13.0396
4.81594 122.924 14.3666
10.4485 145.773 4.61938
-23.3956 126.439 -1.94754
9.17451 117.727 -0.463762
9.12863 108.409 0.561113
-27.8439 112.774 2.13651
-16.7192 150.762 1.87875
-5.5792 145.552 -3.72565
0.897026 132.006 -3.76532
-24.6326 139 5.20655
9.4047 119.566 9.08377
15.0707 139.786 -0.231703
-25.1041 124.189 -0.555719
14.8378 141.677 0.383684
-22.4342 123.101 13.171
-11.795 129.094 -3.47816
6.3055 102.949 17.1487
12.3079 130.706 7.87583
-15.4308 143.289 -2.76772
-20.9324 124.647 -4.98215
2.55995 144.258 -2.78647
5.33861 127.02 8.0328
0.879828 123.302 6.21875
19.7553 126.568 4.91071
6.80544 135.345 8.91944
-19.8135 129.315 10.2509
7.35828 119.588 -6.08365
12.948 147.71 4.79974
-25.261 107.61 15.2801
-5.74975 101.286 17.4664
12.4971 140.055 7.81893
-11.4406 98.0618 10.7921
-24.4163 124.49 -1.59955
8.08939 123.711 2.07784
-10.2628 120.066 14.936
-19.5095 114.713 15.3175
-10.7016 114.466 -4.09516
-4.29549 125.141 12.1119
-4.36221 120.707 11.5999
-26.1911 128.578 4.23414
15.4239 145.81 5.27805
-22.8287 128.136 -1.73451
-27.1399 125.798 2.56447
-12.8705 103.657 14.8769
-27.0632 105.63 13.3258
9.40474 121.636 0.268115
-7.11905 138.213 5.54822
-6.73024 140.512 -3.56751
11.7846 139.829 -4.08165
-9.7412 138.873 4.10533
3.61523 93.4037 -2.10524
-25.8131 122.584 6.45598
13.1431 136.845 7.77365
4.61777 91.056 18.1688
-4.47215 117.304 8.76064
-4.9542 102.875 15.2653
11.8542 139.215 -3.5111
-5.55451 110.861 -7.87561
-23.7455 124.579 -0.923006
5.10451 124.336 13.9673
4.88182 89.8256 17.8799
-10.1894 130.592 -3.06389
5.4147 145.077 3.24818
-2.49742 104.723 14.4966
14.2607 132.185 8.0055
8.90713 151.242 1.74446
12.3454 122.852 7.23476
16.0449 138.312 -0.570507
-16.1391 135.501 6.00453
-16.3307 118.784 14.4612
-18.5215 106.834 -5.4656
-6.64704 104.745 10.2571
9.95179 116.954 -2.41515
5.18596 133.876 -5.90118
-22.6468 126.454 -1.52015
-5.83569 127.83 -2.24567
-12.5258 98.1116 10.7887
-12.2467 140.41 -5.26888
-25.1371 104.283 15.615
0.681101 126.945 6.00764
6.70959 140.737 3.63394
-22.8462 123.666 -2.14182
2.69059 119.472 13.5955
-23.6389 124.29 0.0658397
2.45493 121.154 7.49099
-5.71538 137.795 6.68509
-24.1138 125.047 -0.0369426
-27.5309 126.406 3.80245
0.616434 99.3443 -7.98621
-7.38676 141.842 -4.67578
-34.9933 131.451 2.78086
-25.5361 115.256 6.8441
10.1575 138.563 -5.85527
-28.4075 141.29 3.68235
-16.4684 97.2561 15.1171
18.9348 123.974 -0.528065
1.88878 126.764 -4.17923
12.1943 150.648 2.51203
-8.64735 103.79 10.9897
-19.4143 143.437 -0.285845
-28.6684 109.32 -0.248385
7.25359 140.599 3.39772
-35.5073 130.327 3.65042
-24.8303 129.488 6.19563
9.64277 132.976 -6.35122
-27.9029 121.048 3.28433
0.149943 114.212 9.04057
7.33198 148.766 2.16651
9.26668 124.571 -2.16258
-27.719 126.432 -1.736
-12.4398 96.7837 14.5937
-18.1483 119.369 14.6648
9.92675 125.426 -0.791548
15.045 135.642 7.47765
12.1035 140.779 7.68678
-27.7931 138.257 1.41967
-24.9639 124.591 1.3212
-4.71372 142.209 3.65172
-21.5467 128.94 -0.609796
8.11622 119.688 13.8905
-10.4411 106.934 -7.77381
-13.6107 139.161 4.70856
8.96684 153.311 1.33902
8.27069 103.556 7.10491
8.89938 118.705 -1.71515
-21.0418 128.222 10.3065
-6.64425 116.151 -6.93788
-9.26708 106.305 12.473
-15.9543 151.179 2.49396
-26.8406 143.474 4.42219
-28.0576 110.867 2.2828
-11.6586 103.788 13.4236
3.11559 93.9928 -2.99136
-2.67697 127.726 -4.70825
-17.3977 131.845 -4.11844
6.80671 135.577 6.56526
-19.019 100.766 18.7249
8.75939 105.725 11.4607
-1.35711 132.908 9.08961
9.60816 120.036 1.3174
-6.00228 134.946 8.62947
-18.1803 105.933 -5.47145
9.438 118.655 1.40118
-8.4701 103.962 -8.07843
21.6329 132.214 4.59003
13.9509 128.836 8.46621
-32.354 135.129 3.23815
-26.3598 125.613 1.79294
12.9244 117.808 2.81957
-2.00509 105.501 -8.81826
1.75684 96.4378 -5.67002
-17.5891 149.625 2.45851
4.26589 136.513 4.00591
1.75091 120.851 -4.70702
12.8263 126.664 7.01424
3.70267 138.942 4.42834
-6.94469 129.041 11.3775
-9.64504 108.748 -7.42434
1.93433 95.2307 -4.8077
14.0868 140.096 0.53723
1.31102 133.363 7.36194
-22.4753 130.165 6.18813
4.8244 101.232 -3.97594
-27.3583 121.869 4.60589
-10.8965 96.9565 15.2959
-25.0257 109.399 15.3003
-13.0643 109.643 15.7646
-20.6268 145.844 0.442651
-13.4299 101.783 13.0453
-34.2094 133.159 6.06866
2.48925 127.948 -4.71358
-15.1302 124.377 13.4185
-11.3851 143.813 -4.03193
-12.041 118.965 15.0027
-2.82677 145.942 -2.0499
7.85645 97.6046 6.77425
-12.315 133.269 -5.92448
5.68523 112.919 16.0868
-7.45561 141.485 3.91185
-7.44431 148.386 -4.71055
0.612643 98.4808 19.6654
-9.84122 151.913 -0.665256
16.1892 143.658 1.97794
-1.42093 115.884 -7.0495
8.5738 139.011 4.72568
5.84903 99.794 17.7733
-16.8722 146.86 0.78128
1.60774 129.062 5.72739
7.79454 112.588 14.8137
-11.9342 100.749 10.7077
17.6114 134.062 -0.609872
-34.6557 132.968 5.26906
18.5377 124.719 6.86671
-26.4734 113.806 9.04753
-16.2526 134.15 6.12783
-10.8508 125.619 12.1569
11.7759 122.52 8.54262
8.86851 104.985 11.5365
-15.1307 142.935 -2.95442
-9.26216 146.283 -5.29177
-19.177 135.211 6.75982
-10.48 101.852 -7.09068
8.61997 112.713 14.2874
-11.7978 130.53 10.7313
4.05474 96.7957 -2.54956
-21.6337 129.872 -0.497374
-2.7617 99.0276 -8.07325
-4.83722 134.288 9.70924
10.1513 132.129 8.60717
-27.2648 133.069 -2.03523
7.84266 97.9 8.59871
-28.1188 113.872 -2.39394
-26.0763 134.997 -1.32687
10.5558 119.87 4.89396
-19.3741 127.153 12.3238
-25.3562 125.626 -2.13857
11.9308 118.202 4.00957
-23.2874 122.53 -3.42733
10.1246 121.174 -3.88197
-30.8356 135.043 2.107
-5.27662 117.405 11.5637
-23.1862 129.397 7.49303
9.08315 113.223 7.80222
0.76618 108.065 17.3837
-31.3081 131.291 -0.917434
-1.18354 131.552 -3.63003
9.44268 110.098 1.16553
-35.037 131.387 2.82822
2.96721 121.249 -5.02671
9.72202 125.555 -1.29098
-0.381644 107.257 -7.8259
-22.9364 123.484 -3.92409
2.03928 105.598 19.4601
5.45244 135.917 3.8077
-5.86791 153.956 -1.18959
-13.9815 101.95 14.6972
7.98666 133.649 8.94715
10.1463 111.601 2.53435
7.11154 102.643 16.29
19.222 140.025 2.10528
1.61134 102.631 -7.67036
7.41584 126.367 2.688
9.29247 131.675 8.66825
12.5139 121.174 6.96872
-16.646 99.6223 18.1243
3.90786 135.23 5.03886
0.76137 114.81 -7.13461
3.51637 97.9268 20.0088
-14.7446 136.236 4.88752
-28.1225 136.105 0.285819
-18.7062 145.766 6.75506
0.95329 110.669 16.6913
8.65582 126.845 4.91087
-26.3173 109.612 13.7838
9.23361 128.567 9.74793
-0.97264 98.4799 19.2443
4.22314 154.33 -1.27265
-12.9632 130.667 -4.95614
-24.2243 118.917 11.8107
-31.0185 124.03 -0.511042
-25.673 109.942 -3.56641
-9.00864 120.156 14.7616
18.6725 122.941 6.24033
7.03373 94.8456 4.49428
-0.643831 103.086 -8.63937
-27.5363 103.518 12.5115
-8.67772 111.401 -7.0962
10.9297 149.271 2.69928
12.9232 133.949 -1.01443
-28.6146 134.204 5.50838
-6.78924 117.765 13.6012
-31.8992 124.31 0.781515
-8.34858 147.893 -4.84846
18.99 135.673 6.94781
9.06389 128.381 3.31194
5.90281 131.479 10.024
-25.7389 137.123 5.08748
16.7517 144.7 5.48193
11.9453 122.171 -4.21754
6.76814 97.1885 16.2987
6.03877 104.212 17.1436
-18.4841 110.301 15.6401
0.744967 127.107 6.03598
13.6217 145.35 6.2534
-6.01644 108.131 8.91915
-0.0240007 118.105 7.21512
2.38514 136.207 5.52753
-8.81594 152.314 -2.71883
2.06065 135.709 5.85874
4.43747 116.989 -5.21122
-1.49047 122.929 6.93325
9.22619 108.877 -0.339592
0.84627 129.762 -3.73229
17.4079 134.179 -0.79945
-16.5887 117.776 -4.7542
9.97353 126.241 4.92923
8.26047 121.438 -2.0797
-14.4751 128.845 -5.28238
22.4684 126.413 2.47549
6.85808 92.7005 8.60944
-3.25111 121.834 10.2897
0.173552 111.647 -7.10255
-17.9093 132.104 8.05522
-11.6645 129.197 -3.4454
-22.8145 118.283 -5.61251
9.54228 137.613 7.88733
11.97 123.298 8.45906
-12.0092 139.878 4.7779
-18.9872 130.455 -4.32106
-23.0646 115.211 -5.64417
9.02839 113.387 8.49529
9.04324 107.632 7.72246
-21.0608 110.603 16.0687
13.1093 138.113 0.0592918
9.0771 142.79 3.9524
-26.6221 120.877 -0.272475
-3.23536 117.856 7.64579
-24.2363 125.266 0.0584835
-10.2605 103.332 -7.3923
-22.7915 99.754 17.2351
-27.0663 126.111 2.76623
-12.8289 111.857 -4.4246
-11.7219 110.939 15.4264
-28.4431 139.236 4.65442
12.3771 122.605 -4.02863
-12.5118 132.941 8.48971
-27.7324 111.398 8.14065
-3.6503 93.6323 18.2589
2.91567 102.929 -5.84702
4.82587 126.532 12.934
11.8078 135.625 -0.630996
10.1035 121.889 -1.27029
3.20503 104.692 -5.33026
-14.3444 120.396 -3.48319
9.80764 115.978 8.61773
22.5751 122.588 3.46965
-13.1448 113.332 -4.21263
-22.8178 128.116 -1.69384
14.4941 146.856 1.71583
9.56099 126.107 -6.01752
-26.0542 125.359 1.64763
-29.4735 107.891 -0.594241
11.816 129.379 -3.26526
1.30539 145.033 -1.79776
-32.4052 132.761 6.88953
9.9618 121.556 -1.13897
-0.280826 114.056 -6.87832
17.2113 127.433 9.18029
-3.32584 124.637 11.1357
-10.9759 97.8936 10.7998
-8.36536 110.029 13.6949
-6.95445 98.5225 18.148
-31.1734 124.619 -0.612274
4.24354 115.612 16.863
3.2936 128.294 5.17231
7.29128 127.463 0.386691
12.4315 125.012 7.80299
-14.1856 125.241 13.109
-21.1688 129.257 7.62894
20.6141 134.582 6.23025
12.083 144.097 6.44006
-16.9835 106.147 -6.31225
-1.6289 120.697 -6.80196
-23.5235 125.225 -0.253739
-17.2373 128.681 11.5045
10.9136 124.323 0.845115
4.23377 125.144 -6.28724
13.7552 142.542 7.15595
-8.94145 97.1673 17.7216
7.07682 150.93 3.15839
-16.775 125.048 12.718
-26.8855 140.115 0.841226
-25.4453 127.408 6.45592
-20.902 135.509 -2.82919
-4.31739 117.99 8.94997
-4.21262 136.682 -1.09035
-16.6636 130.947 -6.01089
-12.6918 113.734 -4.00612
-18.165 133.283 6.11814
-4.86901 117.503 -7.29283
-12.8695 118.661 14.9444
-6.36784 139.621 -3.0018
10.0072 146.088 -4.27086
4.85386 128.658 10.045
1.51452 145.187 5.08046
-26.1302 120.095 5.97656
-26.2241 127.842 5.07452
-19.64 144.268 6.43998
9.80223 126.137 3.5537
-34.243 127.489 2.15114
-7.45659 109.432 -7.62723
0.529046 115.931 -7.39438
19.4981 131.888 6.40585
7.02913 93.2192 13.6778
-10.8881 106.043 15.0533
-5.45969 101.316 -7.29893
3.80954 93.8484 -2.02502
-22.86 131.48 5.30745
9.12082 122.085 10.9017
9.77471 147.944 2.36176
-14.1744 100.929 14.2128
19.5367 134.02 1.93072
9.83923 128.75 -2.47449
9.26046 120.086 0.249639
8.7038 106.166 14.3459
-16.3574 131.959 -4.84722
-22.4689 138.323 5.93737
6.55614 95.9472 1.40134
-19.4452 99.269 19.899
-21.3128 139.537 -1.76694
-27.6435 129.978 6.57123
-9.89375 146.376 -5.04293
-11.4152 101.338 10.67
-16.7698 112.294 15.3869
-19.1789 142.178 6.42751
-23.4441 121.885 -5.28053
-9.54668 105.524 10.6675
-23.9895 123.241 -1.13504
-1.70959 128.034 9.9915
10.3922 153.118 1.1875
15.5525 147.306 2.34475
3.06916 118.67 10.3876
10.6649 119.084 7.99298
-23.9264 141.024 6.24847
7.44693 99.2256 3.64634
-10.2646 140.87 5.14224
-20.7731 127.929 11.8541
-26.3403 107.419 -3.30198
-24.4687 103.667 15.9958
-2.75464 107.824 -8.71404
-18.5488 130.531 9.47474
-27.5759 140.885 5.33009
-16.6839 149.24 1.71098
-26.6865 110.089 11.4934
-17.2117 107.354 -5.75567
-12.8191 148.432 -2.64115
-18.0534 107.444 16.6476
-29.739 125.395 3.27366
-5.05076 139.452 -2.0047
-16.2609 142.17 -1.01269
10.4224 146.04 -3.35944
-20.8565 134.226 6.55827
-23.1614 125.523 -0.415118
11.8185 123.352 6.99462
-28.4733 131.697 6.65781
-13.3761 151.341 3.04791
-34.5383 127.917 5.44238
11.2805 122.704 9.11554
-32.2942 134.029 2.40434
-2.96101 104.744 15.8619
6.48425 101.108 16.73
4.53861 129.698 5.20475
-25.5878 141.522 6.01262
11.1841 125.567 5.2952
-9.85023 135.842 -5.17582
-26.9904 127.857 -1.53909
6.5338 129.979 -6.62286
-20.8387 128.387 9.80762
-1.4416 115.484 -6.98117
-24.4136 118.808 8.84449
-24.165 130.826 5.77111
-7.71231 122.525 13.8345
-19.5551 127.924 -4.13496
-24.8561 142.592 1.67292
-18.6312 116.477 -5.66654
-13.2916 120.71 14.6952
16.0179 131.405 -1.16467
7.76968 96.2465 9.79317
4.1799 143.838 -3.73019
2.94989 122.173 7.39232
-1.86575 122.097 -6.59887
-3.4383 122.53 10.7592
-15.5123 138.218 -3.75989
-28.6048 136.215 4.79186
9.16625 131.074 -1.44464
12.3935 140.241 7.78489
-23.0911 125.898 -0.294826
-12.9648 146.778 -2.13592
-3.81925 115.214 -7.75802
6.56939 96.1953 1.18526
-10.5725 96.7696 14.7096
-17.9294 150.169 2.77625
7.2049 96.0215 3.32129
-14.5419 100.565 15.577
-3.65098 103.392 13.7584
-26.2659 127.813 4.37399
-25.8213 105.889 14.8445
-16.7729 130.792 -5.71782
-15.3126 151.474 2.73196
15.716 147.224 3.52706
-1.06271 142.055 5.38272
-27.2628 126.292 4.35417
6.27805 94.3221 2.08574
-23.6772 121.743 10.3271
0.0185667 92.589 21.0018
19.8559 136.815 3.08016
20.9824 123.066 -0.840073
-15.5485 138.323 5.45175
4.60678 112.323 -6.35117
-2.23739 93.6512 19.525
11.3606 123.546 6.16789
6.53642 119.613 15.005
7.72703 99.0506 13.8834
18.1584 121.237 7.04079
2.53073 125.646 5.69768
-23.802 138.85 5.487
-14.1614 131.642 -6.59572
-22.2911 128.106 -0.720378
11.6628 120.534 6.16103
-12.6339 133.796 -6.39537
12.0358 127.912 -2.96347
-35.8621 128.811 5.2268
13.5527 139.354 7.83002
-6.56907 123.16 13.5312
-26.448 130.07 5.50451
-11.5578 117.1 15.2778
9.36833 109.366 -1.76413
17.8428 128.448 8.24243
-27.7412 124.489 -1.79773
8.00357 99.3071 12.7185
2.93964 120.178 12.0628
9.65547 128.9 3.54666
7.96474 135.37 -6.16868
3.3397 123.897 -5.55253
-15.7472 130.43 10.1142
-0.248148 107.636 15.1003
-1.05971 121.072 -6.57691
-2.31303 144.945 -1.65426
-26.1754 117.666 -4.11928
8.52659 121.979 11.4704
-34.4319 127.951 4.29843
9.34036 116.019 12.8167
-28.7566 106.094 6.28653
-22.8912 141.643 0.168941
-6.67096 112.282 11.2548
-32.3742 135.245 5.49329
3.07606 113.333 17.5938
-11.5662 130.7 -3.98283
10.0083 121.212 2.7402
17.5664 131.89 -0.216715
-26.7027 133.654 -1.76403
-16.1955 149.117 1.09981
-11.212 129.266 11.2334
3.35667 98.2642 20.0649
2.1208 144.339 -2.47158
-19.4076 140.542 6.58922
-25.1921 119.407 -4.74138
7.20393 140.845 -5.3852
-19.892 116.986 -5.59247
-21.772 133.111 -2.37772
-26.7931 138.915 5.32269
6.89477 93.1526 8.25929
18.6453 134.054 0.345014
6.40657 88.5494 12.4616
-12.7964 114.484 15.83
9.32453 120.781 10.3961
-14.3626 135.442 5.36764
11.8067 141.203 -1.39387
-18.832 102.259 18.4591
8.82744 121.262 -4.79472
-4.60836 102.641 12.4721
-21.7844 125.335 -3.28203
10.4769 133.698 -6.46142
0.102593 88.4862 21.354
-4.0088 93.9592 18.0705
-0.78667 142.895 -1.37293
10.2182 120.073 -0.0140762
-12.1919 142.371 -4.1186
-8.11762 134.007 -2.43902
-13.0223 129.924 11.2867
-26.5911 121.072 -0.523506
9.0097 118.97 -4.58649
-19.123 146.417 0.418287
-10.8128 126.218 -2.7285
-33.6175 128.569 1.63997
14.8068 122.459 -3.44079
2.87391 144.797 -2.90679
-34.9354 130.263 3.20578
3.33104 146.198 5.19967
16.154 130.62 -0.75614
-26.284 113.332 11.4797
-17.0896 143.581 -0.146957
-17.8775 96.7019 18.4686
5.36649 96.1799 18.3737
2.55389 140.456 5.71456
7.65806 102.263 -1.11536
-11.438 131.674 -4.38047
8.12867 150.396 -3.27058
-11.4611 105.637 15.1535
9.61321 125.609 9.28989
-32.165 127.547 -0.447295
-0.651007 143.812 4.44945
9.63244 127.551 -6.23993
-16.4845 107.944 -5.19524
-30.8142 129.269 -0.620904
-11.9404 131.684 8.97593
-27.245 123.386 5.77184
-29.5318 128.138 3.23738
17.4889 135.654 -0.368703
21.2924 124.025 5.05051
0.287313 136.782 -2.52859
-0.907986 97.8147 -8.43933
6.13389 116.583 15.2905
-20.4722 115.273 15.5654
-20.7666 117.596 14.6945
-9.56766 145.829 -5.13239
-27.8942 110.99 3.39838
-5.70351 130.918 -1.5728
-18.5865 98.3867 18.4967
14.6871 130.248 8.51856
-7.04871 111.038 12.0525
2.4332 130.725 -5.19675
-2.03903 90.3915 20.2903
-10.2371 152.123 3.57781
8.87976 113.696 14.1231
-24.5061 145.951 4.75438
-21.751 130.34 -1.87984
13.5818 123.603 7.97494
2.22301 90.6194 20.7524
-29.6125 124.744 1.93495
22.4319 127.01 2.1797
-31.1553 134.97 2.39325
-28.8004 113.52 1.37674
-22.5459 127.109 -0.980387
-4.87754 107.24 8.97673
7.42398 126.134 2.66543
-23.0662 124.387 -0.522374
-7.88801 136.266 -3.07079
20.7875 121.666 5.00279
1.6038 87.8162 20.5766
-9.0957 120.951 -2.62515
-23.4735 128.585 -1.01038
-15.0887 121.521 14.3401
-33.4533 127.281 2.01897
11.6471 131.973 -4.29626
-18.9349 138.297 6.9184
9.40982 128.693 3.47794
7.13103 104.421 -2.37985
-0.305364 101.476 -8.60799
-26.0721 121.982 6.25406
15.3172 139.645 -0.472886
13.8483 147.236 5.62467
1.01261 124.216 -4.37748
15.0686 135.22 7.51469
13.9414 138.005 -0.386191
-23.4199 127.778 9.53032
8.95757 114.418 9.68991
5.5038 127.086 9.06048
5.6295 137.321 3.55316
-25.8489 116.491 -4.41777
7.72703 100.914 7.37598
-2.3794 102.52 -8.39877
-11.2457 112.598 -4.47277
-22.8119 135.416 6.36584
-28.9324 108.127 1.13989
-29.0471 107.96 3.30494
-15.165 97.7588 12.321
-15.1316 137.48 5.011
-18.5205 144.566 -0.0718481
-5.89076 124.26 -3.79848
-17.7973 150.534 4.45784
-31.4108 136.962 2.63321
-25.9438 132.352 8.0207
7.27915 135.578 4.98488
5.22364 94.1294 0.229382
1.94243 137.821 6.71031
-10.2934 135.22 6.94313
11.5534 131.277 7.68562
-33.429 133.05 2.37911
8.21764 119.187 13.7662
-25.8467 112.545 12.5292
-19.4817 100.302 19.1107
9.81119 121.439 -1.11127
1.92962 145.147 5.27112
10.233 111.54 3.13864
0.921198 95.8623 20.5489
-7.75959 96.7027 17.669
5.851 102.967 17.7626
11.0074 147.801 -1.74496
-5.41829 136.896 -1.54135
-13.0164 103.658 16.0664
6.08427 131.379 6.23117
-25.6402 135.248 6.76445
-9.89695 100.794 10.3304
13.6478 122.937 7.76286
8.22806 121.668 -5.61203
-27.4741 132.758 6.99528
14.7184 131.237 -2.22865
-26.5098 110.716 10.7145
-1.37707 127.35 -4.90086
2.44199 121.402 -4.22499
-16.9477 115.542 -4.76684
-1.56242 106.27 17.3725
-21.4445 131.269 -0.255552
6.73175 140.754 -5.23285
-5.95246 110.094 8.8834
6.7837 92.1175 8.70036
-18.1912 126.465 12.1934
13.0142 146.262 1.47982
-26.9908 116.853 4.49798
2.00682 103.584 19.6792
-6.29996 137.606 -2.71539
13.8332 146.332 1.88494
-24.3458 130.82 -1.8529
-7.65767 140.249 3.84593
-10.1788 106.289 14.5082
-26.9267 122.697 1.42287
7.87846 103.933 5.71134
-10.475 130.69 -3.28975
-4.04331 103.465 12.3911
-25.0936 124.65 1.36347
10.2656 150.252 -0.0661933
-31.5324 137.217 4.65791
7.19595 135.668 4.34935
10.7456 119.655 4.50061
-1.88272 122.068 7.3007
-15.0065 141.104 -3.77927
9.91516 120.457 2.61593
5.64027 116.979 15.5264
-9.47985 149.023 -4.43803
-17.8181 116.713 14.7858
-6.48371 140.242 4.59282
3.5195 87.3296 19.0229
-13.3446 150.769 -0.73737
-8.01608 116.692 -5.75851
-5.60287 109.435 -7.9424
-11.024 121.238 -2.6158
-18.4863 144.761 -0.0503728
-8.94722 133.879 8.52392
7.64063 105.811 15.3345
20.561 120.904 3.88737
-5.80113 143.666 3.64799
10.3461 112.89 11.6025
8.94844 139.889 5.37259
-24.6696 102.421 15.8295
-4.98648 99.0435 -7.31759
-16.3278 151.218 2.99658
-26.8068 123.964 -1.39031
-4.48597 108.032 8.79011
-10.0203 102.357 -7.36616
9.83906 117.884 2.52494
8.23722 143.566 2.82586
-14.3622 101.995 16.8088
-24.1084 123.609 -2.13198
7.08339 124.622 12.3306
-33.5106 127.145 2.9371
9.45346 116.879 12.3292
4.73711 136.078 3.62978
-21.3451 110.554 16.1747
-25.6598 125.978 1.83308
11.7171 122.465 7.04497
9.15023 122.842 4.94375
2.89324 147.773 -2.11912
8.54793 105.008 1.54628
-0.424123 116.33 7.51088
17.5674 142.461 6.25705
-3.47466 96.4514 19.0891
4.91377 128.504 10.056
12.1408 137.335 -0.654385
19.4575 134.824 6.73527
0.845022 92.0641 21.3259
-3.36205 119.308 8.03194
8.00278 114.076 2.35849
0.913969 141.73 6.14159
0.0512788 136.446 -2.23708
-27.7711 135.016 5.20147
2.53643 111.374 -7.49727
18.2446 125.638 0.668506
-11.4179 146.246 3.55206
1.56939 137.728 7.29313
4.68597 94.8824 -1.12546
20.9207 132.735 3.73263
-20.7606 117.117 -5.61419
-26.6412 128.817 -1.83728
-23.2387 124.03 -0.870792
6.21965 101.784 17.6615
-28.4534 110.03 5.87158
-2.40668 123.413 9.61949
1.03204 135.893 -3.23658
-9.22641 134.921 -3.89104
9.38742 112.022 13.6483
11.7786 132.804 -5.02524
9.3622 113.613 -0.854184
-32.3376 136.661 3.78654
-14.3025 100.203 13.8025
-23.6552 119.025 14.0409
-16.0413 116.352 -4.45095
0.784202 110.39 13.2083
11.8995 137.13 -0.107205
2.77846 117.899 11.4136
-10.6238 149.977 4.66514
13.2595 122.269 7.49757
9.41614 142.648 5.94398
-20.5154 103.752 18.1774
5.82313 93.6669 1.76416
-9.2973 152.139 -0.822322
22.5889 127.876 3.69034
9.30124 126.222 -3.45496
-35.2409 128.069 4.94969
-26.9156 126.707 1.37124
4.39013 138.859 -5.46891
-26.7194 105.598 13.7629
9.78177 108.787 7.78945
-4.9118 135.947 8.17932
8.92548 132.216 -6.21459
-28.6658 138.432 1.93399
-8.80283 152.562 -0.605402
14.6684 122.464 -3.48468
-16.2397 138.021 -3.18033
8.86382 129.844 -1.67939
-25.6547 115.383 10.5842
7.5206 95.2385 10.8197
-22.1053 119.413 14.0354
4.03313 106.292 18.6397
-13.4934 113.841 15.9323
3.71357 93.6447 -2.08607
-7.76653 109.258 12.5466
-11.0071 119.595 -2.56033
6.4544 155.211 0.0222146
10.5347 120.223 1.64962
1.16134 132.102 -3.81354
-23.6836 118.337 -5.4172
-9.44101 125.431 11.9108
9.9257 112.385 10.5695
-15.6073 97.8797 14.6732
8.94826 140.667 5.03696
-15.6948 150.946 4.95034
11.8568 127.95 -3.05779
9.46195 127.528 1.1281
-1.09213 128.565 -4.54293
8.00974 104.959 5.48259
5.34698 145.282 3.25026
-3.88187 104.164 15.9267
-27.3332 126.398 3.5109
-21.1967 114.794 -5.91197
8.92678 151.767 -1.09589
-8.86365 122.024 13.9476
16.2792 146.187 4.5833
10.1733 126.008 -3.98549
22.1306 125.149 0.224181
10.2482 109.93 7.1291
-18.9012 147.489 6.70457
5.22118 129.843 -6.30999
10.4431 132.634 8.60289
7.77394 127.114 2.21631
-27.829 134.18 5.69356
-14.6689 124.332 -3.50473
-32.887 125.792 1.23439
15.9162 142.213 7.29531
-14.3171 138.641 -4.8802
-4.21172 144.936 -2.56157
-14.1944 115.994 -3.97159
16.0894 138.227 -0.554815
15.3378 130.907 -1.54395
-24.7214 137.452 5.50565
16.3597 133.111 8.0201
6.21914 112.881 15.6602
-10.2544 102.342 -7.2591
3.6621 123.02 11.4113
-3.1303 120.699 -6.94467
-20.1932 129.968 6.59506
-30.5888 138.271 2.81336
9.3007 130.516 -0.178613
-7.51051 123.968 13.232
-12.5789 100.972 11.3228
-9.7967 152.483 2.46216
-13.259 130.626 -5.25712
4.72648 130.447 -6.1225
-19.4307 128.833 -4.67328
10.6437 128.975 7.45743
10.7415 137.206 -4.87051
-30.015 128.966 5.60631
-18.3816 133.499 5.94098
10.3003 129.48 8.78361
-18.3028 117.364 -5.56012
8.2998 123.318 -3.45777
15.4224 142.005 0.531562
21.2916 125.843 4.17372
-12.338 141.098 3.87887
-6.36235 135.202 -1.52207
11.4241 149.445 3.02774
10.1203 111.633 2.46266
4.95025 106.296 -4.10428
-19.6178 142.258 -0.735841
14.3192 128.538 9.12559
12.9526 140.392 0.549909
-25.725 114.711 5.8599
-12.0687 130.86 10.5867
-17.8802 133.776 5.92566
-27.6582 114.754 3.46652
-8.59166 146.185 3.901
15.0992 125.055 9.11074
-31.5704 123.903 0.0657325
5.34159 148.468 4.16371
4.28276 132.411 -5.69289
1.55158 90.385 21.1316
7.72092 116.647 0.442871
-26.5597 107.554 -2.86224
2.49446 110.122 -7.10509
8.44599 106.765 5.71428
8.4593 113.553 1.15204
10.9814 127.451 8.59999
-4.45853 102.676 12.8516
-13.9126 142.885 -3.40386
12.9798 131.159 -2.6519
7.66132 126.758 -0.471433
-27.5578 121.933 4.26138
-4.13731 117.218 8.29579
-24.4856 110.953 15.5253
-23.4201 121.989 -2.91849
10.1692 123.275 4.8062
9.31506 108.879 -1.5141
-6.44224 107.103 -7.94328
6.45046 103.286 16.8564
-8.83399 112.008 14.5372
14.7875 120.306 -2.85863
-25.9341 113.716 12.4411
17.3523 135.052 -0.648238
6.83535 109.66 15.8603
-27.2833 125.124 1.09779
7.8255 99.3275 13.5947
-1.03677 137.14 -1.722
-3.01153 94.8226 19.112
-29.1263 126.397 3.49425
-21.534 100.733 18.8207
-16.5135 123.723 -4.1001
-27.26 123.589 3.09621
18.4023 142.541 5.02421
0.0043487 119.146 6.84601
-11.221 129.772 11.008
11.7448 123.262 8.72569
-26.5971 138.004 -0.0655314
9.24134 141.835 -5.44262
-16.5672 150.361 5.48323
2.38808 108.612 -7.12788
3.28356 100.751 19.1449
5.78926 149.893 -2.81006
8.35782 127.863 9.81255
1.1331 109.28 17.1104
-8.73294 101.491 10.2517
-4.57586 95.915 18.1701
18.2207 133.715 -0.0177729
9.95342 115.705 6.08751
11.5896 137.18 -3.48984
18.0748 121.193 -1.6187
-24.7945 110.241 15.4596
11.151 133.858 -1.37711
2.53821 102.174 19.7346
-25.0288 123.806 -1.70114
1.21177 87.438 20.6883
-1.91969 127.191 -5.1044
-3.75795 145.171 3.84896
-17.8991 126.214 -4.78237
1.09288 128.215 -3.873
-3.30408 103.895 13.4597
-2.16561 100.434 18.9806
-20.2203 113.399 -5.81199
-23.2269 142.719 6.62189
-14.3425 137.831 4.63692
11.1417 125.191 -2.94509
-14.6862 129.302 11.5575
7.53975 99.0313 6.14
-19.184 140.623 -1.38355
3.79352 108.888 18.1799
6.54392 96.7332 16.6387
-24.9894 142.607 1.70066
-0.11809 135.283 8.76996
5.94532 139.317 3.66728
-17.5051 117.992 -5.15943
-10.3872 129.658 -2.97281
-25.552 113.815 13.5178
-27.4306 102.814 12.1923
-2.83741 116.048 -7.22923
10.2833 117.56 0.931422
4.95319 111.482 16.8454
-27.8409 130.19 -1.80541
-5.46605 101.834 14.6101
-6.13525 100.88 13.4512
-15.1962 111.519 -5.3021
2.63524 136.77 -4.74717
5.48771 106.178 17.9725
6.10582 114.588 15.5284
12.4822 123.907 6.90103
-13.6924 96.5862 12.7602
-26.6376 107.59 -2.71027
-1.25655 138.065 7.12175
0.651878 126.138 5.54494
-26.8867 111.523 9.88583
10.0312 124.831 3.73127
19.2552 124.945 5.16029
9.79167 124.677 -2.63157
-28.0906 110.29 7.81255
15.2319 117.374 5.06434
-15.6686 146.155 0.530416
-5.8594 129.785 11.5389
9.38427 126.243 -2.12754
21.0517 135.087 5.49199
-3.67788 146.105 -2.46535
-21.7602 122.791 13.582
9.55051 126.028 -6.0956
-22.9228 117.533 -5.54703
14.3632 116.794 4.38955
-25.0279 116.583 10.7023
-1.86252 125.803 9.77425
-22.4867 131.945 6.55305
8.36461 113.553 1.55493
2.59768 96.8617 -4.92063
6.09808 103.409 -3.20351
-3.92898 106.88 -8.79417
0.739152 112.246 11.3404
9.96259 141.724 7.01603
-23.3901 111.379 -5.08237
-8.49738 144.313 -5.57984
-9.31597 100.208 10.4051
-6.35769 124.759 -3.36208
3.38688 122.29 13.3448
-30.0756 131.244 -1.5146
-5.39436 106.209 -8.55381
-32.6788 129.459 6.8304
5.80586 128.884 -6.51535
-23.7055 126.286 9.60065
4.58401 87.1578 18.3663
10.1424 140.963 -4.56892
-16.9642 130.871 8.74919
-0.799806 131.725 9.23086
-3.11068 102.73 18.3976
-12.3698 148.886 -2.91444
0.455743 103.886 -8.23378
-21.9725 133.138 -2.44508
8.17715 126.767 -1.78139
18.8309 124.453 6.41307
-1.58376 143.904 3.34726
-25.2256 142.562 1.7356
-0.903718 142.288 5.38378
16.1508 135.056 7.55747
-21.5657 119.785 13.8755
-23.0189 123.446 -3.7801
-18.8007 149.805 2.42418
4.12169 125.622 11.5488
-27.4009 115.577 -3.10971
-16.9687 104.277 18.0384
6.25851 143.448 -4.52162
6.1258 89.2203 14.9982
8.07748 122.799 12.9099
-13.1921 150.504 5.3716
-1.81683 114.804 7.6031
11.3446 116.595 0.0148192
-0.429589 102.341 -8.60882
-15.4676 131.904 -6.13645
7.39852 140.202 3.26868
10.6954 137.752 -4.66539
-25.2894 123.911 9.09085
-34.3441 131.66 6.75801
-17.5392 98.7217 16.5107
-10.3552 108.382 14.7351
-21.5912 137.56 -1.74194
1.03763 108.6 16.5718
12.8377 127.606 6.33897
5.19248 141.012 4.25222
8.17022 138.444 -6.12015
-18.3131 148.441 6.3468
9.99273 116.993 -0.16735
-9.50828 99.978 10.3905
20.0516 138.874 5.51192
-19.6164 112.24 15.7351
-7.3529 128.577 -1.53699
-1.71058 131.981 -3.07144
18.0456 126.807 7.12022
-4.73492 100.699 -7.24138
-2.14186 123.822 9.16928
-2.03 110.797 9.10899
-14.098 104.181 17.2877
11.753 130.577 -3.31532
10.8122 131.617 -4.91485
17.6804 142.105 6.33845
-5.21684 142.662 -2.86678
-6.17249 135.922 -1.63778
8.4442 102.376 11.4141
-26.5853 108.819 13.6185
-15.2241 110.192 -5.35855
18.5816 122.818 8.45227
12.8453 140.935 0.971227
8.80988 114.214 -1.64427
12.0688 141.64 -3.21832
9.90606 121.512 -0.794004
-4.65326 113.941 8.32151
-27.3371 122.623 -0.352209
1.04262 97.2573 -7.05301
-21.4058 140.068 6.8283
-5.00884 102.202 14.2626
-33.922 133.777 5.35247
-32.7957 125.819 1.67298
-13.8443 133.842 7.76228
12.7484 147.9 1.62735
16.4292 124.695 9.19004
-4.19054 93.1342 17.7982
10.9193 122.795 2.55136
-14.5244 134.61 -4.59748
10.634 125.842 5.09891
8.63728 102.787 10.9903
-18.4735 124.606 12.7321
10.3148 127.946 -3.2859
17.6873 144.345 4.96991
6.82661 133.26 6.86208
10.8184 131.864 -1.87789
-17.4938 145.876 0.195077
-22.2877 131.159 -0.11374
7.66944 101.877 13.6667
5.3256 155.278 -1.20268
9.78648 141.186 7.37297
-1.70911 128.688 -4.6071
-14.4315 109.31 -5.12254
12.5789 133.599 -2.08129
-1.49345 142.15 -1.3164
-5.04727 142.784 -2.72758
1.00604 108.107 18.6816
16.91 120.459 5.90902
-28.6489 130.359 5.85394
-25.6951 121.638 -0.0368715
-28.002 110.82 3.42039
-6.72448 142.335 -4.27485
16.8451 127.134 9.46075
-5.02179 102.748 17.4567
0.300837 143.431 5.15758
-28.7114 134.262 5.49273
6.28345 100.697 17.3781
19.0771 138.713 1.5842
-9.25496 127.53 -2.02899
-8.00226 143.416 -5.17981
-31.5079 137.571 3.06423
-10.1344 118.725 15.0752
-5.39696 148.327 -3.77776
-28.005 109.411 -2.10767
-9.03583 104.011 -8.0108
3.93362 112.544 17.6482
5.11814 93.3563 0.660942
-1.13661 123.725 6.80994
-19.4791 134.864 6.75257
13.4132 131.956 -2.33521
-26.2637 114.004 -4.30482
0.951738 101.24 20.0749
11.6882 147.298 4.75711
-10.6043 139.327 -5.32608
-2.26559 103.258 -8.61605
-1.65836 125.629 -5.42907
-17.1808 136.875 5.85729
-7.25814 129.509 10.9003
-23.8101 130.892 6.74944
2.5754 97.6222 -5.43179
0.839875 96.6625 20.142
10.2111 140.84 -4.54981
-22.1312 116.95 14.6345
12.1717 134.891 -0.264216
11.4607 127.34 1.15681
-21.2597 132.022 5.23195
-23.6238 143.08 0.808161
-7.03439 100.296 14.3225
-26.1978 125.986 -2.02894
-7.2738 138.433 5.30775
-3.92013 136.708 8.09816
14.5067 120.766 -3.04137
12.1434 137.98 -1.76373
-25.0696 126.15 6.69226
-23.7159 116.568 14.7244
-26.1125 112.88 11.8112
-27.644 123.152 1.6184
5.01345 129.378 9.67711
-33.5448 131.738 6.97773
8.78704 118.793 10.4113
-24.9407 126.357 -2.23783
-35.7062 128.358 5.38118
1.70457 139.083 7.5467
-7.43184 100.556 15.7026
7.01111 152.241 -2.0924
-31.1795 138.636 3.82553
-32.0105 124.491 0.995835
16.7077 118.291 4.46176
-7.41747 133.44 9.51219
-16.1513 149.148 5.49846
-10.5693 127.137 -2.56076
-8.67033 137.147 -4.08344
-9.94509 105.804 11.9566
-14.0789 138.652 4.6544
10.5482 144.992 -4.14366
-2.8351 128.7 10.6907
-32.9994 132.595 1.05146
-7.75047 127.933 11.3087
17.5194 134.923 -0.626911
-19.6062 119.994 14.0795
1.72154 113.237 14.9905
-21.773 140.743 -0.512439
9.17061 114.669 -4.08784
-13.5534 132.281 -6.65987
0.680977 113.055 -6.87287
0.788182 119.338 7.13672
-23.124 111.94 -5.10167
8.56285 102.219 9.91992
-20.3693 133.879 -0.735829
-26.782 136.962 -0.0135489
-19.394 130.562 6.67053
-22.0122 129.919 -0.35109
8.79989 106.25 -1.26482
12.152 138.123 -2.91349
-11.2938 107.47 -7.24445
1.77532 132.518 6.02238
-14.6461 142.111 4.76903
19.5059 142.015 4.49908
1.16862 102.206 19.8642
7.5994 101.356 -0.0998952
-20.0878 138.949 6.90017
9.43997 121.61 -3.61793
4.87495 88.6885 17.9083
-8.31567 107.708 -7.74576
13.0737 134.905 -2.50885
20.5048 131.356 5.63646
-27.6578 116.886 3.61552
11.8595 118.164 3.17998
-30.9207 129.263 5.4074
4.81661 125.415 8.05903
14.8506 126.344 9.28732
-10.5211 137.305 5.11953
-11.6164 100.632 10.6363
1.91695 113.825 -6.93333
-13.7396 142.881 -3.47095
10.8 118.961 4.26399
-1.96656 95.4668 20.125
21.4468 131.556 5.11789
-11.4734 106.197 16.1086
10.4499 116.836 6.69432
-4.78268 123.198 12.5201
-16.785 136.005 6.10372
-15.1197 114.461 -4.81273
-13.6169 133.573 8.2265
-25.8834 124.049 0.0349465
7.55442 125.068 0.478918
-21.8278 132.74 -2.64319
17.6253 142.14 6.3666
2.58376 99.1639 -5.77278
12.6905 133.674 7.75523
-9.66322 149.12 4.03568
-9.89296 135.431 -5.02828
10.306 127.455 -4.4213
-4.1097 133.17 10.2503
-28.7981 114.666 1.33526
11.6982 123.766 6.69505
14.5519 131.22 8.1185
-4.51375 154.477 -1.51777
7.23727 93.8464 13.3352
16.5486 127.785 -0.474591
5.04229 131.113 9.68737
2.79335 137.831 -4.65301
-4.62136 122.816 -5.45074
-3.44047 132.108 10.5404
-18.1186 146.035 6.1768
10.3722 109.866 4.14329
6.23369 105.946 16.7564
-26.935 125.896 0.377853
18.0982 131.347 0.3104
-23.5179 130.835 5.74897
10.2559 122.904 -2.06174
-12.7672 99.6039 10.9786
-28.3313 110.335 3.238
-32.9446 127.202 1.60826
9.21525 130.737 -6.41236
9.91272 138.806 7.99054
-6.43503 140.356 -3.27373
7.42305 99.4623 3.71002
9.89925 135.055 -6.50774
1.19384 110.224 -7.60685
-5.55149 121.461 -5.65705
-27.7138 106.638 12.4415
8.83971 128.272 4.84004
9.20703 112.663 1.65437
-22.5974 127.935 -0.841637
-22.1638 135.795 -2.90734
-27.9961 111.07 6.78595
6.05711 105.181 17.0782
-9.2458 130.174 -2.29889
0.83082 108.162 17.2449
-13.2625 115.151 15.5752
20.1714 137.343 4.58755
-9.66988 95.5583 17.1158
-7.50242 104.138 10.7044
-27.3277 125.315 1.93157
-17.0871 140.077 6.1306
-23.9847 131.406 -2.48736
13.3022 117.247 3.42338
-0.366313 132.004 -3.84767
10.3654 111.941 11.0219
14.3513 135.441 -1.84356
4.14077 109.118 18.024
3.74895 121.738 9.13098
9.49409 112.577 2.63736
3.91309 131.913 4.12518
18.8649 143.057 2.87394
2.94087 121.96 -4.91384
0.499585 124.187 6.05445
-13.0155 127.971 12.1452
2.06061 145.431 4.79699
-10.3173 134.135 -4.48968
-29.7409 129.102 5.29138
-15.5788 143.647 -1.74808
-35.1139 132.441 4.69107
-9.34987 107.789 14.381
-5.25857 134.176 9.66106
9.47344 149.275 2.04171
-24.1409 120.669 11.8564
3.91782 108.221 18.0457
-17.9211 112.487 -5.48376
-3.0404 104.319 13.0247
1.5175 115.408 9.94166
-24.4548 102.74 16.0131
7.79964 116.194 1.50101
-4.787 114.27 8.52745
5.64988 124.412 13.8348
17.6198 143.152 5.68125
-6.62121 139.085 5.28862
-17.5197 114.277 -5.04152
4.18355 123.531 10.4337
-5.92039 102.097 15.9771
-19.4135 126.016 12.4066
-3.68148 112.611 7.99841
-6.57681 101.358 15.6893
-29.5122 129.343 4.29138
3.17307 119.308 10.2882
2.14301 114.171 16.1333
-29.7917 126.954 -1.1234
4.39614 105.154 -4.47378
-22.2065 110.008 16.3886
0.785245 137.079 7.95384
13.618 149.282 3.82653
-7.18828 107.146 -7.75156
-6.85561 129.146 -1.58734
3.40383 121.988 7.86956
-18.6974 119.36 -5.27095
-11.5663 96.6632 14.0303
3.37429 140.207 -4.58483
-25.9539 104.371 14.7197
17.5479 141.049 1.11427
-12.0012 147.028 -3.22516
-5.767 127.606 11.9518
-21.7959 144.877 0.428972
9.02992 117.929 -2.11091
-4.19278 141.71 4.09131
-23.1737 126.112 -2.32052
-25.4357 107.873 15.0484
-20.8113 134.202 -1.97489
-5.05491 116.217 9.24095
-29.0922 107.651 1.56019
9.65775 120.896 2.13335
17.64 124.247 -0.0819527
-24.1773 125.231 -1.12028
-21.5968 126.427 -3.25986
9.08301 128.056 -2.34285
-2.27809 108.344 -8.46183
4.33756 92.6514 19.371
17.1086 123.941 -0.344497
3.24832 122.998 12.6552
11.5074 141.362 7.53757
8.14763 123.589 2.60804
5.77691 148.01 2.81958
12.7994 134.082 -0.850019
6.31508 132.203 5.74546
11.2325 123.414 2.35481
9.86583 151.128 2.23598
-3.28521 139.405 -1.13005
-27.0863 133.42 -1.7214
-22.1842 130.61 5.7072
-15.0566 151.616 3.04515
-0.574014 111.474 -7.08133
3.27499 121.331 13.7752
11.7739 137.261 -3.2742
7.51059 100.911 6.43376
-18.2967 147.718 6.70595
-24.9556 123.388 0.151473
-9.29819 97.4434 14.1989
6.54531 123.615 -6.75126
-5.88039 146.287 -4.03083
-21.6841 130.496 -2.17853
10.8559 147.03 -2.11153
-23.5078 131.841 6.86763
-8.11205 111.146 13.7094
-1.82203 90.8238 20.3745
-20.6613 132.857 5.47025
-25.6861 142.405 6.06913
10.4526 129.956 -3.30859
1.16513 113.778 -6.84293
10.4732 149.704 2.47008
10.6209 117.138 5.2829
10.2468 122.209 1.66318
7.11896 138.877 -5.93662
-23.7181 145.923 2.77539
-7.12618 121.498 -4.02078
2.46945 117.654 13.1197
-18.2229 127.682 -5.17264
2.50196 130.146 4.96603
-20.1772 132.877 5.36738
-16.2596 142.459 4.9973
-9.71154 138.613 -5.73233
8.7879 104.1 9.76882
-8.3118 145.16 -5.62566
-5.53872 113.829 -7.83205
10.1478 121.518 2.59955
-10.5692 151.529 -1.88019
-25.1858 120.659 7.54813
-24.3135 114.189 14.7391
6.40978 105.088 -3.05805
-13.9115 121.394 -3.21912
5.8935 118.871 -4.29238
-14.2305 139.308 4.47403
6.38989 119.035 15.1678
-11.1547 97.0539 16.5621
-27.4738 112.752 -3.25636
-26.6415 119.235 -3.40678
3.0197 129.6 -5.66289
3.13509 100.081 -5.49711
10.2575 133.996 -6.46288
-15.0886 146.406 4.68792
2.24005 95.584 -4.60546
-21.0549 133.389 -2.43236
8.76636 106.033 -1.12087
20.3307 138.64 4.58001
-20.8275 128.998 8.18019
17.2583 133.201 -0.843644
8.59729 104.254 8.6583
9.2662 119.766 -2.85629
-21.1739 127.774 11.823
8.2807 105.519 6.07107
-2.70282 122.498 9.43724
-27.8897 117.762 -2.19013
-16.2243 134.429 -3.42469
-2.27234 144.099 3.05202
-24.1714 143.121 6.3732
12.3726 134.237 7.75132
2.3132 116.265 14.8764
2.42895 123.673 -4.10271
-28.0994 135.267 5.10334
-6.83104 111.733 10.8194
-17.8268 114.19 14.9923
9.3519 142.421 5.90802
1.92358 113.495 13.533
-27.0286 125.466 2.33959
2.18163 142.42 6.41059
1.71169 118.57 7.96895
6.35299 131.601 6.89923
2.71545 97.0355 -4.88853
1.84064 145.343 5.14819
18.8314 124.256 6.69422
-14.8208 137.346 4.33046
9.27339 110.762 -1.98506
-17.0417 146.027 5.64513
-22.4271 113.667 15.6989
8.47257 113.252 14.3429
-19.2862 140.345 -1.35986
-15.7276 144.96 4.89137
-12.9312 125.103 13.1642
9.19901 114.982 9.05441
-8.62217 113.529 14.4254
-11.2731 134.778 6.64705
13.5207 131.75 -2.63344
6.3719 137.057 3.78932
3.8297 122.11 8.47046
-27.1745 123.839 3.50373
-0.262468 119.427 6.69855
11.4963 141.609 7.37803
-1.77299 98.471 19.2867
10.7806 119.271 4.03406
8.33783 104.064 -0.144474
-12.7579 130.901 -4.96305
-13.3426 132.976 9.02475
14.9814 126.124 -0.850312
4.73394 93.7013 18.9721
9.13459 124.387 -2.29448
14.6193 126.553 9.26082
-27.8871 106.578 12.1016
-26.7874 138.654 5.27808
-0.929141 143.343 -1.37068
-25.7466 115.431 12.448
-28.0255 110.93 2.12881
2.40786 109.263 -7.18086
1.43488 122.597 -4.81734
11.619 128.635 0.981907
-19.349 145.086 -0.0274253
10.2076 128.64 1.00913
-22.7391 125.955 -0.705097
-26.191 134.276 7.10903
9.17061 149.266 -3.09547
-12.7614 132.472 -5.93492
9.95207 112.427 9.31546
-26.6863 113.262 5.45572
-14.456 116.7 -3.84807
-23.4856 131.966 -3.58848
-10.3071 107.05 -7.7428
16.4252 144.727 2.06153
8.91224 126.583 -2.64956
0.333373 125.881 5.80246
10.7395 131.411 -2.23805
-15.9133 137.593 5.44636
21.501 129.258 4.3855
-5.04218 138.796 6.38192
-6.52824 99.7551 18.3275
6.44691 89.0468 12.5078
12.878 126.798 7.02319
8.06196 104.593 5.92879
-1.07413 131.45 -3.77243
8.21448 102.182 7.52616
2.80652 142.668 -3.40171
4.42941 114.853 16.9029
-33.2895 126.223 1.51808
6.97298 99.9997 -0.821297
-12.2036 115.523 -3.53076
-16.065 108.214 16.0629
5.10183 109.337 -5.40688
-6.59656 104.624 10.3235
0.684996 136.755 -2.99089
-8.83854 148.422 4.00566
-17.1955 141.625 -0.74014
-30.4182 129.251 5.71863
-23.7183 136.341 -2.43358
-4.43232 103.836 16.0673
-18.2612 138.645 6.59582
6.00437 92.5964 3.0779
-11.3949 115.141 -3.54843
2.43704 122.365 6.86373
-9.8883 123.405 12.9674
9.54721 124.902 5.64196
5.89646 125.146 12.7536
1.42035 117.325 -6.77904
4.43112 122.201 -6.24902
21.0203 134.514 4.87163
-23.5093 141.728 0.249487
-9.13113 115.969 14.9853
-7.02163 137.802 5.95412
-3.26095 101.686 18.7409
-0.476426 144.664 2.90248
-17.7494 132.684 -3.90663
-28.6002 131.911 6.58686
1.52738 135.345 -3.75636
22.4916 123.509 1.34023
11.0344 148.016 -1.65048
-26.9149 110.99 -3.07532
-8.0728 111.573 13.8491
-13.7726 150.595 -0.375126
-1.87024 103.283 18.3337
-1.25438 104.442 18.1042
9.84515 131.178 8.59199
11.9058 147.508 -1.14401
16.9724 120.717 6.02511
15.4577 146.772 1.75874
-15.0861 104.441 -5.98776
-20.8539 141.643 -0.776001
-26.909 113.178 8.18152
-20.8205 98.2628 18.8875
-12.0192 150.32 5.08335
-11.5966 101.453 10.7156
-26.8449 120.344 -0.412469
-15.3133 140.676 -3.96205
20.6324 123.227 -0.830538
4.7033 144.779 3.67912
-33.5375 127.252 2.33641
-3.78569 101.207 18.377
11.808 118.894 -3.64644
0.741139 94.6748 21.0896
-15.5175 135.872 -4.07648
-23.385 107.231 16.7087
-6.85082 102.536 10.2005
-24.6692 131.717 7.73345
19.5184 125.837 0.599621
22.5236 120.453 -0.125402
-26.5221 110.695 -3.10794
14.7051 148.013 1.59397
8.53028 143.665 2.80142
0.176591 132.039 8.70764
-10.8529 124.813 -2.9826
-23.8442 113.936 15.2172
-26.9473 111.15 -3.12901
11.3045 148.241 -1.36292
19.5895 139.93 5.39509
-20.3 128.442 10.9328
-24.8816 102.073 15.3115
-27.7288 106.139 8.50441
-5.31685 143.379 3.42481
-9.06459 131.927 -2.4802
-29.932 137.539 4.59003
-12.8741 108.5 16.1456
6.96472 129.709 10.9591
3.12143 119.917 10.8368
9.13271 126.084 4.526
6.48494 98.1975 0.129885
-1.23478 107.003 -8.36462
-6.90036 115.854 13.3831
-26.8306 125.22 1.59064
6.23145 125.072 12.4958
4.8735 103.513 -4.23636
8.06719 99.8378 10.1079
7.62444 97.8212 14.0209
19.4763 141.864 3.22526
-24.9781 122.807 0.144555
9.9158 150.408 -0.683684
-13.8062 109.9 -4.89009
4.88209 130.56 9.78182
-2.06783 140.346 5.67925
-3.6919 136.413 -1.13017
-25.1763 107.663 -4.1561
-24.1319 134.836 -2.26379
-3.88946 130.046 11.139
-24.9295 113.949 -5.09102
2.68742 99.9099 19.8458
17.8846 125.057 9.14321
-5.091 105.053 9.67469
18.0852 124.796 8.50468
2.6456 149.714 -1.64559
-9.32744 128.317 10.4949
-12.4133 104.371 14.8911
7.01874 104.629 -2.55871
19.8577 122.247 5.81836
-27.2592 121.65 1.48395
-24.947 118.217 6.28943
-23.2525 120.173 13.4156
-27.6723 123.784 -1.4942
17.5576 126.006 8.89985
-9.55319 124.114 -2.15213
-5.71112 123.145 13.0842
-20.0076 117.565 -5.39179
9.76742 117.277 10.2004
8.85068 107.33 12.4663
-3.26313 103.518 -8.26959
-8.55172 152.217 -2.96524
-24.8075 131.893 7.86238
-27.8159 137.032 0.684864
14.2364 145.068 6.31155
4.3996 136.957 3.81699
2.04679 87.6551 20.1584
-8.31742 136.816 -3.57649
-15.5483 144.272 -1.70818
-33.1942 126.357 0.38481
1.60061 112.765 12.9241
1.97956 96.9224 20.5183
-25.339 131.933 -3.34194
-18.6347 149.858 2.48596
-15.7152 134.663 5.86321
15.4975 133.625 -2.15887
-12.8027 122.299 14.1729
-3.62438 133.519 -1.39916
9.18654 127.779 0.951855
-13.707 116.055 -3.74557
5.78653 133.139 9.40433
6.61188 102.626 16.8951
17.6935 124.635 0.0892404
-15.1716 145.15 -1.45614
-26.3069 106.572 14.2255
-26.7924 124.593 1.2483
6.61884 134.012 7.19503
7.27638 95.2355 5.14664
9.95673 116.42 10.3686
2.30084 109.061 -7.30297
-6.87177 143.091 4.15481
-11.89 123.221 -3.21785
-3.3391 141.944 4.03728
12.0063 128.912 -1.5791
-1.53572 99.1537 18.9183
-3.89737 123.599 -5.77241
-34.6334 130.106 3.07129
4.8896 145.374 -3.57029
-24.4584 121.06 8.77946
-13.9633 135.847 4.69039
-23.935 142.334 6.66083
-15.2939 129.949 10.8494
-26.9618 138.744 0.719866
-10.4817 121.557 14.0563
2.5729 145.679 4.69658
7.2125 131.838 -6.09292
-8.51565 140.659 4.34141
-26.9488 122.461 0.33965
-29.5613 106.899 4.06799
-2.60643 138.204 6.92814
-19.1937 112.207 -5.67118
-10.4002 140.573 5.15031
-14.788 107.788 16.4004
17.2656 130.513 -0.139606
11.3066 138.692 7.88792
10.9818 124.428 1.02209
-28.5828 116.162 -0.883805
-26.4864 113.782 9.02624
-31.4811 137.269 4.59709
10.4624 135.084 8.00126
8.84828 107.095 1.16847
-35.4591 129.178 6.84743
-6.81676 145.497 -4.6188
5.78981 110.554 16.6355
8.13422 103.369 -0.217468
8.18342 120.656 11.4815
2.98039 120.672 8.11871
-28.8429 109 3.09
-1.71396 141.901 5.01087
-32.7734 135.279 3.57643
-34.5695 127.636 3.27476
3.76957 94.9247 19.591
-5.45787 129.684 11.4883
-21.5005 137.504 -1.72681
3.2323 136.289 5.12032
-16.9529 118.654 -5.02452
10.4795 134.875 8.11379
-30.3021 129.103 2.95129
11.5711 129.354 -2.18686
8.24122 104.008 -0.733233
7.39839 128.882 -6.76218
13.1397 139.979 0.279844
-1.11214 128.393 -4.61609
-8.03532 122.497 -2.66492
-19.6006 118.648 -5.12914
7.26855 96.1045 3.83379
-31.6825 134.077 6.5623
-29.5088 128.483 4.85035
-31.2786 131.654 -0.713118
9.53423 147.19 -4.27048
-9.08536 115 14.8733
6.80963 141.603 -5.11893
3.65687 122.208 10.5699
3.90942 105.942 -4.8555
-9.56834 97.5922 14.7317
6.95121 147.626 -3.75286
-12.8672 131.059 -5.15357
-22.7143 123.807 -1.98004
-0.589558 145.642 4.01093
2.28129 132.619 -4.29818
-6.6602 144.928 -4.45
8.71889 105.652 -0.363895
6.84752 109.955 15.9118
-25.633 127.76 -1.82621
7.78071 116.994 1.78449
11.9008 126.582 -2.33143
9.86397 108.87 6.40221
4.39785 107.191 -4.87482
5.64166 91.2104 3.63766
0.521233 145.306 -1.58254
1.08636 98.3572 19.9145
-0.200727 130.305 8.83952
-3.58751 125.39 -5.1521
-25.6239 121.195 7.35431
-25.0116 123.252 -1.46054
15.3897 125.041 9.19179
-35.2866 129.214 4.22371
13.4232 138.726 7.8274
-23.0854 108.406 -4.1639
-3.88321 103.892 -8.1043
-20.1257 104.765 17.9122
-26.5851 125.41 -1.98529
2.77123 95.8414 -4.15368
-16.4062 147.944 6.0746
-8.83262 148.409 -4.67426
-30.2833 125.239 1.00175
-15.9861 130.021 10.9337
6.06607 107.439 -3.58715
0.321315 115.746 -7.39414
-0.162779 118.249 7.13894
0.0454875 141.255 6.12633
10.6649 123.267 0.99289
7.56751 101.912 13.854
-11.2419 110.692 -5.32292
-22.2245 139.327 6.78618
-23.3765 126.551 -1.93096
-8.13428 107.509 11.9524
7.73861 100.418 13.6124
8.01859 103.115 1.99248
6.9231 117.552 -4.43189
-31.6926 129.212 4.07546
7.97035 104.387 4.74338
8.20664 141.575 -5.62279
-30.9771 130.581 -0.873404
0.721552 114.369 -7.00439
-5.44206 100.691 17.7995
-14.6883 150.081 -0.0107673
-23.9376 121.458 11.3842
-6.12198 109.916 -7.68028
9.28917 126.259 -1.43943
-12.1567 117.669 -3.02336
-19.0345 118.258 -5.26974
4.50354 154.674 -1.25766
9.79427 138.002 -6.29367
-7.91656 113.738 13.9824
-15.8826 139.395 -3.71871
-17.7081 131.791 8.40186
7.46438 120.332 14.4875
4.01772 120.923 14.9028
7.1155 146.192 -4.39387
17.5976 139.055 7.28199
-26.8873 127.532 5.44356
-1.92618 98.8517 -8.33533
12.673 148.785 4.00473
-6.82293 116.251 -6.83582
-23.4472 123.03 12.4242
8.41446 104.146 12.4342
-3.11709 109.416 -8.43568
10.483 111.014 7.61383
-0.333484 110.83 -7.16271
-16.0514 140.258 -3.94367
15.2115 121.417 7.07688
-6.44859 124.628 13.1151
-21.575 125.666 -3.54961
-27.6749 119.601 0.545537
-5.05643 139.484 -2.01809
-18.4526 116.019 14.9425
-28.0269 105.04 7.48002
22.1721 123.293 4.47448
-9.43705 120.562 -2.60962
7.55165 95.117 12.7966
-25.7004 127.998 6.16013
-24.3679 122.252 9.54451
9.67439 140.087 8.05428
9.38071 118.426 1.43329
0.47335 143.151 5.26842
8.55274 110.038 -2.98415
15.1419 117.571 5.12271
-7.88553 141.489 4.27674
-31.4415 129.309 5.52598
0.841379 117.358 7.76101
-33.0001 130.745 0.0308562
11.0213 126.482 -2.76602
3.54048 138.626 -5.0029
-25.7055 110.973 -3.47747
-13.6022 100.324 11.7643
-5.63086 151.035 -3.47305
17.6543 129.333 0.0155996
-10.1696 144.349 5.21767
-21.188 126.559 12.2586
-2.70654 112.64 7.90821
9.20634 119.376 -4.22537
-14.723 110.222 16.3017
4.3653 112.624 -6.55202
9.40498 115.843 12.7666
-27.2326 124.841 1.84709
1.02441 143.596 -1.91749
2.82865 116.203 16.1968
3.96329 122.879 8.52429
11.2492 133.285 8.38044
-30.3056 127.13 3.511
-7.04249 121.976 -3.83374
-17.3142 108.624 -5.12249
-32.8432 126.079 0.233531
-17.9578 142.858 6.85111
-9.42884 98.1187 14.9297
7.16726 92.9446 11.0677
19.7991 140.346 3.24913
-21.6337 113.64 -5.83392
-28.5791 108.618 1.14083
-5.2769 105.157 -8.41103
-22.1237 125.92 11.1893
-13.8602 136.116 4.76638
-13.5791 151.4 2.8407
0.257779 135.811 -2.39797
-21.895 118.041 14.0973
-3.53763 123.466 -6.034
15.1675 146.085 1.88886
-20.5715 143.854 6.19343
