ply
format ascii 1.0
comment Created by Open3D
element vertex 1907
property double x
property double y
property double z
end_header
-1.26723 108.046 -7.54326
6.7338 123.617 -8.71563
14.626 135.73 4.96859
-34.0398 140.282 3.84204
-15.4927 147.218 0.122149
15.9367 134.052 -2.82841
-37.9268 138.371 1.10244
12.1044 125.531 -5.35248
-26.4959 87.8035 0.701867
-17.2258 146.653 2.22626
7.33075 126.46 0.376884
-21.2412 95.4713 -0.457837
14.3491 142.472 5.48637
-30.4302 132.3 2.6582
-34.8927 104.691 -6.45015
8.63389 127.719 -2.4915
-33.643 121.359 1.10908
-7.55947 125.451 2.08101
-6.70819 132.391 -3.56759
-21.8297 143.24 5.10509
-26.1369 99.4403 -6.32718
2.51237 146.783 -2.91583
-38.9125 93.4521 -4.84951
-25.1605 114.182 -6.74993
-38.6866 137.42 1.88269
13.664 147.537 3.38983
8.26879 122.395 2.52204
5.4685 146.925 1.21498
-6.17001 143.642 1.82323
13.5089 135.17 -3.51408
-35.5264 93.9741 -4.78595
-19.6397 114.38 7.33885
-38.262 137.749 0.69314
-26.0912 102.92 10.56
-16.9579 112.161 6.17167
-26.1556 113.997 10.7849
-2.85598 113.454 -7.46008
-34.4132 98.1351 -5.0624
-11.6586 102.295 -8.78683
10.0821 125.362 3.91665
-31.8906 130.937 -0.751196
-3.578 145.475 2.02321
-11.5849 150.827 -5.05963
-39.8897 135.103 3.61573
-33.3891 116.095 -4.35053
-12.8373 115.233 4.68958
-1.6067 142.243 -2.22099
-30.6669 117.118 8.20819
-14.0607 128.991 8.73402
-17.8198 134.073 7.50375
0.512949 116.616 -7.7865
-24.8855 84.3367 -7.21582
-19.5362 135.2 -3.06749
5.59168 126.227 -1.53936
-31.5557 90.9272 7.57945
18.8706 135.052 0.116776
-6.23288 112.519 1.00115
-31.1766 90.7031 7.89264
-35.735 104.483 -6.37861
-0.815746 141.551 2.14136
-36.3387 111.326 1.8447
10.3235 128.717 -5.20406
-19.89 98.7913 0.996601
-38.1323 138.107 1.48248
-32.8204 123.048 -2.89931
-37.1905 105.11 -1.76798
-14.167 150.098 1.62578
-24.2312 128.491 -2.97643
-21.4386 100.059 -6.44058
-33.306 103.803 5.46956
10.311 138.978 -4.24584
-40.1282 134.338 4.04973
1.73175 126.74 7.90446
-1.91823 145.048 -2.37584
18.8952 136.479 1.33306
-6.11019 133.59 -3.67027
4.67048 130.894 -7.83064
-21.2836 117.63 8.69021
-30.8502 89.405 -4.38888
-2.78608 106.921 -8.81875
-24.3613 92.143 -6.06652
9.47251 126.866 -2.00584
-11.7258 121.521 6.44378
-16.906 136.482 -4.18917
8.6231 132.392 -7.74799
-3.56877 115.763 5.8496
-21.9936 91.8529 -1.16306
9.77344 145.534 -3.04461
-10.7748 118.179 2.48994
-32.6659 125.175 2.30846
-11.0667 143.599 -5.53328
5.9849 125.767 -0.798085
-14.3488 147.145 -1.1266
-29.5512 118.509 8.97547
15.7508 141.663 5.12899
6.42142 122.641 -7.21171
13.2473 145.828 4.95003
8.79466 151.831 -1.45908
12.3438 132.856 -3.38552
-17.497 105.121 2.1633
-2.21274 145.701 -2.53422
-31.8109 135.785 6.60712
-21.7449 130.564 -4.03632
-12.7837 110.923 0.938098
-39.7265 87.0921 2.90881
5.15227 147.507 -4.05073
-21.7493 149.297 4.4866
-19.4526 98.5631 -6.58324
-4.14184 151.975 -4.17475
-14.1452 102.026 0.9721
-33.5435 128.966 1.00741
2.75778 133.678 2.10992
2.72729 127.32 -8.38077
-1.93492 132 -4.58631
3.01227 142.937 0.45349
-21.8762 143.02 5.04183
-18.0272 119.804 -4.1391
-36.8571 108.117 -3.18324
-21.2929 93.8059 -6.16992
-8.61451 131.757 6.64482
-20.9775 108.668 -8.36931
-0.0353384 133.011 -5.39253
-12.1269 133.393 -1.42616
-23.4004 127.603 -3.24299
3.83248 120.158 7.71781
-12.5392 134.153 -1.74743
-38.5573 94.3537 1.75669
-9.48653 107.264 -10.3585
8.828 134.812 -7.54499
-38.0905 96.3927 -4.50089
16.9898 140.399 4.33085
8.85143 129.56 -4.62803
-0.5547 116.443 -6.69031
-13.24 116.668 -7.31036
-22.9036 106.587 9.41955
10.2549 134.554 -1.7374
4.59465 126.615 6.77165
-37.1717 138.633 1.84302
9.33178 136.279 -6.19124
-29.5764 133.29 -2.54405
-16.2335 131.862 9.35053
-33.9497 103.303 5.17558
-38.7553 94.6911 1.46254
-26.5547 100.851 9.26232
18.5296 136.13 0.0714164
-11.3227 105.012 5.97152
-6.25804 148.79 -5.38194
17.3698 130.201 -1.02113
-17.1321 100.142 -6.96457
-34.722 101.828 3.41787
-8.71019 107.102 1.49771
-11.7819 151.839 -4.47156
-16.7262 143.285 2.03863
9.17119 140.922 5.07451
-0.167117 138.168 -3.88551
-28.3019 128.72 -3.21196
5.75605 155.401 -0.775131
-19.4762 113.959 7.15238
-24.5427 88.2969 -0.915718
7.02583 149.927 1.88516
5.76058 114.507 -7.49715
-30.4764 107.657 -6.65688
-13.555 103.682 4.14556
-24.4613 94.3808 -6.46063
-28.3874 117.893 -6.87361
-20.2537 100.128 3.48756
13.9144 147.688 2.60093
-33.7599 139.922 4.04067
-12.159 131.596 -1.33749
-18.096 144.086 -2.98679
13.2205 133.977 4.95188
-33.6836 137.472 5.50471
5.74185 119.555 -4.31377
-0.965827 145.24 -2.32234
-21.158 128.91 10.055
15.4327 143.999 4.52468
3.48984 118.029 -8.22705
-28.9474 93.9915 7.58575
-16.8983 95.579 -7.49936
6.14117 112.464 -7.07526
-32.8321 96.116 4.69106
11.7597 146.622 4.48417
8.92168 142.594 -5.54004
-2.27165 118.485 3.68314
-10.9297 136.679 -3.33725
-34.5994 91.3991 -5.15922
-20.8314 149.238 -0.382576
5.56398 124.374 -0.223939
-29.9496 134.649 -2.64605
14.8297 133.644 -3.81437
-34.0315 86.2024 7.28561
-19.543 92.6405 -0.254074
-16.6944 144.866 1.87078
-16.0164 103.839 -0.172079
-4.04253 120.22 -6.56253
-8.40739 116.539 -0.644697
-29.8776 137.998 -3.51677
1.7998 123.464 -7.86267
-24.2577 138.928 -4.74644
-27.3926 146.634 3.46601
-22.5561 91.6871 -1.12604
-36.17 96.8587 2.05182
-20.1307 151.164 2.1566
-18.4026 134.29 -4.59363
10.6305 119.75 -4.67223
-3.0429 118.428 1.64802
16.206 132.33 -2.84716
-34.2877 100.992 3.57494
-19.0789 112.727 -6.73239
-33.6411 98.2701 -5.57602
-38.7811 100.788 -5.25791
9.16405 133.504 -7.36708
-22.9823 149.22 4.06461
-15.1893 102.398 3.43413
-28.2432 132.886 5.4799
5.52673 118.743 -8.54535
-23.9419 89.4077 1.15829
-22.6241 99.8694 7.20216
5.54923 118.366 -4.88829
-33.9919 115.844 3.35556
-31.8418 85.5851 7.0068
-9.25406 116.333 -9.32177
-24.487 112.119 -7.89471
0.0257887 127.606 -5.94809
-8.85831 128.792 -3.01973
-20.8417 95.2935 -0.156561
8.90318 141.758 -5.33359
-31.0239 127.761 4.5789
10.4595 135.08 -1.68958
-30.6557 128.617 4.32403
-10.7967 139.391 5.9091
-27.4482 105.4 9.85792
10.7417 126.888 -5.63148
-28.7765 94.7063 -6.35973
8.05883 123.548 1.67825
-28.7036 104.565 -6.66332
11.1534 134.917 -3.49365
6.1269 124.576 5.35242
-30.1612 114.656 -5.89555
-31.9783 129.871 -0.347803
-7.20915 97.8784 -10.659
-24.9562 90.1574 -5.99745
7.36337 138.418 -7.23313
6.42769 125.558 1.86472
-14.7942 123.651 8.39895
8.12538 123.701 1.73932
-19.4098 97.5018 0.893424
-8.38226 121.893 -7.57879
-20.2893 128.994 9.72699
-37.4562 92.1901 3.298
-5.03624 137.91 3.84119
-27.6232 92.0685 8.58525
-31.754 107.999 -6.27723
-36.8748 135.263 -0.621363
-14.6308 117.319 -5.39366
-7.97166 144.704 -0.686904
2.30595 131.312 2.81063
-29.1681 134.311 -3.87609
-28.2828 100.148 6.50173
-19.6719 121.659 -4.16159
-10.6033 149.409 -6.01983
-37.642 97.6149 -4.88392
-26.3074 134.543 5.12905
0.0759114 126.255 -5.65999
-39.5243 101.339 -2.27846
14.9233 145.763 4.03989
8.44594 129.09 -1.27408
-4.93467 112.584 4.09112
1.2544 127.154 5.85832
-24.1348 85.4378 -7.89916
12.1413 144.809 5.48411
-14.7557 103.488 -8.90286
7.97011 124.628 4.51043
-21.8749 132.359 8.34245
-27.2738 110.23 10.6464
-8.38581 117.485 -8.63508
14.4544 140.5 5.66825
-23.9658 112.502 -8.12444
-25.255 120.883 10.6753
-20.0917 121.071 -4.34399
-30.1637 117.365 -5.87451
-14.6541 149.467 -2.79949
-29.736 101.288 6.64849
-27.3882 116.463 -7.0305
-24.0001 111.16 9.3593
-34.5291 140.911 0.619206
-5.118 141.843 -2.4947
-12.5787 118.764 -6.36929
-25.7993 129.19 -1.488
-1.75387 123.898 0.653728
-23.6266 102.861 9.85436
11.0746 135.793 -1.54381
-31.7727 90.2411 7.5335
-25.5059 111.562 10.7481
-27.5308 125.395 -5.43084
-33.4323 122.092 -2.88058
0.455309 118.246 9.91147
0.733309 131.743 -0.155393
-7.56507 130.761 5.27368
3.75966 142.74 -5.23977
-18.3151 122.689 -3.61168
-17.897 124.532 -2.65166
-36.398 88.8025 4.41621
-27.771 106.334 10.1488
-16.4448 139.499 -5.24773
-33.2479 134.396 6.39832
14.0929 132.944 -4.76872
-35.8978 92.9697 -5.13089
-37.5735 104.265 -2.95153
-19.3819 95.9822 -0.361965
9.05981 145.537 -4.93431
-8.86076 134.902 6.30563
-34.2715 137.277 -2.44569
-32.433 99.3295 4.67432
-16.6502 106.914 5.82874
11.4406 147.915 3.84735
9.03219 122.062 -4.83231
-29.5253 128.438 0.0335817
-25.7026 95.7364 8.5099
-17.3184 103.432 0.224651
5.2971 116.565 -6.09572
-10.6245 122.404 -5.69919
0.20849 122.463 5.76285
-2.80043 126.543 -5.3151
10.2825 140.047 -4.22357
-38.2405 90.9624 2.54514
-30.6262 141.658 -1.00623
-18.2107 144.051 -2.9137
-29.8983 128.096 6.00178
-0.105155 140.474 1.56727
12.5098 141.865 0.710069
-16.1147 110.42 5.23009
17.0044 135.589 4.90602
-33.4381 87.7256 -6.84062
-14.4622 137.089 -5.25
-35.8896 99.3521 1.42427
-29.1222 112.17 -6.76483
-24.7433 125.325 11.0846
-33.6824 135.366 -2.60514
-16.0988 109.033 5.26454
-13.6597 104.78 -0.176543
-11.9328 122.871 6.9516
-31.7444 88.8107 -4.50971
-21.3958 96.1904 1.68283
-33.1661 106.128 -6.50127
6.55978 117.326 -2.26102
-7.41167 133.637 -2.66627
-18.5163 138.649 3.40979
-13.9725 135.156 -4.4224
-16.3142 129.315 -1.75434
-11.8899 142.324 2.01177
-12.133 153.452 -2.8133
-22.5933 148.596 4.51913
9.26695 121.933 -0.712869
-39.8547 136.499 3.25007
-6.64183 144.427 0.110774
-31.1334 111.325 -6.40257
2.48773 132.107 5.28022
-19.3093 130.186 -2.31252
-21.4487 146.104 5.4674
-40.596 134.063 2.32963
2.80744 132.94 4.89729
1.21225 108.984 -6.55668
-27.7756 95.8328 7.24994
-12.8775 117.36 -7.23426
-27.625 99.9628 -6.57486
-16.6696 115.668 -5.49023
-31.4684 97.2995 4.87257
-19.6101 149.34 -0.422588
-31.6071 111.237 7.8834
-3.23277 116.521 6.28719
-2.86301 117.173 6.43756
9.82737 121.571 -4.74778
-20.1717 102.799 -7.4093
-20.2868 99.1641 -6.57253
-31.7389 117.661 4.76387
-22.0533 121.306 9.34899
-0.548799 136.609 1.09982
0.336233 141.672 -3.11639
-18.4331 139.517 3.64384
3.17513 123.206 7.8632
-19.1332 149.927 4.68785
-25.1679 142.508 4.87781
-20.5918 129.791 -3.18897
-20.3437 116.154 7.83275
-32.4982 130.82 -1.29217
-26.6948 98.2914 7.03897
-29.9537 131.922 5.22863
-2.16452 139.034 -3.30192
-9.0107 125.603 -4.53745
5.37069 115.266 -8.38278
6.00939 142.339 -6.33109
-23.943 148.892 2.23778
-29.868 112.196 9.07471
-28.6695 125.31 -5.27717
-21.1998 137.41 -2.99123
-16.8344 99.0911 5.5127
-28.1294 131.866 -2.34937
-15.2097 135.536 -5.19071
-13.4418 151.56 -2.09481
-13.1188 115.757 -8.42423
-23.393 123.663 10.0272
-13.4236 109.154 1.45414
-9.10688 121.216 1.31595
-18.1681 99.967 -0.00507347
-28.8836 130.908 0.323162
-25.9063 92.6205 8.21565
-12.0252 150.411 -0.229451
-18.0033 143.612 -4.77805
-20.7334 134.607 6.45817
15.6981 137.201 -1.15448
-7.89836 139.7 -3.60338
-17.6258 105.911 5.71133
-28.1068 94.4475 -6.41073
-15.6461 139.131 -5.09567
1.43829 123.28 -7.10773
-40.2799 97.3455 -4.53352
-28.168 131.331 -0.506446
-39.511 86.63 2.91725
1.24455 115.486 -7.97374
-0.611346 108.285 -7.2756
15.0492 138.344 -1.15537
-5.44965 153.448 -2.15884
-12.6113 143.839 -5.38557
-36.4651 136.847 5.36183
-18.1471 134.615 6.95501
-22.218 87.0051 -6.25753
-37.4295 84.0927 2.8368
-5.22762 140.055 3.73671
0.194494 123.776 -5.62298
-8.57244 131.229 -2.64376
6.68556 131.071 -7.92214
-32.2546 110.365 7.45415
-20.2974 93.4406 -1.61811
-24.687 117.554 -7.16405
-15.7543 146.202 0.576134
-15.653 140.992 -5.59109
-21.6261 96.7141 1.84436
-35.9264 106.889 4.17204
-25.035 133.776 4.62036
-35.2309 112.9 -2.3671
6.47438 126.146 -0.0608507
-23.1603 115.286 9.32294
10.6034 121.391 -5.49848
-32.0881 127.262 1.48964
-27.5692 108.181 -7.42278
-39.8705 89.1652 -2.53635
-38.5523 87.9284 3.12817
7.35956 122.392 0.800183
-5.67936 138.263 -1.62552
14.2422 139.757 -1.13022
-20.3732 98.7452 -0.356377
-14.3324 106.37 -0.0609611
-21.6473 140.375 -3.97124
-9.26883 136.422 -1.91567
-29.5799 127.205 7.0075
-8.65121 132.534 6.5829
-16.4194 99.8747 -6.90617
11.1607 142.063 -0.140266
-12.8034 135.51 7.46148
-19.1155 141.177 3.75216
-22.3469 107.526 8.84872
-30.0347 137.294 -4.22102
-13.0165 113.423 3.53791
-37.8379 104.539 -4.30781
14.5771 146.305 3.66338
-18.6674 137.889 3.13166
-32.6553 113.888 -4.67188
-16.2766 137.914 3.86783
-3.11826 137.833 -3.07159
-28.492 120.558 -6.11916
2.06404 135.635 -6.68514
-3.52054 108.676 -9.08557
1.27407 128.638 1.8462
10.2707 148.261 -2.19529
-3.38744 105.81 -9.4847
-19.7451 134.673 -3.17158
-22.4346 104.741 -7.50241
-21.4795 94.7377 0.791947
7.81042 140.834 -6.6919
-26.3953 137.508 5.03644
-29.2087 135.51 -4.74471
-4.28266 145.067 1.22453
-8.96212 138.719 -3.70246
4.74781 118.396 -4.31614
-5.08874 114.22 -7.43507
-9.17351 141.796 2.00389
13.0301 125.848 -4.79533
11.8146 130.038 -5.36796
-20.5137 118.417 -6.26895
6.61559 123.925 -5.27444
-24.0949 141.606 -3.94104
-34.0253 134.158 6.44683
16.3776 135.104 5.13719
10.0895 138.571 -1.27239
-36.095 100.538 -5.62584
11.1662 131.862 -2.79611
-40.6222 133.928 2.80085
11.1122 136.355 -1.25527
-37.703 88.4275 -5.01551
-17.7823 127.259 9.15672
10.7974 131.011 -3.38475
-37.0772 133.269 0.330254
-3.7392 126.916 -0.120866
-32.1153 137.557 5.64684
5.11417 113.871 -4.9179
-15.7142 143.357 0.201167
-24.3505 146.593 -0.742242
-15.0952 104.93 -9.40724
-31.4647 102.82 6.30922
6.96337 120.978 1.26006
7.26427 126.556 -0.130984
13.1096 145.633 5.11011
-10.9542 152.867 -3.90343
-5.31726 131.58 3.92079
-21.4001 95.5747 6.01735
14.7193 132.54 -4.24818
7.0024 121.43 1.35167
-30.6108 105.609 8.07041
-30.2672 128.932 -0.103498
-4.04377 130.798 2.12051
-28.3085 122.491 -5.57619
-8.04403 126.808 3.34308
-26.3744 105.413 11.0238
14.945 143.595 4.8747
-17.6185 130.16 -1.73635
-9.50709 133.707 -1.35022
-24.1977 137.298 -1.65934
6.02241 118.244 -3.19575
-19.2336 141.163 4.11248
4.96436 140.893 -6.58947
-6.82199 137.816 4.47053
-14.3837 95.3665 -8.80039
-29.8878 107.576 -7.03054
-27.7064 125.848 9.47279
-36.9561 107.243 1.51094
12.4886 149.897 2.35889
-18.5164 136.406 5.35507
-23.0163 116.541 -6.75078
7.31882 126.483 5.54746
-4.69285 135.444 -2.79725
-26.9678 131.624 -2.42164
-14.9729 102.266 -0.742677
-20.8163 96.4382 -0.271226
-30.4247 129.655 -0.359084
-0.966952 107.895 -7.47521
-27.4576 131.939 -2.03952
4.83571 149.916 1.01701
-21.6701 96.8188 5.00837
-13.0964 142.642 -5.64146
-0.579173 150.681 -3.98749
-10.0515 117.145 0.132244
-18.4328 104.343 5.22774
-37.8085 84.7327 3.2677
-3.62746 139.547 -1.9763
-27.8971 132.853 5.69274
-12.1621 107.37 -0.739473
-4.99281 128.99 1.62745
-30.0046 132.672 -2.89694
-22.713 99.7438 7.44086
-25.513 87.0694 0.20511
16.9187 128.357 -0.665083
-24.3648 137.113 -1.67697
1.34187 142.977 0.872767
-29.7586 93.7528 7.50139
-6.16549 121.453 -7.39496
11.5135 135.462 -2.21639
-13.2731 150.839 1.32746
1.18048 135.305 0.918338
-30.1042 107.738 8.66318
-30.0317 138.252 -3.19685
-27.7926 120.022 -6.51797
-28.339 114.367 10.1506
0.260269 140.411 1.26434
15.5391 145.492 2.52058
7.82731 123.151 2.02691
-31.3976 101.106 -6.69441
-23.897 124.942 10.506
-16.8448 100.674 -7.35362
-13.6996 103.8 -0.769952
-10.6048 120.913 -6.82892
-34.2428 111.846 4.61307
2.63822 123.66 7.91377
-2.09798 118.403 6.74919
-5.88176 137.021 -2.51248
-8.1727 143.336 -4.05814
-18.1907 123.999 9.43532
-21.5298 134.005 7.34943
4.16375 135.859 2.40478
8.07619 147.346 -5.09454
-10.6871 145.292 -5.75302
-36.0433 96.359 2.43928
9.08876 123.512 -1.3534
-7.56157 116.717 -8.20806
-2.95628 120.241 0.86083
-6.14563 109.335 5.38317
-10.9272 140.833 -4.45769
-22.8931 148.344 -0.331851
-19.7211 101.665 5.87729
-15.3241 125.964 8.60319
-15.427 116.102 6.94372
-14.3231 121.871 8.05661
7.18081 140.094 4.77269
-25.4814 125.616 -4.55684
1.09581 123.777 -6.73729
10.2133 126.228 4.11286
-35.4727 88.4536 -6.41705
-9.37982 136.648 -2.11037
-6.91862 153.273 -3.43642
-11.7941 96.6115 -10.1781
-28.8969 142.062 -1.23297
16.0824 132.295 -2.98091
12.6273 139.81 5.35287
-15.3026 144.879 -0.296911
-35.8953 136.628 -1.97133
2.32039 131.951 -7.0707
-27.1222 132.569 -2.30203
10.7592 148.751 -0.613637
6.69279 127.677 -2.97462
-18.3132 134.595 -4.4591
-17.8499 112.471 -6.64413
-9.68572 120.421 2.16457
-20.2808 134.05 -3.34295
-16.1903 106.629 -9.48491
-7.2397 143.095 -3.72333
-19.3377 98.233 -1.14208
-10.0578 140.824 3.70478
-23.2828 86.4248 -6.78864
10.0061 140.36 -2.2923
-17.9998 119.231 7.8855
3.98643 143.014 -5.2426
1.27529 126.898 4.67485
-2.98513 129.009 0.184703
-36.3755 98.8778 1.39841
-37.7011 104.801 -3.62948
-34.0781 114.119 4.66638
-31.19 120.574 3.41288
-12.6367 144.833 -1.4331
-24.6109 113.408 10.4181
-36.476 96.7231 2.12041
-34.858 109.79 4.50511
10.2076 126.097 -6.03741
-34.4673 121.36 -0.791674
-14.8224 138.404 5.24871
-19.6127 105.183 8.31933
-3.06768 131.655 1.52057
-17.7184 143.241 2.56541
-22.1933 150.15 2.38933
-32.808 91.6692 -5.03872
-22.686 116.786 9.48393
-17.4609 137.512 -3.42248
-3.3469 138.578 -2.93863
-19.0877 104.528 -8.68506
7.69254 130.481 5.53674
-14.3954 103.124 -8.77465
-28.2006 103.054 -7.28508
-9.10724 117.321 -0.175166
-23.4179 144.811 -1.38671
-29.6798 121.606 -5.19457
-34.9838 97.0417 2.67386
-17.4205 90.7219 -8.24626
-31.9423 130.606 -0.444664
-21.4992 144.192 -2.59451
-21.1473 134.007 6.69499
-6.82859 146.588 -4.76058
-18.0036 98.425 1.33283
-32.366 124.536 2.42401
-19.3691 109.073 -8.3088
6.8468 121.557 -7.26657
-8.59999 149.464 -5.77431
-38.1171 91.1581 2.6602
-27.2442 96.5165 -6.83812
-34.0106 109.684 -5.94406
-24.8688 106.215 -7.55072
0.228809 114.065 -6.57396
16.8519 128.679 -0.675513
-9.15508 106.388 1.80367
-6.13174 127.367 -5.65912
-15.3 125.338 -2.62493
-16.5647 137.822 4.13399
-27.4068 113.611 10.7583
-22.655 125.968 10.2851
-26.0383 85.1041 -7.01092
-12.119 113.949 2.27813
6.04262 138.71 3.6915
-19.1177 141.294 -4.55265
5.59647 130.405 5.96358
-36.8349 109.268 -2.0913
-26.4968 137.346 -4.78924
5.38863 121.427 -8.14671
-20.9431 115.151 -7.2012
-7.17946 119.597 -7.9871
-11.1901 106.421 -0.602106
-18.9233 111.089 6.5128
-11.0361 128.112 7.24674
5.71464 146.303 -4.78776
8.60244 138.189 5.94818
-31.1433 130.448 -0.154065
10.4196 142.34 -2.21345
-9.43298 122.649 -6.96192
-23.2036 126.619 10.5438
-19.065 147.81 -1.23086
-11.8332 98.9203 -9.29485
-4.43761 130.026 1.89558
-19.3149 89.3715 -7.1227
-10.188 102.508 -9.7504
-21.5961 101.859 -6.45958
-10.7806 104.682 1.26281
16.5924 132.255 4.64991
-40.3374 84.6981 -0.299618
0.49676 127.676 -6.7551
-41.9775 86.3698 -2.47739
-1.83155 129.854 0.0816748
-29.2171 89.6588 7.7478
-10.4318 144.55 -5.62962
-13.19 139.234 4.87966
-14.0604 136.834 7.18662
-32.671 87.7686 7.71158
7.44134 119.244 -1.46114
-28.6706 106.495 -6.98906
-29.6955 131.093 -0.791914
-1.98999 124.392 -5.59816
-15.6184 152.56 2.67698
-5.34929 128.084 1.42665
-20.1217 114.775 7.62444
-25.6938 88.1131 0.193934
2.06082 126.485 7.80977
-28.1073 134.554 -3.76355
-16.6112 99.4883 1.67442
-39.4963 136.028 0.612032
-13.8737 107.823 -10.102
5.53785 127.973 6.36653
7.82071 147.614 2.01018
-31.9972 105.561 7.0168
-23.8548 148.098 0.0923136
-19.933 142.684 -2.88377
-28.7017 128.469 -3.0952
-17.4638 140.977 -4.65971
-13.461 134.345 7.82519
18.3787 137.479 0.678562
-29.2676 105.652 -6.51141
-16.0836 146.065 1.25449
-4.69275 106.922 -9.84292
-14.7241 135.218 7.72551
-25.9761 128.557 9.39154
-37.4409 87.9217 3.86013
4.86012 120.379 -8.89599
-26.8643 87.1712 -5.12283
-3.30791 145.5 2.23758
-28.2935 132.594 4.82323
-39.2277 133.457 4.75699
-0.554476 119.788 -6.79619
-12.5613 103.997 6.18067
16.3343 134.732 -2.26776
6.90109 125.116 -6.52649
8.02402 126.92 -5.39853
9.71916 120.488 -4.16787
-15.4258 107.49 2.0798
-6.55452 144.799 -4.05276
-4.85368 136.352 -2.74697
8.68993 124.137 -1.10998
9.13212 120.964 -3.51565
15.0796 128.913 -3.44102
-4.72822 135.221 3.93485
-27.8035 86.8202 -5.10952
-18.4741 100.499 0.31818
-33.4436 123.263 0.986667
17.7583 135.317 -1.29195
-38.6535 134.116 2.11797
-18.3437 98.7156 2.95681
-15.0345 141.297 -5.52836
-11.5681 116.084 1.72824
-33.6354 88.451 7.34668
-41.0417 87.5757 -2.27255
-29.8249 126.748 6.58103
2.44161 132.247 3.07189
-2.96873 117.968 2.12812
-29.3675 134.822 -4.14632
-39.2144 93.0493 -4.19787
-34.4697 130.122 0.606156
-17.7692 145.867 2.55726
-10.9957 122.746 -4.8922
-19.6993 128.02 9.50207
-5.55614 138.598 -1.44186
9.72156 124.645 1.99583
-23.4842 137.417 -2.10987
-23.0684 132.155 8.31412
-26.4788 130.241 8.38423
5.91957 134.118 -7.18183
-25.7057 134.009 -1.45532
6.82286 128.982 -2.02127
-22.3657 142.469 4.97092
-32.6056 112.692 6.79076
-3.77453 106.526 -9.66077
-23.7297 99.0215 -6.38142
-33.675 136.035 -3.25318
5.44474 123.426 1.13175
-9.67992 109.809 -10.7178
2.54839 128.776 7.17427
13.2223 143.397 5.54652
-13.9225 97.3774 -8.46383
-32.8258 109.876 -5.85904
-13.411 148.991 -0.932701
5.62809 123.809 -0.345836
-29.271 131.92 2.63592
-37.7456 103.454 0.786247
-26.6538 143.069 -2.50824
10.6303 132.747 -2.3501
-11.6116 129.989 -1.75922
7.19766 126.203 -2.40067
7.2746 128.003 -2.63681
-12.817 109.026 -0.607946
-15.0646 107.292 0.52133
-13.6461 103.417 3.02173
4.72256 133.617 -6.9456
17.2671 130.596 4.37348
-33.42 132.082 4.89917
7.46736 129.403 -1.85212
-23.1364 142.191 -3.5978
-25.3711 132.083 7.69264
-22.305 121.173 -4.96393
-28.7794 146.113 2.42088
-20.4693 93.973 1.90575
-24.4359 106.949 -7.36767
-18.9808 135.27 -3.3846
-12.0571 136.837 6.89454
8.45269 122.608 -4.63696
-40.392 94.8715 -4.47875
-7.80608 107.319 3.03663
-31.047 124.758 4.3626
-12.1503 124.715 -3.14421
2.47626 123.174 8.467
10.3113 148.588 3.06127
-37.0449 106.663 -4.47438
-11.708 127.07 7.38299
15.7379 130.856 -3.24267
-31.8008 140.113 3.45292
-14.6677 113.194 -8.34788
8.83567 130.283 -2.16752
-1.04208 119.515 7.46707
-30.2403 139.79 3.675
-24.3961 98.7972 -6.3833
-19.9018 125.101 9.83971
-3.00967 117.503 2.65368
-17.3776 145.338 -2.3737
17.4972 131.441 4.32764
-39.7667 88.6518 1.76192
-9.81723 105.545 1.82394
-30.9099 95.1216 -5.62781
-38.8814 137.155 2.64901
-19.6117 95.592 2.73507
-29.2881 105.965 -6.53583
-32.499 102.038 -6.35426
-27.0291 130.991 -1.54236
-12.6813 143.536 1.36545
-13.5828 145.793 -5.42318
-19.9926 124.944 9.8318
-17.6956 105.032 -9.22432
-15.5535 102.167 3.64938
-32.5867 127.67 0.751681
-15.3072 138.208 5.68099
-34.4677 140.795 0.474518
-24.0272 135.594 4.95903
-27.6152 113.426 -6.7438
-8.68821 132.886 6.56043
-12.7805 105.945 0.00280174
-30.8413 117.066 -5.57819
-28.6557 126.371 8.22803
-26.6768 120.676 -6.54539
-32.9043 87.3377 -4.75238
-38.7021 93.4424 -5.27377
-15.8028 107.432 4.51281
-6.92844 138.374 -2.01847
-7.64555 154.497 -0.972529
-0.162177 120.946 8.54807
1.83124 124.929 -7.95855
-27.6562 118.298 10.7203
-26.1169 133.45 -2.29585
-12.7304 111.111 0.986793
7.73407 143.753 -6.07422
-23.6127 136.994 -3.16589
-0.848914 120.622 -6.06072
0.740992 126.018 2.54501
-17.9445 135.06 6.81406
-7.81096 110.349 0.301327
4.03794 144.809 -4.39176
-14.8372 133.404 8.3408
-16.6315 113.637 -6.2797
-38.5445 85.3814 3.33882
-28.7204 131.118 6.17576
6.82574 153.214 -2.06401
-35.4065 112.01 -3.56303
-3.73407 145.865 -0.61524
14.7127 128.985 -3.74786
-26.2667 97.5453 -6.69193
12.1298 128.309 5.89357
-30.6229 131.155 4.08618
-3.49791 115.863 5.33112
-17.8471 98.0949 -6.57564
-30.5104 86.3601 -5.54245
-19.3353 124.204 -2.93669
8.13349 125.29 -4.56164
-14.8259 115.333 -6.59936
-14.5393 121.001 -3.74985
-32.7704 137.156 -2.93428
-14.4035 115.766 -6.59504
-3.23172 103.366 -9.88324
-12.2607 146.287 -1.76487
-25.4016 135.026 -1.83435
13.4162 127.402 -4.67606
3.84311 149.68 0.771799
-36.0473 89.7956 5.24899
-0.376672 124.849 1.66882
-3.68108 125.602 -0.450729
-33.2523 120.896 -3.60045
-2.90059 146.435 0.782496
-30.2944 130.883 -0.761004
-37.248 138.781 0.750538
-36.9731 88.595 3.75417
-4.06486 119.072 0.208026
13.7626 148.568 2.55844
7.37682 122.994 2.06908
-35.3098 110.099 -4.82907
-6.93118 105.545 -11.2162
-6.81662 106.987 -10.8912
-14.539 110.89 5.05568
-31.1814 141.604 2.77811
6.45636 122.139 2.24733
-23.4148 96.5392 10.0167
-14.2513 129.84 -1.57215
4.94875 134.985 -6.89934
-24.7479 120.462 10.4416
-13.0243 105.857 -9.70576
5.46649 121.182 -5.74415
-24.1007 138.566 -2.38614
-15.4014 148.061 -3.25806
-17.9616 152.392 2.42966
-0.19859 128.676 -5.31813
-29.6227 122.851 4.8799
-32.9632 142.362 0.542822
-5.90107 118.903 -0.589846
-6.04259 130.689 4.07929
-13.3154 103.922 5.1649
14.5844 146.444 3.06238
-33.3237 93.7462 -4.98074
-1.1812 120.276 4.52835
-16.5325 137.634 3.76898
-14.6797 102.399 2.46048
-13.017 110.1 0.381222
-9.36281 123.077 3.83129
8.99178 132.996 -7.50976
6.74512 124.195 1.66904
-28.1391 129.177 7.76463
-9.88598 108.849 -10.817
-14.6699 152.053 2.47278
-5.98512 142.026 3.98915
-17.5904 106.395 7.13068
-11.1193 144.458 0.330016
11.8343 145.994 4.98007
16.0016 130.023 -2.67372
-22.2596 110.31 -8.31632
10.1865 137.821 -4.13871
-24.3277 119.238 10.2517
-10.9415 120.044 -7.32971
7.28841 143.622 -6.24026
9.32445 135.598 -6.79439
-19.6085 136.61 3.8925
-21.3726 96.6554 4.59136
-23.3872 97.0427 10.0546
-30.787 131.291 -1.16152
-40.3752 88.2237 1.33182
-29.9585 141.158 -1.68876
-23.3481 109.597 8.77877
-41.1752 86.3726 -0.414372
-19.1537 139.384 3.82434
19.8015 131.472 2.1139
-14.6905 118.276 7.32258
-21.7299 137.287 3.73973
-25.1249 98.2682 9.43407
-40.0894 134.944 1.08469
-19.6429 94.2303 0.206549
-23.2109 131.269 -2.10147
-34.4828 99.576 -5.89691
-13.6222 122.379 -3.40684
-21.2115 98.6909 2.21184
-6.87269 135.752 5.2026
-27.9167 121.407 -6.0288
-23.2286 144.723 5.35205
6.72794 123.526 1.1385
-31.7636 130.688 -1.16284
-28.8379 108.094 -7.4086
2.63561 126.123 -8.41431
8.67493 120.129 -4.29237
13.5937 147.976 3.33342
9.57886 128.101 -1.34059
-35.9327 91.0553 -5.28718
-23.1415 97.4056 9.9932
-10.8421 118.142 2.60154
-15.6666 93.7292 -8.39522
-34.4246 136.044 5.86672
-13.7393 115.364 -7.93923
-20.4016 90.9903 -1.80264
-15.7114 99.7418 -7.16663
-17.3847 132.322 8.52992
-6.70973 136.404 4.91698
-20.8191 100.205 5.47567
-40.5994 134.483 4.08728
13.2964 149.11 2.38552
-12.1184 139.697 5.54475
-33.9798 106.519 6.15931
-30.2688 120.518 -5.27651
-13.1831 122.204 -3.68335
4.73266 126.135 6.42727
-15.439 149.062 1.70286
-14.0599 108.25 1.6316
-21.1933 141.852 -3.18719
-38.5335 87.83 -4.51989
8.73526 121.536 -3.64881
-19.1832 108.25 -8.90363
-8.96319 135.646 -1.2706
6.40102 118.609 -3.11845
-3.06598 122.508 -6.24404
-29.1863 137.56 5.92397
-30.599 130.811 3.93035
-39.4156 133.985 3.60881
-19.796 110.337 -7.59867
2.64637 147.988 1.28858
-35.7239 109.173 3.73986
13.4921 130.314 5.00051
-34.0942 133.649 6.10297
-17.0409 109.52 -9.50193
0.14863 129.726 0.186359
9.52103 129.698 -1.75512
-14.7046 102.803 3.55931
-37.9453 87.1089 -6.36029
-22.7443 97.8493 6.00015
-7.95299 127.354 3.65158
-0.18007 118.588 9.71762
-34.0203 110.471 -5.60693
-23.8416 143.227 5.44628
7.21315 126.572 0.198608
-21.7404 94.3866 4.92166
-32.3709 118.067 -4.83458
2.10125 109.726 -7.1405
-11.6929 112.339 -0.287593
7.35376 123.494 4.8983
-11.9739 139.173 5.92175
11.6326 136.591 -1.8133
-24.1006 109.566 9.37842
-15.2257 107.991 5.15779
-33.0355 119.611 1.73505
-35.9864 111.149 -2.26866
3.77168 140.335 0.587727
-25.2989 132.063 7.5776
-4.3197 139.949 3.18203
-23.0565 132.575 5.72178
-20.665 125.974 10.0313
-34.1718 87.5689 7.10861
17.5839 128.266 -0.413836
2.43281 145.778 1.02759
-24.0556 92.2072 -5.9927
-31.4574 139.42 -2.30307
-26.2802 122.344 11.0356
-26.183 147.832 2.24341
8.61375 127.032 -1.86081
-28.4127 131.526 -2.20327
-37.1059 86.1077 5.57674
-14.6099 144.84 0.0578232
15.8156 141.18 5.18089
-32.1801 107.806 -6.33033
10.0865 145.147 -1.75354
-40.7074 87.8519 -1.71886
5.5238 115.462 -3.94838
-11.0594 120.211 5.02781
-28.9029 129.292 -2.20438
-22.5509 97.7219 6.73766
-20.9103 96.2183 0.965176
9.55931 127.592 -1.348
-9.35 102.912 -10.2542
5.63738 141.611 -6.42368
10.7495 123.082 -5.97172
-8.48684 125.68 3.65529
-23.8556 131.474 -3.11415
2.48324 119.153 -7.52063
-24.1319 130.928 -2.14861
-21.8202 100.227 6.97638
-40.9477 90.8639 -2.42089
-0.136898 122.458 4.49301
-22.5173 91.6832 -6.03965
-11.5709 123.507 -3.9446
-11.3989 97.3735 -10.1831
7.79917 126.487 -5.87604
-34.1118 104.677 -6.53254
-21.6429 106.335 -7.19991
-29.2258 128.982 6.73747
-23.7343 97.8515 -6.60822
-15.6173 145.441 -4.94352
-10.8287 117.134 1.1928
10.1319 124.833 4.27209
-6.04269 110.558 3.19143
-24.1679 103.082 -7.03213
-9.2421 107.037 0.59774
-0.502747 150.799 -4.01564
9.64214 130.404 -2.29197
-18.2847 99.4268 3.42516
-37.6968 104.57 0.917607
-30.0519 124.921 5.74266
6.32566 149.352 -3.80426
-8.28293 142.277 -4.06814
0.930886 135.528 -6.33332
4.58941 140.092 -6.81356
-8.28931 142.348 2.79149
5.60638 118.756 -5.25673
8.61937 123.554 -4.7572
4.94906 117.307 -3.32451
7.73188 126.801 4.65212
-18.9581 112.682 6.71632
8.30057 120.255 -3.4003
8.13911 125.35 -4.60944
-27.1584 131.941 -2.00235
-38.3079 133.603 5.9596
10.9768 139.315 4.83005
-12.7583 101.912 -8.49752
-35.517 87.9532 5.25581
4.94214 129.615 -8.34146
17.423 141.567 1.60176
-12.9427 94.4357 -9.95
-28.4999 146.084 3.38705
6.23075 121.736 0.550909
-16.0312 135.077 8.1007
-8.14978 113.245 -0.787589
-26.3484 114.666 -6.7616
-6.78374 149.896 -5.4815
5.21549 148.342 -3.82073
5.25475 133.711 -7.03308
4.04405 114.177 -1.45939
-32.8526 97.1297 3.8302
12.2738 149.255 3.20533
-33.3366 140.464 -0.557623
-26.0076 139.215 3.75646
-4.57986 113.291 5.3502
-9.06381 126.023 4.6761
-30.3846 129.04 4.32387
-16.9948 111.038 5.6703
-25.5191 100.4 10.3178
-30.5346 128.659 -1.51476
-39.1669 89.7909 -2.7497
-14.7271 139.536 -4.95123
-24.4344 134.501 4.67346
-16.0015 118.48 7.5834
-10.9783 104.589 0.0411692
-21.6507 137.796 -2.63076
-20.7406 112.594 -7.39534
-16.8734 108.975 5.63408
2.40273 137.327 -6.80574
9.38536 118.542 -2.49918
-25.7708 110.091 10.8326
-26.9195 132.186 -2.8818
-28.5663 130.909 -1.33902
-10.5415 141.424 2.03486
14.5649 132.833 4.94031
-32.6521 119.326 2.09582
-11.8003 153.734 -0.642031
10.2003 144.839 -1.43733
-23.72 122.222 -4.40782
-15.3588 128.667 -1.78754
-4.87731 115.766 0.791479
-22.8418 134.843 -2.51715
6.94507 128.034 -3.01334
-26.2538 114.917 10.8071
-9.78845 124.315 5.11943
-7.12924 142.968 -3.66634
-26.3766 112.039 -7.56189
14.3567 136.952 5.30877
-34.9938 86.1123 6.34645
-14.5193 94.8704 -8.86875
-6.20835 109.766 3.71102
-5.94182 125.38 -6.57808
-18.5379 142.935 2.95978
11.5484 145.476 -0.041805
-16.097 137.552 3.98429
-5.08677 131.876 -4.19998
8.40427 144.273 -5.52261
-1.71528 119.492 4.13073
-4.7412 150.858 -4.76516
-20.9643 143.867 -2.90181
-31.0028 132.318 -3.48098
-14.7116 152.258 -0.158112
-25.9019 122.216 11.1014
-13.499 115.048 -8.476
13.7381 133.535 -4.57983
-0.377665 121.845 4.7522
-34.3983 114.787 -2.7661
-30.7924 121.899 -4.82389
-37.41 134.149 1.98753
1.2173 150.127 -2.90291
5.04727 114.667 -5.5151
10.6067 129.884 -5.04351
5.84472 125.752 -0.418284
-28.1864 100.55 6.72487
-23.1658 91.7486 -5.98277
-36.6703 89.2206 -4.77329
-11.3353 150.73 -0.589777
-30.5334 131.235 2.11476
9.05865 122.302 -1.45647
-14.5426 122.169 -3.41802
8.51559 121.123 -2.85658
-32.4409 108.641 7.35583
-9.18273 119.019 -8.68812
-22.3441 91.0973 -1.62514
-22.636 130.653 -3.22671
-40.3954 136.051 3.38497
-24.2837 148.707 1.68585
-21.1904 98.9877 -6.58237
-36.6485 103.378 2.66476
-10.0516 111.486 -0.925729
-41.9979 87.268 -2.24043
-8.68705 134.59 6.35471
-16.0327 113.099 6.38559
-33.1023 135.486 -3.01891
-16.7799 106.53 3.75791
-27.3036 133.28 6.34523
9.72496 123.883 2.39441
6.3111 136.589 -7.16482
-20.9967 128.596 10.0198
8.1142 121.006 1.23186
-4.83661 114.864 -7.2073
0.164511 116.529 -7.31789
2.39741 131.573 2.44035
-1.68268 153.803 -2.5534
-14.9402 137.968 6.36473
-1.36089 119.884 5.31374
-18.4907 134.744 6.92748
-10.9796 131.435 7.39508
7.79542 140.05 -6.68222
9.48911 146.462 -4.62517
-27.6 113.93 -6.86186
12.6891 129.069 5.58662
-21.107 140.191 4.94448
-30.0439 132.293 4.09842
-12.8421 94.2468 -10.0345
-10.6885 129.145 -2.38098
-18.5311 144.556 3.04777
-32.0105 96.3266 -5.44723
-17.016 100.891 3.93786
-27.5616 132.55 -1.35516
-0.721482 120.039 7.18847
11.4588 151.194 1.68164
-13.1281 109.921 1.13846
-17.4183 145.235 2.38568
-3.10698 152.435 -3.77038
-26.3144 101.232 -6.48785
-5.87639 126.763 -6.3819
-6.89424 116.779 -0.620577
-12.3711 149.324 -1.35956
11.0651 140.624 -0.339125
-28.9483 119.901 -6.12767
-14.3608 149.423 0.696409
9.84699 150.074 -1.37885
-9.26832 112.885 -0.858872
-9.75555 124.437 -4.82355
-28.7056 103.128 -7.15173
-6.7438 151.996 -4.66461
-30.4458 104.999 -6.20646
-37.954 88.8893 2.7909
-32.6388 107.136 7.0785
10.1486 127.534 4.70938
-9.21324 129.418 -2.72091
-5.70752 133.608 -3.64656
9.68028 140.54 -4.62063
-1.85771 120.535 2.05627
-33.1073 109.664 -5.98872
-34.558 131.054 0.801517
-8.64702 137.928 -2.77461
-15.224 136.959 -4.72157
-18.5957 119.788 8.13556
-30.5452 104.548 7.22587
-31.4389 85.7461 -5.9353
-21.9184 145.177 -1.53326
-13.416 134.211 -2.75935
10.3148 144.304 -3.31011
-28.6876 131.272 -2.65971
5.03051 124.354 6.26072
-17.5513 111.941 -6.95251
-5.48501 151.485 -4.82574
2.73459 139.17 -6.26173
0.131876 135.747 -5.47564
-31.1546 134.376 -2.39829
-21.4191 149.211 4.6254
-33.6617 130.849 2.2279
4.0666 134.839 5.52244
-34.8543 85.6496 6.721
-16.3539 142.556 -5.59522
-34.8837 90.3632 -5.07021
-24.6445 141.042 4.7905
-27.5447 99.7518 6.89092
-30.6219 143.161 0.358243
-25.165 113.277 -7.34597
-28.8215 129.395 -2.16444
-23.8978 135.668 -2.80424
6.56503 119.302 -7.13602
-37.9161 89.7836 2.85511
-30.0608 136.348 -4.79061
0.653151 124.625 6.43104
-34.6641 132.305 5.25551
-0.173512 131.712 -5.20102
-23.808 145.69 5.02979
8.85509 129.558 -4.6337
-20.1356 119.247 8.10308
-31.5419 127.363 1.71258
-18.4677 129.678 -1.87189
-25.3047 134.241 -2.77461
15.2587 139.581 -0.506271
-27.8059 143.896 -1.57925
-16.2705 136.171 7.5647
-30.049 128.619 -0.37637
-20.9147 97.5341 1.1212
-35.8554 140.302 1.8492
-31.5434 96.945 5.04626
17.8207 128.302 -0.291677
7.70316 124.63 4.60451
-5.85222 122.866 -0.272954
8.84874 126.459 -5.999
-21.4306 95.2363 5.31389
-23.6202 129.804 -3.29099
-28.7156 129.061 -2.80857
6.46974 128.491 5.82444
-29.4489 127.547 7.15292
6.70443 122.366 1.57891
-15.5758 109.383 -9.76662
-28.7005 117.77 -6.78131
-30.7496 113.704 8.51008
-4.22433 123.718 -6.21358
-4.4792 140.486 -1.42211
-37.3519 84.6976 3.72731
-39.037 87.8566 2.88849
-30.3307 131.991 5.33912
-20.8907 107.08 -8.77022
5.35738 153.259 -2.55342
-36.2733 98.242 -5.00036
-8.87476 140.246 5.34345
-35.0266 112.052 3.51289
-15.0293 119.316 7.70577
-15.6614 138.017 5.61934
5.56686 139.95 2.11006
-18.7074 101.268 0.680581
-38.8456 133.238 1.21131
8.76724 124.919 -5.83505
4.45504 113.534 -3.1703
-31.8989 98.1989 -6.51004
-19.6607 135.473 5.6345
-1.11993 141.065 -2.76142
8.00142 133.389 -7.51857
-20.235 144.154 5.11834
-1.15268 107.214 -7.69592
-36.2704 132.357 0.593419
-15.8638 133.96 -4.92703
-23.2232 97.6409 10.0724
11.5125 142.029 0.211178
-37.325 106.812 -3.74202
-11.9712 111.833 -9.64352
-26.7868 147.303 2.94977
-34.1148 121.918 0.0440434
-19.6934 105.187 8.34675
-31.2171 118.609 5.56435
-14.3349 101.127 0.2682
-4.91243 128.64 -5.69107
-11.4787 124.593 -3.47218
-26.3982 105.06 10.9851
-38.1856 103.2 0.110229
-41.164 87.58 -2.50821
0.0944767 133.634 0.0835973
-3.59813 127.369 -0.0451243
-31.6868 103.202 6.20687
-18.6642 135.958 -3.60384
-7.19472 107.519 4.20442
-28.5994 119.567 9.68582
-26.212 132.509 6.93796
-21.2813 142.433 4.914
-27.1071 131.764 -2.27413
-8.07972 142.385 3.62169
-18.5163 137.373 -3.10813
-27.4145 108.475 -7.40234
7.17551 144.238 -6.08716
-28.1493 132.667 -3.28358
-13.8368 108.102 0.779437
-17.8185 118.031 7.44526
-37.6161 104.4 1.41219
-13.0076 121.926 7.4498
-33.1734 111.785 -5.2254
-34.6206 95.1124 3.67142
-28.3109 138.144 -4.25603
7.96645 127.16 -6.7439
-22.425 102.03 8.96686
-30.4106 134.548 -2.67266
10.0741 124.328 2.40425
-34.753 140.464 0.497769
-29.9154 141.383 -1.5205
-29.1767 118.455 -6.42832
-32.1702 116.526 6.4101
-21.3745 100.434 7.80489
-25.971 140.142 -4.31566
-1.62045 143.353 -1.94345
-30.2826 121.108 4.51649
-40.4231 99.7555 -3.04842
6.78971 144.811 2.24519
4.53784 127.536 6.9524
-36.8265 94.452 -4.92732
1.69177 130.109 1.66819
18.6667 133.909 1.87564
-15.3219 148.695 -2.22266
0.832617 151.177 -3.61997
-30.2585 128.914 4.55019
-26.3705 135.378 -2.27833
-39.1617 133.896 4.37942
-22.0935 103.479 9.22741
-17.9207 110.981 5.96523
-17.457 104.842 1.68062
2.75065 134.024 1.57924
-18.2599 106.145 7.5274
-11.1499 105.075 6.12232
-13.864 147.573 -1.30574
0.972901 124.894 8.32636
8.53459 150.554 -3.37421
9.23389 127.884 -0.831846
-20.0368 98.5246 1.82339
-18.8465 111.494 -7.08312
-39.3384 134.622 3.68218
-27.3223 104.448 -7.12436
-21.2081 127.996 -4.05742
-16.9812 98.7782 5.48582
-22.0624 131.28 -2.81744
-19.0542 90.4531 -6.93763
-15.712 132.937 -3.09581
0.251125 145.753 1.69303
10.1355 118.847 -4.56178
-26.1971 120.885 -6.58049
-31.1173 125.688 -1.96303
-16.9067 113.141 -6.4226
-6.71254 139.601 4.50939
-30.1076 87.931 7.69804
-17.0382 100.094 2.64208
-26.6568 86.2331 -5.83204
11.885 141.952 5.17547
-28.4811 84.6958 -6.86787
-21.9363 92.5611 -6.00689
-37.133 90.4583 4.01034
-25.277 136.099 -1.33027
-35.438 131.219 0.465756
6.16041 117.811 -2.89215
9.11211 128.25 -0.206494
8.45705 150.329 -3.73256
-12.8857 127.122 7.96632
-20.7162 94.6886 -6.24859
-5.37354 111.384 7.99814
-35.0608 113.101 -3.05331
13.2431 130.371 -4.89136
-25.4309 122.757 -5.76095
-23.6188 104.888 -7.60935
-8.00521 132.273 -2.62958
-13.3798 142.346 -5.53778
-41.6906 89.041 -2.9037
-21.3548 96.6706 1.42697
-36.3688 86.8794 -7.43521
10.2678 128.744 5.33034
-12.7261 142.748 -5.5705
2.6822 134.056 0.785821
11.5017 121.343 -4.92753
-4.71001 145.579 -3.72107
-26.8354 132.411 6.32273
-24.4954 111.789 -7.8004
2.08751 121.408 -7.38825
-14.6066 99.3088 -7.69227
8.71228 127.575 0.200455
-12.6632 102.845 -0.104862
-29.0334 118.376 -6.50362
-15.9688 118.498 -4.46938
16.0731 134.544 5.20941
-29.6767 122.453 4.56375
-42.0094 89.1339 -2.7125
-17.6283 132.793 -4.77403
-7.10886 146.049 -4.66682
5.7257 114.56 -7.94968
6.31705 150.133 -3.48567
-30.3727 136.727 -4.62264
-12.0043 150.216 -0.449737
-39.1076 97.3608 -4.90602
-32.6091 130.452 0.119574
1.37494 135.529 0.965654
-40.163 100.523 -2.81332
-17.0637 142.373 2.36178
-19.2682 95.7519 0.971392
-27.494 100.865 -6.67086
-18.3265 97.4481 0.422072
-35.4465 135.601 6.00016
3.39117 126.671 -8.69787
-37.4347 137.186 4.68574
-24.3655 140.861 -4.41824
-39.4953 95.0006 -5.0127
-21.7019 135.777 5.49038
-11.0608 152.929 0.609745
-22.3765 96.8999 8.19164
-31.2743 137.718 -3.03495
10.3852 134.216 -4.95178
7.58545 123.547 -3.93324
-31.6099 131.08 -0.647185
-2.56642 118.152 3.23177
-33.2934 140.179 3.68745
-18.0582 146.779 -1.39774
-23.8249 149.002 2.6773
-32.2921 106.807 7.26136
-22.1834 106.319 9.14629
-2.24081 132.233 0.890276
-29.6721 139.377 4.10327
-8.60958 125.679 -4.75057
1.06842 126.026 4.61354
-9.28693 129.225 -2.76345
-24.5577 126.176 -4.02465
-24.783 142.442 -4.15885
14.5666 137.962 -1.75436
-41.1753 96.6753 -1.88831
-9.55091 152.154 -0.693169
6.94198 120.185 -6.84977
-2.4508 148.433 -3.7366
-16.1967 135.464 -4.92431
-18.82 140.134 3.68348
-33.7704 141.424 0.28338
-25.7786 85.7177 -7.48685
-30.1957 98.2884 -6.85004
-30.2442 133.423 6.2453
-20.9425 131.595 9.91829
-11.1857 114.543 0.0196361
-2.46102 134.483 -3.41335
-11.9841 95.9598 -10.1477
-20.1014 91.9764 -6.16961
-33.3078 87.5614 -6.27446
-3.97604 100.517 -10.6885
4.36659 135.958 3.82432
-23.9895 130.552 -2.90235
-34.2033 85.1739 7.15215
-18.2702 138.684 3.40616
-29.8794 107.229 8.7819
-39.9463 90.3127 -2.66129
-12.9299 133.864 -1.79834
-33.231 132.623 5.14834
-31.1075 86.8108 -6.67017
-31.2407 85.7088 -6.22034
-21.4997 131.792 -3.58325
-7.80833 123.819 1.29649
-40.0646 99.981 -3.77624
6.99157 121.196 -7.30108
-15.5465 108.158 -9.82972
-0.384131 121.861 4.69086
-10.3692 121.283 -6.82697
8.27634 121.127 2.69573
-22.6456 106.223 -7.31243
-9.91078 130.958 -1.99567
13.8292 125.92 -2.67101
-24.434 126.572 11.1849
-5.99893 123.937 -6.63357
16.2713 140.869 4.85425
-36.8252 136.606 5.43779
-0.0919188 114.784 -6.62876
-25.5883 90.6754 -6.06228
18.8254 135.713 4.25557
-21.3583 100.391 7.08351
-10.098 114.864 -0.392352
-13.1314 136.013 7.34842
10.9587 122.118 -5.58056
-33.9604 139.618 4.40738
4.9873 120.316 -5.71868
-19.4314 96.2442 1.23897
-28.5083 131.127 -0.880621
-29.1915 118.798 -6.33907
-12.4391 123.002 7.26393
12.5381 134.548 -3.3938
10.2295 143.963 -1.96768
-15.4803 104.9 0.551884
-36.8191 90.5138 4.41526
-17.245 147.295 2.45829
16.5367 131.283 -2.39545
-13.2826 150.929 -3.4768
12.548 132.747 4.92724
-30.2987 131.194 -1.4227
-24.8334 96.296 8.38502
1.0167 129.746 -7.28291
-29.3306 140.763 -2.25936
-26.7524 125.622 -5.41514
14.615 141.128 -0.237464
-27.5643 132.171 6.64723
-35.6443 111.948 -2.29268
-15.8516 100.47 6.13514
-26.9202 131.941 -2.27211
1.59515 129.82 6.23864
-37.2705 92.7712 3.44576
-24.3733 103.324 10.3749
2.46934 147.653 -2.67496
-17.8642 91.3954 -7.7162
-26.2133 108.107 -7.6121
-13.2018 117.2 -6.83683
-28.7266 136.102 -4.97102
-5.6989 105.261 -10.8222
-27.0878 132.082 -2.32565
-16.5203 95.87 -7.50787
-12.8187 95.4369 -9.82211
6.90704 133.432 -7.41379
1.25102 153.312 -2.52216
5.36873 126.787 -8.99043
3.15242 146.666 -3.21517
-31.6748 105.94 7.46993
-32.1185 102.688 6.02562
-29.7581 132.2 -2.91943
-20.424 150.526 0.654833
-22.7292 99.6138 7.57696
0.363148 126.354 1.78693
16.3342 137.609 -0.568545
-35.5549 108.271 4.25143
-15.5506 100.102 0.888729
-25.8033 126.405 -4.69232
-3.43812 111.401 -8.39806
-12.2183 152.887 1.04809
-15.725 140.917 -5.58647
-3.58693 131.877 2.49799
-14.1348 93.3774 -9.49686
-30.5056 135.945 -4.15501
-21.129 142.355 4.93057
-24.7192 86.43 -6.65259
-13.1561 151.159 1.39108
4.537 129.565 6.4534
-5.08045 112.982 2.80273
-20.4384 88.6683 -6.17662
8.08769 143.342 4.80223
-26.1819 140.389 -4.46038
-30.7496 131.188 0.931695
19.5434 132.528 3.03223
-14.4237 110.819 4.97837
-18.9429 119.692 -4.49555
-20.3703 132.532 -3.89826
5.89125 154.161 -1.58295
8.70723 121.988 -1.698
-4.0485 143.019 -2.25416
9.75541 147.792 -2.77044
5.29625 125.334 5.6929
14.7351 126.329 -1.78088
-41.0932 96.0859 -3.70193
-15.5618 127.431 -1.80634
-31.0654 92.3304 -5.33327
-15.5044 107.171 0.746704
5.05481 155.311 -1.37635
-32.3518 99.1538 4.58445
-24.4614 122.23 -5.11109
-29.7316 85.9177 -5.69478
-19.3556 142.823 4.99199
-0.357154 119.035 -7.16457
-14.6167 91.159 -9.35586
-26.5094 136.236 -4.9365
-9.20432 123.57 3.79582
-33.7016 87.259 -6.08163
-22.2835 94.1332 6.14135
-37.347 134.406 0.665553
-27.0188 85.3112 -6.31639
15.3879 144.236 4.44935
-10.0191 138.01 -4.00585
-21.0137 133.121 -3.55465
-2.505 143.838 2.24123
-21.7581 96.6834 7.61432
-20.8787 143.234 -3.23278
7.8468 124.052 1.42572
-12.1275 113.685 1.7178
-20.164 116.091 -6.93046
-37.073 106.079 -4.77337
-13.8119 109.012 3.84802
-2.20973 143.888 2.10817
-20.63 119.209 -5.54725
-23.9739 136.172 -3.41189
-9.32761 121.176 1.92654
-38.312 102.221 -2.22009
-23.2477 130.641 -2.58794
-2.80064 110.856 -8.26842
-2.76139 123.087 0.231406
-6.22458 119.647 -0.596273
10.187 144.352 5.11689
11.1376 132.094 4.95987
-27.8669 132.022 -2.21724
-21.1956 107.999 7.98802
6.35963 145.762 -5.28709
-5.69534 136.182 -2.76607
-5.28074 141.292 -2.33976
-26.0523 126.641 10.0335
-38.3674 102.303 -1.40321
4.65235 133.392 6.48509
-17.6849 104.751 2.29727
-36.1962 132.624 4.21988
18.3078 135.167 -0.742646
-16.6634 142.222 1.68162
13.6461 144.797 1.48037
-21.8163 143.757 -3.00041
10.9775 122.315 -5.62676
-24.0784 148.819 2.03576
7.16671 130.484 5.60991
-8.7188 108.748 0.0607886
10.3886 140.716 -3.8405
-21.4834 115.623 -6.96596
-15.8928 129.658 9.63894
-8.64194 119.724 -8.3209
-33.6537 88.3384 -4.56597
-3.20263 154.24 -2.13226
-3.30502 131.305 1.5337
-37.8917 92.6343 -5.56705
10.5911 131.696 -3.78756
8.51007 126.8 -2.73101
-14.934 109.949 -9.83612
-40.392 98.9598 -3.75155
-11.64 148.602 -5.88509
-10.7053 113.065 -9.47524
-31.9702 129.805 0.806261
9.92168 120.118 -3.67276
-1.15418 140.603 -2.96981
-0.674297 126.289 -5.11962
-32.7609 116.716 4.42198
9.271 133.37 -7.12671
-33.2884 130.773 0.42064
16.1441 132.506 -2.93017
-34.1271 90.9738 5.68148
9.18084 131.431 -2.08944
15.9023 131.936 -3.15026
-28.347 131.171 -1.52505
-29.9643 128.941 -0.339833
-32.0098 130.421 2.34081
-32.3737 104.628 6.15309
-21.4779 88.1371 -5.63807
-31.7643 118.222 -5.19014
-29.7833 94.5216 -5.97643
0.758234 111.218 -7.02622
-3.71985 115.417 3.94815
0.341054 122.391 6.38556
6.85769 125.896 -3.79978
-30.5463 138.81 -2.80459
-17.5513 123.388 -3.13007
-7.20187 120.196 -7.97661
-28.7856 89.9639 7.95277
-20.1145 97.9186 -0.519897
5.07148 135.261 6.415
7.07859 122.022 -1.56289
-28.8849 145.607 3.52966
-23.6408 130.317 9.10791
5.35428 114.968 -4.59776
-15.6004 152.663 0.448809
-39.4262 86.5906 -4.62158
-25.3576 105.006 10.6799
-27.91 128.292 -2.75739
-13.3543 129.249 -1.47733
-12.8664 114.44 3.67136
-29.5783 99.4678 5.75935
-13.5908 122.001 7.77374
-26.969 94.3815 -6.6968
-11.7089 96.8187 -10.2014
-14.2276 145.086 -5.12599
-4.76133 112.876 6.43419
-30.6779 143.837 1.25066
11.4013 142.067 0.101951
-22.3111 137.672 4.01994
11.2162 134.287 4.742
-18.0005 115.328 6.92111
-35.4701 104.771 4.56159
-16.065 115.461 -5.437
-14.3076 150.464 -1.91139
-6.57369 125.032 0.831878
-36.3217 132.455 5.10627
-13.9129 102.967 2.29789
-28.8422 119.188 -6.38048
-24.3858 148.663 1.71746
0.853349 125.611 -7.18345
-40.3298 84.3994 -0.522723
-27.1312 92.5939 8.67827
-31.6046 118.494 -5.25581
-18.865 103.515 6.13156
-15.7881 144.649 -4.81051
5.31212 123.947 1.36677
-28.5445 94.8766 7.18718
2.45578 143.684 -3.88685
-6.9362 113.801 -0.446072
-25.1225 99.6431 10.0943
-15.9197 152.661 2.39188
-39.0436 92.2401 1.43647
-16.7869 118.763 -4.36124
13.46 126.559 -4.30849
-32.0757 125.778 3.44895
-24.008 94.3209 -6.38341
-39.1695 94.1224 1.09644
-15.2842 108.24 5.10477
-14.4311 149.482 -3.27064
-27.6466 108.895 -7.40583
-36.1325 137.619 5.18734
10.5729 134.585 -2.33446
-21.4456 110.342 -8.30283
-30.0714 131.981 3.68402
-34.3137 105.248 5.4964
-32.3963 94.2152 -5.11401
-26.4166 112.555 10.7628
-10.2895 135.014 6.8075
-13.9976 137.676 -5.49593
-2.61473 117.781 -6.10659
1.10156 122.016 9.46845
-24.0182 145.781 -1.0506
13.6503 148.777 2.75807
0.744202 134.739 -6.2238
10.9848 129.074 5.92738
-32.1987 101.066 5.633
18.1586 131.424 4.24728
-21.2877 135.989 5.04679
-28.7513 84.8653 -6.96941
-28.5683 99.3613 -6.67946
-17.0175 100.107 4.69221
-41.4212 95.7821 -2.86176
-14.3264 104.466 -0.105374
-34.0581 115.856 3.23617
-17.4534 100.293 3.18595
-29.954 105.288 8.35237
15.2046 137.581 -1.38963
-0.482784 128.928 -4.90531
-7.73652 153.061 -3.61867
-3.35667 121.077 -6.08725
-29.2012 125.185 7.23111
11.1453 148.164 -0.347816
16.4304 142.117 1.21131
9.38012 148.165 2.72588
-38.6294 87.6669 -2.48413
-20.1909 95.2822 1.54251
-20.2645 100.654 6.1061
-21.8122 103.735 9.1924
-32.2404 89.9397 7.24041
-17.4091 106.104 4.41851
8.92343 145.751 -4.91194
-26.5661 88.023 2.94288
11.9164 127.188 -5.63846
-29.9442 117.911 8.85492
-10.9106 145.122 -5.73517
8.08297 129.693 -5.14408
-25.6767 113.856 -6.71105
5.94238 143.887 1.52714
-26.0197 87.2256 -5.13321
-29.4374 136.472 6.47221
-34.4111 110.308 -5.70365
-29.3089 131.037 2.71773
-20.0928 99.394 -6.55809
-14.2626 148.813 -4.03127
-15.4083 138.523 -5.28281
-25.588 132.614 7.17841
-32.1445 113.068 -4.98455
8.03069 120.726 -2.03323
-31.6137 129.146 2.00102
-27.0522 136.485 -5.01427
-36.8347 133.852 1.65631
-19.3756 139.487 -3.47642
-18.0655 106.611 7.24881
-22.6232 96.4146 -6.41637
-23.4451 139.753 4.80067
-27.7038 135.289 -4.20717
-35.6201 90.9439 -5.23007
-32.051 116.966 5.7541
-30.9243 130.367 -0.210223
11.3308 129.997 5.55425
-25.4537 90.1657 -5.92921
-17.1179 99.9219 2.59293
-22.9073 96.9249 9.35887
13.9546 130.277 -4.52136
-22.4603 107.776 8.79715
7.19481 128.488 -2.97152
-9.94274 105.279 -9.89111
-4.09006 147.746 -4.17905
-27.3021 103.567 -7.32623
-31.9076 136.901 6.00009
-6.47421 127.746 -5.04926
-31.5345 129.455 -0.292267
-4.9856 130.625 2.99651
-6.16445 144.656 -3.90505
-3.18423 114.93 -6.64409
-5.10733 110.262 -8.88546
12.2443 148.123 3.85153
-38.104 93.4699 -5.65529
-31.5986 130.281 0.044369
-32.0714 105.145 -6.37391
-32.8686 98.0457 -5.88587
-30.2615 128.317 5.15021
0.954089 126.007 8.02607
-29.5373 100.797 -7.05693
-28.8434 144.91 4.01252
2.21553 143.209 0.676049
13.3779 136.208 -2.73196
-5.8821 110.269 6.28113
-22.4431 99.8912 8.15691
-33.8645 136.57 -2.87022
-6.41943 133.442 5.07855
-36.4215 138.464 3.28943
0.846205 125.208 4.89598
-10.1414 131.381 -1.77399
4.57058 141.159 -6.49798
-36.3724 99.9327 1.04149
6.40027 143.979 1.97217
-37.4775 84.3243 3.08214
-38.8872 133.704 0.893329
-30.6775 117.059 8.24302
-19.8023 95.6262 2.63538
5.30369 122.915 6.90416
-34.0233 108.605 5.549
12.8099 147.565 1.65625
