ply
format ascii 1.0
comment Created by Open3D
element vertex 1659
property double x
property double y
property double z
end_header
10.2427 116.67 0.801163
-17.1049 136.743 7.14305
6.0113 114.136 2.14897
19.5072 131.505 3.45985
1.37527 90.1459 -0.411125
-15.3461 124.112 8.80531
10.1581 153.523 1.21406
-17.9537 124.803 9.5924
2.22176 144.328 -3.52708
-3.29436 82.7496 4.99473
-1.60615 89.671 -8.33735
15.0938 146.013 2.56886
11.9098 145.69 0.539664
4.28837 99.9848 -1.96369
3.24675 145.397 -3.81773
10.0077 119.731 -3.34812
0.143542 143.27 -2.60117
-11.6288 104.481 3.06197
-13.0426 145.594 -1.52462
1.50989 138.824 -5.61425
-1.11164 82.3254 -0.944684
8.23968 142.963 -5.91985
5.99136 124.103 -6.39233
9.67751 123.716 2.44355
21.0197 126.716 2.42281
8.17336 145.413 3.65799
-8.66818 132.546 -2.10727
1.58815 111.383 -6.74774
-9.23965 94.7986 9.30375
-11.8322 77.7794 4.43265
-1.47372 98.7841 8.53775
-13.621 90.1536 6.37674
-11.8038 124.932 7.57817
5.00928 112.528 1.59621
-17.3652 128.27 9.65536
-0.887384 105.872 9.54097
-15.3113 102.104 5.9323
-2.88905 125.877 -0.260615
-2.27556 78.3138 -5.53231
2.57261 107.505 -6.25965
-14.2635 146.032 -1.1942
-8.89609 122.626 2.6597
10.1086 132.339 -2.78047
-16.949 137.499 3.78241
9.19354 154.165 0.647773
6.32999 126.246 0.870195
20.8089 121.529 1.32725
-1.51838 112.619 10.4823
1.29691 98.1978 6.74434
6.71491 123.843 -3.04215
-11.5898 144.989 -1.80667
9.83346 123.623 5.06155
5.98543 109.328 -5.50314
0.319963 108.967 9.17248
-2.20296 99.1955 8.9611
5.23398 111.411 6.64921
-7.58418 75.5369 -9.29594
9.51237 131.403 -3.68314
-10.9871 141.501 -4.3738
-14.6918 100.4 7.17818
4.87219 128.065 6.8418
-8.7736 105.983 -10.3384
8.26972 121.04 -1.79722
-12.1571 153.151 0.46236
14.0924 122.899 6.54024
-2.62877 123.435 0.268032
4.59015 145.164 0.905919
-7.98256 109.947 0.342323
7.79808 126.554 -1.69281
-8.60455 83.2106 -10.5093
-4.15919 84.0249 -8.72948
-6.74039 121.556 -7.80958
-4.87453 150.033 -4.75748
-13.6204 149.893 -3.93019
6.91004 123.903 -4.87875
3.12767 114.59 -7.9929
-13.0384 116.852 6.38815
11.7581 122.466 6.10073
1.6026 128.963 6.876
-14.7571 145.335 -1.0566
19.6429 127.367 2.92012
1.13451 126.344 4.77908
8.33938 120.124 -0.32083
-10.0282 143.06 -4.8623
-10.5309 97.7627 -10.2603
9.772 134.002 -6.6059
-2.82461 114.106 10.0041
4.94133 145.724 1.0356
-4.55757 112.045 -8.14927
-3.27698 116.202 4.44559
9.11994 129.157 4.4719
-5.41466 105.38 10.3406
-3.62146 84.8165 -8.7654
-11.319 143.571 0.862904
7.295 126.891 -4.23874
10.0539 127.523 4.776
-0.758467 99.1464 8.31561
3.34717 130.388 -7.78682
6.83495 138.751 5.38579
-0.440496 84.0529 -1.58994
4.56525 112.585 -7.60182
5.6264 106.402 -2.81472
3.71974 97.9504 -1.91995
-12.2085 121.894 7.2233
9.99599 146.985 -2.40295
-1.27227 128.839 -4.73403
7.66469 128.771 5.01343
14.8573 129.609 -3.69564
10.3962 137.695 5.24177
7.14717 120.363 -2.38629
2.53054 94.4077 -2.61672
11.7301 136.333 -1.92798
-0.870696 84.9462 3.30762
-6.5892 102.098 10.3813
14.4602 134.648 -3.2509
-11.9438 101.179 7.68574
-0.779127 121.285 4.19699
1.46954 126.577 8.0473
-11.1592 105.202 6.14504
1.68926 90.8033 -1.44612
4.65441 116.957 5.74555
-0.806299 105.784 9.51649
-2.47785 111.849 -7.73094
2.32575 108.873 8.48663
13.8318 143.719 1.44744
-2.55051 81.8597 -7.58981
1.24894 113.722 -6.50988
-10.7391 138.375 6.36313
12.877 132.532 -3.69329
7.18037 126.488 -1.31996
7.35203 119.292 3.61866
-1.75691 78.2524 -2.57732
9.71699 121.089 2.8265
-15.5457 146.397 0.681055
-8.20971 152.189 -4.355
10.8637 139.789 4.92608
13.3001 148.503 3.44941
-18.1899 129.075 9.96658
15.2235 125.613 5.03516
9.47549 130.975 -2.08794
19.5295 131.603 3.19995
-16.5235 151.575 0.828355
2.85272 99.9404 1.66594
-13.7004 96.6357 5.67318
-6.47212 95.9024 9.74057
-8.51084 117.713 -0.268131
9.66984 119.309 -1.79416
6.11517 143.909 -5.8934
4.82537 121.762 -8.50099
-11.4636 95.6757 8.28016
17.0704 127.123 4.2988
0.337452 108.147 8.80748
-0.0218291 153.245 -2.62764
18.8812 124.19 2.04053
-1.17868 118.41 9.52564
7.7736 126.167 -5.7649
-8.02308 108.591 -10.8836
18.9099 135.717 1.40206
19.7473 131.419 2.41811
-9.1652 145.63 -5.54366
9.50711 143.921 5.17248
8.06503 122.377 2.84906
8.39224 142.336 -6.04362
4.43413 101.045 -1.25374
-1.81217 111.886 10.3139
-5.66867 108.938 -9.36174
13.0367 122.659 -3.60491
-15.4686 146.31 0.50577
5.16974 118.418 -9.12265
6.47876 139.366 3.62197
6.02674 121.974 -8.27374
8.70532 128.486 -4.61313
-8.48605 145.163 -2.0417
-7.1275 129.777 -3.67878
13.0253 126.419 -4.80334
3.93137 135.166 4.83527
-13.2804 89.3898 7.13715
14.5173 144.41 4.77451
-0.375908 124.854 1.71255
-4.87344 116.211 -6.92848
-1.05369 114.959 10.2727
8.71432 144.71 -5.25541
-17.4586 130.787 9.52657
5.21761 104.207 -3.5967
12.6724 127.406 6.14379
-8.27026 100.546 9.81939
17.5294 136.319 -0.87201
-3.10411 104.715 -9.2359
-12.235 99.7977 7.29264
18.6873 135.936 3.73932
-3.16384 89.0593 -9.26858
-13.5393 102.401 6.5419
20.4769 125.145 0.547791
14.6453 145.382 4.353
12.1374 137.167 4.84787
4.04837 121.303 8.25226
-9.61722 101.817 -10.1481
-7.29918 138.247 4.84258
11.6526 126.261 6.40244
2.26213 140.262 0.324298
6.96723 123.883 5.18244
-10.4059 105.123 3.59774
7.71918 143.004 -6.32394
-7.00336 126.892 -5.27827
10.8161 133.941 4.90129
9.7107 145.669 -4.10736
1.30653 91.5159 0.937023
-6.07479 108.166 8.52759
8.00755 125.033 -1.42853
7.81654 152.276 1.44388
9.58139 149.815 2.53515
1.56695 95.0042 5.23678
-12.5753 90.6206 7.6097
-3.3079 116.323 5.70278
5.80738 124.539 -1.54175
-10.8776 144.328 0.0392407
-5.78626 91.1327 8.22882
-8.16423 111.68 -0.679112
-3.18758 131.288 1.54307
-11.8692 145.429 -5.76935
-15.2167 120.407 8.20249
7.24815 125.735 -8.04011
-10.5121 124.827 6.75082
6.64412 126.494 1.80565
-4.2556 124.101 -6.27701
-8.40601 139.788 5.39725
2.30945 148.05 0.320551
8.39718 127.271 -3.402
6.34373 111.031 -1.20829
2.55875 116.768 9.52024
-1.45795 99.8967 -9.65319
-5.92589 105.055 -10.7844
-14.1947 136.135 -5.37535
-7.69313 91.5605 8.63197
9.15604 124.754 -4.91905
-9.51172 102.542 8.68992
-1.66967 82.3673 -4.05151
0.123354 86.6006 -4.0053
-14.1615 147.982 -0.299615
6.38998 130.645 -8.07535
-1.33673 129.696 0.0181407
-11.4843 143.38 -5.66275
1.46132 94.1853 3.759
-7.98939 153.629 -2.55746
3.17932 136.543 0.618154
5.1138 110.672 5.97896
-8.12577 144.523 -4.49305
-12.8402 95.8962 7.00335
11.0625 118.224 -3.54037
0.987975 102.731 8.14367
3.05603 104.947 -6.74558
-7.89327 99.5249 9.82152
-4.80166 106.621 10.0906
-12.6146 78.2001 4.26769
2.15437 107.373 8.20819
6.01668 111.542 -0.643949
8.28916 134.662 -7.45251
9.59857 144.937 -4.72139
-0.40229 120.84 6.96644
8.89398 120.058 2.74462
8.20253 122.215 -3.42023
-3.24026 79.017 3.03022
-4.59387 89.615 7.5986
17.5609 126.864 4.12678
4.68682 115.952 -2.21825
-4.0805 107.486 -9.19931
10.4358 149.27 -0.753449
-10.9741 124.289 6.93158
-12.4396 92.924 6.14693
3.27038 112.878 8.86618
-10.5673 92.6875 8.5564
6.82021 125.94 -3.64433
-17.6111 150.635 3.9894
-16.4028 149.341 4.18143
2.73106 133.089 4.5088
12.4889 121.406 -4.09497
-14.3959 120.189 7.97471
-3.66825 113 -7.69014
0.93017 128.44 -7.22628
-4.01488 91.8862 -10.0817
-13.8975 100.816 6.95576
10.7398 152.15 1.66974
-12.0992 130.529 -1.2783
7.03614 133.55 6.52623
-9.30155 148.812 -5.96137
-13.1933 104.701 -0.314346
-10.3711 120.619 -7.44686
-0.768094 135.675 -4.97551
-14.2051 129.17 9.1161
13.5319 124.118 -2.54343
3.06136 100.42 1.40085
-4.14382 128.181 0.465909
-6.97183 112.811 0.0189907
-7.72485 90.5557 7.97409
-4.57998 138.876 3.56338
7.72716 126.892 -4.42009
-4.91118 113.311 -7.604
0.175762 133.096 0.0652974
-13.0553 98.8791 7.86681
-8.50311 98.5986 8.8977
-3.45063 150.331 -4.52728
-3.83552 84.6989 -8.81776
-12.0693 108.088 -0.683045
4.54768 132.578 6.37053
6.63269 135.737 6.45614
12.4464 133.336 -3.28831
-10.0217 115.098 -0.24156
4.4351 146.303 -4.2186
9.69794 150.297 2.58643
16.3007 137.023 5.35262
8.33758 129.168 -1.28689
-4.74504 144.397 -3.21223
-14.5336 145.377 -1.11022
-7.35975 101.115 -10.7724
7.16703 126.374 -7.84978
-8.29341 95.9872 -10.0802
-8.78133 106.751 1.95848
6.716 146.395 1.76322
5.25596 104.749 -4.4123
-1.45308 113.982 10.4047
-13.9309 149.076 0.367682
-14.8947 151.779 2.71601
-12.8468 125.594 -2.73705
3.10377 100.147 4.23511
-2.05786 135.791 1.93091
-13.6472 104.904 0.0898517
-4.81169 99.1514 9.39124
-5.11997 109.853 9.94963
4.27258 128.328 7.12273
-12.2215 151.242 0.700897
-13.8128 115.749 6.74914
5.73068 126.429 -2.03968
-9.22878 125.674 -4.51143
16.9934 138.651 4.68013
-13.416 145.353 -1.37604
-3.56299 88.0982 -9.19996
-15.6153 144.955 0.0217747
17.1398 128.144 -0.531747
0.344527 139.135 1.07814
-3.28366 106.506 -9.03068
2.55728 117.057 9.54473
5.15805 145.285 0.96221
4.86542 144.255 0.86968
8.18443 118.888 2.13289
-2.42797 74.7163 -4.15346
4.65235 105.238 0.499398
-6.97788 83.8072 5.96868
-15.1445 142.271 0.595451
0.7496 97.3591 6.97716
-8.84919 96.5872 8.97261
-9.69792 111.477 -0.820653
-7.54165 109.516 -10.5458
6.12531 126 0.281064
-4.88885 117.196 0.113827
-10.3702 99.7766 -10.0066
-14.2609 148.133 -0.152075
13.941 126.231 -2.64468
8.61582 128.653 -4.41337
-2.69604 124.719 -5.88431
4.41221 128.462 6.97117
-15.0657 152.666 1.53458
5.37349 121.784 -5.70492
9.59224 127.423 4.5116
-11.9738 105.819 -0.051155
-14.3076 95.6775 4.0544
-15.3244 108.111 5.38757
15.1816 142.162 1.00604
6.06026 124.051 5.87794
-4.23279 135.171 -2.95453
6.8216 125.16 5.27733
-15.9256 148.147 1.75788
-4.28367 106.926 10.0714
-5.44493 143.612 -3.32813
11.2643 142.58 0.0368766
6.74018 123.482 5.62084
7.89058 128.362 -2.57516
16.614 137.86 -0.276754
3.16441 127.412 7.59301
9.93723 127.119 -5.36156
10.7748 147.243 -1.73884
-4.65977 96.608 -9.52425
16.5088 129.295 4.9303
18.4872 128.804 3.41164
-6.70762 108.133 -10.5192
17.2591 137.459 -0.295049
7.83977 119.317 3.29513
-6.77768 138.356 4.60273
-6.75043 141.565 -3.31383
9.03946 127.028 3.24255
10.351 137.32 5.22852
6.63798 148.737 -4.13223
-7.93652 154.72 -0.405537
3.52429 101.667 4.92829
8.51652 123.631 -2.80914
0.178734 125.288 2.17687
-13.6306 128.825 -1.53241
-12.0903 147.425 -5.74255
9.27276 125.701 3.67815
16.8929 127.969 4.47622
5.53161 110.923 3.9482
15.494 117.445 5.70751
-7.27248 95.3121 9.76319
0.524204 96.7859 -7.06973
2.35667 154.128 -1.94403
3.16243 134.519 2.31753
6.94824 149.641 -3.91755
-8.46976 154.487 -0.677419
-15.3625 99.3198 6.00657
-4.92513 94.7719 -9.98933
16.5576 141.998 1.23615
13.6814 124.284 -2.06792
5.21928 116.372 -6.47272
3.63068 148.536 -2.95788
-10.4332 153.163 0.0064603
9.70582 119.881 3.13244
-15.9262 140.365 1.16056
13.1126 143.38 1.36904
-7.21671 94.8551 9.6415
-7.38343 95.4029 -9.96294
8.96017 131.48 -6.6644
8.02589 154.995 1.47634
1.42014 90.5687 -4.75863
11.0794 116.487 2.30755
-7.72806 101.436 9.90936
-0.0466553 91.3483 -7.2857
4.50806 117.297 5.47313
2.81903 115.993 9.35917
3.97666 148.364 1.40088
20.4433 128.878 0.707313
1.35151 92.6526 -6.32956
-2.44756 107.038 9.81695
1.27773 93.4426 3.10286
-7.89259 110.571 0.144342
-4.1074 74.856 0.34657
1.66066 103.019 7.83618
9.27077 123.45 3.69192
-10.8039 141.237 2.07398
-0.422862 90.5445 5.65735
0.00863395 141.559 -3.16289
-14.6875 138.087 4.67072
3.42689 149.307 0.603503
-3.59029 84.6555 -8.72687
5.72859 128.68 -8.66427
2.63985 98.9554 3.13092
-0.84693 106.733 9.50361
9.76534 120.462 -4.14827
-16.5089 117.386 7.48424
-14.4145 98.2518 5.23287
-8.51575 99.4774 9.26465
-3.28694 74.678 -1.656
1.72553 130.794 1.29138
-3.34323 119.964 0.618128
0.591138 92.8653 5.63014
-10.345 115.971 0.118765
-12.6536 141.174 2.46785
-16.7289 141.308 2.39589
11.9682 130.617 -4.85179
-11.0197 145.698 -5.81561
9.76937 137.998 -4.7217
15.492 144.892 4.22302
-6.35559 110.495 -9.36718
3.14084 96.4176 -0.64345
-9.31381 142.398 -4.15305
-6.07819 109.821 6.26891
3.31823 99.6355 0.544475
2.57038 138.894 -6.42905
6.78082 125.277 1.44802
17.6479 123.115 5.80529
12.2644 127.986 -5.45211
-5.7606 95.9408 9.65816
1.44336 94.3514 2.56195
5.03461 116.882 -3.54009
-12.6872 127.751 -1.98807
11.0974 116.111 0.438526
-3.86517 151.816 -4.27299
-3.0371 146.531 -3.20856
-0.616371 120.274 8.86733
-4.29821 114.154 5.28273
-1.38516 136.599 1.39447
2.54109 99.7875 -6.76109
-9.50886 89.1019 -10.2028
1.1038 102.182 7.9306
-11.0055 111.359 -0.640165
4.20709 136.262 -6.98999
-3.3708 145.798 0.77739
-3.31229 104.559 -9.42996
1.50116 129.768 4.74487
-5.83673 126.673 -6.61887
8.28377 122.454 -2.75674
18.3793 130.954 0.0981916
0.683394 124.971 6.69331
-3.1165 154.205 -2.15045
17.8275 131.907 -1.11277
-11.5239 118.715 5.39159
-12.7328 152.022 -2.74164
3.47526 120.026 8.7585
8.38028 120.278 -0.666663
-2.56646 142.184 2.63338
-7.03858 129.099 4.12469
-7.06873 94.7767 -10.0139
2.698 119.997 -7.91939
16.4069 138.533 0.00490237
13.2534 141.418 5.80372
9.08944 118.848 0.374703
-5.19808 91.1414 -10.6273
9.90725 129.491 -1.33526
5.91868 119.534 -8.32429
1.10679 113.986 -6.65785
-7.37667 134.889 -2.38132
-14.3339 144.48 0.056906
6.03397 108.719 -0.370571
8.80286 137.728 -6.29076
11.0681 144.118 -0.0629214
-4.7436 125.984 0.102694
-9.37645 120.906 2.20933
-12.5433 104.558 4.98987
-10.1057 105.134 2.45244
-9.78006 144.448 -5.35628
7.21573 144.921 2.82008
-5.75625 154.519 -0.66165
0.397353 88.0997 3.12101
6.13403 115.174 -0.633263
-8.97276 111.441 -0.775668
1.22252 138.163 -5.64485
6.50819 119.924 -7.62487
18.8741 135.668 1.67121
-6.66527 123.574 -7.25185
1.93936 105.807 -6.74092
-12.7984 130.402 8.3158
13.54 121.78 5.95069
3.87809 114.127 -0.614083
4.14177 134.623 6.13449
-5.51935 98.7602 -10.4354
3.88316 129.211 7.05211
3.95589 135.431 3.66967
1.71947 129.071 -7.80533
1.18653 133.918 -7.0026
1.29277 92.2499 1.40993
12.1554 131.489 -3.74987
9.7658 116.606 -0.214216
-8.16708 144.844 -1.56999
8.88165 122.193 3.09187
16.7041 132.513 -2.24969
20.6054 120.452 2.9593
-4.39536 106.312 10.105
-7.36911 117.76 -7.96444
5.05093 136.895 4.80005
15.5064 129.807 5.25825
-1.21487 112.63 10.4015
-5.2726 144.026 -3.38129
-0.272717 84.3694 -1.33976
-14.8145 152.137 2.61222
-8.85971 99.1855 8.82581
-0.561773 120.792 6.33368
-11.2648 91.9585 8.08741
-0.748726 123.507 1.99403
3.93931 108.858 -6.80933
15.5072 122.256 6.38678
10.9919 116.339 0.378616
-14.7931 152.084 2.60091
5.98267 118.158 -7.52864
12.8988 128.611 5.80326
-15.6123 128.171 9.57596
8.24017 126.77 3.68358
0.911162 91.707 3.73788
4.409 115.588 7.96035
15.2133 119.743 5.73084
-3.83061 104.661 -9.79103
11.3627 150.061 2.81553
-1.71016 88.5671 -8.23408
8.411 123.4 2.2151
-6.63411 83.139 5.65284
0.246019 128.149 -6.43798
10.4019 146.681 -1.97957
8.1477 127.137 3.76864
-5.23614 134.146 4.1904
12.2701 122.463 -4.69136
-7.8431 123.32 1.28589
-1.53678 90.2612 -8.32198
-14.3787 141.77 -5.78864
-15.3107 148.362 -2.08028
-13.7743 139.353 -5.01814
13.8819 116.914 3.4464
-2.2799 110.662 10.1337
4.99984 115.733 -8.93526
-6.42612 96.1294 -9.79402
-3.6163 126.385 -5.78648
-10.3188 144.3 -1.30591
-2.67971 128.41 -5.403
-12.2734 145.974 -5.76222
7.4882 128.458 5.38161
-8.41613 146.921 -5.68067
14.0659 141.206 5.73129
-1.68856 108.252 -7.45894
-11.0044 104.676 2.367
-16.6807 148.186 4.15114
-14.6813 115.909 7.00349
4.10034 117.431 -8.51518
1.03501 101.531 -8.1996
-12.6504 130.058 -1.34877
-6.20592 138.044 -1.11459
-8.06724 142.275 0.900691
-10.3373 94.6084 8.98213
8.64396 125.958 -2.42043
2.05131 140.859 0.555239
9.19626 117.728 -1.26036
-6.15077 99.1481 -10.59
-14.9084 140.925 1.41111
7.19701 125.056 -7.09296
-0.225423 106.662 -7.23329
0.462581 143.546 -2.6656
-15.372 145.813 -0.196859
6.02577 108.576 -4.55162
-13.0364 149.263 -4.75752
1.48347 146.554 -2.61468
-7.82864 113.739 -9.30599
15.4982 139.747 -0.254687
-14.3612 135.346 7.73508
-1.11296 118.147 9.71776
20.3487 123.434 4.25239
18.5371 134.022 -0.677371
-9.46588 82.2465 5.2701
9.40682 154.061 1.39405
4.56601 109.23 6.90952
-12.3037 113.3 2.76607
-9.13302 110.527 -10.6266
-12.9605 151.097 -3.55881
-11.716 117.963 -8.14869
-9.06481 77.6407 4.47446
-10.0739 83.1161 5.73811
-8.47356 111.101 -0.740267
0.847629 89.634 2.17319
4.74897 103.108 -5.27769
-2.66671 120.012 1.21003
11.2518 146.949 4.18213
20.9276 121.558 1.18501
-14.4785 96.895 4.25097
0.887372 96.7343 6.57609
9.95171 126.885 -5.50241
-4.87834 108.008 10.3797
-2.97637 138.048 -3.24209
10.4904 126.934 -5.38571
-9.04459 137.064 -2.45449
-11.1494 105.023 4.61779
-2.77562 145.456 -2.57853
7.90397 126.803 -0.521776
-2.35722 123.694 0.288965
3.81642 137.973 0.945026
5.03748 104.873 -1.63396
1.64822 90.3629 -1.63847
-6.09397 104.994 10.4433
4.49496 103.72 -0.38575
4.14072 117.373 7.63248
-12.7749 88.7772 7.23384
-11.8795 115.22 -8.87127
6.21423 109.243 -4.05318
-6.73429 128.488 -4.46559
1.62137 103.535 7.99683
-6.2186 100.324 9.74519
-5.1067 76.5637 -7.45053
-0.627725 109.65 9.52887
8.70606 135.058 -7.46155
13.7325 122.824 6.48623
-13.9418 87.4557 6.40429
8.28829 118.131 -3.97443
14.9544 121.76 -1.55936
-15.2482 148.217 -3.03684
7.14756 125.059 -6.95197
8.7319 127.023 -2.03999
14.2328 116.169 3.148
8.78168 125.897 -5.00208
-11.7323 116.741 3.41159
0.224298 96.0279 -7.14008
-12.0701 92.7774 6.65552
6.11146 127.329 6.28182
5.42583 151.254 -2.89225
1.32496 127.227 4.09459
2.81998 114.934 -8.29747
0.280278 152.098 -3.37584
6.13275 108.601 -4.00095
-6.83302 144.942 -4.1504
-1.67979 81.639 -2.43194
1.26766 110.713 9.21192
8.36221 126.712 -2.54039
-5.27999 154.378 -1.13883
7.12691 120.992 0.414455
-16.1038 144.065 1.0168
-4.31841 144.614 2.34239
17.3416 143.123 2.74289
10.2997 153.364 1.24899
-2.62273 128.392 -5.36558
13.3454 132.078 -4.74722
-3.22114 117.563 2.01765
19.743 131.307 0.70169
-3.53366 147.147 -3.68807
-11.8394 101.685 7.90043
-5.06638 123.841 -6.41578
1.94251 97.4929 -6.02911
13.3902 134.538 4.97842
-14.0726 138.56 3.7967
5.36706 117.436 -8.68187
-5.32016 132.276 4.20786
-8.93573 80.062 -10.4964
-1.21092 83.8902 3.0102
-7.60398 102.902 9.48698
3.88919 134.751 -7.0293
-7.27614 130.388 5.15414
8.35819 122.145 -3.57964
-12.9101 103.956 3.13941
9.33741 122.427 3.28136
-2.29719 95.6241 -9.47608
6.96709 125.893 -8.59498
-2.38041 78.7448 -5.74523
9.99365 120.148 -3.96285
-5.50781 99.4275 9.38697
9.6048 153.951 0.934074
-7.16201 82.6007 5.59581
-16.7024 137.513 5.70563
-10.3986 140.007 5.21598
10.0321 119.668 3.81615
-1.40291 121.765 -5.72255
-3.79236 122.469 -6.50497
-15.0279 128.152 9.34668
8.77463 126.977 0.367615
8.91784 136.527 -6.80603
-7.37818 148.325 -5.65369
-14.373 138.403 5.40263
16.2897 124.496 4.46204
1.99679 92.2008 -1.78026
19.7674 125.9 2.95599
17.4521 122.133 0.831052
14.7619 123.948 5.68526
-9.13398 92.9709 -10.2943
-15.4796 129.884 9.77758
-6.25895 105.472 10.3675
-7.59534 80.2346 4.94563
-9.68738 98.9448 -10.6604
-12.605 92.9563 5.86077
-3.94877 110.956 -8.389
6.11338 110.159 -2.66009
1.27713 123.195 -6.76217
-14.4686 120.741 8.13202
9.23029 129.849 -3.86344
-0.961967 140.592 -3.16933
13.8615 146.512 1.56133
1.77427 93.1347 0.875809
-7.13177 80.9778 5.10161
-9.69092 116.022 -0.171863
-6.67432 117.555 -0.582445
20.6855 126.317 0.568701
9.77995 128.024 -2.22772
2.50143 98.5607 2.80169
-13.6378 120.77 -4.22509
-13.1306 83.8906 5.80159
-0.587654 93.1067 6.58996
-13.4512 148.357 -4.98571
-6.62327 154.203 -0.841522
-15.5843 145.601 0.485823
13.5959 126.591 -4.06289
-5.74568 119.87 -0.504666
17.4806 122.323 6.03167
7.19232 120.402 4.48332
2.94323 95.8566 -1.10896
12.018 118.506 -1.97701
17.6093 142.003 2.29339
-10.26 105.788 7.72128
9.23997 119.212 -2.53496
10.2675 120.588 4.36226
-10.9298 92.9107 7.87043
7.24922 120.361 1.58506
6.31159 113.253 -7.19147
1.18752 88.5088 -2.71581
1.59941 94.9597 -6.4323
0.0775369 95.2057 -7.08505
0.0522095 136.233 1.25076
1.60921 93.1111 1.37308
-14.0955 108.188 2.371
-9.69784 87.1155 -9.41292
-0.470594 118.971 9.67935
-4.93537 102.074 10.0121
5.38609 125.577 -8.92858
7.93944 118.585 -0.018639
-0.196957 123.058 3.57111
-7.38939 137.047 -1.21796
5.11747 144.534 0.89689
-2.71298 85.8706 5.41035
1.97131 116.673 9.88895
-12.5417 101.083 7.09666
-2.77139 97.1742 8.45173
-9.26091 131.234 -2.16966
8.32488 119.375 -4.14516
8.52934 122.201 2.88221
-8.80168 124.08 3.56418
-3.22936 75.6826 -0.408117
-8.26895 108.372 -10.9858
-3.48071 88.7171 -9.37004
5.38406 128.674 6.28064
20.626 129.732 1.95476
5.57209 125.755 -0.577973
-7.39385 152.57 -4.18091
3.11425 101.375 1.82777
8.45864 149.914 -4.10974
14.3948 131.882 -4.44172
-11.7709 139.665 4.76653
-16.8028 123.307 9.2469
13.8529 147.043 1.58147
13.4052 115.179 2.62243
-2.21209 109.153 10.0737
15.1668 134.372 -2.97676
-0.523612 126.995 -5.07426
-1.62158 100.913 -9.74965
2.67847 142.661 0.515663
-0.862801 91.1344 -7.86113
7.71692 126.706 0.092108
4.4498 106.037 5.00412
-8.74791 100.097 -10.6708
7.11566 139.533 5.01998
6.54508 150.147 -3.5532
9.60853 148.553 -3.43877
-0.579978 119.005 9.62895
-6.5465 101.702 10.2856
10.8619 133.985 -3.75721
8.11142 134.699 5.47654
-12.139 87.6433 7.09663
-12.0495 122.19 7.16878
3.73729 100.518 -5.87529
14.6595 139.639 5.79597
-4.90512 91.5958 8.26582
-12.687 114.282 3.69446
0.67631 88.9038 2.46399
-7.2438 144.93 -4.26502
-9.26734 86.6736 7.26516
17.7228 138.271 0.44624
18.1082 135.644 -0.692532
4.67429 140.322 1.24732
11.041 150.891 2.026
-14.4153 149.865 -2.10336
12.0532 138.301 4.83384
-2.98549 133.556 2.95267
-7.49452 132.848 -2.81377
19.7372 124.596 2.56755
-8.23107 126.32 3.75608
18.4122 138.393 1.07292
3.23378 126.007 7.4951
2.79159 128.011 -8.24755
20.4197 124.978 1.54199
-6.3379 129.232 3.50334
4.41889 104.45 3.45604
-9.22207 78.9109 4.62808
-1.20708 80.6168 0.409766
3.15657 112.334 -7.75821
-4.75765 133.972 3.80556
-5.66171 128.079 1.98419
5.65974 128.158 6.36563
-9.86534 106.236 7.50289
-10.5656 138.012 -4.49227
-8.79725 102.037 -10.68
6.75479 123.243 -2.47898
11.4203 135.834 4.65541
0.662829 134.117 -6.37911
14.0677 122.302 6.23747
-2.14258 118.769 3.50508
9.06512 146.016 -4.80722
0.28107 87.1503 -5.22811
3.18178 97.6833 0.533727
1.41792 138.176 0.393757
-12.7205 92.0053 6.34129
-0.93855 81.8025 0.901485
-1.08218 133.61 0.85218
-11.342 153.875 -2.37067
6.13168 122.479 2.41968
-11.4475 111.056 -0.538395
-5.20122 114.162 -7.47879
-2.57524 103.486 -9.14709
5.07288 149.686 1.26769
-3.31039 123.461 0.0469024
-6.62205 88.4506 7.40467
-13.4785 108.616 0.962984
-0.523364 88.2951 4.99097
11.2866 140.239 0.026457
-17.2249 146.807 2.68175
-9.83691 100.913 -10.1801
20.7055 121.818 4.2801
6.30729 119.98 -3.9322
1.14182 137.633 -5.83836
-10.89 119.101 4.37979
16.6072 133.724 4.94028
-4.06871 110.957 -8.40213
-9.09328 140.419 5.38088
-4.03306 114.718 5.31487
11.9726 142.944 0.780489
-13.1259 98.4889 7.78061
7.99699 129.393 -5.56494
-11.8468 135.605 -3.14645
9.10944 133.239 -7.42686
-10.0031 128.727 -2.72424
-11.7706 95.3778 8.23071
8.00137 126.651 -6.48785
-2.67535 150.833 -4.32086
7.76515 135.681 -7.45483
-13.9405 111.505 5.1217
1.47697 127.718 3.03447
17.4884 120.272 -0.606965
-11.8172 83.6096 6.05847
9.70617 152.71 1.54974
-7.95803 94.3259 -10.2072
4.94889 102.973 -4.31515
4.97964 115.734 -8.93052
-9.60052 105.655 7.90876
14.3542 131.072 4.88686
-7.67214 97.9341 -10.5881
-10.2402 115.438 -0.0582779
5.66832 148.92 1.72819
11.3552 127.238 6.10605
-2.03146 118.794 4.93911
17.0093 141.954 1.26542
-11.01 134.711 7.4241
-10.2371 119.16 2.88264
-4.17133 114.464 -6.998
-3.22964 74.3359 -5.19068
17.6262 140.351 1.09636
-9.55875 127.279 6.2504
12.4838 147.8 4.02745
-4.37144 106.65 10.0538
18.4699 123.36 1.38472
7.75326 119.453 -2.80937
-3.87908 106.213 10.0471
2.82841 138.852 -6.60791
4.79439 109.717 -7.05645
-7.06832 135.273 5.6798
-13.6117 140.082 -4.79026
3.23142 109.767 -7.3456
9.80538 146.274 4.08758
5.88911 113.233 -5.14766
17.1841 132.932 4.66226
-2.0903 87.4982 -8.26681
15.6021 133.165 5.12663
-5.21952 110.931 9.51572
12.1309 118.307 -1.30153
-7.13274 137.454 4.86743
9.16795 117.767 -1.28211
9.52984 142.066 4.87677
-10.2027 136.668 -2.88533
-10.3405 131.217 -1.71623
3.33148 127.845 -8.40414
6.33918 112.692 -4.613
-7.39909 117.067 -0.740617
20.2186 119.435 5.95771
-9.93423 107.048 -0.690641
3.8586 126.935 7.37416
6.28028 110.986 -0.539215
9.881 117.558 -2.23345
12.5269 139.863 -0.350387
-9.89644 129.285 -2.58017
-9.84147 133.794 -1.04578
20.9825 127.116 0.889906
-14.6405 99.5736 6.33894
-10.9227 144.391 -2.26128
-9.62736 142.91 -4.56872
-12.166 125.857 7.89761
18.88 119.763 6.73879
-9.87114 130.175 -2.27858
-6.83259 113.299 -0.0779244
5.40655 122.057 -8.46761
4.51065 113.376 5.05834
-15.5597 144.395 -0.374158
10.9249 132.661 -3.57392
-12.6557 153.011 0.865424
-0.00688313 127.434 -5.91171
-8.63736 117.72 -0.212333
20.4158 127.712 0.191599
5.89732 117.959 -4.70892
1.38945 124.591 -7.65907
-10.2721 118.251 1.75166
-1.47997 82.3604 2.3665
-1.92751 122.366 1.18835
10.0148 116.748 0.0592926
-6.05038 82.4973 5.39714
-15.0187 152.797 1.01679
13.234 127.342 -4.74072
-0.800711 110.161 -6.96523
20.1057 118.838 6.16016
-1.79216 120.481 2.28229
-14.9276 132.984 8.73646
0.381515 120.081 -6.97187
6.58267 122.216 1.11365
2.29773 97.2731 1.90148
10.8733 134.34 -4.09286
-0.517626 147.673 -2.60176
9.68844 122.676 -5.31373
-7.56972 95.7188 -9.94136
-13.1338 114.613 5.17987
-11.1863 89.5578 7.76636
13.5833 133.441 -4.27366
-4.40228 97.4453 9.16454
-12.0434 152.293 -3.81717
-0.778518 83.5897 -3.71792
5.8908 117.513 -2.94138
-8.64056 154.06 -2.25385
-2.35741 146.678 -0.360981
-2.65775 75.7067 -5.02727
5.23579 115.815 -3.46796
8.6932 128.411 -0.775769
-9.32983 105.805 3.52719
3.62983 110.476 -7.39591
-4.2036 138.354 -2.6011
5.28778 115.387 -4.82998
-10.3023 145.885 -5.83538
2.31138 133.417 0.35928
6.32635 141.548 2.74648
-3.56709 114.963 8.32896
16.9472 122.344 -0.0341591
10.2303 121.491 -5.72161
20.4791 129.911 1.64119
8.85225 152.156 1.8871
19.8571 123.035 5.05493
11.7975 149.634 1.23537
5.29523 114.217 -4.29341
11.0225 146.961 4.15734
1.80895 109.333 8.76768
-8.55106 136.631 5.70169
6.66082 124.478 1.9187
8.63977 123.626 2.20283
8.12615 123.891 -4.1625
-15.4626 141.359 0.852522
1.74787 128.762 -7.87484
19.1985 128.619 0.329351
6.65412 122.773 -1.61943
-4.16466 105.504 10.185
-4.70029 118.466 0.0989037
11.8826 117.828 3.67703
1.91307 107.111 -6.50745
-12.0573 104.078 -0.60012
-7.56686 153.126 -3.4013
6.38446 109.692 -0.836659
-9.18886 127.128 -4.05014
-11.7795 131.433 7.90458
-11.1251 144.174 -2.06152
7.70279 129.132 -5.09508
-1.62175 106.265 9.76459
-12.8661 103.743 6.68324
-1.11656 90.6335 6.09122
-7.01638 112.101 0.337075
-2.12518 75.8715 -4.50478
4.99374 111.669 -6.91191
-1.0989 115.04 -6.43275
-9.62111 123.642 -6.02644
-11.5438 110.908 -9.87412
17.6 127.365 -0.713711
6.48223 112.051 -5.18094
7.46516 154.991 1.10291
-6.52027 120.569 -7.73925
8.20092 124.142 1.66859
-2.11285 82.1648 -6.48152
-14.0176 87.3051 6.35433
4.31383 126.245 6.87476
6.828 115.626 0.513637
-0.693457 124.59 -5.30598
19.5569 121.49 2.68161
7.7977 126.73 -5.07326
-6.16433 91.3367 -10.5813
-0.21509 130.949 -5.12505
-4.91735 108.356 -9.21091
12.1109 123.249 6.4574
-3.20533 94.6029 -9.75441
18.0944 131.396 -0.685522
1.82352 108.624 -6.2547
-7.98932 89.7283 7.6889
5.35228 136.256 6.01332
-13.0858 150.226 0.945056
-2.48002 115.498 9.48564
16.9845 117.656 6.3348
-15.3291 144.296 -0.145516
-14.5831 143.694 -5.0523
1.19245 104.481 8.47827
15.867 126.95 -1.21433
6.7882 126.727 1.91022
5.26611 107.818 -1.37775
-1.61279 142.434 -2.15042
2.32095 121.733 -7.85048
-2.54349 99.3776 9.15365
-7.61889 122.337 0.580226
5.24362 143.912 -5.68533
5.6555 111.966 -3.18814
-6.0732 77.2024 3.68345
4.07498 122.409 8.10687
12.7435 121.561 -3.92872
5.72562 143.148 -6.07955
20.9824 119.842 4.78993
1.01476 101.279 -8.08557
3.54793 147.409 1.26813
1.79383 144.553 1.19525
-15.0704 133.549 8.50605
-7.51165 77.2658 -9.68626
-4.01416 124.437 -6.17495
8.14763 152.788 -1.47445
-10.7642 116.457 0.676659
-2.46425 95.7664 8.2364
0.547455 98.713 7.45911
11.3892 144.808 0.268355
-1.87136 135.129 1.85297
-8.21779 141.693 4.33633
0.429117 136.831 -5.45902
4.51965 116.775 7.25641
-2.61067 111.361 10.3865
-0.529537 123.057 -5.58458
18.0697 131.747 4.42995
1.36143 122.255 -6.60253
2.11011 130.676 6.65307
0.961598 145.8 -2.40323
3.30039 146.607 -3.42116
7.88112 129.278 -5.40537
14.4001 131.957 4.92074
-2.33637 115.227 -6.47794
15.2365 130.045 5.18494
-16.1456 141.124 1.33902
-16.7668 137.865 3.18992
19.983 122.221 3.41453
-7.21248 111.865 0.262888
-8.95617 103.024 -10.3318
5.1939 154.847 -1.56431
-3.08162 123.835 -6.22608
-9.4521 94.4489 -10.3447
8.48347 121.733 3.33177
10.8308 119.019 -4.12462
7.73203 144.344 -5.85945
-8.02393 78.6634 -10.0659
-3.22656 120.291 0.660946
-13.3502 111.858 4.70719
-12.349 103.993 6.90198
11.6086 144.862 5.50936
3.97015 147.082 1.25543
7.98457 120.038 0.48936
6.11179 132.587 -7.26544
-2.47671 81.4179 -6.69725
-3.60337 96.621 -9.50342
-7.77277 105.022 -10.7356
-16.0442 132.898 9.07537
-14.4987 96.1718 3.9759
13.1511 142.936 5.64005
-1.2733 141.612 -2.55113
-1.74243 83.7317 3.56497
3.81617 102.763 4.65519
-4.42713 130.93 -4.63335
9.93886 119.717 -2.75995
-6.7077 131.862 -3.75125
-0.8411 98.9641 8.30586
-9.6788 151.92 -4.66244
-12.235 117.826 5.87274
8.21357 121.25 -1.59466
-3.02152 131.777 1.7905
3.72463 103.57 5.07181
-9.41385 106.54 7.29235
-0.134134 130.749 -0.0777203
-8.73907 148.011 -5.89652
-6.0104 97.417 -10.1952
-2.74185 112.709 -7.75238
13.9631 125.922 -2.08842
-10.4271 123.663 -4.82164
13.5435 146.167 4.70123
-7.14779 124.722 -7.04561
-9.91805 115.042 -9.47647
7.27725 139.7 5.40507
-9.24371 107.959 -0.187467
-8.87635 119.547 0.374339
12.6995 116.64 3.20612
-5.46646 119.415 -0.452309
10.7846 144.054 5.52854
1.45886 94.2589 3.35384
-2.95672 116.132 8.6548
-14.1449 138.766 -5.21286
-0.271976 95.532 7.17738
-10.4187 120.351 4.36802
-11.8923 94.3037 7.67873
-1.30342 91.8937 -8.24652
-1.39842 113.39 10.4854
-9.50717 85.456 -9.80709
-8.43967 136.171 -1.4154
3.44813 119.71 8.5818
-5.88192 111.977 2.11255
0.187352 115.351 -6.64024
7.53684 125.961 -5.64981
5.19504 124.005 6.51116
8.23422 133.948 5.49735
7.25859 122.294 1.1783
-3.72356 121.487 -6.48722
8.45217 153.944 0.679666
-8.60197 108.728 0.230057
7.88885 123.257 2.1369
1.16601 127.294 6.40603
1.06172 128.91 6.64884
-12.2373 110.237 -0.518956
10.7445 130.033 -4.54422
-7.20386 130.27 -3.62969
-14.273 151.042 -0.93078
17.0212 130.666 4.68802
7.44118 140.868 5.16339
-12.148 105.214 -0.0817491
-2.73556 143.861 2.37655
-6.14254 154.103 -0.885993
-15.5238 124.66 8.82016
-6.98011 106.975 9.48188
-10.9144 122.444 6.20656
13.9031 137.56 -2.05935
-10.1148 88.2903 -9.70068
20.0008 130.846 1.63095
-12.4581 121.657 -4.38775
-8.77048 121.756 1.35678
-3.57441 81.1732 4.48866
2.20957 116.963 -7.85125
1.6558 147.747 0.0246931
5.18185 114.7 7.01836
-10.1452 124.02 -4.81221
-15.1989 148.679 -1.83379
-1.08962 132.563 -4.54017
-1.3442 133.075 0.654087
-11.7497 120.643 6.42986
-10.4112 142.703 1.2225
-9.12434 106.027 2.54966
-1.33363 121.515 -5.64264
-11.9647 124.102 -3.43116
1.66234 95.4007 2.56891
-11.9306 152.334 -4.01847
-13.3853 96.5461 6.27329
10.5499 125.807 5.10086
9.80946 145.311 -3.93417
-3.09114 81.2348 -8.10199
16.9076 136.056 5.14483
9.5434 131.818 -3.10436
-11.8749 118.044 5.5076
7.718 129.742 -1.93083
-10.4886 97.7495 8.29863
-12.7019 96.1271 7.30295
10.3897 141.111 -3.05259
-4.74841 124.006 -0.392995
4.74673 140.752 1.25626
-13.6102 89.5521 7.01232
8.99995 142.528 4.82515
3.92711 144.978 0.831298
8.99705 121.11 2.67451
-4.55069 144.576 -3.1656
9.96039 142.606 -4.16409
0.988529 91.8197 2.83747
-7.84363 106.617 -10.9604
-4.35598 113.356 -7.54931
-1.36991 85.5613 -6.6833
14.6724 135.548 5.00045
-1.96875 125.444 0.0605328
-6.48976 123.609 -7.15148
-2.50405 85.4789 5.20418
1.34156 115.502 -7.99516
4.81661 113.583 4.95552
3.90728 130.158 -7.96603
-7.56534 88.3301 -10.4651
-2.05432 75.6497 -2.34192
-3.67064 124.374 -0.165977
15.3763 123.497 5.65509
5.08476 121.168 6.81766
-6.0145 141.617 -2.98453
8.3886 135.961 5.61777
-3.12401 85.3062 -8.68126
-9.55027 121.048 -7.98029
4.30188 104.56 0.193012
11.6355 131.757 4.96831
-8.40241 134.912 6.33404
-11.4012 129.042 7.68007
-5.30725 153.941 -1.6245
3.38927 148.656 -2.78376
0.947795 98.1888 7.01804
19.9333 128.691 0.290626
-2.63293 132.39 1.84294
10.6204 116.833 1.72547
-2.48246 130.636 0.419737
9.42203 118.089 -1.2595
8.16934 124.402 -0.0315304
-6.80748 137.94 4.5742
14.1552 127.279 5.64801
-15.3542 145.647 -0.375348
-10.393 135.136 6.98764
3.34095 110.881 8.44739
-1.39774 80.8092 -2.01273
0.112219 105.291 -7.64767
10.5638 131.055 -2.26718
-12.2605 131.685 -1.36343
-2.95747 145.317 -2.59414
1.10036 144.178 -2.81008
-6.15422 81.4484 -9.10242
10.9878 126.722 5.384
10.393 145.593 -1.64318
-11.4391 137.297 -4.64515
11.732 149.658 1.16673
-0.964367 114.155 10.3657
7.11684 126.19 -1.7255
20.5923 129.762 1.86757
-2.26944 118.302 4.13558
-8.17944 82.9329 5.74566
13.1532 130.455 -4.88618
11.3985 118.344 -3.33606
-6.75395 76.2684 -9.00979
9.14091 125.839 -1.55984
4.82613 105.957 -0.904788
9.67213 152.764 1.546
-1.52234 103.341 -8.69249
-9.52536 114.871 -0.528299
9.18653 125.943 -1.11765
2.82514 143.999 0.662197
7.54805 122.615 -3.71515
4.84943 136.964 2.4898
-16.82 134.869 8.14058
2.79812 133.906 2.0176
-7.44866 108.97 1.77252
19.5067 132.203 1.22577
20.4629 126.08 2.64604
-0.373994 86.6417 -5.97999
12.7628 116.092 2.95075
-16.6264 145.655 1.8515
-2.60044 139.017 3.18037
-1.92155 98.7438 8.72387
7.70843 119.923 -0.937764
-7.20511 137.952 4.76685
-5.37168 89.9235 7.68789
7.16957 135.147 -7.39801
-6.14767 82.1537 -9.40815
7.54958 125.384 -7.12915
-13.4317 84.1081 5.76628
-8.0357 112.753 -9.78419
10.3254 117.488 3.00111
4.88577 135.389 6.31895
-13.8429 153.125 -0.107402
-1.59048 102.262 -9.16906
-1.30403 136.936 1.51878
6.62879 152.585 -2.7664
-8.74298 85.6556 -10.176
-1.7469 128.132 -5.11052
9.00643 120.291 3.59361
3.5223 125.721 -8.87613
3.44957 119.847 8.69854
-9.61279 138.654 5.86174
-1.87491 98.6048 -9.70164
-9.33624 133.996 6.92491
0.806019 90.4667 -6.3652
-15.4192 151.739 3.1747
2.39886 121.27 -7.75569
-1.44424 99.7159 -9.64315
6.44334 134.607 6.62838
-9.74295 153.939 -1.19395
5.39916 116.452 -5.34586
-2.7438 77.4745 0.407047
-3.17134 116.524 5.19199
9.58464 128.762 -3.50975
13.8242 131.142 4.97121
-12.5605 111.425 2.33607
13.5496 136.945 -2.35832
-9.46666 91.1171 8.40736
-16.1804 145.569 1.49916
-8.56189 107.664 0.953437
8.52927 117.638 1.68256
13.3086 121.723 -2.13695
-2.72068 75.1175 -1.88128
9.20243 119.689 -1.16546
5.94367 123.111 -0.912232
17.3479 132.016 -1.56185
9.43738 120.758 -5.57832
3.5398 106.547 6.99684
15.5581 144.94 4.17536
17.3249 131.266 -1.37762
-0.58905 111.906 -7.36616
7.67539 125.027 4.93692
3.38805 97.0211 -1.22535
5.82059 113.404 -5.92766
-2.07608 75.7273 -2.06444
4.97541 118.057 -3.54401
16.8018 122.433 -1.41965
-1.71486 121.118 1.949
2.58459 113.606 -7.90584
-8.82468 106.174 -10.3492
-14.7048 136.809 7.10663
-9.62468 115.204 -9.55041
11.3706 128.577 -5.45308
9.35894 131.099 -3.96164
5.59622 126.419 -1.12743
-7.85714 84.4744 6.40975
4.17848 133.727 6.56929
18.4522 121.486 -0.20172
20.6601 127.192 0.425474
2.53748 98.88 -6.33012
16.64 142.111 4.45785
-1.73821 120.409 -5.86981
-1.47069 78.91 -1.95418
-12.2236 134.274 -1.83506
-7.32719 88.0156 7.33811
-9.1035 99.9457 -10.6663
-3.18005 76.8588 0.829715
-14.6747 127.185 -1.82141
-12.1289 110.776 -0.400167
-0.196723 137.61 -4.30466
10.4221 142.752 -1.81752
3.75928 120.101 7.79768
15.073 123.694 -1.8609
4.66812 115.434 -2.05963
5.6161 107.2 -2.62699
-7.67023 107.47 8.03751
9.71128 140.001 -4.92814
-9.84327 131.76 -1.71675
-11.1532 128.847 -2.26649
1.96196 120.024 9.82601
1.74979 123.758 -7.85809
5.35485 126.004 6.03814
5.46895 122.126 -5.62956
-1.50308 99.4555 -9.66503
-11.6934 107.96 -0.750436
18.3727 128.961 0.374232
14.7376 142.256 5.53373
2.03286 140.172 -5.49747
-8.28425 91.9503 -10.2413
8.5879 129.344 -4.06914
-0.725113 108.694 -7.03088
20.7529 122.086 4.73633
-13.6176 143.419 -5.40901
-7.75043 123.646 -7.23246
-12.7541 92.8015 5.70254
-8.85931 98.4882 8.7082
-2.52677 154.457 -1.93498
-1.90155 102.662 -9.09895
-9.62626 106.19 6.72249
-6.08219 126.333 -6.68794
6.40176 146.051 -5.27217
-15.2289 138.052 5.92105
9.09603 126.508 -5.86331
5.48029 121.62 -5.6443
-14.8167 148.156 0.443078
-16.0889 119.385 8.07397
-12.5553 119.479 -5.71461
-3.95763 82.2822 -8.27194
7.20863 153.56 -1.45852
8.73035 134.962 -7.46505
-4.66225 119.135 -0.0127834
-13.6977 153.126 -0.383541
-12.257 84.489 6.05443
0.103232 97.3864 -7.749
9.30383 129.901 4.87436
1.62352 146.807 1.31743
-1.30585 79.2393 -1.42163
-4.28841 152.436 -3.54922
-12.3406 129.142 7.98652
2.6172 97.5179 1.40313
1.51747 89.7943 -2.75316
5.34448 127.633 -8.76302
-13.9668 125.021 8.37397
-4.11319 92.5721 8.15683
-1.03565 147.378 0.718184
-3.38725 80.7737 -8.1979
10.9767 126.557 5.33136
-11.9137 84.9025 6.21986
6.12254 151.657 0.509256
17.4832 142.85 3.44082
-13.4578 99.1173 7.80507
-13.837 111.974 5.13621
3.72228 103.079 1.50069
-7.64625 145.257 -4.59131
16.5532 130.92 4.9151
-4.54684 145.169 -0.883983
-5.65456 98.0426 9.62387
-11.1294 105.263 7.50003
3.12976 139.957 0.367098
1.09804 106.72 -6.79628
4.06641 136.959 1.52965
-15.2541 107.666 4.60261
1.7807 147.559 1.00431
-0.547672 106.287 9.39015
-2.68863 92.5551 -9.26548
-8.87194 79.4204 4.70666
-2.24305 142.715 2.42624
-10.8026 139.993 4.21666
1.89139 104.846 8.07954
-6.26313 112.056 1.33746
6.91917 123.144 2.14908
6.72485 153.919 -1.51392
8.34924 127.511 -5.0155
8.2834 131.011 -7.8234
12.5446 134.551 -3.26768
-16.7506 145.806 1.97298
1.95166 110.673 8.961
16.8179 123.707 4.80479
-12.4545 108.031 -0.615041
-8.117 154.751 -0.467245
0.820612 100.729 -7.94889
6.99184 126.543 5.84333
-7.87637 135.349 5.9578
-5.66615 110.791 4.29002
-9.70153 103.262 8.33821
-10.1223 113.403 -0.618954
-9.82943 153.197 -3.18278
-13.1645 147.549 -5.28294
3.59129 111.898 8.44224
-0.607624 136.416 -4.84165
5.61072 106.869 -4.48868
-11.4289 117.882 4.61222
7.23246 138.97 5.75474
-8.10877 143.829 -0.583415
10.9289 152.105 1.59508
1.1551 89.7051 0.315105
12.0647 131.322 -3.83065
-12.6253 94.9167 6.76857
1.95455 130.805 -7.42166
16.9548 127.65 4.38475
2.51241 144.51 0.889018
-7.84941 131.615 -3.00158
-8.59414 124.173 3.21496
-15.6605 146.683 0.93106
3.50178 151.485 -2.83108
-1.37035 82.2329 -2.57548
-14.2316 96.5699 4.47893
-13.619 103.682 3.56486
-7.67857 89.3328 -10.7337
13.9711 146.891 4.15483
-10.3091 88.0731 7.61234
-9.06343 93.7643 9.39079
-9.95767 136.55 6.19532
9.41035 133.578 5.29305
2.48042 128.402 -8.08587
-9.88764 85.1187 6.7907
16.5661 120.958 5.92896
14.3305 135.417 -2.69358
14.6456 134.245 5.14444
6.22633 132.101 -7.3056
-14.1403 130 -1.52974
-7.55018 143.118 0.385625
16.4212 118.992 5.93514
17.2896 136.032 -1.10611
-6.89278 123.872 -7.27401
-7.11268 134.396 5.79288
3.73146 100.878 -6.25166
16.6575 132.267 -2.25421
3.78068 102.116 3.17784
2.91618 99.8388 3.62327
6.65614 124.013 1.66661
15.7908 129.04 -2.05398
-0.00680305 120.027 9.61732
-2.24965 96.2352 8.19306
-7.70303 141.428 -3.81424
-8.23095 153.862 -0.580715
-6.17469 86.0304 6.58425
-10.5726 78.5167 4.54656
4.88507 111.588 7.35278
12.975 142.472 0.818115
11.7406 148.871 3.62175
7.67833 126.545 -4.92224
-14.5157 107.931 2.34906
18.4823 126.079 3.97235
-1.99259 86.0005 -8.19334
11.5029 118.11 -2.61733
9.25127 119.014 1.80963
3.00828 102.511 6.24425
4.4537 123.306 -9.17584
8.4707 141.087 5.32611
5.0476 122.757 -8.89294
-15.8127 124.928 8.89679
17.6495 130.04 4.13371
6.17388 113.386 -6.81893
-0.0135547 153.418 -2.50162
-4.02513 130.462 -5.1126
-3.1661 131.386 -5.06461
-6.83303 130.252 4.7569
-3.66643 150.878 -4.5241
4.29529 118.465 6.34227
-7.95322 134.383 -1.98676
-17.8024 151.337 3.27323
3.00512 95.0211 -4.11474
4.8478 110.405 -6.92087
12.3669 144.027 5.58157
-3.55769 144.164 -2.38085
-0.809363 119.911 7.88533
16.4607 130.074 -1.89545
3.3088 96.0399 -3.89801
7.11716 121.982 -1.24445
-11.1561 149.72 -5.73847
13.7657 135.763 -2.80677
-9.07354 124.997 -4.8147
-12.5871 104.101 3.23323
-8.25864 84.4285 6.48701
12.2221 119.353 5.35355
-8.00753 130.192 -3.29255
-16.1505 137.273 3.99465
9.69535 119.674 3.03261
-1.17343 89.0789 5.58802
7.24118 122.022 5.42995
-6.17564 90.4942 -10.8278
10.1975 119.101 3.97686
-15.1952 143.151 0.264957
15.5991 140.629 -0.0608429
-9.05379 131.01 7.01046
-4.98873 153.426 -2.42775
-3.68682 90.7781 -9.89411
7.75215 139.153 -6.80721
-9.79394 126.433 6.3552
-0.80816 138.087 1.76919
1.90913 108.119 8.50084
6.44971 141.902 -6.45987
2.83752 145.363 0.906253
9.08347 131.647 5.35671
-9.24029 104.282 -9.82074
8.88496 150.953 -1.98561
5.08604 112.689 0.99808
-2.85297 131.976 1.73649
6.26872 123.994 1.73345
-8.84231 96.0327 8.99535
18.4465 121.256 -0.199268
-9.98349 144.48 -0.525597
-5.73097 110.527 -8.74826
-14.4045 149.852 -2.15053
8.89789 123.799 -1.30128
2.97356 95.0279 -3.74465
9.91292 128.716 -2.21949
-0.797966 98.1721 8.08586
-13.1311 127.853 8.40111
-4.72695 116.75 -6.73122
-7.62315 95.8238 9.77343
-1.23232 86.2994 -6.93982
2.74993 104.22 -6.86893
-9.26899 112.141 -0.787261
-10.3739 81.2417 4.90772
3.58176 103.063 -6.95651
-0.380891 121.903 -5.63967
-5.2537 127.738 1.30941
12.5204 138.288 -1.73858
-18.0332 127.078 9.33362
-11.3194 114.059 -9.13298
4.17194 102.741 2.95599
-0.474668 124.669 1.72413
8.41536 135.814 5.61598
-4.43767 79.3931 4.2218
8.27927 121.318 -1.56071
10.4071 137.367 -2.41891
2.25663 136.336 0.407651
-3.21593 99.4957 -10.1854
17.2416 123.212 -1.25199
-1.04958 89.2062 -7.83448
-10.6859 137.187 -4.24082
-4.77712 78.7619 -8.61387
-10.0531 151.863 -4.68432
-9.03601 113.625 -0.767948
10.3832 121.385 -5.59272
0.258709 144.143 -2.40914
-13.5416 97.154 6.17467
8.51796 124.235 -1.65939
9.60462 121.394 -4.51477
2.01633 104.165 7.94002
19.0867 133.926 0.0325513
-2.71227 83.1242 4.55402
3.05601 110.505 8.5379
-3.3325 80.7833 4.03896
-2.72989 115.991 -6.40719
-10.7027 126.846 -3.18175
-0.113356 124.76 -5.38308
15.3744 145.673 2.66297
-8.55347 140.048 -4.1279
-11.7034 141.475 -4.49614
-4.04026 153.811 -2.34558
