ply
format ascii 1.0
comment Created by Open3D
element vertex 1921
property double x
property double y
property double z
end_header
-31.8809 99.4037 26.0224
-39.0493 94.305 6.15381
-12.5077 112.382 14.3095
-16.8605 152.315 4.92403
-26.5866 84.9029 -1.81832
-1.88454 107.98 -6.27432
-18.5406 121.383 -2.58627
-26.8364 105.51 -3.29337
18.3293 129.418 2.92659
4.42814 130.712 -7.08938
-38.966 101.541 21.6542
-29.6657 118.879 -2.67648
-17.2465 140.927 -2.35955
-11.2537 150.462 -4.98985
-24.4021 99.8166 22.3354
5.64402 123.192 2.20487
-32.813 115.3 20.2488
-28.8665 132.548 -0.340377
-41.3284 94.0605 9.96862
-34.8098 112.478 18.226
15.7544 136.668 -1.28188
-13.2903 83.8039 -5.69862
-34.8676 140.765 2.57307
16.5114 119.417 5.87085
-33.9975 142.709 6.79414
-38.5866 100.926 4.94663
-27.9886 146.329 6.20169
13.7785 123.45 7.38727
3.16065 105.712 -0.415194
-11.9092 111.436 -8.03396
-23.0072 141.905 7.69926
-22.3258 144.075 -0.83089
-37.7899 100.611 24.3081
-11.471 120.615 14.1643
-24.8098 107.308 -3.48507
-20.0334 144.486 -0.00745012
-27.0703 134.132 -0.256347
-19.6286 125.93 -0.0371782
1.48591 137.442 5.91346
-40.0934 94.6481 8.00759
-21.2937 113.232 20.9733
-13.4792 102.017 18.4276
9.10089 131.375 6.76113
6.18405 145.171 3.72096
-18.0957 114.578 -4.89825
-14.8047 142.833 -3.69181
-19.4152 135.938 -0.659758
-25.6272 86.5723 -2.15326
-21.7393 151.3 5.3069
16.5412 125.234 3.58845
-7.39572 112.312 -7.33257
9.67129 119.504 3.55516
-17.1026 88.7837 -5.84718
14.8542 122.949 7.88154
11.82 140.046 -0.214095
4.48164 107.272 2.2114
-21.5041 105.407 19.7412
6.71552 129.982 8.89443
13.1616 140.213 -0.308915
-18.4384 92.8049 21.1383
-34.5908 114.711 18.0545
-11.7599 126.28 -3.9902
4.88958 125.523 11.5433
-36.08 87.1075 3.74601
-16.2102 112.719 -7.41834
-1.09074 146.837 5.16095
-42.0062 99.8418 13.3285
-36.2464 113.534 8.85998
-26.0868 117.852 -3.80281
-21.2711 124.837 -0.66391
-3.05952 138.916 10.0415
-30.954 96.8786 -0.671374
-2.27213 117.056 11.8961
-30.4634 89.704 25.0117
-1.83216 104.178 -6.06754
-27.8418 131.908 -0.0878157
-31.7837 122.782 17.6749
-5.47039 101.732 18.6577
-1.09139 141.226 -2.10693
-17.3102 113.12 18.7412
-15.3015 121.758 -2.96401
-10.5797 85.1068 -5.41286
-7.95945 99.3399 -7.89712
8.11892 123.531 -4.00905
8.48928 121.904 6.9246
-8.57177 114.581 -7.09162
-8.99692 142.123 -2.97556
3.53523 129.88 10.2816
6.85808 124.101 0.780389
14.2059 133.98 6.22088
-36.1976 101.566 23.8417
-2.99768 124.58 9.40619
-29.9309 128.737 3.08956
13.227 125.777 7.67667
-40.447 98.6248 7.20827
15.6518 137.906 -0.891368
-10.8692 134.464 14.2576
-1.89083 138.052 -2.28228
-33.1077 119.376 7.56332
-32.6544 103.748 -0.486578
-30.8773 126.268 8.58315
-35.4679 137.009 0.681114
-31.9271 122.375 -0.15776
-20.0793 151.756 5.39649
6.66682 117.596 7.1969
-9.70847 142.793 9.11756
-20.8178 101.241 -4.57597
-34.78 83.0603 2.21982
-11.4297 108.154 15.505
-9.83198 139.639 -2.16412
-34.0148 102.405 24.6338
-22.7997 141.933 7.74644
-24.611 103.056 21.8858
3.0819 117.532 -7.75938
8.52827 152.566 -1.14441
-14.8954 149.267 3.06032
-16.4495 98.156 21.2409
1.82645 151.064 -2.789
-23.9842 144.989 7.55189
10.9267 124.112 6.19768
-12.9502 145.918 3.46006
-34.9562 112.941 1.84994
10.7997 133.603 6.45619
-25.3299 100.802 -2.37584
-30.6196 140.553 0.353804
-24.4385 120.714 20.0787
-13.8961 94.5745 -7.09866
-12.186 149.98 1.19844
-12.8085 141.118 10.9905
10.9723 117.999 -8.53016
-31.7394 136.483 4.74339
-22.3469 110.735 21.5104
5.93834 126.935 2.03426
-7.67013 85.8481 -4.16465
12.7874 134.764 -3.46343
-20.1996 103.069 -4.88319
-18.7883 112.526 19.6047
4.81749 124.588 12.2901
-30.7555 83.8592 0.529867
12.2844 145.148 0.900413
-11.5682 106.279 -7.94938
-9.35059 142.858 8.19607
-31.2196 134.098 2.79296
-10.3741 126.033 14.9151
10.9888 139.265 7.58774
-14.1167 150.486 -1.9377
10.4487 144.623 5.77358
6.08901 155.088 -0.812784
-24.9792 97.9502 23.6922
-21.4945 121.419 -2.15389
-1.47356 138.654 -2.60721
-15.7944 85.1852 -5.97915
-32.0738 125.083 1.57322
-23.9711 140.934 7.23528
-36.8088 139.138 2.40991
-6.05761 142.693 -1.84246
-0.710723 120.375 11.2341
2.85229 138.447 -5.95038
-27.6796 136.965 -2.13141
4.23022 127.086 -7.91901
-5.77543 136.886 -1.37829
-26.5486 113.312 21.6068
-16.5345 78.4371 -4.96811
-2.82703 117.926 11.5183
-21.3899 149.409 6.6221
-12.6251 145.137 3.84346
-8.78045 134.455 -0.915897
15.3978 145.988 1.96233
-6.70402 104.862 -8.38667
-0.701123 107.19 -5.58433
-36.5052 133.845 3.76609
-26.2061 129.779 16.8733
-31.0617 96.6328 -0.521418
10.1489 139.523 -4.48015
-18.147 151.134 0.0336821
-36.1375 96.5288 4.00274
9.89792 145.266 -4.18931
-42.2565 98.5907 21.8043
14.7525 146.756 1.87917
-29.2606 114.872 21.7251
-11.7791 105.961 16.4503
-29.4051 134.009 0.183273
4.83174 116.723 13.4912
1.97805 153.612 -2.34344
-0.693824 120.766 11.0576
-0.00480703 107.013 -5.39218
-14.5637 129.92 15.5461
-35.654 111.498 10.7809
4.15041 149.501 -2.60409
-16.3273 110.55 16.561
6.0793 132.918 9.25884
-10.8414 141.52 7.32599
-37.6156 100.751 4.32891
-17.225 142.833 5.5657
-26.8422 142.182 7.06924
-12.2329 147.945 -4.27256
-20.075 138.051 0.00768607
-8.56811 90.2805 -6.03702
-29.6456 138.401 -1.82889
-39.7101 101.539 7.54749
-19.0414 149.58 0.000570412
2.33632 149.286 5.68821
-21.9934 93.412 -3.45889
-21.3585 110.732 20.6171
-24.6101 115.847 -3.57956
8.32578 151.606 -2.22461
-6.71018 154.066 -2.03147
-42.6687 88.2219 13.2737
11.2681 118.247 3.77408
4.79583 125.106 12.0181
1.33788 131.076 -5.49086
-7.97289 132.12 -3.05514
8.81788 151.78 -1.15674
-17.1164 112.083 17.9441
-22.568 139.895 0.1474
-19.6619 138.338 9.55455
12.2044 137.458 -0.906289
-0.27495 115.056 14.2532
-31.76 122.59 -0.28673
-36.3605 98.9937 4.09335
11.6168 125.275 -6.43136
-32.3033 116.81 20.2705
-22.0933 120.714 20.0233
16.1777 143.889 4.71091
-32.3957 103.571 23.7874
-31.0246 101.809 -1.25837
-9.54452 138.026 -1.24635
16.5451 136.866 6.50689
18.6704 123.367 3.40674
-5.32184 90.2796 -4.29906
4.85701 137.611 5.22376
16.7697 137.891 6.37771
-15.4476 149.424 3.75659
5.30907 108.279 2.26225
-34.9543 115.56 3.77391
8.38075 135.599 7.74173
-39.4894 84.7123 6.85978
-25.613 145.734 0.900236
8.90418 122.707 0.212466
11.0084 121.893 -2.5369
-5.4393 145.381 -2.91007
-18.3058 139.798 8.99018
-42.4082 88.7278 11.9596
-14.0009 150.05 2.61482
-38.2317 137.939 7.45364
5.8385 124.696 10.3247
1.94367 148.855 5.89165
-30.53 109.78 -1.6727
-19.1663 131.707 0.263404
13.8907 124.953 7.79261
-3.87641 134.32 10.752
-37.6992 106.907 15.2603
-4.79136 91.5258 -4.25848
-11.2638 107.983 15.5816
15.756 143.613 5.23742
-17.2831 103.441 18.6038
-8.44614 117.98 12.0918
7.35459 112.423 9.57951
-19.4586 103.647 -5.54586
-42.8003 99.4041 17.9361
11.3373 142.183 -1.22978
-41.2906 89.7079 8.90558
-31.1916 124.498 14.0588
-23.8336 135.545 12.3825
-32.4616 127.185 3.75374
-21.1421 86.3841 -4.16307
-2.37782 136.812 9.29529
-28.8831 106.511 -2.47525
-30.9101 113.48 22.3703
9.27773 119.039 0.973972
-7.10292 140.256 -1.29994
-15.2283 97.3134 21.5294
6.20644 126.295 1.50808
-24.9629 147.088 0.952998
-8.55714 126.205 -5.41023
-11.2181 127.426 15.8659
-31.8015 129.255 7.576
-14.2561 140.587 8.11173
-29.632 132.442 3.95476
-31.711 120.111 -1.11901
-18.3691 105.79 -6.78067
-9.84038 125.543 -5.26319
3.74912 115.344 -5.20091
6.6171 123.989 0.956641
-21.6036 84.4844 -3.93792
15.6094 121.771 7.06473
-30.742 124.885 12.3829
-1.48837 117.104 -6.86436
-30.7586 136.238 6.91367
-37.6042 103.322 3.8074
-7.53647 132.945 13.0159
-31.5269 93.7812 0.700515
7.10965 127.002 0.622768
-38.6834 96.5821 5.87194
-36.1373 142.335 4.53431
-18.7123 126.783 0.121417
-16.2684 116.494 -5.01625
18.5931 128.986 2.46278
11.2144 138.227 7.50088
-31.6704 125.287 7.63821
4.02268 119.42 -7.44965
-35.4816 98.8344 3.33807
-7.25625 135.664 -1.58495
-21.3461 108.343 -5.72582
14.978 121.462 -1.73334
-30.7455 88.7396 25.5157
-34.163 140.354 8.37474
-4.10152 113.805 -8.18038
-13.7053 138.736 -3.77407
6.93775 122.863 -3.22501
-22.9102 132.401 15.4719
-37.3719 103.875 18.205
-6.33797 139.074 11.2853
-35.2377 113.967 17.2535
-18.6875 134.276 -2.21671
-16.3245 94.1022 21.2657
-31.2878 130.763 7.22937
-7.48563 144.096 7.63936
-2.49185 124.99 9.20343
-18.0621 152.781 0.702819
4.07771 115.204 -2.51407
-38.4234 94.7256 25.5252
-13.9974 152.314 -0.246792
-9.63661 129.414 -3.38126
-35.5278 90.9719 3.55526
6.79854 108.246 9.25176
-6.3432 106.057 16.6861
-34.6342 117.632 8.00201
-42.2012 94.4849 26.4961
-25.9769 99.9204 -2.10206
-4.4314 136.679 10.9
-21.5865 84.8194 -3.98925
7.89702 120.554 0.832385
-5.40578 104.778 18.1085
7.36872 122.596 9.30293
11.1101 144.483 6.13384
-3.28624 125.287 -4.20722
-35.1156 138.252 0.698185
-12.4239 104.574 -7.3816
-20.837 152.489 2.40913
6.43417 107.138 9.97968
-15.5336 116.417 17.6339
-18.9923 94.979 21.3422
-20.7057 108.079 -6.0921
16.164 139.601 6.63369
-36.1534 104.213 19.2976
8.28919 124.278 4.27082
-33.8213 116.399 1.60156
11.2452 121.01 -7.92876
-4.53844 144.916 3.98073
-29.7309 132.078 -0.241262
-26.9482 84.7728 -1.6229
-2.23967 120.973 10.4495
1.54567 142.801 6.24773
-31.5741 108.418 -0.596712
-15.5667 124.358 18.2394
10.2258 118.006 2.96486
-33.3335 107.946 20.0943
-44.2055 94.2256 16.7905
-28.5529 113.262 22.0584
-15.6481 116.052 17.607
-41.9094 94.1388 25.663
-34.2675 117.501 17.2091
-30.3572 114.876 22.0878
-14.2131 128.719 16.1392
-42.1593 87.0332 10.347
-14.523 137.359 -3.08393
-18.9417 141.174 6.88002
-43.8301 93.0158 22.1704
-35.8389 111.271 10.7367
-16.0022 117.168 -4.77037
4.60917 127.685 11.9137
7.51124 141.249 5.8652
-25.9236 149.584 2.44622
-1.68741 117.877 11.6083
-7.79576 112.825 13.5996
-28.525 142.272 6.75378
-36.6806 102.833 20.1723
-16.5858 133.677 15.3553
-31.8743 134.958 4.75663
-13.7868 141.236 -3.24243
-32.4911 99.9084 -0.0630937
5.93618 143.465 -5.56489
-21.2743 135.503 -0.801344
5.1846 141.713 -5.72332
-28.6243 140.229 8.66355
-35.9957 104.839 18.774
-32.3608 110.523 21.291
-33.282 113.851 1.37115
-9.11451 121.554 -6.81306
-3.13072 122.855 9.92981
5.5197 152.849 -2.84214
-20.0807 80.7872 -3.54279
-35.441 98.4073 3.30925
-3.51479 118.476 -7.49033
-38.3594 106.64 11.1839
13.7036 133.842 -4.28487
-25.8118 136.893 9.31363
-10.7977 137.001 13.2296
-23.9527 143.248 7.68767
-4.10488 114.156 -8.05458
-17.1414 116.749 -4.67853
-39.2985 102.799 18.4904
-31.9487 102.175 26.2591
-17.8023 135.688 14.8866
-33.8656 89.7961 27.6247
-28.1984 113.75 -2.54633
1.20821 123.603 10.9192
-29.0544 134.708 -0.684286
11.6206 119.42 -4.55587
-23.225 106.221 -3.90378
-3.96516 145.61 6.39958
16.7824 131.005 5.66041
-32.8685 144.82 3.26048
6.66899 123.307 2.49397
-3.99999 145.117 3.09929
-39.0507 90.7189 6.91437
-27.365 99.3366 23.973
-9.69972 151.529 -0.00228125
-31.6761 126.391 2.91454
6.30537 111.682 4.19368
-33.5096 135.001 5.71156
-1.20154 118.408 -6.64848
-23.2305 128.039 -1.15416
15.1064 142.531 6.23191
9.64358 129.094 -5.84053
-25.1955 100.351 -2.47684
-3.24753 140.077 10.0313
-7.09792 130.22 12.7136
-6.12584 120.528 10.9691
-29.0875 132.031 0.188493
-35.9886 137.651 8.79576
-3.93179 137.222 -1.6957
-20.4522 77.8289 -3.80654
-28.5922 128.126 0.112678
6.35831 154.929 -0.666462
-12.8436 152.902 2.34838
-0.533244 116.701 13.4809
-19.7271 134.952 -0.622766
-30.0463 101.697 -1.36976
-10.8826 108.863 -8.50292
7.29759 136.176 -7.37178
-35.8444 105.016 1.9552
-9.49552 125.816 -5.20571
5.121 107.671 3.40881
-42.8205 96.8801 13.5365
7.20427 125.737 -3.14629
3.76837 110.38 13.5159
5.67904 132.517 10.0226
-29.3486 132.094 0.628863
2.30181 134.274 6.38381
-35.7282 142.73 5.44189
6.9828 149.805 2.88602
9.27337 119.144 -5.72048
-30.9895 130.955 2.57738
-18.9581 106.624 -6.75135
6.68909 119.105 11.6901
-40.0291 103.941 16.5661
-28.2129 102.989 24.8033
-16.0346 106.089 17.4716
-21.7214 108.198 19.7118
-35.5384 103.317 1.76435
6.65555 118.251 -0.387578
6.3225 123.639 1.15067
-21.8329 86.8565 -3.82274
18.7475 125.129 0.765367
6.8852 137.35 8.82456
-2.22272 136.419 -2.43874
-5.22094 103.074 18.3961
8.36221 150.249 2.5166
2.54335 138.866 5.3985
-18.7725 131.532 0.183376
-21.8052 107.903 -5.25891
-26.6133 145.229 6.04359
-13.5639 105.977 -7.45727
-16.1727 135.778 14.815
-21.3347 132.945 -0.331338
-4.65471 134.757 11.1511
-2.54472 126.168 8.90538
-38.322 137.796 3.84849
-0.494767 127.207 -4.64743
-16.7482 150.66 0.150931
-23.4341 91.1468 21.4329
-12.0819 142.886 -3.95443
-17.9793 153.071 3.99072
-19.4975 134.748 -1.53794
1.18662 133.714 -5.42828
-1.91413 145.645 3.87957
15.8559 119.483 6.71396
-0.484859 96.118 -2.76732
-23.5868 97.1882 23.0362
-26.8131 113.431 21.6148
-14.1989 99.9643 19.66
11.6905 128.798 7.14006
-36.3809 134.086 1.71969
-30.082 119.008 -2.53154
8.77843 138.658 -5.91801
-9.71343 105.853 16.416
-28.9337 141.43 7.62929
-7.75496 90.7258 -5.81481
-27.8081 96.1955 -1.82151
-15.4395 96.2057 -6.70016
-10.542 115.54 -7.60084
15.1474 142.125 6.4052
-7.61266 131.783 -3.46946
-20.7138 108.305 18.9631
-0.938853 141.316 -2.17724
2.73445 123.616 -8.18078
-13.1807 131.127 0.485455
-15.8866 116.934 -5.20837
0.402143 140.777 -3.30727
-7.8746 108.177 -8.09204
-20.4031 142.867 7.91673
-24.3422 109.073 -4.11644
-22.91 91.6157 21.3331
-17.4957 109.077 17.1504
-19.2031 117.631 -3.63508
-24.4503 143.686 -1.36511
17.388 121.363 5.05123
-9.05518 130.558 14.3954
1.4005 132.179 6.90096
-18.0441 149.162 5.86506
-28.7291 119.583 20.884
6.49708 118.251 7.39071
10.941 142.363 -3.23293
-14.8455 104.708 -7.04312
6.47693 118.026 7.34766
-5.64327 106.042 -7.85434
6.44303 123.77 2.96165
-33.895 143.692 3.35583
18.3269 140.417 4.06125
-34.1055 120.539 4.31174
-38.953 102.724 5.06364
-36.6616 133.446 2.70897
-28.5786 96.7753 24.9135
-10.6211 123.739 14.3941
-29.5651 105.924 25.2541
-21.7112 124.796 18.7773
6.18773 106.498 9.75925
6.77157 126.122 -3.80342
9.63317 131.366 -5.52475
-25.6962 145.956 6.71927
4.33076 136.567 5.51742
-9.23101 109.565 -8.35309
4.88688 112.017 12.5684
9.77125 118.25 -4.96349
-29.2182 123.857 18.9898
-27.7362 139.037 9.14494
-29.51 91.6598 25.4708
-44.3413 91.0814 15.4961
-3.52524 117.98 11.4601
4.3819 132.905 8.83534
3.81367 117.88 -2.13625
8.98996 119.685 1.09276
8.45701 154.656 0.52223
-29.5883 129.515 12.4059
-36.0556 98.1078 25.3943
-1.30675 136.249 -3.25477
-23.9779 123.938 19.1948
-16.4432 139.092 12.5225
-29.1357 103.449 -1.88147
-25.6857 97.2109 23.5773
-26.6459 100.233 -1.86461
17.6555 134.087 5.33981
6.45611 136.474 9.23695
15.5914 135.099 6.51377
-18.7827 143.589 6.91794
-31.1336 114.67 -1.10837
-17.9306 136.647 -1.96678
-26.8104 132.716 -0.62443
14.4218 137.363 -2.37575
-22.3298 136.643 13.8181
9.58781 124.577 -6.17182
-40.6951 103.103 17.3812
-40.9926 89.2917 8.53465
-25.5724 87.8079 23.464
-15.2537 133.022 0.453301
17.5319 140.101 4.70738
4.9054 143.948 -4.81058
-43.4138 93.9505 13.9271
-29.3835 138.424 -1.9229
-9.32619 103.588 18.0492
14.632 122.72 7.84441
-10.8103 94.8255 -7.53218
-31.1973 139.419 0.109067
-11.2243 151.783 -4.51812
-27.4805 131.906 1.42336
-7.53119 102.148 -8.38414
14.5732 121.448 7.40444
17.8885 133.608 5.20344
-0.621305 142.903 8.44174
-29.9918 132.263 9.89048
-11.1587 154.94 -0.899995
-33.4864 107.027 0.831125
-28.613 108.123 24.1298
-1.45285 139.752 8.93712
11.1347 142.974 -2.42557
-26.655 132.813 1.01487
14.8286 119.548 -1.38518
-26.6819 125.716 -1.7803
9.48046 124.711 -4.87785
-11.7568 150.877 -4.4702
-8.83827 143.344 8.17805
7.37422 122.354 2.16056
-31.031 128.827 4.10718
5.12229 103.819 6.0717
13.2834 139.961 7.40294
9.05214 119.109 2.93162
-34.9323 112.697 1.83216
-9.82517 130.738 -2.38467
-22.3914 142.1 -0.489359
-36.2349 113.592 8.83798
-25.7147 105.536 22.1548
-9.07246 137.438 -0.510869
-2.70856 103.114 -6.11784
-27.9283 129.919 0.716829
16.4965 139.942 0.281949
-37.8717 107.545 13.1615
-36.3615 91.0923 4.61775
-31.4875 130.113 2.33051
-32.3573 87.7231 1.3517
-22.9393 92.4892 21.4765
-23.4312 90.7193 -2.78358
-34.3908 108.474 18.287
-9.28468 85.9934 -5.24695
-30.363 125.603 13.9824
-40.1691 139.259 7.01357
-23.7851 145.425 0.58977
-19.1702 111.591 -6.35708
-36.8098 96.8636 4.64312
-1.76559 136.413 -2.73978
4.14685 112.96 13.6613
-30.6703 124.302 17.9591
11.1393 122.205 5.41963
-32.6289 121.628 12.0898
8.65356 120.267 3.0913
8.61351 152.505 1.79231
-35.3323 109.677 2.18827
4.66823 120.358 13.602
-23.7902 100.71 21.7271
-23.6102 107.66 21.2772
4.74949 112.467 -1.17423
-34.9608 104.854 20.1024
-6.81234 117.67 11.787
-39.8127 100.856 22.5335
3.06885 116.136 -6.26072
12.8965 132.603 -4.65293
-21.8839 95.7246 22.0216
-22.8076 126.179 18.3313
-18.739 145.552 6.93041
-29.8291 132.647 6.66218
-14.6802 148.545 2.41173
8.02208 122.48 1.11526
7.09457 123.62 3.67381
-12.987 89.6116 -6.63175
-21.3583 125.893 18.3027
11.6469 116.466 -0.884525
-36.5212 95.8973 25.229
-2.45998 121.739 10.1534
-30.4413 133.311 6.74864
3.5909 151.051 -2.58756
-30.4581 145.361 4.94638
-29.8662 88.4775 26.9526
-3.57978 97.45 -4.98418
-34.5624 129.648 1.86671
-32.7303 99.9096 25.5328
1.86416 102.516 -2.64114
-20.8202 137.374 10.8287
-36.6692 97.768 4.41736
-7.12399 142.537 9.93991
-16.4451 126.618 -0.270338
-4.17804 140.388 9.96322
-26.5882 135.287 13.5069
-36.6873 105.662 2.68389
8.10608 131.859 -7.37766
-8.62183 119.008 -6.64958
-20.7001 128.316 17.2726
3.51969 149.714 5.33716
-5.43554 140.994 -0.553709
-37.5199 87.2655 4.63781
-34.671 100.103 25.4965
13.2518 144.643 1.41219
-6.01712 144.333 6.16698
-38.1228 107.915 9.69364
-31.7436 139.897 0.622263
-35.3419 114.729 6.95092
-19.9069 131.796 15.1199
-16.6071 98.106 -6.40177
-8.38574 138.443 12.2021
-29.8682 137.202 -1.56795
-32.1046 136.323 3.76673
-14.4697 136.894 -2.69033
-25.086 138.789 7.96801
-3.45878 108.171 -6.68177
-29.7801 103.428 25.4787
18.6541 119.255 4.68973
10.5641 139.063 -1.84025
5.81511 106.91 7.62825
-35.0632 115.063 17.1784
-21.6016 91.9798 -3.66708
-22.6265 140.022 1.11016
6.38634 113.284 7.16711
8.03539 147.091 -4.766
-26.942 149.129 2.95125
-22.6751 91.2435 -3.264
-5.24754 136.286 -1.60684
-25.5902 118.848 -3.72502
10.0929 135.512 -4.45931
-30.7042 144.081 5.17118
-15.805 106.765 17.2481
-29.3933 141.323 7.61696
-13.8917 134.895 -0.460563
-3.73025 100.066 -6.13037
3.19275 109.18 14.2365
7.06119 124.315 9.12303
-23.211 116.865 -4.27784
17.8611 142.619 3.74949
-19.9413 140.588 -0.115826
-1.31264 137.414 8.33866
-7.53143 133.604 12.9701
18.6678 131.021 2.64262
-4.63705 151.136 -4.68059
-2.97673 111.821 14.2953
4.26634 147.303 -3.2387
9.13798 124.019 -1.04787
-27.9025 94.1373 24.4365
-10.2091 135.381 13.8929
-30.1674 131.028 0.621566
10.3205 120.048 5.14632
5.96815 126.686 2.40743
-12.273 120.631 -6.80361
-29.6871 131.024 0.685518
-5.06291 95.9474 -5.67377
-17.4422 140.468 -2.21549
-22.6227 145.917 7.6018
-29.6272 137.307 -1.96516
11.9043 129.606 6.79529
-27.2526 145.894 6.10266
-29.7685 127.565 10.9036
-3.36945 144.884 7.6843
-26.8297 94.658 -2.01444
3.32336 128.965 11.1752
-17.181 142.25 -2.48297
-16.545 126.642 -0.211004
19.2167 126.178 1.58161
-16.4941 126.809 17.628
17.314 134.561 5.62406
-30.2028 126.692 15.8472
-10.3272 120.314 -6.84382
-35.4747 116.022 8.32336
-2.52874 105.957 -6.23462
-19.4224 143.79 0.159112
-13.7046 108.973 15.8028
5.90596 109.271 1.77526
-28.418 102.691 -1.6348
-32.8055 112.395 0.318334
-11.5811 119.684 13.9182
-39.9602 103.388 11.8495
4.89373 113.024 0.0995045
-23.3111 92.5675 -3.04944
-8.97463 142.484 6.52953
-14.0423 139.006 -3.63429
-30.7262 102.228 -1.34461
9.69764 129.504 -5.86205
11.0848 135.692 -3.37518
-40.7144 93.5972 8.88403
-34.1965 96.2735 2.25492
-30.9485 117.201 20.9338
11.1478 133.144 -3.62805
-27.5571 124.158 19.3248
15.9792 121.676 5.4799
-37.8377 99.8981 24.684
-25.4039 150.163 4.34228
-32.1135 135.949 5.08118
4.68374 112.211 -4.19786
-19.2525 99.8674 -5.29677
-38.399 106.159 14.7024
-5.88698 145.454 -3.11729
13.0233 126.836 -1.7764
4.95448 147.971 -3.37861
1.35476 147.245 6.48308
-1.92761 104.153 17.3797
2.0461 145.843 -2.62449
-31.3831 131.39 7.1601
-5.64452 108.92 -8.36568
-10.8462 155.434 -1.52016
-44.7286 94.0171 18.0927
-16.2044 111.197 -7.44962
-16.8209 120.74 19.0647
-27.7089 135.639 8.85357
6.34199 120.009 10.0629
18.8391 120.379 3.38222
-18.4303 103.192 -6.0347
10.7464 123.973 6.07245
12.1884 133.198 6.38401
-18.0986 138.74 -0.868353
-29.3377 132.931 1.36489
15.11 130.319 -1.56855
-18.7037 121.353 -2.60944
-0.569688 144.854 -1.40503
-10.5687 135.672 13.7267
-12.0395 106.147 16.3839
5.0922 128.014 -8.25303
7.41771 112.258 9.35297
-41.3013 98.0065 9.97851
-28.7939 144.127 6.18919
4.1659 123.541 13.2849
-26.351 125.778 18.7606
17.4329 128.733 0.940229
13.9322 124.308 -1.35311
-19.2969 138.766 8.75339
-6.91723 91.3777 -5.451
4.79677 114.258 3.46542
-27.6997 84.4296 -1.18536
11.7914 129.892 -6.06963
10.4153 124.485 6.27561
-36.0502 138.053 9.07332
0.616025 121.02 -5.8426
-26.7111 134.861 1.98763
6.25903 106.029 10.2204
-14.8594 136.317 13.9111
-30.4603 125.051 9.5436
2.06246 138.868 5.63084
9.29395 120.551 3.34367
0.894083 116.26 -5.96681
-25.6568 118.46 -3.77821
-16.7859 105.007 17.9503
9.10068 126.641 -2.64689
-20.8146 147.502 0.852474
-13.2929 96.2024 21.0316
-2.01191 130.882 -3.83098
-16.7407 141.403 6.07345
-10.0756 140.813 -2.96074
10.4565 132.853 -5.04944
-9.30744 131.753 -2.20142
-8.3526 114.929 -7.03959
-21.2702 82.8063 -3.70788
7.39791 154.991 1.07864
3.11244 115.874 -7.15111
11.5879 120.56 -8.30386
6.51681 118.582 -0.638102
7.41655 137.612 8.8892
-21.6795 141.585 7.89192
6.7074 128.852 -2.2887
-42.4451 97.2005 24.6632
-37.1345 140.908 7.65293
-37.661 108.349 14.7682
-28.0312 87.4935 24.9309
-33.3073 98.9038 25.5727
-32.1929 121.13 9.61859
-31.9879 144.028 5.34964
11.2109 126.947 -5.71839
-24.6312 102.723 -2.92803
-17.7307 110.649 17.6077
6.96249 147.017 3.36139
-33.7276 109.712 19.4211
-42.8286 97.0313 13.7412
2.49227 149.384 5.61023
-2.21943 121.586 10.1867
-9.76244 99.1481 -8.09459
-1.89642 140.374 9.55499
-30.3135 132.088 1.42443
-3.78681 112.214 13.6623
-1.02489 129.006 -4.15652
0.905665 146.649 6.74998
-21.4983 130.29 16.0692
-2.20692 127.73 -3.79764
-22.4868 146.088 0.608856
-31.4586 111.838 22.8509
-29.1634 107.498 -2.46626
-19.6853 81.39 -3.81515
-17.1884 118.068 -4.04935
10.0509 119.127 3.96832
-34.2023 131.973 1.30522
6.42524 132.044 9.47291
-44.7261 93.4367 17.7843
-30.0748 131.816 3.80484
-23.5698 100.37 21.6786
-0.425123 138.379 7.63497
-26.1012 130.157 16.8013
3.03448 143.596 -3.89905
-5.21466 130.101 10.7667
-27.0239 83.3106 -1.12486
-26.5067 113.5 21.5208
-15.8352 149.938 0.488476
-30.7875 107.489 24.4644
11.2934 124.835 6.64445
-0.77298 125.734 -5.2186
-6.82072 122.87 -6.11592
14.1877 131.15 -3.04587
-43.8956 91.9606 14.416
-15.8822 148.578 -1.53224
-10.455 142.568 5.6677
-32.4339 133.604 -0.577243
-39.6457 105.211 14.0454
13.9899 132.036 6.62651
6.97193 122.156 -2.45066
-32.505 136.25 0.0191981
-6.38758 144.943 2.91533
-30.932 130.634 2.05078
1.48273 121.831 -7.83987
-11.616 134.629 14.0912
-33.7033 125.336 3.76415
1.12209 139.6 6.38978
3.13153 112.383 -5.56743
16.7397 136.772 6.53167
12.9796 122.221 6.44938
-9.55334 154.721 -1.23627
-15.0851 93.5325 -6.66473
13.7127 127.382 7.25065
0.0478327 142.401 -2.46759
12.8526 118.056 5.67861
-5.45492 143.616 -1.99514
-31.4611 128.829 8.70681
-3.3305 128.477 -3.83547
-27.6233 105.921 23.7468
-15.9864 140.438 -2.88744
-1.82844 143.763 8.21199
-13.118 152.126 -1.64934
15.2862 128.773 6.74614
12.1353 137.078 7.32893
-35.5611 137.361 8.55579
6.32493 127.426 9.46431
14.4785 134.997 -3.30694
-39.5692 99.5162 24.3436
-3.0757 127.937 8.69934
6.15822 124.162 3.12305
-28.7081 132.206 13.6769
5.955 155.058 -1.09122
-32.6122 106.693 21.9601
6.4697 109.795 3.3279
-14.2368 132.218 14.828
10.3834 150.543 0.187804
-30.1988 105.907 -1.3038
10.4797 123.61 -7.19513
-26.7929 140.35 8.35044
-24.6278 100.004 22.4438
-41.8296 102.108 16.753
6.52682 120.35 -1.33774
-15.9247 119.176 -3.8485
-1.87363 142.373 -1.33397
7.4929 136.593 8.8955
-38.4262 137.409 4.07598
-31.534 135.57 6.4587
6.3671 113.222 7.12854
9.60646 126.644 4.99045
5.61275 135.809 -6.58461
-19.649 87.6922 -4.7275
11.4078 126.015 -6.34851
2.32658 119.493 14.2648
-35.1496 87.6812 3.16313
-35.7231 113.558 5.34248
-21.0992 85.5595 -4.20748
-31.7186 108.819 -0.663843
-9.80469 128.224 14.8357
-3.82876 97.6463 -5.28886
-35.8046 115.278 8.76917
-7.97282 88.3295 -5.18573
-27.0617 116.724 20.7242
10.3893 127.635 5.66646
-33.1612 143.31 2.81479
1.73509 118.812 -6.26972
-32.0735 81.7773 1.22807
-32.7858 126.233 5.38776
-31.5343 93.3288 0.821317
-41.5855 94.59 25.272
13.1743 130.665 -3.97492
-7.16816 129.808 -4.43527
-35.9585 94.5784 3.62371
-19.7473 145.774 7.36203
14.0202 126.564 -0.823697
4.33839 133.202 8.33394
-38.7676 104.182 7.87545
-30.8303 135.455 -0.132109
4.65182 130.089 -7.536
15.9897 142.054 6.00776
-31.2995 133.108 5.71253
16.0809 128.163 4.80759
-22.6299 151.46 2.32359
-23.3394 132.297 15.594
-21.3696 127.163 -0.644991
-32.1726 82.0906 1.22729
-40.1298 91.0599 8.03047
0.693212 122.272 -6.83552
-26.5743 91.7014 -1.93212
-10.1963 98.0201 -7.96947
-16.0686 151.633 5.16041
-9.19086 144.44 2.32782
-43.0094 93.5392 12.8599
7.46469 123.081 -3.35703
-24.1252 86.0521 -2.91102
-8.9047 142.568 6.58249
-39.0421 88.4523 6.37171
-3.22087 105.701 -6.44295
-26.1149 130.543 -0.688123
-15.0288 100.396 -6.49551
-32.1908 97.4064 25.7566
-24.1485 120.24 -3.06798
12.4203 132.421 6.17553
-5.41239 118.905 11.2101
-31.0578 107.472 -0.613806
-3.23748 121.159 10.4408
-35.9907 112.194 11.8765
-10.0057 96.7003 -7.81858
-10.8834 149.549 0.558401
-8.3858 103.803 -8.4768
-26.6543 141.55 -1.85445
9.5716 127.353 -2.57747
18.1828 140.136 4.23896
-39.4993 104.473 16.772
-4.15817 131.003 9.96184
6.0473 146.453 -4.50859
8.71628 131.351 -3.56948
17.5278 139.11 1.05638
-39.9184 104.447 12.9415
-0.303918 123.144 -6.59877
4.45979 129.605 -7.56047
-27.9633 141.113 8.09245
-10.9659 127.28 15.6564
-25.4891 149.796 2.35288
-32.9438 145.092 4.61744
7.10827 125.307 8.30879
-16.4871 94.2811 -6.00161
-21.921 108.784 20.1945
2.27184 98.9962 0.933662
1.07254 138.277 -4.63601
-1.68202 128.173 -3.91558
11.4766 120.4 6.3639
-18.339 116.471 19.1768
-30.637 123.792 18.1952
-13.3932 141.975 -3.51658
8.26167 129.959 -2.18436
-18.1413 139.103 -1.05789
-21.6743 150.926 5.65173
-20.3117 106.809 18.8786
-27.5526 132.344 14.7184
-25.8406 144.705 0.163865
4.30225 108.32 12.7854
-24.5874 139.179 -0.496947
-38.8453 102.777 4.96851
6.82779 140.159 5.69142
9.74979 132.943 -2.57576
-27.5597 108.879 23.6066
-39.6156 100.903 6.39992
5.76938 123.258 11.8871
-15.8974 125.728 -0.942721
-25.6166 135.291 9.03584
-31.1038 117.087 -0.68488
-39.1148 101.436 21.8474
6.11213 112.73 11.6826
11.129 143.987 -2.7267
-21.1728 132.327 15.1001
-11.0748 117.451 13.2801
8.67443 140.606 7.73797
-1.00259 127.05 -4.32165
-19.3528 117.35 -3.7193
0.872575 148.255 4.82807
-44.4014 93.2083 16.8206
-6.37712 116.115 12.2487
-25.333 130.078 -2.25019
-12.4027 155.072 -0.51276
9.18002 126.682 6.58628
-15.0242 150.506 -0.114476
-7.79455 145.095 1.72523
-8.66253 102.299 -8.34528
-28.8332 129.107 1.73996
0.572906 128.718 7.92543
7.75132 130.423 7.88916
2.31091 101.763 0.983954
-14.666 116.165 16.4016
0.831515 134.491 -5.39343
7.54571 140.411 -6.41714
-32.5109 125.988 3.14119
7.76526 130.41 -2.24754
-30.0935 130.947 2.37693
3.53037 145.483 4.95616
-1.52053 117.022 12.2765
9.29263 142.593 6.32683
-38.6477 101.311 22.6068
-3.44181 141.198 -0.872469
-30.6367 136.863 1.44331
-36.5728 142.052 6.11575
-1.68011 121.017 10.3856
-17.5896 145.337 -1.03501
-10.9049 99.2881 -7.94483
-37.8016 137.379 3.48348
-18.4043 97.2442 -5.45763
-26.1987 109.524 -3.06626
6.73297 137.173 8.86357
-43.6237 91.1103 13.6769
-18.7554 142.76 -0.598389
-23.2001 94.2834 -3.42963
-34.9173 137.084 8.39439
-0.168623 143.911 7.95766
-28.0486 135.055 6.94879
-17.7856 147.865 5.30998
-4.3765 126.017 9.54976
-35.5084 87.8533 3.50459
8.34394 144.717 4.41572
-28.3182 110.568 -2.47837
2.23225 145.17 -2.82046
-20.6542 89.8204 -4.24623
2.21293 99.0346 0.782807
-32.9808 114.553 20.3386
-24.6649 87.9638 22.7346
-9.21514 133.263 -1.29192
-36.17 99.5006 3.90842
-32.9753 82.5715 1.60132
15.9657 136.108 -1.37169
16.6963 122.92 4.00159
-34.8052 110.016 1.61228
-30.8927 131.052 1.74424
-35.0925 106.465 1.53431
8.11226 139.583 -6.44422
-43.5145 94.2306 14.4263
-33.7972 86.9969 2.2549
-30.9185 124.315 11.8502
-34.9112 86.7483 2.86848
-29.0641 132.56 0.944155
-13.4621 129.551 -0.0861752
-31.3538 132.6 6.73031
-23.7961 101.999 21.4915
-10.4511 138.655 12.4057
1.04847 130.42 7.4274
-8.37279 142.096 -2.60683
-9.91664 111.289 -8.16616
-32.9611 110.061 0.494843
-33.0903 119.142 7.15766
-18.8784 102.012 19.4471
-13.3965 118.789 -6.79654
-27.2139 93.172 -1.70247
-34.7573 143.075 6.01291
2.47066 103.423 -0.6508
-18.6887 136.53 -1.50075
-6.68781 134.107 -2.66732
-31.2578 131.724 3.76163
-34.4516 132.579 0.272598
3.05577 110.112 14.3289
-20.8965 119.224 20.1349
10.8562 141.596 -2.74129
-44.3818 94.3739 19.8099
7.83747 123.771 3.40042
12.1686 148.327 3.82876
-4.78291 102.425 18.1227
13.7882 142.346 0.369735
-24.6458 139.183 7.77055
-20.9143 124.186 18.7647
-16.4471 94.4051 21.3041
-26.2835 148.16 6.27683
-30.958 134.668 6.19562
16.1551 124.985 -0.747886
-7.81271 116.161 12.382
-22.9497 102.453 20.9666
1.16294 104.59 -4.75705
-34.232 105.084 20.4762
-24.4597 79.1922 -2.79874
8.46026 127.97 0.643688
-14.3672 120.86 17.4656
-31.2303 132.998 4.50388
-10.6319 100.218 20.1664
15.6688 120.824 7.5824
5.88271 146.913 -4.24424
-11.9758 109.374 -8.36736
-19.3737 144.387 7.73171
-12.7869 141.705 8.98238
-33.133 137.174 6.67733
-3.17585 105.585 -6.44534
-37.7389 109.412 14.4864
-19.9644 78.3527 -3.84048
-3.8881 111.061 14.2535
3.36927 134.748 6.2705
-19.5848 88.176 -4.83633
-41.1862 99.8138 21.842
-18.2285 146.078 5.60472
5.136 135.58 -6.33332
10.5896 127.607 -6.80861
12.9641 118.793 7.04097
6.71855 118.622 7.01718
-33.5656 103.195 23.9576
-9.99969 110.749 14.5357
-19.4434 89.7648 -4.83113
-7.31547 100.68 -8.06779
-28.5948 143.759 1.0979
5.45318 140.447 4.41074
9.54553 127.623 -3.47029
2.06583 122.146 13.3572
-20.5483 136.31 13.5517
-10.7911 123.436 14.4961
-21.478 121.45 -2.14301
-26.6719 135.467 8.30215
18.2717 141.679 3.73753
-32.9003 107.228 21.07
14.525 117.515 8.30526
-26.7623 131.417 -1.44207
-22.5459 111.078 -5.5936
-33.2258 129.976 1.45348
14.376 138.297 -1.85205
10.8843 144.893 -3.1241
-17.5926 129.988 0.742289
-42.7175 99.9259 16.4297
-19.8391 108.714 18.4295
-13.271 114.771 14.5525
-33.9321 119.595 10.7806
9.45496 123.933 5.7152
-32.1539 123.664 15.5028
-26.3132 93.6088 -2.07109
12.9518 119.886 7.07089
-30.7827 131.463 1.92291
-27.9342 133.509 1.40166
17.0974 139.498 0.732448
-1.31707 132.354 -4.10707
7.60916 142.668 -5.7978
9.11375 128.348 -4.11401
12.9004 123.693 -1.59015
-29.7819 112.057 -2.37032
5.53936 113.398 12.2449
-33.9623 117.035 5.18068
-11.4458 115.789 13.4654
13.5685 116.803 4.30994
-41.3759 94.0306 10.0341
8.82241 119.749 2.27202
-38.3879 100.55 24.0751
5.15432 106.392 11.7739
-1.09089 124.641 -5.1909
-10.4646 150.207 0.400498
7.69148 113.187 8.67852
14.4341 120.481 -1.67002
-35.4977 98.5716 25.5606
-13.6772 126.301 -1.91851
-5.11461 122.086 10.3912
16.1038 137.449 -0.662619
-15.9346 144.4 -2.68033
10.1373 129.312 -1.7405
-17.7928 137.604 -1.38536
8.6779 129.566 5.31449
-5.91562 120.175 -7.05645
-21.4448 140.147 7.42095
-29.0669 120.866 -2.91479
-4.77207 132.004 11.097
-34.6934 139.454 1.18775
0.00318307 150.114 -3.04276
13.1478 133.985 -4.24671
7.33454 123.337 3.58248
-7.97777 129.216 13.158
7.70834 126.987 0.219104
-15.9486 150.49 5.29876
8.93131 127.655 4.90135
-19.3223 90.5401 -4.86119
-38.2755 105.022 5.09079
-10.2155 102.441 -8.17208
-25.5962 97.5301 -2.26579
-3.30362 106.806 -6.46069
-44.6856 94.2132 18.8036
9.48923 136.217 7.54897
-42.2516 94.3461 11.2733
-34.1601 135.749 4.26497
13.4663 122.628 6.91975
-25.66 115.954 20.7809
-7.6519 131.866 13.203
-16.4017 112.556 17.4804
-10.9281 101.076 19.6212
-4.6849 139.646 -0.500401
-38.8233 137.311 7.98015
-12.9868 122.502 -5.00226
-42.9018 88.6141 13.5472
-31.9403 144.236 2.53113
-43.3247 94.5533 13.8084
-37.3384 141.183 5.13133
-31.8037 98.1944 -0.302703
-2.29092 125.261 9.09617
12.0938 119.772 -4.8842
3.19519 146.973 5.22961
5.86229 125.866 1.87911
-27.2605 105.627 -3.17755
-16.6291 140.7 9.73253
-22.2845 136.582 14.0871
-15.0035 143.845 4.04082
-21.3108 103.66 -4.78669
-0.837146 113.286 14.7481
-13.7424 113.231 14.7888
-0.0125138 116.595 13.9709
2.05148 102.614 -2.27503
7.25494 125.291 -4.40629
-25.8346 135.012 12.1159
-31.2906 137.208 9.31319
-26.7403 135.2 13.2325
-24.0987 142.19 -1.53876
8.23147 126.901 -5.11969
-23.4374 108.766 -4.47727
-18.3293 145.325 0.369775
-32.8617 113.872 20.6312
-27.3363 132.594 -0.318064
-31.379 97.5396 26.0156
-10.5334 127.006 -4.19821
5.41521 108.813 11.8114
-1.59717 136.921 -2.83543
-19.1528 129.849 16.1358
-24.2066 99.2799 -3.08821
-22.262 151.625 4.52088
0.419547 118.821 -6.15795
8.2587 128.017 7.93107
-32.311 114.974 0.253035
-10.7021 133.209 0.0649884
-38.6038 89.9382 6.0394
-8.79422 127.666 13.6417
1.38438 110.19 -6.17764
-1.83924 146.125 4.92789
-21.7038 136.923 11.1531
-36.2757 113.823 15.4277
-18.9908 109.749 18.2074
-33.4066 137.855 -0.376414
6.72375 110.836 5.27067
2.02084 152.626 -3.20849
-8.02571 152.746 -4.2204
-29.7708 128.189 11.2812
9.21958 137.82 7.66267
-29.367 144.247 5.86797
-2.76577 151.728 -4.11857
-13.076 128.308 -1.15524
0.792713 146.414 -1.85085
-6.16969 128.862 -4.64764
-18.9151 99.5055 20.6573
-36.6921 111.378 5.93742
11.003 116.861 -1.54047
-30.1696 93.7047 25.9209
-18.2567 79.865 -4.24644
1.26212 100.733 -1.87937
8.69994 151.491 -1.59102
-37.1758 84.3013 4.35987
1.59983 100.006 -0.564751
-34.3024 91.2275 25.5124
-17.9869 94.6235 -5.26034
-0.0325066 128.654 7.86233
-12.5116 100.111 -7.59164
-29.5849 86.5241 0.15527
-27.0015 115.426 -2.52575
6.13679 147.904 3.48299
-4.4538 124.426 -4.74465
-36.1761 108.402 2.81463
-10.0902 114.363 -7.60401
-29.2341 124.517 -2.27322
2.53546 112.954 -6.10238
-34.4008 114.899 1.84302
-34.8176 98.0714 25.6378
-12.3947 110.308 14.8876
-22.8259 119.533 -2.92757
-12.6629 126.717 -2.54984
-16.271 152.125 -0.0877682
-37.2872 140.762 7.71355
-20.6086 146.215 0.305459
-36.1538 101.017 24.7057
8.96574 122.873 6.44275
-27.3327 88.5265 23.8642
17.7067 135.079 2.76656
-21.5414 91.5509 -3.71625
-7.08296 108.093 15.2749
-15.1116 95.0274 21.2464
-10.1621 130.066 -2.51177
-23.2419 114.955 -3.88007
-9.27079 128.567 -4.32186
12.8527 120.915 6.58057
-20.8013 142.212 -0.579513
-28.0557 122.899 -2.8233
-6.22134 99.2174 -7.27766
-42.4389 93.8843 23.7241
-25.387 144.402 6.79554
-6.80379 112.477 -7.54139
-29.0112 120.435 20.4864
-0.251557 132.424 7.004
5.01775 149.584 -2.9418
-11.9306 154.784 -0.111161
9.8407 131.836 6.25713
-27.7125 147.245 6.18953
-29.789 87.5637 0.280311
-4.69452 150.83 -4.63652
13.7847 130.664 -3.20044
11.6756 137.142 7.40374
-19.3376 129.772 0.616513
16.7597 122.389 3.99627
-24.7577 126.433 -1.42327
8.63636 126.186 -1.08383
14.5539 120.974 7.24243
-11.5871 99.4079 20.377
2.87146 115.096 -6.23729
-25.3753 129.219 16.9974
-25.9218 142.188 6.62006
3.40471 107.156 -1.99759
-33.7358 135.262 6.25173
17.4577 126.457 3.13764
3.69916 121.155 -7.28773
-37.4343 92.1938 5.62436
-21.4344 133.421 14.8239
6.88484 137.065 -7.16467
9.5436 118.655 -6.17673
-21.9376 111.106 -5.72365
-17.0066 127.418 17.4772
-35.5586 100.667 2.93528
-16.0152 118.32 18.3897
-28.3445 131.573 15.14
-5.29295 117.236 11.7987
-31.7216 122.817 11.8095
4.57299 141.769 -5.54931
-11.2925 150.442 1.04875
-22.9089 128.332 -1.19052
10.9641 128.489 6.61899
-12.569 100.608 -7.55163
-26.2526 136.358 0.949238
-31.636 132.529 -0.460362
-37.5098 140.063 8.49312
-16.3808 141.218 -3.05607
-32.4407 127.227 5.41774
-34.5889 115.794 4.19501
4.35664 118.765 -3.17964
-19.654 131.795 15.1321
-8.26268 125.395 12.1472
-25.347 134.846 11.7546
-33.0501 112.405 0.723504
-33.6749 100.383 0.805731
-12.8946 109.911 15.1328
-28.7277 132.935 11.7265
1.60954 131.673 -5.44388
-13.8078 145.801 -3.40934
11.6021 119.716 -4.39907
-6.8119 114.87 12.7632
-9.42697 88.1657 -5.89345
-29.3107 128.547 1.23627
-32.0001 111.043 -0.185099
-25.2179 85.3618 -2.54375
2.35525 105.945 -4.47994
7.92094 146.83 3.17215
-7.19145 123.6 -5.8164
-5.62117 104.537 18.1959
8.0698 121.417 0.102228
-18.0846 124.169 -0.895085
3.50457 138.783 5.09998
2.84571 107.84 14.6436
5.03104 139.874 -6.18128
1.68428 119.187 14.2045
17.7901 126.381 0.0138433
-40.7311 98.8739 8.25697
-3.501 123.509 9.79552
11.031 139.545 -0.93093
-28.0812 146.489 1.69767
-15.3597 95.3109 -6.50228
-6.91981 90.7037 -5.2879
8.01046 121.621 2.72543
-34.8634 94.8598 2.77995
11.1356 131.141 6.7794
-36.5616 109.864 9.8831
-18.5504 140.975 -1.24707
4.2708 116.357 -0.180271
-20.9826 111.169 20.4539
-32.3759 135.434 0.298674
-34.9685 111.858 17.7915
-36.5827 141.513 4.05593
18.4435 137.387 4.83663
7.97036 129.237 -6.69618
-18.6402 135.803 -2.12902
-15.6722 106.519 17.2385
-9.82345 129.292 14.8741
-12.0379 102.288 -7.69687
-33.5795 119.776 9.40476
-39.3426 91.2138 7.32453
4.67504 118.789 -5.15913
-28.5738 131.536 14.935
-39.3689 102.978 7.73146
-32.5384 122.674 16.0514
-13.1384 102.671 18.117
-19.6707 120.806 19.6665
1.3051 105.136 -4.82036
1.51836 98.9049 -0.980784
-9.48105 117.766 -6.93976
-12.7244 101.651 -7.45354
-23.5192 110.999 22.0787
-40.4471 92.9184 8.05042
-31.2612 135.328 2.02619
-30.5172 112.796 22.5621
-39.6284 88.4948 7.02501
-28.1046 109.196 -2.87707
-22.4124 99.9184 -4.07168
-30.3214 130.818 1.98333
-30.1389 125.446 11.3494
5.14216 105.505 11.6296
-38.5549 100.712 23.6459
8.8265 151.697 -1.20011
-5.36716 144.316 5.33012
15.8336 131.556 -1.37718
-35.633 83.3451 2.69304
-5.18342 145.23 2.06654
-20.849 120.629 -2.73873
-11.1568 139.494 -2.91147
-31.119 126.005 0.760359
-15.7351 105.785 17.4029
-18.4405 122.224 -1.9722
8.83968 147.03 3.32495
-2.75796 145.517 4.79733
-11.6691 119.32 13.867
4.34192 127.398 12.2089
2.91631 113.548 15.0882
2.98984 148.987 5.53781
-30.6151 123.759 -1.37884
-32.0656 115.495 20.9051
-8.41355 120.714 11.6786
-33.2222 88.1023 1.77742
-19.6759 103.608 -5.41589
-5.08631 103.12 18.3134
-14.534 96.7268 -7.1183
-2.7301 132.873 8.83418
-36.3692 102.569 21.0661
1.97711 115.159 15.268
-26.6045 97.6971 -2.03975
-31.1487 108.826 24.0803
-28.8013 80.7603 -0.451035
-26.8059 92.1917 24.2519
-2.31241 139.717 9.68133
-35.3439 116.327 8.48335
4.52355 106.232 12.3825
10.3583 119.386 -3.13846
-22.829 89.4093 -3.31774
-27.0343 136.851 0.295581
6.16983 133.1 9.16773
4.7028 131.278 10.5218
-31.0096 126.559 1.31112
-27.5302 132.476 1.60248
-12.8154 112.704 -7.5784
-30.4342 112.116 -2.08825
18.0707 123.249 4.29744
-2.06994 134.208 8.45137
14.6235 144.536 5.27661
-3.87174 120.002 10.7899
-29.9007 108.294 24.4026
-26.0887 138.25 -1.67429
-25.5782 141.08 -1.37103
-26.4383 138.174 8.46463
-31.3545 86.3075 1.00173
-1.25909 132.902 -3.96995
-1.10073 134.816 7.57637
1.20724 136.079 6.30051
-14.2628 126.545 17.5137
17.0178 134.796 -0.71273
6.34913 115.917 12.0031
13.3745 120.151 7.08882
-18.152 150.589 6.46388
-27.935 92.6581 24.8326
1.83454 144.36 6.0191
-23.5491 109.291 22.1126
-3.76211 102.813 17.7192
-35.4404 84.2572 2.60551
7.01144 152.096 3.80199
-33.2646 105.561 0.583538
-42.3383 101.266 16.4279
11.2581 149.19 0.80262
11.8396 141.293 -0.0280235
5.53014 124.826 2.87525
-32.3775 94.9494 26.162
-17.5246 107.908 17.465
-24.7369 105.968 -3.64893
-31.5097 125.506 0.574614
-20.499 110.945 19.9635
-28.6147 135.403 6.69026
-3.14521 116.148 -7.92827
10.9546 139.029 -1.03217
-18.8371 127.926 0.454597
-43.0134 95.4112 13.1981
16.7424 138.041 6.35864
-8.55034 128.646 -4.56232
-14.495 98.0031 20.8254
-26.2425 117.317 -3.44544
-6.26566 139.191 11.1832
-27.999 110.978 23.1127
-0.313534 149.146 -2.4384
5.35238 123.152 2.05457
-29.2668 121.797 -2.60633
-16.4532 117.776 -4.4619
-32.7393 97.4705 0.989486
-17.9724 111.668 18.4369
-16.1012 140.784 6.99427
-30.4545 145.524 2.889
-10.929 142.374 9.30364
-31.0334 136.118 7.03791
-40.9538 98.8759 9.26767
-7.08853 91.8033 -5.66622
7.0727 125.458 -6.38966
-37.1447 138.647 9.01105
-26.8509 103.859 23.0198
8.87649 129.845 5.36582
-24.3336 104.16 21.6456
-36.2844 84.2919 3.56849
8.79134 135.597 -6.66672
-25.0612 139.797 7.39137
8.71483 143.225 5.98984
-20.3481 132.802 14.9821
11.605 150.669 1.93803
-14.5042 148.341 2.10423
18.2308 137.909 1.71854
8.80626 132.451 7.74038
-26.9874 141.683 7.49206
-0.858015 139.738 -2.7951
-29.4671 113.535 22.2348
-27.4111 114.88 -2.49214
-19.6495 89.1275 -4.77838
-9.57499 144.392 -4.10814
-23.7681 139.76 -0.135464
6.98258 119.455 7.40815
-37.8243 91.6498 27.5047
8.18849 125.22 -0.904245
1.02154 124.289 10.2866
-31.5279 120.917 -1.08139
-9.15687 97.6994 -7.86149
-15.9768 153.114 0.141898
-31.3268 130.173 6.92569
-22.3988 135.539 11.3198
16.2038 131.388 0.16743
-21.9395 144.988 -0.278182
-19.1616 109.169 -7.06372
13.2873 148.579 1.98586
11.037 127.429 -7.06264
-33.5699 119.548 5.26578
-36.1213 108.603 2.81908
6.62802 154.207 -1.2638
-14.2241 115.157 15.5178
-22.207 135.5 -0.482881
11.2488 125.716 6.99252
-7.27752 140.174 -1.38983
-31.022 136.997 -0.716711
-17.1817 109.649 -7.3026
-0.12866 145.005 -1.55887
-31.6514 127.126 7.55413
2.80612 99.1674 2.80424
-30.5211 119.112 -2.22699
13.2001 144.659 6.05103
-35.3205 86.3794 2.9881
-28.4539 131.847 14.5522
-9.83208 141.263 -3.09039
9.66587 130.228 -2.25357
-8.21935 100.92 19.3369
8.44003 134.134 8.36357
-4.61598 127.438 9.35683
-35.5633 107.733 17.1246
-31.7892 144.356 5.15866
-19.0423 102.523 19.3297
-8.24268 104.885 17.2479
-34.5911 100.332 1.90404
-35.505 137.541 0.835958
-23.4979 87.822 -2.88803
-4.4543 139.253 -0.812399
-23.8905 141.893 7.51956
2.3434 99.4482 1.32679
7.09976 143.894 -5.7181
4.73312 145.082 -4.25064
-40.5232 103.116 13.9577
-18.3073 125.603 -0.331474
-5.1418 143.851 8.65319
-19.2699 79.4726 -3.86652
-33.1066 103.378 23.8038
8.39672 135.557 7.72479
-6.71158 118.982 -7.12082
-22.1241 127.119 -1.02607
-30.045 133.698 0.857288
-4.48426 102.226 -6.89066
3.14891 134.102 -5.56026
-30.8221 101.127 -1.27781
-21.7577 92.2427 21.5023
-37.6078 138.576 9.02758
15.2218 140.416 -0.622694
-30.314 131.832 1.45506
-23.8545 96.5965 -2.88977
13.9035 139.528 -0.935299
-11.9321 112.152 14.2739
-12.1668 104.666 17.0107
-30.8633 87.159 0.775184
-38.3463 100.464 24.259
-36.8395 108.938 3.3213
-20.224 150.917 0.339584
-7.69209 110.621 14.2839
0.954887 141.228 -3.46592
-3.96512 114.448 -7.99106
5.9762 155.225 -0.742242
-29.5603 103.065 -1.51547
-25.5199 115.003 20.9514
-41.665 102.699 16.2478
-12.487 121.683 16.0056
11.08 134.627 -1.7633
-34.4894 112.744 18.7304
-7.25902 97.5426 -7.05708
-0.251086 123.917 -6.5848
-12.1416 153.381 -2.5879
-2.06345 100.138 -4.72137
-16.2773 140.32 -2.84172
18.3699 135.902 5.03152
-15.7186 152.896 4.00651
-31.0325 135.529 3.31491
-7.66045 104.123 18.1862
10.4276 135.761 7.45938
0.89244 109.519 16.3988
-15.5514 123.513 -2.30024
0.215285 111.885 -7.37207
-28.6373 148.251 4.3468
6.97081 123.148 0.952461
-9.47675 128.749 -4.05575
9.79912 152.535 1.62782
-10.4295 149.916 0.323437
-3.93307 106.485 -6.67201
-31.0572 119.465 -1.73624
18.1088 129.493 3.38532
-11.8286 87.1777 -6.11866
-38.6654 86.2162 5.46451
-8.25793 154.884 -1.00667
-5.77251 116.683 12.0133
-33.5373 102.589 0.248592
-31.4717 108.807 23.6689
-10.3314 104.451 17.1476
-28.9597 129.395 1.77233
-29.0911 122.741 -2.4864
-14.502 144.933 -3.03438
9.06194 149.956 -1.93345
-42.6667 97.3679 22.93
-4.33477 145.554 -2.41154
-25.767 100.492 23.3532
16.8863 125.32 3.29316
-13.7336 116.438 15.3714
-16.0698 111.966 16.9165
-10.3364 98.6503 20.282
-36.5578 137.903 1.83162
8.48506 142.817 6.12098
0.039458 118.113 13.3373
-37.6343 91.8272 25.7308
-31.8795 105.968 23.6815
-29.3951 135.35 -0.858487
-18.6805 143.62 -0.0881023
-22.7391 125.496 18.6968
-14.8018 81.0664 -5.44964
12.8435 139.309 7.42357
-24.6682 96.691 23.5263
-43.0308 93.1646 12.6724
-6.30711 120.807 -6.78742
-11.0068 133.232 14.8199
13.4177 118.32 7.50596
16.3443 131.689 0.490591
-27.0127 89.7134 23.8836
15.2224 142.441 1.06394
15.7536 130.342 -0.29197
-8.00458 89.2833 -5.52258
-31.9559 130.814 2.04387
13.0476 149.69 2.31862
-23.5988 139.051 -0.595109
-16.1278 99.0436 -6.46226
-16.6722 137.939 13.1841
6.03073 114.25 5.22214
-25.9485 149.016 5.58774
-25.0214 91.146 22.9458
-27.2259 132.487 14.9488
-14.4283 143.236 4.17719
14.0911 141.756 -0.164776
-32.0519 99.8462 25.9357
-25.0363 88.2848 22.9354
3.54811 115.295 -4.37258
18.7043 124.186 2.53138
-15.0272 117.58 -6.12702
-6.00562 115.284 -7.14369
-10.0226 88.7098 -6.15986
1.17255 106.221 15.9464
-14.723 113.416 -7.38542
-4.36948 128.596 9.43
-41.6077 99.2092 22.3266
-20.6159 140.54 0.142655
-27.9073 132.908 0.668533
-14.9938 79.7186 -5.29336
-38.0507 140.574 5.15318
-17.2928 127.145 17.6242
15.4682 145.892 2.1871
-33.3902 123.909 1.97329
-7.00897 135.825 12.4604
11.8756 128.292 7.15013
-26.3951 92.3399 23.8482
-22.3195 108.037 20.2133
-28.4265 94.3858 25.1011
-27.716 132.017 -0.148282
-11.1018 127.88 -3.60267
4.54496 127.103 11.7407
-35.5364 114.352 4.58345
-21.719 106.87 19.6757
9.42443 130.522 -2.32522
-15.8196 113.753 17.0431
-20.8597 151.359 0.573312
7.31077 132.491 -7.3252
-1.80857 129.396 -3.88234
-7.32895 111.91 13.843
-39.3921 98.965 24.6504
3.78675 114.422 -0.480635
-1.89227 91.736 -1.83356
-11.7906 146.757 1.51629
-24.0937 137.698 0.0339346
-10.6922 117.763 13.0501
-41.8847 87.4439 9.93725
-19.1708 138.186 10.8178
-17.8662 149.162 5.77839
-33.095 123.978 6.33818
-18.5497 90.4608 -5.29438
-11.7554 154.982 -2.05627
-31.0623 111.518 23.1303
-24.7276 113.902 21.0441
5.72354 125.118 -1.80133
-20.3943 143.852 0.268533
-37.4909 93.5656 4.93971
-10.5102 142.438 5.93884
15.3128 145.361 1.62952
0.639572 98.8158 -2.82102
-19.4566 94.1718 -4.73058
-23.7074 134.519 10.8145
-34.3163 118.275 3.75304
-16.4 143.576 5.2254
-41.9503 95.994 10.8458
-29.3932 127.175 -1.66981
-21.1937 137.763 9.9498
1.58357 100.195 -0.544251
-25.861 100.476 23.4703
-24.3378 108.462 22.4577
-6.85415 149.882 -5.09999
-18.5318 80.3799 -4.15372
-20.4797 132.671 0.00616816
4.81217 123.459 13.1656
-9.58664 138.858 -1.689
-26.5162 92.4631 23.8737
7.16958 111.229 9.6947
-17.5109 116.973 -4.52556
-19.5961 134.048 -2.27963
-5.08573 111.527 13.8466
-4.51186 138.156 -1.40227
-36.4752 113.683 15.666
-1.25893 94.1207 -2.61648
-10.8522 131.847 -0.706112
13.8766 126.45 7.78688
-9.69656 94.5809 -7.16815
6.9562 115.345 5.43465
-7.67886 109.029 14.8897
18.431 130.163 3.79667
4.64026 111.005 -2.40291
-9.95818 102.621 18.5797
-12.32 106.534 16.2389
0.404238 140.757 -3.31645
2.85448 114.225 -5.97333
15.7429 127.304 6.62484
15.2621 134.275 6.49041
-14.1155 118.671 16.9171
-5.07592 123.432 -5.18657
2.5242 144.55 -3.25111
1.59841 144.18 6.15521
-34.5491 105.112 20.2226
-16.8308 133.116 -0.16532
-8.45478 130.393 13.9193
-35.4585 115.101 15.1093
4.62186 114.521 2.93669
-0.416557 119.691 11.9229
-8.07624 85.5229 -4.31453
5.15973 122.955 -4.5426
-0.830009 95.1311 -2.59767
-29.3572 129.232 12.6479
-5.51381 105.962 17.142
-25.9916 134.302 9.02051
-23.3169 106.771 -3.97346
10.1783 119.91 -6.86113
-12.365 154.368 1.15189
-4.5219 118.082 -7.53376
-23.8172 137.673 0.610363
3.93679 105.32 12.9017
-1.15999 106.886 -5.73413
-11.2254 115.015 13.4167
-18.0929 105.411 18.2083
-9.04773 143.476 3.89843
4.41228 112.889 -5.31595
-33.9431 110.447 0.789004
-14.1506 97.8522 20.9243
-23.163 83.9026 -3.11426
-4.4242 91.4831 -4.05524
-13.2896 109.307 15.4844
-41.0911 100.841 20.6382
-35.4707 138.548 9.03373
-20.4601 152.066 1.10938
-3.31241 92.2168 -3.43288
-14.9202 115.563 16.4873
-8.80651 135.649 13.5136
0.89599 126.371 -6.10036
-31.7428 108.747 23.1364
-14.9653 110.683 -7.4044
0.733883 134.036 -5.49524
0.321345 146.763 6.63652
-29.0151 131.06 13.5781
-22.6653 98.7676 21.9091
14.5553 132.473 -3.53689
-27.1803 130.452 -0.485306
-17.5715 145.893 -2.29885
-32.3958 130.535 1.87816
-15.2456 141.968 6.10493
-28.3367 145.66 1.8699
-27.309 139.168 8.74788
4.51798 106.989 3.10613
-11.428 110.665 -8.32057
9.29424 122.029 -4.49688
-39.1739 102.459 7.26293
-1.82852 153.155 -3.25727
-13.5796 120.432 16.7164
-30.1441 127.164 -0.36247
-34.6196 137.213 7.55686
-18.5014 107.162 -6.97154
4.72197 149.987 4.92379
5.28755 151.976 -2.79265
-13.42 117.306 -7.18744
-9.12175 116.507 -6.96246
-41.6989 92.1245 10.4955
3.10099 105.634 -2.15528
-30.2656 131.554 1.0953
3.8362 124.734 -8.28755
10.2649 119.913 4.86721
-22.2538 128.722 17.1643
-31.3332 124.453 14.635
7.03081 121.283 9.5825
-14.3768 146.298 2.76471
-15.7239 135.085 14.8402
-3.9908 98.6891 -5.82886
-23.9229 109.789 22.3292
