ply
format ascii 1.0
comment Created by Open3D
element vertex 1906
property double x
property double y
property double z
end_header
1.1546 98.2506 -6.429
-10.1765 87.9128 3.55551
-23.1752 143.011 -0.366657
-19.197 109.615 12.2462
-19.4957 86.176 2.81289
-10.6338 120.903 9.17274
-24.5232 126.629 -2.00893
-22.1409 141.518 -1.34957
1.81964 103.475 -5.56858
-20.2851 110.985 -5.33628
-16.7617 83.8586 -2.42135
-2.57646 143.781 -2.08604
-3.90973 113.052 0.522482
-9.15022 104.981 0.8141
-4.3083 152.346 -2.60006
3.22409 151.735 -2.59486
5.7907 121.095 -7.83021
-21.0894 132.148 -2.2702
-11.5129 119.884 -3.21182
-21.8094 121.256 -3.34827
-15.8585 79.1711 -3.5667
1.37426 98.6192 -6.41683
-18.3577 85.8419 3.10915
-22.735 133.711 -4.392
-4.82677 131.399 4.40731
-4.07346 131.996 3.00391
-20.3451 130.788 7.93738
-12.195 134.368 9.60796
-27.9669 117.827 -2.80018
1.4005 122.411 4.22523
9.82647 130.115 -2.38485
-0.650478 135.574 -4.6178
-18.8108 116.799 -4.46896
-21.0174 83.5307 -1.77221
8.85704 125.736 -3.33355
-9.09359 96.0201 1.57734
-23.5324 144.306 2.52821
-15.0961 121.703 12.1029
-3.17525 139.994 -1.89165
5.92188 110.164 -4.99085
-4.06544 150.279 -2.73813
-13.2855 121.888 11.5227
-22.5625 93.5335 8.23657
-28.6467 138.011 3.0234
-26.7864 127.956 3.65501
-1.14616 106.834 -7.07921
-19.83 80.1725 -2.50052
-14.5093 108.003 -6.19233
-16.1002 96.2983 -3.6313
-12.0591 112.325 8.48671
-6.64155 127.16 5.30503
-18.0827 98.3668 11.0565
-29.4712 137.723 2.60839
-23.8934 104.768 -4.72633
-11.4105 84.2836 -2.45799
-10.9325 136.776 -5.52307
-3.33424 134.473 -3.55072
-2.20438 145.942 -2.38757
-1.5534 111.895 -6.58859
-28.3627 117.351 5.27751
-12.6572 93.5609 3.98299
-0.247484 108.632 -6.59138
-30.644 111.102 -0.724832
-32.0696 130.137 5.00032
-28.6152 126.5 4.60612
-25.4952 142.571 2.12872
3.32993 142.732 0.964632
-11.7777 81.1205 -3.00865
-29.14 89.8417 7.00518
-0.293533 153.048 -2.39684
-2.79067 111.743 -7.31602
-28.8764 131.361 -3.14165
-28.4085 103.973 9.61448
-12.7316 106.108 -7.66994
-2.26882 80.4789 -3.21385
-26.948 120.052 6.9414
6.8832 147.891 1.28947
8.25516 119.549 -3.96751
-25.367 107.203 11.4985
-13.2441 121.675 -2.36127
9.40935 122.403 -6.92071
-29.7823 106.807 -2.50654
5.20217 135.465 3.05317
-10.8891 151.016 2.41678
-20.2029 128.375 -3.81775
-29.1895 114.001 -2.18635
-30.4541 87.7149 0.0763035
-32.1534 92.4677 -0.358639
-13.2742 86.7909 0.675725
-9.26932 106.989 1.95571
7.34475 145.427 -5.15466
-28.9679 126.816 7.58952
-15.4267 90.6188 7.68109
-30.3984 131.057 6.54281
-33.0136 124.223 1.27959
-20.9279 139.204 6.49252
-31.7036 86.6584 5.91391
4.72906 145.699 0.748769
-26.1488 87.8691 7.73227
10.6331 124.126 -4.57275
-36.961 82.5935 5.40902
-3.78147 112.332 -8.17649
-28.1075 132.846 6.54056
-11.0243 93.3459 6.45537
-3.48936 112.274 0.995872
-13.9996 144.418 4.41011
-30.9562 99.9094 6.62196
-30.48 105.097 7.51137
-13.5267 88.098 1.92466
-24.1014 133.751 -5.76014
-12.7619 98.4545 3.63927
-13.144 90.3448 1.04799
10.7277 143.51 -3.10141
-30.0709 124.615 -2.80662
-22.7659 127.599 -2.19775
-28.5157 88.8113 -0.26285
-27.046 128.448 3.97175
-6.14945 104.132 -7.93538
3.14323 152.499 -2.52883
-19.1714 117.585 13.1303
-1.23478 117.371 1.58517
-31.4956 101.328 -3.10651
-10.5507 116.521 8.3241
-17.8371 138.142 -5.17991
-10.7292 82.7897 -2.45339
-16.1634 143.498 -2.35317
-3.45427 142.159 -2.3434
-19.7061 117.952 -3.91869
-31.2966 133.308 3.63878
-1.01632 106.971 -7.01608
-27.4372 127.652 5.87731
-33.2311 89.3086 5.74469
-21.2509 146.311 1.3389
-28.3597 132.485 -2.77117
-9.58638 98.3066 0.673996
-0.929174 106.77 -6.9814
1.2395 119.355 -6.08012
-23.2648 137.14 5.03559
-0.61836 126.433 -6.40571
-24.7949 126.347 -2.75708
-18.5739 129.764 10.3869
-10.1392 115.81 7.10235
-16.5927 98.1371 -3.68608
-9.32768 130.862 9.89635
-22.0618 133.828 5.73151
-7.17177 131.224 8.04
-11.4701 92.0414 3.87619
-14.2818 115.059 -3.92252
-12.3885 134.977 9.16146
-18.1652 90.6071 -2.17055
-12.3137 150.224 -2.40105
-9.94187 120.359 -4.91245
-27.5113 126.15 2.19802
-13.5681 96.9056 5.65006
-23.8826 123.944 -3.64187
-27.7237 120.55 -0.282856
-23.8612 108.687 -4.83229
-22.7877 86.6202 -0.749218
-34.026 81.8434 7.03652
-7.89406 121.846 5.79401
-6.75774 87.5746 3.76294
-22.2004 90.4813 -2.21513
-8.61487 98.3886 0.891538
7.02045 116.361 -6.92733
-32.6481 128.018 1.39459
-36.2416 94.3124 0.147975
-12.2163 114.323 -4.91663
-21.085 86.2061 1.07031
-10.4392 116.479 8.16091
-3.98456 111.665 -8.2901
-14.2231 122.133 11.8677
11.2372 143.099 -1.90576
-6.22629 123.346 3.25139
-14.7056 99.9249 -5.30235
-31.4386 82.3569 6.4609
-25.5098 133.109 8.23473
-33.0735 100.64 -2.01608
-10.2495 104.348 -7.84987
-17.2488 128.103 -3.05792
-11.9028 101.364 3.7627
-4.90937 98.7828 9.25065
-13.938 129.308 10.8692
-4.28103 127.328 1.88639
-16.081 128.195 -2.68866
-7.95857 83.8524 -3.13511
-19.8081 109.58 12.9136
-11.8544 126.557 -1.49859
-27.2884 88.6408 7.6235
-0.304767 120.428 1.54844
-4.99015 102.213 6.05746
-32.3421 90.0381 -0.389748
-8.75384 153.145 0.566805
-9.28558 96.5115 7.22398
-8.1755 85.8526 -3.29563
-36.2869 91.3431 0.135585
-23.8142 134.075 -5.17303
-4.23417 103.602 3.80286
2.78039 128.6 2.28406
-24.9402 100.062 9.4682
-26.4164 82.9722 2.92794
-7.34426 77.841 -3.7423
-32.0319 129.995 0.969409
-31.7812 105.4 -0.853417
0.803187 99.9589 -6.77901
-7.7428 151.368 -3.50956
-25.8346 141.869 1.00815
-17.6169 96.7378 -3.42745
-32.1231 109.902 3.87349
-11.6635 120.348 10.016
-17.1843 97.2307 11.092
-7.20566 144.508 -4.30666
-20.6455 85.2933 0.0118352
-26.6332 127.616 7.07087
0.906619 127.091 0.908211
4.93344 106.734 -4.16645
-18.5056 79.6729 -3.51756
10.7118 149.166 1.43068
-19.816 93.2916 9.62595
-27.5969 127.456 4.4605
-21.6649 121.73 13.4405
-9.17873 137.351 7.98175
-11.1587 92.0529 5.95288
-26.431 108.855 -4.12699
-1.59109 113.289 2.62553
-1.8885 115.912 -6.37662
-26.5064 99.9659 8.86486
-31.7983 86.8347 6.01353
-32.4856 124.469 3.19693
-10.3143 122.489 8.91638
-0.121382 136.318 1.98132
-7.59844 84.4956 2.84564
-36.7196 88.4264 2.08741
-16.3943 98.9728 -3.71621
-9.47536 85.0382 1.94125
-27.2331 98.1773 8.57605
-12.0944 118.424 -3.30298
-28.4915 96.6701 7.68715
-2.53806 105.141 5.4506
-25.6001 120.675 8.88065
-3.98204 108.757 -8.54394
-1.59175 106.086 6.28116
-5.96438 92.5693 8.78965
-31.9955 110.736 2.59684
-23.4885 95.3764 -3.17331
-6.80597 127.468 -4.86159
-3.55466 125.83 1.2286
-23.8217 130.262 8.00252
-7.8877 130.442 -2.0742
-16.8284 108.271 -5.69205
0.28425 120.729 -5.83234
-0.450762 148.04 -2.17495
-7.59358 142.57 -4.15469
-29.3737 109.858 -1.94662
-15.9421 85.0751 -1.09622
-24.7815 106.289 -4.95545
-21.4106 114.285 -5.35243
-9.3038 87.2397 1.3174
-16.9431 89.9541 -1.88599
-21.2438 102.751 12.897
-15.7091 133.119 -4.97754
-16.6192 124.402 -2.17452
-15.8453 119.655 11.7782
-1.79725 80.4358 -2.73813
-15.8251 115.915 -4.3271
0.605495 92.2762 -5.24938
-21.2302 89.87 9.10151
-12.853 103.251 7.41442
-3.68553 132.089 2.7201
-26.7591 114.475 9.38295
-10.4226 94.684 -4.96261
-23.9114 90.7375 -1.90713
-8.00845 150.869 -3.87497
-12.7274 91.8395 4.84911
-30.966 132.876 4.95441
-1.88457 115.917 1.30322
-14.1671 95.8187 5.29411
-8.97628 138.518 -4.57344
2.86018 127.953 -7.38208
-34.0331 94.4455 3.36298
-2.13379 80.8062 -3.89238
-16.8906 129.124 10.8974
-4.32048 79.0669 -3.50225
-22.276 133.51 6.25651
-32.6212 82.7038 6.67985
-23.9591 128.552 -2.15593
8.48053 117.777 -6.57976
9.876 139.253 -5.54562
-6.73588 77.8373 -1.24111
1.02702 88.7432 -4.51611
10.2388 139.761 -5.37778
0.726859 107.565 -5.9415
-18.1397 126.587 13.1486
-13.9149 113.709 9.57801
-28.6029 86.1345 6.2819
-14.6983 103.219 8.71699
-7.93894 129.939 -2.29861
-26.1165 127.869 7.32051
-24.4688 90.1082 -1.47451
-19.8522 91.0264 9.97795
-18.1379 133.605 6.4189
-31.3176 126.264 8.57864
-15.8829 114.985 11.037
-28.9704 117.37 -1.91077
10.6866 136.788 -4.8212
-14.1713 134.799 7.05716
-31.0599 93.3675 4.73349
-3.65673 106.144 2.75249
-20.7855 147.04 3.21753
-29.541 130.97 6.99995
-26.0747 128.583 7.39263
9.73187 137.047 -6.40153
-4.76887 133.637 5.48265
0.715235 106.809 -5.96137
-26.3291 137.961 -2.97491
-21.2359 127.351 -3.72867
-24.6281 122.535 -4.1598
-19.7589 87.3715 8.25418
-13.5271 133.318 -5.46114
-20.3646 85.0173 5.93136
-9.57747 87.6972 1.51084
-2.27541 131.091 -6.59661
-9.40901 93.6447 -5.78771
-24.204 143.122 4.33176
6.71626 144.388 1.94926
3.8953 152.073 -2.81302
-28.7081 83.653 4.92608
6.8795 145.644 1.65632
-26.1331 122.846 7.72015
5.6772 125.772 -7.9848
-14.7037 144.218 -4.36922
-4.51496 104.736 2.24672
-14.0666 87.1039 4.66516
-17.5132 83.1181 -2.81832
-22.738 139.722 -1.96596
2.9178 154.526 -1.60565
-6.54522 138.594 4.63933
-20.0932 86.4572 7.70114
-15.3695 106.571 -6.56659
1.95367 100.347 -6.13799
-15.9076 84.9559 -1.24877
-11.8743 92.167 4.85606
-12.7474 89.712 3.97312
-23.0247 90.5847 -1.97247
-14.3057 134.703 8.60902
-21.2646 144.199 5.74603
-31.5909 130.119 -0.209877
-24.2094 137.907 -4.7886
-24.1381 89.0895 8.51447
-22.7126 85.5116 0.104025
-8.95875 133.14 9.5499
-21.7387 118.256 -4.1329
-0.346812 139.907 3.72509
-12.2306 91.9877 5.19481
-34.9421 95.0668 -1.1275
-21.5647 116.606 -4.63744
-10.5402 133.229 -3.51635
-29.7373 102.638 -3.378
-15.7218 129.868 10.3394
2.49439 108.974 -4.94815
6.15808 132.522 -6.81416
-25.5141 128.498 5.79121
-27.5896 117.749 5.68071
-8.03223 94.1635 8.11407
-4.31289 121.72 0.806974
-5.9813 147.045 -3.96955
-34.2766 91.9579 -0.286941
-29.6233 84.8381 1.62002
-14.6572 137.118 5.46181
-37.3748 90.3608 1.41491
-17.4637 147.876 1.21945
2.79082 146.45 1.99193
-20.6357 89.7905 9.43467
-33.946 98.3757 3.66959
7.00649 138.282 -6.49491
-29.4823 84.8332 -0.0954868
-24.8002 127.665 -3.05254
-0.957452 140.638 -2.45131
6.7351 149.07 0.892041
11.2051 144.212 0.963325
-11.8311 135.547 -5.86671
-18.6272 141.28 -2.6405
-11.8029 143.895 -5.36017
6.04716 139.861 2.66453
-15.5547 142.93 -4.65374
-19.2455 146.238 5.54654
-10.0828 140.302 3.79971
-27.632 126.686 1.48314
-16.0967 99.9082 9.91226
-28.131 135.504 -0.978556
-31.8353 125.193 6.74418
-13.9392 110.819 9.12173
-6.41747 122.81 -7.1998
-32.4106 129.285 4.81588
-21.2659 118.617 13.6417
-23.198 104.195 12.339
-16.659 94.7932 9.92155
-31.1862 99.6149 -3.13851
10.7062 131.026 -2.50149
-7.82825 89.5695 -5.49079
-10.095 90.0737 5.31455
-21.1341 85.0413 6.3916
-14.8827 108.058 9.0181
3.15021 127.963 7.41069
-7.73848 88.6374 -5.21185
-15.2289 117.186 10.9134
-17.0417 96.2885 10.9103
11.0358 149.308 3.81483
-16.9304 142.382 5.78667
-16.7062 106.079 -6.03252
-25.9542 128.16 7.87853
-6.20909 123.285 -7.05601
-0.687116 151.325 -2.32761
-5.37642 116.394 -8.63227
-23.535 143.039 4.6904
7.56008 127.383 -0.624502
-29.6356 128.179 9.10958
-19.6665 99.7803 -3.98181
-3.01732 141.849 -2.0958
-19.526 85.7421 3.81324
-11.143 113.927 8.26916
-21.7814 81.3702 -1.06205
-28.5679 135.543 -0.568659
-32.0466 108.668 3.03874
-32.4302 89.7451 6.16425
3.28961 134.643 -7.37448
-17.3234 83.6435 -2.71731
3.34655 151.08 -2.73175
-28.6581 130.048 -4.42856
-12.0948 91.1382 3.94194
-10.3563 123.692 -3.05468
-20.5844 113.25 13.2265
-4.06433 87.2687 -5.32696
-11.9897 135.824 8.61337
-22.4824 94.4783 -3.24583
-13.2306 102.469 7.62657
-28.7571 126.624 4.4192
7.36563 124.792 0.0718979
-25.1553 120.155 -4.38863
-8.10681 120.722 5.64654
-8.45978 115.065 3.25316
-13.423 78.1952 -4.20023
-26.9163 115.17 7.67336
-9.47266 111.523 4.0493
-19.8016 129.488 8.32935
-16.0975 93.8918 8.64542
-16.0816 149.582 3.71756
-26.8913 124.794 -3.13234
-36.8387 90.08 4.27707
-10.7698 92.8817 3.54395
-26.7517 123.091 -1.46044
-7.48244 137.829 6.95305
-21.3751 124.147 12.5067
-10.4868 116.507 -6.19237
-36.5902 83.4776 3.97965
-10.7625 93.2357 1.29932
4.00296 147.13 1.35205
-15.8647 129.193 -3.88049
-13.1157 104.587 7.32683
-17.5168 128.166 12.5318
-24.3981 128.515 -1.15404
-25.1164 127.985 -0.152841
-26.0274 126.363 0.640954
-26.4714 126.205 2.58013
-2.87053 79.9216 -3.21692
-12.542 115.575 9.30443
-31.7246 131.746 2.60223
8.41044 129.174 -0.778171
-27.9079 118.204 -2.81321
-3.44863 103.847 5.50707
-10.0276 140.607 -4.87192
-35.6532 82.2186 4.42702
-16.7045 124.973 -2.30066
-31.1771 131.629 -0.310068
-27.0303 90.958 -0.988786
5.44082 112.081 -5.15124
-32.8848 103.466 -0.699751
-6.10455 101.556 4.25557
-21.4386 120.583 -3.28542
-1.40408 131.18 1.60111
-16.8132 97.36 -3.59277
-23.6632 98.9338 -4.0044
-21.9663 133.683 5.85386
-28.2944 82.2126 5.2762
7.11292 135.317 -6.37525
-19.1791 122.528 -3.57932
-11.1073 94.4608 -4.42237
-14.7662 115.256 -4.1231
-33.449 99.4928 0.452537
-9.30011 118.172 -6.88585
1.51998 139.849 -4.64445
-31.2815 110.717 4.73051
-7.94372 87.2273 2.17979
-1.30117 137.765 3.45684
3.54129 127.738 4.72966
-30.1478 133.02 4.98078
-27.2862 117.031 6.1457
-23.0902 121.439 12.2402
-28.7278 126.107 -3.50116
5.85481 136.605 6.21464
-18.7797 148.104 1.43024
-9.21052 123.864 8.03713
-11.1575 131.8 10.2388
-29.3577 130.117 -3.82143
-36.1611 84.7234 3.00339
-1.1811 145.988 -2.08442
7.38833 117.379 -7.09069
-2.94941 134.866 -3.55984
-9.8498 100.299 -6.12405
-28.6502 108.051 9.0517
-8.29155 98.5904 1.16463
-2.37609 105.303 -8.0812
-26.3072 98.8157 8.88613
0.270795 117.065 6.22187
-16.9494 94.9685 10.0502
-25.4275 82.9006 0.263362
-8.19142 84.5067 2.07846
-30.98 84.0912 0.220638
-20.7668 128.04 -3.48812
-2.86851 107.06 3.48143
-23.4903 87.8449 -0.654909
-13.0148 88.3508 4.96176
-26.7655 127.284 0.13671
-12.1656 126.18 11.6541
-24.8063 133.294 8.06593
-32.547 128.657 1.9975
8.65935 121.435 -6.62606
-16.6256 86.8054 6.96333
-14.7422 134.585 7.32207
-11.1757 85.1842 3.4682
-31.1071 132.085 -0.0324076
-24.5715 127.535 -2.09687
-0.461732 149.001 -2.22266
-30.83 130.334 -2.00381
-7.26977 139.939 3.87429
0.524109 133.927 -6.7354
-29.1592 98.6052 -3.01183
-21.5078 91.2273 -2.74072
1.55353 103.45 -5.70325
-13.0628 91.8392 1.72894
-33.0693 102.371 1.10603
-4.1981 142.291 1.47095
3.43018 125.323 -7.4421
-27.345 121.16 -1.03192
-26.9561 83.9708 4.10462
-22.5899 83.427 0.172983
2.8507 126.415 3.9322
-16.5589 109.94 10.4296
-11.9544 88.5575 1.30622
-4.78441 86.1157 4.36227
-28.693 89.0337 -0.301946
8.93714 129.501 -7.42512
-27.0102 113.858 -3.70533
-6.09026 146.573 -3.93986
-3.84616 147.352 -2.86571
-8.8073 87.8192 2.08406
-25.2913 141.105 0.278593
-27.675 127.452 5.32189
-29.1917 93.2395 5.51464
1.20138 132.239 0.873834
3.74541 98.8718 -4.6686
-0.432698 118.032 -5.94691
-0.246453 114.982 5.71267
-25.0357 104.871 11.365
-2.0767 128.387 -6.96802
9.6151 134.948 -6.34054
-30.6446 95.9577 -1.94062
-29.3987 84.1045 4.93409
3.28938 114.325 -5.36589
10.7438 136.712 -4.76655
1.13274 137.82 -5.11437
-11.7077 115.599 -5.16231
11.1614 135.703 -4.84352
-30.0833 128.249 -3.6439
-31.3716 88.6034 -0.164677
-26.7472 133.064 -3.54901
-11.6109 123.79 10.5314
8.59497 150.511 -2.80063
-17.8186 105.508 -6.25212
-22.5327 103.576 -5.01183
-30.4308 83.8302 1.20611
2.22074 124.078 -6.34906
-18.6321 89.5531 9.31153
-11.4174 122.478 -2.75794
2.30967 124.087 6.15422
-17.5956 116.926 -3.90234
-19.7403 140.976 6.48213
-20.9485 107.157 -5.07055
-20.3864 99.4339 12.4237
9.944 130.925 -1.70712
-20.4729 86.2651 1.60947
-30.3065 114.576 -0.654038
-15.7784 113.309 10.9479
-28.6492 125.707 4.34836
-7.4616 88.6983 -5.29832
-10.0027 110.471 5.15389
-13.7675 138.328 -5.65917
-31.8723 106.231 -0.812171
-28.9312 95.919 7.04032
-4.54992 111.04 -8.63272
-14.2556 135.307 6.57087
-28.0295 101.606 9.03738
-6.72511 107.992 -8.85563
-19.1171 85.9786 1.85068
5.24972 139.977 -6.65709
-30.3282 88.1529 6.62144
-23.3992 129.753 -0.782107
-0.668434 142.364 2.84946
9.27057 126.984 -2.88278
-14.7319 130.795 10.0977
-14.7082 126.534 12.4623
-37.5176 89.8436 3.15144
-15.557 104.261 8.80265
-29.3277 91.7718 -0.564461
-25.3669 84.4237 5.79481
-28.7251 127.821 8.58507
-22.0437 113.312 13.32
-22.8793 84.1695 3.31065
3.01794 145.624 1.89112
-13.9619 92.2778 4.07495
-31.9302 94.347 -1.0592
-24.444 108.887 -4.48116
-5.49205 83.4639 1.75115
-27.7377 86.8519 6.60251
-23.1742 124.052 11.6394
-16.2571 91.8065 -2.44368
-27.2458 109.701 10.2109
-4.35648 104.458 2.87708
-11.5384 105.372 5.99593
-13.1615 97.7157 4.56165
-36.6688 89.4872 4.40383
-25.8359 92.4113 -1.92141
9.37359 150.125 -1.1306
-23.0738 141.179 5.87268
-29.0667 132.549 6.40245
-8.99546 86.0679 -3.22093
-12.6972 101.915 5.7686
-30.8361 99.8205 6.6516
-19.2735 145.562 5.97249
-21.251 107.24 -5.11788
-31.8134 83.3056 1.2068
-14.1254 114.636 9.80563
-30.1012 114.259 -1.02922
-11.3191 94.093 -4.345
-26.8673 126 2.82888
-22.9423 126.873 -2.55422
-17.5082 138.766 -5.69144
3.4736 113.551 -5.05155
4.39833 132.877 7.7511
1.149 121.828 4.20401
-9.96147 133.725 -3.35256
-18.0397 119.946 12.4704
-30.0649 119.094 1.2394
-14.242 129.413 -2.44403
-8.84218 150.465 -4.02647
-19.6976 108.669 12.6201
-26.1899 106.118 10.9409
-4.73465 137.515 -2.31376
-21.3506 106.293 -4.81586
-2.20852 112.149 -6.76051
-15.0599 103.314 -6.94991
-17.8368 99.2083 -3.5999
-3.97725 131.684 -5.25929
2.78023 125.223 6.85624
-16.4574 80.1044 -2.53378
-16.3721 105.601 9.04764
-15.2509 86.6864 -0.354715
-13.3226 92.6697 5.76791
-20.8191 85.7023 2.44596
-10.5012 87.9243 -4.21146
-25.5755 141.371 4.27836
-12.6691 89.857 2.04612
-9.33326 98.2042 0.579504
-22.9171 120.345 -4.115
-4.25591 124.206 -7.57805
-6.91995 126.688 5.59535
-25.7957 141.892 0.966577
-7.78558 109.992 0.291021
1.38131 138.842 -4.92574
2.84414 126.769 3.59807
-6.96932 151.875 -3.47131
-19.1384 86.0726 0.609537
-18.145 111.269 -5.64412
11.2168 139.634 -3.66593
-13.2086 147.373 -3.79342
-29.7368 133.028 -1.31269
-29.422 136.982 1.59575
-7.67461 78.772 -4.35528
-25.5128 134.234 -3.85919
11.1755 140.965 0.524411
-2.12924 144.66 -2.15473
-4.96132 104.129 1.94737
-33.3123 126.568 4.10595
10.6062 142.499 0.124236
-26.7576 110.681 -3.85623
-25.4475 113.204 11.4696
-27.1587 139.543 0.869981
-27.2633 101.007 -3.02767
-6.63246 122.097 3.26657
-14.367 108.69 -5.92455
-32.6459 85.6953 4.38049
-15.6811 88.1071 7.94496
-11.0473 90.7664 5.35343
-19.5463 92.9457 -3.07823
-11.5004 79.1157 -3.76983
-26.7331 125.604 6.5758
-5.76644 133.544 7.02887
-23.7258 134.397 6.46185
11.251 133.485 -5.51914
-15.8699 136.047 6.08557
-24.7253 99.6935 9.32423
-35.444 93.8352 2.67174
-10.4729 123.939 -2.88139
-25.2183 126.33 -1.82415
0.392112 116.944 6.74575
-28.0257 128.067 4.97543
-28.3791 126.799 6.46322
-33.04 100.491 1.21579
-35.4739 82.9091 6.38869
-14.1635 106.626 8.00495
-7.88486 83.4882 -3.29558
-32.5968 127.751 0.963508
-19.456 140.012 6.44917
-2.5611 89.3125 -6.40711
-36.1683 80.9677 5.82565
-1.65815 106.211 6.05929
7.73176 115.411 -7.14344
4.07806 152.694 -2.62309
-16.7964 103.213 -5.82108
-4.23737 154.419 -1.75792
-3.40748 133.755 3.00432
-4.88951 92.2868 -6.7883
-19.0531 80.1285 -2.76301
-12.5991 120.438 -2.74168
-17.5955 116.287 12.4096
-23.3249 129.65 8.49689
-17.5863 103.927 10.4782
-5.72472 78.2794 -3.64804
-18.1175 129.775 -4.42209
-22.3303 121.282 13.1438
-20.5296 116.52 -4.69581
-30.3241 129.342 -3.41935
-20.7823 108.601 -5.70055
-3.02371 133.141 2.80138
5.63282 142.143 1.29244
-21.2382 113.235 -5.13957
4.34258 151.037 -3.15695
-13.9703 108.975 -5.93977
-27.7301 133.909 -2.62923
-37.5668 90.4018 2.65917
-27.9933 115.553 -3.13088
-4.47277 146.201 -3.02389
-25.2486 124.486 9.86145
-15.4146 115.585 10.6884
-6.58141 122.298 -7.39283
9.71171 126.595 -5.91526
-3.08595 117.112 0.403597
-29.1538 118.829 -1.23916
-3.31867 111.328 -7.82211
-28.2753 127.043 6.65559
-20.2123 127.848 9.55606
-8.07089 140.072 -3.94567
8.71517 144.391 5.73027
-32.1749 125.266 6.7245
-23.1713 93.0993 7.91178
-10.5959 88.6344 3.98285
-37.1119 86.954 4.72259
-24.8158 128.237 7.93546
-30.691 133.235 4.43148
-32.7671 124.441 4.00229
-11.2504 134.919 -5.23922
-20.3798 117.296 13.22
-0.486339 115.732 3.67948
-13.1966 86.6238 0.951599
-11.3383 131.204 -2.09799
-6.91409 131.848 7.88455
-0.0020738 115.472 -5.7982
-10.0118 134.394 9.4876
5.76249 149.233 0.771396
-22.2709 114.636 -5.42175
-25.4616 113.053 11.4388
-20.3067 122.77 13.878
-18.9501 95.7052 11.4932
-36.8263 92.7288 0.957482
-23.7219 83.3174 0.0707013
-5.26493 96.9712 -7.44682
-18.5128 96.7093 12.0149
-13.5001 99.9005 6.81519
6.4451 148.185 -4.16914
-31.257 113.177 1.27613
-32.2876 127.574 0.127605
-37.1098 82.7279 4.90194
-3.19187 120.218 0.363792
-10.0837 88.8543 -4.79703
1.27722 119.833 6.87513
-17.6327 140.284 -3.07872
0.201689 118.433 3.74796
3.54171 113.833 -5.26003
3.60705 139.876 0.849569
-16.2674 123.151 -1.95629
-11.3584 90.5503 3.06941
3.06362 143.121 1.4177
3.20429 140.53 0.969494
6.45514 135.873 -6.52414
-0.925526 134.103 -5.7123
-23.849 93.1783 7.8053
-16.2468 116.074 11.3285
-29.2273 119.447 -0.125182
-32.3586 108.714 3.90512
-8.93665 138.637 -4.51484
-3.86056 151.922 -2.61189
-18.5515 88.7732 -1.6965
-21.5443 143.865 5.69273
-9.55634 113.403 -8.02222
-24.9573 126.113 1.39102
6.15599 142.274 1.75971
-9.45399 118.884 7.49788
-6.34664 152.791 -2.46952
-32.3113 105.029 -0.0560221
-9.60195 134.237 -3.58227
-18.6571 130.976 -3.83906
-24.137 88.8271 8.45165
-30.7667 90.394 -0.121581
-10.372 88.1483 2.92012
-34.8664 89.6899 0.832693
2.38906 123.605 8.16717
-18.2543 138.051 -5.54531
-36.8339 92.6152 2.46114
-15.6446 107.285 9.08517
-7.15377 110.851 -8.64021
-23.0512 100.649 11.0473
-2.77049 141.961 4.94741
-33.3592 93.3044 -0.655031
-14.2738 108.134 8.71126
1.01303 137.118 -5.35964
-28.6048 95.6097 -2.91524
-12.8606 89.0727 4.8606
-21.5031 133.067 -4.21914
-1.28045 94.4078 -6.3963
-7.77924 149.037 -4.59397
1.36479 153.647 -2.04114
-24.3356 84.2265 4.34465
-10.9215 126.439 -1.61763
-2.79323 104.618 5.88958
-9.05639 86.534 -3.70326
4.75967 133.946 3.71142
-16.6816 146.972 0.367048
-26.1292 128.627 7.09986
-29.2786 83.0037 -1.34208
6.97962 146.892 1.5691
-23.969 129.868 -3.77495
-27.0732 93.6608 -2.14588
-8.2907 81.4804 -3.71264
-1.87392 144.334 -1.98537
1.50944 107.947 -5.37291
-34.4162 86.3638 3.10902
-29.0487 127.496 5.373
-31.9275 93.3829 4.79934
-30.0763 119.129 1.35247
-30.9217 103.747 -2.94701
-27.7943 91.9261 6.9586
-15.7915 142.11 -5.01569
-13.4641 132.227 -5.55776
-20.1921 89.9286 -2.367
-26.1274 127.78 -0.0055201
-2.75704 121.148 -7.19514
-29.2802 137.863 2.57232
-4.28761 101.45 -8.13239
-4.22537 125.371 1.34084
9.18737 153.316 0.730135
-28.3321 133.983 4.22062
-25.016 115.992 10.8795
-7.60344 99.6223 6.80749
-17.6811 138.681 -5.7909
-7.58121 146.146 -4.96804
-20.4067 127.653 10.3376
6.07518 137.002 6.49179
-14.7796 122.577 12.103
-0.856452 125.597 -6.56382
1.50514 97.5203 -6.02106
-25.4787 94.5143 -3.14085
-20.018 140.381 6.51854
-18.2549 90.2122 -2.02485
-31.7601 123.553 6.86552
-26.1763 116.893 8.26983
10.36 130.344 -3.872
-7.30743 88.6199 -5.30907
-31.2945 110.865 4.29824
-8.79331 87.2062 1.53255
-15.4322 137.255 5.61683
-22.1108 130.074 8.19244
-14.6903 146.223 -2.58283
-22.7748 97.6868 9.39427
-9.90351 113.689 5.89622
-19.8272 113.327 -4.94648
-27.2097 123.082 -0.0419742
-21.3995 96.6702 10.4095
-11.4775 142.143 -5.23285
-14.7992 150.784 2.06864
-20.1586 108.074 12.917
4.03417 130.798 8.47613
-8.23939 95.8935 7.99535
-33.5623 90.664 5.59634
-25.8904 97.4374 8.52088
-3.05644 137.045 -2.2605
-18.6961 129.528 10.2313
-25.9236 91.8007 -1.62463
-5.62701 144.226 -3.32122
-2.41622 123.506 -7.08372
-10.8194 113.665 -7.23204
-30.8491 114.904 1.95005
-0.10734 117.827 -5.86383
-14.0545 133.637 9.89799
-26.617 126.654 1.25265
-15.6064 132.644 -5.17706
-28.1462 89.0465 7.53131
-23.4127 130.436 8.59241
-14.9576 149.166 -0.0133282
-25.0614 117.134 -4.69203
-9.95783 128.01 10.1078
-4.5883 147.922 -3.07387
-6.85556 78.0405 -1.91138
-20.3542 85.2009 4.58676
-29.6029 107.361 7.73087
-27.7712 133.988 -2.56928
11.0642 136.697 -1.01934
-9.35506 105.81 1.44763
-11.5605 91.2045 3.48921
-10.0043 145.928 2.12304
0.423714 106.307 -6.18818
1.51275 119.908 7.7388
8.72447 128.486 -7.59613
-17.1628 109.016 -5.62529
7.10356 124.963 0.845791
-3.09881 141.115 -2.06941
-7.36075 113.368 0.935989
-9.42314 108.828 -8.44005
-6.78131 91.6419 -6.1987
-31.8813 129.886 0.495522
3.3743 154.138 -1.84286
-3.95649 109.948 -8.1682
12.0482 146.264 1.28476
-21.8822 134.941 -1.86987
1.09573 131.909 0.851437
-31.3809 110.154 4.93099
-3.89511 107.914 -8.76493
-12.8537 104.021 -7.21162
-1.84318 89.5701 -6.28407
-5.27451 153.855 -1.6733
-24.3846 122.435 -4.29678
-17.2432 148.503 4.27274
-18.9759 87.5977 8.18697
-4.23877 149.217 -2.85731
3.72711 105.935 -4.57006
-7.79029 114.508 2.01578
-36.5878 83.611 5.61904
-1.57223 94.4765 -6.60718
-15.9816 119.965 11.9682
-17.5241 149.497 2.47591
-8.25345 118.943 4.7857
-3.84877 95.0054 -7.48492
-22.9934 139.38 6.0821
-25.2834 100.76 9.79777
-9.21821 117.937 -7.12613
-19.4212 138.611 6.51715
-31.5249 84.3797 1.12542
-13.9397 78.4821 -3.84283
-14.0995 85.6447 -0.201794
-5.25043 130.569 4.83894
-20.4628 109.706 -5.9084
-26.3071 139.712 4.91411
-12.1125 88.8352 3.45366
-19.6694 108.186 12.5017
-29.508 107.596 7.8889
-6.51426 93.0744 -6.54948
-30.4054 100.006 7.2814
-27.8811 126.864 4.08343
-13.4443 92.493 3.80627
-13.9635 136.135 5.76854
-27.7505 126.483 8.04035
-10.1038 105.635 2.80255
0.856346 140.241 2.8637
4.93888 106.812 -4.16088
-36.086 92.1999 3.71464
-27.1873 126.184 1.9399
8.49339 138.82 -6.15946
-27.4697 126.371 2.11206
10.2499 149.156 3.63038
-29.2955 107.272 -2.37084
-18.4212 93.138 10.6682
-8.11243 127.689 -3.2945
-5.57473 113.466 0.229924
-9.9963 90.5214 5.56683
-20.0239 86.1746 2.10802
-31.4539 95.8519 3.97821
-26.2974 87.4977 0.257408
-27.6302 90.5513 7.62981
-9.53513 121.591 -4.77485
-12.2884 113.359 -5.38843
-26.1851 134.158 -3.44586
0.219399 119.23 -5.89577
-6.83158 128.717 6.6863
-10.0787 81.1668 -3.30662
-15.3657 94.4638 6.03267
1.59233 145.288 -2.81717
-1.33401 108.679 5.81736
-8.93891 92.6708 7.3356
-22.0892 126.973 -3.09079
-27.8812 83.5678 0.798424
-25.2838 95.8512 7.54497
-6.25591 151.368 -3.51799
0.0490826 140.23 3.50631
-19.2575 122.888 13.585
-23.8266 82.7907 -1.18298
5.15468 122.595 -7.86187
-3.48348 103.366 7.78963
-32.6959 105.435 4.36389
-32.6171 102.118 3.47062
-13.5284 97.0215 -3.51998
-33.2822 126.254 2.73852
9.8727 149.512 3.38682
-26.2306 127.074 0.109457
1.1315 153.594 -2.09102
-25.0541 117.558 10.1227
-19.038 81.4423 -1.88846
3.42929 101.049 -5.42551
-14.8764 120.762 11.9134
-29.9591 128.875 8.5234
-16.652 148.808 1.04921
-3.03323 95.7747 -7.61961
-27.0764 124.031 -2.09292
1.11929 145.575 1.61487
-24.3232 128.991 -0.934692
-30.7495 126.791 7.60074
-14.3149 114.858 -3.97306
-17.9995 142.024 6.63537
-25.7129 130.81 -4.28544
-17.704 142.552 -1.75357
-14.546 123.136 -1.83872
-13.6296 102.289 -6.80111
-11.5492 93.597 3.17504
5.81256 117.025 -6.60375
-9.24782 86.7465 1.38447
-17.8906 98.8013 -3.51633
-32.1408 90.3116 6.20564
-29.3322 100.185 -3.25067
8.77563 118.399 -6.07351
-1.91979 118.32 0.730998
-32.8533 98.7921 -2.66384
-10.6819 118.272 -4.8703
-24.5573 135.525 -4.96329
4.84682 120.558 -6.89469
-23.6415 138.468 -4.00462
8.60886 151.233 -0.864933
-9.80859 88.4889 3.61054
-5.96559 112.354 0.219749
-6.3611 140.761 2.28073
-6.32552 98.6976 8.41304
2.73584 125.363 5.59363
-22.4079 110.22 -4.74808
4.12428 105.1 -4.60603
-6.33283 78.1447 -3.27444
-22.7229 111.579 -4.67134
-0.582071 140.013 -2.86609
-10.032 87.3437 2.82143
-5.01591 102.667 -7.92698
-19.9666 141.095 -2.50973
-3.39845 140.745 3.70529
-6.72979 101.337 0.939322
-9.44728 86.6547 2.90179
7.73586 144.715 4.58148
-14.649 112.801 10.012
4.08646 152.84 -2.51286
-5.31337 99.9276 9.36107
-12.9697 90.1583 5.94927
-10.844 147.727 2.66223
-21.8772 106.097 12.8791
-15.7049 91.1923 8.61644
-18.0833 93.2565 10.9815
-8.17827 152.878 1.59703
-0.771503 131.899 -6.62733
-22.7596 108.445 12.9225
-29.33 97.8527 -2.93321
-18.5756 115.279 -5.30114
-7.2616 111.279 0.324247
2.05609 124.523 3.615
-29.4955 115.438 -1.65182
11.5513 143.984 1.32257
-7.0369 85.1142 -3.03254
-13.7043 130.883 -4.49224
-32.3997 100.411 -2.86978
-12.6851 89.039 5.6467
-9.591 120.927 -5.08955
-26.4818 123.046 -2.01707
-11.0877 122.116 -2.96232
-14.3347 80.6467 -3.37334
-17.0089 131.639 9.86852
2.19542 104.063 -5.38642
6.48559 132.305 -6.84303
-15.572 82.6044 -3.22311
-26.0371 125.311 7.56049
-29.1432 119.23 -0.579793
1.79243 123.486 4.02623
-15.9068 146.224 -0.37197
-30.4092 101.605 7.97608
-16.3366 93.7756 7.65635
6.38709 153.851 -1.54102
-5.62526 111.222 0.0732792
-16.8515 85.9562 -0.541247
-15.0942 134.495 -4.27669
-11.5861 96.3547 -4.09249
-34.2088 91.2803 -0.369429
3.8092 130.152 -7.5651
-17.993 102.118 -4.84561
-20.5079 86.314 0.127485
-6.66841 153.046 -1.94865
-21.3179 132.115 -3.12413
-22.4624 121.942 12.9464
-18.7141 90.5916 10.2017
8.52535 151.249 -1.1512
-24.0315 85.5504 6.83812
-27.076 127.202 1.36041
10.6898 143.697 -0.665022
-20.0106 83.2749 -2.33376
-14.629 132.282 9.55394
3.46495 117.909 -6.56861
-19.4935 112.914 13.1397
-11.7485 87.2274 -3.45037
-2.3733 139.234 -1.72943
-4.55478 138.45 7.02365
-23.3655 122.663 -3.80693
-23.6527 123.646 -3.84773
-6.52098 138.245 -3.75405
4.94448 105.571 -4.21828
-21.8064 86.1112 0.380678
-10.3399 104.743 2.55938
-14.6783 146.178 4.81725
-26.4095 95.4368 6.99382
-34.3993 97.0869 -1.63
-19.5414 94.851 11.0834
8.47238 122.477 -3.66262
-18.1791 148.098 4.38719
-0.597868 133.258 -6.59595
-4.71707 85.1077 -3.62034
-13.7112 85.5258 1.73713
-0.347448 131.833 1.55423
-8.26403 111.289 -8.32152
-18.7611 131.444 8.79182
-15.2797 149.818 0.638655
10.9116 131.912 -1.8025
-16.5191 85.8168 5.05837
-7.46853 99.6378 7.06286
-9.11921 128.903 -1.76869
-27.1551 133.833 5.63692
-32.958 127.242 2.6863
-25.5394 118.545 7.85754
-23.2127 83.5431 0.10921
-8.63326 115.557 3.78514
-5.00765 102.852 2.65015
-9.48858 93.4357 -5.73146
-30.5695 112.632 2.96504
-18.0664 87.8337 8.11282
-19.9551 93.6422 -3.26281
-14.6414 145.967 -3.03994
-31.4647 131.47 5.72226
-12.6357 151.356 2.26654
-14.7676 95.787 6.17739
-34.8857 81.7375 6.87391
-11.7346 107.023 -8.05026
-30.9279 132.895 4.93082
-6.11514 133.568 -1.97633
-10.1555 110.826 5.5752
-18.1152 81.2243 -1.95474
-23.0116 114.607 -5.36863
-24.5215 123.232 -2.66727
-23.7365 94.1299 7.65473
-12.8815 90.9583 1.38393
-13.7707 89.3783 3.78512
10.757 131.416 -5.05693
-15.1877 108.967 -5.46158
-3.58053 79.1158 -2.47975
-29.8318 87.4321 6.44341
-33.9487 99.353 2.61876
-12.6813 133.853 -5.77712
-34.7656 84.0746 4.49862
-16.0724 104.446 9.19275
-13.7293 103.829 -7.06937
1.21798 99.8731 -6.55733
0.429322 144.873 3.32375
-24.3496 128.567 8.83064
-11.2644 102.629 3.20946
-9.9754 86.7383 1.84316
-0.935871 120.23 1.01859
-12.8468 93.4765 3.21525
-19.1389 101.06 11.8062
-18.9251 100.496 -4.36796
-14.2236 93.2325 4.1098
-9.82326 96.389 4.70192
10.9568 151.559 1.39726
-9.56286 79.8249 -4.62692
-12.7753 119.562 -3.0453
-22.1752 103.421 12.6285
-11.5201 92.8005 5.98173
-12.4793 138.016 4.93194
-32.224 82.9572 0.531433
-13.6874 102.644 8.19838
-27.8952 131.002 9.15347
-13.183 130.971 10.9413
-22.2672 127.652 -3.06485
-26.1721 141.876 2.70459
-29.573 111.979 -2.12456
-4.24511 133.35 -3.82422
1.30052 125.673 1.63171
-12.6943 96.554 -3.63874
11.2982 144.523 1.08182
-0.633111 119.986 1.32011
-27.2699 127.069 5.12699
-5.81105 87.8298 4.61086
-20.936 129.133 -3.25609
-13.4935 88.1115 1.03983
-8.46767 128.058 8.16176
-23.2588 84.062 4.0645
-27.3862 97.9338 8.46074
-11.4735 92.2741 2.77011
-23.3165 99.3746 10.0825
-20.3519 142.165 -1.39588
0.0669579 119.592 -5.86865
-4.39851 115.745 0.261248
-25.2555 83.7057 2.21279
-33.4536 85.0462 5.62038
-18.0219 88.7892 -1.73035
-24.1755 95.1483 7.5051
-11.4439 114.142 8.51868
-30.6274 125.914 7.50001
-21.356 141.046 -1.63534
-17.6071 120.079 12.4264
-33.5037 98.9246 1.00394
-25.5328 125.518 -1.91346
-12.7726 90.6736 4.4226
-24.1044 97.5811 -3.61863
-4.65741 115.463 -8.44781
2.40451 127.267 2.38403
-29.0838 122.17 3.56834
-22.8279 96.9977 -3.24026
-32.9651 104.998 3.76387
-18.649 88.0074 8.28903
-8.82281 151.818 -2.34967
8.09462 144.295 5.38813
-10.662 119.205 -4.54147
8.76659 149.336 3.14506
-24.5466 122.089 -4.3169
-31.6933 106.076 -1.27015
-8.85516 87.7038 2.043
-31.1514 96.1309 -1.8012
-15.7552 120.576 -2.60119
-28.3556 130.152 8.93415
-34.6357 92.6493 -0.499938
-19.3966 98.7952 11.9862
-13.2745 137.891 -5.23874
-28.8292 122.966 -1.90495
-5.91371 141.042 -3.24539
-29.7531 135.841 2.87274
-19.6568 123.296 13.7348
2.52644 125.497 -6.82838
-25.3355 122.639 -3.24752
-8.76307 98.6589 0.627013
-27.2112 110.767 10.2133
1.79498 118.478 -6.50902
2.18816 106.07 -5.13465
-25.0453 109.524 -4.32641
-20.945 110.97 13.1589
3.42216 154.381 -1.71511
-6.79447 140.454 2.86356
6.06878 120.451 -7.77174
-13.4396 109.138 -6.65418
-14.1171 98.1293 -3.70746
-31.2992 128.614 -1.52761
-28.2977 115.332 -2.86536
-25.2645 127.34 -2.5472
-12.7536 89.7599 -3.65354
-26.5025 115.58 8.35202
-5.99029 128.363 4.75732
-32.5397 106.332 2.13046
-10.5514 85.4382 -2.0351
-28.3118 104.279 -3.2785
-1.14143 90.2473 -6.07755
6.17613 131.053 -7.2373
-32.4126 89.5338 -0.392459
-18.2418 85.4818 6.23981
-2.61787 132.26 -5.60332
-8.9516 132.206 9.71584
-4.40216 143.174 -2.86851
-22.4016 133.196 6.70964
-10.247 89.8281 4.57813
-12.7088 119.028 -3.15874
-21.9647 89.0833 8.85168
-24.946 109.343 -4.25541
5.15941 135.835 2.86336
-18.8032 112.509 -5.28519
-28.4672 127.185 5.75015
-6.00801 102.617 1.1473
-7.54427 99.103 -6.544
10.5403 141.693 -0.0901358
9.01974 123.866 -3.11196
0.02145 154.015 -2.06673
-8.57179 106.981 0.737742
-13.1927 97.126 -3.54622
-23.6202 83.3677 -0.0471926
-11.3541 90.5245 3.00067
-27.2693 126.382 4.08376
-18.8935 112.826 -5.16709
-7.24221 100.491 4.90219
-25.3048 126.679 0.592194
-30.1234 112.085 5.36828
-23.1468 123.861 -3.66083
-13.0218 93.6764 2.97077
-26.6437 120.151 7.4779
4.67524 124.414 -7.71154
-9.5232 107.019 2.98603
-14.5574 130.164 -4.45055
4.66765 133.048 8.26909
-1.47282 151.423 -2.42844
-12.8207 86.9833 1.99947
-5.00843 150.025 -3.24149
-4.76432 83.16 -3.34104
-16.9841 92.4176 9.85518
-19.2805 126.906 -4.11539
-18.6909 147.29 5.10438
-4.9497 102.417 3.4964
-9.49657 124.735 -3.29912
-9.61348 145.421 -5.37262
-15.0597 117.257 10.9034
-18.863 115.015 12.9616
5.0924 149.919 0.881625
-0.278416 113.58 7.28184
-21.2355 124.61 12.6244
-13.7893 91.8755 6.3698
9.7115 149.274 -2.27342
-12.9284 129.514 11.3022
-26.4769 126.274 6.57763
-22.8116 131.707 8.54027
-22.0556 127.775 -2.94904
-21.6174 125.947 12.4496
-1.80183 106.302 -7.48453
-25.7513 91.7589 -1.67901
5.91303 145.431 -5.1064
-8.89075 106.508 0.992226
-25.4584 126.348 1.25926
-4.1802 128.011 1.9101
-15.7675 149.685 0.785548
-1.96434 132.809 -5.58445
-7.07622 77.9573 -2.5874
-25.3951 127.366 -0.987819
-12.2639 90.8479 3.03142
-3.85229 115.018 0.29523
-32.578 102.41 5.22761
-11.7172 142.779 2.87023
-18.0881 146.405 -0.0594537
-13.5735 106.526 -7.70627
-26.5496 131.061 -5.14817
-28.9112 90.7537 6.61917
-19.2116 87.7154 8.28409
-30.7332 132.403 -0.679061
-27.279 133.547 6.62043
1.7507 96.1442 -5.32794
-8.61439 133.386 9.41476
-3.46383 132.135 2.64309
-32.2452 104.978 5.67038
-6.44041 100.138 -7.15176
-9.55748 104.06 -7.71666
-6.88274 122.695 4.04664
-9.97796 97.9654 0.881778
-0.905174 142.35 3.78441
-34.8424 91.2838 4.83987
-13.258 145.328 3.58543
-26.2481 128.912 6.51392
-3.63986 127.774 -6.95052
-4.27176 130.693 -5.54442
-31.1147 133.032 0.896258
0.274345 121.939 1.80905
6.10064 148.065 -4.22583
-35.7585 87.0716 4.20092
-0.386525 132.022 1.65704
-20.3102 133.041 7.86337
-27.2393 127.576 3.94821
-9.86383 95.8866 6.83876
-36.6488 94.1675 1.35006
-34.5444 82.2255 6.84654
-17.5715 85.0984 -0.617268
-21.847 103.881 -5.09229
-6.94357 138.314 6.84297
-30.0646 118.479 0.524895
-23.1834 125.486 11.0766
-2.72404 86.6311 -5.11236
-6.02639 131.182 -3.48315
-14.5819 128.825 -2.33192
-0.694347 116.215 2.70272
-27.2648 132.945 7.17061
-4.37588 107.224 -8.8715
-6.65189 81.7063 -4.18258
-1.97619 124.699 -7.06453
-28.46 133.356 5.81382
-6.14148 140.41 2.51619
-26.4089 127.452 2.70731
-20.5644 120.21 13.5011
2.41062 145.458 2.33856
-27.5902 125.646 -3.60779
-18.6784 138.677 -3.61595
-23.2184 125.8 10.898
1.67009 96.7922 -5.5985
-19.4323 140.963 6.50809
-1.13578 88.3725 -5.85624
-8.31515 83.661 -2.99354
-10.153 94.1933 2.60886
-30.4494 112.473 -0.88592
0.925913 105.974 -5.86225
-7.25516 130.494 -2.63296
1.166 153.796 -1.99924
-32.9068 127.02 1.6517
-14.8903 149.604 0.281421
-26.1171 132.275 -4.9154
-26.5693 141.296 1.30164
1.85386 122.73 5.63817
9.71285 151.897 0.895297
-6.13854 129.433 6.23925
-13.3923 130.068 -2.44037
-12.8288 89.4772 -3.55726
-7.05551 130.663 7.79671
-6.55696 122.625 3.40673
-10.59 90.295 3.34901
-27.1664 83.4614 4.45112
-29.9233 93.9584 -1.02674
-32.3318 124.195 7.9848
3.60448 141.899 -5.59718
-12.8049 138.363 4.17305
-26.2716 138.63 -1.97037
-20.8501 85.5594 6.91539
4.98406 134.444 7.1797
-5.29014 120.243 -8.13434
-27.5565 107.773 -3.74318
-0.496596 129.052 0.801108
-25.8808 82.5877 3.1771
-34.449 91.1436 4.95059
-18.1768 128.489 -3.77129
-0.497053 118.61 1.96317
11.0144 136.012 -0.833213
2.53478 125.42 3.98938
-10.3167 89.0099 4.54293
-31.1004 127.198 -1.63242
-14.8554 139.945 5.11714
-8.55268 132.141 9.58844
-2.26196 141.764 3.75928
-10.1665 123.897 -3.09082
-32.0463 102.471 -2.50618
-29.125 98.2572 7.82391
-33.4087 125.748 6.8933
-5.7162 135.759 -1.62912
-27.3688 95.6848 -3.21067
11.2953 140.614 -2.79441
-12.0382 90.7054 4.93293
-20.1726 83.9975 -0.487178
-31.9778 123.355 -0.224518
-5.39855 140.458 6.05424
3.238 129.034 2.79723
-31.2158 129.681 -1.39178
-1.72655 140.103 4.82654
-13.3619 108.711 -6.90405
-15.5655 119.51 -3.13435
9.62448 128.249 -2.71575
6.58949 140.546 3.45971
-24.6049 122.943 10.9847
-8.13532 128.431 7.99525
-19.8708 141.041 -2.59144
-23.0429 83.6523 -0.688509
-25.6408 112.336 11.1892
-26.0154 128.149 -2.29394
-23.1377 144.627 1.9856
8.86593 154.826 1.161
1.61712 133.802 -7.18942
4.87551 134.264 7.09179
4.27274 117.209 -6.52643
-31.2292 107.149 -2.02063
-1.1322 139.502 -2.55653
-2.1472 130.517 -6.74043
-17.0689 94.8679 -3.46515
2.80054 150.541 -2.54737
-23.4393 123.109 -3.86127
-17.4578 139.644 -3.50171
-12.9721 96.6808 -3.53689
-8.74917 97.9105 4.01335
-35.8239 87.1969 4.22921
8.41825 126.17 -0.726208
-24.892 128.24 7.81187
-28.6581 100.021 -3.16106
-21.2514 136.777 6.52461
-30.5474 132.781 -0.766771
-1.56187 131.537 1.82303
-29.4471 104.696 8.34307
-28.5593 86.4332 0.435717
-24.2404 128.836 -1.67452
-34.5697 85.7233 3.90359
-18.0316 142.217 6.60062
-12.1363 92.0606 5.28763
-28.5209 133.546 5.10788
-6.46577 87.8661 -5.25934
-8.52317 99.0332 5.99799
-12.3727 91.8098 3.07577
-24.8922 123.041 -2.43526
-4.2158 110.498 -8.37556
-21.4281 104.765 12.8784
-11.0657 102.485 2.64976
-22.6599 85.2807 2.52801
2.06734 124.944 -6.35259
-24.0961 87.2248 7.97086
-14.7321 101.051 -6.0396
-13.2146 110.537 -6.04713
-19.3126 113.126 -4.98563
-17.0842 123.72 12.8458
-12.3446 93.5111 -3.96326
-23.4728 101.347 11.2555
-9.98325 87.5486 1.51955
-6.59682 85.8131 -3.36176
-32.1186 97.2152 4.76767
-13.309 84.2285 -1.81382
-15.6186 115.043 -4.57189
-4.59187 102.361 -8.04849
-4.82349 101.952 8.82793
-15.9495 114.481 -4.8102
7.81955 119.542 -3.47601
-21.4412 140.889 6.47353
-16.7872 130.007 10.3455
-31.7123 107.806 5.42389
-24.9893 124.86 -1.22605
-17.7716 146.267 6.04781
-1.0437 133.868 2.03466
-21.2274 137.919 6.46435
-19.8112 119.331 -2.9754
-3.83637 93.6815 -7.2987
-1.51565 118.72 -6.74937
-36.6078 87.0837 4.51325
7.56486 136.353 -6.36578
2.77576 141.165 -5.15848
5.84506 144.01 1.3071
-22.1382 136.155 5.66711
-4.54217 135.849 6.26118
8.49879 141.47 -5.89752
-26.8619 140.723 3.23894
-28.8138 116.81 -2.11712
-11.5717 102.751 -7.1845
-12.8833 90.034 2.20812
-31.0089 99.7675 -3.15516
-31.1093 111.482 1.515
-9.39213 90.2621 5.68954
-13.4635 139.321 -5.95257
-13.4721 125.409 11.848
-10.7408 141.625 -5.52021
-16.2053 94.3909 9.80585
11.0991 135.549 -3.562
-31.6423 123.572 1.81983
-12.278 87.6934 -3.78447
-10.2715 86.53 -3.20457
-3.89306 107.654 2.11926
-8.87771 140.663 -4.45635
-0.183353 115.623 5.36312
-20.17 80.8514 -1.2452
-13.3065 147.432 3.77491
-21.4209 106.228 12.8899
-4.67513 137.542 7.02094
-33.5281 100.707 3.19407
-26.8464 102.004 9.91078
-32.6339 84.1595 2.53837
-21.6591 111.576 13.2276
8.60121 149.317 -3.61133
-22.5345 139.231 -3.39382
-19.3955 86.2528 0.29499
-9.42073 91.7302 -5.68527
-2.56053 112.837 -6.99424
-15.0571 119.202 -3.14068
-21.0669 124.249 12.8149
-21.1525 139.004 -4.02993
-16.1042 96.9249 10.1778
-1.5348 113.216 -6.37339
1.69512 125.628 2.04079
-16.4204 103.178 9.90905
-8.95446 86.7246 -3.95185
-19.4931 107.644 -5.87528
-29.2318 128.457 -3.34016
-22.5423 142.706 5.24191
-9.13641 100.97 0.288184
-16.6422 136.546 -3.57422
-27.1257 132.918 7.31104
-18.4382 133.736 -3.64898
-32.6252 100.332 -2.73834
-32.573 123.906 6.65141
-18.8466 110.724 -5.80383
-14.9528 150.666 2.43254
8.91776 152.248 1.78429
-24.3828 83.8114 0.842491
-35.216 93.4393 -0.836189
-10.0056 106.132 3.63085
-26.7514 120.45 7.41349
0.715985 95.1097 -5.49654
-21.2447 84.4593 0.0467036
-14.2923 113.901 9.92624
-28.964 122.271 3.07508
-0.343288 141.529 3.68412
9.82174 125.933 -4.85684
-28.1489 85.337 6.18897
-30.1864 98.5286 6.34326
-27.1624 140.387 3.27403
-16.4647 120.614 -2.67405
0.142584 101.016 -6.96731
4.04859 103.415 -5.07688
-9.48203 96.4742 -5.657
-27.2923 116.452 -3.54728
-12.7104 84.544 -2.00218
-6.69921 102.437 0.721906
-17.5471 86.5149 -0.742282
-5.22636 143.189 -3.13173
-1.30808 133.734 2.22803
-10.7668 119.435 -4.33983
-13.5242 82.3775 -3.69564
-5.55564 140.477 2.46937
-32.823 128.071 4.02085
0.620679 116.594 -5.6627
-24.468 129.463 -1.43221
-26.3677 126.128 6.68423
-12.926 111.975 8.7876
6.48933 139.923 -6.58635
-22.388 132.203 8.02189
-12.0053 124.792 11.3682
-2.75635 131.891 -5.83826
-10.9293 91.7876 3.70645
-5.32817 147.721 -3.61517
-1.13968 131.943 1.87303
-32.2363 84.6914 1.53911
-4.61831 140.593 2.63099
-18.9173 140.813 6.55287
-15.6899 141.498 5.13379
0.492727 118.773 4.84395
-21.0437 128.744 -3.40516
-12.3269 118.199 -3.33047
-11.9368 106.021 -7.75324
-6.79604 127.887 -4.68577
-1.84682 146.022 -2.27959
-6.27278 130.785 6.8785
-17.2714 136.371 -3.30048
-8.42796 106.93 -8.49236
-13.9454 90.5578 2.98047
-30.2017 104.025 7.95875
5.11625 127.72 -7.78244
-23.3193 143.587 0.357378
7.40196 148.833 1.9568
-26.9649 126.691 2.4732
0.615243 104.247 -6.2526
-18.7999 127.125 12.9485
-10.882 86.2372 -2.63688
-21.5793 137.464 -4.13574
-24.9194 126.356 1.37881
-16.8528 141.227 -3.13856
-30.4723 135.389 1.8135
1.80748 136.171 -6.41464
-29.5811 109.385 -2.09688
-19.5769 129.784 -4.34942
4.97011 142.456 0.946345
-33.0685 83.531 2.50421
1.35245 125.543 1.74159
-25.0009 130.336 8.67126
1.42819 89.4173 -4.25063
-14.5006 150.841 1.96949
-29.1457 128.91 8.97618
-29.878 102.47 8.46614
-23.8922 144.103 3.61681
-24.1096 129.292 8.32285
-22.5145 107.921 -5.43569
-8.39902 84.7398 1.72424
1.13328 126.317 1.16302
-29.5811 115.51 -1.5547
-36.2019 95.3475 0.0121611
-27.8755 99.3038 8.40218
-6.48512 92.2041 8.55003
-11.9628 90.2551 4.7739
-18.6615 85.9541 3.3672
-13.557 140.592 4.19712
-13.4642 138.853 -5.72594
7.07995 138.792 6.2987
8.01995 112.262 -5.38474
-17.5878 113.876 12.2265
-11.4282 132.817 -4.07472
-4.61926 102.134 8.61162
5.28876 154.378 -1.55977
-24.5578 127.254 -0.454196
-18.3724 110.182 -5.75957
8.3786 124.733 -3.8886
1.45795 103.498 -5.76131
4.07968 145.225 1.06951
-10.5349 80.236 -3.95284
-4.62388 84.8162 2.84786
-10.3725 87.2791 2.21686
-28.3938 114.44 -2.91427
-8.78327 127.536 8.36757
-10.281 134.786 -4.7302
-27.1525 84.0828 1.0633
-11.0742 115.467 -6.16713
-1.3914 115.679 -6.13828
-31.7533 130.926 3.61084
-14.3702 109.993 9.31958
-29.9491 104.263 8.07833
4.21677 148.825 1.1672
-2.41607 140.229 -1.53306
-27.2043 83.2796 0.20449
-11.9618 90.5294 2.49087
-19.5859 126.725 12.4271
-12.0549 90.9604 5.27825
-10.3514 121.397 -3.68382
-9.36763 86.5781 2.46432
-24.2142 127.542 -2.40043
2.45982 132.135 1.1345
-11.669 84.5577 -2.48286
-13.2138 86.6798 -2.71624
-21.9289 138.433 -4.1931
-10.9039 136.145 6.43426
-26.1617 97.9291 8.7394
-20.055 127.572 10.258
-30.3038 126.125 7.8202
-24.1584 134.406 -5.32482
-31.1592 127.225 -1.53245
-20.2472 89.6721 9.3096
-7.85216 105.104 0.151382
-0.42482 102.377 -7.17652
-4.74535 131.434 -4.78256
-1.09851 111.511 4.67789
11.2412 135.639 -3.02928
-34.6017 97.924 1.1252
-7.2625 110.363 0.245013
-17.2898 103.653 10.3583
-8.61336 137.807 -4.68689
-19.7672 115.327 12.9523
6.05639 138.827 3.22687
-22.3719 112.729 13.2146
-18.8348 110.759 11.9881
-21.144 91.3362 9.32556
-33.1724 83.7075 3.89387
-8.31653 129.14 -2.34969
-19.5582 92.3019 -2.90885
-20.3372 108.907 -6.03579
-13.134 86.7863 2.43062
0.0852513 106.856 -6.43489
-5.70462 124.091 2.79528
-36.7109 80.8005 5.27222
-7.0017 86.5324 -4.17762
-28.2078 115.821 -2.87129
8.43237 120.507 -3.21847
-14.0917 132.839 -5.50414
-11.0225 149.48 -4.16091
-27.3218 109.421 -3.51991
-19.6543 147.721 3.59474
-2.76982 104.347 7.92878
-25.3566 122.594 -3.44687
-15.2566 93.6958 5.74457
-16.6034 82.3408 -2.61551
10.4506 137.205 -4.93603
-14.7313 86.3297 -1.91237
-10.0005 87.0434 3.03193
-29.6196 103.776 -3.39634
-35.2559 96.6953 1.52833
-11.6357 111.17 7.85076
-6.72883 140.144 3.30757
-17.9822 122.515 -2.95885
-24.5487 129.37 -3.35481
-18.2105 108.226 10.8836
-26.853 102.603 -3.12919
-31.9346 86.2929 5.11163
10.921 143.983 0.547837
-6.92214 138.319 6.93668
-30.4949 125.947 7.65307
-13.8454 100.75 -6.046
0.016139 95.6601 -5.9908
-19.1808 90.5593 10.0488
-6.81183 101.016 4.27956
-2.5113 128.944 1.57391
-31.0338 103.03 7.56583
4.99674 137.045 -7.25254
-27.6808 102.051 -3.07899
-24.5802 84.3383 4.8144
-24.6784 126.208 -2.05371
10.9329 142.556 0.514034
-4.67458 130.056 3.29541
4.94627 115.259 -6.53581
-9.28996 116.758 -7.66275
-6.8955 87.4271 -4.92858
-14.328 149.455 -0.114818
-21.6967 146.226 2.67273
-1.63456 107.263 -7.29188
-31.1577 122.017 -0.335143
-6.73279 137.903 8.12929
-31.4242 123.593 4.07522
-32.0827 130.546 1.69381
-4.86824 100.926 -7.97368
-16.0255 142.872 -2.70654
-20.8423 132.795 -2.66871
4.08381 148.784 1.19055
-27.0002 138.454 4.37772
-22.4802 114.659 13.2995
-22.753 93.2036 8.12892
4.06918 131.885 6.85867
-21.0179 145.242 5.24032
-0.51733 120.845 1.30236
-10.4564 127.193 10.5295
-26.3926 106.428 10.8794
-0.120783 143.723 2.20362
-17.6906 109.858 10.9011
-8.51679 93.5513 -6.30361
-23.4316 116.018 -5.33628
-20.3527 122.125 -3.39318
-13.3368 108.661 -6.95107
-33.5713 124.994 3.00684
-28.4438 124.19 3.27639
8.30421 139.948 -6.05485
-13.0227 128.062 -1.77485
3.50214 128.412 4.01477
-16.1458 115.709 11.2345
-27.5232 120.499 -2.65134
5.29361 143.061 1.16971
-8.39613 136.673 -4.52391
-3.07281 128.671 1.69322
-34.6578 97.799 3.18419
-1.52212 153.231 -2.29198
-4.91588 102.333 5.28344
-24.8135 127.846 0.727999
-33.3583 96.7951 -1.90277
-32.6635 123.572 0.554068
-28.6612 124.174 -3.12252
-5.49858 81.4596 -3.76946
-16.4064 86.2664 -0.633203
-27.5176 126.426 -3.35891
3.04166 119.398 -6.52532
-4.33657 118.825 -8.09735
-29.3173 96.6912 6.45627
-8.60991 85.4872 3.44907
-12.5078 97.7859 2.82336
-19.8336 137.497 6.52803
-22.6297 85.7858 1.83842
5.32961 133.654 -6.83387
-32.3885 126.367 8.15755
-30.4185 113.248 -0.713155
-19.6208 113.822 -5.02362
-8.90355 117.431 5.2913
-9.99248 108.348 -8.39015
7.59583 135.558 -6.38203
-7.18103 148.372 -4.59681
-4.03746 117.368 0.179642
-27.2126 101.421 9.36453
-2.4317 114.696 1.19606
-24.9616 143.018 2.29523
-11.9517 91.3881 3.22934
-8.94871 120.672 7.10017
-8.6626 113.909 3.21328
-25.9075 136.962 -3.76827
-31.8706 131.475 1.90524
-7.71988 123.581 6.17116
-0.451218 115.203 4.27521
11.0353 140.953 -2.84632
-27.1273 117.692 6.04583
-11.293 95.2375 5.89329
-24.9207 101.242 -3.54886
-27 106.587 -3.51669
-27.5587 101.365 -3.06995
-4.32424 118.864 0.395252
-10.3492 133.888 -4.1198
-24.9723 141.76 4.60513
9.90373 149.787 0.640281
-8.8509 103.57 0.222369
-21.1349 90.7255 9.25942
-15.8745 142.381 -3.79969
-9.90776 89.4096 4.56806
-25.2364 120.336 8.90322
0.146377 135.323 1.21881
-20.9352 104.025 12.9413
-24.0782 125.244 -2.42609
-30.145 112.828 -1.1243
-29.3273 129.909 8.66849
-17.5957 85.332 0.384162
-20.8473 126.703 11.8021
4.00206 144.033 0.820399
-11.687 90.4252 4.03431
-33.1984 104.182 1.50363
-13.8395 149.572 -0.609846
-3.17278 148.955 -2.73725
-31.1548 100.47 -3.13145
-15.2248 102.913 -6.86004
-34.2939 98.221 -0.620597
-13.8138 99.9694 8.11892
-2.44211 140.214 5.47109
-21.5985 129.894 8.03124
-2.20973 135.809 3.00531
5.54095 141.031 1.5022
-14.9143 113.863 -4.43357
-33.6689 100.877 -0.865064
-10.103 150.485 -3.79854
-25.8758 134.452 5.18714
-30.4827 117.244 0.945582
-30.9561 85.9707 4.67085
-20.0755 142.794 6.55555
8.98682 123.267 -3.05836
-27.7394 131.214 9.10205
-7.75499 89.8455 6.25323
