ply
format ascii 1.0
comment Created by Open3D
element vertex 1935
property double x
property double y
property double z
end_header
9.31444 113.564 -3.50766
-15.9737 83.2411 -0.94143
15.9789 120.859 7.73842
9.54191 124.646 9.38626
-0.379306 134.406 6.97074
-11.1188 109.263 11.0105
4.9815 114.192 12.0055
-7.4234 108.927 -3.19805
-2.85916 94.5762 1.4324
-5.45409 128.02 9.69476
-6.46147 144.943 -4.10043
4.42988 96.8521 -0.866155
-13.7759 82.6978 -1.41874
-2.22792 131.685 7.36386
-2.58013 103.803 11.6487
-20.3429 93.5852 -1.09902
-3.84403 146.465 3.46299
18.9979 128.036 5.03229
20.3762 112.309 4.66748
-0.874116 108.521 11.2278
-8.97346 107.932 -2.91276
18.1159 126.671 2.1283
21.8855 112.045 10.6767
-13.6724 131.711 -1.11189
24.5238 135.838 2.78934
-13.6174 135.529 0.0717443
11.7429 104.743 -1.78757
5.22934 115.421 12.0281
-8.20973 136.311 -4.90059
15.996 106.246 10.6116
-13.1929 82.4148 -1.04462
20.4677 114.274 15.8263
-17.5885 103.227 -2.5412
-1.46233 130.673 7.94716
-22.9402 120.156 11.6808
18.8643 122.451 4.56393
20.5765 109.131 7.96024
-10.2953 128.352 8.19769
17.3277 149.255 -0.703842
20.778 125.552 6.19101
12.3764 143.61 1.62735
-0.822659 149.98 -1.71732
12.3871 141.308 2.90944
13.0282 123.774 3.77555
-9.17317 101.146 -1.96337
2.18178 120.845 -3.31806
-5.96963 121.698 12.5383
10.5483 109.95 -2.62052
-7.48382 107.384 -3.11452
-6.03478 113.391 -1.66716
4.53935 128.64 -0.32068
21.2735 138.102 4.38348
23.9905 129.488 -4.72532
-14.3682 124.953 9.38107
3.36733 108.454 11.5911
9.28406 111.264 10.1164
-13.9649 90.2083 -1.59194
-4.69347 127.727 -0.869344
-12.2529 103.371 9.57079
6.14725 139.313 -4.60328
-5.26712 91.4535 7.97654
4.04986 145.545 -3.28114
15.114 117.583 -0.329652
-12.4657 123.3 9.99408
15.4005 119.699 0.553674
-15.6695 123.78 9.76625
16.7289 119.867 14.5619
-2.96385 92.3786 1.84519
20.058 120.857 11.1703
-14.281 89.9572 -0.752742
0.12176 107.128 -4.04254
-9.56149 103.279 -2.46263
-17.3681 122.942 11.5559
21.6066 133.159 6.47639
-20.603 121.67 8.57201
4.1326 122.377 -2.46277
10.7865 118.532 -2.26007
7.93516 155.079 1.55483
-17.2001 121.02 7.37532
9.97786 123.488 -4.17654
11.6844 127.997 6.85448
-15.0075 138.74 10.9237
-12.212 145.642 2.27763
11.8675 117.981 5.21859
-21.6237 126.072 3.23684
-21.5906 130.83 9.21196
10.7842 140.995 3.92482
16.1336 116.324 7.36574
-23.3316 119.998 4.74941
-11.8647 140.154 -2.27294
-19.5851 113.304 -0.772715
17.8611 146.329 3.95007
2.43259 93.9898 0.642063
15.8368 132.319 0.863533
-3.56225 138.727 -1.80679
-19.7194 98.1775 1.59343
-19.3474 111.644 2.87666
20.288 127.751 4.51919
3.58704 103.525 -3.07712
-6.01278 88.5004 -1.84156
-3.39899 136.121 -1.23235
-6.32502 142.995 5.84151
-7.56976 129.611 -3.48035
-18.5088 95.4381 -2.65116
10.1514 119.565 8.66201
-19.5781 122.595 13.6038
-3.55112 145.028 -2.02002
19.8042 124.817 -4.34862
-16.4573 80.8668 -1.47556
15.6485 124.096 -0.515247
0.379792 141.785 4.85542
13.3693 117.686 -2.23589
5.9503 139.306 -4.40978
18.5851 144.356 4.66853
16.7325 118.441 15.0361
22.7174 108.888 11.5345
-7.82633 99.6534 11.2781
-5.68466 128.628 9.51334
-16.6055 120.4 -0.842184
-21.7668 131.199 11.0236
-19.5402 111.562 2.20666
-8.01333 132.261 -4.53726
10.3652 127.104 -4.79917
9.60349 120.456 -2.13712
-0.263063 107.997 -4.29139
-1.09609 144.03 4.31921
-17.4762 106.524 3.30687
-16.5493 91.7727 3.88425
-15.3617 123.586 0.953895
-16.2718 118.87 7.3638
-13.4503 126.853 11.9491
-10.094 111.401 11.5941
11.743 125.239 -5.16238
-6.0625 117.308 -1.15044
-4.91827 102.309 -2.27598
2.0931 112.24 11.5396
6.34758 155.248 -0.0835816
8.19325 154.598 1.61311
14.7237 132.888 -0.714959
-19.9528 121.136 8.25105
10.1219 116.66 8.59644
1.61459 117.516 -3.73319
-7.19815 129.544 -3.15661
-0.739138 122.191 11.5257
-19.828 117.622 2.88713
12.4195 124.772 4.44161
13.3662 126.88 8.46532
-20.3769 132.183 6.74196
-4.68496 89.8155 0.781425
-10.6762 143.141 -3.14461
-13.8246 121.575 -4.07322
21.9236 114.589 14.5888
17.7735 115.716 1.5202
-10.3812 104.652 10.6792
-18.0924 105.668 -1.47805
14.754 138.366 4.02764
-12.9113 124.175 8.88388
-13.594 128.19 -3.22161
3.15447 122.613 -2.74149
-17.2274 115.806 6.33934
-12.3174 86.8252 -1.41177
2.7851 104.992 11.2131
14.8358 128.4 -3.863
21.5056 138.935 -3.16052
5.79423 121.379 10.3815
-14.4829 95.1313 6.47011
3.05239 104.5 -3.89978
-10.3171 149.919 0.835528
15.1879 119.244 1.49382
4.11249 99.6268 11.8188
14.0193 129.097 2.51438
6.52429 102.389 -3.08268
20.9277 107.45 8.20094
-15.536 122.996 -1.49702
4.03789 122.789 -2.34911
-22.6088 127.365 9.17325
18.5921 124.164 4.90982
-13.5763 127.389 -4.95204
-18.8588 110.178 3.79376
-8.74801 131.427 -5.14782
9.91483 150.342 1.28424
-11.9957 85.1636 -0.806819
13.9443 127.456 -4.97101
19.0885 138.613 -3.985
2.58341 125.215 -2.17464
-14.1499 85.4243 3.23975
-15.4805 82.419 -2.78461
13.589 116.335 -1.86767
-15.1064 83.0556 -2.65776
16.5253 131.45 2.87363
12.1038 145.777 -5.32205
11.0558 120.057 6.37005
-5.34306 134.463 6.85367
-7.6597 151.303 1.66561
15.3616 150.482 2.17538
-20.1268 97.4391 -0.646861
18.9344 114.679 1.16966
-12.1202 126.507 8.91716
-13.5016 109.151 7.50341
18.6392 105.828 1.83893
-16.7543 121.672 -1.61625
4.38808 135.414 -1.67024
10.544 127.349 -4.83232
20.8821 139.819 4.24278
-16.173 129.834 -0.166704
15.2056 120.852 -0.511062
-18.0519 118.191 1.80822
-2.27599 116.289 12.2004
-9.31135 100.005 -2.30443
20.0791 119.256 8.90527
-5.09363 99.7667 -0.813278
0.374971 99.9348 11.8523
0.221122 101.171 11.6252
14.7999 117.08 -3.46598
-21.0708 119.92 5.99883
-15.7758 122.892 -3.66889
8.37176 106.51 11.0708
-12.1199 145.21 -0.00404329
-6.28487 142.117 5.94301
-15.7278 121.481 -1.33133
-16.4269 134.496 1.78084
10.9596 104.391 8.52916
11.5398 135.215 4.01201
20.7737 123.065 7.22017
-11.1859 98.244 -3.00544
11.9222 144.447 1.50173
-3.85761 129.873 8.57701
14.8802 122.782 -1.57721
18.0247 126.296 -3.95946
5.68307 131.73 -1.74562
-16.2712 130.294 -0.0413348
-20.3036 118.903 3.17389
12.9366 128.94 3.87067
-18.4503 115.121 1.07883
5.64318 134.004 7.72371
-16.7871 131.199 0.141966
17.8841 126.065 -4.0618
-18.0563 94.654 2.07859
22.4453 122.407 0.704857
15.0392 125.623 1.80417
15.2586 129.607 3.78342
18.0971 140.175 6.17081
14.5991 104.139 8.47118
-13.6469 81.7943 -1.38998
-16.2393 121.463 -0.88082
-14.4695 82.9108 -2.02239
5.67512 104.363 -3.8552
10.3066 115.716 8.05786
24.6932 128.476 5.3004
5.97632 132.171 8.62705
-15.5223 92.3174 4.84116
18.7624 119.637 14.0691
-19.247 110.836 2.89822
-14.7921 124.574 9.29016
-2.15591 114.415 11.9797
-15.8783 142.757 8.56084
-13.8139 89.8938 -1.04008
14.6199 124.12 3.94946
-7.99327 138.017 7.82035
11.7676 114.13 -3.05377
6.16232 110.195 -2.74442
5.14343 126.871 -0.591834
-13.702 140.901 10.5992
7.78318 110.226 -2.93249
1.31261 104.86 11.0809
-5.48634 90.8188 -0.366949
-17.884 103.074 4.80081
5.92409 102.435 -2.8273
-13.2997 146.376 7.22827
-12.4021 147.448 5.61959
20.7207 126.585 -3.90221
16.8492 125.118 11.1316
-3.73671 88.1139 1.22356
8.90993 100.199 -2.88457
-21.4993 127.491 2.18777
-5.4302 147.176 -3.4082
19.6741 131.455 -4.21068
7.00588 135.216 -4.24789
10.5417 133.36 -4.96503
22.0471 108.78 10.2351
16.1738 112.852 8.22792
15.5881 113.844 17.6247
-18.6232 94.8405 1.60181
16.0402 116.273 7.15171
-13.2907 86.0235 -0.669418
-4.14595 124.278 -0.311694
1.15481 139.003 -0.429468
7.11958 135.367 7.5593
-8.43299 114.517 12.6952
-23.4281 121.746 5.7508
-2.64926 99.6195 -1.36012
13.9189 125.596 -2.57608
23.4093 130.416 -3.36373
0.210593 99.7287 11.8778
-18.4576 122.547 9.00211
-13.3306 132.45 -0.969323
-24.0179 123.432 11.5882
-13.7132 80.5314 -2.607
-10.0929 109.816 11.988
-7.71817 107.682 12.5697
11.1357 135.288 4.10082
-7.24743 104.214 12.3778
-6.58448 122.344 -1.97101
11.368 148.055 -4.25683
-5.42041 106.625 12.5275
-7.94096 149.805 3.98384
-17.2587 97.1686 -3.38134
-19.2394 85.6718 -1.17116
10.3785 134.983 7.65356
-4.89155 138.057 5.47117
18.9981 107.528 2.13102
16.7505 122.114 14.134
-10.3783 106.044 10.9066
5.84606 152.856 -2.85124
5.14348 150.168 -3.78317
0.324979 107.349 -4.04291
15.9377 122.097 6.98887
-15.4791 120.879 7.72255
-2.9761 138.003 5.77919
22.5348 113.419 12.9851
23.9842 139.935 1.13388
-15.4444 96.0392 -3.02417
25.4743 132.873 -1.74807
16.4979 115.161 8.68863
-10.6399 123.834 9.97065
21.6392 142.004 -2.46546
-6.92758 107.12 -2.91454
-1.91474 139.954 5.62278
-17.6605 110.741 4.88494
-5.20915 119.748 -0.591691
15.1203 120.089 1.69965
-18.9308 125.56 13.491
-7.95177 145.897 -4.07647
-14.0638 144.875 8.26187
14.8916 143.385 -1.58965
0.710428 145.869 -1.49634
-18.879 122.793 0.645313
11.9957 130.23 5.33299
-15.4905 117.137 8.01061
-2.94672 134.954 -0.363198
8.31213 129.948 -3.77957
12.4891 105.931 6.99107
-4.00411 114.713 12.2492
4.69647 112.714 -2.91406
-15.9748 92.8445 4.60781
13.9848 139.215 1.75821
16.0616 116.503 0.00122075
-19.2823 120.956 8.70286
18.0815 121.621 9.14608
-2.4442 139.392 -0.95502
-18.621 137.051 10.8384
-19.4569 136.093 7.87583
22.8654 122.144 -0.00266442
11.0043 139.29 6.15602
-19.893 134.029 8.78335
15.377 106.796 8.48885
0.625585 153.864 -2.07972
-19.0684 114.04 2.54139
7.35325 128.854 9.47654
-8.54885 132.167 8.81785
-7.37242 152.148 -2.15058
4.39014 122.083 9.75918
-18.2247 116.354 3.98788
14.2021 140.127 -5.18182
16.3704 142.476 -1.99016
-15.2522 136.77 1.37981
4.43956 108.387 -4.53741
-15.4671 92.694 -3.08263
4.95935 107.992 -4.40632
-15.7704 80.5047 0.0414255
2.31815 101.128 11.5943
2.46408 125.247 -2.23712
15.6178 127.889 4.43725
-5.01527 128.368 9.43862
11.2916 119.555 5.62466
24.2912 126.666 3.19553
-10.507 87.8998 -2.44757
-4.66913 138.746 -2.55099
-15.7839 122.625 1.64746
15.317 126.465 -3.91021
15.397 124.534 0.179039
16.5827 116.818 1.02446
-15.9834 127.963 1.11524
7.37993 134.059 -4.16062
23.8046 140.705 1.2333
6.51106 144.766 -4.71118
0.472226 95.8577 0.765497
20.4763 129.372 4.26094
-5.73869 145.056 -3.64262
17.8343 115.241 -1.2527
21.5401 128.385 -3.44631
-1.91497 102.771 11.3756
-10.7431 147.914 -1.86076
-6.85801 148.696 4.49106
-1.16066 121.069 -1.53894
9.41228 119.46 -2.78839
-10.0564 128.963 -5.74417
-9.56824 97.1508 -2.18115
10.9534 138.136 5.17294
-16.2654 122.99 8.71015
5.94324 123.27 -0.900726
-4.31303 94.017 10.2112
11.4246 143.94 1.82274
6.76925 103.841 -4.08894
-1.87239 131.564 7.38187
-1.27786 139.898 -0.394396
-14.8064 86.2666 3.30397
6.08091 152.053 -3.22951
9.35207 147.532 -5.3927
18.5918 144.29 -2.48868
14.0391 115.848 -1.57267
-20.2917 132.358 6.70411
-16.7073 128.961 -0.294511
19.0107 122.144 12.031
-0.671069 154.001 -2.15482
16.5869 146.732 -0.45422
-11.3204 111.602 -4.05489
-16.2039 121.406 1.69969
15.0435 150.582 2.22635
-17.3344 121.944 10.5354
-17.9248 120.746 0.18716
-0.412826 109.908 -3.87744
15.136 110.185 7.18659
10.5946 114.308 7.21022
16.4908 123.288 -0.267069
9.00004 135.136 7.56569
3.4963 106.876 -4.48125
-16.9806 120.447 0.564306
4.98697 98.7665 -1.27675
13.0739 111.504 -2.74191
-1.68801 139.559 -0.549724
5.16698 145.19 -3.93293
10.0003 110.667 8.48939
-16.9301 82.6841 -3.01756
-2.83684 137.088 6.3522
-1.79979 117.166 -1.97805
22.6968 125.437 2.03952
20.3863 128.66 5.27801
-11.1128 103.545 10.2087
18.8879 115.542 1.40989
-17.0769 112.409 -3.91716
-18.7817 101.092 3.55785
3.88988 115.381 -2.95608
14.7767 116.275 13.985
5.19621 110.776 -3.21627
2.95448 125.438 -1.91976
14.975 134.895 5.08279
-18.5624 100.084 4.02761
-7.68819 126.255 8.61377
-10.963 104.181 -2.8196
13.5613 147.129 1.21399
14.6832 128.946 -4.08306
-8.25289 126.979 8.52748
-18.3119 116.915 0.259378
0.350588 127.971 8.56721
17.1398 125.852 -4.3624
9.55241 101.404 -3.01988
-17.5507 101.013 -2.34878
17.3296 125.203 1.26342
4.92757 115.885 -2.60459
19.319 114.295 2.39407
0.48256 93.9784 1.2099
-0.728126 112.987 11.5754
-17.1675 124.237 10.3872
13.5099 136.15 1.93417
22.4193 144.224 0.25202
19.9761 121.226 4.8968
-15.9762 101.014 -3.14695
6.202 93.5741 -0.727722
19.789 127.308 7.76911
-7.39852 116.117 12.9336
-17.4724 120.068 -0.929232
-16.2834 117.402 -3.60419
19.9361 133.589 -4.05774
4.31066 106.272 11.0532
-13.2247 126.241 -4.00673
-8.86689 112.485 12.804
16.9809 127.015 -4.02768
5.85666 106.172 11.013
-16.043 101.252 -3.14633
24.7572 129.412 -2.42915
-19.4396 96.0908 -2.12063
-20.0839 99.3895 -0.884483
19.8932 115.471 5.27432
-1.85307 150.449 -1.47213
12.0593 130.555 5.10786
21.6268 109.576 10.4666
-20.3313 129.573 3.15453
-12.9152 141.432 0.400291
-0.116721 153.425 -2.32905
-9.08856 96.7705 8.94744
-17.467 87.6935 1.53942
8.78428 123.152 -2.58301
5.72028 133.886 7.79232
-15.9677 134.106 10.8254
19.8611 137.113 5.83809
-15.2259 82.6216 -1.61162
17.9739 123.051 -5.23778
9.22922 125.831 -3.90121
-19.8564 97.7703 1.46118
12.5664 119.618 -1.75971
13.9819 132.712 6.53478
24.2924 133.883 3.81334
-19.0354 114.399 3.8316
0.107243 133.938 0.397991
-5.44776 95.2429 10.0878
15.4515 132.078 0.666683
-13.5663 110.963 6.94537
-11.3816 119.511 -3.96026
11.9651 123.389 4.97112
-20.1328 133.794 9.36916
-2.9947 146.427 -1.65766
-4.49785 119.716 -0.281403
4.6916 140.094 5.0054
-1.56114 127.914 -0.117639
-17.3352 89.7722 -0.907338
-0.551991 135.443 0.296627
10.6674 115.518 -3.19665
22.9804 122.169 1.32328
-14.0176 116.258 8.37114
17.2184 131.466 -0.243796
10.5958 144.241 3.25525
21.8807 114.512 8.07055
5.14758 128.56 -0.188905
1.52589 115.07 12.2136
10.5451 149.535 -4.2201
-17.0691 119.101 2.2788
-8.02453 84.5847 -2.03371
-7.99788 99.9425 11.2815
14.053 119.397 4.7425
-12.3085 115.94 9.95921
-17.0169 96.5738 4.55945
-18.3072 117.495 -0.647349
17.001 121.04 1.87768
12.3488 142.606 2.01393
-4.09582 145.46 -2.43788
-5.41885 113.29 -1.43896
-13.6284 121.122 8.81239
16.9098 144.043 4.8615
-14.7923 124.683 10.8213
-17.7741 95.077 2.94743
-16.0428 124.089 -2.86211
-8.72531 134.259 -5.53173
10.8786 119.086 6.72142
6.93574 94.7246 -1.10508
-18.4276 130.213 11.1001
12.3951 138.333 -6.26173
-0.273898 100.648 11.7031
6.31086 124.869 -0.536283
-13.4134 135.707 10.9947
-15.4227 101.041 -3.71135
22.1327 143.127 2.12378
23.9081 126.087 3.29938
-13.9293 108.587 7.10459
0.157648 113.377 11.6689
-5.28569 92.5065 0.437823
-7.01248 102.88 12.3361
13.8785 147.781 1.98456
25.3383 136.575 -0.136449
2.7381 104.155 11.1869
-8.55246 83.447 -1.45188
13.6583 109.563 -1.60084
-15.545 82.7441 -0.630938
-19.004 112.248 -2.08231
13.9393 130.885 -5.39875
14.4202 120.186 -3.73025
-18.0807 87.4633 -0.696431
0.719642 108.321 -3.97504
-5.97252 99.6694 -0.451252
-11.7258 110.634 -4.30446
20.2184 120.269 10.2692
-10.6603 149.63 0.724324
11.1198 152.954 1.01463
-13.3882 142.713 10.069
23.25 123.117 -6.45706
14.2141 126.863 8.01359
-21.6639 127.67 2.9693
22.1105 144.371 0.569362
22.8724 113.279 14.0788
15.9196 121.06 1.54272
-11.1913 148.473 5.05449
21.5614 135.289 5.12197
-4.06413 97.736 12.202
18.778 127.439 5.19883
8.15468 152.125 -3.30838
20.4895 111.999 17.2166
15.2107 126.254 11.7935
19.2209 140.584 5.66811
-17.2144 126.868 1.4012
-11.8436 121.368 10.4332
-1.17979 143.35 4.36002
16.9163 126.846 10.6332
-11.5812 104.217 9.9487
15.9372 130.13 8.53187
-3.74919 102.34 12.3063
15.8014 115.548 6.82273
10.1626 126.272 8.37884
-9.52593 150.362 0.764355
4.65172 106.547 11.1049
16.663 110.043 12.8469
12.4115 143.71 -5.37978
14.1087 125.904 -3.19259
14.8781 129.404 -3.26839
10.7845 112.473 -3.64967
-15.585 82.607 -0.786713
-2.61915 143.758 -1.31711
-21.1453 120.949 1.90515
19.0871 118.373 5.56204
-23.4497 120.294 5.60621
-17.0537 93.7537 -2.97107
-16.5144 137.432 11.5973
7.38994 100.531 10.0564
15.9955 136.235 -2.49025
13.6681 130.569 0.607343
7.33868 103.824 11.0759
-19.9045 121.862 12.9105
-11.2326 122.511 11.048
7.19256 95.9064 -1.51486
-4.63903 124.987 -0.466817
-10.5908 124.158 9.7147
-20.9824 117.554 4.34584
-4.95309 133.032 7.4681
-18.0022 119.438 4.7352
11.7975 120.857 -2.98902
-9.35569 149.897 -2.18152
-19.0156 89.8602 -0.851738
13.6165 146.195 2.47044
11.7451 123.733 -4.87131
-23.954 120.547 14.1343
-6.68397 126.869 -1.87635
-16.1738 134.221 10.948
-18.6099 110.817 4.17308
7.37026 143.092 -5.18116
-10.144 88.1494 -2.72534
-6.21252 141.121 6.04154
9.97936 105.089 9.55957
3.2169 91.4944 1.12365
13.9008 108.637 6.75937
15.7457 128.555 6.11162
-17.6586 121.951 5.33785
-17.7458 116.351 -3.56752
14.2738 115.238 -1.89201
-18.6447 96.5006 2.69376
7.40595 144.669 -5.166
16.4305 118.254 8.0475
-12.3024 96.6425 -3.1758
10.0003 112.16 9.00133
-20.4084 92.6915 -0.89471
-2.70627 110.468 -2.80688
6.52678 150.37 -3.97654
-20.4265 125.332 1.04689
-12.803 122.559 -4.09052
16.8543 122.079 -3.33718
11.7822 112.058 -3.3023
13.8819 124.522 -1.28859
-13.901 91.8505 -3.23914
9.33253 100.94 8.71064
14.5864 122.871 -2.07514
13.0689 111.912 -2.93934
-2.4731 100.969 -2.13093
10.8078 125.667 7.74093
0.357873 129.475 8.31606
-6.96809 117.14 -1.78598
7.10568 152.629 -2.92868
9.09459 131.617 7.9998
-12.2219 111.944 9.50658
-18.0513 117.729 -1.03342
-17.221 121.977 4.11749
21.0413 108.739 8.522
11.7067 96.0941 0.767267
-17.2335 83.7713 -2.16767
-17.5964 123.404 12.1137
-5.7115 87.8756 -0.995471
13.0104 134.822 3.45196
-9.43893 144.588 8.63769
11.406 99.2424 -1.49863
17.1722 127.844 1.76593
-13.6932 117.63 -3.9991
-11.3594 100.865 9.82563
-12.1316 120.75 -4.25506
7.26955 123.274 -0.811111
17.7608 123.515 10.3161
-4.53048 133.09 -1.45564
21.2617 112.913 6.92955
-5.16952 95.5739 1.08352
12.9148 121.697 4.16372
-16.1151 129.23 11.1617
15.2245 119.355 9.43022
14.0723 112.19 6.1534
-17.0752 120.4 2.23838
-18.8596 99.1531 3.55715
-2.92522 131.411 8.49304
-13.3579 84.302 -1.12373
-3.69945 134.211 6.70518
0.783166 130.309 8.1788
-17.3924 96.2745 3.88337
6.84112 112.677 -2.33287
16.2448 140.349 -3.08988
-1.07749 109.397 -4.05454
18.0396 114.772 -0.839933
-19.6765 134.986 11.3559
22.3677 112.864 12.8999
10.2816 102.898 8.17316
-20.6289 130.128 4.72448
-4.73936 117.411 11.9399
-3.28175 110.642 12.1469
-14.4197 90.5992 -2.03417
-16.765 119.833 2.32933
22.9562 122.861 2.09271
-2.78214 150.36 -1.73279
5.53422 121.314 -1.85309
-1.02727 126.555 -0.493568
-18.585 128.22 11.6612
7.02937 116.539 -3.30122
11.0183 133.516 -5.33671
13.5627 129.124 7.664
7.92027 102.919 -3.77964
15.7033 134.982 7.28397
19.6944 118.17 8.02381
16.0757 108.529 14.6289
-15.8896 122.488 0.865041
14.936 116.653 12.7422
24.9132 132.836 -0.992617
17.6659 123.576 1.58772
-16.8015 122.709 10.0342
-4.56765 123.116 -0.517405
-13.6988 136.631 0.610232
-18.4575 120.576 8.16958
-4.99352 121.905 12.111
-12.6084 127.67 -4.19482
-3.52846 121.872 11.5663
19.673 121.378 2.46631
0.488818 154.341 -1.86365
17.2152 106.265 0.318889
-17.6511 120.052 1.37127
-5.5624 112.953 12.2104
-22.1827 128.219 10.609
20.3647 123.316 5.84024
-16.1462 121.701 3.94325
-10.4074 130.871 9.73574
-12.0819 115.415 -4.27119
-16.3841 121.423 7.61431
-12.8976 102.41 -3.53481
-4.76187 100.817 12.4207
-16.1555 113.638 5.85256
-19.1364 87.6104 -0.732195
20.1007 126.395 5.16795
-1.56267 152.65 -1.72994
22.8962 123.767 2.78387
20.213 128.357 -3.1207
19.2741 104.753 4.87727
-14.5235 121.4 -3.84694
0.229027 152.926 -2.42883
-9.01318 85.0753 -1.27806
-22.2542 122.998 5.03003
-20.269 132.15 3.55392
-9.44562 127.552 -3.97673
20.8338 125.838 7.36454
-12.6243 124.266 8.84048
23.785 132.573 -3.35843
-11.3833 123.307 -3.17192
-13.9128 145.069 5.46067
9.93985 147.788 1.49561
-16.2691 120.182 0.78565
15.7434 137.999 -2.87569
4.90616 152.199 -3.1202
18.5878 113.11 1.05654
-10.5004 121.896 11.4962
-19.4631 118.857 5.92697
0.875893 140.183 5.09909
22.2436 111.232 15.7288
-17.2221 117.974 0.954027
-18.0339 84.417 0.54855
13.393 121.663 -3.88458
-12.0656 110.37 9.95157
13.9662 128.141 8.26372
13.9072 113.052 -2.8301
-17.0108 101.868 -2.67096
-12.4588 147.111 3.61743
16.6085 121.658 -2.22542
20.3067 110.466 8.03461
23.7115 136.042 3.82851
6.0801 120.975 -1.55139
12.8437 102.115 -1.42058
-5.79241 123.945 12.2422
14.8017 141.581 2.48474
-17.9178 112.662 5.05018
14.9557 147.493 -0.707637
-12.8325 125.589 8.75514
12.0043 153.384 0.00668866
12.8243 124.285 9.85075
17.318 134.12 -5.05906
-0.502144 132.915 0.188173
22.3846 144.686 -0.870851
-11.8972 84.6979 -1.04058
12.2979 133.487 -6.02766
-4.43387 145.193 -2.72087
6.11775 128.956 -0.88687
-11.9969 145.643 8.26168
-8.84053 134.819 9.74763
11.7954 106.52 6.86344
-11.2794 93.9069 -2.19956
11.5329 116.387 -2.1389
15.5927 132.635 -0.17799
15.9611 110.652 15.3037
11.3146 123.787 -4.75458
5.20698 97.8753 -1.21263
21.2195 112.372 7.55959
10.6167 128.458 -4.73083
2.64822 130.645 8.5365
-17.6661 97.1084 4.1182
7.63782 100.664 -2.79122
15.0687 123.235 -3.24739
-6.14042 119.296 -0.993882
-0.964628 112.414 -3.80517
-6.81953 118.905 -1.41448
12.416 131.976 -1.95833
18.855 104.377 2.77039
22.0383 112.715 11.3903
-4.69058 137.687 -2.59307
11.2445 137.393 6.49667
23.3488 127.427 1.41624
-6.61258 141.158 -4.0953
-2.81204 154.256 -1.80837
-16.4518 121.234 7.88776
-12.5466 120.2 -4.24341
-2.25717 108.163 11.6923
-17.6494 86.8252 -1.02414
-2.6904 103.613 11.714
-10.9598 143.473 9.71688
-18.1089 82.8326 0.838328
-23.7696 121.914 6.51452
15.5345 104.721 9.49579
18.8642 104.713 2.66456
10.0335 147.044 -5.4585
15.6899 137.743 -2.34862
4.96471 111.352 -3.1335
-13.8975 107.325 8.2641
-12.5696 132.532 9.80783
-13.2733 119.805 -4.04813
3.68091 132.006 -0.660575
15.9939 124.566 -0.0284433
17.2333 131.155 -2.06978
-16.4717 121.863 4.67955
9.78883 143.536 5.79078
-6.29711 148.88 -3.42542
1.61202 129.985 -0.662949
-4.16848 88.9367 0.984662
14.3263 141.541 1.62947
23.4793 127.055 -5.6767
7.71214 129.824 -3.58883
-15.5975 82.4276 -0.410219
-4.69985 129.635 8.87466
-10.1445 113.794 -3.29549
-16.161 124.879 -1.16056
18.6127 138.015 6.47187
-12.2405 126.946 10.084
-14.4661 145.219 6.55222
17.0786 140.573 6.34222
-12.7305 131.875 -1.64824
4.31785 120.872 10.0583
5.59146 120.378 -2.22074
25.2276 134.895 -1.74152
-15.5922 127.83 1.51951
-7.37631 103.91 -3.67131
20.3271 124.475 8.02784
7.5313 108.713 11.3234
22.6437 132.987 5.00369
18.0004 125.723 5.52635
13.1094 136.455 6.36003
-16.4034 115.534 -4.04262
7.81439 137.98 -5.29847
21.7453 115.789 9.5119
-8.31392 140.942 7.79355
7.59663 148.691 -4.63471
-2.6856 129.958 9.17271
-17.2825 99.0894 -3.23464
-9.9001 124.607 9.22889
7.01936 154.356 -0.869398
10.9343 149.899 -3.61284
16.2532 107.66 10.7275
11.3295 104.63 7.82849
11.7681 130.249 6.4361
-16.2056 84.7593 2.27665
10.2555 132.977 -4.90417
19.7261 124.812 5.81109
-1.98367 111.057 11.6921
-10.7376 147.487 6.59895
-4.09227 146.479 -2.39003
-15.935 84.4749 2.32934
16.0048 105.616 11.813
-15.5416 141.312 3.72268
-13.541 138.038 0.619692
-2.38354 98.4156 0.0109101
20.1649 122.17 3.28978
-23.1776 125.91 11.0871
15.7098 141.024 6.48131
-18.0776 115.572 2.25772
-16.2496 114.478 6.19182
13.2577 119.01 -2.41498
13.8272 146.921 -2.61187
24.3099 136.342 -1.55013
-11.8801 138.845 10.2388
20.5087 145.921 2.65882
-16.0524 121.603 3.13126
-16.0097 117.563 7.75321
19.4889 115.613 4.23847
0.785963 133.884 0.413969
20.8351 144.473 3.35112
1.26965 93.3315 1.19762
16.0092 116.618 9.88415
-12.2028 113.338 -4.4487
-23.9049 118.416 13.4985
-14.4609 129.21 -2.51883
-8.18433 108.5 12.506
-9.1622 118.377 12.3446
-21.763 128.138 8.02201
-16.5368 139.841 4.08993
16.2687 130.376 -1.82024
11.1893 121.656 5.82975
-16.6072 84.4174 -1.09849
-1.83115 153.133 -1.7457
9.22619 105.221 -3.21244
22.8224 126.326 4.12696
9.21283 152.739 -1.78432
18.4227 111.803 0.745516
15.1236 100.169 1.54623
-15.3837 92.5597 5.08337
-6.3867 143.849 5.66323
-7.0498 136.992 -5.12857
-5.49823 119.682 11.93
17.435 123.737 3.45385
-12.8958 86.6203 4.12267
11.6245 96.804 0.30122
-23.9463 124.772 7.94836
-15.543 85.9989 -1.76501
15.6429 138.231 -3.70624
3.45648 131.328 -0.423583
-12.2001 122.921 10.4112
-18.006 122.546 12.0274
20.8368 129.486 5.52621
16.386 112.58 11.0517
17.3128 132.881 7.58949
-9.35285 125.245 -3.65351
-11.4521 84.0562 -1.64758
15.4763 148.232 3.68654
8.13594 117.621 10.6737
1.0886 134.057 7.05102
18.019 140.473 -3.82548
20.866 127.45 5.07833
-8.71722 118.853 12.3534
4.11972 104.238 11.1963
12.1501 129.752 -0.615684
14.0863 126.044 11.9457
-23.322 122.223 8.74969
-9.0838 101.802 11.1131
-7.6594 130.178 -3.73314
-17.0633 98.7061 -3.3681
18.8995 114.769 16.3333
-15.2923 100.232 7.3116
6.01532 104.939 -4.25411
16.1716 115.394 7.66884
20.9257 123.579 4.8307
-14.5656 112.867 6.48404
-21.6861 119.995 5.38864
9.07161 138.756 -5.7328
-14.8742 142.723 9.67566
15.7555 124.258 0.0611739
-16.756 90.9518 3.42582
0.497591 137.126 5.80919
23.9401 127.295 -3.05137
-19.0087 137.682 9.27403
-17.4966 129.696 10.9805
1.99592 146.352 -2.04411
14.0544 120.638 10.0391
-18.1194 98.0056 4.27866
20.0277 127.397 4.98516
6.43623 132.965 8.37105
4.61858 109.315 -4.33082
-3.55986 110.093 12.2538
5.68632 154.728 -1.38121
-23.2448 120.742 14.9011
-1.67842 122.355 -0.73808
-8.44792 84.5657 -1.81482
-20.7102 119.835 5.22857
9.68579 147.724 -5.37247
-3.85948 116.246 12.1757
14.8486 123.458 -1.34062
-17.5109 91.3226 2.59316
17.0509 138.145 6.49832
15.6612 129.196 5.50341
-9.08797 122.295 12.083
7.58903 115.521 11.1548
17.4601 143.3 -3.05825
-6.25452 105.973 -3.10783
-14.704 133.762 0.666041
17.0192 117.481 4.44316
9.15628 148.901 2.39324
-15.0699 86.49 -1.27744
-19.7552 135.355 10.3854
5.89505 140.788 -4.34805
24.0483 137.178 -1.10118
3.29262 123.306 -2.48519
12.8465 141.113 -6.11407
-8.01231 96.9869 9.70288
-18.7598 95.6278 -2.51765
13.9424 124.311 -2.05741
-22.0632 120.966 14.5633
-1.32121 110.31 11.5288
3.25954 116.772 -3.37693
-16.539 121.63 7.03537
5.55953 105.216 -4.18162
11.1242 138.308 3.5317
14.7653 129.823 1.13671
22.0272 114.896 9.48152
19.8706 121.188 11.1703
-1.56133 111.03 -3.80659
-10.1317 149.895 -0.39244
-19.4796 98.9358 2.65065
-6.9512 135.971 7.32161
1.84588 97.9249 -0.0845042
-14.7424 122.395 -4.11266
6.73374 138.906 -5.09386
-16.8379 99.004 -3.38909
-9.50416 133.686 10.0127
-20.3137 120.566 7.37181
-12.4462 113.768 8.39864
10.5023 110.647 -2.7054
22.0879 142.377 3.19868
9.71581 146.85 1.84081
23.5237 138.927 2.74309
9.31722 152.24 -2.13294
-13.976 124.957 -3.7407
-16.3382 142.363 5.90635
23.8848 130.325 5.90884
14.8187 127.003 7.70586
17.5398 127.707 2.77245
15.5321 139.001 2.87046
24.7244 132.897 -0.724526
-11.2515 145.729 8.21359
-8.95085 94.6209 -0.668866
19.1849 142.608 5.08069
14.0234 134.201 7.05572
-12.516 147.382 4.02542
14.4907 143.845 -2.51692
16.0904 115.402 11.3179
-8.39068 94.1255 7.82667
-5.17444 143.083 4.34946
13.3517 117.467 -2.16623
11.9215 129.462 6.0211
17.6199 127.132 3.36491
2.40467 130.378 -0.355629
-19.4251 97.9524 2.85692
-20.0054 112.83 0.825526
20.8388 118.157 13.7054
7.77384 126.772 -1.63762
18.7777 108.447 1.47662
17.2486 115.84 -1.99035
-14.6499 133.193 0.088772
20.0943 126.806 5.29497
-10.9853 135.955 9.99244
-14.619 116.304 8.06652
15.6002 103.185 0.0130223
15.6046 138.656 -2.98732
3.49314 137.691 6.20394
-13.2487 92.7408 -3.67726
-14.0961 124.17 -4.56423
-5.75439 93.6578 9.00733
5.11197 103.496 11.3009
-10.8666 149.205 3.8981
9.51826 154.073 1.19188
12.955 118.138 -1.78909
-21.7984 120.816 8.25301
-1.1815 147.742 -1.3356
13.6527 119.006 12.8602
18.9495 121.983 -5.39533
-4.27373 127.855 9.52995
5.51459 104.114 11.1357
24.1058 123.781 2.62305
-5.7537 98.4665 -0.183451
-9.41071 118.668 -2.66872
21.3671 114.309 5.91593
11.2087 102.182 7.96138
7.33588 139.362 -5.47785
-12.8503 139.485 0.272698
6.26016 131.803 -2.91224
-9.50416 118.493 -2.83582
14.9181 127.736 -2.96737
10.7532 141.599 -6.59452
-16.9082 124.51 0.405695
14.9609 122.414 8.47202
-13.8679 112.448 6.82386
-5.74547 111.59 12.3337
19.562 119.213 13.9955
-15.3 124.037 8.4467
6.65077 108.646 11.5045
-2.55926 136.205 -0.375413
-1.04878 98.9339 11.9679
-19.457 85.6004 -1.32775
5.83808 115.186 -2.72898
20.8099 128.575 4.84724
6.80533 124.274 -0.595146
16.5367 127.716 5.51949
19.3515 122.128 3.98126
15.384 129.202 6.48247
-14.5466 135.115 0.945394
19.333 103.546 4.94368
-15.8354 88.3636 2.73581
-6.88557 131.953 -3.2597
-6.99014 103.824 -3.56643
-16.6254 112.622 -4.05448
11.3757 122.661 5.74996
8.48735 125.196 -2.92155
-21.3839 122.608 2.98041
6.80634 137.426 6.1052
-8.11123 139.426 7.7673
-18.2756 122.198 6.3603
11.6272 113.568 -3.37367
21.6428 115.633 14.5248
12.4863 149.858 0.965057
8.37508 128.676 9.35213
-17.8088 119.378 3.52454
22.2242 134.916 -2.57757
-15.3055 124.062 9.09943
-23.2212 121.01 7.98562
-21.8456 119.074 4.60458
10.1151 121.389 8.42669
-16.0586 83.8862 -1.89304
-0.366566 119.651 -2.63914
-22.9682 121.797 10.5542
10.538 130.062 7.68823
-6.94925 136.337 -5.06334
15.8233 121.362 8.31896
11.5186 153.959 0.374639
-23.7834 125.118 10.1751
-5.32924 125.771 -0.869296
14.9266 127.944 7.51796
22.8025 127.509 4.81131
15.3603 135.476 4.17574
-10.3136 119.792 -2.99787
15.4459 114.689 6.37616
20.7021 121.764 0.923366
-6.23514 91.65 -0.903841
4.71845 109.726 -4.04917
18.9884 109.671 2.05082
1.17664 107.345 -3.86389
12.6242 127.47 10.203
1.57419 111.389 11.5031
-8.69104 125.197 8.68303
8.45327 110.159 -3.19134
13.0254 150.671 -0.318531
18.7262 108.327 1.38215
-2.81151 122.171 -0.297985
24.17 132.595 2.45944
-18.5384 138.094 7.98146
-2.76268 114.997 12.1684
-20.5407 133.177 4.84568
-1.75278 149.16 -1.38999
5.44143 154.221 -1.66019
23.6455 130.539 1.38719
-16.9395 133.047 11.3219
-6.64538 90.6986 6.98681
22.7368 141.65 -1.55907
-1.87454 106.953 -4.41608
-15.017 104.943 -2.96421
-5.34345 85.519 -0.775814
-18.8866 122.709 9.22753
-18.2873 116.868 -0.259307
-19.9313 93.0966 -1.28943
-13.8065 126.065 -4.21907
13.0721 130.018 -3.46844
-15.1709 83.5626 -1.60127
20.0875 127.484 5.43547
-16.9061 118.664 2.87533
-14.8249 140.88 2.98758
-6.46908 127.179 10.2682
13.6804 131.999 -5.52309
2.99528 113.727 -4.02592
12.7888 133.214 -2.86161
15.0744 132.988 3.21155
-12.4995 82.2138 -2.88381
6.1324 124.779 9.46077
-4.57185 86.3704 -0.0465473
-19.0462 103.314 -1.10602
0.564025 127.01 9.91542
3.95754 117.855 11.3853
15.7015 130.687 1.5559
-7.15895 150.481 -3.15684
17.181 148.9 -1.05771
19.2319 117.789 9.53828
19.9857 118.965 6.79988
3.91763 119.809 10.5484
-2.06773 98.908 -0.501609
16.3486 112.701 10.6973
12.9018 101.617 -1.18776
-14.0695 125.319 8.7373
14.1766 122.817 4.28032
-11.7636 98.6209 -3.11168
24.2025 133.37 2.47692
-19.253 113.732 -1.54622
-13.2765 108.336 8.52403
-8.14306 137.68 -4.89288
11.1798 100.876 8.43726
13.6346 134.654 -6.70332
4.94486 144.813 -3.82165
8.07128 124.949 -1.46192
-0.712385 134.921 6.69441
16.0658 123.566 -0.481877
-5.02653 132.579 -1.67311
-21.6985 119.532 9.30023
25.4474 131.442 -2.2596
21.2338 129.717 5.96793
-3.61156 112.891 12.4282
10.4678 101.725 -2.7987
-12.8933 147.091 6.05234
-6.15686 136.638 -3.85071
18.7883 123.761 9.04174
10.0889 133.212 7.87034
14.1165 148.105 2.92145
22.971 138.384 3.55545
12.3118 127.233 5.6676
-17.6517 129.136 11.0901
10.0244 94.9319 -0.39293
18.9617 122.362 4.6237
15.396 137.202 -2.07595
15.7265 121.436 1.22926
-8.82237 122.918 11.1477
8.16604 125.342 9.66103
22.967 123.724 2.29149
1.57219 110.702 11.5418
-2.8582 152.274 -1.78955
10.4995 114.196 7.52573
-17.5545 99.1703 5.25522
15.7743 130.749 1.9202
1.01988 119.003 -3.4476
17.9415 113.868 -0.552007
17.3834 119.785 2.55187
-14.3448 85.3907 3.16406
-16.2226 141.814 4.99166
7.73248 123.282 10.1424
-13.9935 89.2397 4.58941
-16.7669 124.4 1.25704
-5.81026 119.733 12.073
-7.10342 121.556 12.6915
7.91576 126.968 -2.13216
17.1668 127.115 0.961092
-17.3869 120.297 1.68469
9.79611 117.818 9.58017
-14.914 135.036 10.8525
5.25151 110.141 11.6298
-19.3609 113.823 3.5279
18.8353 111.105 18.3913
-6.55612 139.515 6.93198
13.1117 140.797 2.53455
23.8923 140.287 0.0485596
16.3792 110.51 -0.641328
-18.7843 99.4976 3.62714
-10.0136 102.086 -2.27462
-10.8164 93.8921 -1.79284
-16.4942 122.762 4.23771
2.2225 97.2797 0.0010937
9.65058 146.394 2.566
2.68534 121.113 10.7292
-4.94653 91.6955 8.26798
-16.5616 104.495 6.05841
10.3702 134.062 6.87041
-4.91531 114.416 12.1488
18.5298 101.628 2.82516
-16.8925 129.153 -0.0649862
21.6885 136.435 4.65883
1.81683 134.542 6.89588
22.3418 113.513 12.3386
15.4151 136.648 -2.71341
-12.3488 132.253 9.82688
24.8163 133.444 -0.405909
10.4218 154.29 0.512785
-2.11197 154.174 -1.8873
14.1471 135.618 5.17085
17.1851 121.413 1.58798
24.0965 132.172 0.623288
1.23275 113.824 11.8788
13.4216 126.341 -2.40091
-1.83191 152.13 -1.59175
-20.8683 131.508 7.72146
-11.6695 98.3209 -2.98874
3.2268 114.045 12.0923
-13.7472 110.96 -4.52804
-16.7111 86.8699 2.17695
-24.0438 122.884 7.5013
6.98739 135.362 -4.30832
-7.19126 97.664 10.674
-7.44245 127.014 -2.45843
23.2159 123.535 2.44051
-15.6264 121.656 7.65964
-7.36696 125.033 -2.66564
-7.35858 110.622 -2.9172
-3.73961 142.991 -2.07841
-16.9866 97.3706 -3.48846
-4.87531 110.608 -1.71953
15.8641 137.52 -2.49442
23.7733 128.763 6.77262
-18.0695 121.26 5.45119
-15.2535 139.541 2.86643
14.4124 144.406 4.37267
0.819636 124.663 -1.80644
-13.9585 92.1736 -3.34706
-12.2657 105.553 9.77155
-13.523 93.1624 -3.62938
17.7041 127.315 -3.75352
17.0235 116.408 -2.31087
18.4634 145.161 4.32217
11.0489 142.364 4.45875
-11.9434 82.4039 -1.73263
-3.51184 146.064 -1.94277
-17.0318 126.242 11.7704
-3.31505 95.4859 11.6214
14.6218 132.712 7.78892
-5.32608 102.261 -2.13683
0.151472 122.542 -1.75664
10.78 115.057 -3.28554
18.4296 114.645 16.4799
-10.3901 107.605 11.2208
-10.0162 108.533 11.7821
0.244963 129.685 -0.805025
-8.69126 103.662 11.6876
11.9291 115.201 -2.42235
-12.4751 87.7285 4.70635
-7.75242 113.174 12.8713
1.14995 100.912 11.6777
-11.7909 95.8116 7.67674
-12.8698 147.202 5.59733
9.13358 146.493 -5.52948
13.4102 119.091 -2.68748
13.1509 125.596 11.9411
4.31467 132.594 -1.03416
0.938112 121.775 11.5464
4.95584 124.001 9.36541
1.7515 121.963 -2.99034
-17.6381 123.907 9.68027
13.9218 128.53 3.1911
15.2178 134.647 4.4003
17.5939 142.402 -3.22257
20.2512 108.8 7.41404
18.1482 130.48 7.49716
2.72386 111.456 -4.30359
13.4139 126.88 10.5537
2.56541 126.37 -1.8283
12.48 105.646 -1.26151
-19.8722 119.427 6.6287
-5.60726 128.371 9.59549
18.3115 129.691 7.41065
-7.61731 126.094 8.93388
-5.4591 140.81 -3.70865
-14.0107 132.721 -0.431321
13.0518 152.941 -0.280318
15.4657 109.704 7.90018
3.49654 146.697 -2.95441
-17.7261 135.396 2.02994
11.6641 137.688 3.05529
12.7087 112.583 -3.37878
8.10719 144.79 -5.50495
-15.7264 97.9807 6.60864
-21.115 131.884 11.9636
19.0538 141.108 5.63019
20.0317 115.413 5.59808
5.03403 147.241 -3.81515
2.6638 101.115 -2.04666
22.2841 123.539 1.09265
-14.2538 118.661 9.53508
-11.0598 145.367 8.51227
-7.33009 101.143 -1.05527
-18.9736 90.8068 -0.65311
-5.89927 134.53 -3.51318
-15.7163 122.752 -1.84199
9.02185 149.306 2.50303
13.7112 132.746 8.33306
-9.06664 129.748 -4.90397
-8.08827 112.176 12.7874
4.9319 108.257 11.5805
16.8741 122.247 1.72851
11.2497 116.635 6.13798
15.1725 108.517 16.3886
-9.91682 106.475 11.3169
-8.97228 87.6223 -1.85631
12.3837 126.215 9.32294
14.2983 116.97 15.6251
16.8797 142.894 5.28335
19.1107 105.223 3.46605
16.7609 144.405 4.65778
10.7987 137.378 6.49608
0.578888 91.5799 1.32496
11.2043 97.9863 -0.98607
-20.23 97.0176 0.239864
-15.7939 123.082 0.475396
15.1964 119.412 -0.961741
0.951587 117.609 -3.72946
6.08587 115.928 11.7639
-16.7353 107.519 3.64977
-16.7534 120.928 2.7712
-10.307 124.459 9.41756
-16.9489 82.5454 -1.21301
19.5636 120.88 4.27855
13.3684 120.979 4.24077
-17.3306 118.084 0.362448
14.6307 134.933 -2.3143
-16.0653 126.369 1.66704
-16.3171 138.06 11.4331
-22.241 128.997 10.9052
-17.7321 119.842 0.85471
-17.4188 106.739 3.23893
14.9267 137.699 -2.91717
21.5456 107.145 8.91686
23.8975 127.439 5.06692
18.3487 148.699 -0.461084
-3.69852 102.69 -2.79925
16.2038 130.071 1.7897
16.1917 109.98 16.4074
15.6322 127.915 8.11914
24.2564 140.212 0.573036
16.1589 110.704 9.19482
-14.7675 118.693 9.06349
-19.1181 98.3643 -2.43419
4.15274 120.969 -2.84846
9.2059 141.458 -6.033
-17.0132 133.638 1.41159
-19.8872 111.017 1.06963
2.54415 126.38 8.65996
-9.08288 141.061 -4.05724
4.78856 129.305 9.02299
-19.6707 113.268 2.52851
-15.5222 105.983 6.92538
-23.7486 121.239 5.77507
-15.8342 83.3536 -1.90163
-21.341 122.063 14.5653
13.3375 103.094 8.53917
14.1354 131.466 2.2753
-10.9056 139.754 10.0046
17.4306 117.215 5.34054
4.51139 123.435 -1.68967
21.491 114.435 15.1804
10.9288 105.432 8.17037
-4.76014 90.7282 0.843681
10.5294 114.938 7.38314
19.7524 110.506 5.88855
2.32176 120.812 10.9066
6.76815 109.238 -2.73243
-4.07128 124.352 -0.285497
10.6357 133.721 6.72984
16.0606 100.427 2.23732
-10.7068 93.1946 6.93575
-8.67691 133.562 9.09515
-14.2548 117.157 -3.76955
-0.834457 99.9108 11.8231
-14.8038 95.0887 6.31421
-5.37914 138.351 -3.13431
10.7237 128.68 -4.8263
-7.76792 132.845 8.4628
16.8024 131.766 -4.71885
-6.94928 104.892 -3.89535
-12.1786 145.039 0.0687695
-1.33874 97.2964 11.989
10.217 144.654 2.8354
2.28832 107.995 -3.93148
19.2105 121.487 12.5008
13.9892 147.81 2.46385
21.6458 124.491 5.60804
-22.6464 121.466 10.3383
0.73866 138.812 5.37119
5.36015 137.102 6.39821
8.80457 151.721 -3.25532
-0.0885711 148.463 -1.71835
17.3948 103.888 0.878383
2.57374 100.051 11.895
11.2331 125.875 -5.21588
-16.5278 119.463 -1.22836
3.92224 152.7 -2.93884
-16.1282 121.153 2.03365
-15.8063 133.909 0.898572
-17.7271 139.115 5.76531
17.9739 127.829 7.28452
1.67198 130.638 -0.41833
-7.00354 110.636 -2.72832
-9.47652 143.98 -3.97225
-19.5622 99.4286 1.20221
-20.0972 128.344 0.892273
-10.828 83.6024 -1.88921
10.7627 136.567 6.74884
13.8585 144.567 3.2917
5.82805 137.594 -3.98411
2.15766 132.478 7.46649
17.9102 122.573 1.88091
-18.157 127.791 0.224928
0.727254 117.378 12.5056
16.944 120.21 2.04241
-19.5747 134.761 11.7232
-21.1029 118.078 4.09621
14.6476 126.054 1.9701
-21.7027 119.519 9.36786
19.1154 104.69 3.63026
-15.2325 85.861 2.92633
22.1927 138.387 -2.54634
14.0823 135.266 -6.4203
10.6012 151.046 1.25831
-15.676 100.758 7.00949
-10.7456 84.7941 -0.66228
20.8174 116.118 8.20573
-13.6615 106.133 9.22556
-1.8601 97.6746 0.344602
10.4381 119.884 7.99523
-15.2979 83.6128 -1.9346
2.49047 142.138 -1.68702
15.2419 118.939 5.36577
-13.9001 132.676 -0.530876
-15.9616 138.028 11.4937
14.7945 113.403 15.8946
-19.4521 128.884 12.0939
-9.81981 131.095 -5.82177
14.7519 122.305 4.55164
16.2823 101.88 1.43725
20.8286 126.306 6.9138
-0.290596 121.569 -1.97032
13.8417 132.735 6.55911
17.3176 132.837 7.59433
12.3893 135.191 3.74594
-9.89212 106.015 -3.88306
22.1762 132.497 6.51912
-22.526 127.684 11.215
20.5051 135.997 5.42915
22.6261 123.006 0.76187
12.0276 116.327 5.30549
-13.3829 88.5986 -2.01035
22.3043 142.073 -1.88662
-12.2639 86.9441 4.52314
8.56156 112.362 -3.32695
-16.3672 133.979 1.32384
20.6713 129.089 5.47121
21.1326 107.421 8.42761
-6.82084 112.465 -2.25193
-7.79797 107.391 -3.11288
8.45936 134.961 7.79134
-17.5607 138.718 10.6156
-12.984 92.687 -3.50408
9.59618 117.368 -3.16998
-6.90572 103.699 12.4585
-9.83142 97.9798 -2.72444
-8.03574 126.697 8.52967
24.054 136.337 3.19327
-5.4952 128.79 9.39808
16.2318 133.615 -3.74346
-11.3154 81.3575 -2.4611
5.09463 106.301 11.0398
15.1574 122.085 -1.67343
-4.77963 93.9079 9.85988
-8.93552 96.3554 8.77906
15.4283 132.629 -0.0847765
-6.3746 109.603 -2.63901
23.0664 124.967 4.39669
-11.1964 89.5727 -2.4481
-17.145 92.9463 -2.61517
-15.7268 129.197 0.0399284
-18.921 96.5237 -2.50015
-13.6552 97.2771 -2.93114
-21.046 121.126 7.93731
-9.45237 90.1703 6.15915
-5.38672 108.333 -2.25485
-14.5155 135.731 11.2738
-2.60507 110.551 -2.88336
10.4344 116.314 7.59963
13.8275 144.098 1.34092
-5.05964 115.911 -0.931226
-7.61684 143.169 6.90792
22.664 127.239 5.32718
-16.0638 80.7565 -0.0861029
18.8163 121.378 -5.46123
-21.7539 120.663 7.45541
-8.58693 95.221 -0.524371
20.1448 131.898 -4.14309
-5.57785 115.292 11.9564
-21.0957 118.171 3.47917
-18.7173 122.715 8.72139
13.6414 134.046 -6.68356
23.0654 125.012 4.32242
12.4411 102.409 -1.73847
-22.3045 126.579 3.82854
13.4416 136.637 1.99595
-17.53 120.292 2.39006
-16.9596 83.2922 -0.645191
-10.4312 96.6886 8.43601
-12.6896 110.661 8.62667
4.6918 136.306 7.01588
-16.9524 136.372 2.6381
-23.1527 118.851 13.7654
-0.838479 154.272 -2.08187
-17.0666 91.3924 3.38624
16.4105 103.132 0.632191
-15.5268 129.879 0.0103296
13.4292 145.382 -4.8714
8.09782 142.335 -5.54307
-17.27 122.437 5.58933
25.066 132.087 -2.82996
4.18018 130.693 -0.455327
10.2789 94.9246 -0.15508
19.859 126.264 5.71667
-5.12026 123.852 -0.904853
20.7127 123.152 6.51454
-17.1735 124.12 10.4848
15.4237 115.603 13.2154
-11.9304 95.4346 7.46577
19.1148 127.611 7.21555
13.6495 137.702 5.82431
-16.4383 88.8389 -0.331053
17.6215 121.559 13.8925
-9.27719 96.3077 -1.23175
-11.4859 113.556 9.80836
-16.1955 122.645 0.916011
19.8493 130.504 -4.05315
18.2632 115.202 -0.19833
22.2932 126.377 -5.3861
-21.4135 123.748 3.9169
-6.68179 141.031 -4.15286
-8.05561 116.913 -2.5056
-4.65133 118.841 -0.445041
-6.2426 90.1234 -1.41997
-9.39799 148.931 -2.59869
-14.9149 124.487 -3.44149
3.78234 141.404 -2.542
8.93517 150.408 -4.55247
15.3178 122.405 -2.34603
-23.3457 120.381 13.2032
15.6595 125.734 4.704
15.1539 109.316 7.43899
4.15813 142.378 4.54614
22.9546 123.121 0.558487
14.3681 148.233 -1.69288
16.0037 113.486 13.0751
22.3138 129.119 -3.57901
15.8889 151.361 1.05453
-13.7469 117.573 9.28261
8.37906 113.759 10.7636
4.23835 105.64 11.0113
13.8583 122.732 -3.65598
14.2154 124.036 13.004
5.33619 115.818 -2.75888
-17.9858 86.0225 0.886639
10.7975 129.402 -5.1435
-15.0177 94.1945 -3.40982
-10.8024 145.677 -2.51704
-16.4151 82.046 -1.52741
7.14416 107.301 -3.32822
12.1714 107.34 6.81066
23.5021 126.641 -3.3634
-1.03321 128.699 -0.196526
4.34665 147.052 -3.4699
10.4736 108.628 7.81661
23.2675 124.843 3.41146
14.6729 144.057 4.61451
7.36703 111.466 -2.69004
18.3506 148.776 -0.216978
11.7398 99.9779 -1.41635
-15.4095 90.1802 -0.333126
-5.4779 110.439 12.5912
17.9612 147.438 3.56372
-14.6025 83.5306 -1.70194
3.43377 143.114 4.59217
-0.900419 108.267 -4.29782
19.5096 120.326 4.42133
-17.6669 91.1699 2.38569
6.48848 99.284 -1.91354
-3.33078 92.4313 1.73208
13.5618 125.07 -2.50649
-7.17861 152.815 -1.75093
-15.6626 117.151 7.987
-6.46402 119.825 -1.1906
-0.321589 109.012 -4.12995
14.3627 142.706 4.83318
-20.8508 121.171 9.61071
-15.1474 136.282 1.39435
-15.3502 122.138 7.6342
-17.3797 89.8374 -0.960437
-13.3978 146.459 6.74816
19.8677 113.984 16.7968
20.3454 140.68 -3.22904
-16.6992 120.078 -0.921866
17.3047 128.24 2.86157
-3.6435 152.479 -1.97153
-22.5643 119.653 6.79155
-6.04641 91.679 -0.843951
-19.6523 109.018 -0.876789
-7.5306 151.749 -2.35466
-17.7865 85.3325 -1.81174
-8.06187 119.415 12.5282
-4.11535 124.553 -0.281811
22.4709 139.983 -2.16029
19.5752 118.244 9.78373
21.3028 136.789 -3.74043
16.2151 117.727 15.8916
-17.9531 122.319 7.39558
-15.4723 130.736 1.26872
-16.9989 131.558 10.9854
-16.8798 106.098 -3.26555
-18.5503 83.1943 0.357807
-2.46492 142.937 4.74467
10.0418 115.392 -3.59685
-1.86183 116.644 -2.09566
0.779916 137.614 5.62922
23.6096 125.412 2.11765
-10.3605 148.567 -2.17111
9.03782 124.012 -3.25286
10.0118 117.466 8.9003
-8.86537 103.04 -2.49778
-12.7053 111.1 8.57204
12.8772 104.578 7.40198
-0.0831173 103.229 -3.97153
23.6696 140.261 1.68056
-11.8881 147.611 6.14222
-17.7776 127.24 11.7464
-0.138528 154.236 -2.00259
-12.4916 141.879 10.3739
13.8171 132.448 -5.13333
19.6143 132.911 -4.134
20.3363 114.195 3.62463
-15.5692 80.6151 -2.63358
-5.15799 105.615 12.4449
9.97718 110.002 8.50976
-6.43487 91.3761 7.41826
-15.9375 82.0971 -1.33693
-9.15508 144.575 -4.03656
-11.8597 86.5904 -1.084
13.7315 117.145 -2.59547
14.598 128.593 8.27821
5.27122 137.246 -3.21682
-9.13065 83.7154 -1.2346
-15.0886 124.84 -3.13958
10.632 113.885 -3.76543
-20.4333 119.52 2.87727
9.72097 146.582 3.08333
-5.43569 150.394 -2.84647
0.582875 121.425 -2.63082
-1.52011 132.523 7.40774
13.7284 126.159 3.30652
-17.1068 118.998 2.04452
23.0327 110.449 13.4353
13.7955 106.556 -0.91506
10.3 153.333 0.853546
6.10087 133.882 7.93829
-18.4049 119.74 0.949634
3.80625 142.898 -2.72035
-13.3591 146.456 6.70806
-14.2478 103.513 8.4721
-10.1333 110.353 11.8073
-9.38955 134.145 -5.2552
7.63045 141.475 -5.36598
-3.25315 127.779 -0.0117629
22.9616 126.699 -5.34691
11.6649 133.431 -5.71618
9.60585 103.222 -3.41227
7.67076 108.644 -2.74209
-1.48642 125.596 10.8574
12.5242 133.24 -2.21449
-15.6994 82.9665 -1.93065
-17.9314 120.444 3.78698
22.2271 134.575 -2.3008
-20.9337 128.273 12.8691
13.8345 125.69 -0.226692
22.7855 134.235 4.77925
20.0209 134.581 6.89575
-19.7737 92.5955 -1.1115
-2.09911 105.065 11.5341
-2.19589 118.071 -1.50601
-0.554592 99.8113 11.8565
15.3687 138.767 2.74261
9.21312 100.611 -2.9106
-4.95258 126.031 10.0309
10.2677 122.785 7.79881
-8.60947 103.247 -2.85441
18.5474 140.285 5.98552
-16.9794 129.28 0.0776416
-11.4347 91.67 5.95216
8.83226 154.301 -0.0234332
17.0625 142.402 -3.46275
-4.58263 123.216 -0.515631
-4.7782 143.403 -3.05623
17.4014 123.12 0.976044
-18.0471 120.745 0.254917
-11.4432 121.77 10.8306
16.4548 147.104 -0.410028
13.1518 130.995 3.10044
9.07649 100.144 9.10071
17.7003 123.557 1.60231
18.6811 110.496 0.898713
16.7776 128.464 7.51715
-10.4998 149.825 1.97515
-7.71862 145.604 6.21139
-16.9823 90.9352 -0.425895
-9.801 113.275 12.1978
12.8592 122.252 4.06372
14.3819 140.392 5.92654
-9.39537 138.06 -4.37151
22.5353 127.374 -5.24786
-13.5612 138.516 -0.433503
7.7869 136.009 -4.80703
-18.7245 119.196 2.08702
15.5154 114.727 6.49226
9.30589 121.641 -1.32949
18.8651 144.055 4.75969
-13.1348 104.432 -4.24834
-15.1816 108.791 5.20947
6.72394 106.228 -3.95963
-14.9544 82.9226 -2.59593
16.231 129.898 5.05716
-17.0645 139.855 4.99425
-23.1368 121.676 5.17536
19.6165 115.764 5.89652
15.2533 132.091 3.72541
8.81965 149.906 -4.66446
22.7153 124.647 -3.83956
-17.0776 121.055 7.44014
-13.2424 139.043 -0.320647
21.3258 123.487 4.68395
11.4792 144.596 1.62445
-17.7808 117.142 -3.50682
-5.39475 135.314 -2.85537
-13.1952 84.8222 -1.6914
-19.2291 96.8876 2.43584
16.2118 136.605 -3.92611
-19.6516 121.275 0.401462
-19.1303 85.9353 -1.15059
15.0834 121.014 4.76861
-22.3184 125.746 4.14803
-5.95169 137.452 -3.69712
-24.4958 120.428 13.377
2.89573 106.872 11.3304
-18.1349 122.42 11.7557
-13.9596 137.249 -0.723315
-0.464267 112.541 11.5457
-11.9684 130.088 -4.27704
-16.2789 142.422 8.22492
-0.0526141 133.328 0.322277
-11.7144 133.193 10.606
5.07463 107.542 -4.39821
9.13177 123.266 -3.08917
23.3231 129.769 -4.16894
17.4942 130.656 -0.938097
-5.24632 119.46 11.9493
-18.7684 91.464 -0.681442
24.3158 135.826 3.0887
23.51 142.26 -0.481897
-21.2981 130.008 6.79503
15.1148 125.755 7.34553
18.1585 130.284 6.60061
-21.7138 126.175 13.5915
14.43 142.53 -1.80266
-13.3724 86.0067 -0.546771
-13.7035 118.082 -4.06239
13.6809 130.091 0.922547
-0.428575 143.406 4.53146
13.7059 131.812 0.26877
20.2692 120.358 10.026
-15.007 134.638 10.662
-18.2376 113.636 -3.17292
-21.0566 130.454 6.32039
9.75583 110.912 -3.17641
-15.9374 92.2005 4.46893
-14.1806 82.9618 -2.35963
-8.34371 102.87 11.6921
3.95115 112.485 -3.57595
9.12157 115.093 10.1253
23.1462 123.775 3.74626
-15.3332 127.825 -0.171154
23.728 142.214 -0.138538
11.7965 127.113 -5.4142
23.3402 123.828 2.4916
-2.26558 135.548 6.55362
4.28415 124.778 -1.28089
-13.0049 125.234 8.72585
-7.66822 115.418 12.9737
12.6751 118.237 4.87285
-1.03019 97.2265 12.0175
-13.539 83.5872 -0.468682
-8.49296 130.218 8.52866
-4.56567 110.178 -1.95305
7.84441 144.358 5.02429
13.118 129.631 3.4494
1.08049 141.129 4.882
13.1698 111.91 -2.905
9.62095 137.699 -5.69303
21.0062 123.545 4.79679
-11.9255 120.82 10.2953
11.7706 96.1476 0.819242
0.667819 143.298 4.69916
20.2846 127.79 5.04948
-16.8558 137.606 3.68318
-8.54757 99.4699 -2.03565
-7.44565 143.08 -4.57339
-14.7543 130.916 -0.637581
-15.6165 84.1413 -1.87457
-15.8382 118.325 7.99539
-18.1212 104.251 3.56348
-7.84659 124.106 10.7494
14.2053 124.567 -2.70992
-15.9916 121.097 -0.660885
-16.3867 95.885 5.13817
-15.0589 136.495 11.7968
12.5733 145.264 -5.2162
-14.2356 136.737 -1.77665
-3.81537 95.183 1.29268
2.22363 141.412 4.71721
-13.9806 106 -2.86115
22.0505 129.411 6.76747
-5.82169 145.603 -3.72254
-8.87472 117.622 -2.8221
23.2522 143.398 -0.255014
-14.8673 99.0322 -3.66082
-16.9689 82.8877 -1.30067
1.75762 135.794 0.0383416
-9.84955 111.742 11.7996
16.2312 106.506 11.9854
23.3482 132.539 4.54741
-17.9209 122.764 12.0741
5.00517 114.102 -2.63675
4.97154 102.419 -2.55245
10.6237 129.214 -4.95239
13.479 128.062 8.51569
-0.378061 122.659 11.4995
23.7547 132.294 1.59604
7.48708 121.32 -0.89453
23.1841 124.988 3.22076
6.04832 152.349 -3.10179
-6.84792 103.979 -3.71307
-16.3287 95.9616 -3.15826
-4.58638 107.48 12.3935
-13.7877 120.5 8.76792
13.7435 118.221 13.673
-6.04774 87.3931 -1.87903
-1.86063 113.722 -2.86566
