ply
format ascii 1.0
comment Created by Open3D
element vertex 1922
property double x
property double y
property double z
end_header
5.20004 137.42 0.0382827
-2.86272 118.29 -8.22348
-30.0489 135.901 3.66412
-13.9558 83.09 -0.757416
14.0321 100.253 -4.52918
2.73472 100.005 2.46975
-16.2959 81.4424 -2.12833
-24.8161 111.81 -7.57551
-13.1821 147.8 0.294913
9.37502 118.47 9.79004
6.30817 123.574 -4.43204
-25.0998 111.873 -6.39154
-25.1627 101.337 -8.6794
-3.3481 126.885 -2.99843
-3.44394 126.77 -3.06021
-11.2656 82.2425 0.057467
16.9176 88.4721 4.5738
10.8396 126.345 7.70812
-5.85551 85.2721 2.27916
4.52256 98.1417 8.37255
14.0063 132.938 -2.03223
8.37609 118.452 8.82813
4.30029 80.1825 3.74613
0.406878 141.062 -2.00073
-25.9253 83.3274 -8.15352
5.7315 111.244 -5.87338
-26.4227 91.5553 -9.77087
6.14337 85.4536 7.16171
-12.1355 148.792 -2.79855
2.05825 134.281 -2.27813
-7.00101 90.4877 2.29978
-20.8346 127.561 3.71379
-27.625 122.615 -0.607754
-16.7445 148.145 4.2069
-9.75549 136.515 0.9433
15.7366 97.2036 -1.56665
-20.9061 87.3581 -2.59886
-28.3953 137.144 4.69499
7.23396 85.1998 -7.56005
-23.4552 134.027 -0.443097
-18.1965 115.569 -10.4092
7.29473 149.495 1.14411
4.8999 107.092 -8.47229
5.84399 79.0274 4.27287
7.41407 98.9222 -8.29865
-24.5522 108.494 -9.03922
1.70942 139.778 1.11855
-2.58529 137.41 -2.07263
22.0069 135.332 -3.26578
14.8261 129.743 -1.65899
-36.3814 129.218 5.19522
18.2025 98.6735 5.42784
12.4985 134.084 -2.50369
16.3943 127.532 -8.35142
0.294209 111.23 -0.429217
2.16359 104.42 -1.44613
-25.2214 94.5008 -8.30758
14.999 128.367 -2.03446
18.34 90.4321 6.00772
-23.0813 126.257 -3.49498
12.1379 151.755 0.233515
18.6796 125.804 4.34893
-0.687819 94.6622 4.21135
25.6775 127.036 -2.3784
-28.0711 121.664 -1.09596
-13.8749 121.087 7.38675
8.94567 131.77 2.20326
-25.8193 126.181 -0.627258
-20.9859 101.596 2.80054
2.44185 104.031 -1.39914
-8.88555 118.537 -6.77101
-24.7685 136.665 0.74357
-22.6215 108.014 2.43178
14.041 130.936 -1.37279
13.5906 93.2246 -1.61243
-11.0937 76.7434 -4.97105
16.128 127.038 2.93295
8.2937 116.943 9.01759
5.91131 145.031 -4.55319
12.6491 119.262 -4.51693
-2.97204 117.494 4.66972
-28.4757 134.83 2.82582
-22.518 139.548 1.47798
6.39449 107.174 -7.0794
-21.7563 113.044 1.0213
-3.89935 95.5397 0.00188596
11.6507 145.959 3.74787
-3.42019 149.447 -2.9682
16.6172 90.3574 7.82169
14.7983 86.1146 8.48293
6.96707 105.343 5.69314
-18.1704 134.758 -2.04488
-2.57722 84.812 -2.12418
14.8616 121.889 5.88109
-7.24895 125.189 4.77245
-1.76289 120.003 3.90804
12.9379 126.164 -4.04802
-26.3914 125.312 5.04524
13.2665 132.746 -4.16845
-17.7402 81.6472 -2.87273
-12.5247 133.208 2.17157
-1.12713 91.2983 -12.201
-16.3239 123.722 6.88863
-8.64517 101.349 4.33951
-13.549 121.473 7.21039
-8.56596 106.62 4.34612
-19.5928 126.2 4.05285
-5.0111 90.3823 1.54132
-26.8335 138.184 4.74902
-24.7533 83.3621 -6.86003
11.3252 102.228 10.4907
0.779319 120.123 -6.18866
15.2122 121.245 -10.0779
7.33891 76.4798 4.49874
-9.25236 111.557 -9.60893
-24.9709 114.816 -6.43603
-21.6534 139.251 0.991949
-4.08824 129.854 4.12228
8.7708 147.334 1.8574
-9.15219 127.331 5.04578
16.914 131.912 3.67221
8.4629 98.7149 10.4714
0.216921 93.6065 -0.106322
-2.47369 103.87 -12.2699
-10.8024 127.067 -5.80139
-12.5184 130.817 -7.53495
-11.5587 103.428 -13.1371
-22.1562 126.627 -2.63538
-0.675081 89.0873 -11.6752
-19.8107 110.871 5.92842
-6.59715 97.05 4.31135
12.6694 126.029 0.645827
-16.247 119.522 7.97838
-18.2989 109.376 -11.5623
17.6125 140.76 3.18581
-16.3965 93.7846 1.68095
-1.46266 100.648 -11.122
-25.5097 124.699 -1.48189
-28.4618 131.42 -1.13038
-1.57241 106.56 -12.3702
4.78332 84.0991 -9.03856
-6.00258 109.316 4.46298
-21.3187 135.034 5.2785
-17.4537 128.208 4.20549
11.5681 149.115 -1.99292
-22.3975 114.011 -9.37678
-18.7472 124.946 4.91753
-1.50617 141.045 -2.06524
9.04978 102.8 -7.38579
9.99811 136.886 2.35779
-11.5854 85.1886 1.00349
-20.0278 118.44 7.13059
-22.1814 82.7416 -4.36719
4.10196 99.1778 7.87269
-34.0089 128.067 1.26312
-1.08212 132.783 2.56005
-18.1431 92.5578 0.111075
7.31354 142.989 -5.64335
21.9868 130.088 0.398784
-17.3279 115.331 -10.3786
-29.3936 124.11 1.91069
-24.9299 133.659 0.265615
10.3498 75.5154 -3.47541
13.4401 123.022 1.94004
5.85703 117.93 -0.128213
18.4802 91.5737 5.62252
9.18844 109.534 -4.70259
-23.6843 84.0075 -5.6929
7.79161 114.561 3.27712
16.9695 84.2868 5.16942
-22.8126 88.8489 -3.1374
8.08332 96.6367 9.58869
12.2873 125.161 -7.63534
-20.6962 113.729 5.09067
16.5385 93.3894 2.16711
5.65953 120.431 -3.83036
1.07057 119.918 0.162717
-1.45579 148.069 -2.59181
-28.4541 124.5 4.0843
3.17046 98.9825 0.181943
14.7114 115.036 8.62732
-32.6461 130.946 6.06997
-7.73393 144.127 -5.42834
0.24364 95.6061 -11.9138
-4.59131 153.021 -2.55613
-22.133 80.928 -5.26765
4.07784 135.674 0.265172
17.1208 89.4913 7.40192
-4.87908 81.9764 -5.35438
18.2269 128.67 -7.50288
-17.2032 121.248 -7.56293
-16.7285 82.9955 -1.89245
-14.1689 135.221 -4.5308
-2.2978 101.195 -11.4943
17.7602 127.057 3.51601
1.52057 128.343 -3.38471
3.55693 89.7892 4.58597
14.3832 79.7098 2.10447
-15.0436 96.6247 4.18704
3.2363 102.077 -0.684491
-34.234 125.853 1.97349
-0.774766 144.627 -0.732103
-1.16296 104.223 1.51139
-7.55051 103.355 3.89158
-22.785 115.626 2.2946
13.3541 129.474 5.28424
8.1009 89.0715 -5.68661
-10.7053 106.176 4.89473
5.05848 146.285 1.00748
-24.2857 115.765 0.301929
-27.1613 125.405 0.630561
7.17216 110.4 2.71673
-3.39981 97.4482 0.152945
-12.8063 143.252 2.12723
11.7382 106.087 -5.4767
16.2959 97.5597 8.25603
4.27615 134.016 0.0204021
-11.3134 83.533 -12.2073
-22.3275 77.0278 -6.57499
-6.46165 117.777 -6.42533
-12.1476 143.135 0.638767
-17.3141 75.9218 -5.9253
12.6554 121.27 -5.8066
3.00113 98.5454 0.123723
-27.1833 137.819 5.63561
13.6651 127.289 -2.10402
8.11251 142.178 -6.08335
18.735 118.321 0.259573
6.31337 101.748 -9.69268
12.2607 142.618 4.6931
8.98608 102.953 10.6733
-5.37191 98.5093 -11.9374
17.6915 75.7111 6.98483
-26.3591 84.8517 -8.5815
15.4762 116.353 3.13219
-1.50813 142.099 -2.13688
-8.84056 120.639 -6.34946
-10.1558 131.127 -5.74228
17.1542 86.7312 4.98781
3.05547 106.216 -11.1396
17.7728 85.0369 5.65646
-18.236 142.766 0.424277
4.0777 97.5551 -9.55992
-1.56362 108.244 2.10151
14.6704 148.154 0.103333
-2.96823 150.767 -2.79108
-13.5494 95.6599 5.44604
4.8702 121.565 -0.868272
6.74609 117.616 0.708223
-14.8943 134.014 -3.8119
0.105094 101.195 -0.91113
4.53236 143.408 -4.33923
-24.6533 87.2064 -5.6336
15.1771 118.321 -1.38812
-14.8721 129.922 4.18819
-15.1833 77.9127 -5.96705
-14.9208 130.568 -6.63771
-3.6457 140.18 0.419337
-2.82485 83.9598 -9.86155
-1.58639 141.718 -2.11272
0.117933 118.922 1.59209
23.8816 131.91 -3.26831
-12.9366 108.299 -12.4187
12.0207 123.347 -6.80317
-23.6009 122.634 -4.22682
11.8626 128.867 -4.70749
1.33482 108.721 -1.28469
9.01889 135.962 1.31627
9.36909 134.669 2.53168
-7.23009 98.1991 -12.3693
17.1892 74.7344 5.61408
-28.9335 127.968 -0.838445
4.69948 88.1707 5.44833
-8.69266 127.595 4.42818
14.9497 85.1826 1.97471
-13.942 91.0991 1.55185
9.81322 89.7299 -4.06498
7.57505 93.8152 8.87167
-25.5567 100.628 -5.60324
13.1717 134.038 -2.55074
23.0543 128.177 -0.0109581
13.2846 122.46 7.88507
4.33013 149.67 -2.81577
2.01281 82.092 -9.26873
-0.360891 93.2537 0.841167
-18.1948 103.307 -13.1235
17.0061 143.253 3.371
11.5718 109.505 9.96917
-31.3885 126.168 2.25513
11.0879 114.385 -6.67149
-21.1962 138.975 0.62902
-25.301 97.7917 -7.29879
0.371645 132.646 1.77923
-21.2517 142.541 1.8146
18.3795 141.773 2.76408
-36.592 125.696 2.34971
-26.6244 84.991 -9.06909
-24.0931 117.84 -4.27902
8.11691 75.7517 4.5032
14.1319 105.091 -5.93163
-24.0584 125.197 2.66509
6.57026 81.2551 -8.18697
-1.09573 106.696 1.47255
7.39206 106.024 8.44602
6.40043 130.063 -0.237958
14.1936 138.611 -4.4396
-9.10803 132.425 -5.23596
14.376 90.7883 9.01836
-9.62402 109.489 -10.9355
11.0271 85.6465 -2.86951
3.53563 136.837 0.808956
9.14734 135.254 1.33398
-25.3195 132.278 -2.2872
7.11019 130.491 -6.30655
-7.03173 111.005 4.80167
21.8701 136.863 -0.393381
1.05615 95.8466 -11.938
-5.53265 104.695 -13.1964
-6.61942 145.53 -4.7384
4.92128 101.953 1.52097
-20.3215 144.49 2.61392
14.1804 86.3619 8.70867
10.5258 80.3901 7.38219
2.97027 110.163 -8.29758
9.69861 147.611 2.75688
16.1645 109.733 -0.856869
2.38197 98.3204 6.54191
-3.72536 88.5085 -2.08309
15.3409 110.322 -4.24369
3.98684 153.475 -2.33111
14.2133 97.4993 -3.04803
-1.85657 103.793 1.92817
9.57453 82.8395 -4.18379
17.8565 103.823 4.17239
18.2477 124.498 -9.30288
13.7709 126.889 1.31142
9.51052 91.8653 9.97797
14.6683 78.6815 2.04745
4.97565 103.542 0.177829
8.40451 121.561 7.92189
0.964238 83.4325 -1.02681
0.318708 106.014 -0.646839
-23.9652 103.139 -10.8607
-21.8361 112.205 1.57335
-14.1712 96.7337 5.37474
12.0958 143.401 -1.17009
-7.27392 83.2394 1.1405
-19.3612 131.276 -2.08659
-18.5439 95.7432 1.25742
-27.6342 120.846 -1.69196
-9.89207 102.732 -13.5404
-21.0194 135.417 5.48401
12.8799 123.705 -2.52784
7.60591 80.4434 6.57491
7.62717 152.244 0.793242
7.66798 152.769 -2.26912
-11.3092 90.6978 4.2068
-17.0092 129.423 4.19089
5.80323 83.0285 6.75457
-9.8813 97.8708 5.42781
10.9265 132.996 -6.81163
-11.1292 107.69 -12.2663
0.78264 152.986 -2.59309
10.2967 86.6751 9.07927
-24.0714 107.769 -4.13113
14.5395 141.298 -2.04715
-14.6383 111.331 -11.507
17.3499 110.193 4.61738
13.7063 107.838 -5.44653
11.4495 128.658 6.82732
-9.64924 116.643 6.70276
-5.82008 83.5082 0.883826
13.6605 146.657 0.0334849
-13.411 119.989 7.24516
0.313645 82.1273 -0.644468
3.90765 89.6419 4.89115
15.63 96.7473 -1.5132
6.20441 132.407 -5.39756
-22.3154 110.425 -0.838838
-8.29567 115.662 6.28318
9.35871 138.186 1.75727
14.716 125.31 -1.26819
-6.03868 124.842 3.79739
-7.8407 134.321 -4.7917
-5.37538 96.9986 2.54187
-19.1976 113.118 -11.1039
7.28524 110.206 7.01982
-20.9029 133.341 5.17499
0.28076 126.449 2.72655
15.3983 114.139 8.25674
-24.1325 126.869 -3.07181
-25.3721 90.4613 -7.22555
-0.309309 132.226 -2.14773
-24.4049 126.266 -0.927204
-8.84781 146.132 -5.35183
-24.9753 135.41 5.53708
12.9607 104.281 -5.80659
-2.46518 132.14 -2.79272
-13.9951 95.3917 4.36541
13.8275 112.232 9.51112
-29.8656 129.151 6.46631
-22.8077 92.4454 -2.42059
-25.4601 102.183 -5.56281
-9.27743 80.8331 -0.596665
-13.7223 144.295 3.97536
-5.05119 101.05 -13.0146
8.64632 77.9993 -4.39284
7.32461 130.359 -0.103667
-2.81504 93.6058 -11.5957
-1.45879 93.3307 1.93506
12.7819 123.921 -2.54644
-12.7295 140.533 -4.76735
-29.8136 128.429 -0.525994
-22.8564 142.441 3.574
-25.1163 133.571 0.247261
-20.9554 121.65 -6.39735
-22.6048 126.489 -3.21147
5.75083 126.375 -0.457978
11.7647 147.924 -2.31588
5.83991 81.6522 -8.94665
-0.201106 103.878 -11.3601
9.21673 76.6517 5.47936
-17.1033 85.0427 -1.53957
17.8462 101.415 5.88033
0.313411 116.396 -7.34679
6.9036 108.234 2.75292
-17.1998 143.655 6.85346
-5.45988 84.2899 -4.56924
2.51688 130.89 1.50137
-20.0175 131.234 4.79367
-24.5707 125.266 0.21887
-3.51846 78.349 -11.3409
-19.8021 130.014 -2.58213
18.1023 97.0825 5.80961
-0.605989 101.919 -1.09127
7.6462 146.498 -5.26945
3.2724 102.376 -11.3921
20.5062 131.144 -5.71758
-0.764882 121.999 3.2654
9.1385 116.453 -6.36435
13.1416 114.137 -6.93881
-3.00667 110.26 3.67202
1.88227 127.94 -3.36203
-22.3006 122.341 -2.43191
10.3404 122.528 -7.60233
-6.56716 99.9251 -13.271
12.6685 149.86 0.43524
-7.77399 136.072 -5.35183
-20.8666 122.375 -6.44574
4.75144 111.102 -6.51859
9.91876 101.469 10.6919
-19.7993 132.073 -2.34736
12.0205 132.399 -3.41498
16.8348 104.181 7.65698
-12.9047 119.059 7.16391
1.51211 129.502 -2.63082
-8.42511 109.267 -10.5753
7.35994 76.8173 -5.58654
17.1692 91.2504 4.66015
22.6534 129.569 -0.630848
13.9533 113.292 -0.249943
17.4217 94.4827 7.19181
-25.7682 124.647 -1.70222
-4.59282 133.62 -2.78131
-24.9425 125.957 -2.63071
-7.68834 153.095 -1.58186
5.65978 101.147 8.34179
-14.2047 111.383 -11.4126
-14.2749 96.4367 4.88053
-21.2141 106.872 3.90047
5.55731 122.788 -0.429529
-1.29544 92.8968 0.454328
-10.2814 96.4601 5.30425
8.0968 116.675 6.54106
5.83866 118.939 -0.204099
11.2449 91.2176 9.68012
20.5477 135.842 -5.1449
-9.95669 86.5786 -11.9696
1.89259 112.839 -1.06927
-5.69009 109.773 -11.188
12.5595 135.039 -6.81887
-36.2535 129.146 2.66126
-4.50189 153.201 -2.46486
-6.92589 135.215 -4.38312
-21.4162 106.434 -11.4064
0.139273 97.0443 4.62394
3.84967 137.942 0.663151
1.96616 89.0939 2.85024
8.19413 79.1045 -5.74003
-13.8806 78.1425 -3.44609
21.7281 121.287 2.15612
-16.5518 116.538 7.77346
16.8669 94.865 3.83184
0.605804 121.562 -5.63692
-28.9874 122.623 -2.77994
-2.09383 148.921 -2.7597
-10.3201 120.752 -6.74283
17.9215 100.708 5.76434
12.5932 122.418 -6.64001
17.3087 93.4298 7.33138
3.451 141.084 -3.64405
15.2871 114.801 1.41515
-0.112093 91.9163 -12.18
-22.3232 125.716 3.8482
8.71546 122.329 5.94472
-24.9033 101.999 -2.63959
1.04462 149.462 -2.41875
-14.1774 109.436 7.03624
12.1625 96.8659 9.88819
16.1209 128.072 -8.05875
12.5955 151.043 0.21596
-9.77555 149.983 1.38721
-2.34917 87.5195 1.34517
8.66975 86.1491 8.69036
14.2651 80.5289 2.16822
-6.69256 98.7396 -12.5774
-24.858 78.6984 -9.00395
-8.48191 141.522 -5.70796
6.18659 85.4335 7.23743
-12.9818 142.796 -4.24025
-17.4736 77.8152 -5.34797
16.0973 121.668 -0.598918
-19.8933 106.105 4.82427
-13.9277 117.759 7.16085
-23.8456 127.091 -0.265891
2.43997 85.3624 -9.3831
-2.66658 150.998 -2.75234
-25.4878 136.585 3.04091
-6.49199 107.804 4.27826
3.78872 77.1966 -8.14124
-6.69183 104.099 -13.4419
-9.04607 82.7055 -13.8689
-13.4912 122.134 -6.59203
8.48644 133.846 0.32231
-4.21984 86.527 -0.880203
-16.0762 105.443 6.84592
19.788 131.46 1.72469
-0.296387 129.239 3.06121
-10.9993 82.0414 0.0377505
-18.4458 146.376 5.49066
10.456 135.082 6.14236
-20.092 115.06 -10.1996
16.7171 146.026 2.52721
-15.21 142.489 -2.73022
13.8241 125.547 -4.66199
1.80931 115.15 -6.35509
6.01593 147.796 1.16998
-20.9032 88.5517 -2.34643
9.86194 91.832 10.0277
-3.50977 79.6461 -11.0473
-7.93704 109.318 4.50982
21.4059 136.158 -3.72952
16.4685 113.179 7.07025
-24.6168 91.5891 -4.70999
7.57066 111.35 9.10154
-3.61909 100.577 1.30611
-21.3614 139.416 7.21217
-23.6399 101.978 0.0221504
-18.3792 143.164 6.94875
7.21635 94.7318 -6.23677
18.834 143.712 1.99643
-38.2398 126.352 3.73102
-35.2994 129.161 5.69685
-19.0514 83.0167 -3.00055
-24.9157 104.86 -4.49214
-13.1088 110.19 6.68012
16.8387 95.8305 7.84787
-1.17553 128.761 -2.7429
-23.8194 98.0958 -0.860275
-13.9853 143.469 -3.28367
0.673562 124.05 -4.98888
4.94624 101.986 1.60005
-0.669483 99.1509 -11.3128
-23.8042 121.56 -2.66712
14.7979 105.5 -5.5487
-15.4088 84.0143 -0.986895
15.9363 90.1667 1.50898
-3.78102 125.863 -3.51995
9.8549 148.883 -4.49741
14.5095 140.044 -3.30381
1.11877 113.96 -7.96025
8.99913 124.955 5.26587
-22.0867 127.289 -2.79942
-5.79874 139.971 -0.869871
-11.7439 112.764 -9.92802
12.19 150.842 1.63645
12.3786 139.063 -4.9539
16.6285 83.5891 7.81157
-19.6717 75.6962 -6.90892
5.32455 90.6012 -9.09274
-18.4177 125.52 4.09063
10.9759 82.483 8.08767
-20.44 145.054 4.92313
8.18956 138.124 -6.39815
-3.33317 84.8432 -0.0403865
-17.7814 124.618 -6.56422
-0.249611 81.4433 -10.1033
12.2834 145.772 -1.05109
-12.185 98.3588 5.85915
-23.0837 95.3573 -1.61285
-3.1559 91.2531 -11.9203
1.00628 108.109 -11.5477
-1.01064 87.6718 1.71935
-24.5155 80.8273 -7.01145
13.1864 120.812 -6.43173
12.1612 125.541 6.42285
-25.8159 116.701 -0.916026
-17.8572 119.752 -8.11794
7.25639 91.85 9.02862
-12.2624 78.733 -2.45099
15.9032 91.5729 0.677957
14.2548 127.85 1.77001
-20.6091 91.5131 -0.789563
-25.3829 95.5245 -5.81914
-9.6006 93.9147 5.37429
-4.31291 89.715 0.0969956
16.2697 84.5813 4.2925
8.62544 128.051 7.08168
-24.7066 78.2617 -8.86937
10.6875 137.189 -7.31287
-13.9414 130.047 4.24295
-6.49989 142.975 -4.91009
17.9554 102.405 5.51414
-4.70158 84.2656 -10.8831
-10.1059 103.908 4.47407
-1.21462 87.5146 1.59125
10.4787 83.6573 8.32077
12.2594 131.275 -1.6841
16.9855 111.044 4.3672
19.6425 137.882 1.66377
15.3062 102.947 8.94787
-22.052 138.705 0.887
-13.9348 146.248 5.23034
17.8592 119.87 2.03779
8.3615 146.568 -5.45598
5.62605 119.92 -0.348615
-24.8815 120.773 -1.52465
-17.8672 138.312 -1.20411
-28.7244 136.005 5.11619
2.96098 87.3753 -9.90233
-5.50065 140.319 -0.89902
-16.9248 89.0074 -0.470619
-36.0353 126.195 1.88875
2.03566 139.4 -2.64792
-5.52083 113.772 5.45083
-18.8632 95.4613 1.0765
-24.9923 102.699 -9.76489
13.4616 114.035 -5.88176
9.0242 127.242 -7.50185
-4.70079 112.205 -10.6308
12.4464 146.006 -1.04192
-22.3859 81.8494 -4.65806
-4.33078 139.937 0.114614
-6.38598 124.225 4.28881
8.86461 126.731 5.53723
19.5901 135.133 1.45197
11.348 139.387 4.18568
17.3171 103.793 2.70216
12.3229 126.267 -0.290656
-6.65083 95.3631 4.15149
7.60286 113.407 2.91292
-18.2121 98.6827 3.33315
-24.9384 98.8952 -3.51212
6.30078 142.139 -5.30444
-20.7781 115.775 4.53466
14.5981 110.72 -5.73827
-0.189147 81.5634 -0.15293
11.7938 75.623 -1.61629
-24.4711 126.768 -2.41886
-22.2068 124.849 -3.82322
5.82509 81.0095 6.15554
-17.0773 91.9988 0.265573
-0.528363 124.654 -5.14382
-25.0679 110.575 -7.29582
-2.03121 130.319 -2.84318
5.74161 107.263 -7.67177
-23.7398 116.083 1.48488
3.03992 82.6875 4.05282
-4.52601 108.389 -12.2738
4.45304 143.077 0.539033
4.23156 142.727 -4.31805
16.9733 92.4166 4.1943
-16.8008 113.762 7.58786
-12.8948 119.365 7.18176
14.7665 133.505 -6.8078
1.3576 95.0345 6.00804
11.3084 84.8859 -2.47049
-16.4711 107.528 7.10418
7.94733 87.9101 -5.93029
13.0636 138.345 -4.17397
-13.1085 111.59 6.91461
17.4571 106.585 5.42533
8.50235 151.232 1.75257
16.6384 104.217 7.93561
-5.05277 83.9651 0.842535
-0.769621 82.3218 -0.815895
-3.90547 89.1016 -2.267
-7.90647 89.849 -11.5154
8.46947 89.4782 -5.21343
-14.7328 109.948 7.24434
24.2999 124.151 -1.8872
10.8409 146.067 -2.51135
8.21106 76.3267 4.90227
-24.3569 109.247 -8.84081
-14.2692 88.2961 0.336254
21.8373 122.188 2.15639
-25.0914 103.747 -9.69339
10.9999 138.265 4.63259
-12.6312 128.433 4.47056
17.4623 123.454 2.8944
-14.1955 122.372 -7.06407
11.613 128.497 -1.88038
13.6973 114.009 1.17886
-13.015 106.484 6.08682
-3.38022 109.083 -11.9092
-24.5892 78.3929 -8.5863
-19.3609 104.399 4.73936
18.5012 124.989 -9.18644
-14.8709 136.03 2.83219
-19.9582 144.694 2.53661
-12.4454 118.646 -8.60836
-2.93185 84.927 -9.94843
1.62962 135.281 1.3046
5.66153 125.556 -3.88111
14.9552 92.153 -0.580964
4.49449 131.648 -4.8233
-22.0658 134.493 -1.47635
-3.07656 123.227 4.32964
-23.8592 121.945 -2.50544
16.102 112.148 3.83439
-7.71754 83.7061 -12.1309
-16.9194 139.995 -0.918077
-10.0558 89.4659 -12.1318
-6.85747 86.3654 2.64576
-6.3768 103.066 3.58622
-0.74172 82.5135 1.10985
-10.1257 90.7208 5.29641
6.55574 105.386 3.11182
-2.77679 134.218 -2.59486
4.48337 106.362 -9.44764
-2.81854 96.6454 -0.713643
17.7937 88.9372 5.22796
-0.210164 98.1654 -1.56231
-1.80181 85.2376 -0.952002
-4.68587 122.807 -4.32646
-17.1632 121.756 7.8181
-8.42321 96.8604 -13.0263
25.0471 124.057 -2.05074
7.26276 140.622 -6.01732
-15.6352 112.135 7.1291
-25.3921 125.276 -2.06627
-15.7474 79.2897 -3.1139
-15.3903 84.2534 -0.881988
7.4495 114.583 -4.7765
-10.5306 149.262 1.80706
-18.8758 124.662 -6.07844
15.8234 87.8674 1.79357
-14.0991 143.339 3.5396
10.9911 111.751 10.5429
20.3991 124.565 -9.42017
-23.1031 95.4252 -1.58392
17.9463 121.328 1.96661
8.6381 100.121 10.5751
-17.6179 114.659 -10.7696
-15.2867 143.607 0.335348
15.3117 128.568 -7.8614
-5.09998 114.998 -8.64682
17.2658 75.8586 4.99899
13.7062 132.532 5.43422
12.9313 97.4353 9.69063
-13.4449 113.026 7.18302
18.5395 145.651 1.26982
10.0636 139.192 -6.86458
12.2327 150.196 0.121238
3.2654 100.911 -11.2865
-10.8108 147.717 1.56818
-5.14259 86.8077 -2.85887
7.55004 111.148 3.69304
8.71549 125.87 8.34582
-13.1616 84.7185 -12.2413
-0.172009 95.7019 4.7801
15.2239 118.196 -5.26812
23.7179 120.618 -0.317533
15.4831 123.219 5.42204
11.723 112.942 10.3649
-25.0674 115.334 -5.4873
8.09682 128.594 -6.92594
-21.8706 106.934 3.32409
-2.43818 91.8612 2.91504
13.541 130.447 -1.12533
19.0865 137.032 -5.47119
-4.26964 82.9603 -2.51712
-1.4251 138.149 1.99494
14.5716 92.0185 -0.971935
-30.031 126.849 -0.796672
7.49694 146.828 1.16861
8.68662 128.202 -7.22546
-5.27945 132.574 2.80421
24.6787 126.428 -4.09066
17.6407 99.0074 6.87355
-10.6027 83.95 -11.981
-23.5378 88.474 -3.92401
15.1469 142.082 -2.22812
-23.21 113.907 0.0796987
17.0837 84.5526 5.21405
-0.558551 110.861 0.729304
-18.7254 146.365 5.18137
-23.0524 109.463 -9.57374
-0.285298 96.412 3.53352
-26.9045 127.291 -2.8021
-4.34619 151.816 -2.74127
-16.9199 127.577 -5.94462
2.83345 144.415 -2.86927
-6.80101 102.293 3.76088
14.7957 121.513 1.49885
3.38615 133.594 -3.12101
-1.95556 87.0027 0.975856
-27.9701 133.807 1.79339
-13.8287 94.4622 4.17272
-1.82587 136.614 2.21434
-7.58126 142.925 -1.34732
1.46803 110.353 -1.17363
-17.308 145.69 6.36483
9.13161 104.394 -6.8186
6.31693 92.4083 -7.76618
-15.582 146.036 6.05535
-22.9626 107.149 2.1451
-13.4673 125.926 5.76112
-27.6799 131.586 6.25478
-9.74067 137.443 -6.49355
-9.68166 115.402 -8.62395
-12.7947 147.839 4.01014
10.4932 122.943 -7.80092
-18.3945 79.9721 -4.99473
15.3797 110.396 -4.04888
-24.0254 127.868 -0.577323
23.1961 126.351 0.0712879
7.50369 117.656 1.73144
7.16487 101.421 9.50691
10.6245 105.785 -5.64191
-21.6123 113.66 1.30484
1.83758 121.26 -0.0744193
15.5645 77.9851 3.49388
12.7383 149.004 0.202395
-22.7482 136.728 5.73128
-26.7993 120.805 -3.30221
14.5919 106.178 -5.93142
-12.3296 136.244 -5.98954
0.118158 99.0989 -1.23469
1.25239 88.2047 -10.9661
12.2282 132.166 -2.54393
12.7641 137.284 -2.9252
-24.3885 104.157 -1.23353
16.2236 104.618 -2.12837
9.4977 124.458 8.55542
-25.5587 101.746 -7.07203
-22.35 125.248 -2.97192
-34.8714 129.39 5.71451
7.67133 123.727 1.29205
-8.39887 120.061 6.00602
5.11809 129.895 -5.17779
-12.4145 77.273 -5.08037
10.2517 127.015 -7.95682
-16.6839 80.5455 -2.63001
8.16663 119.409 7.35635
8.13525 117.692 -5.88287
12.173 141.738 -1.63545
9.93182 137.511 -7.11272
-3.0543 89.2838 0.187281
-25.0754 124.398 -1.01485
15.0491 149.762 0.971822
4.77791 119.701 -0.827703
-8.02566 128.793 3.91572
-7.12622 141.609 -1.04157
-19.4081 139.533 -0.664542
21.4948 135.669 -4.51031
1.71177 127.192 1.56279
1.97971 94.7938 -11.6619
-12.9256 146.518 -2.61837
-0.970295 86.7027 0.988261
-2.33205 125.185 -4.17321
11.5852 123.968 -4.96252
9.9483 97.9981 -5.53908
-19.6794 114.044 6.81959
4.49498 122.123 -3.49777
4.73646 102.806 6.60739
15.4772 122.593 2.80953
-23.6105 122.579 -2.41955
12.7611 144.778 -0.606943
-6.82419 93.1604 1.82741
13.2871 114.051 -3.95789
11.2258 120.381 -7.73481
-15.7074 147.598 3.29144
-9.70976 115 -8.75124
-23.4488 121.555 -3.40622
18.4366 145.444 1.47237
21.5461 141.578 -0.356539
1.34322 135.725 1.33068
-25.6817 115.564 -2.76325
16.7605 84.7666 4.94706
1.70769 126.745 -3.84795
-27.7133 123.217 -0.520316
-8.15303 130.476 -4.13247
-23.1543 85.0391 -4.7825
17.2408 111.463 6.46789
-24.5005 86.6648 -5.54596
9.01694 133.529 -6.44234
-2.86397 90.0961 1.28477
-12.9101 108.355 -12.3739
17.8101 98.4754 6.45604
5.92792 97.1277 -7.68825
13.5038 102.832 9.97749
-9.43178 109.656 -10.7688
-28.1427 137.453 3.97677
15.0238 121.542 -10.061
-15.1262 140.936 -1.68373
-18.4786 94.5208 1.1161
12.8673 128.297 -3.93118
-16.6617 143.2 0.385254
-0.939088 92.8394 -0.0326623
22.9056 129.431 -0.807529
-0.991356 103.885 -11.5317
-7.90213 133.085 -4.18541
8.91013 123.165 5.65688
-0.0271852 111.489 -0.0228638
-7.41371 107.891 -11.7964
7.70452 92.1301 -5.6438
-20.7722 127.216 -3.197
16.0334 117.921 -3.99376
-3.18814 119.252 4.50511
19.247 140.481 2.30621
10.0633 93.8194 -4.11504
-15.4096 142.405 5.06252
-26.2495 126.034 0.396611
19.4363 122.748 4.0346
-22.2066 98.8736 0.781517
10.4069 115.867 -7.43114
-12.77 105.005 -12.9605
8.63289 130.103 1.55386
-6.27982 115.836 5.92521
9.33955 130.14 6.94426
8.13315 83.8616 7.94113
-3.61779 105.226 2.78598
-0.137332 96.5964 3.9212
14.2049 129.839 -0.322408
7.81457 87.4898 -6.33437
-21.6242 109.399 3.74875
3.96299 126.327 -2.82385
9.60254 147.018 2.80925
-7.114 86.6399 -11.4729
-8.64328 119.607 6.21048
-9.20169 131.524 3.11056
-23.6493 79.5754 -6.35413
-8.85865 131.453 -4.71168
-22.3373 137.884 0.00214714
-10.4553 125.537 5.77381
-27.4313 126.93 5.62042
-23.7052 121.704 -0.992193
16.664 125.538 3.91765
-8.60046 120.51 -6.16171
-0.123489 96.6369 3.04603
-22.5793 140.15 7.12464
-2.4544 92.6067 -11.8819
-7.75959 78.3469 -3.8902
7.39113 152.48 -2.77953
13.4414 126.678 -1.76776
-12.1492 86.4536 0.949579
-11.5625 106.353 5.30991
22.4227 123.176 0.993595
4.71631 95.8385 -8.52432
-16.6137 133.153 3.64896
12.1589 116.821 10.2149
-4.97781 99.2439 3.17955
15.3536 91.4798 0.0311938
5.31718 104.736 -9.34959
5.85373 100.806 8.45835
0.306179 125.038 2.5441
1.74268 140.05 -2.49436
26.4508 125.23 -3.17622
-18.0093 129.983 4.20445
15.9243 122.569 -1.19486
-21.6202 115.67 -9.41717
6.23664 137.909 -0.00167473
5.6127 125.349 -3.72005
-3.19035 89.1212 0.156854
-7.73215 94.6412 -11.6285
-19.473 143.217 6.81257
-6.07593 86.5443 2.26568
-10.4124 86.4199 -12.0989
-22.7599 125.454 -1.95406
-21.9469 119.948 5.81174
5.02257 121.385 -3.64569
9.30358 93.862 -4.59661
-22.358 75.4449 -7.50205
17.0879 145.522 -0.751923
1.35927 132.98 1.38998
10.5873 76.3388 5.61936
17.202 140.454 3.11892
5.43957 141.522 -5.0577
-36.7783 129.296 4.97605
13.9289 125.576 -8.86363
-20.7505 104.15 -11.7711
-23.7553 108.122 -2.46072
12.0369 118.332 -7.4045
-19.806 143.025 6.77577
-1.95035 130.498 -2.8517
12.37 112.784 10.1149
-31.0011 124.596 -0.84154
-11.1685 97.8137 -13.96
-20.4678 128.129 3.26246
-18.8491 102.822 4.71699
-4.98403 148.975 -3.50417
15.4586 125.066 4.3535
6.54988 145.776 -4.73831
-23.2088 120.956 -3.80586
-2.89467 137.773 1.92582
-15.6545 136.389 -3.47431
3.2419 146.365 -2.97709
-20.0914 143.857 1.75791
4.39142 131.946 0.593456
21.3494 140.697 -1.67699
-12.467 116.313 7.16864
13.4581 138.386 -3.37274
-10.1035 116.814 -8.45543
3.27016 100.978 -11.3225
-30.0709 125.127 3.86838
-1.9459 91.244 -1.09413
18.3173 98.2377 5.20251
2.59745 100.476 -11.6251
-34.0064 130.986 5.77147
-24.4235 104.241 -1.29259
-35.8814 126.992 5.39348
-5.73087 83.0281 0.452553
-12.7663 93.8916 5.37893
6.4758 119.676 0.377309
13.0321 79.5702 -0.895744
22.4174 126.748 -7.2976
14.4416 76.773 0.792234
-0.0585747 84.967 -9.70863
-12.6667 137.824 -5.34171
2.05797 128.965 2.00728
-6.93949 113.96 5.72817
18.1223 100.368 5.30811
-5.95786 144.81 -4.39459
16.9253 121.307 2.6239
9.24833 134.997 -6.51678
-18.6538 125.912 -4.6712
0.724412 80.8844 -1.08096
0.503039 127.056 2.7808
9.77775 122.982 -7.88357
8.59731 134.833 -6.39042
14.6617 118.16 4.49413
21.0901 143.083 -0.337401
-10.8385 106.035 4.93865
-16.7262 85.7652 -1.11124
11.7578 123.836 -6.10752
-18.113 104.862 5.73921
-3.29569 138.848 1.32842
-23.3075 124.15 3.97734
20.797 138.384 -3.82523
-24.5526 141.315 3.85573
16.2587 144.972 3.53109
-27.0283 122.9 0.138899
-17.3847 91.7846 0.0041409
-21.3921 127.518 -2.52515
4.41662 86.9485 -9.09342
7.46852 111.583 -4.80494
16.9724 126.116 -8.93691
-5.87525 87.8878 1.97257
17.7884 142.702 -2.71551
-13.56 146.326 4.3631
15.4681 122.603 1.09354
19.4283 144.743 -1.09981
16.0084 121.362 1.99323
-9.71301 118.332 -7.63853
18.2525 80.1091 6.54889
13.9165 100.794 -4.87546
-5.8293 99.067 3.93919
17.6785 117.843 -2.67185
-17.71 80.6819 -3.03568
-26.7317 133.372 0.750201
-26.9749 134.056 1.60038
10.2181 111.473 -5.49356
12.9068 126.503 -8.12219
-8.05591 148.504 -4.69367
12.2281 126.096 -3.82396
-10.8739 130.833 4.10873
18.7019 138.868 -4.41803
-1.85735 89.6744 0.205187
-4.08205 83.5318 -2.4381
9.62643 142.719 -6.37634
23.7263 130.49 -6.04827
-6.82131 134.893 -4.09131
4.43144 142.146 0.410063
-7.53264 89.7351 -11.2861
-7.34187 152.217 -2.87043
16.1916 109.511 7.94264
8.50787 119.118 4.57602
3.02242 104.247 -11.29
-9.94342 147.862 -4.99118
7.598 101.709 -8.51764
-18.2761 129.971 4.26861
16.5149 120.438 -2.00719
-9.70443 150.938 1.57972
7.25592 114.9 -4.7177
2.51729 128.324 -2.71211
16.533 121.366 1.42804
7.35911 110.633 3.16742
-9.64455 151.281 -2.83032
-18.826 142.745 0.628872
6.56493 129.701 -0.217864
8.36353 90.7651 9.63933
-4.99432 139.945 -0.327869
-6.71079 83.7196 -11.282
12.7436 137.132 -2.86508
-10.8489 110.839 5.77292
-3.9304 99.7673 1.2473
9.08965 145.633 -5.57136
-1.33487 94.9917 3.07516
-17.4239 109.075 7.11724
-18.6719 90.1139 -1.14946
-29.2192 122.453 -1.14545
0.401537 103.556 -1.04656
4.19134 110.624 -7.12677
3.6894 113.499 -1.07384
-14.082 143.483 3.6371
11.5797 149.007 -2.2873
-4.03873 118.583 -7.16354
-29.5554 124.192 1.51923
19.3404 122.38 3.75456
15.7013 117.608 3.59845
-2.25103 90.0167 0.304624
0.746508 84.2469 -1.01925
-17.7914 113.01 -11.2658
-0.246313 125.941 3.22022
-22.3294 126.456 -2.77572
-18.334 108.505 6.4286
19.3231 128.784 3.99298
8.6377 140.917 -6.45052
-24.575 112.848 -1.14294
14.0481 132.842 -2.21535
-22.611 126.226 -2.63426
20.1608 135.125 -5.38478
-7.54907 122.131 -5.35561
-25.4976 110.737 -4.70478
-23.1863 142.534 3.8145
-22.9086 135.843 -1.46094
9.32291 108.26 10.8931
7.80394 81.7008 -7.26924
4.2981 130.3 -3.3729
13.1548 80.0786 -0.610216
7.4674 122.323 -5.55531
16.3791 140.589 -3.5887
17.3153 143.743 3.13451
-23.7619 140.216 3.07746
4.45912 114.689 -0.85335
16.2388 104.529 -2.09418
3.89614 92.1961 -10.0208
-23.2934 104.522 0.966649
-0.430203 82.8303 1.26862
-17.3291 78.529 -5.01805
-15.464 115.219 -10.5617
-5.71344 144.021 -1.37754
-18.9929 111.983 6.98031
-25.0706 137.617 6.38783
10.5002 85.6597 8.86291
13.0087 93.4546 -1.82904
-35.3733 127.229 3.55337
9.48159 82.1002 7.62834
0.400223 85.2332 -9.81788
-9.78623 133.077 -6.13864
-22.4472 123.042 5.27352
-5.76731 85.3524 2.27732
-26.8953 128.123 -2.14004
-0.0934084 117.204 1.57911
12.7236 135.812 -6.48376
-9.60711 85.5833 1.98216
10.4904 138.36 2.96606
6.38365 104.777 5.85179
-2.95111 89.5973 1.74164
8.53143 120.276 -5.99883
12.9296 85.8372 8.77718
8.9908 125.861 3.22449
6.78883 119.239 -5.24674
-20.2344 131.503 -4.04623
2.61128 79.8727 2.54388
-33.6482 132.695 3.53491
-17.5029 79.3893 -4.9088
-6.51444 120.734 4.84174
8.59568 120.22 4.58101
12.6599 122.851 -4.3555
-3.78589 86.0412 1.44788
25.0015 127.207 -2.67969
12.1264 114.285 10.252
-10.4144 134.192 1.47681
17.7622 91.1422 5.13667
-17.4284 103.955 -12.9296
9.6265 90.7422 -4.09331
21.1173 123.414 1.88891
14.7362 89.608 -0.00830667
-2.23103 89.9931 2.56454
-23.5254 139.57 2.47647
14.4388 114.497 1.68005
9.0457 128.023 7.28689
5.96438 122.678 -0.131653
-2.79437 92.199 1.08398
-20.0904 128.937 -3.22524
13.5068 78.6086 -0.32146
-8.13512 135.047 -5.56793
-16.9454 124.076 -6.88745
-23.6505 126.621 -1.90058
2.72343 117.236 -5.33845
0.214086 95.967 2.03621
21.4111 129.561 -6.98122
-3.61741 117.028 -8.69249
-6.30276 113.999 -8.38589
15.948 120.471 1.72709
-13.4468 107.461 6.35686
12.5956 135.048 -6.78017
-7.40205 128.691 -3.60246
-5.23235 129.892 -2.9749
19.5617 144.449 -1.11514
14.981 110.422 -4.99337
-34.4799 131.436 2.40886
5.66408 126.503 -0.445377
-9.40444 98.6647 5.15656
-22.9395 110.444 -9.6443
12.141 125.168 -4.37396
16.0152 91.2529 1.04548
-25.222 92.308 -5.3052
9.45229 136.386 -6.72127
18.151 135.641 2.11421
2.10088 83.8767 2.49801
-22.2865 123.059 -2.53
16.5396 101.238 2.38324
11.6428 130.307 -1.99712
-9.25632 138.828 0.980776
-0.487745 131.357 2.46933
-4.43274 91.9832 -0.532463
-10.3094 104.754 4.553
10.5648 144.239 -5.34467
2.46299 119.445 -4.78703
-8.80849 90.3736 4.56569
1.42138 96.4952 6.30325
-22.0747 113.392 0.844961
-13.895 103.912 6.48761
7.41681 93.7351 -5.90833
17.597 104.6 4.86204
-33.1195 123.962 1.0781
4.28838 101.265 2.36499
-19.334 134.129 -3.10204
-7.47448 90.773 -11.4813
-17.8371 126.467 -5.30169
21.5121 131.724 0.42129
-2.66554 127.529 4.25598
1.54269 111.015 -1.1346
1.61145 129.464 2.06672
-4.1994 93.7737 -11.4452
12.1891 151.12 0.0826223
17.8343 92.5584 4.95053
-10.2069 83.1842 -13.0553
6.14441 92.1619 8.44896
10.5284 153.484 1.08943
2.78319 138.043 1.07246
20.1641 118.839 1.3033
13.1943 127.014 -4.55743
-18.3377 107.212 6.11644
-21.0061 128.686 4.68484
-11.3795 128.517 -5.54351
16.764 100.604 0.100387
17.5471 119.925 1.46789
-25.3065 93.5659 -4.98384
11.902 138.871 -5.35806
3.37557 103.511 -1.14305
16.2603 78.028 4.35307
17.0321 102.915 7.57095
14.0864 83.0336 2.06562
-6.51423 136.907 -4.35605
-15.9281 124.863 6.84298
-10.8708 150.37 -3.13399
14.7379 129.879 -0.520983
-1.7959 136.517 2.22071
6.50844 110.099 -5.63991
9.12818 137.751 -6.76978
-15.9344 95.765 2.92806
-13.6131 121.221 7.27459
16.0174 124.168 -1.64213
1.32497 111.144 -1.10522
-16.9258 129.691 4.13652
-25.5959 96.7869 -8.78511
14.9846 80.8585 8.14658
8.12907 76.3401 -5.55872
-17.7153 140.654 6.85784
-23.6969 122.756 -3.1469
14.2682 127.923 1.48949
0.622659 148.808 -2.34735
4.19908 117.097 -4.12375
-18.2815 111.518 -11.31
0.673223 127.27 -3.97475
12.1113 81.4452 -0.968988
-6.64559 108.5 4.35808
-20.6517 138.109 6.91729
10.3052 134.795 6.16916
-17.7316 107.463 6.57234
-17.253 135.006 5.22654
12.0574 112.939 -6.70333
6.01576 104.107 5.54437
3.33698 83.5566 3.38058
0.139639 79.6449 0.97613
-27.1805 122.891 0.553657
-3.26614 131.619 -2.77338
16.9887 112.351 6.93508
6.58065 138.062 -6.22234
-30.3352 125.32 2.83138
-29.8962 130.893 6.49459
10.9904 146.78 -2.50141
7.70886 96.948 -6.62178
10.4571 136.401 5.23111
-17.2896 131.569 4.09697
2.94127 92.5813 -10.8091
-12.036 123.735 6.84306
-22.3967 126.272 -2.81479
-24.0199 111.128 -2.0162
13.6036 142.335 3.99586
-11.7487 100.62 5.41287
-4.93269 84.5495 -3.29395
3.95057 87.8895 4.8314
15.042 86.0804 8.39353
-8.12734 149.003 -4.54171
-3.0303 132.585 3.23773
24.2406 127.781 -1.84659
-33.2522 125.332 0.0114852
-19.201 122.518 -6.98276
-23.0208 109.509 -2.01228
-18.7169 104.94 5.32327
-1.57603 152.689 -2.53771
-5.28513 90.4537 -11.9184
15.7364 108.539 -2.74263
6.95439 130.058 -6.27549
-19.9978 138.592 7.07762
-4.03903 143.801 -3.15529
12.5525 126.772 -4.68739
14.7324 120 -1.73938
-24.8184 105.864 -4.41803
14.8382 90.0479 8.84022
6.96773 101.75 9.54609
12.0854 136.868 6.186
15.398 112.483 3.68764
3.09077 99.2365 -0.738211
16.6469 122.87 4.07403
-24.6454 119.815 1.71593
-25.7111 124.677 -2.20425
5.60056 113.465 -4.71471
13.524 119.75 -7.73599
5.64696 93.0293 -8.19036
-10.6111 150.05 -3.43155
-33.1407 125.576 0.714433
1.46213 135.071 1.31451
-12.6565 146.208 3.33624
-14.9233 79.8165 -2.27969
-8.68836 137.572 -6.24823
19.7278 118.51 -1.62776
19.8032 118.723 1.06031
3.11977 125.097 -0.20181
-7.67302 100.166 4.58856
17.248 90.428 7.23926
-15.38 140.379 -3.89927
5.14905 90.4437 6.66943
-19.32 127.855 3.50951
-23.1425 121.377 3.77899
-3.51709 112.156 -10.5029
-17.1651 102.411 5.88117
-4.10422 95.3948 0.401799
-1.29399 141.15 -2.05406
3.27849 98.6866 -10.7093
4.09044 104.613 -10.8138
-9.56834 86.8194 -11.9954
-26.5074 125.002 -0.565691
10.1573 115.502 -7.3181
-14.0295 135.058 2.43055
7.71206 129.22 0.325462
7.2207 109.922 3.08441
6.04479 122.215 -0.00280613
-21.7293 123.464 -5.22937
-13.351 129.257 -7.49083
-24.2321 105.713 -9.93223
-4.27555 135.589 -2.37903
5.19259 131.966 -0.0354854
16.8643 117.806 1.17712
-17.961 89.538 -0.90408
21.2445 130.642 1.34192
11.466 80.3788 -2.92845
-1.10684 86.0139 0.654183
-24.496 98.1715 -1.9522
8.15915 107.272 -5.76041
2.33124 87.3616 -10.2032
-4.76263 133.528 -2.81376
8.09048 79.1719 -5.88227
-3.63252 133.045 3.2902
-16.0148 117.222 7.66232
-8.75025 149.322 -4.47479
16.476 147.618 1.09931
10.5589 139.971 3.3165
6.67249 93.8373 -6.64191
15.1116 128.305 -8.04434
-21.1422 101.152 2.55746
16.4851 141.032 3.29645
-19.9035 120.832 -7.9698
16.102 80.4484 7.84118
10.9427 127.884 -8.00253
-24.3819 127.056 -1.89865
-22.7748 126.766 -2.15098
-23.6488 119.061 -5.47017
25.31 124.195 -4.44987
2.23074 85.1035 -9.38925
-29.2449 137.534 4.75029
10.2428 93.4427 -3.73563
-25.138 126.727 -2.04327
-13.7612 135.413 -5.04879
11.1596 76.7371 6.03262
11.4258 148.646 -2.48107
15.4091 134.356 -6.83188
7.61742 112.372 3.37065
-26.1483 123.746 -0.804762
14.6564 76.3494 1.0882
10.2448 141.568 -6.31533
-7.06404 147.002 -5.02589
2.64797 94.9087 6.98156
-0.862269 89.2956 2.81045
-3.80732 85.1431 0.858213
18.7078 121.639 3.07145
16.7301 111.328 0.861995
-25.3017 95.9264 -6.17997
13.5978 123.254 3.00752
17.8739 133.942 -6.08001
-9.79338 118.835 -7.58326
-1.27637 115.872 2.78457
6.00731 92.4614 8.42664
12.7605 134.105 6.21078
-2.55565 131.526 3.45888
7.15738 111.849 2.26813
-15.5722 125.208 6.71091
-0.0315026 91.4864 4.10547
20.2739 122.056 -8.07149
0.569951 87.1488 0.926694
2.11795 87.8962 2.77308
-18.572 110.242 6.86566
-15.421 108.577 7.14164
-17.897 96.548 1.90179
-12.8022 146.686 -2.82744
-3.19036 86.1394 -3.0949
-19.6117 116.465 -9.7995
-11.0049 124.13 -5.32698
6.62048 111.279 -5.38014
-21.4633 134.726 5.23025
-9.35582 150.476 -3.58109
19.4887 138.12 -4.84787
-3.82502 149.581 -2.99982
3.04923 118.41 -0.840394
18.4161 122.721 -9.6737
23.9313 127.512 -1.12451
1.75145 87.5647 -10.5666
-14.1704 129.065 -7.43719
-23.6847 89.6112 -3.63988
-25.3745 94.1048 -7.00134
20.9671 122.422 -8.23724
-19.4095 105 -12.8033
-29.1639 124.509 3.83274
14.2777 143.758 -0.055346
-0.845254 105.649 1.13661
-13.8186 144.004 3.71081
-24.3715 134.132 0.548483
-20.8286 101.158 -12.2597
-9.24316 128.86 -4.42703
15.0671 116.094 7.81234
17.9351 79.31 6.28329
16.3201 125.116 1.76641
-9.86846 114.357 6.13521
-25.3406 95.9293 -5.24809
-4.89734 133.957 2.617
14.3977 127.506 1.18908
-0.437803 93.4082 1.19017
12.5061 128.719 -6.85191
-20.2534 122.572 5.95006
17.0132 119.795 -0.481107
-5.74606 134.624 -3.24148
-23.5064 137.156 0.137152
15.4403 127.309 -1.06137
-19.6203 126.828 3.60117
-19.8296 111.648 -11.2065
-13.0269 87.7687 0.76907
-15.1741 113.449 7.3335
-10.0653 146.762 -5.2287
-13.0643 124.796 -5.75852
15.3814 121.739 -4.34239
-4.2407 85.8301 -1.68924
-8.06017 133.117 -4.28966
22.6992 123.522 -0.161928
16.0902 105.015 -2.54095
-23.5741 112.145 -0.546817
9.23395 125.125 8.40976
-20.9448 115.664 3.70573
-13.0863 141.829 2.21168
-13.3734 118.358 -8.92053
16.9675 98.4628 7.67484
-13.4686 78.2776 -3.20143
-14.1341 118.404 -9.09458
-13.574 148.309 4.61924
-5.13311 80.4604 -2.76905
-24.0682 88.7875 -4.29924
7.37087 151.825 -3.55267
-10.5788 131.455 3.46411
9.21105 122.339 9.06797
-11.3962 93.3606 5.74642
-16.6199 96.7149 3.19971
-13.318 104.684 6.06167
-11.5335 83.2397 -12.8965
14.6797 78.9491 2.25292
8.77722 96.7683 10.3348
-3.53075 89.5327 -1.69035
0.963037 89.3885 -11.3621
16.5198 121.76 -0.1848
-6.55869 140.767 -0.914748
8.37651 145.993 1.53924
-29.4148 132.098 6.45045
-2.20666 136.055 -2.30561
12.2773 92.7268 9.80015
6.61095 136.139 0.0333837
-1.7383 78.0026 -12.5401
-16.8974 136.821 -2.42297
-3.14795 125.433 -3.91769
-25.1029 125.311 4.19096
-24.4424 106.394 -2.37587
-1.49309 103.148 0.839761
16.9146 82.4722 5.34561
-3.29295 97.2338 -11.1523
9.6097 103.018 -7.20384
-21.5958 113.373 2.6493
-7.09891 114.516 5.84559
7.84998 115.327 6.07053
-15.2628 120.551 -8.14709
-20.7086 112.674 4.70903
5.70182 98.118 -8.51373
20.2038 123.409 3.71735
20.3632 127.977 3.135
-27.0047 123 -0.43946
8.31629 117.343 5.69269
-2.87554 90.8684 -2.17915
-24.4325 124.642 2.1506
16.1178 84.2544 4.00008
-5.28276 139.926 -0.506752
-16.5731 122.937 7.39672
-20.3655 75.8735 -6.70648
4.19514 92.9358 7.15888
1.72225 115.281 -6.365
-10.6392 85.3476 -11.4499
-8.71817 106.917 -12.1912
13.9755 125.236 2.45296
26.7028 125.513 -3.91559
8.42708 114.296 -5.43336
8.72415 126.188 2.3758
-31.8869 129.324 0.225511
-18.8697 126.11 -4.41569
-14.5468 134.848 3.01079
13.4528 123.68 -7.20396
18.742 134.117 1.83858
14.9791 138.636 3.7801
-21.1532 141.11 6.87723
-22.8639 125.904 -2.97936
-9.82155 133.897 2.10072
-11.0553 129.52 4.97815
0.98524 91.7315 -11.9059
-3.01755 141.249 0.0680513
11.5597 129.405 6.26693
6.45971 105.125 3.03057
-10.9127 148.788 -4.09544
-19.8594 138.976 -0.490913
12.2572 138.512 -2.45119
-18.7945 144.257 1.36578
12.9331 145.041 -0.483204
20.8909 126.569 -8.73478
-2.59313 142.591 -2.48975
15.347 114.839 7.90925
8.71442 151.136 -3.44022
-4.40367 154.496 -1.56674
1.58665 135.897 -1.95316
-21.5407 138.028 -0.420693
-9.10711 129.122 3.67727
6.23727 122.112 -3.99801
-21.8923 126.354 -4.41941
-12.2143 121.701 6.64845
-13.5115 102.789 -13.2594
13.6211 126.105 -5.01701
-24.8466 121.633 -1.84185
7.26 107.915 5.53215
16.4973 81.9653 7.79588
3.78083 98.3422 -10.1449
20.3385 140.434 -3.12041
-9.51091 92.5273 4.50689
-12.8577 112.971 -10.4259
-0.269559 98.8253 -11.4329
-18.9662 79.8996 -5.08092
8.62301 90.4471 -4.82706
8.56144 120.032 4.33616
-21.0115 80.7577 -4.94049
13.2798 81.1819 0.660379
-7.28903 141.62 -1.00669
-18.5587 98.7034 3.0801
15.7649 132.175 3.9386
1.4307 98.9079 4.07356
17.073 110.423 1.11389
13.6237 131.756 5.32606
-6.03367 106.122 3.5738
-24.6226 132.599 6.02545
1.43532 113.837 -7.64795
8.40411 82.3606 -6.17855
7.58388 99.0666 -8.38781
4.08791 148.304 -2.95643
-4.62207 138.571 0.726857
-0.54722 144.04 -0.327142
-13.3669 132.245 2.60213
-12.942 150.696 1.12858
-24.9497 118.834 -1.6086
-6.90414 148.159 -4.71877
-15.1478 111.226 -11.6233
13.8119 87.9629 0.261833
-24.1404 136.362 -0.306465
18.9808 132.974 1.55805
17.9093 89.6788 5.28613
-13.7665 134.826 1.83219
15.869 127.626 -8.36105
13.5717 93.2923 9.57827
6.58364 95.9427 8.32215
9.28294 86.9859 -4.36167
-4.39007 136.401 -2.6344
-35.1601 131.001 4.13797
-19.1814 126.382 3.65594
-21.168 84.6966 -3.06789
-17.75 77.9331 -5.22373
-2.56555 89.8747 0.207117
-4.86748 111.939 -10.6583
-36.8244 129.212 4.60473
-10.1831 107.134 4.77211
17.0568 99.9631 3.51669
2.54229 123.382 -3.81892
10.212 143.172 -5.85041
16.7042 120.272 -2.09057
-17.0219 113.848 -11.2058
13.5123 126.872 -0.788594
-8.3893 83.3166 -12.9667
-11.4839 119.526 -7.75851
-23.8761 139.808 2.82679
11.647 125.821 -0.996179
-25.8614 130.914 -2.6372
20.011 134.256 0.683416
15.1375 131.135 4.36426
1.36459 98.9178 5.25432
-29.2826 125.006 4.24134
13.238 85.1161 -0.0867792
13.7008 79.3087 0.100068
4.14657 152.207 -2.78135
-9.41342 98.5192 5.19253
-26.8492 125.425 -0.833824
4.66125 86.7533 5.14384
2.2191 79.0268 -9.30203
1.72648 83.0478 3.2076
-15.405 147.022 2.72331
-25.824 117.779 -1.09593
-14.1214 110.452 7.20086
3.45749 108.819 -8.87079
-23.0326 109.372 -9.57884
9.74871 126.656 8.099
-13.2656 129.77 -7.5683
8.48616 119.404 3.74684
-16.8399 135.499 5.18255
24.8486 130.154 -5.10286
-21.0539 115.863 4.04924
-10.8629 152.458 -0.268247
-24.8579 81.6504 -7.02385
1.09952 82.788 -1.47372
16.6963 101.779 0.628639
-1.22889 102.072 -0.847397
3.6139 135.587 -3.78636
-6.53704 137.812 -0.0549185
13.6726 123.015 2.78797
-6.54968 135.741 -4.15381
5.20918 79.538 -8.50854
-18.5548 118.423 7.59449
-13.3763 126.658 5.01455
-0.467495 87.6987 -11.2942
-18.5027 144.772 1.57506
-23.5029 108.757 -2.07401
19.0431 141.455 2.36022
-25.6047 135.392 5.52796
-14.9722 143.275 0.14872
-34.9826 131.319 3.50385
16.6722 118.258 3.00339
-6.13346 130.783 3.63992
-2.52949 92.3566 -1.12572
23.7304 120.634 -0.250692
-13.5011 88.1034 0.561987
12.2355 121.518 9.1012
7.20021 106.476 6.91671
-25.4712 94.0338 -8.47765
12.8588 100.329 -5.29146
-6.60853 135.664 -4.18894
17.3803 109.661 0.701449
-5.75236 135.613 1.61077
8.87443 94.3359 9.7751
12.6638 138.786 -4.61639
-19.7738 143.797 6.63441
-2.3438 85.9066 -0.296262
12.1178 122.679 -5.82291
4.99107 135.536 -0.0525363
-11.1613 92.3328 5.2749
7.14101 131.011 -6.12795
12.8278 84.811 -0.886647
12.3702 141.73 -3.86673
14.9896 74.7313 7.28752
7.23685 109.457 9.01742
-1.03671 126.629 -3.78467
5.25591 102.944 5.34797
15.7931 114.68 4.08654
15.6027 127.338 2.64533
17.0331 138.083 2.59426
-1.76109 81.7313 -1.96558
11.1031 101.129 10.4331
-18.4879 126.272 3.49895
23.1982 133.062 -4.67425
3.79764 81.7278 4.97887
-23.2841 123.196 -3.2681
13.9144 126.039 -0.960057
-4.42924 83.9795 -4.33132
4.23036 138.609 0.451955
-7.22422 100.616 4.35813
11.937 142.462 -1.54214
20.3714 138.425 1.45192
14.9334 123.821 5.41613
-13.0794 148.989 0.737447
12.7354 120.322 8.71671
-10.6955 78.6392 -2.31094
8.70662 82.4576 7.59643
14.2103 106.447 9.29532
-0.187702 134.739 -1.80379
23.1013 126.79 -6.50402
12.9932 105.932 -5.59492
8.71062 103.708 10.5129
-0.641925 140.221 -2.02521
-17.2068 122.133 7.70926
-7.57982 95.0153 -11.6531
-8.59279 114.018 -8.3413
0.405529 81.6011 -9.89028
18.3675 90.782 5.57931
13.6093 76.7309 6.61566
-11.1929 98.2151 5.72116
-9.51952 145.075 1.09076
-11.0755 114.651 -9.60017
4.24543 131.453 -4.20856
12.9669 116.492 9.75226
-0.653844 130.94 -2.57749
-24.4219 125.255 3.14091
-7.40483 108.392 -11.3823
16.5897 103.8 1.9862
-6.8943 101.289 -13.7766
-18.2857 132.902 -3.10439
-10.8779 84.8405 -11.484
17.5208 123.499 2.61829
14.5703 110.773 9.15563
15.2768 128.577 -1.89849
22.6831 125.19 2.84809
10.3058 153.964 1.04552
-18.0319 80.4559 -3.47699
2.80962 101.114 -11.6896
-2.96399 127.027 -2.97657
-2.39396 86.5265 -2.83196
-23.4353 112.226 -8.99761
-0.69876 146.024 -2.32162
2.68017 127.712 0.810344
5.77603 103.616 5.23821
-25.5859 124.895 -1.79525
-27.1148 123.505 0.484425
6.85228 115.989 -5.27467
-4.33188 145.52 -3.40157
13.5718 137.265 -4.25785
13.0223 115.522 -1.35953
1.17437 105.96 -11.285
-21.3173 144.189 4.06465
-22.6513 93.5452 -2.08046
8.18877 117.366 3.55678
20.3763 122.787 3.32558
11.6322 146.716 -2.11936
-2.82751 143.215 -0.59728
-25.4109 123.564 -0.000669811
-23.699 87.4803 -4.32753
14.2395 101.852 -5.25246
5.77008 85.8194 6.44049
-15.624 87.7705 -0.145812
-25.2991 96.4579 -8.06111
-19.5511 130.395 -3.73239
-26.8768 138.895 6.23996
16.5325 119.849 1.80471
2.26715 154.062 -1.8666
8.16277 123.294 2.05095
13.0588 123.151 1.85413
-25.2664 102.7 -8.79173
-6.3356 83.0092 0.668004
-12.6663 131.859 -7.45852
-11.179 76.7732 -4.03533
-7.57567 111.8 -9.38948
-12.8525 136.979 1.01123
-21.3595 112.138 3.9712
-8.59659 145.621 -5.4517
-13.8886 128.886 4.57208
-2.76856 103.713 -12.3687
5.6201 78.4526 3.75105
6.07897 110.077 0.650577
16.0938 86.9495 3.00247
14.7724 121.402 -5.33882
-25.6203 114.858 -1.67282
-23.4934 129.057 6.15264
7.65207 114.485 6.49465
15.5333 94.8166 -1.03334
17.755 80.5328 5.89837
-3.72815 142.005 -2.93809
-27.0323 123.646 -0.511513
4.24363 102.625 -11.3847
17.2404 87.1605 7.25005
-14.0227 77.9194 -5.49507
17.7188 106.925 2.32473
-20.0437 124.874 -5.66803
-17.3164 109.182 7.21061
2.19968 106.947 -11.4117
27.0688 125.079 -3.75309
13.9667 112.027 9.44562
-15.9429 140.56 6.02428
14.0326 135.328 -2.8528
10.6032 91.7881 -3.62461
-16.5837 124.737 -6.96328
-17.2695 126.64 -5.08276
8.33455 101.626 10.2924
-13.1281 102.105 -13.5995
14.4554 140.664 -2.64157
-26.7298 126.276 -1.62864
-16.6386 125.477 6.0987
-4.52971 92.0855 -0.440551
-16.2373 127.785 -5.55221
-9.52693 113.935 -8.7815
-18.5772 134.496 5.57754
-23.1485 141.71 3.31406
-26.4105 122.592 -2.36544
4.5094 132.219 -4.9231
13.9626 124.543 -4.62167
-20.765 126.649 -4.46368
-6.46324 108.383 4.33872
15.3886 85.8546 2.04804
-8.75693 139.029 -6.06388
5.00395 77.0835 -9.59374
-23.5782 103.711 -10.6685
4.66418 139.907 -5.06185
-22.4386 137.053 5.93859
-13.096 94.9299 5.64101
13.085 115.062 -1.30182
-7.72707 139.563 -5.95322
-7.17966 108.22 -11.647
11.782 136.556 -6.97702
15.2898 106.491 -4.80887
-13.5598 91.7016 2.27543
-10.3343 125.538 5.8064
24.4618 124.95 -5.127
-3.39284 90.4228 1.50781
21.7207 128.033 -7.98217
11.0815 100.308 -6.22726
15.2305 98.566 8.936
-18.2892 115.99 -10.213
-6.93265 126.733 -3.60141
12.2143 103.989 10.317
2.39218 145.576 -2.59578
-25.4324 113.088 -4.81152
4.12374 107.435 -9.08522
-6.38054 127.072 3.58436
-21.5794 139.205 0.948992
-0.346509 123.274 -5.95811
11.2095 132.349 -7.05396
-2.14929 127.538 -2.82508
12.1789 88.8231 -2.5893
11.8952 124.965 -1.48752
18.1289 127.628 -8.10299
-18.6316 119.744 7.05516
14.9075 125.788 4.90806
4.18694 128.758 -3.00194
-11.8447 106.615 5.47149
4.31204 129.335 -0.221812
-14.864 118.553 7.29754
-25.6764 100.329 -7.48479
-23.24 97.2512 -0.645335
-18.9716 124.821 5.25901
17.4846 106.785 6.17084
-3.06738 123.697 -4.55862
-18.2241 80.1315 -4.54209
6.24654 142.504 0.203084
-0.32938 91.4537 4.04365
15.8272 114.543 3.8392
7.13148 130.493 -0.152201
-12.3231 132.037 3.62301
-5.15757 135.272 -2.87649
24.6407 129.881 -3.20277
-12.6002 79.5083 -1.99711
-15.9473 80.6654 -2.27509
14.1777 113.768 1.60233
-14.592 144.277 -0.446041
15.2914 124.431 1.81078
-4.89128 144.733 -3.72009
3.86765 89.3015 4.84633
-11.1774 120.954 -6.53109
-22.1929 78.877 -5.76169
21.4158 117.703 -1.70866
-5.58489 112.411 5.12153
-23.4944 114.13 -0.0852183
-6.11042 152.739 -2.67999
-10.8485 137.562 -5.84713
-13.8663 94.9874 4.3679
-8.63018 107.108 4.41155
