ply
format ascii 1.0
comment Created by Open3D
element vertex 1900
property double x
property double y
property double z
end_header
-8.73669 110.782 -16.8726
-28.8485 93.7003 -12.6797
-13.3134 136.787 4.62438
-19.1542 121.374 7.69217
-24.3171 125.252 -4.22327
10.137 107.431 -7.91396
5.65596 86.8322 -10.8906
3.71024 127.607 -13.1749
17.5182 119.363 -7.92928
-0.0414815 114.583 -15.8735
-2.49584 124.267 -11.0266
13.0626 134.917 0.775972
-26.2936 126.56 1.74555
13.9406 125.857 -12.7053
-22.9597 129.769 5.88792
-2.53901 109.428 -4.36455
-21.1678 98.6601 -12.1008
-14.2084 116.991 5.02963
-5.75056 119.736 3.99122
-9.41836 112.379 3.03325
-7.40655 137.792 2.32827
-5.98921 79.4265 -10.4047
-23.6585 137.589 -3.76516
2.8449 110.471 -2.0282
9.01497 100.498 3.18404
-37.9047 85.557 -5.50299
8.15537 117.057 4.0098
8.70901 86.0356 -0.551357
-26.7357 124.896 -9.58042
-24.4343 113.663 -13.6187
5.13562 98.0302 -13.6518
-7.76487 120.387 -13.5862
-14.6682 97.4989 -0.764286
-26.2888 132.718 -2.34476
-30.3626 121.267 -5.76006
11.2726 133.712 2.76424
-23.0654 127.038 -0.326462
-13.5985 134.119 5.91158
0.605092 136.806 2.81833
-0.0798336 130.039 -9.19845
7.08444 91.2359 0.878936
-13.5795 122.094 -7.81329
10.713 130.555 -5.84493
13.2054 86.7214 -3.34463
6.8383 90.6961 -10.69
-4.33777 114.145 -0.595592
4.0849 84.4663 -4.26537
-29.3943 130.357 5.25701
-20.7896 101.52 1.66887
-29.6551 109.453 -0.933041
-8.36962 100.277 -4.63036
-23.792 130.857 -5.33153
-1.76813 91.8663 -0.158015
-33.8364 93.5557 -6.41472
11.7618 94.7446 0.717793
-19.1195 132.466 5.85061
12.6842 90.1644 -1.21954
-10.8166 87.9692 -12.1637
2.21379 134.767 0.688483
-32.914 113.833 -9.92124
-10.1862 116.381 4.72051
-13.7374 129.261 -7.15243
-16.5047 119.917 -9.43839
-4.33721 132.338 4.1914
-27.6079 124.164 -9.30074
9.40952 94.8577 -9.27236
-15.5129 94.389 -2.76376
8.99493 83.2693 -1.94291
-12.0747 134.523 -7.12429
-24.296 95.1942 -12.4553
9.32377 86.5466 -9.11326
-13.9438 135.286 -10.1424
-9.58449 126.846 5.82835
-29.0706 130.607 5.20864
19.5971 122.365 -4.80555
-23.3474 129.914 6.28121
-14.654 132.758 -8.6579
-31.8729 89.2012 -8.2178
21.7598 133.422 -4.05539
-29.2227 89.0413 -8.31839
-15.5826 102.329 -11.8415
-23.4119 116.816 3.30171
9.89538 123.069 -8.57886
1.139 86.3398 -5.0264
-30.202 129.094 2.0917
-15.4075 124.944 7.36214
12.6391 110.183 -6.15761
-35.6113 104.875 -11.6382
20.1636 137.858 -4.42296
-17.0155 137.832 -3.0538
12.017 102.796 -6.74062
20.1411 130.293 -2.48624
10.7192 103.732 2.68716
-2.53201 90.0025 -1.99822
2.67201 105.704 -1.55884
2.17517 93.6448 1.29015
14.0491 127.183 -3.54187
18.7412 120.966 -7.16401
10.5495 110.905 3.7774
-21.8646 129.139 4.63868
-20.3212 126.85 5.80275
4.17194 102.862 -15.0967
15.0462 128.104 -9.78363
-21.3367 84.762 -13.6051
-13.7423 113.381 -14.7506
-6.06599 130.688 4.92444
1.65663 122.362 -13.0935
-12.377 138.847 -8.89482
-8.67292 89.4218 -7.33306
0.0433333 100.653 -14.9179
-0.122033 88.5322 -4.19229
12.0032 110.21 -7.51421
-16.1487 135.985 -3.29705
-10.1219 135.574 -5.80181
11.2971 97.7625 -8.02584
12.8314 111.962 -3.17547
-22.3382 99.8051 0.0671015
-5.88454 82.5496 -9.5956
2.85482 137.468 1.64202
-26.2527 124.905 -1.4209
11.9239 121.398 -11.256
-0.98217 80.0291 -9.49643
-26.4324 127.05 2.48402
-17.1993 87.2726 -5.16475
0.643247 81.4733 -7.46531
4.06413 119.202 -1.90182
-28.2325 126.795 1.11225
13.5518 121.968 -11.6061
-16.6993 129.711 7.30811
2.00612 101.087 -14.4334
9.52403 79.5093 -7.77156
12.0223 134.338 1.36308
19.0035 131.128 -8.11603
10.8313 131.848 -8.23502
-38.5913 88.7774 -5.69989
-18.1318 133.364 -9.5734
-7.89721 102.234 -15.853
-25.5846 96.6321 -4.02815
-25.8701 114.605 1.02641
9.90634 112.854 -9.57076
13.1773 123.851 -5.23638
-2.10431 80.2491 -10.4204
13.1881 134.847 0.710731
15.8974 136.969 0.182361
10.1257 122.496 -7.77141
7.34218 119.544 -9.24569
0.466089 115.178 -3.46588
-13.6797 97.8208 -12.3173
20.8722 131.387 -5.43526
-15.271 99.414 -11.8389
-2.1089 116.607 -2.78601
-8.49458 79.7498 -10.8409
-22.0944 117.117 5.83128
-21.332 137.515 6.00941
15.9489 134.774 -0.817885
16.3448 123.108 -4.22085
-24.111 121.215 3.71991
13.1538 120.354 -10.6515
-17.7437 126.81 -7.52805
6.52952 99.4425 2.62007
-33.5035 111.808 -9.22657
9.60797 133.906 -5.51616
-11.7004 87.1012 -10.104
-2.98813 120.134 0.717635
10.5076 82.8798 -2.63499
-21.4469 95.515 -0.935416
-23.3341 126.872 -0.999015
10.7845 78.791 -7.48529
-23.3104 95.266 -3.50951
-25.4058 105.842 -14.0845
-33.4934 104.534 -4.52652
-23.5779 127.714 -1.04002
13.7568 138.316 0.980238
8.78414 117.086 -8.6903
12.3987 117.019 -5.04374
-16.3997 92.9211 -11.4435
5.74273 112.896 1.27206
-39.2155 94.9265 -11.3225
-9.79709 131.235 -5.23192
-11.7532 80.3555 -12.0998
11.9924 121.56 -10.7309
-14.1646 87.7085 -9.04187
9.32496 112.15 4.26066
9.96694 130.516 -9.80311
-25.2095 127.001 -2.94463
-28.7764 124.482 3.53798
-4.76177 106.346 -17.092
-0.129155 94.6018 -13.6467
-36.6183 97.5418 -12.1793
-28.1849 122.441 -5.43967
0.914445 84.6254 -5.97914
-1.67243 135.17 -7.44057
-28.7983 99.1982 -3.74571
20.064 121.584 -4.59665
-12.6145 97.8935 -2.37113
-20.1909 136.738 -5.29641
19.2381 126.367 -4.00393
-33.63 100.195 -5.40691
-14.8581 110.718 2.81575
12.3489 118.408 2.44358
-22.6319 125.887 -4.87464
-4.01548 89.9018 -13.6937
-26.0118 103.885 0.617428
-15.762 85.4312 -10.9605
-14.0285 121.897 -7.93552
11.9755 134.19 -8.75219
10.1314 94.9017 -8.77852
-23.1316 113.488 -13.9484
9.87762 125.515 -8.89931
-11.8085 110.122 2.54413
-32.6613 96.2014 -7.6401
-1.92967 110.865 -15.862
4.04627 109.451 -0.77066
-22.9438 95.4018 -3.1162
13.1973 87.1471 -4.07773
-17.7185 82.7367 -13.6537
10.3059 135.671 -8.98753
10.0221 95.068 1.63955
-33.7112 90.3775 -10.5688
13.4875 82.7629 -4.25888
7.68971 111.345 -12.8638
-18.0438 133.56 -1.63761
-19.6653 132.105 -3.24685
-3.13617 83.4043 -11.4284
5.19711 139.379 -0.590027
-31.7228 128.655 4.67835
-4.30032 124.047 -11.9809
8.56394 130.53 2.68363
11.1518 77.9025 -7.31071
-12.0186 138.285 -9.76259
-9.29509 105.275 -0.283934
11.511 77.0299 -6.43734
-3.51698 120.911 -13.3594
4.23021 113.92 -1.17583
2.60402 82.3313 -5.93381
-3.41738 91.5907 -14.1306
-30.6711 130.777 0.143997
1.23949 128.738 -0.396171
-23.4757 126.506 -2.22669
-18.5092 108.215 2.31276
1.80726 79.9624 -10.04
-25.5812 127.801 -1.2749
-6.60363 109.738 0.291437
12.6534 122.196 -6.50128
-34.8982 103.979 -8.12458
12.2349 100.1 -6.81483
-6.58958 125.018 -11.697
-29.3594 127.185 2.22255
10.7279 122.363 -15.5358
9.21329 137.558 0.410679
-11.8976 120.924 6.12561
-12.748 125.243 7.14194
12.2153 119.354 2.6971
-32.2345 126.628 0.278155
-28.0159 102.944 -1.28122
-17.3181 84.5592 -13.5743
-27.983 87.7487 -6.15969
-7.71176 107.922 0.36821
6.49883 88.8913 -10.7415
-21.8696 106.159 -13.0579
4.04815 92.8562 -12.6159
4.29475 101.506 2.25912
-14.9453 127.827 6.97319
-36.5097 95.6179 -7.76902
8.76492 126.805 -8.07955
-10.0128 98.4722 -15.1693
4.36125 134.693 -0.0544654
-24.3618 125.807 -2.74037
-26.4274 135.797 1.77127
-26.5977 105.436 1.06655
5.91036 116.876 1.39702
18.5701 138.49 -6.03532
-0.413707 108.796 -3.95355
-28.5186 133.273 -0.825366
15.2892 120.478 -11.5653
3.98143 90.1157 -1.13082
-20.1145 129.322 4.50546
-20.3439 93.3518 -10.0382
-23.0475 126.798 5.51209
-12.343 137.701 -9.69791
-32.3571 110.872 -5.49364
-20.86 135.31 -5.12336
-13.3422 138.137 -8.74425
-18.1076 125.101 -8.1645
-14.7453 106.689 1.32331
-28.4182 128.765 5.15585
-21.7523 130.734 -7.7007
6.55357 126.004 -13.8322
-10.165 111.64 -15.6571
8.36505 128.299 -9.68745
-15.827 129.241 -8.17435
-2.78326 83.3524 -11.4988
2.83223 90.5555 -1.36765
-38.4435 99.0536 -9.43374
-24.435 87.3677 -6.37021
-21.2745 96.3904 -11.042
11.2275 128.882 -6.79356
11.1879 129.749 -7.27622
12.9373 120.146 -6.9602
20.455 128.073 -7.89279
-30.1993 108.09 -13.9206
17.5329 118.84 -8.36686
14.5119 128.751 -9.73089
-22.7095 124.864 -1.58951
6.79864 101.885 -11.8121
4.72432 84.6766 -10.5221
-2.30297 88.2921 -4.06718
-35.1032 93.1212 -7.10536
-29.6407 126.878 4.39025
10.3635 125.285 -4.78566
1.71453 81.5237 -10.5583
-14.5411 100.723 -12.0642
-33.6927 111.425 -9.36936
-22.812 125.44 -5.08386
6.81993 85.6073 -0.933189
19.3264 121.63 -6.49086
-20.5038 131.498 -5.09445
10.0986 86.067 -0.576812
-1.61948 89.9863 -12.5441
-16.1536 87.0853 -5.53029
-25.1283 88.3239 -10.2779
-23.5494 127.414 -6.18835
-2.0663 108.781 -4.37824
19.6317 130.794 -1.99033
-0.212456 78.9528 -9.76864
12.5767 122.877 -4.85476
-7.75905 91.727 -14.3463
3.6802 124.956 -13.9932
19.6432 130.684 -8.92193
7.23092 127.352 -6.54594
-28.6922 93.0048 -6.08771
-30.9616 131.171 3.01739
11.9356 80.0494 -6.94438
0.430422 97.1781 -14.0225
-17.2762 112.073 -13.4982
-27.4094 119.645 -2.14587
-16.7954 87.0367 -11.2286
-2.84607 93.9476 -14.2545
-1.87494 104.421 -4.47089
5.0695 110.848 -14.9891
9.78724 113.473 -8.26489
-11.5098 89.5739 -7.48273
-14.2492 86.8856 -11.8966
-31.4186 113.254 -6.38111
-32.1291 128.81 3.63086
-28.7571 114.745 -4.19441
11.9114 121.782 -11.8085
-6.21544 81.0606 -10.5023
-24.3759 131.217 -5.11619
-13.8948 135.342 5.63525
16.195 132.724 -8.84728
0.515495 127.536 -11.3504
10.0967 83.2748 -3.01621
5.07943 131.021 -1.95918
-21.9653 94.8221 -10.867
12.2288 111.782 -5.22009
-30.6201 125.038 1.97936
-22.5298 129.452 -3.73243
-38.9362 93.7423 -7.9995
8.75182 98.9804 -10.5327
20.2955 123.895 -4.08155
-21.409 138.308 -4.2743
-30.0351 101.623 -3.1133
-33.1884 98.0312 -12.4702
10.2056 112.082 -10.1898
-6.85312 107.945 -0.665175
-6.05887 97.5444 -5.26066
6.00403 81.3516 -9.34156
8.83891 83.5519 -1.31767
-39.5123 89.396 -8.87617
0.215552 123.296 -1.93277
-8.29232 90.563 -5.41353
7.06817 126.036 -0.132548
-33.196 96.9985 -7.37598
6.42449 90.8175 -10.9806
-33.8446 110.24 -8.28771
-17.2118 119.117 -10.1422
-35.045 91.5759 -12.6113
-4.20766 102.372 -4.19184
-11.0459 86.6446 -10.6283
13.1444 123.658 -15.3203
-5.761 110.312 -0.866611
-37.0312 88.0623 -5.54105
-25.7539 110.311 2.31212
19.2731 126.06 -6.54439
21.4108 134.556 -5.56763
13.3798 132.821 -0.219515
-6.19648 130.097 -7.25093
-25.614 127.995 3.87966
-14.5655 99.6413 -0.00713371
11.1154 129.552 -5.73186
-10.1546 90.1896 -5.99611
-0.183882 116.4 -15.3714
-35.0343 92.9144 -13.2112
-28.3406 129.245 -3.36703
-23.0283 88.6663 -9.6702
16.6176 137.129 -7.71383
-6.32091 86.1842 -7.7573
-22.4807 106.684 -13.1571
-38.5405 89.2037 -9.32801
-18.5289 98.7001 -10.7269
1.46213 138.412 -7.33007
-4.71493 117.387 -13.704
-4.79627 135.83 -4.20245
-12.7648 115.63 -14.301
-24.504 124.679 3.28022
16.176 124.019 -3.00117
-8.3634 109.445 1.40213
-4.73089 87.3212 -4.8601
-14.9691 109.449 2.41064
-3.6426 82.8715 -11.2972
-25.0768 108.162 2.82199
15.775 129.273 -9.79764
-14.4701 82.5274 -13.9451
-19.6399 107.466 2.63551
-38.2093 95.7897 -9.2749
19.1568 139.014 0.0685001
3.81543 123.279 -2.16587
-16.2229 131.374 -9.18243
-0.0851944 114.53 -3.6426
-22.982 130.834 -5.05432
7.74774 130.387 0.288775
3.48295 95.727 -13.2419
8.19344 137.884 -0.355514
-25.2193 94.95 -12.59
-16.3237 113.538 3.92983
-21.3738 99.4771 0.985149
5.05741 133.474 -1.06063
12.1637 101.647 0.789387
-30.5297 119.867 -6.45325
-27.9631 123.654 -9.24727
19.3999 129.071 -12.2054
-20.8282 112.426 5.14759
5.92097 113.758 -14.6129
20.4207 123.419 -10.6094
-17.3082 99.8602 -10.9751
-23.1464 125.498 -5.04259
-8.73956 95.2096 -5.79597
13.4477 126.085 -4.68204
-10.7374 133.93 4.42088
11.6259 80.1257 -3.65601
-37.1388 101.123 -9.35002
-10.5465 102.597 -13.9594
9.88408 123.635 -9.58386
-13.7686 102.573 0.385227
9.75032 122.906 -9.08693
13.2414 97.677 -3.40621
13.1527 99.1019 -3.88136
6.23443 118.111 1.62803
-3.7533 95.749 -3.98229
8.1284 127.256 -8.63699
-3.53037 96.1248 -13.9972
-5.97683 93.4753 -4.74816
-23.9111 95.9703 -3.56535
-3.933 102.919 -16.7589
-21.5117 137.382 -5.27855
-3.10152 105.604 -16.8427
13.2294 89.8358 -5.42882
6.55313 116.381 -14.8823
9.26402 77.9454 -7.9107
18.0141 130.679 -8.62363
15.0095 134.272 -8.7552
-3.63472 83.9067 -8.35651
14.4384 137.579 0.827064
-18.6404 132.644 6.14202
8.08972 86.2041 -0.473476
-23.5601 109.992 3.96916
-30.2293 125.317 3.32184
-23.5308 127.397 -2.41023
18.7042 128.602 -12.5482
-27.6877 102.306 -1.68099
-20.6121 130.049 -2.83444
13.612 126.779 -11.7607
-19.7449 131.524 -8.5456
10.0759 104.841 3.2242
10.9995 94.6644 1.34246
-23.0831 125.273 -3.43118
-18.7406 99.9109 -11.2312
-3.43573 130.926 -9.18279
-11.7179 107.888 1.38023
-18.7623 117.003 -11.9263
11.3605 136.964 2.93627
-15.7361 105.74 0.992487
-3.84777 99.0537 -15.2445
-17.5971 108.993 -14.8802
-24.1303 132.379 6.47635
14.5538 135.905 0.648958
14.382 127.883 -10.1297
-1.60902 80.6563 -9.34786
-18.3459 136.283 -4.35124
8.85277 124.678 -9.55079
-31.6748 112.908 -10.9039
11.9305 116.714 -2.66544
7.38356 74.4329 -8.61925
-21.8908 127.099 -3.80887
7.40656 81.3059 -8.90088
0.219665 130.807 2.15973
2.33897 107.863 -15.8482
15.0989 132.687 -8.8677
10.2095 124.002 -4.36537
-19.4116 116.497 -12.4196
-0.924339 87.4209 -12.4353
-5.4974 121.923 -12.7014
7.91842 114.896 -13.8635
-15.5995 106.758 -14.7737
-18.0375 83.9656 -11.6269
-5.08048 96.8076 -5.04938
16.8891 127.071 -14.8297
-14.498 113.174 -14.152
-16.4061 114.158 4.3555
13.8664 119.955 -6.25667
16.2411 119.802 -7.96998
10.1146 126.829 3.36372
11.1357 81.0788 -2.35768
14.1043 126.18 -4.19032
-38.0158 90.4836 -5.85634
-3.87277 114.778 -1.22167
5.73317 77.2894 -9.11669
18.3376 128.247 -12.9363
-25.2708 133.427 -3.04974
3.93691 79.1725 -6.96484
-7.30787 132.761 -4.59425
-3.89471 89.5699 -13.3868
8.97117 121.454 -12.7729
-22.1637 126.746 -2.65549
-33.9859 109.78 -10.4397
-17.4388 100.272 0.748477
-27.652 120.631 -2.30045
10.1078 122.144 -6.86953
11.8673 87.0712 -0.699172
-0.433506 139.179 -4.51689
-11.9203 93.9057 -13.9844
11.997 95.1554 0.2371
10.1028 97.7416 -9.55433
-0.616561 131.274 2.74168
-34.6012 90.8257 -11.7031
-17.9926 132.637 -3.64786
1.07562 82.4121 -10.6353
-22.6398 135.833 -4.74947
-13.353 100.523 -12.43
-5.14203 133.283 3.67738
-28.5353 114.537 -3.37734
9.62425 113.958 -7.34672
-2.25289 85.5647 -7.15522
20.1736 122.098 -4.8051
-8.91955 122.288 4.70991
-10.1551 117.288 4.98459
-21.0871 87.8737 -4.88472
-12.0058 133.173 4.67598
-14.0352 111.003 -15.6739
-19.9976 135.477 -4.82148
8.49517 115.633 -8.5708
11.6359 111.833 3.01767
12.1697 130.345 0.470981
-13.0186 99.7519 -0.578589
-17.6815 89.843 -3.46492
-1.95819 93.509 -0.0656871
12.1493 82.3109 -3.72594
4.05264 94.1689 1.04502
-18.0948 115.057 -12.3791
3.84094 112.362 -1.35615
-22.8159 122.995 -10.5287
-17.1262 96.4518 -10.7594
11.6697 118.341 -8.12777
-34.0147 110.129 -9.23699
-8.053 118.737 4.18785
-32.9843 90.5706 -11.4101
-21.7727 92.0414 -2.68926
-17.3732 120.612 -9.69746
13.5878 137.792 -7.18204
-1.90019 95.4285 -0.504896
3.19005 95.8138 -13.3186
17.0357 118.347 -9.25774
21.0229 135.293 -4.82226
-32.8234 95.4992 -12.9123
-23.8683 92.3336 -4.00385
12.3049 100.589 0.50065
9.88443 99.5547 2.64241
-34.9739 89.1804 -11.0812
-22.6668 130.038 -7.68431
-20.8184 129.078 -9.27087
-32.3997 91.5679 -5.01758
-30.1374 114.608 -6.18638
8.4135 114.47 -9.1622
-32.4967 96.6233 -7.13983
11.6463 135.547 1.77638
17.9294 119.213 -7.92015
10.9038 121.856 2.72743
-24.6861 88.8918 -9.40737
13.0771 118.621 -6.956
-36.1941 88.8631 -9.09874
-3.99311 90.4141 -1.79292
-4.97566 96.9647 -14.7272
11.9544 96.7653 0.949594
-12.3715 112.241 3.16857
7.9286 114.664 -10.9718
-31.7239 113.235 -8.10693
-26.2329 88.4041 -9.30988
-28.9064 122.425 -9.04707
-7.87915 86.3155 -7.93235
9.94716 121.897 -15.2847
12.1977 78.1165 -4.26882
8.98555 137.692 -9.34501
-8.12773 90.1234 -13.4477
-18.1962 134.682 -2.62943
3.00593 96.7298 1.84757
18.167 120.026 -6.81007
-12.6773 92.1258 -13.0108
-15.2908 124.057 6.93883
-7.67523 102.342 -4.39484
-13.1799 112.879 -15.5321
-28.1495 128.569 5.22838
-10.4982 128.583 -5.41154
-10.2584 136.055 -6.11619
-31.8485 92.5264 -12.7226
11.1081 90.8158 -8.03207
-4.66723 118.054 -13.6826
-29.9949 88.4679 -8.33956
-13.8627 135.094 5.48557
-8.03426 93.8136 -5.81428
7.51681 109.261 -12.8464
6.08425 79.236 -5.69731
8.2797 117.584 4.05595
9.09405 110.904 4.08736
8.40801 114.675 -8.57104
11.1526 130.489 -7.52353
-19.6587 91.7657 -1.41052
-8.13857 92.4669 -3.66262
2.68776 110.263 -15.6704
11.3788 124.146 -4.9814
8.68015 129.148 -8.32545
-8.22877 83.1818 -12.3958
0.768307 124.094 -12.2349
-29.1348 106.638 -0.368861
-8.49886 89.9915 -13.2644
-28.8804 122.112 -6.25043
-12.9785 125.712 7.34248
-9.02272 84.9955 -12.9575
-21.153 130.171 -4.61148
-21.8172 105.676 2.91694
-17.4043 134.227 -6.50724
-4.19013 104.331 -16.9175
10.2531 132.243 -8.48162
-13.698 82.6809 -13.6058
-0.224881 122.992 -1.57675
-10.5465 100.188 -14.2975
7.5482 120.031 -12.2395
11.3336 97.2313 -8.1805
-12.3941 128.71 6.64755
10.8005 139.352 -3.61818
12.3698 122.292 -12.0392
7.21259 126.402 -11.2738
9.21092 124.306 -9.41668
10.8859 109.374 2.99482
-27.7099 112.866 -12.8902
-0.0771163 122.314 -12.4534
2.4477 82.576 -10.4782
5.14834 91.4912 0.964645
-33.6786 99.5938 -5.73554
-13.2735 115.56 -14.0017
-8.32678 106.544 -15.6843
5.26348 103.99 -14.6682
-35.5007 102.695 -8.70945
-20.1006 112.93 -13.0964
-28.516 123.753 -1.12296
-6.91223 118.798 -13.9183
-12.5731 80.8257 -12.2638
-7.21771 101.827 -16.3087
-8.68506 98.4489 -15.5235
8.36061 128.088 -9.74222
1.1242 139.461 -6.56813
-22.8447 124.804 -9.91021
9.27365 120.698 -9.55028
7.53473 125.831 -7.57296
-26.4222 119.48 -12.2912
-15.9972 110.785 2.7471
11.2837 127.411 -6.10479
-22.9524 97.2478 -1.54268
-27.0086 123.118 0.10812
-34.0323 87.1083 -6.75892
2.64418 90.6128 -13.0607
19.128 128.696 -2.80061
6.48159 139.931 -7.91624
-23.7858 133.641 -3.98687
-22.3322 85.3346 -13.8163
-10.2456 100.217 -14.5466
-5.8811 96.1461 -14.4576
14.0978 125.549 -3.87329
-22.6698 129.884 5.90217
-14.2931 95.2061 -12.124
12.7225 126.856 -2.32547
-24.4707 94.2102 -4.46291
15.7092 126.164 -13.6695
-34.3293 107.386 -6.95771
-10.7814 136.161 -7.0703
10.7156 125.47 -5.52759
-28.4294 107.862 -14.2624
-15.932 108.513 -15.1363
-17.7156 120.971 -9.82414
7.39017 128.066 -5.41417
-5.70505 88.5026 -4.76177
-5.80751 122.568 4.20415
-4.08392 132.273 -7.75622
18.369 129.787 -2.18806
10.9504 110.115 3.23892
2.98737 136.622 1.04615
-23.8738 119.026 1.48287
7.17068 81.6982 -2.44864
-7.92165 130.759 -5.58848
-7.54122 103.897 -3.06255
13.8736 123.966 -4.23351
3.11375 101.236 1.56902
-0.430507 120.087 -2.70239
8.55969 114.105 -9.91375
-35.26 105.965 -8.9242
2.69903 135.998 0.991947
-11.4503 86.4632 -11.0765
20.4021 139.514 -1.91287
-25.6859 129.123 4.95218
20.7433 130.407 -10.2829
4.09605 77.7604 -9.49499
11.5648 122.26 -5.1934
10.2037 136.937 2.14501
20.5819 129.153 -6.81825
-16.7769 109.832 -15.8269
-27.5786 116.538 -12.8455
-25.5988 132.507 5.98254
-25.8142 126.32 -9.07862
2.31808 86.6199 -11.5591
-0.0963408 138.013 2.83362
11.7748 135.375 -6.78721
19.7856 123.953 -5.96738
-4.8094 110.771 -15.427
-23.3462 93.0534 -3.46019
-5.50666 80.836 -10.3308
11.1343 116.11 3.66641
-19.9785 132.189 -8.58095
-31.2851 104.211 -13.8614
14.131 109.315 -2.16608
8.81996 129.241 -5.44252
-33.2402 91.7342 -4.79046
8.57974 99.6021 -10.4033
-27.8749 90.8518 -4.22683
9.27568 113.068 -10.52
-33.7482 108.697 -12.2862
21.2638 125.131 -10.8681
-12.8168 113.284 -15.4242
7.94398 135.389 -10.087
7.65921 96.2868 2.43462
-4.59717 96.9818 -4.87203
12.3528 110.098 -6.98727
-7.07037 137.754 2.4511
-36.6325 89.3242 -5.25512
19.5871 126.791 -7.22639
10.8799 122.449 2.16896
0.517335 98.5682 0.629686
10.4192 123.899 1.99391
10.6497 111.753 -9.77802
10.7083 132.737 -8.55966
8.98971 127.62 -6.79123
-3.25256 118.52 0.196013
-14.1972 121.883 6.07804
-23.9921 128.312 -0.686978
14.0319 128.111 -2.75429
-9.75512 132.476 4.07226
-20.5744 97.1956 -10.899
-22.8435 123.875 -10.109
19.8501 121.654 -5.33427
-33.7534 90.204 -5.03785
13.2576 107.284 -3.44944
12.2354 115.949 2.95438
-7.01445 122.458 3.95294
-2.89953 118.316 -0.804006
-4.20884 135.507 3.54682
-30.121 127.926 4.29785
-15.7397 109.63 -16.0096
-5.49692 99.4639 -4.89692
10.9296 125.743 -13.7847
1.6247 106.591 -16.0161
-7.58752 91.3589 -4.70653
-26.6804 123.942 1.70723
6.72401 136.35 -0.984367
-8.47112 126.435 -8.43174
-1.09754 90.0364 -12.5446
9.9752 102.713 3.11841
-30.0975 128.61 4.56439
-12.1671 89.1663 -7.72563
-4.79064 118.601 2.59812
-12.5502 95.1561 -4.03415
-21.7548 126.21 6.2329
-21.4845 88.6603 -4.30065
-13.8596 130.204 6.46808
18.8277 122.507 -6.24078
-33.8358 103.821 -5.32154
-15.0602 111.43 3.00104
-25.5617 134.001 3.17
-2.17756 123.037 1.02109
-0.596879 126.824 -10.5547
14.977 130.696 -0.952008
-7.87123 111.973 2.32615
12.5847 85.2719 -2.61631
-17.8269 123.65 -8.80283
7.03516 89.7895 -10.4506
1.42727 132.629 1.65533
-4.83319 102.478 -16.687
-15.1388 131.17 -7.99135
-32.1174 88.6232 -8.53526
1.20252 89.9086 -2.61369
-6.71566 120.775 3.93717
-22.1215 121.801 -11.42
-13.3606 116.422 4.94136
-4.10366 125.685 3.96326
-21.8207 130.765 -7.54742
-23.286 111.392 4.45983
-11.1261 83.7665 -12.5502
12.1988 119.049 -0.18299
2.02434 120.013 -13.8714
-16.6305 119.948 6.01596
-7.41046 81.7487 -11.2981
-28.3031 96.3988 -5.59088
18.7325 127.134 -1.97448
-26.5233 108.225 -14.3426
20.9305 139.389 -2.5017
1.46268 127.833 -1.27777
-21.8759 120.745 6.5072
-37.3264 88.8103 -9.78686
-7.00459 91.4714 -14.4138
-9.03821 121.431 -12.9814
-2.31452 84.4415 -8.073
-22.3802 125.308 -5.10117
3.92758 120.98 -1.95588
0.272928 84.7007 -11.6281
-1.99493 128.975 -9.25118
-31.3478 101.103 -4.21645
-19.9114 86.7145 -10.7127
13.0331 100.953 -2.70558
-27.1675 126.765 0.772603
-29.8227 87.9573 -9.71033
-23.8741 110.907 -13.181
18.4041 137.485 -6.64007
-12.3379 102.682 -12.9267
-24.0208 127.038 -3.40839
-9.91676 131.284 4.6145
10.6104 88.8743 -8.37228
-0.777451 98.3099 -14.0925
-27.0639 87.1925 -11.3584
-38.1821 87.5618 -5.47619
-24.1265 97.588 -2.79639
-30.8484 91.3892 -10.0027
5.46395 132.45 -1.76083
-30.7293 91.7965 -4.75911
1.02984 78.158 -9.69843
12.9638 129.881 -9.382
-25.996 126.281 -1.28841
12.254 81.2105 -4.19077
1.09501 125.235 -1.89278
-15.7689 109.917 2.56571
6.67647 120.808 -14.4377
-13.8125 95.7189 -2.80547
-17.1267 101.582 -11.229
-5.22837 105.906 -17.0884
9.59951 135.195 2.36728
-15.0797 127.966 -7.23008
-8.06844 84.7099 -12.8521
-22.4324 126.586 -5.44141
-23.2877 85.6258 -13.2565
17.5045 124.679 -2.3704
0.693342 97.2327 -14.0201
-9.94877 96.0448 -5.3567
13.6243 136.14 -8.23288
-0.969235 91.0235 -1.15191
11.4685 131.548 -7.48354
-14.0117 119.641 6.12417
8.62939 129.78 3.49363
1.47529 117 -3.11692
5.17725 118.423 -0.323479
-4.77393 125.564 -11.4263
-8.17538 80.9434 -11.2205
-13.6852 134.185 6.18622
6.69983 94.7377 -11.4097
-3.63014 83.8939 -11.338
-8.63514 87.4056 -12.8999
-5.46605 100.465 -4.54595
17.5988 134.238 -1.11924
18.4249 126.604 -15.1325
-0.908036 88.2004 -4.47704
11.8139 110.707 -8.35045
-34.8676 107.27 -9.17601
7.62639 106.167 -11.8751
-15.457 136.641 6.14713
-35.6443 102.366 -8.97602
10.1871 111.002 3.93204
9.2049 91.776 1.21543
11.5586 76.9498 -5.85342
-14.8833 87.9404 -5.30481
-31.7649 93.5128 -13.0675
-7.72784 133.264 3.69723
6.75402 94.1774 -11.0392
-29.2057 121.971 -5.9997
-9.27797 128.122 -6.28243
-2.96602 84.9527 -11.635
11.7371 78.2829 -3.40392
-6.40536 111.511 -16.1076
-9.38869 87.2341 -8.46692
3.47764 117.456 -15.3659
13.5804 102.037 -1.67685
-26.4543 132.254 4.01272
-15.366 101.86 0.641101
-16.2672 133.806 -9.86139
-0.435684 130.054 2.42913
-24.4371 129.741 4.12516
-15.1872 136.478 -4.77824
10.7742 80.4632 -7.18678
7.35492 127.696 -5.9769
-26.4914 125.942 -2.204
12.8968 107.505 -4.30113
1.88788 88.7507 -3.3187
1.05586 100.338 -0.783426
6.83902 121.977 -10.8975
-7.49158 113.334 -15.8594
12.1705 135.724 -7.51867
-6.52909 112.35 -15.7861
-27.1423 125.232 -0.715824
-13.3799 135.988 -9.14386
-8.84181 112.063 -16.2258
8.6665 110.119 4.10269
-25.2013 113.828 3.00928
12.7497 117.297 2.09866
-26.7008 96.5168 -13.6166
9.64689 99.1617 -9.26812
-21.7873 101.177 -11.9245
-27.6098 128.419 1.3635
-11.842 111.165 -15.4564
-39.6733 89.6069 -8.82308
5.20969 121.159 -1.03004
-25.9582 100.315 -2.10617
-37.6611 86.0001 -7.35383
14.0882 122.525 -4.2423
-6.04397 135.659 -4.17298
-4.51994 107.533 -16.5033
-3.27306 129.04 4.37078
14.9364 125.36 -13.1853
-28.5065 108.879 0.201166
16.0317 131.368 -1.50406
-4.04676 95.2307 -14.1277
17.8963 131.14 -1.64447
-6.86366 119.822 -13.6481
-19.4239 134.611 6.03198
-24.3363 122.865 4.33401
-3.35797 100.178 -15.7162
-19.8484 131.125 -4.79291
-6.65104 98.502 -15.6519
-21.5729 117.555 6.18915
-4.53236 125.027 -11.6461
4.06178 83.8727 -4.58726
-20.2297 131.141 -9.04149
4.04459 83.2472 -4.82237
8.26809 129.094 -8.18591
-4.21997 118.316 -13.8824
-40.3363 86.6623 -6.56414
-31.9226 111.694 -6.72189
-25.2453 115.972 -12.1568
-9.65191 87.3173 -8.76096
-21.8851 126.938 -3.98834
-0.577418 89.5576 -12.5642
2.99472 87.0521 -11.5265
-25.1171 136 -2.29653
-5.4073 110.441 -1.49151
-20.1377 132.091 5.24103
-27.7644 103.28 -0.904484
15.5844 123.927 -3.10765
-0.853421 106.1 -4.01168
-16.3701 103.227 0.919792
7.54795 101.262 3.32121
-9.65123 87.8282 -8.52551
9.79785 128.855 -5.689
-23.1481 98.1453 -1.39543
10.8545 132.85 -8.3898
14.0166 128.978 -9.6383
21.6233 134.286 -3.53446
-6.01611 121.931 -12.7714
0.218308 118.513 -14.4487
-21.7899 94.9126 -10.833
7.38519 92.7561 -10.2591
12.085 117.549 -3.81849
-25.6677 132.632 -2.82912
-29.3687 89.2413 -8.3432
7.05333 116.671 -13.5737
-1.55897 134.66 -7.84
20.4552 123.407 -10.1366
-3.68174 93.7418 -14.3536
8.68886 126.844 -11.3537
-1.4251 98.2661 -2.74315
0.970197 80.9046 -10.4779
20.1074 133.403 -6.60842
-8.33843 129.611 -5.98409
-15.3603 94.2482 -2.9111
-27.6816 123.009 -0.39185
16.7628 119.77 -7.8132
-17.962 133.234 -9.64054
14.5223 124.829 -14.4771
-15.4373 109.569 2.4485
8.807 139.356 -7.47606
11.9963 115.145 -5.3337
-24.3515 126.915 -7.40351
-15.1334 91.3945 -11.7338
-13.3709 105.604 1.00823
-12.3257 99.0361 -1.97619
7.75659 89.9079 1.03709
10.2109 128.858 -9.90189
-5.15633 103.581 -4.73214
-32.2368 97.121 -12.6306
1.30747 103.851 -2.18662
-10.8996 137.078 -8.28549
-10.0067 91.5252 -6.07638
-7.05556 115.901 3.43923
12.1398 77.0229 -4.64947
-27.0249 122.658 0.52521
4.73744 128.646 -1.93628
9.86831 121.622 -15.3134
-24.35 126.234 -2.64557
-7.71737 82.6403 -9.99625
-33.0062 90.0948 -9.12948
14.2151 125.778 -3.20947
-21.5776 116.195 6.26975
-25.2872 86.7385 -9.93347
-2.89337 126.731 3.67399
-18.4241 89.8881 -10.2492
-1.87729 132.258 -8.16913
1.03034 132.956 -9.6316
-1.15423 124.27 0.269183
4.98873 96.986 -13.384
-33.7743 107.512 -5.60181
2.2959 92.4118 0.357768
-30.7189 109.155 -13.3656
-23.6906 86.8584 -9.27636
-10.4019 101.849 -14.151
-18.6227 123.924 -9.17062
-30.3346 120.658 -5.22665
7.29522 118.722 -10.6429
-16.1673 121.745 6.30206
7.31165 123.726 -10.487
5.22113 106.81 1.4233
7.63375 107.292 -11.8148
-6.86719 82.8492 -9.62699
6.16461 74.567 -8.97992
-7.68681 81.5548 -11.3352
-22.1771 129.991 -6.89032
1.06894 95.8619 1.02829
5.57964 107.607 -14.6526
-22.1364 95.8276 -1.5702
12.1217 119.077 0.0665891
12.8252 99.2658 -6.41735
18.9968 128.537 -2.83367
-23.475 127.5 -2.07649
7.13363 124.721 0.512817
-2.00134 91.6724 -13.5835
11.6534 122.101 -9.51153
-23.8132 106.271 -13.7735
-19.1374 132.55 6.2303
7.0204 80.0735 -9.05823
-27.5055 128.808 5.04034
-35.8731 86.2452 -7.57621
-20.9716 91.0805 -9.46745
-17.6125 133.256 -9.06402
-39.7846 86.8026 -7.61938
-2.02139 135.76 -6.27308
-20.235 97.1033 -10.7108
5.72813 117.642 0.931746
-3.23117 125.286 3.45632
-24.5125 125.12 -3.96321
-18.3259 134.394 -2.18755
13.0547 91.7094 -1.8238
-0.426775 132.96 3.41422
-25.6406 106.984 -14.2041
10.6094 127.136 2.79
-32.3832 127.486 4.17167
6.86739 124.695 -11.4438
7.24543 86.3095 -0.496879
0.268833 76.8396 -10.2319
11.2001 133.725 2.79966
-13.8853 129.548 -7.25876
-28.1082 88.2583 -12.9607
-5.92276 105.752 -2.98033
19.2269 125.638 -14.6302
11.006 112.857 -4.63319
-37.9115 88.4708 -9.55796
6.91986 120.81 -10.163
18.5287 131.541 -1.58698
-6.70864 129.986 -6.90447
5.6655 75.6071 -9.16214
-33.0158 89.0314 -8.43463
6.95887 106.07 3.58932
11.7453 113.188 -3.52931
-25.7657 131.683 -3.45969
10.5881 124.442 -4.80713
-25.6289 86.9868 -8.91899
4.52756 103.622 1.54953
-3.19577 135.845 3.50624
21.3374 128.21 -10.1913
-21.9108 135.147 -5.47909
-6.87293 109.776 -16.8268
9.23848 123.351 -14.6101
-1.7788 102.558 -4.37844
-2.2894 106.445 -4.54257
11.0837 129.777 -5.70098
13.3591 108.608 -3.93664
-17.3274 107.605 1.79348
-0.503693 129.338 -9.18646
-7.64176 84.1601 -9.02652
-30.4407 119.597 -5.93928
8.45442 131.568 -6.27079
13.9765 123.246 -5.46922
-6.5212 111.612 -16.1248
12.4078 117.754 1.32456
11.2753 132.308 -9.65344
3.2413 119.104 -14.3605
-23.3848 96.3293 -2.91847
2.33626 105.705 -1.81814
-33.652 95.78 -8.09712
-23.6809 134.687 -3.92951
-2.75239 137.874 -4.02988
-33.26 101.443 -4.74443
-34.4734 104.079 -13.2567
13.5587 124.359 -5.06216
-1.91752 122.797 0.376655
7.2208 122.096 2.41939
-7.84085 81.6026 -10.9703
8.60851 110.415 -11.664
-28.8873 112.93 -1.46064
-4.06618 116.575 0.583767
11.4242 96.2409 -8.36354
3.80024 125.529 -13.8618
-6.73441 126.806 -9.94163
-10.4217 112.748 3.25594
-13.7676 86.1241 -12.7501
20.5187 124.801 -12.9155
-20.4947 135.804 5.83527
-1.72529 132.653 4.10312
12.0316 122.362 -4.50732
19.2811 129.423 -2.49541
4.67577 98.9069 -13.7868
-2.48305 123.157 -11.5808
-22.6511 127.184 -2.53543
1.64241 81.7292 -10.57
-26.4893 127.281 2.29459
-22.3938 87.7095 -4.92147
-5.93981 107.239 -2.42775
2.69473 128.402 -1.6724
16.5723 136.036 -8.13753
-6.30211 82.4708 -9.74733
10.2407 90.7983 0.89709
-1.51908 139.17 -4.05325
10.5922 136.857 -5.23962
-24.7873 126.074 -2.33859
-24.4777 125.932 -0.636236
9.00542 121.283 -13.3089
-10.327 127.785 6.40841
-23.8722 130.093 -3.66396
6.39556 115.64 2.29743
5.72042 97.6634 2.38668
19.118 125.855 -2.05419
-18.7587 133.059 -2.37752
-32.3325 88.7292 -7.10675
13.3824 85.8191 -2.65617
13.387 82.4547 -5.79794
-11.6962 113.584 3.51004
8.62204 123.462 -4.66508
-26.3646 128.538 -3.44118
-17.6024 110.779 -15.2751
7.60859 128.252 -8.6534
12.8512 118.387 -4.34146
-9.03614 103.155 -14.9034
-0.213934 116.476 -3.43016
-27.4518 106.311 -14.0929
-31.0344 116.586 -5.89049
-9.96963 114.109 3.7665
-12.8418 88.0204 -6.70546
-28.5361 128.169 2.24063
-22.6931 129.766 -6.89683
-22.6756 113.272 5.3197
-1.89657 106.517 -4.43524
-17.9709 133.43 -3.61568
-23.5548 132.163 -5.54903
4.28828 120.79 -1.65115
-0.120892 124.702 -1.15109
-4.5877 104.713 -4.7246
-14.8528 97.5498 -11.8789
-22.7862 116.167 5.73836
10.8726 92.7975 1.09375
7.92989 124.744 2.25665
-1.7127 119.51 -14.1518
-2.47107 95.1034 -14.0693
8.84656 137.505 -10.0423
-20.0176 115.488 -12.5272
-20.0327 130.799 4.51515
5.10017 97.3157 2.31606
-3.39411 123.51 3.19244
-24.8907 127.953 -1.91592
-22.2952 97.6313 -0.818136
-5.94618 120.814 4.06232
-22.7431 128.997 -4.34328
-16.0919 132.424 6.27697
-22.7481 118.17 5.41677
-36.16 98.5936 -12.6138
18.0942 129.027 -9.6381
8.53367 129.566 -11.1278
-8.2633 113.637 3.15327
-34.743 98.2806 -12.3435
6.00926 87.8551 -10.9212
-28.7339 113.755 -2.23679
-10.8994 102.54 -0.716898
-3.08888 133.467 3.95876
-31.2075 108.564 -13.522
-32.9952 91.3177 -10.7437
11.5626 105.482 -5.46469
5.36856 80.019 -9.36596
20.0379 119.774 -6.85151
7.56715 128.446 0.11195
-5.16347 127.195 -10.5807
-22.9656 86.8045 -10.3176
0.533346 78.5923 -9.84213
13.5228 124.304 -4.33021
0.500735 114.228 -3.50425
-21.2516 87.944 -4.82462
-25.9438 106.38 -14.2181
-35.8987 103.368 -12.7175
-31.5606 88.3568 -5.86029
-39.4408 91.6012 -8.00154
-5.98678 83.7722 -8.80125
-29.1941 112.815 -12.9878
8.00564 78.9918 -7.29175
8.7095 129.705 -7.79588
-11.9771 95.392 -14.1863
-35.55 102.576 -9.02769
-13.3463 111.416 -15.6025
-30.8723 125.244 2.38897
-39.43 90.9164 -7.77949
-24.2338 124.498 -4.01702
-2.4214 85.3466 -7.38148
-8.2545 137.004 2.64312
-17.1218 82.4482 -12.4803
13.7093 124.605 -4.26793
0.234325 99.2495 -1.01587
11.0507 80.1907 -7.37472
-30.3398 120.545 -5.23748
-7.76947 109.313 -16.9644
11.5784 81.1784 -3.31675
-20.3818 115.078 -12.4803
-32.1875 88.9089 -8.51515
20.3728 128.37 -11.4925
-18.9471 87.1663 -6.69899
12.7818 125.784 -4.71152
-18.1169 104.59 -13.0441
-27.1359 132.926 3.20424
2.4609 133.11 0.0302682
-14.8212 96.9775 -0.957785
-28.4358 126.685 1.51839
-10.8971 87.8 -12.1778
13.4126 102.074 -0.730371
7.8178 116.204 -10.8247
-18.4369 109.935 -15.0818
14.0102 126.226 -4.04648
-9.71166 111.138 2.5405
-5.69391 128.471 -9.45116
12.3638 79.386 -3.72867
-12.0977 128.452 6.72744
10.9083 129.013 1.44155
-3.15928 95.5217 -3.26112
-23.4159 125.66 -4.46669
4.93886 84.9897 -10.5371
-0.269971 114.787 -15.8065
-35.937 89.2575 -10.0224
-18.6286 112.078 -13.2603
21.9275 132.974 -6.46992
3.45936 107.327 -1.16562
-13.5511 96.0517 -12.5106
-2.29115 113.333 -15.7405
13.7553 94.3497 -3.26156
-24.4628 105.989 2.44553
12.4658 107.346 1.32953
-19.817 89.5821 -9.04917
-28.4051 128.177 1.21556
21.1629 137.018 -2.71125
3.05872 95.6134 -13.2577
-31.843 115.837 -8.80931
11.5069 122.737 -10.8233
-28.6007 117.781 -2.84354
13.2169 105.989 -2.95418
-18.0157 135.361 6.80604
4.54648 96.1246 -13.2983
-24.9017 125.731 -2.43997
-24.1289 136.483 -2.76728
-1.77637 105.368 -16.3171
-25.9237 125.955 -2.54441
-23.8511 106.861 3.09141
-22.6408 92.0343 -2.93564
-24.4121 110.502 -13.4297
-33.8676 88.2605 -6.22557
2.31205 96.5853 1.51125
-27.5056 87.3228 -12.5231
7.8943 126.843 -10.8291
13.754 130.076 -9.61497
10.9799 128.427 -4.74232
11.6203 108.139 -6.72527
-30.3543 128.718 0.253608
-28.4108 103.392 -1.09645
8.55506 133.982 0.946197
5.48618 123.725 -1.23062
13.423 119.691 -6.20061
4.61816 80.6488 -5.3557
-17.1647 134.522 -6.23469
-26.9063 99.2129 -13.3921
-20.7276 120.11 7.08656
0.654012 123.729 -2.22557
11.2502 123.785 -8.23646
-27.8493 123.412 0.105053
11.8214 88.3191 -0.417947
10.9643 121.75 2.75768
8.61603 135.575 0.26372
-10.0995 106.813 0.411434
6.46972 114.523 -14.7135
11.9878 112.222 2.6502
13.1119 79.6485 -5.45773
-15.1458 86.2744 -10.9624
-4.70163 120.426 3.25661
-11.0865 100.146 -2.57207
-31.4769 92.866 -12.6585
-22.5201 135.332 -4.79543
-9.05762 127.921 -6.55735
0.621742 89.5711 -12.7749
0.425012 118.905 -3.11293
3.1945 88.1751 -2.79362
-18.9756 120.569 7.14156
19.4442 138.967 -0.401857
-32.4451 88.3521 -8.06267
8.37327 135.654 -0.343212
3.17789 98.8841 -13.8008
4.84697 86.9094 -2.71282
-16.3363 111.988 3.22129
-4.03101 131.825 4.467
18.2128 129.158 -9.61269
4.40882 105.471 0.121033
-12.8967 96.1678 -13.0335
-20.3665 130.363 4.37901
-25.4701 126.244 -0.287479
-31.269 92.7058 -5.67724
-14.4752 81.5724 -11.5788
12.8406 116.6 0.172058
-30.6821 127.292 1.97776
-6.25725 121.067 4.03707
-11.8325 122.859 -8.10714
13.5007 96.3586 -2.04242
-5.42707 89.8631 -2.98223
-22.7528 109.495 -12.8324
-15.8048 132.633 6.30075
2.97341 91.3207 -0.482851
19.0945 136.039 -6.58433
-24.3009 99.2936 -1.69503
-22.3809 102.054 1.69554
9.06575 79.159 -8.19901
1.88295 82.4031 -6.15898
21.6895 135.297 -3.43805
-27.703 127.03 -2.01642
-10.8739 108.217 1.40592
-25.7275 125.518 1.95796
-22.2005 127.822 -3.2311
-8.18152 81.1996 -11.3308
12.7903 124.771 -2.00095
-17.8487 115.64 5.38817
-12.7464 102.04 0.288399
-23.3615 86.5689 -11.3342
-4.67248 113.261 -0.455765
10.4717 82.8446 -7.79688
-24.6522 119.28 -12.6653
-0.768701 103.633 -16.2127
-20.3508 110.46 -14.6335
-13.4234 113.019 -15.1798
-23.195 131.204 -5.63668
7.39052 129.815 -0.386487
-28.7764 130.706 -1.54732
13.067 118.727 -7.02388
-24.891 93.9771 -4.72759
-31.8927 88.6349 -7.88125
-24.6647 126.038 2.73865
6.04158 94.3346 -11.6561
-4.57565 117.544 1.8675
-11.9744 128.019 -6.00541
11.4801 131.876 -7.45463
3.85676 82.3668 -10.2676
-22.3225 91.528 -2.73689
-8.49848 90.1479 -6.6985
12.8927 121.707 -7.03596
-6.77265 92.393 -2.53449
-30.0531 118.357 -10.8044
9.33443 83.2758 -2.33979
3.87087 133.599 -9.67542
-34.0484 102.32 -4.92048
-18.1042 133.01 -7.63606
-15.8309 127.782 7.1427
20.5606 131.591 -4.5021
-19.422 134.04 6.2398
-34.3422 95.734 -8.1779
-24.9038 111.803 3.59512
4.22788 75.2101 -9.59318
-18.8056 91.2963 -9.9583
-22.5608 88.1653 -11.0464
12.2635 113.247 -2.99811
-0.809324 113.569 -15.716
7.47073 122.178 -11.6436
9.15452 126.893 -5.03683
-20.6882 135.512 5.45329
12.3537 124.305 -1.26678
5.4825 102.051 -13.9654
13.8388 121.35 -4.58261
12.7506 139.353 1.46924
10.2928 119.82 4.25276
-3.58333 115.99 -0.992412
-16.1411 102.116 -11.5852
-1.24983 94.4865 -14.1767
-18.0621 133.051 -2.71534
-22.77 95.4009 -2.87039
-19.5431 112.413 4.94904
-32.719 90.5414 -11.7061
3.6849 87.5135 -2.85294
-0.107598 80.9571 -8.81383
-30.7414 116.625 -10.607
-22.2874 125.596 5.78549
15.6123 128.099 -1.92262
-15.5413 137.811 6.3172
0.189414 98.7859 -0.399026
16.4445 132.942 -1.36189
20.2162 124.361 -3.80387
-5.87128 81.3819 -10.2644
-0.787213 93.0169 -13.4586
0.373996 129.45 1.8664
9.74022 101.381 3.06336
-33.9709 90.5073 -5.23161
-14.3101 120.058 -8.74326
-20.51 84.0671 -13.0297
-33.2038 94.0872 -12.9007
-34.3009 94.265 -12.6096
-34.4858 104.904 -7.56004
7.85329 98.5112 2.74258
2.98303 85.2767 -11.1896
-18.1002 138.407 -3.02544
11.4776 108.933 -7.28639
-16.1071 86.1923 -11.6774
-29.9645 119.639 -3.98034
1.12844 130.386 1.51304
0.732539 95.0914 -13.5189
6.56846 120.954 -14.6127
-3.12962 77.9707 -10.328
13.9985 111.568 -2.77463
0.573745 79.1371 -9.5196
-6.71641 120.235 3.886
18.0009 128.787 -12.0439
12.5644 116.048 -2.77386
-24.5102 127.63 -5.88473
13.2492 121.239 -2.72304
-25.1153 125.839 -4.26702
9.12359 134.074 -10.2162
-8.1748 88.492 -12.9535
-15.4517 118.866 -9.61594
8.13801 129.449 1.28561
-21.734 135.724 -5.58836
-15.4958 96.3826 -11.7651
12.5129 80.5154 -3.99144
5.63715 101.389 2.81033
-23.0524 125.814 -2.22317
-18.608 114.18 -12.7425
-31.5014 97.4206 -12.5782
-12.2394 109.614 -16.003
-26.5798 136.75 1.8064
3.68345 138.919 0.755187
-23.4594 86.8328 -9.6828
6.29391 132.104 -1.49717
-27.9791 97.1078 -4.98567
14.6972 128.662 -2.04225
-0.457689 125.025 -0.26929
-23.0675 126.519 -4.14373
10.4919 114.69 -6.1139
-25.7995 121.395 1.05062
-17.9569 133.722 -4.15439
-26.3679 127.997 0.365954
12.7403 127.014 -12.2124
-35.9971 103.367 -10.2056
4.52539 111.642 -0.549045
-22.8322 116.54 5.54572
-28.224 111.399 -14.2462
8.30185 82.1018 -2.17992
-18.8553 95.8454 -10.5524
-2.06481 88.9932 -3.20961
-23.5317 128.057 4.46963
12.4022 111.763 -4.55866
-28.9801 97.5978 -4.83591
-2.37439 123.044 1.40676
12.4871 124.285 -15.1892
-22.3094 130.404 5.10643
5.21506 123.041 -14.4516
-7.60524 121.36 -13.3041
2.5137 124.184 -13.0586
-26.1165 130.111 5.07099
-17.1123 86.3036 -10.7929
-1.09815 116.512 -15.1464
-32.7458 88.978 -8.1887
-21.0871 126.238 6.28417
-28.8748 135.465 1.29229
9.99658 122.954 -3.84505
-1.1971 82.7424 -8.26607
-13.3491 118.944 -10.0613
19.0638 126.06 -4.7465
-21.5492 111.116 4.81774
2.68395 90.9062 -1.11093
-2.06918 135.547 -6.41212
3.74034 134.44 0.141127
-31.2968 126.83 1.77453
-16.9416 137.553 -2.969
-31.0283 101.416 -13.8685
10.4714 107.686 -7.68399
21.0017 123.959 -11.2333
-21.6944 111.429 4.98008
-23.6322 125.415 -1.52743
-22.7971 94.6382 -3.29658
-28.5962 122.688 -9.23183
-4.65376 104.994 -4.68642
-24.0038 90.0485 -3.85368
19.7786 129.907 -4.1796
-10.3917 89.6656 -6.38476
9.06764 79.2263 -5.18842
-23.3423 122.148 5.21723
4.55018 92.0851 1.18974
7.95768 133.143 -11.5052
8.1725 124.476 -11.9452
21.4545 126.744 -9.70039
-6.92127 125.752 4.14475
-23.3155 126.729 -3.36521
-25.1585 127.78 -5.1244
4.15164 96.5805 2.19336
7.25019 126.077 -6.26029
8.15375 79.002 -6.67384
12.3227 89.5979 -6.23457
-24.8199 120.415 2.08955
0.609374 118.906 -14.2627
-17.1331 86.4812 -8.97715
-12.2578 133.586 -6.67123
10.6865 126.712 -5.05199
-20.3989 131.706 4.59494
13.1922 84.6501 -6.02011
4.83142 101.835 -14.7739
12.7523 122.61 -4.62751
-0.551276 85.3237 -6.60296
3.4335 134.753 0.181803
-0.344363 118.546 -3.12851
-10.222 122.17 5.45968
-25.1885 119.874 0.894382
-14.4796 109.688 -16.0633
12.9872 129.763 -1.09525
-9.23812 80.3278 -11.1766
13.737 122.562 -4.42473
-38.191 96.4648 -9.10843
-27.8583 88.9049 -8.46151
-5.92178 128.432 4.43364
-28.0668 116.736 -2.78879
0.817811 91.9938 -12.9671
-7.27918 124.331 -11.8803
-7.57495 104.691 -15.9119
-6.55009 137.4 -4.14759
10.0886 123.629 -14.9384
21.285 130.713 -8.99995
-17.7265 123.977 -8.44312
-15.4641 85.5324 -11.0637
6.29614 104.563 -13.663
7.55012 122.534 -13.3172
-10.7696 107.965 1.22727
-9.41568 120.293 -13.2086
-23.2157 125.515 -5.44752
-11.5653 121.198 -10.0117
-7.54916 104.102 -15.8699
14.9956 130.091 -9.80515
-4.04483 119.035 1.96463
-37.8225 88.8728 -5.40857
-3.06689 110.22 -16.1127
3.79708 138.39 -8.63916
5.1172 83.1428 -3.68878
16.1508 122.85 -4.40673
-27.7165 127.159 0.862167
11.1502 137.806 -3.53521
-0.597733 131.128 -8.73154
-6.20937 86.1612 -7.72853
-3.1258 129.958 -9.30434
9.78172 100.147 -8.73535
-29.9571 89.2417 -12.053
7.79593 80.1064 -8.76344
0.933155 109.459 -3.0552
-1.53496 114.218 -15.7026
-30.3189 110.561 -1.81801
-21.9951 126.751 -9.12783
-11.7276 106.896 -15.4404
-28.9655 107.524 -0.104952
8.45922 96.0651 -10.7311
-15.8949 130.954 7.13627
12.4188 119.334 -3.39935
10.8267 74.3598 -6.89035
12.6205 92.7262 -6.8459
9.6494 92.626 -8.61453
11.322 79.817 -5.43338
-6.01041 115.048 -14.3834
-0.417125 128.596 -9.76937
-37.4294 89.6912 -9.62316
-25.8139 113.723 2.16428
11.0102 133.808 2.89862
-36.5413 89.151 -10.839
-19.0969 102.281 1.18022
-30.6338 128.532 0.355762
8.5069 100.442 -10.0454
10.8887 127.596 2.18664
-4.0475 132.603 -7.60663
9.12344 131.773 -8.66785
-17.1397 90.3261 -10.3979
-34.0798 101.688 -5.1308
10.9958 125.016 -8.38756
8.24073 127.599 -11.4066
8.45468 131.623 1.3767
-23.0389 92.9101 -3.20854
-13.7076 135.138 4.81203
11.5324 114.677 3.33443
12.4056 120.922 -7.93216
-23.9166 87.4788 -5.48094
10.3585 123.669 -8.77807
7.42525 130.234 -12.5779
-26.1087 125.872 -9.51192
-15.6229 122.782 6.51926
2.93499 132.073 -0.718095
-5.3362 105.164 -4.19551
8.82786 106.018 -8.95664
-22.8066 137 -4.83753
-25.6727 116.375 -0.638902
12.0515 113.645 2.79925
12.6907 88.7942 -2.62039
4.2094 132.411 -1.40086
8.17656 121.133 -9.79773
2.70149 132.097 -0.0910954
-30.9805 113.779 -6.84245
1.09418 129.867 1.09977
-5.70463 101.275 -16.3826
12.483 133.353 0.837996
7.64496 114.373 -14.0458
11.9443 138.561 2.83392
-31.2772 118.229 -8.51241
15.0922 121.648 -4.54758
-20.6064 124.904 -10.0289
-14.028 134.686 -10.2836
9.85591 124.262 -9.08726
-21.8686 130.62 -7.15706
10.8866 80.4612 -7.09401
-16.8351 135.126 -4.32289
-23.4618 129.773 5.80515
-36.362 89.1875 -10.12
-18.0032 131.237 -8.22696
-0.17567 77.6366 -9.89987
-25.8719 129.944 -4.98228
-18.6665 131.744 5.56998
-25.988 128.787 3.53102
-30.2007 128.362 4.95297
12.4223 127.763 -0.093339
-8.74448 110.53 -16.9442
18.9802 132.149 -7.22747
5.57522 97.0793 -13.1992
-17.4987 135.41 -2.06942
11.1218 99.4091 -7.76385
10.7526 130.728 -5.95921
19.4049 128.298 -4.80596
-29.4005 120.648 -9.88042
11.0394 123.229 -11.0741
-24.6661 120.581 -12.1747
8.47005 76.1051 -8.37032
6.63467 125.804 -0.614721
-19.7963 132.169 5.23808
-19.5025 87.738 -11.0791
-24.834 115.731 1.66068
11.8181 114.059 3.17283
11.559 133.992 -6.69645
5.86983 119.078 -15.3935
-28.7669 125.523 -0.394929
8.57848 129.193 -6.12324
-4.38293 129.501 -9.79021
-31.8494 88.406 -6.3801
-7.85196 92.8257 -5.77466
-4.65671 104.4 -4.77256
-10.2332 132.233 -5.41308
-4.1488 107.664 -4.24918
12.8911 132.283 -9.20488
-19.7351 131.516 -4.72704
-2.18236 125.714 2.64059
-2.299 136.16 3.24985
-30.4069 88.4809 -9.50147
13.7771 110.571 0.029733
-26.2994 132.525 4.04349
16.4168 120.36 -10.9203
-15.4334 106.976 1.36864
2.88995 127.081 -12.9718
-15.6611 86.2158 -9.20182
-26.408 127.669 -3.25781
-2.84172 131.202 -8.72357
-35.9506 98.7505 -12.691
-6.13654 130.77 4.94956
-0.516207 124.764 -0.402744
-37.0968 95.7822 -11.9607
-32.4824 88.7916 -7.13003
-26.6218 117.62 -1.49243
-4.04664 129.792 -9.63489
-5.96583 105.935 -2.85156
4.2962 88.961 -11.8962
6.84972 102.895 -11.9957
-12.4485 86.3646 -12.0284
-31.2452 90.9036 -9.95355
-2.90171 136.57 3.2216
19.4599 122.31 -6.14786
15.6545 127.453 -14.1011
-34.9543 89.8791 -10.8398
16.3718 123.124 -4.20857
5.28653 106.026 1.33034
-21.1007 99.9231 -12.2433
-28.8773 86.9473 -8.65274
-14.2335 99.9406 0.00483896
-1.02161 126.598 1.73322
-23.0674 129.632 -4.20288
5.34665 89.3723 -0.525257
12.7584 101.977 -5.30632
-33.9209 107.337 -5.8271
5.96194 88.8291 -0.772027
1.5025 119.532 -3.02263
-21.8338 130.811 5.35671
-0.061311 129.354 -9.70239
-4.61446 93.9468 -14.3671
-23.6157 103.475 1.90875
-13.973 128.636 6.60853
-26.8703 129.793 4.74764
-20.0025 136.13 6.22825
19.1834 124.509 -7.69566
-16.1283 106.849 -14.4695
-34.5801 90.6219 -5.7682
13.678 139.603 1.23714
-22.2378 129.235 -6.73271
-23.0541 87.3784 -5.30521
-22.8146 100.658 -12.1694
-18.5083 95.7525 0.0257616
-0.56354 103.084 -3.32656
-26.5643 115.134 -1.23832
-17.726 117.472 5.62695
-10.0736 123.738 5.91821
9.47245 100.647 -8.94287
-11.4863 131.386 6.2298
-31.6547 111.134 -11.6083
-3.817 129.528 4.55296
14.2572 124.916 -3.72841
-33.7128 108.558 -6.26271
-13.898 115.379 -13.2353
-15.93 121.059 6.07456
12.2632 124.322 -15.1126
-3.98995 79.9782 -10.5411
-30.3072 121.481 -6.94644
-33.6727 95.8237 -12.6333
10.418 92.6229 1.26829
10.9324 124.26 -4.79761
10.3298 134.003 -9.14757
11.7934 122.38 -10.7093
-26.9421 98.6887 -3.11823
-21.5182 130.502 -5.8198
-27.1472 121.004 -1.32342
-36.1502 102.737 -10.6205
8.94047 105.521 4.00923
-30.4304 127.265 -0.631933
19.5054 129.419 -11.438
8.36285 125.013 -11.8501
-26.5566 106.006 -14.2821
-8.65986 126.147 -8.4568
-21.9347 126.925 -3.83282
-8.36566 91.082 -13.9884
-32.2641 90.0479 -8.84905
-32.5375 114.045 -9.22974
-3.73265 99.4917 -15.4545
-5.43141 97.2067 -14.9355
-22.6286 124.748 -3.32941
-25.2813 123.787 -0.781799
10.0389 120.778 4.44766
-3.80431 115.956 -0.508913
-5.61655 109.472 -16.3246
-28.5319 113.513 -1.52017
10.5114 87.3402 -8.45978
10.3384 107.202 3.11601
-7.18507 93.3212 -5.64119
5.9739 95.1608 1.50472
15.1956 139.358 -6.12209
-21.4971 92.3025 -2.67406
5.13332 101.608 -14.3306
9.63473 122.504 -11.8937
5.67082 79.1654 -6.96147
-12.9292 87.3304 -11.5153
-6.47885 103.417 -16.6286
4.40204 124.722 -14.2347
8.08815 114.464 -9.99821
0.764431 112.595 -15.9035
18.7881 125.278 -15.1649
13.0163 114.2 -2.37856
14.0248 123.057 -3.82416
-10.1726 90.2053 -6.91793
7.76352 98.1931 -11.7677
14.8613 131.117 -0.962696
-24.7894 100.911 -12.5813
2.92273 122.643 -13.1345
-12.5399 111.945 -15.5491
-9.81583 82.9483 -12.3244
10.174 130.222 3.21877
21.8318 132.72 -4.55132
-16.3307 102.786 -11.8584
-1.26522 84.5299 -11.6835
-28.0422 132.406 3.45879
10.5336 97.665 1.67821
-31.4151 126.42 2.50881
-25.5639 135.388 2.55444
-3.25926 134.458 -6.04537
-8.03969 99.3017 -5.18304
13.8772 102.929 -1.85901
-5.12853 125.944 -11.2979
-22.2294 128.734 -8.84814
-10.2511 82.1772 -11.8219
-13.914 94.3241 -3.80437
-19.3061 129.647 -8.34273
-8.96663 118.119 4.36533
13.203 119.564 -7.31809
-20.8764 125.643 -10.1734
-1.27197 100.45 -15.2997
-11.2942 102.539 -13.462
-25.1686 114.868 -12.1497
-26.7335 100.763 -2.25263
-12.8668 83.5082 -12.8982
4.11827 76.0842 -9.59776
-23.9773 87.0246 -7.60106
-3.3526 96.5858 -14.1461
-17.4865 135.903 6.47286
18.7012 120.938 -7.10889
19.1967 136.289 -6.20527
-10.1866 131.55 -5.38553
9.29467 109.149 4.1912
-22.457 129.649 -6.68666
-36.2442 101.034 -7.5934
3.81296 102.437 1.66487
-25.9677 122.219 -11.1533
-24.4704 102.463 -12.6333
-8.4674 84.6876 -12.8536
-23.1055 112.754 4.89178
-27.754 105.867 0.554809
13.5003 106.099 -2.59744
-10.2317 110.722 -16.113
-13.4358 105.915 1.12039
-1.51725 101.984 -4.07289
5.53093 79.3168 -7.3243
17.8603 138.263 -6.64336
-16.6667 96.2856 -11.0928
-30.7172 87.4744 -7.04774
12.0819 119.624 1.75922
-30.8256 89.2451 -8.35729
-6.73969 138.35 2.58131
-31.0879 127.37 -0.0989016
11.9424 105.627 1.60027
-13.9004 93.9842 -3.92849
-17.9044 92.7065 -10.2869
-13.8889 133.24 -8.21961
-22.6289 91.0474 -2.72202
-29.922 128.976 1.09251
-37.9793 88.5964 -9.50978
-30.0461 121.04 -8.40066
13.1702 97.3178 -5.71253
-34.9923 90.5932 -5.84843
17.9687 138.086 -0.172825
3.02429 104.714 -15.6311
-3.76574 86.2875 -6.20986
-0.34608 124.887 -0.589466
-9.16889 117.437 4.49832
-28.3169 134.257 -1.00581
11.2473 79.0015 -6.60936
3.45934 121.565 -13.6139
-13.5999 111.527 -15.6431
-10.875 89.7895 -5.2931
-7.79117 137.425 -5.0386
8.32658 124.428 -9.85986
14.0468 108.903 -1.08959
2.90433 136.885 -8.78443
-23.3471 86.6683 -11.2301
-24.5745 113.107 4.25401
11.0375 84.7909 -7.87462
-16.6132 87.6766 -5.08297
17.1859 119.441 -7.13726
-18.9781 100.785 -11.7689
15.7278 122.255 -4.52122
-12.2105 82.2489 -11.6598
-30.5879 119.209 -8.94265
-17.4808 133.424 6.24614
