ply
format ascii 1.0
comment Created by Open3D
element vertex 1925
property double x
property double y
property double z
end_header
9.72084 113.493 9.71591
7.15942 94.1645 4.05519
-18.6091 119.68 14.4398
11.7968 134.664 -1.8673
-22.9024 128.647 -2.05367
-18.1527 148.972 1.17042
-13.911 123.642 -3.79166
1.50119 81.5547 -0.609526
-2.89499 98.0751 -9.71608
-3.15736 124.818 9.98071
-17.3242 97.2498 -5.48063
-25.4585 117.949 12.0421
-2.77079 81.1654 -6.75922
3.55136 93.9853 -3.49283
8.8549 129.133 -2.66979
-2.86288 132.035 10.0096
18.6947 136.191 0.361663
-8.9699 140.164 4.13358
-20.5097 146.128 6.17076
-10.611 127.657 -3.40761
-25.3344 92.0868 -3.54616
1.13184 91.0611 -5.10504
-5.8107 121.106 -6.59055
-23.1288 128.313 10.3234
-9.70754 78.4929 -10.0992
-5.30502 146.617 3.97598
-17.7406 138.792 5.85976
4.03471 86.2216 1.09642
-25.476 122.457 -0.633119
7.98369 138.363 3.9485
-24.7909 120.058 -5.619
10.522 119.328 2.97177
-10.0919 106.867 12.7088
-11.134 79.6498 -10.0495
-9.06368 107.474 10.0723
-27.0383 140.675 4.83796
6.85836 123.991 12.1991
-25.4258 139.834 4.51749
6.54161 103.638 -3.90091
-7.06112 154.566 0.193064
-13.5956 114.521 -4.8903
-29.2152 113.876 0.65616
7.94026 105.049 -2.93054
-32.9022 134.193 1.35829
18.5959 123.143 -1.61432
19.6266 142.573 3.57173
-3.15257 122.633 -7.17792
13.1229 124.004 7.25738
9.96789 146.742 -4.24162
-4.76036 74.654 -4.37723
12.7054 133.468 -3.73436
-22.8258 122.262 -5.58955
-25.3501 124.549 0.688665
1.5262 138.137 7.34396
6.58592 135.249 8.04817
-24.0001 89.3667 -4.36652
-23.6229 85.416 -4.11432
3.62367 121.681 12.9143
-8.49336 125.948 12.1982
-33.8421 129.228 1.19958
8.60992 152.436 -1.34337
11.1045 136.25 -4.80911
8.55418 126.763 -7.47088
-19.3582 139.049 6.55666
10.2459 150.578 2.40747
7.54036 94.4019 6.94373
18.9206 136.465 0.754782
-25.3322 118.168 12.4134
20.9408 132.852 3.22288
10.3007 111.436 10.6613
-15.7651 124.703 -4.10649
9.21541 119.617 -2.07728
21.8792 124.67 -0.20538
-13.3122 78.9076 -9.22751
-1.59433 124.861 7.11612
-10.7404 117.922 -4.06882
-25.3679 132.441 7.32956
-8.80931 107.502 -8.73278
11.0474 149.319 2.73949
16.9582 125.416 8.23869
-21.2622 140.212 6.07566
-11.6249 127.381 -3.88719
-23.7314 90.6186 -4.52518
8.07324 120.237 -2.9303
21.4968 131.412 4.27805
-13.1462 135.773 -6.57262
5.53892 116.097 14.7194
-1.07492 151.815 -2.38702
-11.7579 104.899 11.7141
-14.247 141.658 4.35702
-10.4394 111.437 -7.16534
-15.5793 115.163 -5.50918
-4.97137 140.45 -3.13576
3.02771 102.84 -6.55847
6.19209 133.973 8.75499
10.4169 131.423 -2.92137
-5.9935 117.944 -7.87805
-29.5583 108.794 -2.11221
-3.70329 119.823 7.42822
15.2018 132.393 7.21579
-20.4876 143.2 -1.24457
9.67394 142.42 -5.44972
13.1195 133.972 -1.58232
-11.0152 119.878 14.7186
-22.1726 141.683 -1.12888
-10.9078 105.873 10.788
-7.65567 82.132 -9.6921
5.10878 133.783 4.0696
-8.28795 120.293 -4.52787
11.0758 123.132 5.30901
-2.43816 75.4676 -0.477193
7.60847 102.036 -1.44292
-15.6379 91.4773 -6.7325
-3.74948 108.391 9.00261
9.2187 127.249 0.454836
20.7121 120.446 -2.88669
-6.44929 147.138 -4.81833
1.02049 137.051 7.32997
-28.3509 122.849 -0.46225
-11.4738 142.391 -5.59679
-3.36116 124.16 -6.71724
-3.09125 126.069 10.2339
6.34295 134.049 4.82488
12.6231 147.507 -0.0406307
-20.2858 135.2 -2.29438
9.00732 105.246 11.5264
9.87474 111.787 0.490473
-9.83598 108.085 -8.7798
-6.52502 129.963 11.5622
6.01675 129.618 7.78438
-4.48626 105.493 10.1213
1.81573 109.533 17.2223
7.58936 114.353 1.08116
15.3659 134.466 6.95204
-14.9171 117.779 -4.69893
14.7621 120.897 -3.56749
-8.62596 135.833 7.58238
-26.1547 125.468 0.302109
10.5865 148.916 -1.87688
9.41823 108.109 2.37735
0.986982 121.674 6.19408
-8.77133 120.36 -4.10821
2.85987 119.849 11.8412
22.0135 123.575 -1.05698
-7.89162 131.1 -2.90867
-24.4472 135.139 -2.85021
-11.6718 144.439 -4.55324
-23.0808 127.89 -1.16845
-7.25704 122.985 -4.00292
3.59397 96.7495 -4.27124
7.9657 135.768 -6.4985
7.27624 101.195 1.10022
-2.97925 117.28 -7.98213
-0.230613 144.606 3.90485
10.3371 109.785 7.10048
-26.9536 92.0135 -2.24347
-0.324056 112.237 -7.94653
12.8297 144.99 6.11427
7.98664 116.329 -3.34513
-9.21554 125.772 11.9725
9.28937 127.856 1.37864
2.46904 78.3562 4.79952
-23.296 120.267 13.7678
-12.1091 145.752 3.70467
-30.113 105.524 4.22812
-12.2581 142.148 3.90395
-16.9158 150.861 1.21313
19.2649 139.067 5.65827
-9.28851 117.911 -4.74392
-16.6261 126.574 -4.80727
-3.60007 90.4032 -9.55415
1.71569 106.644 17.7881
-2.6434 104.171 -9.86423
-27.3968 114.3 9.97555
-17.9527 137.624 -3.29054
8.69336 145.139 -5.03564
8.69016 136.721 8.29757
-18.2322 86.3049 -7.39517
-8.82955 99.0141 11.3402
8.27541 114.817 -0.329241
16.6863 137.514 -0.550622
2.23208 90.6708 -3.48741
-4.44579 121.643 10.7576
-20.9508 140.971 -2.05486
-26.9949 134.476 6.50935
-2.76691 111.891 7.99934
-1.82602 119.016 6.50593
5.12776 110.511 15.8101
6.38778 149.047 -3.50019
8.98234 131.867 -6.65005
-28.7851 115.034 -2.41018
-15.4181 139.12 -4.85062
2.00003 118.375 -7.49023
-24.144 140.902 -0.785128
-29.4702 107.905 2.50993
9.22174 127.484 -0.664921
-14.6736 149.614 4.61001
-3.28209 102.46 -9.28987
-19.2728 131.746 -4.52945
21.8803 124.137 0.621909
2.63547 118.346 12.1562
-2.62886 129.09 -4.86836
22.5213 122.735 -0.248684
-27.0112 114.95 10.2608
22.068 129.989 3.31079
8.95267 124.763 -3.20485
6.9852 134.401 -6.16549
-8.24469 113.192 13.1116
-25.9655 121.451 -3.19109
-17.5203 107.171 -6.94171
2.83688 113.527 -8.17511
-16.4201 134.339 -4.29291
-22.5611 128.926 -0.866186
7.59922 93.5156 8.81348
-37.4339 129.426 3.94874
9.02986 127.927 1.60896
10.4219 129.402 -6.42349
-1.34848 90.0836 -7.49342
-9.90037 75.7951 -10.0646
9.87465 128.618 -0.975224
8.13108 100.052 7.78714
-30.1255 129.672 4.79319
-29.9157 131.584 6.47296
-6.06117 102.481 10.662
-5.87716 145.162 3.73212
9.23469 124.502 -6.85479
10.4906 119.749 5.31455
-11.67 143.746 -4.71522
9.26379 107.852 3.84391
10.5314 131.193 -6.15601
-26.7667 125.949 0.321645
-2.2302 136.718 8.60033
-8.08703 75.4223 -9.58627
-5.92109 77.2677 -8.31874
12.2037 124.905 5.02009
5.31749 129.135 6.19121
-9.27047 123.351 13.1709
7.83948 106.721 -3.10469
2.23417 82.9501 -0.136347
-21.0078 140.672 -2.11534
-6.08411 106.98 8.52137
-24.3346 126.887 0.246053
13.1736 145.172 1.50524
21.6645 129.776 3.4576
8.8716 122.876 10.9758
8.03021 113.939 0.474849
-10.8754 135.333 7.14454
-21.2227 121.399 13.3248
-27.1827 113.794 3.42278
-5.94992 131.03 -2.20467
7.84369 101.237 12.1752
5.59079 130.616 5.70571
19.7843 128.932 4.41843
-4.9449 89.9038 -9.97862
6.75298 89.5222 10.5439
-10.8247 121.578 14.0192
-16.2131 142.13 4.95755
8.05127 127.742 -1.96837
7.86033 98.3973 6.64299
-27.1287 120.853 5.14934
-28.7235 111.724 0.472672
16.6035 141.773 0.656024
6.99325 147.691 2.43463
8.49387 125.95 -7.49638
-19.1605 129.857 -5.24376
-1.31078 116.483 6.97479
0.993352 117.406 7.91932
-21.4981 105.326 -5.63897
10.3625 146.069 -4.01033
-9.33782 115.89 14.2458
-12.874 127.129 12.6132
-21.3926 141.092 -1.76255
11.5989 127.076 -3.41214
20.4793 138.096 4.75999
9.91839 112.307 -0.887831
4.6196 96.0438 -2.55809
9.98092 115.383 10.8366
8.81471 102.899 8.21869
8.08186 118.71 -1.83669
17.3969 143.628 5.42751
-21.3513 80.8788 -6.28707
3.19713 103.569 -6.27505
9.1874 107.767 2.74827
10.1753 120.095 4.17431
-15.9376 75.7665 -8.87576
7.43787 112.376 13.9112
4.35931 109.237 16.8458
-2.86948 107.767 10.042
-25.1592 126.255 8.12198
-30.0505 139.848 2.49968
9.5831 116.901 1.7818
-1.36508 122.428 6.14049
-20.7571 77.3998 -6.37998
-25.9453 126.399 5.65589
17.1431 121.624 5.47505
-10.2993 144.423 5.20273
-19.7076 97.2856 -5.18263
10.2886 129.135 -6.3675
15.029 128.794 8.01199
7.98076 131.209 -6.72876
-17.4947 84.2449 -7.10996
18.12 123.687 7.72848
-7.05065 83.4903 -9.34156
6.6498 124.061 12.3021
-25.154 121.54 8.74526
-28.402 91.5587 -1.22062
-3.21803 122.261 8.06391
-17.1685 136.262 -3.80987
-0.608799 154.232 -2.01273
-17.2252 138.614 -3.81064
-16.6373 135.448 -3.89924
-17.7855 115.032 -5.71674
-28.0853 137.438 -0.11655
9.15067 124.193 -2.86389
-26.4236 144.906 2.9856
4.05229 132.779 -6.1032
-18.1704 102.044 -5.97188
17.8755 141.727 5.97097
-27.5241 97.52 -3.91882
-11.42 138.449 -6.1283
8.61022 117.662 -2.80573
10.615 125.099 0.884004
-2.3636 108.024 10.2559
21.2685 123.14 -1.65632
9.9676 108.915 7.40448
-30.9915 129.386 2.71156
-16.9698 127.007 12.0614
9.60961 113.989 12.0032
12.313 148.183 0.238933
-28.169 112.738 7.12226
13.4111 137.133 -0.449932
-17.4786 124.676 -4.86179
2.90023 79.1479 4.91248
-24.9766 120.058 8.26198
-1.71537 131.646 9.46108
18.8051 138.225 0.89215
-18.5903 131.93 7.14379
8.24343 122.525 12.2401
8.73713 104.747 9.22346
-26.6391 94.2656 -3.7896
-7.44597 149.984 -4.48814
7.05254 94.3288 3.46288
-13.5469 88.8575 -7.82026
-1.25448 119.001 6.46113
9.00595 125.852 -2.59068
-28.3258 132.477 6.09884
-25.0077 128.178 -2.44411
6.97273 142.713 3.08641
2.53052 77.9855 5.52606
-17.7094 149.773 1.59713
7.71919 123.857 2.34348
10.1518 128.683 1.0801
-27.2891 94.5143 -3.21234
-16.5237 119.263 -5.29899
-3.5971 117.313 -8.17349
-19.8616 120.323 14.137
-15.5877 150.026 4.84681
8.15175 103.695 -0.935844
-10.7789 96.5792 -6.91887
21.716 124.213 3.76253
-29.9503 100.636 2.85096
-23.7643 126.38 -0.443848
-0.681771 124.219 5.9136
15.7607 121.054 5.67912
-6.3921 114.078 8.79584
12.1745 131.219 -2.32806
2.82577 82.7881 1.87996
-21.6283 138.473 6.33535
10.4465 147.638 3.27032
0.798287 85.0952 -3.17278
-25.6484 141.338 5.02378
0.0794399 89.1033 -5.82798
12.3638 126.179 6.72093
-7.32019 106.028 8.88199
0.147977 105.331 -9.29368
18.8254 125.893 0.18891
-12.2479 131.408 9.97229
-9.87651 120.925 14.3705
-19.8319 132.756 6.04734
-27.3788 116.073 -3.72774
-2.18853 79.5134 -5.40389
-14.0568 85.4554 -8.23805
-8.87637 152.923 -0.480637
-16.8587 98.851 -5.76586
0.310874 116.262 7.96659
10.0048 129.09 -3.36696
-27.6943 126.516 2.95155
8.49952 149.878 1.80588
1.51639 134.657 5.83143
10.4811 118.819 0.616995
-7.21075 113.261 9.47815
9.22056 126.473 -1.51859
-25.9171 122.65 0.334703
9.98283 126.416 -3.73476
-10.5774 122.202 -3.44184
7.88479 112.572 -4.86476
-16.9277 139.204 6.04407
16.2688 129.488 -1.22592
14.5651 120.428 5.87088
4.17217 100.864 -5.63118
9.17804 123.001 -5.59488
-13.0058 125.217 13.0186
-0.0625735 140.938 -2.20959
-20.6065 122.703 12.9877
-9.80376 119.114 14.5854
2.58316 151.124 -1.68674
-27.1745 126.849 3.69704
-3.4953 84.5588 -7.69643
6.45426 95.9294 -0.145295
9.41438 115.344 4.53597
8.19321 105.03 1.89077
6.3303 117.259 -5.20301
-10.6128 145.347 -4.96856
-15.2227 151.924 2.69772
-3.81737 86.7784 -8.82234
-27.8502 130.916 -2.79547
-18.7796 98.3968 -5.44247
-16.5893 139.26 -4.15198
-5.7639 120.661 12.3368
-15.3095 130.717 -7.03128
-32.8981 128.647 1.65918
-6.79217 110.386 -8.49134
9.59267 116.066 2.55264
-33.5197 128.459 2.59517
-10.2094 128.797 -3.53266
2.40343 141.118 5.94063
11.8933 131.145 -2.2209
-21.3715 100.963 -5.87264
-11.6394 130.848 10.4419
-5.38763 91.9965 -9.95815
-29.1086 109.696 6.58188
-22.619 146.208 5.42426
-13.5788 114.903 -4.79149
-23.0897 90.0963 -5.11989
4.78208 106.976 -5.56086
-10.2033 138.624 -6.43223
-13.9304 144.474 3.91672
-21.5886 119.165 -5.71671
-14.2468 86.9242 -7.89764
16.8445 123.442 6.91334
15.9267 141.387 7.21998
16.6268 138.2 -0.342169
-3.19837 117.525 6.90694
3.44485 136.486 4.53081
1.58378 76.3507 6.22162
5.60285 88.6444 4.95956
-20.0586 93.8206 -5.60608
4.85229 95.4888 -2.18893
11.4912 131.705 -1.97236
7.82879 139.057 -6.41831
3.22304 117.368 14.6012
-8.7575 128.586 10.9069
-11.3178 98.6616 -6.76273
-32.0469 127.517 -0.971541
-18.1037 130.056 11.1384
4.90913 147.591 3.66658
-26.0085 121.183 -3.7521
8.69998 126.03 4.28641
-28.1003 136.757 -0.509818
12.6331 135.784 -2.03758
-25.995 78.3585 -3.7527
9.552 151.892 -0.25359
1.98899 111.049 -8.45985
-20.5049 119.663 -5.54736
5.14461 105.672 16.8303
12.5682 149.414 1.62455
-19.6632 136.753 -2.39006
-16.4322 151.205 4.91911
6.44118 100.719 16.0191
6.78582 149.611 2.49128
-7.31232 104.415 -9.22448
18.2543 143.514 4.45481
-13.654 147.538 -2.49119
-25.364 121.738 -3.73917
-9.34869 140.693 -6.04564
18.2167 144.283 4.16379
22.4934 126.714 1.49206
-18.0432 146.319 5.48101
-23.581 89.4229 -4.72211
-10.6616 129.871 -4.06314
-26.9938 129.148 4.11227
-28.1651 112.728 6.82627
18.4769 137.275 6.84294
-24.5118 124.588 -1.22397
-27.6149 99.051 -4.01565
-29.2088 117.603 0.890649
12.5675 125.964 6.19573
7.20629 154.659 0.0617602
-7.3593 120.379 13.3935
-6.07797 140.603 4.88724
-1.73961 81.2397 -5.7961
0.101245 125.07 5.58288
-17.1613 143.622 -1.20028
6.55245 100.7 15.6793
-33.9106 126.811 0.908414
8.23032 101.388 6.58308
5.63482 129.1 6.89777
0.785846 129.932 -4.41178
1.80507 122.061 -5.53667
3.08126 99.0192 -6.21284
-23.0247 126.691 -1.91204
11.8156 144.601 -1.84813
11.9272 138.175 -0.183466
-13.0978 133.766 -6.99482
-13.1886 133.347 -6.92598
-28.8164 116.918 1.96455
-15.0477 124.903 13.4772
-26.1985 95.7463 -4.44824
-18.2676 135.467 -2.97872
-27.3277 142.933 4.66059
-14.3831 140.815 -5.07784
-12.0237 93.6641 -7.44397
4.73648 80.6036 8.87973
9.57012 125.366 -3.59008
10.0891 112.297 9.73519
-19.7731 82.9828 -6.60191
-24.9622 102.252 -4.64762
20.5873 128.453 1.29698
20.8327 129.227 3.66002
-15.5952 147.752 4.47635
-10.3526 75.658 -10.0573
11.1823 128.352 1.30391
-0.188526 116.645 -8.31273
-11.8886 93.2654 -7.561
12.6439 143.292 -0.935841
3.82072 113.985 -7.55081
-33.1478 134.084 5.71341
-30.8118 98.6684 -1.22679
-18.5338 80.8514 -7.60629
-26.5267 136.463 5.16277
12.661 139.918 7.47124
5.56785 129.408 -6.919
4.91128 140.933 -5.17968
-25.6713 125.081 0.237328
9.4974 112.225 5.38796
-15.2681 149.585 -0.840701
-5.15962 93.1368 -9.8779
-7.72744 96.2864 -8.14689
9.92739 113.446 -2.83166
19.5104 138.843 2.04552
-3.60464 128.816 10.7653
-15.7436 117.467 -4.91849
-15.3546 108.856 -6.26052
-20.7272 119.8 -5.51337
15.6408 142.478 0.767115
-26.5492 110.383 -3.51886
7.68987 121.21 -3.02391
-30.4388 135.612 0.64229
16.8695 125.155 8.19984
17.1417 129.709 7.34429
-3.47268 135.63 -1.86743
19.119 134.3 6.66432
-16.5508 122.155 -4.5712
-11.8404 76.8819 -9.50436
9.31367 123.268 5.01951
3.69756 93.0692 -2.8213
-24.5054 128.497 -1.96582
-37.6443 129.161 4.36729
-13.0993 102.46 10.8471
-9.80851 124.956 12.2555
-6.88044 148.239 -5.07452
-20.1011 132.244 -3.09075
-2.6744 115.38 -8.13412
-30.9147 97.7694 -1.09347
-22.9905 135.666 5.47312
-2.12112 82.296 -6.02934
-11.7281 77.4139 -9.66022
5.94454 133.542 8.56672
19.8504 131.358 2.62267
-27.7325 102.871 -3.69211
2.83911 107.004 17.3382
-26.7948 132.58 6.23767
16.2779 143.343 6.26386
-30.2322 103.843 -0.423068
17.81 121.441 4.47883
-28.0303 129.142 -1.92197
-32.6018 127.623 -0.837301
3.98252 136.544 3.92902
-8.26731 137.073 6.68442
3.78522 147.471 -2.86128
11.3764 127.081 7.10751
6.4461 132.148 -6.4845
-7.32447 125.527 -3.07142
-28.3267 132.437 6.10837
-27.419 138.13 4.39759
-9.11181 118.022 -4.87815
19.8348 128.297 1.4414
13.4363 124.816 7.65708
5.25238 88.6528 2.52671
3.17222 87.4238 -1.26345
-20.4426 100.467 -6.10935
-1.53143 119.178 6.44723
1.94701 111.224 -8.56732
-32.2138 129.697 4.02961
-26.7453 126.311 4.66675
8.96377 104.864 11.2933
9.96878 109.013 6.05937
-33.1073 127.448 0.773589
7.83955 137.756 -6.44105
-26.7834 118.298 4.33364
-29.7778 92.6909 -0.62782
-7.92927 100.224 11.0207
-8.62907 153.453 0.932892
-28.6804 98.6857 -3.25449
9.15932 142.598 4.54155
3.14964 80.3036 4.44276
20.732 125.342 3.63437
-3.90254 141.49 4.55055
-18.8729 130.552 10.3787
-19.6203 117.79 -6.04288
-12.1445 151.565 3.80083
2.13304 131.45 -5.21324
-27.8759 136.257 -0.953168
10.3719 116.497 4.00414
-16.9772 101.685 -5.98934
-9.57914 140.033 4.35994
-10.1237 109.352 -8.12814
-4.82463 74.285 -5.08949
-30.2283 124.792 1.91911
-29.5358 108.548 5.415
-31.1683 99.6598 0.519954
15.0883 131.782 -2.5782
-3.32874 148.855 -3.26392
15.0019 131.814 7.27251
-27.4641 141.628 5.00136
-22.6038 140.578 6.34545
0.616758 137.635 8.29409
4.9888 84.3364 7.45248
-16.1854 113.08 -6.10978
2.20135 137.088 5.31704
0.457938 154.137 -1.84275
-10.7038 119.129 -3.63827
19.4088 131.434 2.35664
12.9898 137.427 7.48374
11.3555 129.272 0.51177
8.282 114.631 5.09246
16.8793 124.51 8.09487
-5.05094 78.1497 -8.1833
-34.5979 134.492 3.9912
-6.07471 126.236 -3.63501
-15.1843 147.38 -0.841634
-13.0877 123.007 13.7257
-8.58735 76.8873 -9.71909
-21.8388 127.888 -3.83349
10.5072 110.327 5.71321
3.40137 92.2926 -2.82592
-0.361627 92.7402 -7.44555
-17.4108 85.7797 -7.41858
-17.1386 118.4 14.2956
9.91592 122.398 4.9025
8.22484 97.3551 10.509
-16.5293 145.076 -1.18948
-25.346 126.088 8.0019
-15.0746 150.315 -0.567655
20.961 131.847 3.04938
-31.6378 127.881 2.91123
10.8796 124.852 1.37433
-21.4076 127.462 -4.39181
-32.6589 123.84 1.05265
-2.50366 79.1264 -5.80352
-17.2306 120.167 -5.32758
-21.949 110.774 -5.25407
11.3318 151.676 0.722767
-2.30288 98.4673 -9.74436
-8.71397 115.109 -7.29088
-26.5855 121.604 -0.181387
-23.3812 126.765 10.302
6.46451 139.709 3.33038
9.16496 143.011 -5.46112
-27.9666 113.302 8.96781
-20.0902 104.105 -5.86563
-34.2751 129.585 3.22906
10.6118 128.336 6.62739
-4.1149 117.415 -8.35808
6.32607 102.084 -3.7984
-28.6068 137.031 -0.0711887
-11.3533 112.677 14.8639
7.05647 127.719 0.596356
19.4074 134.421 2.06652
-0.416834 77.45 0.473658
-28.059 111.893 2.2411
-13.7077 134.602 7.5928
-22.6921 126.3 -1.03876
-29.8161 107.318 4.89932
-13.4596 151.613 3.67356
2.66782 118.272 10.5454
4.6036 125.267 7.71358
5.3795 112.094 15.3653
8.59748 105.345 -0.778634
5.94284 115.56 -5.08185
-7.46288 102.825 -8.82244
14.8852 134.55 6.95596
16.2976 127.862 8.00421
-4.78692 145.22 -3.67483
2.83744 104.714 -6.5856
9.87616 115.093 9.87338
-36.2627 126.868 2.38367
-32.355 137.239 4.22593
-12.4326 96.7183 -6.41547
6.65338 142.253 3.18322
-21.4042 80.6661 -6.30959
-9.02504 118.519 -4.78555
-29.6574 102.799 -2.52315
9.51031 127.168 8.69321
-1.06838 99.5843 -9.84837
-22.9409 90.4028 -5.26963
3.65882 154.303 -1.43218
-28.6282 135.055 4.53814
-19.0839 126.046 -5.70176
-1.15375 144.434 -2.11474
8.37902 106.121 6.76772
-29.1141 126.162 1.15764
8.22851 122.363 12.2197
21.0196 121.611 2.09882
15.3687 138.937 -0.908605
12.4077 129.388 -3.70203
-19.3727 137.575 -2.32928
-4.77363 108.41 8.20968
-20.7181 97.1991 -5.0956
5.26213 115.543 15.019
9.20318 120.331 -2.60768
-19.3375 77.8904 -7.05962
11.6239 151.34 0.707039
-20.7666 111.721 -5.70934
-5.30623 94.9082 -9.59982
-16.1986 150.735 5.01993
14.3871 145.087 6.07336
-27.9084 112.253 9.1268
-23.8723 114.998 -6.12792
10.4558 120.628 -4.698
-33.9108 128.073 0.428818
3.62724 133.482 4.13083
10.9336 130.629 -1.20229
2.87711 147.343 -2.4464
6.45045 127.907 10.4096
-28.5763 120.225 0.984217
-7.63287 76.1008 -9.40922
10.2663 109.553 3.17011
8.07846 152.48 -1.68942
-25.4672 118.83 9.43601
6.34632 89.9059 6.20072
-24.2506 134.444 6.24982
-13.1545 86.3424 -8.61545
0.0886735 116.207 7.83142
16.0675 126.35 -0.604635
-24.758 125.225 -0.0408446
-22.3834 132.878 6.04808
-26.5031 115.6 8.47733
-25.2434 124.646 10.0945
-19.4886 113.461 -6.52763
-13.2419 132.485 -6.56507
-29.6042 106.041 5.31651
3.27448 136.171 4.89678
9.05148 116.01 1.90644
-11.4408 124.865 -4.00002
-9.09287 102.558 9.79846
-14.7642 75.7079 -8.95382
-28.0842 122.829 1.57935
-29.1717 128.139 4.36062
-16.1005 134.23 6.69461
-6.51525 102.138 -8.6277
10.0449 123.982 3.23803
-19.3334 138.524 -1.96246
2.42882 116.127 -8.1031
15.5858 120.24 -2.91181
-18.5607 141.314 -1.59042
-29.1701 114.482 0.781595
6.45762 135.209 -6.05296
-7.74312 125.396 12.8427
15.2988 147.531 2.4723
-26.1212 94.9952 -4.33865
-19.9011 144.873 6.19607
9.06277 107.535 -2.42135
-29.2519 125.808 1.71114
2.53755 129.187 -5.3638
-16.8309 94.8346 -5.93992
-21.0331 127.728 -3.09378
-15.2942 139.272 -4.95464
-27.3123 124.87 5.265
-6.13043 132.43 -2.15123
-3.47623 149.199 -3.27373
8.1894 103.308 12.138
-23.6067 89.7869 -4.67992
14.2761 132.005 7.30633
-14.1675 142.989 -4.17433
-33.8541 132.79 5.96096
-6.40613 103.041 -8.78736
7.17524 93.6998 5.61208
3.43368 106.519 -6.24592
-25.8352 116.568 -5.08002
8.68428 129.57 8.91113
5.48503 133.993 4.20163
15.2333 118.524 4.66263
7.36057 152.261 -2.09235
10.2144 119.588 -0.923072
11.6819 121.909 5.93492
6.51067 132.365 6.1483
-5.2337 106.052 8.91918
-12.9708 148.271 -3.27878
-30.26 125.249 0.417973
10.3649 124.212 -0.782277
-3.13589 96.0965 -9.84048
-14.0811 133.711 -6.8908
8.89633 105.182 10.2163
-31.3497 96.1984 2.61322
-26.8364 131.512 5.89789
8.1188 120.454 11.6431
-7.5326 121.141 -4.88308
4.84374 100.928 -4.92104
8.57909 117 -5.57646
-1.10021 136.381 8.89433
11.5815 133.619 -6.10837
-15.9004 136.366 -4.69649
9.74949 126.074 -6.12529
-29.218 131.261 -2.35033
3.97209 104.652 17.7055
-20.9889 81.4094 -6.2532
19.6496 122.199 4.57406
-9.29311 151.482 -3.52556
-7.47395 78.0257 -9.26234
17.3992 141.387 6.49764
-3.86768 145.381 3.54297
-21.8452 129.108 -2.79665
-8.68238 139.37 4.4853
-29.2859 127.589 2.82481
-15.6342 102.565 -6.21963
2.77134 119.168 11.8814
-25.6542 130.333 4.18766
2.52934 79.1425 4.02104
5.88505 104.434 16.1655
-26.3522 129.075 4.94929
21.5532 122.096 3.79257
-25.0366 90.4604 -3.63848
1.43939 115.207 9.84138
-2.13904 113.433 -8.1385
10.296 110.455 8.22962
12.8398 146.518 0.392367
-3.60785 93.6091 -9.85896
-14.726 90.9757 -7.23731
-12.8343 118.601 -3.98254
5.59631 141.309 -5.33075
-8.59478 134.536 8.66985
-10.1539 151.207 -3.58517
7.22498 105.239 14.4547
8.74099 153.526 1.92666
-22.2535 125.718 -4.62238
10.647 135.551 -6.85079
-19.2639 148.72 5.87437
2.27618 82.9276 -0.0124204
3.59162 144.329 -3.57203
19.7066 120.468 -2.82905
-6.14211 101.225 -8.44248
8.67096 136.7 8.31841
10.0394 109.906 11.1401
-10.8198 118.012 -4.01199
5.09526 113.796 -5.74854
-8.84811 150.086 -4.48186
8.68569 118.839 -2.63651
-2.69487 76.2795 -1.68114
11.9344 137.612 -3.45364
-13.9039 114.259 -5.06313
3.33937 133.272 4.26062
5.80549 114.982 -5.03801
12.1672 130.063 6.83447
-11.3033 125.607 -3.80849
10.6773 148.115 -2.11361
9.13057 119.312 -0.282463
-3.25682 121.717 -7.49
13.4881 140.503 0.705332
-0.451607 113.207 -7.85236
12.3294 146.17 -0.929536
-1.52653 122.077 6.16073
2.83452 144.326 6.08135
-0.458279 101.745 -9.63522
5.46868 131.941 -6.2613
-27.0481 90.96 -2.26485
11.5892 151.906 1.38909
-8.0717 113.313 -8.11165
6.62158 149.414 -3.45625
2.05946 85.3888 -1.88603
19.3758 131.203 5.83054
-21.7884 139.864 -2.46538
-6.48944 136.163 -3.05188
-17.2758 131.68 -4.60198
9.57769 116.249 11.3637
-0.145922 131.831 8.6679
-31.2292 131.882 6.43437
-14.5227 138.966 -5.52122
-10.0302 98.4563 10.6737
-17.7118 101.384 -6.07579
-27.1032 124.602 -1.63364
-28.3422 113.633 1.77327
-27.5321 141.45 4.94171
-0.559862 143.072 5.25912
-23.2162 147.728 2.87274
-5.41008 87.0987 -9.76125
7.82038 151.969 2.65261
-23.8971 81.577 -4.70354
10.1365 138.984 7.7156
-2.06547 137.669 -2.00365
9.74646 111.807 5.01747
-28.2165 128.418 4.04324
-17.4029 134.841 -3.56056
-13.1578 125.305 13.0586
-21.7135 128.598 -3.62116
8.85887 120.868 10.3502
9.07601 116.017 1.90746
-19.5648 150.424 3.28893
-21.933 123.704 13.1306
10.8764 143.065 5.8344
-23.5376 92.805 -5.53188
0.363313 102.057 -9.32541
-3.20053 109.167 -9.45091
-8.65095 124.178 -2.98843
-11.1272 115.014 14.977
17.8593 125.147 7.5471
-14.4114 130.055 10.9637
-23.9376 106.514 -5.68237
2.5736 130.45 -5.73628
-11.9218 99.6273 -7.05044
-17.4152 110.333 -5.8188
12.5141 143.906 -1.04757
-26.3853 130.893 6.26312
2.65954 144.293 -2.98323
-27.6066 128.402 4.67986
-27.2788 127.064 0.65924
-0.856684 128.728 8.43249
16.7553 122.81 6.25628
10.3742 126.999 0.130365
2.42706 143.449 -2.96484
-5.80846 90.8577 -10.0188
7.40696 109.864 -5.04399
-17.5024 133.298 6.86161
0.532482 81.2089 -1.93376
6.32763 149.038 2.94301
-6.49572 83.0229 -9.30303
1.2892 139.195 -3.30679
-2.57526 133.632 9.41448
-7.41362 101.355 10.1019
-12.4465 91.4136 -7.62831
8.53956 117.932 0.105173
-0.521437 141.896 5.87789
3.08042 131.444 -6.19238
8.76964 110.617 13.3088
-4.57018 75.5072 -4.58445
8.12513 129.183 -1.18539
-1.11592 137.519 7.90283
-26.5001 126.984 0.38836
-4.03112 101.703 -8.92848
8.8711 130.511 8.43256
-0.808562 135.435 9.05287
-6.79277 114.682 10.2523
-18.7552 148.145 0.552448
-6.9993 115.403 12.1999
11.5317 134.684 7.28579
3.20659 122.148 7.25888
-24.9801 138.087 4.71656
-22.8412 140.786 -1.30237
8.83349 123.176 11.1901
-27.8905 93.7062 -1.82154
-12.4158 143.039 3.74752
5.0856 115.369 -5.36642
-13.5576 127.416 -4.98814
-12.2951 133.434 7.9257
-11.2457 74.4542 -9.97716
-17.2371 114.898 -5.6445
1.68043 120.121 7.0937
8.43917 116.899 -4.67204
-32.4006 137.212 4.2018
6.58026 87.2515 10.9907
-12.0785 104.153 11.3251
-0.0024694 123.581 -6.207
-32.4556 129.721 4.66395
21.5017 121.897 0.851129
6.8364 100.169 14.4254
10.2818 135.353 7.46839
-13.774 101.526 -6.83551
-27.7438 100.826 -3.80451
-27.5746 137.605 -0.297119
-26.7537 127.639 4.45378
-14.6374 108.547 -6.21389
5.85678 92.0456 2.13454
-9.60829 143.423 -6.08091
-29.8307 130.144 4.58117
-29.0469 106.45 -2.61572
-25.1604 124.773 -1.00238
-30.0942 106.141 -1.61023
-0.328676 79.7162 -2.02371
17.1547 134.393 -1.35807
-14.9937 139.574 4.54234
-29.0179 107.395 -2.56684
-10.2627 130.518 9.81141
-28.0663 91.7813 -1.48933
4.80943 105.369 -5.2476
-22.252 129.332 8.28605
15.3263 117.85 4.23042
3.32265 126.486 -6.49007
-15.3523 132.562 7.91847
-22.6169 121.279 13.5599
8.32813 99.6901 8.89225
-23.3851 130.728 5.35618
7.75562 121.854 -6.89364
8.40496 124.484 -3.08277
-18.8652 77.919 -7.30995
-10.008 136 7.16879
-25.1882 97.2941 -4.93988
-22.398 96.1261 -5.11168
-31.069 131.763 -1.8723
3.75321 103.954 -6.04956
-16.263 135.328 5.8857
1.5604 80.7547 0.734961
-24.604 137.089 5.29293
10.672 116.623 -0.536195
16.7155 134.249 7.12792
-2.36124 124.398 8.57635
1.11393 130.886 5.86109
-3.27711 107.191 10.0985
-28.7584 124.947 -1.59241
10.3519 128.436 8.30199
-22.3485 80.357 -5.53574
-26.0434 117.489 5.59922
-13.4909 143.198 -4.32231
-1.06565 109.36 -8.50107
-25.3993 143.458 1.09983
16.8697 134.855 -1.32967
6.37009 94.916 15.2965
-11.7156 127.381 12.0145
-23.8136 146.763 2.33433
11.7838 139.567 -3.18164
-29.6464 123.121 -1.04999
8.14702 146.378 -4.82544
5.31691 126.833 8.31337
19.6245 136.299 2.02137
-27.8668 124.968 -1.73517
16.1984 136.673 6.78427
-13.9017 87.2996 -7.89905
17.245 124.481 -0.414992
7.19182 100.703 2.12646
-17.5287 99.671 -5.97565
-24.872 143.339 5.77374
-28.2807 133.781 5.38321
-20.6317 91.9878 -6.15299
-32.7514 129.745 5.38561
21.1392 133.422 3.88518
10.4058 119.945 2.66084
-4.14297 95.8086 -9.78461
22.1148 126.805 0.495715
-5.36831 142.168 3.78615
-17.4538 151.436 3.06213
-14.045 137.949 4.83297
10.5749 141.877 6.57021
15.9193 131.372 -1.71618
-37.5537 127.258 3.55174
7.01251 89.7789 9.50763
-26.8699 101.338 -3.95906
-11.4708 109.083 -7.39997
12.2245 132.837 -2.18981
-27.5459 143.132 4.38527
1.72943 112.97 13.7739
6.60691 88.9533 7.73991
-24.2889 125.6 -1.75612
3.08436 101.692 -6.71566
12.2974 125.869 5.22708
-2.18536 124.506 8.2445
-22.7846 100.909 -5.21682
0.216766 138.342 -2.62632
13.276 126.669 -2.19943
-32.478 134.847 1.81737
10.325 125.623 0.993315
-22.0413 116.061 -6.42674
-12.0764 104.134 11.268
8.9003 135.273 8.64902
-32.3136 124.554 -0.471424
1.19765 103.624 -8.81629
13.4067 126.699 7.17347
6.41505 88.8226 7.26883
-13.2795 116.343 -4.41505
6.91678 133.216 8.7026
-15.3774 109.287 -6.28932
7.77363 98.4774 5.97533
9.98819 120.611 -1.54086
-36.9937 129.784 3.46202
12.815 148.63 1.89561
10.8392 137.053 7.51344
14.9949 123.204 7.00227
-13.6911 138.656 5.02828
4.25584 127.545 -7.05211
-6.53517 137.619 6.74988
7.15931 131.777 9.65574
19.9854 137.927 5.71416
-16.5021 151.443 4.34078
-17.3849 151.134 1.59798
-13.5418 75.9548 -9.10914
-14.2314 90.161 -7.6953
7.54361 107.775 14.3409
14.3788 147.554 4.76139
3.90148 121.086 -5.70166
2.53306 108.425 -7.50365
-7.02858 114.216 11.61
-19.6697 135.82 -2.2797
10.3871 147.892 -2.51521
-11.4234 126.694 -3.77042
-28.8428 118.52 1.35072
13.7243 136.175 -1.04459
-7.9576 111.051 9.73417
4.17553 85.5601 2.53926
-20.2484 149.683 4.81841
7.80745 116.741 -1.84855
-5.13272 122.04 11.9646
-16.049 121.509 -4.43146
-14.4141 81.9002 -9.1396
-7.17474 133.64 -2.86827
-11.0724 114.419 -5.08958
5.46872 84.9262 8.35437
-1.15823 134.35 -2.53396
-0.361234 93.5364 -7.87252
4.26506 83.5885 5.14185
-1.90162 107.426 11.1121
-19.7946 117.664 -6.0764
1.76844 80.8376 1.4593
-26.8357 124.737 -0.102177
9.68176 124.841 -4.08693
-6.42593 126.8 -3.05974
-26.4725 120.346 -3.50213
-11.5544 124.902 -4.06995
21.3091 125.171 -0.756587
6.11241 123.81 -7.63782
0.118571 107.856 13.7176
-27.1935 132.563 6.23663
8.20793 96.9059 9.01556
18.0457 126.373 5.54276
8.75108 149.47 -3.74012
-20.7349 128.395 11.6669
0.323349 131.18 -4.42509
-25.4128 101.576 -4.24892
8.60367 104.435 12.4826
0.625101 88.8969 -5.02841
-0.68805 108.507 11.6417
13.2094 124.243 7.37144
7.33259 98.0949 1.26851
5.5373 130.675 9.638
-21.1032 122.988 -5.20282
-22.7777 132.931 6.21383
1.58781 114.846 -7.95035
3.02544 82.7983 2.44763
-21.6948 128.656 9.76831
-6.23227 84.5195 -9.42654
-18.113 147.757 0.407444
1.49751 108.438 17.3842
-16.3421 145.382 4.79363
-31.0101 94.2542 -0.449946
-29.6173 127.182 2.31905
5.03913 90.4125 0.619576
17.5286 123.549 -0.937562
-3.95562 93.86 -9.97136
-0.685608 86.9648 -5.82727
2.51144 117.055 14.0293
-25.6486 122.766 8.74462
9.87819 108.707 7.91149
-19.0563 150.791 2.98147
5.44699 115.309 -5.08412
-6.39702 143.716 -4.52398
15.7222 146.402 4.46575
-29.5116 134.754 -0.278946
17.6791 144.803 4.41761
-7.87449 121.298 -4.35499
-13.098 147.544 -3.02806
10.572 118.787 -4.36525
-18.8496 135.1 -2.95388
-22.8073 140.098 -1.97506
-17.2275 151.431 3.49987
-4.6948 127.532 11.5819
-16.8009 130.925 -7.0337
0.801654 144.677 5.20144
-12.0784 88.8244 -8.26753
5.12081 145.847 -3.9314
9.68864 112.059 5.77553
-18.9861 119.499 14.5322
-3.18438 139.944 5.68731
-28.4624 104.858 -3.11286
6.91661 111.595 -5.78068
9.25475 146.54 -4.60162
-20.0691 125.115 -5.42274
-10.641 137.144 6.16698
-7.74182 132.446 9.95411
-28.4866 122.114 3.0785
-27.519 120.121 0.016737
-32.0508 131.46 -1.28602
-14.5913 136.644 5.00437
-27.0496 115.674 4.54592
-12.029 74.7079 -9.83033
-8.21995 79.6555 -9.57752
-16.0029 118.754 14.3566
12.4518 148.964 1.69522
-1.96209 75.9165 -0.448363
-2.86231 143.77 -2.48416
18.6121 127.578 4.97547
-16.8728 137.563 5.68115
-0.0811239 129.993 -4.46715
-27.2524 82.906 -2.0809
7.65846 124.226 0.136413
-1.25643 130.637 -4.66812
4.55259 99.7325 -4.29888
-11.2591 103.351 10.4369
-30.6374 129.511 2.61804
-1.34667 119.278 -7.89438
5.18476 127.716 9.12737
6.55503 134.8 6.73254
-0.223148 142.606 -1.91847
-29.8899 105.032 4.7271
17.2307 120.951 -1.55425
-7.40224 77.3487 -9.25323
9.98899 126.367 2.35008
4.5321 136.724 -6.2682
5.15808 90.8458 0.528292
17.2445 130.221 7.38529
-24.2737 138.329 -3.28502
21.0592 128.123 0.920306
9.01965 118.355 11.0528
20.2831 126.578 3.4688
-14.1034 144.619 -3.59925
-17.3611 95.946 -5.50155
-23.8876 146.179 1.33088
0.330669 94.369 -7.40516
3.97368 96.2435 -3.45488
-9.20201 138.456 5.28454
-16.0366 123.86 13.8182
-18.3497 76.0207 -7.90828
-17.6552 141.192 5.98766
-17.5631 115.971 -5.569
0.623895 109.355 14.6125
-6.49425 122.681 -4.85121
7.44879 108.399 -3.98471
17.8175 130.869 7.40838
-7.55012 80.1913 -9.36667
18.6963 122.193 5.79605
-5.53906 133.179 10.2802
-28.6131 98.626 -3.30499
-27.8984 126.753 1.21034
-9.07661 91.5525 -8.62392
-28.7277 137.915 0.515541
13.354 131.415 7.75762
0.26385 118.018 -7.94738
8.72786 123.975 4.21513
15.1378 147.383 4.30848
-2.31725 145.893 3.50364
-8.3086 129.896 10.5611
-6.7088 76.712 -8.84783
-30.5238 98.0217 -1.50805
-24.9435 91.7778 -3.77095
-30.2322 130.553 -1.75363
-27.0098 126.952 1.59302
-24.6573 125.363 -0.171858
11.7244 128.346 5.43758
5.85033 86.2731 7.78678
-1.03985 109.202 10.8053
1.80393 123.943 -5.11474
-23.7134 95.7141 -5.13466
-12.9993 78.9609 -9.39818
-23.3782 95.4044 -5.08859
-25.48 104.479 -4.47766
7.3027 101.149 3.71958
7.84974 100.137 12.198
-24.3697 104.298 -5.50723
-6.96261 138.704 -4.19325
-28.5271 120.286 1.05408
10.5197 127.283 0.818969
-15.3945 137.465 5.4209
-19.8976 124.816 12.5381
-1.03665 84.7254 -5.20823
8.07156 139.111 -6.38391
5.23584 98.0151 -2.33826
-0.206833 131.722 -4.44341
-25.3369 132.794 7.50828
-22.2891 124.613 13.0217
-22.3092 107.187 -6.01054
-27.2468 139.086 -0.541685
-31.4826 95.4361 2.12933
-23.2552 95.5621 -5.10592
-23.6632 84.6053 -4.31735
6.29241 87.516 8.14026
1.80198 79.7845 2.27548
8.7568 132.211 8.28407
-19.2994 132.349 -4.29614
-1.08177 106.874 12.4642
4.58359 140.307 -5.28781
-4.69786 123.028 -6.21332
-6.36756 128.521 -2.73012
8.11893 103.635 13.0299
-10.4334 121.798 13.9017
0.39363 120.635 -6.56588
-3.44486 112.814 -8.66042
10.5723 146.767 3.59461
-6.33186 116.998 11.9914
-6.36797 114.68 8.92136
-9.92187 152.823 2.37799
1.97435 138.677 6.50278
16.8581 123.481 -0.816439
4.70562 113.233 -6.47685
2.96893 119.903 9.507
-12.2897 103.991 12.1315
10.5869 142.141 6.38873
-2.47696 147.892 -2.80746
21.7728 130.203 2.12671
-15.0096 101.876 -6.25252
-19.3833 119.613 14.5881
-22.9426 76.7719 -5.44983
-27.9337 127.137 3.28008
1.49341 97.8355 -7.59897
-37.4256 130.016 5.8787
-29.2338 127.442 3.23782
-4.54587 134.814 9.64777
-9.76189 104.112 -9.03291
-3.82488 146.141 3.72388
-5.70532 104.963 9.03914
-7.57734 137.432 6.53634
8.23998 100.795 11.1543
18.7003 121.61 6.24552
10.8796 143.158 -4.43322
15.1093 116.975 4.06175
5.47862 150.706 -2.70234
-24.1248 120.232 -5.98525
9.10148 134.302 8.61933
9.48456 145.431 2.90495
7.8961 116.517 -6.01784
-0.227062 143.667 5.1633
-14.6854 92.8777 -6.73881
6.28733 89.6948 6.19855
-21.2187 137.716 -2.36651
3.74865 122.509 12.6101
-27.1247 96.9837 -4.09011
7.37126 94.8803 4.62531
-20.8802 143.389 5.93847
8.81607 120.804 -3.70112
8.93757 108.33 -0.529854
6.66186 99.2304 15.357
4.04503 124.168 11.9537
-5.56401 115.534 -8.40217
-3.09924 75.6493 -1.43022
6.36383 140.435 3.53965
-0.13058 128.534 6.99403
-28.9627 86.525 -1.29879
-8.28278 147.6 -5.38202
2.23953 116.266 12.3032
8.35051 115.254 -0.63452
18.0889 124.708 7.12444
-8.97222 112.735 13.6117
-32.944 125.178 1.69861
-27.6752 79.6726 -2.7191
-29.5525 131.916 -2.58653
-16.8402 131.635 -6.65334
-22.8789 100.355 -5.08738
1.1042 136.615 -3.8677
-18.4895 148.27 6.31933
7.23672 100.643 0.108201
-21.2831 92.3149 -6.00589
2.18312 142.629 6.61189
-17.5696 129.892 -6.13538
6.36742 120.353 14.0889
-22.0025 133.266 -0.998147
4.60273 124.733 8.45608
7.56889 124.244 1.01519
8.17727 136.785 8.36749
2.80645 101.631 -7.09365
0.780799 77.4234 2.23865
-24.518 139.815 4.88137
-13.0974 84.5501 -9.10261
-20.5827 91.2251 -6.35508
-15.9023 88.1186 -7.57351
-10.4103 128.982 -3.63216
-7.74585 136.536 7.17955
-23.0817 131.837 -3.64081
-36.4617 130.216 3.99642
-27.5224 114.15 9.261
-27.8822 126.454 2.58869
-8.28939 88.6182 -9.85175
12.5537 149.712 3.43255
-27.2158 136.676 -1.11326
5.14177 93.4656 -0.647101
8.45836 126.97 8.95648
4.32781 144.107 -4.01945
-31.0468 126.463 1.16892
-27.3257 127.301 4.25606
4.38019 99.9314 -4.74011
5.35083 119.082 14.7484
-23.7487 131.07 5.64475
10.9953 124.615 1.26028
-25.3793 119.995 -5.23968
5.96271 112.066 -5.92528
5.47761 132.947 -5.97899
-27.1693 125.804 1.20114
8.65157 127.879 2.50892
1.83716 140.227 7.24174
4.83335 145.434 3.65043
4.91626 126.81 11.9267
-8.00972 91.293 -9.11434
12.4949 124.413 6.15895
0.590724 77.6656 1.81703
-1.6358 120.302 6.42797
-26.1335 120.818 -4.41444
-3.39562 89.6661 -9.42422
-1.85753 116.836 6.86726
-20.7348 99.1178 -5.93882
-20.6169 135.425 -2.0657
-15.3208 130.787 9.9736
10.7084 128.878 6.78092
-29.1026 126.595 1.58731
4.47881 118.23 15.0938
7.5589 98.7723 4.81318
-17.7699 129.303 -5.22678
4.28325 113.247 -7.10967
-27.4698 91.0113 -1.97161
-2.70712 109.188 -9.24636
-15.3905 142.037 4.9057
-13.7202 142.604 3.98068
9.21317 109.408 -3.03394
2.98145 120.795 12.4651
-11.7315 126.042 12.2512
-9.63377 152.471 -0.0563077
-22.8635 145.839 5.25991
-26.2087 104.278 -4.03933
-29.6145 129.955 2.88114
-13.166 119.543 14.6597
9.4518 127.064 -0.233987
2.57238 94.5258 -4.82903
-7.62696 145.238 -5.41849
3.78252 123.344 8.11918
12.1668 124.759 -3.59456
-26.7146 128.807 5.27016
9.26048 132.468 8.23073
0.454409 119.009 -7.53341
8.11945 104.662 2.45731
11.3688 129.589 0.212694
-14.3274 109.083 -6.06395
-11.1208 121.479 14.0716
11.9558 121.668 7.40262
-7.39454 132.457 -2.82229
-19.1472 139.984 -1.622
-28.4186 111.501 3.69565
-8.73466 139.944 -5.88778
-11.2841 106.155 -8.91664
18.6354 125.262 -0.225193
6.05621 120.643 14.1538
-16.582 150.097 4.82166
16.4998 136.199 6.81782
-26.7762 125.524 1.00655
16.4198 132.312 -1.59739
-2.88032 129.643 10.3416
9.67373 132.072 -6.75889
9.06988 107.677 -2.4575
11.6332 122.391 -4.78782
10.944 124.742 1.58668
-0.753504 135.836 9.09307
-23.1596 130.507 5.69617
8.33884 132.168 8.52196
3.24392 147.598 -2.56348
-5.21798 98.2744 -8.94363
-19.6098 150.387 3.33847
-24.8648 145.836 2.23074
14.3911 144.707 6.14556
0.382435 107.044 -8.86597
-28.3568 94.3523 -1.8352
-7.12938 117.925 12.9059
2.9051 145.89 5.61016
-3.55286 128.371 10.7829
13.2135 148.41 4.07236
9.77656 131.426 -6.87625
-0.802539 130.348 8.83725
-7.96089 114.753 13.0293
4.47119 81.347 7.72412
3.68731 96.4735 -3.93394
-16.155 130.246 10.9489
11.8634 144.524 -1.79136
-26.1578 129.457 3.74976
8.58154 103.157 7.19175
-14.9619 150.697 5.10436
-29.826 128.773 4.79417
-16.1161 129.333 11.9264
-3.1745 131.016 -3.91509
-18.5344 87.9894 -7.0242
5.31147 94.56 -1.18656
7.61469 154.222 -0.591818
-2.31138 75.0652 0.275534
8.33643 99.6872 8.92486
-16.7387 85.883 -7.55921
7.54368 102.701 1.7217
-22.276 84.3251 -5.54149
9.24115 123.639 4.51732
-8.21295 105.443 -9.14335
-11.5667 77.5608 -9.75922
2.17355 78.6862 3.75836
6.62248 89.7101 11.722
-2.73151 131.868 9.977
7.97413 108.303 -3.55374
-20.4948 111.828 -5.81665
-7.81176 113.514 12.6687
-28.3969 116.012 2.75806
0.491999 125.135 -5.27709
19.4242 137.712 1.79006
-29.1753 114.659 0.862012
-31.21 136.567 4.59343
-19.4183 127.076 12.2459
-9.0629 150.947 -3.9252
11.9199 130.448 -3.61573
-14.8847 129.672 -6.21951
-4.82185 80.6332 -8.51768
-24.3161 105.633 -5.70198
0.424177 74.8103 5.71395
8.35486 104.617 -1.27841
-19.4796 150.25 4.31741
-19.865 148.691 0.725238
10.5128 110.916 3.19395
-18.857 77.5217 -7.2523
-11.4307 139.114 4.78926
-26.0617 100.721 -4.0596
-3.43857 88.0906 -9.01429
-0.930252 134.763 -2.48009
-29.788 106.457 -2.21044
-23.1862 123.424 -2.05763
4.94078 128.656 10.4086
10.4014 124.988 8.08249
-28.6576 110.216 0.929478
13.5211 143.703 1.66176
21.8798 124.868 -0.237408
13.3907 130.727 7.94758
16.7351 120.809 4.87014
8.49483 118.793 -2.49264
-13.6783 130.246 -5.52594
-23.1288 120.794 -5.64864
11.7712 119.75 6.0397
-14.6753 135.114 -5.39277
-23.0082 131.565 -3.47011
-8.1794 107.52 8.94534
-20.186 135.482 -2.65721
21.3328 121.497 2.68354
-0.573118 125.053 5.71809
-18.0458 131.556 -4.7891
-13.6703 148.106 -2.54412
-9.51507 104.886 9.86226
9.33321 113.242 -4.26982
6.247 138.433 3.3763
-3.59411 131.5 -3.50764
-10.6196 144.014 -5.2722
-28.0249 126.302 2.74837
-29.1735 109.876 5.52408
18.9407 122.254 6.46067
-3.90952 154.267 -1.93936
-29.9297 101.113 -2.2103
2.81611 119.476 11.584
-21.227 91.3862 -6.29325
6.65787 122.962 -7.52771
6.91803 88.9813 8.6629
9.52784 120.611 -4.44622
2.76244 80.7643 3.49098
-12.8295 148.587 -3.39267
7.84172 103.026 13.502
5.06906 110.878 15.7094
-24.865 133.475 6.64878
-9.40327 131.111 9.54576
-3.93937 94.6085 -10.008
-17.3869 129.429 11.505
-28.0881 130.971 5.70164
9.6648 125.788 -3.88658
17.1942 127.932 -0.643173
4.53286 105.585 17.1372
-2.96833 123.047 8.31083
-2.02846 123.087 6.60574
3.65296 140.876 -4.71703
14.6352 138.505 -0.509792
4.96187 133.251 4.15186
-29.7628 108.446 4.09621
7.05484 112.743 -5.32521
3.53318 119.669 -6.31566
-24.6603 91.6628 -4.02788
2.28721 110.574 -8.10565
18.2723 128.023 7.1896
16.1781 140.637 0.0435289
-21.2903 88.3878 -5.71421
-12.4588 103.497 11.9378
8.11388 98.2057 11.364
-23.9679 139.92 -1.68824
10.9992 120.02 5.3235
-7.10112 113.933 11.4311
-4.56571 128.042 11.4704
-21.7924 132.121 -1.40055
6.54117 109.327 15.2444
-5.69364 110.686 7.93297
3.36008 126.154 -6.54476
5.34791 110.962 15.4308
1.95961 140.58 -3.4177
-14.5657 129.069 -5.58096
-29.4531 109.449 4.20087
11.9158 137.466 -0.46666
18.7488 129.368 5.88451
7.49783 124.886 -0.268416
-24.2447 127.349 -1.19058
-29.062 116.011 0.264215
-18.7985 132.712 6.65986
9.15444 130.036 8.44444
-27.2377 140.608 4.8595
6.74373 127.259 -7.57263
-23.9293 124.653 -0.279848
9.77516 124.43 3.32256
5.46153 84.095 9.64669
7.79975 113.214 -4.91675
-4.93368 113.043 -9.09139
-28.9564 95.6389 -2.1785
8.41498 123.044 -2.95453
-21.1718 134.785 -1.72492
-12.7841 146.606 3.5722
20.4429 135.325 4.56799
15.6053 140.791 7.13939
8.44516 119.626 12.4194
-15.0897 133.881 -6.14484
-12.0767 98.7779 10.3168
-7.62108 134.666 8.88949
-13.4659 125.805 -4.29874
-15.6643 104.337 -6.78046
2.02302 138.652 6.37589
-13.3592 94.6041 -6.90214
-1.95055 144.714 -2.30834
8.31712 126.164 -2.29046
-15.9698 115.059 -5.582
-18.7427 139.432 -1.96316
-16.2597 124.068 -4.16242
-2.3942 111.845 8.25187
-26.0868 135.496 -2.34462
-14.3932 136.126 4.96992
9.95696 128.298 0.277642
-24.8628 123.003 -0.411721
-7.58638 111.99 -8.17106
-25.3021 125.143 0.0657784
-14.7464 151.827 1.10216
-27.6461 121.969 0.178472
3.08087 85.4437 -0.49259
17.0145 126.959 -0.328007
-30.2313 106.338 3.38808
-4.53483 86.0537 -9.43474
-28.2426 87.9176 -1.5655
-2.50225 92.8351 -9.4353
12.0383 129.064 -3.71782
6.39423 91.4792 4.95806
7.65125 124.301 3.21703
-6.35771 108.881 8.20147
20.8857 128.739 3.63192
-0.2857 121.643 6.12917
-5.90561 120.578 12.4282
-6.77681 104.685 9.39641
8.79446 128.703 -1.28023
9.27287 149.137 -3.40861
10.676 119.614 3.71882
6.27275 106.621 15.5298
-5.92616 148.643 -4.43904
-6.07445 101.934 -8.56641
-4.25176 87.9078 -9.59197
-16.2833 123.294 -4.26799
-3.7079 126.73 11.0241
2.9486 119.685 13.2514
-28.7859 116.819 -2.44843
19.5045 136.492 1.74525
-16.0202 144.952 -2.00655
-5.35914 148.628 -4.10043
0.797426 107.491 -8.86256
-16.546 124.156 -4.28379
-23.3176 147.354 2.38784
-7.75486 105.89 9.08034
-4.4288 115.512 -8.51726
17.0698 128.379 7.5018
-18.0853 129.474 -5.1125
-31.7192 94.184 2.0761
-1.02778 112.459 -7.99889
2.725 114.198 -8.10321
-28.1559 108.416 8.03859
-2.04814 114.214 7.36558
14.1284 142.113 6.99666
-16.3206 148.822 5.09744
-30.3339 105.09 1.03532
-6.48912 124.149 12.7725
-9.29066 141.994 5.04538
8.54662 105.927 9.19611
-26.1504 116.251 8.31747
-2.54527 117.06 -7.84822
-18.6314 132.168 8.12618
0.809102 144.23 5.32199
6.51721 86.3045 11.7481
8.7574 153.328 -0.605143
6.29042 96.3137 -0.739615
-6.48296 113.766 8.80424
2.05834 109.347 -8.32733
5.54957 153.483 -1.4025
-26.1915 106.538 -4.66224
4.39707 84.0272 5.19126
-10.8065 105.958 12.8192
1.31779 112.812 11.6623
4.74588 122.816 13.42
-22.3136 146.478 0.369114
14.6726 123.914 7.62284
-16.2028 103.306 -6.20291
-17.8226 75.9934 -8.24649
-11.1771 145.807 4.45566
-14.0073 109.441 -5.99681
-20.575 134.821 -2.2031
-2.29124 87.8618 -7.84218
20.4475 120.762 3.98864
4.16775 83.2272 5.21576
2.40098 140.832 5.88739
-21.8552 129.661 -1.11269
-29.7877 136.216 0.236544
-8.52238 123.733 -3.00641
3.3094 105.924 17.5784
-8.15632 150.085 -4.47735
9.55602 126.895 0.982621
-18.7732 133.764 5.79508
5.02091 146.34 3.58018
-4.72389 78.8339 -8.07687
-15.159 118.361 14.501
5.05859 142.65 -4.77206
-13.8194 103.718 -7.31378
-27.0949 125.351 0.710783
-5.08229 120.723 11.2002
-20.7824 146.364 -0.212758
7.15218 93.6375 5.54815
-9.76473 152.783 1.7261
12.1447 133.342 -1.03893
-0.823183 124.454 -6.42674
8.91428 119.242 -6.18581
-12.0163 147.617 3.49736
-13.1647 118.032 14.7838
-25.9942 127.089 1.73026
0.0761976 84.93 -3.93845
12.0975 138.187 -2.23504
-22.8187 140.331 6.16317
-12.6184 148.642 -3.53653
-4.29655 100.622 -8.76038
8.24232 120.188 10.9812
-8.62562 152.43 -2.98034
1.20383 130.468 5.6683
0.583771 112.015 10.9778
8.16172 116.032 -4.55328
18.8016 131.474 1.92152
-17.5316 150.475 1.58937
5.88186 149.255 4.14317
-35.1255 130.561 6.02003
-1.20153 129.918 9.11789
-14.303 111.314 -5.93871
-33.756 129.177 3.19201
-1.74378 105.906 14.1845
-30.5911 100.448 1.4124
9.82788 141.016 -5.42535
16.5653 122.959 -1.18464
-19.8041 141.925 6.09985
-28.3988 111.359 3.129
14.6583 142.229 0.55461
5.82696 144.48 -4.63217
3.65042 144.199 -3.64726
-28.606 111.2 8.00897
-2.2917 114.967 7.13143
-27.0238 122.81 1.00146
-30.2713 129.639 -1.33973
-5.68684 139.83 -3.50895
-6.10104 152.129 -3.46267
-10.283 146.108 4.35249
12.0841 120.863 -5.0857
9.0315 153.983 0.248349
-12.6604 152.016 0.362108
10.0847 153.4 1.25712
20.0533 138.683 3.08053
7.60731 97.6754 3.19885
11.3808 135.638 -4.78647
-9.33753 87.4671 -9.7766
18.3349 122.397 4.11894
6.17669 136.063 3.84614
-2.10217 132.073 -3.56477
-15.1954 123.39 14.1404
7.7958 103.766 14.3343
-9.07089 94.8239 -7.84018
-32.7436 129.38 3.29968
2.61249 119.852 -5.99433
10.5221 110.525 2.63966
10.1156 110.614 1.56235
2.85919 142.734 5.37547
10.9993 127.47 1.48269
17.1033 139.871 6.94871
-21.7829 145.492 -0.307788
0.225468 123.934 -5.87255
-0.869803 114.079 8.17292
-24.3984 132.178 6.9309
-6.19551 151.451 -3.78958
-28.0172 112.521 -3.51256
-5.48671 121.922 -6.427
-31.026 131.419 -1.76777
0.721093 103.913 -9.21588
-21.4474 132.685 -1.3587
-17.7504 139.486 -2.29911
6.12453 112.893 -5.47051
-29.1867 117.01 0.726139
16.665 143.691 1.85227
-2.7251 146.529 -2.79445
-27.7947 126.899 4.02551
9.82601 113.226 -3.87316
-12.8784 151.977 0.751082
-8.3533 126.295 12.0595
12.1115 134.33 -2.04002
7.82512 118.271 13.4315
-17.4741 140.366 -2.45287
-8.34001 146.848 -5.60094
6.35032 114.707 14.3008
-14.8064 133.691 7.1357
-23.7734 118.496 -5.94991
5.97432 110.049 15.3488
0.479772 91.7588 -6.24134
-12.8752 140.115 -5.76118
-13.6439 115.741 -4.61511
-35.5174 130.033 3.44896
12.2019 143.124 -2.73435
8.89325 142.618 -5.77533
-16.7324 146.614 4.84831
11.8347 140.635 -1.03579
-7.76995 111.695 10.5065
4.72407 118.457 -6.14442
5.54386 88.3248 4.98941
1.12338 112.897 11.0604
-8.77763 121.753 -3.46191
-26.5856 121.67 -1.6122
16.4249 140.893 0.210235
6.63382 90.6797 12.8603
-26.7284 125.743 0.944152
-22.8643 127.714 -2.05394
-12.9668 100.472 -7.20718
-2.31931 105.074 13.6758
-23.9172 110.766 -5.67348
2.8391 130.342 4.31434
-6.28738 101.586 11.4545
8.00806 127.047 0.938028
20.3123 138.74 5.10083
-22.0975 125.819 -3.58662
-14.3975 151.43 0.321977
-4.25493 136.093 8.73239
-15.2933 86.0884 -7.89283
-28.2101 127.093 4.10161
0.672263 140.212 7.0476
-6.6252 117.363 12.3582
3.39554 136.15 -5.7965
-6.70633 89.4391 -9.97552
5.92404 148.832 3.21945
-0.289067 124.675 -5.98352
17.4852 123.926 7.67427
7.85079 103.81 2.66283
18.6234 129.494 1.31145
6.0375 143.679 3.22123
-24.6316 91.0901 -3.82831
4.90868 148.327 -3.21354
-1.02774 108.612 -8.70949
-3.59884 92.4358 -9.74164
-14.75 143.508 -3.85283
11.2486 124.714 -3.8628
6.35016 132.918 9.23051
-29.4713 110.879 -1.27255
10.8951 120.876 4.81118
-10.9872 137.177 -6.67492
-29.7938 85.3306 -0.37228
-15.1466 150.568 -0.240211
-35.7233 132.197 2.71752
7.5048 93.9416 7.26004
-4.47479 126.453 -4.71266
-24.5072 145.743 1.46256
-21.0954 80.1228 -6.42297
-17.5632 119.789 14.2457
-3.02487 131.807 10.1682
0.882241 143.776 -2.15045
-24.869 146.183 2.99741
11.43 130.392 6.9337
-20.249 134.189 -2.73764
-0.373415 106.888 16.4373
-9.85598 109.652 13.9552
-32.9301 128.266 3.01605
-19.4596 84.1242 -6.64899
9.19615 112.915 -0.48531
0.160349 131.586 -4.41298
10.1594 120.84 -1.31398
-18.3463 109.389 -5.96463
7.44283 145.276 2.6266
-5.27542 134.905 -2.06269
6.32677 101.411 -3.50756
1.23915 153.561 -1.71401
9.0881 107.597 4.05616
-22.2148 148.446 2.32
10.6241 127.575 7.78419
0.030877 97.2261 -8.76996
-5.41697 125.968 -4.25125
-9.8397 123.759 12.8851
-20.337 138.38 -2.06391
-26.6808 132.692 6.69142
-29.8472 98.1167 -2.19047
-29.4003 108.094 -2.35226
4.95601 140.753 4.24602
5.57865 148.762 3.66866
-11.0723 132.577 -5.13133
9.90105 112.052 0.057075
-10.7985 143.681 4.7936
-2.75521 124.546 9.47773
-35.1606 128.071 3.49843
8.64096 116.608 -2.55281
-8.34008 85.3918 -9.79426
5.55555 128.768 6.95026
-25.4546 137.84 4.69699
-24.9446 124.969 0.442905
-9.07003 98.7045 11.4764
11.0881 120.889 4.99139
-22.6687 88.9199 -5.10724
-25.933 119.851 6.00834
2.01887 93.655 -5.1094
-27.3991 107.011 -2.8755
14.9501 141.586 0.0841409
0.0607038 95.6176 -8.25813
-2.33493 140.846 -2.07122
8.92333 106.477 10.5069
-25.4892 126.401 6.92947
6.2832 112.783 14.637
2.65689 110.694 16.9497
-3.34863 148.038 -3.20829
5.24223 126.832 8.05343
1.52966 77.2216 4.76945
-18.5667 117.591 -6.04967
-23.4844 123.711 -3.41607
