ply
format ascii 1.0
comment Created by Open3D
element vertex 1902
property double x
property double y
property double z
end_header
-6.38202 118.352 -10.2306
-17.2853 140.144 -4.76551
1.80177 98.7803 8.84718
4.78179 134.057 -0.702115
6.81223 109.137 -2.6182
-20.6375 98.1148 3.40754
1.00299 85.5404 -3.69853
-28.749 125.952 -1.59534
-24.1999 127.694 -2.60651
-10.3258 100.178 -4.36452
-23.3365 128.07 -2.92557
-14.4801 146.046 -4.23203
-2.77006 116.366 -2.80414
-25.9531 118.681 0.631344
-21.7053 97.9339 -12.8538
11.095 123.089 -5.84058
7.39166 120.561 4.32409
-0.521569 120.474 -2.55334
-8.50603 141.164 -7.2078
1.25843 85.7269 3.0212
-35.2914 87.1441 -4.4179
-18.0447 107.529 6.35105
-19.4038 122.27 -9.32098
-18.5844 87.6874 -9.66383
3.411 94.3772 4.60443
1.90009 88.8058 7.19638
7.03937 115.893 -0.249518
4.23408 98.7603 2.24854
2.14935 134.679 0.601999
-9.54811 137.478 2.17151
6.66947 120.665 -4.86214
-0.346236 122.679 7.36474
-24.2495 127.824 4.00264
-23.1625 126.655 -3.01357
-20.3204 116.018 8.31833
-20.0628 131.654 5.68141
-10.7546 81.5254 3.60437
3.78412 95.178 4.17224
-21.1029 137.691 -5.3377
-29.0036 96.0743 -11.9427
6.49265 113.159 -8.75813
-28.3765 114.364 -2.79431
-24.7318 81.6026 -9.6796
16.9403 125.017 -1.07251
-29.0999 83.4501 -3.71632
4.04714 92.4331 -1.65403
-22.8514 134.838 -6.21276
-8.97789 143.135 -6.24942
-26.1396 126.125 -0.849788
-14.0848 104.189 3.33535
-7.41414 99.95 -12.3486
-18.7478 85.658 -3.47133
-25.6301 106.894 -12.4907
-16.2192 104.03 4.25987
-12.5348 94.4452 -5.64647
5.67933 97.2395 -2.75093
3.48075 91.8767 2.90966
-13.0316 131.453 -7.33815
-1.6291 87.9941 -9.86911
8.73377 122.387 -5.46406
-1.47035 118.452 -2.66075
-20.6272 136.905 -5.25903
9.39343 119.081 2.88223
-4.87274 111.116 -3.00936
-14.7199 104.885 3.6261
9.48659 121.295 3.37557
-21.9184 138.445 -4.50974
-23.2383 81.7245 -9.92271
-17.2968 95.8439 -12.7026
-26.0737 88.627 0.452486
-29.3024 83.018 -11.2572
-25.0296 128.38 -2.93144
4.9813 131.293 4.5921
-9.15847 90.3688 5.99979
7.44339 128.522 -2.02559
-6.43503 100.2 -12.4578
-6.48855 109.675 -0.886125
-25.5376 122.319 3.66069
-18.4667 87.481 1.80371
-10.7647 85.1204 -7.35859
-1.28747 123.499 -1.14786
8.88605 129.245 0.12469
-18.2642 108.203 6.851
4.93091 134.341 -6.37849
6.57379 124.929 -2.61955
-29.4719 84.5546 -12.2582
-26.6876 121.215 1.4096
12.5507 119.008 1.32118
4.01768 136.283 -5.56676
-13.3703 94.5411 -4.65231
-10.3368 84.2775 -5.15869
-1.4701 119.156 -2.64945
-0.755665 109.835 -10.3956
-14.6157 115.586 5.81807
-9.15146 102.232 1.50949
-14.3142 144.9 -5.19312
20.3157 123.247 -3.91754
8.09741 130.097 -1.50751
-17.9258 98.1283 5.29344
-30.0054 84.9289 -10.032
-29.8113 112.656 -7.30166
-18.458 88.3849 -8.8628
-14.6592 131.321 6.14475
6.95448 109.448 -3.11283
-13.7182 97.182 0.781922
-19.0551 103.032 6.66697
-7.49723 87.5156 8.72418
-30.9686 99.8185 -1.45792
-25.5472 129.029 -3.07932
-7.06482 113.593 -11.4234
-1.24081 96.5294 10.7034
-25.6179 106.535 -12.5114
0.700588 125.234 6.63636
-9.90892 141.566 -6.82702
-7.83924 92.1179 -12.2765
-32.1267 101.299 -10.1838
-15.1241 88.765 1.20333
-2.49478 125.759 3.69164
-21.7759 132.256 -6.40479
-1.50114 130.037 -4.86652
-18.9683 84.9167 -3.46486
-25.7817 120.069 2.25475
5.45844 115.686 5.49587
5.71662 118.322 -9.83711
-30.5043 132.107 -0.613034
-6.69693 127.071 -5.18196
9.12874 119.383 3.3536
-29.7077 108.942 -4.1087
4.45024 113.214 8.38848
2.58856 130.637 3.25396
-16.9009 132.365 -6.99971
-13.6273 97.2395 -0.733462
6.73222 104.875 -3.75531
-14.0859 133.895 -9.32373
-1.39872 109.324 -10.2839
-2.12999 86.4487 -9.54277
1.00266 85.73 -3.88028
-24.6788 87.0835 0.547941
-3.2335 109.603 -2.92852
0.28271 82.2051 8.42778
-17.7459 99.3265 5.1085
-2.13153 110.768 2.08658
-26.367 131.645 -4.42128
-9.56424 115.372 -10.853
-4.55265 108.142 6.14673
-25.9401 87.0872 -10.1942
-23.118 125.488 -8.30115
-12.8781 116.841 6.26582
-12.0788 125.579 -6.12202
-8.67906 96.808 7.48754
-17.2023 107.772 -13.0027
-6.01723 100.293 -12.4806
6.82893 127.44 1.96803
15.2395 126.175 -1.26036
-5.88104 104.477 -2.75172
-26.2627 125.455 3.46154
-10.616 91.8778 -12.0185
-32.5427 92.2742 -3.63138
-23.8343 126.034 -5.83721
-33.3005 85.5251 -8.78474
-18.191 129.255 5.27651
8.47862 119.188 3.60888
9.67919 120.535 2.09188
-27.1604 124.884 1.262
-18.7706 82.134 -10.2317
-12.6454 97.5066 -4.84669
-21.63 132.581 -6.42339
-11.6038 106.354 -13.5449
-19.2275 86.936 -9.33289
-8.90571 102.24 5.89637
3.50477 126.57 1.86366
0.414169 124.977 -2.15568
5.72262 113.612 -1.82707
-26.8457 122.295 -5.44291
-7.28293 87.0885 -10.2096
-20.2802 132.999 -3.6303
-16.381 120.888 -8.34809
-12.8178 93.9267 -4.93
-21.8054 139.765 -2.80307
-7.9733 134.008 3.51433
-31.4722 106.622 -7.88968
-9.68784 87.8104 1.2781
-28.0852 99.9346 -11.6433
13.7228 118.182 3.10866
3.626 91.7447 0.778081
-4.95905 120.826 -9.08202
4.74786 129.186 -0.555954
-17.3715 105.926 5.0741
-24.4613 125.89 -2.46796
-0.309625 127.502 -0.0464038
-27.4609 91.3392 -12.234
-27.5202 124.766 3.66817
8.2285 125.795 -0.105129
-12.4462 106.645 -13.5827
-23.1836 126.611 -3.25858
-12.772 108.913 4.76196
-29.2606 96.3368 -11.895
2.16036 132.166 -0.178216
-11.8746 97.9314 -0.894881
8.52656 117.033 -7.33446
3.75596 107.525 6.40812
-2.97344 105.952 10.7441
-1.76518 112.096 -2.54233
-9.16019 85.2832 -9.09649
14.219 123.107 -3.373
1.53825 115.053 -10.089
-0.941397 117.911 -9.12264
-0.970659 127.376 -5.67623
-30.9242 107.051 -4.89334
17.1025 123.43 -2.96086
1.56958 128.552 5.33726
9.12969 132.149 -6.5275
-24.8894 128.18 -4.76597
-3.13039 108.296 3.17292
1.55777 119.646 0.119013
-1.3205 121.236 6.2816
-27.0651 127.16 3.32046
-25.4876 117.891 0.416393
-5.82486 137.886 -4.42391
2.86292 130.193 4.9232
-21.9198 131.922 -4.7779
1.73155 115.583 9.40174
6.77555 125.936 4.68812
2.84858 123.754 0.19716
-9.94331 86.7057 -2.90291
5.51286 107.85 1.86114
-22.008 102.271 5.65198
-30.4275 87.1536 -0.926565
-26.705 111.482 -10.7977
13.4772 125.745 -2.86091
-9.91139 80.253 -10.5199
-6.78592 104.525 7.73818
-2.66299 113.882 -9.47763
-30.0687 111.593 -6.57144
-12.0046 93.9017 -5.58844
-28.6379 106.223 0.707687
-29.1939 97.4538 -1.53951
-17.4609 91.2005 2.76365
0.984999 86.6614 -4.60472
-22.4454 116.55 6.18314
-29.7953 126.059 -1.12158
-21.057 101.02 -13.7359
-24.5697 104.51 4.6267
3.08423 121.627 7.29999
-21.0406 85.3716 0.604392
-15.3607 93.9274 -2.04684
-24.5251 113.474 3.89011
-27.8475 91.9198 -12.0242
-12.9785 98.1203 0.625009
-29.5914 86.5488 -0.240888
-15.0732 124.519 8.24177
-9.97927 140.242 3.40908
-26.832 110.661 2.50219
1.07716 89.4992 8.40893
3.46032 94.3107 -5.01236
-22.8069 127.856 -3.76856
-30.5511 124.837 3.26907
-20.4722 115.749 -11.187
-7.6357 92.3651 9.74235
-24.2609 102.199 4.10024
-14.2638 129.222 -7.37895
-25.739 98.9767 -13.1671
-10.2883 87.4678 4.80744
-16.5956 128.438 7.29212
19.8131 122.453 -2.04185
14.9609 125.827 -1.23724
14.6894 122.27 -3.16978
-31.0886 82.4752 -2.27329
3.59008 92.291 -3.98389
-13.8177 96.9717 -11.8466
-19.0106 131.551 5.35037
-18.6413 102.502 -14.0781
-27.4419 112.351 -2.4429
-23.3635 144.273 0.734126
-0.335982 121.127 -7.18113
-6.02495 120.051 5.11415
4.2622 101.935 3.63175
-8.90575 100.925 -12.6025
-32.5653 85.0846 -7.43835
-26.0118 114.826 -0.267703
-17.3316 123.899 8.93611
-3.20857 86.4395 -9.40999
-27.5245 130.182 -4.64857
-28.2428 101.257 -11.5391
-12.9047 141.001 2.55729
-15.52 144.885 -4.4067
-17.5001 129.263 6.0471
13.142 117.917 2.0379
-31.0806 94.1569 -10.1715
-31.2039 129.315 1.29899
-11.827 125.164 -5.93139
11.847 118.488 1.50308
-14.4786 88.3945 -0.779078
5.44989 116.994 -2.08046
0.493983 134.405 2.9826
-29.0509 113.656 -4.00411
-31.309 98.0518 -2.54906
-28.5747 100.863 0.730885
-10.2336 101.983 3.43719
5.7468 111.717 -8.85687
8.14307 124.045 -3.54967
4.971 114.808 5.56266
-15.6112 94.2191 -0.125845
-19.1174 144.999 -2.09255
9.26371 123.278 2.98736
-4.55067 108.251 9.35104
-30.0436 95.898 -2.53788
-5.92118 111.811 -2.12377
-3.0725 125.682 4.36592
-16.0934 136.852 -4.66946
-6.44983 78.6792 7.61494
-3.71249 100.994 -12.4682
-22.3523 84.3394 -2.86245
-22.705 129.549 6.63395
-24.5682 111.075 5.20022
-22.8956 86.9561 -10.1529
-23.2486 101.813 -13.6035
2.08288 119.781 -8.24085
-31.5681 82.0643 -5.3773
-28.8159 112.408 -4.61054
1.92387 125.765 3.55925
-1.10678 81.4095 -4.30584
12.5798 125.034 6.99928
-27.3761 130.651 -4.27873
5.13861 100.197 -2.22271
-7.61206 82.5626 -10.3557
-25.8883 128.953 5.16091
-25.3279 83.1141 -3.65619
-33.5819 96.6293 -4.75233
-20.4318 138.69 -4.6923
-26.4078 101.269 2.22387
10.4424 125.117 4.02231
-29.9346 113.185 -6.2614
-28.2063 126.621 -1.81889
-14.9974 87.976 -0.0481759
-18.21 117.34 -9.6842
-31.3397 85.0498 -10.602
-22.787 100.034 3.55098
-14.9099 95.6724 -2.48567
-14.1239 87.0444 -10.3008
-5.28602 106.336 9.60116
-28.5473 112.528 -8.94832
-19.3593 130.028 -7.24521
4.92205 101.067 -1.41123
10.2056 119.761 -3.00184
-29.861 129.559 3.80281
-27.5163 83.2231 -2.42349
-10.4922 113.075 -11.5215
13.003 118.437 3.07045
8.61275 126.869 1.04172
-0.143645 97.9432 -10.2929
-33.4996 94.1951 -9.46649
-22.0045 80.0952 -10.1072
-5.24921 125.611 -6.18619
-13.2195 82.8478 -9.84288
-10.7562 84.2628 -3.85501
3.31431 119.092 8.23453
-12.7806 102.402 -13.8318
-23.1729 125.652 -3.73606
-28.6414 131.364 -3.90038
8.84696 128.662 -4.30879
-27.4636 107.682 2.15705
-4.3501 118.153 2.20044
-11.542 96.5096 1.78806
-34.025 83.3685 -4.64115
-23.9378 125.879 5.14331
-30.9898 106.235 -3.08896
2.87803 99.9884 7.60839
-30.1798 128.884 3.71297
-5.35248 121.051 5.27327
-11.2194 128.498 7.05591
-21.4326 84.4803 -9.40905
9.53119 122.802 4.20158
-21.897 131.391 -6.10901
-3.10509 94.4548 -10.965
-0.0304162 124.746 4.89336
-4.01531 102.248 -12.2699
-12.6451 78.5287 -9.80188
-11.1847 122.756 -5.97056
-16.5677 98.5179 4.76415
-11.4519 92.8165 -0.985533
4.08502 130.479 -1.7992
-1.95351 120.787 -2.08845
-11.6198 111.829 5.06563
-23.7161 139.698 -2.05993
-5.91757 131.004 -4.17977
0.502048 79.7977 4.82826
-20.4441 131.54 -4.34984
8.17258 134.969 -6.46431
-6.30149 101.414 -1.21511
-26.0757 101.043 -12.3823
-20.1719 143.965 5.98011
-14.3617 123.313 7.37365
-27.2744 114.689 -9.77675
-29.5675 109.559 -4.33836
-21.6814 117.772 7.59702
-12.9644 138.861 -7.01567
-24.204 129.075 5.79032
-7.14177 111.84 3.75482
-4.21255 99.8305 -12.4476
-18.1693 131.362 5.94897
-2.23587 129.124 -5.33419
-13.3667 136.022 -8.01646
-17.1299 140.343 5.49757
3.66373 124.115 6.5108
-13.8494 134.353 4.22633
5.47354 115.656 5.23021
-9.21034 91.7697 -12.1381
-20.9461 83.9903 -4.18426
-15.6899 89.8697 2.39632
-13.8766 94.4978 -6.16163
-1.67568 130.286 4.03566
-20.415 136.781 -5.01689
-29.7061 113.678 -4.96517
-14.7393 110.261 5.2522
1.96788 87.0105 3.35416
4.58415 120.16 -8.60484
-15.2897 127.891 -7.65525
-3.3179 109.679 4.04138
-1.80803 75.7 8.38411
-22.1972 86.9929 1.3089
-10.7757 84.7871 2.49819
-24.2535 127.127 -3.95443
-23.0972 126.426 -3.83903
-31.1813 103.697 -2.76461
2.24569 132.415 0.0569979
-10.6145 80.7798 4.50831
20.1246 124.624 -3.01604
-2.79594 124.687 -7.29392
-19.7699 83.188 -4.52143
-5.795 97.4585 10.766
-13.5769 135.614 -8.02088
-25.3411 80.46 -11.0778
-25.4043 98.3768 1.19582
6.61784 103.663 -4.61707
11.4811 131.819 -3.2922
-4.25402 127.056 5.32494
-1.7823 115.077 2.81389
8.39091 129.519 -0.520983
-4.60376 112.126 -2.86795
3.369 89.8951 -1.8122
5.45398 111.637 6.11653
2.89918 131.578 4.02305
-12.5151 120.516 7.09707
-21.9056 112.929 -12.004
-9.34831 87.5841 7.47074
0.254481 96.0587 -8.14931
-12.0569 108.556 -13.3008
-23.4383 127.747 -6.17119
6.14059 101.608 -4.16418
-8.53545 103.986 -2.6785
0.852154 130.15 0.638472
-3.54622 103.523 10.981
-32.059 101.815 -5.64002
-24.9633 109.306 4.31867
-24.2722 133.446 -4.67758
-28.5551 111.428 -8.90919
1.08431 109.462 -10.495
-3.1035 121.786 0.207551
-19.1822 103.373 -13.8868
0.935102 111.368 9.9739
-5.68042 109.696 -3.04055
8.63296 120.763 -5.02851
-11.8594 82.7778 -9.23359
-27.4895 126.195 5.66738
-34.3494 93.636 -5.21111
-9.51363 117.859 6.1197
17.0155 125.669 -0.625033
-22.1685 127.832 -7.66328
-26.0801 111.557 2.82777
-4.38886 79.0705 9.01171
-29.4712 92.919 -11.174
1.943 99.297 -8.91944
-18.2232 79.0574 -11.3351
-32.3446 87.0253 -2.24933
-23.0891 132.804 6.17258
-14.3355 116.237 5.89781
-23.7215 121.112 5.53044
-8.61151 94.8175 8.5165
-20.6405 94.5189 -13.1145
8.9395 118.766 -4.53942
-11.5629 130.165 6.64056
7.56776 121.11 4.65725
4.33826 103.469 3.33269
-7.79084 114.918 4.98496
-4.0132 135.77 -3.23436
-23.4762 95.0221 0.0690868
-15.1635 114.692 -9.42659
-28.9076 105.845 -10.8573
-4.05065 76.7493 -6.53407
-28.9988 125.389 2.05831
9.294 122.597 -1.27929
-18.2026 106.691 6.40883
-26.1944 113.068 -0.535948
-16.5179 140.69 -2.96774
-4.99301 99.9941 10.3454
0.676253 134.021 2.62546
1.63153 98.1093 9.04962
1.23529 103.831 9.38566
-32.5187 84.6904 -7.24885
-23.7537 114.873 4.44302
-2.0389 128.887 4.305
-27.1662 103.375 2.31574
-31.7116 97.5318 -10.804
2.76866 121.347 7.84596
6.14458 124.7 -8.66118
-26.4446 83.2947 -4.38619
-2.93809 109.865 -2.83299
-18.2954 107.409 6.70792
-17.176 88.1666 -10.1167
2.50201 101.47 7.79765
-25.4405 115.238 0.366379
13.2506 120.709 3.33631
-5.74737 135.501 3.21275
-10.7152 99.0421 -12.155
-20.2645 133.07 5.85764
-10.5819 85.294 -2.30519
-29.751 109.438 -2.90653
19.6348 125.522 0.376365
7.18014 111.571 -0.878066
-3.82264 115.679 -2.35485
-1.55007 112.888 1.61001
-2.06236 118.057 4.96774
-20.0832 110.448 7.62381
9.27522 119.701 1.98973
-31.5301 84.9582 -9.25127
-22.7916 144.598 -0.234292
-4.94588 108.851 -12.395
-11.9649 141.13 -6.91685
-28.6451 100.857 -11.5149
-17.7835 140.547 -3.15552
-25.1922 123.522 -6.31351
-18.6949 96.3292 4.96951
-1.10634 122.15 -2.17798
9.90603 125.617 -7.4293
0.44914 102.951 10.124
4.10617 114.219 8.51503
1.90147 114.081 -10.2255
-25.012 108.72 -12.114
-12.581 83.6366 -9.57219
-3.3828 90.3197 10.5652
-22.7087 106.281 -12.9537
10.3912 125.508 -4.69767
14.7967 118.654 2.7515
-3.15334 85.8931 10.4663
-18.4245 141.681 -3.05486
-30.0955 94.0931 -10.6247
13.4103 120.223 4.99988
-18.9984 136.252 -1.58265
-3.03858 111.335 -10.2332
-22.4092 144.004 -1.06749
-19.167 134.922 -2.71791
6.7403 124.118 -8.98102
-26.0206 109.26 -11.4639
8.23718 120.259 2.62308
5.75846 98.0018 -2.59207
-13.2265 105.245 3.44578
12.9042 130.254 -3.65459
8.53055 119.612 -3.96984
-11.4572 143.965 -5.8113
-0.0657617 80.3937 8.02233
-7.61265 99.1679 -2.64395
4.75901 130.554 -0.948342
-7.80089 93.364 -12.4977
-4.94319 119.982 4.89606
8.93566 123.651 4.90345
-6.9177 95.5368 -12.6755
-25.3575 86.065 -9.79932
0.580415 98.6202 -9.92674
-13.776 135.463 -7.69424
3.68707 99.3474 -6.26945
-3.37995 118.591 -8.93168
-3.45265 111.616 -3.21192
-20.4122 91.5125 1.00034
-5.96217 140.201 -4.81669
-10.1658 136.359 2.78299
4.77772 114.242 4.20151
-24.1291 115.757 2.31608
-24.2335 87.2108 -10.5263
1.8668 108.566 9.7362
4.84689 112.601 6.88181
-20.0163 85.9738 -8.20962
-26.6014 125.958 2.33172
15.0817 124.798 4.5618
-12.1645 134.727 -7.98915
-15.5998 91.1678 2.12274
-5.37567 122.357 5.33983
-13.9071 96.2082 -0.914612
1.34636 129.948 -4.83465
-24.7502 116.07 -11.0222
-30.7425 96.614 -11.0147
-29.6294 114.476 -5.683
-9.21701 80.0648 -10.792
-7.41153 121.904 -7.7997
-26.0696 126.722 0.880941
-14.8837 129.89 6.42535
-10.9068 84.7602 1.57781
-10.3241 87.3266 -5.98498
-19.5946 103.504 6.71041
-24.8484 79.363 -11.5914
-0.839196 124.27 -1.38439
-12.9219 143.952 -5.43711
0.129004 78.2732 2.30258
-22.8797 127.851 -3.3254
-25.9673 124.961 -0.635853
-28.3594 103.569 1.2945
5.6349 128.622 -7.69717
-13.1751 120.309 7.10981
-9.49186 121.323 -7.03525
-1.43646 132.692 4.24223
-27.6859 131.306 3.58957
-21.6897 102.728 6.02861
-0.194562 123.409 -2.42222
-22.1713 107.698 6.7278
-5.12674 109.889 9.20203
-8.96784 98.8253 -4.26851
-22.5342 137.502 5.17313
-26.8478 89.3153 0.0300789
-13.2067 109.765 -12.2312
-5.58722 95.9643 10.8772
-21.3985 144.279 5.25887
7.16307 125.978 -3.78045
-20.4308 109.736 -12.8793
-9.04459 90.8883 -1.83684
-10.839 102.661 -1.01582
1.36344 119.273 -8.33581
-21.6568 113.569 7.9969
-9.64393 88.2234 -0.640653
7.90608 113.802 -5.4161
-8.89614 97.812 -12.4137
-24.0155 127.325 -4.55393
-0.398966 77.4094 1.62974
12.9339 118.513 -5.76438
-16.1638 105.984 4.4883
-27.9204 121.707 -1.59342
-23.8804 121.459 5.50517
-14.9628 94.2162 -11.3702
16.8881 123.466 1.78175
0.019316 115.869 -9.83401
-14.4781 96.1456 -3.63691
-26.781 90.0319 -12.5634
-8.99499 113.406 4.87674
-10.8416 129.434 5.71413
-25.2076 96.4815 -13.1373
13.6351 126.821 -2.28533
-13.9615 90.777 -6.49972
0.464708 128.418 -0.77629
-15.0122 84.9745 -9.43096
8.67872 124.492 -5.73415
2.33693 114.868 -10.2042
-32.253 95.0868 -4.85645
-14.2436 121.376 7.08691
-27.3088 138.932 1.95782
-0.719816 118.375 8.72197
4.51473 102.877 0.140259
-10.7615 84.4378 2.41286
-22.7593 127.296 -6.68643
-29.2161 107.081 -9.86314
-27.9905 81.461 -12.4815
14.5902 119.173 2.42544
-29.1619 117.02 -4.68576
-6.40297 111.434 2.47774
-26.4042 127.228 4.34573
5.54548 113.791 -1.79521
2.1699 95.217 8.22482
-4.19251 127.717 -5.70785
-20.7566 140.052 -3.09126
3.7707 94.8535 -4.81861
-16.8512 142.16 4.93271
-26.8737 119.226 -0.238025
7.85545 124.558 -8.96063
-26.0503 129.633 -2.85907
-34.8592 93.2942 -5.54342
-7.42008 137.761 -5.66528
-12.8871 109.515 4.97062
-24.5639 127.641 -4.36824
-21.8273 131.186 -3.95961
-10.6013 84.3054 3.65682
-30.3958 92.1666 -11.0993
-11.4476 81.7435 2.07406
-26.4132 126.09 2.62786
0.276011 94.9919 -7.50434
-11.2152 127.259 7.19303
14.3588 126.875 -2.02953
10.0714 119.473 0.675136
-28.0488 127.186 -1.90729
5.95809 115.61 -2.64124
-12.6899 134.35 3.67259
-24.5481 131.268 -4.96587
-3.53114 88.6553 -10.6786
5.08062 113.216 7.72624
-8.53403 105.022 4.72036
3.70281 137.062 -4.70473
7.21509 116.184 -5.95164
-16.1229 87.5974 -2.87492
5.10033 112.644 3.13273
-26.467 98.0261 -12.9372
-17.314 135.796 -3.58642
8.75199 122.169 -5.96117
-20.0603 90.1295 1.40688
-11.1881 79.7575 4.18521
-15.4444 99.4982 -12.7289
-27.8114 120.026 -7.4705
-16.1822 133.734 -8.06676
-26.9295 125.159 0.129929
-28.0989 110.213 -9.11318
-29.3428 135.915 0.378193
6.18071 123.415 2.80125
7.14254 124.693 4.69247
6.14794 102.026 -3.81068
-10.1973 87.1563 2.52773
-21.9269 130.807 -4.14033
-11.1308 84.6753 -1.83053
-20.6375 126.253 6.8163
-12.1331 104.191 2.60904
-23.707 137.568 -5.14341
8.345 119.836 -5.20635
1.71789 124.287 6.96269
1.6118 119.909 -0.0061444
-13.7499 135.416 -7.83046
-32.5258 102.504 -6.25787
1.00602 113.687 -9.94605
-4.43692 92.9281 -11.1423
-26.9867 125.822 2.83199
-17.766 86.2046 -6.41935
-10.5064 122.497 6.6149
-32.3335 92.5514 -3.85236
2.64896 95.0075 7.4088
-9.60234 122.104 -6.58749
-12.8792 97.118 -4.62342
-21.0369 131.073 -3.51895
-13.6999 93.3903 -4.12837
-28.3843 119.53 -6.75807
-23.2948 79.3436 -11.7044
-16.6879 122.311 8.01827
-9.4986 89.5916 5.84564
-5.27807 126.034 -6.00927
-5.51972 79.473 -9.96926
-21.9231 133.021 -6.75668
-9.7336 90.33 -11.7621
-28.3672 116.13 -2.0469
-12.4818 132.605 5.88863
2.81425 92.5162 6.0186
-15.9822 120.845 -8.18126
-31.071 126.837 3.44673
5.7403 113.466 -0.0615385
13.5721 123.502 4.96388
-18.3702 127.936 6.24978
2.58875 88.408 0.902253
2.17402 105.8 -9.20377
-4.15979 88.7221 -10.9116
-32.1497 82.3801 -3.83862
0.847765 90.4029 -7.58229
3.5422 99.3188 -6.36389
-4.93735 108.742 -3.35167
-9.79524 98.835 -4.43581
-13.2859 113.969 5.35436
-1.7782 82.5312 9.94193
-5.06562 135.925 -3.49384
-14.2368 89.052 -7.87962
-8.97021 94.5193 5.92833
-17.8955 138.124 -2.65633
-21.7945 94.3447 -13.2289
-15.9436 142.916 -3.9197
-12.3457 97.5749 -5.1189
-23.6671 82.0597 -1.9764
0.451053 119.411 -7.83128
-5.17078 103.687 10.3644
-9.22608 90.5611 6.83541
4.66828 137.317 -6.14594
-0.0725936 115.669 -0.811834
-22.3632 84.1598 -2.98003
-13.8375 129.302 -7.2298
14.9633 120.659 -4.56788
-18.786 84.5493 -3.75862
-7.17144 105.059 6.20058
-26.2592 125.458 3.45256
0.810688 85.503 7.94293
4.20027 113.904 5.18917
14.1136 119.084 4.2944
-3.25912 81.4404 -5.91634
-22.5111 116.222 5.85851
-0.71015 133.132 3.8854
-24.0804 115.933 2.32811
-31.7159 97.515 -2.77434
-28.292 110.821 -1.19616
-22.3134 115.045 6.8206
5.99635 129.095 -7.66137
-28.3532 118.835 -1.97075
-14.8734 113.918 -9.67299
-24.1867 126.475 -2.87665
-13.6601 117.328 -8.20967
-8.69746 134.083 -5.18333
-24.6154 143.015 1.36653
-16.8463 133.158 5.65044
-12.1389 120.779 -6.63465
13.3376 123.696 -4.61601
-15.2844 95.4398 -0.285517
5.64748 131.69 -6.38914
-17.4259 90.2676 -7.66198
-9.30208 135.797 3.27254
5.29037 106.442 -0.895509
-26.1606 122.887 -3.91822
-25.1815 138.227 3.34974
-3.05236 98.3724 -11.8934
-13.6547 127.569 7.49366
-20.1887 129.05 -7.38741
-30.4885 83.7059 -1.28052
5.85787 116.377 -1.49714
-27.093 98.3372 -12.5294
-12.8007 99.0009 -3.3018
-7.10485 86.2829 8.49622
-26.3558 119.917 -9.11608
-13.1641 97.7418 -2.08574
-23.9308 128.707 -4.24518
15.9988 123.461 -2.0163
6.91122 112.184 -1.75964
-25.7324 124.361 3.08722
-2.0042 110.177 0.234936
-18.2508 131.19 6.02207
7.95921 127.218 -0.203375
-9.72372 87.8258 3.31698
-25.5448 130.743 -4.12846
-3.31739 106.36 -12.2029
-29.4999 115.104 -5.81571
-32.9408 85.2296 -9.53931
5.98001 123.329 2.0671
-23.2828 126.937 -5.77829
-4.12827 121.88 -8.76456
-31.3664 102.269 -10.4507
-4.60569 90.2105 10.8146
2.1406 86.9324 -2.06598
-6.27894 88.5272 9.68242
0.196287 128.48 -4.76722
-15.9286 87.1546 -0.26202
1.7942 100.34 -9.49094
-27.6791 103.438 -11.4574
-1.86733 96.9051 -11.0467
3.24699 126.679 -1.47029
-13.6372 97.9517 -11.8785
-21.7085 94.3852 0.506897
-3.52697 106.496 1.13165
-9.22703 91.6491 -0.988695
-28.3319 119.353 -6.14028
-22.0894 109.046 6.90488
-6.65592 105 -12.818
-13.6302 107.766 -13.3838
-31.2009 129.512 1.02078
-34.7275 90.3824 -4.37174
-12.5236 109.487 4.90134
1.67388 128.907 -5.21933
-1.57096 138.345 -2.99886
-6.92956 77.7487 -9.18736
-18.1344 80.15 -9.83625
1.79914 118.931 -8.89202
-27.1255 127.911 5.04302
-22.0638 105.529 6.42465
-14.2244 118.409 -7.94506
-25.5879 85.1732 -9.40721
-17.081 121.784 7.95823
-29.899 84.3697 -12.5606
-24.787 117.903 1.13045
-3.10971 96.4658 -11.5164
-5.94095 111.328 1.38337
-32.0751 82.2746 -3.73643
-8.63529 97.3945 7.41438
3.895 118.757 5.91133
13.8431 127.852 -2.61508
14.1474 122.2 -4.6413
-13.0626 106.667 3.94135
-20.9619 111.181 7.72782
-33.7196 93.4698 -4.7328
-4.61067 103.404 -1.39155
-16.8586 86.6521 -1.46501
-14.1726 92.5586 -0.800682
15.0219 122.931 6.48267
-7.85551 123.229 -6.52487
-12.5408 137.525 -8.41776
-30.2425 107.926 -4.45098
-10.6202 109.457 -12.9104
-14.4501 91.4457 -1.13098
-26.0259 128.125 4.47667
9.04178 122.96 -6.74234
18.9106 122.593 -0.111605
-23.5848 127.566 -5.79737
-15.1908 94.2391 1.47943
-20.8397 131.018 4.68548
-26.5429 131.038 5.56101
-28.6553 130.541 -5.2214
-6.90478 107.957 1.21237
-14.2487 125.824 -6.42717
-6.30955 114.055 4.06335
-23.3421 128.761 -4.07183
-23.5994 115.231 4.41588
-28.2171 135.718 -1.27425
-23.7486 127.882 -4.4781
4.93267 129.102 4.99242
-0.727271 115.271 9.60939
-1.11808 112.55 -0.915026
-14.0872 109.176 -12.1797
-8.5348 131.905 4.6139
-3.99536 76.721 -6.42393
-27.3619 86.3078 -0.248163
3.48166 120.037 6.40358
2.06438 122.328 -1.44109
-35.786 91.2769 -8.38402
-24.6768 83.547 -0.312821
-26.4724 131.671 -4.33436
-32.5942 86.8852 -10.2535
14.5012 121.423 -4.70143
-11.0964 97.6978 2.61361
-11.8434 106.961 -13.5009
-16.1175 124.345 -6.79775
-19.3928 103.578 -13.8387
-19.0965 108.295 7.13759
-6.11896 129.162 -4.60904
-24.7518 110.408 4.8322
-13.4942 139.679 2.59162
-22.9375 123.652 6.04157
6.9237 120.175 4.26597
6.45028 120.562 4.89862
4.11378 127.236 -7.36972
4.83913 113.788 1.68743
-21.639 124.56 7.10148
-9.31804 134.244 -5.55189
8.35153 122.392 -3.20476
17.7374 126.789 0.0244773
8.19462 125.92 -1.07041
-30.3869 87.1902 -0.902471
3.7926 101.38 -7.95429
-21.5887 122.011 7.47194
-21.1922 136.392 -5.48168
8.31104 112.939 -4.24323
7.004 114.946 -8.80437
0.119192 124.462 4.57261
-14.7632 130.062 6.39896
18.5748 120.896 -3.16123
-16.866 90.4571 -10.751
-1.46897 76.4077 -0.674247
-7.0196 138.594 2.58653
-6.00735 102.935 10.0631
-27.5762 119.957 -5.63036
-25.4362 115.555 0.546938
0.0563686 94.201 10.1837
-26.3023 126.195 -0.355656
-20.1639 130.146 -6.98997
-26.2653 122.927 -4.29618
-7.47213 88.3271 -10.8614
-17.0668 140.584 -2.49361
-1.00579 92.2946 10.246
-9.72974 111.55 -12.1573
-31.5055 128.264 0.533976
-28.7782 105.616 0.837326
12.1081 123.272 5.34281
-17.6614 122.257 8.50791
-25.9528 125.323 -2.67939
15.3569 123.033 5.57822
-17.8612 108.578 -12.8369
-10.2448 103.559 -1.96517
2.14812 98.2206 -7.66591
-31.2147 125.233 3.0933
-23.3093 126.263 -4.24169
-24.5452 134.489 3.96164
-7.40091 82.9456 -10.2031
-11.2062 83.5802 -9.29061
-27.0149 121.11 -7.94162
-6.01687 130.19 -4.34029
-22.1598 83.0837 -3.16679
-32.4409 97.2117 -3.28772
-7.43528 92.4771 -12.3649
-20.0872 129.282 -7.00764
-25.3039 131.042 -6.21923
7.7731 122.498 5.3179
-16.5595 126.689 -7.07377
-18.1451 82.1387 -10.2027
9.05219 123.169 -8.20807
4.0289 115.357 8.31287
4.65997 114.385 2.47956
-30.171 126.877 4.3755
-1.61371 126.058 1.10345
0.182446 77.6628 4.64381
-2.32424 91.6709 10.3641
-22.8174 127.285 -7.46324
-21.6727 136.252 5.15175
-23.5285 109.175 -12.4088
4.13324 114.135 8.50572
-0.274588 75.1019 2.99806
-15.9553 108.451 -12.3377
-23.8772 83.8346 -9.26409
-24.0308 93.8751 -13.3035
-32.3212 83.7362 -7.88052
2.70858 107.089 -9.23957
-16.2631 145.417 -3.32991
-30.0053 111.666 -6.42242
-4.94797 105.585 10.1298
-10.7142 102.002 1.93521
2.62058 126.882 5.17881
-3.14727 122.414 -8.28686
-0.985424 94.8184 -9.05557
5.3211 119.808 -8.83997
7.40934 121.098 -9.45489
3.85088 92.741 0.772746
7.39498 112.973 -7.86724
-7.74713 121.188 -8.1157
5.34489 104.54 -7.34366
-28.5183 130.857 -4.99184
-25.6578 102.503 3.24946
-10.6214 103.175 0.0670174
6.80734 129.058 -7.88805
-0.460241 99.7904 -11.0464
-22.1574 128.484 4.10792
-24.5131 127.219 -3.95335
-7.36495 100.997 -0.847043
-20.9647 116.146 -11.3257
-3.39612 83.1721 10.0511
-19.9462 84.8684 -7.32517
-11.851 100.946 -1.8008
-20.4759 111.145 -12.2441
-2.25153 130.712 -4.64724
-4.66726 132.114 -4.16933
-6.80153 119.079 -9.85127
12.4023 128.179 -3.49113
8.50099 123.969 -8.97388
-24.5697 96.6542 -13.2781
-4.20708 80.5577 -8.17601
-26.6452 97.9521 -12.8437
-9.70461 124.765 6.51959
-9.9422 107.107 2.5484
-20.5051 117.92 8.34153
13.8698 119.993 5.15205
-9.85312 105.693 -13.4072
-23.1925 92.0274 -0.312643
11.0554 126.367 -3.96953
-25.2007 141.723 2.55073
-31.4404 103.616 -3.50354
-26.275 104.978 -12.3405
-22.7901 126.863 -2.80783
-9.39376 133.937 -5.52255
-8.80569 91.6147 4.17797
8.99123 123.586 -2.5259
-30.7921 125.652 2.8198
-24.629 99.9888 2.21203
-20.0765 97.9109 3.80661
-33.4162 96.7504 -9.81377
-2.83086 89.0282 10.6089
-26.6561 114.519 -0.963039
-18.9081 123.085 9.02629
-18.2816 79.2824 -10.9524
-9.56022 110.861 -12.3815
-9.4035 98.2489 -4.44864
-18.0675 110.399 7.09143
-8.20528 103.249 -13.0544
-26.8716 102.677 -11.7542
-12.1555 93.1842 -12.1494
6.4063 122.991 2.9982
5.80888 118.793 4.31577
8.94082 128.049 -0.559452
-23.5096 126.3 -4.39032
-0.759747 124.564 -1.36296
-13.565 113.077 5.39756
-23.9689 126.856 -3.57288
-10.2831 83.9997 -5.95325
-30.9859 130.764 -0.908899
-0.568998 130.415 -4.61335
-5.27538 88.942 10.2454
-0.079489 117.626 -9.09937
-20.6559 133.177 -3.08416
-9.48992 133.437 -5.49217
-8.84266 94.4998 3.58164
-22.3809 130.237 -2.6175
-22.316 87.0358 -10.0707
-2.702 136.54 -3.16314
-10.7549 98.7618 5.19571
-11.2221 138.47 1.99956
7.20339 116.842 -5.35572
-3.74458 129.625 -5.2341
-16.1927 144.865 -2.16583
11.058 131.259 -3.07877
9.51654 123.821 -5.84891
-22.5847 133.1 -6.87464
-14.6302 129.343 6.45383
-13.8801 126.12 8.25544
-34.3673 88.2497 -9.32215
-16.7833 95.9934 5.45637
0.918399 128.852 -0.96778
-9.4747 96.2311 2.66336
4.32341 94.9601 2.22796
20.113 122.469 -1.93098
1.85993 125.278 3.44597
-6.89743 78.9956 -9.15967
0.240227 127.962 -0.695232
-7.01518 112.273 3.80769
-15.2917 101.691 4.14418
-35.9057 84.6889 -4.99851
-15.8255 128.377 -7.94243
9.00104 127.916 -8.24348
-29.7695 84.5347 -10.88
-11.726 99.9785 0.809516
7.63876 126.852 -0.117034
3.92203 131.36 5.02295
-10.4283 88.1167 -5.81991
-22.1006 93.8098 0.243024
-2.96332 133.693 4.55393
12.8595 120.987 -5.64435
-4.24206 120.527 4.01236
-17.7001 130.793 -7.84151
-6.4356 109.839 -1.30707
-27.8106 124.065 1.89311
-21.6179 128.869 -6.79524
-22.5733 126.439 -6.59487
-31.5055 87.3441 -1.70888
4.17922 99.2164 -5.7308
-26.8529 130.362 -5.60131
-13.6816 136.464 -7.79382
-25.2671 139.005 3.58016
-10.4614 103.359 0.0573693
-13.32 93.3461 -2.66255
6.88669 108.072 -6.10963
-8.79858 101.074 -12.6203
-24.2594 124.315 4.42017
-21.9921 127.139 5.65412
-14.1968 137.106 3.72354
-27.8529 120.924 -0.408824
-30.1239 100.061 -11.2726
-0.236955 84.1072 -4.74103
-22.647 127.935 -3.35221
-28.9923 110.245 -2.2435
-9.99207 99.1171 -12.1117
-27.5771 82.5229 -3.75207
4.95063 95.7831 -3.18237
-22.8151 138.846 -3.25853
4.57551 110.099 -9.61143
4.36328 103.65 2.85802
-30.7744 83.942 -3.60115
-7.7506 138.679 -5.99658
2.64887 104.199 7.99748
3.67947 96.5605 -4.87554
-8.1212 96.1277 8.05764
5.17964 100.229 -2.30548
-9.34348 89.6684 2.62944
-5.13967 133.797 -3.39725
-24.4011 124.29 4.30038
-27.1189 138.848 2.30254
-29.064 133.408 -1.21004
1.6952 87.5442 -4.22199
-20.6887 103.678 -13.5882
-8.74686 123.763 -6.00516
-4.77704 95.1143 -12.0159
-27.7035 88.7932 0.0794371
-16.1543 88.2992 -5.78114
5.58021 114.051 -2.31173
7.26469 111.502 -1.10051
-7.00387 122.134 -7.87701
-12.237 80.1635 -9.54946
-9.89565 126.244 -4.98665
3.757 99.1766 -6.04964
-6.37548 78.263 -9.94413
7.6148 115.353 -8.69137
7.91467 110.467 -4.66901
-21.2422 140.498 6.01078
-21.9438 84.1455 -0.113341
-21.4338 82.8874 -0.763203
-22.4281 127.918 -6.2136
-28.1897 88.4665 -0.114734
-8.69999 100.053 -4.19091
5.51451 120.61 5.73238
-6.95644 97.538 9.33447
4.34409 94.0201 0.658642
-2.88553 113.752 5.22772
-30.5719 132.227 0.555139
-24.5449 85.2123 -0.113246
9.54595 120.477 1.83358
-23.0813 105.416 -13.2336
-27.3191 83.2795 -2.58236
-32.1096 91.6067 -3.00378
0.975448 107.665 -10.4633
-9.84943 134.499 -6.00694
5.51252 115.555 4.74405
-12.6949 140.944 -6.7307
-21.5437 99.6766 4.19772
2.97308 127.209 2.8221
-22.8304 102.159 -13.6972
1.90408 92.6314 -6.54986
-9.70361 116.293 5.93549
-13.9938 141.912 3.43709
-0.621109 77.2911 7.91057
-20.6895 120.028 8.47004
-5.73938 96.6585 10.8402
-31.9141 82.7605 -6.19772
-6.49471 134.974 -3.98791
-5.2798 83.6948 9.18203
-11.9255 82.811 -0.533514
1.74325 86.7217 5.56287
-25.9684 114.608 -0.359144
-7.63242 80.0377 6.65729
-27.0962 98.5686 0.468261
-19.032 131.549 5.33907
-24.8453 85.4256 -0.16652
-20.8119 102.987 6.3819
-22.892 127.856 -3.032
-32.2329 101.632 -9.8472
-15.8629 80.1252 -10.1511
2.11286 107.586 -9.37326
7.31739 110.329 1.26618
-10.926 85.8716 -9.30173
-10.1713 87.5436 -10.3582
-3.89376 104.499 10.7683
20.0123 124.429 -2.71197
-6.28585 103.138 -12.5043
-34.2141 82.5592 -3.51106
-2.29333 130.238 4.704
-23.1204 128.658 -4.10888
2.0968 122.728 1.82894
5.95304 123.389 3.05342
-12.7373 125.079 7.65922
-15.7698 128.665 -8.02767
3.0256 116.042 8.98464
-30.5455 97.605 -11.3852
-31.2755 105.188 -9.69845
-18.7953 115.662 7.17535
2.52051 110.303 9.55209
13.8266 125.135 -2.98585
6.60205 123.067 2.56496
-30.8559 94.7941 -10.1669
-34.3792 86.9689 -8.45478
0.133093 78.0505 5.54677
-11.6075 82.3187 -9.38796
-25.7937 86.0904 -0.243857
-23.8078 131.167 -6.52168
7.10059 120.529 4.47298
-4.76604 132.936 -3.793
-16.3896 92.8538 -11.2812
-20.0132 133.592 -2.9348
4.30794 102.974 0.694695
-0.515267 121.137 7.87014
-23.0289 116.502 -11.3786
-34.0249 89.6213 -3.54819
4.90626 131.557 1.1985
-0.516033 88.3126 10.1227
-23.8648 81.0673 -9.82972
2.63602 118.569 -9.5496
7.23315 113.61 -7.86461
4.28029 122.767 -7.78402
-4.72539 111.941 7.82155
-11.9566 99.8013 -3.87391
9.14053 118.722 1.9094
-6.28329 139.948 -5.05669
13.2791 117.921 3.27787
-25.8945 112.232 -11.1342
-24.8964 138.897 -2.82939
-25.2418 128.706 4.43292
-13.9999 137.536 -7.49421
6.32036 116.195 -3.53796
-12.0688 99.5385 3.00852
-6.74251 101.446 -2.98153
-30.4087 103.741 -10.7493
-15.0974 124.459 -6.48957
-31.8594 85.1055 -11.0041
-23.5703 101.58 -13.5308
-10.3269 93.7975 -0.127759
2.78011 99.7247 -8.18927
-1.0994 128.031 2.60521
-29.4421 130.504 -3.42617
-28.1118 125.455 3.29582
-22.2307 145.983 1.31239
-26.2524 124.301 0.0874377
-15.8529 104.21 -14.0536
-10.2138 134.46 3.91384
0.618471 104.403 -10.6531
-1.19361 106.879 10.2968
-8.32746 100.376 6.93547
-24.6678 119.878 3.24841
-6.94513 105.349 7.48202
-15.3201 90.705 -8.08434
-30.0341 105.506 -1.07712
-12.771 93.4485 -3.58397
-16.6269 92.999 -11.3128
-24.2945 123.086 -0.935428
-15.1392 107.985 4.67491
3.47892 92.5332 3.37695
-15.6491 122.937 -6.91046
0.0880569 77.5766 5.29883
-14.9143 90.8207 -10.7457
-23.1999 97.6232 1.78191
-18.9057 125.089 8.16064
5.65763 100.972 -2.942
-20.6793 138.282 5.94093
-24.1673 88.5006 0.966719
-21.366 127.194 -2.85606
-10.9902 113.417 -11.1429
-3.77361 93.2141 10.9721
-15.069 130.087 -8.06497
4.74556 110.18 7.31578
-31.3972 106.284 -6.81584
-11.1787 82.4081 2.07402
-18.9912 136.36 -3.24576
12.3362 117.999 -5.67282
-28.8786 119.395 -2.90624
-31.2423 85.415 -10.4491
0.111826 118.881 -8.35086
-9.49413 86.248 -4.03902
-1.96645 84.0504 10.2836
-25.6402 124.527 -2.98507
-26.1244 109.844 3.25708
-0.574213 125.896 -5.82509
-13.6375 89.9807 -4.17035
-4.67782 86.1946 -9.29875
-26.133 112.742 0.289079
0.720714 102.45 -10.6713
-23.134 135.677 -6.07387
-6.4294 78.9967 7.62244
-23.775 123.042 5.57865
-34.612 96.6393 -8.33611
-30.9275 101.373 -1.94369
-31.9122 82.7644 -5.7559
-22.067 83.2751 -9.74235
8.58204 123.302 -5.52995
-20.842 134.334 -4.39456
-10.5885 129.432 4.98427
-25.2059 94.2423 -0.848312
7.36287 110.972 -6.59184
-4.61447 108.394 6.4913
-29.1097 116.805 -3.37953
-23.7451 87.3482 0.947068
-11.9317 136.13 -8.29118
-26.9048 125.899 1.13511
17.6635 123.503 -3.43885
-13.1964 94.8199 -4.79172
-34.7417 84.5494 -5.33492
2.52192 135.154 -4.57145
-28.6737 89.2661 -11.9765
-10.579 117.808 -8.55848
-3.44007 98.8901 -12.1535
-29.495 124.799 0.25407
-24.9092 131.714 -6.78784
-17.2626 115.887 7.01763
-0.487496 82.849 -0.636367
-27.9992 88.0677 -11.2367
-15.4486 90.4985 -4.79339
16.5777 125.5 2.68982
-35.0136 91.2442 -9.27258
2.93033 89.292 1.68652
-34.904 84.1925 -3.54025
1.6455 104.735 9.64144
6.46137 114.181 -3.03172
-9.37081 86.8971 -4.93065
10.4674 118.639 -1.30774
-7.20735 119.763 5.23042
-22.4139 130.21 -4.38751
-15.5064 91.6371 -7.35173
3.52831 96.3463 -5.03467
10.3239 129.387 -5.98896
-27.544 132.568 2.64003
-6.6217 116.955 5.23486
-14.1313 96.8926 0.340544
2.46624 132.958 -0.432247
13.3126 129.775 -3.1199
4.57038 112.518 8.19953
-8.2974 106.756 1.68587
-11.9765 118.168 -7.85248
-14.3743 78.6952 -10.7993
-10.304 117.531 6.39353
-16.9059 90.2353 -10.6422
-28.9766 112.649 -4.62916
7.57515 109.076 -4.93346
-2.64147 124.434 3.31415
-15.7074 89.0803 1.78312
-14.6581 96.4845 -0.55829
-1.20406 92.7031 -8.6788
-30.0359 102.658 -11.039
-23.3956 137.673 4.36544
-22.2865 99.7594 -13.3085
-26.1045 122.866 -2.33312
-10.2938 96.661 2.23412
10.6746 130.458 -3.80329
0.132615 98.2102 -10.1695
-3.36775 121.149 -8.92243
14.4403 121.954 5.88738
6.57584 110.535 -8.19694
-7.173 137.984 2.44175
-23.1016 99.4993 -13.2205
-0.679638 105.903 10.0427
7.50234 128.112 4.87273
-12.7293 90.9516 -3.3951
14.8063 124.861 6.23483
13.7364 118.54 -5.46247
2.85177 95.4983 -5.71274
-24.2621 99.62 -13.2548
3.45983 131.619 2.62008
-25.5234 108.046 3.88486
4.46778 117.903 6.00797
1.73957 108.19 9.72809
-11.7414 94.145 -12.2858
-8.14191 137.84 -6.07156
2.35534 124.506 -6.64731
-5.91528 97.0316 -12.6024
-29.8259 105.908 -10.477
-28.5762 125.819 3.33787
2.25441 111.172 -10.296
13.3324 121.312 4.30886
-0.960831 128.535 -5.36356
-33.2915 82.9957 -2.55114
8.87066 113.632 -6.27655
-14.5437 109.447 5.19907
-14.1569 92.7076 -1.12647
-5.24934 104.19 -12.3474
-7.38733 96.2087 9.11016
-29.7663 128.865 4.117
-13.4836 107.629 4.35904
-19.7592 110.386 -12.456
-13.3748 95.168 -3.72013
-4.1782 76.979 -5.10198
4.33039 109.167 6.6632
-14.8937 136.695 4.59834
0.968428 130.288 0.458017
4.82986 120.733 -8.28399
8.87047 131.93 -3.1247
-3.13241 76.3103 -4.17332
-10.8409 135.293 3.51255
-30.1699 125.514 2.91403
13.5792 120.415 4.73357
-22.3958 131.89 -3.61034
0.262671 78.6997 5.33492
-30.6823 87.7505 -10.0396
-25.215 128.667 -4.05037
-26.7454 124.512 2.3863
-24.6059 127.043 -4.71771
-24.3563 112.953 4.88566
-24.7327 123.618 -0.197172
2.28252 96.8765 -5.94848
-28.4158 124.916 3.8354
-29.2444 135.476 -0.441884
-29.6589 93.0727 -11.0449
-21.9416 100.088 -13.4319
4.51768 101.262 -7.4512
-20.2543 142.319 5.99889
3.13065 95.3044 6.08555
-20.5605 109.82 7.60021
5.17588 126.249 -8.00484
-27.8888 114.122 -9.34372
0.824139 85.5083 5.59625
-0.932051 112.988 -0.338766
6.04389 108.699 2.15744
-8.27859 92.7931 8.82352
-3.33631 121.236 0.660368
-2.86019 91.2166 -10.1675
-26.1968 129.853 -3.78531
10.0036 125.1 -7.07633
13.6978 120.026 4.79645
-6.26613 106.601 -3.55784
-23.9804 119.447 -10.2937
-25.0644 114.399 0.756154
-30.611 88.4965 -1.16134
-25.4622 128.569 4.51797
-22.92 128.361 4.21757
15.388 121.912 -2.51484
-2.41543 126.891 4.02741
-15.5529 90.2813 1.60226
-26.5856 123.188 2.70894
0.994143 113.911 -9.89372
-3.66846 115.012 7.32321
-1.41621 121.186 -2.1537
-16.2288 133.629 -7.63125
-27.1079 111.879 -9.86204
-20.7256 135.147 5.7312
-19.1696 111.916 -11.5519
-14.1635 136.881 -7.42327
-11.3351 99.5776 -12.5178
-21.7621 134.507 4.82412
-29.8077 88.9144 -11.9545
-24.7252 93.2564 -1.02015
-25.3398 83.1504 -1.05035
11.3274 121 4.90223
-12.2265 95.2474 -5.41612
-26.9517 126.119 1.9824
-28.0078 88.0885 -0.209743
-21.4586 90.5674 1.07654
-1.19911 88.9915 -9.49574
-16.0971 93.0091 4.3412
0.166803 85.1842 -4.99533
-24.4797 121.43 4.6857
-11.3255 121.149 -6.415
-11.2793 110.619 -12.3188
-20.7576 123.515 7.55521
-25.9005 136.391 -2.72733
-9.31439 133.309 3.798
-28.4917 87.5927 -11.1773
-2.26596 124.378 -7.14548
-23.8515 126.937 -3.17799
-33.1833 90.9563 -3.22945
0.152192 131.255 2.50158
-34.0032 81.8902 -3.94696
3.33342 96.4838 6.39246
-0.501314 82.0637 -3.70816
-18.4424 84.3743 -0.0561668
-23.4229 127.409 -3.86461
-3.8746 84.9343 -9.70262
-10.0973 87.3575 -1.93417
-12.4397 104.534 -13.7376
-13.3139 123.227 -6.15756
9.98133 124.384 3.31818
19.1825 124.592 0.623958
2.91823 88.3755 -2.12651
-2.27796 75.779 9.70703
-5.70805 104.198 10.047
-4.72943 126.024 -6.1663
-14.5896 98.7058 -12.3023
-11.7775 102.767 -13.707
-0.510934 91.7478 10.164
-23.2032 108.82 -12.6553
2.79449 118.803 8.60997
4.73195 131.231 -6.59528
-22.4485 87.0374 1.26267
-14.451 105.053 -13.9303
-1.98658 126.403 2.62226
-14.0679 110.653 -11.1586
-19.3975 132.317 -5.11341
-33.3039 91.7108 -9.81489
-17.3706 140.079 -4.4469
-3.31003 128.403 5.13535
9.82211 125.407 -4.94978
-9.95716 103.579 -13.4078
-12.8099 137.316 -8.43362
-32.3412 102.377 -9.21515
9.48946 124.349 -6.97753
2.05692 132.019 -0.0825349
-29.4835 85.3251 -0.582862
10.1064 126.551 -4.68136
-10.3887 103.24 -0.990869
19.0336 125.69 -2.15326
-18.9468 130.867 -7.65519
-7.19189 122.135 -7.7573
-3.98641 113.964 -2.7038
-13.8148 82.0262 -10.0496
-29.7177 133.335 -0.911455
8.69741 121.436 -1.37807
7.76717 127.484 -4.54732
-21.6269 97.5373 -12.7996
-21.2162 144.708 -1.48814
-27.3936 126.079 2.81916
-11.8181 100.649 1.21552
6.73465 125.509 2.49726
7.0364 123.219 2.87454
-30.461 84.6998 -11.7094
-18.086 145.912 -1.92801
-13.2706 115.022 5.50439
-27.5566 86.555 -0.230131
-16.4582 89.4903 -5.65494
-21.212 96.9954 -12.7376
-24.0652 131.216 -6.55482
9.63989 120.348 3.26384
-4.06229 88.3677 -10.7355
-22.2083 79.9182 -10.0715
-20.4001 136.197 -5.29667
-35.4701 90.0023 -5.12884
-10.5356 81.9063 3.70699
-3.48941 103.43 -12.4584
-18.1901 136.069 6.07024
-3.24874 122.356 3.33209
7.30438 110.387 -3.05455
-0.0620746 113.388 -9.65895
9.07056 122.912 -4.25742
8.22066 128.893 -4.00052
-22.4417 117.069 5.92318
-31.5613 127.963 0.616635
-31.5896 83.4497 -1.51508
-3.80892 140.134 -3.32727
13.616 119.609 2.8717
-21.4474 146.749 1.02459
-24.9761 126.807 -3.89683
-11.4224 87.7772 -10.5509
5.49146 109.763 5.66764
-8.7773 98.1137 -2.72811
-23.3913 131.514 -6.69966
-22.4816 92.873 0.0396654
-5.71186 120.242 5.14322
-30.7126 125.437 1.4634
-18.8439 101.66 -13.9553
-1.79385 108.947 -10.2574
-7.80067 133.593 -4.6346
-14.019 79.9058 -10.0744
-0.148743 131.921 -4.54219
-22.6031 97.3658 -12.8962
-22.4642 138.529 -3.96669
-26.1179 137.953 3.16763
-8.81781 91.0697 -12.0135
2.15237 92.1108 7.28895
-32.1365 99.502 -10.4141
-13.5951 97.2465 -2.74029
1.0984 125.085 6.50784
11.9715 123.14 -5.46741
8.89654 127.963 -4.68257
4.32044 104.19 3.40409
-28.3552 119.208 -5.67591
-11.5347 137.402 2.66428
-9.08265 91.0424 -1.68515
-9.30096 94.9588 1.01911
4.10141 111.462 -9.90856
-17.5422 141.786 5.51971
-10.6462 97.5568 2.64945
-2.36035 114.005 -2.97321
-13.8119 134.43 4.71336
-17.4508 92.6868 -11.4649
14.5718 129.427 -2.30817
4.26389 105.27 2.79162
-17.9967 138.473 -3.54217
-13.9508 95.1095 -5.12875
-13.9212 91.2296 -11.2793
6.97848 107.795 -3.49337
-23.8314 115.736 3.2589
-8.10791 99.0625 -3.00329
3.88104 125.281 5.33118
8.65796 114.587 -6.8545
5.74363 120.183 5.06873
-9.48257 85.2874 -6.01454
14.2192 120.433 4.5351
0.598558 119.908 -7.44808
-9.23274 89.5335 3.32092
-33.3615 96.0969 -5.00097
-14.1711 88.785 -3.37615
-14.7421 104.745 3.61084
-13.4941 142.733 -5.31149
-6.61898 89.4104 -11.3757
-4.7254 114.274 -10.8069
-26.3109 124.075 1.02876
0.421886 121.777 -2.18154
-2.64313 139.394 -3.02438
-24.2894 136.856 -4.7885
-9.18624 110.573 -12.3951
-0.6261 118.294 3.2199
-12.6027 92.6987 -1.51608
-29.8281 113.601 -5.61012
-25.4928 123.098 3.80622
-25.9986 122.954 -3.71579
-1.53524 103.025 -12.0376
-6.58054 98.4794 9.83926
2.61217 132.775 -0.67865
-1.50494 117.172 -2.78107
-14.0907 89.7475 -6.81313
-19.568 139.613 -4.43294
-32.5072 84.704 -7.42433
4.16394 134.127 -6.14639
-1.89522 121.203 -8.0836
0.458342 79.4703 3.0745
-19.7011 86.7613 -8.27723
-22.1424 142.467 5.16828
-31.4814 128.289 0.748698
-18.8074 87.8692 -10.4004
-11.2949 99.1587 3.37643
-26.2449 114.504 -0.612911
5.66705 101.291 -5.88596
-30.9783 126.19 1.09019
-0.428087 116.332 -2.20261
-27.4337 123.16 -0.347488
-9.98932 97.4533 -4.68032
-11.0012 118.458 6.67382
-30.0346 132.052 2.27734
-9.26533 94.5957 0.675579
2.27847 97.9224 -7.09478
-8.0668 104.441 5.61542
-12.8572 105.106 3.34312
-19.1832 95.9069 4.0031
-4.97356 106.996 4.25391
6.39698 113.422 -8.9015
1.80812 126.252 -5.77103
16.8881 122.729 -3.24823
-19.1789 94.2182 -12.6817
1.51951 94.2829 8.8618
-21.1305 134.058 5.06127
-33.2182 99.5464 -7.78362
-24.5187 125.043 3.97747
0.900188 120.959 8.5477
9.19116 118.308 1.87545
-3.27159 93.3001 -10.3957
1.31542 114.018 -10.011
-1.71653 80.2298 -3.81718
1.06149 113.501 -10.0284
-3.74019 112.843 5.93363
-10.0309 128.831 5.24256
-35.4856 82.1998 -3.80026
-5.65635 124.661 -6.52303
-13.8477 113.656 5.47095
8.53921 122.04 -1.87204
-13.2006 95.9093 -4.52757
-33.7866 98.7488 -8.60627
-14.9764 133.913 -8.69958
-11.1074 145.569 -6.05162
-1.12347 80.8831 -1.30499
-13.6276 115.562 -8.83777
-25.2375 102.036 3.33293
-11.1093 88.9813 -5.75598
-31.3541 99.5612 -2.14005
-21.0034 126.803 6.13186
3.62964 128.947 -1.71969
-4.7698 130.052 5.46498
-11.8894 96.8317 -12.2171
-23.6144 126.633 -2.78817
4.55438 107.271 3.49386
-21.0939 83.9159 -3.18532
-32.832 99.7821 -9.87976
8.39406 125.217 0.974742
3.03671 95.544 6.52393
-1.68484 132.394 -3.86662
-1.25963 114.369 -9.35359
-0.181926 79.2831 7.63381
-10.678 84.8146 -7.72625
-23.655 90.0395 0.58878
-17.3584 131.626 -7.66259
-9.38765 89.4585 0.884732
-24.3409 103.869 4.64848
-13.4212 95.1302 -5.4718
-13.2418 124.731 -6.22072
-32.6002 90.2361 -10.6418
-9.48285 106.148 -13.2987
-11.9725 127.631 7.03383
-3.86499 119.205 -9.44299
-10.3117 86.8129 5.00005
15.3873 118.593 -4.40816
1.21466 87.1512 -4.58169
-21.8032 127.985 -6.05865
-17.4086 133.505 -5.79921
-7.97836 124.125 5.0073
5.5207 119.028 4.48954
-20.7053 142.869 -2.58565
-18.6169 88.7969 -7.93609
-9.26273 137.801 -7.03667
-3.98514 133.28 -3.58989
-5.7951 133.168 -3.61179
-23.5799 97.3646 -13.0859
7.63721 108.587 -5.03388
3.96047 92.4547 -1.05994
-14.4803 92.9838 0.037159
-34.598 96.9022 -7.85096
13.376 120.992 4.92388
-7.54851 107.747 -12.7907
-31.8181 85.4717 -1.67496
-16.6471 132.969 -8.008
4.64152 110.567 -9.62852
-9.71781 88.2184 3.9874
-25.8122 125.905 0.804653
4.41355 104.882 1.60139
3.94797 129.151 -1.44098
-23.6016 127.251 -3.77796
-28.6253 97.7374 -11.8177
-12.303 98.571 0.310273
-33.9035 85.4733 -10.0173
-6.97706 91.9788 9.90735
-18.2444 105.695 6.29526
5.61368 117.137 -2.56345
-5.33312 96.8877 -12.5339
-8.86375 91.1381 5.54527
-32.1085 102.12 -5.65352
-28.0243 115.896 -1.67672
-21.5382 79.0701 -11.821
-16.6538 100.334 -13.6748
-2.51442 130.631 -4.7072
-11.9519 100.837 -1.37901
-27.5803 106.192 2.22219
-25.407 141.56 -0.137127
8.64545 122.138 -2.20275
6.88581 109.174 0.239873
-23.1691 131.452 5.95489
-12.604 87.6123 -7.17027
-11.5206 120.181 -6.94246
-10.3916 78.2591 -10.9919
-34.3033 93.0104 -4.82168
-14.8069 117.475 6.35187
-32.6261 102.417 -8.47377
-2.27243 111.428 -9.89402
8.10037 120.333 -1.83831
-7.42729 103.866 -2.93391
-0.197424 85.305 -5.47901
-3.07596 81.8587 -7.23301
-15.368 111.793 -10.8069
-19.9479 110.074 -12.6692
6.51641 123.409 -1.09667
7.21317 130.077 -1.53367
-23.4505 88.7315 1.13498
12.8603 124.476 -4.45838
3.87298 95.0075 3.79121
-20.9061 129.473 -6.39426
-11.343 135.73 3.12154
-22.3906 113.841 7.6948
-2.25379 78.6231 9.7725
10.7496 128.921 -1.55584
-3.79251 133.288 -3.58103
-13.38 84.2933 -9.60812
-8.21392 83.3852 -9.9629
-23.0484 127.2 -6.55602
-6.6876 96.7938 10.1149
4.60541 101.673 -0.322245
4.74275 131.203 4.65606
8.13908 126.853 0.580084
-4.38375 107.388 -3.23757
-32.9906 90.1048 -10.6599
-4.74865 124.416 5.2024
-5.27272 95.2794 10.739
-35.8538 86.2738 -5.74958
-14.9209 91.7104 -4.82555
-1.33539 111.742 -9.65373
8.05172 127.995 -4.41686
-14.5065 89.3813 -9.28804
-32.332 87.1402 -2.25506
3.46666 97.0632 6.25127
-15.4736 135.641 -5.35927
-28.8194 132.645 -1.28965
-20.0557 84.6891 -2.71604
-17.3309 80.6725 -10.0304
-24.0315 137.486 3.40495
0.159339 98.1308 10.1394
-8.22442 93.6453 8.55635
-12.8153 91.0154 -6.08793
8.19654 111.972 -4.43831
-12.5832 81.5364 -9.56424
19.5198 122.925 -2.56125
-26.5401 121.859 1.44071
-22.6155 131.517 -4.59329
7.57723 126.815 -0.510322
10.3712 128.693 -6.32652
-22.8793 118.363 -10.797
15.2305 122.39 4.23002
-8.72118 79.0146 -10.9715
-26.1593 117.442 -10.0068
14.0351 123.891 6.87259
-26.92 126.688 2.9815
-6.09959 105.03 -3.44908
11.5726 124.283 6.57883
-4.66235 111.554 8.41087
6.25821 119.733 4.40238
-22.8786 139.958 -2.6077
-22.0788 113.407 7.71831
3.188 124.783 1.28746
-31.9578 101.344 -5.55909
-30.7659 84.4542 -9.23242
-16.4768 137.655 5.62007
-2.75817 85.7645 10.4346
0.611179 90.9567 -8.0884
-17.9106 89.3128 -9.07057
-12.3204 92.8412 -4.70548
-16.1723 145.303 -2.58408
-34.6961 86.7503 -6.51649
5.67745 116.086 -9.66203
-16.155 91.131 -8.17295
8.19932 121.14 -4.90169
-16.0186 143.844 -2.29049
-2.91568 93.2268 -10.0744
-21.9969 120.065 6.4975
19.099 121.394 -2.59205
-12.4982 94.4926 -0.0216808
-22.4817 134.633 4.75267
-3.33993 108.654 3.85168
-11.174 87.3273 -10.1971
-16.1474 124.766 -6.76916
-27.9047 125.756 2.1907
13.1666 122.562 4.76296
-15.8264 87.5413 0.742982
-33.6532 99.3755 -9.27817
-33.6966 95.0702 -5.71627
-15.5735 129.478 6.76066
3.44901 91.7962 3.00393
6.6995 115.046 2.05541
-2.14497 94.9603 10.8502
-10.7172 98.5573 4.61105
-13.8878 125.934 -6.46759
-4.26236 134.998 -3.28763
-6.02895 78.0636 -10.0385
-31.3739 105.66 -7.67225
-18.1715 110.038 7.02596
2.7078 102.429 -8.46501
-19.9997 112.791 -11.5066
3.0153 127.582 -1.91401
-20.5004 101.842 -14.0136
-21.3692 83.2105 -0.636354
-10.0934 104.79 -13.5633
-21.5554 129.235 -6.59733
-23.0874 83.8829 -4.30532
-13.5204 143.501 -5.31945
-10.6064 96.7885 -2.79076
8.01721 126.651 -8.53533
-34.2772 86.5656 -6.47533
-24.8359 139.192 3.98357
-31.6057 83.0392 -8.12772
-9.23927 87.3159 -10.3755
-24.6666 130.878 6.94933
-15.5539 106.244 4.25192
-24.802 81.4013 -9.67845
1.61268 92.2982 -6.98157
-2.40854 76.3089 -2.27812
10.0056 122.442 3.80717
0.847417 117.312 -0.909999
-31.5139 105.7 -6.12626
-11.6987 100.618 -13.0665
-19.9643 84.4248 -7.46636
-12.2925 98.5997 2.29415
-15.1395 105.288 -13.984
-21.3433 100.103 4.57996
-10.785 84.8642 2.39823
-12.9286 132.816 -7.92846
-22.2199 131.602 -3.73813
-10.682 78.731 -10.2672
-23.6356 126.265 -6.07877
-23.7613 127.152 -2.81559
