ply
format ascii 1.0
comment Created by Open3D
element vertex 1922
property double x
property double y
property double z
end_header
-27.8274 111.734 6.76562
10.0771 113.144 0.94991
-27.9371 116.734 -5.77902
-16.3943 96.1282 -12.3499
-20.5392 145.649 -2.20963
3.31531 153.495 -2.55764
6.39723 89.1453 -9.18945
-3.39517 128.491 8.06484
11.709 128.041 -2.20152
17.5464 129.663 -3.77647
7.41669 101.19 -10.1845
18.5989 140.696 4.20412
-36.6953 132.872 0.354307
-23.5209 124.086 -4.28681
16.4883 139.898 -2.39537
6.15322 137.322 -8.50627
-26.6947 110.91 11.8612
-4.98517 135.516 -4.50825
-10.8166 128.493 -6.16281
11.3447 123.203 -0.885037
10.2025 97.0311 5.08895
10.7493 124.881 -5.42669
-1.82114 93.233 10.7395
-15.689 137.801 5.28156
2.88109 88.0728 -11.4947
9.19192 127.666 -0.444313
-15.6371 124.621 -6.77012
-35.0151 131.169 -0.0234601
-25.9441 120.188 7.9706
4.86156 139.556 -8.15028
-1.93431 103.346 -15.6639
6.04312 87.8086 -9.15969
8.79911 85.9034 5.15152
19.4145 126.819 0.401188
-12.4187 106.827 12.2641
11.4845 125.435 -2.86307
4.4074 85.2264 -9.91492
-17.3012 113.949 -10.6123
-12.3846 153.396 4.14406
8.31723 91.6543 -4.54675
-20.3038 133.775 6.2146
9.68755 104.243 -2.51148
2.98424 146.134 3.78872
8.10955 147.614 1.7151
7.91728 128.143 -3.77505
6.72829 114.176 10.7154
-9.67071 137.577 -7.31704
-29.2333 127.173 0.333168
11.6371 136.592 -7.97543
12.2502 110.073 2.44779
-10.1156 133.838 8.07852
-16.3718 104.212 -11.6412
-8.97511 102.754 6.93225
-10.0673 95.6837 -14.2388
3.21359 124.446 -9.80679
-3.85956 98.8804 11.8088
-0.726535 143.377 -4.45508
-12.2424 131.158 -6.86343
12.6648 129.219 -5.31485
6.75282 126.027 -11.516
-22.9565 136.828 4.60133
12.6077 117.386 -4.45677
-18.6023 107.657 13.0358
-25.0675 126.106 -2.92101
11.848 112.557 5.76004
12.2094 130.352 -6.38492
-5.27966 97.8964 11.805
10.8841 135.78 5.18868
-0.743546 126.819 4.82112
-3.00992 104.973 7.01817
15.7232 135.422 4.21378
10.6708 133.453 6.0891
-29.4934 131.97 2.89397
5.91268 110.841 -12.0131
-28.4235 137.362 2.68292
-28.3109 128.896 1.91743
-22.1629 128.637 9.73169
8.53894 115.335 -4.17506
-23.1328 129.483 6.97331
9.07638 95.827 -5.84007
-16.4044 127.659 -7.2163
-27.1181 121.635 4.71013
-21.0186 94.193 -11.9087
-17.018 123.805 -7.54231
8.8964 117.779 -10.8903
5.22352 129.493 3.5473
-0.612798 99.3881 -15.8137
-19.5976 102.752 -11.4772
-2.66568 85.3146 -15.1356
12.4393 109.861 3.79613
-5.17923 97.0045 12.0008
-13.7602 95.4636 -13.1387
-33.8399 130.297 0.54035
-27.2022 135.022 5.30364
-21.2635 130.395 -4.79973
-22.6841 122.682 11.2763
9.81154 128.537 -6.479
-28.83 103.679 -6.66845
5.84731 147.092 2.03787
12.3057 119.153 2.36228
-20.5339 133.703 -2.41086
8.92241 116.401 -9.69801
-13.9798 107.128 -13.3269
-28.6149 103.733 2.072
2.47168 121.328 -9.86115
-12.2605 145.775 -5.26248
3.95785 135.292 -8.52299
-28.6106 127.415 0.863602
-5.09465 114.405 5.24044
2.9165 126.387 -9.26384
12.2408 125.084 0.392585
-26.5114 107.615 12.2376
4.56169 138.671 -8.24914
-10.0613 87.0525 -17.2609
-19.7182 112.608 12.3871
-25.7624 137.631 -3.49204
-15.1714 139.389 -6.41935
9.83314 125.316 0.187251
20.1455 123.568 0.144168
-14.9945 114.213 -10.212
-27.9593 128.63 2.79082
7.73985 134.746 5.93759
15.2738 135.544 4.2521
-28.153 108.297 5.466
-6.77561 106.015 5.83047
15.0362 121.273 1.94611
-22.1717 128.014 10.3205
-7.88124 153.446 -1.76091
9.49905 124.851 0.835783
-18.7414 140.188 -2.62541
9.57944 123.962 -10.7146
2.4318 138.303 -7.0194
0.517142 126.629 -8.74297
-26.3901 117.009 10.7588
9.83884 123.373 -9.94858
-0.786356 94.1416 -15.2498
-5.992 104.836 -14.6189
-5.57156 125.01 9.52364
-31.4879 127.021 -2.67092
15.6852 125.64 -3.71042
12.5708 124.965 -7.95426
-16.8415 122.665 -7.74362
10.3335 130.669 5.31505
-16.7542 138.085 5.68459
10.1821 100.676 5.71583
9.3065 99.1948 -4.29052
-20.275 128.973 -6.14107
-16.6808 105.275 -11.7584
-9.19926 137.2 6.19631
-16.1285 133.361 7.72948
8.46026 95.4438 -7.24899
-35.1292 132.074 -1.20455
-5.86581 124.698 9.63751
-9.32315 109.366 9.79313
10.1731 110.362 -6.97948
10.8203 130.641 -7.04977
-4.73673 138.754 5.73503
-17.0929 127.174 -6.69981
-28.6173 105.883 2.94122
-8.90946 108.678 7.69247
-2.37402 124.613 6.25217
-26.4501 142.759 3.36595
2.74931 154.448 -1.70072
-11.4151 94.3027 11.253
-6.67863 90.9132 9.82177
10.5112 126.04 -1.06375
19.2112 126.207 0.581899
-21.3116 132.347 -4.16139
16.9916 139.75 -2.02458
20.8001 139.252 1.12098
-9.29392 116.228 11.2223
-28.6496 106.357 3.03979
0.253429 143.788 4.35585
11.7758 128.134 -6.9965
-31.1943 132.402 -4.01125
4.43257 104.982 -12.3302
-31.7055 127.926 -1.9388
10.5438 115.375 7.86212
4.99314 155.128 -1.49363
-28.5305 127.586 1.8522
4.96792 95.7503 10.4025
-27.3822 126.674 -0.501813
-6.58873 83.2675 -17.2587
9.60421 127.104 -10.9743
-20.6548 104.868 14.4506
-1.67506 125.686 5.75045
-34.0332 130.173 1.28364
16.2026 121.168 1.56661
9.14936 124.966 -9.01486
-1.65717 135.992 -4.91256
11.5967 147.802 -3.4496
-13.1258 121.468 11.8203
-1.23808 136.743 6.84868
5.49854 98.5004 10.3275
9.74247 126.953 -6.8078
7.37186 84.8076 -3.81334
8.80128 129.578 -4.50706
-15.2076 126.154 -6.67279
9.63888 130.567 -3.72185
-13.5999 94.5414 10.2391
-0.895503 122.272 -11.3509
11.8438 117.875 -2.35556
-1.65936 143.879 -4.24511
16.7591 126.639 -3.00473
-17.0643 98.835 12.6347
-36.7559 131.849 2.66685
12.4565 143.101 -3.94802
4.28185 98.2011 -12.0016
-35.7382 132.335 -1.43556
-6.11469 109.18 -14.3712
12.5599 143.46 -3.13992
-4.65111 94.1001 11.3467
6.04594 108.012 11.2968
9.68472 84.4659 0.683202
-23.0126 125.863 -4.82779
-4.95184 105.237 6.21843
-19.8783 127.676 -7.66714
5.9074 150.637 -3.5892
-0.54826 115.948 -12.5381
9.96602 110.506 -9.15933
-2.08494 89.3143 9.26066
-20.5267 135.795 -2.94387
-28.1367 107.294 4.78742
-29.2269 126.504 -1.14157
12.7078 129.556 -5.68322
4.92499 84.4996 -8.9593
-0.72436 81.1855 -13.8753
-23.4781 141.562 -2.44689
-9.49597 97.3846 8.06347
-12.8662 137.598 -8.32399
5.81871 124.02 6.98027
-10.4279 153.116 -2.04672
-27.5407 127.973 -2.79279
-1.95029 121.156 4.20676
9.28423 99.1919 -4.47098
11.4444 111.448 -0.221436
-5.22643 95.7744 12.0783
-10.5795 94.2515 -14.8501
10.1275 90.7091 2.57314
-9.46167 111.9 -13.2283
2.2349 118.176 5.02787
3.3507 151.609 -3.10519
-4.2153 112.935 4.93949
-18.3128 113.01 -10.612
-5.2852 142.35 3.87641
-21.2149 112.621 -9.75293
10.04 127.043 -3.87194
-18.5988 92.4196 -13.245
-28.7988 102.376 0.917416
0.221743 85.092 -13.2498
-24.5153 125.667 -1.72155
-15.4668 135.668 7.53818
-8.46384 111.331 9.45521
-11.7835 145.339 4.55711
-23.0844 116.795 -9.55015
19.4779 136.907 -1.66847
11.6196 149.032 -1.25922
13.7351 119.597 -8.35161
-28.4588 144.113 2.18641
12.587 128.719 -4.67184
-22.3345 140.404 -3.5005
-25.54 124.396 -3.08479
-27.0213 131.624 4.82727
-6.26533 100.52 7.62845
-16.0792 152.983 -0.138712
-7.23336 141.616 4.233
-6.27645 89.8385 -17.0445
-24.8924 148.741 2.09856
-28.5908 132.239 3.74055
-8.73008 154.191 0.0788543
7.16928 92.0573 8.53987
-19.0467 136.699 -3.45954
-15.3405 135.395 -6.93482
18.9949 135.506 -2.79954
-6.3651 140.83 4.75869
2.16552 82.7903 -11.5134
8.52239 112.409 -10.2822
7.80559 151.026 -4.02633
-20.1657 133.819 6.29525
-6.53923 98.0865 9.88894
14.8097 126.314 -5.87196
-28.1786 107.975 4.2333
5.19973 122.674 -10.5033
-20.1839 128.844 -6.1523
-22.6674 114.424 12.7673
0.274082 137.089 5.83459
-21.5107 127.401 -4.71572
-22.0152 120.889 -8.38961
11.0246 111.193 7.06836
11.899 110.842 -3.12932
-0.273364 120.713 -11.864
-20.2828 117.09 12.2433
9.2327 130 -10.9176
-3.60757 145.055 2.97036
9.92287 129.636 5.53654
-25.9168 101.013 11.7966
-7.20749 151.384 -4.80526
14.3503 126.949 -5.4902
9.11682 127.116 0.286152
-29.5804 103.701 -3.96519
-16.6166 97.7779 10.6
18.1157 135.223 4.21816
10.4937 111.594 -7.32291
-35.7567 134.576 2.20629
5.73988 77.8502 -5.12808
-8.35509 90.76 10.2737
-18.1564 117.276 11.9863
-23.7701 111.884 -9.52627
-22.2159 96.7669 -10.7337
-26.9217 127.142 -2.23625
4.52312 123.136 5.22406
-16.8837 104.403 14.4458
2.46321 84.2401 8.9687
8.84002 77.4505 1.82541
2.506 144.589 -4.50796
-10.4998 94.6905 11.1607
19.4199 136.127 -1.92941
13.367 123.04 3.12004
-31.4612 139.352 1.06015
18.1391 123.716 -5.47898
-5.0477 152.501 -3.44309
-2.66678 115.499 -12.9185
-9.24956 90.6032 10.4013
-22.2554 131.15 -2.58211
-17.7486 126.88 10.6478
6.89735 126.649 8.44936
-18.0149 140.243 -4.79272
-8.40627 83.9592 -17.4891
-18.166 141.703 4.60297
1.49618 128.296 -7.88999
-23.7191 99.8504 -10.1811
-7.30189 94.7752 11.9037
8.13416 79.1895 4.49198
-3.07 116.962 -12.6137
-12.4156 152.882 -2.22021
-4.49013 111.782 -14.3452
15.7384 124.557 3.80175
-21.1017 120.066 11.9365
-9.833 98.5419 7.35524
-0.925545 153.977 -2.29081
11.3687 132.351 -4.61826
-17.6123 131.116 9.17352
11.6699 130.747 4.8386
10.6349 111.405 -5.79885
21.7474 121.295 -4.27236
16.0848 145.66 3.54033
18.3882 121.604 0.313612
7.2598 91.3299 8.38049
-28.4839 135.842 4.04804
-29.4344 105.43 -2.81072
-3.89665 92.6869 10.1009
0.843368 93.4343 10.9356
10.787 96.7311 3.417
18.9339 121.046 0.035439
2.29771 83.9117 8.95672
-1.51607 95.1519 11.6936
6.63175 94.1617 -9.05044
-24.3044 126.18 8.84532
3.0818 118.325 -12.2904
-17.756 96.8675 11.6151
-15.9985 93.4186 -13.2929
-32.55 139.867 0.521056
-29.1869 127.666 0.249002
5.51974 112.653 -12.6339
4.84311 132.353 -9.21564
-12.2523 133.248 -7.47213
-20.8058 133.006 -4.1464
-14.4753 146.976 -3.51798
9.18523 80.5867 -0.0462168
12.7302 121.619 3.74142
-7.03221 99.6831 -14.3047
7.41921 88.2667 -5.07083
4.28046 120.866 6.19016
5.54684 88.2303 -9.81653
-25.0896 125.81 -1.39072
-14.6518 135.116 -7.91983
-24.2793 142.124 -2.20548
13.7908 125.264 1.7375
-14.3237 94.5868 9.09308
-23.5269 120.671 11.5108
12.0658 122.026 -1.65867
-25.2816 140.063 3.16902
-19.8272 120.732 12.1291
7.19953 139.12 -8.41801
10.6719 148.91 -3.28103
-35.9104 131.666 3.03425
1.78787 99.2911 11.3512
12.2197 136.698 -2.76438
-34.3737 131.489 -2.53325
-15.2926 137.833 5.13525
9.91669 126.166 -10.5317
-18.2572 108.648 -11.8213
-11.2694 126.751 9.6854
-13.1084 133.538 -8.01403
8.71965 116.636 -9.75202
-0.355401 126.855 4.23551
-9.87059 92.3318 -15.7665
4.58208 89.5644 -10.5765
-12.0953 90.5359 -15.754
-1.49982 98.293 -16.1274
9.61178 127.892 -1.09129
7.05712 132.146 6.72915
11.6888 124.634 0.57472
8.22216 118.781 9.76285
19.6474 137.112 -1.35162
3.6786 112.834 8.64353
0.204882 132.84 -7.2609
-15.7537 147.42 -2.79982
-26.0103 106.698 12.8833
-2.53946 112.692 4.88829
9.4142 91.9227 -2.55838
18.2801 121.344 -0.0621876
-4.08178 98.2159 -16.0906
16.6397 120.47 -5.58793
-18.4987 96.1296 -11.578
5.84852 98.0059 9.87612
-2.66408 89.8637 9.3046
15.2787 144.219 4.71899
-8.34339 137.802 5.90691
-27.4126 115.338 8.1956
10.9581 125.9 -1.70546
-13.0606 122.417 11.4298
-28.6701 106.375 6.94033
-25.4896 132.142 4.57985
-27.2768 112.918 8.99924
8.91549 94.0972 7.1588
-25.9427 121.068 9.5792
-8.53566 120.785 -8.50049
-17.0584 93.6484 -13.0259
7.98138 127.398 -2.46445
4.67986 90.176 -10.5072
-21.0972 129.116 -5.91226
-16.6221 95.1478 8.80041
16.7623 133.835 -4.7519
12.6482 122.864 1.86729
12.0063 109.914 5.06632
7.61327 135.613 -8.86959
19.7713 126.183 -4.34829
-27.9804 141.569 -1.53557
1.239 100.92 -14.97
-12.6124 118.516 -8.03871
-29.666 98.6246 -2.76904
-22.7531 113.24 12.7493
5.73729 91.7993 -9.79572
-18.0512 120.056 -9.03941
-8.14706 123.947 -6.82665
-14.3237 92.6887 -14.142
-26.5109 127.281 3.84444
-15.619 113.671 12.8324
-20.2129 91.6669 -13.1857
0.347495 100.831 11.4061
-20.3568 129.401 10.2729
0.372716 118.836 4.25298
-26.5099 127.301 3.85248
14.3769 128.306 3.10206
-24.4259 141.859 4.36282
2.18839 94.5512 -13.1386
5.38087 155.234 -1.3092
11.0526 142.665 -5.85117
5.1574 149.145 -4.17278
-14.0714 150.393 -3.55896
-0.796619 87.4 8.95781
-28.7737 108.629 -5.66662
-29.7687 101.769 2.15526
-12.217 124.945 10.4442
-20.0615 108.731 12.6143
-20.3811 128.362 10.5638
-31.1724 129.803 2.5697
-17.1707 110.418 12.7135
-12.5183 109.637 -12.3938
-22.8967 135.718 4.98703
-11.1854 150.034 3.76417
1.31481 86.5025 9.2708
-16.7175 102.171 -11.7681
-29.991 142.844 1.7225
-7.66108 113.949 -12.833
-32.5006 134.263 -2.53276
-29.3513 105.623 1.37312
-27.2997 115.955 2.10062
19.3759 133.398 3.9417
5.40845 78.8917 -5.97807
6.44155 93.7308 -9.10298
-18.1102 138.613 -4.07239
3.90286 80.7504 -7.9554
5.70915 102.151 -11.6941
-29.6857 132.574 -4.43221
-4.79241 81.1165 -16.2341
-6.19896 127.774 9.37211
14.347 117.836 -2.93094
10.309 129.721 -7.39768
-8.87857 134.599 7.74852
-3.49086 106.956 6.20453
11.3447 137.005 -7.76626
-26.2284 108.715 -8.10763
-13.1266 141.492 -6.62389
-9.01963 154.362 1.12926
9.10271 126.648 -6.02766
7.45539 132.993 6.87663
-15.2939 135.35 -7.04979
-21.4049 99.7465 -11.1876
-15.4303 114.424 -10.2691
-27.7436 110.455 6.72833
-28.1884 124.871 3.07974
12.292 143.326 -4.85618
-8.92952 95.2072 10.481
-26.2613 117.849 10.6612
9.72215 95.6789 6.40044
18.232 121.02 -5.59276
-18.9452 111.426 12.2676
-25.0083 127.224 -4.01312
-27.879 112.437 -1.26893
-24.7757 102.139 13.2491
11.8795 132.842 -4.7442
6.08714 100.701 -10.8118
4.55597 100.11 11.0567
7.15024 79.0734 -3.88466
-8.94078 137.92 -6.80514
-11.3716 129.247 9.13746
-25.7342 126.671 6.68604
-27.7499 116.037 -6.02036
2.16814 132.752 3.12435
-12.3308 96.3899 -13.231
-8.93562 138.834 -6.80691
-20.2286 149.893 -0.769277
-3.92912 97.1726 12.1099
-29.7311 102.757 -4.58928
21.2005 127.291 -3.94522
-27.349 102.325 -7.96872
-22.0365 130.117 -3.9966
-22.469 98.7004 -10.685
-13.6155 135.535 6.61439
0.0141238 136.98 6.06786
-16.2672 96.4232 -12.2824
-29.0168 113.73 -2.27837
4.66891 94.1816 -11.1264
-26.5616 134.927 5.56163
-31.7901 125.416 -2.06838
8.45969 99.768 -7.67939
-5.54652 99.4721 9.17776
20.0098 121.882 2.3497
16.6028 130.375 3.92846
-0.0750553 100.368 11.4512
11.5488 111.562 0.674124
-0.92564 144.434 4.04555
-15.654 138.684 5.01578
7.80876 78.6765 4.24329
-16.2411 147.54 3.79865
-12.0433 114.246 -9.61721
9.58769 131.548 5.82129
-2.69577 99.9909 -15.9337
-5.12721 96.8097 -16.1287
-4.18123 126.413 8.56413
-20.926 115.796 12.3668
4.21258 142.723 2.90775
-14.092 120.19 -8.08139
-1.61182 130.863 7.13924
-18.1309 141.693 4.57494
-4.43229 109.415 5.25876
15.5392 125.526 -4.21559
0.086602 88.2117 -13.8602
5.56049 142.471 2.47247
7.18442 83.8506 6.52575
-27.5863 121.295 3.74265
23.0896 121.463 0.100442
10.7077 126.075 -1.37461
-3.59792 121.107 6.05528
-21.0755 126.63 10.8998
14.9779 146.439 4.02816
-29.768 131.591 -4.03805
21.7218 124.72 0.139993
-0.604108 80.9991 -13.6752
-27.9369 112.261 -0.0955813
-0.809279 95.7385 -15.5832
6.90703 131.492 7.0162
-29.0324 138.955 1.91565
14.3067 124.16 -7.88745
-4.31876 109.249 -14.9602
9.81087 114.953 8.55269
-12.8523 123.169 11.0958
-10.8178 120.306 11.8899
-14.6647 107.14 13.0832
10.6498 130.793 -6.57032
-26.6459 117.595 3.28763
14.2477 122.205 -8.84776
5.08382 123.696 -11.4399
9.54104 126.93 0.15628
-28.6825 133.018 -4.69267
-19.8107 116.684 12.0916
-7.96942 110.267 -13.8313
9.17314 87.8554 5.14289
9.56689 129.847 -10.602
6.77991 79.8172 5.32295
-15.8971 124.582 11.5801
-0.365194 138.254 6.11928
-22.7405 129.744 6.68958
-16.9794 141.94 -4.68377
3.05544 91.7476 10.3571
11.4263 110.153 -4.34553
-26.7403 127.286 -0.267205
9.50072 142.112 -7.78196
-3.73442 146.575 -4.8381
6.88071 86.6794 7.80067
3.76808 96.6788 10.5628
9.33751 122.603 -10.078
3.51753 99.5187 11.1017
-22.804 125.977 -6.21341
10.1026 112.323 7.88406
-2.71104 105.281 6.99291
8.75715 97.9774 8.40063
-10.9613 131.458 8.12967
16.0116 122.206 -7.98774
15.4339 122.667 -7.94387
-32.4419 133.245 -3.13097
9.67327 113.263 -9.64933
-21.9199 126.421 10.9705
7.75585 121.284 -11.4547
-16.4155 148.491 3.65964
15.2876 135.673 4.26055
4.75093 118.621 8.84227
-24.3342 142.522 4.49928
-4.97759 99.7152 9.54355
-11.6491 150.491 3.90221
-11.452 112.775 -10.9963
-3.13636 143.819 3.36265
-28.7794 98.544 -6.68302
-21.0415 109.804 -10.4947
8.93321 115.393 -5.24775
-9.8809 144.926 4.95633
-29.3102 118.175 -1.47393
-0.258013 115.761 4.73684
10.3293 129.018 -9.84581
11.292 127.474 -2.87587
9.40027 86.2116 -0.951353
-28.9165 117.035 -4.23881
6.92837 89.5413 -8.25896
9.00776 78.2181 2.92194
-14.7716 129.97 10.2157
22.0437 131.465 0.264785
10.0057 120.975 -5.14486
-24.627 114.04 -9.30922
-28.8275 99.6556 -6.57368
-10.6071 154.2 1.64473
6.55316 108.085 -10.6713
-10.7576 126.698 -6.42631
-32.0775 133.544 -2.96725
-0.526561 133.908 -6.4382
12.4177 129.844 -6.90392
-15.5505 105.561 -12.2233
12.1926 138.81 -2.69232
9.82122 140.922 -8.0267
7.02256 118.623 -10.2881
-7.15191 100.1 7.47653
-19.9446 150.479 -0.393459
-26.8682 111.64 11.5198
8.94765 127.471 -0.441331
-28.5897 111.662 1.72169
8.48493 92.5882 -4.75542
-12.7113 153.448 -0.414061
-12.8245 145.049 4.02677
-21.5138 104.981 14.4076
-28.5854 119.101 0.496293
3.31207 141.64 -6.08414
-7.97751 90.5645 9.98551
-19.6392 137.005 -2.98034
4.06227 94.8879 10.304
0.350302 141.969 -4.64629
12.1942 134.852 -8.28023
-8.11537 104.085 -14.5663
4.24195 123.712 -10.963
4.05746 84.9769 8.76935
-23.8442 114.362 -9.51161
-10.904 92.439 11.03
-38.029 130.108 0.381917
-3.22643 113.008 4.7011
13.0622 123.754 1.82413
-8.47028 110.451 8.35209
7.14559 132.135 6.2234
-6.81351 112.864 6.44164
9.13571 86.2799 -1.40697
-8.88765 116.334 -11.4386
12.0428 131.73 4.98603
-5.93186 86.8698 -16.9992
-34.1771 129.164 -1.05079
-6.99211 141.9 -6.20751
2.9143 128.976 2.97184
21.2068 130.275 -0.0805958
6.19783 98.9558 -10.0412
-11.1341 84.5662 -17.4776
-11.6442 140.575 -6.91783
-4.63928 112.218 -14.2062
4.95622 92.7374 -10.535
-26.8251 122.991 -1.44195
-23.9001 113.731 12.728
-23.7593 130.747 -2.95544
-13.9047 131.317 9.78252
-23.5505 115.271 12.5734
11.74 109.641 -2.62909
0.616486 118.637 4.29979
-9.89025 107.093 9.19255
-8.28424 136.912 6.35458
-7.43299 143.02 -6.67881
-22.8221 128.606 -4.80614
9.87881 122.887 -4.16244
-16.3359 118.755 -8.80426
10.7681 112.38 -6.47801
-0.109161 84.6683 -13.5192
6.1212 153.794 -1.77919
1.81027 94.9457 -13.4562
-25.9526 125.574 -2.45584
-22.2172 110.873 12.5649
14.5755 149.707 1.67263
18.0577 131.861 -3.32594
6.69757 105.748 -11.0697
11.2944 124.86 -4.6873
-29.8257 101.86 2.37163
13.6361 120.799 1.34928
-10.9274 124.371 -6.94881
15.21 141.353 -1.97855
5.47499 134.997 2.34939
3.95206 91.8097 10.2107
-10.7504 105.739 8.0696
-2.04554 104.475 -15.7
10.9426 103.379 1.0229
-29.1205 119.218 -2.96734
-33.7652 137.232 -0.168653
12.879 131.508 -5.87937
-12.4563 93.8638 10.7041
-16.7214 104.086 -11.4741
-22.2952 122.984 11.2283
-30.0684 100.806 -3.62787
-7.33823 139.455 -6.18067
-2.85669 102.19 8.78756
1.15705 101.02 11.2673
-5.73131 84.0616 -16.9194
9.65288 131.453 -4.14486
10.1488 126.832 -4.08048
13.5014 120.407 -8.67368
9.0512 123.548 -8.52354
12.5778 132.526 4.78498
1.95683 97.5361 -13.7728
-24.7576 134.228 -5.11813
6.37966 114.775 -10.5276
-30.7775 124.52 -1.88977
9.65385 126.898 -6.65168
-10.7819 146.435 4.6068
-2.91784 106.702 6.43623
17.8995 140.596 -1.22627
-6.63787 132.642 -4.96783
3.99913 103.487 11.7601
11.5801 108.391 -0.120954
1.61286 145.678 4.15618
-22.9346 147.689 -1.29937
7.24597 91.6252 -7.96234
-0.957714 128.381 5.76542
9.59227 119.844 8.85386
12.1688 116.855 -6.27943
-3.22209 119.56 4.79064
-5.26336 121.595 8.96704
-27.435 112.643 8.35608
-3.35657 154.058 -2.20756
-28.811 137.566 -2.01227
12.9386 138.443 -2.11817
-27.3443 122.283 3.79007
-22.3063 122.538 -7.91646
-9.2523 149.083 -6.07287
-3.47664 106.908 6.2254
-23.635 105.403 14.4021
4.49463 95.9109 -11.5154
-37.4696 130.194 1.11065
13.8966 125.303 0.834399
-25.7157 144.581 3.74144
17.0716 124.721 -3.83279
11.3646 115.079 6.39425
9.50758 99.5286 -2.71018
9.83837 93.4974 5.73726
-29.6956 104.954 -1.70274
2 96.6928 10.7774
10.6463 94.7338 -0.229996
-6.65388 81.8564 -17.0163
-16.193 129.588 -7.95962
-23.2217 99.182 15.1628
-11.7333 104.619 -13.6476
-8.33455 123.813 10.7559
-19.1705 133.609 -5.95059
11.0567 137.153 5.48228
-23.6278 148.822 3.00402
-12.3824 98.311 7.60121
0.623302 94.4396 -14.3234
-32.1281 125.216 -1.84729
5.40776 148.501 2.5982
-21.2506 128.771 -5.8194
-3.49805 85.6746 -15.7293
-10.9356 101.738 7.35603
2.11007 88.0491 9.61282
-13.7098 120.735 12.1883
12.1863 142.09 -3.17061
9.97096 124.715 -10.4321
-15.2182 145.509 -4.18996
-30.0013 132.411 -4.36528
-13.4523 138.844 -7.06146
-4.1845 97.6714 12.0296
-22.5923 97.9872 -10.7003
-12.7073 139.831 4.74949
-1.82896 83.0251 -14.8119
1.32006 106.429 -14.7471
-25.2657 125.666 -3.91161
-18.8242 121.987 -8.56318
20.0948 123.418 -6.0035
6.56518 115.268 -10.2245
11.4482 127.187 -6.75155
9.23462 93.6687 -3.79135
-8.88354 127.603 -5.69118
8.28217 151.78 -3.31159
20.1615 121.684 -0.581101
-18.4896 133.404 7.74853
1.66366 131.852 3.41171
-6.04795 89.8256 8.83918
16.3881 135.855 -4.48921
-19.8036 138.056 -2.94675
-19.6724 128.671 -7.23923
-7.41751 121.557 10.4625
4.34981 138.674 -8.10013
11.6895 149.386 0.0223656
11.3976 144.831 4.06778
10.445 130.795 -7.339
8.61279 143.439 1.90967
10.3149 91.8838 -0.612977
-28.3322 101.141 7.68679
3.92578 122.039 -9.80175
9.93501 98.0219 -2.50309
17.2962 125.782 -3.28383
11.9323 122.131 -9.0058
5.48754 133.645 -8.75349
-9.248 146.951 -6.75641
9.48734 87.3899 4.59397
10.0711 148.018 2.14309
-27.0029 121.943 5.25412
-26.6566 139.66 -3.13571
-11.4509 93.7002 -14.9304
8.78548 100.91 8.18287
10.1954 113.258 -2.75001
-11.9525 128.859 9.64719
-25.833 107.524 13.105
-0.417781 103.937 9.60689
6.39905 139.38 2.15582
10.971 119.141 -4.17674
9.20845 105.808 -9.1122
-7.36844 124.58 10.2122
-16.8715 132.07 8.24264
9.59487 119.127 -5.10679
9.68143 123.38 -9.4249
-12.4474 122.155 -6.90748
-7.42706 82.3224 -17.3296
20.9855 123.091 -6.35672
-17.2196 132.102 -8.64183
7.69707 100.867 9.73192
-26.0611 101.174 11.4489
-9.97619 87.8234 -17.1086
-3.81038 131.283 -6.77528
-10.8159 151.022 -4.82621
10.6168 98.5871 0.445501
8.32272 99.7753 -8.71467
-30.0084 102.495 4.66438
-20.969 120.302 11.909
6.77925 87.6475 -6.74972
-26.685 117.449 8.39101
2.7272 117.138 -12.7556
8.45395 148.521 1.69712
21.0829 130.698 -1.60581
22.8647 121.914 -0.872949
20.4733 123.117 -6.2689
-33.9309 126.319 -0.171936
15.4938 139.347 -2.77541
12.9865 133.361 4.34236
9.77564 102.525 -2.32088
5.26375 80.4901 6.32268
-27.9116 106.243 10.131
-1.58215 137.049 -4.7077
-25.7354 128.634 -3.92208
-17.1362 115.154 -10.0852
-31.7324 137.965 -1.1973
-35.8515 133.204 -1.10763
-18.8882 128.981 10.3899
-4.10318 139.733 5.03288
-6.50417 113.037 6.18384
-4.1039 107.798 5.72126
10.983 123.77 -7.66993
-10.2749 88.7896 -16.8857
-9.13943 116.722 11.1833
8.98156 81.4015 -0.228097
-31.0399 141.402 0.53899
-8.50309 149.818 -5.68639
-30.0621 102.117 -2.70249
-7.90565 88.1379 -17.2299
-30.6759 141.714 0.646136
16.7044 140.71 5.23613
9.70765 126.429 -6.27166
-16.6003 132.892 -8.33913
11.2327 140.512 5.47921
-4.38081 86.1449 -16.4311
20.8353 122.276 -6.56115
11.1523 120.654 -2.47314
-9.60194 109.868 -13.8483
-3.03113 119.042 -12.1542
-19.3131 145.778 -1.94174
-9.97982 110.722 11.0075
8.15446 80.7967 5.22602
9.27676 138.369 5.20594
-24.0629 132.062 -3.51823
9.5328 123.498 -4.79377
11.2317 113.723 6.95525
9.84841 123.344 -9.94269
-29.0521 106.037 8.23696
-15.6196 123.309 -6.97936
14.2031 134.289 4.23522
-7.6096 121.879 -8.75883
-16.4113 130.457 9.74283
-33.9583 125.198 -0.508608
-3.89571 103.958 -14.9485
-20.7228 102.01 -11.4472
-11.974 119.228 12.1758
-26.401 122.68 -3.94814
-27.0068 123.377 5.37779
-20.3459 126.748 -7.53993
-22.2833 116.534 12.5559
9.69237 80.3778 2.41758
-17.5186 131.256 -6.72613
-32.105 127.684 -1.84217
-19.4245 129.86 -6.15572
9.77585 129.563 -10.4534
-26.7908 125.663 -1.80757
-7.65537 130.859 -5.25178
-2.5229 133.657 7.22667
10.1418 93.0146 -1.33123
3.03942 90.0051 -11.7416
10.9442 129.133 4.98269
-7.60567 88.5326 -17.1945
-8.43788 126.962 -5.86166
-25.4937 126.843 -3.7119
18.7538 126.27 3.4098
12.4169 122.042 -9.13898
12.8893 122.949 0.757929
-4.47187 117.094 5.22101
-6.12086 129.739 9.19728
-13.7671 110.426 12.1735
-10.5001 107.491 10.8083
-25.0671 120.757 10.6935
10.5583 135.7 -9.55782
-5.73294 122.002 9.50332
-11.5752 106.032 -13.8355
10.6871 132.049 -8.83067
17.7936 127.887 3.9143
-7.29262 143.812 3.48053
-15.0295 141.069 4.80983
-14.6623 96.1268 8.13787
6.04724 81.2485 6.05855
4.5777 80.8293 6.71005
-2.37834 124.348 -10.7729
21.6491 128.758 -0.542484
-30.3389 127.313 0.397738
9.20722 91.2242 5.96474
1.22347 115.271 5.39562
20.0443 133.554 -0.248139
20.563 120.624 -0.216201
-18.3129 147.925 -1.48278
-3.77944 128.51 -7.96571
-26.4078 126.286 -1.46868
20.327 134.146 3.3453
-14.4729 102.851 -12.3271
-13.4216 94.1683 -13.56
-28.1746 133.622 -4.37352
12.6935 135.96 -2.79259
-29.44 104.544 -3.42196
-2.91884 128.605 -8.57282
-21.2327 128.312 10.5303
9.41016 136.992 -9.34867
-28.201 143.051 2.80487
9.49981 102.518 7.4273
-13.0325 95.7588 -13.2353
9.2526 99.7887 -3.69643
-17.6053 131.057 9.31041
-9.80419 91.1389 10.7035
10.2612 127.778 5.99845
3.06595 132.939 -8.97244
-30.6477 126.041 -2.32935
-10.3747 114.708 -10.5157
9.0226 101.514 -4.21321
13.7309 123.839 0.907422
-27.1902 114.868 5.09391
-2.26658 91.7371 -15.904
-30.7067 136.676 -1.67538
-23.1701 128.868 -2.83638
-7.66248 113.331 8.91166
-23.7181 127.037 -2.43864
10.0898 128.691 -10.2555
-6.27048 100.449 7.67718
-19.9631 106.462 -10.6967
10.5712 112.531 -1.43266
-29.6412 127.218 0.654586
-11.3051 148.635 -5.85296
-9.32858 93.1609 11.7484
-11.3276 137.508 6.19203
3.6283 119.689 5.69787
11.7404 120.532 -4.03122
10.2658 97.8465 -0.879565
-33.7263 135.624 -0.593755
6.50652 129.545 6.9
17.0587 141.451 -1.51332
11.6003 133.468 -5.01538
7.6659 141.564 1.94494
-20.7113 102.097 15.1004
6.94103 116.826 10.3301
8.81237 154.72 0.840396
-1.67951 96.7046 -16.1251
-10.9313 91.6939 10.7813
9.50337 105.303 -3.02689
10.4863 122.621 6.84421
-6.5042 149.608 -5.60533
-27.8065 106.655 10.3331
-21.0171 99.9998 -11.3266
-29.5375 103.408 3.84166
-6.99251 143.627 -6.43988
-8.31889 109.766 6.74321
18.4801 130.538 -3.25785
3.028 139.601 3.36877
-7.16307 92.2078 -16.7443
-14.9941 149.165 3.44991
-22.6276 141.055 4.83744
13.6564 147.635 3.45724
-0.646815 126.343 4.47189
2.18652 139.891 3.88281
-28.3666 119.098 -3.99574
4.16141 98.3665 11.0985
11.692 108.335 2.60528
17.2727 124.515 -4.15485
7.51054 88.6749 -5.02796
5.14581 117.803 -10.6
-30.4677 126.035 0.671828
6.41993 111.202 10.7751
12.703 136.209 -5.89436
12.1601 109.488 1.92311
2.00268 115.493 -12.8051
-12.9739 147.278 -4.38738
-19.1368 112.67 12.3033
-1.50087 88.7677 9.18867
12.6148 141.159 -1.81382
2.91222 91.7912 10.3735
-1.84343 140.674 -4.23225
6.05223 112.666 10.8817
-20.6868 134.244 5.65226
8.75999 122.949 -8.12835
5.19576 85.6176 -8.83973
1.98475 106.11 -13.9982
-7.56244 129.558 9.42176
-10.0029 137.732 -7.57463
8.6019 152.295 -2.27253
11.7859 132.533 -4.79182
-7.3681 147.201 4.95919
-0.218244 110.984 6.09977
7.82581 86.5081 -3.58207
-24.5685 136.207 -3.78162
-0.338891 131.564 5.9659
3.97072 116.521 8.02712
14.0686 140.938 -1.24731
-9.92136 120.57 11.6002
-21.7887 103.185 14.9362
-29.5704 105.354 -0.949135
5.88494 139.109 -8.48865
-13.1888 129.129 -7.20203
2.66541 81.2336 -10.7175
-22.1921 135.29 -4.07487
4.97101 114.167 10.2776
-2.37698 94.5341 11.3497
10.5391 145.779 2.876
9.28989 124.264 -5.48014
3.33069 150.62 -3.2317
-5.71518 137.918 6.28409
-9.69762 114.574 -11.6452
0.11267 145.384 -3.99208
-3.69357 82.465 -15.9539
10.6115 123.236 6.26164
-24.8023 107.761 -9.39887
10.8022 123.271 -7.86065
-26.5141 106.799 12.224
-17.6957 119.561 11.8406
17.4435 132.245 -3.78341
9.87887 136.078 6.16141
-0.517623 123.91 -10.491
-26.3147 117.993 3.67914
-26.7239 126.706 -3.25737
15.9834 116.952 -1.37546
10.2364 127.978 5.92966
-21.2363 124.872 10.9312
-2.22055 81.0895 -15.0492
-11.5851 137.679 -8.19518
-9.21073 143.548 4.68547
13.7028 150.419 1.20504
-25.9377 133.086 5.58018
-4.59734 133.715 8.18937
-1.93087 109.396 5.90571
-2.66821 123.151 5.62867
-20.0895 136.201 5.48918
12.1062 151.387 1.05633
17.6737 121.756 0.887684
9.52242 114.725 -8.30089
-3.38353 124.149 -10.6305
8.84795 126.136 0.101252
18.4016 144.742 1.07041
8.52291 144.369 1.88964
-19.7262 106.965 13.4693
-26.1235 125.018 -3.59311
-13.7423 108.113 -13.1948
-8.15499 83.3503 -17.6113
0.271013 116.651 -12.7196
-32.1604 128.602 -1.7445
17.6315 135.992 -3.58027
-29.5555 134.422 3.41586
17.5201 138.038 -2.51935
21.1158 139.961 2.01654
6.35625 119.705 -10.0614
-23.2255 127.132 9.78233
-15.9531 135.594 -6.01125
-0.846001 93.5438 11.0025
19.4877 119.787 -0.700114
7.22719 137.633 2.4484
-29.09 101.513 0.470412
0.190992 101.895 11.4462
-19.4507 129.085 -7.31266
-0.10587 125.994 3.58545
8.90215 117.836 -9.98017
10.9493 104.299 6.11499
10.5809 92.7035 0.978088
7.4525 89.5827 8.08183
14.4056 143.294 4.8615
11.249 119.168 3.91693
20.6533 133.06 2.99504
-27.976 113.842 -6.05095
4.7678 117.456 9.27505
-14.877 128.925 -7.52762
-23.3339 124.561 -4.19247
3.2191 119.355 -11.8584
-7.84229 133.446 8.40484
-2.59262 121.592 4.90519
-32.8954 135.705 -0.871275
-16.5128 146.204 -2.99899
4.88265 97.8128 10.7111
-6.14982 134.284 -4.90689
12.737 145.298 -1.84368
-12.0591 102.387 -13.5047
-29.2685 132.152 3.00882
-19.5486 104.087 -11.081
-7.2086 87.9191 8.2014
-5.53413 91.3372 -16.9787
20.8979 131.623 1.77346
-3.99998 121.157 7.06923
-30.0672 126.148 0.708939
9.203 123.781 -4.38636
22.0217 134.059 1.62949
-0.798539 116.07 4.47723
17.6839 135.521 -3.81375
-2.81307 87.9975 -15.6355
-3.19799 106.186 6.55248
11.5312 127.056 -4.08166
-25.5307 123.868 -2.68265
-29.0674 127.438 1.00348
-12.1943 96.9892 7.64425
6.29757 105.583 -11.3282
-9.17691 97.2034 -14.1139
-5.40352 99.5606 9.21991
-3.19342 146.425 4.01831
-26.949 140.866 -2.39318
3.72103 140.014 -7.10564
20.6556 124.023 -5.64893
-22.3943 102.533 15.1174
10.9552 96.7118 0.862227
-30.237 141.667 1.50953
-26.6748 116.868 5.41251
5.12361 136.357 2.30094
8.97581 88.1544 -2.24655
-22.242 147.921 -1.48843
10.3278 124.863 -8.24153
-34.4076 134.865 2.78217
-14.4759 147.736 3.54685
-26.8603 126.307 3.95075
-24.8929 122.656 -6.86294
12.1904 129.516 -3.69827
6.59374 125.975 8.38686
-26.7486 115.125 2.5219
-4.53079 124.764 -9.37028
11.2223 133.975 5.38295
6.07275 84.0758 -7.06361
9.98492 108.516 -5.92261
9.7873 109.864 7.86056
-8.6405 94.0863 -15.3072
0.324534 124.01 -10.1265
-5.23948 117.121 5.96808
6.9118 97.9305 9.29125
9.46709 147.219 1.82736
1.19729 93.8193 -13.793
12.6346 119.381 -1.253
-25.8352 120.06 6.65496
9.83637 127.877 -3.10587
9.91903 127.143 -5.01858
-8.91584 129.384 -5.73153
11.3734 120.393 -1.10828
-22.6847 142.641 4.55305
-4.54471 129.684 -6.75971
5.08867 105.606 -11.9519
-8.34515 110.678 7.98338
11.0804 133.543 -9.86184
9.88259 109.102 -8.67204
-2.84244 107.302 -15.4009
-26.8822 119.855 3.17299
9.92446 88.4957 1.91863
-27.3273 100.779 -8.30131
9.13912 112.887 -9.78304
-0.716254 82.4841 -14.2342
-28.0163 144.343 2.49777
10.8212 148.775 2.19474
8.19097 121.895 -7.38363
-1.89094 143.203 4.29328
-11.8191 137.721 6.13886
8.10534 96.781 8.57574
16.6329 142.989 4.67528
-23.0605 99.8034 -10.6468
10.082 101.814 7.00649
-9.34592 93.4811 11.8998
-6.97958 131.456 -5.04972
13.4669 123.276 0.665809
9.94913 122.51 -9.18986
6.3141 146.141 -5.92334
-16.0077 135.863 -5.55053
1.9568 88.3634 9.60757
-26.4196 138.682 3.3216
-25.9509 140.505 -2.68697
8.46105 154.397 1.90108
-28.4801 101.457 -7.10389
-15.1184 132.608 -8.85385
9.80978 110.712 -9.55881
-0.819555 126.519 -9.54464
8.9582 134.68 -9.47185
-25.8773 134.575 -4.61239
-13.83 118.796 -8.23928
-22.212 105.378 14.346
7.28551 126.08 -11.4581
-22.8921 129.389 -3.55297
-17.7416 143.064 4.39507
19.0426 138.201 -1.81292
-11.8787 105.221 -13.5902
-29.6597 103.001 -1.00595
0.409409 141.161 -4.63142
-17.0323 129.729 -7.24104
2.30867 142.149 4.09151
15.5335 139.302 5.13714
11.2996 131.344 -6.58305
-25.0936 115.185 -8.85772
-27.3406 120.923 3.89044
-17.7744 138.26 -4.18938
-10.8325 125.731 -6.75406
0.715062 121.869 -10.4388
-25.7482 120.94 -7.47323
-25.2407 128.723 -4.16822
-1.04567 131.326 -7.63132
-2.59586 133.059 7.16372
-28.4724 110.009 -5.36367
-3.63983 102.287 -15.0515
-3.19553 115.158 4.66543
-27.7365 128.688 3.02758
12.8592 136.98 -4.44967
18.92 138.097 4.47209
-25.5522 125.308 -3.53544
-24.7762 127.657 -4.05018
-22.2042 111.826 12.6106
-18.8228 143.199 4.80623
17.0608 141.968 -1.24701
-17.3198 116.425 -9.58828
9.53206 129.937 -10.6159
-18.3184 147.955 -1.46783
10.6693 112.528 1.97226
-17.9246 112.23 -10.5165
-1.50096 108.815 -14.7172
-16.5286 105.824 13.5712
-17.8875 143.494 -2.1933
20.4472 141.847 2.03017
-2.26665 124.825 6.20871
-21.7417 144.006 -2.41015
6.99269 103.261 -10.9421
-20.5786 135.074 5.2771
19.9577 132.924 3.58804
-26.4144 126.586 -1.40607
-13.5582 112.142 12.5611
17.4792 124.085 3.81448
-0.193906 140.987 -4.47939
-5.81187 135.073 -4.71931
7.90268 155.08 1.52184
-3.37421 97.7787 -16.2745
-19.7326 128.981 -7.01033
-26.3081 112.989 11.7128
-28.084 130.675 -3.90266
8.0221 123.296 8.49545
20.8451 137.262 1.70631
3.63777 154.087 -2.12825
3.8869 119.071 -11.4192
-15.9492 124.88 11.4606
-30.3718 132.964 -3.78928
4.60494 117.43 -10.945
12.2491 142.275 -3.71477
-27.768 110.023 6.44795
-22.0762 98.3816 -10.695
-7.50906 134.376 7.98214
3.32053 103.162 11.7118
13.219 119.672 1.65723
-13.4562 133.477 7.91171
-21.3253 132.92 -2.20032
-20.4843 150.91 3.66471
-17.4637 90.4961 -14.0663
-20.7502 142.727 5.20058
-7.20891 102.302 6.38538
11.1549 121.813 5.67023
-2.9777 128.951 7.86738
-32.1326 126.954 -2.30383
-28.2901 131.986 -4.4581
6.15855 144.463 -6.74392
-4.16997 106.131 6.2909
1.52351 102.628 -14.8192
-2.98417 90.0085 -16.1546
-2.99835 92.7482 -16.3592
-8.91672 128.028 9.47307
-11.2579 153.822 0.492098
8.52608 152.479 1.69483
9.63114 129.002 5.88549
12.2722 142.372 -3.54893
-5.14297 125.557 9.20763
20.0745 122.629 0.967662
-11.1088 153.862 3.18463
8.92368 82.6933 4.80716
-12.5775 103.266 8.78428
-20.3293 137.567 5.28448
-29.2091 98.7703 -1.34122
-13.8034 148.586 -3.88728
11.3767 120.351 -0.924369
-29.11 102.476 -0.0490365
9.83247 106.832 -4.01785
18.0881 144.764 0.486466
-26.374 126.496 5.09926
-14.3311 101.404 -12.5263
-13.1214 133.273 7.70221
-18.6822 130.232 -6.5141
-24.0378 125.396 -5.06735
10.838 95.6371 0.541433
-6.50378 107.175 -14.945
-4.0695 106.182 6.32285
-29.1931 126.352 0.785396
-2.07255 109.295 -14.7696
-12.8422 125.183 -6.84262
10.0611 110.81 -9.08496
2.4066 147.516 -3.74126
-7.29321 121.001 10.3983
7.942 84.0431 6.28928
-13.356 153.665 0.757935
13.5652 128.716 -5.40497
20.2505 136.93 -0.436722
-33.3381 128.576 -2.11579
16.2472 132.887 4.00059
11.3824 130.696 -3.91817
-2.70466 122.175 -11.5681
-2.19131 101.741 10.5039
0.489548 140.394 -4.94848
-28.8254 114.417 -4.65635
11.4979 106.429 5.52894
-15.9916 146.232 -3.38223
12.0409 140.006 -3.86483
-5.1383 142.66 -5.2132
10.9293 96.9594 2.66504
-0.314351 129.89 -7.81139
-1.1779 128.337 -8.83776
-21.6001 148.154 -1.48844
2.61377 82.8484 -11.105
-8.16162 130.711 -5.42161
-29.6566 101.698 -1.97652
10.1316 128.608 -6.93475
-6.54174 87.0139 -17.1004
-16.9957 110.443 12.772
18.4805 140.103 4.40959
-23.6234 124.376 -4.71131
-26.1741 128.277 -3.88615
9.76132 107.435 -6.8535
-22.7062 125.769 -6.57742
-10.0066 110.408 -13.5894
8.89596 127.391 -0.660673
8.63948 125.223 6.8973
6.23488 99.4365 -10.2186
9.75296 126.044 -8.45583
1.30268 101.556 11.1985
-23.5627 128.729 -2.73218
-4.012 128.322 8.41267
-25.9694 116.916 11.2304
-1.92702 134.01 -5.49217
-28.5017 98.2472 -7.10701
-27.6761 112.956 0.326971
-19.8922 125.186 11.1736
-14.2853 102.453 10.5519
-22.6422 126.398 10.9748
2.24392 142.413 -4.94612
12.1247 122.932 -2.3458
2.65674 102.018 -13.9284
8.49209 107.349 -9.73376
0.783815 117.049 4.71964
-24.6692 128.798 -4.15478
-14.5602 101.585 -12.3969
-0.677605 106.669 -15.2194
3.83929 110.588 -12.5651
-7.22185 120.171 -10.3937
13.9165 121.946 -9.19209
2.39648 141.755 -5.27747
-18.9901 130.698 -6.54529
10.1988 94.2433 5.04264
8.51884 143.686 -7.39024
3.04746 132.498 -9.10593
-2.13214 137.436 6.34332
7.56879 83.9296 -3.31027
-16.5952 140.955 4.76575
-4.63465 130.353 8.67393
4.07173 101.26 -12.949
9.01817 112.022 -9.85449
6.18656 119.305 -9.99689
8.42633 124.628 -3.77613
-23.6037 144.209 -2.05101
-21.899 117.166 12.4926
2.266 94.8184 10.3791
-16.6799 95.2279 -12.5565
-7.71507 109.058 -13.949
10.3342 126.628 -7.50827
-19.2424 97.1939 14.2038
-21.874 129.396 7.82077
-9.97411 101.658 -13.7574
-26.8624 116.846 9.28068
-19.6129 133.192 7.64643
8.7674 79.7289 4.23803
8.37715 139.227 -8.65194
-2.01106 106.557 6.73552
-25.3556 121.258 7.51767
-21.1203 123.314 11.0931
-28.7489 111.748 -4.67353
16.2829 135.566 -4.57719
-23.6429 138.564 4.43285
10.6834 103.681 0.0292197
-23.772 124.052 -7.00841
3.00875 109.892 9.59026
-0.787551 84.7971 -13.9221
12.3567 110.938 4.25931
7.00042 113.672 -11.0744
2.84381 128.269 -9.29541
-6.603 109.526 -14.0581
-2.4208 100.846 -15.7046
-27.4478 138.032 2.99333
-26.7304 118.147 6.85592
-23.1486 105.068 14.4354
-1.65877 87.2775 8.87039
-21.2147 141.369 5.29306
-25.0864 100.6 12.7444
-29.689 142.382 0.402728
-25.2627 125.149 -1.66617
-26.1549 121.882 -6.32528
-12.2478 106.926 -13.8933
-29.1447 107.984 2.68314
0.311293 130.488 -7.53822
-19.5124 137.469 -3.24101
4.40783 81.4335 -7.72936
-7.76882 135.788 -5.80314
8.69273 138.355 4.04714
0.661271 132.219 4.6847
7.18205 85.8788 -4.35721
3.61597 119.072 5.95944
3.46358 126.015 -10.0391
-25.2584 125.292 -3.64967
-26.9873 126.027 -1.30361
-20.1037 135.189 -2.67001
1.3225 92.5408 -13.6023
-3.4065 83.5363 -15.729
-34.2062 135.814 -0.361329
-25.5736 130.349 4.10342
-2.13825 129.501 7.3471
-9.11476 147.145 4.65763
4.04478 111.389 9.97118
-24.1103 144.673 -1.90976
3.71385 95.9861 -12.216
-18.8914 141.493 5.75222
-22.1024 98.9687 16.006
-14.5424 133.775 8.79453
-5.279 122.022 -10.7546
-3.46565 138.451 -4.26585
-27.1101 141.966 2.58831
-12.7513 101.101 7.66665
-26.5517 112.358 -7.04173
14.1581 129.823 4.25498
-28.6675 105.703 5.93558
-27.1046 135.651 -3.03962
-18.659 141.778 5.02611
9.81811 113.29 -5.89326
-6.23921 129.667 -5.72274
18.7406 134.411 4.29372
9.99444 142.383 4.27486
-3.27269 132.166 7.72785
-24.0309 112.995 -9.42099
-10.9761 127.271 9.52425
12.897 124.699 -8.08972
-25.4503 139.838 -3.28947
-20.5706 128.649 -5.74942
9.03221 115.789 -6.8841
-23.0801 106.531 14.1798
-25.4887 125.009 -4.32566
-1.26787 106 7.24952
-29.2218 99.2346 -5.99012
-14.4651 133.385 -8.91701
3.63647 81.1129 -8.89072
-11.5462 153.628 3.89534
15.9522 122.859 -4.32977
-28.932 129.85 -3.64448
-26.7842 133.916 -4.91153
-25.6982 123.029 -3.7248
-12.977 131.675 8.89231
20.3009 142.033 1.52771
-14.4801 132.15 -8.47564
9.21287 97.5662 -5.79653
-31.9779 130.961 3.00168
-3.57639 87.0048 8.87489
-9.16542 94.3955 11.6027
5.51376 135.121 -8.49142
-16.4245 140.676 5.00829
-8.67504 124.724 -6.46365
-4.71856 128.326 8.84271
-21.7319 134.354 -3.93474
-29.5696 101.344 1.28229
-24.5554 136.169 -3.80036
3.3788 131.095 2.69933
12.2878 127.49 -3.08645
10.0499 113.44 -3.10668
-19.3956 152.208 2.44944
18.0976 118.472 -1.78799
-2.84416 131.114 -7.24904
-26.5918 114.437 11.058
4.3512 114.534 9.44846
-31.7074 128.945 0.888698
-26.1738 118.023 -7.40497
-4.67428 117.685 5.4298
-10.6235 137.735 6.05573
12.1765 130.791 -4.72511
12.6103 124.137 3.54883
-9.73027 107.677 9.38733
-25.3303 102.078 12.8438
8.03801 77.9033 -2.33875
11.684 120.682 -1.16791
-36.4757 127.695 0.126326
-26.0833 95.1965 -9.22615
10.4032 104.936 0.740544
-29.0614 101.604 0.519728
2.31503 102.688 -14.2612
-19.9397 120.077 12.2462
10.8782 95.325 1.05989
6.7977 129.437 5.63823
-14.1706 135.995 -7.58438
-29.3959 108.123 0.063926
10.2115 105.587 0.225243
18.7651 142.481 -0.220519
6.73007 115.919 -10.3624
-5.61065 122.37 -10.4186
10.3714 92.6803 4.11065
10.4143 122.012 -8.06899
2.86616 152.313 -3.08795
-23.1609 120.791 -8.54108
-26.2132 129.705 -4.2076
1.84197 144.149 -4.35218
7.20392 153.578 -1.62163
-21.4491 99.6823 -11.1595
8.08032 79.9424 4.78887
12.3948 118.179 -1.23208
1.25126 118.417 -12.4141
8.69367 122.996 -7.38016
12.0047 125.696 4.03027
-4.29153 147.209 -5.04026
-21.3868 122.249 -8.07344
3.53296 102.719 11.554
7.10797 132.598 4.75892
6.16009 101.08 -10.9024
-18.3531 122.941 -8.23683
9.3508 83.2546 4.15909
-1.68776 95.2104 -16.0116
5.64872 88.6175 -9.75019
-11.942 120.022 -7.41685
-21.7705 127.57 -5.88394
9.53744 104.636 -6.95873
-12.9097 98.6109 -12.4172
9.67664 127.792 -2.63338
1.64165 136.804 3.97057
-27.5025 109.443 -6.04414
-29.597 104.032 4.72964
-13.7492 102.941 10.388
13.364 146.615 0.737617
-6.94326 89.8481 9.09069
-33.5381 127.589 -1.17671
8.17085 93.7102 8.10665
15.4161 145.513 4.08576
6.42768 142.53 -7.54951
0.00887149 113.252 5.47972
-13.0444 140.178 -6.72977
10.3133 129.081 -7.15091
1.94278 137.775 -6.96951
-0.59424 113.152 -12.9713
18.8694 142.956 2.78445
9.53614 94.9415 -3.7174
2.90726 91.7074 -12.0138
-5.44238 133.818 -4.70218
-21.0056 125.216 -7.3501
13.0372 131.931 -5.43992
9.97974 139.44 5.71542
10.9521 111.499 7.16873
11.238 115.269 6.72546
10.0645 99.4796 -1.11902
-15.5603 134.866 -7.49468
-19.3115 114.83 -10.4608
-12.6135 136.947 6.36081
16.7759 134.677 4.09053
-0.0628301 153.731 -2.32406
21.9559 132.816 -0.103159
-4.26909 120.522 7.16565
7.10761 87.6328 -6.0465
18.7405 130.589 -2.78725
-21.4453 142.343 4.91801
9.79479 144.13 3.15781
-8.65838 130.163 -5.6299
4.20403 82.8618 -9.41945
-8.70192 137.568 -6.64298
-27.3109 115.748 8.30213
12.4939 139.809 5.55231
8.88174 88.022 5.51331
7.42997 124.316 8.75302
-29.2137 126.291 0.777376
8.79952 98.3115 -7.38949
7.71422 142.136 -7.7887
-5.38813 140.099 -5.17687
10.0452 128.162 -1.9666
9.38461 78.401 1.81997
-10.8247 141.606 -7.02529
-12.7325 131.111 -6.98621
-6.66119 125.325 -7.52023
-33.0304 133.282 -2.93435
-8.74074 92.9714 -15.7839
8.55017 124.375 -3.30473
8.83601 89.8071 -2.88701
11.7349 120.651 -1.04921
-18.3643 127.306 10.6477
-14.2884 153.484 2.39283
-27.3001 96.5631 -8.05422
-20.7845 131.258 6.53396
-5.24705 139.277 -5.04021
-23.2895 95.9804 -10.6613
-12.7507 127.082 10.3197
2.56515 135.739 3.87931
-12.5918 153.816 1.00935
-24.8834 141.501 -2.36876
-28.6926 106.447 7.12996
7.01625 141.384 -7.94376
12.5965 116.786 -5.88936
12.784 144.13 -2.14043
-9.89335 128.825 -5.99139
12.5523 121.782 1.48634
6.69839 98.0226 9.40911
12.2612 112.104 4.82938
-1.45667 142.067 -4.32311
19.2746 120.989 0.195582
-10.5079 110.271 -13.3471
-3.84448 105.423 6.65055
-36.8807 129.275 1.74791
-19.6197 108.689 12.655
-9.20714 149.664 -5.76781
-13.0793 95.0663 8.70687
-28.3635 112.941 4.76094
-13.1407 86.3682 -16.5822
23.0083 127.598 -2.02622
-3.64234 139.483 5.21464
12.8673 131.227 -5.49399
-13.3909 131.603 -7.41881
-12.8993 146.78 -4.60073
-29.1131 114.453 -1.85432
0.917407 106.878 8.29518
-22.3722 126.428 -6.70123
-2.42657 130.216 -7.85366
11.5162 115.037 1.50471
1.99211 136.793 3.76062
-11.2469 101.672 -13.4687
11.8392 124.488 -3.87338
10.6666 103.926 0.309872
-14.3837 146.914 3.52175
-28.1624 138.872 -1.53005
-26.1242 119.91 8.40418
8.72678 127.072 -5.62063
-13.0552 140.532 5.03185
11.2645 125.735 -2.84242
9.02656 79.0555 3.36415
7.57302 121.292 9.67749
-19.3294 120.459 12.1096
-10.4381 91.9857 -15.7448
-9.15843 96.736 8.65154
-5.88936 105.215 5.77043
6.09303 89.5834 -9.42483
11.7202 119.608 3.19344
2.40412 110.664 8.05744
17.5443 143.541 -0.00505771
10.5945 100.698 3.75999
2.4917 81.5133 -10.9204
10.6258 117.68 -6.92485
-17.1535 88.6611 -14.6149
13.0964 124.907 3.14906
-11.1257 120.491 -7.21721
8.06641 150.886 -4.16628
12.1191 131.255 -4.92889
-23.7429 142.448 4.70396
18.4669 137.832 4.40153
13.0344 147.58 3.33372
3.52628 128.72 3.0695
11.9645 132.286 -5.05648
-17.5795 118.799 -9.08475
9.29488 100.362 -3.00988
14.4534 134.745 -5.09456
-26.7444 137.25 4.26082
11.178 123.229 0.826846
-33.8632 137.435 1.12023
-29.8264 131.654 2.41273
4.20616 143.149 -6.13368
-31.8062 139.644 -0.455173
10.165 105.053 6.95102
6.54015 97.331 -9.62024
9.84265 114.853 -8.94027
8.20294 139.681 2.6399
-12.7159 107.274 -13.8597
-30.2356 126.219 0.706519
-3.0244 115.796 -13.0035
9.67691 115.21 -2.19902
15.5791 131.182 3.95184
8.30795 99.9912 -8.61183
8.61927 123.709 7.37573
6.79567 83.0008 -5.40579
9.25423 118.761 -8.02689
10.5684 91.8911 1.74725
6.68841 149.763 2.33244
-2.19364 101.479 -15.603
9.55068 105.544 -5.03685
-9.82215 120.596 11.5614
19.6759 135.075 -1.40918
3.62204 148.443 -3.81006
1.81429 121.454 -9.90235
12.7086 134.553 -4.18437
-9.44025 150.957 -5.02882
-5.74629 142.232 3.96814
-1.98275 145.252 2.4158
-9.31976 95.1368 10.0315
-14.2129 109.873 -11.3223
12.343 133.766 -4.96342
10.6745 120.698 6.07277
-25.4945 99.271 11.1698
-13.4955 107.117 -13.5271
-12.8507 111.692 -10.6548
-24.7859 105.921 13.8586
10.423 120.945 -8.4272
0.762625 94.5979 10.9722
-23.0086 128.066 -3.87717
-34.2146 126.161 -0.684767
-32.5619 130.51 2.27668
-13.4016 97.8152 7.74948
15.638 128.463 4.577
10.6312 143.271 4.14642
11.9919 119.04 2.5745
-1.39981 108.59 -14.756
-7.54773 128.939 9.50335
-22.3362 108.989 13.21
-20.2087 109.406 12.485
-32.0458 128.751 -0.986551
14.8206 144.501 0.307141
-19.8628 135.868 -3.42473
7.07305 134.874 3.30147
-8.87859 108.891 7.93484
-28.8441 104.967 4.26327
2.62915 105.084 -13.3908
12.0139 126.782 -6.42685
-6.76061 119.777 10.0557
-26.6001 104.055 -8.18862
11.6235 116.94 -6.74763
7.30413 121.167 -11.5693
12.3836 148.388 -1.29565
-24.2822 103.196 14.2581
-16.8771 119.424 -8.84044
-31.6424 135.709 -1.34725
8.45531 109.986 -10.2716
-27.6689 109.742 10.3464
8.29903 81.7603 -1.7094
-24.4597 126.151 -4.498
9.32991 79.431 0.295812
-24.5509 110.894 13.0675
-0.136684 115.627 -12.5386
1.16725 105.236 9.87325
-27.6191 123.221 -1.56635
-28.9099 107.962 3.12382
6.79486 79.5962 -4.60839
-14.9136 133.616 8.77483
-25.5667 125.857 -1.72352
-8.30379 142.752 3.69326
-28.0353 111.423 -1.99911
9.7155 103.847 -2.40172
-33.1876 131.352 -3.15151
11.4216 116.598 1.13058
-12.6238 153.611 0.203801
-21.8182 110.799 -9.33462
-17.9486 130.089 -6.9314
10.9779 118.958 -5.72092
-11.3419 144.019 -6.27413
9.12059 103.164 7.64878
16.253 124.148 3.7233
9.46217 132.085 -10.1022
-4.45773 152.524 -3.36271
-29.7951 103.319 4.21658
12.2805 112.219 4.80189
-24.1678 123.224 -7.23849
-2.93047 93.1986 -16.3315
8.46895 86.0441 5.91051
9.42817 78.6385 0.900088
-31.2018 126.626 0.416216
10.7475 96.7557 3.63649
18.0388 120.862 -5.46321
22.0754 134.369 1.82591
0.180295 92.2885 10.7371
-24.2487 139.185 3.73503
2.07394 153.691 -2.24526
-6.40641 119.271 -11.81
-11.1165 105.714 8.67581
-22.506 138.244 -4.1551
11.9256 132.777 5.20241
-21.2613 136.085 -4.28959
10.8189 127.573 -5.10566
-8.3138 135.672 -5.95259
2.23714 84.1508 -11.9223
-27.2313 119.427 2.12753
-0.147792 104.819 8.84637
-29.3792 127.945 -0.104268
17.2715 143.228 -0.181258
-9.7297 119.303 -8.34415
-25.1131 107.097 13.4649
10.8386 99.8441 3.04982
-22.6444 117.369 -9.60686
13.3082 124.573 1.18552
-26.2172 122.798 -3.15576
2.01321 104.191 11.3687
3.74167 98.9624 -12.8482
-22.6345 127.426 -2.5942
-33.3979 127.598 1.00307
-20.2038 142.583 5.54143
12.5561 135.965 -4.30514
-25.5652 132.342 5.04833
-6.57804 151.36 -4.8074
-29.5159 105.843 -1.37114
9.07653 123.68 -7.31711
-26.5345 135.725 -3.17415
-26.4335 125.903 -1.55176
3.18069 118.871 5.21343
10.5164 102.161 5.82644
-6.12879 90.5446 9.30289
-12.9898 124.653 -6.74771
-17.7749 97.8787 12.2763
19.6598 141.22 0.0604588
-21.8665 115.27 -10.1111
2.73456 80.1219 -9.88392
-5.26808 117.418 6.30725
10.0911 121.341 -4.62622
7.72325 112.54 9.95055
-28.5792 116.156 -5.18006
-17.4631 94.7371 9.1629
2.82546 134.96 -8.18885
13.1631 123.464 1.10436
-16.4636 151.801 3.67901
-27.3458 125.797 -2.50379
7.56246 99.8581 9.52421
-1.92302 129.538 7.18838
2.10725 119.768 -11.7909
-10.2989 119.843 11.7708
1.49838 136.764 4.12791
-28.3627 104.398 9.29705
12.8615 116.742 -5.50182
-11.581 148.46 -5.61459
-5.34431 134.159 -4.69226
-9.4986 140.429 -7.63582
9.43763 128.38 6.48436
19.4494 142.89 0.871821
-33.8742 130.218 0.0729827
-28.053 111.652 -5.99173
-16.4396 99.3406 12.4634
8.72841 110.687 8.63847
3.21382 119.757 -11.682
7.66715 144.875 1.83192
-23.8304 135.511 4.44894
-31.9708 128.486 -0.0696807
7.32415 120.132 9.79241
15.802 124.084 -6.82371
6.20161 152.122 -3.16631
-27.6446 112.985 0.264794
10.9058 112.004 -1.17407
10.2402 147.25 -5.57959
-0.0467911 94.4927 11.2566
0.108001 140.906 -4.54939
8.69864 117.167 -10.3473
4.0913 135.354 2.4601
-29.1574 119.19 -0.945907
-6.53145 124.97 9.86888
-28.3611 106.263 5.35947
22.2866 131.644 0.0609893
12.3118 119.784 -0.744483
-15.6514 91.7811 -14.2149
-11.9367 100.946 -13.0703
-19.573 93.658 -12.4768
-11.4173 140.646 -6.98947
11.252 111.777 -0.0344812
-10.1102 123.612 -6.87994
11.7495 120.26 -2.75512
