ply
format ascii 1.0
comment Created by Open3D
element vertex 1936
property double x
property double y
property double z
end_header
-28.883 78.2247 -2.43235
-19.0982 121.011 14.0741
-19.0788 92.3926 11.894
6.1027 91.8107 2.22994
9.61869 121.1 2.4421
3.84219 136.725 3.63335
1.76189 143.327 -2.78148
16.4827 140.141 -0.0197662
-33.2775 89.5081 8.22098
-0.427455 135.078 8.48283
-9.97298 86.0247 -11.0299
18.458 122.709 3.45225
10.9107 132.578 -2.70127
16.1997 134.593 6.51743
-9.34841 138.52 5.62972
-27.6324 88.9244 14.462
8.28692 123.276 -7.6427
-23.6502 108.542 -5.58467
8.09888 144.076 2.56472
-11.827 103.582 10.0644
0.39197 76.1175 1.66742
18.5398 141.915 1.44819
-20.9685 125.581 12.4314
-1.99206 103.49 16.3279
-4.26008 85.4745 16.7172
8.23281 104.188 -2.09896
1.24582 91.3996 -5.93404
15.8322 143.235 6.21847
6.29306 89.0329 13.1461
7.69639 155.014 1.2554
-33.8879 84.6333 6.13361
14.6686 129.873 -2.49077
-15.4328 105.894 16.1279
7.36332 125.897 1.15737
-15.923 114.759 -6.25295
-5.49602 120.677 10.8014
-11.4527 124.435 12.6349
6.48156 146.647 2.76781
-7.8497 102.764 -9.58496
-11.8801 108.303 -8.74746
-6.98526 118.66 12.1594
-26.3319 116.562 6.65747
-18.4834 92.0575 10.856
-13.5848 75.9103 -10.6222
13.6477 127.104 -2.26027
18.1748 144.563 2.78756
-30.9323 87.54 -0.338285
-2.75148 112.454 7.5361
1.56466 112.215 13.5795
21.4618 132.521 4.58075
-0.847515 127.944 6.5785
10.1414 125.901 1.89211
19.0098 129.599 1.50848
-9.49887 125.599 -3.17897
-17.0223 92.387 9.10017
17.7754 144.003 4.63447
8.6025 128.775 -1.44775
-16.1764 126.534 12.4751
3.03365 127.2 -6.65805
-30.1038 108.082 3.66551
-11.9743 97.1674 -7.62914
4.69498 145.673 3.75167
9.6492 123.285 -4.21451
10.1098 116.578 9.07613
-6.75421 130.967 10.9969
-15.7348 100.321 12.2943
-20.209 94.3476 16.8562
4.51965 117.986 -6.68795
8.79085 106.103 7.5292
4.91432 78.6677 7.55007
21.0538 123.463 -2.1519
-22.4897 114.732 -6.9772
7.42985 114.622 13.1527
-6.63524 127.256 11.912
4.7004 91.7385 16.191
-26.0453 125.264 9.10852
-27.1025 114.804 4.08208
4.93172 121.851 -7.08057
3.69204 95.3689 -4.60389
-21.8754 100.744 18.4397
8.57449 105.756 -2.35447
0.798078 101.09 17.329
11.1268 117.243 4.25636
-20.8893 123.711 12.7545
-6.10421 123.059 -5.48111
10.5385 135.914 -7.03248
7.20205 117.346 -6.33521
-10.077 140.751 4.73552
-30.3987 101.847 1.69995
-10.7931 106.471 11.2887
-0.136358 75.9007 0.799799
-14.3265 93.8726 11.4629
8.18753 126.919 3.542
-0.954348 83.4144 -5.96843
11.6857 127.182 4.84886
-21.4656 116.469 14.8358
-0.808714 78.194 -2.30258
-22.7201 108.314 -6.10732
-30.1883 104.532 3.91894
-3.23597 104.306 12.6453
-20.0017 95.1676 17.1782
-23.2346 128.784 10.0832
6.70235 133.232 5.73098
-26.1553 116.843 6.07752
-24.4488 83.2025 -5.5994
7.34357 91.5381 5.97987
-1.64225 105.963 12.5641
19.0295 122.831 4.80281
-27.9631 109.5 12.1414
-23.1501 92.0722 -6.69487
5.23702 102.29 -5.68051
-8.80912 114.193 -8.33442
-5.86262 136.242 8.16053
10.3754 111.387 6.04013
-16.4023 99.3906 13.8942
0.677088 110.523 12.5929
2.52862 115.333 -8.67811
-16.1768 85.3165 -8.97931
10.6628 150.091 2.53059
17.8187 136.098 6.59926
14.8155 132.851 -3.57963
-5.31454 122.468 11.3885
17.7394 131.735 6.88613
-26.9281 108.793 -3.89438
11.9236 119.878 6.23165
-20.6934 121.924 13.2168
-15.8889 90.6968 -8.33958
-2.0362 92.1739 17.0285
-8.66707 139.858 4.35057
3.29029 125.193 -6.96648
12.8503 134.413 6.76434
7.18077 107.493 13.9017
-17.0807 93.1605 -7.48167
4.99114 75.31 13.107
-19.2516 105.355 16.8958
-12.1044 117.485 -4.43298
10.1509 147.461 -3.99408
-12.3475 106.488 -9.47539
-2.18113 123.605 -7.38757
-15.7173 78.6761 -9.93326
-25.6159 104.286 15.2778
-25.5249 125.657 9.55371
16.267 142.675 0.982295
-26.4002 117.81 9.76267
-13.4241 120.753 -4.29312
-5.73219 100.917 16.1436
2.04156 80.3589 16.2787
-29.6561 78.2631 -1.67027
1.54913 86.5139 17.4714
-33.3248 82.4323 7.19942
-13.2199 112.483 -5.89787
19.1103 128.452 1.01473
-25.3094 87.5463 16.1393
-16.27 122.744 -4.65862
-2.06858 81.8306 -7.03326
8.22519 152.105 2.03882
-4.01353 117.52 -8.76605
4.98626 83.0211 14.4379
3.68458 108.504 16.4367
20.1538 131.884 2.35645
-14.3222 118.812 14.2731
-3.03703 85.3868 17.1942
5.63042 116.55 14.1396
22.5077 122.143 -0.217193
-10.1673 113.55 -7.10031
11.6484 120.017 4.2785
1.48564 138.695 -3.76701
7.45064 145.709 -4.74624
-21.7366 84.3423 15.4844
15.405 124.16 -1.69735
6.68974 88.0566 11.8036
-23.7 94.3906 -5.94039
2.58544 127.353 4.86154
6.98655 90.7367 12.2933
-11.2768 90.9048 -9.76956
-31.0494 86.2874 -0.0145493
11.2621 125.687 3.89814
4.08357 128.742 4.97365
-27.1494 83.7482 -2.76987
-1.45412 113.909 7.64799
9.16699 117.949 -1.38156
-15.7607 102.469 16.1814
-21.1865 90.4643 -7.6508
7.92506 99.7474 11.3561
2.31159 130.727 4.1714
-29.7821 97.8358 10.0997
-26.7811 115.185 6.24205
-5.55281 86.0193 16.2296
8.20281 116.748 12.8096
5.28694 82.3641 13.8994
-7.96326 127.138 -3.04281
4.80776 108.653 15.795
21.2119 134.511 4.17894
-29.1718 114.818 -1.67526
14.3963 133.392 -3.25834
-15.1607 132.434 8.91657
0.871672 111.135 12.0125
-8.39384 87.8996 14.8015
4.31143 115.222 -7.04062
-15.5034 128.365 12.2564
-17.3035 103.537 -6.62669
-21.1133 129.775 8.25464
-7.82525 94.6176 -9.7126
-16.2158 94.8425 12.2208
-3.32435 121.327 6.82848
7.76656 125.314 -7.95919
9.66937 122.722 9.37538
5.07021 130.617 -6.80793
-11.3274 131.537 9.59822
5.7493 89.9743 2.96038
4.29454 83.5637 2.9428
11.5941 142.821 5.89601
-12.0116 104.759 10.2889
-30.2897 105.8 0.302151
-20.4843 95.7151 18.1853
-19.4148 93.8265 13.3635
10.3424 120.632 2.61472
-19.3751 121.623 13.8149
6.13611 129.833 7.46927
9.97356 108.857 2.28626
-16.5773 108.245 -6.96027
-18.2614 116.786 14.2075
18.117 124.754 6.712
-4.46638 74.9984 -4.5686
-17.0822 89.2016 6.75854
-17.134 130.161 11.4597
8.73061 130.917 -7.27975
-20.5796 119.707 14.0934
5.11485 126.755 -7.76288
11.2241 120.345 3.93744
11.1865 122.594 5.72511
-29.1379 110.158 -1.15397
-31.9654 95.2539 7.00982
7.60028 93.5217 11.4848
8.77349 100.315 8.901
9.07367 103.025 7.46231
-7.47112 86.1021 -10.9494
-22.0292 108.75 15.6542
-25.8089 125.245 9.61603
-16.1194 103.161 -6.9897
-15.3229 119.901 -5.1453
-21.5178 89.3328 14.97
-19.3581 105.91 -6.49652
-32.7619 81.6345 2.43621
5.05741 95.1813 16.2533
-13.6375 130.263 11.6958
6.05983 97.2186 -2.21773
-21.3178 115.504 14.7646
-20.0109 102.001 -6.85671
12.1203 124.513 4.29052
-4.27012 96.724 -10.648
17.7509 140.935 0.723114
12.6036 127.992 5.2665
8.35604 132.105 -6.84002
-28.0692 113.033 9.45348
-20.2411 81.5522 -7.82315
-24.353 122.646 12.3092
4.43084 81.5084 4.92064
-0.232134 107.599 12.6325
7.30291 143.765 -5.5884
10.4099 146.427 3.34133
5.41864 106.997 -5.60696
-8.11868 99.3235 -8.79281
18.9692 123.229 3.07879
7.82208 137.462 6.60123
-22.8096 111.385 -5.94792
8.33449 113.898 5.28056
-11.6466 93.1977 -9.137
-1.32451 83.6465 18.2412
-8.69335 77.806 -10.9373
-31.1398 88.8843 11.1672
-13.0505 107.978 14.9001
-2.71914 111.252 8.08874
-4.40425 120.493 -8.12279
1.65272 106.881 -9.13265
4.35039 86.9385 -0.576265
5.95211 87.0678 5.46974
9.13748 128.14 -7.78398
2.55007 89.7984 -3.90784
-26.3378 117.987 9.62254
18.4976 137.588 6.53086
1.78815 126.582 4.88194
-0.391575 109.907 10.7479
-2.03737 75.2076 -0.376215
22.5677 126.964 0.853442
2.47503 117.19 11.9374
10.1067 125.445 -4.27331
-10.9568 82.6386 13.0295
8.97841 120.991 -3.97711
6.87436 128.09 -7.93215
-1.86664 132.223 9.03822
6.3307 128.04 10.3529
-20.7155 106.739 -6.50262
0.287525 134.512 7.39545
12.3039 144.175 6.02668
-5.63541 90.8822 15.6759
8.42936 125.449 -1.96976
10.2283 109.288 4.98339
-29.4734 94.6457 11.0693
-3.91877 111.342 -9.72087
-10.406 107.681 13.1051
5.12721 75.3882 12.435
-7.64987 106.113 -10.0083
9.13788 107.575 1.87274
4.64936 88.5088 -1.49025
7.10631 117.21 -6.27149
12.6708 136.27 -2.45113
5.63851 133.311 4.51226
1.20592 109.344 15.3217
10.0358 117.015 -0.955729
-14.932 136.479 5.44101
-21.3685 94.2531 18.6791
6.18573 130.473 7.37529
4.65617 78.181 7.50465
-17.6651 135.083 6.11074
-5.2893 76.1075 -8.49501
7.57862 113.708 13.0988
10.9376 132.758 -7.1995
8.67665 120.5 10.0824
2.03325 126.728 -5.4931
0.998967 82.3327 -3.1722
8.21858 117.542 -2.69196
-26.125 105.615 -4.87569
-3.58392 85.0728 16.9282
8.35093 97.6423 7.1927
6.87644 94.0879 1.59225
-12.4685 104.445 11.0911
12.3242 132.043 -2.03901
-4.77251 118.436 -8.57179
-2.12398 105.364 12.9886
-12.4901 113.72 14.7626
-26.306 93.8701 13.5119
-7.75704 82.8991 -10.6886
-4.11902 131.287 -3.8321
20.5672 131.602 4.6425
20.3799 134.301 5.50701
-1.24372 124.886 5.62915
-5.10991 108.002 -10.2791
-4.96811 110.284 -9.95598
-5.59902 114.033 7.3365
12.4029 133.27 6.77269
-24.3039 86.2715 -4.79061
-20.315 90.9798 -7.5917
-1.38762 92.9662 17.6042
-18.9281 87.9278 -8.25518
-28.1444 93.6073 12.4388
9.47467 128.653 2.58735
3.42043 101.291 16.8954
-9.59593 107.938 11.4157
10.0373 128.127 -1.87229
-3.8017 99.9857 16.6179
9.01626 102.06 7.83826
15.4712 146.585 4.43269
5.55592 95.0182 -2.19931
-12.9495 75.6969 -10.6917
-29.3432 104.566 -3.47617
-9.91762 86.8211 13.7919
22.6238 126.145 1.98793
3.50349 98.9092 16.7518
7.04773 134.876 8.30881
9.0705 114.732 12.3306
-2.24438 79.0478 -4.90647
-25.6284 111.106 -4.98852
4.3395 133.565 -6.17833
4.2127 97.2415 -4.29633
-26.4082 84.8943 -3.75015
-15.8585 101.764 -6.78115
-2.06083 120.665 -8.20598
-26.0352 90.2211 16.5254
2.01355 128.105 -5.24133
9.00159 127.326 -3.58536
-4.37444 77.3727 -7.95949
-16.3224 129.741 11.8775
0.700942 140.359 -2.87926
-0.309474 125.313 -6.14063
-8.51421 113.18 -8.52645
-32.6355 91.3267 4.1909
-1.80313 90.4703 17.2318
12.1769 135.035 -2.29678
7.42335 99.4474 1.56634
10.5 116.423 5.06942
-0.371791 117.484 -8.74062
8.48588 152.085 1.51277
-1.66247 95.0038 -10.1368
7.6389 124.081 10.7167
-18.111 84.7769 9.26751
8.66048 125.92 8.26759
-18.5086 76.052 -9.33636
-14.258 109.036 -6.81343
9.07287 125.156 3.68246
17.4198 135.786 -1.04496
7.72526 116.356 -0.0785833
5.62845 90.8338 1.46847
6.57631 110.987 13.9483
-8.94337 98.3733 15.7725
-15.8239 94.3423 11.6182
-12.4759 100.566 9.69597
9.96282 114.987 5.80761
10.0913 135.389 7.31559
-15.3531 101.421 -7.02956
-23.0934 100.96 17.8812
-8.23058 122.369 13.4565
5.47089 107.392 -5.75511
-8.85228 137.433 6.65376
-9.70967 91.5676 -9.86142
-9.50313 110.238 12.5405
-5.56568 108.689 -9.96232
-13.127 98.3434 10.0387
21.756 125.664 -0.246043
3.61289 129.646 4.52932
-16.0659 120.909 -5.04727
6.79372 147.708 -4.17671
8.43488 120.961 -2.95504
4.07086 91.908 -2.84223
2.16992 103.632 17.0433
-5.34572 114.291 -9.25597
-8.13245 99.6661 11.8947
3.2937 129.161 -6.71833
-13.0832 103.842 12.2741
7.08378 92.4225 4.21144
-15.4802 124.129 13.7024
5.96596 85.6137 12.9787
1.71485 104.874 -8.78592
-2.65773 104.678 14.7119
-27.3361 106.303 13.7369
-17.7269 91.3021 13.8716
19.9106 136.831 2.76998
-0.936357 92.3226 17.5359
8.21278 111.809 12.7855
-19.2656 87.6411 11.6593
-28.3984 108.762 11.4489
21.0585 124.835 -1.52679
-28.8194 105.761 -3.23299
-23.2126 129.544 8.19886
-22.6983 108.663 15.9361
8.9906 113.125 2.66054
1.17197 143.092 -2.6339
-2.00213 75.5121 -0.799221
7.9872 126.167 3.66223
11.4382 117.622 0.393709
-10.6321 121.479 13.8376
7.25314 90.9551 6.06548
-7.50171 133.19 9.97555
-16.7672 98.5366 13.0878
-30.147 106.707 1.32836
-26.2435 91.3263 -3.71003
3.69614 95.39 -4.60181
-13.5902 79.6167 -10.4652
-18.1601 109.849 14.6033
-6.64666 123.795 12.4202
1.6574 108.296 16.4093
-11.4905 125.577 -4.23073
3.84837 99.4316 -5.97507
7.7362 94.2232 11.3729
7.9519 116.366 -4.35067
17.6166 130.881 -0.781571
-22.1959 92.3578 -7.02923
10.6663 120.041 7.06143
-16.9359 125.821 12.7165
0.521011 144.982 3.14176
-30.5965 81.3195 8.38007
-5.90672 125.001 11.9166
-1.31006 133.11 8.65678
-1.87796 131.764 -4.24512
-27.267 120.367 4.27909
-0.33418 132.138 -4.66866
-12.1879 93.5467 15.0253
-24.744 126.439 9.64153
-1.00391 113.717 -8.41127
11.4343 118.95 3.01968
1.84896 137.618 5.9367
-2.44375 77.002 -3.13197
-10.3338 106.714 10.6016
7.92603 102.405 12.7414
-3.71436 114.476 -9.22668
8.95939 108.594 -1.49307
-7.10544 92.7299 14.8006
5.32537 108.384 -6.38448
8.40853 123.831 -3.47536
-22.7007 108.399 16.0093
12.53 125.375 5.43252
-0.2434 77.9181 17.6182
-4.73498 116.755 -8.90502
-17.9642 101.636 17.5872
10.934 140.704 7.02427
-28.9582 103.877 -3.79278
-12.1596 88.9864 -9.76609
1.24082 119.251 6.89013
-5.83614 113.853 7.50519
-0.58178 144.054 4.70765
-8.14861 84.2691 -10.5604
-34.1313 82.2192 5.42133
-5.49384 89.3122 15.874
-1.66156 96.7547 17.2864
8.75339 106.644 5.59001
-5.3993 127.061 11.4893
2.46627 92.1706 -4.90542
-6.16569 101.499 14.0655
-25.9349 85.5784 15.2564
-14.0864 120.076 -4.69698
14.692 121.451 5.73102
-22.4047 129.91 7.2562
10.1967 109.137 4.00117
16.2667 127.275 -1.23262
2.6654 78.2885 3.62431
19.4643 134.391 2.82825
-3.97133 95.8938 -10.8563
-24.776 85.2824 -4.57211
-18.8111 89.8441 15.2861
18.8058 122.854 6.06149
-31.2515 98.0101 -0.579696
-24.8391 122.093 9.78405
0.660807 87.386 -5.21911
7.73353 115.597 -0.0637953
9.90671 122.02 -0.494087
-13.1237 81.7527 -10.9037
-18.4315 129.193 11.5913
1.50758 141.88 6.45616
-0.971575 76.18 -0.548913
-23.4613 117.673 13.9074
7.50403 112.205 -5.75489
4.34704 84.5413 2.29017
13.1304 140.286 0.111167
20.2558 130.396 3.76999
-9.62602 83.8962 -10.9261
-4.17855 97.3204 17.3531
-21.6283 101.073 -6.63077
3.40593 118.331 13.4713
-27.2703 112.635 -4.36773
12.0031 135.431 -4.27367
8.10723 116.629 -4.76738
6.63042 112.552 13.7335
9.61381 120.473 -4.65295
-3.40989 80.7018 18.1914
-30.0163 84.658 -0.532455
1.02728 134.67 5.72065
-25.5656 120.1 9.79812
-2.73854 128.21 -5.63624
5.4292 124.872 12.3171
-0.951314 90.7493 -8.17689
6.27586 133.202 7.46003
-28.5635 111.808 0.547901
-6.24646 115.173 -8.98218
-0.506376 132.436 8.39892
-27.4566 108.104 -3.35744
7.60648 98.6605 2.24773
-28.5496 94.1869 11.8524
9.78368 123.446 4.85899
-23.7348 89.7975 -5.7119
8.34423 101.717 10.2649
7.29029 125.3 0.509153
21.6184 125.971 2.36094
3.28778 84.2409 -0.102277
21.408 131.779 2.56425
8.06107 99.2312 6.21167
7.07161 127.901 -7.96841
-28.9663 111.463 6.00353
-29.5926 105.211 9.27439
6.28747 94.2742 -0.518953
13.4459 135.004 6.62887
20.1327 137.746 2.6103
10.0213 115.047 6.20755
-4.39255 133.396 10.1432
6.41517 86.4501 7.18641
-27.9728 114.183 9.23091
-13.9495 125.362 -4.34871
4.33289 86.8375 -0.363452
-4.77853 116.088 -8.97885
-17.3258 112.196 -6.80565
-3.5887 104.704 11.3097
-29.0085 90.1172 13.5043
2.26609 87.2965 17.264
18.9158 121.865 5.23376
-31.7473 88.9845 10.2513
3.90126 123.022 -7.40447
7.46856 97.3216 12.8436
8.4453 124.727 -3.50372
3.90081 117.417 -7.05989
9.20566 116.846 0.503075
5.41021 135.332 3.53866
4.95216 147.642 3.58969
-23.3064 125.692 11.4
21.1542 134.938 4.55295
2.05834 113.483 -8.80997
2.51294 114.512 14.1521
-13.5491 95.9822 10.4967
18.1236 122.574 -2.23848
-28.7269 112.124 7.86869
20.4177 140.581 4.02428
7.18134 140.286 2.90036
-6.81265 123.607 -4.6651
-2.76261 96.8982 -10.6383
-16.6792 75.8387 -10.1844
9.33939 108.16 0.972242
13.9444 128.676 6.87299
-31.7004 96.1902 5.44177
-25.4914 84.7921 -4.47424
-1.73335 93.0473 -9.6614
-29.1829 116.156 -0.502215
-21.127 104.757 17.0704
9.01408 128.13 -3.6036
3.60813 140.181 -5.0591
11.6215 116.88 0.345382
-7.05569 114.789 8.83129
-28.0817 80.6584 -3.02047
-15.7143 111.388 -6.84353
-32.0921 94.6377 7.91498
-8.50069 131.788 -3.59731
8.08673 104.457 1.86348
-32.1297 90.8572 10.6282
12.7083 141.551 0.29284
-25.3337 92.888 15.4972
9.54465 112.82 -1.37789
5.44494 115.8 14.2821
-26.6035 121.3 6.62647
-25.6207 89.2445 -4.30277
-33.6694 83.7765 7.16792
-2.35581 77.4136 -3.43465
-1.57319 113.469 7.77278
0.498711 83.6012 -4.56168
8.03425 149.149 2.05264
8.77555 103.943 6.22608
4.71172 75.6265 13.6722
-21.264 111.071 14.7563
5.81721 96.8621 14.8176
2.33645 116.336 12.1395
-8.97099 103.009 -9.70416
-0.083664 143.515 -2.29418
-1.95818 77.3081 -2.89696
20.7971 128.033 0.441611
-23.5038 112.079 14.9939
-5.36365 112.907 -9.58393
-8.10687 112.075 11.2755
-3.56502 131.825 -3.72711
-16.5266 107.513 -7.66018
-25.6682 119.47 10.2978
-9.1389 99.0925 10.9485
-29.5363 104.528 10.7534
-18.2205 124.587 13.1432
2.72838 92.4403 -4.74682
7.18806 101.364 -3.38856
-29.3025 106.42 -3.07244
17.2772 139.635 6.63879
3.67126 78.9123 5.29163
-10.7107 124.535 -3.83921
-11.9931 113.005 14.5671
8.89805 125.128 8.90318
-3.40412 81.275 18.2179
4.03999 84.0316 15.1301
-24.2609 97.3109 -6.10072
8.6973 107.001 1.44329
-0.877034 105.955 -10.1777
2.6682 103.744 17.1495
9.6028 112.08 3.55505
-4.34659 121.218 8.77046
-7.23128 88.772 -11.0471
-7.11365 78.2816 -9.9976
-33.8187 86.396 6.81473
2.15172 105.272 17.1834
7.38862 154.957 0.978637
-26.3721 107.162 -5.39541
16.6672 129.176 6.70758
-3.42749 146.109 3.53305
-5.06938 82.774 -9.74946
-6.94543 113.537 8.41652
-3.84885 106.38 9.8954
-16.5749 102.342 16.9222
8.83628 104.23 11.3892
-7.91647 99.9559 14.5872
2.02431 103.698 17.0309
-13.3137 87.3542 12.1291
-4.62436 93.2407 15.9451
-14.1409 89.5971 -9.04432
-28.4295 112.65 4.71143
-26.7525 78.1636 -3.45964
-26.9992 92.0025 14.8359
2.13639 144.346 5.90447
-18.6367 119.117 -6.29663
-20.2344 126.529 12.2926
-11.3348 129.284 11.203
6.78603 129.053 10.2359
-13.7165 97.8133 10.0971
0.504254 115.41 -8.67831
-30.3543 87.2365 12.0257
-9.88796 103.918 -9.73076
3.29672 136.57 4.28284
10.2914 130.614 7.53767
-11.26 100.184 9.57796
-30.9859 101.572 0.772484
0.189037 109.274 12.8853
-3.81283 101.542 -9.89588
-3.55575 122.397 7.85613
4.93012 124.22 12.0093
12.3644 136.478 -0.483778
-1.91764 87.3528 -8.08642
2.40362 139.079 5.02404
4.30775 76.2332 9.33082
-25.9917 101.859 -4.86219
17.4597 120.947 4.17738
-8.18306 106.615 8.45743
-0.255346 103.745 16.4721
-8.26389 121.144 -4.66107
4.87601 76.171 13.375
-6.49483 134.118 9.82111
5.39204 136.033 -6.26366
-11.0092 110.781 13.9364
-7.74471 104.356 -9.90862
16.5136 135.41 6.47498
-3.99297 83.7021 -8.75062
9.29824 125.302 -4.71517
-28.4828 104.109 11.7435
7.91912 122.644 12.005
10.5208 129.991 -0.215077
-16.0237 94.8014 11.2906
11.9461 128.386 5.06351
2.74881 116.24 14.0024
-14.5956 103.582 14.1811
10.7961 140.666 7.02993
-28.3839 121.768 3.29302
-13.3996 108.448 14.9571
3.23351 98.5047 -6.57611
-0.307944 141.629 -2.33823
3.09195 83.7532 -0.106974
12.0512 121.038 6.66591
-9.59754 117.322 -5.30396
21.3042 126.493 -0.834017
-1.27621 132.329 8.71554
17.7313 126.04 6.13987
-29.6091 99.3991 9.99646
-5.79759 84.5404 -10.3581
8.24187 150.154 -3.77525
7.32859 100.893 -1.27352
-7.29814 99.5447 -8.93613
-17.938 85.8466 8.21277
9.92141 113.103 -3.32355
10.1272 144.626 4.73634
4.16667 138.015 3.68193
-12.7272 124.597 12.8445
-23.681 88.3831 15.0966
-22.2619 129.833 7.42629
10.3455 130.384 -1.01327
2.96575 95.9469 -5.66793
-4.07258 142.099 4.06441
-0.830446 109.499 10.5254
13.5922 126.257 -2.73362
-15.7886 135.457 5.8833
-31.5964 96.1867 8.79884
-3.91046 117.698 -8.70901
-5.59833 126.398 -4.36891
-18.3422 85.5905 -8.34391
0.243633 139.068 -2.80449
-28.5191 108.665 9.64972
3.90619 120.739 -6.05597
0.270308 124.445 -5.98837
-33.2362 81.1977 6.03356
9.43098 121.417 -3.29774
3.19184 121.183 9.38544
-11.1668 106.111 12.431
-20.0322 98.7625 17.2183
-21.1601 109.974 14.9844
9.56643 143.654 4.58961
22.561 122.584 0.940054
16.7089 124.521 7.40549
-7.59294 132.884 10.0148
-22.624 97.2073 -6.02411
10.0329 120.427 3.06523
-19.0881 103.281 17.6217
-0.480222 129.338 6.84999
9.81214 111.845 -2.59238
9.60514 126.337 -3.1276
14.0935 143.679 1.55816
-22.286 81.1988 -6.99687
-5.70198 132.975 -2.35777
8.4284 108.844 -4.33562
8.10962 97.1464 11.086
-19.0481 100.597 -6.9493
-0.078585 105.828 16.53
2.96301 86.1693 -2.17649
-13.5242 120.4 -4.45461
8.83801 126.003 8.08236
-14.4483 128.785 12.2478
5.1964 110.849 -7.59609
-21.1318 86.2357 15.9513
1.4757 116.161 8.92941
19.6266 129.778 1.44807
-6.73785 131.118 10.9331
-20.8222 121.054 13.5034
18.5548 130.834 0.0739767
5.64873 91.2346 14.3122
-28.1218 114.107 2.14106
5.40729 77.4419 10.44
-11.3212 111.326 -7.15949
12.5983 126.465 4.43215
16.1467 134.195 6.56748
-10.8582 119.061 14.3445
-25.1068 120.689 8.28172
2.80091 122.602 6.49233
-17.0921 106.882 15.7803
0.520627 98.4835 -9.35141
11.0708 137.424 -4.77579
-19.6144 109.853 -6.51881
0.92744 110.795 13.6287
11.3341 127.917 -1.5582
5.95542 125.675 11.063
12.3395 119.628 4.79864
10.5564 129.988 -4.09236
-6.38729 81.6278 -10.3782
-7.94499 132.974 -3.45487
-31.8162 94.9358 1.97116
-26.1526 83.8968 13.0943
6.87323 113.956 -5.57587
-3.59641 127.231 10.4139
9.06182 112.598 -0.697289
-32.7144 88.841 2.20945
-0.410313 76.9689 -0.427398
-27.0041 96.4087 11.7406
-18.3177 95.9256 14.7495
-20.0751 92.576 15.2285
2.09349 79.9286 16.1491
6.07872 149.52 4.32455
-9.92837 76.8591 -11.2666
21.6992 131.104 2.3594
5.2018 128.115 6.30295
-22.1352 93.9873 17.3319
-22.2029 114.28 -6.91091
9.55215 126.917 -0.963043
-32.9857 81.2189 3.3475
6.81468 121.825 12.9674
-15.5252 134.77 6.80853
10.8043 132.283 -6.54737
-0.840918 106.868 13.5575
-2.03184 117.949 -8.49672
-7.60411 100.145 12.0299
-17.3525 95.2961 11.0312
-2.73127 141.97 4.56727
1.82225 134.332 -4.70068
8.68293 104.737 12.457
9.94096 113.477 9.09014
6.87047 89.9005 11.3641
8.03084 103.541 -2.22128
-27.1625 108.964 13.6745
-14.3002 95.5846 10.5395
5.39993 111.426 14.677
11.2352 147.757 -2.28111
-27.4408 117.511 4.18716
12.4086 144.591 -1.1789
0.684364 94.0654 -7.51295
7.35231 116.973 -6.41374
-33.9975 81.5184 6.00612
-27.9749 95.031 -3.47928
-28.019 87.0568 14.7852
-3.09291 90.6472 -10.25
12.337 144.819 5.94114
7.05358 131.186 9.54768
8.93672 102.3 7.2169
-17.4838 89.9572 12.8748
-14.9401 83.7345 -9.64759
-12.8566 117.082 14.5789
7.20708 100.507 0.792836
7.05515 100.255 -2.44475
9.13097 127.678 -3.44414
-20.3623 91.5921 15.1494
14.501 148.54 3.29104
5.58237 78.4748 10.0147
1.90917 133.161 4.67457
6.88005 90.2566 12.4782
21.7575 123.22 3.0782
-14.9426 91.5252 11.8485
-23.6088 96.3964 14.526
1.68416 114.282 10.6402
-32.6063 84.6811 9.59393
8.24484 96.2106 10.0909
2.3711 117.239 9.40349
-6.60869 93.8201 15.2029
-10.5471 95.3223 15.9598
9.79471 108.31 7.70058
8.49813 96.7664 8.76099
22.0489 123.393 -1.39239
4.85975 89.037 15.2509
-10.7129 107.455 13.3165
-31.7223 93.425 10.4861
9.00204 109.127 -1.2209
-1.40954 109.755 -9.2074
-7.31077 119.35 12.5655
-9.18712 114.669 13.327
-25.8769 107.288 15.3023
2.16973 79.3295 1.56869
-16.7164 93.4164 10.8404
-12.1154 98.2253 -7.52296
-30.2945 104.523 -0.28798
11.0407 120.868 4.60047
7.97086 96.3807 3.97282
16.8589 126.59 7.75259
-8.98197 118.374 -5.49945
-1.14923 127.871 7.13594
-29.4876 104.346 6.51725
-21.9467 110.378 15.1617
11.6523 121.718 4.62867
-15.6265 100.112 11.549
-14.2652 95.166 12.0015
21.6567 131.883 4.10795
3.50137 93.7602 -4.42123
-31.6859 96.2222 8.32672
-17.7869 81.2131 -9.19765
-9.64298 118.96 13.9674
8.78351 118.984 -6.25498
-3.09525 90.9842 -10.2742
-24.6908 126.55 9.61332
-12.3246 75.0364 -10.8585
-20.6149 84.3581 -7.6687
9.80592 144.129 4.76964
-12.3019 115.305 -5.0353
-2.98178 79.9684 -7.4388
-16.1642 115.362 14.7131
-31.6486 95.5161 5.64597
-18.7739 112.662 -6.9979
-21.1455 89.5424 -7.35096
10.4086 120.51 -1.9106
8.81786 118.688 9.68688
9.29957 110.011 -1.70503
1.34448 133.782 5.41177
-0.817395 136.842 8.43018
13.5351 147.668 4.56743
-13.3378 108.722 14.8019
-28.8201 100.742 -3.97414
-19.4628 97.0266 15.8002
-10.2718 120.593 14.1552
-8.70865 142.962 4.68027
-25.0899 82.6004 -5.08617
5.43366 139.972 -6.15451
-31.0505 92.9999 11.2402
8.80096 122.61 -0.241424
-28.9999 105.751 11.4838
-12.9795 87.7231 12.4018
-4.7427 117.222 -8.84297
6.58456 97.5339 -1.78861
2.85746 134.039 -6.05564
-6.86004 95.3405 15.8823
10.2205 130.078 -3.84689
9.65862 125.003 -4.04258
-27.0672 90.5939 15.5539
-14.6582 108.258 15.4089
-22.1667 105.083 -6.30889
-26.8279 95.5725 -4.83293
-22.0708 107.532 16.0628
-7.63322 116.809 12.3708
-5.77833 131.042 11.1462
7.54771 116.918 0.0124231
-28.0526 101.665 -4.3112
-29.1734 102.062 10.3421
-0.705153 79.285 -3.2128
5.88486 80.8678 10.0015
-12.1489 123.748 -4.15404
-29.9931 101.756 -2.70377
4.84174 145.14 3.4905
21.5635 120.726 -2.50335
17.5917 133.239 -1.31436
9.10455 114.177 12.3149
-14.0244 135.451 7.25119
-2.79379 129.308 -5.09463
-11.6232 123.928 -4.23347
-25.6393 122.959 8.89563
-12.2844 113.588 -5.4451
-11.0102 105.99 10.0959
17.8804 139.955 6.25983
-7.53884 85.6932 -10.85
-8.99438 128.997 10.8412
12.3054 118.975 -3.69549
0.890286 134.907 5.93241
19.3652 136.41 1.11327
5.74829 81.0093 9.42598
12.1009 134.463 -2.32038
-8.70882 99.1404 11.7285
13.8151 129.398 7.15269
-18.5503 117.299 14.0854
12.5017 131.692 -3.53603
-23.8962 101.41 -5.53597
18.5208 129.789 0.431916
2.96855 84.5136 -1.04541
-26.3127 88.3378 -3.76985
3.41911 143.272 4.73949
-13.8539 91.1811 12.3822
-13.8641 125.641 -4.45177
21.464 131.674 4.10727
-9.7039 80.5155 -11.273
1.20682 140.906 6.85974
8.88868 106.411 8.6412
-3.22493 137.894 -2.35262
17.9686 119.606 4.61412
-12.3192 111.026 -6.64376
18.5224 123.638 -1.70428
-1.11686 118.965 6.16517
5.2279 121.21 13.358
-8.14884 74.3689 -10.1901
2.47248 86.4048 16.6986
-0.597282 133.597 -3.69531
-3.64582 136.36 -2.2463
20.3713 122.623 3.78732
13.5149 119.313 4.92057
9.73592 108.593 9.73049
16.4361 125.644 -0.692874
0.932294 110.89 13.1612
-21.738 129.592 7.91613
-4.35211 146.121 3.57863
-5.25319 118.977 8.46108
-26.4687 125.405 7.71723
3.27056 81.5107 2.47694
1.51667 77.9261 1.98329
-32.7116 83.1783 2.21328
14.43 129.367 7.59413
0.68814 83.7452 -4.36336
-25.5188 79.9951 -5.17825
7.69141 126.688 8.92141
-16.4307 77.2515 -9.93779
-32.7272 91.7205 7.64337
7.32201 135.158 -6.45301
-29.4318 97.2968 -3.04799
14.2962 142.089 0.519531
7.38442 91.8928 5.87083
18.537 141.26 1.18538
-28.7699 107.945 10.5489
-12.6803 117.266 -4.60699
-29.4274 110.306 4.34767
-17.1431 76.4935 -9.90464
-18.1735 77.6313 -8.92576
-32.5517 92.4223 8.27671
1.29175 102.81 -9.39674
-6.10486 81.0709 -10.1426
-27.323 96.8588 -4.68694
1.56711 110.547 15.53
5.86656 83.6114 13.1881
-28.6245 94.5467 -2.30599
-10.4578 105.465 -9.77188
-7.17082 114.758 9.73559
-15.2495 130.668 10.4687
-6.60135 121.593 12.335
-18.1026 115.474 -6.33049
-12.948 96.9236 10.274
7.37348 144.668 -5.26384
-17.8783 81.7149 -8.94874
4.80165 84.362 4.80091
-1.38978 88.8403 -8.08949
-7.32299 120.929 -5.90638
6.81934 135.749 5.33402
12.6255 124.139 5.1387
4.2407 92.8682 -2.82719
11.8413 129.004 -1.05015
-30.2022 107.338 3.89133
8.722 117.383 -2.35283
-22.4501 87.4992 -6.09523
-19.3227 93.725 14.5857
4.38788 114.463 -7.14928
13.5276 146.835 5.33448
8.87575 151.981 1.58714
-17.2403 98.5766 14.5049
-20.3749 88.882 16.3855
-12.4514 130.367 11.3045
0.545208 136.665 -3.46964
-11.7367 132.709 8.91866
-32.5081 92.587 3.92841
-5.10166 95.2066 -10.6824
-8.34788 117.881 -6.64655
5.5107 128.458 6.88586
-3.72501 103.998 12.1908
-32.7131 91.7439 5.98786
8.32509 120.589 -3.80271
-7.69196 131.53 10.358
-32.4894 92.8729 6.79623
5.51972 98.235 -3.17826
7.0411 142.076 -5.91733
-10.2383 121.192 13.9487
-4.43754 127.975 11.0109
-1.8374 130.64 -4.88768
-28.6266 104.234 -3.95963
-1.07938 100.138 -10.5931
-26.2287 84.138 13.0462
-16.5787 100.055 15.5253
-1.53122 99.5455 -10.6884
11.8515 142.889 -3.86623
9.74308 108.311 11.2016
-18.7158 95.7396 12.5129
1.28608 89.6431 17.9346
12.4032 133.629 -4.81153
-31.7216 95.3967 3.56072
-23.7395 112.852 15.0464
-9.5895 116.741 -5.71976
-17.3871 136.43 6.13649
-29.0391 97.6279 11.252
-20.8711 103.672 -6.77877
8.57047 118.223 -6.64998
6.67494 91.4354 12.9219
-19.9955 133.427 5.86981
10.6993 128.049 7.19224
-2.21551 81.3597 -7.19318
-18.8648 101.204 17.8897
7.76464 141.676 -6.10409
-24.8499 127.157 8.62766
-23.1677 120.082 13.5078
18.7509 128.417 6.33686
22.2167 123.597 0.57524
0.700716 102.643 16.8097
8.635 116.334 0.787466
-2.86364 114.895 6.76524
12.3721 129.305 6.02747
-18.1294 92.6347 15.0384
-25.5294 122.376 8.81425
-6.06695 74.2174 -8.08453
-23.942 95.73 14.2597
6.99551 128.513 -7.87631
-3.77928 87.9785 -10.0086
-30.5221 98.1088 1.27179
6.56566 104.363 -4.82544
8.48209 123.051 -0.0495384
-31.7493 80.0097 0.346536
-12.8073 76.9255 -10.4445
-18.1516 109.848 -6.43906
6.97217 108.779 13.922
3.4891 146.032 4.57416
-11.7458 114.749 14.5979
-18.6648 89.8925 15.3218
-1.04944 112.067 8.88383
12.7806 141.567 0.469844
8.56468 105.326 -1.82255
-15.9452 110.643 -6.94114
11.3229 129.764 -3.61778
-3.9554 83.6355 -8.69946
-10.199 76.136 -11.3056
-3.68875 137.799 7.54111
-16.7247 90.2437 7.05424
-7.73084 101.376 9.82502
17.5587 145.352 2.6968
-12.7309 82.846 -10.849
8.45729 124.323 -4.30403
-30.3521 106.421 2.6243
-13.938 134.897 7.91824
-0.752028 141.477 5.99543
-5.07118 122.042 -7.19275
-21.7134 109.435 15.3447
0.789685 93.8802 -7.3132
4.95485 127.038 10.9401
-2.75629 85.004 17.595
4.15506 142.921 4.04578
-16.1327 102.403 -6.80099
-15.7859 100.198 12.3477
-17.9681 94.5248 12.653
15.0033 143.98 1.6266
-26.5754 105.027 14.6777
6.68295 108.331 14.2586
-32.5934 90.6754 9.65124
-3.25329 139.214 6.17199
-19.8703 96.5353 17.9149
8.92457 104.564 11.7254
-16.7586 89.6561 9.91032
9.87614 114.259 10.9506
10.0025 116.331 10.0353
-1.4461 128.176 7.99938
-9.65464 117.254 -5.27694
-0.821397 113.505 8.24997
-2.17199 96.7505 -10.6314
6.88537 88.8843 11.6909
10.4994 118.557 -0.863955
-18.2243 133.831 6.32957
-28.6095 111.964 8.17178
-15.8681 110.063 15.4804
19.1877 121.313 3.81249
-22.2746 76.9641 -7.04992
5.53813 125.767 -7.8694
10.0586 149.413 -2.18925
-25.5052 93.5763 14.5184
-16.6032 112.76 -6.85256
7.17395 149.025 -3.88071
11.7943 128.949 -0.87721
7.07485 87.6613 8.83435
7.19612 98.3623 -0.791558
-15.5232 103.328 16.3119
-2.39798 116.265 -8.32946
-25.8219 106.034 15.4301
-28.1029 78.7246 -3.14
10.3224 111.192 2.54104
1.76778 109.001 16.5097
-3.48832 132.267 -3.43761
-13.442 99.2544 -7.4022
-25.9795 117.983 11.7285
7.64878 93.2461 11.0621
10.2097 109.637 1.45565
-28.7419 112.026 8.02225
-8.98105 116.356 13.418
-25.4464 119.168 12.9209
21.7599 125.242 0.00879129
-24.7636 123.813 11.0472
-25.9996 77.7074 -4.11446
9.17773 122.695 10.1462
12.3301 147.431 -1.32229
-3.86588 85.6791 16.8227
5.81486 116.947 -5.61753
8.47473 152.388 1.77912
4.11115 83.8936 1.99462
-26.7311 111.116 -4.09044
-32.9619 79.7421 5.87264
13.6805 135.451 -1.71355
7.0739 100.335 -2.83357
-12.1577 97.6526 10.0844
-14.1383 84.3683 -9.92454
7.16471 140.873 2.93284
0.806942 123.036 5.55445
-7.13079 94.32 15.4356
9.49589 132.917 -7.06231
4.98331 91.2413 15.4553
-30.011 105.557 4.48738
-21.5406 128.897 9.62671
17.6354 125.885 -0.00276377
-5.51556 130.375 -3.05931
-5.93909 137.16 7.55398
9.48267 125.003 -7.1117
4.87951 76.6551 13.2089
16.8559 125.558 7.58945
20.1023 140.475 3.25031
-22.1334 103.866 17.418
5.86345 86.7693 13.0721
12.1284 130.228 -3.39174
-33.3531 89.171 7.37389
-33.118 90.089 6.5492
-15.4595 112.544 15.3041
12.7438 116.198 -0.0610331
-16.5327 121.112 13.9054
0.357933 82.341 -4.07991
-16.7846 109.253 -6.77112
6.05045 92.9058 0.000927364
7.8205 95.831 11.7365
-18.8663 84.1099 -7.99083
2.62008 86.6708 -2.76914
18.6657 129.038 6.49985
8.96053 126.831 -3.71112
3.77997 101.004 -6.7398
20.2405 138.212 2.94358
-20.1394 107.363 -6.63132
-24.6862 107.287 -5.83546
7.0363 131.229 9.51895
-0.159348 86.7791 -5.97518
-7.83724 98.2809 16.4904
-27.6352 124.07 5.32381
13.0777 117.263 1.41556
9.33858 141.739 5.72346
-14.7096 90.3776 10.6596
-5.8037 120.379 11.4188
-13.0922 109.353 -7.00263
-0.488269 132.167 8.39356
-0.933643 130.615 -4.81641
4.67493 110.693 15.4611
-5.37817 94.3075 -10.7683
-12.0909 77.7381 -10.8152
12.9734 144.187 6.05458
-16.3955 85.065 -8.8645
-12.2875 128.406 -4.56265
-8.46121 82.2292 14.4981
8.80862 115.476 1.35719
8.07486 109.683 -5.11969
20.8505 121.159 3.45316
-4.36915 76.3336 -6.17295
4.46785 120.404 -6.37523
-14.5714 120.108 14.2322
18.8618 134.853 6.38405
-33.1725 89.8761 6.73138
2.41776 80.9353 1.32909
-7.72892 114.492 11.9725
9.34274 126.781 -7.73022
12.1244 140.696 7.03809
-1.46423 120.528 -8.20759
-23.0211 96.7328 15.6187
9.77541 108.499 2.27696
-32.3619 85.4638 9.85783
0.23653 93.1007 18.0519
-13.2231 136.137 6.21403
8.12977 95.466 6.28971
-11.7971 103.145 9.96178
1.65493 90.5547 17.9626
-1.1336 135.457 -2.62814
-9.06848 108.027 -9.40775
7.62381 95.2537 3.35552
12.5829 133.801 -4.42607
-32.6548 91.9816 5.85702
14.6685 122.358 6.0645
-32.444 91.3166 1.12752
-30.3443 103.494 8.26635
-25.2294 94.5666 13.7362
12.4786 125.173 4.63842
18.6946 131.001 1.27481
-2.20552 86.1698 -7.79301
0.183555 74.7164 2.99572
-15.3562 86.2851 -9.14919
6.54008 91.6338 3.59004
4.77052 85.2797 3.71025
-7.49999 140.204 4.64166
-8.63188 141.61 4.25653
-30.4528 104.685 2.88454
9.37636 149.236 -3.42236
-11.682 110.272 -7.37744
-5.25583 138.336 7.0666
17.7732 125.767 6.51821
10.5355 149.768 -0.598114
15.4033 126.505 -1.26037
10.791 138.782 7.33017
7.16966 143.921 2.68942
-8.58047 121.497 13.5582
-20.2623 87.2644 10.9434
-5.80289 76.6358 -9.26781
7.37424 99.9881 1.86856
-12.5856 104.001 10.744
-14.1257 126.467 12.945
9.18796 108.227 12.0721
-19.5849 129.541 11.3622
-23.0163 130.655 5.83134
7.40165 100.464 2.83426
11.1548 132.098 -5.83102
-10.6074 83.9594 13.2764
12.9159 121.518 -4.98639
-30.3407 96.2428 10.7511
14.9837 122.876 6.22936
0.850998 96.1038 -7.97977
-1.57404 77.0046 -2.18212
-15.3427 88.7936 7.95133
10.6084 129.126 7.13269
-3.94254 101.081 -9.83048
-25.5305 86.4741 15.5018
-19.3801 110.933 14.6305
5.30581 80.0319 8.00331
-3.85671 131.851 10.3418
14.1737 140.913 7.05443
-29.7039 98.7323 9.54262
9.6069 149.506 -2.7766
-27.173 96.6078 -4.76343
-20.1906 94.8431 -6.35866
12.8646 134.889 -1.17396
-21.5328 89.5727 14.4991
6.53872 87.591 6.63007
-16.5282 110.911 -6.7937
0.526629 112.018 10.4899
-24.9885 80.1297 -5.48286
8.70265 125.502 3.92881
-4.42822 103.375 14.3669
-9.02644 113.458 13.0088
1.84754 131.457 -5.21587
12.7898 146.268 -0.441698
2.46872 78.8325 2.57666
-6.93811 100.881 15.0034
7.10274 99.7821 -0.596419
-24.583 90.8595 -4.92893
-17.9996 114.014 -6.51706
11.6588 132.261 -2.33702
-2.41131 78.2419 -4.24633
-31.9521 92.1983 0.0765595
-18.109 91.892 -7.58569
-17.7654 105.433 -7.2881
-20.3575 92.746 -7.1122
-15.6587 94.1909 11.1256
9.00858 104.671 11.4714
9.71135 131.553 -2.55399
-32.022 83.0137 8.95205
-25.2587 124.135 9.92911
-26.6624 115.191 5.09987
10.0623 151.788 0.111857
20.7339 122.31 3.63429
-18.5222 85.7411 6.78623
7.81648 128.183 -0.819461
15.2846 137.169 -1.72169
10.3318 111.037 4.56989
-22.0867 92.8052 16.7459
0.78792 122.59 -6.52408
11.2405 123.525 4.80456
-12.7729 124.221 12.9562
7.73732 99.6799 4.6795
11.8543 128.645 -4.16846
-15.0578 104.517 -7.81181
5.95165 124.899 11.6334
11.8503 124.557 -4.245
9.01328 154.585 0.827881
3.58736 94.2252 -4.48937
9.71006 110.761 11.5207
-11.5718 109.786 -7.70459
-20.6417 84.25 -7.66532
19.3809 142.087 2.68143
7.6565 118.644 -1.46267
-28.1553 113.362 5.73188
13.8782 128.394 6.61078
-19.1048 92.3117 11.6697
9.57497 108.37 9.04914
3.1786 122.416 -6.8696
-32.4993 92.1801 8.83015
-11.4572 87.47 -10.5511
-31.1957 96.4741 -1.11947
-9.58413 112.419 13.3451
6.62778 138.026 3.37751
-1.34174 137.135 -2.43671
-31.722 93.8924 0.642999
-14.1465 107.102 -8.56106
-16.0999 99 -6.6739
11.8594 121.589 5.46822
-2.23372 87.812 -8.56083
-0.141871 141.273 6.27336
-25.233 100.418 15.1129
6.80513 149.928 -3.42874
9.17574 122.218 -1.28344
6.27447 113.068 14.0876
-26.5741 103.542 14.1005
-4.61875 119.603 -8.36259
-12.5305 137.627 4.98076
-15.2038 76.6186 -10.3228
11.1494 132.553 -6.46268
-10.5382 107.696 13.3179
8.53459 117.862 -6.94076
2.89865 84.8823 -1.54672
-18.4015 88.57 10.3741
21.868 124.206 0.178947
17.5935 142.503 5.61161
3.57838 89.3662 -2.72369
10.985 124.32 -0.152301
-1.5185 140.118 6.3777
-30.0677 103.409 9.90413
-30.005 77.9253 -1.06451
12.0298 138.922 -3.94514
-5.62323 96.0809 -10.3327
-18.1495 98.1118 14.5727
-11.5701 105.365 -9.35687
-13.2377 129.966 11.7577
-3.00615 110.569 -9.5702
10.8668 138.705 7.30639
-15.3383 95.5284 10.5814
-31.6309 95.0547 4.74048
-15.9389 111.413 15.3426
-31.0709 101.386 -0.356118
-0.972583 116.949 6.60316
11.9409 128.666 5.26136
10.4474 120.689 7.76412
-0.415117 145.088 2.94638
-10.7385 123.84 -3.84382
-6.96836 101.069 -9.26475
-7.74683 123.997 13.053
-15.2463 137.532 4.95955
-10.0619 98.0059 15.0719
-7.22316 78.1345 -10.0899
-6.41005 116.765 9.28595
12.4624 125.076 5.65879
-7.62576 117.706 12.5719
-4.61185 82.9111 -9.28851
-13.1013 114.841 -5.29096
3.12735 87.3803 16.6147
8.98065 128.17 2.81205
5.63811 142.621 -5.41175
21.6114 126.109 -1.07633
-17.0748 114.763 -6.26035
9.50483 129.171 -7.30992
-30.1077 101.126 9.13176
-17.6465 94.9807 14.1713
-6.94656 79.9865 17.0787
-0.239837 83.0445 -5.2831
-29.1902 82.3426 -1.69792
21.1879 121.358 3.29607
-11.6477 122.257 13.5847
-21.8239 128.611 10.643
-5.34183 104.691 -9.95761
-8.42785 99.8551 -8.87706
-5.62939 138.4 6.86974
7.54355 95.4367 12.3645
17.4771 143.036 5.43274
-4.9585 136.969 -2.48617
-0.0501605 117.235 6.92334
-23.2841 127.039 10.6046
-26.5547 118.848 4.53357
-15.3757 98.6477 10.6278
16.0934 124.982 7.56665
-17.5068 116.748 -5.9476
-2.0797 130.203 -4.98046
7.02882 102.07 14.1369
-21.9473 90.3487 -7.01541
5.27888 111.062 14.729
-30.8091 82.2979 -0.0837374
-29.2868 91.1299 -1.19946
7.70521 93.2261 10.7891
-0.703565 136.136 8.68501
-0.897563 140.674 -2.42816
-20.5177 94.6268 17.2387
-32.5194 92.6428 6.06729
-1.80656 125.752 -6.56878
14.4393 148.566 3.87395
-27.3032 85.6356 -2.4772
-20.8098 117.848 14.6634
8.70548 101.493 6.7154
-21.0027 81.9705 -7.3814
16.3429 139.159 -0.526723
13.1166 150.656 1.79555
-2.55771 115.083 -8.67659
4.7327 104.612 16.331
5.24395 119.246 -6.028
18.9124 143.741 3.28813
-26.2523 89.7443 -3.85981
-20.8629 86.3086 -7.70739
18.6507 131.469 6.77554
4.95302 77.5392 13.2451
18.5436 120.071 5.12037
3.97448 132.058 -6.29276
-15.3495 83.2899 11.8524
-6.41355 123.191 -5.09098
-5.46819 136.016 8.44624
5.68706 130.846 5.6426
7.75925 96.1206 11.961
4.557 144.06 -4.4459
-12.0191 96.4031 13.4158
18.6843 122.052 3.55161
4.04399 98.308 16.7366
-6.52853 82.2559 -10.4926
-4.73677 130.291 -3.61195
-19.8041 128.091 12.021
-0.877778 115.462 7.32634
9.71853 125.883 -4.55263
-24.843 78.0203 -5.70929
-5.06887 129.325 -3.62529
-30.943 86.3238 -0.259788
2.59223 130.208 4.13365
-3.96362 109.905 -10.157
-26.6173 123.898 7.69156
1.79489 94.7203 -6.52586
9.14566 127.473 0.0607152
-8.57846 106.751 8.55646
-15.4068 102.543 -7.09467
-26.2915 81.4909 -3.87819
-24.6735 84.5045 -4.89275
10.0707 147.222 -4.26594
4.90561 90.1836 -1.13083
-16.8199 100.011 -6.75478
-25.21 112.755 -5.89839
6.88184 147.207 2.52103
-9.14289 115.272 13.3998
13.5465 130.749 7.45772
15.7574 127.773 7.46836
-30.0935 107.876 -0.754956
-1.51647 96.5246 -10.3771
-15.6219 121.885 -4.50866
12.0136 136.038 -0.457269
7.48724 125.505 -1.04389
4.39437 79.5673 6.00698
-31.4205 95.2928 1.22156
6.18684 108.768 -5.87783
7.64139 127.56 0.0208138
-25.1042 109.598 15.5073
-5.96939 116.854 8.25134
-11.0329 82.4124 13.257
-31.8258 94.9968 3.41461
6.90906 117.862 -6.17434
-0.737142 84.1572 18.3625
17.6098 119.213 4.20554
-14.1613 108.407 -7.3313
-24.1683 115.775 14.5625
8.24194 104.996 -3.22007
3.45639 78.7431 15.0521
11.6487 122.071 4.87865
-16.1809 129.664 11.9506
8.72489 121.531 -6.26939
13.2225 145.118 1.50443
1.53961 92.8046 -6.13705
10.3155 152.953 1.2619
-2.49849 124.426 7.77501
-25.9233 80.569 -4.58467
16.0154 129.705 -1.72783
-27.5856 99.5393 11.2796
-10.0975 75.0455 -11.2602
-4.78351 130.047 -3.64686
-0.199002 128.552 6.07502
-31.2031 98.2822 -1.25471
11.5162 119.031 3.99073
-2.31694 144.66 3.11451
6.42255 133.988 4.64922
-27.7167 113.854 5.69729
9.62933 108.299 9.86992
-13.7317 120.806 -4.33214
1.15143 110.754 14.4843
10.923 119.668 3.43818
-25.9887 107.487 -5.41957
-17.2394 84.5907 10.0705
8.62952 118.314 -2.96882
-26.6222 119.956 5.07729
1.45535 138.287 -3.92275
17.2708 131.271 -1.0476
15.3139 118.214 3.78144
5.13193 93.4287 -1.72233
-2.37056 124.318 7.4175
9.48805 116.094 11.1904
-9.66204 141.369 4.83784
-4.55668 102.882 15.3133
-10.367 98.3908 -8.04524
18.955 130.663 1.67365
5.74772 130.812 8.10166
-28.4989 101.488 -4.17925
4.06552 146.529 -3.35649
-26.0324 118.48 7.65452
-4.11802 116.452 -8.95912
-2.87357 84.9516 17.5098
-7.47814 117.528 12.4222
-9.95135 109.887 -8.92885
-4.03515 136.626 8.4433
-31.228 99.6883 -0.0491321
-3.83981 111.087 -9.75136
-4.00646 89.0122 -10.4784
-13.1327 139.715 5.2284
-17.1303 131.504 8.7681
-3.82505 82.125 17.9492
3.64796 103.887 -6.85409
11.4721 118.334 4.99126
2.88362 125.442 -6.37504
-21.7636 89.2314 14.3649
-4.80462 80.5573 17.7354
11.0292 131.792 -2.59505
-31.1075 99.7772 -0.748889
-7.72412 113.973 -8.8034
-1.88275 77.8154 18.0639
9.35622 124.936 -5.2766
4.1298 86.2145 0.515219
2.94655 90.2342 -3.6166
-4.82765 96.0913 16.6884
6.64571 130.657 9.63569
8.00727 103.647 0.275031
-6.72466 133.151 10.2495
1.20357 143.288 -2.61124
0.640273 136.511 7.06334
1.21522 78.1033 1.11866
-20.7158 92.9042 17.2178
13.8206 126.843 6.72161
5.78432 97.1221 14.8129
-16.3081 105.338 -7.72861
5.06426 110.456 -7.51738
6.78107 88.6857 12.0278
-1.23016 116.024 6.80443
-27.3097 113.903 3.14998
1.49838 140.239 7.17278
-4.11528 82.4929 -8.85337
8.02503 106.468 -3.81828
-16.8381 87.4516 7.58403
-18.3038 118.313 -6.32441
-30.458 105.091 2.0139
-18.0656 94.3835 -6.98683
9.18924 126.743 -7.87315
-19.7242 130.931 9.90899
-16.4748 114.05 14.7354
4.62923 125.388 7.40728
-17.3354 84.5705 -8.4842
-2.09676 87.5228 -8.31531
9.86342 114.891 5.52975
-19.8682 114.812 14.3618
-13.0607 97.105 -7.27007
-5.65809 95.7615 16.1634
-28.9108 106.847 6.4411
-18.702 92.1829 16.0589
-25.6041 93.5219 14.5016
-29.234 110.43 6.21716
-10.9134 75.4278 -11.1616
2.51683 92.6356 -5.11203
-1.82103 115.282 -8.34028
-32.3823 93.3321 2.57389
-0.346964 120.656 5.87599
4.51996 90.791 16.124
7.36901 98.9016 0.549421
1.72201 127.891 -4.98692
10.1446 117.056 -0.785359
-5.05581 87.9951 -10.7214
-1.44167 119.887 -8.25197
2.68681 95.2574 -5.80231
-9.79786 115.501 -6.19514
1.03967 129.536 5.02758
-30.1043 95.7635 -1.70154
6.71399 133.401 5.67264
-11.317 121.692 13.7705
4.22025 88.3325 16.0432
-18.2741 130.129 11.2256
-13.185 122.236 13.9163
10.4181 123.406 4.82187
9.85465 119.406 0.166036
8.46785 113.716 4.70609
9.44689 117.335 11.0821
3.17352 82.0299 2.01913
3.54339 131.974 3.85259
10.2765 123.538 4.84061
-4.67939 75.9738 -6.7124
6.48367 113.097 -6.05941
-1.37309 130.367 -5.11531
6.38716 85.9662 7.44751
-12.668 107.161 14.9313
2.89506 129.519 -6.2411
-27.4496 109.713 13.2184
8.3209 105.3 -0.0225796
-22.8967 115.18 14.8209
-3.87317 98.465 16.7301
9.36866 114.583 5.33969
-26.8091 119.67 4.39369
14.0629 121.748 -4.32399
13.5859 146.53 1.64348
1.55978 84.8726 -3.46918
-2.09469 88.4192 17.4518
2.29858 125.495 5.2082
0.00868875 103.817 -10.1778
5.92009 147.05 2.89596
4.71293 78.6047 7.27586
-32.8121 87.5799 3.08586
-28.2564 105.74 -3.47713
14.6609 148.549 2.43863
-9.11827 123.118 13.1625
-20.2845 85.4206 9.40369
1.1536 81.7815 17.0196
2.78617 119.871 7.91178
-4.71279 130.508 -3.56611
6.60815 120.091 -7.58366
-27.8536 124.587 5.31555
-0.507436 124.726 -6.4678
2.37353 142.132 6.02411
-17.9096 111.075 14.5415
3.59101 95.2519 17.2999
9.82693 118.704 -4.65085
-30.8364 101.565 -1.12033
-28.6979 94.6462 -2.3047
15.0431 143.625 6.29351
5.7844 100.582 -4.43025
7.1463 141.677 2.87015
-5.5541 88.69 15.8665
5.75293 87.4387 13.5707
3.86267 122.835 9.9998
-26.8899 122.361 5.71976
5.65255 83.2441 13.4723
-2.65439 90.7699 -9.86264
21.7576 123.147 3.08322
-1.17451 140.131 6.4851
8.02147 93.6899 9.01717
7.6514 95.0691 4.04754
4.92825 119.516 13.7947
4.52872 128.955 5.26974
8.24058 97.1195 6.28387
7.2705 126.086 0.671148
13.4116 119.635 -3.3108
12.6572 126.062 4.60349
9.76208 111.719 -3.28666
8.04234 103.789 -2.52802
-26.2741 111.393 14.4204
-18.3216 95.2368 11.7876
15.6959 142.736 0.786149
-7.60633 91.7434 14.6353
-13.8372 77.9689 -10.2339
8.63795 120.347 -6.34477
9.76736 112.01 2.4261
8.8466 108.332 -3.84691
20.1084 137.64 2.56245
-23.4746 104.69 17.1898
3.42634 85.4829 -0.990549
11.2644 144.741 -4.24602
-11.5177 87.6528 12.8328
-17.8337 131.783 8.57933
10.9339 130.196 -4.26916
4.97961 87.3893 1.76281
-26.8369 80.5415 -3.95215
5.97344 83.6541 12.9821
19.3249 121.38 3.83197
4.43177 86.7722 0.27569
-7.01432 93.6037 -10.2425
-30.2184 101.703 9.37987
3.15302 82.6532 1.36355
-19.3801 89.6439 15.1372
-19.9172 100.061 18.509
5.47904 79.323 9.19732
-23.9286 129.898 7.05218
-30.6367 87.4982 11.6758
-28.7509 111.885 6.94507
3.66867 126.476 -7.11251
3.76114 88.7809 -2.41632
12.5638 129.535 6.31628
-3.71318 94.266 16.5588
-1.618 132.225 8.91289
9.83065 127.062 -2.66038
-13.611 120.612 14.2789
-23.0109 106.508 -6.4885
-6.6977 94.6469 -10.2529
-18.9383 96.2294 14.8492
-23.5392 100.023 17.1468
-17.6855 92.6638 -7.49448
18.7871 129.144 5.77535
-10.7436 113.592 14.209
-0.970523 75.9974 -0.275306
-28.2458 111.721 -3.64829
-11.1168 101.897 9.59644
6.05757 148.771 -3.61828
11.1862 129.848 6.60835
-12.3218 96.1694 15.0843
-23.6335 85.393 -5.26493
-3.19331 104.441 12.4935
3.93117 124.152 10.67
-29.0611 95.4123 -2.52114
-24.0452 99.2805 15.991
-25.6895 111.723 -4.94684
3.07067 135.931 4.86899
-12.7766 118.576 -4.38925
-21.27 102.851 -6.85377
-12.9401 120.629 14.3275
2.24769 144.342 -2.89491
-5.25932 108.417 7.76273
-29.4447 113.115 -0.649879
7.22387 126.61 0.560024
-6.73138 108.9 -9.43235
7.2348 92.2299 12.2183
10.245 121.114 8.69933
5.41296 84.464 6.49463
-16.9522 106.859 -8.12728
7.18288 95.6285 13.3066
3.84009 97.3176 17.0812
2.0394 104.837 -8.29587
-26.5175 117.174 11.2909
-30.1525 89.6491 12.5687
-12.1573 137.082 6.12079
8.52967 120.977 10.396
3.61404 85.2198 -0.0925838
-12.743 103.839 11.2034
5.28642 82.0307 7.5294
-20.2794 88.3378 14.632
-26.9663 85.6181 14.3925
-17.9448 124.686 13.1318
-2.77717 110.476 8.41481
8.01991 101.443 11.1454
18.3908 123.492 -1.72286
2.9187 119.442 11.7586
-16.7176 124.244 -4.67711
-8.46417 122.404 -3.95355
-20.9608 129.728 9.59025
-11.444 97.2079 -7.76158
-30.2003 80.332 -1.61403
0.645942 87.5587 -5.32433
-17.0326 89.9935 7.73824
3.99771 93.8346 16.5833
-0.215828 126.326 -5.75103
-22.995 89.5167 -6.12502
-32.9029 89.5844 2.56824
-10.8197 139.781 4.70391
-28.6929 107.381 8.649
-31.1539 87.0115 10.2451
-16.5981 102.219 16.9388
0.682719 131.86 6.01198
-23.6249 102.966 -6.18984
11.0793 140.661 7.07132
-25.8044 99.5898 -4.91139
4.24895 128.754 5.10481
-4.81454 97.7083 17.2274
1.45904 107.113 17.1318
-26.5462 100.138 -4.73183
-8.93916 80.5883 15.6601
3.00037 106.588 -7.26712
12.7477 151.107 1.29068
-6.80783 117.788 11.8683
8.96355 123.937 4.51375
12.1198 127.515 4.7574
10.3447 136.313 7.06785
8.15366 124.874 9.59129
10.7562 130.617 -1.51958
-8.50713 134.189 9.28645
2.45793 97.2549 -6.94599
10.0724 119.269 0.729546
3.58407 146.666 5.1662
-23.9196 101.893 -5.63107
11.5831 132.308 -5.55427
-21.8621 116.158 -6.91183
-9.94265 90.0322 -10.2894
16.4583 122.612 5.29664
11.0368 135.386 -6.74144
-17.3861 84.9497 9.56877
3.96222 117.037 -6.98498
-28.4518 85.9198 -1.88473
2.5308 122.486 -5.87443
1.92365 127.092 -5.4444
-27.652 117.138 4.13635
3.4256 95.2709 -4.91242
-26.9295 103.267 13.3628
7.22686 126.547 0.557127
4.86855 75.1615 11.9369
-8.6949 98.8217 13.7311
15.7675 122.665 5.64487
4.41824 104.75 -6.3913
-18.3761 94.4876 -6.87707
-29.9869 86.4792 11.3198
12.1532 125.262 4.1446
-28.2134 92.7395 -2.12919
-24.9471 122.869 11.0806
11.0417 120.703 4.98829
-12.3697 89.9223 -9.40477
5.4885 87.5285 3.99382
12.4675 124.68 4.56317
-27.7037 112.713 10.1322
1.63171 77.8589 2.31281
2.68326 82.1732 0.751136
7.19793 108.007 -4.60445
-16.1823 104.459 -7.36361
-23.9137 90.898 -5.49105
1.18244 104.796 -9.55933
-8.89696 79.3927 -10.9947
-17.0538 97.1225 -6.51825
-13.3987 89.5162 11.1049
6.1785 102.286 15.1084
1.52191 112.199 13.1914
-9.47329 143.145 5.02403
-9.5453 82.1461 14.1162
0.420199 108.058 13.7419
5.14656 94.9228 -2.73409
-2.71907 118.651 6.27937
-19.7535 82.7833 -7.75054
9.45695 131.128 -7.22549
-29.9424 101.542 -2.8101
7.62919 127.318 0.513232
-20.11 121.991 13.3999
5.53273 92.4837 15.0814
-19.7749 91.0546 15.8389
-15.9137 98.6375 -6.65498
-6.88667 100.89 12.2552
1.02732 144.88 5.19691
8.26112 120.067 12.1229
-3.79122 99.9193 -9.96502
9.4725 150.077 -2.25816
9.34322 122.622 -6.7377
-22.2911 91.643 16.7753
-1.92225 79.2373 -4.61867
-12.8883 133.092 8.89839
-33.9539 84.4632 6.88027
12.0734 141.055 -3.89905
-18.1612 98.1493 14.5976
-10.4467 100.216 9.70752
-10.0915 123.006 13.1992
6.43004 98.542 14.6815
-23.5969 83.2005 16.3088
12.3308 131.956 6.71658
-28.3458 98.6561 -4.2077
-5.65112 91.6847 15.5166
-2.83796 85.0091 17.5196
-31.7295 94.3223 9.72594
-30.2124 105.069 -1.05915
1.87303 127.564 4.64208
21.4345 133.099 4.50296
