ply
format ascii 1.0
comment Created by Open3D
element vertex 1911
property double x
property double y
property double z
end_header
8.00498 96.2359 6.3383
5.17701 116.816 4.87324
-24.1783 84.1066 -6.52542
-24.572 113.903 4.29311
-19.3096 133.976 3.31408
12.8009 105.135 -3.72693
1.89531 131.928 -4.4883
-19.9359 128.976 -7.83578
-3.9889 136.227 3.95318
-3.43129 82.5625 -2.90606
-16.8743 95.4557 -15.6743
-31.1014 125.337 -3.97693
6.5899 127.205 5.95138
-30.1912 101.684 -6.35936
0.0611633 117.62 -6.65825
-12.545 115.112 -9.70824
-17.532 131.892 -8.57114
0.840418 135.153 1.97342
17.1181 137.96 3.13714
-9.47416 79.4007 -9.85237
-11.4351 122.635 6.12561
13.402 78.9743 -0.572935
10.0721 95.8523 5.47499
-37.3449 136.596 2.4144
-32.0109 87.8355 -12.2711
-26.3981 96.0665 -4.10013
-28.4602 137.592 3.52602
-25.5345 126.554 -5.75107
-34.3054 131.662 3.64874
0.607067 113.869 -0.857681
-22.7596 114.158 5.43398
-25.0167 86.6991 -16.6097
-23.2397 124.766 5.89753
-8.617 98.5689 -12.3687
-21.9497 113.314 5.50894
24.489 130.133 -3.06233
12.0405 116.454 6.21723
-9.74703 89.0332 -12.308
-35.0758 130.164 -0.0491524
15.4103 140.772 3.90537
13.1555 98.2807 -1.11625
12.0115 111.435 6.57656
24.156 125.662 -2.8954
-2.79003 82.4861 -1.13297
7.90355 135.941 3.46456
10.2914 128.925 5.34779
25.6078 125.818 0.224078
0.7304 103.731 0.910644
-37.0822 130.787 1.52263
-20.5716 96.6087 -17.0808
-18.4045 123.366 6.75618
-28.0016 129.958 -4.39673
-26.7671 122.789 -8.22054
-6.6369 124.883 4.92053
2.21375 136.253 1.55874
0.693119 86.6835 2.13745
-27.9071 114.82 -2.40891
-21.3838 84.7627 -3.97665
-3.23195 94.6397 4.09548
-17.7368 90.6927 2.20032
-24.4837 129.311 2.71654
-23.6442 144.675 4.98289
-0.0531946 78.332 -7.15037
6.52281 130.664 4.47554
-10.5335 94.5788 -0.913165
-18.9042 88.145 -13.0971
-7.68314 138.584 2.70809
-28.5581 88.6025 -17.3174
-16.0872 113.69 -11.2952
1.35705 92.7663 -10.956
-5.84951 129.739 5.22367
-5.71036 83.9548 -1.74742
5.98674 83.3851 -8.06818
-7.98584 134.749 -5.07831
-17.6044 107.862 -14.3066
12.9189 133.41 -4.77968
-5.79793 106.743 -0.263389
-11.5594 90.9547 -12.4396
-27.9313 85.0889 -17.8117
-2.18781 99.184 -12.9729
11.6503 129.618 -2.71184
-13.2206 93.8824 0.869476
12.8722 85.3696 2.13809
26.3182 123.264 -2.45322
-19.5996 93.4862 0.45548
-28.664 88.4023 -9.01818
-37.0545 134.77 -0.489283
-13.5859 119.05 6.06736
-27.7315 140.061 0.211957
-18.5974 89.6071 -14.5525
-1.60092 112.834 -1.14149
24.0962 125.452 -2.71516
-36.8152 134.22 -0.404525
26.7676 121.893 1.85231
8.45181 109.269 -8.60303
-27.4209 93.916 -6.31661
12.3894 141.241 4.43933
-0.060442 94.4773 5.36427
-18.9242 128.356 5.36057
19.553 130.395 -5.91305
-15.3402 94.0956 -13.2287
0.820622 110.518 -0.683386
-16.4791 131.233 -8.41735
-29.1803 129.708 -1.38027
-26.8806 87.0718 -16.366
-13.4447 131.17 5.84511
14.0361 110.612 3.22653
-24.7506 122.909 4.6724
-22.5853 123.448 6.08984
-6.37197 87.2376 -2.41314
-8.2622 84.4206 -3.43344
-4.50622 118.546 -9.8217
-21.4343 90.9127 -15.8421
-20.8262 134.859 -6.09473
1.84815 126.003 -0.0852897
-6.78874 123.986 -5.94516
4.50412 91.9023 -9.86834
12.2791 111.115 -6.2495
-28.9941 130.434 -1.25022
-22.6426 106.394 4.86472
-30.6271 84.2079 -14.8734
3.50105 82.4111 2.53765
-25.2933 125.385 -7.24661
-23.4498 88.2553 -14.761
12.8791 127.071 3.44391
-21.1513 129.984 3.44045
-31.9644 125.987 -4.51887
6.51933 130.309 4.809
-3.43403 77.2207 -7.88248
10.0577 99.168 -8.8567
-17.7738 97.3552 -15.5123
12.3664 126.712 -8.18569
23.6242 130.185 -1.75017
-10.7761 126.943 -4.92749
-28.9133 142.087 4.01358
15.63 115.887 -5.45973
13.4671 110.85 0.0257415
-2.22968 76.0857 -7.48479
10.145 100.697 -9.37539
11.9152 126.946 -1.93997
-6.22488 76.9757 -9.71866
7.79107 116.913 8.55385
-20.9996 122.549 6.8992
-8.75683 91.3472 -0.37685
-17.1639 97.6441 -15.3132
18.6349 137.796 2.80866
19.51 117.682 -1.56211
-20.9958 101.465 -16.5827
-9.73717 106.198 2.31361
7.75486 129.337 6.79901
-16.1829 133.508 -8.08459
-0.848964 99.9803 5.57086
-19.4808 143.704 5.59763
-17.644 92.5147 -14.5234
-0.749996 105.915 -12.9645
-15.8282 92.9914 4.07598
11.7214 124.194 -0.68213
-1.69006 117.908 -0.803951
2.81185 96.4091 6.07086
-3.45723 127.634 3.56243
8.87102 127.571 -9.62288
-31.3152 91.8202 -14.3895
-1.54511 98.3301 5.0723
-13.7566 98.7599 3.83733
6.94649 118.769 -9.00554
9.26992 77.6288 -5.40586
-24.8481 83.4628 -8.7931
-13.4328 90.7753 -11.6894
-15.5128 84.5765 0.915322
-4.72354 126.913 -4.90659
11.8641 90.9842 -5.87598
-27.3919 126.047 1.84043
-4.29912 134.774 4.24391
-27.9173 85.7983 -15.5679
12.7449 105.362 -5.10343
-8.0594 96.3138 -12.6581
-28.2271 85.9621 -17.2272
-26.3272 101.503 -15.2166
11.9312 75.966 -3.43243
13.2097 112.369 5.34405
-30.107 127.682 -1.23217
-27.3836 121.98 -7.82981
-33.0883 139.736 2.76883
6.57566 106.305 8.43618
13.6921 92.2848 -0.131959
-29.2284 140.563 0.83173
11.6196 135.811 5.11845
-10.7817 117.525 -8.49768
-19.1749 111.833 -12.9236
3.95455 115.403 -6.8093
8.71324 106.796 -8.56595
-9.52049 92.613 -0.139244
-35.3207 131.373 2.89138
12.7371 121.192 -9.01256
-31.6241 94.6448 -10.9905
-19.5837 106.831 5.08813
-35.2096 130.962 2.54187
10.5879 104.966 6.59652
-19.5063 99.0137 4.77885
3.40137 117.418 0.851685
0.85948 95.1571 5.27167
6.35938 124.385 4.25539
-3.33057 121.821 1.01383
19.759 121.466 1.47232
-32.5482 129.24 -0.486734
9.32693 94.2811 5.58737
-11.5241 97.3456 -12.3419
-6.64646 110.55 1.28331
-30.7883 98.7164 -13.9365
-13.6071 83.9202 0.403761
9.70738 115.525 -7.24365
-9.37767 88.1733 -11.5534
-6.60141 133.58 -4.41781
10.9697 91.9353 4.69094
-20.5968 97.3563 2.02089
-9.48418 89.7697 1.41099
18.2383 123.036 2.82055
-25.2654 119.308 -11.1092
12.0992 76.0121 -3.18481
-24.0066 82.1056 -8.56555
-30.5293 138.806 3.0289
3.05944 83.1048 2.87
2.42742 86.9149 -9.70246
12.2303 124.831 0.153138
23.0469 122.835 -6.30255
-1.69736 75.8631 -7.20961
-1.47256 81.8122 -2.7417
-15.8969 100.457 -15.637
-41.0171 134.851 2.94495
-8.87691 129.104 5.81492
-15.4203 84.0114 0.498964
11.1875 126.548 -1.68047
-9.47188 86.5219 -10.419
-8.81462 130.625 -4.52657
10.9269 73.9506 -0.351941
-21.4446 82.8975 -4.21846
-39.458 133.857 3.78905
-22.8109 134.358 -4.65877
0.0222935 106.906 -11.8091
-23.1487 132.651 3.58071
-7.96236 89.9055 -12.4346
-18.0806 121.442 -8.45552
10.0677 101.93 -9.6404
12.0863 101.295 5.36992
13.6916 92.6011 2.41708
-25.824 136.767 4.17328
20.6665 124.684 -9.10972
13.0329 119.731 -2.58164
-20.2438 124.354 6.96955
6.16429 130.176 2.10257
12.6812 89.9952 3.20108
13.8647 99.9509 0.243465
10.7363 129.423 -2.88905
22.6727 123.876 2.13903
22.4097 122.943 -7.91121
-6.0832 109.132 0.566843
7.41578 84.8058 4.12889
-7.8215 119.323 -8.59939
3.99964 83.7294 3.43684
-25.7246 116.372 1.99175
11.2669 97.708 5.42286
-18.4786 93.6959 3.52843
-30.038 135.457 -3.66566
-14.066 86.2111 -11.3403
-25.1382 117.877 2.00043
10.7435 91.5282 -7.39336
-6.84757 126.778 5.26058
12.9797 79.8851 1.32116
-28.072 128.871 1.49892
-13.3113 121.575 6.35852
-7.15209 109.88 -13.4652
7.88055 97.0612 -8.83269
-20.7243 107.929 -14.6746
-23.4147 86.9456 -15.6561
0.744073 94.2233 5.4572
-12.9248 101.723 3.88172
-28.9099 98.3931 -5.00491
13.1438 94.8694 -2.82994
9.59945 117.95 -5.46847
5.32575 121.767 2.54716
-17.8314 104.29 3.98438
-17.269 85.2767 -13.3029
4.38081 102.256 7.90165
-30.7343 106.617 -6.78492
14.5059 126.109 1.91914
-4.99927 109.598 -1.00034
-25.7818 116.708 -11.4029
10.7192 126.735 0.607328
-9.19831 86.6186 -1.95785
9.61144 112.023 7.98503
-26.5977 121.682 -9.01801
10.9294 130.052 -6.14495
-13.2352 138.631 3.35674
-26.3887 84.711 -9.40132
-29.0125 99.0859 -4.58206
-7.31028 129.174 -4.22874
-10.4594 94.4749 -1.04212
3.70898 125.646 -6.99771
-15.3088 98.8517 -15.0308
-9.24289 118.861 5.25902
-13.4161 117.336 5.59515
-12.2137 105.904 -15.0375
-2.13686 81.2079 -9.43149
-34.8729 130.399 2.25446
-7.83088 77.8273 -10.0295
8.12982 118.986 -10.365
-20.2796 87.8415 -13.4958
10.293 117.369 -4.71428
9.55687 97.6867 6.33582
-3.43936 110.214 -1.35739
6.84856 81.3797 2.89727
4.84733 110.724 -7.39661
-24.1065 131.478 -5.38155
0.567455 88.6244 -10.9693
12.922 119.838 -5.66852
0.251153 125.24 0.112458
-4.36757 121.786 -8.02913
-16.7286 88.627 2.31406
11.3445 92.0296 -6.88302
-30.9515 130.096 0.0064514
5.11284 131.215 -7.63656
-7.66002 121.609 -7.23874
-31.532 91.582 -11.1617
-27.161 84.4612 -10.1484
-34.6753 133.333 4.16237
-8.85949 82.1114 -3.20082
-19.9452 111.599 -13.1144
-5.35222 83.4775 -1.94806
10.1031 128.5 5.69128
-16.3723 97.8882 -15.0862
-29.3383 119.205 -2.45
-11.0039 81.8194 -10.6219
-39.4878 134.501 3.03061
-10.27 94.2645 -12.8638
-30.4849 102.395 -6.39565
13.2583 86.8224 -2.27699
2.13331 132.077 -4.95523
-20.0128 110.987 5.70942
21.657 119.339 0.574603
-17.2077 87.7224 -12.0175
-6.02874 115.573 1.90043
-5.75155 104.828 -1.01079
-14.6601 128.693 6.38231
17.8198 123.854 3.4737
-18.025 132.264 4.75789
13.1914 100.68 -4.38072
-14.8805 95.988 -14.2278
-32.0313 93.4048 -12.7508
-21.1818 84.2389 -15.1866
-7.07018 92.1454 -0.648954
12.449 106.268 5.47388
-10.324 130.663 5.84374
-5.45774 90.5596 1.60759
-15.6287 93.9824 3.50137
-29.7631 126.395 -0.166917
4.2586 103.805 -10.2545
-22.5427 116.891 6.14722
-27.6276 109.541 -11.4178
5.56508 121.512 -8.32863
-5.48558 103.231 -1.93604
-8.21486 140.022 2.31012
23.824 120.027 1.96685
13.4619 123.365 3.17673
-30.2566 100.916 -13.0979
1.40463 102.913 6.06436
-27.5773 136.242 -4.27834
-1.71437 84.7447 -10.148
-26.003 112.815 -11.5239
7.23979 109.11 -7.91098
-28.7246 101.203 -3.10898
-16.3145 109.253 -14.0185
-32.4983 126.056 -3.17122
-2.62547 113.952 -0.989771
-5.70224 85.6617 -1.48019
-27.9577 88.5084 -8.29596
12.9995 89.416 -2.81761
1.84798 139.251 2.32598
11.169 126.169 -2.80703
5.69626 120.148 4.57846
13.336 110.984 -0.444084
2.24172 86.674 -9.72244
-18.2492 92.8877 -15.3472
-7.61217 95.0624 -12.9495
-21.5709 100.721 3.57924
-11.0899 121.868 -6.52682
-18.0535 82.9665 -14.0746
-8.0658 119.81 4.86521
9.93555 116.9 -6.8103
15.1272 116.603 -4.53242
-9.32465 78.8051 -10.3413
-25.1261 83.6834 -8.71683
13.129 126.013 -9.07598
1.66843 132.921 1.62595
-2.53292 79.3734 -8.50992
8.60398 104.632 -9.34942
-9.57183 104.008 -14.8321
-28.7441 86.5819 -16.7158
-27.5817 103.119 -1.73249
-28.9248 108.725 -11.4588
7.56419 79.8023 -6.38322
-20.8638 92.5853 -17.4318
6.82353 130.149 5.61565
-23.1739 104.834 3.99953
-12.6897 99.8526 3.77035
-2.88616 95.3469 -12.4984
10.7986 134.306 6.1985
-22.3316 83.9694 -4.989
-4.51704 120.482 1.80735
14.1054 105.681 3.25562
-9.84712 108.97 -14.0963
-14.5934 111.344 3.8611
-8.18967 122.053 5.24827
14.1553 127.376 -9.03776
-0.833352 99.3792 -12.4731
-9.18069 92.9891 -12.9755
10.2079 84.9488 -6.45942
-20.6944 123.509 6.97008
-24.5992 82.9506 -8.86192
-6.49432 103.885 -1.38341
-7.826 97.0492 -12.5673
-2.98039 107.12 -1.90317
12.5169 124.24 0.31483
-27.1151 122.769 2.77914
-10.005 119.754 -7.63471
-4.87775 97.6603 -2.53971
-19.4767 81.284 -3.5522
11.0895 121.341 -4.97237
-20.6612 105.029 5.24423
-30.3624 117.603 -5.30586
-22.9841 127.397 4.0606
-15.8654 135.731 1.99532
12.841 121.503 0.344433
-6.67896 86.704 -2.16241
-25.3521 107.618 -13.8547
11.6946 122.214 -0.321442
24.3559 122.886 -5.951
-39.6933 134.498 2.96787
-30.2452 88.5788 -15.013
-22.1546 91.5868 -2.5647
-7.15279 124.511 -5.72789
-14.5576 126.486 -5.63117
6.51195 127.783 5.77719
10.5818 85.3868 -6.2256
-1.65138 85.6151 -10.2882
19.6888 124.79 -9.36401
-9.28818 93.0016 -0.792643
0.673258 78.5759 -7.24946
-3.60705 133.652 -3.87978
-14.1051 99.1431 -14.8328
11.7885 116.922 -3.68065
-28.8057 92.3359 -7.88927
13.0785 131.272 -3.98307
-27.4929 125.456 -4.9091
-1.68664 113.191 -1.10975
-14.8616 94.7632 -13.0878
17.6888 123.982 3.52394
-17.2247 81.1206 -1.80881
2.84639 104.306 -10.7256
-28.094 84.9616 -16.0259
17.2386 123.349 -11.7011
-4.4716 84.0868 -0.25938
-4.88912 121.839 2.50871
21.5637 137.586 0.418363
-32.5937 134.171 4.59697
-5.53117 88.3086 -0.704752
1.77467 94.5003 -10.6689
11.8071 130.242 -3.26371
-30.8611 103.698 -9.61327
-5.97172 82.0256 -9.94738
-9.04313 114.917 -10.7292
13.5507 132.407 4.48129
-20.0752 98.195 4.04551
-18.5627 129.41 5.19187
-11.9474 80.3576 -3.98948
-12.867 87.3582 -11.6911
8.00989 91.4308 5.54925
3.58535 84.8784 -9.16578
-6.29034 85.1629 -0.876677
-18.1844 96.444 4.58835
13.6433 77.5858 -0.776427
-30.0526 82.8913 -15.2967
-33.9229 129.728 1.03177
2.84715 105.421 3.29744
-17.3107 92.1614 3.38929
-38.3996 131.557 2.13531
1.37233 130.137 -3.89906
-30.3679 130.081 -4.64521
18.4978 127.809 -8.17366
-34.9426 134.261 -1.84206
17.7367 127.165 -8.88475
-19.1571 81.9404 -15.2516
6.27077 135.035 1.3768
-6.19923 112.256 1.05213
-21.7 144.657 5.39283
-35.4532 126.028 -1.80869
12.3415 108.531 -6.60317
-2.76594 98.8044 -13.1203
12.5012 110.268 -4.74551
-17.8729 138.679 2.93758
23.3901 125.158 -3.85206
5.92273 112.618 -7.463
-14.3789 99.3307 -15.0752
9.70543 108.081 -8.48064
-7.73436 87.4798 -1.39942
5.01478 99.5539 7.4014
-12.5962 90.9151 -12.0237
11.365 129.158 -2.37391
-8.52608 90.3394 -2.27352
13.9485 127.334 1.67267
0.976005 136.066 -3.39505
-16.4696 133.251 4.41756
11.9363 122.007 0.571073
-26.5041 120.848 2.88696
10.0622 124.268 -0.00313855
-24.2516 139.642 4.71336
11.0748 106.502 6.15617
-25.0152 87.3 -16.9488
18.6728 118.871 0.571308
-39.2803 134.33 3.43904
-3.5381 111.316 -12.2899
-18.6257 89.3269 -14.3739
18.8128 123.739 3.41674
-16.0774 82.3528 -12.8457
5.06595 110.462 7.93411
19.369 134.905 2.19026
17.9406 116.873 -2.36959
6.97227 90.5775 5.61262
-15.7837 80.5323 -4.16133
5.61663 119.26 4.89643
-20.8157 122.942 -8.85291
0.681785 112.468 -0.98979
13.6915 133.653 4.25517
-24.725 119.598 3.71262
-11.443 94.1098 -0.641555
-4.76645 124.446 3.64388
-1.36854 131.793 -3.31382
-23.7546 87.038 -15.1017
-13.9094 109.471 3.37811
-29.6056 118.273 -7.61561
-35.0848 132.197 3.71399
13.2813 81.2307 -0.590612
-18.2886 91.4129 -14.9475
7.41375 84.6549 -7.8688
2.68762 102.73 6.89878
-20.8675 103.881 5.20621
10.3552 114.025 -1.64583
11.9971 106.237 5.80029
-10.8739 112.504 4.25146
2.55011 101.885 6.52341
-9.71626 95.8336 -1.64666
11.8378 127.653 -0.406954
11.719 123.441 0.798964
-1.56139 100.831 4.04836
5.96503 121.202 -9.1539
-22.1555 93.2825 -2.23593
13.7955 109.376 -2.8711
-26.4766 87.5596 -16.5592
-1.82273 85.3294 0.157574
-18.8939 107.321 -14.4245
-19.548 132.669 -6.88167
-24.4645 113.579 4.67241
-7.94918 87.1561 -2.70292
-16.132 90.1656 -13.004
-16.5559 134.506 3.06407
-8.13938 84.3944 -9.87903
-25.0327 94.4366 -3.27487
-27.8856 118.068 -9.66071
-16.6131 125.512 7.00718
-28.7874 126.093 -2.63118
-26.1643 119.353 -10.5376
14.7107 118.061 -4.96944
-33.8321 137.497 0.475835
10.8061 84.8429 -6.07713
13.2793 83.4865 -1.68632
12.3113 122.383 -6.76701
-2.31651 130.139 -3.59988
-35.8045 130.391 1.6746
-16.3089 133.319 4.36068
12.4975 120.576 -0.763205
9.06312 116.329 -9.50664
-29.2124 96.8487 -15.2225
-3.3698 107.933 -13.206
-33.5961 127.543 -0.375757
12.1948 127.649 -3.92077
12.7995 119.733 -8.72497
-1.19094 105.617 -1.96303
11.74 124.664 -6.09119
8.18886 122.134 -9.27636
-8.28292 91.3336 1.19368
-15.1651 134.733 3.65137
8.13752 81.8811 3.49215
-27.8402 119.984 -0.0971076
10.9754 113.501 -0.923491
-31.0252 138.454 0.322876
4.27238 116.258 -7.57093
-31.6237 95.8127 -13.2928
-11.2202 115.448 -9.4338
-13.5924 95.573 2.0719
3.51932 122.015 -5.83225
-30.6001 107.778 -5.02211
8.96185 124.912 6.86627
-7.95677 92.3292 -1.38224
-22.3672 89.6914 -3.47347
-3.83063 130.578 -4.02173
22.8199 125.555 0.856523
13.4966 79.8982 -0.830512
-6.99468 102.928 -13.0001
-28.4022 120.911 -0.351456
1.89956 130.317 -4.28793
11.0613 130.474 -6.09423
-8.27766 125.875 5.61365
6.7995 84.3811 4.11465
-6.7048 120.111 -8.62827
-14.122 98.1399 -14.6941
12.5303 77.1194 -2.16761
-13.2141 124.893 6.83727
-28.5151 105.249 -2.15076
-20.37 95.0814 0.443363
-30.167 109.853 -4.92508
-11.167 87.3731 -10.9284
6.82099 129.938 -8.86636
10.84 136.192 5.89638
-24.4727 144.996 4.86225
10.6879 123.781 -5.81548
-18.8941 107.384 -14.3843
-16.148 128.372 5.99825
-17.9682 125.731 -7.32839
-33.1562 134.541 4.5506
-21.1963 97.7684 -17.0022
20.5782 132.041 -4.40418
11.374 75.0781 -3.91337
-30.8679 86.6581 -15.7567
8.22909 135.5 4.96988
11.9832 96.1761 4.68314
-30.2465 101.913 -6.13964
-7.15396 87.6202 -2.27423
-8.44482 93.4609 -1.29602
19.2815 138.872 2.56482
19.969 135.27 1.7509
-19.1081 130.768 -7.51752
-6.65021 116.99 3.1332
21.0368 127.489 1.55921
-29.003 84.2471 -11.5928
12.1082 131.685 -5.85726
9.3401 76.9683 -5.08473
8.2038 80.4852 2.23935
-23.6816 132.032 -5.91385
-24.5627 104.083 1.87526
-1.74354 89.0139 1.66523
9.85792 116.545 -4.26012
13.0964 78.2297 0.726929
-6.53426 137.275 3.82579
9.71847 126.299 -6.13482
-14.3409 131.809 5.84982
-0.407962 128.021 1.42612
13.711 121.064 2.7527
7.65428 79.0936 0.151589
24.2105 123.629 -3.47079
-1.18566 111.429 -10.1572
-22.9464 112.213 5.56311
-13.9009 108.857 3.26507
-33.575 139.549 1.97446
-2.77965 129.913 -3.73576
-23.217 142.886 5.49829
-22.9041 92.2063 -3.12831
-6.55996 88.0765 -0.403073
-11.4931 106.774 -14.7141
-8.49133 114.546 4.24695
-31.001 101.399 -10.8335
2.36382 134.615 1.65385
-28.1046 93.9024 -14.8917
-13.6209 128.582 6.70968
-13.6916 83.1495 -12.6098
12.5915 97.5914 -5.59772
-1.85889 88.0863 1.35174
-10.8192 115.405 -9.57257
-26.586 116.131 -0.217357
-24.5019 92.1602 -16.9759
6.28827 79.0352 -6.10261
-28.0176 113.08 -3.00962
2.72389 107.378 -9.46815
-20.1285 83.3802 -14.7359
-13.5087 127.919 6.83754
6.06228 114.868 -9.05412
1.03819 95.6134 5.20402
9.5269 124.902 -3.0128
-13.8719 84.254 0.702331
9.47322 120.957 -9.44348
11.5152 113.203 -1.56115
-9.53585 102.97 -14.4883
12.6706 129.211 3.99857
-25.4251 121.45 -10.4344
12.8239 101.931 -5.83696
-20.3064 90.8354 -1.21907
-24.7703 141.916 5.50656
-30.0522 91.0764 -16.0115
-26.5405 111.502 -11.3953
-7.95243 125.867 -5.0524
-12.3549 140.119 3.14572
3.30761 116.981 -6.93311
-24.7021 120.683 -10.9442
9.48401 129.224 6.36486
10.6794 123.588 -4.84653
-30.7638 106.459 -5.48028
9.08177 100.968 -9.70712
18.2947 130.844 -6.23898
-18.0237 89.3834 1.84925
19.2289 120.222 1.13788
14.3615 135.76 3.88208
6.46241 96.2053 6.52942
-22.829 125.213 -8.43256
9.48791 123.199 -8.48925
-12.6268 84.3683 0.615815
25.3345 125.732 -0.733299
-12.2476 82.2524 -1.39209
-1.4116 112.174 -9.84452
9.69434 91.6543 5.30784
-7.62952 141.8 2.25532
-20.4031 90.725 -1.31142
-27.6519 129.22 -4.27312
-17.6271 118.91 5.99086
-24.7615 133.957 3.66619
-4.39019 98.2884 1.51535
-9.57401 89.8709 -0.319888
14.4399 126.068 1.37715
12.6467 127.26 -8.27272
10.4068 128.554 -5.59982
13.028 92.1513 -1.73483
10.5528 116.885 8.01868
-21.5382 92.9276 -1.74395
-26.0335 101.461 -0.70777
4.53241 137.637 0.880248
6.15692 97.0642 -9.31237
-2.24652 86.8126 -10.4194
-19.3929 131.952 -6.85415
-8.23048 139.164 2.3919
-8.92458 104.914 -14.7094
-12.0048 139.326 3.2153
13.6375 126.386 2.67596
-29.9424 111.946 -6.20025
-33.3928 131.07 -1.57028
-24.5071 93.3553 -3.82351
0.389254 106.379 -0.60832
-12.0977 91.9696 1.34449
4.73361 82.622 2.90393
-3.02247 128.592 3.72066
15.447 122.078 1.8549
-21.7933 98.9591 1.95187
-28.3506 94.8847 -6.71032
-2.72155 86.5315 -0.0881175
-22.6449 124.605 6.30393
6.04392 122.472 4.42625
-7.51561 87.004 -1.99571
-27.7838 119.565 -9.29713
-5.9476 85.4272 -0.846695
21.615 129.537 -5.45312
10.1754 136.418 6.17064
-7.52452 117.722 -9.96506
4.59378 129.443 0.742681
-21.4963 85.2508 -14.528
-9.00902 90.2634 -0.69308
-33.9329 138.126 3.69334
-5.74738 131.671 -4.15167
-11.7064 96.8332 1.68399
-8.67969 85.3524 -1.88364
13.3035 84.6215 -2.10882
-29.7765 83.3868 -12.8028
-4.70269 135.409 4.25852
13.1694 96.7666 -2.04294
-8.63612 84.5864 -4.01065
-37.7227 131.44 0.728611
-8.68649 87.4456 -2.3856
-15.9732 108.532 3.72208
-17.0479 127.897 -6.60247
5.55037 136.337 0.915532
-30.006 100.878 -5.68677
-11.7252 124.126 -5.90538
9.041 89.1396 5.05583
12.8525 121.842 0.513105
-27.5395 85.7344 -16.0713
0.247815 81.1687 -1.50169
-16.9047 107.143 3.84633
8.26975 108.243 7.67465
-21.485 125.426 -7.85324
11.7275 97.5452 -7.21531
-22.0976 93.4994 -2.12981
-1.55951 105.551 -1.98836
10.3463 126.81 -3.19504
-37.8433 131.155 2.12057
-9.127 89.3361 -3.04633
-38.4842 134.132 3.37383
-4.10176 92.6564 2.91059
12.2246 107.335 -7.28319
1.99634 101.861 -12.3766
12.9401 88.9909 -2.92726
-1.88139 82.1621 -1.2485
2.20245 96.259 5.74719
-15.7366 97.6907 3.98396
-3.4231 123.255 1.76129
5.75309 119.506 6.09582
7.1449 101.071 7.67714
-21.0749 115.297 5.70927
-2.92618 86.7976 -0.0405094
20.444 135.525 1.3027
13.1381 100.551 -3.54575
0.0709127 122.121 -5.48934
3.21707 128.788 -6.5364
-2.85982 107.999 -1.78612
18.28 117.429 -1.34396
6.66825 128.462 -9.11466
4.18958 106.992 7.69427
-16.8784 81.5289 -13.4064
10.0798 124.322 0.176226
-8.5407 88.2714 -0.407907
9.00377 130.865 6.66682
2.78276 125.004 -4.83991
13.1318 94.7237 -2.87393
-23.6003 112.269 -13.6273
7.36397 90.6488 5.51394
-20.7867 91.2355 -1.5376
6.58201 99.6658 -9.96548
-22.8697 80.5421 -8.27142
-26.2283 130.585 3.62567
-20.1648 132.76 -6.7055
-8.73048 86.8576 -2.83107
-7.7756 94.2125 0.532011
1.97162 132.676 -4.48618
-8.21358 94.2839 -1.33536
13.1012 131.579 -6.35886
1.67894 92.031 -10.9372
-0.312314 93.6555 -11.3672
9.31917 115.787 -10.1647
-27.509 122.571 -7.59518
-23.9247 117.473 5.26192
8.30909 136.57 3.8835
-21.5134 132.132 -5.98568
-25.3324 140.33 4.409
-33.2212 137.48 0.259107
10.3022 97.0631 5.81709
2.13187 119.817 -5.63922
-27.6089 140.076 0.0382787
11.5454 112.526 1.22651
-27.6068 117.866 -1.42807
11.9873 125.786 -7.39937
-27.0087 97.2233 -3.92305
13.0862 121.443 -9.7606
-22.1144 97.8119 0.307233
-5.31617 85.1399 -0.510702
10.5354 122.612 -2.06757
0.450666 92.8873 5.12038
-6.35665 88.4968 -2.23528
-30.4109 131.413 -3.97451
-27.262 100.552 -1.98072
-12.4539 135.09 4.3016
3.50823 111.74 -7.56573
6.25467 124.552 3.74869
-8.06112 84.9632 -3.65337
14.0953 104.607 2.70924
24.599 127.294 -4.29211
-30.8653 109.296 -6.25885
0.300292 130.304 1.87021
4.03611 111.494 4.89214
-10.7704 91.2533 -12.6652
7.28142 117.665 8.39781
21.8298 130.077 -0.0334364
-0.39853 131.357 -3.34244
-17.3553 79.3172 -5.87394
-8.73338 89.2978 -2.83557
-11.1213 91.741 -1.00212
19.71 123.606 -9.7981
1.3335 97.2579 -10.9652
13.2203 114.504 4.51314
-24.0117 88.3936 -15.1855
-29.033 125.089 -4.11761
25.8934 121.595 2.61652
-33.6589 135.348 -2.0221
-26.581 80.3689 -11.9403
12.7744 92.999 -3.28147
-7.37656 85.5006 -2.17966
10.8516 130.201 5.2078
-7.47525 105.349 -14.0758
-30.4554 142.171 2.93664
-20.0356 130.007 -7.0739
-21.6152 120.672 -10.0789
-2.84032 105.466 -12.8393
9.72272 82.8464 3.37655
-25.6586 126.954 -6.20398
-26.5076 97.2508 -3.07321
-5.52173 95.6154 -2.31788
0.643432 106.069 -0.317668
-16.109 83.6593 0.190367
-30.9817 98.7818 -13.2149
10.3282 139.889 5.01547
13.1272 98.4343 -4.10371
-6.02977 139.208 2.80739
19.4021 124.107 3.59911
-20.9546 129.784 -6.59638
11.8002 125.687 4.48684
11.6114 103.342 6.03425
1.78003 111.189 0.0475224
-29.7762 101.568 -4.50143
10.2642 102.835 6.80203
5.97884 92.6363 6.31775
-10.4513 102.953 2.87706
-20.7765 128.412 4.83155
9.59957 75.6 -0.172493
12.8821 127.66 -2.27118
-9.63941 117.15 -8.9442
-1.73411 137.117 -3.09853
-20.0443 129.639 -6.9085
-25.3841 96.5756 -2.3579
-24.2777 83.9168 -7.12667
-15.0971 108.117 -14.1591
-19.7433 106.368 5.17428
-21.9554 130.241 -6.63337
2.34956 124.015 0.12104
0.485871 118.005 -0.62029
-2.16774 82.4123 -0.195586
11.3446 105.444 6.116
14.696 136.274 3.46001
10.936 103.814 -9.37166
3.26169 87.6302 -9.55604
3.77308 108.322 6.1002
24.5442 125.962 -0.273917
-20.8535 102.751 5.04455
-18.8933 105.423 -15.224
-0.65595 101.78 1.78628
10.2133 112.226 7.69214
-21.4332 121.622 6.81106
4.40581 128.18 -7.93109
5.91598 91.2643 -9.23203
9.10525 119.246 8.53748
15.0031 117.408 -1.41586
-22.398 114.068 5.44778
-28.9637 115.683 -9.14917
11.741 91.4491 -6.2228
5.84218 119.641 6.91937
-29.5788 113.601 -8.94142
-23.7743 126.071 -6.9742
22.3921 123.734 -6.33939
2.83476 85.4232 3.70518
-22.0377 141.226 5.65114
-13.8424 80.6932 -11.6563
-23.4853 129.421 2.5833
14.0096 119.498 -10.2525
-28.4516 130.253 -2.47197
11.0705 105.985 6.17638
-13.3826 131.288 -6.63518
-33.0894 137.247 4.08464
8.34226 90.5052 -8.85196
9.6355 82.2997 -6.32303
11.7796 98.1835 -7.21838
-18.0269 118.683 5.87067
11.9315 79.6316 -3.62586
13.9335 86.1215 1.04171
-13.2608 97.5518 -13.2631
-29.3599 109.702 -2.87914
14.9105 123.731 1.80562
17.6005 117.829 -0.339347
-30.8173 104.109 -6.13518
-29.0009 93.6647 -8.02469
10.8822 120.943 -5.07722
6.65545 106.581 8.50386
-7.2156 86.8939 -2.69653
10.121 94.4528 5.20927
-1.09316 101.369 2.63187
-9.70182 116.805 5.09057
-36.0405 137.794 1.38848
9.87778 128.365 -8.86033
-28.7753 107.244 -12.2844
13.766 121.109 -0.772768
-0.0517695 124.465 -4.90831
9.59433 125 -2.01368
-22.2735 132.305 3.31825
0.762275 100.572 -12.3492
4.99672 89.6676 -9.38609
-29.469 113.617 -9.0685
-14.6714 91.2126 3.28071
-4.84029 96.9582 0.426394
-25.7618 111.525 -11.6925
19.5488 121.967 -10.6222
11.4227 125.459 0.596573
-22.8968 89.2067 -4.30234
-25.8397 109.115 -13.2134
0.708263 82.2711 -9.1906
-16.922 86.2955 -12.2348
-16.4632 81.2259 -13.4467
2.74126 133.609 -5.90414
-16.5979 127.059 -6.4196
2.29258 86.8587 -9.75111
-18.6259 79.6276 -3.76834
-7.60307 111.177 -13.0977
18.391 124.038 -10.4875
-37.9501 131.686 0.917712
-29.3524 133.876 4.85527
5.60099 128.451 -8.56268
15.5774 130.761 4.04054
8.32391 128.434 6.97575
-26.1031 86.0628 -8.1693
3.9766 104.992 -9.73504
-13.9077 119.295 6.17721
13.6923 111.013 4.59975
-6.71272 137.111 3.83578
-6.05963 92.5249 2.77015
-33.3303 128.296 1.00725
-17.9287 92.3779 2.70808
-13.3561 93.9291 0.996524
5.88734 108.167 -8.04238
4.65705 115.078 4.35444
-18.8517 117.223 -11.4599
2.58228 113.494 0.538199
7.00663 104.186 -10.0114
0.860073 84.3971 2.30603
-28.9405 87.7403 -9.73662
-29.8215 132.901 4.83807
2.10695 109.089 0.853819
9.9865 114.439 -9.65806
-24.5012 140.706 5.02838
-29.6643 85.4318 -15.8797
-27.375 130.623 3.43571
21.3576 127.575 1.38831
5.59885 78.2297 -3.2433
-3.82381 120.295 0.962172
-33.7347 132.668 4.13337
4.78063 89.3123 -9.38058
8.35536 122.829 -9.63264
12.5363 75.4053 -2.87971
2.4913 99.9489 6.33149
-26.5103 94.6412 -15.3465
-15.7875 106.725 -14.8424
0.307365 102.922 -13.0054
-3.50893 123.191 1.8127
13.342 91.3549 -1.20139
-22.9493 127.835 -6.20315
21.4117 125.858 0.960382
-31.7657 125.469 -4.03647
-13.1178 111.218 -11.7641
13.5566 119.573 -0.311836
-2.11561 110.373 -1.29812
19.9762 124.22 3.51145
12.222 81.893 -3.77157
-8.21506 93.7381 1.24337
-35.8529 130.856 3.037
-32.5243 129.834 2.46365
-24.0137 137.201 -5.07072
-18.019 113.976 -12.2884
-18.8984 79.5308 -5.65178
-19.707 92.612 -16.766
-21.7724 99.1376 -16.8551
-25.1237 132.936 3.64529
12.5807 111.631 -5.18591
9.84378 115.055 -4.60085
-29.9079 106.295 -3.91026
-24.9754 114.861 2.97395
13.5528 106.878 -2.42725
20.237 132.039 1.4995
-24.35 87.661 -5.71649
12.5974 128.566 3.65311
-5.68929 139.387 2.82452
7.73394 109.686 8.29346
-12.1256 111.98 3.94685
-4.75683 127.908 -4.26652
-23.2941 104.679 3.74173
-11.883 106.728 2.79999
2.97336 83.2252 2.90456
-20.0558 92.0548 -16.3454
-14.7117 120.202 6.41069
-3.24781 130.085 -3.89571
-5.99551 83.9382 -1.89917
-24.075 96.3609 -1.53773
-19.3134 114.834 -12.543
-19.9102 80.0145 -4.66883
-28.4103 113.208 -10.1033
-17.6209 83.9217 -0.537671
9.57314 108.41 7.23079
-0.728101 115.429 -7.69103
-38.2517 135.465 0.629705
-8.2444 85.1837 -3.71037
-28.465 88.1673 -9.01293
9.53479 124.975 -2.74951
-22.7497 136.251 -4.74252
12.4453 78.9464 1.48606
-16.1704 93.7516 -13.6827
-5.73776 139.099 2.96333
-32.3833 90.2401 -14.075
8.8819 118.49 8.56382
-16.3333 128.739 5.83673
-30.1151 90.1314 -9.78996
-19.7326 128.902 -7.01993
14.8432 126.021 1.04484
13.054 98.1786 -4.28189
-8.19034 94.2117 -0.604207
-30.7888 98.2244 -14.0405
-2.89692 124.811 1.99103
-1.97748 131.547 -3.60091
-19.7609 93.4642 0.266824
-10.4035 93.9292 -12.9247
-31.6581 132.208 -2.39043
6.08331 98.9062 -10.0215
11.3329 117.63 5.909
-0.258622 88.2417 2.19664
13.8241 126.3 2.52824
-9.39038 78.4692 -10.7212
-4.35064 110.111 -12.8641
17.7097 138.824 3.28841
-0.253438 131.385 -3.38926
-34.9627 129.091 -0.131746
-16.6122 85.0101 -13.5713
10.7974 119.556 6.37955
11.5004 102.445 -8.45544
-39.6871 135.28 3.21735
-6.84733 135.118 4.68942
10.9578 126.761 0.105435
14.7558 124.025 1.17486
-0.753407 100.592 5.37775
-4.09851 124.651 -6.20909
-10.3876 83.1985 -10.3379
14.0181 100.012 2.32663
-2.01287 128.592 2.98156
-12.9705 91.2376 -11.8675
6.17255 114.021 -8.14824
14.5755 124.158 2.48289
-15.3614 83.8498 0.378768
5.56196 118.184 6.52191
3.3538 101.992 -11.5148
12.9311 78.7533 -1.95915
0.710046 93.2334 -11.0959
-26.4311 137.866 3.92312
-23.1253 117.934 -11.9618
22.9056 131.517 -3.98103
7.86352 88.8931 -8.93033
-29.8462 107.055 -10.9465
14.0283 120.31 -10.753
4.88179 125.096 -8.35108
-24.1245 87.2413 -5.70953
-15.1917 100.699 -15.7458
-29.2455 107 -2.87701
-30.4739 83.37 -14.5338
12.3636 109.989 -5.25526
-2.12212 80.257 -9.06299
11.1011 133.707 -4.8111
-31.639 133.498 4.62258
-21.0395 124.242 6.84062
-8.71548 119.647 5.10559
3.80375 98.7224 -10.9753
-29.2901 87.2914 -10.2516
-4.09574 132.586 4.3763
-4.39025 105.377 -12.9339
-34.0876 127.71 -0.972067
2.46024 89.7911 4.61527
18.8225 127.281 -8.37865
-18.7988 83.2732 -14.4321
14.3144 108.514 3.07707
-5.97306 115.033 -11.2379
-6.87366 127.451 5.35384
-24.8838 99.9528 -0.93083
-8.78722 89.9703 0.196766
-15.8516 97.9461 4.07365
-24.3967 80.2746 -12.0091
-19.8429 127.366 6.4031
7.23102 80.1262 -6.44553
-8.87223 86.6627 -2.94601
-23.1904 132.456 3.34956
-1.65284 111.507 -10.7467
-3.37877 82.4705 -4.42286
-8.11317 88.7557 -0.463562
20.5325 127.817 -7.09887
-16.1891 131.774 -8.64236
-15.5376 112.71 -11.4753
-24.1487 116.665 5.06775
25.6478 125.845 0.104533
-6.77793 115.383 -11.2013
2.99381 106.317 -9.77569
6.11972 105.891 -9.03318
13.2256 95.7583 -2.92204
17.6495 132.905 2.56312
-27.7375 137.023 -2.63974
11.512 77.0905 -3.5664
6.23523 80.0114 1.05194
-31.9654 126.374 -2.39956
13.2844 108.878 -3.33884
-29.1993 87.4332 -10.1342
19.9742 117.914 -0.300252
-22.1635 88.3186 -3.67046
-22.5094 132.106 -5.83989
3.15348 83.5537 -8.9286
-9.84076 131.737 5.6776
-28.9531 91.1608 -15.7522
21.4656 120.704 0.761124
19.2169 128.04 -7.58683
-8.4623 93.4791 0.77087
-29.0228 129.781 -4.50189
12.5417 78.9955 -2.46398
-21.3278 97.9711 -17.0043
-30.4976 113.253 -7.77999
-21.98 102.596 -16.3377
0.712376 105.183 -11.9234
11.943 128.708 -2.59703
7.7854 115.549 -9.62536
-7.41315 103.6 -13.3378
4.93607 129.921 -7.82112
-9.90185 87.2856 1.63163
-12.9059 126.416 6.91279
-11.6333 93.0258 -0.645046
8.08564 128.705 -9.69351
-24.782 85.9688 -6.52272
13.039 99.3161 -1.34149
8.97016 91.4708 5.54527
7.26387 100.986 -10.1407
25.4276 127.511 -3.09005
-3.00277 133.998 -3.52592
-24.3839 118.907 -11.4589
-8.9318 84.29 -0.0706626
12.3879 122.497 -6.84849
-31.0655 130.12 0.580072
1.84273 114.211 -6.92053
-1.05219 118.95 -0.67414
-27.7365 123.88 -4.57613
-9.99153 111.223 -12.4781
-8.5647 92.7814 0.864382
-29.7316 127.364 -3.3069
13.6071 77.8245 -0.885139
-19.3323 82.1144 -16.1222
-32.1583 92.8329 -12.5524
5.62095 129.285 -8.36932
19.0029 117.464 -1.87273
-29.459 134.191 -4.59138
-7.19397 128.951 5.54219
4.0451 81.9763 -8.27553
-17.1676 135.591 -5.91217
-5.46102 93.228 3.29768
1.60468 93.7284 5.55276
-15.7835 89.4525 3.22167
22.2444 124.125 -6.48423
-27.0276 119.404 1.13234
-3.83916 103.771 -1.97473
-10.143 84.1692 -0.385618
12.9318 111.943 -2.01058
14.2079 105.756 -0.702596
24.8058 126.112 -0.479703
-22.2132 133.544 3.89528
-21.8097 120.421 6.67494
-21.8585 103.04 4.47416
-10.9631 104.096 3.18032
0.0805004 110.917 -9.39498
-30.2811 91.013 -16.1066
-4.7136 126.439 4.09607
-23.3437 81.9931 -8.07169
3.58781 138.711 1.32234
-4.25178 116.443 -10.541
6.6331 78.4258 -5.84501
-9.97625 109.96 -13.6303
-27.5183 125.218 -4.73307
-31.0516 101.557 -11.2553
-13.8717 137.769 2.96381
10.901 122.482 5.97386
-23.1097 120.967 6.03056
6.75639 126.796 6.92571
-13.3446 131.263 -6.59658
3.40772 131.347 -6.67642
9.28133 128.689 6.64369
6.63131 106.782 -8.52711
-20.374 112.694 5.76747
12.528 74.5096 -0.731864
-4.79319 127.257 -4.68068
5.90696 124.826 2.68125
-5.08307 122.303 -7.90953
0.642156 91.1741 4.39669
9.59759 122.873 -8.36374
-14.1526 80.1129 -12.3842
-29.9993 112.66 -8.68268
12.5329 121.881 -8.80922
-21.0883 134.138 3.75715
-28.7507 120.612 -5.76959
-4.57742 90.9559 -12.3559
-6.95808 135.756 4.34931
17.9538 133.002 2.37583
8.67779 117.968 8.59538
-22.3227 85.5692 -4.79574
-6.05927 102.167 -12.5291
-20.4601 101.993 -16.4642
-27.493 87.2264 -15.8086
10.0204 81.2622 3.08763
-38.483 131.628 3.37855
-14.4609 109.001 -13.4267
-27.8928 101.246 -14.8288
-18.5944 106.736 -14.5399
-5.81684 112.589 0.694309
-0.524531 100.513 -12.5191
12.8225 93.0745 -3.14579
2.66533 109.377 -8.66607
-16.5791 137.238 2.69599
-25.7187 89.8867 -5.97225
10.9892 125.17 4.72354
-29.5764 111.707 -5.57072
4.53858 78.8046 -2.30883
9.91916 114.179 -3.0256
-12.2433 141.505 2.95225
5.25561 111.292 8.00676
-0.129614 86.0107 -10.3934
-2.4924 123.169 -6.74077
-29.1352 120.362 -5.71105
10.1547 109.861 7.33466
-5.12195 126.146 -5.29412
4.82603 87.5399 5.04744
-8.62874 94.399 -1.96263
-30.372 127.381 -3.91189
-20.1607 138.887 4.74829
-22.9728 135.137 -4.97273
-40.5311 134.444 2.86608
-11.9898 95.5297 -12.3247
-6.23463 119.398 -9.41208
16.6606 117.795 -1.40269
-32.3858 130.645 -1.95352
-28.6512 110.035 -1.68577
19.8472 126.009 -8.7904
13.9997 119.763 1.48627
10.828 121.994 6.39595
-4.12929 77.8048 -8.16631
20.8437 125.296 2.12716
15.9664 117.53 -2.41395
-9.70047 88.3612 -1.72225
-25.6064 129.128 -4.96655
-19.3075 118.266 5.69379
-19.4011 108.877 -14.1425
-23.3145 125.577 -8.21882
-9.59278 89.7795 -2.42786
6.33874 127.235 2.85197
-12.1453 113.208 4.24526
-22.5457 96.9638 -17.0399
14.9104 124.617 1.4646
10.5214 133.998 6.26279
-26.535 126.46 -7.0506
-14.0781 85.6512 1.67345
6.77557 80.3322 1.61469
-9.78162 83.0074 -10.2265
21.3348 124.874 2.5981
14.3911 134.745 3.91545
-22.2279 101.831 -16.4642
18.7999 128.706 3.06884
15.1708 118.761 -6.99496
-23.4208 126.902 -7.62356
-11.7797 101.383 -14.6295
11.1632 124.526 0.221601
-2.60693 100.034 3.0145
20.233 123.058 2.21088
-21.9759 84.1202 -15.7334
4.05328 97.536 -10.3995
-7.32152 94.2758 2.37134
-20.2388 124.856 6.94505
-8.47486 87.8268 -11.3325
-22.8233 120.889 6.23454
7.63744 111.314 8.63505
21.9849 135.922 0.691913
-13.4563 137.022 2.57632
7.32866 84.2368 -7.802
-27.4083 100.778 -2.02417
-9.79665 95.7296 -12.4994
-2.25101 97.6094 -12.8332
-9.23334 83.8366 -1.89247
-21.4103 136.882 -5.19992
-25.0306 111.15 -13.2676
-1.57752 83.8145 0.200048
-25.9634 113.84 1.53112
23.3063 125.54 0.725692
-2.36919 82.2349 -9.51997
1.93159 134.644 1.64502
-0.33795 93.4219 -11.3528
7.6673 109.943 -8.57321
-28.4294 81.3191 -15.4242
-17.1378 98.1882 4.36184
12.0195 80.3305 2.07574
-24.3286 124.686 4.89852
-8.42132 123.218 -6.29949
10.7429 126.132 -3.9536
6.72678 86.538 4.65287
16.9773 122.536 -11.9673
-37.1084 137.026 1.19886
-28.014 84.8492 -17.1726
-6.85674 126.009 -5.2767
10.3235 129.632 -8.58286
-29.6313 100.238 -4.66431
-30.5161 98.1769 -9.59499
-26.0287 90.3567 -17.5181
-27.1765 140.041 4.05234
-14.2234 80.8547 -2.95415
-11.0549 100.221 2.17702
4.58628 92.5901 -9.82017
10.7873 112.346 7.40174
-7.53438 126.032 5.41737
-20.2321 103.845 5.26044
-3.62274 133.583 -3.89963
-20.5022 79.9203 -6.00617
14.7012 120.274 -11.4268
-12.4059 136.45 3.04813
-19.1341 136.615 3.01077
-12.4367 124.32 6.61047
-24.8735 129.557 -5.04957
-26.731 125.566 2.97501
4.31815 91.2909 5.88628
13.3795 111.154 -2.04246
10.1803 119.526 7.98291
3.4811 94.8601 5.695
-0.867513 77.9388 -7.1401
-26.3622 92.1187 -16.6189
-32.7266 131.443 -1.85239
13.6907 123.257 0.597728
-25.3717 87.8487 -17.4496
5.29646 86.4808 4.72048
-0.0446548 81.8651 0.780393
11.3408 129.681 -6.33332
-31.3132 132.205 -2.66795
11.6461 127.001 -3.85675
-30.461 115.458 -5.68603
-7.30357 85.3987 -2.7552
-18.2878 87.3229 -12.3823
-29.1008 118.887 -2.40611
10.9037 116.194 7.5452
3.34665 107.576 4.03626
23.3591 126.09 -5.53095
7.26847 111.921 -8.53015
-20.3415 119.092 -10.263
8.30996 128.428 6.97423
-0.062741 112.981 -1.04579
13.2184 121.234 -9.95851
-17.4115 83.253 -13.9601
-2.49746 76.6479 -7.54624
7.3602 97.3485 -8.99568
14.0201 100.546 2.41444
12.5289 98.9285 4.78014
11.7625 77.1413 -3.21885
-30.7053 102.512 -11.3536
-1.62487 136.206 3.44369
-26.7098 116.756 -10.7727
-27.7166 90.7412 -16.261
-9.3754 90.479 -12.7622
-21.395 93.7653 -17.4686
-20.3743 99.7344 -16.1153
-30.3104 105.615 -9.2524
-29.4188 86.5359 -10.6504
1.92073 98.5832 -11.2333
-15.7316 93.9603 -13.3737
25.3714 121.867 2.98764
-19.3218 99.7497 4.81228
-12.5183 86.1784 1.94031
-21.4114 79.2596 -9.71152
14.4906 108.422 2.66376
-5.92034 131.942 5.05307
-1.75724 101.451 -1.45888
1.38995 136.202 -3.74207
-7.93201 112.835 -12.2283
-29.6012 115.639 -8.39066
-24.1829 87.0635 -15.2634
-23.5143 89.3415 -15.9705
0.684302 86.4582 -10.3724
-29.4982 110.536 -3.50417
-15.6864 138.083 2.03497
13.2912 118.86 -5.59697
-30.1531 126.292 -1.72653
-20.5141 97.1844 2.08569
-9.67841 90.6318 -1.28804
-21.6654 136.731 4.52892
11.4541 129.716 4.76969
-5.21684 89.8282 0.851009
-18.8974 123.505 -8.54933
-17.5017 115.626 -11.7396
5.30161 83.5792 -8.34874
0.250546 103.56 0.427235
-25.7033 123.597 -6.99164
-23.496 83.4171 -6.46642
4.938 126.131 -8.41137
-9.41265 133.066 5.22114
-16.5909 112.403 4.63272
-13.6017 141.468 1.14837
-13.594 111.137 -11.8818
-13.9192 124.041 6.73623
-15.2604 90.3082 -12.5524
13.9714 118.946 -4.06105
-28.0408 99.0068 -3.5892
2.17298 106.33 1.61813
-20.7452 129.848 -6.95383
-20.5426 123.572 -8.48541
-14.0311 85.4671 -12.2033
-20.3212 128.139 -7.89294
-26.6671 90.0845 -6.35964
-22.8371 121.541 -10.3722
12.4128 121.371 -5.50527
10.7161 108.736 6.89313
-14.1806 108.121 -13.8635
12.3594 120.74 4.39118
12.9127 132.536 -5.34787
-25.4187 99.7816 -1.36701
-24.7388 126.12 3.85317
-27.3395 129.901 -3.02492
-13.2302 91.2951 2.66535
-3.16817 92.0397 2.27512
2.33175 112.017 0.481052
-3.83103 80.9224 -9.51689
-6.68219 94.115 -13.0532
10.9352 122.238 -2.43975
-4.9354 94.4673 -12.9775
16.0519 140.024 3.74013
-8.92183 81.9583 -3.03463
-25.6056 132.134 -5.10755
-19.979 98.2473 4.47734
-26.1195 112.339 1.51491
-20.83 94.9587 -17.3689
-25.669 129.799 -4.72141
12.0246 104.412 -7.88806
-0.752682 102.046 -13.0171
-18.924 84.8296 -1.48702
-20.6488 80.2525 -5.07851
-29.9135 129.988 3.36156
12.864 112.036 -1.19802
-22.8036 80.1456 -8.65745
19.3777 138.842 2.47097
-33.0576 138.96 0.818843
-30.7842 99.2514 -11.7163
12.8226 73.8675 -2.82493
-3.36133 99.0353 3.31661
-10.8233 108.027 -14.4414
-16.6801 118.866 -9.50721
-12.0283 97.8886 -12.5506
-25.109 122.596 -10.1252
-19.6284 117.258 5.8048
-3.46549 104.114 -12.6565
-3.69997 132.367 4.15174
-12.8867 117.764 5.64284
-13.8782 94.1478 1.48713
-17.3775 131.683 -8.82132
2.36273 104.769 4.31464
12.9701 114.229 1.98039
-16.6196 128.335 6.10158
12.1882 125.804 -8.09459
-31.7013 127.466 -1.88276
-29.556 117.409 -8.10593
-20.3068 131.645 -6.69003
8.9596 92.7848 -8.64746
-38.8988 133.658 1.41205
14.9955 129.52 -8.38623
10.2384 141.119 5.06107
-31.1473 87.7421 -13.6584
11.3298 117.441 5.02678
-30.4467 98.0954 -11.237
4.50815 128.115 0.885313
-26.1549 116.117 1.18467
-0.58324 131.564 2.90058
-14.2954 99.7986 4.19761
-7.16713 90.8639 -0.910099
12.3386 93.8444 4.15601
6.05428 107.855 8.61569
-17.9932 84.3367 -0.672937
-29.2233 111.26 -3.45199
-0.156601 89.6653 -11.3258
7.42989 132.474 5.47504
-28.4271 134.405 -5.51716
4.14197 124.394 -7.1747
-32.6548 130.765 -1.85138
-19.3111 87.2359 -0.645286
-16.1458 82.4928 -0.803013
-23.5419 87.6163 -5.20228
16.8045 130.16 3.44804
10.5181 130.649 -5.06866
-24.1135 113.181 4.8522
-16.1813 133.819 -8.02731
12.0977 121.158 -3.38243
-6.80055 94.8669 1.97465
-30.545 89.2009 -16.0594
-26.3186 113.704 1.11256
-12.131 96.0639 -12.1806
7.13433 106.492 -8.6347
-19.252 112.338 5.62045
-5.4517 85.8479 -2.06852
-6.48757 94.1193 -1.36786
-11.9472 119.555 5.92901
-28.5444 129.508 -3.65382
-11.9333 127.872 6.75883
-14.2109 138.43 2.88917
21.6961 134.881 -1.7132
12.445 107.366 5.57788
-8.01521 77.8978 -10.1204
-0.405472 125.168 0.272061
13.9705 118.016 0.670526
13.5547 138.978 4.22418
8.84052 115.664 -10.0114
11.0053 126.455 -2.39186
-15.5714 79.9928 -4.86549
-30.4269 101.643 -8.0569
-3.92718 99.3613 -12.9753
-29.5506 140.454 0.822056
-3.45074 97.6919 4.45338
12.1234 85.3619 2.9361
-30.1336 95.0233 -14.8606
-27.3567 129.106 1.52577
-30.6544 102.723 -6.61484
-18.904 144.117 5.5779
-6.73274 128.423 5.4213
-6.86313 102.296 -1.52388
17.886 122.58 2.42833
6.42888 123.871 -9.63404
0.774587 133.591 -3.53192
-18.8059 128.418 -7.42208
-30.7535 105.921 -5.50489
-8.45674 102.951 0.295488
22.8383 122.241 -6.68005
5.75334 124.431 2.54568
-9.92398 106.027 -14.6164
13.1866 133.064 -5.2136
-13.5951 137.943 3.011
-29.9334 112.947 -6.32654
5.24452 102.234 8.03058
3.91403 103.847 -10.3038
-27.1112 94.5102 -15.1812
-18.3607 139.314 4.33254
-9.16399 136.78 3.27129
-29.4965 128.691 -0.11074
-3.46061 120.663 0.624952
-31.5938 132.853 4.60187
-9.22425 105.103 2.44833
11.2594 117.21 -4.28149
-34.2864 139.232 2.13186
-30.0171 128.761 -2.42535
-29.7257 132.469 4.67069
10.145 90.8264 4.84622
-6.33503 106.345 0.495432
21.2084 125.105 -8.77901
-27.6378 141.529 -0.27473
-28.4295 126.751 -2.69859
3.06946 127.323 -6.05695
-15.2689 101.483 -15.6075
-15.174 110.77 -12.5092
-6.9586 137.092 3.75754
-7.05061 85.5123 -2.24757
12.4282 93.8028 -4.35908
4.2962 126.911 0.816075
-0.48184 109.547 -10.7209
-6.96359 141.322 2.28021
13.8223 122.219 -2.11096
-24.027 124.924 -8.8272
-38.6089 131.719 2.42586
-30.4649 92.512 -10.192
12.1417 130.616 -7.0008
10.3786 121.457 -5.78625
-14.4058 83.7213 0.327586
-15.829 120.367 6.46823
11.2672 127.031 -0.587514
24.4117 127.055 -2.40821
21.2157 136.555 -0.891542
-14.8038 124.41 -6.17019
19.6846 139.115 2.07692
-19.448 107.423 -14.4719
-9.61929 87.8363 0.738927
-11.4102 91.8098 0.875121
5.72082 137.703 1.27941
-20.5946 80.3626 -7.4129
-30.8482 137.515 3.5275
11.9107 124.995 -4.34627
-23.2555 117.768 5.80144
-12.1004 91.8183 0.0355656
-28.2005 123.194 -4.47274
-32.5781 125.429 -2.33921
13.6633 109.696 4.43375
16.0967 123.935 -11.1988
-11.6778 133.927 4.84123
-29.4976 131.514 4.28277
-16.3312 106.07 3.58805
-22.7106 101.806 3.02858
-39.5173 134.09 1.79194
-2.29257 100.924 -1.02403
-1.27154 121.431 -6.44883
-8.2461 91.0916 -1.85129
6.61742 131.609 4.45313
-23.4893 114.874 -12.9316
-2.60736 77.8522 -7.55424
10.3383 128.031 -7.02564
9.16323 110.837 -9.13359
-28.8832 81.5661 -15.6243
16.0912 117.66 -1.45676
1.75632 80.0485 -1.42259
-3.97577 85.4706 -1.18219
-8.32233 84.7039 -3.56009
-26.0416 126.191 -5.00312
-19.7685 122.958 -8.74245
-16.6788 90.3658 -13.2758
10.3745 122.173 6.51937
-26.3637 101.797 -0.717039
-15.9774 111.938 -11.8402
-36.0048 136.685 0.25459
-18.2602 92.0265 -15.1087
9.1319 115.871 -10.3314
12.4247 128.318 4.18852
2.90254 131.021 -6.26979
-3.88293 98.8814 2.18253
-31.4349 127.715 -1.69624
14.2335 108.355 0.527272
-9.06672 83.1805 -3.68927
6.4724 106.066 8.39047
14.2019 127.007 -9.29681
-5.13409 113.321 -0.00774781
-11.1178 113.061 -10.9803
-2.49006 108.403 -1.69694
-31.2997 130.516 3.23872
6.46987 122.938 -9.72034
12.671 112.184 -2.32229
-11.8248 83.3827 -11.9509
-18.5622 132.14 4.47749
7.58124 120.672 -10.0548
-7.31603 99.3082 -12.3235
-25.0141 121.336 4.89076
-25.0385 106.557 2.59234
24.0324 128.755 -4.83096
-17.0523 114.569 5.06589
-26.191 135.475 4.5502
11.3484 98.0805 5.43659
-12.8757 84.0466 0.386608
17.3462 124.319 -10.8988
14.2311 121.072 1.95138
-30.9653 90.189 -10.6802
-0.729976 132.572 3.07199
9.20824 79.7794 1.87258
11.6004 77.8312 1.46971
10.2622 117.411 -4.73749
-30.362 118.486 -3.9646
-24.845 127.99 -6.9624
18.2185 127.87 3.55921
11.2825 117.694 5.75879
-17.5196 135.99 -5.74335
-2.0192 117.573 -7.77228
-16.891 95.7175 4.79819
21.1366 135.393 0.877331
-17.8756 129.161 -6.76494
8.98361 132.157 6.28723
-3.34619 93.1759 3.11999
-26.9751 87.2349 -16.5105
5.19789 139.444 1.10089
3.86952 111.158 3.57736
-9.652 86.649 1.41476
-24.9412 99.992 -0.954319
15.545 130.722 -7.75497
-28.5849 95.3878 -6.4819
1.67008 83.0781 2.37678
10.9215 100.416 -8.51114
-10.1619 129.331 5.98416
-20.3693 82.6168 -3.38489
-27.4324 129.72 -3.01546
2.85148 105.43 3.17705
3.9856 104.761 6.7685
13.3681 110.901 5.09047
-30.0333 129.563 -3.71963
9.9668 126.783 -6.07567
12.5979 112.199 -2.68805
-6.23742 124.465 4.63683
10.5682 113.302 -4.76882
5.11729 77.5563 -5.63846
6.65604 78.2533 -1.76773
7.24121 121.868 -9.4441
5.9203 131.358 1.65469
7.85179 76.1367 -4.86501
-22.6097 89.0943 -15.0868
-2.27035 92.5804 2.82497
-29.5607 82.9165 -13.1219
-32.1621 92.4502 -11.8905
12.9388 94.4976 -3.50172
-27.5697 122.911 -5.01467
-18.4847 88.4475 -13.3951
9.11079 93.0743 5.83052
-34.4528 131.691 3.63662
-17.6624 137.957 3.26268
-4.78004 83.7445 -9.64941
13.2932 84.4909 -2.151
-7.28606 116.752 3.75535
13.6127 83.581 0.513364
2.61444 92.2344 -10.5809
2.31528 106.496 -10.1406
-28.2615 89.3561 -17.3254
-3.1183 97.6086 -13.1578
10.3326 128.98 5.30479
-28.7281 112.357 -9.98714
-32.467 130.327 -1.90723
-21.5501 81.6218 -4.99755
-21.965 97.4121 0.315002
-29.1957 129.439 -3.44002
-12.923 99.2735 3.78319
-16.5988 133.552 3.94317
-4.02795 105.62 -2.12748
-28.061 84.9241 -17.7479
-9.29983 87.7336 -11.1677
20.7105 135.99 1.10845
9.29594 119.438 -6.52049
-6.39843 110.607 1.06883
26.3056 123.85 -0.273942
-8.73197 98.9452 -1.23292
-14.181 103.62 3.45493
-20.1475 86.4759 -2.00123
5.22272 74.9348 -4.66348
-18.9861 106.765 -14.737
-11.1885 109.675 3.57998
-12.4619 90.4514 2.33272
-21.2029 98.9678 2.58382
-8.70549 119.909 5.11843
-9.11683 133.125 -5.08382
-28.3073 84.2691 -15.3533
4.09878 89.2989 5.52438
-29.5884 132.726 -3.7981
-6.68466 85.4366 -10.0152
-15.1696 79.017 -5.43776
10.7463 92.318 4.91425
-2.65902 100.142 -0.778255
-27.3646 133.073 4.77614
-30.7147 104.04 -9.65294
-16.7449 89.2788 3.09789
-30.3129 128.895 2.17112
15.9387 127.521 -9.27994
-30.2342 121.613 -2.91501
-0.919409 91.0384 3.04067
10.0164 127.249 -8.30847
11.9262 140.979 4.76882
-25.925 128.507 -5.9686
7.30312 130.352 6.47147
-29.2476 123.979 -0.924468
-9.39059 139.664 2.19626
-21.7567 126.47 4.63686
-3.36892 85.106 -1.0311
2.79866 104.39 6.27167
-14.6232 96.2858 -14.1737
-26.064 136.821 4.21459
5.61589 98.8976 -10.3293
-12.9918 131.787 -6.80989
-12.7516 83.6097 -0.00285575
-12.4116 98.6607 -13.0848
-25.9959 119.156 2.16961
9.51138 104.811 -9.31243
-31.7203 91.731 -11.3548
10.2114 119.476 -7.24471
-22.1953 96.3507 -17.1214
4.27347 130.293 -7.36741
-4.27047 126.359 3.78761
-26.8625 130.478 -3.64151
17.5262 131.658 2.44478
-30.339 93.5235 -10.1717
-14.7298 85.8274 -12.2361
-23.0791 132.831 -5.73188
8.08479 139.031 2.96
11.6015 86.4389 -5.56342
21.1524 131.458 -4.0455
-28.2516 108.023 -12.0138
-35.4624 132.101 -0.505933
-17.9295 90.1193 1.98928
-20.0227 111.858 -12.9298
-13.7586 97.2901 -13.7662
8.87745 96.2046 6.16059
-26.7883 101.631 -1.073
-24.3458 130.571 -5.22352
7.45958 116.454 -10.0375
13.6406 104.049 3.91865
11.7609 95.4709 -6.54448
12.2559 74.2816 -3.20032
-12.9464 134.207 4.55969
2.85238 132.845 0.635293
-30.9632 95.4889 -14.4909
-20.1237 120.628 6.21189
-5.31793 98.2637 -12.6626
14.3143 107.266 2.86807
-16.299 119.905 -8.6795
-7.24133 122.666 -6.75705
5.3973 102.883 7.97557
-16.4593 94.7182 -14.7549
-24.5064 119.471 4.64554
1.29272 93.0779 -10.9415
-24.9059 130.503 -4.89275
-3.77405 98.8 2.85158
-20.6655 93.0197 -17.3515
12.2743 88.6745 3.29599
-32.3997 91.6746 -13.9822
-17.3397 110.859 -13.1223
11.1973 123.91 -5.47234
-30.7247 88.2482 -16.1779
-4.81947 128.002 4.53239
-9.82881 94.1005 -12.884
-20.4517 98.73 -16.307
-0.466544 86.0675 -10.3863
6.23774 74.8403 -4.637
5.06067 85.3005 4.38248
-4.44368 121.225 -8.4567
-25.0841 106.352 -13.9884
-22.8727 103.278 3.56862
-14.0176 96.6292 -13.661
-6.87088 133.469 -4.44233
0.0911615 105.929 -0.86324
-8.28881 100.013 -1.45012
10.1961 122.78 -6.22398
-18.9434 132.31 4.05605
-30.2751 129.381 -3.24295
-10.7002 82.9794 -3.87823
-27.2 138.952 -1.83432
-23.5704 100.673 1.08008
-26.0916 133.867 -5.6817
-6.10728 85.8638 -2.41454
8.73417 77.4487 -1.58293
-6.1627 123.598 -6.52706
4.12563 133.382 0.839631
-12.9379 114.133 -10.2617
-13.8093 79.5477 -12.7066
-9.6615 121.467 5.71866
10.754 77.249 1.3239
-7.19618 98.5714 -12.3945
-5.09073 102.977 -1.89331
-32.2303 125.766 -3.3106
-10.934 78.9326 -11.3483
-26.6504 130.71 -5.20039
13.8491 110.29 -3.16856
