ply
format ascii 1.0
comment Created by Open3D
element vertex 1925
property double x
property double y
property double z
end_header
-4.82996 115.385 6.6356
-9.2176 85.9651 -20.7185
-7.66729 90.1715 5.92875
10.5991 127.169 -2.66255
-19.3282 110.249 -13.1809
15.1184 94.3014 -3.53512
-7.92058 119.402 9.68312
6.96105 114.69 -16.1693
-8.24486 107.903 -17.9146
-7.9438 104.685 5.70467
-11.5639 90.3228 -19.1947
9.02963 107.499 5.98376
-14.3325 125.161 9.36811
13.8501 115.731 -3.33048
12.4931 107.261 -9.10718
8.50677 134.318 3.30682
-4.34582 118.222 7.09499
20.5467 121.111 -2.3247
-12.2446 102.394 10.2846
-4.87766 85.9782 2.85613
12.1577 147.626 2.4139
-4.37573 87.059 3.33886
-18.5405 135.719 -5.4275
14.0519 87.4857 -2.66614
-15.8158 93.0626 -17.097
-7.6476 135.443 5.72472
-7.81593 120.574 9.40858
21.3895 134.619 -1.73247
2.41472 145.286 -5.36615
11.17 108.934 -14.8499
12.6791 118.575 4.30905
-18.4167 136.64 4.48364
3.801 140.313 -8.67978
-11.1005 113.061 10.295
2.35215 153.011 -2.97878
-6.83435 130.28 7.54107
8.24033 115.212 -15.3626
1.00858 110.819 -17.8287
10.2019 120.12 5.82503
2.08825 127.808 -11.2651
-9.76522 101.812 -17.2013
14.2112 120.596 -0.524807
-17.6436 120.007 10.0421
7.20551 94.1716 -17.87
12.9583 105.339 -8.06494
-16.1304 96.4284 10.5838
9.49412 77.2825 -4.02614
7.89099 111.139 5.78657
-18.2469 132.354 -8.20046
-9.28583 122.492 -9.82876
-16.3713 79.7045 -19.2207
-21.8021 122.281 -10.2313
-10.0213 109.086 -17.4358
9.34455 109.601 -15.3138
-12.4251 145.934 1.85808
-11.6996 113.822 -13.2337
11.5668 113.972 -14.055
11.4556 127.268 -7.61595
-7.73609 118.886 9.54725
-2.43426 108.799 -19.0019
-4.59316 145.877 1.4441
-3.91417 99.8228 -19.2787
-12.0467 76.9333 -21.2832
9.91606 96.382 3.0521
11.3731 152.322 0.976976
24.2277 127.661 -4.41195
-3.8007 123.544 -13.4758
13.9458 138.242 -4.14465
-6.00417 119.506 -14.4608
-13.3944 129.291 -9.70589
5.92316 100.057 5.26262
11.3232 82.228 -14.8029
0.0106979 138.591 4.87711
-13.6952 100.464 -15.6168
5.67067 147.603 2.21905
10.7077 97.7903 -15.5467
-21.5077 136.906 -5.78251
13.7698 105.299 -4.84275
9.71253 104.747 5.20035
4.70745 139.333 2.12249
7.35901 139.271 0.655477
12.9731 96.912 -12.5151
-20.9645 91.549 -14.4234
15.0021 106.238 0.10066
-7.6358 110.147 -17.4567
5.00177 134.033 0.877424
7.46323 134.129 0.869294
7.70062 139.081 -10.2487
1.31811 93.9967 6.1501
21.6634 128.951 -1.55137
14.2249 115.485 1.11987
-0.502543 92.4359 -20.998
-14.3844 134.757 -10.0154
7.79309 99.7789 4.93413
14.5634 122.706 -2.16538
3.02777 116.025 1.6922
-10.8137 89.5397 4.8409
15.7186 131.122 -7.88453
13.4219 130.557 -9.83452
9.96301 85.8352 -16.3318
10.3666 120.265 -15.1374
-15.9624 108.556 9.65682
-12.0991 124.988 9.44931
15.783 143.159 -2.40895
20.4577 139.914 1.72818
-9.22348 117.129 10.0105
13.5553 145.713 3.5076
-8.29143 140.406 -8.27961
6.0139 140.952 -10.0301
12.1423 95.4809 -14.0152
-4.03095 134.013 -6.74178
-11.7178 125.492 -9.57843
2.21565 99.9843 5.73328
4.17996 76.1824 -2.23983
6.85448 101.906 -17.9249
20.8973 124.909 -0.990249
-0.791609 119.838 -15.3405
-6.75971 76.8105 -21.9282
-15.0181 138.036 -8.07145
13.7698 106.014 -4.62454
-9.47881 89.9549 -20.016
16.488 134.413 -7.91923
-7.91462 146.496 0.747418
12.8677 110.765 -11.0873
5.27122 119.672 -15.1782
11.7951 125.945 -4.31548
11.0212 123.588 -4.33758
13.9384 115.66 -4.44197
-17.4143 80.2383 1.3087
20.4213 132.669 1.90859
18.5156 140.218 3.61549
-17.9218 82.5635 4.73565
9.75542 101.938 4.82047
-18.1471 133.505 4.55937
4.36384 97.1946 5.72612
-12.874 113.296 -13.7105
-17.9785 139.275 -4.31401
7.68741 82.4238 -0.323019
-3.67841 89.8423 -21.5281
14.2917 96.1238 -8.76073
-4.1346 130.132 -8.76703
-20.0511 118.948 -11.6252
-19.4971 128.312 -8.16478
3.43337 108.45 2.87209
7.53766 134.992 -11.3888
-1.65209 79.0899 -1.53151
-1.14904 93.6023 6.35749
12.9886 84.2746 -10.9243
9.67497 129.615 -7.50039
11.6426 130.394 -5.76647
3.72617 111.298 2.46059
11.7887 138.388 -8.88258
-11.4168 152.479 -2.42202
6.65925 121.913 -13.7724
9.17781 110.756 -15.5755
18.4557 127.787 1.64005
-6.55529 121.228 -12.324
11.6582 121.568 -9.30821
-10.9334 146.285 2.07324
10.4622 132.132 3.74712
-9.87238 112.683 9.76715
4.39975 92.036 4.2476
-14.4149 103.287 -15.2607
8.874 89.0262 1.97827
0.883261 84.5845 1.12277
-16.4173 104.524 -14.6464
-16.2587 84.9639 7.31076
-10.7026 116.411 -12.0103
18.5234 136.281 -5.70714
15.1854 134.163 -7.70732
10.5648 91.1762 1.61699
-12.0445 112.058 -13.8985
22.2814 136.703 0.688388
-1.16996 78.6482 -1.46675
15.1017 126.566 -1.19787
11.0137 102.031 3.99
-10.0023 152.777 -1.94948
-5.93435 79.5597 -0.95984
12.0169 101.87 3.07097
8.66478 118.519 5.78348
-6.26054 127.505 8.3341
-16.8224 143.825 -3.17425
6.1152 108.424 5.00413
13.6223 131.243 1.1032
-9.35234 130.275 7.05677
14.5057 102.026 -5.99166
7.21263 144.445 -8.43908
16.2377 136.76 2.29273
2.23564 111.595 2.13027
-9.1179 102.964 -17.6951
9.92472 126.98 -3.57085
0.843222 125.237 2.21014
-6.41638 97.9439 -18.6738
-2.53817 93.089 6.26217
-16.5912 119.952 10.067
11.3251 148.851 -4.09975
-18.5685 127.195 8.92525
12.6988 115.969 -6.16749
-18.3124 110.35 -13.754
11.1993 121.189 -12.1024
2.87086 136.195 -9.7
-10.8446 125.339 8.90473
12.7489 142.333 -3.74504
13.6325 125.187 0.109666
6.99142 96.511 4.80102
10.349 83.7427 -1.01262
4.21378 104.303 -19.1542
-16.6542 86.0243 -17.8968
-14.3571 103.565 -15.1967
-16.6724 141.276 -6.3368
2.167 76.587 -21.6944
2.53646 85.6299 -20.4443
14.213 78.2896 -6.29719
-13.6767 117.521 10.1232
5.19522 141.709 -8.9627
-12.8353 132.457 -9.94922
7.72924 119.902 5.2728
13.2599 123.447 1.71534
12.6013 77.1369 -13.7339
7.28889 133.3 -12.3353
11.2356 128.995 -9.80348
-13.5185 89.0755 -18.8045
9.6475 94.4898 3.13245
9.77321 107.379 -15.8966
-14.4047 126.909 9.38013
7.3448 130.282 1.57064
-16.5485 118.182 -12.1586
-3.50526 150.872 -4.45603
20.1915 124.833 1.51356
6.21531 141.178 1.63137
10.4832 121.4 5.55812
-8.68242 111.126 -16.6592
12.9887 131.708 -7.28811
-11.6652 151.031 -4.53672
-21.2249 84.9153 -14.9446
1.91004 101.821 4.20728
7.00806 114.478 -16.4452
-0.709661 130.659 6.04188
5.3164 98.0762 5.41484
1.94727 132.501 3.71464
-2.45787 89.0567 -21.6277
19.4719 143.823 -0.454
12.861 88.986 -0.887919
10.8705 99.0284 -15.2393
9.93844 96.0762 -16.026
3.83632 96.8471 5.80939
-21.8508 117.61 -11.7999
-16.4957 145.743 -3.44115
9.60905 123.222 -11.1941
-21.0713 146.676 -1.57742
-5.54043 131.839 7.61905
12.8523 113.338 -3.80973
-8.86227 121.575 -9.95719
-3.7769 133.602 -7.27187
14.7542 86.0315 -8.58278
3.50672 130.726 -11.2358
-3.67595 110.022 2.71072
1.51474 111.071 -17.9023
9.75734 84.3663 -16.4577
-10.607 86.6629 -20.1111
1.25747 91.1237 -20.684
-20.5265 133.058 -5.99586
-13.9003 114.546 9.87447
-7.68423 150.015 -5.82606
-7.03471 101.579 4.424
4.00011 130.207 -12.0968
-5.95039 140.574 -7.16992
17.3498 139.001 3.14584
-9.42405 130.305 7.04256
-12.0718 153.421 1.65515
6.32008 112.621 4.09309
-15.0115 131.061 -10.821
-1.8273 106.546 2.44421
-12.2434 91.2703 5.77387
11.254 118.493 -8.78931
6.60764 83.146 0.0951963
6.27136 140.192 -10.2054
16.7209 141.781 -3.38663
-5.66338 122.775 8.61944
-11.0272 97.4431 5.40398
11.712 123.067 -8.80381
-20.3543 85.836 -15.2272
-8.14083 105.967 7.84252
13.2536 141.762 -2.87705
1.71666 133.377 3.84693
-3.58489 81.8488 -21.8395
10.3192 108.488 5.1075
4.43638 105.757 3.96317
-18.7527 148.186 4.75729
14.5564 118.159 -3.73817
-15.4411 137.438 4.62985
-7.27856 120.39 -12.1144
14.5263 119.249 -5.37001
13.3158 133.718 -6.35227
4.19947 118.921 -16.1891
-1.69813 107.877 -19.2111
-18.5159 123.57 -10.5375
-6.22918 82.4239 -21.7125
-16.255 99.2504 11.9131
-9.63354 147.841 1.14344
20.1469 122.443 -1.05513
14.8745 88.9893 -4.31635
-4.1026 92.5884 -21.2803
-21.0473 118.754 -11.6443
10.3339 110.591 -15.0441
12.9135 92.3093 -11.0337
4.15876 127.525 -12.6577
9.93772 118.833 5.85768
-0.18464 104.018 -19.8642
1.66133 135.052 3.95832
11.183 122.458 -13.4631
4.74862 94.3306 -19.2066
-9.58076 117.029 -12.1659
-19.8132 134.939 -4.25125
11.8822 85.6131 -13.0828
10.0368 92.419 2.39895
-12.296 102.261 -16.2506
11.5884 120.92 -9.29709
9.49001 97.1898 -16.4017
-11.7513 99.5842 7.18719
16.1445 121.593 -12.5764
2.2696 127.785 1.69792
-3.17558 88.1251 3.72105
2.32603 104.611 3.22732
-4.98884 114.054 6.25063
13.8796 114.749 2.41053
17.0633 126.455 -8.12582
12.1993 81.4904 -3.11609
-1.29107 146.865 -4.81008
2.38385 90.6273 3.35963
14.1896 98.9618 -1.69233
-7.41031 95.109 4.32746
-13.5428 92.6624 6.22417
-13.4618 105.818 10.1998
9.73889 153.852 0.339697
1.10429 135.382 -8.58716
21.5505 119.789 -1.37802
5.9959 107.714 5.04289
-20.4167 136.981 -5.11148
-20.4175 141.223 -3.77354
-15.8011 108.554 -15.225
-18.4192 132.875 4.75414
13.2371 138.019 -7.14689
-8.02587 128.155 -8.23648
0.193219 86.8502 -21.0045
10.7394 79.3523 -3.17702
-6.68641 98.1714 3.83386
-5.91964 144.553 -6.8509
-11.9142 81.6348 -20.8327
13.3272 132.324 -9.12412
2.55832 131.699 -10.4191
-7.26702 143.78 1.9141
20.9874 123.085 -2.75185
-1.23285 139.56 -5.90699
2.36907 93.4633 -20.1628
10.0044 99.8416 -15.5528
12.4836 117.144 -7.88382
-4.66158 100.109 3.18878
-6.60737 107.231 5.31665
9.62017 81.1694 -1.724
-6.72138 141.177 2.61651
-11.4064 78.8583 -20.9927
10.2414 119.232 5.76504
4.4297 104.396 -19.0388
-7.89126 112.176 8.74419
12.6322 113.034 -12.5388
-8.24963 91.6464 -20.092
14.3916 103.486 -5.7112
14.3736 149.531 1.73014
10.8771 126.399 -13.1989
10.752 120.593 -11.3339
-8.87066 120.647 9.39192
20.8105 130.617 -3.8344
-10.4152 104.947 -17.0956
-16.4981 99.7633 -15.0695
4.88971 139.889 2.22134
-9.29832 102.71 5.88915
-16.2956 141.545 3.75213
-14.3536 130.532 7.39917
-1.25282 121.179 3.11828
-4.58897 90.8165 -21.334
12.2755 111.978 -13.2571
-4.80076 117.664 -15.8557
-16.3804 136.838 4.85375
-10.9687 84.9579 -20.1916
10.036 78.2292 -16.7134
-11.7603 128.37 -9.54148
-19.6459 122.617 -10.48
-2.66917 125.807 -12.9198
13.3841 133.974 -9.613
-12.4763 114.233 -13.2052
-5.04254 86.1193 3.06473
14.9356 100.602 -4.25149
12.3546 108.19 -10.8751
-11.0635 152.481 3.15824
-8.05798 106.017 -18.2634
13.7508 125.789 -12.1889
-9.07746 115.48 -13.3754
-10.2937 91.532 6.13413
-19.111 110.223 -13.3944
22.0436 135.402 -0.307631
-5.65629 99.8181 3.47692
-3.62836 132.869 -7.94956
13.0688 138.405 -6.40471
2.35546 131.755 -10.327
2.88492 122.067 -13.6265
3.06067 129.88 1.41126
-21.2302 93.8834 -14.8168
10.9501 127.007 -2.84799
-3.20204 137.586 -6.12157
-16.296 144.083 -4.91406
15.7191 122.543 -13.577
14.6137 107.866 -2.42761
14.9468 109.188 -3.06231
-15.4154 142.261 -6.31874
12.9956 99.6533 -11.2279
-16.0735 108.076 -15.4615
-17.116 94.8544 -15.8087
-7.62552 112.68 8.72592
-7.91171 143.561 2.08324
16.5342 135.216 2.13428
12.5401 116.489 4.34828
14.5819 94.2101 -8.52866
1.04464 152.04 -3.62615
4.34863 91.7366 -19.6904
3.98145 95.7025 5.21638
0.365502 112.089 -17.3908
-11.374 98.7275 6.15026
-10.1454 103.87 8.63583
13.4256 112.006 -10.2032
4.01552 104.097 -19.2779
-10.9156 91.1397 6.08537
-15.7216 137.719 -7.48307
3.8313 107.659 3.08515
-16.1031 117.153 -12.2947
-0.99896 106.804 -19.5331
10.2856 138.88 3.30276
11.3038 148.254 1.84942
5.08291 90.2097 3.23961
12.5596 140.198 -6.94594
-14.2341 94.5135 8.19335
5.12868 75.7505 -2.83053
6.15891 97.6583 5.13148
0.0514989 112.858 -17.1132
13.9352 81.6097 -3.81477
12.1918 124.162 -4.09419
-0.199474 99.4601 -20.625
19.002 138.139 -4.18849
13.4931 116.96 2.13819
12.6702 98.8711 2.25192
7.72619 116.088 5.53314
18.5756 124.353 1.05807
-7.70362 111.836 -17.0293
-20.1623 128.247 -7.70925
-3.96902 136.373 -6.3928
11.1201 116.75 -10.8123
-16.1471 80.4165 0.494987
10.906 105.808 4.37796
-14.0908 85.0709 1.11868
9.37986 140.958 -10.0686
12.8216 124.98 -7.81303
5.36748 116.535 2.31362
-12.5392 149.527 2.50227
9.76982 125.491 -11.3738
14.2417 138.918 3.89559
-10.5748 92.3305 5.00871
3.03905 79.2005 -20.8422
6.10267 152.929 -3.10425
12.1193 138.178 4.07558
-19.8356 122.242 -10.5564
-3.36891 80.1634 -21.987
12.6589 103.727 1.99254
12.7105 100.767 -10.398
-5.64153 88.0035 4.80772
-14.8965 115.369 -13.1122
-17.3272 143.991 3.57257
-16.989 83.2272 4.0691
-9.50515 132.345 6.95544
-11.6338 91.8646 -18.9711
19.7762 122.964 -9.64283
15.4591 146.878 2.86562
-19.2377 129.457 -8.13559
14.8871 104.563 -1.05865
20.2268 122.681 -10.1819
13.6231 102.931 0.99565
7.73869 154.658 0.259349
17.9668 138.727 2.9557
11.6193 75.4473 -12.9177
3.98428 94.5661 4.62785
12.4899 77.2132 -12.7044
-18.7896 101.207 -14.9943
4.15286 128.512 0.956598
-0.858836 105.877 2.61323
9.94405 78.1279 -16.8357
22.1305 121.641 -3.01867
-5.84112 123.592 8.68405
3.83897 124.281 1.03328
13.7664 89.9286 -1.88874
14.208 80.2999 -4.55432
-8.98854 101.128 -17.1952
10.1192 134.508 -11.9967
-21.6072 123.241 -10.184
5.43851 130.656 -13.0549
3.56628 129.377 0.970174
9.6712 92.0973 2.42807
-12.536 99.1424 8.12006
17.5518 144.49 -0.766141
14.2974 111.971 -4.78635
12.3131 95.3609 -13.5256
11.7246 78.7033 -4.24786
-15.6378 95.1264 9.45551
-4.57639 125.896 -10.8706
-14.7612 113.521 -13.9478
-21.7298 94.1654 -14.4885
5.00426 84.0479 -20.1041
14.1025 103.509 -6.36021
-14.4759 94.4938 8.49282
-0.984805 104.092 -19.5828
-10.5605 111.648 -14.6918
-13.3802 113.293 -13.8087
-3.83744 130.885 7.56639
12.8543 130.067 -8.63013
17.9902 145.901 0.646799
-1.36899 99.7129 -20.4857
17.0747 138.614 3.08475
16.9335 132.094 1.63502
-16.9067 135.408 -6.57367
20.8176 123.312 0.924478
-7.09234 81.4122 -21.6963
6.12049 79.1271 -1.26339
2.80214 114.617 1.81154
6.97132 81.9798 -0.241405
13.444 135.533 -9.37355
20.5569 119.581 -4.66291
16.9114 138.372 3.04501
-4.97814 134.484 6.50189
-2.95156 111.355 2.52993
8.38711 131.453 3.53344
18.9721 135.701 -5.64463
13.6074 121.535 -8.52716
10.7855 108.754 4.44135
13.2255 135.742 -5.60572
-15.5941 130.975 -10.7959
3.46516 77.8762 -20.6593
-17.0899 85.9953 -17.8286
-20.22 78.4252 -17.5503
10.7878 132.171 -8.0281
1.49385 124.006 -13.1459
-17.9851 141.693 -3.26123
12.269 126.674 -6.26602
-5.05623 102.95 -18.5464
-8.0035 137.187 -8.22428
13.9062 149.286 0.689201
20.3462 126.669 -6.99739
-6.95449 99.4199 3.81426
5.47941 142.548 1.92228
3.06866 92.5232 -20.0564
-14.04 94.147 -17.1469
-0.147323 85.5914 -21.2012
0.305852 127.104 3.97608
-13.8129 118.157 10.2149
-15.4281 101.653 -15.5117
-4.07082 108.428 2.74788
9.21998 111.303 -15.7054
-8.88617 119.182 9.80504
-1.26333 122.656 -14.6783
-16.2745 133.965 5.32396
7.2119 106.918 5.89346
15.2136 93.8196 -4.34869
3.77151 126.677 -12.1387
6.32259 85.1545 -19.4123
9.8152 125.839 -10.8616
-13.5277 99.283 -15.877
20.6395 129.062 0.927133
11.8103 102.898 3.46326
-21.3206 79.4845 -16.3965
-0.686083 110.792 -18.3253
-11.7267 140.659 3.17769
-11.5202 143.124 -7.68164
12.0911 104.601 -12.3218
-10.7152 94.082 4.9139
-14.7898 91.4052 8.19469
12.2086 94.238 -13.0428
-0.124646 131.052 -10.5113
11.8015 100.301 -14.6641
22.9269 130.943 -2.15438
13.0899 117.455 -0.173704
-13.3034 124.018 -9.50674
-17.9608 79.8704 3.53878
3.47532 130.043 -11.4548
-18.0247 148.275 4.52025
11.7897 150.857 1.38413
-11.6072 92.3111 5.35017
9.82386 125.799 -3.90892
14.5132 145.735 3.81284
-0.0700332 97.0853 -20.8287
-13.2613 88.5651 6.55427
-15.2521 131.483 -10.8593
7.18378 145.33 -7.9531
10.0036 147.531 1.24625
-11.6715 113.058 10.2622
-0.90679 135.795 -7.15441
11.965 126.245 -3.17121
21.1872 133.401 -2.59375
-11.0602 139.207 3.63677
-18.9611 132.255 4.81457
8.10084 112.27 -16.4214
-1.87634 104.332 -19.1707
-17.2346 91.5877 11.0941
0.0286782 101.717 3.57951
14.8981 100.25 -3.85184
9.13369 81.8675 -16.6576
12.3668 106.671 -10.9378
-2.02722 133.437 6.77073
11.9576 140.511 3.92664
-3.46918 143.293 -5.83282
7.46993 120.593 4.70418
15.0058 111.456 0.145301
8.07982 155.047 1.53358
13.1844 117.341 0.227342
-14.2896 143.863 -6.10822
-17.3278 106.318 9.94458
-7.80014 133.934 -7.63433
6.41814 147.445 -6.41238
14.9617 93.6088 -7.67938
-6.15038 116.423 8.34984
-16.6451 142.982 3.56442
15.2003 125.035 -2.86123
13.8208 79.7104 -11.8611
-0.125146 80.4511 -22.0175
13.7058 76.2014 -9.14721
9.57541 108.508 -15.6135
0.210507 125.339 3.18881
15.3424 124.808 -0.387076
2.64832 126.015 1.23718
-6.40082 122.378 9.04113
-7.26683 103.657 -18.3252
8.63487 87.1433 1.25492
-16.0102 126.878 -9.33646
-0.790829 124.598 -13.9239
2.14273 130.653 -10.6075
-13.7384 104.222 -15.5592
13.7918 130.254 -9.75902
18.3534 137.898 -4.62278
-18.8278 129.733 -9.1254
4.11909 89.2371 -19.7773
12.4946 133.825 -7.09402
-5.60937 114.118 -16.4462
-16.5152 146.585 3.09901
-13.8959 86.5826 3.04586
-6.23722 87.3471 4.30052
11.7629 115.934 -7.16494
9.96404 142.184 -9.42644
-3.19322 121.504 -14.898
20.0228 130.964 -4.68609
8.18033 82.1486 -18.2724
1.59659 149.191 -4.02989
-8.80716 81.3466 -21.4891
-2.29912 106.648 -18.981
13.959 93.223 -0.81557
9.25759 129.036 -6.69356
10.8732 128.458 -9.26295
-4.19542 108.826 2.80763
12.7683 109.614 -10.761
12.2512 112.632 3.67309
15.2317 109.971 -0.766115
-2.31732 81.3637 -21.8374
-3.12342 99.9381 3.35812
10.8688 150.074 -2.50132
-12.9711 150.773 3.48199
13.0349 78.5732 -13.5113
5.34413 108.517 -17.1758
5.98534 105.82 -17.5053
18.4617 141.842 3.2703
-9.56558 83.675 -0.112299
-4.0953 84.0962 0.645454
21.4024 121.519 -2.8718
-3.91689 135.449 6.15644
22.0438 125.395 -2.60882
-1.39295 107.634 2.3574
5.81191 134.752 0.689878
-6.33116 104.509 -18.5226
18.5676 122.486 -8.94177
-10.1087 139.092 -9.48176
17.7678 139.976 3.59229
-14.4986 92.0101 7.00919
15.3043 93.4114 -5.15366
-8.40058 85.951 2.12544
14.2866 113.99 1.40609
7.25484 107.187 -16.8804
14.2176 86.0108 -3.69088
-19.5235 99.7555 -14.7892
0.540553 135.308 5.83933
-13.0769 117.814 10.2091
7.52339 78.7665 -18.0876
19.2872 121.583 -10.4254
10.3755 124.909 -12.1594
-4.02735 94.787 -20.654
-4.56295 103.755 3.08234
10.1935 130.262 -7.22962
13.1752 148.974 0.4496
11.1346 83.561 -1.64518
-2.9147 92.1942 -21.4694
14.7077 108.597 -4.28252
-6.10975 80.8106 -1.2221
-16.2478 94.1068 9.52146
-8.3158 124.012 -9.48233
18.873 126.948 -6.43359
0.152984 98.1511 5.63855
11.1008 132.663 -7.62949
-18.2127 101.787 -15.1044
-16.4011 150.102 3.48943
2.94837 149.234 -4.0463
-9.48217 142.931 2.81741
-12.2982 101.605 9.99871
-0.0581718 125.28 3.55318
-21.5586 123.853 -10.0673
13.4298 121.741 -8.31287
12.9994 121.363 -3.71626
-14.4136 87.4536 3.45305
-17.0529 146.866 3.29051
-8.81533 154.083 0.988956
12.5863 129.164 -7.89575
-4.96128 85.5084 -21.4579
11.0757 137.687 -11.4544
-6.13143 149.099 -5.9865
-4.64092 117.569 -15.9239
7.44423 117.066 5.29151
-15.6045 152.144 2.40693
-7.442 113.154 -16.366
12.0382 131.959 -7.37552
11.5039 130.703 -5.91254
-14.1645 101.62 -15.5301
6.22562 104.802 -17.7354
-5.28782 118.838 8.18072
-0.567455 146.232 -4.71323
-4.63986 109.779 3.36464
5.26258 97.0417 -18.7829
-14.9128 79.9041 -19.9082
13.29 146.511 -1.94933
10.9856 111.414 4.89845
10.5246 128.123 -2.79319
-9.56075 149.543 -6.18282
14.9548 104.191 -1.97968
-7.59363 92.8702 5.18274
8.19677 92.6781 2.88294
-4.48005 97.6397 3.80456
8.71638 106.965 5.89834
-15.9938 86.9829 5.70583
-20.3063 133.651 -3.99789
12.8315 101.278 -9.19751
11.0313 127.552 -8.45367
17.5148 144.392 2.83938
13.6175 112.679 -3.94859
-9.86361 96.9926 4.69258
-10.0961 153.571 2.34837
2.43369 92.7967 5.03208
5.7614 134.717 0.691567
-13.3804 103.583 10.5726
-16.2913 81.3937 1.20797
-20.7724 128.241 -7.68072
15.8755 124.364 -0.0637127
3.70093 122.715 1.19467
3.21726 102.077 -19.8705
-1.93413 77.2802 -22.435
-4.86476 92.2093 6.04507
24.0499 127.842 -4.9505
-0.8508 83.9995 0.967137
12.1531 91.9483 -12.4462
13.3443 101.577 -8.30564
-21.0942 83.8748 -15.6441
-1.08799 95.9943 6.14395
11.8009 102.59 -12.3873
14.6241 110.111 -5.81394
-22.1054 112.841 -12.2777
-7.21856 84.6648 1.65851
13.1738 113.069 -3.74603
-20.7041 88.1227 -15.07
-6.69958 123.566 8.95301
10.0752 96.7089 2.93307
12.2072 77.59 -14.3652
-12.5285 110.915 10.2777
-6.65378 76.8918 -21.9269
-4.73365 91.1323 6.62929
-20.5708 107.173 -13.6687
5.77753 103.764 -18.4413
-20.2002 139.063 -4.03835
13.715 116.08 -3.82552
-2.56757 115.152 -16.8912
13.0348 132.6 2.45441
-15.2535 88.0556 4.44698
15.6483 129.132 -7.81128
-11.6383 81.7459 -20.8402
-6.80723 126.57 -8.75506
-10.7694 98.4027 5.48417
11.69 128.167 -6.1226
12.9169 104.363 -8.33818
-19.9947 135.375 -4.78479
-4.25623 142.92 -6.24434
7.27243 136.186 -10.8203
7.61728 139.042 0.677092
-7.87975 132.404 -7.72053
15.6569 119.034 -7.44668
17.7329 124.731 -8.05491
12.3353 111.485 -12.5313
15.1167 81.1811 -8.29057
10.3065 151.427 -1.13066
3.76504 77.5323 -20.6262
-4.868 98.7228 -19.1469
8.23942 90.8183 -17.8823
4.16146 135.031 2.19902
-8.89106 133.259 6.69157
-12.2702 77.7733 -21.1772
11.2903 131.333 -10.767
12.795 113.943 -12.0455
8.66197 108.902 6.10972
-20.5372 146.722 -1.64823
12.376 106.878 -10.3592
-15.4833 140.847 3.68799
12.8022 113.975 -10.9067
-9.48119 153.28 -1.02259
-17.2833 131.261 -8.63395
-16.457 133.556 -8.08892
-15.0281 141.456 -6.91204
11.9009 124.829 -12.134
-6.21379 112.837 7.73187
13.2646 127.454 -0.23119
-7.72682 86.7168 -21.1212
14.4369 94.5275 -8.73389
-17.8544 85.4308 -17.7062
7.47704 81.3734 -0.647527
13.8644 89.5699 -2.20184
23.3367 132.647 -2.2547
2.80423 140.48 4.42582
12.8945 128.041 1.6065
11.9024 101.969 -11.9838
-6.61228 89.6481 5.78962
14.0767 79.4525 -4.66347
0.92903 83.3301 -21.6541
-5.09401 130.677 -7.91635
13.4546 92.2511 -10.2223
-14.1315 139.341 -8.03833
11.5149 106.469 -14.9989
-6.87185 144.086 1.83288
3.3684 142.672 -6.98107
3.34932 81.7672 -20.9544
4.43819 80.0549 -20.2311
-6.32854 140.7 3.01718
14.1802 78.6638 -7.25895
-9.7139 132.332 6.89357
3.12098 89.8785 -20.2034
-8.89362 144.865 1.90644
4.68782 110.029 -17.2982
10.9744 131.379 -9.03052
-2.48851 77.3008 -1.20533
15.0561 120.114 -4.30865
-7.81708 91.8196 -20.2189
9.68688 83.8353 -0.502157
-18.5743 85.9618 -17.1797
-20.1806 96.2324 -14.5164
10.7587 153.039 0.46514
-17.327 143.43 -3.14032
-10.687 141.358 -8.57628
11.6407 93.0035 1.82439
20.0049 138.899 -3.16578
-16.6621 78.3989 -19.5139
4.27768 148.162 -4.96112
10.978 121.439 -11.7575
-17.4183 126.373 9.12485
0.348394 105.158 -19.9781
23.1318 122.597 -7.18159
2.33367 114.666 -17.0131
-9.52661 128.501 7.55774
-16.9915 107.052 -14.5979
11.3215 130.646 -12.5933
-1.15012 94.1708 6.4411
-9.56276 92.7333 -19.2631
0.214398 93.5806 6.30905
-12.8691 100.31 9.71549
10.8366 142.209 -8.54126
10.1965 133.69 -12.3878
12.5087 115.159 4.23965
12.2205 116.445 4.6383
15.6987 121.942 -2.15564
-7.21069 153.052 -2.41401
9.25783 78.2021 -3.34827
-2.76818 99.8818 -19.8591
8.17798 134.411 2.3081
17.1966 118.891 -4.9245
-7.31987 112.112 -16.9374
-16.8557 77.948 -19.7107
5.87241 145.747 1.85789
11.109 97.2338 -15.2283
12.7409 131.841 -9.66479
-13.3658 88.8062 -18.924
-14.7811 139.395 -7.82031
12.3479 133.412 -6.99564
4.60548 120.93 1.31957
-18.2321 151.482 1.65245
-19.8217 147.601 -1.30143
1.08817 129.561 3.7549
-8.35106 108.053 -17.8679
-11.3888 115.82 -12.3239
15.0452 88.7355 -8.29081
-18.996 88.7291 -15.974
-2.29215 116.656 2.82711
22.811 130.278 -4.67374
-2.49668 88.9423 4.17939
14.8043 111.456 -3.31487
-12.6896 145.786 1.83159
-13.4989 125.476 9.50425
15.4953 128.597 0.377139
8.62481 145.053 1.03607
20.0444 133.316 2.1298
-5.83895 132.789 -7.15964
9.62215 91.3325 2.29783
7.26347 151.025 2.98805
12.9658 91.9458 -10.9158
10.3379 126.335 -8.38814
-20.0416 116.52 -12.6428
3.91615 146.761 -5.35789
-4.61474 125.417 8.07183
-3.10179 94.9886 -20.9752
7.00118 96.6945 -17.9943
13.9925 107.182 -4.88069
-2.23727 78.2491 -22.3714
12.823 122.043 -6.52601
-12.2395 116.292 10.1445
4.07322 96.6279 -19.3961
-14.5357 79.1722 -20.0744
-16.7161 94.4885 -16.1753
-13.2648 152.608 -0.72263
10.724 128.199 -4.84676
13.1085 122.212 -3.63371
-18.3937 137.828 -5.40765
-10.004 148.402 -6.74846
-7.06112 112.304 8.36059
16.0683 142.54 3.95192
-9.66171 109.383 -17.4424
14.324 125.407 -0.327855
-13.0702 117.852 -11.6331
-10.0899 132.641 6.64626
-4.71142 93.8098 5.10615
-2.34512 90.9163 5.90043
-13.9681 93.6081 6.9954
-17.1069 79.3894 -18.8798
13.9644 120.503 0.152003
-13.5282 117.387 10.1188
7.26233 118.392 4.93167
11.9184 93.0424 -13.7173
0.0778201 106.847 2.52262
5.46542 104.314 4.87958
3.15396 114.385 -17.4988
11.6267 143.846 3.13653
-16.5021 92.7898 10.1372
14.4903 128.569 -8.59112
8.97495 97.5088 -16.6447
11.8324 148.932 -3.22512
-8.22064 145.94 -7.36646
-16.317 119.117 -11.8977
13.3685 78.0379 -12.3987
-9.54861 139.983 3.25536
-2.43829 80.2602 -21.9757
9.39101 114.939 5.95324
-10.0354 137.697 4.32132
5.82759 123.708 1.46515
-13.8959 145.457 -5.9416
-5.78188 84.46 1.55437
16.5007 139.896 -4.74015
-1.2564 111.77 1.944
21.6681 139.248 0.373447
-16.4354 110.316 -14.1074
18.7783 137.216 2.64221
14.5613 127.91 -1.34235
13.2026 134.632 -10.1223
11.1517 95.909 2.43666
12.6728 114.72 3.97639
12.9375 122.208 -6.42561
-17.3542 94.8138 -15.7323
-9.48528 98.4827 -17.1832
-16.4641 84.3804 -18.1446
7.56133 94.0854 3.25743
-6.75419 100.662 -17.8992
2.49413 121.877 -13.8382
3.15415 153.472 -2.63977
6.8974 134.248 0.716081
13.369 87.9233 -10.4881
-15.1254 122.987 -10.0863
-14.5253 145.141 -5.78365
3.85693 142.543 -7.4996
22.0129 137.271 1.05394
1.25952 92.9667 5.23665
-15.3625 83.4834 1.68593
13.6632 114.992 -3.90708
-11.088 132.391 6.42648
12.9825 138.709 -5.97151
6.36901 127.988 1.23512
4.24713 135.013 2.11828
12.328 103.162 -10.0478
-18.3358 129.168 -8.76252
12.2193 122.088 3.46186
12.605 120.921 3.84157
-4.80834 138.463 4.62622
-4.08197 142.872 2.05724
-9.08312 133.413 -8.17082
9.55349 125.043 -14.6218
-19.3715 128.931 -8.27749
-15.7606 129.858 7.34518
11.5793 118.092 -8.53859
12.808 121.164 -3.8957
5.03057 102.592 -18.9073
8.6249 85.8964 -17.9924
1.67502 133.886 3.71935
12.6742 121.592 -5.20507
6.75617 111.417 -16.7338
16.4741 145.326 2.83486
-16.4363 81.4873 -19.0499
0.4767 89.0559 2.73137
13.5509 90.5859 -9.98369
0.43533 88.0342 2.41015
-7.33735 133.454 6.78981
12.6136 100.827 -10.7835
-18.2459 119.562 9.90613
-1.71318 151.587 -3.90735
-12.4241 132.213 7.11551
17.6211 122.3 -1.37769
8.57716 124.744 5.2925
-6.53578 109.173 -17.7019
13.7651 91.287 -1.24767
10.6844 147.4 1.70397
8.95842 143.128 -9.19423
-17.8615 119.803 -11.6806
-11.0721 118.305 -11.1936
8.42849 143.331 -9.06136
18.2243 140.477 -2.87281
0.0344612 145.125 -5.14406
11.7116 124.496 -3.74947
-5.97318 80.5857 -21.7904
0.202397 89.4778 -21.0048
-14.3695 79.691 -20.1201
-17.5945 114.069 -13.5842
9.60949 114.336 -15.4961
22.8262 134.737 -0.0809129
-2.65251 134.918 6.47642
19.895 124.287 1.33763
3.96819 83.306 -20.6604
-15.9171 81.1667 0.851007
-7.04772 100.952 4.26853
-13.4629 112.067 10.4187
15.1072 91.2671 -7.76156
-10.3665 90.6334 6.96369
-10.0351 141.957 -8.42837
11.5966 122.455 3.64491
-13.8591 95.7168 8.55282
11.4513 133.078 -8.13614
1.3302 134.695 4.16516
-21.0029 105.242 -13.5692
13.9957 77.3447 -5.6849
-19.6247 141.717 -3.548
-12.8457 111.978 10.3719
-8.22736 84.2058 -21.3721
13.2234 131.233 -9.01502
-19.1005 97.8757 -14.4615
23.3725 126.175 -6.6096
10.0073 105.896 5.35324
14.8542 90.6126 -3.94521
15.1487 124.802 -1.42232
-10.7183 142.377 -8.26894
15.2828 122.87 -1.46855
9.65826 136.732 3.60307
6.41388 101.745 5.77126
10.2439 128.79 -7.83513
-4.04259 93.815 5.64828
3.78902 92.1994 4.43755
2.33222 139.64 -7.9722
-0.31592 97.7088 5.541
14.862 139.722 -3.58134
-6.91628 99.9738 3.9356
4.62849 138.215 -10.3936
-10.6177 127.358 8.58268
12.7577 112.597 3.30142
-17.3127 101.012 -15.3066
-16.0128 80.1236 -19.3789
-8.34071 90.6562 -20.3165
-16.342 132.724 6.18903
10.5425 75.7782 -16.2125
8.38644 111.129 6.13468
6.04981 129.807 -13.5296
12.2838 114.724 -4.95022
-4.48599 111.037 -17.656
0.962309 97.7048 -20.6633
-19.8839 134.674 -5.43042
-13.4262 97.3972 -16.3377
17.6825 118.545 -6.11314
21.553 137.771 -0.00237788
12.3424 123.292 -9.56309
-5.47826 147.292 -6.21783
-15.4115 96.6343 10.198
-15.9795 91.0773 -17.6918
8.04161 126.007 2.80271
13.6246 100.418 -7.84628
-14.1479 113.285 -13.9512
3.75651 111.724 2.37282
9.5892 140.315 -10.5412
-9.05903 107.975 8.82086
14.7077 103.39 -5.04083
-18.8361 139.841 5.3359
12.3416 103.258 -9.94848
15.9881 143.109 -2.38564
2.91994 77.6984 -20.9881
13.0411 124.161 -12.9761
20.6711 141.524 -0.590746
13.9854 98.1096 -1.05845
8.21903 132.822 2.3025
12.5701 96.8468 -13.4446
-9.81695 93.5869 -18.8759
-16.6714 92.6355 -16.9692
19.5222 127.791 1.44821
-10.2619 95.1335 4.73681
18.5613 124.076 -8.61343
14.253 96.2955 -0.81775
12.9005 113.275 -11.5068
8.55263 134.192 -11.8874
11.2528 126.235 -3.58947
7.85607 121.903 5.15958
10.4966 84.1184 -15.3675
4.62152 142.671 -8.01862
-4.78556 107.316 3.01272
0.48512 144.334 2.62967
-10.0008 98.0208 4.76725
10.4075 135.551 -11.8434
-4.53222 146.259 1.35396
17.5464 120.984 -2.27811
7.40487 76.4508 -3.39338
0.750515 128.72 -11.4189
10.5779 88.3367 -15.2739
-0.505865 92.2846 -21.0009
-14.8189 91.0486 8.97747
1.63413 153.666 -2.29406
-18.7034 89.1512 -16.1576
14.9706 98.2185 -3.2237
-3.55484 130.224 -9.2884
-11.3699 104.571 10.041
7.72815 78.4492 -18.1085
14.6416 114.677 -0.316301
9.68309 142.534 1.62807
11.0753 130.875 -9.42479
19.4958 126.536 1.70946
-1.36197 78.9282 -1.5104
5.68113 85.3596 0.618923
8.71166 90.4725 -17.6807
0.731733 150.285 -3.99819
12.7929 85.9371 -1.27908
3.91468 122.655 -12.9821
-7.29916 80.503 -21.6932
11.4513 123.251 -6.64621
-1.51397 93.756 6.37754
13.1754 135.814 -5.79832
13.3489 146.01 -1.77921
4.17461 144.41 3.48185
20.8631 139.379 -1.50853
-19.4628 147.12 -1.60122
11.0767 124.801 -2.50011
11.9955 111.543 -14.2979
14.8058 86.1797 -4.93144
2.03546 95.5323 5.63491
-0.632088 124.158 3.96027
-11.2273 91.7758 -19.0301
1.42371 123.605 -13.3971
6.84453 152.694 -3.25864
-2.86975 120.925 -15.1614
-21.5894 135.422 -6.10897
19.9259 127.461 -5.78668
13.7597 132.394 -8.42917
16.148 124.003 -0.275903
-10.2676 127.392 -9.00995
4.57147 123.434 -13.3883
10.0708 106.899 5.50025
13.259 78.1619 -12.7982
-15.4126 105.353 9.95911
-1.89307 129.542 6.81369
13.5802 132.516 1.94913
6.49741 135.897 -10.7786
3.264 95.8476 5.39922
0.857539 133.769 -9.58983
9.03904 127.499 -6.07343
9.67009 105.963 -16.1825
2.49545 87.4006 -20.2568
2.31741 154.25 -1.8132
-4.42374 97.2248 -19.9425
-10.3106 86.8486 -20.2463
-9.8845 86.1011 -20.4772
1.8646 130.598 2.71239
-12.4995 130.335 -9.24071
7.83707 77.8623 -18.2535
11.0346 103.804 3.98234
-15.1194 127.536 -9.87008
-5.10627 142.461 2.1451
10.8699 125.399 -9.2329
19.201 144.618 0.363834
13.5443 95.7111 -10.638
-15.3969 114.513 -13.4476
-7.17396 120.432 -12.1973
-11.1744 141.969 -8.29223
10.3557 88.2713 -15.6172
12.012 152.248 0.50724
11.0253 138.968 -10.6703
17.8713 122.128 -9.97725
-3.30746 81.0983 -0.657357
-12.4611 122.113 -9.88539
13.0965 126.964 1.6704
-16.4128 90.9133 8.78014
-6.97829 111.882 8.24427
5.94542 93.3506 -18.5273
0.48842 144.597 1.84182
-9.01696 135.082 -8.21084
-14.4579 129.799 7.63972
14.1669 121.615 -2.50266
-1.17106 97.9948 -20.9048
-7.02005 101.252 -17.8087
5.53966 142.084 1.9243
11.2616 129.349 -9.61872
11.9906 90.4162 -12.7782
8.16832 142.108 -9.55089
-4.7237 82.4531 0.0807682
-10.8089 99.8672 6.19863
10.7189 117.529 -10.4716
-1.90411 90.3922 5.2052
18.5999 131.804 -6.0894
-18.4964 147.622 -1.28081
14.8177 81.8717 -5.02944
-10.7283 78.2375 -21.066
-8.95938 152.902 -1.94999
16.0593 118.215 -7.81068
-21.7282 121.779 -10.3434
19.2989 126.304 2.10104
17.7776 145.985 1.70596
5.99948 85.6783 0.712468
-1.05414 109.01 2.21856
19.0288 133.102 2.34721
12.1914 121.976 -11.0203
-11.139 145.972 -6.95595
1.93358 132.707 3.6561
8.62628 103.8 -16.9061
11.5164 116.735 -13.7721
14.6729 101.264 -3.43327
15.5404 129.981 -7.85733
14.9904 94.543 -7.42927
11.0223 132.976 -13.0519
-12.0188 102.346 9.91588
12.9706 138.6 -6.81027
1.10322 122.848 -13.9921
14.7386 97.2941 -7.53296
14.9567 106.001 -0.10758
-15.3028 119.327 9.99635
-5.73645 88.199 4.92448
14.4749 113.931 -0.666018
15.3096 81.874 -7.55137
-9.07804 111.539 -16.0036
-12.2839 129.985 8.42421
-14.4853 127.546 -9.92846
-16.0258 148.54 2.94232
9.841 98.829 4.03439
7.60986 119.497 5.24607
-12.1279 127.847 -9.73527
11.3331 102.97 3.79914
-14.4846 133.758 6.05902
-4.66749 127.42 7.97405
-15.404 83.0285 1.45812
9.63818 134.354 -11.9566
6.60242 80.9514 -0.630409
10.4888 79.9655 -2.73502
-9.73633 103.296 -17.4824
-2.15447 119.239 -15.5152
16.2506 128.098 -7.39708
13.9802 135.303 -7.93767
16.6836 134.865 -7.82436
9.47332 95.2287 3.373
5.26836 110.873 -17.0184
11.0262 120.996 -12.9707
7.91545 127.499 2.42978
2.30856 79.4631 -0.773219
5.5512 107.455 4.78774
-11.5038 147.904 -6.35753
-4.24751 127.168 -10.4319
-3.26758 86.7942 -21.4949
23.6319 126.987 -3.49157
-7.67838 139.976 -7.86893
-8.03197 131.831 -7.84419
8.97886 151.355 -3.7029
-18.7832 89.4504 -16.1226
-11.4598 113.976 -13.1351
-9.81093 142.952 -8.11171
11.2251 110.757 4.61941
3.7623 111.502 -17.9049
-8.3104 86.5314 -20.958
13.9345 89.3462 -2.34359
-11.3592 130.599 7.20123
-13.0957 105.083 10.1185
9.18868 77.5288 -17.8214
-4.48854 111.584 3.77421
5.52239 152.712 -3.16894
5.51003 141.6 1.97463
-0.140321 83.2914 0.673749
4.63172 143.928 2.6989
8.43307 135.29 -11.3685
22.5921 134.93 -0.39657
9.30884 84.3412 -17.125
13.0361 86.3254 -1.44134
-8.26771 90.8524 6.19554
17.2 124.841 -9.48799
5.51435 117.859 -15.7793
6.77648 106.497 5.52326
12.3513 106.358 2.76245
13.0943 113.055 -10.4289
-1.91976 92.6898 6.20837
8.10252 130.245 2.12657
9.71989 140.891 -10.0909
0.552592 81.7692 -21.7394
2.9475 83.1282 -21.1363
-19.6142 119.85 -11.2044
11.3266 151.27 -0.572413
8.87177 141.076 -10.0212
10.1299 80.8286 -2.11619
-17.7973 111.096 -13.3759
-19.3695 101.955 -14.5417
-20.8815 141.966 -3.16271
-2.0336 116.724 2.68977
-4.25553 87.0939 3.2887
-11.8505 134.375 -9.69535
-15.8977 114.936 -13.1786
-10.0623 126.899 -9.09747
-15.6743 79.1274 -19.5688
20.7749 134.755 -2.41726
10.4315 118.898 -12.6448
-9.56515 108.5 -17.696
-14.9561 86.3941 4.26582
21.6894 120.427 -0.680298
12.1638 110.183 3.30665
-15.3528 123.724 9.54862
-12.7106 116.277 10.0972
-17.933 127.628 8.88343
8.11054 151.303 1.6756
14.7836 92.6296 -2.55234
-3.1151 137.043 5.28164
-2.14725 85.2379 1.30131
-17.7669 123.158 9.52373
-16.8279 83.6704 -18.0733
12.23 121.271 -11.4796
18.6138 121.205 -10.489
-18.7595 150.187 0.455382
7.20798 113.226 -16.8428
11.0016 123.999 -7.55828
17.3472 141.564 3.87014
-14.0851 143.524 2.40738
-17.3074 130.22 6.77929
-19.0027 123.441 -10.4056
-17.1094 91.3498 10.974
-9.8405 130.208 7.00046
12.1636 144.861 3.13799
1.40624 139.269 -7.62282
16.6719 141.185 -3.70978
19.0313 141.034 -2.29921
8.66147 108.484 -15.9091
15.8799 118.016 -8.11409
-8.64504 81.2289 -21.5423
-10.2794 114.86 -12.8112
6.29356 139.343 1.26447
15.0061 126.602 -1.11847
4.94744 104.563 -18.7113
-17.863 132.128 -8.27345
-3.72401 79.0332 -1.06485
10.2155 105.885 -15.8928
-14.1844 142.319 -6.75242
19.7319 125.69 1.56952
-5.53575 92.0894 6.23803
12.3136 100.051 -13.1159
11.7052 126.077 -10.1618
8.45743 93.3851 3.04305
11.3233 91.5424 1.20374
-0.622865 89.9937 3.82581
11.0038 75.3715 -15.741
-9.92556 147.565 1.34362
13.8242 120.617 -6.58013
-13.8435 149.161 -4.12465
-9.9585 95.3395 4.67077
12.1252 122.378 -5.99089
10.4248 121.418 -11.3472
12.8892 129.705 -8.25451
-0.327851 86.7052 1.97157
11.1825 132.058 -6.93307
21.7661 126.502 -7.40734
11.823 127.935 -8.36961
6.874 149.447 -5.37887
3.07197 143.513 4.56986
15.8853 139.694 -4.30287
13.0979 93.7706 -11.038
-20.1616 92.9306 -15.7332
8.6525 113.514 -16.3534
9.64692 146.543 1.07098
13.6464 85.1026 -2.76986
-8.93759 154.042 1.03222
3.7802 112.709 2.26342
-7.04088 131.937 7.38935
3.7154 118.827 -16.2974
-14.3546 142.832 2.79104
1.59316 87.4889 -20.5129
19.4696 127.585 1.55822
0.919794 110.453 2.1374
8.41536 132.054 4.39602
-2.95643 101.881 2.96757
12.2756 83.9896 -1.95227
7.33905 83.4442 0.225244
14.0093 120.675 -4.47335
12.468 91.4472 -11.6012
-8.04773 101.236 -17.4658
-4.80878 80.4652 -1.41298
-12.4038 90.8464 -18.8817
-13.8287 148.786 -4.2639
10.91 126.598 -3.18406
5.11499 101.242 -18.9626
-13.0009 143.586 2.17831
20.2165 129.38 -5.41267
1.55405 153.382 -2.55546
8.14689 86.8957 1.15438
-0.863124 139.959 -5.9183
16.7079 139.963 -4.60429
12.6122 133.074 2.7427
7.04952 100.121 5.21397
13.7131 128.59 -1.13907
-14.3235 129.486 -10.0713
-19.0633 128.781 -8.42452
5.2977 102.697 5.84281
7.29439 134.008 0.865758
14.9097 87.5151 -8.51151
-16.5637 110.937 9.61516
-18.1378 142.078 4.50833
-16.8254 108.709 -14.8845
-13.7327 132.647 7.11295
-3.47643 125.086 7.66111
11.2999 88.4664 0.711848
-7.19521 143.534 -7.58512
7.26245 75.4386 -3.81642
0.451135 96.9704 -20.7862
9.49774 95.2315 3.35273
-6.09385 142.46 -7.14081
-8.45074 103.106 5.07364
10.3032 76.3842 -5.28882
13.7266 114.829 -3.37064
15.3414 110.522 -2.33939
-3.96461 139.069 4.09154
3.70157 145.479 4.20045
-12.2847 129.642 8.60258
-20.0107 135.893 -4.18849
-0.99621 118.015 2.25596
-6.7863 103.61 -18.4507
13.6005 98.6377 -10.6386
-13.5749 105.701 10.1931
10.5687 129.461 -13.9739
-16.6132 93.3843 10.5307
0.308646 91.6226 4.68542
10.3452 101.865 -15.8943
4.29361 90.6633 -19.7285
-2.05986 107.802 -19.0641
12.8546 139.259 -5.17232
13.6959 92.9249 -9.91105
-2.45039 105.073 2.55376
-1.60793 108.85 -19.1223
-9.20245 126.989 -8.72235
13.7974 112.47 -4.85947
15.1189 94.2932 -3.53775
-8.6368 102.456 5.07975
-20.3743 142.344 -3.02474
-15.0694 143.451 3.10357
9.3585 124.056 -14.4521
-13.8265 84.009 -19.2041
-10.4034 89.7167 -19.6818
0.0296129 98.8987 5.13421
11.6107 126.868 -10.952
11.6043 123.624 2.85427
-14.2073 84.7309 -18.8629
-4.29405 77.7769 -22.1516
11.2314 124.047 -9.83651
8.56744 126.093 -14.8863
13.6285 79.2115 -12.2881
-17.073 102.957 -14.9989
-5.11256 94.5894 -20.2558
10.0293 125.495 -8.09107
12.4818 142.651 -5.39669
-13.6913 83.9679 0.333695
-9.68391 102.412 6.88251
-13.7581 94.0601 7.06549
14.3882 135.924 2.83765
0.415489 139.156 -6.59959
-12.233 147.203 1.52494
-8.92282 96.2051 4.4497
-4.42987 98.4322 3.57593
2.26516 152.557 -3.33245
-19.5761 135.237 -5.05278
13.5413 143.695 -2.08119
10.0907 125.82 4.10337
9.42867 145.598 1.02724
15.1963 124.408 -1.01053
12.0444 127.57 -10.631
-14.2162 92.5624 -17.6721
8.06416 128.898 4.52767
10.2238 79.4375 -16.4603
-7.94031 80.8979 -1.4276
8.12254 133.303 1.63039
5.92797 123.51 1.58287
7.53146 137.423 0.772059
11.4339 102.087 -14.0214
10.5469 108.475 -15.2041
-21.1265 120.424 -10.8879
-1.49172 123.383 5.11156
-3.82518 119.501 6.85807
14.1129 115.806 -1.47081
14.288 119.648 -8.17509
20.4408 134.552 -3.65822
-16.3363 88.5554 8.68351
-4.86406 129.461 8.12821
10.9344 140.891 -9.68408
12.1265 90.3858 -12.0494
0.447295 121.558 1.96685
2.51544 115.188 -16.858
5.61146 127.106 -13.9101
-9.53653 92.3627 5.60439
2.61989 102.873 4.11188
20.6515 120.763 -2.40343
13.4052 77.5004 -6.76198
9.29319 125.603 5.27841
7.65793 149.42 -5.54318
11.6092 113.531 4.38063
-12.4479 94.2993 5.71032
1.71746 98.5562 5.95684
1.75203 134.087 3.46283
-13.2779 134.921 -10.6946
-2.34688 119.94 4.3223
3.21432 79.6988 -20.8097
-1.55695 148.235 -4.87614
0.245119 120.332 -15.7462
-3.31572 128.323 -10.5194
14.5459 80.1537 -10.0133
13.956 134.429 -6.29938
14.8369 103.515 -0.732838
-5.81561 136.358 -6.79816
-13.1457 83.8241 -19.635
-13.8554 142.567 -6.79726
12.2526 136.661 3.35597
7.20364 135.861 -10.8914
11.3962 127.752 3.10584
-1.75833 82.2287 0.258381
-16.0492 100.779 11.7149
7.6789 88.9411 2.14759
13.2585 97.8595 -11.572
13.2128 97.2485 1.17614
-12.0865 128.803 -9.55515
-7.38785 120.011 -12.2094
9.10743 89.04 -17.7825
4.71062 140.612 -9.25086
-0.327159 131.592 -10.3116
15.1949 123.157 -0.934575
11.7568 95.5501 2.10982
-7.83797 145.509 -7.34572
-21.5553 77.4294 -16.4835
-15.49 134.617 -9.16676
2.65742 140.566 4.86869
16.8673 146.791 0.939132
11.7384 126.169 -10.1814
-6.08505 88.5574 -21.1569
-13.2214 86.7099 1.82339
23.9363 131.34 -2.56562
5.30937 145.188 2.1794
11.8671 114.415 -10.3437
9.95829 129.805 -14.0576
-5.75673 93.8492 -20.3445
7.95933 135.263 1.27236
-7.99315 83.2139 0.0951905
12.1428 123.553 -8.35981
13.6117 93.603 -0.241964
-16.8953 108.857 -14.8386
23.4005 127.368 -3.57439
-20.5908 127.017 -9.01957
12.8496 107.789 -8.84482
-16.5157 94.6806 10.5474
12.6313 87.1447 -11.3844
8.66033 154.08 1.9879
-16.8219 151.784 0.815638
2.9634 83.7461 0.459991
-4.16235 138.21 4.65327
17.5232 139.572 -4.09398
-18.5907 113.708 -13.4589
10.5572 92.5059 -15.9512
12.5887 137.133 -10.4825
10.493 127.984 -6.99157
5.41315 86.9626 1.24476
-11.3502 119.845 -10.7468
8.26786 129.082 4.55426
11.1655 132.736 -7.47428
14.4402 127.63 -1.77576
-11.0404 123.904 -9.66055
14.5642 147.309 3.08358
-19.3954 149.177 -0.241542
-6.38549 113.384 -16.4175
-2.16465 90.307 5.29952
-15.0067 90.7858 8.80087
-21.1628 90.9676 -14.2989
-11.6473 139.733 3.66236
-20.8864 82.3147 -16.1384
-7.01468 86.8431 3.43748
10.5484 129.363 -13.9883
-9.78271 145.469 -7.50203
10.0847 93.5649 -16.2187
21.8289 128.227 -5.47028
14.4763 98.3139 -7.11544
-1.79435 80.0786 -1.22718
-2.97044 109.411 -18.8496
-0.184475 90.9344 -21.0957
6.5345 108.798 5.27382
-3.45314 111.429 2.71409
23.484 128.405 -6.08268
0.82427 135.441 -8.27966
-1.28144 76.4647 -22.5364
-14.6295 88.3042 -18.5451
0.472027 86.9942 2.09072
-0.745257 86.4859 -21.3584
11.5683 86.082 -13.723
18.2907 129.779 -6.86783
10.4786 143.155 2.54726
-10.7302 134.965 -9.13401
-10.3525 94.0847 -18.3259
4.68894 110.768 -17.267
-16.8248 90.6646 -17.6169
22.0679 120.953 -3.55215
14.3786 86.2536 -3.86633
14.6517 126.967 -1.56532
2.39236 96.6258 5.87332
12.8538 144.84 3.48183
-1.43612 109.803 2.12975
-12.0117 100.538 8.25221
13.5706 105.193 -6.52555
-7.18924 141.322 -7.60838
0.45071 98.6628 -20.7567
15.0614 145.981 -0.465223
18.9604 122.807 -9.06047
14.82 132.942 1.46983
-12.1753 132.159 6.92905
-17.0151 89.7591 -17.812
8.07337 83.3602 -18.3782
14.4872 114.807 0.518847
12.3716 133.369 -7.48765
-18.5066 127.38 -10.0889
17.727 140.491 -3.21318
14.83 91.6363 -2.7425
9.82892 141.972 -9.51097
10.135 99.2944 -15.5354
-18.455 139.856 -3.86328
-19.8781 81.231 -16.831
-5.63619 109.31 4.19729
7.88214 105.14 6.04705
10.514 122.642 -14.2372
15.2176 93.8796 -4.36479
10.5269 125.19 -12.4031
-9.13319 144.413 2.2839
-18.7302 89.657 -16.1824
0.934654 135.281 5.23401
15.8159 142.162 3.94842
-14.8142 100.43 11.3218
6.97428 98.6457 -17.7955
14.6893 105.249 -1.85055
-1.74926 145.202 1.57372
-4.23433 136.509 5.68055
-12.1009 122.681 -9.71837
7.69211 127.155 -14.6812
14.1826 122.014 -2.44384
-15.2767 84.6698 5.27161
1.16591 135.168 -8.86175
-12.2499 120.632 9.95505
-5.38068 149.019 -5.74961
-21.0282 78.91 -16.8003
-7.99298 100.783 -17.4648
-18.9646 120.63 -11.2192
11.5457 125.297 -2.8234
12.2377 114.039 -10.4131
-19.3963 125.362 -9.93691
6.47929 81.7576 -0.228603
13.982 98.7534 -8.63153
-16.7961 98.4586 -14.8788
-11.6407 129.009 -9.2821
12.2331 127.944 2.32257
-5.9853 115.515 -16.1651
7.31329 137.239 0.731198
4.12467 126.542 0.964986
-2.32251 93.9471 -21.3304
9.26777 140.182 1.57875
18.7774 143.711 2.15478
9.98843 128.757 -14.283
-13.4817 101.383 -15.6597
-8.97462 104.846 8.07988
-12.7661 149.724 2.63879
4.89629 83.34 -0.100395
5.31981 94.1202 -18.8573
9.54771 153.604 1.15985
-13.7709 82.6934 0.0721764
13.7323 95.2381 -9.82453
11.3748 133.374 -12.8382
-5.08464 110.047 3.86984
-4.41154 103.235 3.12763
-9.50298 101.757 -17.249
-13.8872 143.862 -6.2221
-4.35142 145.036 -6.15127
-19.3494 103.636 -14.5304
8.05601 136.721 -10.8983
12.0007 126.224 -8.79805
-3.84575 80.3524 -22.0026
10.5799 138.923 3.95603
4.55298 83.7467 0.0984405
7.60836 89.7505 2.55694
-20.1342 132.859 -5.92612
12.3317 109.89 -11.592
2.00093 133.134 3.32299
-13.6499 110.725 10.4167
18.2626 143.731 -1.27258
19.5978 123.412 -9.19692
8.88497 133.551 4.41788
9.89805 92.0095 2.34675
-20.1902 149.884 3.02394
-9.29805 101.407 -17.1976
11.1457 102.778 3.92503
-4.89007 79.0125 -0.839249
1.92469 126.593 -11.7451
-1.37595 81.5732 -0.0263938
4.71984 154.311 -1.97517
-2.80963 148.598 -5.18639
13.0796 87.2593 -1.49077
18.2134 125.608 1.55069
10.0365 85.1297 0.101846
13.9099 90.0599 -9.60638
1.2997 88.6516 2.51447
-1.66174 136.873 5.28321
-21.1049 130.187 -4.43463
15.644 79.7584 -6.84663
-9.58778 129.621 7.16461
11.0034 139.143 -10.4117
-0.669899 146.651 -4.62152
-18.9554 150.609 2.82163
13.7291 114.717 -3.11687
-19.6995 118.251 -12.0643
-5.44271 132.403 7.49338
15.3523 134.344 -7.75935
-10.4538 130.19 7.18747
0.278486 83.051 0.568266
13.3039 83.9571 -2.40235
12.4722 135.714 3.07457
12.6295 107.804 -9.52113
-2.74309 118.389 -15.9125
5.37686 119.61 1.91328
-7.33015 100.026 4.16806
9.71025 134.338 -11.9699
20.5907 138.102 -2.50445
9.66181 128.802 -8.1187
11.9186 115.738 -6.48895
-15.3693 95.6986 -16.0961
4.01304 133.808 1.99553
16.7964 130.579 -7.43493
-13.6842 136.731 4.10615
-12.7284 104.893 -16.0524
11.9909 76.2483 -12.8861
13.0124 138.524 -6.40157
-19.983 128.332 -8.17493
11.051 130.343 -6.47732
16.9801 123.287 -0.565271
-3.29934 151.854 -3.81806
-1.27776 135.79 5.95158
23.9433 122.865 -5.81024
18.0349 127.166 -6.66673
3.12933 137.944 2.85943
-21.8963 108.931 -12.0785
-9.76579 109.656 -17.2228
11.5361 102.241 -13.7626
13.2918 121.647 -9.44341
14.7879 149.501 0.769812
-3.6796 144.476 -5.85911
12.5831 124.075 -7.91817
-8.44186 128.406 7.45641
-11.2292 131.119 6.8996
2.17703 79.4011 -0.775119
-9.21977 134.477 6.06077
-3.08712 120.353 -15.2923
11.2961 123.914 -9.75999
12.2073 80.873 -14.3515
-17.474 129.124 7.889
-5.48622 97.4345 -19.3409
6.28088 116.743 3.57619
22.591 129.796 -4.85655
11.3657 103.748 -14.9846
8.71078 100.177 4.85422
-10.5135 143.073 2.82751
-13.9099 90.0502 -18.4524
0.717809 107.709 2.47435
12.794 107.415 2.32729
14.2038 111.406 -9.03828
2.86306 85.2581 -20.5067
-17.6297 106.36 -14.1617
15.1521 139.821 -3.60566
7.42515 118.029 -14.2426
21.0278 132.008 1.15307
22.2295 121.916 -2.88509
-3.16808 83.3237 0.542046
-2.23303 87.8614 -21.6689
-4.77534 140.9 3.09655
-20.9369 125.234 -9.5997
1.40794 114.727 -16.5803
15.0544 148.484 1.77196
13.0849 150.623 1.21043
-3.47659 106.921 2.54953
21.9038 121.269 -3.17224
3.17118 102.828 -19.8422
12.2791 149.158 -1.32561
18.8885 121.845 -1.70098
12.7916 82.7344 -12.3501
-8.33524 145.165 1.54698
5.53628 153.74 -1.99857
17.5958 130.484 -7.02936
12.3226 141.134 -6.00396
18.5206 139.627 -3.34841
-2.08083 77.2876 -1.21522
-5.62221 134.859 -6.89038
11.9649 114.857 -5.31136
5.03738 83.1977 -0.0973898
-17.0157 98.461 11.969
19.1108 121.853 -1.7434
-6.31421 141.888 -7.23952
3.10259 107.043 2.97591
-12.5276 109.474 10.0804
12.9263 139.133 3.96631
14.6487 112.541 0.975273
-17.9425 124.195 -10.4793
9.74498 123.527 5.07198
3.49424 89.8123 2.78372
11.7682 114.606 -10.7239
-20.2177 126.165 -9.70455
-1.17098 86.4494 1.79592
12.0803 142.686 3.2953
6.97291 99.0462 -17.7996
14.2011 137.424 3.34042
3.47328 91.445 3.88787
10.4366 119.441 -14.8114
-14.7487 97.4962 10.658
21.5397 120.651 -0.376478
-17.1627 127.976 8.89799
3.41646 78.4832 -20.5411
11.1908 127.517 -3.87825
-11.843 149.615 2.64177
13.5193 144.953 -1.83795
-8.09931 91.0176 6.43693
-5.23972 92.854 -20.9229
0.698867 121.547 1.89329
0.371413 79.1785 -22.0856
11.9656 77.6121 -5.17053
2.35401 115.184 -16.7891
20.3039 134.171 -4.02934
13.8116 80.0992 -4.33888
4.07742 111.34 -17.6848
-15.318 86.7 4.68241
3.75638 136.877 2.103
10.9267 132.456 -7.3881
14.9865 89 -6.31737
-19.0691 134.096 4.34967
-6.34066 79.3751 -21.744
-17.1152 150.359 -0.62549
-5.84977 107.656 3.82018
11.5502 130.123 -9.54791
-4.43118 103.371 3.11127
21.2024 137.601 -0.970278
2.85635 89.8997 -20.3114
14.9921 109.476 -4.19426
13.295 84.7741 -2.10363
13.6543 104.983 -6.53232
-11.5405 138.571 3.82077
-11.6051 98.7066 -16.3938
14.9715 78.6613 -6.0534
1.7222 76.8787 -1.22973
-17.5838 128.564 8.73326
10.7464 91.8418 -15.9017
-14.432 123.931 -9.58851
19.7025 132.824 2.31523
11.2487 90.6804 -15.501
-0.350589 124.968 3.86947
-17.9809 88.6752 -17.0688
3.85844 120.353 -15.5384
14.0403 97.1651 -0.618475
-15.1099 136.857 4.35099
13.1981 90.0052 -10.5149
2.50998 117.356 1.4658
13.5337 106.144 -5.20377
13.0889 132.839 -7.44445
10.8736 127.834 -7.83725
13.7814 116.077 2.39152
13.1161 124.61 -12.6991
-10.3047 150.234 -5.61525
-15.5216 129.9 7.45861
-1.09143 117.902 2.29874
-21.6697 97.8724 -14.1569
9.85495 125.846 -11.1033
-14.5594 136.058 4.56918
-16.114 100.531 -15.2899
-15.018 104.17 -14.9697
-1.44785 90.4641 -21.4609
-3.79331 86.452 2.45018
13.0196 138.087 -4.64435
21.3875 140.15 -0.0461657
10.9467 130.291 -9.03038
-4.43922 82.153 -21.7851
-2.0669 110.83 2.17882
11.8065 89.6973 -13.3218
7.2134 89.02 -18.2975
15.7048 121.756 -2.24977
-9.84411 108.428 9.15301
19.8254 143.912 0.183763
-7.0392 138.458 -7.80762
-12.1726 95.7771 -17.3344
20.2765 137.54 -3.2693
-18.6355 137.227 4.43351
-2.05476 122.152 -14.8108
