ply
format ascii 1.0
comment Created by Open3D
element vertex 1937
property double x
property double y
property double z
end_header
4.64745 141.342 -4.85829
26.2518 99.7733 8.58445
-9.43827 129.632 -8.49077
-15.0726 127.019 6.94291
19.7933 126.472 4.3159
-24.0215 119.351 0.885615
7.59358 123.15 -6.02653
18.9029 128.796 4.50659
-8.62856 120.029 10.5119
-6.43778 86.6023 -9.9664
-10.2398 137.629 4.60506
-23.8705 133.08 5.13443
-12.9813 135.38 -6.64018
-17.9811 80.2285 -1.1948
8.17838 88.8243 6.36925
-16.5409 125.354 7.09254
10.029 82.531 1.96171
30.7298 91.2481 5.7914
4.27164 105.356 8.86476
-16.1823 129.603 -2.70089
26.2428 129.773 -1.82219
11.1948 82.766 -6.65615
26.2687 84.2075 -3.52163
12.0827 81.7592 1.73877
-22.2901 132.078 0.552078
-21.7757 119.249 0.0842715
-9.07675 141.092 -6.73144
-15.7463 120.452 3.47207
-23.2345 75.8537 -7.60983
-19.1271 120.42 -1.63736
-22.4537 122.29 -1.28302
-6.55817 111.847 -10.6876
19.0259 131.373 2.87386
-17.3332 121.727 -3.39662
17.2366 147.426 -3.69763
-0.230202 143.029 -3.13033
-20.208 76.8032 -5.21717
17.6135 106.027 5.60003
23.6837 112.316 -2.89641
-9.42103 131.011 -9.02484
-22.1398 135.44 -0.0389319
22.3224 115.367 7.61952
-8.88474 84.391 2.74209
23.7302 107.96 -2.90381
-21.8747 120.862 6.34014
-2.76544 128.529 7.32072
24.5942 112.465 -1.53155
25.681 80.504 -3.61449
12.2223 88.6823 7.29543
31.9869 83.3591 3.93509
-13.6578 143.362 -3.44909
-15.7039 80.0441 -8.59336
25.4618 92.4668 -3.58183
27.5981 99.6047 -2.66621
22.7759 146.312 0.197132
-11.1938 123.04 9.45827
-4.66994 140.871 -5.22243
-16.4942 121.838 -1.34203
-19.5999 89.6336 -3.06592
-24.7459 128.842 2.23351
30.4927 86.8309 0.253821
-8.22097 136.315 3.47765
23.6445 136.665 3.08936
23.9673 81.2381 -4.08499
-19.3285 142.117 4.66105
-10.7545 144.094 -5.13173
-14.5286 102.65 6.18449
27.7862 106.593 2.88522
20.3329 131.16 1.47892
22.6454 122.071 -3.62632
-12.8792 88.3696 -10.5648
-13.8047 101.851 -12.0035
16.1952 117.612 4.19092
-15.6398 128.924 6.81134
-21.7122 118.587 0.78668
22.7041 108.336 -3.62637
-21.535 84.8999 -5.18003
3.92171 89.0307 7.51483
-13.3798 87.2325 -10.5428
21.3319 90.4083 7.11256
2.92171 123.016 -7.24985
-10.1339 110.787 10.0009
17.0489 145.654 3.99891
-3.61341 149.083 -2.92628
-16.7728 119.614 0.263227
-22.3751 123.607 -1.85962
-25.319 117.292 1.61699
-7.74442 143.762 2.88107
-11.8643 96.669 -11.8269
12.8597 91.3728 7.09288
21.9573 107.217 9.64597
3.41279 122.569 8.03924
26.6337 122.662 -0.926603
9.94729 107.752 4.03246
-3.53427 154.236 -1.78861
-18.3306 126.424 7.777
-16.4812 145.561 1.76577
5.94742 142.04 2.81205
-5.46622 90.8269 -10.3696
1.03435 115.472 9.80511
-7.77666 153.69 0.318697
-7.29038 124.755 -9.05309
-7.80609 80.0988 1.39548
-24.8248 127.622 1.33599
12.0021 88.561 7.12105
-11.1616 77.8927 -1.08886
31.2035 95.6029 0.739801
-18.2351 76.2514 -5.23975
0.187557 150.128 -2.77508
24.5444 141.209 1.66862
-21.4373 87.4328 -7.5987
7.53283 103.149 6.72982
-21.512 126.927 -3.5286
20.3716 147.228 -2.13584
15.7734 128.039 7.27614
-0.510358 87.654 -8.99452
-3.98197 138.823 2.0646
-13.1774 128.587 -8.80675
21.4731 91.439 -4.05658
15.8264 125.855 6.05753
9.73648 140.197 1.66487
-19.6253 101.05 -8.204
-22.0733 138.078 4.81832
-16.1551 130.668 7.32921
0.789696 136.993 2.26102
25.8486 134.893 -2.84126
-21.9718 124.134 -2.2834
21.7313 124.513 -1.39518
21.7428 95.626 8.76347
-14.4795 120.938 -2.10308
-16.0474 120.307 -1.64491
-3.41874 101.968 8.35591
-4.06519 137.88 2.55935
11.8165 80.2732 -5.4444
-15.7985 127.926 -2.67314
26.8144 84.5781 3.72996
-21.4677 79.1564 -8.30407
26.6101 104.32 7.76619
-8.03665 131.249 -8.69226
13.5204 148.96 -4.83212
5.96835 143.987 -5.27205
35.408 84.1375 2.67991
-16.6291 121.011 -3.34442
10.3611 88.7251 7.42422
-5.9601 81.4442 -9.10295
-19.4445 125.928 -4.39593
-14.8924 146.082 4.51649
6.54672 112.027 6.93781
1.71281 113.05 9.68046
-10.6485 143.434 4.18791
14.4202 122.361 2.54413
22.1388 82.08 4.02027
7.10326 100.792 6.97817
-7.00455 88.9869 3.75768
-6.23082 141.233 -6.35863
-14.6474 90.6543 2.20272
13.1613 106.661 3.7294
27.118 79.1096 -2.56989
26.9295 92.3242 8.00715
-10.2307 119.782 10.4228
7.61035 134.327 3.23741
9.02587 114.708 3.55596
3.903 152.07 -3.27297
2.68403 152.377 -3.01192
12.6219 86.4628 5.07404
5.53995 75.197 0.784551
-26.8522 126.965 6.59179
-16.9982 127.632 -3.40608
22.7468 104.806 9.51207
-20.1259 129.893 6.9568
-16.5824 132.808 -3.75783
22.7431 142.746 2.75803
-17.6786 91.3609 -9.54944
-18.5037 90.7275 -1.25104
25.9602 135.644 -0.120796
-6.13317 91.1914 -10.3111
-21.6092 78.8438 -4.13234
-2.23351 140.167 -3.80548
-4.67634 79.7523 0.923132
4.22701 77.7815 0.13403
-9.76328 122.212 10.3857
-14.7885 125.342 5.37942
-18.1453 85.9826 -0.927683
17.2165 116.528 6.72273
15.2283 117.849 3.37461
15.8094 125.913 5.63812
5.32072 86.675 6.15422
-21.9087 125.193 -2.65496
-11.9417 83.8756 -9.47247
-5.27706 135.626 -6.06019
-20.6423 85.0861 -8.74321
7.65996 123.298 3.59389
-4.33129 92.8481 7.05509
0.595512 115.692 9.88203
-14.208 112.899 2.59007
20.7468 123.072 -3.43275
9.15337 115.85 3.29973
23.7436 141.582 2.46464
-20.0286 104.552 -6.33805
-3.64578 141.936 -4.23598
-2.77963 78.1819 0.168474
6.03426 95.2829 7.43336
13.0071 143.734 1.81483
-9.96185 112.848 10.5729
20.3106 124.052 6.95499
24.0452 96.0925 8.51173
21.2675 124.539 -2.3853
3.80951 148.524 -3.90769
28.0025 124.715 -2.22392
-19.2051 99.3611 -8.58725
-15.4758 92.1469 -10.7462
14.0885 147.191 3.1172
22.3403 104.742 -4.91599
-14.2065 90.6369 2.63201
3.26932 112.231 9.35347
0.530653 104.74 9.36186
1.86401 135.864 3.24038
17.8617 111.233 6.03693
-16.1291 125.127 5.44995
-17.0082 126.167 -3.84589
17.3585 82.8551 -5.25494
-20.3082 90.2846 -8.60272
-8.27566 98.7689 -11.6531
17.915 110.79 5.98099
21.1189 121.947 4.65185
6.32032 141.556 -5.69179
9.7028 128.502 1.87262
-16.2806 128.774 -3.28414
-3.95005 89.1518 -9.95327
29.5861 87.9437 -1.73296
-2.59228 108.411 10.4947
11.4855 80.1853 -5.4863
7.56849 147.424 1.36749
-17.8856 78.7767 -8.81535
-3.03091 132.741 5.06486
-11.5104 83.9137 1.6996
-26.7956 129.105 4.78198
24.3784 88.6276 7.15316
20.8718 122.257 7.50013
-4.75061 146.592 -4.15995
17.6035 126.497 6.24118
29.7781 100.772 3.37514
-13.5066 116.808 9.43864
-17.7613 103.261 2.52656
23.9389 104.273 9.19453
17.238 82.4174 2.99106
-10.7068 94.7559 4.76368
17.6284 130.51 -4.96908
27.8943 129.965 -2.55048
21.3435 129.463 0.874032
-24.4365 125.472 6.92334
-16.0008 133.212 -3.46622
9.63929 104.269 4.87658
23.4893 91.7734 -3.81107
25.9989 121.506 -3.01071
22.8391 111.661 8.44497
17.2659 127.832 5.78466
-8.1368 80.4897 -8.69155
-28.4704 121.486 3.46255
-11.0706 89.6729 2.3492
-9.00196 137.38 -7.69987
20.8574 97.38 8.75842
11.9362 82.6559 2.19985
-19.3936 112.103 -3.70623
-19.2493 78.3356 -8.65319
8.59945 89.1998 -8.55819
23.7992 97.8275 8.45248
0.851523 79.1251 -7.17487
3.66821 136.652 3.27053
-6.71432 135.427 4.0853
-12.5867 147.429 -1.45968
9.58774 125.891 2.08054
-2.37747 93.8175 -10.5756
2.99084 153.585 -2.56488
-17.9528 105.163 0.864161
2.51668 112.54 9.54636
-15.5452 114.071 -8.41221
7.67488 141.352 1.70229
24.0246 142.169 1.40919
9.40781 84.8189 -7.32149
28.0542 125.221 -2.8248
23.7287 110.799 7.76895
23.686 134.571 3.06002
-8.17914 153.125 0.318465
21.2652 107.581 8.9898
7.67089 119.452 4.05841
6.49154 104.158 7.57005
-19.7955 141.173 4.86285
26.4323 135.851 -2.00215
10.2092 108.32 3.77947
-17.1056 127.639 -3.89049
-15.4221 120.075 -1.00293
30.9392 88.1459 -0.595894
-13.2893 76.7071 -8.21204
24.3128 142.099 -1.17037
-25.4765 128.043 1.8713
7.68662 114.778 5.01955
-16.3109 94.1146 2.34414
14.1312 80.6826 1.54009
-12.6561 148.753 0.425987
25.6665 104.618 8.48278
-12.619 92.6907 2.58089
10.4753 97.2044 5.16457
-11.2272 145.936 4.36559
26.7263 134.088 -2.26947
-19.6946 128.088 7.6062
-14.1153 108.953 -11.2694
-16.4793 127.63 -3.25146
24.2444 102.866 8.93753
-13.8736 133.068 -5.80288
-8.99198 140.327 3.69407
9.72071 154.538 0.942958
2.78898 153.565 -2.55428
-18.5234 114.005 -4.38836
-29.7557 120.504 6.43849
11.9089 124.222 1.78154
-7.74606 76.1882 -1.17542
-3.51683 140.253 -4.3743
14.4823 138.431 5.34991
-12.828 80.4091 -9.01983
8.66761 115.678 3.74162
20.4349 118.075 8.89981
9.96327 90.7951 6.13384
28.5138 99.6847 7.03939
2.43742 129.01 7.58259
-9.61647 100.71 -11.7609
-12.4157 83.9717 -9.66553
0.433721 75.9818 -6.30561
-0.637316 139.408 0.447361
10.494 81.9676 1.72243
-22.7611 123.005 -1.42128
15.1866 95.1418 7.32228
-15.0449 120.307 8.32637
19.1679 97.7242 8.87028
12.9485 115.198 2.67758
15.6153 132.739 5.67544
15.0201 138.338 5.49033
-7.01291 103.905 9.10679
-16.783 122.04 4.23857
-5.4106 124.072 -7.57032
25.9266 131.562 -1.12005
12.714 144.873 1.27798
-7.77066 128.991 -7.90434
-20.1037 84.7403 -4.46003
-4.09611 112.123 10.5552
14.2209 106.516 4.02258
-19.2824 134.17 7.07329
-8.811 96.8026 -11.0615
-4.76597 152.949 -2.31126
-0.57257 154.034 -2.22483
15.4909 81.124 -5.18755
-22.4591 117.456 1.95951
16.9075 126.822 6.83999
-11.9382 91.0273 2.11466
13.2634 79.4056 1.06072
21.9665 106.211 9.51609
-9.74393 118.941 -10.116
-8.88367 138.865 -6.98238
7.17593 121.861 4.09238
-18.9054 95.5268 -1.42642
-19.59 79.6467 -8.26136
4.55185 86.8189 6.19938
-18.2961 82.7764 -9.42903
2.15692 88.6702 -9.23468
25.7203 107.6 -1.07433
15.3726 140.16 5.44301
8.47648 78.5135 -5.73391
4.96068 136.761 3.24895
0.427781 122.266 -8.77345
-12.3646 130.136 6.61174
-9.03946 117.904 -9.98238
5.08414 76.5865 0.255933
-9.42505 125.545 -8.63052
29.153 89.9242 6.8206
-10.6361 140.35 -6.46494
-17.0047 119.8 0.974824
15.9411 132.014 6.18048
13.8816 118.094 2.6692
-15.5585 124.197 -7.08821
24.6895 93.5532 8.61907
-12.0718 133.336 6.22892
-22.9133 76.1355 -7.98076
-17.5676 136.462 7.97685
20.9125 85.0593 -3.91654
4.42831 83.6317 3.16922
12.4035 122.244 2.01654
-18.3808 106.601 -2.97233
-7.28181 120.314 10.306
-17.2945 111.624 -0.988423
-4.11712 83.1325 3.28094
11.8347 122.605 1.99173
20.7838 128.284 0.000599218
-1.37366 128.46 -7.15654
2.66952 77.4962 -0.214542
10.8903 86.9897 5.46106
10.4681 84.5769 3.25541
-17.5448 122.508 6.29428
-0.274024 142.546 1.25335
10.0356 119.311 2.54905
-12.6683 118.063 -10.6503
18.9471 116.277 -4.39783
-2.66392 89.668 -9.95538
17.3678 79.0529 0.978532
-8.41388 125.954 -8.87686
-10.9862 150.129 -2.41025
-5.24782 113.326 10.6486
-12.4556 96.1297 -11.7757
-10.3629 117.877 -10.778
26.5781 121.654 -2.57249
3.58649 85.8846 -8.69027
-6.21657 115.119 10.7953
-13.1947 112.076 8.18311
21.8656 80.0723 3.0955
21.3194 122.224 6.30261
-4.62393 152.128 -2.44992
-10.1155 105.27 9.3438
11.6907 143.705 0.971605
-9.31302 122.596 -10.0337
-22.6388 136.016 2.64691
-13.7725 115.221 -10.7863
-9.86342 132.888 -9.23373
-10.062 88.048 2.31487
8.93994 139.772 1.73307
26.8203 81.5309 -3.73304
-14.3741 109.51 7.04798
-9.99803 87.9774 2.31123
-24.8452 122.084 6.89732
5.01105 102.228 8.53778
29.0741 89.1736 0.0252805
-14.75 145.984 0.246057
-16.4559 122.576 -6.01782
-25.4149 131.491 5.50258
-18.8532 134.675 -2.05926
11.8378 148.488 -5.80073
-13.0631 113.923 -11.6053
-7.29851 96.2972 -10.7754
-14.561 113.39 1.97184
1.74025 133.727 4.14486
-7.86728 127.788 7.42021
-17.7651 106.934 -7.89177
6.2885 131.366 5.22352
-16.0385 118.664 -2.82931
-19.8389 121.115 -2.11517
-14.7771 116.257 -8.72788
7.62523 120.437 -6.73579
-11.4764 77.1599 -7.7667
-0.388957 101.59 8.81691
-13.6683 90.3059 2.38346
20.1785 89.944 -6.05953
-8.35123 93.734 -10.4758
-21.9348 121.153 -1.08555
-11.4203 85.9653 1.63514
21.5576 128.469 1.49917
29.2507 101.595 1.1305
11.3834 75.9535 -4.89738
-3.97908 109.598 10.745
4.27903 142.402 -4.65232
-3.44433 152.58 -2.18026
-0.259108 125.917 7.99777
-6.31335 102.599 8.58519
3.55485 100.151 8.58892
-5.74618 117.554 -9.14307
-1.26615 139.021 -3.37306
-7.57049 126.801 -8.69191
5.22283 143.938 -4.92599
-10.4133 85.5747 2.08687
20.8601 126.748 -0.603616
-18.7462 121.414 5.9044
15.2495 86.2742 5.881
-5.85429 80.9969 1.69922
-1.99882 86.1334 -9.07055
-4.4558 138.223 3.07575
15.8691 128.313 -3.37615
-0.816796 106.458 10.0728
-14.3726 115.758 3.65293
17.3191 130.269 -2.93433
4.06104 76.9883 -6.0047
27.0009 86.0848 -1.95676
-10.4224 151.621 -0.282402
4.97174 117.148 7.60247
5.35399 123.519 -5.93151
2.84708 117.871 -8.62482
-8.43615 141.544 3.29001
-15.8063 120.971 -1.96038
-7.84314 120.321 -8.79596
20.7925 125.982 4.23059
-8.84112 128.632 -7.9067
26.1653 136.217 -1.84159
24.2028 141.479 -1.77704
-22.955 133.083 6.41401
18.5215 134.77 3.89779
0.16365 126.299 -6.75226
7.66118 131.48 -6.41304
-1.563 95.9478 8.61646
21.3049 124.169 4.56716
22.8193 122.109 -2.9249
-17.6773 95.8068 -10.3147
18.0332 132.302 4.07184
-10.0449 121.538 10.4001
20.7481 127.164 2.43229
-6.12475 84.4422 -9.81023
14.7354 131.574 4.58628
-13.8651 144.947 5.89541
24.8119 111.058 6.52934
17.3147 92.2391 8.74356
13.1678 93.873 6.17739
-18.3068 117.617 -6.64494
-19.6405 112.658 -4.14643
7.38327 124.463 4.07451
-14.9965 108.094 4.43671
-14.6488 116.071 7.25664
-1.90382 115.048 10.2797
15.815 94.0783 8.40203
29.7685 92.5591 6.8262
21.3598 120.252 1.70448
2.60017 144.872 -3.76903
19.2101 135.987 2.83096
-10.6255 109.958 -11.7899
-10.5684 133.381 -8.63037
2.82251 143.375 -4.01849
-10.21 148.605 -4.09687
25.9771 138.211 -0.319199
-16.8194 127.666 -3.09619
28.6541 93.0096 7.52115
13.158 78.1911 -5.00316
19.5265 126.33 4.60882
-5.24139 128.245 -7.77199
-0.388979 131.157 6.42901
-8.66453 119.559 -9.33544
-1.21401 90.0812 6.96283
-13.3622 107.298 8.99557
-15.4358 91.0776 1.32538
12.4118 80.132 -5.38273
-23.606 129.43 2.04536
-16.653 76.2704 -4.84428
8.09021 115.215 4.47466
-22.9246 132.748 1.68729
-6.81483 110.861 11.0776
-6.75797 125.801 8.4886
10.883 85.4597 -7.21373
-23.1059 134.249 2.37868
19.178 98.5007 9.0783
26.5414 135.26 -1.50203
-13.6424 133.18 7.30563
-17.5694 93.2383 -10.1982
12.507 85.3349 4.4926
-8.5422 151.723 -1.693
-13.9358 137.847 -5.32939
16.3193 99.879 6.66551
-2.5799 133.496 4.56127
22.3266 133.298 3.26857
-5.33418 114.864 10.5031
14.4217 118.91 2.80088
13.8533 141.742 3.33822
8.85794 132.401 -6.90356
12.3767 126.567 1.60422
15.6301 94.804 7.86744
-2.01162 121.573 -8.56257
26.947 80.338 -3.20571
6.58384 98.4456 7.67914
-6.01903 84.5743 -9.84726
-20.6883 131.001 6.73559
23.8806 107.998 -2.73286
14.4802 88.4649 -7.14039
8.05305 87.0757 6.8243
-16.8568 123.707 -5.86632
-6.19424 138.596 -6.50902
-7.87538 101.442 8.43817
-1.74145 143.727 -3.14867
-4.02334 81.5926 -8.95773
3.55089 124.943 -6.26485
-18.2259 108.142 -7.6189
7.91534 134.525 2.60108
18.2297 149.059 1.51571
8.87156 150.475 -5.4933
-10.7037 110.952 10.0047
-4.39758 85.3292 4.06176
1.95744 103.175 9.23048
2.17424 139.122 2.25922
-11.9369 145.414 4.80327
-1.45165 85.4379 -9.05464
8.64536 86.7695 6.66555
-21.6833 116.959 0.242688
6.34361 104.57 7.64187
-6.32127 130.555 6.31061
2.32332 77.9226 -0.0457116
25.2142 113.432 -0.321286
-17.8 120.949 -4.12882
9.61155 88.7664 7.01427
-23.7729 134.053 5.39514
-11.6805 122.445 9.0198
0.620671 113.664 9.83124
13.1599 120.529 2.36257
24.4915 115.007 0.464089
8.06995 151.6 -4.56443
-15.6084 124.088 6.13109
5.23786 133.081 -5.09706
-4.53907 91.5881 6.48257
-2.8968 105.481 9.53155
15.336 150.011 -1.14227
11.7866 79.2489 -5.2804
5.3102 134.647 4.50695
-14.4608 140.975 -2.71208
-24.4481 120.363 0.842731
15.8416 117.639 3.85001
16.6952 126.914 -1.37472
-3.91912 142.312 0.868073
5.19983 147.634 -4.74263
1.63753 107.362 9.8149
26.4655 84.3156 3.80499
14.0028 114.987 2.98809
7.97624 113.67 4.86676
23.4777 97.5666 8.40957
30.6302 86.3479 2.54916
9.42858 83.9011 -7.20335
12.9311 148.777 1.88172
-1.32569 80.6117 -8.25758
22.5504 114.354 -4.23135
-16.2331 132.765 -3.08414
16.1884 122.087 6.96175
29.321 87.8679 -1.58946
-8.40632 97.5967 7.65214
-10.7159 143.304 -5.32413
-21.5991 137.208 0.389233
-12.557 145.017 -3.59978
-16.7665 136.567 8.00074
-20.8277 85.7881 -5.26058
-15.2504 121.485 -3.49012
-9.17094 144.612 -5.63353
-3.72271 135.374 2.62254
-4.35524 124.886 -6.89518
24.8406 129.821 0.987409
26.4802 99.4159 8.58908
-12.6043 84.8332 1.39981
-5.62456 77.0757 -0.649831
-16.0231 127.057 -5.52928
-6.86675 138.758 3.11826
-14.8128 115.944 6.97814
16.3076 107.207 4.73565
18.7463 120.1 8.7858
9.6735 153.713 -0.593801
29.9692 97.172 -0.400427
19.7515 125.312 -2.84218
-6.47975 95.145 6.60126
7.54279 76.299 -5.35544
-23.9803 121.366 0.283378
8.59639 145.697 1.1258
12.4818 88.3149 6.94881
21.5152 126.461 2.71926
-24.3916 118.557 3.52629
-22.311 86.1069 -6.55412
4.16778 128.065 -4.86112
16.3282 118.728 4.63259
-16.4519 126.742 -5.2287
16.0433 81.2067 -5.16044
-6.49289 137.651 2.90221
-17.4113 97.8306 0.913359
-1.71092 136.62 1.59861
7.11128 141.793 -6.54589
29.9553 93.1528 2.75717
-13.4539 127.82 6.40281
-5.50624 138.237 -5.93903
-10.7046 99.716 -12.0636
-4.221 90.0401 6.11778
30.3185 93.4688 1.82074
-7.81826 115.635 10.6728
29.3263 86.1642 3.6734
-4.36749 90.2397 -10.3072
3.42083 125.811 -5.95212
-14.6224 125.271 -7.16315
17.7163 138.594 4.43539
20.507 144.775 3.59983
-22.638 134.575 0.503444
-21.5547 137.437 0.4139
18.8539 124.05 -5.01836
1.82638 146.677 -3.35834
-2.62553 76.3109 0.87836
10.0254 135.144 1.54798
17.7729 149.794 -1.046
-2.07591 87.0904 5.43086
29.3186 96.4851 -1.58619
19.5638 128.016 3.44022
23.8745 115.158 -0.30271
3.72856 102.162 8.94776
11.118 129.635 1.23203
-22.2194 133.012 -0.445875
-24.6237 119.375 4.9733
9.38991 91.5331 5.876
24.7674 89.7846 -3.77811
14.993 120.554 3.0802
0.540679 88.9128 6.70763
14.6911 131.856 3.4684
25.1809 99.9725 8.9276
16.6906 86.384 -6.21042
22.247 87.746 -4.59288
28.9888 124.478 -0.869226
4.4556 79.0255 -6.4257
-27.8004 121.606 6.44388
-8.88437 83.9922 2.69083
24.0939 118.125 3.66669
9.19573 136.126 1.34966
24.7173 107.651 8.31834
-7.35221 76.8972 -7.02906
23.1828 103.978 9.23706
-3.76704 118.353 -8.87916
-20.7709 139.501 1.14587
5.61122 137.813 3.23158
-15.1928 119.69 -2.68252
22.8731 110.087 -3.09926
-12.2861 130.818 6.47471
-10.4115 78.8238 -7.98263
-6.87329 104.367 9.29028
-11.5969 86.7672 1.63133
12.395 118.477 2.39497
-16.8966 132.431 7.20719
14.2795 118.416 2.75342
1.723 128.591 -5.40147
26.7825 124.587 0.537792
4.83045 141.067 -4.94369
-23.87 117.418 1.90534
-14.6456 145.685 -0.0073945
-22.3494 80.2051 -6.29888
21.08 115.832 -2.20473
9.65847 80.7991 -6.1136
18.2215 110.004 6.44603
4.58953 99.4632 8.20433
22.773 112.982 -4.52524
-11.8346 75.2835 -6.94332
31.2719 91.1564 4.34254
-1.17584 152.131 -2.26812
6.38942 113.06 6.88679
-15.3633 138.039 -4.25639
19.4527 114.089 9.08011
2.50504 151.946 -3.05291
-8.61611 134.82 -8.53256
-24.9495 130.194 3.17408
-2.3602 144.506 -3.1906
18.5956 112.879 7.86528
-18.7789 135.802 -1.40729
11.4887 103.057 4.26363
-19.7584 75.355 -8.1207
-13.544 105.522 8.04829
-7.72373 79.1695 -8.12214
-20.3146 100.518 -3.43458
18.0193 107.548 5.77934
-9.02022 136.321 -8.39259
-5.18622 92.8737 -10.5718
27.8605 106.662 4.16362
26.0535 83.1872 -3.74427
4.12897 104.463 8.71395
21.9475 85.3064 5.243
-16.2962 125.001 -3.74504
23.2052 128.274 2.68714
10.2249 89.1395 7.37184
-2.92347 125.732 8.99238
-22.0827 127.493 -3.12398
17.9974 86.9834 5.67334
-8.66381 101.483 -11.5931
13.8927 79.184 0.99395
-3.63744 103.497 8.72197
20.9708 125.034 4.79729
-17.1761 117.562 -3.665
-12.0391 100.156 -12.1925
19.5396 125.073 6.04094
-14.9761 83.6054 -9.90309
20.2349 124.89 -1.82923
-22.8863 78.3573 -7.59
25.3247 127.964 0.0766157
4.82168 127.999 -4.8259
6.25457 119.741 -7.17513
-19.2593 138.067 7.31241
-13.405 112.804 8.43649
9.41092 120.548 2.656
-12.2726 81.8464 1.11718
-10.9437 119.525 -10.8906
-15.7901 132.211 -3.65556
18.2837 116.294 -5.63149
12.8183 83.9485 3.60704
-19.0906 126.827 7.73337
0.467255 148.404 -2.88049
13.5725 99.4305 4.86961
22.6373 78.7467 1.92693
-16.4115 120.072 -1.8159
18.1306 111.188 6.56108
14.8805 83.6275 3.33648
0.454554 139.443 -3.3047
-19.7846 103.908 -6.91576
6.64321 88.7893 -8.98055
18.1689 89.4613 -6.42574
14.7169 131.508 3.55319
4.40572 147.354 -4.36753
0.588144 118.466 9.92914
-16.2054 111.431 -10.2722
-15.4011 115.717 -2.10001
-6.21265 84.3396 3.43359
-9.54526 143.246 3.42074
16.4284 149.171 2.72681
-13.1393 146.98 4.65191
-20.7461 129.953 -2.77444
-29.489 120.038 6.62345
-14.8955 134.042 7.37197
-27.1069 126.138 2.63997
-19.334 89.3058 -2.86042
-19.8234 89.4253 -3.55364
15.3221 79.5685 1.03543
3.50146 134.88 4.06739
-8.27437 83.0299 2.70565
-24.7694 118.976 1.85636
-9.12932 134.256 4.70132
10.5153 78.9131 0.78784
-23.8438 124.336 -1.09572
5.05243 140.786 1.85875
26.6862 123.905 0.365556
1.9741 113.669 9.68711
4.01727 149.446 -3.75779
2.4816 83.0009 3.65455
22.6813 122.089 -3.12239
23.997 139.267 2.93414
-17.4829 108.319 -1.27539
-19.8887 76.9637 -6.32706
21.6513 83.9371 -4.15226
-20.9095 79.0232 -8.43045
0.471464 85.7436 -8.87496
1.33198 125.866 8.26219
21.131 128.768 -0.471587
-0.314968 86.074 4.63149
21.71 91.4824 7.72173
-1.52332 139.776 -0.0314835
-15.233 136.752 7.56331
-4.75939 148.261 -3.77647
26.2088 134.275 -1.79906
-12.2303 148.211 -1.48394
2.01192 86.5554 -8.75189
30.2521 89.582 1.85113
4.57183 128.122 -4.81336
-24.87 130.432 5.8552
-12.4681 133.972 -6.6368
5.68932 122.138 -6.31012
25.6681 102.439 -3.1356
17.3961 124.044 8.18366
8.35552 81.9891 2.2459
-26.7468 123.002 2.27016
-14.2968 128.653 -6.99151
-13.3995 102.633 7.46732
-17.7408 127.656 7.80387
-25.175 125.629 0.209918
16.0314 94.4614 8.4252
-22.5452 79.0799 -8.12618
14.3077 148.086 -4.3977
30.6183 96.6665 2.18654
-9.15104 151.827 -1.16076
-11.6725 88.0235 1.69881
-15.3244 118.581 -4.27932
-28.7439 120.889 3.87501
20.9193 147.623 -0.759261
22.0556 126.719 0.604038
-14.5901 120.52 8.7902
-16.5533 124.157 6.36003
3.43033 143.535 0.956876
14.5881 131.991 4.76186
0.563141 147.831 -2.93968
26.4248 112.19 3.25901
4.39071 136.877 3.14547
5.98252 121.004 5.55728
-19.0686 121.768 -2.94631
28.7499 91.7228 7.44283
6.70109 94.7028 7.04174
-11.5303 75.452 -6.93624
-14.312 134.859 -5.56081
16.5518 119 5.58276
0.249427 133.885 -4.25007
28.2257 99.4824 -2.13733
6.7195 133.271 4.93875
1.03447 86.1729 4.73119
-7.72399 152.765 -1.09694
-15.8237 113.643 -8.29474
-3.88518 150.189 -2.70757
20.8555 130.714 1.30549
29.2366 82.6614 2.71028
-15.2218 99.1146 -11.0691
14.6188 92.1292 7.84193
2.39853 139.716 2.04605
6.90845 97.0081 7.39307
15.2121 128.287 -5.17024
2.34205 144.299 -3.67102
12.3664 147.993 1.32198
13.6461 85.7199 4.95628
26.6271 91.7585 7.9668
2.09523 122.575 -8.19815
23.4539 109.191 -2.05434
-7.26884 107.777 10.4746
-24.0089 118.631 3.29571
0.140775 77.318 -0.690551
0.413839 131.727 6.17365
20.9416 129.842 0.102515
-4.33714 126.111 -6.72235
-12.8347 89.3561 1.7461
16.9334 115.773 5.33894
-26.9791 121.609 2.29661
22.8641 113.118 -4.43487
25.3335 94.2977 -3.29651
22.4839 140.799 3.03004
-14.5387 132.817 7.52493
13.9516 136.063 4.903
-21.0182 85.2242 -8.41007
13.2843 148.436 -5.37434
21.3348 78.0316 0.938654
8.68628 110.26 4.86922
-16.042 124.228 -4.15609
-3.53194 108.766 10.5801
-11.5658 102.221 -12.0529
-20.1108 103.625 -6.44714
-11.5917 143.207 5.16185
16.8713 123.554 7.90641
-1.80368 90.5273 6.94059
-21.9994 87.0372 -7.43282
-15.4142 144.011 6.38025
19.7958 129.621 1.8305
25.9475 105.723 -2.09444
14.6431 111.279 3.55532
15.4503 80.2495 -5.10709
-17.3845 102.44 -9.37001
-15.4791 125.491 -3.69135
-22.4339 120.68 6.20869
-14.5915 115.789 5.70284
7.7648 76.5609 -5.37879
14.3351 91.7239 7.6365
17.0636 103.747 5.96121
2.79054 115.854 9.33962
13.8591 89.4623 7.90939
31.8301 86.6564 1.88539
3.3748 87.5363 6.67036
4.966 122.53 -6.39407
2.01213 129.452 7.55197
-21.0997 137.045 0.129442
-16.1148 142.994 6.62373
16.7315 111.37 4.73008
7.20465 127.419 -5.31209
1.71803 130.265 -5.12563
6.90331 96.5371 7.28743
13.3646 90.9192 7.67713
17.1842 125.865 7.34766
-0.174108 90.7794 7.1659
-10.7824 113.197 -11.412
-20.0526 134.492 -2.57037
27.0991 105.483 -0.887381
9.89037 148.488 0.867491
4.38631 82.7468 -7.5059
-10.2385 112.134 -11.6212
9.16745 109.468 4.50571
-17.4619 120.607 -2.5348
11.9005 82.7302 2.25884
14.0256 121.644 2.54145
-17.8682 133.51 -3.43508
7.48814 85.269 4.47764
26.7744 90.3575 -2.85441
22.8237 81.5194 -4.11484
23.3132 136.327 3.12697
-20.1606 95.7984 -4.72909
-19.924 91.4763 -8.88155
22.1128 120.024 7.18534
12.8828 78.3574 0.998422
22.2633 125.108 1.03808
24.7745 140.663 1.14767
1.60493 75.1066 0.868515
24.5557 103.064 -3.69762
27.8356 82.1342 -3.49181
21.3921 121.266 1.79553
21.9841 120.31 -2.31124
-20.0486 79.2952 -3.89552
-16.4794 125.278 -3.61005
16.8259 118.998 6.53609
-15.117 120.513 -2.52849
-17.4669 94.1368 0.659697
-16.0707 113.366 -8.1952
-4.00085 85.8423 4.55607
19.0224 79.8728 2.04933
14.3333 147.98 -4.41898
20.963 123.437 6.40204
16.2744 104.538 5.18313
-14.4147 119.214 -9.06102
6.01193 92.7581 7.06239
-5.63396 87.1011 -9.749
10.8596 131.38 1.15209
7.4467 115.821 5.12594
-2.08035 80.1406 1.56102
3.52974 106.71 9.2398
26.582 83.5712 3.72131
0.389019 117.54 10.0381
18.8854 109.464 7.65737
-20.8279 98.3537 -5.35181
-13.4498 130.088 6.78373
10.0418 78.7852 -5.48663
0.210994 136.852 -3.35682
28.8693 125.77 -2.12128
-14.0495 106.134 -11.5447
-19.5123 126.685 7.71082
6.20136 103.387 7.89258
-15.8455 77.5875 -1.825
-7.04734 99.3634 -11.3929
22.3324 82.5549 -4.30706
-19.2353 83.82 -3.18195
-6.65902 112.983 -10.4823
-8.86779 115.749 10.4389
3.64391 151.999 -3.24594
0.0436742 84.6275 4.35942
-13.8572 110.261 3.27515
29.0271 101.967 1.34948
-22.8319 132.354 6.2458
-22.4949 133.228 6.68918
19.396 124.449 -3.32288
8.21861 147.222 -6.60186
-16.3246 127.642 -4.14123
-2.416 151.544 -2.21534
23.0278 114.319 7.28868
-28.1522 125.473 6.40129
18.6009 134.396 3.45136
22.4237 80.295 -4.00759
7.88433 126.471 -5.62563
-4.20768 93.4536 7.16203
-7.91925 139.087 3.51599
8.48522 127.305 -6.4831
8.09626 90.5879 5.97989
17.3367 127.903 -1.56068
20.8019 89.6739 -4.5095
-23.2738 76.0242 -7.71101
4.80599 124.053 6.31448
23.5677 85.6124 -4.46605
1.00566 107.315 9.97198
-5.90493 117.441 -9.20004
17.1414 129.838 -2.96933
-22.4233 118.813 0.945468
-12.4185 138.116 -6.53109
-16.8858 98.9053 1.96527
28.3507 80.7001 -2.97438
-1.98091 80.1206 1.56938
-13.1257 76.8392 -4.12932
17.5635 118.151 -5.3554
-14.0385 82.0998 -9.57593
-1.04521 105.785 9.96819
10.0914 82.1151 -6.61715
-4.60684 146.733 -4.02594
-10.8924 101.995 -11.8295
-15.3046 132.356 -5.56454
-16.2934 127.997 -4.25533
-3.77876 131.967 -5.78944
-11.3489 150.26 0.86194
-15.7679 106.912 5.01517
13.0372 100.505 4.38228
-20.7614 91.7976 -6.17676
-10.1138 78.3776 -7.67742
10.8041 143.619 0.943128
-16.1675 125.055 7.10692
4.02246 136.88 -4.76088
3.46289 121.68 8.24631
-15.2093 136.638 -3.94173
-22.7248 75.0691 -7.31051
16.3929 135.975 5.11101
10.0406 80.1626 -5.84266
-20.0289 79.7202 -8.24789
-5.38921 154.328 -0.981212
22.2615 145.748 -1.56256
9.78827 76.4484 0.676676
-15.9686 99.9529 -11.0935
-8.01784 79.8106 -8.38684
-9.19183 128.249 7.37035
15.4669 81.0085 -5.17817
24.8461 136.657 1.01886
31.103 85.202 2.67278
20.8878 147.857 0.513271
3.1852 135.969 3.60751
-22.389 133.277 -0.138032
-16.8978 90.3739 -9.38602
-5.18364 141.4 2.38704
27.8675 86.0258 -2.4049
-18.3841 76.9643 -3.90106
5.07311 129.109 6.01824
-17.29 91.9558 -10.0799
-0.924978 83.8844 4.13291
20.8993 123.469 -3.14784
-8.43522 116.495 10.5452
-10.0087 86.3483 -10.2051
20.6757 121.64 -4.35213
31.5091 82.1438 3.77395
-19.0576 109.058 -3.06145
27.6547 89.2164 -2.1137
2.21028 138.789 -3.76712
4.42694 90.1576 7.28742
28.425 87.6878 5.77703
-19.0291 98.6031 -1.24241
25.3746 123.232 -0.426129
13.2459 132.75 1.64499
-2.97083 123.939 -7.54203
24.8116 131.179 2.61553
-10.3928 93.901 4.27916
16.1417 77.9409 -4.19907
-1.99434 122.058 9.87651
-16.283 121.383 -1.51045
-12.5905 79.5461 -8.61868
-5.48962 123.391 -7.49444
-26.4 122.714 6.79495
8.50953 94.3787 5.91163
20.0883 95.5861 8.95081
-19.9292 117.145 0.645108
-8.3655 100.866 8.29876
-21.3879 134.849 -1.37995
-15.7666 146.086 3.689
-14.8868 117.935 7.30825
-8.73929 88.786 2.88264
-0.633814 76.4555 -6.58082
22.2657 77.7472 0.824847
-10.6152 100.146 7.99819
-23.8026 133.876 5.44114
-12.3664 81.6387 1.01874
2.30554 88.1224 6.73361
-22.3614 137.136 3.41871
-18.197 107.103 -2.53862
0.370151 150.081 -2.81466
-5.68252 131.632 -6.76416
-17.2404 121.657 5.19295
0.575854 130.798 -5.67332
24.544 89.2985 7.39355
-16.1959 124.429 -6.88968
-20.2164 88.3365 -3.78553
15.184 77.104 0.34531
-15.626 126.629 -3.29379
-15.5202 113.259 -9.13347
29.7432 96.5184 3.8188
-12.751 113 9.32563
7.01717 139.204 -6.82376
-11.7281 84.0339 1.59866
-20.8742 137.123 7.02567
-1.15761 125.608 8.07399
-5.62228 141.066 2.99495
11.3333 132.38 0.996714
-18.7451 108.009 -7.17589
-9.21591 94.2099 -10.6017
1.981 114.894 9.73489
13.6197 104.452 4.04816
0.79529 133.834 4.11835
-22.048 81.0442 -4.08557
-0.358509 144.776 -2.95449
-3.1885 140.113 0.778536
0.01738 84.5758 -8.80014
-21.9027 85.6496 -7.56152
13.0827 106.408 3.73411
-20.5986 138.215 6.63681
-9.64454 139.96 3.83677
-1.44949 122.626 -8.86794
-10.7447 122.797 10.0092
-16.1441 123.833 -4.56509
-21.2618 81.9226 -7.71466
11.7448 140.722 1.16208
-10.375 127.322 -8.34047
24.4671 83.7256 4.97291
-12.4565 136.839 -6.7703
0.485908 102.049 9.0669
-12.4954 85.9911 1.39629
-5.71415 131.292 5.76707
-24.2456 128.632 6.14246
2.0316 102.953 9.23766
16.2718 100.943 6.11012
13.8192 134.477 4.64274
2.90674 134.059 4.31366
14.4407 83.8779 3.59531
-17.8681 142.909 0.103157
-20.1245 118.103 -0.437667
-0.330357 90.9087 -9.88593
-16.8263 77.1042 -2.24386
15.9774 84.5348 -5.77037
3.58932 104.566 8.80226
-17.1857 142.413 6.60545
-3.34585 87.7482 -9.46556
-9.19755 81.3914 2.03234
-12.2294 81.4379 1.03362
9.64528 85.7048 -7.6705
-9.05127 103.295 8.99279
25.9599 91.4713 7.9757
-7.60439 130.726 6.54268
9.66084 144.733 0.973553
-17.7683 120.428 -3.83259
12.503 111.751 2.95205
-9.0317 90.2693 -10.9288
-15.4598 82.0016 -9.1666
24.865 114.301 5.13306
13.2142 152.472 0.247934
12.4946 84.5352 -6.66494
15.728 117.432 3.75455
17.601 117.888 -5.58414
8.07143 124.749 3.21815
17.4268 108.358 5.36219
27.2796 96.4025 8.18351
-8.6141 127.938 7.45568
7.12413 117.475 5.08002
6.86859 132.985 4.9167
27.5331 98.0889 8.23381
27.5282 102.509 6.97301
16.6317 100.842 6.5721
19.825 126.331 4.43725
-2.93186 115.575 10.3979
-19.3307 102.419 -2.36686
-17.5011 122.931 6.68492
31.627 85.7426 -1.89047
15.1378 129.639 4.08794
25.3738 93.3919 -3.4375
6.05261 150.902 -4.00735
-18.5142 95.0288 0.0089072
-26.3375 129.615 5.0529
22.034 108.062 -4.10274
23.2744 93.6202 -3.39668
-6.69744 136.476 3.53523
-17.3629 112.267 -7.09218
-12.7368 140.84 -5.01638
24.0631 122.268 -3.50412
-3.97662 81.2163 1.88856
22.1753 125.618 1.86511
19.2939 80.3872 2.48752
16.3408 90.6664 8.39125
-16.9977 120.219 -5.44346
-25.2765 129.12 6.21578
-14.0598 117.782 8.56326
-3.02485 86.0041 -9.39322
16.8973 128.491 6.42442
14.0806 115.846 2.87074
-15.8526 119.471 -2.95951
21.4308 128.485 -0.142106
17.7759 125.696 -2.14187
-15.0148 75.5399 -7.82529
-22.51 128.534 -0.967931
-14.8067 141.979 -2.63033
-10.2526 81.7409 1.88616
24.7372 80.2279 3.43926
-12.0958 88.246 -10.9721
-21.2629 137.577 6.3513
-12.8609 141.231 -4.95817
-10.5556 93.885 -11.0052
0.779647 138.035 1.90496
5.75983 152.023 -3.47321
-10.5451 77.4634 -3.30592
-20.6466 88.0566 -7.86116
12.2735 116.943 2.52793
8.17514 153.555 -1.59696
-14.098 101.966 -11.9295
2.22861 92.1175 -9.71532
21.9883 124.047 -2.43295
21.7236 109.541 -4.3625
-11.0822 100.137 -12.0401
-16.0608 114.709 -8.25932
-10.1329 94.6605 -10.8238
-16.1794 90.955 -10.073
2.31958 89.6828 -9.40092
15.1825 102.028 5.16072
-9.0075 148.211 -4.93004
-3.87405 118.293 10.3332
-16.5916 121.05 -2.78971
-0.376563 150.128 -2.65652
-3.80195 93.562 -10.6425
22.456 129.638 3.25221
20.7975 84.2523 -3.6929
27.5154 108.215 1.97043
-7.93401 105.652 9.76316
-16.0902 139.395 -1.85165
-15.7572 78.7306 -8.74643
21.9513 107.99 -4.37217
10.0903 79.0719 -5.54852
13.5373 92.6781 6.77386
4.31024 138.694 -4.84198
-12.9443 115.877 10.0636
20.516 99.2915 9.15967
25.5241 136.229 -2.24095
-15.8655 122.902 6.31801
5.91145 122.44 5.22818
-5.46537 80.2935 -8.7315
-28.9501 124.828 4.63946
21.2863 124.703 -2.2158
-21.6276 83.6747 -6.62709
22.9331 108.531 9.46063
-15.3421 80.3769 0.450451
21.9655 115.747 -0.782491
0.739593 90.8382 7.16808
15.7724 86.8316 6.38436
17.8969 117.07 -5.18652
7.87055 118.786 4.00869
-25.5692 129.093 2.63796
16.6398 110.624 4.74823
-13.9812 106.742 8.13783
-16.1514 94.2281 2.7546
3.99681 127.051 -5.28166
25.961 127.877 -1.2919
-22.9962 78.7035 -5.49715
-10.1262 82.1472 2.00408
21.479 115.987 -0.83487
26.4289 125.251 -1.15526
-13.4792 94.3314 3.14085
19.419 122.971 -4.65031
1.2439 91.0718 7.32249
24.9244 84.2054 5.24334
-16.2314 85.09 0.869912
30.6428 89.6507 6.00075
1.70541 122.828 9.07803
-15.3767 116.385 -2.58521
-19.7898 140.922 1.20319
-4.91435 97.6623 -11.0259
19.9035 146.476 -3.3005
16.3306 93.052 8.49412
12.2013 100.333 4.51797
21.0033 122.61 5.36369
-0.83494 153.885 -2.16944
-14.8928 118.127 8.22533
11.701 108.921 3.3371
-9.63559 94.082 4.91615
1.53514 88.37 -9.07883
4.82349 105.793 8.83047
-20.3004 74.9342 -7.75604
-19.8745 138.647 0.316385
-22.8086 78.5883 -5.17199
-17.856 76.9254 -3.32377
19.1152 91.3414 8.21658
-17.1946 120.019 2.25518
16.0416 132.377 -5.41451
-11.0048 125.841 6.86283
-12.9296 113.457 5.68146
13.3059 91.3848 7.30378
-8.38249 103.945 9.21043
8.80197 113.184 4.25644
-16.5172 127.09 -3.16725
-4.21442 83.1557 3.28396
0.105337 79.9354 -7.65155
-16.2701 121.404 -3.83124
-12.1641 144.047 -4.83135
-20.422 94.0955 -8.55979
20.0709 118.421 -3.44351
-7.60818 152.259 0.942695
3.99295 153.939 -2.42786
23.494 88.2573 -4.05331
-7.8845 131.627 5.44024
30.2234 88.2454 1.11632
29.2092 91.0388 -1.40721
14.8495 116.964 3.17184
-5.4805 87.6295 -9.76289
25.7579 100.035 8.83216
-18.6184 76.808 -6.31164
-25.7199 130.718 4.26156
-15.0566 77.2687 -8.53121
-17.2169 121.804 4.91684
8.21454 147.518 1.07959
-15.8763 128.478 6.72846
-13.0986 113.089 4.40292
-10.3939 78.955 0.984519
21.5231 86.3435 5.62433
18.248 120.09 -5.21653
-25.171 118.131 2.39273
-12.7475 146.727 4.65347
-19.3534 122.709 6.86454
-16.7315 121.848 -5.6189
-27.4545 127.957 4.99963
4.01158 129.275 -4.62552
22.4777 83.323 4.70678
19.6991 118.682 8.90574
14.2113 130.676 2.31771
-10.9145 100.671 8.06034
28.6789 94.0905 -1.60256
23.6453 113.517 -3.01334
-8.84289 75.0788 -6.59873
-14.3514 108.164 7.81667
20.4627 105.169 8.81302
-1.93401 77.1123 -0.839816
-13.2253 146.394 5.03784
-7.35581 88.836 3.4753
-13.8823 126.494 -7.23496
-5.41333 80.0404 1.17989
25.8849 84.517 -3.26975
-8.69718 129.51 6.70967
4.15398 128.489 7.10647
5.31655 127.605 -4.91699
25.2032 82.8411 3.85707
2.87758 90.0729 7.54544
5.49382 154.325 -1.67477
-17.3354 76.1424 -4.72092
6.53106 144.238 2.54503
-16.4642 120.298 2.93487
-9.03463 151.94 -1.1124
5.8576 146.535 -5.18781
1.97104 105.643 9.31244
17.3313 134.219 4.63134
-17.6817 115.788 -5.03359
-6.9366 77.4444 -0.290437
-27.939 126.89 4.02914
26.6974 93.6256 8.23274
24.6691 113.45 5.68755
-6.27955 85.1313 -10.0435
11.5016 95.1729 5.24742
-3.29758 81.8632 2.31306
25.5347 84.6293 5.33874
-10.8379 102.998 8.77738
15.8273 145.885 -4.60511
18.4667 77.2724 -3.38399
21.0434 117.961 -2.08688
-12.395 92.7592 -11.5848
4.68543 82.4603 2.72937
-7.72017 119.827 10.4833
-11.8423 91.0418 -11.5639
2.59824 85.9994 4.49641
-8.71066 89.2367 3.03353
-15.9341 128.987 6.86158
6.72923 141.566 2.88574
-15.1613 81.9063 0.652466
-5.34266 141.566 2.5116
5.46091 76.9226 0.333713
-17.0826 106.657 -9.93893
-2.17155 121.279 10.1555
-16.8391 123.858 -4.34052
24.8638 130.588 0.573943
9.77709 111.906 3.60023
1.3627 139.541 1.4941
-11.9734 125.032 -8.56251
24.4348 117.258 4.38623
21.3858 121.135 3.22891
-4.45926 135.736 3.05324
-6.5578 88.118 3.97996
2.33018 146.764 -3.50047
0.15653 84.3034 -8.69191
20.0156 85.4947 4.55137
-16.1486 119.888 -2.42723
23.7251 99.8062 9.02883
-13.0548 123.881 6.30059
19.5935 125.028 6.06892
-18.7603 137.666 7.53476
-18.8645 143.209 1.81748
-13.4234 144.429 -2.70865
10.79 108.554 3.60603
-13.9863 121.208 9.14798
2.78001 100.38 8.9209
-7.32839 97.5519 -11.1336
22.3341 125.376 0.193165
31.4277 91.1277 4.82636
26.1499 123.817 0.339666
7.96848 105.11 6.0235
-3.35515 85.177 -9.44856
-20.7156 117.878 0.105941
-8.04285 80.0529 1.41937
-17.304 80.5818 -9.23381
14.517 123.937 2.39032
8.36064 109.235 5.25538
-7.57974 122.437 10.4338
5.42446 134.052 5.01101
-6.90819 119.251 -8.83584
-21.9598 76.7872 -8.48972
-8.36273 106.347 9.94299
-11.6896 143.747 -5.04512
-2.21664 131.5 5.69905
-10.5258 107.777 10.1847
-16.4516 120.216 -8.58921
8.92544 114.792 3.59329
28.8976 84.2104 -3.23953
-5.9697 79.7994 1.13851
-13.0733 87.2621 1.3447
25.6207 126.275 1.41681
15.2799 114.148 3.51942
25.062 129.305 3.33615
21.3179 131.125 2.60042
3.80776 86.2109 5.19295
20.7629 118.457 -2.99517
31.9808 86.7397 3.17392
6.78692 145.497 2.15017
3.47785 127.514 -5.22606
-14.5776 103.39 6.13747
19.513 116.147 -3.90549
9.42041 129.553 1.87934
30.4219 92.5952 6.07585
-17.7974 97.2069 0.2316
-15.9882 123.83 6.72559
-3.3759 115.007 -9.95052
13.529 113.042 3.03402
-17.0401 123.828 -4.50094
-2.65501 124.219 -7.6558
-11.1015 125.277 7.42872
8.95989 117.164 3.32975
-15.9243 123.856 -6.76044
17.2502 126.394 -1.49373
-23.7863 127.578 0.808175
2.86445 79.8056 -7.00184
-4.32376 125.252 -6.78258
3.94864 111.129 8.98093
-17.0862 144.89 1.47326
-10.8943 82.5693 -9.41316
15.3092 146.297 3.83492
-9.77069 130.492 -9.08629
-15.6634 122.316 6.69198
5.1576 108.335 8.43305
-19.0239 111.326 -5.42579
12.9709 77.4715 -4.78535
3.08654 111.405 9.44684
-24.79 128.687 6.24632
14.4397 103.365 4.53096
-17.1643 110.694 -9.21286
12.1342 143.152 1.03643
23.739 144.064 0.63663
-11.3459 135.27 5.57313
23.8309 108.483 9.01425
20.5945 147.882 -0.847399
24.5446 138.257 -1.3155
7.89151 99.9525 6.64356
15.7934 125.663 5.61499
-18.7529 90.6099 -8.73589
-18.7212 88.5301 -2.03386
-24.5111 129.991 2.94458
25.8336 114.287 2.90598
-20.2637 102.205 -7.01534
12.7001 150.302 -3.28975
-21.5697 132.837 -1.46762
8.15912 138.168 1.74793
4.92512 131.898 -4.98724
7.37271 140.674 1.90656
-7.70943 112.937 11.0123
27.708 105.442 4.8712
7.21092 114.535 5.6054
-3.59236 134.345 -4.89134
21.6071 94.1587 8.59107
-29.2233 124.488 5.26115
-10.4595 101.143 8.44609
-15.7712 121.499 7.13184
-0.514324 139.642 -3.24361
12.019 111.027 3.04558
-11.2549 116.929 -11.5293
23.0473 144.533 -1.71648
-18.2091 124.596 -4.26469
24.3431 80.0852 -3.72309
-17.6675 131.665 -3.8153
23.957 108.195 -2.48353
-16.5091 103.195 -10.689
23.1944 119.902 4.50422
24.5969 142.413 -0.177668
-4.6605 87.0136 -9.71971
-12.361 133.276 -6.80991
-5.04401 132.363 -6.05911
-3.63626 99.3088 8.57895
-3.11542 86.8387 5.63372
22.8414 80.1218 -3.97894
24.0747 84.874 5.80003
28.3491 103.767 5.40036
27.0058 94.3281 -2.88968
20.6737 130.008 0.204244
18.6396 117.76 -4.23958
-18.4495 99.5298 -0.342009
-5.56356 90.7607 5.48923
-0.451999 146.083 -2.86147
-18.576 78.8763 -8.64576
-10.876 96.8216 -11.6139
30.3089 87.0558 1.87914
23.0827 145.087 -1.01205
10.3679 125.383 1.75357
27.1421 98.5633 -2.56893
7.58048 83.3089 -7.51856
-21.0542 95.2693 -7.32009
32.2277 85.0693 0.121796
1.66177 84.0227 -8.40613
8.35434 136.184 1.98237
31.1622 91.3562 4.2852
-11.3107 150.681 -0.398979
-7.65212 118.249 10.657
-14.1928 114.533 -10.7399
-4.21956 115.301 10.4435
-4.01604 138.36 -5.19803
12.0901 116.805 2.54881
21.4166 121.797 1.72107
24.4451 138.282 1.44725
7.97615 145.035 -6.79623
21.3029 92.6359 8.14045
-15.9132 81.8635 0.376978
-20.2763 87.5416 -7.8148
-17.8675 142.692 5.87752
-22.4628 79.7957 -6.5703
29.2824 128.572 -2.57194
15.4652 127.573 4.20825
27.4665 127.384 -1.28426
-22.6047 122.678 7.20693
-10.7035 103.36 -11.6705
-2.56514 82.98 3.1396
-19.7301 85.5801 -3.06234
13.9382 138.925 3.25314
-8.02914 151.606 1.10505
-4.27112 137.843 2.91406
25.1693 105.011 -2.96965
11.2594 89.0536 7.52695
32.8371 84.6796 1.92575
16.3045 87.1844 -6.42997
8.79891 134.673 -6.74368
-16.1886 132.992 7.90682
-30.5049 121.54 5.13169
-8.6953 126.516 7.92
25.1283 113.421 5.24178
-8.49475 146.354 -5.65985
13.8713 105.196 4.04765
-19.4742 87.4629 -2.80747
-1.31379 91.8182 7.30388
-22.3096 117.892 2.71147
6.87289 84.1507 2.99992
7.06971 96.8964 7.27984
21.2153 117.063 8.25227
-2.14421 131.603 -6.20321
-8.87581 134.238 5.10615
27.6727 84.4791 3.20828
-14.4584 112.418 0.771091
0.18947 110.796 9.91889
26.7073 84.9205 -2.98823
27.9412 128.054 -1.19889
21.9505 100.386 9.02752
7.32021 119.313 4.40506
21.2929 129.271 0.509913
13.4359 152.257 -0.460866
15.9433 137.231 4.73322
16.2722 90.0671 8.14555
17.204 127.097 -1.8202
20.8737 100.03 8.96326
6.04223 122.302 -6.17674
-11.0573 92.8762 -11.3335
-19.023 138.867 7.0846
7.98286 107.938 5.77569
-10.3102 82.3217 -9.43042
21.2357 125.481 -1.3224
-14.9699 108.726 -10.9369
24.3213 85.8347 6.09296
-14.7301 116.693 3.86798
-14.18 146.351 0.0616516
-16.2756 109.493 -10.4014
-12.6211 137.149 6.66891
27.8507 99.6338 -2.48666
-17.9493 141.253 -0.249247
-26.3012 119.43 5.5256
-6.26446 119.957 10.1869
21.5434 126.415 0.782011
20.2921 121.34 -4.47813
13.5742 79.7527 -5.22666
-14.9571 95.7066 3.60613
-6.81552 95.4776 6.48979
-12.1093 122.452 -10.108
-17.2921 88.1207 -0.072075
-14.1709 138.749 -5.535
-20.9287 129.062 -3.4524
26.1887 136.988 -0.308694
-20.2967 121.719 6.60347
-8.01808 78.1889 -0.421184
-19.8533 136.546 7.58532
-16.2057 121.205 -5.22883
21.7171 131.256 3.42412
11.2685 150.585 -3.27597
3.25688 95.5522 8.1327
-10.5697 151.212 0.400237
20.029 123.584 7.42835
-1.52557 88.1781 -9.17143
-8.43236 116.709 -10.0174
-12.4269 91.8373 -11.4821
-17.7755 97.0983 0.441637
22.4493 113.334 8.61617
-19.6128 92.9169 -2.17596
22.6895 120.122 3.97233
14.6716 144.207 3.73067
-22.4421 128.407 6.57897
6.80876 155.08 0.361349
28.5702 102.619 3.00924
25.5576 78.8617 2.22421
-15.0224 108.048 3.30218
-16.6653 122.404 5.21018
-18.4365 87.3474 -1.60177
-17.8807 76.244 -3.71852
2.15003 94.4456 8.50464
-19.382 118.897 -0.532147
-15.2172 138.716 -3.90202
11.1073 149.813 -4.64523
24.8573 134.889 1.03401
-0.300138 117.278 10.1464
26.6602 106.981 -0.840035
7.1454 140.852 2.22055
17.6144 134.829 4.59348
-6.84148 143.449 2.7736
8.24323 120.684 3.37942
0.670779 86.7827 5.45246
11.4225 83.0647 -6.73678
7.65323 119.566 -7.69659
-3.13844 128.65 -5.97848
-17.4696 117.294 -3.55191
-18.8186 74.6783 -7.94168
12.3427 92.8943 6.23314
15.8305 124.502 6.96092
12.5884 145.7 1.09783
5.66167 115.715 7.15626
-11.2387 141.274 -5.39595
-8.4604 85.0276 -10.2981
-4.0841 97.2988 8.55995
-6.30521 80.8893 -8.88582
22.6106 105.199 9.63048
-17.0848 144.471 4.89074
-16.2909 132.12 -3.0636
-9.20119 150.57 -2.75745
-24.0637 121.059 0.430738
10.04 79.1628 -5.5846
14.1121 108.634 3.6868
22.7382 115.67 -0.185168
-19.1084 113.558 -3.73738
-4.8554 141.105 2.09122
21.6281 114.632 -4.84101
-12.7035 103.136 8.34243
-19.25 87.039 -2.4287
27.4367 89.1455 7.21735
-2.58993 89.6651 -9.91824
22.4255 145.897 -1.12384
33.4983 85.3105 3.33762
1.52524 140.613 -3.52892
-2.37352 102.225 8.50325
-9.26395 88.27 2.58758
-16.3686 130.895 -3.13614
29.8471 97.1563 -0.656081
21.6251 120.211 2.08121
-21.4065 75.5975 -8.41396
-21.7682 88.94 -7.87263
5.6777 130.505 5.24623
2.92952 111.828 9.53509
-30.6993 121.141 5.68016
26.9465 106.971 4.94719
-15.6074 142.52 -2.07842
-1.97155 138.363 -3.65268
-16.4016 119.479 0.875398
17.6149 86.3148 -6.25025
27.6738 124.366 -1.57048
3.73294 84.3721 -8.07528
11.3164 110.689 3.22136
-25.89 130.259 4.65421
-8.86649 145.296 2.77316
-12.7476 105.672 8.94588
-17.9155 116.189 -7.58704
-7.77923 84.8979 -10.1996
22.2238 124.836 1.26709
-16.1812 119.081 -5.66859
29.0971 91.9612 -1.6238
-21.2981 123.857 7.37996
7.92249 143.607 1.5091
20.898 146.972 -1.88707
-17.2036 114.295 -2.6494
-18.8053 81.2466 -2.15984
-15.6957 130.8 -2.83528
-13.2606 137.11 -5.42853
-23.2453 130.969 5.7303
-3.56123 81.489 2.03852
-8.74529 120.479 10.4757
-6.41329 85.2303 -10.064
7.26104 102.166 6.89815
-4.26294 76.9575 0.144522
7.84482 114.224 4.92775
8.71264 78.3848 -5.65965
19.993 116.031 9.04432
-20.5838 78.9304 -8.51014
19.4984 90.04 7.27735
-4.6222 128.031 7.69751
7.0424 144.31 2.15232
12.9372 87.3078 -7.32181
19.4175 140.846 4.22392
26.1153 127.411 2.40155
-5.37915 131.714 -6.33209
-15.3841 124.665 -6.60226
-5.81645 121.652 10.1186
23.1969 108.949 -2.58507
-18.4936 110.048 -1.99765
-9.41551 101.242 -11.6785
-15.1815 108.177 2.12022
-13.8812 143.628 6.63817
19.2896 145.383 3.78741
4.02893 96.1906 7.87365
18.5628 134.695 3.75661
-20.4814 82.0198 -9.3465
-14.3622 141.816 -4.30152
27.5238 104.471 -0.654369
-21.1441 137.366 0.316929
15.3212 149.787 2.18938
26.715 104.914 7.47869
28.9055 80.9499 -2.87934
19.0317 128.02 0.190333
13.785 83.621 3.25966
7.67839 144.961 1.64178
-5.90113 143.154 2.43246
-21.8102 81.0646 -6.53805
21.9044 134.458 2.99913
29.7373 97.5246 5.81256
26.3029 126.578 0.689513
-10.2978 81.4617 -9.13825
0.982511 80.2787 -7.6871
6.88765 121.106 4.47464
19.6768 112.44 8.94669
16.9444 119.644 7.62333
11.0239 92.6641 5.87041
28.8927 125.167 -2.23783
-5.49021 83.5726 3.33698
-11.5938 103.474 -11.794
21.9064 94.1787 -5.40962
-14.6097 142.479 -3.68439
-4.75704 129.519 -7.12668
23.0137 86.1858 -4.46524
-15.1245 135.205 7.33301
-9.52402 137.665 -7.2365
30.8219 85.5363 -2.78988
-18.6198 95.8079 -0.981584
-19.0938 77.5987 -3.91357
-0.635313 152.393 -2.42231
15.7729 124.723 6.1929
-21.4749 119.528 -0.366368
7.74674 132.596 -6.40564
-16.5655 119.602 -0.334427
-10.3787 101.983 -11.6998
-9.82288 80.479 -8.83718
-18.6153 105.372 -2.40506
-2.23084 84.7979 4.42173
-10.7616 118.858 -10.8357
-19.7598 86.5227 -8.33141
-24.0317 123.044 -0.464925
6.78883 132.359 -5.927
6.29355 131.431 5.23976
-6.20939 120.063 10.1477
13.506 76.3917 0.332585
1.4724 145.327 -3.35849
-15.3935 116.781 -2.72352
-6.68104 100.457 8.01633
10.9379 86.79 5.00207
-12.8874 103.425 8.13077
-14.3516 90.4371 -10.7072
-16.5925 99.3384 2.18549
0.98236 104.195 9.28368
1.7105 74.8653 -6.03688
-24.0101 120.954 6.53868
34.3234 84.5177 3.21393
-19.3569 102.216 -1.82296
14.0049 79.0631 0.967593
-10.0636 127.452 7.7146
-8.40529 151.975 -1.50173
-3.96265 139.341 1.83894
2.17263 90.4586 7.41045
-21.8454 87.7341 -5.59551
30.1993 90.046 2.85533
12.1028 79.9372 1.17011
-8.80798 108.624 10.6822
8.33118 83.6797 2.59582
-12.042 126.678 6.65306
-15.765 122.18 6.61875
-2.23149 77.5319 -0.445038
3.37485 89.5413 7.57504
-18.9278 122.509 6.66453
25.0212 88.1994 -3.14973
-15.0891 96.4081 -11.0889
-2.19054 126.443 8.047
17.0954 77.2183 -3.68451
9.85158 151.836 -3.16266
-7.05969 106.366 9.98076
8.24967 132.472 -6.61816
14.3542 112.393 3.31246
2.45935 93.0422 8.29665
-20.4508 121.413 -2.24405
-18.9228 143.21 3.01145
16.4327 124.092 7.7454
-17.4624 85.0134 -9.60888
8.48283 111.801 4.7492
20.4464 147.662 1.40087
-6.14164 116.54 -9.49742
-20.0501 123.936 7.28921
-1.82812 113.304 10.1135
16.2762 79.0001 -4.37265
-14.8928 146.204 4.43994
23.5073 142.299 -2.86381
30.162 99.1372 1.91726
-19.9306 118.993 3.26683
10.306 151.883 1.18018
18.4757 130.324 -3.99788
-7.50839 140.201 -7.00047
-19.7357 81.3035 -2.4869
30.0586 81.0883 2.77815
-20.9034 97.8108 -4.88973
-22.76 136.155 3.17018
8.6816 91.702 5.85002
-7.45919 113.478 10.9759
3.82328 121.113 -7.34697
14.6814 102.534 4.80312
18.1118 94.4511 8.9925
13.985 139.029 3.54715
-21.1894 84.5272 -4.62108
-15.1889 87.694 1.23553
20.8689 115.578 -3.00456
8.32658 147.81 1.00427
-6.14655 89.328 -10.1653
-6.28613 116.855 10.8341
-12.9586 95.9156 4.57849
-23.1316 133.734 2.15464
-16.9508 122.128 -3.29503
24.9698 134.248 1.77569
31.9926 84.7746 -1.27617
6.26198 93.0361 7.00287
3.38281 136.034 -4.24733
-8.57886 117.21 10.5304
-20.5669 122.364 -2.60135
-2.32846 85.1517 4.67597
19.2512 124.766 -3.06613
18.6861 88.2334 6.2358
-20.9541 95.5968 -7.2703
-4.26479 83.9426 3.51564
10.1898 104.802 4.44426
-7.56852 139.832 3.59052
22.6507 145.805 0.631921
14.5795 119.079 2.8688
8.88559 92.8136 5.66161
6.45756 122.841 -5.95632
27.3762 87.3604 6.34754
-0.961425 96.9541 8.84403
18.1788 93.7081 8.96711
-16.8146 128.285 -3.0092
-17.3178 120.338 -5.6382
1.52932 87.9259 6.5023
20.8169 127.032 -0.557214
29.0865 88.03 5.05942
-14.7082 121.02 -2.23964
-17.4609 124.412 -4.10755
14.0463 87.473 -6.87191
-21.5621 133.278 -1.58289
25.8581 134.167 -3.39266
20.7303 146.926 1.94181
8.14935 127.566 3.4756
3.46889 95.006 8.07496
-14.3116 94.7849 3.2975
24.2599 131.797 2.93874
-23.2795 133.753 3.63443
29.8413 100.635 2.66158
8.39216 150.332 1.40662
-9.57936 127.612 -7.95002
-5.79298 120.142 10.0827
18.853 93.5904 8.82138
0.111568 102.571 9.22147
-10.1227 128.102 -8.34922
7.6596 117.285 4.56286
13.6881 145.789 3.10279
25.1121 137.153 -1.98217
22.7223 111.34 -4.01866
