ply
format ascii 1.0
comment Created by Open3D
element vertex 1608
property double x
property double y
property double z
end_header
-4.06438 86.8502 0.964808
4.64333 87.2557 13.9752
1.25579 108.277 -3.04789
-2.99794 89.4504 13.0223
11.2475 102.184 7.93992
-0.565988 91.8417 -0.343902
10.4578 98.4376 6.65622
1.74129 98.4421 22.3131
-4.71714 89.7604 12.9516
-21.5998 105.319 -1.75297
9.32119 94.7555 5.67046
6.48533 83.3515 6.60191
-6.61929 101.791 16.3611
9.33912 113.3 0.81666
-6.44214 86.4882 1.89665
-11.078 87.1903 1.86839
-27.2531 78.5531 9.73823
9.35111 93.5145 16.1316
-20.4207 102.817 -1.99706
11.0335 102.963 9.4257
-22.4789 79.6263 10.0406
5.15937 83.4384 16.9754
-19.9181 106.994 12.9713
-2.15517 92.1864 11.2208
8.9289 111.135 0.249908
2.72157 90.3496 24.6146
4.05312 87.5626 16.7765
-10.5551 114.613 -0.909846
-20.1634 87.2327 1.88308
-10.4615 95.5835 17.4465
-14.1916 80.6756 9.03777
11.4326 108.7 8.23574
-23.595 87.5358 3.02301
9.39117 97.091 5.05624
-14.8081 91.651 0.555939
4.85036 105.581 15.1356
10.3209 96.4236 18.6624
6.69379 84.2024 6.7553
-1.74427 76.9639 4.24613
3.04348 87.5498 15.3061
9.72407 116.478 6.62334
11.0954 116.51 14.8615
-13.1041 99.5316 -0.965773
2.62984 102.376 -2.55092
-28.6189 85.5837 8.55522
-27.2339 77.3384 7.77911
7.04749 111.217 -0.65943
5.82465 114.955 19.7735
5.14182 104.751 12.4404
-13.943 96.2526 0.355173
0.700353 117.572 -1.19914
-3.81776 108.019 -3.04083
-3.9579 106.461 15.0493
6.50059 79.4062 10.3027
7.99067 95.508 24.2391
11.2658 105.884 17.572
-0.849236 94.8804 10.9343
-20.8703 101.494 13.6928
6.02138 98.96 26.2435
-22.2161 92.9806 12.4997
-8.21532 96.8457 16.7876
-1.23446 82.4962 12.3472
8.62063 89.8849 8.48316
4.1036 115.171 19.9117
2.2789 102.361 22.318
6.43122 86.5076 15.5165
10.9934 105.008 18.3783
3.24462 99.1491 24.8459
6.17293 112.544 14.588
-1.55956 115.552 14.9523
-17.602 108.795 15.9868
7.22077 84.5855 13.513
19.8518 123.057 11.1405
-3.86579 103.001 -2.8487
2.00405 103.847 10.2999
2.72645 101.14 -2.1923
-28.2952 83.5731 9.39726
-8.52956 106.624 15.3091
-27.2759 79.8963 4.80189
5.48173 103.766 24.5337
11.0272 109.169 20.1022
-0.316724 92.8442 17.6656
11.359 99.5081 15.4419
-23.0308 100.129 11.1699
12.1391 113.781 3.18566
-27.9124 82.3028 4.66009
7.87461 90.8161 6.40576
2.824 89.903 17.4904
11.4853 101.287 10.3555
-3.68806 98.3696 12.5885
-26.3191 94.7512 1.69818
6.59048 85.4116 15.2457
-9.37331 104.922 -3.28224
12.8035 119.594 4.47022
-18.6223 83.0047 3.54588
12.5551 114.755 13.3608
-24.2559 98.5748 6.12557
-3.10971 94.9921 10.977
-15.2707 99.2748 15.8502
8.8771 99.0794 3.42463
-16.6564 92.0142 13.0415
5.49035 106.692 12.0441
7.63661 106.611 1.43468
11.9748 105.494 6.54142
7.0775 80.8508 11.5433
-4.26917 105.939 15.2974
7.7062 120.577 17.6043
7.28021 87.0423 21.4184
11.3612 101.414 12.189
-20.106 107.654 12.0218
-17.7331 106.186 -2.43278
-22.5936 106.125 9.52311
6.81448 106.377 0.736659
0.156209 118.855 13.8917
-24.5713 98.2889 7.48573
0.221019 94.853 13.7896
-12.5182 117.922 15.3154
-14.2726 98.4801 -0.916186
-18.0444 95.916 13.3218
-25.866 100.795 4.67446
7.4081 115.227 1.29985
-10.4517 105.514 -2.94959
-18.8442 87.2013 1.78684
-10.1221 101.651 16.6409
7.31603 86.8802 21.7004
-3.38363 102.848 14.9868
21.4283 121.691 11.0043
10.8003 120.325 13.9308
-27.8624 89.6415 3.9679
-1.09046 97.3854 -0.702391
-18.1763 82.6559 3.58692
4.09494 119.383 15.3984
5.94288 93.6868 0.984702
-26.7091 90.8756 7.37052
4.43047 92.1995 -0.328133
3.94409 113.987 20.4982
23.1762 121.543 4.07631
-29.2364 80.791 5.56554
11.3812 118.688 12.0825
9.9395 102.398 3.2982
8.64707 122.397 10.0149
-4.62442 115.488 -2.34823
-12.4357 84.3519 2.29073
1.56637 97.6141 -1.62209
-21.0469 87.0842 2.01384
-4.41054 93.6908 0.828316
7.19442 90.0969 5.36675
-11.3268 81.7187 9.81655
11.3284 108.167 13.8925
-20.1465 105.613 13.5516
-9.17516 115.552 15.4214
6.58774 119.26 17.7569
-17.254 83.2165 12.2842
11.5556 121.77 7.98429
6.68513 89.3336 4.99675
-20.6553 112.326 -3.11833
-3.1336 102.531 -2.43976
3.86772 106.725 17.2012
-6.00819 97.591 0.248027
-26.5755 85.8717 11.3767
1.53772 98.7396 23.1861
8.4242 91.9517 13.2675
0.631754 105.034 -2.87901
1.65281 89.5388 16.3985
-14.2393 82.342 11.1424
-24.3459 112.549 3.84848
0.00976475 93.4759 12.7848
5.39702 89.2237 2.44311
12.5639 112.987 15.2601
-3.97519 89.3818 12.6932
1.45471 107.112 10.2905
-22.7985 96.9424 11.0855
0.775649 94.5866 18.4853
-24.0146 88.3307 3.06538
11.8656 120.579 3.91839
2.05782 119.085 12.3361
0.790909 109.665 11.6877
-25.8799 100.148 1.25492
-15.8439 88.4537 0.968782
9.91681 121.346 14.6822
4.01122 86.1074 23.7279
-26.408 83.9769 3.83021
-3.39809 99.2591 12.7554
20.6683 122.481 3.25815
7.13663 83.682 13.7146
4.59852 120.901 14.0847
11.6555 99.8166 12.7324
5.27463 119.676 17.672
-22.931 111.121 5.33118
12.4689 112.286 4.69099
-22.9581 110.877 5.16429
-8.4058 102.18 16.4353
8.47928 98.8271 2.42557
10.715 121.136 5.15491
-4.16839 109.447 -2.99811
-25.739 86.5781 3.11455
9.13388 122.518 14.4418
-17.7009 90.7332 0.336035
9.70321 117.025 0.131356
-1.93125 91.9378 13.1539
9.71956 114.816 19.4626
3.33695 78.9102 1.77737
-19.4019 111.803 12.747
-9.31341 85.2604 2.13636
10.4789 115.997 11.4908
-1.35969 97.8325 17.4008
2.25264 85.9403 25.6075
2.59842 97.3556 25.3062
-17.5718 116.579 13.7676
9.26069 100.146 3.94111
5.27361 84.4977 27.0595
4.98654 114.647 20.2315
2.66937 85.1424 25.215
-27.4094 77.0535 8.40701
5.39788 82.3689 26.7061
-12.3871 81.6324 9.91156
-6.88051 102.127 -2.04425
-4.11333 114.384 -2.65895
-5.40374 118.138 15.5614
7.50739 83.5556 16.3357
10.1226 100.603 21.4492
-9.38525 88.3205 15.6657
-10.5397 99.9094 16.893
7.81008 90.3761 16.6146
-0.106134 115.117 -1.5909
3.35168 83.371 13.2503
4.39898 95.8225 -1.25113
1.25763 103.628 20.9481
5.7096 80.8916 5.86149
8.80179 99.6332 2.90906
-6.62935 112.668 -1.45496
11.5857 100.819 10.0067
11.4346 119.873 14.4403
-24.3727 88.5221 3.17732
-19.4852 112.805 10.2991
12.1422 106.661 5.80524
-26.8868 91.7928 4.04125
-18.1623 112.353 -3.58724
4.6935 109.984 9.33228
-14.01 114.308 -2.50754
-18.8965 113.158 12.098
12.2792 114.331 7.03818
-25.8043 92.4583 2.23621
11.3379 117.757 15.2355
-22.314 80.3406 4.30393
8.5554 96.4275 23.6889
-15.5882 112.226 -3.30668
-21.3294 112.546 7.34389
12.0572 115.035 12.6742
-19.7962 92.7481 0.11216
6.03951 76.459 9.35241
15.703 119.842 9.6848
6.30251 111.711 9.87972
-11.5485 114.463 16.0031
-10.6014 103.855 15.9799
1.0977 86.6639 10.002
0.307649 108.768 12.547
-14.2473 110.911 -2.94436
10.8963 116.82 12.8944
-2.05994 93.0319 14.555
2.46644 86.0291 25.2529
-13.0345 94.3431 16.2683
-17.4262 106.932 -2.31533
7.86603 110.563 21.6857
-6.92162 87.1382 2.0844
-22.8709 99.6433 11.7537
-0.360716 103.566 11.4315
-13.4337 107.609 16.2642
-18.9688 88.3083 1.738
6.26872 93.5348 1.50942
2.62717 99.2031 12.3657
-18.2943 101.686 15.2221
22.3484 121.337 10.9854
-21.4858 79.9189 8.59255
7.65534 86.4101 8.16318
2.68847 94.8981 26.844
-16.9005 79.9627 4.65787
23.8596 122.155 7.43388
-25.9516 95.0081 7.38238
9.76266 92.6976 9.54268
11.882 117.676 16.5591
-3.70771 114.891 -2.68279
10.9587 104.866 10.5229
9.37337 96.0045 22.5677
-23.474 83.3206 3.96538
-2.03225 83.3069 8.83495
-9.98503 98.6759 16.808
4.41315 75.3859 4.28945
-25.5679 102.133 1.343
-15.8188 110.436 -2.91684
7.40898 118.869 12.4269
13.4563 123.546 11.0596
-15.6679 82.9153 12.199
-21.1767 80.4855 10.8995
-27.8721 78.8833 6.44638
2.74731 87.9742 11.4709
-9.07639 91.5382 15.7728
8.24201 94.7266 23.8264
6.21466 78.5748 13.0736
3.98318 118.049 7.97636
-0.0705874 81.1412 0.787763
10.2293 115.318 1.89795
3.83992 86.6751 2.08728
-11.5569 96.0977 0.615267
6.61981 112.165 11.9612
10.9041 122.622 13.1005
-22.8407 111.492 -1.88507
20.6473 122.235 11.1934
7.59205 116.308 11.598
-10.4347 109.339 -1.55491
11.7124 109.63 9.15448
-26.7793 78.6445 5.02867
10.8426 119.567 0.871824
23.4868 121.88 4.3555
4.96705 121.451 16.8965
-20.7275 116.18 7.64059
10.9889 117.105 9.03801
7.95674 119.102 0.738285
6.54706 93.8934 1.6662
-10.9262 91.6454 1.10083
20.4474 121.808 3.93405
-26.1948 98.4663 4.00457
-13.7745 85.4925 13.8285
10.2064 96.6732 15.2609
6.95828 79.1096 12.3732
9.00726 92.3332 17.039
-18.4004 86.6796 13.5698
-19.1558 80.5671 9.69072
10.4521 123.473 13.6977
-4.49344 80.5526 8.78272
10.7382 111.99 1.57429
10.0445 118.398 -0.671793
-1.2874 92.2957 11.2177
18.213 122.056 10.1239
9.83655 113.855 1.10179
6.68032 82.2704 14.4346
4.67716 113.703 8.25557
-19.1347 79.3919 4.99839
-8.54636 81.1518 8.31127
5.85486 78.7223 13.3916
5.81251 85.8213 16.1697
6.32778 116.785 0.554167
5.2652 96.7002 -0.956518
-12.4192 105.5 -2.76293
6.8209 102.898 25.2863
1.63666 88.2916 28.2495
7.27753 91.9901 4.20784
3.2954 112.08 18.9557
11.5288 123.113 9.56793
0.205357 83.599 0.622895
-17.0266 92.4773 12.9036
6.94919 85.9261 25.5424
1.33365 83.02 13.5866
-10.2097 80.0488 7.97042
9.39272 119.253 17.85
-5.46391 104.499 -3.23426
2.59697 94.1632 19.2237
2.95845 89.4627 25.0128
-16.6362 79.4354 5.11045
6.32202 87.27 15.7033
4.71325 81.4967 19.2535
-0.243625 100.493 19.8622
-18.8797 106.573 15.0647
4.61851 78.7357 4.05067
-7.80406 91.8353 1.59249
5.00097 78.96 5.25928
-0.688978 91.6527 12.9528
14.0816 123.664 11.6244
-12.4676 106.784 16.0645
9.46397 111.924 0.206011
5.08775 89.4755 1.9683
-27.2391 77.6638 6.05544
4.10444 86.6815 21.5652
-14.5055 113.269 -2.76774
12.1067 120.916 7.58572
7.51726 117.03 11.9554
-10.2137 112.393 -1.15858
0.344254 105.723 12.8062
-23.383 102.415 7.88206
-5.34457 101.205 15.9081
-12.2744 76.5536 6.6009
-19.0865 113.388 11.0631
-0.723852 89.0267 9.92945
3.0183 113.989 9.05701
9.82024 93.2279 9.97734
12.3359 118.341 8.94697
3.90994 87.7776 13.1559
-20.8048 114.732 7.79345
-16.4257 87.701 14.0684
-3.18657 97.0055 11.692
-11.9249 77.2203 6.30542
-8.74386 81.3051 8.34683
-6.4311 97.054 0.453255
2.95136 107.24 9.65726
-22.924 85.9287 12.5177
-17.096 83.405 3.33443
6.5781 83.3686 15.6239
-6.83481 111.627 -1.67613
-27.3966 86.5351 10.1679
0.354388 96.7859 11.4034
10.0436 116.332 -0.106927
12.3469 110.881 3.45194
0.689786 105.89 -3.31117
-25.413 94.3021 9.0632
-4.62392 76.9263 5.2169
10.2685 107.249 3.03769
-18.4006 114.515 12.1771
-20.4572 106.215 12.3596
13.5389 121.715 10.2455
19.5084 123.309 11.005
0.621087 100.256 -1.36227
1.45971 85.7447 27.2081
1.03113 101.294 11.7456
-19.4953 81.492 10.0864
9.99947 119.106 0.339333
13.035 119.96 9.25612
-11.6655 106.378 15.7887
-15.1632 112.101 16.4912
-19.4396 101.543 -2.02726
5.11223 94.0159 -0.199566
-21.2991 104.478 11.1625
-12.2216 91.1847 0.89107
4.08477 78.6917 15.7452
6.60775 88.7302 5.64828
-8.87411 80.9842 2.79027
-5.60692 92.3734 1.00916
-25.8188 79.1027 10.762
11.7335 103.808 5.66464
-15.0407 113.704 -3.20766
10.5946 120.508 12.5231
9.28693 118.127 0.352804
-19.4321 112.719 10.5524
6.34882 99.2647 -0.651659
-11.3222 87.1818 1.84532
10.1611 116.308 2.38559
-16.3769 112.112 -3.51593
-13.9335 101.314 -1.09365
-7.65352 88.0221 1.88791
10.0223 93.791 7.79176
-22.4824 82.8529 10.9105
-0.468227 84.5229 0.570035
6.66374 98.8636 -0.161862
10.5117 115.577 2.06304
5.57047 83.7792 20.6127
11.5854 100.856 11.3609
4.57619 116.05 19.5616
10.907 115.418 2.00818
-22.6963 105.575 9.22191
12.1454 112.964 3.47021
-27.3218 90.9012 3.13638
-0.549555 81.2637 0.729422
-28.0171 89.0355 3.83528
-14.6152 107.267 16.5073
2.2123 93.7032 18.3418
-24.7125 112.738 1.62262
-13.1815 110.812 -2.75639
-22.8293 96.9231 -0.383229
7.37882 120.575 11.8754
2.28831 117.531 11.008
4.95601 120.944 13.6538
-0.0245543 93.2183 -0.863698
-18.536 114.619 11.7918
19.0324 120.385 1.11771
9.32929 105.67 22.4892
-3.35065 90.6493 11.0802
5.7012 112.715 -1.66042
10.1296 119.64 0.7104
-23.5646 90.774 12.2363
-1.74511 91.4429 12.6562
8.75602 118.532 0.909913
11.0097 115.471 11.2898
9.34309 95.1255 5.49858
-24.1148 108.247 0.0061018
4.73582 111.041 9.05079
0.132779 92.148 -0.68167
9.77784 94.5524 16.3299
-16.6596 104.622 -2.1377
7.1862 80.9164 12.321
8.29713 85.9211 11.7475
-29.8118 80.6871 7.22372
8.15975 93.287 4.63455
3.81737 79.8859 18.8443
-5.28426 83.5096 1.83486
-5.93463 91.6802 13.1773
-5.56823 79.7987 8.25708
2.18329 96.6782 20.0784
4.74338 85.9663 28.27
12.5898 112.971 5.1883
-11.0558 86.8362 14.0294
-28.7031 82.4188 8.62307
-23.3684 106.092 8.1219
5.6662 112.331 -1.6502
5.92554 110.483 15.0353
0.538682 96.4912 19.1146
5.39159 76.2987 7.41969
-9.59641 90.0553 15.6102
22.8809 121.465 8.92879
-12.5058 84.9002 1.94256
3.86607 74.4468 3.42319
-16.6474 108.713 -2.18057
0.651513 94.05 18.2614
2.00891 90.1174 17.4017
8.41226 88.8352 13.2012
-25.0778 97.2032 0.420103
-17.7659 107.089 -2.11174
-23.4582 105.615 0.19535
-16.5193 82.4817 11.9902
8.44406 89.5418 21.1924
-27.6536 78.9788 5.07144
-25.0411 100.556 5.92384
-23.7631 115.286 5.10317
-17.2103 115.443 15.3701
11.4442 106.967 9.54369
-19.6594 80.1533 9.46533
3.77355 85.3353 23.9981
9.53995 95.9381 22.2451
-0.916225 88.8757 -0.119676
-15.007 108.098 16.5622
5.69202 85.986 19.3297
3.53058 75.0971 3.00501
-1.34043 102.664 13.2708
6.59737 87.1675 19.7607
6.58709 113.266 13.3498
-2.86561 114.299 -2.99641
-16.0969 107.028 16.6068
10.0443 97.1664 21.0604
3.43382 116.193 -1.54051
9.76318 91.6701 8.44489
5.99275 86.3975 17.4556
3.55948 111.486 21.16
-16.5786 111.363 -3.32447
-17.9359 112.931 15.3268
-23.5959 107.861 5.42239
11.7007 103.707 6.6507
-10.6524 84.7456 12.2091
-3.73465 98.7074 -0.387994
10.3768 103.637 20.1073
-17.8475 96.7927 13.7037
7.6706 83.9004 9.05831
-13.4665 101.472 -1.00518
2.65497 95.4483 26.6332
-10.7012 79.8995 3.32046
-2.25731 106.307 -3.04343
4.03031 86.0557 15.9387
5.98526 85.8428 15.8911
-2.40535 83.3678 1.22265
-6.67664 84.3941 11.8573
8.20069 105.099 23.9472
0.833925 112.744 -1.31386
-24.7761 87.3576 3.20034
1.41091 98.0911 20.7664
-14.119 80.8381 3.6191
-0.182928 94.8232 18.3888
-7.76982 112.921 15.4989
-5.03361 118.816 15.3726
10.4076 118.844 -1.67363
3.16589 116.75 -1.01833
-21.1545 94.625 -0.177019
2.46431 107.506 20.9307
20.5647 121.787 2.35159
-24.3432 105.326 6.30075
4.17023 92.2423 27.3572
-19.2769 104.723 -2.40691
5.54386 106.726 12.4104
-0.475936 103.423 11.387
1.56977 115.488 12.3309
9.25557 94.4066 21.6152
-27.8255 89.8271 4.16089
-4.36462 95.0181 12.6702
-4.26722 81.4878 8.61697
-11.9763 80.6084 8.15642
-27.1204 80.424 10.5179
1.11582 96.8019 19.3122
-1.90874 93.0717 13.6688
8.71384 119.236 0.0337219
-0.873096 94.3113 -0.664713
-26.1504 99.9831 2.78842
1.79175 113.624 11.0159
4.80197 85.8995 17.6153
-13.676 105.937 -2.84914
-12.0275 109.452 -2.40743
-16.0525 108.106 16.5881
5.35382 105.714 12.8161
4.53344 107.897 23.592
4.70207 91.6603 0.419591
10.7531 115.403 5.89149
0.973401 103.393 20.7636
11.9469 112.586 3.13623
7.78384 119.376 0.842849
-10.5212 117.808 15.6753
-3.74378 97.3918 12.5557
-19.6634 93.7251 12.3743
-15.1358 75.8314 6.39577
10.7697 97.799 13.8155
-7.98728 103.237 16.0351
-24.7317 104.231 5.54672
21.3844 123.104 3.5648
2.91429 87.8257 0.0311167
-13.3243 108.203 -2.00356
7.94175 92.4321 5.08369
-16.7423 76.1126 5.96875
1.86572 89.1029 16.197
7.50274 99.2581 25.4355
11.7249 112.079 16.5905
-4.56947 98.6142 -0.314473
10.2591 119.64 16.9339
14.2816 121.479 10.5789
-23.4942 109.804 4.36973
-22.353 96.7941 11.6934
-22.5709 77.9427 4.64444
2.95252 86.0311 24.7462
2.20009 89.7235 17.3861
10.3588 96.5614 19.0901
-3.24369 83.0852 1.36856
23.9311 123.448 5.7695
8.88006 91.2356 18.275
11.2615 102.736 18.2228
-20.1652 110.765 12.2776
7.78378 90.8836 24.9918
13.0071 123.185 10.9568
-13.6984 88.9944 14.6184
6.32307 78.2598 10.6899
-24.4344 82.2346 4.24155
9.71524 120.02 17.336
-18.9091 81.4646 10.5854
-2.98233 89.9587 12.1826
0.965141 103.248 10.5378
6.75452 122.019 11.6524
7.27745 120.969 7.31437
9.25669 114.331 1.41827
-6.91662 82.4455 2.40332
16.5248 122.139 11.1044
-23.9698 100.038 6.78748
-5.52482 106.773 -3.18745
8.21549 123.26 16.6667
-4.88619 87.506 1.29402
-15.3753 88.0314 1.26185
-15.2631 93.1916 13.8067
-1.07949 113.221 14.6193
6.85107 82.9012 14.4676
7.78931 109.683 0.449124
-4.77331 102.76 -2.81898
-23.4973 112.415 -1.22416
11.4703 101.313 9.93537
5.66091 106.512 -1.56504
6.18916 100.385 -1.04226
5.37564 97.624 -1.11682
-3.95213 98.7622 13.0224
-7.42239 112.017 -1.16928
-19.7642 92.8331 0.075489
-27.3268 77.1447 5.71754
-6.77161 79.3781 3.42395
0.530798 76.2695 3.61747
14.7477 119.825 0.254079
2.45283 109.55 21.1773
16.6666 119.96 10.8771
-23.0959 98.3252 -0.567513
-8.06862 89.8232 14.8477
4.76513 75.1867 5.53929
11.499 121.8 4.63443
6.14358 101.898 -1.31258
-22.5188 87.6266 12.7019
8.52232 100.101 1.7278
-5.33903 100.473 -1.6221
11.2898 102.566 18.1602
-19.0028 107.834 -2.04367
-4.29377 114.368 -2.61829
11.9013 105.007 5.98963
9.26817 92.7673 11.4868
0.217018 108.351 12.5365
-14.4926 79.1411 8.13718
-2.8029 112.104 15.3077
-20.8021 80.1844 8.48443
-23.4669 110.099 -0.974527
7.74075 120.178 7.76222
-0.858191 91.3154 -0.215012
-8.97884 79.6193 3.00951
4.98713 86.6458 3.63818
0.278693 118.486 13.7965
11.1645 96.762 9.65727
11.9028 121.255 6.65027
2.54095 94.0419 -1.38219
-23.6542 100.227 7.16185
10.9649 105.38 10.532
2.16175 94.189 25.6284
-13.6262 79.4127 4.07689
-24.8122 110.32 2.6587
0.905669 102.604 20.7644
-14.7082 75.6563 6.54873
3.14977 117.674 -0.199178
-17.0101 111.002 -3.23779
-8.09073 90.3167 15.2556
1.76144 112.937 10.8008
-21.7468 109.977 8.48312
-18.9894 92.0085 12.3739
10.6464 115.967 10.1058
10.9123 104.7 10.8127
-10.1534 114.524 -0.752019
-5.19588 93.8884 12.942
-14.4276 84.9704 13.2628
12.4122 115.346 3.84568
12.8619 111.85 8.51666
3.77275 102.608 12.2276
2.06072 96.1988 19.1802
7.91611 88.8462 13.7519
-7.21832 117.207 15.5688
7.78419 110.714 21.7192
2.85438 88.2613 -0.353664
7.82527 89.3359 17.9021
-18.9159 101 -1.89845
-7.21657 117.345 15.5845
9.24711 105.308 22.3934
3.80276 99.7793 -2.22199
9.4055 92.5119 7.32652
21.7141 121.743 11.2956
8.32066 122.933 10.5251
12.1209 116.497 16.072
-11.7563 96.0255 17.2428
18.9502 119.995 10.0191
3.45362 112.315 -0.991492
5.12914 82.5971 19.3689
5.5195 77.5694 8.19868
-28.3248 86.907 8.49332
-16.5729 94.2607 13.507
21.7899 121.95 10.6487
4.6629 116.164 -1.44018
-20.7801 84.7061 3.20312
11.5499 105.121 15.7085
1.76442 103.713 16.7749
-2.56194 90.3936 12.8125
-20.7861 90.7697 1.66016
10.0269 96.0727 19.4413
-25.5524 95.8707 7.61244
5.82664 109.193 10.7092
8.0163 97.5745 2.26372
-21.4758 111.949 7.0041
11.6134 105.731 15.3627
-14.1376 97.278 -0.19339
11.4446 104.676 14.932
5.99609 108.834 -0.30649
1.04325 105.281 11.7355
-14.4983 86.4583 14.1986
-4.55968 84.9116 12.0127
7.57524 112.76 21.1715
10.5992 121.76 5.54862
-6.84166 83.3031 10.0604
-10.3996 115.491 15.7584
12.1148 111.091 7.0953
9.68909 105.062 2.46116
-9.18318 99.8854 -0.780509
6.62069 98.3444 25.9278
-26.154 94.9954 3.42353
0.419234 101.429 19.0743
0.284281 112.432 -1.85217
6.99945 79.9235 12.1755
2.52002 85.0532 13.1475
-25.8264 93.3487 8.15913
-17.8974 100.019 14.9834
12.6356 121.579 9.52601
-18.8616 110.81 14.5786
-23.5383 79.0432 4.65227
6.05646 105.807 -0.844933
-17.0294 75.7555 6.05454
12.1168 106.924 7.09435
8.17869 124.395 16.0942
-21.1622 116.137 7.1662
-21.2727 104.467 11.3077
5.18092 118.597 7.38285
1.4518 96.6298 13.7042
6.07214 109.44 11.5636
-12.5039 113.252 16.3464
-11.4516 100.943 -0.571171
7.9877 119.701 8.73567
-15.957 106.895 16.654
-8.50877 96.1623 16.8257
-19.597 109.023 13.2275
9.58443 97.4366 5.37335
3.15569 88.3799 11.7768
6.071 84.9053 21.8672
-15.6834 96.8572 -0.516281
-4.73153 84.6941 1.50604
-2.90475 91.5405 13.3769
16.5057 123.644 11.1372
7.59148 87.1393 23.7778
5.72205 117.107 7.64542
21.6721 123.274 4.49648
10.0021 118.815 2.03246
-23.6842 109.852 4.24547
3.89345 118.443 16.1083
5.75958 112.159 -1.61607
13.9469 119.977 6.61905
6.3409 77.88 10.8415
7.29938 116.103 12.4459
-0.148462 100.853 16.7077
10.5032 120.058 1.62483
-5.23919 96.746 0.466516
-6.29395 118.292 15.5945
2.12105 101.432 -2.07398
-8.06604 83.239 2.81077
-22.7793 83.7156 11.7542
-25.6288 91.059 10.4932
-1.89977 94.6113 14.413
11.3045 117.123 10.1595
5.1466 109.671 -1.64571
-5.94453 90.3145 1.3739
2.79751 89.3663 22.9665
2.15605 87.0057 -0.741755
-7.92943 93.5255 1.0764
-27.9873 89.108 3.68669
11.0127 99.6128 7.15962
11.4264 121.754 7.63912
-27.1013 82.0138 10.6828
1.43606 90.9488 -1.05454
-11.7952 80.1894 8.01629
-9.31213 92.4164 16.5704
11.4853 122.142 8.08212
8.59504 92.5437 15.0276
4.3098 92.0888 -0.462953
-24.8833 103.065 6.09293
5.30628 79.7196 5.47555
4.25517 83.1012 3.27028
-21.8317 107.832 10.7052
-0.543356 114.341 -2.22984
-27.1027 92.5235 2.23477
-8.93354 82.0652 9.49767
10.2429 95.5808 10.9697
-13.9458 118.947 15.3306
-15.2974 103.376 16.6058
4.94195 87.6499 2.85445
-8.75083 116.317 15.3598
-21.1902 103.644 -1.78265
-16.9612 77.9834 5.26316
8.04346 90.4534 7.24216
2.07264 101.359 15.9225
-0.016566 117.546 -1.26321
7.27654 86.3139 7.60569
-24.9157 79.9763 4.79733
-14.181 80.8928 3.58057
-10.1156 92.5014 1.06497
4.93256 88.4819 26.9275
7.29522 85.0528 7.81763
-17.6097 102.401 -2.00622
6.33276 96.6186 26.5937
10.0168 100.55 4.90517
-17.8985 103.105 15.6342
10.6608 120.432 15.9476
6.84011 113.53 10.1993
0.579364 104.113 -2.51083
9.75954 117.725 3.26173
-1.43101 92.3334 -0.000300351
-4.2228 99.7542 14.1945
7.85976 107.364 1.65814
-12.2859 102.838 -1.54358
-2.58253 92.0356 13.1615
-6.0128 79.5129 3.15602
-15.6506 113.768 -3.56246
6.30955 113.933 14.7803
-2.30228 89.9289 0.356054
8.61582 90.7549 19.8888
-13.5372 104.284 -2.30523
4.35335 76.1935 4.78983
-2.09619 91.4647 12.8496
-3.93031 87.6661 10.791
-7.42208 84.9596 2.44891
5.84669 109.636 15.0117
1.28482 106.609 -3.21729
3.49459 118.378 8.60413
-13.9106 105.989 -2.93545
-14.5867 99.0562 16.0994
-26.176 99.8393 3.25828
-2.39309 103.167 14.3001
-26.5598 89.7187 3.03075
-1.46082 110.869 14.7903
-5.20036 87.9162 1.41848
2.63009 89.6214 23.1451
6.21728 86.862 6.16288
11.3279 111.149 19.3966
-5.12735 119.293 15.1617
-21.8704 107.048 -1.90084
11.0709 105.272 3.87257
9.04596 112.905 20.0263
8.73374 88.5631 10.9357
11.6693 118.601 13.6159
6.03322 82.8163 5.63566
-10.3152 106.257 -2.44554
-24.9056 83.3997 3.48906
8.90216 107.06 2.31859
1.34865 108.89 10.4262
7.7661 96.9573 2.30408
2.89537 101.027 15.1012
-19.6553 105.213 14.622
-8.80004 88.193 1.83266
-2.23562 91.2827 11.2982
-24.0431 90.0128 12.2765
1.09314 112.152 12.1675
8.53568 122.241 16.758
1.28647 103.966 20.5285
3.05593 77.5833 1.81404
2.02805 88.822 12.6962
5.06947 109.038 9.82579
11.8246 110.025 10.3024
-17.5312 104.438 -2.34837
11.724 115.229 4.40758
-17.0269 89.8111 0.600764
-8.56023 90.7307 15.4436
6.4565 88.0497 6.08142
-24.475 99.0506 5.81239
6.73922 84.7447 16.2601
-23.7429 78.7271 11.2761
-14.9079 90.538 0.550102
2.28697 108.275 20.2638
8.16236 117.539 18.289
-2.76052 109.416 -2.67077
12.3997 112.454 6.30256
4.46771 86.3408 21.8663
4.12644 80.9106 21.307
3.44065 88.521 13.7546
3.49943 88.2214 16.6056
-15.2272 110.439 -2.95479
-7.74172 110.475 -1.45641
12.2729 111.658 5.19464
10.9926 96.393 9.1625
-24.8819 85.8902 11.805
-9.23511 111.122 15.3797
-13.3446 83.6233 11.6824
-25.2083 96.8844 0.552419
9.94832 123.412 13.9046
5.66279 107.547 11.7012
7.12119 86.0424 25.2093
0.90541 88.8215 13.125
5.28814 114.864 19.9924
4.63427 86.8883 28.1651
-10.2395 80.1472 8.00225
-5.55835 115.605 -1.61291
1.34509 85.5688 28.196
23.8662 121.758 7.09265
-0.358802 98.2725 16.2265
-1.64539 97.0395 10.7947
-2.63934 89.9342 12.8297
6.45132 112.804 13.4973
-1.26366 88.5602 -0.00625765
-24.3589 86.2875 12.2244
5.3607 119.727 17.6302
-29.5051 79.9951 6.3655
-20.2277 108.329 -2.70029
7.05012 89.7805 25.6669
5.74114 83.9112 23.0988
12.6914 118.965 3.81774
-10.6587 116.327 15.7751
-14.7118 86.1669 14.0549
-16.1324 102.2 -1.88367
3.39162 88.586 0.398276
11.8424 122.602 8.27249
6.64567 98.2008 25.9433
3.01233 96.4832 23.4665
-16.894 92.6905 12.9219
-27.7025 87.1992 9.34806
4.61603 108.256 23.487
11.6038 114.051 2.40778
6.11157 81.3288 6.63518
-5.62517 95.4077 14.1471
11.7534 119.3 6.70624
5.60837 83.0724 20.7141
-25.83 100.961 4.14323
22.1168 123.92 7.81227
-1.87466 111.475 15.046
-9.32124 85.9583 1.93447
-6.62291 95.8944 0.843894
7.72754 112.214 -0.875731
-11.8574 80.0241 3.54088
3.05006 117.842 9.21729
5.87043 98.0892 26.5009
-6.72425 112.179 -1.56033
-8.03795 84.5094 2.54807
-20.4208 97.863 -0.382118
-19.5939 104.581 -2.3554
8.34579 121.294 8.84829
6.70392 112.239 10.829
1.72778 86.2177 10.884
3.77264 86.6961 1.99991
-20.7616 97.8268 -0.368836
-10.4157 104.813 -3.04028
6.8484 112.523 11.2182
7.81625 108.773 22.3342
11.5136 101.107 9.87542
3.30267 96.3409 24.8478
-6.21449 83.3924 2.14793
-23.9459 96.7611 0.0142251
0.751689 111.723 12.8517
12.4161 118.702 8.62496
-26.1949 90.0987 2.88166
-2.10164 88.8484 12.6037
-10.6256 114.356 15.7068
1.69813 103.735 10.2264
2.69127 109.164 19.6485
9.07092 99.139 23.3268
10.3533 107.181 19.9982
-17.6879 76.7224 5.51918
-21.4728 104.758 10.1141
-4.79661 86.4761 12.5172
-2.7762 97.8259 11.4043
7.08487 86.1046 24.7105
14.6018 120.102 0.0829062
4.13554 87.5696 22.8846
-25.9198 94.7326 7.87406
5.85942 90.2498 25.8787
-2.37287 77.0708 4.79009
4.48248 86.3617 22.258
4.04359 86.9392 16.5418
8.1515 84.4527 9.99043
7.0387 87.9788 18.7452
10.5364 120.448 16.1
-20.7627 111.215 8.01743
11.0379 106.499 10.7536
7.15171 81.875 8.51205
-18.9407 81.4062 3.91107
6.09956 86.6658 17.7965
-12.3841 85.3515 13.3222
-0.0709757 112.375 -2.30907
-24.7593 109.074 1.19784
9.43324 94.6193 14.1041
8.90031 99.203 23.5875
-18.0676 92.9451 0.250446
-7.46531 101.93 16.404
-1.32991 97.2669 18.1165
12.4511 112.592 5.9612
3.61293 89.6611 18.2042
-0.0335225 94.6993 18.3714
-1.18215 96.7936 10.688
-25.9522 80.5332 11.2138
7.9507 89.1147 24.3317
7.39437 100.752 0.448637
-4.30871 94.3565 12.2088
-3.44577 97.3658 12.115
-25.4394 101.523 5.16782
-9.88329 114.106 -0.703075
10.5439 120.882 15.1403
6.78084 103.574 -0.258987
1.63919 100.457 -1.69392
5.32038 102.947 -2.08405
5.67332 114.046 -1.40153
2.76221 89.0833 21.9003
-0.0691143 107.941 -3.4873
9.88526 118.543 1.90114
-12.5983 112.122 16.3009
-27.8657 80.7096 9.62309
6.32357 120.495 17.5214
6.28937 110.764 -0.587672
12.4665 112.529 4.95559
1.65881 115.351 12.1814
-0.11497 104.096 12.7373
11.2163 104.542 12.9751
-0.1283 90.9747 13.4495
-1.15299 95.424 18.3272
-0.971778 121.794 13.7922
2.09422 97.6391 13.9654
4.14461 104.712 24.3985
9.5485 90.6603 10.916
-6.54667 105.109 -3.43153
10.6534 97.9504 16.8275
-5.55509 120.072 14.8968
4.01553 86.3938 16.672
3.84036 85.5193 2.71919
3.64299 79.7379 18.3802
-14.0032 114.547 15.7523
5.87203 118.976 13.5614
9.79868 108.751 21.0922
10.8708 104.342 19.0334
-28.0233 87.4964 8.74854
-15.6726 119.945 15.4234
-10.3556 86.3269 1.90981
4.47895 84.1936 3.82218
9.08766 124.008 14.2306
2.87362 92.5694 18.0506
6.99482 81.776 13.743
11.0497 110.512 19.8182
-9.51285 92.7745 1.10736
3.54526 85.8752 2.16486
-28.659 83.669 8.93742
12.9423 122.598 10.4498
11.3011 120.958 6.44533
-9.57733 102.796 16.3318
-20.1572 97.4268 12.4529
2.95598 119.161 10.3207
10.769 104.894 19.0655
-22.4965 87.2057 12.6956
9.62312 96.6635 22.3185
11.0324 114.964 4.6265
5.15818 79.4863 5.2155
12.4918 110.78 3.901
-17.8984 118.41 11.9911
-4.23298 106.097 -2.83376
10.2559 115.529 7.73182
12.6085 112.896 4.50025
2.4406 89.2385 26.1784
-2.0825 82.1693 11.5202
-17.6545 82.4274 11.9897
-16.9664 90.6447 0.328077
6.28874 110.701 11.0113
-7.93087 88.1524 1.84542
5.43422 108.218 -1.36117
-2.25362 91.3341 11.4783
11.5921 108.869 4.01652
12.1618 114.786 12.3258
-0.456037 95.9456 18.7529
-21.4666 80.0719 4.60713
17.906 122.939 10.5053
8.41246 89.7535 19.8261
3.7152 120.402 9.17215
11.3431 118.273 16.6897
3.04288 108.12 -1.18549
-27.2926 89.3287 8.58451
-14.5456 90.3688 14.0972
10.8258 116.814 11.3561
7.64929 87.7277 24.7775
9.15502 105.457 2.08534
-6.56177 94.2983 1.01995
-17.9176 95.6056 13.3361
-27.1313 91.6632 4.75451
-22.0921 108.971 -1.06873
12.5401 115.282 16.5888
-20.6179 101.324 13.8091
1.28715 85.3779 29.4126
-10.2703 79.8891 3.23646
-24.7203 108.823 0.554841
11.3409 103.762 16.0148
-2.98987 112.105 15.349
1.81763 76.9525 2.82862
11.4327 123.087 9.50405
4.7331 81.2498 3.58071
11.5141 107.261 14.6075
4.69416 86.5541 13.4493
4.66092 118.848 14.9141
11.429 101.028 16.9607
6.61503 82.0832 7.40083
-0.577727 105.655 -3.23225
-0.971621 106.224 -3.40957
10.9442 117.358 14.7827
-6.4021 89.2153 13.2408
-27.9738 87.6914 8.45218
-18.5553 80.111 9.70186
9.21565 93.3023 19.2419
-13.4822 103.849 16.82
-6.73727 115.878 -0.368185
1.55775 85.5724 26.7752
2.88744 90.0753 25.0378
6.80752 86.2901 25.857
6.71773 78.0814 12.4972
-0.342366 90.9752 13.8138
-11.4729 103.934 -2.37496
-16.0528 100.891 15.9994
9.28222 96.3067 22.7168
-28.4791 83.7303 9.18761
-6.50608 80.1596 2.13548
-3.16093 89.936 11.8095
7.34249 97.767 25.7098
-25.8296 94.2695 8.17276
0.64906 99.3635 15.9615
-16.0662 106.554 -2.70279
9.5154 114.341 19.6824
-2.36562 83.6443 9.74869
9.69642 117.706 1.82825
3.52921 95.8437 23.8456
3.35323 106.404 -1.76568
-21.3688 110.631 7.59786
-23.3733 101.182 -0.740743
4.35971 104.297 -2.10114
7.41204 89.4165 7.0757
12.3921 117.711 11.0862
-12.1485 110.101 16.1138
6.66034 84.8081 15.5826
-16.747 87.191 13.9649
-7.64114 77.8843 4.98155
13.1476 120.653 11.5866
-7.87735 104.642 15.4459
0.387795 114.808 -1.19856
5.26015 86.0862 4.73213
-22.3395 95.0075 11.4395
-10.6246 101.1 -0.763257
-14.2861 104.765 16.7372
-9.21449 83.7201 11.684
-23.3798 102.269 -0.511847
-18.5014 85.1433 12.9971
-13.4127 94.2854 15.8894
-5.30824 98.9108 -0.409963
5.2577 83.0156 18.9889
10.6533 108.094 3.36511
2.56148 107.197 9.69611
-24.4362 100.784 6.67586
-1.65102 90.8806 11.1518
11.2915 105.858 9.26577
10.2254 112.771 1.10503
3.54594 111.658 18.8998
9.32615 122.164 16.393
12.6726 114.161 12.0426
6.17373 84.6069 14.7512
-13.9025 96.1872 16.208
-21.22 103.394 -1.62544
4.43992 112.556 -1.44187
-19.7051 84.9819 12.4478
-12.4797 80.5857 8.18411
-9.59637 85.8166 13.0392
16.1657 118.739 6.29419
-5.81506 114.894 -1.53725
-22.9613 100.922 9.937
-6.53631 86.8832 13.6034
8.56908 92.1282 6.43896
11.9019 115.486 14.222
-2.55227 112.478 -2.9666
6.95816 112.312 -1.29885
8.19242 92.9066 5.03892
10.1681 119.457 0.588575
10.4473 111.718 1.16747
10.3111 94.5234 8.75187
-14.638 84.7606 2.11042
-2.14587 86.8352 10.3166
-9.77117 102.538 -1.66525
-24.5916 102.47 6.84873
-4.41315 85.0211 1.3748
10.0003 102.013 3.68316
0.762876 85.3505 9.81411
-16.6609 114.791 15.9454
-3.06929 105.496 14.9309
11.2144 107.441 12.4044
-28.1558 83.5829 9.58133
1.29648 101.274 11.81
-1.85676 98.2417 -0.389657
-18.103 111.024 -3.11687
5.43809 116.004 19.6151
9.83434 95.53 19.293
23.8879 123.312 6.18346
11.1378 114.69 6.51667
16.1953 119.625 10.1174
11.385 101.393 17.0838
-4.10647 81.3414 10.0954
8.84263 93.0818 12.9611
-9.23392 108.684 -1.31514
3.18751 112.966 -0.666216
9.08262 116.301 0.78023
-24.7584 94.4484 1.12289
-27.0726 84.411 11.0048
-0.21883 113.157 -2.18725
-17.8987 80.128 9.99232
-1.34509 84.4402 0.832765
-27.3569 76.7735 5.89594
-10.3346 110.635 15.4808
15.7965 121.452 11.0568
0.520245 92.6965 -0.996089
4.6093 78.2397 4.49607
5.37523 84.8698 21.4256
10.1173 93.8736 8.00891
11.0972 106.509 12.1077
4.42219 81.9107 3.05459
18.4993 121.58 1.06943
-2.7541 108.989 15.0868
-3.10733 82.0585 9.87258
3.46024 109.186 9.27256
9.71269 95.3074 13.0451
9.47569 103.86 21.55
7.10515 120.096 7.40304
-10.2291 110.034 15.583
5.38004 84.2407 21.0305
-18.8776 114.664 10.5881
-11.8202 112.583 16.0108
1.26692 98.3047 20.8867
11.0099 98.377 7.39162
-0.800182 90.8983 -0.252585
-22.2863 108.102 9.38081
-3.42796 109.975 15.3523
-10.1194 88.2874 15.2728
1.94083 86.6134 11.0844
11.3243 101.475 13.2522
3.34134 96.8935 26.2917
-7.30191 96.3158 16.0615
-13.644 86.1845 14.2134
6.42763 101.628 -0.991006
3.43396 92.4372 27.6515
8.21568 86.9765 9.72328
-1.76618 91.6937 11.8197
-15.9663 114.449 15.911
4.72068 105.077 24.2012
12.5725 121.231 12.1143
6.2902 110.887 12.8962
-6.78586 91.9792 14.0861
-23.1502 100.317 7.94867
-4.56458 84.9006 12.0086
-4.77586 104.233 -3.05035
4.1428 118.262 -0.200277
-19.5277 111.399 13.0872
-3.83199 111.374 15.5176
-15.1744 112.043 -3.0946
3.38233 119.239 9.23927
-17.6605 112.027 -3.50229
-15.903 88.814 0.762082
-26.8781 91.6932 6.18516
10.1657 109.028 3.06868
9.37133 103.965 21.7684
-1.18658 92.2782 11.2839
5.52699 116.873 -0.771569
3.02024 84.8047 1.5305
-10.0445 107.019 -1.94782
13.0393 112.366 11.3219
-7.50599 93.7925 14.1659
10.1286 94.2665 8.01827
-14.0096 89.4073 14.3648
1.91756 75.2754 3.06286
12.7104 120.381 11.7609
4.78785 99.8321 -1.9482
-8.28864 97.9675 16.7483
-10.5141 106.592 -2.18219
-10.523 80.6253 8.15725
11.5272 104.562 16.8566
-21.745 101.895 11.9482
10.3596 120.439 4.96434
11.4377 102.518 5.33607
-7.46426 91.4745 14.8206
-26.5165 94.2884 2.05779
-13.2523 118.113 15.0958
-25.5384 98.6363 4.51771
-14.8795 104.386 16.7734
-9.43649 104.619 15.8439
3.2954 101.754 23.1507
3.74225 79.2752 2.33973
-9.46784 81.9265 9.52357
1.69731 119.099 12.6543
-26.4044 91.8671 6.85214
-7.83848 93.409 15.1821
-16.6496 87.9374 13.9448
-14.5852 83.5607 12.0154
-22.3116 82.3138 4.04731
-16.4089 101.645 16.0943
6.54026 84.4692 15.0785
7.52729 124.207 16.1463
-18.6294 106.307 15.494
-13.569 83.1629 2.66771
-10.0554 95.9655 17.2242
-3.7224 120.651 14.0743
10.7873 116.715 14.269
-19.218 117.142 9.74273
6.60873 110.143 22.4189
-19.2549 82.5152 3.44108
-25.875 90.0735 10.4391
-15.4427 84.4528 12.8002
3.31992 111.656 9.01843
-5.23173 104.489 -3.16604
-6.71257 112.833 15.5317
9.54616 92.9983 10.5098
17.6956 124.509 10.8488
-2.15242 93.1256 12.7023
-4.8677 105.209 15.5206
3.74002 87.8507 1.31687
-21.4274 104.274 10.5688
4.60044 87.0956 14.22
1.44998 87.5199 27.0316
-25.5437 100.709 5.32878
7.37293 95.1532 25.1941
-25.7094 92.6972 8.39063
-15.7922 112.706 -3.3956
1.75519 89.3063 16.0295
-21.3865 103.558 11.2389
1.23192 107.467 -3.08534
12.6477 122.017 10.3333
0.866544 104.181 11.2162
-10.5632 87.5653 1.84226
-1.23691 76.9747 3.98789
13.4147 118.957 2.46236
-9.54569 92.8266 16.7927
9.19212 94.6124 5.48797
-23.7457 100.801 7.32647
1.54384 95.4927 18.8664
3.79115 84.1521 2.86892
11.5675 114.912 5.28587
3.20381 83.6026 25.1537
-1.7332 103.919 -2.6782
5.12971 84.541 27.2872
0.853539 94.3879 18.4262
6.98697 118.933 0.832727
-7.4325 111.484 -1.3287
-9.77258 117.468 15.5069
2.97259 115.5 -1.46656
5.15512 119.97 13.8642
4.9928 86.757 3.5702
-0.879656 104.343 13.8057
5.7748 118.273 18.3155
-17.7033 116.85 11.9679
2.35346 84.7021 0.0922202
-15.4969 101.41 16.2873
-0.0513888 101.601 11.2165
3.1045 96.1946 22.1934
1.95522 95.1814 18.7774
5.41581 88.4325 3.06532
12.1714 109.591 4.18334
7.38965 107.716 1.21512
-21.2829 108.296 11.2243
11.2419 122.739 9.38345
3.82018 95.2764 23.4504
5.30745 84.1485 16.4766
-1.24121 114.737 -2.95615
15.0688 119.948 9.16204
7.85578 119.202 1.21007
1.91345 83.4854 30.5608
-20.4868 103.59 14.111
-0.105623 96.1259 18.8877
21.8148 121.696 11.2841
-28.0213 84.166 5.7007
-0.753983 93.7669 11.3611
-13.585 90.8233 14.9905
-17.146 117.273 14.634
-27.3516 85.9707 4.07876
4.6029 111.05 21.4492
-2.89133 118.145 15.22
-27.3192 78.3249 5.24722
11.5764 105.758 14.6401
2.09122 74.9512 3.0038
1.3915 85.6167 27.8119
7.94831 84.4904 9.51068
3.58454 115.966 -1.54668
6.19966 86.638 18.8474
-7.46228 108.688 15.5655
-2.59961 78.8 2.84482
6.05488 85.1735 5.81036
-28.9195 82.607 8.37573
4.94803 82.6306 22.1307
3.8081 80.7282 22.4141
12.8429 111.956 8.19147
3.15463 77.8011 1.71438
3.74806 85.2673 29.4093
-25.0822 103.091 5.49634
-5.74356 118.893 15.5702
5.51977 96.4975 -0.720002
6.46287 121.052 6.99088
3.14134 115.547 8.66879
-20.5051 103.853 14.123
2.92979 86.4046 25.025
5.60872 111.329 21.4725
8.94508 99.5371 23.5325
5.03571 123.35 15.3907
-1.36131 90.9716 0.00581947
6.72929 118.86 7.59101
18.8928 121.482 1.19609
9.90025 113.95 19.6403
18.6101 119.748 10.1978
-24.3065 98.4948 6.41046
12.5168 112.425 4.55225
-4.61583 90.912 11.5019
-29.1439 82.0506 8.13477
5.16893 116.013 16.0463
-1.80813 86.744 0.419188
-0.0447616 115.615 -1.46051
-0.907001 95.9283 -0.705928
10.14 96.462 14.8182
-23.4599 99.4868 -0.569716
6.81761 110.752 -0.404439
-27.7832 78.3336 8.60918
-10.8645 96.9718 16.9603
3.20458 78.8853 1.57474
4.85703 87.858 2.58481
0.603632 114.426 13.2555
3.74254 108.415 22.8799
6.49217 119.83 7.22296
-27.6337 89.5394 7.13754
-14.2063 90.1724 14.3669
1.54556 88.0153 27.4215
-5.04768 100.201 15.6582
3.82743 79.1741 2.49369
5.88075 114.164 15.4638
8.68857 102.311 23.1845
-5.77443 80.0771 2.02731
8.25708 85.1959 11.1113
-10.9235 93.3442 17.0821
1.54097 108.622 10.0635
-27.8161 82.8334 4.85808
23.9548 121.884 5.07299
7.32523 110.658 -0.195365
-5.86456 90.0953 13.196
4.25678 107.609 -1.50749
-28.1075 79.7373 9.4322
-18.2297 101.453 -1.8924
-4.57699 98.7 -0.348501
-3.7869 103.343 15.6087
-25.447 100.693 5.52057
1.71905 115.378 -1.16656
-5.36738 81.2107 8.19068
5.929 108.303 -0.296822
2.49711 87.2761 28.9786
-26.1491 98.6344 1.62996
12.0483 117.175 11.3856
1.90083 95.5798 -1.59194
-24.5178 109.023 -0.0863724
-1.15027 97.8867 10.6928
11.8474 107.339 4.25177
10.5101 116.673 7.52343
1.69572 87.3395 -0.666156
6.31079 87.3891 16.146
-15.2995 79.0782 8.42099
6.22542 122.4 11.9265
-13.0898 94.9668 16.4215
6.42679 79.4271 9.17028
-17.0889 93.1496 12.8236
-11.0404 102.564 16.4089
15.5983 119.763 8.40722
-18.9841 80.9175 9.86516
6.51733 77.4435 11.3324
3.55903 105.507 23.9272
5.25111 113.808 8.4045
5.47464 77.6258 8.08309
23.919 122.712 4.52939
-1.28337 107.254 14.398
12.3119 108.405 6.30785
12.6266 114.408 14.5822
-27.6072 90.0882 6.55493
-10.2507 96.9895 16.9011
8.77402 108.61 1.70552
-0.177332 104.138 12.913
-20.0298 111.395 10.1927
5.48345 112.409 9.00645
5.20393 80.8565 4.42241
-19.021 114.408 10.3384
10.4754 119.752 16.5881
11.5793 115.94 15.3306
-25.6957 103.996 2.71109
-27.708 86.9393 3.77303
-3.53708 101.038 13.9756
-11.2688 111.938 15.7297
-23.334 79.5494 11.4081
-7.47845 94.9206 0.917484
0.861721 100.28 16.0987
-1.93089 83.6373 1.1155
-10.1697 112.316 -1.15215
0.190219 106.112 -3.33471
-19.1028 101.72 14.7466
-6.56242 75.8815 5.43643
0.277804 114.084 13.5706
7.65793 96.0595 24.9029
7.2784 119.778 1.24032
10.8191 115.914 9.45834
-29.7521 83.1643 6.98022
-6.85501 111.557 -1.67413
-24.4768 112.921 0.581923
-20.2225 92.4029 0.362321
4.31881 108.522 23.1674
-15.7283 114.964 15.8211
9.55968 117.243 7.08445
2.83583 77.9995 1.80037
-22.2703 78.2584 4.62139
2.76732 92.9215 25.1463
-25.3355 102.915 4.75067
-24.8853 103.735 0.370573
-3.32228 86.5895 10.5665
8.9857 99.2986 3.61576
0.146524 104.282 12.0888
-16.6589 116.966 15.1116
-12.1387 104.897 -2.95537
-5.2533 102.662 15.9176
-22.6643 101.127 8.51126
-0.0440527 117.277 -1.31047
3.13642 105.553 17.2479
8.25353 94.9574 3.67304
-1.85884 102.265 13.3545
0.710931 111.92 -1.53535
2.66029 91.1346 27.3435
-7.56152 108.187 -2.17927
-9.02123 103.068 -2.19072
3.16257 93.9696 22.423
12.1125 121.124 8.441
-6.70985 82.8436 2.42554
1.60621 86.8324 9.89913
8.38183 86.7131 12.4584
-9.42426 88.3433 1.78383
5.66629 112.38 -1.65272
10.3641 116.663 8.16186
3.27216 87.5586 25.1295
10.2824 120.746 13.6896
-5.8114 81.934 2.07995
-1.72285 98.6276 -0.464715
14.6808 120.693 10.4891
-4.76123 114.298 15.4448
-3.63305 88.3447 0.790197
0.551507 113.074 -1.4568
10.0535 119.12 1.06516
10.2062 101.811 4.11444
10.6846 117.047 13.8782
-14.1253 82.1176 10.8728
12.8702 120.146 11.525
-25.3213 76.3369 5.84833
-3.35865 103.877 -3.12697
-23.4254 95.9872 0.0408174
-8.47314 100.168 16.7894
-17.6965 98.678 14.4051
-27.949 78.6751 8.93985
-2.06782 120.754 13.9922
11.0017 107.853 18.8147
-27.0062 95.6596 2.47035
8.35035 89.8312 18.968
-13.8432 105.582 -2.83178
0.588231 109.418 -2.99197
11.3194 104.053 14.6944
1.84403 89.4437 17.2449
-22.6378 100.29 11.9134
2.42632 81.6399 0.728951
-9.76493 115.704 15.5721
-23.5921 87.3428 12.5473
9.45563 95.7574 5.36018
11.7673 121.529 8.25588
-3.05181 84.7056 1.12294
5.72894 85.1549 16.0749
-24.4546 112.674 0.521734
-5.93348 110.557 -2.62793
