ply
format ascii 1.0
comment Created by Open3D
element vertex 1932
property double x
property double y
property double z
end_header
-30.4408 98.1523 1.05403
-34.7789 134.795 3.91299
-24.8556 92.9869 15.4756
18.9602 138.251 -0.34372
-20.075 118.93 13.417
-29.8572 104.156 5.60397
-11.0384 119.562 -5.54424
-27.5368 114.897 -5.50758
-12.9206 80.9359 10.6196
-13.4329 141.328 -6.22244
-9.391 123.781 11.7651
-16.5177 151.437 4.03792
9.37955 113.667 4.36997
-4.16219 126.554 -6.67516
-27.792 110.733 11.699
-20.7217 86.9336 11.6673
15.5229 125.064 6.07422
12.4045 119.529 3.49195
8.73892 101.374 1.74643
10.2738 116.891 8.5145
-2.59292 88.7074 13.6054
-19.9649 149.532 5.33945
6.51571 81.224 4.227
-27.934 106.018 12.2781
19.8846 123.625 -3.68268
-36.6345 131.517 4.15305
4.39942 92.9026 13.5788
3.54432 103.936 14.6726
-13.974 138.81 5.34629
-2.41187 123.573 4.94316
-25.8689 126.701 -0.670312
13.4516 127.023 3.97947
-31.4304 130.563 1.09933
-24.7792 92.8771 15.6418
-14.9024 132.561 -7.81979
4.45825 77.8758 10.4005
-30.3655 100.777 2.2885
10.4978 113.348 7.08821
14.7229 124.047 -3.84063
-6.35513 133.672 -3.32521
-19.5312 144.065 -1.79339
6.4114 133.432 -7.23757
-19.5169 132.23 -5.19766
20.3897 129.545 1.96594
-15.3977 141.413 -5.33465
-23.5414 147.622 4.1565
6.50411 112.966 12.5465
-8.60821 116.928 -9.19393
-17.8912 138.676 6.2572
18.493 120.339 -3.33398
-6.90504 125.548 10.9223
-31.736 79.2931 1.5021
-29.142 110.492 -2.41009
-28.1072 96.3347 10.1408
-28.1559 119.453 2.46137
10.2497 111.069 9.78693
-30.0127 96.2067 -3.16776
-23.1349 129.304 -1.93753
-32.4313 131.287 4.10714
-19.8415 110.995 -7.95178
7.88446 121.436 11.2125
-11.7431 104.231 9.21685
7.34751 90.7436 10.0282
8.63036 129.718 7.46776
-16.1113 151.453 4.12312
-24.5403 124.282 -3.12255
3.99253 140.615 -5.81274
16.4185 122.993 4.17115
-2.08048 103.857 13.7872
7.4176 126.318 -9.20789
-17.7916 131.543 9.76954
-3.70098 127.029 -6.71726
19.2756 130.195 4.04336
-20.7846 113.886 -8.3949
9.41684 139.674 6.17161
-18.6329 124.52 -6.52388
-18.5519 90.4325 13.642
-29.8984 108.398 3.0236
10.9408 108.886 4.7315
-20.6907 135.24 -2.51773
19.557 134.23 1.73607
-28.7417 112.126 2.59444
2.82276 119.104 8.13302
-18.0991 142.223 -2.02046
12.067 136.459 -1.9075
5.47725 95.4773 -5.67116
-20.1597 125.811 -6.3976
-2.65882 125.336 -7.90202
-11.9883 134.88 -6.63178
-26.3379 89.0359 15.1379
-24.838 112.97 14.2609
-23.0279 130.3 7.103
4.0297 113.444 13.5483
-13.4798 152.871 -0.905402
6.98536 152.182 -2.94609
-6.49253 104.232 8.01841
-30.8599 129.451 -2.1403
11.949 139.562 -2.98107
-14.5707 149.459 -2.7053
11.8791 123.316 3.34198
13.1831 143.669 0.0914074
-19.6239 87.7032 7.36001
2.3855 133.61 -6.08011
15.5161 138.895 -2.01501
8.22281 110.479 -7.23
-22.618 140.036 -3.29824
-24.1863 131.591 4.88768
-21.5244 133.25 -1.53003
-31.3761 79.1115 0.560221
18.1022 121.79 3.11555
-2.76085 117.756 -9.67149
-0.969025 134.024 -4.31402
-21.9964 130.764 -2.40399
19.2214 132.427 5.33191
-23.6173 116.85 13.6315
-18.1114 109.452 14.0209
8.68495 144.023 2.16332
6.10093 132.095 -7.74626
-17.367 137.949 -4.30158
-24.9823 140.952 4.24143
6.45088 90.9839 -0.626255
18.7681 136.489 -1.01735
-5.10459 78.303 14.0672
-32.1846 92.2957 2.20875
-27.9564 105.265 12.2313
-30.2714 127.105 -1.92286
-28.2162 113.014 0.42993
-27.6957 108.707 -4.57855
-32.3556 129.886 -0.497787
-1.35975 153.717 -2.47478
-31.0305 79.7964 -0.430539
-26.3946 123.997 -1.05507
8.13867 100.399 0.887064
-1.45121 139.507 5.92479
-31.8032 141.111 1.48224
-15.9695 149.455 -1.34956
-0.198431 143.489 -3.39172
-12.9015 114.488 13.6853
4.4316 147.545 3.29045
-14.0531 143.865 -4.76856
-12.5029 121.951 12.6706
-24.1084 141.543 5.30379
-27.0579 107.448 13.4494
-17.8576 146.421 4.58025
-14.1375 86.5523 8.87658
9.35546 127.485 1.8017
10.5049 108.915 0.251112
-35.9453 132.17 0.774392
-30.2105 140.127 2.05671
-33.8798 130.178 1.73324
-15.6122 110.762 -8.66755
-18.5884 148.221 -0.867007
-0.820327 120.558 -9.38945
4.30141 109.791 -9.22167
-8.85913 147.199 -6.29788
-14.1016 115.877 -6.93244
16.8472 121.245 2.43607
-28.6753 127.652 2.19499
-33.0155 137.656 0.636862
5.36812 105.01 -8.10304
4.40204 83.3693 11.6266
-26.5475 116.766 12.0077
10.1612 128.304 -7.45563
-23.2641 84.1595 15.6294
12.7868 122.335 4.93085
3.43445 148.456 -3.12673
-20.3346 149.926 4.87114
-27.6215 136.492 5.27732
5.46823 136.529 -7.05611
-28.2171 125.254 2.74989
0.131189 146.219 -3.02401
-28.8303 108.269 8.82209
17.5193 141.773 5.42316
-12.7161 153.161 2.10786
18.6787 133.666 -1.41541
4.30366 135.695 2.70159
7.88348 100.077 11.4213
4.11936 123.659 7.01023
-7.21325 95.5921 14.816
-15.5385 140.076 5.43708
10.9985 118.443 -2.00581
-27.0928 117.061 10.7096
-24.2208 140.623 -2.49522
-20.8407 89.1311 14.1524
9.13043 119.341 -5.5793
-18.9284 94.678 13.3946
3.73878 102.287 14.72
18.2651 120.958 2.12206
1.23832 99.2413 14.9832
-29.1947 122.267 0.0200876
3.81106 83.6709 12.041
-5.27567 127.752 -5.19675
-27.1912 138.57 -1.76182
-0.490052 132.622 6.79801
-32.6586 128.651 1.48372
-6.73573 117.488 8.28984
16.5458 129.06 5.52216
12.8419 132.024 -3.63406
-11.0966 113.091 12.9519
-9.25948 109.593 7.84185
12.6323 144.227 -1.52839
12.0521 121 3.68087
-30.1898 107.272 1.9169
-2.24209 126.335 -7.60388
-17.6497 125.83 11.8017
-16.9789 130.59 -7.37279
9.91108 113.949 -6.68989
-23.8328 149.258 2.99169
-34.7739 132.704 -0.484748
1.23647 112.35 9.53026
9.25624 121.342 -2.89603
-36.0672 130.402 2.07684
6.40806 138.239 -7.14305
-5.70144 154.626 -0.577068
-12.6425 139.003 5.25206
1.43677 153.682 -2.07274
-19.1083 95.202 14.4949
-13.9077 116.384 13.5678
7.29631 124.625 9.33837
5.9297 82.1958 10.6058
6.91255 151.262 -3.35194
-26.5444 105.978 14.1339
-1.83391 134.092 -3.74679
8.69504 91.0918 4.59627
-3.53417 110.769 7.0221
11.5092 141.206 5.94705
-2.88508 130.638 8.48663
6.16908 147.779 -4.50671
-11.0157 144.74 -5.69582
16.4266 137.031 -2.31903
-26.4835 123.606 -1.04901
17.9446 135.869 -1.86318
-27.4073 88.6623 13.6447
-14.2382 119.587 -6.09936
10.0133 111.725 -4.0505
-10.7998 107.05 10.6291
8.19698 102.946 -0.0435313
-33.9029 125.607 1.19884
0.859224 79.4647 12.7758
8.0682 115.684 -5.10097
15.175 123.323 -3.22637
22.2687 122.945 -0.52154
8.12207 125.538 1.82719
-8.03005 112.233 -10.488
-30.2793 98.2747 7.60076
12.2082 116.837 -1.51511
5.89409 90.3567 -2.01742
-25.9774 120.271 6.29818
12.6014 120.429 3.34492
-11.034 115.164 13.1211
-18.5115 150.449 0.36213
4.17223 147.754 3.33062
-27.5609 99.7577 10.1564
17.3673 141.664 5.55085
-20.0292 86.2643 6.53492
7.80494 141.186 2.26122
-13.5648 107.106 14.1547
-32.1649 91.2521 1.29181
1.22697 138.16 5.59748
-27.6326 137.19 4.6503
-32.767 138.863 1.76754
11.3326 110.35 6.50513
-23.338 137.909 5.12871
-20.1478 124.185 -6.32804
-10.6739 148.039 -5.92484
9.35556 100.045 7.24081
-18.4282 109.585 13.8973
-23.8043 123.852 -4.016
-8.30069 145.793 4.37101
18.8838 133.405 -1.16951
4.35623 106.177 13.9607
-24.7732 109.754 14.7725
3.29803 86.1939 13.368
9.01355 97.9975 3.89421
-21.0627 107.172 -8.2206
15.8298 144.491 4.94255
-20.9307 131.323 9.64112
-4.53373 103.097 10.2733
-16.9487 93.9574 10.3087
-23.3136 125.379 -4.94423
-27.1221 99.4619 -6.52998
9.84329 144.312 -5.44315
-25.8482 142.958 -0.722827
11.892 116.819 -1.69183
-24.1975 103.956 16.3907
-1.76569 149.194 -3.82084
5.20759 85.6125 -0.428615
-3.94572 126.256 8.67862
4.70084 149.344 -3.33522
-4.24599 136.893 -2.96997
11.4877 128.296 4.68514
9.50245 145.3 -5.58615
9.59455 122.056 -1.44161
-9.50214 81.1328 11.0949
-17.1415 132.774 -5.54958
10.1828 116.454 4.3447
-15.1779 145.607 -3.49078
-17.747 141.675 -2.75509
-27.4523 120.162 -4.25516
14.0993 142.695 0.292202
-24.0959 95.7156 14.6932
-12.1153 134.394 7.99332
-16.2827 116.052 -7.56212
11.1381 117.645 4.15099
-12.9949 147.036 -3.89148
-21.0224 132.303 6.15363
17.6303 139.317 5.79415
6.67946 142.712 -6.39691
-13.5762 139.237 -6.16385
-9.77229 144.989 -6.41594
-34.6475 134.383 4.12163
-13.9358 129.451 -5.85557
-18.9998 135.012 6.88692
-15.8452 112.037 14.3274
6.36243 104.847 -7.48424
3.2134 119.874 9.19192
0.0320087 83.3001 14.3573
-21.0214 133.248 -3.25975
1.29033 133.877 -5.33361
-11.2209 94.824 14.4472
13.5915 117.554 0.448975
-17.6247 110.894 14.0375
9.89035 125.432 -4.69623
-26.9216 96.1124 -6.67141
-22.4756 101.509 17.0654
5.54549 112.748 13.2882
3.94205 153.617 -2.34965
14.9146 128.679 6.48571
-15.274 134.607 8.55057
-29.5545 88.7651 11.5916
-25.1559 126.13 -1.48882
-13.989 99.6036 9.14065
3.24362 145.745 4.28704
-11.74 127.599 -4.82148
-29.9713 108.156 2.88681
5.21844 110.225 13.5639
-15.342 138.71 -5.86826
13.73 121.175 -6.07517
4.21937 145.316 -4.3795
-29.2104 135.17 4.16187
9.58207 135.953 7.00477
-21.5374 145.069 -1.83384
7.53534 148.325 -4.56698
-31.5124 96.8023 2.6108
-6.48853 113.867 -10.812
-28.3013 138.895 3.16352
18.3124 144.359 3.39611
-16.6772 143.312 -4.22296
1.78079 121.855 5.49923
10.4991 114.765 6.17554
20.4545 140.588 3.30944
-12.4221 143.851 4.31089
-0.324926 99.8257 14.921
12.5864 118.038 -0.934044
-26.6707 118.541 8.47592
19.0985 128.957 3.47677
7.09418 80.8745 5.73222
-2.21481 144.072 -3.16426
-14.1167 136.297 7.11614
-6.56128 143.594 -5.44094
-16.3638 112.188 -8.65739
18.7703 139.356 0.108417
-13.9038 115.137 13.888
7.90388 96.4019 -1.70481
11.8602 138.253 -4.73616
-16.922 129.391 11.4745
-2.52572 99.5234 14.8649
-26.4387 125.828 0.232739
-30.3314 128.749 0.741099
11.495 123.475 0.0549474
21.1286 134.583 2.76265
6.2326 83.1235 3.32955
17.8442 136.237 -1.74318
-7.29717 142.878 3.65458
9.14081 102.625 2.43609
-8.13797 150.663 -4.92957
-37.6067 130.901 3.95726
-3.59333 78.0235 13.7984
-22.6002 106.634 15.8251
-23.2345 100.276 17.2143
-20.9552 84.9765 12.1113
9.25812 120.462 -3.14309
-30.7593 102.693 -0.711737
10.6701 148.234 2.62405
-32.1037 90.1714 8.86389
-32.9284 131.592 -2.158
8.14182 102.789 -2.58616
-17.1774 123.752 -5.86741
-15.9879 126.552 -5.52797
-30.2228 128 0.901522
-19.2356 127.761 -6.4239
-28.9534 116.956 1.59685
-1.46655 103.154 14.3141
2.14453 133.21 3.47869
3.30648 134.119 -7.18896
4.67627 77.2544 2.71475
8.95647 119.731 -7.79585
11.5731 127.602 -4.97688
-15.0209 151.778 4.09966
-30.3832 98.0659 0.833013
-11.9384 139.896 4.93374
-8.53605 90.0898 11.9735
-27.6363 114.183 3.06477
14.8247 130.96 5.87678
-22.844 100.821 17.5958
-28.8347 92.4556 11.7428
4.54681 82.2881 -0.717925
-0.134071 108.215 10.2032
-11.2441 93.0369 13.7687
-6.87468 117.144 8.34468
-7.41683 138.191 6.23461
-19.0078 107.843 14.8836
-7.83059 78.6332 12.6694
7.2581 113.472 -7.76456
9.81977 150.374 -1.73532
-16.1064 139.631 5.76808
-1.37839 132.025 -5.37836
7.57029 147.759 -4.7069
19.0018 143.803 2.46042
1.31747 137.171 4.70323
-19.8146 88.4172 13.7849
21.8016 124.562 -0.534419
-25.9359 120.462 6.43959
8.43104 101.661 1.04419
9.5024 111.24 -5.66171
7.63818 103.111 -6.15213
-21.484 93.3404 14.895
4.49249 107.575 -8.51614
14.795 144.812 1.16428
-23.73 148.31 0.373193
17.1999 145.845 2.59769
-3.96487 100.444 14.7348
-17.0134 94.0765 10.6808
-2.57088 80.556 14.4715
4.4013 75.9113 10.3135
6.24239 84.0868 10.5161
-22.4949 86.5941 14.2632
-26.6137 131.554 5.08668
6.52798 107.865 -7.04858
10.7368 127.317 -0.854309
-29.353 111.124 3.1146
-27.914 126.296 1.00079
8.78337 119.545 -4.98943
-0.888252 115.906 -10.0413
-28.6863 136.896 -1.74802
-28.7249 122.264 -0.214259
9.15131 113.318 1.82015
12.5981 142.463 -1.26529
-16.3449 124.697 12.5032
-27.3062 114.53 2.77195
8.11363 105.792 -6.20185
-30.1737 106.268 -3.13144
2.23936 134.506 -5.99651
12.9514 138.983 6.4732
-8.16808 139.795 -5.53086
1.70949 112.986 9.87726
-27.4464 140.661 -1.8793
2.20844 115.436 9.36142
8.97662 113.605 0.0560888
-0.583231 143.848 -3.32457
-24.588 133.113 6.04812
-10.8426 153.032 0.151625
-28.9401 139.378 -0.479372
-29.741 129.24 3.14125
-1.48712 121.456 -9.2978
19.5993 129.856 0.173041
20.2871 128.035 -0.625102
-0.350639 112.41 8.04621
3.97153 116.437 -8.70393
7.40776 87.3035 3.19246
-29.836 82.7677 10.0515
14.0487 143.747 5.52011
20.0338 136.874 1.52487
3.20074 118.092 -9.22021
15.9692 133.315 -3.65669
14.8867 141.504 -0.763288
-16.1786 138.986 5.523
9.19263 100.505 3.50356
-14.0842 113.306 -7.74905
-31.4179 92.5879 9.55278
-18.7427 149.184 -0.406825
-2.12063 145.755 2.73162
-20.8099 136.48 -2.11235
-2.27842 83.8922 13.9267
-17.8302 92.3408 8.66989
-29.4001 111.227 -2.48147
11.7639 118.992 4.74659
5.94235 94.1764 -4.37876
-25.1079 136.205 5.76352
-28.9844 111.494 6.13516
9.41551 125.426 2.35252
-4.05103 82.1703 13.4701
-29.8851 100.779 8.43684
-0.921223 138.156 6.53997
-29.7086 105.323 -4.44993
-26.4202 121.729 -5.22351
5.33918 121.94 11.428
-25.7671 123.148 -2.25297
-31.9072 89.3145 8.71134
-22.9741 128.197 -2.16334
-11.1313 106.711 10.6324
5.71634 87.4814 11.8246
-25.8268 145.345 -0.0901787
-1.78555 113.667 6.68947
11.9671 133.343 -6.63485
-3.6741 103.214 11.2802
0.0641544 134.651 -4.4431
-20.4616 84.4161 11.9207
11.2122 147.314 3.39265
-30.2311 131.262 3.5088
-15.1172 95.8598 9.735
-1.35763 132.677 -4.9652
-33.4438 126.982 1.27549
-28.4268 133.753 5.34553
-23.2804 130.659 6.40016
-35.0278 131.866 4.48779
-35.4352 133.733 -0.989279
-36.8966 130.507 2.17994
-19.8961 86.9188 12.9884
12.2626 128.217 -4.88758
8.18304 139.999 -7.13387
-23.2777 125.084 -3.07255
-24.1144 85.0347 14.3184
-28.9815 106.203 6.53445
-14.4541 146.46 -3.15239
-11.9057 124.463 -5.14305
12.1064 134.275 -3.37155
-37.1083 130.542 2.29062
3.28535 90.4243 14.2317
-19.3078 144.252 -1.68649
4.49459 123.283 10.2959
-32.6051 83.7881 1.83432
-4.35301 109.33 7.16563
9.25298 127.747 -0.190828
-27.5019 145.729 1.54701
15.9851 117.799 1.22074
-8.85967 94.6283 14.6228
-17.552 123.431 12.929
-15.5294 136.836 -5.65593
9.13379 97.7888 4.27879
3.20028 145.524 4.30942
15.3435 139.165 -1.76232
-19.5328 105.717 -8.26404
-7.13552 135.672 7.86844
-5.22697 81.5178 13.2519
8.07259 88.4718 6.38053
0.525749 104.425 14.442
-20.1657 94.4712 14.0401
7.67607 117.02 -8.2846
4.89975 125.126 10.1654
12.4429 133.711 -5.79209
-5.87364 108.561 6.74136
9.66506 122.696 -4.06012
-0.934601 131.138 6.77437
10.0053 121.691 -6.32598
-30.2133 98.8837 0.0443831
-23.0459 143.423 -1.65451
-10.5991 107.082 9.83285
-22.165 146.21 -1.48278
-33.2691 138.469 1.62315
-8.89117 87.7962 11.8779
11.413 144.354 -4.60761
8.97013 96.335 2.33573
-29.6475 103.777 2.77775
-25.9661 129.823 5.81559
-30.307 126.959 2.13272
-15.7211 139.43 5.33757
18.1025 126.005 5.30748
-14.1759 149.539 -3.11019
-18.4116 117.433 -7.6269
-12.3926 115.611 13.6312
-13.5339 130.222 -5.59521
6.63716 132.754 8.03031
-18.75 147.744 -1.1526
-20.0489 147.703 5.26064
-25.9019 90.0702 15.2651
9.63531 126.972 -5.63688
1.14318 125.25 -6.55
7.50926 114.057 -7.39087
-10.046 133.412 8.87711
8.90986 118.774 -5.30683
12.8164 124.551 3.41348
-18.2017 115.762 -7.74214
6.76599 121.477 -9.14527
-24.8404 148.081 2.90395
4.82066 77.4296 2.77258
7.22381 93.0573 -0.66581
-26.7698 117.917 9.33756
-15.1122 142.006 -5.07924
4.9839 83.6993 -0.621223
-10.6844 134.914 8.08514
-11.3791 106.501 10.7426
-1.54823 102.894 14.3814
-34.2107 130.409 -0.677993
-21.1821 92.8642 15.9761
8.66722 111.453 10.8167
6.83566 82.6008 9.46555
9.35435 131.116 -2.12601
-2.56445 132.229 -4.88411
-38.7901 128.623 2.39846
15.0998 146.479 1.05924
7.15431 117.119 -7.95555
-26.9925 129.465 2.7311
-11.7221 119.014 13.2944
11.3321 149.447 2.50552
-15.9793 102.6 13.9221
1.07766 81.4399 13.3269
-30.2533 79.9681 -1.94312
14.1567 130.478 6.35308
-27.9236 129.844 3.8119
-9.1842 112.519 -10.354
11.5535 135.849 -6.065
-17.7523 92.7977 12.2831
12.6706 120.211 3.90602
-32.2255 80.7446 2.17672
7.90968 89.5389 8.15219
11.6555 131.05 -3.1335
5.21336 145.926 -4.80751
-34.1388 131.682 4.37435
14.3839 134.385 5.64531
-27.3276 112.299 11.6579
-21.9896 142.288 5.42294
19.4913 131.624 5.20201
-22.0731 125.647 -4.02806
-19.4744 125.52 -6.4856
0.768096 123.791 -7.20242
12.7466 120.147 3.26068
-10.408 106.365 8.41087
-29.9975 126.54 1.25786
3.875 107.805 -8.87505
-32.1299 92.9835 2.95827
17.0836 139.084 -0.815534
12.3105 144.017 -2.92485
-5.49988 129.197 -4.48169
3.43748 122.936 -8.31919
-28.2263 126.01 0.721607
11.9491 125.466 5.35425
2.28061 76.2996 11.0198
8.04367 115.758 -1.84801
16.5245 125.984 -1.49567
-25.0073 100.813 14.9467
-28.7844 136.417 -1.82682
-13.4983 108.003 13.8282
-29.0625 135.363 4.27293
-10.0144 96.9649 12.1276
-13.5635 117.889 13.4093
-19.5473 151.88 3.51358
-2.48733 154.115 -2.16083
7.3493 118.599 -8.00532
-30.2247 129.119 -2.30537
-23.991 148.736 1.2736
-17.7351 97.341 11.0562
2.41479 124.089 4.95934
-1.8593 125.396 5.08527
9.54548 125.796 2.03653
-15.4215 139.467 5.46155
9.00276 127.855 2.64738
-26.0511 123.945 -1.33146
-3.71996 143.264 3.44994
21.3854 125.831 1.09711
-22.4279 131.894 -2.1984
-19.3401 85.7703 6.45045
19.8535 139.195 1.13619
17.6693 128.795 -2.05968
3.97425 119.056 -8.50138
-24.296 108.15 15.4747
-18.623 150.873 4.90499
-35.2926 132.976 -0.443649
-19.4018 141.611 -2.40966
17.8111 128.567 -1.99783
15.6125 137.74 -2.57413
8.2111 102.848 0.267901
4.21588 79.5305 0.178942
7.10201 89.7253 10.0609
-26.2249 111.118 -5.79778
-2.34549 78.1237 13.2441
-24.9301 126.197 -1.53509
16.9314 119.667 -3.17283
-11.2243 93.3838 13.8905
5.57255 109.851 13.1432
-24.8984 122.841 -6.46042
3.41689 119.006 10.6458
-3.00904 101.593 14.7567
-15.6571 136.199 7.70545
-10.7548 110.586 12.5116
-20.839 109.773 -8.48337
4.26162 146.928 3.30529
-22.0693 97.3117 17.3554
-23.8221 113.275 -7.57698
-36.7447 129.568 3.09454
12.421 120.221 4.77844
18.9172 129.9 0.45703
9.05316 136.228 7.3418
-7.1827 127.739 10.6302
-30.0863 91.5628 11.3134
-26.8863 122.286 6.57764
-24.4262 126.594 9.5896
-25.5649 127.73 -0.224601
-24.4972 117.463 13.1641
9.5369 127.72 1.44846
-29.3641 131.382 4.55995
10.2464 110.165 -1.89918
7.93265 127.189 -2.89532
-0.0943552 121.041 5.0527
-7.65427 130.854 9.93988
11.6974 121.159 6.26635
-18.3618 131.25 10.3332
6.26777 137.57 -7.0934
4.80154 142.152 -5.74594
-9.11962 127.942 -3.89697
17.7281 120.417 2.14002
22.3845 130.937 0.936304
8.16031 117.874 -3.72322
0.830873 98.0247 14.5632
11.5331 128.992 -3.91029
-17.4999 145.012 -1.54311
-4.21277 128.504 9.16813
-31.3021 99.3471 4.77638
6.27033 83.1401 3.40865
-36.1555 133.553 0.381417
8.70343 120.355 11.046
-36.4696 130.35 1.35751
-28.5882 87.6953 -3.9926
-23.7346 126.87 -1.63001
-31.8002 94.6781 5.10461
14.5195 139.819 -0.770605
7.395 88.9427 9.57493
5.01231 101.73 13.9811
10.5429 148.92 2.22046
-12.3077 150.51 4.46499
-23.0861 149.541 1.78716
-10.7765 130.849 9.07559
6.3982 93.5976 12.3999
-16.4344 143.865 -3.47723
-24.1181 95.1798 14.2372
8.45433 115.586 -3.53942
-20.4112 131.659 -4.07186
-18.841 132.607 -5.50359
8.3729 102.749 11.0203
-0.534315 78.6895 13.4247
-24.0605 133.458 -4.72168
-14.5365 93.04 10.8206
6.82843 148.624 -4.34142
10.2689 119.578 6.77988
-33.5731 84.5808 5.44488
5.72878 136.84 2.7973
2.04118 121.771 -7.01056
-24.6967 94.6166 13.7123
-16.4538 151.766 -0.638541
3.99635 105.774 -8.69553
-27.7542 125.841 -0.619172
-20.6673 103.226 16.7065
6.25767 95.3529 12.4422
-32.971 85.4595 7.7686
9.23324 151.276 1.65792
15.1259 138.412 6.05883
-17.9896 122.641 12.8695
-27.3467 118.484 -5.26695
-22.5732 122.785 12.2304
-1.7988 136.613 -3.32619
11.5372 127.566 4.32772
-29.8292 107.168 -0.482959
-2.84459 125.45 -7.89388
10.4198 114.532 5.71115
8.91926 106.083 1.70291
10.4654 120.404 2.33755
9.99203 113.778 -6.34043
-2.27923 91.2531 13.8501
-12.3033 127.444 -5.23336
2.7493 80.1665 12.0295
-29.608 133.145 -3.47514
-30.8443 91.2728 -1.5619
-12.9107 151.741 4.61414
-22.4623 115.124 -8.25168
-31.12 131.065 1.27753
11.0676 124.101 3.12086
-10.4069 104.709 8.55002
-24.4701 108.133 15.3948
-7.82376 131.943 9.52534
-17.8535 110.861 -8.15772
6.02742 96.2525 -5.15205
3.10808 152.465 -2.79855
-24.031 131.208 5.30108
-8.93731 143.025 4.35811
10.8543 114.7 7.46518
-27.8843 96.9645 -5.86627
8.13283 89.4356 3.52737
8.0034 126.985 1.08071
14.2968 127.08 5.16908
-9.7026 112.202 11.7388
19.9148 122.059 -4.74952
6.48428 85.9133 2.0618
8.63782 149.025 1.69147
19.0663 138.247 -0.284591
-1.2816 104.783 13.9339
9.09921 150.553 -2.77413
-12.0414 117.982 13.3944
-11.919 96.0639 11.0008
-23.071 107.201 -8.1298
-14.9415 122.337 -5.23218
-14.0671 97.9747 9.28269
1.42163 82.3861 13.4373
-13.8684 100.535 9.04093
-30.8977 141.01 1.89559
3.74033 151.704 -2.83251
5.65335 126.209 -9.046
-10.4583 136.447 -6.61166
-28.942 111.381 1.38387
-6.63079 103.924 8.0808
19.2581 123.263 2.62938
-29.4706 118.456 0.369767
9.13741 130.272 -1.53224
12.4786 123.128 4.20932
-23.2482 125.918 -4.01938
14.422 140.417 -0.671993
-19.0198 121.485 -7.04679
3.69618 122.38 7.23958
-21.7924 125.609 11.7937
-26.6454 130.192 4.5228
7.80876 85.2343 5.76694
10.3279 127.782 0.0885758
4.77453 124.881 7.25374
-22.4516 104.821 16.3335
-10.7196 116.882 -6.76751
7.28533 99.0285 -4.9228
-35.9916 129.761 3.12679
15.8106 141.142 -1.15642
7.66063 93.3664 0.021268
-16.1317 113.3 14.2169
-29.448 105.01 10.0463
-20.0692 143.426 -2.12193
-2.30411 142.236 -3.1247
-24.3723 143.386 -1.41059
-14.4389 124.434 -4.95128
5.64337 138.673 -7.20783
-14.0974 96.9004 9.47811
9.41504 123.372 -4.34917
12.5042 121.143 3.87852
20.5827 140.171 2.84049
-22.3621 126.564 -5.85455
16.6325 143.145 5.36189
-19.7411 93.8111 13.8207
1.03065 120.059 -8.31866
-10.724 153.471 3.47649
-20.4138 128.186 -5.13093
-13.0079 105.422 12.116
-31.6318 90.9204 9.58984
-30.2784 78.6881 -0.984769
5.54982 131.788 4.17119
9.81288 105.305 6.90646
-29.4323 127.494 1.6968
-13.7068 86.807 9.77975
-7.239 143.807 -5.86216
3.7391 122.263 7.37005
-26.3478 146.792 1.62552
6.92992 150.959 3.30222
6.57491 146.567 2.10971
-35.0894 129.164 1.54239
-21.3099 85.3331 11.8077
-29.4778 98.7946 8.86233
-15.5766 117.757 13.2095
9.05315 126.125 -8.96729
-20.275 145.966 -1.73106
2.2999 99.8903 14.8996
9.73947 149.271 -3.39985
-25.2032 123.062 -2.59998
5.18726 149.916 -3.27506
-4.87823 117.36 5.89587
-5.37947 126.746 -5.66694
19.2617 122.336 4.39699
-15.8182 95.3804 11.9166
-29.9673 107.87 -2.29167
-28.3991 127.664 2.94441
-26.7164 116.551 4.36998
-24.4996 112.651 -7.56747
-25.5444 115.931 13.2892
13.172 142.417 0.491971
-28.2736 124.977 3.78199
-18.6344 90.0387 13.798
6.29218 144.212 2.24654
0.552298 140.042 -3.86271
16.4038 132.125 5.70772
-8.97055 138.971 -5.93738
-26.6736 131.021 3.60728
14.5329 128.939 6.12092
11.2781 118.919 2.1285
-17.4444 134.578 8.09557
-25.0023 103.978 15.1901
-5.16257 117.233 6.04014
-30.0289 106.672 0.259612
-17.8912 93.6597 12.8685
-27.1911 116.955 9.94467
-13.264 109.213 -9.45889
6.02005 153.058 -2.39681
-8.48924 83.927 12.0756
8.17989 98.3227 9.92801
-18.0541 117.105 -7.49746
-25.8672 94.4018 12.688
-22.2982 120.456 12.4884
-3.84789 126.172 -7.19594
-9.84396 83.5285 11.1326
4.17911 76.2122 10.5303
-29.1996 132.364 5.10429
-25.8927 103.919 -6.77039
-19.087 89.002 13.9783
-13.1904 111.74 13.5179
8.56531 151.274 1.38465
9.5367 127.689 -4.52152
0.118564 128.141 -6.0434
-19.5849 147.575 5.0897
0.859036 84.7897 14.2728
-9.48584 129.991 -4.0025
-30.9866 91.3574 10.2817
-11.544 153.074 0.556415
-23.9016 127.046 -1.7791
-29.0754 109.614 -1.32515
-26.6593 93.5181 12.901
-2.12085 132.478 7.6736
-25.5226 127.326 -2.88479
12.2086 145.461 4.88046
-23.635 83.7168 14.5964
12.4018 137.145 6.45084
-20.0586 118.622 13.3907
10.7312 108.657 5.46153
-26.298 144.21 4.51205
-33.3869 125.845 0.334575
-10.6817 106.329 8.73042
-21.5629 149.471 -0.162721
-0.896891 109.188 9.12544
15.6014 120.388 3.28057
-22.4176 131.709 -1.75635
-30.6381 94.0397 9.66966
-2.49886 127.223 7.00597
-8.04143 123.772 -5.10741
-22.7585 129.735 -3.02606
-12.9215 82.1527 9.71071
6.70132 133.777 4.27309
-30.1407 92.1479 -2.29207
7.02578 111.422 11.9133
-31.8686 130.956 1.69784
-21.1131 87.4236 16.6761
-10.7709 101.755 8.50805
-21.4902 86.5355 14.7442
-25.5676 136.487 -3.17129
-28.874 87.2321 12.7356
9.16975 117.643 10.6059
-24.3401 96.9473 13.0681
5.88326 89.1715 11.5786
0.139428 119.194 5.61731
-16.4553 107.135 14.5077
12.2623 122.751 3.22982
-26.0367 124.45 8.60946
-27.7648 112.065 8.98188
0.03966 138.478 -3.78241
0.201881 94.989 14.5711
-18.3165 89.5939 6.8964
-38.4111 130.34 2.74336
4.03649 100.187 14.2122
-32.1764 129.942 1.6971
6.47557 113.832 12.4351
-4.14877 117.821 -10.188
2.91984 122.947 -7.63918
-21.0208 134.966 -2.0266
-1.39679 137.021 -3.33125
-1.76455 152.759 -3.07186
-10.4475 147.001 4.65809
-18.2735 143.088 5.24152
-2.85966 122.827 -9.01735
-13.199 91.5706 12.7275
10.0396 129.16 -4.81512
-27.8031 95.5048 10.5725
-27.7883 94.5232 11.0837
10.07 113.8 -5.64426
11.6306 123.432 -0.483861
3.02267 121.037 6.89544
-3.17147 115.908 -10.2643
-2.36488 78.6879 13.9143
-2.08311 98.8394 14.8017
-10.2438 97.0304 11.1859
-5.02562 146.768 -4.81255
6.96545 119.727 -8.43127
-11.6533 152.631 4.53571
-30.0739 106.029 -0.130667
-27.3635 94.6449 -5.36753
-27.2183 114.849 3.55324
-13.0065 84.6666 10.0531
8.7546 152.27 -1.56253
-9.37734 132.09 9.12439
4.72062 129.887 4.36042
-29.8503 101.772 -4.16283
5.44419 152.842 -2.65868
-23.8035 100.306 16.5899
9.68127 144.265 -5.51313
11.4564 152.062 0.715254
-20.1502 93.1588 14.6559
-12.7144 139.786 -6.26356
-24.7816 103.636 15.4188
17.7864 137.811 5.5772
18.0458 135.94 5.5985
8.57451 91.5043 6.28185
-9.0849 148.131 3.77596
-23.7691 116.258 -7.79077
-0.508556 95.0793 14.7498
-9.60426 109.785 10.5385
-13.0609 152.569 -1.65542
-4.44874 78.5191 14.1847
6.81743 119.736 -8.385
-19.1447 144.476 -1.62926
-25.4048 99.2838 -7.19988
-29.0732 97.3786 -4.7783
-12.4542 84.4432 10.3025
7.29109 136.415 4.79943
-4.31846 91.424 13.2756
17.1993 144.064 4.58511
-17.2034 101.492 15.9451
15.2374 146.181 1.11276
-28.0078 123.857 2.37335
-20.8728 135.466 6.10332
-16.2772 152.786 0.854105
-23.941 141.658 -1.75277
4.89795 131.86 3.7125
-20.6539 118.418 -7.64477
-26.2658 119.572 6.61009
-29.3171 116.286 -2.70942
5.38586 88.6704 12.3389
-33.8543 133.714 -1.67086
3.97259 81.2892 11.527
-23.7101 104.974 16.3048
-24.0858 125.757 10.6144
11.9088 140.452 -4.6411
-23.6158 128.127 -3.15835
9.27607 106.055 3.71443
-7.59733 124.246 -5.23707
-23.3589 108.737 15.2679
5.36353 125.922 7.99196
-23.616 123.816 12.2984
-17.1588 102.633 16.0258
-34.0525 133.065 4.63513
13.4287 124.29 5.41693
-13.304 149.712 -3.77046
-25.8942 120.386 11.6069
-14.4301 147.765 4.14122
-28.2076 125.449 2.24478
-0.10963 143.501 -3.39524
20.1417 132.127 1.15435
-25.5613 117.324 13.0442
22.7217 127.802 -0.301435
7.47431 145.336 2.02934
-6.96447 82.432 12.179
-29.012 113.316 -3.58185
-15.6119 110.749 14.0834
7.97362 103.172 -5.41064
2.75925 118.787 -9.28132
-17.204 136.168 6.80394
-7.65411 125.402 -4.74133
3.14219 80.4333 11.9446
-7.14554 131.641 -3.39898
2.03312 86.0155 14.1764
-27.5301 118.097 3.64263
6.77719 125.346 9.57544
-26.6407 126.136 6.64966
21.5965 130.432 -0.027596
-21.5034 86.2148 11.8731
-21.5451 124.267 -6.3707
2.1691 140.478 -4.4779
4.28281 122.527 -8.37402
-16.8135 101.12 15.0543
-11.3224 126.51 10.7754
-28.8336 109.792 -0.777853
-29.9902 101.274 8.67246
3.14687 145.211 -3.86073
6.39593 109.445 -7.95799
-3.02232 130.312 8.5346
-14.8891 149.17 -2.36546
4.3536 83.8067 -1.97445
-28.7902 111.755 1.93152
7.73049 125.37 -2.09092
11.4051 133.942 -2.96293
-29.257 105.981 7.96085
10.4689 120.985 7.54553
-28.9864 101.863 9.45811
11.6553 121.592 3.94178
-27.47 119.295 3.32132
17.841 137.991 5.59772
10.4508 120.996 -2.63304
-11.9137 109.983 12.8102
4.90876 76.3942 3.4274
-10.6681 152.704 -1.51161
1.07353 132.104 3.98277
-12.7646 143.029 4.51999
-21.3748 100.794 17.5531
-11.6628 135.834 7.21791
-17.766 124.197 12.529
-28.441 107.895 6.09159
10.1895 121.252 -1.67894
-31.2425 130.423 3.19153
-15.3822 116.509 13.429
8.54583 138.312 -7.56043
5.46845 79.018 10.1304
-25.0884 147.218 0.683051
7.9374 148.367 -4.62299
-14.8217 104.695 14.4981
0.188415 117.92 6.01196
-10.6818 107.632 11.2005
16.3911 146.402 3.53155
5.88562 110.923 -8.94705
-21.161 85.3054 9.29824
-2.17245 123.644 4.77028
-16.2053 96.1922 9.97962
-28.5547 82.3611 9.18072
3.53936 106.368 14.3592
-19.1047 120.516 -7.15857
-26.6358 125.469 7.90882
1.12782 149.683 -2.92522
-26.1861 140.091 -2.43726
-14.1882 134.434 -7.63246
-13.6361 115.03 -7.08922
-13.7388 100.777 9.02479
-25.7868 105.786 14.7823
3.96916 109.908 14.2164
-17.2063 93.8132 11.9334
3.22566 77.8174 0.438098
3.71359 116.202 -9.08491
7.11861 125.435 -9.22641
6.82358 76.7971 6.03712
-13.8824 117.634 13.3916
9.18463 141.833 4.18782
3.61175 148.465 -3.20246
-32.7635 90.3887 7.22471
10.3992 120.507 2.24483
19.5443 124.752 1.23935
-2.11312 139.513 5.8122
7.28325 111.529 11.6938
-20.9013 109.592 -8.53727
9.49706 115.704 -0.220701
-21.9449 138.564 -2.91915
-19.3617 138.219 -2.55815
-18.4795 152.397 3.48548
-36.6218 131.955 1.14135
-27.8807 125.664 -0.537694
-14.5694 86.0119 8.37256
-10.5483 115.514 12.833
-13.3549 138.456 5.55015
-20.6464 85.3971 16.487
9.89988 102.418 5.06387
-27.943 114.79 1.92813
10.2251 127.173 -6.02361
3.27094 120.636 8.56238
8.02463 90.4723 2.88159
-4.63939 104.415 9.2606
13.1678 129.21 -4.49412
9.91573 106.586 6.01227
-2.58182 121.838 5.08862
12.2308 129.935 -3.6014
-21.6035 150.815 1.534
21.5731 129.022 -0.863718
-37.6461 130.741 3.44604
-7.35156 132.39 9.56627
-3.44584 141.036 4.77407
-28.6996 135.748 4.59169
12.4727 142.571 -1.62361
0.0775348 113.274 7.93187
0.294496 114.559 -9.91731
15.9734 123.729 -2.03468
5.94345 144.931 2.29398
-16.754 101.336 15.1429
-36.8775 130.141 3.50931
-26.4359 89.9143 15.3646
-32.7131 82.1104 5.67667
-31.4238 130.219 2.60261
-8.51519 86.662 12.1911
-34.2712 130.131 -0.048573
3.82416 138.779 -6.33328
10.1614 114.422 4.25327
-27.2392 112.568 -5.33668
-22.4036 108.317 14.9888
9.24973 118.864 9.90083
10.0044 120.076 -6.04924
5.1583 125.482 9.49451
-10.2412 119.685 -5.80738
-23.4607 124.886 -4.8314
-14.754 102.286 10.4591
18.7276 138.934 5.19614
9.31098 102.811 3.00282
8.78486 95.9775 1.97407
-27.9131 119.992 2.66388
-16.2484 149.183 4.06495
-25.1942 131.357 -3.31376
10.2117 107.313 7.98868
-23.6879 116.118 -7.83921
-4.15409 119.528 5.69962
-31.515 137.865 -0.261605
-12.0129 117.995 13.3874
-24.5452 118.808 12.6178
-21.8582 128.044 -5.13929
11.7885 143.229 5.30539
15.6765 126.254 6.4558
20.1927 130.12 0.0896326
7.44028 126.148 -1.47352
7.99065 119.006 -3.52818
-3.67494 126.267 -7.27005
11.1876 151.98 1.41707
1.88515 134.576 -5.61114
-29.3908 86.3816 10.7037
-0.329253 138.623 -3.45042
11.5539 120.82 2.97963
-23.0079 104.402 16.4584
-13.2037 131.908 -6.29905
0.796331 134.315 4.41025
6.3075 140.528 2.70213
-17.4619 96.7992 10.3662
8.13226 117.555 11.6718
2.0738 84.6171 13.4729
-15.8975 126.726 -5.65339
-18.8464 92.09 14.6563
13.0896 146.713 0.447063
-7.55412 143.042 3.55302
-28.7971 134.411 5.79713
-9.47779 128.884 -3.99733
6.53025 116.46 12.449
10.8724 151.122 0.0297019
12.2835 134.557 6.16822
-17.3082 144.352 4.87971
0.110989 137.626 6.82688
-11.2137 115.494 13.2804
14.5016 141.237 6.21821
-8.01048 132.016 -3.62817
-27.3399 127.766 2.2929
9.15778 141.134 4.49047
-31.5032 98.1535 5.21581
-14.1402 103.123 10.9861
9.60985 102.562 4.03562
3.27957 121.053 7.81778
5.07161 141.662 3.04905
-12.4385 93.4477 13.5961
1.56614 153.537 -2.184
-26.8655 131.585 4.95507
-17.4245 116.943 -7.2903
-9.83578 116.219 -7.82055
-2.27172 141.543 4.88565
6.24603 80.4179 3.37982
-5.46545 84.5475 12.9527
-32.6117 90.8379 4.29721
-27.4247 104.754 -5.90425
-27.8343 88.2205 -4.68732
-26.3919 98.3222 10.917
-10.6926 126.89 -4.35877
2.31946 98.078 14.6972
16.1365 121.841 -2.55169
-32.0447 92.1053 8.97205
11.7009 128.687 4.5777
2.67441 141.743 -4.4523
10.5984 148.351 -3.14958
10.6938 116.425 -3.16279
-25.0738 86.2608 14.3584
-23.1211 128.203 -2.0411
-9.92549 148.876 -5.77603
-33.4519 86.3621 4.7267
0.351076 136.068 5.29872
-23.4082 139.183 -3.80453
-14.7813 145.041 -4.33841
5.27418 128.168 8.87413
-9.9024 153.163 0.439381
-5.21381 101.487 13.1546
1.40969 84.1963 13.6839
-3.35835 129.703 -5.89029
6.80013 141.988 2.37452
-21.2846 93.0508 16.6658
-14.6736 141.817 4.77361
4.2107 116.573 -8.33457
-2.45684 105.08 10.5281
10.6943 115.171 5.74128
-1.95731 130.966 -5.77946
7.98649 97.6088 -1.98681
-32.8681 138.776 2.16419
-19.8129 116.066 13.2296
3.39348 121.582 7.25359
3.42569 91.8816 14.3374
19.6824 134.046 5.0285
-26.0698 127.058 6.20438
-22.411 131.938 -2.00629
-17.208 117.493 -7.13274
-9.16308 81.9446 10.9045
-21.3515 90.6574 14.3946
-7.45674 85.0502 12.5211
-0.350783 77.0125 12.3532
-14.2098 136.54 6.91312
-6.25219 121.066 10.3722
6.7096 134.645 -7.07925
9.40155 114.209 -5.93252
-25.8545 123.591 -1.83472
-3.22006 123.802 -8.58009
-15.1037 150.89 3.96322
5.95621 93.6837 12.9246
-36.3298 134.25 1.26434
10.8449 112.148 8.6279
-12.931 112.939 13.6283
-6.88818 119.372 -9.05312
15.1449 138.964 6.09781
-25.9532 120.869 11.0841
-11.2458 151.165 -4.351
-28.4603 83.4778 11.0782
-17.3627 141.289 -4.48033
0.924518 83.8138 13.9225
15.879 134.758 5.55748
-12.351 151.839 -3.42301
-36.3887 133.103 0.571117
0.947795 117.504 -9.97444
-4.85602 147.984 -4.74699
-3.4131 83.1501 13.4181
11.9518 117.993 -0.174416
-4.34053 144.443 2.93048
-22.0064 92.3974 15.3571
-18.0064 116.956 -7.4917
2.98209 104.102 14.8709
-27.4164 107.778 -4.8769
19.4059 142.648 2.04487
12.154 147.128 -2.06134
-23.4135 102.403 16.9866
-18.5168 90.4621 9.26704
4.31575 147.416 3.19218
10.603 128.814 -1.99538
10.3832 109.267 -0.942103
-30.6985 81.1001 6.29138
-18.9605 103.747 16.5998
11.6061 121.79 1.36655
12.246 133.74 -3.74933
2.90559 120.251 7.48257
-15.5743 136.244 -5.45698
-32.6237 138.044 0.367689
-29.2245 105.44 -4.66664
16.7999 143.514 5.13366
10.5261 128.577 -1.54754
-26.3126 130.133 4.60229
-30.353 103.802 6.41857
10.6794 131.867 -3.98718
21.1422 121.569 0.223765
-16.6143 125.46 -5.17195
11.5108 134.515 -2.77785
7.68792 147.644 -4.7449
3.1847 83.6162 12.5419
9.89316 125.094 -7.85631
9.12116 110.634 10.5917
-2.96364 145.136 -3.55113
8.52118 124.852 2.48593
-28.1851 124.84 -1.18715
13.0618 126.32 3.98295
-16.0799 136.136 -4.95942
-5.75725 138.383 6.59071
5.47396 82.9066 1.67642
-19.4621 138.547 -3.35111
17.3554 140.402 5.93646
-8.64612 116.597 11.5342
14.889 118.585 2.36295
-11.9448 129.139 -4.7334
-29.2462 142.809 0.988302
8.32552 94.9709 9.68454
-30.8354 130.805 -2.39718
-21.3565 90.9893 14.5077
4.9388 138.791 2.81032
-22.2587 114.601 13.9638
-10.7425 90.7819 12.6152
-30.5405 97.4995 0.500795
-25.8352 87.5685 15.1679
6.27162 97.9309 13.0274
-9.39823 120.042 -6.11575
-24.0474 123.583 -3.17216
7.85482 144.486 -6.09751
-20.6096 119.526 13.4557
-13.0125 130.864 -5.58865
-21.4664 136.953 -3.91389
15.299 147.645 0.987006
3.74006 128.333 4.25106
8.16577 103.368 -4.89105
-23.0085 129.804 7.9769
-26.8632 130.836 3.50565
8.17403 140.609 -7.03742
6.38972 131.619 -8.01953
5.51408 150.601 -3.11766
7.35577 126.98 -1.25835
22.6591 128.871 0.564966
-28.0367 128.627 -2.61326
-18.6923 128.128 11.3009
-28.0024 126.288 0.110403
11.491 132.574 -6.60679
14.5415 140.443 -0.756182
-3.78041 114.476 -10.7566
0.779297 122.622 4.89025
-28.669 108.097 7.44711
-19.8716 118.514 13.3417
6.64379 120.486 -8.94617
-26.8309 126.625 4.90315
12.4012 146.587 4.37913
3.72872 119.682 -8.60811
7.35676 129.53 -8.88465
-33.0446 86.467 2.80779
-9.04194 130.521 -3.88354
-9.91849 108.868 10.5164
-0.384851 105.984 12.7958
7.80171 86.7979 4.21557
-5.58664 150.362 -4.78171
-3.55993 79.9668 14.1931
4.86457 134.378 2.86956
3.50719 146.419 4.28833
-19.5676 102.364 16.8235
-31.4907 98.1622 5.58218
7.18414 80.9121 5.96246
-13.3172 119.211 13.3345
5.23349 83.2123 0.898198
7.8433 149.677 -4.15908
-31.0889 126.416 -0.0903725
6.25506 144.523 2.22206
-9.29241 93.0433 13.8296
-27.3507 127.215 3.50311
-17.6145 139.47 6.03894
-22.9518 141.406 -2.20095
-10.8499 150.633 -4.71069
4.73782 81.0489 11.0539
-23.8234 94.1824 16.0994
5.06659 124.698 10.3848
-28.4273 100.866 9.68763
-24.5915 117.52 13.1406
19.4812 135.404 0.0997426
-27.5771 117.584 -5.08045
-7.55673 127.376 -4.19199
-26.5816 112.582 -5.65998
-11.8346 123.411 11.9223
-20.3743 103.999 -8.52375
-17.4234 104.933 16.0434
-30.6748 132.183 -3.10756
-28.4982 110.996 7.03086
-29.107 84.5859 -2.84029
-24.5506 126.717 -1.5517
3.89155 125.754 -8.46457
-17.512 142.056 5.07672
7.87355 101.875 -1.9654
-25.1108 135.897 -3.55902
10.5416 120.018 -3.30631
-25.4065 127.84 7.25524
-9.89287 129.883 9.54225
-1.0226 105.169 13.745
7.65767 124.727 -1.04497
-19.1453 144.626 -1.6261
8.06802 91.8005 2.29493
-6.5699 107.453 6.98083
2.38577 76.6906 11.0538
-1.61971 133.192 7.42224
4.262 118.914 11.8208
4.50667 88.8527 13.2969
-16.1922 130.083 11.2304
-26.6829 84.0176 14.1188
-18.1819 148.247 4.70254
-18.4421 137.212 6.71927
-13.0945 141.798 -6.20003
15.8772 142.131 6.04042
15.2652 130.045 -3.0042
-8.82642 100.708 8.73892
6.24119 80.956 9.94509
-18.3061 93.8703 10.7669
-16.2105 106.839 14.6348
6.748 144.334 2.10759
-13.1651 153.054 0.650578
19.763 141.805 2.0394
-24.6206 109.075 15.0724
-21.0698 151.121 2.10723
-20.1463 129.356 -4.64352
14.0229 116.845 0.244774
-18.5641 111.815 -8.23334
3.2307 101.65 14.7257
19.8691 136.261 1.6841
-31.7447 127.521 -1.11678
-24.8932 105.734 -7.71539
9.8795 108.256 9.71926
-19.654 107.657 -8.55515
-19.7463 121.866 12.9032
-6.8172 100.83 10.5444
-30.0925 106.58 -3.24423
-4.98912 102.042 11.5775
-3.58737 104.344 10.0831
-11.0447 104.201 9.11948
-32.3624 128.673 0.217649
1.73038 140.502 5.09876
-24.1325 115.694 13.8274
-20.6362 85.3439 10.6754
2.95913 74.8857 2.69207
12.7159 140.727 -0.445823
-13.9941 126.116 11.8686
-7.74336 120.96 -7.2268
1.17744 139.711 -4.26424
9.92986 151.31 -0.348995
-23.6643 132.07 4.78211
8.65429 127.539 1.33608
19.428 123.223 4.17925
9.05099 143.547 2.911
2.13231 150.288 -2.7983
-31.7207 85.6069 0.211526
18.9734 132.786 -0.316648
-31.2048 82.9113 -0.740109
-27.6229 126.615 -2.32997
-24.8777 98.867 -7.64383
-19.0564 90.786 9.86559
-30.0433 106.142 -0.0909222
-9.23172 140.944 -6.75337
-25.7535 125.313 -3.0757
-33.496 134.388 -1.38557
-5.34623 144.809 -4.76777
-23.8132 84.0373 14.4455
8.81395 126.537 2.6694
-13.4347 104.242 11.4584
1.40104 145.568 2.83888
-24.3561 132.948 5.14922
9.971 128.307 -7.96825
-9.51676 123.857 -4.57962
-29.692 117.839 -0.616103
-25.371 89.3883 14.8548
1.39675 111.583 10.3191
-25.9271 131.915 -4.29428
-22.9943 89.2896 14.0192
-2.19864 130.897 7.97572
-26.0005 120.433 6.77149
-23.2466 109.703 14.9953
-1.8124 147.14 -3.47757
8.77826 123.278 -2.08708
-6.72923 125.224 -5.64235
10.5867 123.212 3.23692
12.7385 122.484 -6.29111
1.63045 100.915 14.6132
-19.4713 109.897 -8.55714
-13.1828 127.879 11.472
12.4259 126.738 3.67583
-6.4994 112.882 -10.8231
-20.2772 132.05 7.23952
-11.662 88.5466 12.0494
-24.5591 95.4038 13.1565
-18.8352 89.8935 10.887
12.4899 130.553 -4.06821
-21.7865 132.782 -1.77796
15.5846 124.097 -2.03043
9.89978 108.961 -1.77828
-18.0694 84.802 7.81026
-16.0812 115.072 -7.89352
-3.7652 94.7939 14.4749
-32.4585 83.8809 1.54146
9.58368 99.782 6.41979
0.244926 109.585 9.86445
-9.97772 144.044 -6.6625
-23.6914 108.62 15.4271
-0.0649957 141.296 -3.43038
-26.3059 87.529 15.0666
2.80456 107.774 14.6938
18.9812 138.765 5.01495
-25.8279 135.768 6.03312
6.85003 106.663 12.4808
-4.1729 117.778 5.6532
-5.24459 124.65 -6.65962
10.1248 113.573 -4.92803
-18.6266 150.849 0.575131
-29.9083 83.0477 -2.03989
-31.0277 95.848 8.68001
-19.4595 144.295 -1.69588
-19.8235 105.781 15.9564
0.98462 120.935 5.47155
-27.0979 125.99 -1.25724
6.66531 118.794 12.299
6.63801 90.8169 -0.0429847
9.01837 144.613 2.18422
19.6827 135.449 2.14667
9.77184 120.995 -4.35477
-29.4687 108.367 -0.486145
6.99305 80.8501 5.47499
7.02991 144.671 2.05541
0.394773 111.468 9.09294
12.9186 136.056 -3.93346
-18.5214 105.325 16.0334
-12.286 151.985 5.16729
-22.0791 129.183 9.75423
12.7948 146.132 -0.979514
1.31826 95.8436 14.3347
-18.8019 90.6364 14.5508
11.8455 124.706 5.65456
-28.0662 91.9933 -4.09217
-22.1001 129.619 -3.92389
-22.6909 126.202 -4.14394
-34.5878 133.712 4.40442
10.1201 134.858 6.94274
11.1194 119.245 -1.23611
-35.8236 132.1 0.861349
-26.6307 140.886 3.50736
-28.1999 110.243 8.47506
18.5276 144.345 2.26399
14.5387 130.738 6.12075
4.87385 153.42 -2.15921
-5.88867 147.091 -5.24966
-5.55682 132.048 -3.62963
-6.75714 131.248 -3.29693
-9.98256 129.911 9.50007
-11.2316 135.076 7.81862
-19.5766 142.842 -2.25678
-31.9431 86.2373 8.43906
10.3527 149.424 2.14959
4.93592 105.157 13.7591
-22.1723 92.4215 15.5124
-22.3086 147.268 -1.22784
-28.5212 108.838 5.94101
-29.7355 126.809 -1.91366
12.1264 138.254 6.44158
15.3282 146.587 1.07023
-21.3701 136.551 -4.03351
-0.558636 135.171 -3.87663
7.11102 99.063 12.5505
-22.8133 146.636 4.45636
-30.3334 100.69 6.68566
11.9919 128.536 -3.08494
5.17487 81.9581 10.9044
-32.9292 127.991 -1.36063
-13.4705 153.098 2.38488
3.71029 139.143 3.24106
-0.632386 122.371 -8.56706
-24.6832 109.083 -6.85126
-17.8008 103.587 16.3171
-33.3715 127.529 1.25109
-3.33635 149.226 -4.36201
-7.60064 83.6806 12.2849
-10.7815 132.513 -4.98397
8.57955 108.103 -6.03082
8.75424 102.929 1.56582
-25.6033 83.4536 14.6781
21.9809 130.151 1.19698
17.564 120.55 1.13934
0.604311 123.811 4.55092
0.242875 149.9 -3.23559
-14.9724 110.928 -8.43923
7.36496 146.941 1.89918
-28.9569 132.656 3.48131
-29.1788 119.346 1.27967
9.32434 119.241 -5.71126
-26.0831 109.968 14.4869
-8.12964 88.0792 12.2876
13.7253 148.228 1.31471
-15.9588 139.439 5.71435
-0.483538 105.422 13.8377
8.75758 123.063 -0.0303459
-27.0874 83.3416 11.4197
9.40337 109.66 -3.75983
5.8823 96.7082 12.9506
-7.82078 117.655 -9.39906
-7.25096 113.798 -10.5687
-28.1601 113.772 8.76709
-22.2337 134.912 5.61913
-0.861285 128.278 -6.574
-30.7643 101.013 5.87482
5.78966 147.053 -4.71201
-26.4813 128.451 4.82935
10.6543 123.972 3.36275
-23.0776 134.613 5.91806
-13.4335 103.275 9.91505
8.44452 109.597 -6.77618
16.9142 137.939 -1.49629
-0.77011 135.254 6.93248
5.98908 100.129 -6.5655
-31.0189 124.061 -0.8368
-7.60231 134.365 8.8182
-20.8425 86.8289 9.99265
-25.3864 122.078 8.46874
-15.8298 97.2885 9.72003
-28.6304 118.75 -3.88338
5.5535 150.092 -3.31577
-2.47587 117.593 -9.6709
-5.79327 151.755 -4.19355
-24.8959 93.4102 14.8542
-14.6239 107.937 14.4235
-24.1793 120.799 -7.23785
-37.3194 130.745 3.28822
7.89127 133.796 -7.55207
-26.9624 110.045 13.3476
-22.2661 131.125 -1.91684
-19.5344 119.589 -7.25173
7.96423 147.174 1.89882
-3.44899 112.97 -10.7778
-28.2136 113.447 3.11407
9.84879 126.018 -2.99391
9.07895 133.472 7.50653
3.44686 79.1435 -0.633412
17.5191 134.669 5.61308
-8.84027 106.892 7.495
4.33949 123.337 -8.85384
12.8578 125.123 5.19874
-12.2797 143.087 4.59233
10.8648 120.464 -3.15772
-32.0259 134.578 -1.50899
-5.85297 123.867 10.4021
-32.9653 85.0054 7.72856
11.6375 135.909 -5.50032
6.94877 132.577 -7.64559
12.4199 142.976 -3.01276
21.3079 121.912 -3.38956
11.8991 139.791 -3.49103
-22.9828 130.333 -1.55986
-19.8881 94.4973 14.7621
-21.1414 84.5015 9.25899
2.56222 131.513 -7.0304
-8.76921 105.15 8.06826
-31.1447 125.341 -1.12479
-20.6972 130.727 10.4485
-28.5459 107.303 6.39731
-29.5577 112.647 -2.22993
7.78677 95.764 10.7509
11.9334 142.681 5.35703
-6.9935 85.2179 12.7007
-12.7652 103.001 9.02304
-9.13445 89.0583 11.6387
-27.0693 114.591 12.2425
-22.9648 133.71 4.57763
-26.6666 110.029 -5.42145
-12.9621 131.862 -6.14027
-11.2133 88.3539 11.8276
8.43102 99.3682 1.85183
-19.2953 86.4793 6.32745
21.1276 135.892 3.54676
4.90481 101.736 14.0325
-30.3234 142.819 1.99486
-26.4336 126.842 5.60518
15.4962 120.889 -4.40959
-9.40985 109.44 9.02097
-27.709 139.818 -1.21962
-22.0375 97.9069 17.779
7.84384 120.974 -8.38601
-27.7691 106.265 12.5314
-27.3811 120.676 4.43444
21.9926 122.016 1.18342
-6.83645 114.633 -10.6871
-16.1023 112.578 -8.55966
-19.9148 136.947 -2.96206
-2.32052 123.932 5.06846
2.41412 88.9107 14.3648
-17.7981 89.2675 8.97397
0.652306 115.763 7.24482
-25.1726 85.5209 14.2853
-19.672 114.097 -8.53854
2.13326 139.213 -4.92989
9.09125 124.982 -6.41636
-3.64234 144.079 3.00692
3.75768 99.6701 14.2615
-14.7448 111.867 13.9567
6.1063 128.384 -8.84417
12.4527 119.616 3.21712
-25.4913 123.63 -1.88581
12.7555 142.045 -0.655179
5.35777 91.3529 -4.59064
14.5315 141.323 -0.633513
14.5517 119.383 -6.06799
-23.8935 110.413 14.7719
8.05633 116.189 -8.59511
11.0632 143.035 -4.81681
-4.58563 101.778 13.6172
-15.739 122.596 -5.34306
11.5716 149.38 2.63376
7.49207 95.0039 -2.13321
12.397 131.003 -3.63885
-31.3059 138.78 2.41207
-23.9306 89.6636 14.7701
11.8822 150.377 0.500818
2.76218 137.495 -6.07767
3.35243 119.473 10.0525
-15.3113 137.076 6.95056
-30.3126 97.5518 -0.0463806
4.59681 130.01 4.19458
9.45853 123.195 -4.42742
11.7764 127.245 -4.71046
-29.6226 142.709 2.72911
-24.8156 107.282 15.3106
-13.4849 103.485 10.4629
4.92646 146.97 -4.23894
-7.97738 124.224 -4.91573
-21.9056 130.835 6.67647
4.95586 88.9617 13.0094
-5.47596 91.7887 13.0477
-27.4707 127.276 0.734252
18.1901 121.596 2.94481
-26.9663 127.621 3.83212
17.1041 132.09 5.77445
-3.54113 152.364 -3.35213
-20.2341 136.161 6.11841
2.42637 140.476 -4.68419
-21.4981 122.925 11.9955
-3.8493 133.484 -3.65056
11.1948 131.761 6.67475
-9.068 144.575 4.74285
8.73261 137.102 7.22678
17.2639 134.601 5.58889
-25.3397 126.018 -1.13705
-32.048 124.397 -0.852057
5.98007 148.329 1.99737
11.1124 119.209 -1.18132
8.14608 108.541 -6.41275
2.87858 151.365 -2.75679
10.2797 143.777 -5.24793
-27.0337 96.3782 -6.60865
-30.9684 81.7687 6.8685
-26.3552 103.526 14.0775
-5.09836 116.51 -10.3851
-0.942642 147.543 -3.16067
-27.1115 141.011 -1.73111
6.40071 92.2741 12.0162
-20.6427 129.914 11.1312
-32.029 93.4106 1.12668
2.90526 123.941 5.16939
8.78261 134.764 -7.86596
9.62981 117.833 7.79963
-19.0942 94.6684 13.3689
10.3394 121.581 -6.45614
1.99571 118.696 6.8883
10.0263 121.141 1.26124
-32.4742 91.5622 4.18194
0.711832 128.787 -5.77814
8.22178 127.023 0.220146
-18.1992 125.112 12.0513
11.756 136.427 6.44534
9.36981 99.7857 4.6495
-30.0786 81.3139 -2.3073
-18.9722 96.3454 12.1417
-25.5354 138.778 4.37808
8.27551 142.193 2.37147
-26.3319 102.903 13.9684
-28.939 136.042 4.09265
4.81506 98.504 13.4937
-28.9782 132.823 3.23215
-1.1374 105.428 12.5805
13.1425 141.88 0.501812
-22.8014 142.255 5.53492
12.2646 130.107 5.33393
-20.1405 95.8109 16.3648
-19.4487 85.6153 6.37858
19.4004 121.849 4.07755
0.417392 135.504 -4.2028
-30.0289 89.0594 11.2494
-10.1885 145.432 -5.96194
-20.9304 101.064 17.2175
-19.7621 93.0747 15.7017
9.39271 128.398 1.28048
-2.63416 107.56 8.72293
-17.1432 142.941 5.06714
-1.91861 133.346 -4.25686
8.16911 120.788 -4.49428
-16.8015 97.3508 10.0859
11.112 113.677 7.82875
-26.4194 115.018 -6.49274
-22.4388 113.684 14.0832
11.1028 117.754 4.33909
-27.3911 85.7793 13.7648
9.92835 126.164 -6.22132
-4.15423 131.956 -4.64905
-3.95926 104.674 9.47646
0.0977338 136.331 5.85663
-31.8715 95.1576 6.44612
6.40616 123.887 10.9555
2.84093 122.266 -7.68655
8.43852 95.1221 1.44818
20.0542 128.751 -0.339128
9.60501 142.699 4.4923
-14.4347 130.057 -6.08298
-6.86993 143.653 -5.65275
-4.67419 104.517 9.19411
-22.3344 87.8959 13.8154
9.46261 106.575 3.00308
-1.79788 131.135 7.70587
-3.48275 137.571 7.02766
-20.5922 132.345 6.51251
10.0892 137.8 6.61742
-24.9681 82.3758 15.3836
-34.0462 126.406 1.13056
-26.4849 125.518 -1.9412
0.220302 121.003 -8.2341
-6.61609 146.95 -5.61087
-27.0926 95.1088 11.28
-26.1515 113.291 13.5023
9.05798 126.106 -4.10976
9.48714 144.971 2.82109
-4.43402 98.3983 14.6601
-26.8426 129.56 3.96162
-27.2278 124.733 6.21122
17.9252 143.09 0.655683
-4.76308 142.469 3.91051
-21.6331 109.684 14.3001
8.3779 123.233 -5.98094
-25.5441 122.836 10.6897
9.49003 123.807 3.00534
7.95355 101.639 -1.0338
-1.26785 89.4749 14.0731
-27.9741 82.9249 10.0343
-8.09288 115.561 -10.0059
8.87927 105.702 1.60949
4.97838 132.336 -7.20156
7.80521 99.2106 10.6615
-0.743845 129.704 5.17172
-20.2579 142.193 -2.57233
-24.0906 115.917 -7.71212
15.0205 119.387 -5.22214
15.8744 138.847 5.87157
10.1242 138.625 6.79525
-11.9437 152.263 4.97898
12.8439 122.305 4.08491
8.69428 138.039 6.4237
-6.95004 106.957 7.10142
8.86317 119.962 -3.11015
-18.9231 88.5636 9.36542
8.76157 92.9727 7.36058
-32.9397 84.597 7.73188
17.66 145.041 1.3092
3.37266 137.559 3.12358
-26.7764 115.958 -6.04289
5.8219 104.91 13.3443
-18.9454 93.0674 14.8745
-29.6704 101.176 0.853316
-10.0648 113.611 12.2352
-22.1979 123.648 12.1015
-28.4297 124.974 -1.2633
7.16723 144.68 -5.88367
0.209209 108.462 10.9175
-14.2821 83.1504 8.79642
-3.9949 124.024 8.0918
15.5054 121.956 -4.04371
6.61382 98.8651 -5.38099
-29.7114 118.835 -1.35744
16.4029 145.293 4.22922
-27.7688 111.272 10.1828
9.7154 114.46 -6.97083
-18.5135 136.659 -3.44201
11.8267 140.858 -3.07227
5.3115 120.888 11.8938
-20.7191 116.765 -8.20455
5.98031 113.758 -7.81868
