ply
format ascii 1.0
comment Created by Open3D
element vertex 1950
property double x
property double y
property double z
end_header
8.15243 95.2415 -4.29278
4.00748 102.64 -7.21165
0.709008 78.5899 -1.39621
24.5499 113.203 5.99812
-8.8044 94.1559 -4.33987
22.6499 104.385 -5.01109
-16.509 108.499 3.61968
-16.9938 113.688 4.43592
23.87 114.286 1.80766
20.1385 125.869 -4.65149
24.5317 78.63 -2.33577
-15.2273 119.405 -2.22759
-3.83956 123.919 13.146
28.1149 98.6824 5.35707
-7.4094 115.67 14.3298
-13.7928 91.1924 5.23815
23.1717 100.785 16.0279
-18.4726 120.781 5.41426
10.6636 85.3473 -1.60339
20.4358 103.155 15.8424
17.7645 118.637 -6.02224
19.7404 125.076 2.27115
-14.7044 75.9791 5.07777
24.0305 107.889 13.0153
14.4424 126.573 9.59786
20.6237 97.3487 17.0336
12.6022 95.367 13.5798
-11.5522 89.4773 -2.36704
-15.9088 72.1591 1.26869
-17.4307 109.001 -0.787648
-11.3531 109.222 11.6703
-15.3927 82.2221 3.95229
-3.84445 88.2777 -3.44361
-15.5508 123.763 9.70167
20.3833 126.887 8.07333
-19.2319 122.661 7.26227
-18.4904 122.057 8.1428
22.4001 107.92 15.4259
15.9806 85.3189 12.9198
29.1725 86.478 10.1538
-0.0883871 104.221 13.433
13.2257 121.966 -5.18789
12.2513 95.2023 -5.77108
24.021 109.831 11.5634
1.81539 116.906 -6.10059
11.3442 111.915 -7.65599
-16.32 109.31 -3.07593
-16.6062 120.483 6.71026
18.4783 118.445 -0.893801
-5.97731 117.728 13.9512
-17.0897 114.704 4.28039
-5.99763 74.9723 8.51506
-17.0065 100.898 0.499862
5.24758 98.5625 10.1382
24.9892 93.6887 16.37
17.2589 105.18 -7.11864
-16.8559 113.283 0.257805
-16.8914 114.608 -2.71748
20.0986 114.327 -5.96926
16.2617 124.489 -4.23163
-10.678 90.5255 8.81738
0.367569 112.162 -5.92778
12.6203 126.121 2.7114
29.4856 87.1917 -0.10068
-9.36199 123.727 10.1576
-5.84653 77.5302 10.6354
5.27028 81.5663 -1.49716
-0.481708 127.424 10.8874
22.1798 130.122 3.65616
-16.7977 121.186 4.88073
20.7126 130.107 6.40017
14.4884 119.79 -5.33737
-1.79914 123.987 12.8783
9.61447 98.5156 -5.71293
-17.5851 120.58 6.10866
12.9065 92.3605 -5.26068
-2.64565 115.996 -3.44178
-4.38284 86.1771 -2.79955
1.53472 119.979 12.2954
-4.28729 100.504 15.2901
-23.5773 119.629 9.10049
-14.5583 107.742 4.54514
-23.336 119.599 9.01149
10.3714 87.3455 7.41094
-2.00527 98.0138 14.8472
-11.9831 109.815 9.97449
-12.2689 96.9879 -3.20691
20.941 104.497 -5.90077
18.1473 126.928 -2.45051
11.2397 80.5567 -0.309353
-5.23439 81.2574 -1.77817
-10.4759 118.49 12.7674
17.8688 129.063 7.24388
20.4513 129.991 6.5444
23.9797 113.93 2.59859
-11.9449 75.4679 7.67042
14.2828 82.2366 13.6441
10.4176 96.7582 8.13949
6.38048 88.3953 11.7232
27.0288 84.9181 -1.65778
28.8727 89.337 9.54988
-13.176 111.238 -5.22237
24.24 113.702 3.5086
1.90403 92.5828 12.8394
19.4178 123.419 -0.514471
-17.0219 101.18 -0.945829
22.074 130.941 3.92713
21.7259 123.332 -2.05015
5.48185 91.594 9.90084
15.2278 89.152 -4.84587
24.5916 112.053 6.20911
-13.1721 113.627 -5.12343
13.0161 80.3892 15.7938
-9.60902 97.7952 -4.07413
14.8616 101.412 14.0028
20.9773 128.615 4.03419
7.71775 101.095 7.80763
-5.58839 110.201 14.8627
26.3908 101.058 11.9779
17.4509 94.1013 14.8566
-11.7757 89.6246 -2.3732
14.1105 112.834 5.52835
4.40586 92.9787 10.6515
0.958947 122.061 -3.36845
26.0356 106.8 5.3768
18.7417 109.833 13.9331
15.4471 129.055 6.2057
-16.9973 117.548 3.9624
-3.18174 116.243 14.2552
-14.4083 105.548 6.29825
-7.11912 83.5121 10.9971
-20.8794 121.603 7.44741
26.2196 104.336 4.68336
-25.2066 119.537 2.7507
27.1443 102.786 5.41597
0.599729 92.2427 14.9562
19.7155 122.63 -0.75104
-12.0814 78.5885 7.90685
11.5298 79.107 -0.0456587
15.1323 90.2057 14.7089
25.1805 78.0452 -2.36644
-25.096 121.54 6.0629
14.9034 126.043 9.99506
-16.3214 121.28 4.52961
9.96648 107.206 6.16057
28.8498 124.604 3.59692
7.36719 102.463 9.23182
-8.90689 118.441 13.7917
19.5041 119.4 12.677
10.5079 100.139 7.98275
3.37332 117.799 -6.61084
11.4967 82.406 7.01311
0.195308 74.7931 9.01136
24.9756 82.033 15.5604
-23.5384 120.675 5.00667
20.6147 119.472 0.701842
20.1795 87.5726 17.9553
-15.2587 121.996 4.66859
-6.3519 114.417 -5.23112
-1.51176 76.7023 -0.997339
18.8905 94.5216 15.8376
19.8288 119.539 12.4839
2.08644 96.2572 14.0894
-17.5303 108.156 -0.199803
14.1273 82.4109 -2.07431
6.86472 117.069 -5.86401
14.781 87.3979 13.9945
-11.2332 74.0074 7.07484
16.4108 111.045 -6.88827
-13.4942 76.4285 6.07362
26.7 85.6348 -1.66778
18.6063 124.776 -8.0437
12.4846 117.652 -7.11646
12.855 81.0436 13.1032
-15.4877 121.046 1.93142
24.3534 111.729 5.04596
-6.44326 79.283 -1.76591
-0.553081 110.894 -5.44487
15.2179 121.25 -6.22287
-4.56586 102.312 -5.33112
29.9405 86.6746 3.33943
25.2292 98.5278 -1.70992
-13.7136 123.85 10.0809
-4.0339 85.2982 -2.48463
26.5274 104.087 5.12617
15.9526 110.904 -6.94248
24.3101 88.0484 15.6265
-25.4658 117.96 0.547067
18.8465 124.558 -0.702131
30.9484 84.593 2.96822
-14.9081 94.9016 2.46923
0.315451 104.759 -7.65217
18.1164 118.122 -4.2445
-15.6601 121.364 6.46048
-18.4424 121.614 7.6756
-9.07371 84.2825 10.0794
3.65622 85.4827 -1.71493
17.5181 123.78 -5.62995
-6.71634 91.7867 -3.3172
-13.0788 119.238 10.4363
-10.6972 88.7472 -2.23006
-14.6068 90.6664 4.45263
-14.3208 118.108 9.55914
-11.3929 99.9557 -4.76156
-13.06 88.0899 6.30671
24.0577 116.409 9.32145
14.526 110.736 6.32159
9.32119 103.116 -7.26908
8.07707 108.227 9.08264
12.0063 98.7939 -6.88006
25.1401 95.4545 -2.89121
23.0298 101.904 16.3935
-15.2507 120.452 -1.87098
-12.1583 91.4187 -3.08208
15.1192 99.3066 -7.81849
9.83071 92.1206 10.1722
19.0511 125.413 -5.96862
20.8906 101.124 -5.39718
-5.45275 91.9594 11.4513
2.48397 101.168 -6.24595
14.9274 124.356 9.33518
-17.0168 101.384 -0.0333367
-17.1466 106.235 1.39586
-13.1311 99.1742 6.48235
4.85321 118.506 12.0606
3.55289 122.471 -5.3399
19.474 108.359 16.124
15.8338 106.037 8.84493
26.3269 101.609 1.03016
27.1647 126.142 2.29205
4.45979 80.7549 11.5386
17.1007 94.3514 -6.65891
-0.685929 106.569 -6.62775
-14.4319 102.209 -2.89405
15.246 108.652 -6.89323
-12.8514 102.374 8.07873
17.2142 86.0829 16.6267
-15.8905 98.1232 -2.56504
24.9888 92.2697 -4.21281
-2.18505 114.113 -3.86474
17.2558 124.841 -3.35353
-5.85801 118.011 -4.04822
-17.462 120.952 -0.313331
0.395104 98.6157 -4.29789
-15.2321 84.5425 -0.204243
-14.4496 82.6861 -1.20891
7.34905 111.059 9.89802
-16.713 111.37 -2.69932
19.739 124.952 2.81135
8.84017 122.453 5.75348
7.67606 100.629 7.8996
-16.6638 113.778 0.0902009
-5.99566 121.738 -3.449
17.4015 121.575 -3.75102
14.7435 101.133 14.1381
-5.48489 122.717 -3.62715
-15.7219 116.372 7.21154
19.8646 83.4132 17.3892
17.7726 105.947 14.6583
-12.977 117.383 10.7639
-13.4588 120.566 -4.2912
18.9491 80.3839 -2.43622
-17.8852 121.823 8.16623
-2.88062 92.497 14.2753
-13.5888 76.2748 5.88478
19.6212 94.6926 -6.10853
8.43488 127.07 7.46412
11.9335 128.202 2.50665
-13.6734 109.833 6.46089
21.2492 93.8256 -5.66127
-16.9757 119.595 4.14398
8.8062 83.598 -1.19483
-14.4702 110.696 -4.67837
3.1161 96.6516 -3.27036
-12.7208 124.808 9.82635
-0.739761 107.488 -6.16381
-14.0452 80.9628 -1.04708
-14.6268 86.6824 3.66085
24.4954 107.362 2.5104
11.4303 85.8349 6.53235
17.6029 119.445 13.1889
21.4699 123.844 -2.47789
20.4334 116.596 13.3186
26.6642 80.521 14.0588
-16.8691 118.036 3.7951
17.2859 79.1646 -1.66068
-23.2862 118.251 1.67336
5.78689 109.253 11.9798
15.2276 87.1467 -4.15869
26.3226 97.4936 13.6367
15.8137 118.358 -5.95748
30.0239 85.5206 7.56209
23.4385 110.406 3.29776
16.089 103.539 13.2227
-8.15885 87.6878 -2.62911
21.0437 124.003 -2.8134
12.0863 81.1735 8.58462
-15.4405 119.373 -1.587
-15.8531 114.043 -4.03655
-12.3722 100.998 8.39775
-12.5158 104.403 -4.46382
-20.02 119.311 6.29846
0.669597 99.5535 -4.97876
-8.40603 100.665 13.3841
18.8876 120.917 -1.27173
-2.18639 111.083 -4.51545
-15.7606 99.2874 3.8695
-16.5191 111.095 4.74431
21.0964 110.763 15.5011
17.6169 112.779 12.5778
11.6517 82.1662 8.16396
20.4364 113.817 14.2342
11.0761 104.809 6.34268
-16.7402 121.668 4.89815
14.4327 102.579 8.46104
26.9777 97.5657 12.1767
10.3416 95.1606 8.49615
24.7754 103.953 14.0682
27.0041 125.278 5.04274
0.481204 93.8196 -2.69402
20.6622 80.9003 17.6083
-17.4099 112.894 1.64994
9.32977 115.572 -6.38573
22.2161 116.779 11.8384
-23.7551 121.099 -0.226277
-17.4404 120.429 2.65323
23.5786 116.857 10.0863
-17.2772 113.361 2.17968
11.6917 99.8476 7.85635
3.23264 82.469 12.3927
16.1493 124.212 -6.59895
5.71903 99.3797 9.78943
10.1704 86.2476 7.57676
-5.21456 121.747 -3.41014
26.2676 126.356 2.47124
20.8896 126.684 -5.03197
-14.5294 87.2833 3.52351
23.665 83.4937 -3.55854
1.47723 97.3783 -3.2713
25.3858 81.4407 15.2165
-13.2791 102.821 -4.07095
-22.944 122.285 0.285941
-11.4753 98.1324 -3.90008
-2.95697 89.2158 -3.12115
20.2255 126.311 0.0873296
4.90879 87.145 -1.76092
31.7133 81.8125 1.83876
18.7632 126.348 2.80639
-15.9513 100.206 3.768
28.7773 94.2488 3.2103
27.1987 99.3817 11.6789
3.55002 84.5206 13.0843
2.10874 101.525 -6.27497
6.48585 113.936 -7.29492
-5.56524 117.224 13.9995
21.0775 112.552 14.3272
-25.3783 119.143 7.25525
22.5461 102.388 -4.62229
8.40709 116.67 -6.51882
18.2357 123.388 -2.07417
-6.23903 77.3877 10.1792
-8.75816 98.9814 12.7663
-13.8019 114.613 -4.86672
24.5788 99.3773 -2.88697
0.20109 120.982 -3.13974
-11.5434 89.8299 7.95967
22.2972 97.1988 16.5877
26.9316 88.2491 14.2242
0.729562 113.813 13.6025
-11.3043 81.8438 8.6748
15.8589 123.03 11.349
23.5916 116.9 7.0172
-23.5239 120.608 5.22246
-5.15322 95.8346 13.659
-3.63295 95.0014 14.3671
21.5895 113.057 -3.73069
16.8556 76.4301 -0.511017
-10.2959 104.432 11.853
9.90399 76.8699 -0.437172
-16.9603 114.628 -1.40126
-16.0868 123.266 8.34182
25.5359 109.643 7.57809
-3.72205 101.688 14.8849
-9.9101 106.501 -4.81064
16.9983 126.226 -3.76053
27.9786 124.122 4.02314
-7.07347 80.0252 -2.16573
-0.0573051 104.686 -7.61546
-15.2918 121.934 4.63313
9.67859 118.288 -6.37231
-16.3331 115.433 1.93233
8.98093 122.193 -3.9389
26.8094 92.933 14.0168
9.62144 115.745 5.25575
1.72999 110.52 -7.05997
6.18247 79.8123 9.67538
-0.373472 74.6141 -0.749946
27.653 124.246 4.53028
23.2913 83.2773 -3.61586
-13.705 105.328 7.89792
-5.62513 88.735 11.11
-14.4716 73.2238 4.52084
16.0814 125.031 -7.31485
-10.2461 91.9899 -3.8652
-0.481902 75.0592 8.94242
15.9415 98.8007 -7.49786
-7.0965 106.379 14.7113
23.6881 118.519 7.86142
2.37569 114.728 13.1605
6.96828 118.889 10.0557
30.8195 83.1994 3.26173
9.9272 126.229 4.17181
-13.5657 114.619 -4.88311
-0.368275 123.975 -2.42062
-5.75441 76.6392 9.92744
-2.57919 101.522 14.3389
-17.2858 117.858 4.5011
22.9407 94.5831 17.3337
-15.1671 108.191 -3.9016
-16.3566 115.512 6.38753
-10.1231 107.059 13.0196
-17.135 118.93 7.30603
23.4781 121.895 1.06883
-9.394 110.192 -5.93083
-13.4406 114.932 9.14808
-9.59039 109.522 13.7057
27.6691 98.2556 3.44047
-8.57911 96.6309 11.9341
1.70572 81.6088 -1.33654
7.39414 111.716 -7.52974
6.34368 103.781 -7.15001
8.96423 80.5292 6.98463
3.82036 85.4848 13.1608
-5.66094 105.935 14.9866
13.8683 104.398 7.02831
-25.5643 122.618 1.97779
-16.6435 75.5904 3.52551
-7.16436 79.7237 10.8136
-16.2443 121.158 7.61518
21.4959 102.464 16.3744
23.0066 105.983 15.5736
28.9865 90.5495 1.69323
-5.95408 98.6841 14.3445
16.6179 108.771 8.80615
-13.7725 100.246 6.43179
25.8039 94.6255 -2.4708
0.72201 86.9903 -2.29336
19.6614 91.3326 17.7317
-13.3768 79.3622 7.04431
1.66103 124.855 11.1142
15.7161 104.872 -7.92275
21.3563 123.56 3.54008
-12.8422 87.9781 6.56658
-3.70223 86.9255 12.0694
-4.7244 126.856 10.6458
-8.51993 122.749 -3.81927
-16.0268 121.531 8.00686
25.6828 132.089 5.29366
16.781 126.505 -3.97528
-12.059 103.543 9.25907
20.1703 114.592 14.3336
-15.8405 75.983 1.24775
8.94042 91.1 10.7272
1.76723 100.63 13.4248
19.7826 126.598 -0.808685
-3.74643 109.784 14.7005
11.3647 109.109 5.46837
11.3225 119.833 -6.27183
18.0516 127.73 3.30111
26.2941 84.2422 14.0232
-7.98954 111.491 14.2575
-1.21726 95.2123 14.9125
-17.1106 72.9364 3.26549
17.8817 125.384 -7.48044
24.7668 101.647 -2.65681
-14.3663 101.765 -3.02952
-22.8092 124.49 9.57822
25.7244 107.75 8.7675
-4.21791 110.872 -5.35474
13.5155 97.1478 13.1567
3.34704 101.854 -6.71375
6.37784 111.517 11.1067
1.8103 108.517 -7.44831
2.61874 79.5435 -1.54606
20.1527 126.468 -3.92216
5.57949 96.9677 9.52277
22.0269 86.0101 16.2581
21.5644 85.0332 -4.2751
-24.1245 121.193 5.56981
13.1212 82.5471 11.2441
-13.5501 106.786 7.45405
8.11718 86.5183 8.92831
9.13009 91.0222 10.206
-15.1384 120.993 5.25963
-1.77621 117.833 -3.20065
-14.6876 103.504 6.2401
-2.81125 124.955 12.4438
14.0473 111.558 -7.18827
-12.4499 86.1016 7.89023
-18.2221 121.852 8.41988
4.43198 86.6698 -1.71482
-16.3163 102.001 1.59053
-17.3139 113.852 3.5153
-15.6861 127.237 10.572
-10.6743 102.003 -5.15942
10.328 116.56 4.55734
25.9927 129.948 5.59561
18.649 123.532 11.8966
17.3284 120.865 -4.41843
16.0275 119.57 10.6802
-7.40977 90.2832 -3.51116
0.868751 103.669 -7.01353
21.7791 122.742 -0.765004
22.8447 105.331 -4.18226
-4.85125 95.2626 -3.31445
15.3915 99.8641 15.0506
30.7346 79.7362 7.38041
26.3627 127.967 -1.13494
-13.6533 111.24 -5.02074
-2.78616 95.8366 -3.09109
23.2999 132.113 6.55073
-17.02 115.931 3.97434
-23.6392 119.055 8.3589
3.26862 115.306 -7.02337
-16.5624 88.7743 -1.05138
6.73104 111.221 -8.09485
28.441 124.034 3.85732
2.46052 85.7818 14.161
-16.768 96.386 -0.406003
22.9639 80.1691 16.9494
18.4013 126.303 -2.55358
27.6791 93.4401 1.73511
21.4993 113.938 -3.20169
26.4407 79.797 -2.30737
-16.0781 84.9342 1.53708
-3.51901 79.4588 -1.51095
8.36931 84.2459 8.87805
5.21018 106.153 -8.06469
16.0166 119.206 -6.38986
2.08441 124.367 -3.38875
26.9849 103.476 7.68582
22.2519 104.557 -5.41616
21.7971 111.567 -5.14353
-10.7444 110.206 12.3476
17.9257 129.019 3.33304
14.4405 90.9883 -5.19584
-12.5805 74.0162 -0.672635
-10.8292 89.396 9.09688
22.8541 100.881 -4.51544
20.0273 80.8346 -3.15827
17.6271 112.383 12.5359
-13.1031 109.671 -5.25121
-0.344191 97.8746 14.6857
2.29626 92.2595 -2.22509
13.253 123.944 -7.45054
11.4107 104.842 -8.81767
-16.4495 79.5659 2.34669
23.7128 105.583 0.24945
-14.8156 105.783 4.48706
11.3812 102.145 -7.97018
10.3887 88.6915 -2.72362
-12.5511 113.834 -5.15288
-15.5127 96.5145 3.08503
18.3141 118.524 -5.18513
-7.50145 81.8995 -2.42903
3.68597 122.379 -5.46042
19.7514 96.162 16.5979
-4.05712 128.235 9.9934
-0.689339 102.73 -6.11736
21.4111 123.633 1.61766
18.1959 119.039 -0.362478
7.37872 95.5877 -3.98542
23.5936 110.231 3.48784
-13.5787 83.8445 6.82829
5.82977 115.07 11.8047
-4.39671 75.6962 9.86894
23.2307 84.5055 15.4107
15.0683 123.13 -7.00807
-17.1647 115.83 4.15264
-11.3753 119.305 12.0501
2.69966 96.8427 13.634
5.44901 106.179 -8.16707
-16.7555 120.639 5.87951
-15.4354 79.9319 5.21138
-16.3732 120.968 4.26098
7.61186 107.898 10.0701
2.89419 91.1787 12.3759
9.18725 79.4766 -0.671462
2.71982 78.2512 -1.30016
21.7935 130.596 5.2162
-15.6046 121.842 2.38717
25.6494 106.889 8.48513
0.578858 101.771 13.4178
17.5199 104.009 -7.46563
15.0964 82.7605 15.3612
-13.3662 76.4365 -0.643835
24.2666 99.0517 -3.23215
-26.1033 120.697 6.33057
-10.381 89.7099 -3.04125
17.368 120.95 -1.2713
21.5664 125.197 4.55492
19.5228 123.928 -6.90845
10.9469 77.5388 -0.14426
-7.10705 96.4549 12.8916
17.4142 101.152 -7.57102
21.8776 106.122 15.9531
-22.4827 118.668 6.28458
5.35809 90.4364 10.145
24.638 94.9415 -3.30802
-22.7401 118.608 6.55817
-12.3228 104.381 -4.43455
-6.35325 88.5821 -3.53876
-14.2491 118.654 9.36445
19.3283 101.004 -6.54588
-1.62008 87.2398 -2.9405
16.3114 108.788 8.46894
12.7632 94.6797 11.804
24.7215 106.443 12.5958
8.39126 108.473 8.27615
-8.43029 124.584 11.3145
-0.261005 122.665 -2.59722
26.9925 125.073 0.326771
15.3945 116.83 -5.31754
-17.5978 110.994 -0.819729
17.8023 118.27 -6.23577
27.2451 97.9729 1.29329
9.06842 113.295 6.11371
2.38642 100.81 -6.04508
27.3288 93.2374 0.874942
-7.86907 78.4635 9.91374
-16.6688 75.7183 3.72707
11.1078 83.3468 -1.21749
10.2335 114.023 5.30605
14.5676 117.974 -5.34114
10.085 99.1035 -6.13772
22.508 106.49 16.0152
6.46738 111.311 11.016
15.9223 124.202 11.2606
12.009 89.9578 -4.09263
-8.67389 125.515 8.92975
27.2315 102.844 7.21077
-3.33938 112.495 14.6071
-17.5272 121.046 5.75639
-10.2336 96.1999 -3.54027
-5.94685 120.891 -3.5514
13.9515 119.107 4.39541
22.05 124.671 4.84403
-10.2798 94.8372 9.84976
17.0597 127.923 1.72048
-14.9638 118.123 -1.50324
7.14411 76.188 -0.594377
-10.055 81.4928 9.36643
16.7008 91.7025 -5.93201
-7.11591 119.72 -3.78127
-25.3242 122.594 3.26582
15.4359 103.114 9.73372
22.1146 121.329 2.86704
-12.4507 108.76 -5.25564
20.4302 126.37 8.07401
-12.3615 100.524 8.23936
-16.6142 94.762 -0.699575
-14.2385 85.9615 -0.652311
-2.31777 100.36 -4.16975
22.9147 126.089 -0.442415
-12.2147 118.013 11.8042
-3.74143 97.234 -3.84498
-14.0354 73.7401 5.33843
21.1769 96.0292 17.4988
26.3919 104.945 8.09167
14.2037 81.4127 15.6509
-0.221323 89.7415 14.5833
19.347 126.083 -5.70142
18.1883 120.758 13.0302
-5.343 94.0408 -3.17642
8.86084 99.9467 7.6879
16.6029 112.71 8.03966
-13.8983 123.395 9.19425
23.2611 110.224 12.6282
-1.469 91.9321 -2.88194
4.5343 121.96 11.1836
26.0862 129.34 -0.733848
19.3406 117.203 -0.889345
-15.5772 121.432 8.34204
-14.6817 89.3144 -1.38403
-15.1493 75.991 -0.0496777
-16.6515 74.8499 3.12181
-14.8552 123.401 7.86424
-13.5272 104.208 8.37279
1.13956 89.1727 -2.50508
-16.8556 106.755 2.09163
21.726 118.962 3.37168
21.0204 124.234 -6.48246
-6.23393 125.852 11.0334
-11.4199 74.5588 -1.30934
7.69522 119.412 8.27977
11.6274 117.344 4.24468
16.4547 84.9431 17.9306
22.3215 106.095 -5.24731
17.8625 87.7271 16.748
-15.8716 123.097 7.7732
29.0191 94.8586 4.78785
27.4891 83.5337 13.5976
27.0933 101.167 10.7609
8.47341 102.462 -6.62224
15.143 119.04 5.0819
-5.89616 94.7628 -3.55255
28.2147 92.644 2.36212
20.8576 122.387 10.6262
17.3955 121.35 12.5857
-10.1447 93.4953 9.79706
25.8773 92.8058 -2.4231
22.0121 128.088 5.32585
-8.57375 124.933 9.50559
2.11565 117.928 12.9922
4.51023 108.833 12.5731
4.18646 109.567 -7.33288
-0.99161 110.581 -5.24558
-0.252693 90.6912 15.1655
30.5806 82.785 5.48339
-11.0324 124.824 8.25772
17.6368 111.322 12.6243
-9.26381 98.6187 -4.59364
6.03417 117.69 -6.25729
6.85534 88.9033 9.89233
21.9668 77.792 -2.45701
-3.20239 111.923 -4.76856
25.7093 131.178 4.1711
-13.0288 81.0257 7.55275
15.7843 125.226 -5.13837
3.34794 77.5098 10.5857
6.19057 98.5506 9.02248
16.3949 128.153 8.58661
11.0431 90.7872 -3.89294
8.75666 79.4159 -0.670849
-4.68275 86.8574 -3.19157
26.0485 102.698 2.2093
11.9095 83.1294 8.93774
-16.1287 99.4511 2.97905
14.873 93.8133 -6.32288
-16.1912 72.9986 3.5453
29.5039 92.5535 4.71583
29.1566 94.6129 4.12555
0.754304 96.67 -3.03916
23.208 122.185 3.97941
3.31151 114.4 -7.26295
-2.90791 116.925 -3.23892
17.6044 114.054 10.9126
-12.1222 77.277 -0.645161
9.53569 105.351 -8.64982
21.619 84.7279 16.2588
-7.70825 81.0011 10.3701
18.9406 106.479 15.4931
22.4229 77.1531 -2.24958
-0.631 106.553 -6.67556
-17.5183 122.878 7.34651
19.6826 113.805 -6.34972
-3.70847 81.1611 12.0835
-2.95279 99.2662 -4.13832
-1.14824 105.25 -6.98101
6.5271 119.725 10.692
-0.391494 118.156 -3.6555
20.8001 118.315 3.22917
-16.5449 96.6721 1.24279
22.995 81.29 16.5091
23.2527 82.7191 -3.5352
14.816 125.204 3.8463
-6.76592 99.9754 14.2517
4.77061 111.799 12.519
8.2133 85.5906 -1.29438
9.18307 106.972 7.20468
8.59779 87.3482 8.36238
-1.05961 124.846 -2.13374
13.2963 97.0948 14.5411
17.644 123.145 12.1314
15.6554 115.718 6.32194
-22.994 125.321 9.39658
12.76 83.2498 10.3144
26.8854 121.557 4.77543
6.16633 91.1985 -2.55309
25.0744 80.6424 15.5613
-2.47892 98.8249 -3.86262
18.4389 98.7768 -6.93352
16.1431 125.407 -7.45173
-15.2723 118.649 -2.55136
28.8868 82.8135 11.8454
-8.11041 119.372 14.3098
24.8152 93.7381 -3.87804
19.2484 105.826 15.5335
10.1541 103.833 6.40201
-5.25837 83.4554 12.0376
19.4296 124.236 -6.78335
19.7323 125.222 1.67213
2.99146 125.028 -3.77133
-0.0164278 119.821 13.201
21.7956 119.503 2.75627
-2.6216 85.2347 -2.68598
-7.42331 84.8942 10.4398
12.2289 114.607 4.64479
1.30424 82.9498 -1.51486
-7.61774 122.46 13.6215
3.77081 102.001 12.6641
-12.0761 93.6526 8.34474
19.9784 110.353 -5.69757
21.2499 126.316 4.86523
-16.3911 121.24 5.35998
18.171 101.646 -7.36064
-3.71404 80.1685 -1.60263
15.4127 118.575 5.47902
-14.4399 73.7226 4.96108
4.34555 77.9352 10.1662
0.379705 77.0115 -1.09944
9.83235 125.928 4.44948
-7.74574 78.3089 9.86216
-12.9842 108.878 6.96905
7.48161 123.737 -3.87401
4.39658 84.6377 12.9702
-21.5422 123.779 10.043
-11.4063 80.6166 8.48252
2.47655 78.0551 -1.29457
-18.4544 119.544 2.25147
29.7263 91.0703 4.02185
-7.09075 121.485 13.863
-2.31313 118.888 13.9348
-15.3399 119.126 -1.4204
24.4739 80.0344 -2.19902
11.7379 80.7563 11.2151
-14.831 122.522 8.3422
-16.5821 121.074 3.4485
-5.97062 79.6449 -2.11926
1.17922 126.938 10.5119
-3.06333 90.2011 12.4805
25.2352 94.6541 16.1291
2.41056 104.238 13.1243
3.94805 101.373 12.7632
-6.23971 116.696 14.0455
12.6026 120.162 -5.87524
-10.7868 76.4057 8.33097
-0.0836355 110.907 13.8849
-10.0502 79.3695 -1.52872
-15.206 122.303 1.43442
18.5911 129.782 3.33357
-16.0644 90.5152 -1.22966
-0.100499 98.0469 -3.85846
23.6124 104.389 -1.72074
8.81761 101.85 -6.6053
-2.82378 85.4705 12.8749
0.634994 104.247 -7.42795
13.0723 85.2246 -2.59894
8.22439 105.003 9.52161
16.5243 113.269 -7.39847
-18.1563 121.148 5.38467
-13.972 93.0008 -2.92192
-10.8611 126.83 8.14314
-8.96709 122.336 12.4793
21.425 128.372 4.77711
-8.74978 84.3392 10.1571
-16.7241 113.201 -2.78982
-4.23329 109.143 -5.68004
10.7975 87.3645 7.94023
16.5464 84.8554 17.9433
16.1146 123.207 -3.94938
7.47385 80.9374 8.95639
-3.78579 94.7663 -3.01972
23.5292 80.7198 -2.91148
23.7829 98.0404 -4.40376
24.3317 90.0021 16.2808
18.5916 118.599 13.4587
-16.9182 73.3782 3.43551
13.322 96.6851 12.9227
14.5514 84.5262 10.9494
-8.31482 116.361 14.4024
27.4949 96.684 10.7172
10.1081 86.5303 -1.84226
-3.89744 127.174 10.5726
-5.49188 87.4141 -3.51477
20.0347 125.735 -2.53735
-19.1092 120.122 0.281091
-17.3336 106.51 0.341994
9.10134 105.033 -8.24455
21.2339 124.67 -1.28392
-8.82768 127.479 9.31217
-11.1842 112.448 11.2507
4.88486 95.9498 10.1739
21.9434 99.3939 -5.02942
16.5337 105.227 -7.41419
-16.0316 103.067 1.40436
23.6918 116.16 10.2966
19.1718 118.087 0.460393
-11.3417 92.3486 8.50471
-2.89148 104.463 -6.94458
21.3436 125.438 7.21232
23.1141 89.2737 16.8107
1.28979 124.128 11.6858
20.1291 124.871 -4.16594
23.1913 85.0717 15.5699
24.7802 97.5417 -2.85185
17.067 105.713 14.6879
24.1762 101.033 -3.74218
-2.85546 121.011 13.267
8.38019 112.809 7.78697
-22.7129 118.637 7.24377
3.9991 122.941 -5.34616
-14.9051 99.5953 5.0431
4.95637 81.3777 11.6779
11.2632 90.5267 11.9733
14.927 95.6906 -6.83846
-5.97458 73.0154 -1.66891
3.75018 104.355 -7.66377
24.4653 83.7331 15.285
-18.8094 120.07 -0.434129
7.87345 126.38 8.32366
13.6933 104.628 -8.70848
5.4606 117.308 11.9466
14.1449 93.2459 15.3671
-12.2596 115.856 -4.73943
3.70652 129.209 10.3217
-10.1418 122.514 -4.06609
11.8857 98.7234 -6.80122
-7.97933 96.1143 11.9711
-15.2436 96.6973 -3.00876
20.2167 97.9768 -6.25484
10.1951 87.4859 -2.24364
-16.3762 89.8676 -1.17942
-13.8165 101.82 7.08015
-11.147 119.333 -5.04123
14.4748 126.144 3.48843
-0.396352 122.348 12.9167
21.5264 124.431 -2.5856
4.27808 129.658 10.1682
-16.2853 120.113 3.80298
20.7072 111.91 -5.37106
14.8508 130.754 6.40837
23.0134 122.858 -0.23584
3.57015 85.7638 13.0823
20.9501 91.7819 17.9183
-11.8916 83.7079 -1.30372
7.19025 89.6625 -2.26342
-15.1151 83.4191 -0.640492
17.247 114.328 9.45625
10.1319 123.55 4.11867
1.37223 90.5016 15.0274
-3.69984 79.698 11.9523
28.8339 82.6154 11.7211
-14.851 106.956 3.68188
7.61792 117.252 -6.2684
26.6508 125.519 3.60912
-3.24246 118.182 14.1357
-16.3131 108.965 -3.08891
13.0639 107.973 5.97604
13.6347 93.2058 -5.8183
6.77224 125.031 9.63785
-5.7492 101.324 -4.48352
9.54426 124.873 5.04108
-4.70992 75.638 9.69115
27.6241 101.658 5.84681
30.2356 86.2494 3.04961
21.6201 120.174 2.0521
2.92054 99.4842 13.5864
-15.7094 121.173 7.10231
15.4732 127.659 4.40078
22.5921 101.554 -4.46929
13.9914 117.188 -6.41373
-14.3136 102.4 -3.16468
9.6433 125.334 5.00456
-16.662 120.888 3.29004
11.8293 91.0979 13.4233
20.8785 98.0278 -5.82685
21.9963 96.1943 17.3656
2.69847 114.348 -7.03799
21.113 130.912 5.06466
-15.3324 123.819 8.57106
9.56666 92.7783 11.3705
-14.9784 83.4863 3.71371
21.3036 94.5955 17.8376
1.58956 82.1166 12.1341
-15.3466 81.4055 0.472768
-13.5473 101.098 6.97695
-9.60215 93.8571 -4.11481
-1.62342 82.4235 -2.00659
-25.399 120.409 8.35706
-7.61542 105.569 -5.92418
15.0293 108.483 7.30544
22.6487 110.136 0.0420297
25.1169 130.983 6.19874
14.6292 99.9004 12.6201
-7.42119 94.0032 -3.84557
8.32345 112.972 -6.7045
11.4526 100.493 -7.32329
-16.5975 94.3605 0.843713
31.9917 81.1399 1.05444
24.5626 111.661 6.26745
-12.177 98.216 -3.65367
-11.2157 85.1791 9.12337
21.7954 124.206 3.68486
5.38377 99.6115 10.4453
1.37208 122.566 -3.3539
11.8372 92.2429 14.0328
28.7954 125.106 3.87183
4.54867 105.193 -7.94149
-0.204765 107.663 14.2003
24.7836 102.434 14.4164
-10.3782 76.7088 8.53552
-3.20393 128.663 10.7863
22.7094 119.982 7.47595
-12.7815 98.8029 7.01156
15.4509 122.263 -7.58509
24.0333 91.079 -4.50959
18.6581 128.365 -1.96748
22.9811 122.498 0.856381
29.1665 91.9698 6.19964
-14.7207 102.474 6.13458
17.4341 115.431 12.1277
26.8726 90.7511 -1.37817
22.1417 110.969 -4.15096
8.99476 118.105 -6.49911
8.1078 119.152 -6.25187
12.9859 94.1157 -5.8119
-16.705 81.1525 2.90911
-8.65902 101.141 13.3061
19.4117 126.469 9.6181
-6.73103 100.023 -4.75352
-14.4576 121.667 -2.49706
0.78791 119 -4.35616
-17.1374 119.233 3.84148
-16.5533 115.721 1.52873
23.606 81.0474 16.3264
24.1682 82.5211 -3.02765
-4.26231 78.6899 11.248
-16.6625 96.1952 -1.12235
7.68601 117.744 -6.38003
11.3145 87.714 -2.9983
25.4338 124.737 0.417116
2.34663 123.244 11.2259
14.7462 130.361 6.62511
24.2421 124.595 5.50358
-9.3123 111.841 14.2086
26.5985 104.294 8.14595
27.6094 125.114 4.41734
26.6467 100.862 1.4299
28.1916 92.4917 2.15878
20.9673 123.262 1.12894
-16.1553 123.975 9.36508
19.6982 131.666 6.47415
16.4619 127.04 -4.30272
-9.29125 78.8912 9.34038
23.1791 102.15 16.086
21.8233 125.789 6.42561
-17.4209 120.012 2.66569
-4.25569 104.851 -6.27066
15.4201 101.503 10.6043
-12.9298 105.825 9.71743
20.35 86.5357 17.1714
19.2773 126.034 -0.214138
-12.9641 97.1108 -3.17256
-13.103 98.5939 -3.21351
16.1286 123.856 -4.41163
6.00515 107.399 11.6227
18.2693 86.0658 -4.62179
-24.8704 120.472 7.17815
19.5099 125.646 0.631802
25.4691 101.918 -0.691983
3.1523 81.4626 12.105
-2.60535 109.444 -5.04288
11.8204 96.156 -5.80198
27.6956 99.73 8.3584
13.5664 88.5211 -4.23003
17.9158 127.145 -3.05447
5.66696 104.486 11.4628
25.2606 93.1915 16.1363
-10.4713 95.5233 9.99017
8.78832 80.1274 7.07891
-20.9754 121.555 9.61763
-18.7053 118.853 3.0683
-9.51239 113.774 -5.78585
-5.55453 78.6223 11.3774
16.6324 104.353 14.1586
-3.77726 76.3179 -1.40482
23.9329 84.9375 15.1265
-14.4369 123.662 8.39863
27.678 85.956 13.6572
-15.8859 103.118 -1.60822
0.631675 101.976 -5.89821
5.29413 120.695 -6.17779
22.0672 111.224 -2.13612
0.652422 98.6994 14.2364
-5.70179 105.109 -6.0247
6.52034 100.058 8.94298
-15.9643 120.615 6.95002
-11.2684 103.894 10.4347
23.505 94.745 -4.33167
22.0783 127.379 -3.94071
18.6186 92.7969 -6.2907
-16.665 96.4299 0.500914
7.65292 106.277 10.2055
-4.93019 117.297 14.0797
-6.94302 83.4463 11.1382
22.1362 90.8215 17.4987
6.11884 89.3693 9.99226
-8.40819 92.9259 9.96671
14.331 115.955 5.00042
-15.5104 120.922 6.23899
8.56922 87.243 10.5446
25.1478 104.768 2.7385
-14.122 122.931 9.04189
-13.7152 73.9671 5.81312
17.4654 120.444 -3.50438
12.1803 85.8038 7.31986
20.9927 95.6247 17.2693
-3.22504 120.567 13.5114
29.4232 90.0352 7.86161
19.8291 123.488 11.5284
-11.2045 117.986 12.5527
3.56183 77.1389 -0.82565
-9.55901 75.8929 8.55074
-4.10477 79.6408 11.9768
23.6158 130.456 6.70797
19.6678 123.63 -3.71815
-24.7709 121.262 3.40354
-5.60586 79.9907 -2.03061
21.0738 120.971 0.864843
24.2912 112.526 4.24237
-4.16523 86.0082 -2.66723
-14.9115 122.326 -3.1338
25.81 131.173 4.65813
1.27198 123.6 11.8305
13.6151 83.1471 11.1072
-11.9796 116.647 11.2005
26.9535 80.0972 12.5113
14.564 102.876 -8.41871
3.73914 77.0647 10.1917
14.6171 115.604 -7.16072
17.5775 117.117 -6.06516
-8.08362 92.7654 -3.90661
4.48405 96.2486 -3.32446
23.0677 104.025 -4.26568
-16.7173 98.9918 -1.72941
-14.5252 93.5336 -2.7788
9.41996 120.111 -4.90309
15.8803 80.5166 -1.90371
-11.2667 101.441 10.8561
-6.95014 119.37 14.0137
-12.4922 84.2101 8.31435
-11.3111 90.5034 7.96552
-13.4502 124.1 8.71227
5.94097 114.088 11.8587
-10.5159 74.834 7.80649
9.34637 87.0098 7.61002
-17.4941 122.18 5.81053
-14.995 122.538 0.970763
23.7764 127.356 6.07087
0.205404 111.318 -5.99488
-14.2299 119.246 9.07135
13.1647 120.101 3.8925
4.10993 119.338 11.9602
7.49429 90.0209 9.05432
-6.52232 79.0046 11.0233
22.9507 112.133 12.2051
5.95151 124.624 10.4895
18.8597 123.759 -6.87037
6.10033 99.1165 9.12128
-18.4431 119.912 4.94864
-8.32844 124.328 11.8559
19.0706 125.609 -6.22451
4.30339 98.4977 12.3682
-17.2956 113.333 -1.04354
-24.9328 117.748 0.579829
20.1913 117.716 -5.2779
-6.14219 110.436 -5.8459
-8.8012 124.396 9.69509
-23.767 120.532 9.46412
14.7247 100.996 14.5265
-8.10698 95.7609 11.622
8.32181 117.452 7.11388
25.5176 130.766 5.85189
6.28117 111.069 -8.12222
28.2265 93.0712 2.42034
-4.30596 75.9584 10.1955
23.6246 110.672 3.78166
-7.57311 88.647 9.9168
22.291 128.349 5.85023
5.45758 128.929 10.1555
-23.8629 121.913 9.40656
15.9241 105.251 -7.66309
0.318734 80.7402 -1.29338
30.7888 83.8043 3.40812
-10.8667 78.3213 8.83972
-14.672 86.8458 3.52262
-21.0113 119.272 6.2288
14.1478 103.873 7.51157
-17.3436 112.222 3.45546
7.87736 103.305 -7.01588
-13.9487 87.5885 4.45828
27.1511 99.2147 1.87109
-14.7293 104.772 -2.46839
27.0572 85.3492 -1.56776
28.6452 88.9967 0.213371
13.6703 98.141 9.83447
9.9159 118.78 -6.06445
26.5663 128.898 -0.467207
6.35033 92.5268 9.21021
-10.3142 122.781 -4.09002
-10.9345 96.8562 -3.45595
-17.709 120.734 1.6078
-16.8094 116.159 -2.16988
-11.9303 74.9997 7.39978
18.8562 99.3985 -6.97797
-20.2198 118.209 2.40576
8.53409 86.8671 7.83184
17.3232 86.3447 17.5361
24.3433 101.457 15.3602
24.5928 103.83 0.0978088
6.12186 104.743 -7.6964
30.3194 82.1738 6.90698
-15.2401 86.7229 2.77862
19.2182 104.333 15.2219
25.8281 103.507 3.43013
16.7885 124.506 -6.5629
-15.1802 122.088 0.124652
11.441 126.447 2.84336
14.7642 105.475 -8.06598
2.81081 89.5554 13.8831
-4.47247 75.8717 10.2324
-11.4981 72.9765 5.63926
8.0434 129.568 7.65367
9.64516 105.048 -8.57765
1.69144 75.6096 9.44168
-13.0137 75.0077 -0.965307
0.949802 104.823 -7.71586
-0.633839 75.1861 8.93955
3.62542 116.325 12.6443
-7.2113 72.9029 -1.78224
14.4014 116.618 -6.52043
20.4938 124.171 3.49681
-14.015 89.5241 5.18307
-6.25789 76.9591 -1.55774
12.4273 106.02 -8.40821
-2.76288 92.4015 14.3277
-9.46163 125.016 8.583
19.9252 114.757 14.6141
-12.8702 80.224 -1.46475
23.9592 104.956 0.47083
5.91215 121.123 11.3429
-14.8976 122.27 -3.18165
15.8745 120.676 8.88429
30.9427 82.9559 3.24888
26.0641 106.34 6.74971
-1.77577 95.0459 15.1217
-8.03429 96.2226 -4.23095
10.4116 122.708 -3.63605
-7.98979 125.587 11.779
4.48915 97.5842 11.3213
14.7929 83.5366 -2.82257
-18.2383 121.289 6.03637
28.0167 98.9093 5.17344
10.1893 128.876 4.0807
-14.6306 73.7584 -0.0272806
-6.67143 93.841 11.5278
-8.63653 87.7012 9.51705
13.9881 113.679 5.23726
4.5201 120.033 11.5121
-11.4703 117.535 -5.11025
10.6706 122.982 -3.66284
15.5879 92.5286 -5.9025
28.4566 123.053 3.3921
-9.61315 97.4607 11.6896
-13.8763 96.5426 4.60027
8.9805 103.024 7.53352
12.3388 80.8443 11.8616
-0.00825694 119.479 -3.45268
-15.2785 80.2441 1.11779
2.91487 100.059 13.4163
20.7274 128.017 6.82577
-17.3698 120.585 2.45778
25.1487 104.067 13.7451
-2.65634 124.157 13.0201
-5.56238 80.7001 11.7544
20.0118 118.039 2.79532
15.2418 125.096 8.0891
12.9594 106.943 -8.42832
28.3882 123.555 3.53066
-1.60433 88.6736 -2.9202
-12.4884 72.8195 -0.0969883
-16.8633 120.44 7.2913
11.5194 85.8279 6.6224
-0.733476 115.813 13.6614
-16.1526 119.573 2.05626
20.0483 127.99 3.73973
18.5369 129.183 3.43491
-17.1379 117.313 4.71872
-8.47811 94.3786 -4.3757
-25.9457 122.625 6.01212
28.0876 93.0663 2.21137
22.9689 111.924 0.205934
-2.21293 79.0836 11.5079
7.40289 109.016 10.3292
-17.1033 111.982 3.88115
27.4966 125.874 4.8408
20.9666 83.1262 17.089
19.1217 111.349 15.1285
17.2884 120.163 -2.51001
-5.48653 122.563 13.3443
25.684 107.83 8.19606
2.51671 80.314 11.7866
29.8394 87.7392 4.64874
-14.9308 80.2697 5.7878
-13.4092 83.2856 7.1413
-16.3791 84.9803 0.822214
-18.7222 123.156 7.16194
-8.99438 76.4057 8.64609
25.6116 100.586 -1.41884
-10.8805 111.617 -5.75391
17.0228 84.7445 -3.81835
11.8373 93.5436 10.7496
11.8442 89.6289 11.7535
8.30435 120.378 -5.55363
12.8708 109.227 -8.25433
-17.3989 120.72 2.27739
6.08625 75.149 -0.475969
10.8588 99.1056 7.95173
13.804 121.458 3.88613
24.1562 112.014 10.8355
-16.379 121.36 7.49989
-10.0885 74.7242 7.89337
21.9402 119.84 10.7411
-8.06534 117.882 -4.99908
24.645 111.727 7.06755
-14.944 122.268 -2.77419
21.4059 124.506 4.32628
-10.8522 123.797 9.64553
-16.0064 121.794 7.13124
-15.0393 119.877 -1.03897
17.2675 118.804 -4.15085
25.7801 108.273 9.27432
-15.2829 118.582 -0.81897
13.4379 109.116 5.84941
-18.8661 118.429 3.47946
18.666 89.3562 17.8185
20.7993 123.473 6.70761
13.0466 91.6141 -5.08195
9.53959 91.9513 8.92587
14.1192 119.934 -5.44559
-15.2549 105.39 3.50635
24.6796 109.66 10.8645
5.79672 101.947 11.3903
3.74837 103.523 12.6259
-1.11997 114.585 -4.10723
-4.87059 90.2465 -3.32401
14.9491 116.728 5.33588
7.11717 99.6332 -5.12527
6.92391 121.218 -5.71379
30.261 81.6591 7.4262
26.8927 89.6834 14.2611
21.8265 86.8005 16.6581
-16.8081 72.9787 3.36323
11.4688 109.227 -7.69681
6.18711 76.9162 -0.595376
24.2738 89.3322 16.0653
-8.90803 122.303 12.5516
19.928 121.027 12.1574
5.873 75.9062 -0.522102
-12.8806 81.8089 -1.72979
26.6261 125.993 3.35051
20.7318 91.8667 17.9946
-8.12171 76.9782 8.93239
22.5226 110.416 -0.0185711
12.8787 96.542 9.50263
9.79503 88.3402 9.14789
-3.91201 113.365 14.6596
-13.6451 114.957 8.75346
9.62932 97.8269 7.84079
15.156 104.901 -8.15359
7.01607 105.95 -8.13482
15.3621 83.3525 -2.93947
-12.2126 118.845 -4.6865
20.6555 115.405 13.6606
-6.94925 128.503 10.061
-8.7852 108.593 -5.53617
15.9275 81.1764 -2.13984
17.6455 115.611 14.0616
28.0371 90.4461 10.7373
22.0591 94.1749 17.6011
-8.0351 98.1415 13.0123
17.6436 99.5618 -7.19237
9.12018 109.421 6.68756
-3.17476 110.894 14.6098
16.9255 129.355 2.19529
15.2905 122.273 9.94745
-16.4804 120.121 0.0253252
17.5299 112.741 9.97648
14.502 121.915 -6.90425
-16.9086 102.189 -1.42247
27.7204 92.8772 1.46078
-23.9777 119.398 4.58821
26.3388 94.5198 14.831
16.8419 114.35 8.14077
9.66742 102.102 -7.12791
9.96184 77.942 0.0515232
7.73316 79.848 -0.83189
-13.7111 113.234 7.27094
11.5739 80.4272 -0.330496
3.15054 81.5526 -1.37063
-6.91042 87.3322 10.2848
9.35882 78.2978 -0.14391
-15.5789 90.4715 -1.31491
-9.07782 115.152 -5.57484
6.99758 114.443 9.71666
-21.1944 123.606 10.0826
-6.50257 111.494 -5.70136
-11.7551 109.619 -5.55136
23.0965 109.185 13.8999
24.1345 111.542 4.61063
-16.166 95.5373 -1.87456
27.8996 99.1937 4.96359
-2.44333 99.1618 -3.91524
12.8749 81.5588 8.24637
22.8056 123.065 -0.51969
2.16065 91.9775 -2.26115
-9.28837 97.9772 12.0808
24.0515 107.341 1.84645
21.9276 127.045 6.70908
20.1667 126.683 -4.1676
20.5987 108.298 15.9327
9.88936 125.179 4.08041
-17.059 120.677 6.97126
26.9036 104.003 6.68072
-10.7454 113.247 12.2605
17.2245 121.828 -5.19301
-9.93156 74.5383 7.79916
23.0144 80.5421 16.7833
18.2897 128.579 6.9978
20.2554 129.326 3.68863
6.40763 116.053 -6.61619
19.605 111.5 15.3323
-16.9487 119.863 4.33546
-2.71591 112.502 -4.43468
19.8043 118.67 1.11404
-12.0657 93.9399 8.64805
19.0069 123.478 -4.72492
-23.5634 120.775 4.73254
25.4579 111.132 9.31698
-10.0691 122.898 11.3862
-16.3429 123.045 7.95614
-16.0049 120.152 3.75886
-11.6048 105.862 10.9018
-8.82468 88.4268 -2.85365
19.4704 124.335 -6.62554
-5.53628 90.2783 -3.41772
4.6616 99.1632 12.0665
-15.3667 83.0402 -0.647446
-14.3114 88.5128 -1.29529
-0.623322 129.596 9.71452
-10.4324 123.297 10.6718
-1.64845 111.541 -4.54939
-0.977909 105.092 -7.12233
10.7345 128.268 3.25175
24.4039 114.202 9.81596
-11.2431 120.228 11.8959
-10.9873 118.994 -5.15151
28.0385 80.4385 11.1683
-13.1296 103.474 -4.1059
6.05888 114.222 -7.36842
-4.68681 98.6139 -4.55228
3.64711 77.8405 10.543
-12.1395 120.975 -4.7785
14.5914 104.131 -8.4383
-11.7192 115.279 -4.88877
8.72401 91.1417 11.2907
-0.475132 79.8493 11.4152
6.964 105.732 -8.05749
-12.9335 104.235 -4.29631
-12.6568 99.9821 -3.38135
-8.5797 78.6942 9.63843
19.1392 112.965 -6.25844
-15.3094 108.576 4.68749
-13.1399 121.224 -4.53908
17.1483 111.836 9.16458
-4.97719 93.3357 12.8238
19.57 97.7131 16.9392
20.5347 87.0486 17.4239
17.0987 123.71 11.869
30.6467 85.6598 2.43109
19.8266 97.4919 -6.54715
17.1725 120.516 -2.09021
-1.89649 117.655 14.0971
-13.3177 120.073 -4.27788
14.9546 86.4534 12.1644
15.6041 83.3056 -3.00304
13.6139 87.6367 13.1442
17.6403 121.191 -3.6287
2.69306 75.9143 10.019
4.82419 81.8642 11.9143
19.5267 114.893 14.5998
21.7997 119.983 5.40743
21.7145 128.167 5.41148
29.0026 93.5712 5.48243
29.0595 90.8055 7.9243
-7.13542 94.655 -4.01485
1.87093 82.6976 -1.47614
18.2826 118.714 -0.331191
17.9286 82.836 17.8904
1.03047 109.741 -6.92353
-9.56273 82.311 -2.18736
4.53512 80.8406 -1.49027
29.902 86.6839 2.55944
20.5813 84.8104 16.8345
-12.9627 79.7692 7.37595
-13.2147 106.67 8.34422
-4.65227 108.38 -5.83573
1.06823 82.749 -1.50333
15.2961 86.3174 12.0584
-15.7657 108.29 -3.48259
-16.0325 119.492 2.93192
0.683325 74.0069 -0.32371
-1.58012 102.279 -5.69562
-10.1205 79.526 9.50187
15.5002 110.42 -6.90187
26.542 98.1547 13.4039
14.6295 104.654 7.84875
-4.91445 106.751 -5.68607
7.51911 91.8535 -2.80355
27.1975 94.3411 11.8764
15.0713 100.736 11.4187
-0.806468 95.9841 -3.03691
-2.58999 76.3817 9.31169
25.8429 100.161 14.5105
15.3714 94.1919 -6.56716
-2.43716 113.025 14.3945
-6.43859 84.8989 11.1206
3.1797 99.1748 13.3879
9.56943 91.4187 9.0578
14.9723 130.002 3.72713
5.73575 121.66 11.3013
12.8165 118.471 4.08264
17.4086 120.658 -1.18469
-3.62336 107.011 -5.6484
-16.1522 87.3038 -0.215846
27.3006 128.256 3.52645
17.0557 85.8725 16.749
15.5735 121.378 -6.61923
2.1324 119.249 -5.57666
-9.10388 120.147 -4.49238
-15.8145 76.9373 4.35156
5.70767 123.096 -5.34528
6.25455 76.6447 8.92538
28.5395 83.9293 -1.43185
-25.5636 121.658 1.82248
23.0722 89.5923 -4.6376
12.3772 91.9195 -4.9362
13.4496 96.5137 12.2453
15.0588 112.316 6.36199
-10.1564 97.7087 -3.89224
-11.3627 91.9477 8.17698
26.1091 100.028 13.9348
22.2635 116.229 1.81908
9.31392 116.709 -6.8961
3.82756 123.702 10.7566
12.3191 95.4128 -5.84104
22.6204 122.234 0.367149
13.4585 96.7524 12.6213
-9.07062 77.6611 8.75067
8.92362 89.6113 10.5407
-15.505 121 6.1966
-10.1768 102.008 12.2912
2.94993 121.602 11.4068
2.38763 84.6426 13.2253
14.8737 100.773 15.0157
-1.02633 106.557 -6.3805
24.866 122.694 5.02147
-13.0513 105.1 -4.65535
4.52451 88.6882 12.2338
-13.5331 75.862 -0.702807
18.5115 123.98 -6.64415
-3.48736 93.9412 14.2403
21.1068 106.428 -5.93423
3.63075 103.305 12.6342
-15.2254 122.112 1.57467
2.97026 111.433 12.9168
23.1043 78.4384 -2.69098
8.66631 98.4385 -5.29184
-18.3359 120.476 5.08713
5.91237 122.509 11.2463
12.7947 96.4211 9.48188
-2.92068 114.262 14.372
-15.0179 80.47 0.857055
-8.52046 117.925 -5.07701
-3.91626 90.1173 -3.18752
-25.2766 118.919 7.44094
29.5237 88.0832 2.5903
3.10175 112.013 -7.10119
9.34459 80.3234 7.1209
28.7409 82.3954 -1.49761
-17.4107 107.528 -0.255282
-17.1977 120.178 3.32403
-8.24298 112.092 -5.74212
29.5086 87.3487 1.97496
13.1158 104.903 6.65392
13.3072 97.3869 9.51933
22.2958 129.698 5.42996
17.0634 105.108 14.8681
-2.09013 77.1932 9.60592
15.3872 126.516 -5.12154
6.0891 123.883 -4.68074
25.1459 102.686 -0.715322
6.8717 86.9239 -1.58719
25.3065 82.1272 -1.99596
23.1224 130.683 6.67057
5.97892 110.491 11.9199
-8.68601 118.776 -4.82052
23.1942 88.363 16.5055
18.246 125.548 -6.44166
-4.28387 121.31 -3.29403
15.7838 113.324 6.83915
19.3825 128.449 3.67674
-4.03037 96.8064 14.9749
23.7095 124.473 5.35231
1.29184 106.996 -7.63045
-15.363 122.318 -2.01984
21.7005 130.136 3.34782
21.7521 121.45 9.37536
21.8053 119.766 4.82955
-2.09055 91.0718 14.0411
25.1844 81.5755 15.3958
3.84465 84.4933 13.0908
-10.8007 104.295 11.1085
-11.2641 103.067 -4.89902
0.308108 113.217 -5.43266
29.3423 79.7801 -1.74218
7.40884 82.7983 -1.31926
12.4842 117.883 4.12891
22.2225 91.4 -5.0679
-14.0268 102.196 7.16525
-7.10929 84.1824 -2.86704
-7.96648 125.8 9.86989
-7.77655 120.326 14.201
-12.6413 108.913 7.9076
-14.3039 121.655 8.98608
28.6604 92.7486 3.0047
9.36442 82.9834 8.41203
18.6345 117.903 -0.802126
-4.9734 95.8471 -3.71709
-21.2633 121.711 9.7024
-1.38641 90.5757 14.3778
15.5909 101.93 10.6654
0.902957 123.758 -3.11246
10.2223 118.49 -6.4398
18.8364 125.03 -5.12763
18.1841 129.652 7.35093
27.9495 89.2903 -1.62533
-15.8839 90.3836 0.0839929
2.32462 111.244 -7.01101
3.62589 117.92 -6.61052
15.2509 82.5608 17.2265
20.5549 128.855 3.74648
17.2689 119.643 -3.36033
-3.27318 105.492 -6.14889
23.712 127.264 -1.41211
25.974 104.661 11.9795
-7.49327 126.89 10.5675
23.2679 106.189 -1.04896
0.160226 85.9671 13.7956
-9.16619 81.0317 9.72751
-17.4602 109.552 1.26088
3.07701 101.527 12.8816
9.8838 101.49 -7.04475
-6.12723 84.4639 11.4726
-9.70454 122.741 -3.97357
19.9249 123.439 0.159723
1.51815 79.4441 -1.47936
-15.928 74.5647 1.18682
21.4673 114.517 -3.30919
21.7778 128.153 4.19138
10.503 94.2444 8.68056
19.1838 110.28 15.708
-6.53108 100.683 14.5088
9.3726 82.6226 7.95279
14.4191 118.389 -5.38274
19.4789 81.6499 17.6858
26.0404 105.555 10.5697
-23.5968 119.353 8.74122
3.54892 123.713 10.7004
18.6545 124.904 -1.25747
31.8577 81.4668 1.68826
17.4502 114.793 10.3853
20.7354 125.395 -6.74428
-14.5446 88.2499 -1.27236
20.2406 87.1153 -4.81746
22.8794 123.365 -0.803177
5.08501 93.1162 -2.898
10.9366 88.2584 -2.91154
2.41541 117.877 -6.24169
-1.85471 90.6169 13.9321
2.84896 95.0759 -2.87493
-11.3562 105.018 -4.43078
-2.50174 118.759 -2.82825
-5.49281 113.727 14.6024
4.16418 110.78 12.6058
11.0521 79.7706 -0.116353
14.4205 93.3943 15.4005
-14.9788 120.328 -1.02457
7.89133 125.443 8.4491
6.56206 91.5732 9.05058
3.86922 85.8075 -1.67854
11.5436 82.4541 6.99604
1.4337 92.5016 13.5489
-15.7076 78.2658 0.512748
-22.6335 118.619 6.01429
-8.77799 101.921 13.3704
12.4355 123.651 -6.12022
-2.97785 121.824 -3.07319
28.0024 124.604 1.91236
27.6499 95.9727 10.3216
-8.42763 120.696 13.9801
20.3132 126.373 0.779326
6.31887 123.651 -4.70584
16.4438 116.395 7.32198
5.66955 122.21 11.2622
-4.14806 109.304 -5.6478
-15.7563 83.9405 1.92135
-2.54787 122.755 -2.75727
15.1656 97.1429 16.0038
-14.4098 102.65 -2.95549
-16.3038 80.7455 2.37961
10.8773 93.1242 11.7661
18.6825 124.19 -0.860937
-6.54303 91.1323 -3.39364
-6.93359 95.4721 12.3462
-11.9588 111.649 -5.56411
-11.937 118.245 12.0514
1.17847 107.944 13.7905
-2.84979 89.3607 -3.07755
11.514 79.2289 -0.0690728
20.9394 119.917 11.7284
21.6151 123.615 3.29541
8.44276 89.5612 -2.66145
8.13552 105.088 -7.70265
-15.5062 115.046 7.15071
-3.72223 96.503 15.0782
2.34358 107.836 -7.59623
11.5112 123.465 -5.08629
1.51865 103.76 -7.21524
-14.1704 78.2124 5.88866
18.4355 124.282 -5.02897
-8.95614 119.166 13.5341
15.2191 125.308 -4.62229
9.4611 91.9596 11.1053
-14.5283 76.5408 -0.37175
-8.78329 110.996 14.2829
14.4877 126.44 9.61461
16.8104 129.831 8.05103
21.9524 126.207 4.32055
-9.70157 92.0311 9.93885
-7.14798 78.889 -1.47376
-1.63416 112.733 -4.25968
18.5852 94.3372 -6.40188
-2.37194 121.42 -2.87353
15.615 85.1654 12.7603
22.2938 123.761 4.40815
7.1659 127.518 9.10284
18.0326 125.559 -2.70566
5.8794 77.4678 9.2649
15.8608 96.9503 15.8179
0.376334 112.549 -5.7828
-15.9889 120.725 7.13586
10.0109 128.055 5.4142
8.72149 83.7501 -1.2012
-15.3032 120.998 -1.32849
25.7672 106.883 7.5382
15.2475 131.357 8.74287
-3.32494 85.632 12.6073
8.97764 117.16 -6.999
27.0089 97.0965 11.991
5.5139 112.988 -7.83123
17.6213 105.527 14.7749
8.89647 123.227 5.78487
29.4686 91.5981 5.53799
7.43931 119.322 8.911
21.4057 120.402 5.26015
-7.99047 125.633 11.1076
-17.9973 122.261 8.20613
18.4814 96.2435 16.0233
2.63043 114.292 -7.02151
5.30322 96.4187 -3.55675
-16.1006 121.075 7.96452
16.7053 85.6723 18.0496
-14.0564 101.719 6.86226
-19.1755 122.954 7.06673
18.8223 91.8308 16.875
20.329 83.9081 -4.31931
20.0251 118.045 2.80176
27.3583 98.5139 11.398
21.2096 79.5455 -3.23412
11.8261 116.527 -7.38308
5.12103 93.9237 10.196
19.8224 123.744 -4.6043
-4.7375 111.238 14.9149
13.338 111.421 5.39213
25.3965 104.866 13.0978
18.9416 114.478 -6.43309
30.9259 84.6455 1.11982
24.7725 103.241 -0.698429
18.418 118.247 -0.294088
14.9066 84.2927 12.6684
-15.8678 120.386 7.6467
-16.5727 116.186 -2.83498
21.1016 86.3703 16.6612
-1.37256 79.9032 -1.2876
24.0225 78.9843 -2.35446
24.9994 91.6068 -4.15158
-5.06514 91.4983 -3.12802
-10.7226 112.128 -5.73772
-17.7875 122.488 8.58981
-12.673 114.028 -5.07889
-18.3972 122.686 8.17099
23.117 91.6546 17.174
8.38698 98.3706 -5.1642
16.3323 87.4494 -4.65145
12.5389 106.654 6.10224
-13.1214 84.7972 -0.841942
14.1369 113.346 -7.80425
22.7376 128.307 6.32523
-9.22236 111.389 -5.89613
1.11846 116.631 13.487
-1.30666 119.761 -2.8705
25.008 130.619 3.36822
13.8077 94.8375 -6.27313
12.1195 94.0901 10.7826
-11.2773 94.7046 9.47689
-25.1337 119.631 8.00725
-20.5814 124.366 10.0521
18.6333 124.487 -6.09397
26.9415 98.9447 0.947717
-19.1444 124.625 9.77304
15.7027 125.262 5.70562
27.3479 98.0735 1.84244
22.1136 128.09 5.54628
7.41696 109.582 10.1699
11.4167 102.692 -8.18792
-8.74214 89.2443 -3.47294
-14.432 96.8712 4.3537
3.069 96.2371 13.2373
-15.0591 121.489 -3.11645
-15.2475 120.99 0.43861
8.80623 84.0493 8.83899
-7.12837 115.26 14.3804
-3.82263 109.569 -5.51935
0.432362 83.4359 -1.80233
8.50992 101.524 7.54358
-15.0649 117.982 -4.32477
17.2874 112.822 -7.05317
4.7781 100.028 12.1676
24.3994 105.619 14.2035
-0.457477 105.945 -7.05888
-2.16152 76.6449 -1.00132
-16.5049 76.8185 3.3804
-18.1829 123.039 8.58572
-11.515 107.431 11.3756
17.2526 100.643 15.5636
5.34641 93.9816 -2.97661
-10.6792 122.235 -4.47751
-14.9852 92.9245 3.69125
-14.9933 80.5847 0.744345
-7.15785 121.096 13.9754
-9.82306 88.6645 9.41514
21.174 86.3127 16.5829
8.39694 78.1087 7.40608
1.68665 112.973 13.2701
22.3044 111.055 -1.24014
16.7571 85.5779 17.2317
17.6596 126.938 -0.2107
-11.8374 104.346 9.83124
30.6767 84.8496 5.03593
20.3905 117.095 -5.41938
21.0853 88.5315 -4.8199
27.2081 96.9968 11.4653
17.2696 127.146 -0.812775
8.12768 102.944 8.49297
-15.827 89.7645 0.130328
12.6514 102.179 7.75059
3.62897 99.8449 13.0845
10.3243 91.9272 -3.87364
5.39422 123.965 11.0514
-1.83074 77.6367 -1.13122
17.8698 107.052 14.8519
21.2601 117.523 12.0605
6.47137 96.1436 8.90643
28.4004 94.7712 2.6252
6.42406 103.023 11.2954
-15.4717 99.2306 4.47212
11.4968 87.6055 10.4332
-7.55799 128.341 9.51742
14.9671 90.8081 14.7966
12.5699 94.3266 13.2629
-12.09 111.814 9.57044
3.31618 79.8878 -1.5396
12.639 91.466 14.2951
30.0111 84.3948 7.47443
18.0421 128.235 3.09152
-3.32819 123.776 -2.98745
21.4506 130.566 5.52324
-15.7905 72.7024 3.58323
-11.0698 81.0592 8.70838
9.49548 95.2642 -4.89342
13.8109 90.4879 -4.92657
11.7958 93.6153 -5.24658
-5.01095 113.825 14.6069
20.1888 98.2863 16.5106
17.1462 120.711 -1.88473
-15.3838 96.3214 3.07217
24.8559 90.4248 -4.14801
-17.1584 111.448 3.70912
16.697 120.322 -6.97173
-0.196443 93.961 -2.84859
15.3775 124.415 8.16932
16.7456 81.2217 17.6438
8.67007 116.206 6.3476
-16.6639 92.6214 -0.880335
19.1036 92.0447 17.0278
-16.2267 119.05 0.869429
-9.94937 102.493 12.5509
-7.17661 83.3428 -2.67992
-12.108 109.775 -5.50297
-21.7286 118.301 2.12825
20.5947 116.825 12.9819
-14.476 117.455 8.82089
-13.6712 89.6817 5.52126
-16.8278 115.111 -1.56004
-12.9529 82.3986 -1.60511
13.8786 112.494 -7.44431
24.5702 121.989 2.91545
-23.4123 123.332 9.48209
19.0816 127.37 -4.20851
16.405 115.772 7.24507
-13.5957 99.0318 -3.21755
5.3242 99.7905 10.7266
16.1202 108.613 8.30957
-19.1975 119.318 5.38543
15.2177 127.011 10.3816
13.0512 88.9897 13.542
7.48065 120.498 8.36318
27.0181 100.019 1.93365
27.3543 90.0056 13.2635
17.732 110.204 11.9674
17.6385 126.809 9.17141
17.4331 96.6984 15.8506
-5.1106 78.7574 -1.94945
-16.8662 78.4371 2.72451
-17.6596 118.441 2.41161
1.22824 79.9052 11.4822
24.6481 81.0635 -2.25844
9.26595 107.168 6.99615
