ply
format ascii 1.0
comment Created by Open3D
element vertex 1935
property double x
property double y
property double z
end_header
11.511 89.5131 -4.35369
8.97728 106.745 -0.84717
11.5379 148.512 -8.29018
34.9747 84.8939 -15.6536
26.4799 121.431 -2.096
21.162 126.838 -10.8255
13.2409 143.541 -2.50126
40.3908 87.6644 -14.1496
30.3983 106.931 -3.13712
7.9212 96.7849 -3.42789
17.2288 134.769 -11.9513
16.6172 135.672 -9.25904
15.0798 104.581 -19.6945
28.1183 116.778 -10.1309
20.4788 112.054 -4.37936
7.9571 126.526 1.47538
9.2796 107.308 -18.623
12.4347 149.022 -0.674613
14.4817 103.181 -19.1571
24.0841 138.202 -10.6165
-4.98553 113.873 4.223
0.42171 108.193 1.12686
12.5176 123.431 -14.8454
25.4909 124.327 -6.78944
18.7051 101.354 -4.90365
4.12509 152.846 -3.79103
33.7212 104.043 -6.93924
13.8681 147.023 -7.93689
-7.85805 138.622 3.5513
19.1907 94.5326 -3.61085
10.1403 101.364 -4.06778
-1.28399 122.748 -9.68018
-5.60292 112.663 4.79017
9.3396 137.241 0.403508
29.1637 133.986 -5.50402
12.5725 153.533 -0.294073
17.2555 94.5343 -18.1563
15.8391 131.483 -15.5404
18.3576 135.559 0.0329908
19.9199 110.591 -4.75388
10.6189 79.9954 -5.61649
21.6614 84.2566 -17.108
5.59651 94.1856 -1.40173
24.154 118.719 -10.9673
11.4923 77.4115 -7.00181
25.8361 142.035 -7.01062
4.67638 138.431 -8.06136
24.4187 89.782 -6.01988
4.64614 137.411 0.543314
21.5924 118.101 -17.4623
28.198 137.101 -8.56636
27.2816 134.241 -4.67033
9.84143 146.767 -9.70504
31.8618 85.645 -15.6102
-0.510503 142.594 1.50584
28.6617 111.614 -11.2103
21.8385 130.676 -2.29083
0.54159 141.52 1.28867
22.6612 148.887 -3.14888
2.675 139.491 0.678314
16.0618 139.341 -1.21879
18.0724 148.783 0.775682
15.1084 137.82 -13.9717
21.8232 92.45 -3.20192
10.4559 132.248 0.39912
13.7611 80.325 -7.40725
20.0079 137.361 -13.1002
5.75989 134.896 -9.00063
12.5525 137.523 -3.4637
27.8442 131.034 -14.0421
0.702855 131.29 1.62228
8.03962 122.446 1.08013
23.4563 141.422 -9.86111
21.9304 83.2734 -17.0027
7.04669 136.899 0.308638
18.0221 115.126 -5.09003
17.0341 142.672 0.337368
29.3295 78.7513 -9.90366
23.4059 121.725 0.450154
12.6946 149.861 -6.29899
9.3338 91.0383 -3.86382
0.368887 110.499 1.54337
2.71724 84.2788 -1.64394
10.8661 82.7946 -5.81468
3.3575 79.4613 -3.47713
26.1703 121.656 -5.75219
21.5519 133.096 -3.20137
4.43037 105.612 -18.0831
21.4172 101.005 -3.16052
17.1018 110.138 -5.4224
14.0746 143.087 -2.74872
27.2119 128.041 -6.73813
13.1068 125.748 -14.2689
7.14659 97.65 -2.12571
4.84077 118.234 -15.4588
27.4876 110.169 -13.7056
-4.02 131.508 2.3059
20.4043 126.965 -13.5055
7.70289 142.649 -10.7084
7.21489 113.637 -17.246
29.7054 116.956 -5.22794
5.93398 89.4739 -2.17422
6.64309 91.7977 -15.5433
11.9033 105.171 -4.78106
-4.34531 110.578 3.73055
9.84088 144.224 1.4755
26.3616 119.329 -7.56256
16.5658 135.026 -3.04195
28.5324 140.151 -8.2802
28.7483 84.7349 -16.2094
6.08964 101.831 -16.5073
30.5616 105.084 -15.708
20.3809 133.866 -14.0654
11.2874 130.737 -2.60784
19.02 126.05 -1.97474
17.7982 131.832 -0.0871841
5.28938 139.578 0.7467
14.1499 94.106 -17.7005
40.5176 85.3313 -13.5293
0.0892075 117.031 -12.3617
-2.99855 95.0964 0.962243
35.4514 96.5473 -8.24983
28.2915 96.59 -17.7504
1.43191 111.794 1.78384
-2.52475 148.686 -3.68424
9.48044 134.166 1.271
11.0031 78.5168 -6.45111
21.5317 103.13 -3.79329
6.35109 151.941 -5.34643
27.9625 116.032 -2.37836
27.6101 78.1748 -9.95157
10.4557 126.279 -1.34064
19.7961 121.678 -1.89503
14.8477 86.7127 -5.15269
13.4279 105.1 -5.57962
18.3882 125.789 -15.0744
26.8528 135.667 -4.73645
18.5974 100.363 -4.91146
-3.09627 110.601 3.3926
-0.801499 143.959 -4.65839
9.89306 108.488 -1.45678
23.4985 107.642 -3.15499
9.00378 131.369 -11.4207
14.6974 146.437 -6.98476
30.298 132.138 -10.3932
17.0123 130.337 -8.7556
2.05714 121.529 -12.7251
18.7117 104.076 -19.5416
20.3312 148.709 -0.648532
18.5193 130.377 -13.4077
31.2801 102.82 -4.50973
9.08463 83.3389 -4.77229
-0.814664 141.584 1.35992
25.1464 114.687 -14.7051
15.631 120.596 -5.04675
4.63834 112.53 1.73692
7.49032 143.813 1.10198
-1.98137 153.579 -2.59162
18.6665 112.163 -18.1119
29.9123 82.3665 -15.7699
10.6148 122.574 -13.7157
6.17225 109.762 0.858309
12.9345 129.539 -15.7059
17.4026 128.112 -4.09832
12.1001 96.396 -17.1185
6.52296 99.3375 -15.9288
34.2205 102.083 -8.06012
30.4743 109.366 -4.12275
6.65271 151.283 -5.94993
35.1391 97.0674 -8.07829
24.4784 82.5453 -16.6561
28.1783 126.778 -8.28224
20.6276 141.539 -0.38244
20.6733 129.635 -5.5662
3.81636 108.168 -17.8128
11.0284 109.415 -18.3998
6.77263 154.041 -1.68966
6.76396 106.28 -0.209587
27.9802 135.525 -13.8568
16.4122 132.589 -10.5318
33.1678 104.413 -5.6126
3.90822 128.801 2.64428
21.1494 119.495 -17.3148
37.0601 97.6509 -12.6266
21.8165 108.921 -4.15732
17.7637 138.563 0.374076
0.901997 122.257 -10.8271
15.2486 121.777 -4.95328
25.8223 144.077 -3.53148
2.35946 85.1781 -1.07675
5.15652 130.602 2.17356
23.1317 108.94 -2.78428
11.1028 128.56 -2.69949
3.49442 115.755 2.65965
2.22935 117.177 -15.0236
-3.34017 149.095 -3.24077
26.5326 93.5167 -4.93753
10.295 79.4777 -5.59813
33.901 91.3726 -7.55291
19.5719 104.913 -4.84662
0.615321 77.3596 -4.44593
33.5353 97.978 -5.9109
17.0279 112.745 -5.39689
2.70926 114.507 -15.9431
15.3891 109.702 -18.4672
13.6915 114.01 -5.27946
9.08558 112.808 -0.283583
0.132573 138.677 1.42352
10.5415 128.491 -13.2666
14.8449 113.941 -5.4183
2.92235 149.699 -5.946
12.7504 134.936 -2.90832
1.93439 148.073 -5.85502
20.4577 129.774 -6.19059
4.63824 95.8812 -15.3747
27.1214 134.138 -14.073
24.6218 98.8494 -18.928
15.6445 131.722 -4.21164
16.4139 147.961 0.186359
8.58675 122.596 -12.9594
17.3554 114.841 -5.23984
29.9727 115.073 -4.68626
6.67487 83.2827 -3.01612
29.577 111.115 -10.9849
12.5046 134.586 -14.335
11.749 139.499 -12.2647
10.1261 93.1834 -4.22474
-5.87102 150.935 -3.48889
3.34189 136.678 -6.70603
16.8024 93.6779 -4.50217
9.31993 129.95 -11.3988
1.96396 83.9487 -2.08635
18.0958 95.0828 -4.49555
12.0432 90.3471 -4.45921
-2.66796 137.891 -6.84303
20.5442 132.554 -8.61754
8.7815 79.3616 -4.96633
-1.63099 136.204 1.85587
18.5754 137.928 -9.99217
14.6552 145.964 -0.602485
21.586 126.897 -1.25795
1.97151 134.606 1.22373
-0.724303 126.318 -8.53261
25.3373 104.359 -19.2311
29.2626 139.138 -10.4623
23.4695 91.9725 -18.0966
14.4299 142.551 -2.49733
16.3033 133.208 -14.2732
6.40547 102.44 -0.883899
37.2349 89.9819 -9.60823
34.0076 104.415 -11.9281
9.91344 115.632 -2.41615
36.9602 97.2583 -12.3141
29.9893 104.934 -2.83427
30.5321 132.572 -9.07298
-2.57984 123.22 4.71482
18.2751 130.732 -14.8508
25.2792 123.102 -0.948403
-0.0949497 127.886 -8.28211
28.3451 99.0808 -17.558
8.61044 154.648 0.576944
8.16175 98.0889 -3.29337
23.1305 130.773 -17.0347
18.9207 128.783 -12.8667
19.3748 114.121 -4.74514
-1.95665 117.404 3.79475
-0.834939 97.3055 1.09435
8.82785 113.952 -0.0704035
23.0518 89.828 -5.38752
1.49916 81.9581 -2.62335
21.0635 95.0145 -18.2375
15.5458 106.8 -19.775
9.34563 92.6509 -15.956
0.391387 111.086 1.63508
9.16461 151.843 0.854892
8.16382 91.8382 -15.8205
7.42418 104.141 -1.2957
0.0730084 142.219 -4.98257
14.031 110.647 -5.51303
17.3005 151.53 -2.54344
5.32898 125.936 -12.0924
8.89225 153.185 -1.35849
22.7408 126.974 -7.74767
20.278 100.605 -18.9057
-0.914826 117.045 3.79909
16.6277 120.603 -4.92643
17.2936 141.476 -8.08279
13.278 97.7859 -17.9344
-6.52761 116.669 5.8797
23.0899 104.842 -2.62432
30.2665 108.356 -13.2161
0.299157 131.688 1.81192
0.267509 131.997 -7.13225
20.7602 126.836 -9.74168
33.6908 85.8265 -9.2172
25.2073 141.827 -2.94496
5.85493 148.127 -7.71643
14.018 144.216 -2.31514
22.4147 137.327 -11.9999
14.0228 151.115 0.143424
27.5396 117.222 -11.1804
25.3751 91.1927 -5.64485
9.43316 126.597 -11.3347
16.7982 125.903 -4.65558
13.1865 80.3131 -16.1598
8.5578 81.3924 -16.796
11.4949 93.6973 -16.6753
38.3301 87.7599 -15.1064
5.08648 75.8288 -5.05391
23.237 142.222 -9.55384
22.1005 124.621 -11.5196
18.0307 109.662 -5.26691
10.5164 87.1905 -3.60314
13.2787 125.983 -15.3788
5.37691 138.028 -8.86281
15.1745 118.56 -16.7463
10.0225 144.236 -10.9897
9.15484 117.445 -15.0484
4.09768 133.267 -7.90882
3.39332 98.3571 -15.1825
5.96225 95.2345 -15.5622
11.4308 109.747 -4.5383
-2.03638 92.2005 0.0343705
20.4853 132.14 -9.70615
19.9305 132.81 -6.86456
3.00393 115.133 3.02443
29.378 138.966 -10.3962
-2.72237 93.0281 -0.0836699
25.2717 124.139 -9.34284
10.6536 104.757 -2.90539
19.9369 120.863 -2.21827
2.04955 77.094 -4.33633
13.8988 126.678 -4.70697
5.04814 135.271 0.760312
5.56238 142.891 0.654108
21.0843 111.739 -18.7698
-0.416218 85.3683 -1.83004
10.5605 130.374 -13.8
30.1896 109.921 -3.8973
28.5173 134.864 -7.86671
3.01958 124.682 -11.2436
3.74746 145.792 -7.01131
20.3819 94.1047 -2.99002
23.1435 129.677 -3.99075
21.6005 120.232 -0.0638445
29.4717 96.3291 -16.8111
24.7999 99.4829 -2.41909
36.8118 96.8375 -14.7234
3.10813 145.626 -6.64987
-5.34828 132.079 2.75427
25.748 104.228 -2.08636
24.74 127.87 -8.03717
16.4106 133.58 -9.97113
18.9194 135.781 -11.7637
32.6453 107.426 -6.67283
34.0937 104.46 -9.88778
32.649 132.61 -9.98048
14.9938 90.6837 -17.2277
16.5918 133.561 -13.1352
18.0774 103.3 -19.5353
-3.98496 141.57 1.89676
33.4501 100.226 -5.79738
7.84403 85.5062 -16.3671
24.0837 125.399 -8.62164
-3.80222 140.088 -6.359
5.97525 115.51 -16.6924
3.93074 137.728 0.610014
23.6475 80.3676 -16.5234
26.0401 99.0367 -2.88631
23.9204 138.222 -10.734
30.7648 89.7586 -7.24457
16.5615 117.711 -17.5845
2.69701 142.191 -6.63733
1.51438 97.0022 0.457056
18.5814 120.518 -16.9446
27.2487 83.564 -8.72708
-3.56993 120.635 4.75485
20.8641 118.602 -2.10476
7.84452 123.52 1.1645
17.8241 122.209 -15.9508
22.7842 94.9022 -2.82353
12.601 117.959 -17.2167
8.01742 84.2105 -16.6582
-2.3445 110.937 3.01584
3.2146 111.373 1.43032
39.7684 88.5541 -15.6934
24.7971 93.9306 -4.33106
27.2144 93.2475 -17.7857
1.68189 139.14 0.904216
2.41248 93.5489 -0.0168882
28.0682 125.958 -11.5092
18.3814 138.765 -9.12464
18.2688 137.065 -11.1692
14.3607 115.509 -5.27426
5.93799 86.2767 -16.6181
23.2822 118.776 -13.586
29.6245 117.248 -6.81286
10.2445 138.159 -0.979787
0.486346 142.224 -5.1003
17.9582 134.341 -14.1521
12.8682 117.013 -4.88112
24.7861 131.517 -6.22831
21.7777 124.208 -12.2423
32.4417 129.75 -9.22957
10.069 117.46 -2.96621
29.5025 132.806 -6.46594
31.6049 129.888 -7.94477
13.4376 143.617 -2.53609
11.3623 132.046 -14.0201
5.00667 143.012 -8.34045
16.1998 76.7633 -7.25086
17.3795 109.837 -18.7512
23.1413 115.37 -16.0929
3.62096 98.1441 -15.1649
15.8797 135.855 -13.0168
18.9702 144.511 0.125253
16.1211 144.928 -5.55013
14.8115 106.087 -19.7579
34.264 93.2458 -6.99283
4.52627 124.056 2.01394
22.3926 136.672 -12.4879
24.957 128.219 -17.7417
12.6964 123.719 -14.7137
31.1645 108.629 -5.19746
10.229 111.381 -2.20799
22.5275 115.954 -16.7904
-7.22745 119.08 5.91541
9.98577 120.573 -15.015
-2.6865 120.833 4.59166
1.21157 122.301 3.69412
22.7499 125.333 -11.9876
11.7474 81.5357 -6.15658
2.97247 121.955 2.2595
19.7947 127.866 -6.9335
27.6421 81.7739 -9.33252
1.85843 125.284 2.30017
-0.0581076 118.116 -11.8013
21.6769 127.434 -5.87808
-0.78727 94.1634 1.1723
7.50682 121.985 -13.236
22.0154 112.56 -18.8552
7.63981 99.1104 -2.43364
12.1767 132.068 -3.77863
36.0301 99.1075 -12.9188
25.2122 133.233 -4.70587
21.3882 76.8956 -9.62806
4.16573 77.5922 -4.1604
10.2855 136.407 0.655248
0.148444 143.428 -4.85044
24.4952 113.447 -15.1341
31.2079 82.2673 -9.53092
25.4383 110.159 -15.6049
8.03394 129.357 -10.2752
10.9234 99.2565 -4.77144
12.8793 115.109 -17.4237
14.9234 152.293 0.00826921
16.423 146.438 -4.41818
39.9055 88.1633 -13.5146
13.4463 111.228 -18.4252
22.5617 125.136 -0.0357788
7.5719 136.302 0.374288
18.4182 150.021 -3.45474
11.6526 88.7467 -16.1518
29.216 96.8005 -17.0238
24.7954 129.995 -6.60211
5.59002 154.466 -1.59852
-7.10126 122.026 4.87617
20.4801 85.4677 -17.3012
13.256 125.254 -4.70338
38.9175 86.4071 -11.4971
30.2028 91.6301 -16.5493
22.6077 140.102 -2.28377
-3.91325 122.163 5.28961
30.2667 111.682 -4.56866
-2.08248 138.457 -6.45085
31.2884 79.2085 -10.3965
24.1281 123.301 -14.1236
8.62969 148.861 0.769167
10.129 87.3581 -15.8139
29.305 133.645 -13.6021
22.2626 139.17 -11.1674
14.5277 111.958 -5.48284
7.12515 97.7489 -2.06805
5.94321 131.614 1.84703
18.0437 126.355 -14.9687
33.7806 100.801 -16.0159
13.061 148.774 -7.11929
27.3464 100.943 -2.69675
17.8765 147.671 0.688825
30.195 133.626 -10.2094
24.7677 123.401 -0.365497
13.6534 121.503 -4.87028
17.1669 129.009 -3.97366
38.8024 85.5381 -14.5705
1.09761 109.241 1.21214
-3.9855 146.357 -4.42951
36.1708 84.1504 -15.4611
18.1556 110.217 -18.8241
16.5794 83.7785 -16.5335
26.5467 140.955 -4.48579
13.3194 120.288 -4.9082
2.83008 140.556 -6.58224
19.7824 93.0143 -17.9355
0.0215787 143.526 1.83969
11.5632 143.761 -2.03278
20.8081 106.178 -4.54032
17.3025 102.883 -19.4771
7.5932 141.377 -10.8126
37.9705 92.8212 -11.4141
17.1493 84.0101 -6.59132
7.64476 144.502 1.1834
-3.12276 114.829 3.78678
17.1209 141.219 -9.4945
-6.03588 126.809 4.12023
-5.40432 133.511 2.84966
15.9881 101.164 -5.39375
10.4811 151.063 0.40747
15.9144 150.727 -1.98643
25.4364 128.706 -17.8124
8.76928 113.37 -16.7667
-6.71588 150.119 1.51972
12.7871 114.4 -17.6225
22.0371 126.99 -17.4678
14.4748 93.2551 -17.663
17.7818 141.365 0.587616
14.7311 148.521 -0.687808
17.3123 118.19 -17.7807
28.0373 137.906 -5.14042
28.1412 98.8452 -17.7326
26.5782 133.208 -14.5306
-4.60885 106.418 3.36855
21.0243 150.306 -2.40774
8.21709 90.2336 -15.7393
9.40497 96.5921 -4.06402
15.2611 146.145 -0.176612
19.7329 90.2826 -3.50761
18.5124 129.906 -15.0591
7.92342 136.468 0.346084
27.6335 119.857 -2.8124
23.1837 125.373 -9.06367
7.52082 128.506 -10.438
33.8638 83.2997 -9.79047
7.58209 136.524 -11.1157
0.440478 119.642 -11.8228
6.42102 115.03 2.15266
-3.58711 120.999 4.89741
10.0072 106.93 -18.9023
34.0156 129.802 -10.6225
9.7919 102.162 -3.09256
10.6367 90.6846 -15.9858
7.4542 92.6494 -3.00658
21.7472 128.651 -6.24226
25.4415 145.153 -5.78418
27.1543 129.876 -15.0115
37.063 83.2683 -10.9611
32.7107 108.154 -6.90028
27.6387 88.7844 -6.72246
31.8487 85.5531 -8.67561
22.7654 133.403 -5.30776
15.7025 119.711 -5.10292
1.62028 122.352 -11.749
15.0136 114.505 -17.679
10.0262 114.14 -2.36182
2.01727 131.582 -8.26505
38.4323 92.2449 -16.6031
25.5429 128.713 -5.72024
11.3283 140.458 -1.35357
-6.6271 138.599 2.45037
36.3804 89.8655 -8.81915
3.37529 108.489 -17.5208
6.69521 127.109 2.49528
2.85792 137.182 0.796448
23.6038 141.46 -2.41796
10.8339 144.096 -11.2431
29.7581 135.967 -11.4528
28.3052 102.348 -2.79756
20.7247 111.761 -18.6698
18.7554 86.4843 -5.47007
8.26058 128.263 1.18161
29.8021 94.9386 -16.6053
29.382 137.786 -10.2874
11.1932 148.23 -8.52986
13.8177 112.577 -5.37301
4.92015 146.519 -7.90854
19.0333 114.224 -17.9936
2.31253 125.85 1.65473
21.135 109.605 -19.3804
10.2903 108.953 -18.6867
-5.8923 133.315 3.26644
28.7339 114.308 -10.6291
36.0816 89.9556 -8.64456
17.204 103.714 -19.6051
24.162 124.007 -10.5108
29.0233 106.481 -14.9774
25.9296 95.3343 -3.87654
12.9185 136.363 -3.73655
29.3821 97.2261 -4.49921
28.7145 138.143 -9.74932
27.5092 117.859 -8.04138
7.09587 98.6796 -15.9739
-2.32413 136.625 1.95258
5.55861 93.8479 -1.4708
25.9812 121.095 -7.34541
20.567 96.5811 -3.07034
5.55478 149.492 -6.959
3.81024 93.732 -15.343
34.6522 82.3854 -10.0954
29.1336 86.1444 -16.3674
-2.44622 131.999 2.21791
19.6075 132.981 -7.80054
15.4939 136 -3.63427
5.6011 145.555 -8.6212
4.09871 111.23 1.27786
24.605 114.657 0.0197122
20.9946 119.643 -17.4074
14.4377 87.6603 -3.99137
20.455 143.651 -9.16505
29.6011 117.228 -7.97443
2.40391 148.07 -6.12013
40.48 87.0217 -13.643
29.5086 103.329 -2.78734
2.47433 120.543 2.96607
17.1765 133.083 -0.615794
15.4275 75.4873 -6.83558
27.1887 105.886 -1.41554
10.4567 134.763 -0.718518
25.1327 124.373 -9.7451
7.79871 130.719 -9.74013
19.2355 79.067 -8.79557
24.3207 130.006 -15.6706
15.969 86.9611 -16.8254
28.9474 115.563 -10.0165
23.436 87.9839 -17.8047
20.6931 128.994 -5.48937
0.424395 116.994 -12.9074
34.7465 98.4275 -8.1324
26.1842 88.0987 -17.1848
18.263 106.146 -5.13656
28.6281 119.184 -5.32438
20.1419 127.485 -16.8636
4.29138 146.588 -7.39006
24.2434 128.247 -3.98656
5.52579 100.644 -15.9909
34.1542 103.834 -8.13614
17.2369 133.218 -2.63847
16.2507 97.2487 -18.3378
29.5935 95.228 -4.76072
28.7075 87.1972 -16.5137
19.4859 146.345 -6.94743
22.3809 136.881 -12.3386
24.5227 128.649 -4.8086
9.31049 153.815 -0.405129
1.34024 151.593 -4.81674
31.9529 130.634 -9.15643
14.4323 95.413 -17.975
-2.87508 112.511 3.15527
18.4214 137.553 -11.5664
18.2526 129.243 -14.6182
19.8341 105.661 -4.82876
37.2856 96.8002 -12.7535
7.35142 88.2704 -2.40278
6.3957 95.3846 -2.00189
18.8444 117.175 -4.6983
11.9683 142.87 -12.1589
31.342 83.0392 -9.32245
9.70341 125.53 -0.580235
12.3144 77.6765 -17.0008
-7.97352 140.492 3.38131
9.56774 85.9017 -3.41657
14.1563 77.4615 -7.18853
25.9293 92.8301 -18.28
20.0345 105.026 -19.161
10.3636 141.111 -11.529
15.7279 138.462 -2.67123
10.2749 124.822 -12.1852
3.1411 151.107 -5.52004
30.8696 89.0982 -7.50322
28.2595 103.748 -17.9666
17.1627 140.688 -8.37643
33.6081 81.6052 -10.2429
6.30195 119.264 2.05484
18.2622 132.942 -11.2841
6.23239 73.9025 -6.11304
1.78167 146.902 -5.78039
28.3547 119.445 -4.85685
3.52119 122.154 -13.4121
6.19182 107.338 -18.1984
25.3139 121.526 -8.82862
30.3174 91.4389 -16.5172
19.5552 143.89 0.0542369
3.23621 77.4434 -4.15857
24.1807 127.913 -6.75323
18.5432 106.51 -5.10941
14.5111 145.744 -8.3696
3.25228 91.1265 -0.445714
16.4723 132.69 -12.0704
33.1726 105.705 -9.54503
-4.27457 153.026 -2.10568
-4.63983 118.543 5.03082
7.14276 133.814 0.898817
-4.05282 112.378 3.83917
11.8067 151.143 0.329111
37.385 92.3176 -16.3361
26.3756 82.3434 -9.01804
-0.520953 95.8575 0.984765
27.9374 103.691 -2.53154
14.1051 81.9094 -16.206
11.1182 125.645 -3.70103
39.0994 84.6041 -14.4879
23.9686 126.565 -1.94359
20.9975 97.0051 -18.4144
19.5078 106.357 -19.4779
3.38364 92.0846 -0.172299
16.3785 100.632 -18.9574
26.8204 120.454 -7.26515
21.3531 130.125 -6.70503
31.9541 108.729 -8.53352
24.1137 143.911 -2.04645
-2.54726 121.246 4.75329
3.53905 114.606 -16.1618
5.89466 85.4386 -16.7322
26.5865 141.227 -5.10834
-2.21619 129.235 -8.11316
19.6852 129.349 0.374246
6.5051 143.464 -0.144402
12.1957 140.411 -12.5194
8.83978 154.514 0.552482
2.20576 86.5945 -0.508444
18.2209 126.501 -3.72899
24.0446 145.638 -2.33469
28.8627 100.326 -3.34449
37.2929 90.6301 -9.63396
28.3408 103.521 -18.0194
12.0123 131.806 -14.468
26.6747 114.839 -0.755403
27.715 126.067 -11.8043
-2.0394 104.215 1.58323
11.4852 99.8231 -4.86188
12.2781 111.37 -18.1078
-6.75367 121.082 5.13564
28.9934 87.2809 -16.4984
-1.10254 83.3775 -2.553
23.6583 79.7739 -9.20374
10.9981 125.48 -3.54857
14.3575 152.503 -0.0869787
12.1726 82.0598 -16.0096
31.1709 107.203 -4.02869
23.8638 128.801 -4.49643
11.7235 152.482 0.588479
12.5932 128.385 -15.6161
8.72258 100.344 -16.5912
13.5398 106.281 -19.6636
28.6534 133.585 -4.96304
-4.10921 140.809 1.9393
19.7901 147.238 -6.45618
-1.77075 135.49 -6.46945
5.60004 120.734 -14.3644
18.0918 133.215 -10.0255
23.1192 140.534 -2.35592
26.1419 122.072 -1.57199
-1.86143 147.412 -3.96339
12.6059 104.02 -18.6338
19.1988 120.897 -4.07065
7.52476 77.051 -17.6753
5.26533 92.3909 -1.82667
19.0653 132.876 -8.96151
15.3923 148.267 -4.074
-0.382206 128.086 2.11374
14.503 88.5174 -3.51884
28.3095 110.584 -13.095
14.8755 139.533 -3.1307
-2.83402 116.382 3.89545
13.8095 95.522 -4.91379
2.39616 75.2458 -5.09079
11.8467 134.134 -2.68601
-7.84553 135.127 3.52833
21.9166 106.94 -19.5424
30.2231 106.314 -2.93964
16.7751 149.562 -2.68868
25.829 104.941 -1.76131
7.29269 134.043 0.833503
26.8171 121.707 -3.71352
5.58945 129.842 -10.1495
20.2095 132.974 -2.02288
-4.04456 106.373 3.10353
32.9925 94.5349 -16.5746
28.1376 139.062 -10.8408
7.0331 125.73 -11.8813
13.5587 96.3655 -17.8083
3.97789 106.952 0.56802
31.3901 109.659 -10.078
11.859 88.431 -16.1407
16.0265 140.478 -1.40792
20.6163 144.591 -0.00679589
20.7769 124.23 -16.0915
8.8737 112.324 -17.4922
-1.23298 125.614 4.09097
-2.86796 93.2357 -0.0851682
0.00403393 129.456 -7.85993
-5.15422 113.598 4.3716
19.926 126.472 -14.0122
-0.138774 121.39 -10.4907
17.2316 101.067 -5.29453
9.96136 91.5439 -4.1383
27.5779 137.293 -11.8745
22.7588 121.578 0.572767
17.5611 121.843 -16.6052
37.6888 94.0518 -13.4619
23.8152 139.361 -10.0864
17.1514 137.238 -9.2946
23.2948 114.224 -17.0664
22.5972 119.526 -10.4268
5.15238 83.7291 -17.1358
7.7034 142.644 -10.7108
25.4384 132.256 -14.0211
16.6688 105.03 -19.598
21.7793 147.526 -0.838479
8.76424 131.23 1.12341
29.5604 131.116 -12.9431
16.4105 104.603 -5.65392
7.75607 92.9852 -15.663
-2.40806 133.707 -7.13104
-3.11021 96.2069 1.50439
15.072 135.908 -3.85846
16.4324 148.826 0.119864
27.7754 117.749 -8.53102
20.0883 133.724 -2.01039
29.8064 116.815 -7.67315
8.22703 153.003 -3.88774
25.5023 89.903 -17.6709
38.1336 91.4273 -16.7725
16.2373 101.792 -5.45264
-3.9673 139.164 1.59096
-4.93398 144.978 -5.4747
12.8507 126.288 -14.9224
7.51571 113.422 -17.261
17.6986 131.741 -10.1442
36.4692 90.4237 -16.2913
7.35371 84.6649 -3.46419
23.2681 147.077 -6.32584
34.1101 97.4617 -16.946
-0.552709 123.949 4.23493
38.1326 91.3028 -16.7929
16.9852 84.9538 -6.05076
-1.35479 91.0877 -0.0313368
8.74183 123.515 0.415217
15.5681 84.2761 -6.3933
6.22459 142.826 -9.56974
19.0518 127.835 -1.86913
0.768393 89.5888 0.106919
14.361 80.2041 -7.71385
2.17264 136.654 -6.2965
19.174 125.494 -1.66479
40.017 87.8635 -15.8725
18.0069 151.316 -0.361007
13.299 84.5718 -16.3602
2.67415 119.327 -14.5072
17.4356 140.482 -7.56035
12.9961 108.579 -5.32886
-5.85771 142.903 1.61133
2.73172 126.58 1.8672
14.1928 85.6253 -5.62034
22.2737 140.99 -10.7105
21.4945 141.051 -0.987473
29.7115 113.183 -9.02502
5.62441 118.821 -15.3078
16.3953 81.3835 -16.4193
38.7584 90.8628 -16.8877
7.20042 119.355 1.79188
25.6807 93.6637 -18.5182
5.43373 143.337 -8.72942
4.40471 120.488 -14.563
28.3193 135.884 -5.68564
24.2364 91.3937 -18.2736
26.789 124.344 -9.9286
22.2588 86.1212 -6.56341
37.3158 93.2511 -10.149
5.27957 85.8202 -2.10299
10.8096 151.344 0.49338
19.1271 127.022 -12.3735
22.6141 113.588 -18.2678
-2.70937 146.757 -3.84591
16.6341 89.8728 -3.47291
7.94943 94.5066 -15.6593
24.0422 104.438 -1.83266
14.0421 147.972 -6.80244
16.0644 135.469 -10.4723
24.8759 122.491 -4.79526
27.1656 121.301 -4.06589
-3.37939 132.449 2.06515
16.0326 138.853 -1.31024
12.7429 99.5491 -17.7636
9.53588 129.389 -11.2937
21.6919 100.245 -2.80356
23.0407 145.988 -7.3274
24.7658 127.569 -7.64441
11.4623 131.747 -3.11177
24.7712 136.392 -3.73549
16.3273 139.623 -0.678683
4.35531 91.8487 -1.17991
24.6156 138.9 -9.53861
20.6261 122.928 -14.5089
4.30224 151.681 -5.34925
7.85155 97.1071 -3.27002
12.1666 133.46 -14.1203
7.80552 121.453 0.871593
6.88596 133.898 -9.55786
0.183463 120.597 -10.9905
23.9902 135.708 -12.3375
13.698 127.186 -4.6622
19.3373 130.109 -11.6557
17.023 96.0637 -4.87051
25.4524 112.274 -14.0683
21.1255 142.054 -10.4647
37.9734 85.0465 -13.8623
13.8921 87.4341 -16.5506
26.7867 138.364 -3.99436
-6.05308 133.884 3.29461
26.4048 100.556 -2.49935
19.4866 132.474 -7.49146
38.5802 91.6785 -16.7374
21.3517 128.526 -7.62406
28.9156 98.3722 -17.177
27.7775 83.6427 -16.3672
-0.564917 140.142 1.45953
17.1121 120.271 -16.1454
29.406 93.7803 -5.21348
36.1407 89.6264 -8.78841
29.086 117.747 -4.17267
24.8106 136.606 -3.70433
0.412113 81.9683 -2.62257
23.5905 133.935 -4.00905
21.7858 119.47 -11.3003
20.9802 94.8041 -2.80396
26.6679 95.8758 -18.7803
2.17386 140.864 -6.1572
25.3345 142.307 -2.9005
32.5109 108.178 -7.41827
11.5483 74.5018 -6.70709
13.4426 77.553 -7.09437
15.6925 143.681 -6.35822
18.1878 130.249 -14.6911
7.21493 118.439 2.00736
2.0328 124.506 2.50108
14.324 86.2869 -5.32221
12.0873 78.4786 -16.7279
17.7626 145.442 -5.57861
16.4672 135.362 -11.7439
21.5882 129.259 -10.0234
6.24678 111.623 -17.7705
6.86056 109.998 -18.7109
-3.72238 132.459 2.12717
29.6631 88.6847 -7.33729
26.2457 94.8786 -4.24487
16.49 150.365 -0.0246319
38.0134 85.4507 -14.0718
5.57139 139.636 0.84939
14.6724 94.4049 -17.7991
22.4901 140.44 -2.19871
13.2585 93.3968 -17.3745
4.35893 121.791 -14.0705
13.0738 151.154 -4.54236
3.25296 104.699 -17.873
34.9369 99.7215 -14.6676
6.19247 84.6177 -2.95928
10.1953 116.706 -15.5511
16.7626 134.921 -12.232
17.8902 147.564 0.669495
22.7906 133.565 -5.19281
7.30029 89.5776 -15.5708
28.3543 112.323 -2.51396
-1.50855 143.535 1.46897
17.4624 100.732 -18.8862
13.0375 96.1061 -4.9432
12.5103 147.35 -8.32722
-2.20339 123.231 4.55907
23.4304 95.789 -18.4374
30.014 111.065 -4.07465
12.6704 90.9192 -16.8408
3.76306 103.776 -0.246752
12.2059 127.794 -15.3974
4.19647 146.387 -7.32331
12.646 128.182 -4.16041
15.9063 134.856 -13.9045
4.45594 130.713 -9.41373
15.069 122.644 -4.88927
6.69416 108.152 0.396089
25.7852 111.054 -14.6357
19.2425 122.846 -12.2563
24.8524 120.007 -0.0450451
20.3356 109.956 -4.63019
0.86274 152.144 -4.23564
13.972 127.753 -4.65643
38.0891 90.1847 -10.8181
37.9836 85.1348 -14.0386
25.7408 134.347 -3.56036
3.85531 94.8855 -0.445846
17.4895 132.416 -12.1172
4.71379 144.567 -7.89773
34.1028 80.6281 -10.8576
14.106 146.826 -1.1553
16.3411 133.819 -10.6063
27.7338 138.447 -5.11886
23.8968 115.266 -0.120395
7.70259 118.712 -14.5019
28.5719 132.326 -14.4494
20.4715 113.433 -18.236
25.6886 125.988 -7.96002
19.971 131.711 -15.9086
21.9462 98.7491 -18.6782
23.743 146.78 -2.98672
8.32651 119.957 -14.8061
34.9297 101.094 -8.55563
7.49418 107.625 0.0316548
20.9477 129.873 -6.04391
21.0376 147.024 -0.307713
10.5922 137.589 -0.126032
29.0631 114.593 -10.0456
24.0478 120.462 -10.3911
10.887 132.194 -0.841335
29.7559 111.128 -3.6706
15.0481 84.5415 -16.5387
38.7299 86.6149 -11.2017
-4.42685 126.103 3.88349
5.29357 120.06 -14.8625
18.4656 142.47 -7.68688
33.8597 100.583 -6.41319
18.7868 79.0692 -16.0189
17.9059 80.7219 -16.3964
5.19047 148.127 -7.44838
4.35779 79.3113 -3.67073
26.1316 82.6364 -8.90085
20.3186 129.933 -5.89926
11.2458 133.64 -13.4659
20.902 149.251 -5.12336
24.6033 109.754 -17.1968
17.7638 134.502 -8.85501
32.2451 129.544 -8.51305
10.7037 132.672 -13.3779
10.2661 115.732 -3.03023
31.8105 85.6448 -8.63467
19.8021 105.686 -4.8387
17.7581 123.119 -15.8998
37.4705 94.7592 -13.6852
14.8949 77.3078 -7.28566
5.80016 104.076 -0.777961
11.3863 103.519 -4.10012
6.13521 82.87 -2.77502
4.07496 118.268 1.94168
32.0473 81.3475 -9.88701
9.65005 121.896 -2.34535
21.9657 128.574 -6.31781
-1.30162 138.607 1.88888
14.1203 108.83 -5.60387
20.4182 119.412 -2.48276
8.6682 151.383 -6.24726
12.0522 85.5764 -3.96529
29.0697 98.2748 -4.40548
9.75226 122.769 -12.8898
26.4848 126.465 -7.3183
4.98057 96.5924 -15.3533
17.4762 138.06 -12.5014
22.1437 108.22 -3.921
13.0238 82.2895 -16.0724
14.6726 134.732 -14.7585
16.655 140.457 -0.176152
30.9012 99.9507 -4.35492
23.2032 124.182 -12.3733
9.12119 145.969 0.452004
11.1595 111.652 -4.19987
19.3203 111.97 -4.88913
5.79704 106.19 -17.9239
-2.86993 133.944 -7.24098
11.1303 137.547 -2.36401
19.1663 88.8529 -17.2564
9.12657 125.643 -11.5936
3.52188 137.273 0.662224
-0.436062 126.264 3.175
18.3816 131.359 -11.5154
16.9716 145.524 0.217035
26.7387 124.619 -9.00245
17.8417 86.0684 -17.2376
-3.16487 120.386 4.5135
1.17124 137.922 1.20215
-2.04617 124.962 3.87487
3.78179 134.874 -7.04398
14.9958 114.398 -17.6732
20 123.623 -0.164955
31.4055 109.279 -11.3237
32.3093 95.3822 -16.5963
-7.21483 151.697 1.1073
15.1051 142.012 -2.03602
1.94905 122.771 -11.9216
23.5474 83.2223 -16.9948
39.2391 89.4784 -16.3127
1.54543 120.833 -12.4393
15.4336 136.419 -3.67448
22.1005 115.142 -2.29364
-6.44868 136.964 2.8258
24.3576 127.02 -2.71253
8.33182 127.023 -11.0501
20.2923 130.611 -7.07746
7.75768 118.539 0.855175
18.5572 81.4054 -8.34362
29.7332 116.941 -6.5984
30.0288 105.268 -2.81368
-1.98303 125.738 -8.76434
13.5759 147.439 -1.50127
18.7783 122.305 -14.2368
10.5401 125.051 -2.33676
21.4869 78.0366 -9.39832
27.5452 116.555 -11.6285
23.4043 128.864 -4.2715
29.9479 80.467 -9.84103
20.4992 125.622 -13.7338
33.718 104.864 -9.66172
12.3302 114.893 -4.75671
23.4042 78.8813 -9.52994
11.3146 130.718 -3.36087
-5.67734 111.029 4.40664
21.1736 83.4566 -7.91959
16.9235 131.077 -13.6344
29.1726 133.802 -6.80547
38.3106 88.0874 -15.8341
19.0231 89.7552 -3.70609
31.5146 133.91 -11.6974
-3.39618 143.938 1.54776
11.4764 83.624 -5.96451
33.7393 82.0081 -10.0659
5.82022 112.892 -17.286
25.2837 99.0741 -2.70685
-7.18482 136.988 3.34699
8.25008 100.763 -2.27924
0.619551 139.753 1.15039
11.3116 130.581 -14.5198
18.3493 121.175 -17.6063
-4.59697 137.711 1.45292
32.6648 101.886 -5.27187
26.3218 144.627 -4.5926
21.7958 88.7723 -5.03646
25.7227 129.2 -17.1653
6.99178 122.789 1.84737
32.7435 94.8085 -16.5781
16.9425 141.848 -6.75254
33.5834 103.581 -13.9974
5.58415 83.9246 -17.0407
10.5996 106.22 -18.8111
29.037 133.506 -8.41238
37.7617 94.2654 -15.2897
23.6951 113.194 -16.9437
30.9199 113.684 -5.87441
-2.01688 125.472 3.86847
17.5422 83.8941 -16.6219
21.5416 145.206 -7.76188
1.53851 96.3052 0.540515
24.998 122.151 -7.63061
19.5392 83.5622 -7.5403
26.0023 129.219 -5.34056
22.0267 142.833 -1.03218
23.4517 87.4412 -6.67016
34.0567 104.363 -11.8309
21.8629 100.914 -2.72284
21.3583 119.152 -0.607808
0.570478 151.203 -4.6399
9.29096 139.948 -11.4101
20.5233 91.7654 -17.6905
16.0126 97.1378 -5.08363
12.8398 152.366 0.239197
37.4333 91.3988 -16.5025
23.2339 124.186 0.240461
19.2454 150.854 -2.08756
24.0899 95.8869 -2.90479
12.4455 129.983 -15.372
18.9372 83.1974 -16.6021
18.1854 103.669 -19.5796
11.2768 141.274 -12.0131
33.7425 81.4532 -10.3516
9.69612 93.1051 -15.9747
28.2994 136.395 -6.83916
31.7306 109.368 -6.09163
29.4621 136.443 -10.2112
15.1145 96.6371 -18.1969
14.8492 144.276 -8.18949
19.5321 123.161 -2.29992
18.7477 131.392 -7.76511
24.1811 128.266 -7.51774
3.29965 132.331 1.2075
22.7453 148.623 -3.08104
12.2671 78.4824 -16.6997
-0.527315 85.337 -1.93609
19.5851 150.397 -1.07208
16.9757 81.4847 -7.99302
-5.80303 115.811 5.1838
38.0167 93.1272 -12.4739
28.229 117.729 -2.88662
26.161 132.162 -4.53922
9.17339 123.054 -0.707352
-3.11033 144.809 1.47343
23.8296 90.8687 -5.24435
23.4889 124.556 -0.0332222
14.0283 138.165 -13.7118
26.8556 101.477 -18.7696
0.971077 80.3166 -3.34137
2.35737 142.437 1.89875
-5.07529 132.893 2.55605
10.8415 131.36 -0.318219
18.8185 122.873 -3.83064
32.3257 108.863 -6.47095
27.7115 128.649 -6.85499
23.428 146.6 -6.5787
24.4177 133.644 -4.22199
7.49059 148.29 -8.23779
9.43761 94.8466 -3.93833
13.8819 150.293 -0.096149
8.83781 109.888 -0.25755
10.3423 134.523 -0.262941
20.1529 117.786 -4.06547
17.0178 136.251 -8.9055
18.2341 139.994 -8.27423
19.2885 93.8743 -3.46287
16.9792 84.7637 -16.8177
28.4457 128.55 -7.57511
10.7601 84.9727 -4.22157
24.5767 128.695 -7.87941
10.7054 122.711 -13.6294
32.8358 101.976 -5.36332
1.39849 112.99 2.38351
12.2624 88.1459 -16.1422
5.84873 152.188 -5.04998
20.352 129.868 -5.63252
2.1732 110.381 1.2108
11.7643 123.257 -4.05586
36.1898 90.8676 -16.1261
39.3572 85.4495 -15.1871
8.39001 74.2287 -6.25201
32.531 86.1409 -8.70716
25.6027 123.412 -9.30757
2.27967 123.222 -11.8554
10.2119 76.6503 -6.85449
19.3989 130.799 -9.83923
6.68605 118.585 -14.69
19.2839 126.921 -0.105169
9.29072 104.859 -1.38954
19.3272 125.786 -12.5313
0.863014 133.782 1.69579
8.62688 143.861 -10.6983
23.5114 142.109 -9.32104
-0.326444 127.531 2.17046
5.92165 79.3006 -4.11062
16.1183 135.921 -10.3186
5.70219 133.912 0.955835
21.8777 138.689 -2.03387
18.4333 140.54 -8.48945
35.1003 95.0185 -7.31502
16.9178 99.573 -18.8317
14.0748 110.04 -5.55667
9.93325 113.435 -1.97755
14.5098 137.845 -3.59228
30.0453 135.02 -10.7474
19.7658 93.9766 -3.09644
9.87523 99.0672 -16.7616
23.5306 108.094 -19.0897
29.0386 84.0349 -16.1605
21.4185 124.662 -12.1004
24.8259 120.036 -9.62778
13.2019 100.975 -4.90747
38.8867 84.6928 -14.4643
12.111 139.137 -2.49597
31.9826 131.043 -10.2831
-6.30529 120.156 5.91263
19.8137 143.345 0.00650904
3.46402 104.868 0.0195288
17.2646 136.046 -12.2163
6.12871 80.5158 -17.0089
11.0088 113.178 -3.99697
14.0417 153.312 -0.769097
20.6257 104.67 -18.9656
1.77467 128.681 2.48624
7.29238 143.496 0.967758
20.3561 136.935 -1.5593
15.7438 123.803 -4.86013
-6.10698 140.636 1.65017
18.4502 131.683 -8.84857
37.2943 96.6371 -12.6252
19.5798 130.528 -16.1232
20.373 99.59 -3.89013
12.2372 137.015 -3.41073
21.216 136.279 -13.2229
9.81261 76.8514 -6.6085
26.7715 138.083 -4.0737
4.56104 91.859 -15.4632
14.9908 84.5048 -6.27461
8.92408 90.9967 -3.67328
6.40538 82.4797 -17.1559
18.015 117.783 -4.9193
21.3861 129.98 -17.217
-3.21275 107.565 2.941
26.2607 116.379 -0.941326
13.6856 142.474 -11.2582
15.88 115.041 -5.43464
14.1281 130.386 -15.9637
24.8602 122.672 -0.20407
37.4554 87.358 -10.2086
10.3021 109.252 -2.43682
10.7889 152.163 -2.90065
-2.85575 102.67 2.11206
-0.404409 126.331 3.04017
4.18292 133.989 -7.54526
-4.77916 152.999 -1.84732
32.8333 106.214 -8.26623
18.1697 136.344 -12.147
23.4269 145.005 -7.69861
15.0369 118.981 -16.5115
13.0178 122.61 -4.69377
18.6005 128.25 -0.631479
35.8934 95.2749 -8.33139
35.5019 93.772 -7.87419
4.62876 77.7525 -4.29199
12.3306 124.458 -4.39819
13.4665 91.1887 -17.1726
-0.898568 147.118 -4.24681
14.0578 148.182 -5.6555
8.73383 121.086 -14.4094
23.1039 85.8726 -7.12044
6.63844 101.817 -16.5355
34.2659 99.631 -16.0563
0.649668 141.134 1.14912
21.8839 117.548 -0.850181
10.0751 129.747 -0.283599
12.1165 89.7933 -4.44215
7.9379 111.244 0.663532
6.78211 95.152 -2.5741
4.71393 102.107 -0.568865
15.5176 89.9755 -3.23821
21.8008 141.224 -1.22163
23.4773 102.955 -2.07795
29.5151 96.4784 -4.58758
-8.08366 133.659 4.82229
38.9002 90.2442 -16.9321
14.3611 131.484 -15.9102
-1.95439 110.608 2.68848
18.4171 81.5384 -16.4792
33.9719 105.008 -10.6901
20.1093 97.4501 -3.4116
27.7137 117.65 -9.41856
-3.94335 142.003 -6.03125
20.9894 142.107 -10.4524
26.58 126.496 -7.33454
0.923935 112.756 2.30475
28.8712 89.5414 -16.5739
10.295 107.652 -19.3226
3.161 99.3273 -15.3755
25.9288 126.625 -7.09657
11.4688 78.266 -16.901
5.08276 97.1783 -0.510524
9.03396 80.3938 -16.6998
2.34728 77.2641 -4.27681
17.725 121.599 -17.0856
20.274 100.953 -4.23165
7.77193 91.011 -3.14506
8.6247 127.038 0.590141
5.22903 92.4398 -1.75383
11.0605 154.252 0.0984434
25.9521 103.068 -2.33286
16.6616 81.7362 -7.96272
8.15598 132.071 2.04347
33.4709 104.389 -13.4923
29.1495 116.51 -9.20774
5.5783 119.763 -14.8499
24.7378 86.4042 -7.41302
23.4886 95.8686 -18.4566
35.3841 98.3024 -9.21083
31.4558 108.627 -5.6147
18.3737 129.407 -11.6477
4.91484 150.303 -6.31687
19.5513 127.575 -16.0775
24.8654 99.3385 -2.50507
22.0264 124.178 0.85589
25.8762 116.346 -0.616805
13.5595 135.151 -14.7285
18.7844 148.579 0.500014
27.1175 125.575 -8.29513
31.3256 135.259 -11.487
34.2519 104.483 -10.7603
13.8529 118.365 -5.069
10.4065 83.9421 -5.43235
27.8521 114.75 -11.6923
21.6213 146.629 -0.456084
-1.74203 140.835 -5.50626
16.8264 132.02 -8.894
2.61774 134.327 1.04103
21.2666 133.003 -2.94268
23.6348 146.502 -2.18496
-3.44961 124.161 4.28746
24.6913 114.905 0.0417063
25.9246 89.5502 -17.4761
5.53049 141.399 1.63389
16.2866 144.012 -5.87988
1.65011 139.404 0.882245
24.0567 113.822 -15.5309
25.3013 146.2 -4.44811
0.155617 143.848 -4.85793
8.23811 152.995 -3.9289
25.8797 105.432 -1.53801
31.6438 131.082 -8.8676
6.55596 152.054 -5.25714
29.7778 137.585 -10.7783
17.9975 114.799 -18.1184
29.427 83.1238 -16.0621
25.905 128.791 -5.65036
-4.85057 113.773 4.14034
7.70498 137.183 0.259282
3.4052 88.3612 -0.475352
5.94167 91.5395 -2.37362
22.8545 142.631 -1.8541
14.8094 129.732 -4.50184
13.5659 125.689 -15.4251
11.941 82.0707 -6.23413
24.8573 78.9538 -9.595
28.3687 92.0679 -5.71175
2.26626 139.569 -6.05297
18.1393 141.556 -7.58739
2.6878 85.5398 -0.802725
6.78485 120.419 2.32331
5.37365 84.4918 -16.9651
33.1929 105.178 -13.2181
30.0159 90.3106 -6.76579
-2.6153 140.906 1.85088
25.6454 132.84 -13.8374
1.10525 118.128 -13.3951
9.87666 110.113 -1.52598
3.80444 114.997 2.75881
16.9893 118.798 -5.10548
22.0909 126.901 -10.1281
16.2956 102.294 -19.3873
14.0151 137.646 -3.63844
12.2741 109.736 -18.5742
13.5123 146.359 -1.92148
4.58174 105.493 -18.0201
4.11893 84.8831 -1.76527
25.7652 124.194 -7.33484
8.58658 100.935 -2.53586
12.1023 118.682 -4.39928
33.6359 105.016 -9.76079
6.84518 143.689 0.293528
3.08972 128.501 2.54457
28.6763 92.4809 -5.63162
6.8436 142.132 0.760904
28.3612 83.0554 -16.2971
16.6821 113.007 -5.43133
9.14845 77.7103 -5.9782
7.1142 129.006 2.16922
29.0444 137.076 -12.7247
5.03855 78.7484 -17.0846
10.1793 144.754 -1.41095
11.2496 108.934 -4.12377
1.73141 116.022 -15.2368
38.6689 89.4381 -12.0902
18.6327 142.61 -7.85596
33.9 101.938 -14.9421
23.5585 148.023 -3.6392
10.7914 123.006 -13.3594
33.748 97.2975 -6.19679
23.7851 128.181 -7.24622
21.0737 122.431 -14.8131
12.2518 95.5116 -4.90526
12.6474 150.418 -0.0704973
7.62566 103.969 -17.0745
10.887 130.527 -14.1635
20.8052 129.716 -7.55821
12.9028 104.74 -5.51344
31.2631 83.05 -15.6546
3.89558 109.693 -17.3581
23.8282 147.145 -3.38169
7.27384 126.813 -11.1841
11.9421 146.336 -9.27825
7.99187 102.63 -1.28928
15.2648 127.305 -16.0838
9.52555 83.5796 -5.07824
-2.15423 131.3 -7.52808
-5.41906 134.965 2.4569
15.5906 116.875 -18.2606
5.78692 119.202 1.90324
-0.680632 100.414 0.569074
10.1553 125.337 -1.13856
-1.75378 88.2101 -2.19135
10.9627 98.6569 -4.75238
23.4579 113.892 -16.8926
24.9687 125.179 -7.84297
21.045 96.992 -18.4144
16.5647 135.541 -0.253077
33.2456 106.039 -10.265
-7.71639 144.094 2.50603
30.7577 88.4902 -16.173
22.6267 103.824 -18.7976
13.884 113.345 -17.696
27.6803 111.912 -11.9769
2.29761 150.723 -5.33167
-1.60601 108.525 1.86114
-6.08046 121.056 5.69562
17.9141 126.352 -4.04807
-1.54612 110.871 2.47995
11.8082 139.484 -12.2971
-2.44064 135.547 2.01778
13.5034 98.159 -18.099
28.8884 126.185 -9.40029
21.8698 128.047 -7.94611
3.5962 131.034 -9.05378
27.3972 127.063 -7.46559
11.1301 84.3958 -15.9753
14.6059 88.0081 -16.6771
12.5544 112.821 -4.92083
6.55188 86.0365 -16.5713
17.4061 126.444 -15.7144
16.1052 140.556 -11.7971
10.3053 94.9724 -4.34825
17.6226 127.209 -14.9421
3.37299 132.949 1.16523
-6.78642 146.558 2.07798
14.5838 132.088 -15.8941
-3.16756 119.85 4.39289
3.93365 97.5913 -15.1419
8.57907 126.226 0.6571
5.68432 77.1154 -4.85517
16.8344 136.795 -9.58406
9.59222 153.097 1.00701
32.8338 106.452 -8.08087
8.97189 129.281 0.298895
16.5624 140.072 -0.3007
-2.74805 114.817 3.74021
16.7399 128.193 -16.0941
21.8229 124.894 -11.4108
29.4356 117.733 -5.65456
20.5881 133.218 -14.9689
23.9163 125.631 -7.49394
29.715 132.012 -5.6654
3.10032 117.638 -15.2434
16.6884 123.749 -17.5618
13.8645 133.627 -4.3892
34.7999 101.476 -8.56313
23.4343 131.831 -5.86083
31.5077 108.363 -12.3477
24.0922 125.645 -8.26411
-2.86911 106.916 2.49264
36.8846 98.2488 -12.3946
19.8448 108.356 -4.85915
22.1242 120.838 0.418236
26.709 127.66 -6.74933
-6.00698 136.948 2.26778
10.5809 112.147 -2.96757
19.2547 107.206 -5.02682
24.7166 126.958 -3.47098
2.53808 83.6022 -2.16799
13.8324 133.319 -4.40196
17.6172 85.5738 -17.0736
1.65901 105.839 0.462762
22.0621 78.599 -9.44224
25.7661 125.922 -5.75798
19.8864 140.45 -11.9366
4.58238 122.762 1.81041
17.0017 82.4569 -16.491
-6.90299 123.191 5.04968
12.6398 117.761 -4.73796
-0.280186 154.169 -2.20364
8.77129 91.5782 -3.59829
16.3242 120.649 -4.95958
8.54689 90.6086 -3.4777
23.3571 147.931 -3.35378
38.5864 90.6005 -17.0838
19.3444 128.448 -12.0508
15.5015 121.962 -4.94965
36.2624 95.5652 -9.44139
31.7926 109.698 -8.77776
20.7196 123.712 -12.4201
32.284 90.6248 -15.5972
26.301 80.6409 -16.3036
4.36332 151.248 -5.58962
8.18951 154.394 -0.0528872
32.0113 96.3654 -16.6653
9.51252 95.7036 -16.1236
8.6047 104.236 -1.4989
-2.05331 144.739 -4.36675
22.6795 107.898 -19.6667
34.5217 98.9238 -7.79583
19.0068 125.285 -2.96353
-0.181818 116.753 3.83463
3.40445 153.343 -2.99105
24.2087 79.3601 -9.43385
39.1903 84.0703 -12.3117
7.88597 79.1107 -16.7277
24.5807 124.119 -0.50179
11.4136 137.359 -12.3426
-3.40486 114.892 3.84549
4.33272 106.249 0.309676
17.8578 130.161 -14.2557
31.7096 98.9047 -4.71293
14.061 77.2016 -7.09189
34.2826 89.6066 -8.2796
3.68763 126.818 -10.9698
10.2446 85.4755 -3.76152
23.3168 145.075 -7.74062
27.2625 129.781 -5.49131
23.5131 96.7768 -2.66036
6.44608 115.62 2.20159
0.23115 105.296 0.692939
20.032 131.606 -1.41281
25.5217 79.9287 -9.46223
13.1467 118.612 -17.0418
15.4908 89.037 -16.8873
31.0404 135.401 -11.9069
10.1662 115.236 -15.8191
6.14115 123.974 2.27794
22.0918 145.945 -7.20732
8.03033 154.769 0.683898
15.7059 97.3425 -18.3053
13.9224 132.106 -4.434
18.6706 84.8113 -6.50215
19.2909 86.5318 -5.49755
25.3578 86.9032 -7.2724
15.1353 150.399 -2.98694
18.3637 140.278 -9.70834
24.8753 91.4909 -5.45893
5.20342 81.6097 -2.95707
23.2434 120.55 0.402844
24.3948 110.601 -17.3736
20.591 98.2679 -3.33382
26.4616 136.118 -11.2689
2.70988 146.71 -6.32049
27.0109 138.519 -10.4202
20.1614 143.469 -0.00955975
21.682 147.578 -0.808965
25.684 83.1567 -8.69553
3.51337 143.028 1.56504
2.80026 136.263 -6.52006
21.8263 137.79 -11.843
0.659563 116.583 3.71463
23.178 111.374 -1.8485
21.4101 138.069 -1.74552
20.7553 130.41 -6.02785
17.2531 110.616 -18.3771
22.5515 119.273 0.189809
16.0356 135.621 -10.5016
19.293 129.217 -6.24439
28.7228 135.304 -6.08655
17.9804 112.908 -5.22385
32.573 98.8916 -16.83
24.0448 114.343 -15.5107
31.1287 103.505 -4.21325
18.9464 122.753 -13.9866
24.7205 129.01 -5.11189
23.5959 120.236 -10.3818
12.1349 128.519 -15.2192
19.6116 101.96 -4.62281
32.5201 82.1614 -9.67375
16.8186 136.764 -9.59252
32.0904 132.092 -11.2247
11.1666 80.7597 -5.91315
9.25816 90.2078 -3.78118
7.74218 82.5914 -16.9731
23.7706 130.25 -16.745
28.8487 132.071 -13.9511
13.8182 119.893 -4.99833
8.37938 112.12 0.465853
27.038 97.2139 -3.85184
5.54331 118.479 -15.42
13.5308 77.6592 -16.8341
33.3012 88.1486 -15.6793
17.8148 133.032 -14.3769
21.5321 84.814 -7.11641
19.5891 131.384 -5.67448
-2.22605 114.939 3.73253
21.7027 149.737 -2.5609
29.8486 130.499 -12.446
31.7093 106.107 -13.4534
21.1969 138.387 -12.0342
24.6894 111.062 -16.7085
3.52215 121.343 -13.9387
20.3445 127.083 -9.11379
32.4722 129.807 -9.33503
-3.33618 150.568 -2.85103
5.73208 97.1406 -15.359
13.9314 109.055 -5.58291
24.0044 116.658 0.0401648
20.9141 126.744 -9.86258
16.3497 129.627 -15.1731
22.4039 126.27 -7.47277
28.429 93.494 -17.1812
16.8139 119.917 -16.0238
39.9031 87.1334 -15.9425
25.8043 100.472 -2.44277
9.44612 119.955 -15.1162
13.4704 151.798 -1.56258
17.1129 126.189 -13.224
0.206223 138.306 -5.47248
-2.77007 107.455 2.56201
14.2015 126.61 -16.4243
11.205 126.093 -13.2088
17.5604 82.9761 -16.5339
10.5045 132.521 -0.339767
-3.93983 105.117 2.84245
27.3148 91.8029 -5.61711
14.2563 98.7573 -18.4667
13.8535 89.9453 -16.8985
-2.48906 147.401 -3.837
16.6492 140.492 -11.6325
-0.0761967 132.211 -6.91769
26.82 127.422 -6.92109
5.01625 128.515 -10.9255
25.8332 141.59 -7.48884
19.274 118.584 -4.38898
7.7588 123.606 1.22806
24.0113 109.751 -18.1832
21.1366 130.833 -1.73704
20.6209 125.115 -13.7199
27.0452 106.018 -17.3759
39.8937 88.7615 -14.8371
-3.67185 104.024 2.57827
-7.4559 141.368 2.86108
18.6238 126.732 -12.7352
11.9016 139.386 -12.3535
3.16849 148.678 -6.32003
18.064 133.194 -10.0631
20.4354 150.495 -1.90801
26.157 110.464 -14.3352
-5.1605 132.66 2.75937
3.4374 124.732 -11.7296
12.6916 95.3586 -17.2604
2.09557 138.876 -5.99414
15.3907 140.599 -12.8932
37.8481 93.4583 -12.0783
-7.83048 142.376 2.98357
38.3389 91.4322 -16.8522
8.43781 138.442 0.203484
32.6324 107.21 -10.7403
25.3979 91.5632 -5.50497
29.9341 134.091 -10.0382
4.98828 152.353 -4.64703
25.6411 125.392 -6.2926
27.6152 92.5531 -5.42757
12.0546 139.644 -12.4159
-5.06845 117.916 5.0728
6.68873 117.155 -15.7638
18.0535 128.813 -10.2478
19.0345 90.8542 -17.5387
4.27515 101.75 -16.3421
19.4742 119.051 -17.5851
16.9644 149.462 -2.83523
20.2232 82.1424 -16.6199
12.5027 118.943 -16.8962
9.91091 145.77 -10.182
29.2567 133.079 -6.25422
22.4167 130.974 -17.2171
0.515714 152.075 -4.30929
19.1144 111.703 -4.95009
19.6693 121.35 -2.41529
13.646 115.966 -17.8086
17.1383 151.671 -1.26315
30.2402 85.6467 -8.35862
4.61397 142.976 -7.95348
6.69589 127.209 -11.0997
25.5389 113.25 -0.213641
-2.0307 89.41 -1.90684
3.8666 121.345 -14.1116
16.3392 113.522 -17.956
12.539 85.3122 -16.3595
21.4871 134.52 -2.5238
25.376 139.595 -8.81662
22.6817 90.5229 -17.9314
17.3911 149.056 -3.21882
21.1837 141.481 -10.9809
-3.4625 128.183 3.2725
1.4755 113.764 2.79147
10.0871 119.841 -15.582
26.1785 108.441 -15.674
10.6224 82.1031 -5.71877
32.8966 99.2861 -5.23587
24.9524 79.2956 -9.48668
21.474 128.252 -7.34415
1.8858 95.777 0.416062
5.02692 152.175 -4.90693
31.085 85.82 -8.44172
12.905 148.849 -7.22848
18.5027 137.72 -10.8917
12.5614 149.992 -6.40741
-1.67509 125.612 -8.76815
25.1299 89.9614 -17.7823
24.8741 91.1405 -5.60648
20.3796 101.102 -4.16735
13.0907 134.27 -3.72495
26.6658 102.383 -18.9024
32.3553 87.412 -15.6105
6.66347 118.283 -14.9511
14.1456 104.081 -19.3718
5.63863 92.7066 -2.14863
-6.50895 136.012 3.01553
21.77 134.114 -13.35
6.02545 96.9251 -1.03402
24.9695 122.43 -7.224
11.0828 129.833 -2.38927
23.3678 99.4379 -18.7299
3.15405 105.258 0.18528
23.2087 114.647 -16.8201
10.1141 113.846 -16.2455
10.7576 137.8 0.378759
20.5785 123.309 -14.3939
26.5261 86.3365 -7.53504
3.43333 102.073 -16.5867
6.02087 98.0445 -0.965092
7.29283 153.779 -1.679
17.6833 131.22 -11.0718
15.1842 113.278 -17.7103
1.39116 121.461 -11.9392
24.4041 146.007 -6.18117
-5.28696 115.731 4.66012
39.3841 89.825 -15.3606
18.7922 127.712 -15.0771
23.6776 93.6483 -18.2093
9.03542 102.616 -1.93857
10.1419 142.784 1.53039
16.9855 135.844 0.394349
3.38063 137.68 -6.70603
13.3739 120.729 -4.90298
-4.19009 97.5624 1.83718
0.994041 147.196 -5.27898
7.32467 121.099 1.40627
14.3835 135.554 -14.883
23.6916 117.014 -15.3675
37.7277 94.0991 -16.3083
19.7489 126.232 -15.7121
14.9596 150.606 0.0850194
-4.97089 132.966 2.5837
1.42462 135.149 1.36203
10.8688 108.113 -19.087
23.631 124.655 -10.7717
-2.08845 118.214 3.88091
-5.1635 133.263 2.6453
23.2786 81.1833 -8.93631
11.8905 90.7756 -4.46868
3.25478 98.5491 -15.2109
25.9659 141.758 -3.16648
20.9946 119.64 -17.4103
17.3943 91.2467 -3.42255
20.4384 114.355 -18.0817
11.0811 79.8575 -5.98323
26.2125 86.6018 -7.42052
18.8874 108.483 -19.3518
23.5995 131.02 -15.0692
10.787 116.544 -15.9982
16.682 136.414 -9.61591
30.5845 101.482 -16.7938
30.6954 114.069 -5.86761
4.12761 108.913 0.896487
21.9996 110.044 -19.3301
6.8669 110.389 -18.5767
8.17319 124.459 -12.2305
30.4852 132.716 -9.42668
21.8973 96.7615 -2.43241
31.7442 84.8378 -15.6363
2.25894 138.088 0.8624
19.5456 128.291 -11.9779
23.8796 118.665 -13.21
19.8043 125.702 -12.2009
24.4142 88.7396 -17.8849
22.9895 125.49 -9.05442
26.5992 140.59 -4.31065
16.8244 128.222 -15.6421
39.1809 89.2561 -16.7795
7.67599 117.53 1.25335
11.5363 77.8684 -17.043
18.6462 140.761 0.394653
23.5063 94.8113 -3.09068
12.17 77.9665 -16.9114
26.3021 122.14 -2.3435
-5.42779 143.949 1.53924
23.3663 124.651 0.00119408
23.584 99.3295 -18.7632
9.81264 78.2533 -16.9772
34.3622 100.737 -15.1892
18.9429 131.079 -15.7444
2.82836 116.676 -15.5387
19.2545 134.606 -1.05818
16.8856 134.234 -1.44276
22.4575 126.697 -7.30616
19.9033 135.185 -13.6682
22.0041 126.084 -9.24342
5.17597 131.857 -8.8384
15.1349 121.261 -15.3153
14.9978 79.2575 -16.2051
21.8766 78.9069 -9.30226
16.165 134.975 -10.2918
30.6971 86.2764 -15.9588
17.2472 132.842 -11.8045
30.9516 83.2265 -9.23763
0.562429 138.07 -5.61556
17.2126 131.466 -12.3981
26.084 117.07 -13.7463
19.3038 132.583 -10.5772
30.5437 134.38 -11.7942
18.3873 132.32 -0.00663029
14.6713 139.286 -13.9524
4.50035 112.933 1.96857
-1.6836 131.281 -7.4253
18.3375 128.986 -1.33595
26.7429 111.864 -13.0887
14.2919 141.809 -11.7221
13.9708 101.756 -5.07298
6.34673 111.742 -17.799
14.118 97.4175 -5.03958
25.6317 135.887 -4.09929
6.41502 90.8172 -15.6064
4.8377 154.084 -2.11582
5.04815 137.618 0.496416
0.0177844 79.2663 -3.99878
27.2522 116.516 -12.0832
7.61398 125.286 1.5179
11.2361 102.048 -4.91743
17.1394 137.187 0.534021
15.0847 89.1568 -16.853
11.2436 99.7946 -17.1938
16.7981 131.507 -8.73612
29.1373 107.377 -2.14669
12.8169 81.8333 -16.0214
8.3919 133.279 1.40711
36.6245 83.1225 -10.7503
4.34285 87.8821 -1.12809
23.9166 102.056 -19.0003
15.8456 106.479 -5.69115
23.7067 145.499 -1.635
23.174 114.35 -17.1947
14.2311 110.124 -5.56599
10.0478 137.335 0.584696
6.25417 114.952 2.24879
36.5412 83.5618 -14.737
-1.15761 111.833 2.30452
11.9701 93.9933 -16.9252
