ply
format ascii 1.0
comment Created by Open3D
element vertex 1887
property double x
property double y
property double z
end_header
-16.5464 117.281 4.8892
-19.5253 134.836 6.46875
-19.9518 84.6582 -12.0275
-23.8022 128.462 -4.74995
-39.8288 88.6957 -6.95888
-22.8083 131.592 -3.40962
-15.1451 102.297 -12.6561
-14.5435 139.539 2.84289
-23.778 145.388 1.4891
-25.094 127.654 -1.0198
-35.008 93.6872 -4.94833
4.71139 130.13 4.59249
-19.3275 114.91 -13.0278
3.09158 124.877 -0.922314
-15.2562 119.567 -10.3964
-24.265 128.07 -9.15453
-13.1412 151.394 -3.58733
-26.466 126.306 -2.24338
-12.3363 146.565 3.00743
-23.1007 106.815 4.56899
-32.6057 107.252 -1.85468
-23.0766 100.85 1.84959
-21.7015 141.547 -3.2319
-19.1488 98.8718 -11.4425
-36.6006 102.896 -10.7109
4.42854 134.812 -9.82954
-13.8395 92.3457 -8.32107
-19.9125 123.452 -10.7802
-23.51 105.124 -13.1824
-21.9154 109.977 -14.3137
-18.0541 112.432 -13.1038
-33.3736 87.6086 -11.3383
-21.9661 137.299 5.82035
-12.2341 117.181 -14.0116
8.23168 135.859 -9.48818
-14.1427 96.7736 -6.36641
-14.9737 119.372 -10.417
-24.9613 104.85 -13.5516
-28.9358 88.3901 -10.2511
-20.0381 127.788 -9.62641
-27.4012 109.223 2.56954
-31.4942 89.8345 -2.75039
9.1166 147.866 -5.12121
-2.10191 133.011 3.13239
-37.1892 87.2086 -9.43365
-3.83675 153.584 -2.59558
-24.3 138.203 3.06829
-25.2319 128.778 -2.05667
-16.996 92.7644 -2.90163
-19.0199 126.509 -9.25581
-12.2955 112.796 2.63068
-19.3283 112.314 -13.3951
-14.8008 92.5406 -7.16397
-2.98312 118.401 -13.4211
2.09156 148.071 -3.24068
-8.18301 104.118 -13.9132
-23.5791 127.608 -3.81606
-31.8527 86.4501 -12.3909
6.21922 131.614 -10.7844
-11.2866 112.478 -14.6816
-13.8776 144.74 3.96714
-37.5957 84.331 -4.42215
-20.9878 81.6375 -13.0532
-32.1983 104.109 -12.6564
-17.7688 146.39 5.23176
3.76072 133.87 -1.21492
-23.5137 127.142 -3.04909
-26.0294 99.6832 -12.3034
-20.0662 86.5768 -13.8449
-17.7566 127.34 -8.60333
-33.8214 88.7091 -10.7703
-8.84431 143.696 4.71742
-15.8116 150.916 -1.68509
-15.8384 105.423 -14.1652
3.46474 145.308 -5.70349
-20.136 116.823 6.10931
-3.23894 145.121 2.72336
-33.3486 108.048 -3.22315
-24.7967 143.77 2.29358
7.83512 147.961 -5.72543
-11.935 151.224 2.62102
-16.5321 104.42 0.811664
-11.2305 140.079 -9.6834
-29.1685 122.157 -8.7116
-15.3518 112.225 3.05683
7.96973 147.427 0.929063
-34.1871 91.5152 -12.6053
-8.53138 120.745 3.38922
-30.2356 133.48 1.27565
-23.8518 95.9614 -1.60371
-13.1489 145.933 3.9519
-17.2756 146.079 -2.3446
-23.0749 132.697 -3.66511
-2.56862 150.089 -4.81814
-25.5307 139.832 -3.37803
-23.3317 115.771 -12.8757
-16.56 88.3773 -7.24165
-30.9681 119.794 -4.98697
-39.6509 88.2061 -7.98673
9.24567 151.794 -1.33211
-5.68385 136.352 -5.95185
-23.9517 121.665 5.38654
-16.1658 141.213 4.38433
-0.0221226 131.534 1.19988
-24.5306 112.355 5.39291
-27.6465 134.078 -2.90924
-30.4278 102.172 -0.783138
-18.5771 105.884 -13.4032
-28.6916 112.553 1.35512
-13.2478 101.313 -0.987475
-35.1569 90.8108 -3.51481
-6.79279 116.384 -13.8139
0.187552 150.512 -3.60171
-30.9955 118.559 -4.05009
-26.06 110.108 -13.6012
9.32152 146.321 1.53742
-27.7146 93.3165 -3.40949
-25.4328 127.682 0.073606
-11.603 121.24 4.94515
-21.5461 131.605 -7.60076
3.1349 124.885 5.01776
6.88342 145.18 0.108206
-23.9116 139.694 4.45226
-20.2977 129.979 5.12507
-17.566 88.8634 -12.5859
-28.3336 123.52 -8.99683
-16.9895 96.4373 -11.3864
-15.9058 133.441 -10.3635
-9.18711 112.846 -14.6865
-32.7977 86.3043 -13.2937
-25.9429 126.137 -9.55475
-23.7316 140.631 4.5793
-36.3761 91.092 -3.96581
-7.41079 109.722 -3.08875
11.4884 151.952 0.39818
-26.9709 141.013 0.588411
-29.6111 127.506 2.98759
-29.2703 123.171 -1.62274
-8.18536 144.953 5.08611
7.61834 146.977 -6.10866
-14.0563 132.292 5.32596
-23.9193 127.906 -1.53598
6.38693 136.326 -9.37709
-36.6589 87.8229 -10.0895
4.17934 143.262 -7.14509
-23.915 135.294 4.96489
-16.1875 124.11 7.43706
-13.0369 143.761 3.83085
-1.89277 144.171 2.34571
-24.1761 119.724 3.86277
-8.3708 144.796 5.0088
-6.51417 133.325 -7.26659
-28.0688 83.7103 -13.2867
0.0247837 134.699 1.73527
-25.3475 129.033 -1.69887
-21.1857 87.7332 -10.1639
-23.6911 143.951 -1.05591
-29.9397 116.808 -10.4754
-21.9476 101.178 2.86682
-29.9003 103.32 0.156074
-12.2843 124.056 6.00246
7.79763 137.661 1.44476
-24.9126 127.744 -5.62697
8.84929 135.792 -9.3751
-17.5651 112.658 3.67412
-19.1886 105.368 -13.0126
-7.88484 104.052 -5.7696
-26.6332 119.769 -11.6229
-27.6952 122.997 0.746414
-20.8514 139.9 -5.52295
-32.5622 114.625 -6.96562
-8.55516 130.182 -7.95642
-13.2288 143.544 3.77187
-15.3818 135.066 4.76602
10.3428 141.212 -2.86943
-4.11086 145.63 -5.2423
-31.9506 93.6559 -12.6914
-26.5015 125.207 -6.40051
-36.7727 84.711 -7.79098
-9.14205 115.66 3.07213
-28.6675 123.655 -5.2944
-29.4993 114.663 -3.64544
-22.5374 98.1806 0.705175
-32.2311 103.356 -1.18769
-30.6764 112.128 -11.1363
-25.2795 125.779 -5.84414
-4.58838 119.821 -1.5065
-17.4236 128.46 7.01008
-12.12 106.618 -14.809
-13.1239 132.751 -8.16835
-13.1627 124.535 6.25372
9.56532 147.109 -4.06543
-18.6006 140.686 6.30335
-1.08368 145.568 -3.91761
-15.0732 148.198 4.36141
-25.1583 126.906 -3.32055
-2.69927 126.387 0.723197
-14.9614 103.665 0.331357
-22.3001 82.3312 -14.0261
-21.0195 138.831 5.798
-4.59328 143.697 2.36795
-2.08997 128.523 -10.8797
-14.3207 106.248 0.528904
-11.1829 133.587 -7.25769
-11.0822 105.966 -0.807731
-25.5404 87.7735 -9.84075
-16.1366 126.976 7.91779
-20.3054 134.17 -3.90643
-31.217 129.716 0.507065
-21.8291 103.791 3.63043
-27.6119 125.879 1.45139
-10.6207 149.234 2.71628
-28.0147 138.206 -0.999549
-13.5467 142.763 -7.35842
-23.6463 99.9556 1.08935
-35.2971 106.469 -6.93279
3.70797 131.652 -10.9089
-34.7714 107.203 -6.1112
-0.180762 152.307 -3.27909
5.40509 146.22 -6.06007
-23.1094 82.5154 -13.0598
-7.58142 104.373 -5.89589
-15.4811 147.909 4.39144
-23.5258 114.847 -12.6896
-31.1052 108.189 -12.2893
-35.6418 96.4633 -10.7885
-25.2211 127.175 -2.3051
-28.4191 84.641 -4.99883
-39.4905 92.1972 -8.68453
-24.103 113.817 5.99213
-24.9751 127.292 -3.38321
-29.1701 136.699 -1.32679
-21.9267 134.299 -6.9925
-15.185 131.138 5.71449
-19.7987 133.643 6.52344
-12.5371 152.062 -3.3725
-2.60061 152.275 -3.84799
-18.4687 90.8014 -2.36492
-19.4947 148.979 -0.140128
3.02626 128.812 -2.56335
-31.2332 130.55 1.37348
-32.2705 88.2786 -10.4898
10.3783 146.909 -2.74347
-14.2086 109.074 1.65875
-10.2907 147.465 2.47938
-20.6634 140.582 -4.73195
-5.85553 122.656 -13.2539
-6.34708 112.286 -14.0442
-28.739 122.71 -3.59143
-31.0954 109.661 -0.602118
-30.4697 85.5456 -10.0941
-33.5011 86.8373 -12.6862
-34.3405 98.4457 -11.6119
-12.8688 125.165 -8.38301
-10.1375 152.983 1.45501
-29.8084 130.701 -3.0841
-32.5974 109.066 -11.224
2.47181 133.584 -1.27449
-34.0722 106.776 -11.5137
-32.5885 110.706 -3.83117
-4.29204 150.465 -5.05727
-36.4676 96.343 -6.593
7.89042 151.498 -3.21304
-26.4255 129.897 -0.830621
-38.7592 86.8969 -9.38871
-11.7371 102.445 -4.61404
-14.0785 115.114 3.54992
-16.0482 115.045 3.93562
-29.2706 122.046 -6.43204
-24.0458 137.894 -6.02293
-11.8552 103.087 -3.12564
-22.4609 115.834 7.07106
-13.5653 100.476 -2.13595
-10.2048 117.012 -14.3398
-16.8076 110.586 -14.325
-37.2261 85.6136 -4.88159
-19.421 140.095 -4.50446
-6.32123 118.445 -13.5319
-18.8056 88.3054 -6.05703
-37.7018 98.8741 -6.77671
-27.8344 110.111 2.17051
-17.8307 122.732 7.61496
6.6116 139.09 -8.87818
-28.0879 122.073 0.880379
9.5892 137.186 4.09586
-16.1348 109.761 -15.1293
7.1226 136.179 2.78401
-16.8441 135.732 -7.9608
-11.0387 99.7295 -13.0837
-22.5907 99.3127 -11.8419
-16.5414 145.986 -4.25193
-7.49845 146.927 -7.06009
-15.8132 113.737 3.53545
-7.54319 108.153 -3.76189
-25.4857 125.58 -6.41
-27.3111 126.595 -0.687132
-24.5278 128.988 -3.72597
-27.2318 110.081 -13.6568
-34.7661 93.8811 -4.9727
4.082 144.29 -6.55034
-27.0437 127.99 -0.39612
-7.43123 136.518 -5.62069
-23.2942 120.689 -12.0232
-32.6263 102.135 -12.7546
-4.11126 115.653 -4.1768
-23.0005 141.143 -3.27047
-28.1758 123.623 -9.13254
-28.3469 112.646 1.70617
-32.9083 83.0557 -5.53568
-27.9878 127.87 2.76351
-12.8928 118.858 -12.3898
-15.559 108.447 1.69063
-29.8617 129.354 -2.83508
4.48676 137.616 -1.34874
-26.6225 127.333 -1.80852
1.82633 124.375 -12.2171
11.5165 141.562 3.35599
-9.72981 152.16 -3.82135
0.0978619 140.184 2.19071
9.01068 137.787 4.44158
-36.3878 101.819 -8.03173
-28.0351 127.539 1.88814
-18.9489 111.85 4.49245
-35.2899 92.0947 -12.3796
-5.7521 135.043 3.08553
-22.3114 100.739 2.36604
-13.1306 139.533 -9.20938
-7.88512 147.131 -7.08814
-18.13 103.66 1.43709
-33.1689 112.334 -7.74341
-16.9477 96.5074 -0.333045
-39.121 91.2878 -5.34503
-26.2732 106.86 -13.5949
-0.928796 136.404 2.45232
-12.751 137.955 3.0176
9.43417 145.708 1.52279
-39.1096 96.1384 -10.349
-7.22394 141.091 2.39584
-35.5856 104.403 -7.11954
-23.8147 137.951 -6.21588
-1.96423 123.03 -2.8101
-35.6855 94.3746 -11.1996
-19.9293 143.722 -3.6161
-28.5474 123.877 -5.49003
-28.5201 95.4219 -13.1068
-9.28663 121.249 -13.4169
-22.12 86.6502 -3.31403
3.53303 151.897 -2.5493
-25.1657 143.78 1.4046
-11.3634 146.282 4.00352
-24.168 127.474 -2.04566
-38.2926 85.6751 -8.87945
-24.3987 130.814 6.80684
-6.26671 113.004 -3.34875
-18.3916 119.217 -11.3298
-27.5236 111.968 2.88662
-17.039 142.381 -5.4404
-10.6645 141.547 -8.87762
-0.0549266 121.645 -3.51172
5.56278 134.528 -1.40861
-1.27738 143.213 2.25753
-18.3341 88.0451 -6.95629
-12.9093 151.895 2.02744
-8.31855 110.539 0.0286561
-16.8398 90.1783 -4.78414
-25.6351 96.2268 -2.08558
-30.0699 134.669 -1.29794
-18.9883 91.2589 -10.3921
-8.07417 120.571 -13.7839
-25.7286 97.0713 -1.56255
-15.608 134.6 -10.7868
-13.3093 106.805 -14.8581
-16.0653 138.098 -6.40407
-20.4185 108.138 -13.9296
-20.2711 132.965 -9.14513
-2.23327 123.549 -11.781
-17.4215 147.672 -1.60234
-39.9293 93.9014 -9.43642
-19.0389 108.518 2.99479
2.74241 144.609 1.96549
-29.3621 113.633 -1.49093
-18.8131 140.459 -4.08636
-1.85154 149.587 -4.37909
-23.6453 138.733 4.34412
-26.1194 127.216 -3.50069
-14.4589 151.512 -2.13431
-12.8973 101.43 -3.17746
0.710419 150.322 -3.34204
-5.63292 144.853 -6.27519
-7.22232 147.616 -6.90192
-17.9838 123.33 8.1025
-31.3381 117.841 -5.31929
-27.6233 108.776 -13.6138
-7.90999 105.352 -5.35978
8.6929 150.468 1.00829
-6.74549 124.908 -12.4832
-9.90929 124.245 -11.4611
-24.9694 112.955 5.32357
-33.5181 95.4075 -5.18003
7.53299 139.34 0.271755
-29.4066 128.366 3.54908
-17.8422 95.5926 -0.837879
-18.3567 122.536 7.8027
-38.8395 87.6291 -10.8067
-17.9425 112.736 -13.0024
-12.5718 102.307 -1.88007
-31.0637 127.127 1.59293
-16.6013 137.918 -5.49029
-25.3568 130.585 -5.99223
-24.4627 87.5668 -9.04712
-2.88006 114.799 -13.1574
-10.7354 116.89 -14.344
-12.9724 110.553 -14.9847
-27.5829 127.021 1.15456
2.71604 154.508 -1.59769
-3.44378 116.146 -13.2351
-35.7458 87.5897 -9.69188
-20.9367 132.539 -4.1699
-13.6842 103.367 -13.5471
-6.92129 128.484 -10.5867
-8.5756 129.444 3.75088
-33.9891 104.688 -12.0761
-25.0848 143.693 0.389062
-31.3101 129.054 2.10556
-20.6552 130.986 -8.97002
-16.473 95.0629 -4.09378
-17.7926 86.2245 -10.7189
-36.3559 103.116 -11.0222
11.9653 149.289 0.323705
-24.5919 127.164 -3.53194
-8.61779 125.071 3.21227
-26.1873 94.7875 -12.8739
-11.4278 114.466 2.8837
-32.0171 94.5393 -12.4039
2.62599 146.56 3.41992
-20.6392 113.83 -13.0852
-29.7386 128.668 2.83155
-23.7962 135.358 4.86916
-0.923397 138.182 2.29193
-15.0861 135.563 4.35321
-25.3757 128.585 -1.81561
-28.6794 123.485 -0.139
-33.958 110.793 -8.21222
-25.237 88.4946 -1.71695
1.89499 146.439 -4.05744
-28.247 85.4063 -5.78555
-16.062 95.6242 -4.47001
-23.1833 116.693 -12.957
-32.3778 104.951 -1.21164
1.67359 127.756 -11.64
-26.7561 126.018 1.17867
-11.8302 99.5268 -6.68893
-18.2052 86.2106 -13.7473
-1.41043 134.849 -9.58116
-12.4919 133.664 3.69994
-29.5144 136.112 -1.51335
-20.9067 89.8843 -10.267
0.848824 125.087 -11.7654
-9.94776 133.988 3.36752
-29.8699 100.207 -13.402
-19.1272 92.4559 -10.4887
-6.10381 141.604 -6.18302
-6.33299 120.216 3.18996
-17.9572 113.834 4.55633
14.5606 148.546 0.668645
-28.6504 113.199 0.405163
-22.4034 99.2441 1.15356
4.54261 152.926 -2.12325
2.6303 149.566 -2.82384
-16.0024 136.411 -7.24509
-27.9623 85.7082 -6.42035
-14.6395 131.436 5.40142
-31.6738 85.2925 -4.40802
-10.0805 140.496 2.75488
-25.5709 122.648 3.60539
-27.0233 89.9836 -11.1899
-23.1058 130.771 -5.55701
8.12346 150.627 0.90405
-19.9075 87.321 -3.73334
-3.07764 134.784 3.4169
-16.6926 112.596 3.37661
-7.85068 144.425 -7.78826
-4.54504 122.153 1.43535
1.72733 144.769 -5.25806
-19.9688 92.7553 -0.419303
-16.7286 90.5096 -11.7225
-37.5944 90.943 -12.3455
-22.9135 87.698 -10.4429
-25.5253 99.1439 -12.1247
-33.8123 97.1061 -11.3405
-19.6938 137.107 -4.80162
-25.7465 102.407 1.67303
-24.3683 127.481 -6.91614
-19.1564 147.885 4.67375
-32.5158 101.028 -2.51512
-12.2226 102.969 -2.1632
-12.5719 140.15 2.13408
-30.9682 96.1427 -3.56663
-21.3041 120.708 7.79672
-1.15989 148.754 -3.86638
-37.8977 86.1091 -3.64801
-7.35571 112.119 -0.402923
-14.2832 145.724 -6.02753
-12.6868 146.011 -6.27659
-7.76472 135.011 2.84573
8.21571 147.563 -5.71631
-31.3689 128.44 3.34579
-23.7077 135.986 4.12986
-22.1503 116.566 7.02721
-7.94425 149.81 -6.34139
6.67205 148.929 -4.74725
-27.7504 131.928 -6.20877
-31.9309 98.232 -3.62409
-26.3137 128.794 -4.75426
-25.5994 103.528 -13.4619
-9.14403 105.314 -3.53447
-24.8589 112.281 -13.6571
-18.0274 138.34 -3.17952
-14.8698 149.728 -3.63018
-2.28265 115.124 -4.56871
-23.0312 82.5688 -12.1169
-24.9394 127.434 -5.37201
-35.6776 86.4028 -11.2532
-4.60319 132.821 -9.0415
-23.3449 87.5119 -11.2507
-25.5392 133.724 6.22261
6.24863 149.306 0.982905
1.11238 123.553 -12.1373
-11.3241 133.795 3.61036
9.80058 141.151 3.81266
-32.1768 109.371 -11.1697
-25.9605 105.786 -13.6196
-22.6253 84.4864 -11.98
-26.0506 92.0128 -2.51528
9.35892 143.541 2.97215
3.11065 136.8 -0.805851
-27.7513 124.884 -6.27562
-24.2033 128.633 -6.9231
-23.4036 87.925 -1.91085
-23.5154 107.871 -13.0227
-15.8296 151.378 -0.892349
-0.841386 128.242 -0.661662
-27.4925 128.076 4.40576
4.84476 129.979 -0.416369
-16.8869 147.742 5.03857
-0.543005 121.575 -3.7092
3.26785 134.92 -0.316427
-7.17483 113.131 -0.201915
7.0837 133.331 -9.72638
-6.09511 114.036 -2.62361
-18.3319 121.733 -10.9876
-12.0381 139.34 1.9961
-8.65755 131.009 4.30391
-23.6505 133.054 -7.39433
0.917939 139.877 -7.89683
-27.5082 129.473 -2.75116
-40.021 93.0995 -8.90564
-12.2014 127.89 6.32062
-23.1116 129.011 -6.8737
-20.9937 138.337 5.9931
-14.3389 143.699 -5.89792
-10.1936 127.168 5.0432
-23.5927 128.438 -2.34104
-4.38556 121.075 -0.656111
-9.55806 123.377 4.05223
-23.5102 127.973 -0.514657
-17.608 141.422 -4.99858
-8.05789 123.391 -12.7703
-25.6862 95.7016 -12.7594
-11.3008 129.695 4.1922
-21.174 91.4336 -0.834881
-38.297 90.2237 -9.05703
-25.7738 126.241 -5.687
-30.7286 128.732 -0.899389
-34.2429 102.949 -3.43966
6.03258 149.352 -4.32875
-14.1626 101.979 -12.6023
-10.2888 140.049 2.4717
-35.6353 85.0779 -3.61062
-18.0882 96.0112 1.00672
-27.5182 128.667 3.48086
-36.2814 102.83 -11.1171
-13.1193 134.039 -8.7793
-14.4185 112.641 -14.6221
-30.75 99.8605 -2.22671
-22.3442 137.706 5.546
-12.6518 94.8572 -12.6196
1.93837 129.179 -2.32948
-23.8363 134.06 -6.64673
-39.8682 90.0816 -7.30297
-25.1667 115.921 3.81597
-15.569 92.8048 -11.6341
-8.83333 135.944 2.97247
-18.5537 94.2896 -10.6115
5.28053 142.985 -0.209158
-19.4376 113.034 -13.3689
-29.4903 129.944 5.35768
6.24875 151.79 -2.09298
6.84571 132.964 4.50605
-27.254 126.737 2.52493
-27.2897 113.585 2.61142
-24.8205 126.119 4.58137
-0.120555 123.048 -11.9374
-11.7556 104.425 -0.4759
-17.393 90.4158 -11.4175
-26.2563 83.6907 -14.6343
-4.9757 119.32 -0.476895
-28.3084 125.492 -1.19242
-39.682 90.5232 -8.11267
10.3644 141.386 -2.70476
-19.2695 120.552 -11.2002
-10.7655 124.72 -10.2642
10.0818 152.917 -0.0622971
2.71302 130.638 -2.14226
-29.1839 110.172 1.14597
-20.7642 105.337 3.89658
-2.27597 124.451 -1.79454
-7.43177 147.897 -6.88893
-27.5481 126.97 1.49109
-6.18801 125.961 4.01739
-29.9756 108.483 -12.6687
-11.2209 111.059 -14.7442
-6.10698 146.064 -6.75799
-11.4064 99.1456 -7.05307
6.94397 137.244 0.0184967
-17.1772 99.5959 1.08986
-32.7194 106.017 -1.60533
7.25539 144.132 -7.47217
-9.25512 116.17 -14.5086
-15.3869 129.542 -9.15807
-20.6578 148.107 3.36966
3.24175 131.926 -2.04128
4.79309 128.375 -11.7558
1.02016 124.312 -11.9588
-36.9001 95.9996 -6.38033
-11.9789 111.856 2.46959
-15.0756 90.7184 -7.86554
-26.758 102.232 -13.2533
-20.0413 97.5274 1.72617
-30.0284 99.197 -2.1115
-10.8026 143.486 -7.34785
-22.5124 104.679 3.90119
3.11047 127.07 -1.78494
-22.0459 132.123 6.10526
-0.0344686 154.135 -2.07191
-12.2827 152.662 0.290747
-36.1812 102.977 -11.1574
7.50878 138.686 -9.00787
-24.1288 129.087 -7.80729
-10.8084 120.664 -12.965
-1.01117 127.005 -1.63968
-25.3257 135.366 -5.11982
-9.23827 153.26 -0.22064
-23.8351 111.498 5.38844
-24.0263 113.82 -12.9321
-1.30737 141.125 2.25538
-8.21829 139.541 -7.42401
-21.2786 125.507 7.99018
-22.6151 120.142 6.98411
-28.983 95.2546 -3.69499
-23.9956 112.736 5.6647
-15.2455 140.85 4.08805
-24.2808 89.5932 -10.7473
10.0402 145.416 -4.69642
-40.0118 86.7153 -5.87529
-11.2031 119.406 4.55986
-29.6096 115.571 -3.04907
-0.0247848 138.209 2.23964
-14.197 93.2755 -12.1689
-7.62156 105.952 -14.618
-18.0775 137.428 -3.7826
-28.968 120.221 -10.0295
-18.2035 123.502 -10.0357
-18.5564 138.43 -3.69955
-15.5231 140.321 -7.39515
-7.36465 137.606 -6.03906
-21.6149 91.5148 -10.683
-12.3475 140.121 2.02956
-30.1557 111 0.297732
-14.5137 90.7985 -6.48129
-20.3 133.798 6.72046
-15.5027 115.332 -12.3822
-17.5418 90.1461 -3.99686
-30.0723 121.715 -3.06694
-17.019 88.1398 -7.21684
-37.9156 96.54 -7.00062
-9.6144 101.41 -6.40181
-24.3137 127.711 -5.89654
-28.6052 102.883 0.483047
-27.36 103.824 -13.478
4.376 143.728 0.0056966
-25.3506 130.389 6.19895
-1.76661 116.37 -13.3901
-34.6044 106.155 -4.90652
4.34751 147.899 -4.39313
-26.575 129.357 -3.9575
12.004 144.158 -0.717085
-28.1956 127.341 2.54354
2.85059 149.333 -2.85367
-10.4462 142.999 -7.80626
-32.2592 108.244 -1.66284
-16.7492 93.7653 -11.4347
-12.4396 99.1067 -6.60783
-35.5066 106.366 -9.22357
7.81773 135.297 -9.56782
-35.9405 98.6647 -5.00222
-27.9771 127.777 4.69573
-23.957 128.26 -6.38446
-3.22861 125.334 -11.9598
4.27707 126.753 1.04488
-5.0812 113.278 -13.3765
4.68398 155.127 -1.38603
-26.0322 90.3502 -1.76568
-0.418784 127.369 -11.0304
-17.5167 107.01 -14.2478
-9.72043 100.985 -13.4326
-21.0386 104.661 -12.598
-24.404 143.415 -1.00955
-24.9035 128.165 -2.9413
-28.7478 96.4497 -2.95692
-11.1471 112.785 2.48358
-23.6897 131.829 -6.82815
-15.6514 140.723 4.28844
-29.7224 112.838 -0.840896
5.46507 128.768 5.22806
-22.5058 135.97 -6.59301
-36.6173 96.8677 -10.9304
-30 117.49 -2.42093
-21.8604 94.4389 -0.823084
3.31998 133.968 -10.0484
-28.1429 87.4313 -9.76324
-17.4217 141.075 4.487
-11.1765 130.474 4.13596
-4.46668 145.219 -5.46195
-29.6304 84.1124 -4.89084
-18.5431 85.6907 -10.9141
-21.8991 121.633 7.24822
-1.97836 140.193 -5.92726
-25.926 127.838 0.0795434
-29.8492 85.1643 -12.6834
-30.08 113.794 -3.60051
-21.4028 104.001 3.7296
4.95472 144.181 0.0459445
-26.6248 125.09 -7.82939
-23.2272 128.057 -2.31907
-14.8657 148.392 -4.48816
-29.7427 114.004 -11.3351
-35.253 86.9816 -11.2862
-19.4466 134.676 -6.78808
1.24716 150.061 -3.05977
-14.2805 130.385 -8.45335
-2.89715 145.582 -4.38449
-31.9791 112.271 -6.03523
-9.41303 104.984 -5.11056
-14.0923 141.054 -7.88952
-31.9834 111.461 -3.30811
-25.325 128.268 5.2448
-30.3262 102.307 -0.655732
-23.6272 122.102 5.99617
-7.7171 118.006 -14.0411
-14.1772 152.319 -0.33461
-20.9235 91.8184 -0.904507
-27.3663 126.959 -1.75233
11.5053 148.937 -0.413701
-29.7228 131.048 4.20057
-39.2217 88.4547 -8.33731
-13.9314 115.486 3.725
-12.7558 103.328 0.0226905
-7.0852 139.28 2.5844
-1.42296 130.171 1.78198
-4.06922 122.639 0.600851
-9.91457 105.538 -1.21383
-17.4104 135.362 -6.53179
-34.3547 108.474 -7.07928
0.620133 129.378 -1.93711
-26.7883 83.7245 -12.5926
-15.7606 141.318 4.42431
-17.1647 93.938 -2.47247
-27.2223 129.361 5.16631
-0.891158 116.837 -3.82615
6.30091 136.769 -9.30733
-23.876 127.327 -9.38151
-20.25 147.526 4.25325
-28.2959 123.238 -9.22977
-19.8103 100.318 -11.7093
-29.1578 105.247 0.97436
-8.3266 111.992 0.894665
-30.3656 83.0849 -5.65352
-13.5099 111.75 -15.0026
-1.52793 146.294 -3.79138
-10.9417 152.66 -1.50877
-15.7058 145.561 4.57868
-21.2589 127.235 6.42639
-9.0324 142.791 3.96481
4.68451 150.167 -2.49581
-5.2838 134.205 -7.38257
-6.04667 153.256 -2.37491
-22.4808 137.303 4.65715
-26.5244 123.904 3.24031
-9.67952 107.904 -0.464232
-28.0191 110.445 2.10329
-23.9514 109.856 -13.2245
-27.1856 87.9395 -9.77686
-16.7961 131.957 6.31259
-23.5068 114.122 -12.6777
-13.4964 147.887 3.4282
-32.7959 90.1526 -11.7429
-31.4822 83.4941 -5.46742
-18.7615 101.776 1.69467
-19.4229 91.0024 -0.530935
10.4348 141.675 -3.08902
-30.1952 115.546 -3.73329
9.38586 143.03 -5.63041
-30.7085 105.644 -0.148181
-20.2145 101.018 2.21907
-5.22076 136.152 -6.1242
-3.33911 118.303 -13.5004
-34.4052 96.7302 -5.01584
-26.6996 128.134 0.63709
-21.3745 96.4032 0.987411
-22.9022 126.921 1.15367
-28.817 111.685 1.76624
-2.65597 143.649 2.34447
-25.2477 117.088 -12.6282
-26.4486 128.051 0.517792
2.72777 127.586 -11.8432
-23.1633 131.507 -3.581
-37.2362 85.4776 -8.19195
-30.402 134.135 -0.737967
-24.2021 127.573 -3.80696
-22.5168 90.3283 -0.985492
-28.3605 117.083 -0.89664
5.24189 149.594 -3.48438
-23.7659 87.1768 -10.9039
6.82882 144.52 -7.34181
13.8249 148.099 0.333126
-30.8109 116.854 -3.59205
-30.478 132.055 2.2881
-20.6145 136.261 -5.57705
-8.954 134.145 -6.34415
1.30844 132.954 -0.0625004
-7.53122 109.027 -14.9997
-17.0164 141.518 4.42415
-36.2677 104.664 -9.02963
-30.5675 133.644 -0.0758998
-19.6984 133.282 6.37507
-30.0205 109.768 0.665672
-14.8293 148.355 4.34877
-28.8704 137.25 -1.12537
-25.0907 140.729 -2.59267
-12.2646 140.314 -8.82097
-5.49715 130.69 -10.0251
-26.366 129.398 -0.967521
-24.0346 96.9079 -12.4886
-17.1706 103.126 1.02148
-31.623 116.334 -8.99087
-4.01537 132.266 3.9982
-30.3745 120.32 -8.11451
-24.3751 128.836 -6.51775
-0.239544 128.352 -1.6207
-35.4291 101.494 -4.55365
-18.7126 87.88 -7.79204
-27.9956 103.588 -13.4526
-3.51132 139.587 -5.34933
1.13848 126.558 -11.7405
-20.9937 142.023 -3.43195
5.52931 145.724 -6.41057
-27.1035 102.824 -13.4658
-34.668 84.4007 -6.45343
-38.0207 85.3933 -5.28451
-8.08791 140.966 2.09422
-5.74163 122.625 3.08092
-35.8054 84.8743 -3.68211
-39.5276 92.8943 -9.28608
-5.24049 118.333 -0.971816
-22.3753 91.9329 -10.7984
-28.63 85.2211 -10.9399
-6.31905 121.357 3.49511
-24.6224 132.903 6.42243
-21.3826 111.719 5.70814
-7.22905 136.812 -5.51654
-4.3929 120.512 -1.45942
-26.9385 129.089 4.44913
-23.1345 87.9076 -7.7027
-21.2602 140.033 -5.0266
-10.1428 112.279 -14.606
-21.7581 96.0776 -11.4706
-21.7996 138.732 5.67936
-17.3016 133.829 -10.7173
3.04585 134.356 -0.669793
1.31356 131.978 -0.470503
-13.8336 98.8079 -12.0053
-4.58185 144.17 2.87949
-27.3861 114.295 0.531563
-35.0141 107.095 -8.71518
-19.5552 122.755 -11.084
-23.7106 136.922 -6.38141
-25.8299 101.815 -12.8118
-35.3742 94.9779 -6.0111
2.5428 132.322 -10.7558
-31.8307 111.83 -10.0707
-3.3129 122.188 -2.01574
-27.0033 133.724 4.03667
-1.16868 126.022 -2.15326
-24.47 86.3432 -10.548
6.96982 152.579 -1.57788
-26.2465 127.803 4.31581
-9.52082 120.857 -13.4681
-17.9323 107.138 1.95315
-7.93547 140.458 2.18794
-10.9762 142.287 -8.27709
-11.4605 116.64 4.10635
-36.9025 94.3218 -5.54436
-29.733 85.9428 -3.53279
-24.1571 127.624 -2.94126
-15.4642 90.5972 -5.85813
-30.6722 94.0292 -4.55493
-21.1051 88.3637 -9.82309
-30.9208 88.083 -3.20049
4.22905 128.5 2.54671
-12.0295 149.782 3.31898
-12.8545 96.166 -12.6076
-19.5811 112.021 5.17432
-2.756 145.512 3.10336
-31.0723 104.099 -0.351252
-3.93913 116.069 -4.19862
-30.8011 115.237 -9.96928
-7.21351 126.145 -11.568
-23.1063 83.6271 -12.034
-35.2866 93.9259 -5.29247
-6.08194 117.874 1.24057
-24.7577 129.236 -2.33355
-6.89147 107.875 -5.57764
1.06096 122.018 -2.71262
-5.80649 126.5 -12.0889
10.7803 150.447 1.90344
-22.9517 133.161 -4.07576
-22.8555 135.041 -6.67993
-17.5727 144.842 4.71175
7.6929 150.971 -3.9583
-25.6692 126.548 -6.65864
-38.8447 84.431 -6.2242
-25.771 105.601 3.01315
-17.0129 88.2967 -7.42582
-26.6509 86.6766 -5.86698
-34.9412 96.6432 -11.0962
-26.6835 127.13 -2.3689
-23.4448 92.1409 -11.028
-17.4668 123.513 -9.72543
-8.49353 110.438 0.208188
-22.27 96.7125 0.443227
-22.4655 122.224 -11.1895
-15.0752 124.599 -8.94054
-29.0122 128.904 5.54023
-18.3259 150.299 1.19531
-18.7644 107.587 2.51698
-28.3027 87.696 -2.37298
-25.4333 120.622 3.2159
5.43244 146.826 -5.69987
7.008 151.359 1.99693
0.446868 125.204 -11.6479
-14.5922 143.151 -6.33773
-0.489068 152.569 -3.20792
-35.4634 103.962 -11.456
3.2971 124.773 3.47409
-27.1866 132.704 -4.64317
-6.92792 153.997 -0.85329
6.58207 145.638 -6.72108
-30.2496 131.932 2.50466
-22.2268 117.094 -12.7262
-4.33605 131.743 -9.92879
-7.64758 136.891 2.44163
-29.7812 135.618 -0.571073
5.72566 135.298 -9.52414
2.11191 132.736 -1.4189
-29.3459 128.275 5.48368
-1.29106 122.067 -3.52276
-28.4797 91.1941 -11.2726
7.28048 154.791 0.465559
-28.1551 84.8965 -4.75528
-3.66695 146.206 -5.07372
-16.9281 135.018 -9.73938
-26.133 127.701 -5.03504
-16.2065 137.61 5.12862
-5.72991 148.672 -6.15718
-35.2733 100.097 -4.32833
-24.82 131.786 -5.18531
-17.9816 98.7158 -11.0833
-8.85775 138.151 2.1207
9.07029 150.019 -3.55151
-26.2932 94.7852 -12.9199
9.7734 137.565 -6.04739
-25.8834 95.0994 -2.69462
-23.5986 138.147 3.98209
-18.4223 101.381 1.61067
-26.2887 127.843 -5.41344
-18.2289 139.726 -4.59227
-35.9326 102.139 -7.40987
-9.64959 134.599 -6.55821
-18.7941 101.26 1.75177
-12.1167 102.358 -13.046
-24.5569 139.584 3.64363
-20.704 117.404 6.96077
-8.02498 107.56 -14.8756
-38.8245 98.3115 -8.49418
-1.88632 129.834 -10.4233
-9.70059 111.05 -14.72
-8.66322 119.43 3.59918
-20.154 115.63 5.76021
-19.9261 133.779 -7.20229
-18.8245 128.515 -8.89176
-28.0123 127.676 1.07719
-33.782 107.195 -3.59718
-10.4437 129.947 -7.21229
-30.3106 84.1817 -5.08286
-24.1871 139.884 -3.73897
-34.4497 108.109 -7.91134
12.3148 148.441 0.247435
-25.8106 131.271 -4.02342
-31.8581 86.8323 -11.6458
-6.36999 124.559 -12.6784
-35.9687 84.0591 -4.61187
4.49649 142.716 -0.294193
-1.26466 140.532 -6.2579
-16.6366 135.919 5.38729
-15.5607 121.85 6.24839
-24.7237 127.796 -3.87666
-10.0232 140.256 2.56964
4.07229 127.21 0.0600294
-16.4778 143.125 -3.77068
-25.1679 131.848 -6.54979
-36.7354 92.6554 -12.1673
-21.6573 111.585 5.76111
-24.0456 102.407 -12.5831
5.35889 137.64 -1.12395
-10.22 121.573 -12.7771
-13.587 141.928 2.30701
-30.1633 128.844 2.78833
-1.48399 133.291 -9.85055
-26.1744 117.376 -12.3861
-18.3571 136.013 -4.30697
0.82219 145.275 -4.15954
-6.27552 135.934 -5.96635
-21.8328 102.273 3.44207
-12.2832 100.772 -12.4149
-3.01591 118.746 -13.3916
-12.6753 104.536 -14.055
-12.1314 126.532 -8.00127
-18.4146 119.945 6.33849
8.33804 152.912 -1.85815
-23.3334 131.634 -3.35358
-26.9204 84.5485 -5.81523
-6.98676 149.516 -6.34052
-26.7081 84.8577 -6.29699
-19.3684 125.802 7.72902
-33.6418 109.968 -6.42908
7.98755 145.785 0.667807
-8.75872 106.46 -14.3267
-10.975 133.074 -7.04007
-16.1652 146.615 -2.78969
-27.1198 130.237 6.23374
-29.5715 101.553 -0.966174
-1.27235 125.301 -11.1654
-20.215 134.41 -4.18097
-26.9511 132.732 -4.73239
-1.51651 142.879 -4.45548
-26.2954 127.598 0.903224
-21.8371 86.6507 -10.4767
-29.0731 123.623 -1.40981
1.34532 132.231 -0.0977228
-0.0342388 128.862 -10.5738
-21.1606 113.283 -13.0565
-26.5169 132.283 6.81399
-8.24454 109.842 -0.291439
-20.6453 86.9098 -3.70561
-14.9595 149.522 3.91311
-17.727 107.298 -14.3427
-23.936 96.1807 -1.55316
-23.7677 128.875 -3.13154
-26.4429 109.363 3.19266
12.7797 143.033 -0.268211
-13.9742 129.564 -8.37994
-35.5136 83.9344 -4.87102
-4.42667 116.321 -4.06496
-9.4365 120.392 3.59652
-10.2153 128.698 4.38226
-13.7255 152.466 0.630736
-18.5476 141.853 -4.18078
2.71355 136.499 -0.563362
-23.7483 93.6695 -2.06739
-29.9883 121.505 -7.91675
-26.3319 87.0901 -2.90679
-11.6367 139.53 2.02089
-28.1574 129.18 -0.0583353
-9.61222 152.565 -1.83246
-25.2274 129.565 -6.01739
-26.0175 120.069 1.98144
7.53593 154.254 -0.755596
-24.0868 122.955 5.87422
-7.19847 139.254 2.54552
-26.7975 100.214 -0.575832
-29.1081 95.8274 -12.9872
-3.91722 126.883 -11.7511
9.87368 144.945 -5.02501
-17.9779 132.261 -10.2386
-30.7957 102.063 -0.972387
-22.4064 113.29 -13.0397
-34.4769 109.391 -9.14912
-23.6232 85.5591 -11.636
9.31534 154.232 0.412749
-15.2808 94.3651 -6.93513
-29.619 129.637 -3.97025
-30.3869 110.758 0.146092
-4.35862 126.224 -11.9956
-14.9916 136.543 -9.07566
-11.998 96.6527 -7.63963
-19.2903 115.883 -12.7038
-26.0982 132.048 6.72938
-7.40605 115.359 -14.2541
-11.3696 121.765 4.87968
-27.2779 127.935 1.1054
-16.3291 120.474 -10.3648
-27.3734 127.963 3.75984
-13.2332 101.978 -0.527297
4.95174 142.356 -8.00952
-0.531581 124.872 -11.4534
5.99289 133.969 -0.462861
-14.769 146.142 4.65545
-7.69236 135.222 2.79633
-13.9803 99.5392 -2.65972
12.7407 150.396 0.639524
-34.575 96.6593 -11.3002
-35.2089 94.2058 -5.47561
-17.3936 126.572 -8.68668
-15.8366 122.019 -10.185
-9.83228 143.78 -7.33729
-27.4437 100.124 -0.810502
-11.6429 130.785 -7.22605
-24.5791 85.3836 -11.9103
-21.4809 133.995 -6.31973
0.455846 151.08 -3.62592
-16.847 104.469 0.949574
-21.7247 106.819 4.32655
-14.2375 104.105 -13.9121
-23.9987 145.061 1.08147
8.12155 154.518 0.0530196
-32.3953 97.9039 -12.421
5.23135 131.931 2.93416
-23.9613 127.98 -6.09382
-25.3642 89.6314 -10.786
-29.0921 111.652 -12.3854
-21.5569 89.0399 -1.93432
0.49696 123.02 -12.0425
-21.6598 116.339 -12.8709
-33.4302 89.2581 -2.68812
-14.139 100.869 -0.231135
-16.7471 124.048 7.76112
-23.6733 95.8086 -12.1506
-20.9002 137.589 6.30621
-11.5634 128.523 6.03859
-10.4936 138.28 -8.89767
-30.2943 132.097 -1.92103
-15.1315 112.404 3.07225
-39.725 91.2585 -6.31056
-20.932 134.15 -3.9484
-23.5396 96.2025 -12.2046
-11.4805 111.669 2.2322
-19.7009 133.465 -7.5749
5.27101 130.586 0.112009
-32.7784 92.1372 -12.5747
-6.62834 113.59 -1.201
-31.363 104.031 -0.488503
-15.6428 125.288 7.708
-24.1206 117.025 4.39031
-14.6448 113.926 -14.0859
-35.5507 104.27 -7.0711
-18.7322 101.096 1.72102
-23.764 87.0676 -5.77458
-21.8837 131.946 -3.38086
-31.0019 93.6864 -12.633
-8.69833 148.073 -6.98714
-33.3345 109.012 -3.58544
-23.78 129.18 -3.18702
-25.8866 91.6028 -11.7995
6.24861 132.023 -10.5113
-26.8852 125.469 -2.42324
-28.7277 123.026 -4.97056
-27.7175 128.471 -0.34925
-8.21478 125.601 3.39114
-16.8396 140.63 -5.84286
-2.07216 147.098 -4.1409
-28.4866 115.12 -2.17942
-27.9119 132.025 6.54865
-29.8796 135.34 -0.306708
-16.0101 97.7984 -11.5906
-1.07973 118.951 -13.236
-29.7224 127.961 -0.645532
-11.7978 116.998 -14.2794
-32.0695 93.4637 -4.70586
8.5915 150.604 -3.371
10.1635 141.578 3.58912
-39.1832 84.5082 -6.10799
-20.9703 108.233 -13.873
-26.9851 136.545 1.66817
-27.9669 107.437 2.16067
-10.2648 142.897 -7.92309
-29.7764 118.435 -10.2663
-21.7967 130.675 -8.45799
-12.7078 100.11 -5.51226
-9.45937 123.418 3.95936
-8.54452 104.555 -5.75248
-21.4951 119.72 7.61989
-26.7345 135.16 -4.11057
-19.8616 104.975 2.73138
-27.6839 126.552 1.30095
-12.7289 101.556 -3.44719
-6.2664 112.548 -13.9489
-19.6003 117.198 -12.3823
-24.4509 127.783 -5.47501
-5.30551 120.419 1.52348
-32.039 98.5942 -12.8603
-8.14198 124.322 3.28902
-28.2736 112.534 2.15606
-29.089 123.267 -0.665909
-20.702 115.852 6.06769
-32.5057 108.377 -11.8546
-32.299 100.939 -12.8408
-23.1416 88.1003 -6.9476
-18.3312 100.561 -11.3771
-7.45341 131.831 4.20745
-7.0711 116.606 2.1443
-16.9675 140.947 -5.9626
8.15812 137.663 -9.23442
-26.1895 120.819 2.10042
-25.8099 93.8387 -2.77557
-9.87266 128.624 -8.03581
-27.8504 99.7804 -1.03038
3.88091 138.126 -1.09306
-28.71 122.915 -4.82375
-2.95776 118.403 -13.4159
-12.6953 140.388 -8.48743
-31.8754 93.3383 -12.7539
-9.31772 129.696 3.76487
6.20065 133.364 1.12294
-35.0597 103.701 -11.7084
-9.03503 113.467 -14.6649
-3.91056 113.554 -4.85191
-19.2318 144.18 -3.15571
-27.7136 114.673 -12.5389
3.36569 129.781 -11.4516
-18.4104 118.571 5.89473
12.0988 147.204 -1.47758
-13.1666 108.273 -14.8178
-12.1625 102.285 -3.75127
-16.6619 100.537 -11.6387
7.86007 151.358 -3.30383
2.07554 153.111 -2.4623
-12.4953 148.425 2.95961
-17.2918 146.241 -2.34386
4.54383 145.171 0.424448
-27.2765 127.442 2.21385
-27.7814 134.149 1.90125
-11.278 101.717 -5.88846
-29.4688 100.782 -13.4404
-26.3534 126.73 -4.73383
-21.1394 143.962 4.88576
-31.5057 102.64 -1.11518
-25.4978 128.444 -1.58387
-24.2191 138.433 3.36102
-31.3112 86.187 -12.4549
0.194864 142.802 1.93856
-14.6798 151.598 1.46735
-18.3227 99.4304 1.29662
-7.79945 115.839 2.51852
-11.3099 145.338 -6.70604
7.32754 151.705 -2.9878
-21.3755 86.4137 -10.8573
-25.9289 128.014 -5.12133
-18.9841 89.8005 -1.95712
-0.61904 140.027 2.24226
6.93638 145.331 -6.93621
-25.84 127.832 -2.74552
-21.6702 127.567 -9.82
-21.4788 97.3308 1.38123
-13.2103 150.594 2.62461
9.63756 148.488 -3.51252
-27.6799 126.328 2.37204
-15.2582 93.018 -6.93544
-20.2137 108.528 4.36292
-10.8235 111.929 -14.6025
-19.5163 112.048 -13.4207
-1.38062 129.368 -10.4348
-28.0795 134.703 -2.85808
-30.0781 112.829 -11.8863
-2.74274 137.415 2.51576
3.42005 126.234 -0.970054
-7.33314 148.862 -6.70247
-7.02888 111.083 -2.91828
-25.9411 139.084 2.64018
7.51439 137.969 0.430922
-4.37233 121.199 -0.524789
2.21501 124.05 -1.98129
-24.1589 128.194 -3.89124
-23.6342 90.9997 -1.82878
-36.8689 98.9838 -11.234
-32.2466 100.29 -12.8385
-2.75496 126.303 -11.594
0.999092 139.013 2.15902
-23.8759 93.18 -11.5036
-20.0792 107.852 -13.8538
-24.3198 125.738 4.88208
-21.2556 107.121 4.34754
-31.3532 128.135 3.45802
5.08587 148.724 2.04595
-33.9429 110.434 -7.20229
-26.1734 87.319 -2.29412
-11.9669 130.67 4.88344
-16.6428 150.367 2.91974
-20.4947 136.295 -5.57715
-18.5231 121.544 -11.0321
-20.4292 137.375 6.46639
-10.5206 114.388 2.75039
-14.2199 150.327 3.08775
4.10363 146.972 1.9401
-31.9704 102.493 -12.7972
1.58928 126.501 -11.8573
-8.85998 116.783 3.56407
-6.01957 117.219 0.0937792
-4.07547 128.193 3.5538
-28.5415 129.95 5.13361
-27.3502 127.53 0.116914
-22.0836 103.299 -12.5748
-16.0712 98.5753 0.272229
-24.1591 89.7355 -1.60414
-23.5452 129.242 5.59623
-22.1454 87.8841 -10.7872
-35.2451 84.7895 -6.88058
4.20057 127.229 2.50015
-32.0251 99.9237 -12.8843
-19.0809 126.47 -9.32576
-31.4474 86.4982 -11.9633
-23.2129 141.203 4.90344
-2.64633 114.697 -13.1905
-27.6308 101.025 -0.542982
-24.6318 111.961 -13.7448
-24.4432 93.8372 -11.9806
-14.7914 130.085 5.8709
-33.4727 110.385 -6.51559
-24.8264 128.339 -3.74011
-31.6155 112.03 -3.62117
-12.8165 148.558 -5.90037
-10.935 117.793 -14.1533
-15.7622 117.065 -11.3988
-25.2602 142.321 -1.33164
-16.7822 146.653 5.07074
9.33852 137.9 -8.42823
-5.87812 117.455 -0.0236604
-25.338 101.403 -12.4525
-11.1133 112.562 2.43515
-5.17385 136.509 -6.00509
-10.4885 119.015 -13.9581
-0.600001 128.265 -1.05137
-25.0843 128.352 -4.25803
-28.7226 123.657 -1.84993
-15.4349 148.363 -2.55012
-31.1196 119.332 -5.8524
-6.35222 125.037 -12.5518
-26.5536 85.536 -5.85855
-26.2983 97.9755 -12.5886
-17.2003 104.214 1.08746
-22.9477 127.883 5.90159
-8.73786 113.351 2.12636
-12.9279 117.551 4.77497
-19.2948 97.0953 -10.9837
-16.4655 134.851 5.53445
-12.1303 117.398 -13.986
-26.5327 117.405 0.209871
-17.3063 86.388 -13.452
-37.6196 83.4888 -6.26428
-16.0971 151.468 1.57483
-30.403 130.084 -3.1702
-26.0732 127.966 -3.65701
0.509998 127.093 -11.5018
6.04274 132.531 -10.1994
-9.24157 127.937 3.37281
-31.0676 130.354 -1.65515
-19.3764 119.783 -11.3563
-23.0299 106.509 4.44051
-27.451 92.5065 -11.7334
-1.7429 144.011 -4.25655
-17.6374 150.055 2.74268
-22.326 82.3367 -13.3696
-23.8052 117.511 -12.8237
-5.42002 138.054 -5.28108
-5.49302 117.507 -13.1171
-31.0148 85.4474 -3.94021
-19.8793 148.54 3.75313
-0.697892 123.054 -11.8846
-27.4768 103.262 1.14414
-23.2076 125.544 1.2667
12.542 145.494 -0.0203669
-24.1268 129.131 -7.71219
-23.1003 143.883 -1.64285
-17.233 125.72 -8.80357
-16.5963 105.514 0.914835
-24.7879 128.815 -2.9395
-19.0369 100.376 1.66042
-18.6894 138.153 6.12886
-12.116 132.007 -7.59996
-13.053 114.78 -14.5157
4.5716 131.187 -1.44756
0.875976 139.282 2.16166
11.1259 150.494 1.83697
-13.3496 93.2479 -12.6116
-14.9459 91.7206 -9.72349
-28.3499 86.4617 -3.11082
12.8962 144.683 0.117531
-28.4109 138.947 0.271127
-8.10581 142.203 2.82605
-7.0315 112.866 -0.702307
1.94855 125.756 -2.56503
9.46384 138.938 -6.9992
-24.5734 118.302 -12.612
-21.5916 89.6122 -10.4312
-19.9938 111.382 -13.5446
-33.5102 99.7488 -12.5585
-20.7821 125.284 -10.5158
-24.1136 112.347 -13.8438
-0.901383 132.206 1.92665
-19.4134 135.604 6.59008
-19.3906 123.632 8.66613
-23.3558 120.634 5.13588
-25.6142 125.215 -6.28479
0.0928083 137.054 -8.96883
-5.26232 140.327 2.66724
-35.4402 87.1318 -10.9944
-26.3695 131.392 6.29176
-20.6079 95.0253 0.660849
-36.0225 91.6763 -12.4783
-14.0219 127.021 6.95431
-14.0265 126.794 7.06649
-9.28732 105.544 -2.26111
8.84853 141.175 2.37126
-35.9635 104.221 -10.2047
-38.3988 88.3003 -12.0654
-20.6919 124.548 8.10051
-12.0473 142.864 -7.65531
-20.2467 104.263 2.95227
-34.4504 97.544 -4.59312
-3.52488 121.501 -12.7609
-7.08427 110.771 -14.7969
4.56989 129.832 -11.3633
-27.8607 128.021 4.41999
-8.73467 150.17 -6.16259
-18.5955 134.47 6.30367
-12.0368 139.279 2.01385
-21.0582 148.491 1.96592
-6.20168 112.304 -4.37173
-17.0013 127.807 7.60194
-4.6876 121.826 -13.0364
11.9192 142.475 3.68902
9.64016 137.986 -6.31137
-26.1391 85.5782 -11.1551
-17.5371 140.414 -5.13305
-23.3791 139.658 4.83879
-14.9923 99.6921 -0.0974838
-8.47719 115.566 2.86558
-18.4609 131.468 -9.45096
-34.0945 95.4166 -5.54842
-0.850301 118.757 -13.2899
9.35066 138.955 -7.58738
-4.15893 112.185 -5.11116
-26.325 126.22 2.67452
-23.7106 128.576 -3.24295
-11.9897 129.412 -7.50494
-16.9414 97.9248 0.582669
-26.3493 134.292 -3.99681
-6.38163 113.081 -2.81433
-14.6944 90.5396 -6.47473
-11.1945 103.963 -2.13558
-32.2942 96.5682 -11.8297
-20.4926 146.588 -1.89884
-22.6738 114.063 6.58505
-14.5055 140.349 -7.93904
4.32562 130.013 -1.23312
-29.7726 128.265 3.48458
-39.441 90.0474 -8.34872
-23.982 135.648 4.53819
6.65882 142.497 -0.223322
-26.5154 96.6117 -12.9621
-16.2714 121.084 6.21532
1.75673 122.611 -12.2903
-9.28693 129.391 3.65424
-13.6648 101.118 -0.626881
8.3223 154.095 -0.550152
-1.78307 128.916 1.88821
-31.9693 86.6667 -12.0453
5.75804 154.139 -1.47876
11.4142 143.131 -1.30958
-22.2086 141.157 5.38434
-10.188 100.082 -6.80834
-28.2424 92.5929 -12.035
-23.4776 87.7187 -7.93596
-0.9119 140.405 2.18078
8.56238 152.943 1.49227
-21.3222 103.626 3.66477
-17.2191 123.763 7.91139
-27.5637 125.692 1.84749
-18.4848 87.2839 -10.5705
-22.5193 139.074 5.55157
-3.04399 119.541 -3.67039
4.68557 127.952 -11.8662
-25.5067 93.2248 -2.74579
-29.2399 130.428 5.69602
9.13191 143.978 -5.84437
-28.6931 128.726 2.20063
-20.8295 95.4392 -10.956
-21.5535 139.361 5.59081
-12.633 121.393 5.71387
-32.0962 104.163 -0.886334
-30.0252 128.689 2.72568
-7.5128 121.576 3.37477
-27.4463 123.434 1.08991
-14.4105 98.8326 -2.17674
-14.9964 94.8343 -11.7509
-1.12872 124.919 -2.62685
-5.92999 152.425 -4.15137
-21.6805 123.569 -11.1665
-7.9896 118.111 -14.061
-4.46969 116.923 -13.1515
-7.22494 137.725 2.4936
-22.891 130.482 5.00157
-31.572 107.45 -0.658131
-2.56629 129.932 2.78315
-32.1686 108.762 -11.6716
-24.1903 89.2883 -10.4594
-35.6773 94.8904 -11.1038
-28.6434 83.901 -5.04016
-7.4245 138.024 2.43076
-20.8476 90.7424 -10.5277
-24.9498 131.592 7.3764
-23.7249 82.6546 -14.8245
-18.8847 89.3022 -2.28786
-2.47692 125.502 -11.6006
3.85373 131.674 -10.8933
-19.8198 141.799 -4.02861
-19.8147 145.54 -2.71796
-32.1946 112.689 -9.42587
-27.1172 121.939 1.62285
2.95278 124.278 4.31416
-9.61651 105.663 -14.1035
-33.8294 105.891 -3.16006
-7.97765 136.273 2.68142
-30.3657 118.856 -9.24067
-13.2431 143.365 -6.88225
-28.1015 124.647 -8.23554
-9.65149 118.878 -14.0118
-25.9722 123.454 3.55132
-28.3341 124.048 -8.65916
-13.5403 103.851 0.0230523
-18.866 126.92 -8.95387
-3.38376 142.8 -4.41943
-6.15319 140.413 -6.0332
-12.7867 147.793 2.92137
-18.0946 133.236 5.86399
-22.9898 101.667 -12.0793
-24.4247 118.647 -12.55
8.96858 146.242 1.26733
-39.3114 92.4647 -6.31571
-18.9903 96.0152 -10.6991
-29.5659 122.16 -7.1114
-21.8801 86.5762 -5.18387
-29.2961 84.9775 -3.74821
-22.4362 105.346 -12.9574
-27.2594 127.203 2.80734
-9.38419 152.717 2.26926
6.11105 135.671 -0.68561
-33.7429 87.3784 -11.9426
-24.977 127.106 -4.04724
6.00267 142.584 -7.99257
-13.8027 108.051 1.0053
-5.70462 131.097 4.37037
13.9311 148.091 2.66143
-14.914 143.131 4.00338
11.8196 151.495 0.881773
-24.5051 125.261 -9.7887
0.743917 151.551 -3.52631
-25.2382 126.048 -6.18715
-20.0595 108.106 4.03939
-23.1521 111.325 5.57269
-30.2775 107.016 0.534188
13.6499 147.949 2.72796
-10.8236 129.898 4.0887
-25.3366 122.268 4.11151
-29.0079 127.978 -1.67393
-15.0439 146.433 4.67566
-22.7729 87.4535 -5.99765
-27.3125 89.2857 -1.85094
-18.8896 126.945 -8.9647
-12.2378 134.854 3.77032
-11.4354 116.325 3.93705
-20.1657 118.271 6.92481
-24.7269 99.1149 -0.27007
-13.983 97.4859 -5.32878
-6.3022 112.184 -14.04
-12.8941 128.401 -7.88314
-3.7795 119.047 -3.29708
-31.0483 130.53 -1.70207
-5.06119 134.924 -6.81792
-4.15009 133.623 3.53433
-1.11695 137.432 2.31224
-22.5321 99.7635 1.41992
-27.3746 132.65 6.50801
-19.3895 138.301 -4.01142
-28.786 113.807 -0.797278
-13.2567 102.533 -13.0866
-22.5942 85.9932 -10.956
0.433888 134.224 0.931083
-38.4744 89.2814 -8.65625
-7.60776 124.377 3.46083
-39.9309 85.2869 -5.03617
-33.5979 92.9792 -12.5773
-13.5231 113.093 -14.7882
-7.86515 126.686 3.60003
-5.82326 128.07 -11.2331
-37.4585 88.9996 -11.9268
-29.3171 127.13 1.9029
-20.69 88.7523 -9.7954
-18.9139 102.474 -12.4153
-14.6917 122.981 -9.54297
-25.234 110.4 4.40589
-33.8508 87.725 -2.75164
-18.9037 126.149 -9.29684
-34.9208 94.931 -5.90267
-30.4187 121.063 -6.00617
-38.1162 85.7912 -8.28815
-26.4432 141.869 0.76924
-29.8281 108.969 0.857051
-17.7179 136.063 -5.38939
-9.56811 108.003 -0.420671
-16.3426 90.7678 -5.10506
-2.21609 136.569 2.66068
-13.452 110.09 2.01425
-21.7057 87.8682 -9.658
-1.17592 140.683 -6.24181
-7.89443 127.072 -10.8154
-27.4403 127.395 -0.0741795
-4.04056 134.421 3.43529
-30.2562 121.249 -5.00608
-30.5707 113.3 -3.79259
7.81266 135.194 4.60719
-32.9921 83.3634 -6.7863
-15.1883 92.3854 -5.16006
-23.1467 129.288 -6.84804
-24.1863 86.789 -2.64293
-34.2854 105.14 -11.8484
-22.6207 82.815 -12.0298
-38.2385 86.6368 -8.57991
-33.5834 99.2166 -3.50811
-12.9236 101.988 -0.8124
-27.8818 113.094 2.02772
-26.8267 132.142 -5.7756
-20.4826 137.64 6.42723
-37.8129 88.0489 -9.1005
-11.7815 99.0713 -12.8152
-26.1188 127.868 4.22955
-30.0428 121.275 -6.21363
-14.6108 133.419 5.19328
-20.8728 86.6867 -13.8588
-30.6926 118.065 -9.17586
-17.8794 134.161 -8.54617
-4.83358 122.355 1.88056
8.87162 139.371 2.15898
7.27837 139.244 -8.87793
-34.6916 103.091 -12.0066
5.22446 140.647 -8.87781
-15.0584 142.802 4.33761
-17.9314 106.816 -14.0565
-22.286 115.014 6.47319
-14.5652 100.864 -12.0764
-11.5237 106.421 -0.667797
-17.5354 132.693 -10.5707
-29.9713 119.488 -9.434
-33.7716 104.339 -12.2463
-14.7144 116.003 -12.738
-13.9871 131.657 -8.27048
-3.69759 136.843 2.97979
-18.9954 142.024 -4.2436
-6.12587 149.082 -6.19051
-15.6497 99.4723 0.343264
-17.1225 100.908 1.25018
9.4963 146.96 -4.5935
6.48174 138.788 -0.498674
-24.405 126.649 -2.38125
-20.1514 100.498 2.1039
-22.6314 99.7766 1.35541
0.876429 145.606 2.6932
-18.6145 146.081 5.29746
6.42167 147.133 0.490628
-9.81417 118.465 -14.0499
-34.5158 97.2407 -11.1827
-17.1672 88.7995 -12.5685
-10.7343 104.375 -1.99763
3.3413 124.73 5.90421
-18.2215 132.123 -9.96394
-35.2494 88.642 -3.09186
-25.9701 129.739 6.19724
-9.58875 123.625 4.08917
-1.9834 135.165 3.0265
-23.1473 128.709 -6.94976
-17.5069 127.973 -8.70753
5.30812 130.297 4.74788
-31.6065 86.3855 -10.9674
-30.4384 93.6058 -4.33664
-31.3706 99.9803 -2.51878
9.39802 151.027 -1.70047
-11.2283 107.358 -0.480953
-16.9848 90.9391 -9.49997
-1.06607 117.803 -4.07447
5.81208 154.623 -1.32722
-23.5956 144.385 2.91313
-20.568 139.214 5.80653
-16.7048 87.4808 -12.6517
-32.9373 86.0569 -4.07941
-22.4522 144.544 -2.15961
-23.6147 96.0068 -1.4712
-3.18507 150.559 -4.78487
-18.9065 135.472 -5.26233
-19.991 132.421 -9.01238
-12.7018 126.418 -8.1932
-26.0899 111.267 -13.7492
-22.6058 86.6893 -10.2058
-11.9583 124.413 5.97057
-6.83009 107.469 -14.9935
-15.9459 114.308 3.71653
-14.3167 99.2845 -1.62013
-24.6663 86.9898 -10.5451
3.3726 141.872 0.217844
-20.4384 117.697 6.87647
-6.19432 113.815 -2.53077
-31.1045 130.804 2.4143
8.02805 151.067 -3.42341
-24.1047 127.293 -3.51753
-22.9184 82.4744 -13.9587
-27.8378 127.999 3.86128
1.47049 145.093 2.24678
-1.78554 136.39 -8.15775
-26.7981 129.561 5.67913
1.17913 130.549 -1.78481
-27.1931 127.169 3.17604
-14.7612 136.53 -9.72511
-38.5244 89.925 -4.62044
-3.69616 142.43 2.42221
-20.6761 91.8789 -0.903891
-19.5271 114.973 -13.0466
-12.4101 134.544 -8.45334
-34.3224 95.6268 -5.5799
-11.6066 118.213 -13.9801
-27.3495 128.982 -2.40287
-24.8942 102.177 2.01858
-26.0692 122.037 2.19737
-0.837796 128.517 -10.5473
-23.8648 130.395 -5.24248
-29.4442 83.7553 -4.49853
-37.158 88.1023 -10.5468
-31.176 113.539 -5.62719
-13.1481 103.996 -0.0567329
-11.7069 146.663 2.48506
-13.1705 102.532 -13.1021
-7.84445 129.117 3.70731
-8.00914 106.033 -3.51869
-26.3818 141.136 2.0729
-17.521 115.194 -12.3618
-21.8972 89.7202 -1.41526
-34.6658 93.1024 -12.0064
-4.11434 112.66 -5.01096
2.55123 138.054 0.0532849
-31.0757 117.231 -9.16857
-13.6569 110.722 2.42282
-9.22329 129.644 -7.80225
-31.5323 101.156 -13.0162
-7.21832 115.037 1.28693
-10.1798 149.243 -6.65594
-23.8375 90.0614 -11.0123
-25.4007 88.2352 -1.77747
-23.3189 85.5312 -11.6802
-12.7775 103.728 -0.0567337
-38.2293 89.0452 -4.16441
-16.3997 133.738 5.50029
-2.36585 139.824 2.395
-31.3265 110.516 -1.35996
-20.403 111.478 5.31012
-16.6977 113.235 -12.8038
-5.34036 116.972 -2.32686
-36.7075 97.7922 -11.2152
-25.5987 127.533 -0.535723
6.42777 133.965 0.919959
-26.5542 101.332 0.284739
2.50933 128.366 -11.6385
-27.9338 124.202 -9.01828
-16.4305 88.5619 -7.30772
-1.40901 136.481 -8.52238
-27.5891 127.749 -1.34129
-13.8315 118.815 5.46347
-20.1832 100.534 -11.7709
-26.2233 139.302 -2.18706
-27.4676 133.723 -2.88066
2.21462 149.974 -2.77509
-26.1013 117.896 0.531829
-18.4657 135.877 -4.66659
-4.26078 154.215 -2.03729
-20.1657 138.653 6.15934
-16.4963 95.4826 -3.76391
-18.4213 101.757 1.57706
-1.33495 149.015 -4.00235
-25.1101 129.061 -1.5746
-23.5362 128.777 -5.15741
5.96639 153.586 -1.53561
-26.7346 129.832 -0.819308
-29.3704 107.354 1.22819
-39.0271 97.7873 -8.09763
-1.85315 133.207 -9.86788
-15.5274 146.283 -4.73572
-18.0171 123.377 -10.0352
-18.2615 88.5915 -9.80116
-30.6798 103.222 -0.361615
-14.3774 92.6157 -12.283
-19.7844 107.086 3.33363
-12.817 132.586 -8.01231
-32.2875 111.747 -6.37428
-23.2387 128.822 -6.98968
-23.1161 138.243 -6.35414
-33.045 96.5057 -4.32418
8.21112 148.907 1.24806
-6.17559 118.23 -13.4581
-31.1812 105.644 -12.7584
-23.206 102.055 -12.2564
-19.19 118.493 -11.9139
-10.9113 127.664 5.66628
-6.85793 153.704 -1.36501
-17.4223 90.5664 -9.88634
-20.3135 88.3654 -7.03895
-24.5225 117.929 3.39815
-33.682 106.467 -3.14622
-32.4327 110.951 -4.15276
-16.9645 102.616 -12.6901
-19.8181 88.2972 -10.4858
-21.1482 126.615 -10.1332
-14.2547 146.094 -5.99806
-12.9808 139.61 -9.20617
-11.7847 129.443 5.34922
-37.5328 93.7392 -5.48049
-13.1818 141.109 -8.00344
-12.6473 144.921 3.5574
0.0314323 120.321 -3.49902
-29.5679 113.606 -11.925
-37.5129 95.6337 -6.13967
-36.3018 95.0428 -5.95668
-0.222388 128.807 -10.4939
-37.3084 84.3595 -5.31225
-21.1903 135.817 -5.44351
-32.121 110.994 -3.14664
-32.4234 92.6754 -12.5719
-12.5353 130.344 -7.55931
-7.81164 129.874 -8.77669
6.55633 148.409 -4.98092
-35.4742 93.228 -4.85733
-18.1827 98.7782 -11.1571
-5.06649 114.463 -13.2796
-25.4315 138.621 -3.89171
-11.3521 152.315 -3.77187
-14.5407 126.281 -8.56209
-5.59395 125.932 3.62321
9.16396 142.134 -5.99138
-12.5998 151.67 -3.73291
-27.7033 137.485 0.904609
4.50521 134.641 -1.04673
-26.4258 140.415 -1.56868
-40.029 86.4113 -5.79956
-24.0623 104.148 -13.3366
-6.41726 109.145 -5.42581
-22.9601 145.593 -0.814225
-16.4698 115.868 -11.949
-15.3626 111.654 -14.7219
4.38795 135.427 -9.85822
-20.2438 108.69 -14.2319
-36.6553 89.1923 -3.55341
