ply
format ascii 1.0
comment Created by Open3D
element vertex 1903
property double x
property double y
property double z
end_header
20.3518 141.782 -2.38049
-13.1774 88.1096 -6.70752
0.261568 142.792 -3.92874
-17.9575 96.6045 -10.3465
-24.3375 128.607 -0.744869
-25.965 138.071 -1.1918
-21.2155 103.198 2.33058
-36.9569 89.1239 -4.92092
-25.2739 114.178 -12.7075
-34.403 106.9 -12.5247
-20.2413 132.457 -6.18398
-27.954 94.525 -12.8052
-4.61497 150.636 -5.07728
-20.27 118.513 -11.5095
-24.5586 99.0955 -12.787
-27.6866 133.855 2.15049
-21.8874 91.7284 -9.89674
10.7678 128.347 -7.10783
19.4188 124.448 -5.10493
14.3283 125.574 -15.1496
-24.9459 116.315 1.76684
-22.399 141.495 5.06946
13.3251 123.379 -2.15269
-14.7866 133.685 -9.90112
-9.67771 104.847 -0.462507
-23.2582 115.535 4.96306
-2.70931 102.908 -16.2505
11.7102 115.859 -3.4221
-17.7893 107.746 -14.0786
-23.9091 126.472 -2.39502
-26.2791 101.202 -1.47935
8.36196 128.061 -9.11656
-38.8605 96.2204 -9.44596
14.2059 137.164 -7.67882
-36.5996 92.6106 -6.74714
12.8706 148.562 0.109928
-29.8771 107.947 -14.1055
-12.971 127.043 6.68926
8.8894 105.264 4.05684
3.43744 86.997 -2.70709
-2.59777 136.287 -5.3344
18.5283 144.938 -0.727738
-19.228 130.431 -8.38781
5.75872 145.66 0.93832
10.2599 125.358 -13.5661
-24.0419 137.917 -3.8247
-14.7706 135.976 -6.99049
-39.2095 97.4126 -9.934
-24.0967 117.858 -12.7763
-31.5534 92.4431 -4.8122
-10.832 93.2608 -6.21927
10.4329 136.91 -5.5049
20.7977 133.166 -2.69518
-31.6244 112.281 -11.2094
3.53437 140.592 0.987314
8.84888 107.806 -9.38924
-9.0523 128.019 -7.06005
-15.5517 94.0096 -3.32587
6.85164 124.384 -10.1002
8.28177 140.565 -0.200154
-6.18859 100.433 -16.0789
11.9511 106.488 1.00424
-8.61565 130.332 4.59509
-27.9755 129.368 4.93364
-12.8602 147.703 2.5136
10.3599 141.885 -5.31872
0.25239 121.074 -13.8062
6.61974 107.108 -13.1785
6.92571 118.202 -10.5299
-21.1055 146.999 3.27806
6.47727 131.242 -12.4756
-1.86143 105.087 -4.47893
15.1086 126.416 -2.21244
10.8993 136.026 -5.37516
-7.63676 140.628 2.13006
14.8122 134.499 -0.52276
19.9787 128.147 -3.20814
-3.72065 145.946 -5.33566
-10.7701 111.427 -15.5129
-38.237 98.2238 -9.28681
-19.7562 143.394 5.64577
7.1607 129.403 -12.9901
12.9439 129.947 -1.06084
11.4448 132.824 -6.37606
18.4481 119.325 -8.10188
-8.32862 145.09 -7.85435
-7.14756 90.396 -4.21395
-6.81994 98.1727 -15.4373
-0.482531 104.963 -15.5161
-27.0059 124.51 -10.0831
13.257 123.331 -14.7869
-17.9673 116.506 5.35238
-20.0241 146.127 4.80573
-25.2611 138.847 -1.56123
-5.63 132.199 4.21057
-16.592 147.205 -1.60895
10.8546 130.822 -6.52162
-20.1416 112.536 -13.3146
-22.1296 134.684 5.32187
-3.86397 150.233 -5.27119
-1.48148 105.288 -15.8455
1.41378 123.167 -2.68134
14.2532 142.89 2.28988
-18.336 103.811 -12.2656
6.05725 115.942 -14.5975
-13.887 138.344 4.0143
13.7979 141.757 -3.07795
-20.1458 129.88 4.43996
-25.6405 119.826 0.41142
-27.0355 127.844 0.0329054
9.05286 145.78 0.619131
-4.71474 150.657 -5.10821
-15.3513 111.522 2.86999
-11.4355 139.554 -9.16378
-9.7915 109.171 1.40388
-25.0786 126.993 -1.86147
-17.5316 94.0494 -1.63682
12.6951 123.349 -4.4043
-24.8016 129.865 4.18389
11.7796 121.247 -11.151
-26.6789 131.738 5.75179
-30.6781 131.623 0.267586
12.1305 101.752 -5.81
-21.2785 103.467 -11.7395
-31.6285 90.3066 -5.58008
-14.8324 130.425 -7.98452
-4.02613 94.7586 -2.46579
-33.5405 110.757 -7.53012
18.5122 134.579 -0.807693
9.86949 148.558 1.14293
-13.764 115.685 4.2341
-2.38647 135.702 3.44036
-37.5182 86.3797 -6.20494
-14.5222 123.868 6.3037
20.291 123.254 -12.8532
-20.9267 105.627 -12.4065
-39.3799 92.7523 -7.38552
-17.9758 110.735 3.00043
-14.4123 144.648 -5.73419
-31.1541 114.801 -6.67648
-8.04234 96.8745 -15.0561
-3.11134 132.124 -8.65492
-32.5899 99.6768 -5.27969
-13.7439 131.921 -7.27337
-21.5661 129.972 4.46433
8.98902 123.662 4.21503
-11.0411 153.125 -3.07426
-21.2872 90.1017 -2.9364
-0.0543725 137.617 -7.18847
-21.9795 107.644 3.5867
-12.1184 108.854 -16.2551
5.90461 134.353 -9.65411
-24.9001 112.844 -13.9461
-37.8572 93.0692 -11.2535
1.12539 101.431 -0.792932
5.74229 103.068 -13.2946
9.52553 125.531 -8.76839
10.2774 128.515 -5.74923
-31.2491 112.302 -11.2966
-28.5134 128.886 2.5719
10.2301 127.667 2.97688
16.0514 127.406 -13.9436
2.86557 94.4151 -12.5709
-25.023 141.201 3.31604
7.03385 111.066 4.25017
-25.8406 87.1422 -9.34584
-5.03756 143.382 -5.62722
-15.6532 101.838 -11.6739
7.66142 114.832 -10.6763
-27.4894 100.446 -13.3233
13.7439 132.52 -8.93051
10.8534 139.444 2.017
-17.4893 95.6983 -10.427
-35.6941 86.9924 -5.31522
-19.5728 135.545 -5.00842
-13.4307 113.191 -15.3334
-6.17839 127.394 -10.7343
-10.7737 131.796 4.29264
-9.76842 139.566 -8.60751
-16.2613 87.5388 -5.62747
-31.9424 112.962 -10.8769
6.9179 108.666 -13.1426
-33.6023 112.477 -9.12655
-32.9707 100.957 -13.5325
-13.8012 131.152 6.09974
-9.88969 147.206 -7.57597
6.71072 89.6473 1.20622
-11.0558 102.409 -13.7453
-11.872 119.207 -13.0068
12.2858 102.516 -5.32683
-17.39 114.605 4.77011
-27.2625 121.734 0.323148
2.97521 86.7212 -3.03435
-26.725 124.329 -10.439
-25.1445 130.075 -5.42749
-26.4492 97.5867 -3.59638
-10.7331 153.696 -1.97141
-21.5684 129.139 4.6452
-9.34997 98.2833 -5.40364
-20.3758 128.883 4.70898
14.3438 135.498 0.576129
-26.7625 114.402 0.100678
-1.87449 126.26 2.14394
-14.774 106.738 1.17803
-24.5722 113.537 4.49866
-25.3266 128.507 -3.05983
9.61477 142.927 -5.64585
-2.24005 96.0311 0.0302462
-0.488195 109.889 -15.327
-1.41078 142.424 3.05528
-31.8818 116.635 -7.02242
16.238 125.792 -1.42737
-9.04014 105.298 -0.632658
-20.4021 88.6549 -4.08846
-4.39038 119.807 -13.74
4.03068 144.205 1.98694
-4.29062 108.041 -16.2339
-10.9158 143.116 -8.51153
-19.007 133.437 -6.33461
7.41172 115.119 -8.62292
-15.4525 86.9961 -6.88653
7.49275 99.85 -10.7636
4.84409 145.979 2.016
-6.3302 136.439 2.87542
4.66357 110.105 0.646852
-30.9169 104.304 -1.82008
4.2596 135.999 -9.07111
-18.5492 108.649 -14.3322
-29.9895 111.645 -1.47032
-3.90138 144.014 -5.01431
8.25304 109.444 -10.987
8.49072 128.033 -10.1075
8.85602 125.585 -12.3045
-21.3726 146.056 3.74538
-8.27176 93.7673 -6.11612
-10.4473 96.5274 -15.0035
-36.5487 87.4713 -7.01596
0.173 140.511 2.69563
11.0997 121.117 -7.68709
-23.3049 124.049 4.86073
7.64285 115.191 4.1639
-30.9123 101.843 -13.8273
-21.0609 127.448 -9.30182
-17.9379 89.2751 -4.28118
-12.298 131.964 6.33812
12.1389 105.956 0.81583
12.7916 146.067 -0.939447
-15.956 109.893 -16.0765
-2.33612 153.306 -3.20031
-14.9867 125.047 7.13672
-19.6771 132.252 -4.20768
-18.9974 95.5031 -10.4758
6.50505 123.489 0.580902
14.4758 145.205 2.67507
9.51873 154.075 0.409631
-28.6625 108.968 0.287031
7.98505 110.917 4.45248
-30.9095 93.0159 -12.4208
11.7233 144.025 2.51054
-17.8878 122.117 -9.89682
11.2222 151.55 -0.412195
-2.32516 106.935 -4.59528
-20.1305 131.638 -4.25477
-36.5717 88.1405 -8.96775
-28.6239 127.746 3.57367
7.52405 93.9763 -9.60861
-21.8055 126.477 -3.20248
-22.9078 129.656 -6.46608
3.43658 105.958 -15.0647
0.284533 121.044 -13.8284
-0.0588271 106.547 -2.99701
9.7448 108.633 -8.8993
17.1583 120.71 -5.44062
20.4499 128.393 -7.69718
-15.6375 108.216 -15.2699
13.0502 89.4608 -3.77974
-23.1143 118.11 4.75079
4.57595 146.111 2.41376
-20.2804 145.937 -1.6224
-39.8014 87.6435 -5.73812
-39.9582 85.7887 -5.88971
-18.1248 102.838 -11.3729
-35.4153 98.4405 -12.2565
-13.3072 120.132 -9.70926
11.2666 139.501 2.64925
-17.7278 101.056 0.861922
-11.9234 88.2709 -5.96462
-20.9707 96.6263 -10.7105
-12.3584 107.292 0.923373
0.00606401 105.608 -2.80979
-24.2927 128.615 4.46506
6.82972 118.767 -12.359
-21.8387 95.6701 -10.9416
-19.9916 142.689 5.69084
9.54012 138.221 0.666249
-7.706 123.496 -12.3393
9.63839 125.261 -13.4393
11.4739 124.484 -4.4781
-28.0521 128.526 1.42622
0.807952 126.751 -11.8056
-24.6528 121.524 3.37331
-35.4192 103.908 -8.63685
8.63601 104.965 4.19821
-10.4976 153.692 -0.9667
-36.8496 100.911 -8.15623
-22.1499 130.458 -6.09574
2.36295 141.662 2.728
0.224585 121.258 -13.6691
10.0974 128.187 -5.43227
-24.556 126.817 -2.92777
-3.29667 97.4931 -3.83245
-5.56126 143.128 2.1828
9.17931 127.044 -4.93358
5.7559 137.152 -8.51855
-19.8777 87.5576 -5.16595
-19.8557 126.902 5.89373
-10.6377 94.2664 -6.16151
-2.74347 146.104 -4.91564
-7.45877 93.3103 -5.29873
2.72462 138.396 1.83337
-30.6289 115.662 -10.7971
3.32568 102.554 -14.8188
7.84159 122.366 -12.0707
-30.2277 118.969 -10.5118
6.55702 142.914 -7.89841
-8.8787 128.628 -6.68085
-25.5215 126.94 -1.62065
-27.4315 122.545 -10.7048
-16.1697 138.047 -4.25493
-29.4292 122.707 -3.90482
-10.1013 99.9071 -4.15257
-19.3711 140.71 -3.35755
-2.19871 99.8644 -3.90393
-9.25986 115.139 -15.2166
-8.10554 98.5305 -15.5321
1.99904 110.661 -2.21816
-14.4663 140.07 4.3878
-4.79239 113.761 -0.594836
8.51093 96.6853 2.41315
4.18737 115.284 -0.735008
-28.3389 112.959 -12.8062
-34.5988 98.9016 -12.2914
-11.7094 95.712 -4.9005
3.6717 133.074 -10.0191
7.79693 126.341 -5.44884
-37.3576 101.527 -12.2176
3.86411 146.023 -3.80845
-30.1008 111.765 -1.70206
21.3363 132.145 -6.91242
20.8113 126.441 -9.93357
-27.8733 121.806 -10.9461
11.6183 136.583 2.30221
1.6663 125.905 -12.7107
-0.856156 138.253 -5.59529
5.83373 135.071 -9.25556
-28.9199 89.3263 -4.87644
-13.5974 122.125 -8.02125
15.1345 124.993 -13.5693
9.09067 124.118 -14.0413
-23.1695 106.08 3.15058
16.3375 140.927 1.85424
-15.9446 138.435 4.88702
-5.3423 111.015 -15.4303
-26.2397 112.317 -14.2237
6.98709 138.517 -9.15389
-34.7364 95.3507 -12.2279
2.75199 137.953 -8.83015
16.3188 134.774 -8.40458
-23.9958 108.322 -13.3617
-12.614 120.786 5.98945
-38.3347 89.5373 -5.45275
9.29119 126.688 -3.10967
7.34282 152.083 -3.75397
-31.9938 93.7485 -6.38418
11.394 137.507 3.02138
1.30245 148.335 -3.89873
-25.4706 115.413 1.49613
-8.65078 129.562 -6.258
-28.8439 127.988 4.96737
14.6214 145.639 -0.869622
9.43247 88.2894 0.759476
-17.1554 99.1861 0.362906
13.5898 112.046 -0.813454
-22.3609 142.503 -1.63927
-27.9466 130.453 5.59331
-4.73591 116.113 0.749541
10.3483 126.129 2.18958
11.2277 102.005 1.80275
-16.7943 143.789 5.13171
-31.3216 93.078 -6.01799
-12.818 148.973 -5.28638
-28.2613 124.383 -8.84417
-24.3917 127.606 -4.12496
-34.0382 109.489 -6.97882
-22.2865 128.545 -2.96667
-39.2685 96.1862 -10.986
19.9591 123.543 -10.5847
-22.4677 91.7922 -10.1404
-18.0112 135.513 6.6377
-28.5254 128.908 2.72654
-31.0186 131.112 1.17761
-14.1762 146.755 -4.46888
15.2851 131.123 -9.27879
19.8804 127.273 -11.4902
-23.5104 115.739 -12.2725
-20.6087 136.358 -5.50256
11.8477 136.698 2.01268
-26.0237 125.674 -4.44824
-16.0411 132.572 -10.0572
10.0736 134.05 -4.90328
10.6514 126.68 2.15539
-4.45639 103.534 -4.63989
11.5467 132.769 -6.67929
15.0991 124.47 -13.9826
-20.1181 131.563 -5.12263
-14.5074 93.7022 -12.9135
-9.99371 153.3 -2.58417
-12.829 96.5699 -13.1468
1.66569 100.347 -13.9071
-16.5932 119.755 5.89127
-29.2306 127.349 2.09971
1.96899 136.857 -8.34845
-11.1947 93.55 -14.1384
13.2532 136.583 0.883792
10.0618 126.957 3.12162
-19.0563 88.5556 -9.54391
18.9078 139.566 0.190098
-19.7781 113.987 4.93006
-3.78133 143.746 -4.85175
2.28425 132.243 -10.441
-14.7362 118.672 -9.80219
-11.4324 110.58 2.38303
-16.8781 92.5057 -2.28507
9.15017 132.041 -5.1693
3.13667 143.175 2.74948
-31.1025 130.333 0.715851
-23.9151 112.626 -13.5922
-31.9876 90.6027 -9.84667
5.027 88.2971 -1.0199
4.8636 143.144 -7.7231
10.1807 133.476 -4.99224
7.25758 107.488 -11.9765
13.2114 121.861 -4.50375
1.2526 128.697 -0.977989
-16.3924 138.745 -3.45379
-1.17858 140.957 -3.95266
-26.215 126.347 -3.79105
-10.9551 105.351 -14.5954
-29.9862 132.634 -0.510914
14.742 120.73 -4.8959
-37.1389 88.9831 -10.2549
4.81407 137.276 -8.49173
-27.1242 127.085 0.897726
-6.60762 141.628 2.04281
-11.4736 126.409 -6.48652
-31.7525 126.909 2.7845
13.5728 107.343 -1.9038
-27.4654 128.997 0.599087
12.8551 117.849 -6.1493
12.5445 99.0947 -1.01133
-13.729 101.633 0.270181
-24.9993 139.031 -1.98591
-26.1317 128.908 4.45366
-18.0441 145.68 -2.42464
-0.523948 117.851 -14.7286
11.511 124.575 -0.368738
12.0349 86.3241 -1.12041
-24.8569 102.385 0.634142
8.58847 136.349 0.0696924
-11.7756 136.206 -8.56919
-4.93553 142.616 2.3176
-22.7077 125.313 -4.67153
-23.6655 127.989 -0.744485
8.35391 94.1048 2.22889
21.6769 132.021 -5.78944
8.7215 114.405 -7.33514
10.4952 94.1446 -7.29453
-21.2374 137.237 -5.85756
8.26225 126.443 -11.5058
-24.3236 124.827 3.65175
5.00418 93.8883 1.41139
10.3746 97.8904 1.98449
-4.34868 101.803 -4.5395
-14.5311 140.681 -7.42106
-21.6458 102.637 2.21384
-31.7309 129.477 3.94499
-14.0534 129.921 -7.41653
-3.83575 152.697 -3.34118
-24.3958 98.3633 -13.0059
-9.31462 129.833 -5.69934
-6.08376 122.596 4.02416
-37.5174 100.328 -12.2509
4.28916 98.6236 2.72393
-21.111 131.259 -7.88869
-1.49299 127.872 2.63277
21.2506 135.218 -2.93214
13.5355 111.4 -2.37095
-28.5072 93.3008 -10.8114
-33.7293 109.823 -11.9769
10.6459 95.8247 -7.89751
16.1129 125.965 -16.0222
-25.5489 123.058 2.44558
-22.0235 102.615 2.1346
11.1538 121.183 -7.63635
-33.5025 100.773 -13.4533
-23.5067 105.006 -13.3274
20.2972 129.516 -11.332
10.5096 117.55 4.1474
6.27709 105.944 -13.3359
3.94708 117.911 -1.66666
10.164 103.805 3.01583
6.23967 124.367 -0.317037
-11.6617 107.655 -15.7718
12.319 101.291 -5.36826
-28.3243 91.4768 -4.50865
-23.0899 131.042 -5.78254
20.5049 132.435 -3.19139
21.4733 131.433 -6.60018
-28.5319 89.8667 -4.28372
-13.035 130.356 -6.65102
-24.7857 103.372 -13.0282
4.47046 116.178 -0.399201
-29.5988 108.757 -13.9682
-31.6014 117.319 -6.81904
-26.1415 126.157 -3.05496
-1.44963 116.571 -3.42527
18.8753 134.484 -0.800539
12.2149 129.199 -0.0543956
-9.27338 142.792 -8.50237
2.19767 133.081 0.197226
10.8564 133.371 -4.66795
-26.3691 124.688 -0.421211
-23.0062 126.043 -5.01611
19.0538 125.629 -5.84843
2.79516 120.036 -2.51773
-14.3181 135.769 -9.50156
-20.2716 128.716 -9.57422
-8.84572 142.033 -8.61918
7.93692 133.668 -10.9776
-30.921 89.3987 -11.0786
-11.5112 153.535 -1.34003
-13.3486 117.296 5.09
-11.3556 104.96 -14.4794
-22.7409 102.449 -12.0658
1.04813 100.03 1.23901
-16.738 134.72 -6.57202
9.29159 124.999 -2.76912
-21.482 89.2631 -8.93684
-34.1623 98.2292 -6.57749
-13.8442 107.011 -15.7218
4.15599 114.356 -0.6887
15.6409 145.863 1.88445
8.50077 129.504 -8.30862
-26.8074 128.51 -0.124721
-6.4574 117.592 3.35556
-31.4526 129.274 3.56899
9.14328 91.7735 1.76109
-30.0958 100.535 -13.942
-33.4596 109.324 -12.3731
13.4065 124.082 -4.65316
-27.2116 123.083 1.00607
-29.1452 107.338 -13.9675
12.346 100.387 -5.65907
-35.8018 102.851 -8.99054
-26.5323 103.289 -13.6941
11.8058 122.316 -4.08991
-22.1399 96.173 -1.10531
-14.5453 106.187 0.997443
-28.3894 123.917 -2.59628
-1.52222 134.892 -8.06341
-8.71789 116.072 4.02936
-4.27907 101.304 -16.1182
-28.3304 93.6776 -11.6259
-16.5685 140.377 -4.67109
-26.5136 122.43 -11.0259
-2.51535 124.6 -10.9373
18.5907 119.459 -7.90429
-1.92764 95.4265 0.639084
-4.81488 152.424 -3.35043
-25.7983 141.068 -0.437039
-15.0272 145.331 -5.16428
-29.5087 118.694 -3.17907
-17.7024 100.617 -11.0701
-30.1448 129.829 5.09742
11.4897 147.195 1.9135
-24.5599 134.842 -3.8142
-19.1068 131.69 5.55068
15.1847 126.344 -10.9604
6.91809 116.154 3.89187
11.9968 151.046 -0.314885
-4.25272 131.665 -8.46057
4.57492 98.0717 -13.377
-12.1525 111.241 2.73347
10.3668 118.984 -8.56666
-23.2469 106.204 3.20545
19.3084 143.339 -2.42877
7.25861 115.924 -11.2998
-26.4392 109.169 -14.2201
16.4347 128.011 -9.50717
-11.7198 101.477 -13.4086
-3.94608 132.298 -8.32663
-30.2305 98.9451 -13.7747
-16.9997 143.858 -2.08273
10.669 150.101 1.50289
-17.8681 97.5029 -0.0987376
-27.4627 134.209 2.04806
-33.4054 93.2973 -13.0021
-30.4324 132.556 0.260071
-0.930449 147.787 -4.56356
-17.4013 131.11 6.19553
8.39905 129.396 -8.29154
1.61179 127.402 -12.289
-1.29556 118.433 -3.01425
-20.9831 130.532 -9.24802
-34.553 90.3606 -9.47476
1.57893 116.237 -14.7464
-10.2504 114.558 3.68474
-29.7583 134.398 1.44527
-29.4056 134.765 0.169238
19.9869 142.281 -1.91042
3.58539 131.432 -11.1551
19.6612 127.223 -12.0238
7.53652 128.66 1.68899
-16.428 136.667 -3.71844
20.8748 129.811 -9.83145
-28.7524 98.0487 -13.7886
-17.7644 130.74 5.88045
-11.737 140.628 -8.49393
14.0097 129.675 -9.51988
-10.0727 136.224 -6.26776
13.522 136.57 0.873684
-2.0996 93.7559 0.383312
-30.6256 131.521 3.45774
-19.6798 132.254 -5.5962
18.8611 142.821 -0.608283
10.7416 135.43 -7.50412
14.896 135.137 -0.227149
-25.2612 87.586 -7.48762
1.64884 136.971 -8.10597
-7.66558 97.413 -15.2265
-21.0219 128.189 5.05531
12.8193 116.144 0.932697
-31.0556 126.352 2.94173
-21.4767 90.3984 -2.69735
-28.3809 125.111 -0.518549
-18.1675 122.753 -9.85628
-38.3521 88.7263 -10.7152
9.6534 122.489 -3.38146
19.2916 129.83 -8.95152
-28.3307 126.959 1.60494
4.35389 117.997 -0.900728
10.5709 121.518 -5.4464
-27.1533 136.72 -1.32719
-24.6687 128.456 4.22032
-5.56838 134.108 3.36502
1.94081 134.755 0.734366
-19.8334 87.3347 -7.52875
-0.699639 96.2441 1.15518
7.51857 127.138 -9.17188
-26.603 110.626 -14.2329
-23.41 122.316 -11.1653
-32.1465 116.246 -7.99355
-23.0485 115.189 5.73078
14.8357 145.654 2.66331
-14.3446 140.226 -7.6103
-1.1227 111.479 -4.05788
-7.37762 137.324 -4.89704
7.32599 140.39 -8.10724
-9.96349 125.544 5.65368
-22.6068 116.785 -12.8419
-30.0962 128.18 -1.68234
-24.2951 125.463 -2.84522
-10.7865 95.8618 -14.8606
-27.4966 127.854 1.73148
7.37998 111.612 -12.8092
-7.94314 100.314 -15.8056
6.79112 89.5893 1.18253
-37.8463 101.402 -10.7298
-0.609367 104.114 -3.08386
-28.0105 115.533 -3.17425
7.74776 87.397 0.696178
12.4468 120.874 -9.00423
-29.4335 105.356 -0.7335
17.5928 137.591 -0.122192
12.1778 101.06 0.423084
-8.88014 132.989 -5.17844
12.0664 121.588 -9.98289
15.8841 137.075 -7.46525
-11.6959 114.716 3.75443
-16.1381 136.487 -4.03968
7.01237 88.2389 0.679585
-9.84118 133.659 -5.55565
-33.0687 94.6341 -6.58703
8.66935 134.464 2.04373
12.0477 117.106 0.531968
-20.9168 116.544 6.15593
0.149414 114.831 -15.7
-6.06958 123.08 4.03832
4.934 137.339 -0.936839
18.9953 120.719 -7.55305
18.826 141.635 -0.0225509
12.025 124.93 -0.833249
7.2005 122.3 -13.408
-18.6002 96.4033 -10.354
-6.40176 116.762 -14.0351
-2.74992 108.294 -4.68728
-11.4024 98.6763 -14.1934
-28.1355 103.995 -14.0117
-24.6111 108.088 3.16633
7.79186 155.08 1.59905
-22.352 141.161 5.27319
0.347508 110.727 -15.5433
18.2746 134.192 -7.58701
19.7149 122.609 -8.6381
-10.8666 146.01 1.49123
-11.2099 89.6582 -5.70519
-25.007 99.3837 -12.7967
-11.4763 138.354 2.82352
-1.09381 115.386 -3.72077
-9.27646 119.393 -13.7039
-17.897 122.18 6.87828
14.8081 125.014 -2.3334
-6.73855 131.45 4.56997
12.8182 110.256 1.05074
-24.4252 131.51 -5.07725
2.17238 141.945 -5.1936
-5.79781 115.613 1.84386
-18.9121 110.02 3.12153
13.6532 104.899 -1.24378
-32.3576 111.078 -4.66659
8.01351 135.848 -9.8758
-39.7754 90.6115 -8.77985
-39.3341 90.6897 -6.11893
-8.10307 98.8843 -5.59689
11.8931 87.5777 -1.60599
11.9 141.014 -2.46869
12.5628 128.186 -2.82517
-14.7989 111.573 -15.7904
-6.41315 105.673 -2.88096
11.4032 122.291 -12.1534
-8.1461 137.189 2.73834
12.5324 139.895 1.5684
-16.8453 87.8741 -5.30747
2.14718 88.4227 -2.63921
-35.1194 101.332 -13.0472
-29.9003 118.969 -10.9376
-28.0157 107.405 -14.0724
-8.34712 133.213 3.78228
-24.7303 128.738 -2.78187
3.03657 99.7142 -13.5119
-30.7811 113.437 -4.87261
-14.3038 144.567 -5.81059
18.9694 127.537 -2.18021
-21.5363 133.513 -6.33694
-13.9848 135.877 4.97147
-27.7856 118.185 -12.5414
6.39367 143.542 -7.76772
-29.5785 122.132 -5.28172
-29.2624 128.118 2.66554
-30.1209 88.4766 -8.26673
-18.9998 101.218 -11.7426
20.2735 139.162 -3.87869
-9.82588 146.486 -7.75352
-30.3299 128.35 5.02262
4.23376 104.432 -14.7072
-20.0394 91.7041 -9.31001
2.7267 113.924 -2.19409
-25.8412 128.35 4.12598
-37.5084 88.9376 -10.9787
12.2719 116.807 -5.29445
20.4843 129.391 -6.65128
16.1851 146.162 1.2131
-27.9548 131.475 -2.94023
-17.6849 106.06 -13.623
11.296 87.5247 -0.155136
12.9875 96.2158 -4.18413
-25.4555 127.211 -5.43473
-2.64954 122.473 0.991982
-18.0756 122.946 -9.6364
-13.2679 141.696 -7.8443
12.3995 116.943 -5.40453
-18.4132 149.825 2.40786
-18.7767 136.604 -4.76003
10.362 136.179 -8.15082
11.289 87.1025 -0.183894
11.7893 116.831 -1.02212
16.1684 129.184 -1.24344
-18.2159 135.722 -4.36991
-5.13032 100.348 -15.9424
-21.6875 124.399 5.97853
-5.0095 107.246 -4.42342
7.12472 104.655 -11.4641
-14.9307 143.645 -5.57274
-21.2813 96.9638 -11.0661
18.3676 126.169 -14.6628
17.5519 124.07 -2.53394
-11.5551 125.999 6.8117
0.228135 143.976 -3.56637
10.1429 125.61 2.09454
-0.819204 91.0066 -1.55832
17.1583 136.232 -0.464903
19.4355 136.377 -5.21089
-31.0414 110.74 -2.75993
8.71812 110.266 -10.978
-34.5343 103.351 -13.2267
-7.44194 134.718 3.23928
18.0164 139.253 0.668165
-8.45855 124.379 -11.4703
-26.2542 127.546 0.873928
-38.2977 87.1509 -5.2507
-25.0792 117.025 0.85873
-17.0761 139.075 -3.93519
5.6163 89.7941 0.891746
-35.9474 96.1028 -11.7897
12.4256 105.169 0.453749
9.89078 99.0243 -7.99892
-32.7047 97.2433 -6.3977
17.7201 118.893 -7.81268
16.4457 119.386 -7.07136
18.3891 141.866 0.673289
16.963 122.671 -4.53522
-2.24324 124.632 -10.8627
-18.9926 137.836 -3.83849
19.5551 124.221 -5.05401
15.2476 130.284 -0.800313
5.86171 105.796 3.23177
8.69587 91.6263 -8.28921
-19.0946 129.221 -8.02745
-5.20162 135.854 -4.35973
1.21393 135.486 2.6309
6.40308 126.327 -0.587126
8.45958 152.481 -2.62806
-1.58314 119.101 -2.52521
7.86358 98.5659 -10.9941
-26.1525 127.153 -1.30735
-12.8402 109.886 2.33574
11.3466 143.292 2.47511
-30.7209 104.786 -1.69278
-9.98899 99.3115 -4.69774
-23.5518 89.452 -8.83508
9.34206 125.473 -2.87332
-13.7333 91.7453 -4.99665
7.84768 124.909 -8.32512
-30.5279 92.29 -11.0353
6.24176 122.987 0.438802
-31.0559 102.58 -13.7836
-28.9946 93.3988 -11.6909
-23.6163 125.567 -9.56728
-37.393 87.5874 -9.78862
-23.7981 128.503 -5.35787
-4.28687 119.549 2.04135
18.3372 130.151 -1.78846
-13.7189 87.5671 -6.29832
-1.68788 100.358 -15.1263
-33.5679 89.7153 -9.0133
-16.6587 138.453 -3.92285
-26.1138 127.053 -1.19429
-27.5523 135.703 1.19939
13.1467 121 -4.99194
-23.1795 118.844 2.9746
3.13416 102.877 1.60188
1.23589 136.483 2.81369
0.838976 109.865 -2.87309
-15.6295 130.169 6.71932
-1.26379 128.861 -9.44506
-21.1333 131.866 4.82772
3.52064 102.68 -14.8742
-15.0006 147.709 3.95118
-9.93301 151.872 -4.90474
-17.6665 129.105 6.64366
-9.91963 146.551 2.7701
13.137 105.475 -0.361552
-25.5472 136.88 -2.09022
8.6799 104.718 4.11805
-22.4341 130.082 -6.50144
-27.6409 128.307 1.60357
-17.2658 93.8163 -1.80255
-30.9873 128.691 4.84902
-11.5464 138.857 -9.87704
7.09237 104.98 -11.7983
-8.67195 92.7439 -5.79725
16.5956 146.63 0.55279
12.496 111.795 1.75839
-10.0258 121.459 -12.5366
-26.9399 93.9461 -11.3518
-25.3041 95.6008 -12.9579
-24.2631 93.5955 -11.4644
-7.03504 113.757 -15.2606
-33.7583 97.3392 -7.09551
9.01563 123.822 -3.27054
2.34457 130.711 -11.4712
8.31513 129.258 -8.00747
-0.335294 99.6888 -14.3416
-34.1911 109.658 -11.4484
9.63558 147.932 1.02605
-24.1107 87.2096 -8.97075
-6.68379 106.576 -17.0411
-14.4 122.532 5.94634
-18.352 103.244 -11.6369
-26.6742 114.176 0.830565
1.85008 109.556 -15.7126
13.4065 119.191 -8.62858
7.27242 153.017 -2.51239
11.899 137.78 -3.45176
-28.5811 104.208 -0.531754
11.291 152.074 -0.00338366
-0.939618 141.998 -3.77735
-38.5336 85.6531 -6.94418
-30.7872 89.3698 -11.2677
-17.8732 144.768 -2.46804
3.77897 100.679 2.63046
9.37758 97.3093 2.13457
7.65946 128.622 -8.4604
-33.9002 108.983 -6.17304
-31.2496 115.95 -6.11414
12.9012 124.236 -1.93618
-14.7234 134.401 -10.5536
-25.4109 138.83 -1.32662
-3.69263 126.342 -10.732
8.83275 124.463 -9.91739
-28.5166 128.521 2.2945
14.3534 122.779 -3.26718
6.56218 105.143 -12.8545
19.2165 131.129 -8.12001
-24.5757 128.638 4.22821
-29.3275 88.8787 -8.26524
7.03936 126.171 -5.89674
1.84962 104.267 -15.4774
-31.6282 108.041 -2.42349
-9.93125 94.1567 -14.5792
-14.1319 138.471 3.90418
16.1507 134.534 -8.50083
-3.77302 133 3.87987
-13.9713 126.565 7.26976
-1.99252 114.686 -3.44554
-3.50646 150.12 -5.36047
-14.3134 91.711 -4.44861
-1.1317 100.922 -2.96776
21.6501 131.969 -5.8624
-4.09315 97.0519 -14.3261
-11.0424 146.914 1.59584
11.6054 121.52 -8.18672
-0.599521 100.712 -2.40576
-29.8144 114.606 -5.00428
-0.147324 125.394 -11.1054
-29.8203 121.939 -3.69242
-6.3188 104.09 -4.59209
-16.0465 131.517 -8.82002
-37.3675 99.1119 -9.08684
-24.6316 92.0291 -4.25119
-26.0227 140.935 0.2521
-2.24982 116.925 -14.4447
-26.9647 117.673 -1.39354
-39.0054 92.4518 -9.47244
9.99007 135.687 2.83981
-13.3236 93.5808 -13.3376
10.8173 128.494 -7.1629
-30.019 130.558 -0.927197
-27.1827 93.2813 -10.9705
10.7227 124.306 -4.6116
5.67866 132.589 -1.81218
3.44186 97.1526 -13.4343
-5.34191 122.157 3.82484
0.742995 130.97 -10.04
0.612431 145.548 3.55055
18.9147 143.757 -0.904368
-10.5996 92.5387 -6.36033
-18.6112 101.374 -11.6067
-27.2233 139.641 1.10381
-15.279 93.9088 -12.0941
-33.5715 102.5 -13.4667
3.62682 106.125 -0.130054
-23.652 120.079 3.30969
-21.9933 112.049 -14.4289
-7.4602 90.5273 -5.34863
-5.83163 132.001 -6.96338
-28.8392 93.432 -11.5787
2.13404 99.8801 -13.674
6.23212 132.212 -1.447
-27.0774 126.986 -0.279977
16.4263 127.599 -1.12928
11.5113 114.442 -5.32981
-33.78 88.578 -8.82319
-26.2937 140.664 0.531776
17.329 144.792 -2.37247
-20.3517 95.5877 -0.319418
-11.3009 129.652 6.11483
-5.94581 113.392 0.822344
8.34567 124.138 -12.6299
-38.6441 93.2294 -6.66405
-18.0432 115.53 -12.1021
-13.3082 113.65 -15.2598
-13.7476 106.5 -15.4232
11.2506 121.921 -4.91711
-5.69677 150.332 -5.79998
-13.8897 91.3633 -4.71076
-23.2518 111.071 4.42065
-29.8686 134.075 1.65762
3.20138 106.533 -15.1604
-18.2584 121.107 6.49744
-3.58576 105.227 -16.6694
-11.3422 102.435 -1.02842
-17.2359 113.699 4.14213
10.2027 111.501 -9.79653
-12.604 117.616 -13.4321
-6.70737 96.5891 -5.63086
11.8319 139.998 2.36128
-14.317 90.7676 -4.09385
1.04344 128.779 -0.387987
-40.4081 86.2054 -5.99139
17.7795 122.249 -5.03375
12.3692 99.0374 -2.48878
-1.31727 139.947 2.97389
12.8424 137.472 1.14419
-11.6502 117.279 -14.1924
-12.5953 120.413 5.9994
10.4264 127.331 2.85099
-8.62806 120.491 -13.5327
13.1304 124.114 -4.38937
-20.901 107.663 -12.6395
-30.6916 121.07 -7.78893
9.59133 106.945 3.60778
-16.935 131.215 6.31703
-21.2879 100.083 1.45952
-2.2958 94.8228 -13.9308
11.4752 101.198 -6.54278
18.9788 127.398 -5.1657
-26.2263 127.631 2.7018
-11.1842 117.567 5.05966
-30.5311 88.0738 -8.9257
12.2385 133.868 0.654774
-3.13862 131.436 -8.97462
11.0493 127.124 -5.55348
-25.0194 132.43 6.46306
-14.1128 136.141 -8.35919
1.09225 91.1173 -1.28047
10.8337 114.985 3.78764
9.67875 109.035 -9.4517
7.10187 146.684 -6.59875
-15.5453 98.0068 -11.7009
-14.697 134.472 6.24883
-25.6446 126.172 -1.81494
-6.11924 105.674 -16.946
6.91806 135.487 -9.56093
9.41616 123.759 -9.03513
15.1165 147.944 1.64974
13.3344 128.385 -9.38502
-21.5796 105.272 -12.6069
15.5546 135.739 -8.35543
-24.4424 130.022 4.88532
18.6211 127.928 -2.19137
-23.3797 136.318 3.70161
-13.3781 95.3634 -13.0789
7.3213 124.404 2.07742
-22.8261 145.482 2.42181
-20.6906 130.932 -2.89835
10.0665 100.671 2.89777
8.09073 152.706 2.4952
19.9036 131.515 -8.17215
-34.9326 102.297 -5.58688
-22.4458 94.8542 -10.961
12.3276 128.492 -1.29653
-18.1211 101.923 -11.409
10.7396 129.478 -9.69076
8.66183 132.069 -9.5897
4.45988 135.203 -9.04079
-3.08804 124.219 2.90807
14.7174 125.979 -11.1328
1.23414 137.592 -7.6478
10.3848 152.302 1.09277
-6.03728 91.3837 -2.03065
10.2788 133.522 3.24686
-23.4696 143.788 3.09938
-16.2258 134.49 -9.61082
11.3859 118.729 3.5774
-22.9418 129.402 -6.98206
-5.18675 110.221 -15.6237
8.41831 101.909 -8.96617
-31.6739 92.4776 -12.384
-24.2738 137.402 -3.1431
12.3696 120.261 -0.709917
-10.7763 100.32 -3.27057
-29.8793 114.293 -4.57423
-1.80015 145.19 3.36376
-30.0804 113.147 -2.85931
-32.9833 89.5881 -4.21001
-28.3807 112.928 -0.0243388
-3.13402 105.955 -4.8033
-16.9469 135.55 -4.99696
-23.8129 101.071 -12.1835
16.6214 127.277 -11.2707
-7.95794 104.218 -2.90597
9.26236 101.507 3.33636
7.49247 150.676 1.86206
9.88425 122.248 -6.94638
-7.32159 135.082 -4.82926
-8.45203 93.8383 -14.3005
6.65982 148.994 1.56897
-17.4659 133.378 -7.89107
-23.205 118.271 -12.7071
-23.5882 124.927 -9.86037
-12.7506 112.964 3.10744
-23.4583 136.697 -4.32134
11.475 88.9801 -0.0195501
12.7385 150.723 0.0231188
-21.3732 103.501 2.4128
18.8791 120.9 -5.64776
-17.0027 110.005 2.49698
-21.7383 126.755 -3.27907
7.2975 116.336 -11.0804
8.61166 102.381 3.76879
11.1877 144.859 -2.37378
-19.872 111.86 -13.7908
-30.1153 93.4169 -6.25935
-17.8259 146.234 -2.24578
-25.7863 140.89 2.32301
-24.4926 126.446 -3.96666
13.7014 149.886 0.305127
-29.7214 124.666 0.25633
-16.4365 96.6339 -11.546
-1.92325 142.632 -3.82691
5.84175 126.781 -13.7076
-0.596131 122.197 -2.04812
-21.7439 120.799 6.61105
-7.57976 96.4864 -14.8076
-21.048 138.699 -4.6125
9.6743 132.048 3.14009
-23.7328 123.69 -10.3726
-24.8141 126.724 -0.286669
-14.7775 119.913 5.94325
-14.9434 105.156 -14.374
12.868 120.218 -10.8036
-14.6626 150.596 2.23834
-1.25565 117.176 -3.30384
-8.86167 143.477 2.7521
-10.8591 127.336 6.464
-23.575 96.5849 -2.68631
-28.1318 98.5644 -3.62335
15.2956 125.544 -14.0925
-1.18527 110.251 -15.4072
5.37997 91.4497 1.12042
-12.2459 142.426 -8.20267
9.15879 113.481 -8.91632
-8.88487 137.313 -6.0493
6.26173 93.3219 1.41893
8.4843 102.555 -8.80835
-33.1927 90.4217 -10.9871
-18.956 97.1839 0.132913
9.08753 126.75 -3.91345
-23.867 108.455 -13.2636
-28.1159 122.715 -10.3325
-39.2661 97.6652 -9.51161
-14.741 114.777 3.86465
-10.2237 126.732 -6.99443
-21.0963 134.539 5.09262
1.63932 88.2554 -3.12186
8.98889 98.1696 -9.61082
0.749064 138.993 -7.04277
12.0154 151.503 0.624464
7.38666 85.4853 -0.393304
-1.26476 92.7625 0.21639
-0.469859 140.25 2.87111
20.523 133.082 -6.25498
6.09257 121.15 -14.824
-13.4809 142.775 3.0876
0.951218 123.83 -12.3311
20.8424 133.903 -2.53416
-25.3434 127.979 0.503584
11.1315 124.259 0.538193
-15.9838 135.946 -4.54005
-1.86669 122.507 -0.611197
-37.9202 86.019 -8.48637
13.667 106.547 -1.3671
-17.1634 146.203 5.31638
-8.18354 95.4709 -14.4126
-28.5238 122.728 -5.503
-27.9452 111.691 -14.096
-25.8647 118.332 -12.5248
17.0603 129.093 -9.55042
-2.00495 99.4206 -3.54699
-6.73664 102.86 -4.5353
-29.807 91.5912 -4.90004
-5.05826 132.175 -7.4974
0.0621376 106.354 -15.5694
14.804 123.398 -2.96398
13.7794 121.796 -5.1649
9.38154 128.757 -6.18147
-24.2447 110.286 -13.3329
-23.4279 122.905 5.36557
-35.8464 89.0988 -10.8408
-30.5832 104.665 -1.63123
8.92842 137.215 0.321667
-26.3371 108.208 1.85722
-17.0252 123.137 7.08423
-29.6719 109.047 -0.557145
10.4973 126.672 -6.03085
12.712 128.527 -2.80894
-18.4183 107.547 -13.6184
-16.7683 139.405 5.64289
-10.8754 89.7283 -6.37316
7.97711 123.755 -6.44354
-38.0007 87.2507 -10.0677
10.8108 134.174 -4.52104
15.0301 135.586 0.00644296
-35.3836 99.0437 -12.4401
-24.9807 109.422 -13.8267
19.5466 130.032 -9.04035
-2.54009 123.747 1.64389
-5.37526 128.651 -10.2169
-17.1008 86.8802 -7.47185
-26.7121 122.331 -11.0182
-34.2657 89.4519 -10.4325
-24.0855 128.434 -8.37152
-5.51708 110.757 -15.6361
-22.9334 145.381 2.36115
12.289 131.82 1.10681
-27.7606 117.969 -1.80902
10.4585 151.494 -0.718634
-18.7753 120.058 6.36183
-22.4034 94.5079 -10.7313
-27.7793 128.818 5.31888
-24.1308 120.841 -12.1261
-27.5702 126.34 -1.48477
-15.5789 149.028 -1.26342
-7.94536 91.1795 -5.9367
12.8536 92.5899 -4.84937
6.10299 114.026 2.8682
2.30278 104.336 -15.4681
-12.6738 152.438 -0.191157
-11.5869 146.563 -7.14237
-23.3325 126.577 -4.17434
14.3908 124.048 -14.3206
-29.7872 88.8049 -11.3438
19.9646 138.115 -4.49243
-10.8852 112.892 3.04162
3.34403 144.13 -4.63293
-25.8964 127.687 -3.36931
-9.49773 105.068 -14.7192
-32.472 127.98 3.16325
-18.1898 148.677 -0.0433565
-21.7952 99.7075 -12.2346
12.0212 98.6823 0.99724
-7.03459 105.871 -1.97165
-13.2306 115.207 3.98641
9.65102 129.282 -7.95582
-3.69481 126.722 3.80269
4.41547 97.5324 2.67978
-30.6054 119.695 -4.24513
5.09952 112.514 -14.7935
-16.907 111.919 -14.0023
2.88391 107.967 -15.2049
-22.6319 93.7277 -3.07868
8.50851 128.991 -8.84292
12.3077 124.195 -1.33275
-25.2142 117.887 -12.5733
-6.855 135.715 2.9043
2.43506 104.557 -0.91215
13.3023 107.524 -2.37592
-4.87946 118.92 2.3806
5.97106 152.19 -3.17559
2.55886 140.378 2.56004
5.49561 115.433 -14.8578
-7.13785 128.752 -8.11534
10.3703 96.3164 -8.32239
-33.1257 106.546 -13.338
-13.4937 111.737 -15.622
-17.4557 102.405 -11.4049
-30.9612 88.8349 -8.31615
11.1092 120.945 3.18158
8.49354 125.711 -11.8201
-25.6283 125.736 -9.86211
-35.269 102.286 -12.9736
-18.3343 132.391 -8.85174
-26.4456 117.898 -1.16682
-35.75 102.894 -7.37862
11.1339 130.118 -7.59871
-26.2143 132.008 -3.41108
-28.443 123.177 -6.60457
11.4322 123.609 -14.7349
-26.3572 119.322 -12.4637
-7.1823 145.633 -7.29293
-33.1326 113.107 -8.719
10.1422 134.723 -9.37782
12.7703 97.2651 -4.74544
-21.4341 131.562 -6.88285
-24.3314 121.209 -11.9535
-7.45692 125.521 -11.0289
20.0925 139.443 -1.53756
-9.544 117.997 -14.4071
-11.8036 107.251 0.689131
6.7388 141.7 -0.304884
-5.80677 90.9561 -2.09894
-27.769 102.914 -13.9903
-18.1584 147.075 -1.6071
-31.2541 114.252 -6.96131
-11.0869 144.007 3.37968
-12.8712 118.73 5.763
17.1767 144.87 -2.29589
-15.7729 128.255 -7.45792
-15.3428 144.62 -2.55353
-3.76954 132.155 -8.57722
10.0705 139.815 -5.82454
-26.3796 88.2118 -5.22083
-39.437 89.2608 -8.86966
14.8756 136.837 0.855952
-16.2823 86.8284 -7.11309
-26.9771 88.1532 -9.46988
8.8345 112.947 4.6177
5.89929 92.8818 1.34911
-16.9567 145.917 -2.16323
8.79819 153.057 -1.55117
19.0091 121.988 -7.74076
-29.0204 87.3296 -10.8704
-31.1889 100.758 -3.95572
21.8026 133.654 -4.31588
-27.0391 139.258 0.469888
-30.8763 128.285 -0.280572
9.60428 105.033 3.45735
12.6265 131.692 0.716508
5.41184 102.764 3.55615
-32.7626 92.1716 -4.40363
-21.7106 129.047 -4.02444
-26.4991 125.751 -7.24855
8.38064 147.444 0.825347
-30.4923 128.573 4.74057
-23.3573 94.8029 -11.4267
-14.8762 109.314 -16.1246
-8.88721 143.033 2.72018
7.01386 122.469 -13.4458
-14.1947 90.9671 -4.28101
12.8093 124.612 -4.41071
-18.451 88.0295 -4.8433
8.0506 147.935 -6.00997
-5.73336 106.604 -3.58807
13.2317 94.0057 -3.46055
-23.2998 109.229 3.95082
9.47084 138.595 -6.19437
-29.5499 105.734 -0.782982
-5.79815 103.763 -16.7672
-11.7351 110.658 2.46439
-23.3466 110.061 -12.9588
-12.559 140.348 -8.0773
-14.6284 101.729 -11.9952
6.78205 128.358 -13.3362
-3.85132 109.153 -4.21774
-18.2246 149.332 0.673594
-13.7537 122.214 5.93748
19.627 143.394 -1.66955
6.34066 119.429 -14.8263
-26.451 138.603 -0.424478
-27.3721 94.1073 -11.6249
-23.1886 125.744 -5.45586
-24.7575 138.955 -2.40329
8.85864 121.991 -13.4188
8.88945 127.54 -6.46783
-1.24579 147.532 -4.58697
-4.71052 117.65 -13.7771
9.82746 150.656 -2.58972
6.05765 105.811 -13.5456
-14.3425 136.044 4.63133
9.45536 152.023 1.10601
14.0408 140.889 -4.23546
-24.1061 128.875 4.48781
6.65742 117.539 -11.8908
-35.4339 87.5679 -4.72481
-22.1095 131.83 6.02372
14.51 139.659 1.56048
-22.3476 128.046 -3.16956
9.75694 98.0484 -8.73519
13.7341 121.938 -4.06512
0.0439121 100.711 -14.6281
-5.45217 146.362 -6.24274
-31.5682 95.6048 -7.11137
-15.1568 108.991 -15.9108
-19.5053 137.604 -4.71717
1.73124 102.709 -0.651128
10.4662 134.907 3.37365
-6.73262 119.187 3.85874
-10.7067 147.171 1.49714
-1.55832 112.957 -15.4309
-15.4014 107.124 -15.0835
-34.0085 98.1192 -6.55127
11.6617 117.966 -3.03829
-34.0338 101.23 -4.78783
-23.4559 130.585 -4.27282
13.1742 138.894 -4.66417
-26.5186 137.917 2.00956
-14.851 136.941 5.26959
-17.7084 94.3043 -10.1362
7.71508 99.0197 -10.9274
-16.9822 142.504 -2.80529
8.50801 130.899 -10.0919
9.56437 147.283 -5.38854
6.29951 119.68 -14.8753
-31.0765 90.6988 -9.2047
-27.5684 102.98 -0.821425
-16.6414 125.631 -7.47454
19.5795 125.534 -7.94744
-5.36656 119.366 3.13839
5.26409 115.26 1.31776
-4.00963 96.5675 -4.25127
-13.3257 144.54 4.25097
-17.5706 110.345 -15.7385
3.45621 151.816 -3.23809
12.6534 91.0283 -2.17124
12.6987 136.885 -7.34384
13.6235 119.956 -5.90884
13.4325 125.84 -3.98192
-6.96157 131.341 4.62668
-5.53936 131.054 -7.74475
2.07485 140.378 2.65219
-29.3976 92.7643 -10.5112
-18.101 129.278 5.36741
-30.9782 111.041 -12.4215
-5.32107 137.431 3.29245
-35.7684 101.366 -12.7791
-1.50063 112.499 -4.07678
-15.7282 135.776 6.30782
-5.70028 105.46 -4.15992
8.23521 127.915 -9.16966
-21.4089 87.2707 -9.16322
-27.3485 136.204 -1.4638
-18.9522 133.049 -7.76875
4.93956 120.976 -0.922259
-25.5935 88.436 -9.73595
-28.2973 128.458 2.05124
-38.8632 91.6776 -6.32605
-10.9414 98.7025 -4.22483
9.20024 126.735 -4.29247
15.8319 136.866 0.223711
13.9186 137.065 -7.67616
-30.1616 133.195 1.07015
-28.7808 118.741 -2.45973
-13.4681 108.498 1.86152
-14.6262 89.3461 -10.65
-13.395 145.655 4.04421
9.87571 130.64 -5.71379
8.4022 111.891 -11.4135
-18.5201 134.539 -2.2261
5.3928 115.577 -14.8242
20.0612 140.816 -3.31626
1.83437 138.321 2.72538
-33.4373 107.134 -4.38639
11.772 119.885 1.13587
-20.0915 107.839 -13.0495
-26.4698 131.375 6.33345
12.4753 94.8522 -1.05384
-2.12186 133.356 3.91812
18.3396 125.984 -1.57003
-16.7874 93.5079 -10.9522
10.8567 142.396 2.51506
-1.84599 143.093 2.97353
6.34461 123.282 -13.4226
17.9779 119.078 -7.75039
-13.989 138.44 3.93056
-1.0956 100.292 -14.9159
-0.790031 105.271 -15.5757
-18.209 101.772 1.01664
-30.8462 88.3428 -8.76546
11.1762 103.13 1.95647
-9.00402 139.913 -7.49845
12.6835 147.567 -1.14573
7.37731 122.734 3.66143
-24.3876 110.4 3.78061
-22.5616 130.46 5.5701
1.70265 128.879 -1.27996
-4.35616 113.362 -1.99105
-29.0834 110.87 -0.290738
-17.0273 140.679 -3.05276
10.898 143.134 -3.12857
-7.15983 153.849 -1.3764
-29.745 91.0721 -4.65313
4.81302 104.562 2.00243
13.929 137.741 1.01639
-31.9898 115.845 -7.10287
-19.1559 101.116 -11.8
11.565 151.426 0.936284
9.23593 125.309 -13.2602
-0.225814 145.92 -3.86046
-19.8554 108.856 3.11064
4.9345 136.229 -8.71231
-10.2686 144.06 -8.3883
4.24536 111.566 -15.1031
-4.62569 110.786 -15.3957
-28.0719 124.93 -8.52678
-1.70464 131.093 -8.67311
-38.2607 91.418 -6.17107
8.58105 127.812 -9.65602
-24.4834 97.4678 -2.89998
-29.5878 109.562 -13.6064
-10.2965 88.4017 -8.86758
-25.8496 129.421 -3.28968
-3.32145 97.9329 -14.3594
10.1472 95.8267 1.76857
6.84758 116.355 -12.7238
-33.9625 89.3406 -4.34902
-9.12318 104.128 -1.49637
-34.3885 109.41 -9.67505
12.3436 140.249 -3.03507
-33.0927 87.8512 -7.98876
16.1897 132.163 -1.24063
7.58209 122.383 -12.9056
9.09805 152.15 1.06085
-36.5056 97.0326 -11.8364
-4.84928 98.078 -5.00549
1.77548 113.08 -15.8362
-20.51 131.823 -7.64553
3.04243 140.641 -7.53572
-10.234 143.648 3.14079
-34.2173 105.133 -13.1563
-37.5384 101.383 -11.8072
18.9035 125.88 -1.69795
-24.9003 92.1094 -4.24313
-5.63914 123.964 4.23589
-16.789 86.7557 -7.55297
-17.9243 109.668 -15.331
7.93643 109.449 -11.2569
-5.69295 152.273 -4.03003
19.0255 122.75 -11.016
-10.9333 121.848 -11.0714
-18.5256 103.783 -12.203
-25.3338 123.071 -11.0477
1.33643 111.995 -15.8519
-24.0001 128.509 -2.94093
-11.7922 132.681 4.67093
-3.50343 111.303 -3.78406
-14.0649 98.8027 -0.745653
3.00876 109.844 -1.42253
8.46027 122.44 -11.9507
-31.8388 102.936 -2.91628
-15.3659 106.151 0.9674
16.2217 121.733 -4.61065
-26.5371 137.098 -1.47511
11.6266 136.249 -4.96385
-23.1446 108.308 3.79562
-7.56309 114.057 -15.4335
9.50395 125.707 -13.002
0.11523 87.0274 -4.86907
-3.20393 94.9274 -0.512728
-31.6314 92.1676 -11.9353
-17.9015 130.114 5.51126
-32.3207 113.885 -10.1315
-12.4386 104.539 0.292725
10.9708 151.415 1.32418
3.34911 110.495 -1.13923
-34.7528 108.538 -11.2707
13.8576 131.304 -9.14328
1.50128 97.9683 -13.6225
-25.6968 98.4544 -13.2293
-37.8476 100.745 -11.3481
18.7657 122.33 -7.03804
5.95947 92.7878 -10.383
17.1882 118.654 -7.74288
10.6692 138.762 -3.69322
12.8754 126.56 -2.36842
11.7513 120.177 1.9898
-10.101 127.769 5.89312
-17.4427 122.235 6.67228
6.81309 106.193 -12.7942
-27.8012 125.33 -8.70659
-32.6826 97.2145 -12.4462
4.56898 143.838 -6.60081
-14.0378 101.548 -12.2053
5.491 148.486 2.75915
-13.7359 126.772 -7.11021
-4.73929 136.304 3.52219
-14.3674 142.082 4.5464
12.0025 121.704 -11.4836
-3.36647 102.227 -4.37981
4.67488 114.097 0.264382
10.6017 119.605 4.09913
10.4175 114.738 3.99249
12.2525 137.24 1.86685
-22.1723 139.139 5.47869
1.15642 96.1108 1.28856
-6.72777 112.851 -15.4792
11.2355 126.802 -12.3003
15.0684 125.843 -2.15243
-31.9879 129.465 4.17805
-26.1353 126.737 -0.065301
-1.06542 127.276 -10.3696
-31.7409 114.7 -10.3642
9.57913 139.025 0.592592
-2.02582 135.201 -7.4317
-3.05723 91.3781 -0.83524
13.8675 128.107 -9.52329
-24.1902 128.145 -3.94305
20.4888 130.198 -10.2801
-27.429 121.745 0.0104535
12.8668 90.8005 -2.73641
-23.6464 126.005 -9.46926
-6.12387 123.538 4.05905
-25.9967 125.635 -6.35245
-29.911 125.365 -0.433256
-21.4206 123.43 6.07271
7.47905 108.908 -11.7593
-1.3103 113.539 -15.5331
-19.1733 109.858 3.18851
-12.558 149.26 2.56718
-28.04 87.3351 -8.82968
10.8552 122.358 -4.57707
-24.2877 91.8625 -10.4717
-25.2625 126.137 -7.59321
-2.53155 126.32 2.88535
-16.9419 147.803 4.83624
-16.7365 142.364 -2.80753
9.19218 125.395 -2.31317
8.4754 129.559 -9.33245
2.58637 89.4733 -1.93823
9.0701 103.611 -8.24185
-4.86025 113.272 -0.806826
8.61165 127.437 -9.94693
-22.1556 127.341 -9.01379
-0.777669 111.592 -15.3375
-13.4113 101.628 0.10992
-32.6236 107.958 -13.23
-19.5034 148.761 2.55508
-20.1408 87.6325 -5.11268
-22.0714 111.16 4.89813
4.90378 119.56 -14.5645
13.7233 131.639 -0.869494
-34.5676 88.9728 -9.52589
-5.55321 100.103 -4.97838
-10.1636 141.066 -9.0569
10.6124 108.118 2.75093
-6.98231 139.408 2.5124
13.7837 121.357 -5.70349
7.96671 125.016 3.40689
16.0081 130.767 -1.41321
-3.45851 151.552 -4.32656
-24.9597 113.655 4.02921
12.2986 145.268 -1.25749
-5.06679 107.986 -16.172
18.0448 120.11 -6.39859
-17.6581 88.2299 -10.2787
-23.8133 98.2118 -1.72744
0.528338 122.583 -12.4416
-23.776 126.982 -5.19068
3.0252 123.715 -13.4798
-33.9462 105.187 -5.19508
-11.7694 118.582 -13.4901
-33.1602 102.625 -13.5221
-26.9278 137.969 1.55819
5.05475 132.002 -11.5105
-5.43226 114.27 -14.454
-21.92 127.731 -9.08359
-23.3347 100.402 -0.0114741
-39.4095 92.6656 -7.3612
5.41817 154.546 -1.61253
-34.5967 108.008 -7.24106
-6.09296 108.498 -2.2717
-24.0833 92.8274 -3.97178
-7.15836 93.3003 -5.2793
-26.1087 133.705 3.19344
-34.0055 105.843 -5.34126
8.84758 98.6984 -9.45505
-14.5321 90.209 -4.30704
-24.3438 128.584 4.44857
-20.229 137.447 -5.78002
-22.9532 121.098 4.73919
0.361261 150.861 -3.86478
-3.07562 126.034 -10.5908
-14.7699 147.981 -3.21115
-15.7759 147.787 -1.15564
-25.1055 88.6403 -9.69532
-8.32777 140.843 2.33947
-27.0162 132.581 -2.3345
-2.59293 134.917 -6.84687
-15.3275 143.314 -4.06789
10.1233 124.76 1.97564
-16.3021 147.197 -1.67126
0.462152 139.859 -5.30526
8.86605 121.058 -14.2445
-4.90644 132.038 4.29554
8.49527 151.998 -2.99408
-2.08881 141.506 -4.01802
-16.8329 134.647 -9.20603
-2.48036 94.6638 -13.9106
-8.7607 137.55 -6.039
-25.229 136.312 -2.54834
9.47821 138.91 0.507514
9.27998 123.555 -8.43179
11.9708 127.337 -11.7969
-14.908 114.638 3.84012
-18.4478 145.648 5.48046
-21.3681 140.027 -2.98265
-6.38591 153.136 -2.90537
4.93528 110.482 -14.6047
-38.9008 93.2497 -6.9532
-14.2528 118.538 5.5691
-19.8748 103.953 -12.1706
17.0913 141.852 1.54919
-31.5068 88.1899 -6.85964
-12.3216 121.835 5.99284
-11.7498 120.792 -10.907
20.4166 131.443 -4.33451
-5.53919 124.981 -11.9661
8.88416 125.399 -9.13662
7.53892 95.1764 -10.2898
-1.59215 114.311 -3.73036
2.78078 153.627 -2.5893
10.0193 95.6046 -8.25888
-30.9182 126.503 0.958195
8.55716 134.387 -10.8413
-21.3552 131.702 -6.94195
7.26421 119.39 -9.95376
-18.5497 132.248 -4.04244
-20.4319 144.741 -2.06553
-8.48321 110.051 1.43584
7.41865 104.191 4.14856
16.191 119.744 -7.66624
-18.2159 125.51 7.83245
-27.2932 123.113 0.0750787
-2.17214 102.582 -4.46768
11.4285 117.101 -7.21866
-12.7 149.835 1.96574
-21.5908 133.77 -6.28696
5.80125 86.3079 -0.576774
-26.2256 131.193 5.83963
-21.761 89.5319 -3.71804
-31.7388 117.001 -6.9357
16.4534 119.099 -9.7759
-3.65975 119.686 -13.8577
-28.007 124.606 -5.70159
-18.3781 99.0855 -10.6417
11.7371 114.115 -4.26384
-4.20243 113.4 -2.34361
14.0305 123.165 -2.89658
-0.909116 145.046 -3.90394
-37.6012 93.979 -12.6253
8.91563 123.839 -8.27685
10.6389 106.79 2.70578
-26.0588 128.911 0.47954
4.42873 141.364 -8.38096
10.8198 112.193 -5.68646
-10.2252 132.938 -5.6347
-21.5019 128.136 -3.37888
4.5328 136.756 -0.737922
-12.448 141.19 2.24815
7.63718 109.707 4.502
5.1505 138.203 -8.21605
13.5247 109.769 -0.389634
-20.3052 131.989 -2.91512
-10.1328 147.765 1.41802
-30.6066 110.736 -1.99448
-9.02949 139.331 -7.21801
-17.6866 96.613 -10.5743
-18.3635 148.431 3.99677
-13.7697 112.911 -15.2172
-26.9599 127.166 0.0700367
-5.59933 101.374 -16.2866
-22.1168 130.45 -7.02397
-1.80303 115.824 -14.9994
-19.3914 149.188 1.65555
10.355 125.799 -5.65219
-19.1075 116.407 5.26004
5.97609 105.353 3.30884
4.89602 143.542 0.750786
2.79528 88.1287 -2.45062
-26.4358 127.617 3.34696
-21.7337 106.435 3.08359
-6.35783 128.266 4.1992
-20.2477 98.2313 0.568858
-32.7722 90.3657 -9.33966
-31.0632 128.204 3.05418
9.50994 151.001 -2.51604
-16.9725 131.314 -9.64524
-6.881 105.285 -2.45267
-14.7986 148.488 -3.64019
-31.9243 103.571 -2.71334
4.33198 90.266 0.542494
-25.7359 112.637 -14.1556
-12.2971 150.057 -5.35532
-27.0167 130.038 -4.86565
-30.3052 129.305 -1.37383
13.6884 121.765 -5.0218
-4.00754 91.799 -0.653097
-19.4541 103.235 -11.505
10.7337 124.075 1.05837
11.3833 151.097 1.13974
-28.4442 129.691 5.62137
-1.07484 104.192 -15.8915
-14.6919 117.727 5.03484
-9.79293 99.7687 -4.52498
-11.5053 138.868 2.59877
11.3465 133.299 2.75026
7.29163 129.766 -0.0958608
-24.9064 138.928 -2.12064
-33.8567 86.9413 -7.23582
-24.0376 96.1873 -12.3813
12.34 98.5093 0.587265
-4.98183 111.6 -15.0658
-25.3112 87.7224 -6.97481
1.71262 130.578 -0.0694283
-5.86469 139.425 2.87818
-28.4469 122.488 -10.1367
-22.0363 131.071 -7.60448
-16.4368 101.394 0.656276
8.07255 148.195 -5.94448
-8.75807 96.9924 -5.9558
-29.0665 121.074 -2.84491
-10.0606 89.7757 -8.14845
-5.9279 131.392 -7.22842
-22.4724 122.325 5.91435
11.7121 118.713 0.199202
7.13818 125.699 0.889152
-28.3896 115.647 -12.4632
21.3395 129.179 -8.34758
-23.0057 124.389 -1.98595
7.09118 133.505 -10.6516
-23.0775 104.795 2.66794
14.9592 126.276 -14.2887
7.24974 137.929 -9.32072
20.1394 123.401 -9.58775
3.99922 137.513 -8.81682
-8.45019 124.967 -10.6393
-21.9912 132.518 -6.76001
-8.59847 126.344 3.97134
-28.7517 119.425 -2.5025
7.89148 86.7279 0.265989
-28.4843 131.996 3.75349
-9.89343 128.645 -6.09419
-5.98575 98.9741 -15.6268
-3.25054 96.239 -2.97447
-15.0795 104.932 -14.1273
-15.971 138.457 4.86517
-0.0630243 99.9772 -1.03777
7.23545 126.172 -9.84752
-31.3667 108.81 -13.3342
12.1477 103.487 -4.87971
-16.415 148.495 4.06341
7.84008 108.045 -10.7506
10.9387 116.108 3.8347
-29.321 88.0562 -11.5726
0.340468 132.689 2.59132
-0.959552 153.724 -2.74563
7.63671 125.05 -4.70389
4.3836 139.764 -8.59141
-3.50234 133.544 3.84292
9.81056 120.061 4.5615
-31.7627 99.9932 -4.91633
12.9898 92.9373 -1.9868
10.2231 145.543 0.942881
-12.7843 92.9616 -13.291
1.41762 120.846 -2.93829
4.79344 118.258 -15.1599
12.3044 101.881 -5.48915
-32.641 90.7337 -4.4599
-15.2633 100.892 0.432667
-15.6791 151.385 -0.359534
4.60208 111.075 0.369731
-24.1358 95.0853 -3.89295
-11.009 97.0977 -14.6868
-23.6776 102.019 -12.2463
-1.74966 124.565 -11.0607
-5.58872 104.64 -16.8409
13.4682 126.274 -4.1585
-26.0094 137.686 -1.41104
-0.031084 124.358 -11.5189
20.5779 130.841 -5.76705
9.68837 121.381 -8.69645
3.17774 117.028 -2.27319
-5.75602 117.764 -13.5901
-8.60118 119.048 -13.9949
7.83412 128.945 -6.22582
-13.9422 89.5973 -11.1126
-27.2366 110.753 1.22629
1.58158 117.095 -3.04154
-13.8383 124.687 6.72665
-27.1753 103.554 -0.234376
8.07638 129.508 -6.20006
1.76821 146.163 3.8785
8.53219 125.171 -3.19149
13.0514 145.768 -0.541477
-25.2528 138.264 -1.51871
-10.7096 122.386 -10.7909
1.22725 133.952 -9.69468
-29.1882 93.9262 -6.35973
20.9709 133.404 -6.1604
-9.53231 126.235 -8.13351
-0.811996 105.778 -3.58484
-18.1165 132.205 -8.90449
-26.6129 127.051 2.34015
-10.4851 101.666 -14.2095
7.36821 113.175 4.18503
-17.3139 136.445 -2.17419
12.1074 105.903 -3.57005
-28.2385 105.253 -13.8356
-17.7391 116.81 5.40293
-29.4239 123.185 -8.10998
1.36368 107.086 -15.7896
-19.2688 148.693 0.294168
-36.0878 85.8504 -6.94801
10.9698 132.077 2.39497
13.5342 122.544 -3.87425
-33.5144 95.2253 -7.20063
-16.9748 116.245 5.2704
10.396 102.162 2.87935
12.2347 97.5634 0.0238602
-0.709754 111.363 -3.96978
4.68231 116.93 -0.0618861
8.61871 133.656 2.20091
-21.2739 139.801 5.81559
