ply
format ascii 1.0
comment Created by Open3D
element vertex 1914
property double x
property double y
property double z
end_header
-8.74442 101.94 3.49524
-7.56892 133.956 -5.11157
-20.59 104.81 -14.4333
-11.789 101.15 3.89879
-28.0778 96.4812 -7.67905
-21.931 83.6755 -5.39939
8.02556 102.333 8.80749
-8.98069 130.923 -5.35369
7.91281 105.343 9.02443
-30.84 127.241 -0.994979
3.02313 121.708 -0.451019
3.0103 119.445 -4.40742
2.55632 102.285 1.84201
-1.68681 127.705 -3.51507
-25.8074 140.355 -0.22039
-16.6773 123.231 6.16506
-23.8876 136.417 -3.74866
-3.16203 86.8738 0.563362
0.548142 108.593 -1.6015
-23.4249 132.484 3.54433
-25.7716 111.328 -3.92637
-1.61873 84.1429 0.160381
-4.16863 154.031 -2.11927
-8.5869 113.391 4.55468
-26.7112 128.228 -2.10245
-17.3838 134.996 -5.13137
-20.1958 129.559 3.66925
-6.29358 88.7469 -2.54237
9.60365 146.155 -5.27769
2.88971 124.033 -3.53589
-20.3032 94.487 0.117762
-21.5169 105.72 4.27339
-20.2113 80.6316 -7.56323
-0.37079 99.3406 0.405876
-26.3926 143.269 3.23043
3.02434 82.4282 3.32223
-29.0364 92.099 -11.1189
-24.3987 115.72 -10.829
-2.83127 96.4534 2.27884
-11.5195 111.628 3.80419
-14.3368 134.774 1.71407
15.3233 128.89 2.82988
-11.6572 89.1897 3.00107
14.4842 145.19 0.117366
-21.163 112.467 5.89231
9.26912 119.961 8.77907
4.24661 148.769 -2.89051
0.791589 109.185 -1.5257
-18.5595 98.8099 4.46408
-27.3367 102.137 -3.8409
-6.85497 97.3054 -0.758413
2.32474 115.034 -5.54259
-7.01001 137.445 2.12303
-26.1567 110.933 -5.13811
-34.0919 130.972 -1.04951
14.8845 99.0565 5.24229
-10.9332 152.807 -1.56874
-6.41989 90.1941 -1.04934
-27.8128 97.7716 -6.42115
-26.1444 123.452 -3.48341
-26.2984 119.363 0.772724
-21.2656 120.936 5.98167
-25.8728 103.994 -1.02288
-15.1655 127.246 5.56976
-22.369 89.5219 -3.63117
13.167 112.255 7.58555
7.90636 154.941 1.12654
-11.255 91.0958 2.62452
-15.2926 129.283 -7.95172
-9.6474 122.295 -5.46489
5.20722 93.0344 6.80109
-28.3303 83.2906 -14.7436
10.4201 134.299 6.18494
-31.8451 129.542 3.71792
-16.8077 136.411 -5.17593
-2.8368 83.5893 -1.97905
-9.82633 139.618 3.28893
4.94825 80.4151 2.72938
-15.0923 148.239 0.209418
7.60092 141.695 -6.13324
-18.6551 137.448 -4.78245
1.47409 143.758 1.96575
1.71099 127.653 0.288145
-14.7848 119.735 5.88356
-2.10571 95.3913 -0.77478
1.27069 85.5546 1.85508
-23.948 92.1348 -3.48654
11.8376 151.776 0.401217
-26.1104 140.018 4.43901
-15.9239 133.107 -7.18298
-12.9843 150.528 -1.35101
4.77287 141.451 0.985981
6.79375 102.533 8.90558
-4.22495 118.697 3.02002
-4.28939 85.2657 -1.03181
-12.3456 126.374 6.04704
7.52384 154.574 1.29266
-1.34215 122.083 -5.74527
-30.8794 127.328 -1.36188
3.40013 154.102 -2.03281
-27.2389 83.6753 -14.7878
13.7 122.678 1.42319
7.62922 152.117 -3.18439
-10.1032 112.867 -8.62123
6.5789 153.316 -2.29586
-16.4079 98.7774 4.92438
7.40448 85.1929 5.96517
15.1707 112.806 4.78357
-27.4656 114.118 -8.57423
-28.2708 124.593 0.676204
-20.4914 102.414 -15.1205
-9.66177 135.467 2.37456
-4.05868 140.773 1.82242
-27.7195 86.3394 -15.2865
-2.88823 119.279 1.76259
-9.10222 90.7307 1.33332
-10.0502 94.6771 1.95522
-15.6894 135.798 1.90084
-1.45607 141.367 -3.59015
-2.34092 86.9025 -1.06147
-8.52709 98.4703 1.48885
-13.2425 80.4959 -3.95129
-38.0626 129.301 1.64184
-22.132 127.87 2.84991
11.1091 90.8592 6.78995
-20.4153 120.713 6.63802
-21.5061 130.347 -5.17759
-1.32112 83.3615 0.631911
-7.99632 126.332 4.19994
-1.11381 121.175 -5.98122
-8.5336 128.611 4.30222
-21.7286 104.26 3.71726
-5.61637 122.739 4.50914
-25.9035 127.902 -4.30878
3.73051 103.609 6.45555
-13.1765 127.665 -6.76719
-28.0156 133.733 -3.94505
4.29691 103.654 7.15297
-19.2631 117.754 -10.2199
-24.3241 121.756 -7.5371
-23.2214 95.1312 -16.7005
-23.1994 96.041 -16.3783
-24.3338 126.851 -4.87522
-27.8175 132.095 4.78838
-16.0661 90.0045 1.79843
-19.7337 109.058 5.80238
-25.2071 132.043 3.95671
-27.3211 141.63 4.28006
5.98666 104.593 8.58176
-28.5139 101.601 -10.5566
-35.989 127.933 -0.700437
20.0423 135.813 1.84568
-38.1014 130.498 3.2326
7.23157 85.2037 5.91805
-2.48714 85.1829 -0.990636
-7.64741 82.1437 -1.68116
-2.46641 87.1183 -1.42265
-24.777 123.734 -6.26964
-22.847 112.996 4.71545
-27.3719 127.696 -4.31653
-2.08675 129.082 3.28525
2.7594 125.185 -3.40398
-4.45784 141.323 2.14489
12.0403 146.724 -1.92952
6.37295 147.921 1.498
-24.643 103.144 0.354667
-29.0645 84.6085 -13.7033
-22.6723 122.75 5.40035
-18.5911 135.525 -4.67462
-19.5366 122.277 6.88735
13.2863 143.236 -0.741377
-27.2599 84.4016 -14.672
11.1459 94.6707 6.86613
-20.9693 126.728 -6.30591
-24.7378 129.056 -4.57987
5.84716 113.747 4.94305
-27.4879 135.606 3.31677
12.0279 126.087 5.69567
-22.1664 124.623 5.28803
-25.8115 102.512 -1.49792
6.53403 133.149 0.554426
-16.8913 88.3203 0.255351
5.86391 107.532 8.19113
8.68454 115.087 9.04274
-32.2573 128.678 -1.26617
-30.357 136.881 0.63096
-27.9642 139.467 3.9337
-13.1947 108.387 -11.4957
3.2808 119.092 -0.511058
-10.6334 93.9048 1.5267
7.06882 85.105 5.84976
-12.6835 135.716 -7.84352
10.9393 86.6414 6.09846
-27.2464 99.6596 -4.22196
3.47612 119.521 -4.61772
-34.4394 130.25 3.37517
9.37058 120.869 8.80083
-14.7351 115.781 -9.67314
5.12872 122.805 0.619761
9.54022 118.274 8.87468
-15.3008 93.6106 4.72759
-25.8821 141.82 1.17114
13.7009 100.632 6.29679
-18.6005 131.382 -6.55408
-27.5629 128.472 -3.99085
1.73926 81.2513 1.1111
-9.59745 140.764 -6.82417
-17.6277 129.453 -7.15262
5.40338 110.087 4.25938
9.04932 150.562 -3.74098
-27.8637 134.2 4.05264
-19.4947 147.421 4.41333
-17.4372 112.411 5.78446
-3.06951 132.162 3.72719
5.74867 112.261 5.76228
-33.3 128.019 1.37044
-8.92777 119.703 -5.63034
-21.8368 77.8986 -11.598
-27.8001 86.5519 -15.7552
-11.7442 150.394 -3.85918
-13.0282 149.775 2.9209
10.9353 94.2287 7.0484
0.432449 83.5205 0.718865
0.227963 97.2999 5.48631
2.8614 124.517 -3.48446
-19.679 84.2966 -3.01144
1.54314 136.336 2.09987
-18.1934 142.333 -1.8773
-8.42158 119.862 -5.559
3.83205 128.295 -4.38269
-7.61103 143.947 4.6528
-1.05233 115.498 -0.826849
11.8253 125.846 0.742903
1.07059 98.0629 6.22459
1.93953 84.2989 1.84291
-19.7172 97.0402 1.98993
-9.65428 88.8803 2.01483
3.91038 109.421 0.915112
4.56401 144.149 -3.52333
7.51664 144.655 1.60022
-11.6649 151.496 -3.16634
-5.13938 125.484 4.25163
-21.2354 128.233 -6.10015
-21.6624 126.18 -6.894
-22.982 137.753 4.82226
14.2259 113.195 3.50698
-11.1513 123.524 5.65107
-29.7995 88.0017 -13.5583
-12.8835 151.504 -0.923952
-16.1606 119.495 5.7838
-17.881 139.697 -5.6213
9.30921 88.1164 6.73574
-24.4529 131.876 -4.82032
-21.5969 88.3444 -3.28131
-3.00749 84.4854 -1.6351
-5.45449 90.5415 -0.154135
6.15077 110.514 7.41727
-3.78322 118.891 -8.4041
-0.918544 154.3 -2.08477
-27.9083 116.542 -6.51119
-17.593 149.284 2.87021
6.11727 119.437 2.18431
5.35441 98.8487 7.70026
-19.0908 82.5833 -3.23449
-25.8189 119.507 1.28592
4.52361 140.959 0.979944
12.0321 139.422 5.35416
-26.1585 127.522 -4.67125
-3.02072 99.9902 -1.49827
3.89186 136.078 0.903656
-14.1351 83.0884 0.213755
-5.52519 112.785 2.75833
12.674 124.906 1.19564
-13.1906 143.783 1.5866
17.3648 145.252 2.46784
-9.75499 91.0231 0.294249
14.7755 97.5393 5.19338
11.5049 92.8365 6.91387
-1.51718 145.38 -4.07466
-8.18059 107.694 3.15567
-7.49045 81.5694 -3.86397
-8.86858 92.4063 -0.370755
-37.1328 131.206 1.77328
9.56209 121.121 8.8193
-28.9824 124.402 -0.696901
-2.61226 105.256 -1.5586
6.94438 107.072 8.87764
-5.70579 117.942 4.16872
5.65821 123.257 1.11078
2.8628 114.674 -0.649271
-4.28279 85.7566 -1.57465
-5.32576 130.629 -3.67421
-28.1807 113.143 -6.66745
-4.22154 117.803 -8.73799
-10.5442 152.71 0.134348
-13.8382 91.7003 4.31238
-3.07667 118.444 -7.85757
6.01566 114.716 5.04774
-7.084 85.7146 0.561625
-18.7192 94.7672 1.4128
-19.783 81.1665 -5.22625
-31.5734 133.065 4.47786
4.82985 111.125 2.09394
-14.2864 104.323 3.734
-35.3973 135.179 0.380685
-29.1749 123.628 -3.91342
-14.2545 116.679 -8.96199
-5.01811 85.7728 -3.75623
-1.46355 140.312 -3.37822
-24.375 121.879 -6.94966
-15.2346 93.1314 4.52644
-27.2524 112.463 -4.75981
-13.7506 146.534 -3.87529
13.2009 115.711 7.48362
-31.3935 136.534 3.16655
-18.7053 121.173 6.57187
-20.4593 92.9112 -1.16916
-24.1845 111.015 -11.2677
-8.98419 147.847 -5.88293
-6.19941 90.79 -2.03664
-0.0776549 98.9259 -1.03837
4.32491 154.935 -1.53132
-7.58792 132.811 3.69952
15.1296 110.62 5.70656
-26.6457 86.4808 -17.5232
-27.7539 88.1861 -9.35942
-25.5076 89.6319 -6.02414
-27.5719 114.27 -8.19468
-6.49854 131.939 -4.20589
-20.9481 103.718 4.3891
12.6205 103.318 7.41573
-16.2446 137.269 2.22544
-24.3259 143.72 1.51916
15.8702 131.718 3.85704
-26.1757 120.123 -6.71485
4.61935 97.6526 7.62075
-33.1901 130.345 -1.25773
-14.8079 146.594 -1.14149
-3.78853 151.048 -3.55321
-8.37372 119.906 -5.5445
-24.8746 139.154 -1.66991
8.98169 134.746 4.81729
-21.0797 139.734 5.48691
-5.67004 106.756 2.50612
-4.4862 133.532 -3.91069
-27.2784 123.387 0.770589
6.83065 96.8695 8.24672
-7.54771 89.329 1.36048
15.4168 95.2743 4.32733
3.40586 87.9092 3.83215
19.9528 140.968 1.64341
-5.63121 89.5896 0.0152866
4.22695 150.669 -2.86027
-11.7338 129.549 4.6952
5.32884 128.752 0.091275
-26.1104 138.548 -1.65005
-21.6084 103.419 3.48761
-6.96049 114.983 -9.22767
-2.18048 100.638 -1.41328
13.5071 102.527 6.63982
13.7539 104.125 6.49848
-0.928669 97.0962 5.32266
-5.18045 141.808 -5.32733
-27.8089 119.457 -3.51848
-26.4834 101.006 -14.3388
-25.779 98.6776 -2.5284
16.2138 120.416 1.40698
1.16013 115.037 -1.21981
9.97144 113.679 9.0326
11.7164 142.993 -2.20396
4.70915 127.976 -0.0297667
-22.3861 127.389 3.27405
0.694845 136.021 2.60547
3.61629 104.595 1.86175
-14.3781 131.47 4.77477
3.17585 138.366 1.41903
4.03541 102.876 7.23381
-31.3917 127.544 2.24087
-15.4948 117.875 5.6899
-20.4129 135.914 -3.9886
-18.6203 97.9637 3.68777
-17.257 114.481 5.71934
-28.4386 123.57 -0.858599
-24.9052 113.131 -0.578474
-29.971 127.021 0.191894
-7.05085 89.6356 -0.786121
17.7891 136.207 2.39539
16.4815 126.154 1.51102
12.2273 148.114 -1.57465
-21.4319 103.898 3.93332
-25.3366 144.059 2.54274
-4.74583 86.2883 -3.56241
6.03176 110.25 7.33367
-6.16871 92.5613 0.36555
-21.1547 138.229 4.94767
-34.2466 135.252 0.429513
-18.5787 127.576 -6.807
-15.4167 97.546 4.72203
5.33016 113.342 2.43472
-11.0527 106.608 3.0668
-4.9945 123.266 4.16519
4.81572 135.569 -5.50603
-5.83084 122.726 4.46474
11.0731 138.797 4.83049
-22.8364 93.3114 -16.2535
13.1105 117.201 7.07855
12.6452 147.196 3.29887
-12.8135 129.527 -6.65754
-12.2827 128.774 5.35303
-21.6508 131.829 -5.91361
3.46339 146.695 -2.80441
-15.089 142.492 2.78414
-27.5669 94.9836 -14.9631
-4.18606 143.097 2.95058
-9.32207 99.7049 3.28416
8.73458 116.533 8.8716
-14.7073 125.337 -6.24585
-5.1916 90.3006 -0.188565
14.7569 139.254 3.57127
-38.8194 133.106 1.42186
-33.8987 133.136 -1.73721
0.97675 143.895 -2.77841
1.5783 142.704 -2.59802
12.9208 146.933 -1.03722
-27.5505 82.8369 -15.5449
-14.589 89.393 3.15555
11.906 140.6 -2.1344
-25.6904 124.877 -3.5202
-24.8156 118.139 -9.80804
-18.5182 84.7717 -1.8856
-16.3646 120.184 -9.08538
5.04943 102.85 8.32997
2.93473 133.765 -3.40331
8.69373 119.442 8.72723
1.17747 131.324 2.0136
-10.8557 121.273 -6.17325
-7.14491 83.6503 -1.75803
-20.7852 101.477 3.50153
-3.88562 117.373 2.47674
-9.64531 141.532 4.25229
-34.6723 128.509 -0.181714
-27.0613 83.1757 -15.5582
-38.8735 129.158 2.53309
-27.9096 118.194 -3.87002
7.65576 80.8241 3.96119
-27.7275 124.635 1.36988
-31.9362 128.015 -1.26251
-14.378 122.481 -6.63718
12.1954 110.745 7.89229
11.7994 123.42 -0.513402
6.9154 139.956 -6.33266
-27.5513 118.81 -3.95185
1.22518 136.433 -2.34065
-2.99807 108.593 -0.417562
6.51269 148.231 -3.56026
4.07426 104.785 2.56969
-3.53831 87.1947 -0.844853
15.2324 121.288 0.895141
-6.43283 81.8853 -3.58391
-15.0952 149.146 0.49992
-26.9554 126.99 -3.81666
13.166 89.8637 5.4443
-7.72023 91.7587 -1.21418
-3.75206 93.2143 -0.021565
-4.5447 149.664 -4.07545
-24.6891 123.881 4.0602
-15.5491 91.4783 3.37927
-15.712 127.063 -6.84899
-21.0427 141.152 5.67729
8.27975 141.558 2.26144
-12.2343 134.824 2.89444
-25.7361 121.047 -6.88095
4.9033 109.545 2.87222
3.29746 124.111 -3.6695
-27.8115 136.143 3.05066
-22.7535 79.3856 -9.17103
-3.12454 140.263 -4.14569
-6.30254 90.2804 0.707283
-1.59366 115.393 -0.601506
-16.3372 135.764 2.83341
-0.055131 130.939 -2.41795
-7.15284 115.635 -8.56357
-22.1335 100.558 1.44018
-26.926 106.786 -2.11326
-5.51302 92.2477 -0.978981
15.6472 128.086 2.48299
-4.16257 127.54 4.07944
-24.2104 93.0443 -15.6674
-19.2152 130.528 -6.07414
10.6271 84.3489 5.63099
-19.1504 112.19 -11.2649
1.54596 120.036 -0.758586
18.9224 142.693 2.35955
-5.72873 118.951 4.36629
10.9773 151.492 1.62597
1.52358 124.749 -0.150438
-4.88312 88.4866 -1.07472
-7.89184 137.19 2.23891
-24.1035 112.267 2.84828
-28.4078 102.46 -8.05451
3.7755 140.154 1.11743
-5.52413 130.224 -3.69425
-21.6498 130.382 -5.14832
12.4901 113.837 8.12917
-26.3086 108.358 -0.808541
-15.1565 132.525 3.87584
-17.5596 139.532 -3.5097
-27.1277 134.986 3.80409
-22.8655 89.2207 -4.18263
-5.22101 123.128 -4.55929
-22.0645 78.8709 -9.60776
4.81044 123.743 0.198802
-4.05147 134.371 3.57482
-3.7965 88.7479 -0.513537
-7.10794 94.0387 -1.39203
-8.64606 89.0745 1.4246
-3.94118 92.8673 -1.5199
-10.1194 85.5122 2.07716
-14.2563 133.861 1.99681
-22.3987 108.677 4.07913
-8.45121 136.165 2.37252
-1.13131 103.444 -1.77489
-7.17039 90.1765 -0.631549
-8.59814 140.62 -6.86943
-2.3946 120.365 -7.11413
-8.06948 153.474 -1.47319
-24.8518 123.499 -5.0692
-25.4391 131.419 -4.93437
-18.0469 110.713 5.86206
11.6551 144.655 -1.65313
-28.3695 96.8343 -12.522
-14.1123 103.923 3.71043
-26.1519 122.545 2.06724
-14.1707 114.884 4.59728
-19.612 122.761 6.79506
-13.5932 87.2712 2.71421
-28.7701 125.744 -0.879339
5.53053 134.722 0.970532
-4.46838 86.4374 -0.969398
-18.3865 131.567 -6.58513
19.2291 135.07 2.17123
-2.86411 143.855 -4.51063
9.7519 116.842 9.01556
-14.0119 111.478 -9.84147
10.5932 153.205 0.720413
-18.3328 130.343 -6.64623
-22.7506 113.262 4.86058
-26.9937 90.357 -7.47817
-21.3192 133.64 -3.67426
-21.0494 122.657 6.33214
11.035 124.935 -2.11304
-7.91972 128.234 4.26393
11.0726 141.47 4.90505
4.63783 147.468 1.56157
-10.8325 135.781 2.23771
-16.0361 117.886 5.69242
-7.90068 114.842 -8.34314
9.51797 146.874 -5.21927
-24.6297 131.921 -4.86798
-15.8855 133.119 -7.24428
2.06668 107.709 -0.973455
-18.9638 117.343 6.00498
-18.8277 132.303 3.40193
-17.3358 106.016 5.20619
-12.1944 108.852 -11.1321
-27.2836 96.8315 -5.21955
-17.1628 82.0288 -2.23489
-15.3443 137.905 -6.0946
-30.8572 124.136 -2.09309
-24.5616 142.567 5.22025
-26.9254 131.434 4.89461
-7.59397 137.373 -6.15043
3.66211 121.322 -4.37587
-14.1575 146.583 -3.15131
-12.7898 107.246 -12.384
-2.73205 122.724 -6.29287
-18.1605 99.2999 5.07855
-13.8977 147.461 -2.95677
-22.0785 105.329 -14.1706
-15.3972 127.495 -6.99219
-8.08996 145.327 -6.11518
8.01072 134.115 2.81685
-20.0513 97.8136 2.24103
-25.1816 124.246 -6.11577
-14.4102 112.303 4.49863
-2.84963 85.0845 -0.795254
14.3121 113.391 2.9371
-27.7371 85.4954 -10.2581
6.28594 136.819 0.602373
12.1147 89.935 6.10378
18.3979 127.788 3.89788
-15.6326 134.82 2.27752
-23.3647 115.074 4.54504
10.0162 89.6068 6.87018
7.53775 122.17 6.4193
-22.9385 135.895 4.17472
-25.4206 85.8035 -7.45917
-26.4037 139.618 -0.531617
-14.9234 124.888 -6.23295
-1.17568 103.296 -1.73484
4.17635 131.723 -5.21236
-38.8781 131.408 1.25392
-6.60055 89.1237 1.19294
-12.8215 140.049 -6.65232
-26.3861 89.1612 -16.6829
-36.5816 134.88 1.05048
-2.27027 142.258 1.80507
-15.5995 84.7272 0.292175
-18.022 97.678 4.49076
-17.6433 82.5052 -2.30879
14.0995 102.787 6.20211
-7.66182 81.1365 -4.40839
-2.95429 86.0458 -1.13052
-27.9042 101.213 -13.064
-13.2254 144.036 1.62285
2.09959 83.25 2.02516
-18.9592 126.022 6.18333
-16.6884 105.054 4.74936
9.1739 122.553 8.52769
-12.6287 80.3957 -4.50007
-7.43838 105.508 2.28152
-18.1566 110.519 -11.3141
-5.66429 93.2092 -0.519937
-11.787 92.9767 2.62114
-11.4046 97.6614 3.97873
5.09419 145.636 1.5257
-1.77229 106.064 -1.84511
-10.8549 86.1179 2.40512
10.7744 152.469 0.484244
14.1709 124.556 3.71313
-20.2873 146.339 0.395908
-9.62849 90.7383 0.324509
-1.50205 115.857 -0.543228
-3.74246 142.966 -4.81174
-24.0971 138.646 4.38763
-24.2596 90.914 -4.36772
-27.0784 96.9594 -5.00473
0.548671 129.522 1.85909
-25.0886 110.031 1.55153
8.59767 88.2713 6.86182
-10.8935 127.666 5.25509
-25.0522 82.6629 -8.56827
7.13312 114.765 7.9958
-15.3884 149.685 3.58822
-27.3713 136.539 -0.606738
7.26385 87.5339 6.70655
-18.1696 149.009 2.76722
-17.9809 93.9667 2.02799
7.16086 116.214 7.81636
-25.4845 140.231 4.81027
-16.7568 145.38 5.48904
-27.2717 122.736 0.682133
-26.8729 80.4549 -12.9722
-26.9312 116.929 -8.29143
0.495621 128.804 -3.1697
5.99271 114.29 5.36316
-23.0578 77.926 -11.2066
-2.84543 142.939 -4.44294
-12.6749 131.661 -7.85897
-2.20971 107.287 -1.59478
-8.6691 139.41 2.2258
-5.62671 108.68 2.67883
16.758 124.323 2.08018
-10.4051 115.202 4.9447
-9.1198 151.65 0.800829
-5.41308 93.154 -0.316217
-26.4164 79.5489 -14.0483
-16.7369 141.972 -4.6078
-4.9364 109.818 1.7745
-3.04412 94.6033 3.82064
-7.56139 130.925 4.67421
-28.0764 96.2239 -10.8919
-11.3236 90.9194 3.48488
-31.7547 126.572 1.10881
-25.1996 124.899 -5.02091
9.43092 151.477 -1.44503
7.09008 143.173 -5.52493
12.7499 119.707 6.06538
-24.203 123.773 -7.01104
-32.4634 127.83 1.963
-30.5653 132.309 4.61497
-6.83327 83.8356 -2.32727
1.31821 137.612 2.49077
-25.7778 123.108 2.62731
4.46228 79.0362 0.271761
-5.67526 90.7572 -2.14352
-24.4399 124.818 3.96294
2.11132 135.391 -2.81289
-6.36239 92.1027 -0.0461336
-4.72246 93.0645 -0.539477
14.3394 110.173 6.63996
13.845 88.7535 4.94102
-27.7398 133.303 -4.86694
6.75237 121.28 3.24415
-18.3545 110.426 5.85953
-26.745 135.79 3.47119
-33.3185 134.355 -0.979427
4.00759 105.377 2.14271
18.167 145.929 1.55321
-15.4534 150.095 2.43931
-29.3617 88.7349 -11.6156
13.4298 114.798 7.41896
-27.0728 114.568 -2.64487
-8.96446 120.151 -5.42188
-12.6201 143.456 0.955228
-13.0688 130.921 -7.65062
-29.9116 137.8 2.51165
-20.964 84.6114 -4.13046
-24.7433 103.175 -13.9871
-11.9224 114.266 4.59559
12.8796 145.189 -0.525824
-34.3019 127.734 0.349086
-27.1058 141.851 4.2834
-32.7261 127.367 -0.0967008
-23.4443 130.299 3.55652
-14.4624 136.477 -6.78162
-28.565 88.5313 -10.4985
11.2221 120.895 8.15782
-0.43782 138.274 2.43883
-26.2521 128.971 -4.36128
-4.95604 106.768 1.86354
-23.3207 131.197 -4.39509
5.221 107.476 5.78164
-4.50576 86.7931 -0.954787
-14.2817 141.989 -5.43701
-22.1264 132.504 -5.98536
-19.9516 118.238 6.64707
-26.8895 89.4269 -7.62309
-30.5557 139.125 1.28337
8.28891 150.05 -4.27755
1.10266 112.894 -1.33506
-20.0372 93.4277 -0.397117
-23.1499 89.3553 -4.41634
-11.0937 113.942 -8.27407
5.57472 111.675 4.98176
-16.8022 122.273 6.06504
-14.0182 141.129 -6.04692
-21.4343 91.8455 -2.38304
2.01192 114.027 -1.00975
15.2854 142.531 -1.80556
-17.8255 136.856 3.85508
-16.1921 138.203 -5.3334
-27.4508 126.759 -3.51362
-21.5282 140.567 5.73022
-1.7152 142.84 1.9971
-27.9292 110.831 -9.17814
-12.2247 130.609 4.73375
-15.0772 95.6309 4.48043
-11.7306 138.881 -6.7743
6.25675 102.186 8.83592
-5.50005 124.828 -4.25718
-3.39758 110.388 0.400712
8.27203 124.656 7.29669
-20.3075 127.278 3.28698
-24.3753 90.8273 -4.48374
-27.0961 110.513 -10.7243
-13.427 84.0476 0.972348
0.140606 109.403 -1.65285
-27.8832 126.762 1.12282
-26.2996 134.488 -3.66785
15.9807 147.625 1.9977
-15.1652 111.84 4.82182
7.26698 119.734 6.73029
-26.7466 107.258 -1.72331
-30.7413 130.076 -1.98991
-4.692 92.086 -0.162017
-13.0685 114.975 -9.17696
-26.0893 111.337 -4.84044
-18.2512 119.352 -9.18629
0.52725 97.653 5.77729
-24.3966 119.793 4.67674
-23.1306 130.135 3.03107
-10.9463 126.871 -5.66102
-9.73601 153.501 -0.756571
-8.07013 130.543 4.68954
10.8416 128.047 6.36051
-5.49289 93.1685 -0.342235
-10.463 131.806 4.24766
-11.1079 111.31 3.7244
-15.164 123.282 -6.88376
-2.59868 107.905 -1.11188
-28.0857 100.425 -12.8482
4.8252 116.63 0.661085
-4.20096 88.0388 -1.19623
-30.9251 129.206 3.50012
-5.71721 127.41 4.5622
-15.6904 83.604 -0.316648
-33.8563 124.254 -3.67988
-13.842 138.819 1.45135
18.8108 124.234 3.63324
12.4051 148.059 2.94425
-6.95427 127.379 4.36981
3.85414 143.368 -3.40005
-17.4922 144.029 -1.22338
-16.2512 95.8732 4.72147
-8.67537 115.034 -7.86978
-18.764 147.856 1.25764
-4.04659 85.0043 -1.67511
-21.1665 78.217 -11.2885
3.70107 130.154 -4.49986
-28.0976 112.272 -6.57025
13.4145 127.991 4.67203
-16.2378 103.688 4.44263
-25.1139 102.39 -0.597887
-21.8088 82.1539 -6.10508
-1.84659 83.6621 0.342844
13.3766 119.219 5.15693
-13.2406 91.6093 4.17002
7.62397 129.606 4.73864
13.1925 125.277 0.0990647
-27.2452 107.468 -3.71362
-27.8077 114.248 -7.46902
-15.8401 94.8198 4.8658
-25.807 83.729 -8.49296
-1.54476 143.513 -3.90185
-5.2533 107.009 2.21925
-29.5728 90.9074 -13.0222
-12.6629 85.4813 1.8496
4.93091 104.048 7.28476
-25.8691 120.852 -4.29012
11.8329 82.7173 5.0104
-22.6545 104.614 2.83127
-23.252 77.4781 -11.8557
13.9835 127.501 4.33128
-15.4819 112.941 -10.2435
10.6999 152.022 1.57464
17.7437 127.992 3.44954
14.9472 99.9164 5.22296
-28.225 93.2588 -9.33559
-11.6259 92.4707 2.39322
10.9399 148.716 -2.71314
-29.0793 124.185 -1.08514
0.869976 90.1343 2.85829
-40.2441 130.273 2.3128
-13.9241 150.888 2.18648
-30.1974 127.646 -2.62133
8.11816 79.7039 3.17903
-3.48889 87.2379 -0.958789
4.9968 83.9027 4.60756
6.50372 115.671 6.24383
-26.6202 114.098 -9.80204
-19.7631 129.943 3.96858
-1.76806 130.4 -3.00686
-27.585 107.793 -6.83016
10.331 126.589 7.06375
-18.7733 114.189 5.89093
-13.312 127.495 5.62301
-20.0791 146.297 0.310615
-16.2618 96.2491 4.75461
-25.4015 116.965 -9.90591
8.83012 131.266 6.48618
-25.5841 132.697 -5.45289
2.31642 80.6443 0.17786
-15.7284 133.758 -6.86323
-7.20574 127.136 -3.89267
-28.442 84.3795 -11.716
17.9812 146.145 0.288015
-26.6718 117.544 -0.380594
-5.29031 137.566 -5.01702
-14.8816 107.001 4.07972
-4.93934 144.537 -5.08084
-18.8911 115.473 -11.2584
8.96747 152.06 -1.72252
13.5773 124.035 -0.338193
-30.7985 137.662 2.78721
-19.5695 87.3842 -1.70927
15.7689 134.901 3.17447
-5.16173 110.466 2.02234
-7.39245 126.248 -3.93818
-30.0531 132.598 -3.78473
-8.29824 82.6917 -0.185082
-11.266 113.489 -8.37257
-6.77606 120.597 4.35706
-9.38134 150.596 -4.57038
8.52388 90.4535 7.34589
5.61672 107.712 7.30601
6.09495 118.467 2.62964
-10.9314 126.989 -5.62189
15.6964 111.82 5.13514
-19.4821 148.154 3.30898
-24.632 124.47 -5.36878
-18.718 133.051 -6.15672
-22.7398 124.151 -6.92716
-16.098 89.6149 1.74963
4.15433 140.36 1.03716
17.8373 137.185 2.42172
-12.8958 116.115 -8.51877
-12.844 111.028 -9.85102
-35.1044 130.016 2.11062
-6.28766 87.5219 -2.33869
14.4261 106.712 5.96952
-30.5064 125.149 0.146102
15.8469 147.751 1.13809
-24.9623 95.3996 -15.913
10.9807 147.273 -2.75804
-18.0175 110.626 -11.2409
11.7677 152.063 0.563907
-11.8028 88.5788 2.66422
13.237 147.375 -0.17383
11.226 124.843 -1.12106
4.03935 107 1.6145
-9.45044 116.214 5.10571
16.7542 146.505 2.22
2.67688 137.184 1.64521
4.22693 142.778 1.30672
-35.253 134.765 2.55281
4.86619 115.497 0.957237
-15.9867 115.458 -10.5256
-15.5202 120.552 5.87407
-28.172 114.586 -4.43664
-9.88978 142.405 4.40565
-12.7207 134.306 3.14158
10.1572 144.959 3.68849
17.6406 132.475 2.55578
-0.542965 99.1323 0.521979
-19.7875 128.037 -6.05761
1.12255 152.474 -2.98718
3.91282 133.82 -5.16495
-31.0477 139.097 1.31093
-5.44767 130.244 4.68599
-27.9137 97.3906 -10.2769
-33.4093 125.373 -2.40853
-12.649 80.4319 -4.44055
-5.28016 95.3551 -1.51579
-15.0862 131.306 -8.56725
-7.51849 79.208 -4.59268
-28.7087 95.2859 -14.2053
-1.38978 131.544 -2.88989
-9.96667 101.492 3.6624
-5.99759 91.6786 -0.161676
-14.5021 116.6 5.06538
-7.916 81.7252 -1.69452
13.4105 144.568 -0.36529
-30.1934 124.874 -2.67443
9.58197 151.759 -0.861248
-10.9642 122.069 5.21187
-5.80304 124.786 4.59437
-27.6443 84.33 -14.1749
7.62495 83.1376 5.11017
8.04908 109.042 9.34978
-35.8632 129.43 0.240469
5.31935 105.273 5.2026
-23.8811 125.53 -6.21204
12.5459 105.142 7.20169
-20.1962 113.602 -11.6801
12.6389 141.713 4.22341
0.196315 84.4959 -0.0160574
-17.108 142.82 4.32737
-18.1248 137.388 -4.89456
5.85656 113.173 5.57104
-25.2205 82.8102 -17.1442
-21.5166 100.085 1.95589
17.1535 124.81 2.55622
-24.2693 101.89 0.370642
-2.22758 83.6724 -0.117308
-19.9984 119.838 7.01853
-3.71169 146.465 -4.58356
-3.02843 85.3651 -0.836447
-33.2531 124.804 -3.03243
15.323 102.972 5.03099
14.6114 119.165 2.74396
8.31437 79.2555 2.8641
9.52932 140.477 3.28507
-3.82539 129.798 -3.3965
-10.3769 94.2291 1.70045
1.59166 122.065 -4.05089
-27.9474 127.915 3.33633
12.2364 147.444 -2.01402
-1.54487 90.6175 2.69406
-3.0134 129.11 3.7357
-0.58019 121.463 -5.35494
-7.82092 143.005 4.0329
-10.4056 113.894 4.56577
13.6281 105.671 6.47181
7.3004 79.1792 2.51305
-23.1284 124.49 4.50875
-31.3161 126.919 1.90753
-7.04209 86.745 -0.133372
-9.98901 145.73 1.77103
-22.2828 116.849 6.02148
-26.0115 135.4 3.93974
-9.7358 143.088 4.07826
-4.50405 119.861 -7.60752
15.7082 147.865 1.68107
5.93445 110.442 7.0452
-8.37325 143.007 4.25951
-23.9947 89.909 -17.2416
-17.7044 109.679 -11.9944
15.3861 121.322 1.25123
0.697246 100.374 2.18045
-26.9602 107.921 -2.90538
-26.2021 141.819 4.69726
2.66435 115.109 -0.743769
-0.256905 96.4807 5.54548
5.97508 121.011 1.85125
-25.1689 132.305 4.11543
-10.5717 127.555 -5.27157
9.02099 128.986 6.76729
-10.8522 152.054 0.941274
-18.9882 84.9489 -2.18255
-33.7969 135.991 2.74095
-20.0265 126.685 4.0952
-3.63906 87.8176 1.06392
6.48368 108.79 8.43971
-5.78733 143.347 3.63312
-18.2645 149.002 3.04329
-27.8235 102.148 -5.11749
-28.2439 140.141 2.34653
-25.0784 100.662 -14.8685
2.53642 134.971 1.07694
13.7716 141.853 3.90701
-0.404451 152.289 -3.02893
-20.7052 104.993 -14.3244
-14.1184 137.412 -6.76506
-19.3868 133.753 3.43583
6.27094 127.763 1.07152
-24.447 140.621 -0.462865
-1.6673 94.9527 5.20303
-24.4644 124.453 -4.04512
-7.66224 110.152 3.68934
1.09848 126.551 -3.32462
-16.0242 88.425 1.74298
-14.0781 147.261 -2.73212
-23.9647 116.431 -10.7767
11.5641 96.0827 6.87225
-17.0266 90.1832 1.0147
-7.98557 120.069 4.42929
-6.61195 90.2359 -1.0803
-23.6068 128.511 -4.0209
-28.4155 117.802 -2.8188
-13.7584 79.863 -4.3487
-26.5916 108.98 -2.39205
-14.7901 137.678 1.80265
-8.13144 152.843 -2.21005
-16.1132 104.609 -13.5425
16.6071 124.976 1.15069
-11.4187 143.962 1.41015
6.50425 147.368 -3.84602
-10.272 150.119 -4.68196
-17.7705 138.237 4.62436
-21.5827 139.856 -2.8567
12.056 139.943 -2.25312
-5.18223 139.117 -5.40588
-11.0188 151.136 1.56295
-10.2861 128.534 4.51378
-11.4554 129.208 -5.81716
-5.98365 107.289 2.6422
2.24246 140.774 -2.43593
-2.6318 86.0767 -1.84218
-17.1935 122.658 6.30578
11.873 148.877 2.58488
9.56314 93.636 7.68874
-24.1789 121.959 -6.22026
-14.7515 150.552 1.15365
-29.1843 139.879 2.18736
-23.1837 95.2956 -1.59316
-25.3096 110.148 1.33321
-6.85659 123.577 4.30736
-14.3759 90.8276 4.09345
16.5807 121.012 2.14745
-25.8816 109.701 -0.730283
13.7639 114.141 7.06581
-7.68473 130.655 4.6999
-15.7627 112.402 5.13103
-26.1655 137.743 -2.04115
-27.0538 121.326 -3.53903
4.54012 108.275 2.19869
16.3571 121.718 2.31929
4.40686 129.689 0.109668
-5.22091 85.3092 -2.66532
-12.4255 89.4588 3.09483
-1.53096 130.196 -2.88647
-18.4219 93.1693 0.50449
3.88785 147.707 -2.90009
-27.593 126.892 2.49195
-9.09197 99.106 3.11064
3.3348 127.554 -3.42511
-12.7777 98.4603 4.47234
-8.432 126.529 4.10839
4.93225 108.596 3.30489
-24.2544 93.4797 -3.56165
-20.5788 87.81 -2.54171
-26.4558 101.856 -2.4617
-6.3279 104.363 2.30001
-12.3522 93.3204 2.81517
6.10825 142.233 -5.03503
-36.127 130.826 2.32758
-7.05758 130.216 4.61084
-5.29283 87.2095 -2.72847
15.0236 121.054 3.62476
2.54635 136.884 -2.94129
-19.748 114.65 -11.7157
0.787333 100.007 5.2485
-8.07137 106.567 2.72085
-13.2168 108.848 3.72258
-0.932444 146.46 -3.93338
5.3022 115.63 1.65602
11.6344 129.19 5.34068
-18.9284 136.356 -4.64214
-29.5222 87.1427 -12.1092
6.42465 85.4601 5.74336
-24.3271 117.093 1.72236
-23.8318 97.8328 -15.5229
-19.049 80.7435 -6.32156
-13.0746 132.204 4.4734
-38.2363 132.011 2.49544
-14.5348 146.139 3.00257
6.49042 132.012 0.476349
2.91288 102.86 2.37692
-25.2509 124.671 -4.41002
-26.3369 102.859 -14.023
-27.017 109.031 -11.0393
-28.6047 95.1758 -10.9823
-18.9339 95.1569 1.38087
-13.8929 140.44 -6.49039
-9.67987 150.464 -4.58705
-24.7081 124.271 -5.57196
14.3407 133.95 4.13882
-32.6607 130.34 -1.41646
-10.7 111.724 3.83963
-12.9211 103.448 3.43006
-19.8287 135.885 4.47808
-24.4002 119.388 4.36474
-27.663 93.5776 -14.9675
-11.9962 126.458 5.95869
11.8093 81.768 4.92272
-5.99255 134.17 3.73227
-23.9753 127.484 3.12582
8.47255 118.381 8.6975
-7.44366 137.776 2.08212
-27.6064 83.9606 -17.5217
-19.7324 139.85 5.0041
-23.0114 77.7098 -11.56
-18.4479 113.353 5.71804
-13.4567 122.834 5.70664
-11.5823 131.387 4.18132
1.0511 147.883 -3.40201
5.65163 109.908 6.2801
13.5216 127.69 -0.043118
-25.8174 122.77 -4.7343
12.872 117.422 7.54989
-11.5388 92.8374 1.86969
20.4347 125.163 3.39457
-7.30773 152.031 -3.79814
-13.1559 95.9933 4.2036
-9.07173 113.957 -8.33756
-6.18018 89.5159 -0.503217
-5.11044 116.257 3.46896
15.6095 147.078 -0.236664
-25.5912 82.3042 -14.5764
-4.85995 87.9738 -2.64995
-20.0506 146.859 0.706238
-7.66911 143.344 4.2249
-6.24475 153.268 -2.24731
-17.508 83.1174 -2.04959
-12.711 145.273 1.24571
-15.5004 120.568 -8.40455
7.63671 84.0558 5.67942
-27.2477 127.122 -4.02241
13.6481 129.081 4.2763
-26.5735 107.204 -11.9612
11.8034 123.932 0.676979
-7.60374 105.257 2.33942
-19.9794 84.1479 -3.30104
7.20788 116.178 7.85523
-27.3402 137.655 0.498002
16.6502 146.95 2.10692
-17.7736 126.254 -7.74913
-27.9008 102.518 -5.33199
-24.1274 105.203 -13.1119
-24.8 114.046 1.5383
-20.3508 124.82 4.93574
-23.3277 80.0725 -9.07039
-28.2479 137.454 0.6481
-11.8577 89.3642 3.07599
-7.27355 139.156 2.09035
-13.6689 119.603 -8.08979
-23.4381 109.737 -12.5389
-27.032 126.898 0.928114
-25.1674 110.999 1.55771
-10.4276 151.857 1.11636
-27.6739 106.369 -4.80324
-16.2146 119.813 5.79272
-9.75666 117.648 -6.49097
7.54736 109.619 9.10367
-15.4771 137.457 -6.02988
5.04301 91.657 6.67848
-25.6628 105.089 -12.934
9.41309 135.982 4.69165
-9.68074 135.321 -7.4502
-14.3354 148.592 3.62879
-25.9587 123.172 -4.35795
-3.76023 119.062 -8.2631
6.03351 135.406 -6.03348
6.49757 141.463 -5.53047
-11.4933 120.679 -6.72783
3.22447 85.2634 3.29785
-26.4997 108.313 -1.5878
4.72471 83.9877 4.53415
-5.83043 99.8179 -0.990205
-2.21117 139.744 -3.50134
-1.06899 128.485 2.62012
-23.569 92.1403 -16.3111
-26.2201 107.194 -0.628673
-22.0349 95.2612 -0.731844
-4.4005 119.649 -7.79569
-7.21927 126.493 4.34667
11.9619 141.658 -1.98643
14.9676 121.523 3.88034
-14.8984 134.344 2.09349
-5.96558 93.3076 -1.16855
6.42043 92.4851 7.05703
-26.6367 113.432 -2.73908
-6.49004 90.9527 -0.277939
1.26532 92.0311 4.58142
-10.6888 108.988 3.40225
5.45958 151.593 -2.92934
4.96107 88.321 5.3967
-8.92917 101.595 3.59296
-8.07696 128.062 -4.36397
-28.9707 126.832 -2.59458
-30.7908 123.229 -4.47618
-26.0304 79.4273 -14.8158
-3.42973 128.366 3.7792
-18.9513 133.144 3.35463
-22.1881 143.362 5.14088
12.2547 129.111 -1.82888
-27.7701 111.26 -9.25873
3.23899 82.8549 3.55285
11.3954 104.739 7.86803
2.44489 145.46 1.96248
-25.3644 96.8672 -3.09032
-14.5488 116.809 5.14869
-18.1895 101.667 5.47036
-11.4061 115.064 -8.27558
1.32464 90.9133 3.84853
7.5677 128.379 4.63984
13.1886 148.009 0.361311
-9.21978 135.892 2.36399
-25.3402 80.3823 -14.264
-14.7938 99.6974 4.67742
-6.10344 92.5691 -0.862884
-25.4141 111.537 -2.60896
-26.6312 120.183 -3.9973
-25.5937 143.247 3.90347
-8.4238 141.132 3.41661
-22.6457 136.048 -4.88739
-5.11329 90.3412 -0.17327
7.61996 108.178 9.2305
-18.0496 125.683 6.49256
-31.111 125.588 0.261974
10.0327 135.125 5.72905
12.4949 151.539 0.474354
-9.24341 149.018 -5.479
-19.062 96.6658 2.29663
6.11112 112.15 6.72618
-10.7945 128.108 -5.42369
-17.633 110.761 -10.9191
-5.82231 89.0582 -1.86111
-22.485 98.7847 -15.5218
-28.5091 125.588 -2.75792
-8.14083 126.903 -4.20073
3.47685 103.207 4.54662
14.8921 143.247 -1.03128
-13.6282 82.7698 0.187027
-4.05973 87.0158 -0.166767
-12.9245 145.083 1.37841
-12.1905 135.549 2.33304
-15.1263 146.801 3.9869
-27.6505 107.899 -6.60215
-25.6453 104.72 -0.411566
-34.1007 134.47 3.69486
-37.6488 132.248 0.402821
-3.44763 86.7015 -2.06456
-14.1289 138.893 1.73116
13.4371 148.537 2.70126
-11.5307 80.5558 -0.807548
-17.7283 92.4585 0.846423
-2.37732 143.956 -4.3264
-7.3143 97.8502 -0.086589
11.611 117.826 8.65398
-26.2814 129.243 -2.01482
-12.6392 126.156 5.96131
-23.2023 119.056 5.55105
19.8291 125.966 3.7258
-10.1415 131.733 4.30532
18.4069 145.819 0.588271
-28.4612 102.205 -8.32551
12.9663 143.267 -0.923865
-3.45736 85.4935 -1.77762
-3.46142 87.2813 0.566242
-24.3586 96.2313 -2.35261
-10.0556 114.39 -7.72037
7.18245 128.065 2.13218
-2.03792 85.1455 -1.0383
-8.90588 108.447 3.43814
-9.46705 97.3524 2.66052
-13.3618 149.533 -1.24077
3.47734 142.89 -3.24553
-9.25894 133.047 -5.93562
-32.9789 136.249 0.873447
-26.8091 115.713 -2.22644
-4.08314 139.473 -4.41713
-0.8749 148.745 -3.8415
-18.7453 143.422 5.90914
-1.54444 139.08 -2.99232
-26.579 121.124 1.97299
-12.044 134.344 3.62293
-13.1946 127.994 -6.77425
-26.4052 130.629 -5.07814
-6.52107 92.4668 -0.765737
-25.7329 140.409 4.87308
-26.2919 117.963 0.529647
-16.6164 123.646 -8.2368
19.955 142.77 1.09077
-2.2467 126.721 2.47027
-13.4412 123.871 5.96679
17.5354 143.574 3.17395
1.84788 123.432 -3.71731
-9.84783 81.0542 -0.563172
-11.9457 122.451 -6.13679
19.335 138.942 2.60644
-26.0329 97.1564 -15.5284
-30.0912 136.064 0.0147075
-12.3414 137.398 -7.38602
15.8042 122.305 2.93667
-28.4777 101.067 -11.4427
12.2166 146.421 -1.61448
-5.31981 132.896 -3.98258
-4.25247 137.632 -3.9499
-0.778801 126.32 1.31952
-5.23791 120.295 -6.83695
3.44635 138.726 -3.58451
-28.1491 137.569 3.13053
-11.6392 113.332 -8.53718
13.4974 140.96 4.06963
-0.890991 120.018 -6.25664
19.9179 140.36 1.84756
-30.2564 131.606 4.71127
-32.9914 127.466 -0.393135
13.0496 126.062 -1.1506
-16.4041 131.03 -8.31082
12.7764 117.63 7.35255
-38.1868 128.909 0.987019
5.79076 120.205 1.76121
-2.87347 94.6767 3.99891
-12.99 141.741 -6.221
-26.9866 114.141 -2.62928
-23.2665 94.7322 -16.5343
-21.5131 127.454 3.00435
-10.811 112.632 -8.75267
-11.1028 134.406 3.66724
-3.00866 86.3534 -1.71054
-2.39321 84.8553 -2.58794
-25.58 126.486 2.30122
8.23948 115.747 8.68893
-22.4477 87.6796 -4.25188
-6.72096 140.489 -5.70776
13.455 116.638 5.44724
-17.0258 144.656 5.42006
-22.0634 87.1896 -4.04027
2.52006 139.199 -2.79887
-0.676517 134.86 -2.27278
10.159 150.704 2.03948
-12.4388 129.739 -6.46883
14.6149 113.799 2.47071
-5.58743 112.568 2.75627
7.64455 129.578 3.86616
-17.3374 148.19 1.70996
-5.38643 104.211 1.77992
-21.743 96.7661 -16.7333
1.09043 116.024 -5.56135
-16.3864 125.894 6.5261
14.2195 98.0881 5.76204
-4.01903 87.1956 -2.63962
-10.04 147.476 0.822563
-26.4175 82.6132 -15.0305
-26.2455 111.678 -4.52756
-2.90754 94.4075 -0.66482
-25.6126 94.3157 -15.2281
-6.65118 128.399 -3.81403
-25.4715 128.921 -3.70342
13.9691 123.009 4.79599
19.293 126.867 3.89013
-15.2099 118.715 -8.99901
-27.4803 87.5444 -17.2467
-6.89092 82.2992 -2.21823
6.22482 115.989 4.5372
-39.6526 133.347 2.85794
-19.9378 110.057 5.9152
-3.05448 118.703 -7.74608
-19.4481 108.016 -13.0926
-28.0758 137.939 3.27156
-18.3213 134.522 3.04789
20.041 139.245 1.9852
-0.977697 139.958 2.21687
-0.150215 118.155 -0.672702
11.7759 143.444 -2.64955
-1.24637 107.269 -1.70642
-8.93757 111.775 -9.88928
6.40641 123.933 1.78218
-26.7102 127.719 2.90648
-28.2101 104.528 -6.02766
1.47218 123.77 -0.294081
-8.78138 120.735 4.47408
-26.384 137.918 -0.875309
-25.6472 101.554 -14.545
-9.91225 120.864 4.69923
12.9235 109.838 7.38046
-20.1304 105.919 -13.8867
-23.37 117.012 3.36149
-10.0253 132.642 -6.52105
-17.4723 139.374 -4.43561
-26.0624 128.191 -4.11425
4.96945 130.286 0.140412
-26.0403 129.627 -2.4154
13.0667 83.8674 4.78546
9.59844 120.352 8.81018
5.18613 104.979 5.41912
-32.286 125.906 -0.991902
-7.36757 141.956 -5.95872
-10.195 116.018 5.11097
-0.39899 123.848 -4.63989
14.8498 123.096 1.36779
-0.124015 82.9002 1.06506
-7.85515 145.099 -6.01841
12.0076 119.106 8.32681
-36.6255 133.805 3.42426
-26.6509 121.429 1.75067
-18.2769 142.785 5.64278
-3.29271 102.143 -1.56254
6.59423 101.456 8.63957
-17.699 138.28 -5.20234
-8.10612 152.516 0.166074
-7.34436 97.0746 -0.52859
-33.936 134.816 3.52285
-9.26065 127.956 4.26746
-19.6249 126.679 -7.58261
9.33336 131.335 6.54776
14.6727 94.2264 4.91353
-0.424503 99.2287 -1.49729
13.1711 128.918 4.52262
-24.5862 115.126 1.04064
-25.5847 95.7677 -4.23866
-3.84434 123.935 3.36391
-33.0356 126.588 -1.08734
-21.4395 134.144 -3.88391
0.912816 91.0723 3.51469
10.4141 115.33 8.90972
5.24615 107.314 6.00868
13.3885 118.054 4.33726
13.0312 123.929 1.13405
3.65989 131.786 -5.03339
-24.7434 127.429 3.08327
-22.8159 97.3003 -0.977206
-23.7275 119.504 5.17706
5.56888 150.856 -3.02938
-5.42056 111.841 2.42439
-23.8697 138.269 -3.98158
-20.3553 144.872 -0.453185
1.18831 123.344 -3.90667
-32.7309 129.27 3.37482
0.0688928 127.41 1.14986
-30.3551 136.193 0.325466
-15.3559 126.139 6.1718
-27.9955 123.604 0.334911
-8.16751 121.959 4.274
-12.2749 118.366 5.67265
-23.264 110.554 -11.9942
14.6815 114.083 1.64702
-26.1904 131.605 -5.27336
-19.1823 82.9647 -3.16117
19.3606 141.681 2.28861
-7.25339 95.2532 -1.1021
5.69026 109.517 6.7493
-25.3073 122.289 3.87525
-23.9147 129.77 -4.25435
-18.3027 114.808 6.00446
-1.8967 124.7 1.88828
-37.6663 128.367 0.234441
-19.5378 81.039 -7.14815
-18.207 119.383 5.90449
-27.6051 126.098 -3.18601
-3.77119 138.75 -3.94217
-12.1128 142.998 1.69066
-14.4967 80.0133 -6.02576
16.4636 143.53 3.6748
-29.7158 88.8577 -13.2218
-8.66101 101.681 3.34089
10.7418 145.359 -5.00682
-20.4528 93.3272 -0.827417
-29.5443 90.339 -12.2671
-33.3806 128.211 1.6015
-28.3312 103.142 -8.04108
-6.53831 91.8974 -1.15008
-22.0018 99.2952 1.04575
-3.94892 85.3404 -1.66361
-27.616 119.229 -0.804601
-2.17545 85.5828 -1.73321
-8.31182 114.594 4.69295
-28.0109 126.707 1.28812
11.2127 145.609 3.68737
-22.6695 94.7118 -16.7894
-28.5631 129.7 4.4136
13.3234 85.4481 4.88922
-3.6293 123.357 -5.05289
-31.0802 125.477 0.122983
0.502076 106.632 -1.679
-22.2486 139.087 5.58904
-12.8551 99.2904 4.38822
3.3484 133.546 0.823087
-27.408 111.549 -9.6801
-27.6408 81.3995 -13.2016
-29.7105 131.035 4.8242
-4.88008 133.508 -3.99843
-16.1085 132.3 -6.96915
4.86145 133.754 1.0343
5.12465 105.85 4.8704
-13.8043 114.746 -9.52357
-24.1656 77.5821 -12.462
0.526859 147.199 -3.48581
-3.4609 105.966 -0.0619535
-4.76011 143.284 3.26954
-25.0191 102.388 -0.466132
19.99 126.03 3.44932
2.68965 84.9485 2.48773
3.62976 133.894 -4.63934
-5.63865 109.693 2.52476
6.40702 116.249 5.12974
-11.7724 80.5343 -3.91598
-6.51396 121.029 4.39204
-15.5471 109.649 -11.086
-25.3294 129.58 -3.13629
10.562 107.781 8.12985
12.2423 125.299 5.13705
-8.26185 137.325 2.23552
-25.5418 139.957 4.52434
-20.017 93.9843 -0.0374842
-23.0994 113.973 -11.8882
12.0488 97.9582 7.11609
-21.0968 136.074 -4.537
15.4897 110.667 5.22164
-10.6617 131.514 -6.61004
-26.7533 131.458 -5.12579
1.19921 108.377 -1.47529
10.3845 143.714 4.10625
6.4892 150.422 1.45597
-27.2136 92.3611 -7.66047
5.3285 98.0414 7.78448
9.39117 91.9734 7.35725
4.66497 85.2628 4.98262
4.65646 118.762 0.509051
-29.9839 139.294 2.40385
-3.70204 94.0016 1.74836
-13.4053 79.7369 -4.75955
13.6949 141.424 -0.9037
-3.46102 119.159 2.38964
11.3897 123.343 6.1312
-13.2497 121.6 -6.6282
-16.0857 132.841 -6.94765
-25.7752 127.419 3.28105
-0.688175 134.14 2.98341
-15.2854 130.657 4.40718
-10.3204 92.6962 0.836428
-15.9173 143.471 -3.11115
-6.07436 119.607 -6.56896
-23.0763 115.974 5.41949
9.69001 93.9112 7.65192
16.3076 123.068 1.94014
12.5652 151.395 0.735202
4.95083 91.8844 6.62752
-7.67199 103.694 2.75269
-30.7761 139.649 2.1109
4.64507 112.422 1.29969
-38.0404 133.238 0.927669
17.9692 145.36 1.99924
-20.5768 81.6321 -5.24826
-26.9261 98.201 -4.17786
5.26962 108.977 4.32814
-16.4765 80.452 -3.63908
12.6835 116.691 7.91905
-26.4516 87.9918 -17.5148
-12.2617 139.267 2.15261
-10.956 135.863 -7.79332
-18.3235 129.104 -7.15108
-26.495 92.2379 -6.33843
-25.8564 118.344 -8.99507
-28.6581 88.2522 -14.9333
-14.4151 138.666 -6.59371
-3.51783 95.4423 2.82611
-14.9015 79.2536 -5.30758
6.67872 84.3568 5.45294
-26.4382 142.289 1.56681
8.97724 131.95 6.36574
-6.95451 86.073 -2.89991
-1.94013 140.118 2.11554
-19.1597 146.897 0.49575
-9.4015 121.099 -5.23163
-23.6325 80.247 -9.14269
-9.27429 90.6608 0.398055
0.477952 91.9372 3.69644
1.23342 85.4193 1.79083
-19.6973 125.785 -7.55761
14.0229 122.177 0.956689
4.03564 135.755 -4.64973
-17.4294 97.7505 4.98532
-1.83588 115.464 -0.321277
-24.8458 128.797 3.51096
-22.5401 114.605 -11.8813
-27.6069 136.979 -0.00961915
-6.76334 96.0483 -1.42097
-25.7842 129.454 4.1997
-5.53736 107.919 2.5394
14.1153 113.15 3.09382
-26.01 133.529 4.54414
-14.8551 142.88 -5.01217
13.5411 121.949 5.45425
-18.2518 102.251 -15.6827
-14.2169 147.969 -1.01312
9.33211 130.925 6.5758
4.28447 115.167 0.274919
12.4563 149.015 0.37178
-6.10398 109.221 3.07766
14.6835 128.456 2.7881
-24.6506 115.011 -11.0077
-30.3708 140.252 2.5182
14.6791 113.884 2.25086
13.5239 127.511 0.251705
-10.6299 121.616 5.02687
-6.64794 102.141 1.29791
-27.3377 92.7429 -7.89746
11.5436 118.874 8.59577
-27.7886 136.698 3.20749
-27.8614 102.43 -5.20756
-18.4175 102.351 5.42329
-16.5212 113.314 5.54401
1.46203 101.861 -0.313661
-26.5801 87.0091 -8.1588
2.38596 138.556 1.85727
-23.8583 118.928 4.39685
-16.7156 124.34 -7.96286
-29.6604 90.491 -12.9966
-12.8742 135.648 -7.66648
-21.5079 136.106 4.75689
-24.9925 123.383 -2.97725
6.96917 118.284 6.21304
-19.1184 146.219 -0.0016785
-28.2565 100.242 -12.5611
-14.1387 117.37 -8.56975
-31.9074 131.801 -2.51463
-26.1696 116.056 -9.5259
-17.1312 136.77 -5.10192
-27.9442 115.178 -6.78026
-24.3339 116.259 0.603126
-23.0989 82.0848 -8.05146
15.9025 141.204 3.64309
-13.6311 145.835 -4.69693
4.66031 141.705 1.03277
16.0799 134.217 3.01918
11.3745 141.185 5.16149
8.47798 131.298 5.76522
-25.5582 124.134 -6.19084
15.6442 105.676 4.60004
12.7567 126.126 0.732599
12.9397 103.465 7.1845
-23.7071 107.601 2.6194
-5.84082 113.483 -10.2928
6.85986 112.524 8.25324
13.9413 113.949 6.79123
-23.0144 117.751 4.77433
9.3111 117.638 8.85757
14.1807 142.147 3.84737
-23.0173 127.725 3.08907
0.667336 100.553 -0.534048
-4.32564 85.3167 -0.98805
-15.1676 132.236 4.22714
-21.1653 127.182 -6.5244
-27.9964 93.4232 -14.8381
-29.5561 131.57 -3.40559
10.2704 148.088 -3.32817
8.30073 124.668 7.51404
-2.65978 84.9782 -1.18613
-9.17968 98.4323 2.73103
10.5795 139.095 4.1423
8.01099 79.8928 3.30641
-27.0976 83.3627 -15.5939
6.22268 146.091 -3.90126
-15.4548 141.768 -5.37216
-14.6429 121.926 -7.08756
10.2186 122.019 7.91934
-4.45317 151.046 -3.593
-4.24235 103.574 -0.318381
-17.2699 146.222 -0.142547
-29.8684 88.6835 -13.886
-4.14353 86.9705 -0.116528
-3.56597 125.393 3.24886
-4.47559 93.1604 -1.91849
-19.8065 113.74 5.89598
7.65228 127.459 4.44975
-18.7114 80.4976 -5.90203
8.76016 106.486 9.10594
-26.3092 122.388 1.89326
-1.24248 139.016 -2.89155
-27.5163 88.1303 -17.1404
-20.0258 146.998 0.829154
7.68676 80.0555 3.34432
19.6849 140.116 2.11466
-16.0107 142.96 -2.70456
-19.354 139.513 4.8985
-9.10492 79.3802 -4.58299
-1.42925 127.07 2.13056
-0.28662 81.3832 -2.49136
1.51092 100.784 6.02282
11.5989 132.347 5.85923
-0.835633 97.9176 5.15624
-26.9188 126.869 0.942858
8.329 141.027 2.2583
-8.05788 103.264 2.95317
-11.6541 107.515 3.21313
-6.7964 90.2942 -0.276035
-25.495 111.601 -3.08501
-1.79612 125.434 1.93541
-25.9723 111.629 -11.2161
-16.241 142.835 -4.14533
-22.4871 140.435 -1.44134
-24.4923 131.384 3.75601
13.1938 117.808 4.66555
-24.1349 91.1912 -4.13595
-34.1042 128.913 -0.500747
-6.27361 89.2753 0.995733
-21.6064 82.0597 -5.97206
-21.8847 121.832 5.68278
-24.4298 124.61 -4.4789
-19.1259 137.551 -4.23069
-25.7565 138.839 3.89508
-10.1652 109.247 -11.2386
-18.0556 129.682 -6.79006
-21.9155 107.305 -13.5827
0.784409 96.3413 5.69455
-30.2251 128.981 -2.73639
-23.6722 127.041 -4.24734
-7.37699 140.402 -6.0494
14.0098 121.216 4.81214
-7.48851 153.436 0.31419
-17.5844 142.342 4.95846
6.66282 116.376 6.12036
7.62812 154.219 -0.631943
-6.54994 94.6452 -1.25662
-10.8888 140.407 -6.65016
-23.4598 117.932 -10.593
5.64276 112.11 5.14695
-16.7047 143.817 4.31148
5.52039 110.52 5.01752
-5.03991 139.562 -5.33383
3.29322 137.585 1.2839
-18.4074 83.4492 -2.36889
-2.87291 143.815 -4.51562
-7.06151 139.075 2.05912
-2.3013 122.919 1.87076
-18.6407 82.0468 -3.1233
-29.7138 126.671 1.5278
-26.3694 128.048 -1.65575
-0.254279 81.2836 -2.00745
8.48363 125.3 7.91989
-5.25241 83.9523 -0.423146
-14.6873 135.616 2.49062
-24.5867 136.007 -2.93108
13.2426 122.886 1.55214
7.77801 126.035 4.33029
15.6581 146.464 3.28761
0.65937 82.6769 1.36381
0.192487 127.899 1.27037
3.5852 87.4679 3.94153
-16.5614 107.25 -12.5644
0.628571 151.841 -3.22448
-1.54254 129.634 2.89773
-6.88873 139.315 2.10958
12.7419 106.107 6.88708
-14.9677 133.488 2.43139
-19.8211 147.298 1.05556
7.86793 118.773 8.034
-26.3228 127.59 3.29436
-3.09675 92.8111 4.12457
-21.1695 121.462 6.05147
-17.5385 109.703 -11.8882
-8.20435 101.937 3.0467
-28.1049 98.4602 -10.4094
1.6809 131.965 1.86515
-1.3032 151.608 -3.26739
12.1238 148.99 -0.154268
-36.2186 134.772 2.28693
-26.4985 95.9866 -4.88827
6.37677 109.41 8.16951
5.30674 106.352 5.71268
9.94295 133.188 6.31491
-6.68586 83.9327 -2.70498
13.6551 127.058 -0.612263
-8.87976 94.2375 0.612291
-11.3825 114.594 4.76447
-7.89724 152.731 0.23115
-5.01825 154.032 -1.74152
-5.70712 89.8584 0.795312
1.46277 128.052 -2.81714
-23.4842 122.141 -6.29509
-16.2168 109.681 4.80517
18.5333 134.823 2.42717
-16.6405 125.788 -6.88736
-11.8436 126.919 5.83218
-16.3693 148.744 1.55507
8.56699 132.059 5.51998
-7.46086 121.2 -5.0884
13.5097 137.599 4.70588
0.407182 82.0103 1.53899
-21.8264 108.074 4.43744
4.67878 108.629 2.5102
-2.92594 121.509 2.2182
-26.2352 109.568 -1.6313
-26.9951 82.6782 -10.5477
-0.511325 144.899 -3.58174
-15.3723 94.2102 5.01275
3.8892 116.184 -0.0589773
2.06774 142.889 -2.48518
-26.0011 83.6601 -16.8979
-16.7144 110.606 -10.6082
10.9172 150.245 -0.366842
-27.8439 85.8172 -15.5939
14.5948 147.631 3.13179
-15.1568 113.189 -10.0813
-6.06206 113.946 3.75331
8.26923 99.6795 8.53443
-8.62942 151.418 0.559965
-20.4775 122.13 -8.53176
-29.3178 92.8799 -13.499
-24.9329 92.5388 -15.7309
-12.0978 150.094 -3.7013
-27.4444 95.0304 -6.33474
-27.354 106.05 -3.38107
-4.00832 131.119 -3.58723
-27.0869 112.208 -9.95701
-21.5063 105.553 4.25417
15.4137 124.422 0.815991
-19.4042 118.531 -9.89588
-1.43823 140.018 2.22035
-15.7302 116.951 -9.71657
0.10915 123.848 0.251047
-10.0115 124.252 -5.54526
-14.3683 130.317 -8.43295
4.44172 98.5952 7.43431
-12.2208 101.994 3.67738
-25.8019 111.98 -11.2526
8.22616 129.249 6.39697
-25.5759 100.437 -14.7311
-14.0339 130.269 -8.08277
-7.71749 112.688 -10.2081
4.57824 127.523 -0.0574441
-6.34345 81.7381 -2.56337
-2.93943 124.449 -4.73527
-32.601 132.449 -2.63969
11.384 85.5938 5.70014
4.15535 130.303 -5.55492
-13.8132 119.27 -8.23306
-22.7106 140.593 -1.06418
16.4306 137.777 2.94764
15.7063 126.098 2.3024
-26.4463 114.317 -2.12363
-5.04887 139.43 -5.32152
-28.321 102.878 -6.88843
-20.6626 104.339 4.80881
-15.4152 145.659 -1.0988
2.21982 93.229 6.19095
-34.9553 132.126 -0.974859
8.44081 134.563 3.53276
-9.62502 140.962 -6.8288
-13.1754 149.933 2.96505
-8.5357 150.92 -4.44419
-13.8632 146.368 2.56858
-27.9307 97.5319 -10.0752
2.17567 142.741 -2.46171
-10.7527 146.815 -6.05391
-11.419 142.053 3.5837
-7.37671 81.4411 -4.32517
2.26442 122.963 -3.70155
16.3265 107.686 3.43291
-21.7723 106.033 -14.2391
-27.4221 97.2174 -5.29125
19.1644 138.988 2.66859
-25.1496 127.641 -4.18417
-23.8677 127.765 -4.02085
-7.58647 81.5138 -2.87991
-2.29781 148.114 -4.14485
-12.1169 122.87 5.77994
0.11378 141.021 -2.83074
-16.5204 146.217 -0.215991
-15.279 83.6448 -0.0504057
1.99023 149.956 -3.18951
3.09611 137.065 1.36913
-25.9104 115.142 -10.065
-14.6057 134.715 -6.65839
-11.8603 112.18 3.97084
-18.7112 135.001 -4.91168
2.11018 145.372 2.16184
4.67027 142.208 -4.26059
0.780064 128.375 1.0327
-6.99969 84.2231 -1.0246
-2.29647 111.014 -0.91486
7.82169 110.872 8.92378
-12.5688 135.079 -8.36986
-29.6915 88.6862 -13.0545
10.5039 145.769 -5.21349
-26.9553 99.0131 -14.6517
-11.0328 120.122 5.1572
-24.6463 113.98 -11.4277
-2.35559 123.37 2.00062
3.97081 117.83 -0.109221
