ply
format ascii 1.0
comment Created by Open3D
element vertex 1950
property double x
property double y
property double z
end_header
32.4144 102.065 7.7754
20.1487 133.393 4.80889
21.0462 126.777 -4.88091
14.1428 111.752 3.94129
12.4305 132.898 2.2593
26.2961 112.904 10.3069
19.5973 79.953 7.97032
19.6839 127.341 7.92885
-10.097 96.3744 4.66093
-12.5596 107.836 4.77005
11.3865 87.8967 -5.8267
-11.5809 142.394 -3.63589
30.5003 96.0128 0.35296
28.1076 135.082 -2.70299
21.2039 148.591 -3.04498
22.4187 147.397 -1.92877
6.24932 140.467 -6.48224
12.5421 132.685 2.10392
4.61681 103.649 -8.80805
5.08308 142.053 6.54117
12.4374 101.759 5.62012
18.0624 141.652 4.7028
13.4529 91.7656 7.69918
-11.3221 123.763 6.21684
17.8467 117.131 4.4303
20.5529 137.226 3.1051
32.4062 85.999 2.42358
-4.09765 88.439 3.48974
8.14358 82.6996 -5.21881
-11.7949 147.796 0.573551
25.9857 94.9738 -2.45297
30.5477 107.925 6.30424
26.1628 95.0217 10.8888
-10.2003 93.1981 2.74581
5.33727 92.9426 7.94762
22.7756 127.267 5.06718
25.1016 130.822 -7.81507
-6.98393 114.05 8.92822
23.9776 124.088 -2.25746
20.1619 123.577 -4.228
24.9496 123.774 -6.63962
15.884 130.629 -6.08921
-11.8145 101.182 5.05578
25.6878 122.026 5.69163
18.7279 132.545 -7.06245
-1.97115 118.476 8.57682
15.0033 93.3618 -6.27521
-12.7245 103.26 4.32242
27.3425 99.4627 10.7559
-5.16101 133.461 3.533
-0.486201 109.899 -8.76764
28.679 88.9096 -0.0888722
12.6761 127.466 3.58989
-7.55725 102.956 8.11666
-21.2251 128.223 5.32324
16.5598 126.774 -7.22588
5.55751 117.646 -6.35419
18.7914 80.0221 7.91572
-10.4555 140.432 -4.40679
14.27 117.086 -6.06713
-17.139 120.867 -3.00396
-0.852951 136.595 3.03294
-12.1952 131.609 7.43251
20.7304 137.53 -7.99224
6.49522 152.631 -3.5188
6.20535 76.1001 4.44068
22.3781 118.413 -1.98457
21.1278 123.511 -3.76786
27.07 116.006 2
-15.6267 122.692 5.07871
-18.6272 120.512 2.73137
13.486 116.74 3.46912
24.5608 102.816 11.0121
-13.5983 123.965 6.1896
-8.97105 151.389 -0.919407
9.99588 81.9716 -4.44469
14.173 91.3011 8.54106
-10.028 136.46 -5.83596
-13.1342 124.405 5.65057
-19.9801 131.699 2.58315
23.6044 103.793 -4.01338
8.55471 104.755 8.43305
23.843 124.049 -1.55553
1.4142 118.902 -7.34411
13.2019 137.973 1.31668
-5.87829 153.927 -0.856869
-5.07608 152.326 -2.4031
2.42984 131.904 5.09541
23.3109 128.244 -1.25818
-15.3751 142.819 5.61836
26.9519 89.1566 -1.08062
0.565388 141.82 2.95355
0.392858 145.063 -2.51286
12.1304 90.2123 -6.13251
25.6932 78.4806 2.40276
24.4435 131.446 -0.12625
-9.29465 119.627 -6.96945
30.0664 129.945 -6.26565
30.3923 80.101 6.03278
26.4068 120.348 7.01849
-20.5848 119.763 -1.5198
14.9547 129.3 1.88906
-18.0131 128.964 -2.019
-6.61893 142.868 -5.43607
23.605 106.416 -3.79799
12.2951 136.947 -9.06864
25.4277 88.8856 -1.6317
9.12147 111.055 8.09832
-9.61579 118.41 -7.72361
30.5647 84.3571 2.27043
7.73055 99.1539 7.60942
-3.4012 110.332 -7.04055
14.1358 126.995 -9.41278
32.9622 97.7701 2.70836
-20.9991 119.881 6.97973
-6.86131 140.666 -5.91911
-4.49995 133.418 3.58163
27.7857 94.523 -1.17442
17.8971 91.4677 -4.79579
15.4003 141.402 -5.97711
-7.37845 121.271 -6.16659
0.29197 122.63 8.70451
15.9049 81.6982 7.79121
17.1277 125.629 -5.99301
24.8473 122.68 -3.28767
14.1429 120.901 -7.55644
-2.59108 147.987 -2.37985
23.5049 130.244 -7.42829
-17.0289 120.421 -3.03008
23.0642 117.362 -0.0931651
25.7345 111.568 -1.88083
-12.7227 132.506 7.85231
10.2005 97.0572 -8.53404
-6.60912 150.816 1.46131
1.93002 154.165 -1.85166
-2.44356 153.83 -1.86184
-14.9007 143.374 4.27714
7.95575 106.717 -9.67932
25.7453 135.164 -6.88982
-4.11984 127.223 -4.38342
12.3918 149.591 -4.28186
29.8022 89.1107 0.400516
14.3441 145.636 -5.92075
1.66846 143.915 -3.04109
17.6 117.127 4.23311
23.2375 108.65 -4.0764
-21.5017 128.555 6.4973
19.3041 132.298 -3.76681
-2.92408 136.005 -3.55063
22.2223 137.974 1.89616
-2.26803 81.4344 2.58533
35.9546 87.6103 8.30782
25.0888 120.077 8.84867
13.6873 133.41 -9.44024
10.8533 125.647 6.05544
5.21837 101.201 8.73831
20.9174 128.256 -8.70366
-5.80949 83.3386 1.99207
17.8594 142.504 -4.66014
24.3372 96.6351 -3.76858
-4.36389 124.578 7.90744
12.5795 149.137 -4.44988
21.566 123.751 -6.9517
21.4552 101.58 -6.3813
11.014 119.862 -6.68421
-12.1603 137.314 8.0319
20.7776 137.365 2.98462
24.6473 129.206 1.08198
-9.46771 121.805 7.68986
10.1472 152.165 -2.17975
-2.29367 124.901 7.48075
21.9087 134.655 -7.98135
8.97414 98.7851 -8.38244
-2.05551 126.69 -3.55566
25.313 130.144 0.27377
30.651 127.796 -7.16623
10.5345 101.929 6.35881
22.1406 124.473 -4.04528
23.885 137.05 -7.41202
12.3667 90.618 -6.18429
-0.754037 126.521 6.97329
-6.42256 116.241 8.68462
-11.189 125.984 4.43789
-17.7151 135.636 2.78432
-18.5137 120.582 2.56542
17.7877 135.233 6.17432
-4.60751 113.565 -6.50283
29.5092 97.2235 10.4551
16.2352 112.732 4.07776
14.5882 129.047 1.70554
17.4058 101.621 -7.5415
28.5292 122.743 -5.61129
5.11866 117.751 -6.37038
-16.5157 136.887 1.54097
23.8975 130.064 2.19974
-14.7019 128.775 -2.88998
21.656 111.574 8.39528
18.4986 114.216 -7.16126
21.2163 134.537 3.74312
5.05736 78.2147 -2.7015
0.434692 124.002 -4.7943
1.63539 119.375 -7.27883
-12.392 139.972 -1.10107
6.63301 128.491 7.60575
-9.41868 132.057 6.95605
17.888 125.724 -6.39561
30.0299 82.1755 9.44486
-15.407 142.39 6.73072
24.429 94.9467 -3.27742
10.4646 101.783 6.38339
15.4803 130.063 -5.8665
25.7679 123.463 -6.78236
7.108 106.65 -10.0227
21.6544 111.449 8.41297
-1.28768 90.1092 6.83122
21.0024 124.545 -9.33046
-5.67231 129.792 -5.60424
10.0017 138.166 -7.86322
-9.92158 95.4441 4.00095
21.9702 128.311 -8.2436
14.5356 145.668 2.2539
-10.2137 127.054 5.82004
17.0717 130.166 -3.6754
-12.5389 145.815 2.22909
16.0103 125.937 2.53177
4.7417 94.8188 8.57205
16.7287 105.785 5.36995
24.0806 129.089 -7.77244
-13.1295 122.499 6.20582
14.145 146.568 -5.25656
-1.76459 111.166 -7.43795
18.1457 82.1231 8.39243
4.90331 152.926 -3.20351
-1.23457 96.929 8.0448
-4.21705 146.637 -3.23855
-14.8708 122.011 4.92586
30.8647 104.063 2.18689
-14.0298 130.485 -3.38517
31.6431 97.229 10.3526
34.2393 91.7239 3.03836
25.0843 102.051 11.0056
5.19197 117.774 -6.26557
7.33997 87.0955 8.26901
10.6633 129.591 6.04948
10.3203 121.265 -5.29206
-0.107826 124.359 8.32996
1.09608 117.647 8.84639
3.67874 134.261 -3.15251
-22.1852 122.467 10.1508
-10.7585 133.081 7.46238
1.51007 121.951 8.22126
-3.81932 112.911 8.36695
14.3695 151.899 0.729668
17.7821 114.614 -7.05868
25.7525 81.6559 8.78169
12.9648 98.7197 -8.59015
18.196 142.174 4.26256
20.0589 139.518 3.62841
-1.65849 134.704 3.35263
26.9872 83.3927 1.25837
-0.512619 122.232 8.47766
9.89952 82.7751 6.73099
32.6156 94.2577 2.32368
6.69872 79.7394 -4.13817
29.7681 80.0627 9.03321
-19.7138 128.856 -0.319561
20.3234 137.674 -8.07776
8.77869 99.3685 -8.37416
20.7767 126.438 -0.82183
23.9892 82.8532 0.102103
-13.432 125.433 -6.35642
-10.2373 118.589 -7.83372
-12.5841 124.107 5.54341
12.7005 74.9507 5.91708
30.8284 128.656 -1.30658
27.2785 133.362 -9.90841
1.21619 126.396 6.12238
24.7621 126.481 3.39838
-4.96629 122.672 -5.47713
21.553 82.6762 8.59019
15.3349 127.09 2.19512
16.7563 133.333 -3.91872
20.2773 126.957 -0.598228
20.0857 116.821 -4.62359
-11.5626 130.177 -6.29608
-0.709691 88.717 6.16759
4.48761 107.607 -9.57764
24.9164 123.424 -1.68853
21.2637 115.569 -5.02636
-1.56581 153.112 -1.92728
-1.40671 132.214 -2.74845
15.3856 114.834 3.66473
22.2148 125.39 8.63042
25.74 115.208 -0.889984
18.0572 139.818 -6.78408
34.9364 93.432 7.66142
-13.9269 125.534 -5.94722
34.6394 86.0924 3.23262
11.6193 128.903 4.97342
6.378 107.029 -10.0553
-0.344293 108.706 -8.92491
14.515 150.281 -1.79671
5.98557 131.197 -3.8413
14.1081 79.1854 -1.30367
22.3313 105.231 -5.92908
7.05978 123.399 7.83924
8.60538 143.227 -7.30386
24.0355 90.3857 9.79259
17.9074 95.8797 -6.04489
1.14021 110.583 8.55435
17.0934 139.875 -5.34306
25.3427 137.035 0.351466
-3.33288 140.383 2.75257
6.96859 100.861 8.3314
23.774 136.818 -7.51297
26.2421 110.542 10.8826
26.8484 139.58 -1.85003
5.60368 144.034 5.3818
33.3653 86.6167 10.9967
-12.5124 143.966 7.3028
28.8363 134.411 -1.656
-10.4965 109.074 7.4364
-12.5444 137.771 -4.34218
17.2259 137.417 -5.31358
-22.2159 117.99 5.0704
-12.6042 101.724 4.56286
-9.67382 129.617 6.15906
4.72055 84.3923 -4.81309
24.2592 123.231 -3.19973
-20.3309 120.485 -1.5414
17.6905 96.5204 8.33354
21.6803 141.141 -6.90278
4.74706 144.802 -5.29158
14.9186 132.606 -8.85082
16.7534 145.009 3.15341
38.5257 84.9098 8.14802
20.8083 111.092 -7.43418
-1.57518 107.663 7.72039
-14.4731 133.228 -1.38442
0.229055 117.805 -6.85107
37.2253 85.0836 6.22599
16.7143 83.3777 8.75763
24.4904 105.689 -2.72987
28.8353 80.7477 9.02887
-0.888387 125.801 -3.76106
26.8655 132.332 1.22863
19.1617 127.559 6.05584
10.6484 100.278 6.02373
6.66671 87.2921 8.08169
-16.7425 119.968 1.61283
21.6734 143.242 -5.86948
-10.3943 129.625 6.79639
-10.7196 131.617 -6.77151
24.3503 122.681 -4.41362
9.81408 97.3728 6.39253
29.1231 132.779 -1.59366
-16.5152 120.631 -1.88486
-15.5371 139.303 1.5689
-8.51383 150.696 -2.08995
4.16062 146.982 -4.76736
-3.60853 117.913 8.22135
0.980838 111.562 8.5055
1.50881 97.1873 -5.9039
13.4345 140.56 1.55951
-10.0802 139.457 -5.38542
7.52646 128.512 7.71623
26.6447 106.616 11.1143
-11.0714 121.757 -7.40201
-8.46568 146.936 3.94358
10.3072 147.567 -6.60274
-2.09904 103.199 7.71461
33.0316 90.6782 10.8151
-13.502 102.786 3.88403
6.23366 80.0894 -4.55498
33.9978 81.0096 6.70531
27.4992 131.016 -9.74754
25.8856 109.444 -0.779912
-10.353 132.653 7.36009
24.7288 129.217 -1.13553
18.7041 124.739 -6.39801
2.21568 127.331 -4.66991
25.1815 96.6639 11.0916
24.7175 113.59 -3.74746
12.4615 85.4205 8.121
-16.0713 139.865 8.21648
7.99683 87.6544 8.0762
11.1476 108.296 5.63385
-15.4143 140.942 2.47827
31.1651 126.518 -3.39634
10.3929 75.5596 5.70334
24.1596 128.489 -7.92154
-8.29995 125.222 5.17631
17.3793 75.3493 6.43964
3.87164 123.787 -6.00428
21.6573 126.444 -4.41885
12.7836 152.702 -0.924432
30.7147 85.8051 10.0974
23.7118 83.1116 -0.028467
14.0913 130.417 1.50763
20.7776 122.562 -7.64588
9.13769 107.624 -8.35531
-5.92915 112.96 -7.35041
-21.1058 122.022 11.0132
9.51949 110.504 7.83943
5.45391 139.794 4.59165
17.2333 134.741 -5.68659
34.3705 90.6922 3.05493
-15.772 122.725 5.44383
-15.6698 136.049 -0.551469
30.9736 126.863 -5.04748
28.4036 107.382 10.0192
-10.5028 105.558 6.47526
6.07404 134.555 -4.87311
28.4728 105.36 -0.295774
17.1575 125.224 3.36171
-21.3539 120.556 5.53433
-14.689 125.243 -5.58486
-11.6283 134.493 8.01515
-5.59764 102.736 8.47098
6.5615 105.546 8.58925
5.68292 81.6937 -4.94544
-2.2725 91.2483 6.77011
2.15476 97.9747 8.54793
15.2923 148.329 -2.61446
0.605349 136.18 -2.20746
16.6606 144.567 -2.45954
-4.56828 135.179 -4.80245
12.5312 90.3123 -6.10099
14.335 100.304 6.09961
-19.5006 123.615 10.8825
22.9708 128.273 -1.16843
5.13527 130.262 7.17469
19.7234 117.404 6.89272
-7.95482 117.725 -7.09289
27.8931 80.405 3.19184
-15.0608 132.967 8.05107
24.3626 104.765 10.8064
-1.26544 101.615 7.57405
11.4732 103.042 6.05981
11.5293 151.098 1.52483
-13.4797 144.337 4.22172
10.4623 118.319 -6.94296
-11.554 148.829 1.53642
-12.0254 147.301 1.14051
16.5911 90.6919 10.2811
17.6111 82.799 -2.00865
-12.7329 146.298 3.18616
-7.10233 101 7.93648
27.543 130.02 0.87825
1.85602 135.47 3.89386
1.4984 90.1595 -4.70957
21.6613 135.829 3.22269
24.2457 123.475 -2.31076
23.3824 124.439 -2.67193
-4.1566 107.811 -7.82441
18.1051 120.555 -5.76013
3.40634 89.6551 -5.18481
25.0686 143.443 -4.22511
10.7193 118.46 5.98075
15.927 97.7347 -6.89591
9.14035 109.049 8.17087
12.2042 117.32 3.7741
30.7238 130.08 -0.723284
-17.7942 119.922 4.17228
29.0798 115.546 4.59258
-4.41354 95.0665 6.6714
4.7373 101.622 -8.05737
5.31313 83.5942 -4.84311
-20.1283 130.776 4.33934
5.48063 83.0541 6.70951
1.9828 119.846 8.19626
9.85953 92.8817 -7.40162
-0.0488142 114.825 -7.80695
9.2767 136.839 5.41904
-20.2705 119.54 4.84497
-10.1151 140.695 -4.59268
21.8616 114.683 8.48794
2.10944 126.513 -4.81909
30.274 129.516 -3.22872
33.4724 83.3872 10.3307
22.1418 77.9076 1.53911
14.433 142.059 -7.6268
24.5387 109.814 -2.24631
-10.8212 149.207 -1.57449
-2.34293 145.981 -2.34839
1.33387 84.3931 5.41833
20.8205 110.635 7.74484
-12.2022 106.785 5.47678
-7.66672 92.1177 3.21947
5.60821 97.9294 8.61438
5.00077 103.861 8.53901
-18.8035 120.264 5.13567
4.95098 79.6349 4.58146
22.7276 99.0476 -5.32608
5.7602 107.371 9.02107
34.8521 92.9641 6.01136
29.0112 99.3158 10.2734
-4.0622 132.922 3.52617
13.8925 112.631 -7.73783
1.28232 108.158 8.5965
13.7651 99.0383 6.21099
-12.4457 124.308 6.44395
16.3609 86.8781 -4.17999
24.6353 133.895 -7.53838
15.9353 143.858 -3.37699
-17.5477 119.959 4.2029
-1.56273 129.213 -3.13782
9.47815 106.667 7.51195
17.9318 134.743 6.11031
-22.5017 124.094 7.37979
28.6472 116.621 3.85477
13.6255 101.196 6.12409
28.8158 132.207 -4.73949
12.7018 151.273 1.42078
6.02773 139.008 5.03704
-6.43864 147.342 2.67501
34.6779 88.3505 9.42995
17.4217 75.6499 6.54774
-1.89884 112.06 8.24704
-18.7745 129.871 8.12941
4.65697 76.9994 3.8398
27.379 114.435 0.311697
-16.8952 133.29 -0.582466
22.3873 112.489 9.13553
-10.5671 133.14 -5.64393
-2.18864 93.654 7.91216
10.616 115.787 6.1165
11.1143 81.8977 -4.08276
19.5391 102.06 7.99412
4.34009 77.0489 -2.11788
22.5043 84.5725 -0.922291
26.3621 103.741 -1.64446
-2.72484 108.792 -7.75759
-14.2913 106.357 2.48049
10.0868 125.742 6.65207
32.9647 82.6111 10.1342
2.95251 132.921 4.92275
28.707 93.1093 10.4946
-12.3214 127.242 7.0894
32.8861 88.7104 1.97284
12.1826 114.395 4.25625
27.8848 126.638 -8.69025
-12.6157 143.602 7.49543
21.6191 123.765 -9.64714
-15.5951 130.683 7.68836
18.0451 136.098 -7.11614
18.1068 127.353 4.22422
10.9645 149.231 -5.62288
17.5499 134.643 6.36147
-19.646 126.335 10.1782
20.6771 120.662 8.61505
21.3646 92.1181 10.9153
11.8407 117.372 -6.77482
22.0791 133.38 -8.14596
6.08538 111.801 -8.12856
26.096 133.533 -7.33649
16.8556 128.376 -6.10924
17.2738 117.997 -6.93578
17.2853 127.973 -6.32308
8.70178 95.1044 -7.71121
-10.752 113.696 6.20204
-9.65082 143.736 -4.86047
-4.94221 89.1141 3.25227
15.6676 132.016 -6.04553
24.691 102.427 -3.67067
0.13716 111.594 -8.73375
-18.2327 134.415 2.43376
7.28259 129.648 -4.3487
18.2852 136.525 -8.26976
23.3169 125.596 -2.51321
-8.46694 91.411 2.59135
11.6761 93.3818 6.6488
-12.8732 136.4 -3.7711
11.5734 97.3897 -8.53659
8.3131 118.512 8.3845
-8.25325 92.1646 2.83171
7.07499 147.501 -5.8242
4.9353 74.8305 4.33679
26.7292 108.567 -0.590813
-2.06854 142.696 -2.59867
-10.07 106.582 7.21312
16.8261 127.606 -7.20792
27.0026 88.5683 9.75601
4.20816 85.7968 -5.21332
21.5125 109.358 -6.77426
-15.285 122.842 8.19361
-9.07779 142.835 -5.32196
13.3487 131.416 1.74142
13.2971 152.592 -0.868476
9.08385 147.79 1.63304
23.1095 130.386 0.931349
-0.460354 113.398 -7.7982
-15.2302 121.904 -5.23457
16.1699 138.347 -5.23347
2.03133 82.3637 4.81377
18.4601 129.272 6.77737
12.5311 143.782 -7.15197
17.1033 123.556 -7.53865
-2.12877 139.375 3.02351
-8.54461 128.366 4.89896
25.8126 121.116 4.36078
17.1439 130.151 -6.49189
16.2017 129.706 -3.90321
-2.94216 152.145 -1.99785
4.44144 138.886 4.0944
10.5414 136.854 2.43602
28.1369 136.902 -7.1485
20.4785 78.9041 7.78491
15.874 111.492 4.11693
26.2655 103.279 10.8978
-4.5758 126.301 -4.5177
10.9358 108.669 5.85403
14.0332 146.692 -5.22093
11.7799 78.6701 6.21681
0.51511 114.075 9.12121
13.3905 119.731 -6.44821
11.167 119.023 5.19875
-17.0148 119.892 2.44176
9.13259 91.1205 6.97108
16.9173 89.1136 -4.58466
23.2898 139.782 0.821664
20.0232 100.908 9.02419
16.9462 132.579 -3.42011
-17.9142 115.889 1.58768
-16.4662 139.242 2.66758
17.4092 130.467 -5.96815
-13.881 143.53 7.1159
-5.61832 116.219 8.07648
20.7537 105.865 -7.49118
28.6857 133.978 -5.99402
20.8394 85.6493 -2.28916
15.6853 109.817 -7.30559
-2.87 145.502 -2.54275
25.4841 117.5 9.08985
-17.8013 129.628 -1.31287
-0.300703 95.0734 -5.21883
6.37273 130.029 -3.80807
-10.8749 126.85 4.61117
-14.4146 112.884 2.56078
-22.161 118.479 10.9476
2.04904 119.727 -7.17401
13.6188 111.066 -7.00954
-12.7578 143.696 2.53751
10.7051 154.201 0.356964
-21.5757 123.611 10.2877
26.1816 78.5602 8.12844
25.1446 123.693 -6.51841
9.34783 119.762 8.00059
19.2844 135.365 5.32775
2.55579 142.206 4.00883
23.0086 124.098 -3.20438
20.9654 125.27 -4.29872
30.6934 98.0607 0.573712
13.4212 138.124 -9.4077
20.812 128.801 -0.578533
6.53802 82.4475 -5.05747
1.25598 121.981 8.36266
-15.2758 119.775 -2.00495
18.7067 128.65 -4.89307
-3.83617 111.976 -6.64475
27.9668 128.748 -11.3502
24.9867 129.055 0.169765
35.8368 87.3231 5.86381
-11.7927 134.784 -4.52033
2.43199 110.322 -8.78821
-20.2171 131.565 6.40884
1.90924 96.134 8.5174
20.3057 133.349 -8.24453
-4.7761 146.065 -3.77813
-15.6759 119.771 -0.491298
-4.58283 108.239 8.74253
21.2395 146.253 1.34362
16.6836 135.225 2.79261
10.2091 97.1862 -8.54865
1.1598 127.073 -4.33073
-13.2156 132.45 -2.87463
34.8508 89.8416 8.75911
-13.2148 138.681 -3.36279
-6.31694 105.57 8.80868
21.8051 114.057 8.33624
-13.4833 140.248 0.832665
-20.8644 118.955 6.79371
25.1433 82.213 8.83119
4.72728 120.078 -6.69001
13.2177 126.934 -9.17592
31.2587 92.1436 0.825759
27.9875 112.303 0.751167
6.95815 113.148 9.16849
30.0385 100.181 10.5619
30.7298 126.916 -4.46727
23.1813 135.07 -7.90365
-17.3745 120.726 -0.800839
25.9899 140.401 -4.77246
16.7353 137.827 4.29308
24.9974 106.126 11.153
27.7638 82.1866 9.16793
29.3175 125.294 -4.26654
5.81781 96.8745 -6.9808
24.4949 145.296 -3.85602
-20.0707 118.385 1.28867
5.5065 82.6001 -4.94565
19.122 148.514 -3.06446
15.997 119.476 -8.52457
20.2285 131.779 5.98149
28.318 110.227 1.61111
5.64227 108.232 9.13736
-4.05059 95.4097 7.14419
4.9796 142.545 6.49018
17.5513 89.003 -4.26129
-3.56298 118.935 -4.70897
17.122 118.698 -6.57782
25.6251 120.716 8.19783
30.0742 112.137 4.22373
-20.0302 117.749 9.37505
-15.4742 120.879 -2.82144
12.8659 152.687 0.288315
3.02981 111.45 9.09436
17.3301 102.386 -7.88706
12.0172 129.413 3.64229
28.8375 131.89 -5.34889
23.4141 102.589 -4.66548
16.3283 131.625 -3.48106
0.390413 133.285 -2.41673
22.0461 127.737 -0.314937
12.7369 103.536 5.11324
24.9702 124.663 3.62355
23.0429 130.471 0.153006
25.3722 127.436 -0.716308
-17.7425 128.361 8.01735
-8.39987 114.929 9.29066
24.7802 91.5531 -2.91891
-2.32498 120.895 8.08987
25.2009 137.016 0.40366
-21.7455 126.188 7.01869
-17.1525 129.996 -1.44817
-4.41537 119.227 8.14206
26.7906 108.379 -0.649812
17.7078 137.429 5.68411
-17.0162 120.419 -3.09344
-1.02556 116.172 -6.37643
32.0913 92.5925 10.9351
16.5692 84.7436 9.03721
-13.0654 138.232 -1.77963
16.7364 148.696 -1.92211
-21.2856 126.051 2.78712
5.36691 118.565 8.65126
-15.6569 120.655 -0.643416
27.5269 131.103 -8.85026
5.13443 83.6563 6.85046
25.1808 138.662 -6.4012
29.4949 130.018 -8.26316
-17.0447 111.929 0.954074
12.9407 136.935 -9.37811
19.4835 149.785 -0.569105
-18.0875 120.74 0.69021
19.9815 120.648 -3.90163
4.81871 73.6048 4.69108
7.93505 98.9778 -7.96252
15.5234 129.454 -5.72701
-6.45264 127.783 5.34251
26.8448 118.395 7.31838
17.5172 122.38 -6.73814
25.7876 86.292 -0.359125
-6.46261 148.241 2.35654
29.8435 108.384 2.13016
31.747 98.1359 10.3738
18.9919 124.203 -8.22362
23.062 130.346 1.86482
17.0501 112.686 4.41972
-0.167918 130.966 -3.19375
20.46 78.7913 0.752523
10.3458 138.042 -8.08002
-0.750548 143.69 -2.22248
25.1111 122.132 -1.14989
20.4024 93.348 -4.70783
-16.5372 119.638 -4.0907
26.8655 127.605 -9.60865
25.7126 142.005 -1.41625
27.8181 112.931 0.320952
-9.99747 145.327 5.88931
22.5971 89.1541 -2.83576
14.9612 84.0733 8.22688
9.58454 107.576 7.48262
5.09047 138.871 4.25695
-0.675605 101.269 7.69583
26.0449 115.705 0.120675
-4.83157 134.735 -5.11814
1.41952 116.846 -7.9697
0.34381 128.272 5.71868
-17.2928 120.608 2.96626
27.4956 140.755 -4.16357
5.40137 97.0061 8.52965
21.7852 80.6494 0.466401
-10.6578 142.905 7.61781
-14.2309 132.681 7.8434
35.1821 84.0316 4.50785
20.2941 88.6573 10.3314
1.58024 79.5907 3.17752
-11.8753 147.42 3.99927
13.7768 124.409 2.33651
23.0085 116.832 -0.91095
12.3999 111.138 -6.65328
15.6706 144.921 -3.79171
35.6657 89.2119 5.70573
-10.6203 93.2997 2.6881
20.0321 143.058 -5.68691
3.40505 88.7791 -5.31432
-1.04294 95.4814 7.99955
0.587222 102.968 7.70074
-6.95821 134.271 4.67492
29.4 96.2294 -0.195106
30.6243 129.35 -2.51112
10.0986 124.877 6.81476
10.0357 151.47 -4.08604
11.9131 84.7683 -4.80359
-1.90706 150.635 -1.96513
22.6264 130.981 2.11182
-4.25753 101.892 8.47907
11.9549 100.05 -8.97762
20.2934 127.093 8.62847
7.91731 93.5407 7.57936
-10.8153 122.991 6.62289
-22.373 124.909 8.42576
-10.9081 97.3295 4.66693
-4.54382 84.2283 2.71942
-17.5014 135.645 2.57582
28.4091 110.611 8.99729
16.2419 136.956 2.85118
11.1969 96.5739 -8.35328
26.5843 132.568 1.37314
-16.1844 121.383 0.545613
25.8291 91.2409 -2.12794
-14.6097 124.098 -6.02562
4.07471 136.626 4.78882
16.6665 128.318 -5.86167
-7.02665 116.793 -6.90038
-19.5718 132.304 0.442309
-6.81001 128.85 -6.03148
-15.0452 130.866 -1.80398
28.6078 107.973 9.64278
19.9235 100.38 -6.09971
8.15471 78.5616 -2.64707
-3.45429 138.818 2.36413
-14.2172 125.146 -6.2431
-20.1003 129.838 1.99616
21.1541 98.3614 -5.6736
23.3706 111.421 -4.29149
14.319 114.292 3.6108
-18.9833 125.316 10.0809
-19.9512 129.765 1.58655
17.0139 128.484 -6.16252
4.86447 88.8617 7.68656
-1.58323 134.067 3.58126
21.4838 108.044 7.98439
-4.4559 135.679 -4.59402
21.8714 111.211 -5.47227
-9.06031 143.106 6.22471
-12.957 108.256 3.1339
19.3652 133.579 5.92512
17.9008 141.812 -5.60641
23.1932 93.8805 -3.93743
21.8534 97.9617 -5.37627
8.46228 110.074 -7.38207
-12.91 120.206 6.30484
29.7603 130.375 -0.132154
11.1147 134.677 -7.84281
22.9221 130.687 -7.22115
6.11133 144.047 4.75013
26.8195 117.075 7.82212
17.4338 114.181 4.4298
30.8215 107.168 6.44459
9.34052 87.4731 -6.44102
-18.6271 133.658 0.587246
24.1111 92.9328 10.3102
-15.0859 124.658 8.89432
22.5306 118.86 -2.65555
23.6121 118.458 -1.40152
27.937 80.1955 3.33787
-9.11135 142.538 6.51565
-22.3404 122.739 9.80673
17.3435 91.4238 10.4653
-14.7063 109.966 1.82641
9.89192 93.7274 6.5115
-20.9608 129.248 5.03428
-8.25071 147.74 -4.29256
12.84 102.442 5.36426
17.784 112.284 4.80661
27.3964 140.351 -3.41441
30.0206 111 5.55699
7.53806 89.0123 7.3449
-5.58535 128.833 5.47164
6.22531 135.907 4.64838
23.909 80.6167 8.42236
21.5357 95.2204 11.2054
19.3274 145.375 -4.98784
21.2912 115.645 -5.37644
17.864 106.063 5.74973
11.9447 128.575 4.31096
10.8799 126.442 6.04281
11.432 111.125 4.97407
9.75774 115.793 7.70879
27.3681 122.917 -7.10417
22.5668 130.998 1.98801
3.54436 114.265 -8.79667
-20.0866 120.114 10.2656
-22.545 118.739 7.60304
16.2527 107.755 4.91357
-9.08354 149.123 2.911
-7.3926 134.386 5.309
15.0881 88.4923 -5.11666
6.4895 98.1486 8.13349
20.591 99.25 -5.83423
-22.7767 119.492 10.3787
-18.8292 135.535 8.08518
24.1903 123.508 -7.0867
5.9275 123.855 -4.86195
18.5497 94.58 10.0392
27.2033 138.243 -1.38717
23.5609 142.645 0.286448
-6.76832 144.746 -5.32747
-6.39913 84.3402 1.81115
-1.77494 110.755 8.03252
14.6298 139.849 -7.36361
-2.10207 110.36 -7.54841
-15.0425 139.976 1.54261
11.5416 145.25 -7.0396
9.03346 138.908 4.98158
24.172 84.3817 -0.135319
9.46594 126.176 7.03681
-10.284 140.633 7.50034
22.6949 88.0417 -2.27806
7.06081 94.2879 -7.04947
9.3102 78.469 -2.13509
17.5889 78.3594 7.36466
3.22822 137.144 4.79387
4.7716 100.486 -7.53747
-10.1896 139.029 -5.51158
-2.75196 94.1324 7.60847
-13.618 115.438 4.92634
-2.56439 116.353 8.85712
-12.706 109.507 3.46889
19.6733 123.296 7.63067
22.7911 108.633 9.11526
8.57388 154.666 1.48826
18.4158 142.192 -6.37449
23.7708 123.191 -4.40973
13.6404 120.869 -6.52001
18.6777 109.06 -7.33371
-4.08935 124.739 7.70548
4.09308 136.635 4.77493
12.1888 120.144 3.60376
10.325 149.661 -5.87024
-10.7312 130.998 -7.47359
15.5405 134.178 -5.70003
-11.1413 137.275 7.57495
-2.4062 145.795 -2.36372
-15.3623 121.47 1.027
-15.3274 120.252 -2.65777
33.2927 81.1091 6.30378
12.8634 114.128 4.04773
12.8056 135.873 -9.12375
-0.632452 110.49 8.22383
24.2459 129.643 -0.700379
-8.79645 120.228 9.05974
20.3214 113.686 -7.63371
-7.2457 147.406 3.23228
-4.88367 97.4309 7.76458
4.91678 138.841 4.23375
34.9036 83.2896 4.82348
8.67207 113.522 -6.51855
10.8525 149.87 1.72943
20.5402 127.284 8.57511
17.1631 129.621 -6.34424
-3.95346 115.395 -5.6565
10.1722 114.946 6.97362
24.893 129.153 -8.224
-1.09448 142.834 -2.29766
7.88907 113.294 8.78512
15.3647 142.18 2.24961
8.9154 120.765 -4.87825
25.6666 116.195 1.02653
25.0233 89.0455 -1.82753
-11.34 127.385 6.0949
22.7731 120.007 9.66396
2.42206 122.801 7.38949
-15.029 106.358 1.12368
15.4684 101.821 5.9663
8.06368 137.986 5.85206
12.4067 152.685 0.634423
22.1024 113.895 -5.216
-11.3918 133.433 -4.85209
-13.1737 123.795 7.4749
32.2053 99.8685 9.44872
-20.5856 118.655 6.3164
-15.4401 107.862 -0.0896906
-0.626636 120.466 -5.23761
22.847 124.408 -2.94323
-8.98279 135.997 -6.65085
-7.63142 149.271 2.3711
-16.9241 118.903 -1.74233
6.78811 86.3619 7.54316
28.9313 134.152 -7.51316
1.03376 77.3911 2.68359
29.8738 125.798 -4.64408
5.51155 76.7208 4.23016
15.0566 128.367 -9.10384
1.11631 130.888 -3.60424
-20.9473 128.962 4.37315
0.936165 135.497 3.64403
-0.675877 119.871 8.78684
7.28517 91.7176 -6.41087
20.7294 139.037 -7.62593
19.364 104.325 7.13316
-2.82315 135.253 3.40214
-16.6784 129.586 7.92205
-19.701 129.094 0.179245
-7.58096 128.387 4.71704
25.9164 111.97 -1.90176
-2.68158 103.211 7.89975
-12.0058 128.368 -8.39796
24.1055 133.242 1.28296
-7.36384 93.1903 3.98629
28.3982 116.964 5.67721
15.7574 125.461 -8.13896
25.7074 123.091 -5.14906
24.6799 93.6541 -3.07535
26.7173 126.653 -9.81553
-2.4768 140.95 2.74918
14.9914 95.7843 -6.65935
-2.73945 112.052 8.40544
7.2497 88.8788 -6.01033
25.3725 78.2358 2.36003
16.0444 124.913 2.73251
20.3156 136.46 -8.11999
-22.4657 120.223 1.78504
-16.6612 109.575 0.462038
6.74802 129.126 -3.7927
12.9892 107.894 4.62434
-1.56458 87.5249 5.15559
-8.26598 139.36 -6.37925
25.5719 87.716 -1.17247
3.01511 104.109 8.46023
25.2635 123.671 -7.1013
13.5181 99.2807 -8.61737
21.1618 131.792 4.55651
7.31463 128.274 -3.77474
-13.2961 136.758 -2.32468
9.93639 82.4721 6.67437
2.79176 93.5703 8.49909
-8.27782 135.209 6.6847
18.4407 117.653 -5.62698
3.30373 125.576 6.24059
-1.45171 90.4616 6.98433
17.1206 127.097 -7.21223
-15.3235 127.622 -1.17702
-14.9954 103.772 2.26898
14.5366 144.189 -5.84033
0.861869 120.334 -6.53732
20.7162 114.33 -7.39809
3.80188 138.778 4.00753
21.1003 87.0647 9.7798
-18.7076 120.561 2.7967
21.964 111.461 8.72523
26.2422 124.323 -2.00157
-12.3207 111.244 4.49684
2.00244 95.7852 8.49069
10.2522 81.4905 -4.01181
8.54358 134.252 6.24858
18.7024 94.3731 -5.32601
-16.4705 120.913 -3.96017
-4.11994 144.664 1.82546
-1.35018 152.657 -2.01113
6.45408 73.8222 5.47258
-6.97593 116.39 9.13946
9.43281 106.962 -8.47407
-11.3678 140.027 8.36665
29.8384 86.8569 1.33801
11.274 120.285 -6.61029
24.3703 142.627 -5.29151
-8.99246 146.141 4.93988
-3.00571 101.267 8.1456
16.9342 77.6824 7.13714
15.0806 141.173 1.70454
25.8912 122.171 6.62188
-17.4224 120.643 2.72355
16.2017 99.119 6.5869
-17.4261 138.976 5.51541
22.4904 141.822 1.35639
18.0764 114.704 -7.20211
20.7627 134.827 -8.07721
-23.7097 118.394 9.44701
25.8677 143.146 -2.67123
22.6603 124.11 9.0197
23.8082 140.829 0.283567
-0.356626 106.591 -9.76723
28.574 100.248 -1.37662
-5.89422 132.238 -5.5334
8.05388 111.799 -6.92733
25.3507 103.526 -2.46179
16.9172 103.881 -8.01841
15.9134 137.959 -8.03891
-15.3445 122.776 6.3518
-9.84892 114.129 8.70034
-18.1466 125.508 8.99021
15.7942 151.041 -1.33179
13.2014 98.5507 -8.51618
25.9312 139.37 -5.71925
9.17672 148.626 -6.23373
24.2742 92.8283 -3.24236
-18.4558 124.719 9.88389
23.0652 111.499 -4.51283
14.8771 148.791 -3.02902
32.5212 84.7336 10.2799
-17.1462 129.744 8.00725
7.61587 124.143 -4.16268
-5.6301 109.966 8.58789
20.5427 121.639 8.625
12.4033 130.169 2.84495
10.8926 106.3 -8.23979
-5.74507 108.984 8.85141
14.2398 91.7423 -6.18498
-2.58152 131.28 -3.42295
19.511 131.418 6.92526
18.8133 132.286 -6.87869
17.8415 84.1126 9.03458
30.3767 110.619 3.8125
1.92124 148.187 -3.54112
-10.2328 114.053 8.13541
-4.50412 85.6389 2.74166
9.84285 124.031 -5.58908
8.90032 130.956 6.34959
13.77 128.76 1.92085
-20.4764 127.52 0.150523
19.4214 144.382 -5.21464
31.8309 126.766 -2.56884
23.2594 125.344 7.77488
20.2752 96.902 10.7963
-5.48248 93.0047 5.07463
8.44831 116.487 -6.97513
27.4677 132.409 -9.45026
-18.3078 128.703 -2.2048
-8.4592 136.183 -6.84178
23.0615 105.234 10.6377
34.6625 88.052 9.62929
3.86447 147.909 -4.49529
14.5136 143.171 -5.57652
10.815 116.462 5.72723
6.92885 154.25 -1.16631
20.9767 115.915 -5.76996
-9.33315 135.723 -6.53723
24.3996 83.9245 8.84071
1.93894 79.2491 3.17752
25.1214 102.29 -3.3566
26.1269 115.984 0.910359
26.2786 140.039 -0.796785
16.3279 132.697 2.51245
11.8091 75.7092 5.69233
-6.94952 118.755 9.39004
7.00675 102.26 8.63703
-8.38428 99.0798 6.74323
14.0954 82.3903 -3.50424
-1.91699 137.064 -2.88176
17.8347 139.799 5.10423
-5.40253 109.432 8.73352
13.0531 82.7849 -4.13857
28.3208 90.5526 9.92946
-7.37083 150.601 -3.01502
0.635303 92.1188 8.35405
14.1703 103.216 -8.81298
26.7009 95.791 -2.10201
9.84719 82.63 -4.98572
28.1225 103.1 -0.654565
7.8683 126.379 -4.05769
4.19271 77.6416 3.63788
-0.228755 153.792 -2.35886
-12.3442 139.815 -1.15876
30.5276 84.5462 9.86881
6.03785 94.4195 8.25286
12.5122 94.1787 -7.23802
30.4568 95.8413 10.783
10.0449 78.3772 -1.83978
19.0549 138.899 -7.55501
28.3413 134.722 -5.27087
-16.0787 120.206 3.79782
19.4631 126.467 -8.98698
19.5574 79.3062 0.406333
9.82083 76.5769 -0.34881
22.5744 127.204 5.30267
-12.0541 104.186 5.04361
-16.7735 125.6 -1.34805
34.8456 93.0879 6.28989
-16.8805 120.197 -0.85164
18.5336 98.6149 8.37973
1.68126 82.1633 4.59805
19.0864 114.401 5.5935
18.7964 118.867 -4.41834
25.2962 98.1311 -3.6384
5.87395 139.997 6.44909
23.3977 96.1691 -4.30974
-6.93298 149.455 -3.67408
-8.33487 114.104 9.16881
-3.4032 145.419 -2.9087
14.127 86.4374 -4.68826
20.8323 127.875 0.335678
1.044 88.3964 7.58722
24.713 129.024 -1.04115
19.9165 125.617 -9.11945
23.5198 122.33 -3.00915
34.9463 91.5702 4.32963
27.5228 103.616 10.8292
24.9222 140.513 -5.24253
24.9361 138.274 0.225071
5.55376 98.2458 -7.06191
20.5822 133.113 -8.25218
0.851371 112.289 8.65674
-16.5439 119.365 -2.60716
22.8152 103.35 -4.96342
28.7671 101.799 -0.569682
13.7156 84.4997 7.7672
-2.80225 143.937 1.98002
28.6185 132.366 -8.56408
-6.73565 135.93 -7.02521
1.91825 102.79 8.01504
29.9173 97.6609 0.137501
25.0222 107.034 -2.07643
8.24792 102.345 8.29541
20.1816 124.19 -8.81429
2.61939 101.86 -8.78997
19.054 79.6765 0.004815
-5.04241 84.7578 2.52208
24.0008 132.64 -7.86892
-11.5819 108.71 6.25063
-5.94173 130.615 -5.70112
10.6368 108.743 -7.38632
20.0914 132.123 5.92315
-19.5791 129.99 0.199196
25.1809 95.7347 -2.92171
-12.6922 142.647 1.15895
8.85703 151.895 -4.3094
-15.5013 122.778 8.1223
30.4964 107.356 6.92242
-11.5909 148.779 0.99271
10.7659 144.394 -7.63752
3.9295 77.6659 3.51281
22.5047 123.991 -5.21636
20.4502 122.986 -4.20344
-5.44621 128.369 5.68466
-12.4934 111.708 3.88251
20.7314 120.52 8.64825
-19.9632 117.592 6.02763
-15.5948 120.896 4.56934
-4.09034 116.525 -5.37847
16.1569 130.81 -7.21652
25.0745 93.0864 10.2878
3.08231 81.5945 4.95719
-7.39114 153.175 0.593805
17.0645 141.447 -4.2485
-15.5148 128.453 -2.95463
15.1996 129.182 -8.8438
22.0125 115.532 8.88518
5.28473 121.765 7.76117
25.4506 119.388 1.28368
32.6509 88.7979 1.8767
-6.34416 138.741 3.20012
-16.9886 120.511 -1.34987
-1.66775 113.633 -6.56923
17.3986 127.631 -6.04543
-2.87728 90.7012 5.75385
21.6849 128.303 -8.36601
10.2111 132.916 5.81522
-22.1752 119.494 6.41276
27.2254 127.035 -9.15324
-8.87571 123.009 6.13668
14.3692 94.8487 -6.67069
17.5315 102.434 -7.78359
10.8913 89.201 -6.3965
-15.7585 121.445 -2.15287
11.6918 126.957 5.13023
34.7689 88.6149 8.05602
-8.20995 130.46 5.41668
22.091 125.854 7.90203
27.0405 102.282 -1.69516
16.5542 127.652 -6.24624
16.6629 111.621 -7.67735
9.51803 120.101 7.70533
-3.15295 138.563 2.51047
9.56825 97.2113 6.45679
10.8433 90.2897 -6.79908
19.7683 98.0613 9.95298
8.32266 127.457 7.58842
-4.71614 149.203 -3.101
16.7389 82.0715 -1.93369
3.44719 136.969 4.82017
30.4857 102.829 9.44062
-22.3561 119.161 5.00846
32.1968 81.7682 9.8757
33.6655 98.3153 7.63975
-17.4198 131.237 -1.69814
4.01927 144.991 -4.7191
21.3393 138.809 3.01821
-9.39693 121.986 -6.30085
-7.53001 143.195 4.01908
17.5706 97.0285 8.11387
34.7093 88.9862 8.98043
29.6283 109.131 2.22647
-17.9355 136.733 4.08363
18.8765 93.4921 10.6514
-9.63745 140.398 6.58853
-1.41462 125.037 -3.77893
18.1916 142.996 -5.59189
-22.5311 117.933 3.26646
-13.4136 100.317 3.58606
14.9877 135.621 -9.35782
7.36009 144.882 -6.50966
-16.5283 118.039 -1.1772
-11.2148 147.194 -2.12013
-16.0442 121.21 5.47759
11.4947 103.988 6.0826
-2.11826 112.101 -6.94476
-7.1484 106.037 8.81316
10.0129 145.74 -7.21884
20.8944 144.02 2.49419
16.1783 149.784 -1.70009
3.42481 109.089 -9.01032
17.7939 116.828 4.38564
23.8334 125.527 -9.13941
8.72716 74.6276 5.51391
1.11186 118.481 8.67822
15.2895 101.11 6.03991
25.3484 122.107 5.37638
19.1519 85.1838 9.4433
26.7201 122.983 -6.02841
-10.5559 115.97 7.98671
9.74492 84.7275 7.67451
-17.4351 116.243 -2.05156
12.6435 96.364 6.19903
-8.76545 145.589 4.96703
-16.0231 131.119 -1.85225
-7.16332 145.885 3.25785
18.9855 96.2828 9.66387
-9.04373 149.378 -2.92182
-3.73406 111.021 8.51943
-8.798 116.38 -7.74535
3.2314 123.957 -6.07571
10.2305 90.0055 -7.02949
-3.31442 86.7861 3.37091
25.0253 142.805 -4.48035
-20.1481 118.48 10.6247
35.442 82.9068 10.1819
-10.6925 113.422 6.51344
16.4294 133.163 -3.69035
25.5479 102.833 -2.64681
19.9613 133.615 -8.25574
4.17733 106.159 8.68763
-14.5551 124.25 -6.41762
-14.1867 133.898 8.59018
18.4898 133.318 -6.39728
20.462 112.268 7.29206
-13.7935 128.38 -5.21869
25.0315 125.721 -0.998565
19.0712 129.523 -5.37933
22.2408 89.8308 10.1918
36.0864 81.6855 8.08951
-12.7702 138.227 -3.93791
17.224 126.213 -6.76883
-10.5349 147.512 4.30075
3.73905 92.0213 7.79764
32.4979 101.471 4.14902
-10.3844 132.135 -6.43018
18.2812 89.3435 -4.01722
23.8408 136.536 -7.41412
31.1782 82.1265 9.69561
30.0706 91.4793 10.3463
16.0523 106.543 5.02523
-22.046 123.642 1.81271
20.8429 115.02 7.554
-16.8452 127.158 -2.99749
12.7741 106.419 -7.54776
-0.766921 105.317 7.75612
27.4629 106.417 -0.821125
-3.74294 92.1653 6.05899
-18.3053 127.768 -2.97785
31.6934 100.678 1.8969
-17.0884 124.109 -2.4445
-19.8254 131.41 0.857706
-12.8409 143.288 2.06132
1.0327 102.139 -9.00229
-15.7325 122.79 8.58685
-3.7498 89.7703 4.33413
0.148958 140.619 -2.31107
27.8884 110.821 9.51677
-20.4156 118.121 10.3929
-2.71089 90.6679 5.89454
25.2316 108.274 -1.85793
9.07916 141.212 2.98705
13.2769 108.108 4.48463
24.2202 137.922 -7.07546
-13.1386 125.082 -7.4576
14.0896 152.974 -0.614908
16.8805 107.547 5.15666
19.0274 110.57 6.09699
-16.741 123.806 8.98095
25.6207 124.529 -9.56845
35.2807 88.2639 8.11558
9.00489 87.5881 -6.48041
4.13387 95.1433 8.66723
-0.232017 114.173 -7.80831
21.6846 92.2605 10.868
16.9811 133.882 3.16115
13.0387 121.652 -6.68271
-3.64182 97.3081 8.30225
-3.39056 140.672 -3.55599
12.1436 134.264 2.90942
-16.2621 129.119 7.59174
-22.1665 118.762 7.40367
-3.03479 87.9033 4.09438
-10.1769 145.996 5.54262
-16.9229 139.207 3.44779
24.1981 122.86 8.63653
-4.42566 141.347 2.48713
1.0769 134.934 -2.21834
4.99045 116.501 -6.98628
5.56583 96.1585 8.3437
-17.9751 136.607 4.31638
31.7053 91.8069 1.18527
-6.23109 136.483 3.86649
-1.57683 106.207 7.82508
24.8781 123.829 -7.30075
-9.73984 110.816 8.06981
28.7555 110.909 2.09495
10.5706 146.473 1.45484
9.07303 134.128 6.40346
-10.6113 118.547 8.20082
17.7204 126.337 -7.80323
-12.3333 124.223 6.76131
5.97324 134.853 -4.90667
19.4764 135.461 5.21773
20.6653 126.7 -9.32391
13.5316 86.1593 -4.76374
0.256893 78.8769 2.53918
-5.00527 119.46 8.40338
-0.00821078 120.09 8.93355
19.0924 125.133 6.63351
-13.8545 135.502 -0.959787
12.227 148.357 -5.14493
-1.7678 133.139 -2.94277
34.7668 84.0467 10.5619
-12.5898 105.381 5.1133
15.4921 122.772 -8.36984
-16.5187 119.61 -0.749003
16.3752 77.5782 0.206443
-13.332 141.853 1.2453
17.776 126.845 -6.46076
7.95196 110.032 -7.77435
17.9699 124.847 -5.58635
29.143 114.463 2.81255
18.4885 127.941 -7.99979
-5.45239 132.331 -5.0768
28.096 137.049 -7.0062
32.5711 101.934 5.89276
0.839235 132.202 -2.9939
23.6094 90.76 10.0043
-1.71364 120.702 -4.60931
6.86785 77.9721 4.62927
23.9643 137.053 0.84908
-17.0024 119.242 -0.837916
2.72355 137.161 -2.76906
11.4632 81.5542 6.8455
16.1754 81.125 7.71166
-8.48135 94.2292 3.8952
11.5831 153.583 0.645946
16.2594 150.898 1.03969
2.74671 104.462 -9.75287
24.5383 129.055 -0.992184
21.6538 115.911 8.65383
6.11603 133.791 -4.63245
25.4769 96.5503 11.1082
-0.737325 138.466 -2.16182
-6.41313 95.1844 5.90849
17.1956 110.717 -7.34824
4.09724 97.8799 -6.46271
-0.477255 94.8447 8.0224
20.9472 77.8506 1.18807
-14.4496 130.632 -0.966106
14.4533 149.322 -3.37927
14.4544 90.0917 9.70144
10.7586 139.47 -8.60647
0.693794 121.73 -5.68909
1.05509 134.056 4.30212
6.34962 135.925 4.60374
0.340297 106.917 8.03282
12.4691 116.325 -7.01897
14.4691 144.02 -5.99649
-15.6737 121.96 -2.291
8.39757 104.678 -9.86898
35.3924 91.2268 6.37307
19.5106 124.693 -5.09329
17.7525 132.377 4.21222
17.2804 134.699 -5.70628
-6.47256 136.069 3.99167
21.9968 126.568 0.29963
29.2437 92.5264 -0.292867
36.9384 82.5455 8.99065
-4.05421 100.743 8.5075
30.0457 92.8739 10.4639
17.7064 146.276 -3.12825
-21.4451 125.479 0.25529
30.1842 110.79 5.20432
16.9641 139.219 -4.79602
29.2159 114.05 2.36065
5.19145 141.102 6.3359
-0.711777 73.7368 1.82844
16.2996 137.479 -8.14168
-5.91654 103.681 8.62872
2.49336 133.503 4.5922
-5.61093 146.69 2.19977
32.2225 89.905 11.2011
24.8983 121.797 4.46584
-17.0454 135.1 -0.121509
21.0211 122.756 8.89891
0.434445 87.4053 6.71062
14.2223 139.702 1.32925
-5.01857 139.018 -4.95588
-20.0157 121.116 6.71161
24.6876 141.979 -5.06067
14.0541 130.851 1.4651
23.4828 124.709 -1.31972
-19.5265 117.901 0.299041
-15.2917 123.072 -2.63367
8.67488 95.3687 6.8841
26.5533 110.245 10.7536
26.1613 99.6594 -3.17839
-21.1682 120.014 -0.617177
24.9093 82.6019 0.715407
14.307 143.082 -7.04868
-7.47879 134.501 -7.22518
8.20875 123.547 8.05671
10.5283 125.074 -7.29308
-1.11748 106.84 -9.60778
14.8286 121.418 -9.03647
12.2425 82.7281 -4.3551
19.0113 128.631 7.1259
7.62307 144.1 2.90718
10.2861 118.539 -6.8147
-2.68571 142.116 -2.83776
16.3803 106.058 5.21318
7.85447 139.142 -7.5903
21.7156 101.34 -6.23534
7.56303 101.301 8.24015
24.1826 131.925 -7.57769
15.0681 79.1282 6.75652
7.99468 138.866 5.47693
-0.309962 83.0563 4.17263
16.9699 134.855 3.62775
23.424 146.956 -3.02847
21.2343 124.91 -4.69733
7.8412 80.5311 6.37567
-0.786567 138.207 -2.16612
-11.3376 123.208 6.58284
24.0084 146.174 -3.09817
9.26751 87.758 -6.53497
-8.61653 136.749 6.1481
-1.32959 147.59 -2.09014
7.95976 92.9096 -6.94596
-18.6595 124.482 -2.60494
-19.2846 134.684 5.38508
4.52808 123.181 6.92337
-15.9485 139.289 1.90431
-19.9493 130.44 2.01337
23.8956 118.046 9.95188
1.47058 118.033 -7.66926
-15.9472 120.177 0.55798
17.1548 122.802 -5.20936
20.4405 145.591 -5.03881
17.3911 145.806 3.09844
5.20527 82.8937 -4.95714
22.4007 131.843 -7.81728
2.65705 116.294 -8.36949
-5.05007 126.496 6.33057
34.9347 90.1606 9.56643
4.39024 121.001 7.45739
24.2732 129.725 1.53774
12.7495 140.893 -8.47433
-7.458 124.49 7.72574
10.2562 118.608 6.79035
21.4601 128.545 5.26564
-2.99608 141.234 -3.15058
-1.78871 143.763 -2.37908
15.3718 141.383 -4.82775
8.90988 132.92 -6.71096
17.2451 127.941 -5.99443
22.1151 142.141 -6.52527
15.1541 89.4697 9.65722
8.75797 115.824 8.27691
35.1743 89.6357 6.61315
16.465 136.051 -5.75001
24.3409 142.126 -5.45812
19.2768 92.4358 -4.56153
15.6482 116.913 -6.72912
5.64414 78.2758 4.38024
2.01658 75.6887 2.65841
12.6528 80.0052 -2.34019
15.7886 135.06 -8.692
-7.40246 90.3107 2.44233
15.914 93.8821 -5.94523
21.7545 116.534 -2.76483
33.2725 96.1875 9.53155
10.5402 95.2163 6.27873
-18.2513 129.733 -1.12502
-5.00446 119.87 8.5134
11.2975 104.296 6.25684
7.21364 108.606 -9.42634
2.49425 95.3201 -5.59474
26.5336 120.867 4.65085
10.4476 127.315 6.30738
-8.52934 126.306 5.29209
-14.7514 132.696 -1.06914
17.9418 129.524 -3.46351
7.82147 114.953 8.80503
37.5215 83.1651 8.1951
16.7146 128.699 -6.54414
-9.08122 121.424 8.36924
3.78119 89.1652 8.04643
-12.2352 143.112 1.12324
-12.4775 104.644 4.93496
9.58646 146.202 1.5066
-16.1172 120.054 0.856373
30.7861 106.874 4.05515
11.2861 80.3853 6.77573
15.5297 150.219 1.70031
-17.7499 124.687 -2.68752
24.5753 123.838 -2.20501
-18.2961 122.574 -2.24789
16.1826 117.706 -8.43511
6.45103 126.417 7.62744
-8.88309 127.996 -7.24453
17.5267 88.8899 -4.24164
18.8801 137.983 5.21676
3.88747 154.666 -1.7334
25.6136 118.024 1.09749
8.37467 144.648 -7.00306
3.35841 114.012 9.60235
7.86895 140.312 4.88046
18.352 91.8185 -4.6825
28.45 134.271 -2.70152
11.2547 87.7695 -5.85901
-16.6793 119.958 -3.65252
25.1975 109.82 11.0264
29.9241 108.243 8.4559
16.9307 138.274 -6.60282
-16.6143 120.427 -1.99578
8.71013 92.0222 -7.06479
21.5079 116.371 8.65093
-0.585803 109.881 -8.71336
30.5883 107.144 3.57354
1.7182 103.769 -9.61659
25.7403 80.0232 8.39796
-11.0942 148.907 -0.851976
10.5609 136.081 4.31464
23.4239 120.302 -2.62536
18.7944 112.77 5.58182
25.2644 120.242 1.80277
11.2062 94.8645 6.31624
-11.0088 135.242 -5.71288
36.8456 80.5193 8.99384
21.879 139.501 2.24969
4.27004 154.438 -2.00839
3.75301 146.859 -4.54861
18.6745 126.305 -4.08437
-19.0731 119.745 6.09404
4.60512 107.016 -9.77516
15.3917 79.9257 -1.26039
-12.4246 108.166 4.98328
-18.0275 120.762 0.78713
-9.59033 144.049 -4.87545
-3.58902 122.052 -4.62097
14.6321 108.532 4.4321
15.9543 150.38 1.47593
-23.5962 118.96 7.78011
2.45871 119.153 -7.51427
18.1643 136.485 5.80512
-4.76824 146.125 1.58349
12.5452 147.147 1.51881
-1.59873 124.293 -3.84558
29.6307 130.743 -1.97325
19.5538 132.847 -4.05903
-3.84699 116.718 8.44515
23.026 94.8147 -4.23813
-5.72821 136.053 -5.9799
7.24267 83.2205 -5.12728
-0.368997 125.329 -4.19849
-3.99097 124.105 -4.46073
16.1389 151.317 0.785395
16.9078 134.808 -5.07191
5.05935 87.0489 -5.74152
7.73911 135.249 5.12912
14.7185 105.742 -7.43024
-8.26281 140.08 5.02487
4.58307 154.121 -2.1366
10.3736 113.727 -6.73147
28.526 134.106 -1.24176
6.01248 98.2996 -7.23445
4.67219 131.703 6.18888
-15.5155 121.646 -0.775614
15.0495 126.066 2.2411
35.0043 93.3079 7.71769
6.02208 138.922 4.85808
29.9434 130.654 -1.55757
24.9254 129.355 0.801865
13.3369 81.697 -3.34216
4.09093 105.099 -9.67611
-13.5883 123.713 5.4502
13.3 128.189 2.53668
18.4562 126.46 -3.84311
5.46562 136.494 4.43431
8.8975 76.7184 -0.802219
6.83428 142.4 5.0843
-21.6106 122.103 1.7257
7.75117 138.28 -7.42865
-17.6348 116.301 1.11509
15.4263 141.386 2.05411
-12.5303 130.598 -4.55528
11.8329 82.3134 -4.19696
-3.92982 138.349 2.19517
-2.66181 138.525 -3.35809
-11.7118 129.116 -6.95506
4.02089 91.3276 7.76433
16.3919 140.788 2.77336
-21.6885 124.946 0.777359
-0.567356 128.062 -3.41864
23.0618 142.053 -6.22076
-11.2357 135.897 -5.32602
8.35367 125.63 7.91662
-17.4766 132.51 9.08015
-22.8979 118.592 10.7702
2.92614 144.151 -3.88198
21.3586 127.057 -0.194876
26.6996 139.686 -1.51415
13.8665 92.8029 -6.50575
25.619 138.592 -6.32118
-17.5615 120.139 3.96626
18.3212 92.4239 -4.80563
27.9691 102.716 -0.775731
24.6944 117.653 9.95046
24.9634 123.269 3.47375
-15.4728 121.808 -0.897304
18.2116 142.591 -5.54038
26.3613 134.291 -7.57104
18.2982 102.482 6.92444
16.7648 150.325 -2.21839
-1.12759 111.251 8.12373
26.7203 119.436 2.39714
34.6808 88.374 9.76194
2.67162 90.3784 -5.13167
17.5644 141.684 4.76235
21.3219 128.843 -0.130167
10.6637 153.299 0.94287
-9.0155 137.556 6.54311
28.5555 99.8981 10.5901
16.3119 130.798 -3.5188
22.0713 92.7639 -4.36914
-12.9145 114.121 4.85811
-22.1325 124.929 3.52729
-12.409 112.924 3.76046
-14.2026 117.598 5.99427
-16.7459 129.353 7.82894
-5.90727 113.585 -7.08077
-3.86638 93.63 6.36326
-12.5215 146.653 2.18842
26.4789 78.7123 2.73027
6.32526 123.526 7.61821
10.4029 112.626 6.66508
22.8919 133.512 1.68022
-6.46769 152.987 -1.27995
7.43718 77.4167 4.72708
15.5809 131.067 -5.34899
15.9754 78.6102 -0.248245
27.1308 133.936 -0.144565
1.52757 97.335 -5.96296
18.9008 139.526 -7.39857
-2.20647 106.944 7.82278
2.98984 145.086 -4.07503
24.1708 122.599 -4.85218
-16.7832 120.429 -0.441906
1.37123 129.2 5.98716
9.38785 125.144 -5.09834
23.7676 79.3472 1.79069
12.5296 126.554 -8.91843
17.7264 133.17 6.11399
19.1625 149.846 -0.373983
6.14689 105.378 -9.24757
8.12742 108.432 -8.81377
13.0845 134.785 -9.0594
23.3373 127.34 4.54449
8.76758 80.3461 -3.53749
-3.60964 90.5081 4.84108
13.3129 119 3.09307
27.4837 90.0641 9.9123
17.9348 123.599 4.37679
-12.6066 115.956 6.69374
-9.90609 122.1 -6.38933
29.2732 131.188 -1.75906
-13.9676 136.849 -0.462435
25.572 116.711 9.41444
12.5633 120.982 3.24136
-15.8541 124.798 8.37719
-10.4947 119.622 8.18003
-5.33107 121.276 8.747
-17.2485 121.371 7.88255
3.38642 118.057 -7.698
4.39067 112.76 9.60545
5.17134 73.6069 4.87402
2.05043 77.1551 2.97863
22.9382 137.216 -7.68713
18.1561 92.893 10.0226
1.12359 148.069 -3.18048
8.28771 142.615 -7.24412
21.1181 86.0406 -2.28412
-20.3201 129.775 2.95538
17.4371 87.4437 -3.98041
7.51797 105.804 8.67323
30.0591 125.897 -4.79324
3.50725 87.673 7.71667
-12.5534 140.346 -1.35256
-10.3311 122.086 7.08259
24.9867 124.019 2.63932
-13.9569 122.534 5.32471
23.3273 93.4512 10.6425
-6.43428 118.653 8.97132
10.1775 122.239 -5.19661
30.1192 109.738 5.9393
9.03914 128.683 -6.4676
12.7702 152.705 0.347916
15.25 120.568 2.97191
22.1881 137.742 -7.75923
21.3831 134.057 3.62596
-19.4455 124.411 10.6095
21.8911 131.239 -7.52044
2.38719 153.184 -2.85273
33.1779 99.3476 4.1722
6.34574 100.648 8.52191
9.86475 138.291 3.94823
-9.85347 112.103 8.43723
-7.30984 117.369 9.52894
-14.117 113.187 3.16666
-17.1703 128.466 -2.86511
6.12794 154.021 -1.58748
21.0071 77.96 7.43824
26.6016 88.157 -0.737704
-10.3136 99.2235 5.63221
-9.2298 124.517 4.94001
8.36585 150.172 2.20099
15.8448 134.321 2.18393
28.7986 79.261 4.27858
27.2191 117.858 6.96446
28.6966 133.337 -8.82372
20.1445 124.787 -6.03137
9.56833 139.195 2.59408
-17.2401 120.192 -1.02764
13.7919 117.995 3.21157
15.4875 146.06 -3.90575
20.92 147.989 0.113523
16.8822 79.8874 -0.744644
35.6976 86.8929 3.70884
-17.2395 119.884 4.10467
18.7409 127.466 -1.7098
31.6031 79.2339 9.32646
-17.5318 120.995 3.96344
-21.8029 119.707 11.3353
3.47205 96.1112 8.66994
9.80942 144.481 1.49589
33.8532 84.5458 10.66
-21.6661 127.426 7.18318
11.9575 132.135 3.14872
-4.67954 107.782 8.71314
8.64972 146.441 -6.78391
33.6668 85.5678 2.92124
23.5248 96.9262 -4.40519
26.2187 96.0121 -2.37183
-17.9832 120.311 0.104784
26.585 127.992 -11.248
-1.50657 142.71 2.19153
6.97674 154.348 -0.909423
10.9275 119.414 -6.77213
4.9135 131.167 -3.49448
21.6571 148.435 -1.76816
-19.0542 129.965 -0.755796
-15.9565 133.094 -1.09722
-14.3305 129.224 7.97453
28.3944 92.3948 -0.603238
22.5962 106.793 -5.64116
29.508 101.196 10.8661
3.62017 135.012 -3.10382
27.6351 95.1253 -1.35382
15.4803 145.425 3.2511
-1.29277 120.58 8.47935
-18.9984 133.084 -0.515349
17.5977 125.783 -5.86247
12.7753 138.096 -9.54855
-4.62906 93.7891 5.90255
-9.98154 119.075 8.29298
1.41708 83.4185 4.98234
-16.2309 134.341 9.47618
24.1068 109.354 10.242
-12.3211 113.995 4.85769
8.80675 109.255 -7.60018
-1.33491 146.337 -2.20143
-10.4092 91.4468 2.2005
10.7608 84.9721 -5.26168
-0.835201 153.954 -2.14085
-14.5813 124.155 5.68792
21.2249 91.6553 -4.33017
7.49013 98.5885 -7.75771
8.60766 133.396 6.8388
33.7319 86.6995 11.1857
6.70583 137.963 -6.52811
19.5057 82.2929 8.50172
17.996 135.713 -7.11361
-14.5489 141.136 8.40689
-0.412618 124.608 -4.44533
26.5581 119.633 7.47454
-4.75154 131.55 4.00464
5.15692 136.921 4.46112
11.339 152.693 -0.943709
-18.6097 121.839 6.00044
21.8447 123.519 -5.36854
5.95931 130.64 -3.68718
35.1682 87.9678 7.07569
-8.07186 140.921 4.74374
11.524 133.696 3.03115
-16.0525 141.722 4.71432
13.2164 89.6506 8.83592
-14.8304 124.361 8.49362
25.8295 141.451 -1.08221
21.897 94.8197 -4.62271
-5.03774 114.687 -6.27321
20.5924 119.664 8.28969
19.7623 127.384 8.16914
5.5873 84.0834 6.92318
31.2569 106.378 4.77151
4.92039 108.038 -9.66438
-18.9994 119.426 5.58164
27.6571 129.311 0.638398
-16.5577 126.508 8.04883
3.78048 104.419 -9.46787
21.8438 117.02 9.14413
22.0279 110.964 8.84891
-13.5657 131.838 7.32828
-12.3795 111.677 4.22333
22.6986 123.151 -3.06928
