ply
format ascii 1.0
comment Created by Open3D
element vertex 1918
property double x
property double y
property double z
end_header
-33.0943 137.557 6.02437
10.571 118.988 -3.97567
10.3103 121.247 4.42817
5.64064 121.057 13.9982
5.44228 125.315 -8.1677
-36.7478 101.932 20.856
-1.33338 86.4731 0.173738
-14.3822 134.795 -2.80154
15.6985 139.64 6.99244
5.74093 118.121 -4.28113
-33.967 140.175 3.21545
-11.981 134.818 13.3613
-6.54051 110.384 14.9864
12.0929 123.621 -7.39273
-22.5887 119.578 -2.38897
12.5973 121.586 -4.15263
-7.54996 153.857 -2.86516
-18.7565 146.868 1.06308
10.0069 126.091 -1.01232
-8.11506 79.0325 -2.51458
-31.6195 119.546 8.97654
-24.1707 90.8507 -0.180662
10.8321 146.398 -2.50753
-38.5084 101.88 9.74784
-0.396204 120.033 11.5555
-24.8239 142.786 6.35484
-27.1487 130.506 16.1119
13.1108 117.306 -3.23571
-6.83137 143.643 2.05648
19.9083 124.409 2.0861
-33.4561 136.413 6.94432
-27.981 141.67 0.839737
-17.2029 122.553 19.7595
-29.9486 132.672 -0.736276
-12.3965 131.84 -0.236693
7.22229 147.695 -4.47849
7.4118 140.029 -6.42413
-9.80882 137.624 -2.70879
17.7434 130.716 1.94505
8.51782 123.564 0.996872
-23.9172 131.096 15.8065
-10.7326 145.658 3.55903
-16.2662 130.888 -0.0358029
-8.39058 141.001 10.2805
11.7503 143.027 -1.71928
11.0407 151.748 1.69289
-27.6473 89.7073 1.78429
-2.6421 108.715 -6.7252
-30.6875 130.077 1.92072
-12.1749 120.872 17.4412
-3.59869 121.197 -6.59475
-17.4843 138.63 8.62484
6.62693 124.127 2.81484
1.261 121.424 12.9219
-31.2598 121.354 18.0442
-0.664433 119.377 11.6371
-28.1877 132.987 -0.0690844
-22.9003 94.5174 -0.922285
4.55669 107.212 -1.09187
11.5022 147.525 -1.29696
-25.3046 144.495 6.30595
13.7351 142.941 6.6466
-8.64269 146.322 1.4719
-15.6245 134.086 14.8623
-34.6439 114.471 8.26135
5.16751 140.437 -6.38558
-10.6382 113.044 14.5158
3.94938 143.567 5.05859
19.7187 120.854 1.94621
-17.0287 141.448 -1.82727
-30.8139 127.018 8.64226
-22.1667 85.1527 -0.577492
-7.3031 126.135 -6.42013
7.8695 118.76 6.7094
-11.6142 146.543 -4.15146
1.03033 142.125 -4.73548
12.945 134.43 -2.82972
-2.97663 78.3867 4.48963
7.13369 108.538 6.25284
-16.0439 138.664 7.83818
-40.3568 99.7977 12.8293
-32.2043 118.666 0.980319
-10.0341 119.327 -7.13481
-28.0509 130.295 14.4255
-15.7325 152.938 3.04641
10.61 128.458 -3.4463
-24.3636 148.879 2.9187
-17.7771 126.215 18.5365
3.83441 104.788 -2.34777
-21.0445 150.685 4.08441
-25.3839 133.397 14.7363
1.05566 125.479 9.6086
8.80353 136.031 8.02216
-17.6444 136.515 12.1285
3.71284 125.144 -8.24681
-34.0418 106.071 3.10504
-29.2783 106.844 0.181053
-29.7332 136.046 9.58794
-29.9669 127.951 4.12359
-25.9324 100.745 -0.0048893
-12.1615 149.421 -4.14014
1.08104 107.849 -4.96849
-15.9575 92.9585 -3.96357
-0.189634 143.468 8.0158
-13.2851 135.462 -2.42036
-3.45014 78.2518 3.57235
-34.6038 98.2475 5.4792
-10.5096 132.057 15.3636
-32.3005 124.333 5.65953
-30.7213 125.018 2.69122
-2.45318 147.46 -2.95874
-18.866 94.1326 -2.99367
-0.266587 90.7072 -0.0848387
-29.5922 130.424 10.6823
-38.4581 102.329 10.9631
-23.8178 133.814 -0.464275
8.6663 127.579 -6.73416
-19.5118 118.774 -2.83842
-11.2642 119.543 -6.79035
-11.1935 81.4465 -3.74081
-11.5864 122.988 -4.33935
-5.01998 144.235 7.48095
-2.98479 82.1321 2.14527
-16.8339 81.8308 -2.60577
-30.6926 144.812 4.11269
4.69719 127.717 -7.97252
-13.274 87.1045 -4.82485
-30.8862 134.493 9.10323
-22.1079 101.738 -1.44012
-0.897269 90.8409 -0.84621
10.6362 151.819 1.87166
5.83078 129.183 11.7613
-20.5152 149.113 0.562197
-12.3444 123.707 17.8991
-7.32527 123.331 12.4246
15.1312 129.876 -1.87031
2.62227 133.115 -6.85396
-1.37217 108.232 -6.17618
-2.904 93.7606 -3.8052
-7.19554 91.1931 -5.10974
11.8262 120.111 -4.84947
-23.6571 133.265 -0.996548
-26.6964 139.798 7.64506
-28.8213 138.886 8.58037
-10.6982 119.816 -7.00317
-4.44948 80.9971 0.176623
-0.715815 136.268 8.14985
-22.2721 133.19 9.81281
-19.4635 140.674 6.97905
-7.99483 77.3115 -1.60223
2.34145 136.966 5.86223
-36.4609 96.0595 7.19397
-21.878 146.056 1.16462
-35.1475 104.304 19.1636
-11.1245 89.7617 -5.4148
-10.3044 138.067 -3.10486
4.11124 100.88 3.99528
-9.60126 135.356 13.9049
6.77675 154.944 0.0523567
-25.5161 117.296 21.1977
14.3031 122.506 6.53904
13.097 122.485 -6.34151
4.87172 114.436 1.15301
18.9123 141.1 3.12307
-29.5464 127.883 3.91207
-15.2109 116.787 -3.90615
-34.9747 101.871 3.8964
-11.6178 82.8836 -4.10013
6.59525 144.308 -5.63094
-25.6277 121.123 20.4327
-34.3696 138.229 1.69494
3.89645 94.9723 5.05592
-34.0619 103.506 2.90701
7.61487 112.94 8.65721
-18.7642 104.909 -4.33475
5.73397 110.498 -0.472839
11.23 130.841 -5.31739
-20.8459 150.456 5.04454
11.114 124.871 6.32456
-32.8947 141.903 3.06043
-33.5366 136.743 7.25964
7.20874 141.983 4.92131
7.27281 108.681 8.82229
4.24302 122.405 -8.1497
-38.926 88.7194 10.7344
-28.2383 114.769 22.1967
-36.7461 88.2986 8.77982
5.38322 124.209 13.1046
6.42563 123.325 12.2983
-16.3971 144.023 4.22118
-21.8226 144.14 7.30461
11.5371 133.639 -1.56912
-20.3999 135.025 10.4431
-9.61922 134.13 14.5994
4.2769 130.222 11.1868
16.2027 126.238 5.65218
1.74491 124.386 10.7819
-19.667 131.841 -0.844999
8.07984 116.543 10.1985
-15.9308 139.247 10.6032
-8.56687 88.1045 -4.89621
-36.8707 104.81 5.63022
-26.5318 83.4934 2.05879
-21.6562 111.999 -3.03613
-26.1744 102.744 -0.818489
-7.11974 80.2484 -2.17309
-16.8398 152.783 3.04333
-21.9999 88.9397 -0.59924
16.4091 134.381 -2.39489
-33.7355 88.0449 6.67789
-17.8841 100.223 -3.23714
11.1169 140.136 -1.69846
-1.03301 115.426 -7.19677
-22.0733 92.5168 -1.40252
3.16417 135.242 6.16921
5.86145 140.336 -6.3066
-17.1927 106.084 -5.6739
12.7707 123.596 6.05946
10.8592 142.335 6.626
-19.9281 116.754 -3.21527
0.0535563 123.142 -7.11513
12.417 133.92 6.95294
-24.597 112.346 -2.69691
10.69 143.316 -4.25966
-28.083 94.2644 0.863154
-24.0593 118.037 -3.04545
-9.46238 152.732 -0.181918
-20.2288 136.392 -0.818514
9.64742 142.594 -4.75094
-19.2601 101.336 -2.52545
-11.3425 124.306 17.1933
-35.8247 108.585 4.17206
-0.765055 141.255 8.77887
-28.7817 131.489 10.9053
-26.3986 120.825 -2.61999
4.71653 104.93 3.81402
-29.9486 124.186 13.8025
1.44567 119.272 14.2876
-21.728 94.7236 -1.3855
-22.8656 124.43 19.4355
6.42381 124.277 2.69462
-9.91594 111.026 -7.85935
0.775332 90.1625 1.35978
-14.7256 140.132 9.19222
14.0204 116.786 2.27187
-23.2587 141.625 -1.4829
-11.2675 149.451 -4.95637
-25.502 115.525 21.5624
3.68434 104.354 -2.32547
-39.5154 98.8173 10.4185
5.06371 99.2123 6.6949
5.19309 117.316 -2.40563
-21.6107 120.367 -1.85066
17.4118 125.059 -0.845214
-36.5758 134.752 5.11264
-24.347 134.27 -0.0320296
-25.7607 139.673 7.25217
-26.9037 119.316 -2.84286
-28.8167 125.878 10.8827
-19.609 116.951 -3.10518
-36.597 106.058 16.8932
4.51758 150.015 4.61294
-15.0295 135.267 -3.79177
12.5942 117.598 1.60105
-31.7823 116.948 19.7634
-27.4611 127.461 1.6856
-22.8328 129.249 -1.88296
17.6607 124.982 -0.81484
-18.4894 100.98 -2.92187
-8.26693 136.711 -1.39097
-17.7709 141.328 6.15857
8.75263 151.043 2.33126
-10.6486 123.571 16.5654
16.5236 132.986 6.93117
7.15578 119.454 11.4175
-27.2227 91.8452 0.893502
-29.6154 108.506 -0.254478
-18.243 131.919 -2.19712
10.1909 124.689 6.21338
-17.553 144.44 5.46551
11.5473 143.314 -2.95175
9.84168 122.702 0.669141
15.9295 130.735 7.02619
-22.0363 124.215 19.4654
-7.36959 143.218 -3.81574
-32.9735 117.027 4.97163
-14.3994 128.005 -0.322437
-33.0693 112.762 19.6578
-20.3415 139.381 6.8916
16.3988 134.749 -2.23016
-6.60619 129.804 -5.58329
5.1765 121.562 14.1226
-42.8098 96.1409 21.1447
-30.914 135.418 9.42607
3.00813 101.23 -0.269684
-18.3619 109.142 -5.73846
-21.7083 103.455 -1.93276
-3.92869 131.685 11.2123
-1.11776 81.4825 4.8804
-12.288 93.1437 -5.75093
0.278707 120.269 12.3147
-32.6693 94.2105 4.42234
3.52397 110.559 -4.96817
-16.622 79.3173 -2.41267
-11.3588 150.079 -4.70113
-22.7861 134.189 11.4871
-0.269982 130.935 7.75324
4.98057 144.734 4.31763
-30.0697 115.847 0.0986121
10.6553 119.741 -1.80002
-31.4105 130.4 0.553238
-37.0428 89.2601 9.05215
-32.0488 138.005 9.19422
2.03862 137.788 -6.46014
-10.9998 140.764 8.27224
4.60874 107.339 -1.32932
3.13059 130.452 -7.64082
-12.2517 101.742 -5.56149
7.54222 146.719 -4.97177
-17.3248 136.917 -1.31364
-21.5379 143.432 -0.251487
-40.3703 102.353 17.5474
-30.3045 131.597 5.64651
11.1058 120.517 -3.85894
-16.0432 139.089 5.90279
7.49852 110.036 4.33714
4.05204 129.327 11.427
0.612988 144.049 -3.51995
-2.26802 102.812 -5.4996
-33.0293 109.509 19.2594
-6.79613 131.689 -4.61494
-14.0564 140.455 9.1786
-0.932953 121.619 -6.12911
-27.7982 134.301 -1.98896
11.1661 118.948 -2.43837
-21.6223 135.221 9.47646
19.1922 137.354 3.59426
-28.4812 124.994 -1.8166
7.20136 144.32 -5.75315
-25.3986 126.865 18.3923
-12.3775 140.24 10.9646
-35.8587 136.442 8.30701
-28.1365 123.89 -2.1646
-29.0118 126.167 -0.517618
-29.7083 109.766 -0.619688
-34.2524 82.9431 7.33965
7.98077 125.899 7.94515
-17.8039 130.854 -0.426947
19.6553 128.812 1.94043
-30.3209 138.122 9.1377
-19.7838 130.209 15.4639
-21.5163 132.01 -0.618187
-13.7615 110.377 16.2928
-13.2651 99.0182 -5.13078
-22.4906 133.546 -1.14152
-5.2994 92.8492 -4.82436
6.85581 109.045 3.05996
-36.3504 108.444 6.11673
-26.0147 134.828 0.404871
-4.07839 115.816 12.8991
16.8352 135.39 -1.56791
-18.7881 122.103 -1.50583
-14.0024 93.0148 -5.01565
1.78354 94.6615 0.723425
16.7881 130.299 7.01924
-34.2922 136.506 7.05532
12.043 120.722 -1.50451
-29.9199 130.27 1.24339
-39.832 101.156 13.9051
-4.99468 94.9868 -5.14382
-30.1602 100.412 0.811613
16.1747 127.557 6.86518
-12.117 124.437 -3.04638
2.45876 138.371 5.65987
-5.99537 94.2347 -5.46096
4.88537 106.355 3.24838
10.5376 126.458 5.31698
-18.3107 129.457 0.167603
-28.9985 134.474 1.53363
-28.8405 137.696 9.38076
-32.748 131.961 -0.643137
-10.9229 75.4664 -1.6609
-0.807185 144.182 -2.31722
-18.3841 139.528 6.25181
-31.2013 117.074 0.374812
-24.8789 135.51 1.70332
-34.2594 114.04 4.27799
-2.23964 94.2902 -3.31799
-15.3871 77.7 -2.85015
-22.4154 137.923 0.67392
-31.693 130.516 1.57584
6.92446 127.078 -1.77802
8.42454 146.064 3.38647
16.6463 126.931 4.79811
-34.701 113.266 17.1219
-32.7199 119.485 11.183
-8.94529 95.4179 -6.57666
10.6585 119.544 -1.72002
12.7825 132.189 -4.29075
15.4237 145.573 4.55115
-20.6098 88.6104 -1.58868
-34.161 91.6035 6.29461
-6.0938 113.616 -7.24438
2.564 125.843 10.5282
-24.6122 135.676 -1.93511
-26.9679 98.8428 0.261074
-20.3318 98.8138 -2.41639
-32.1702 115.019 1.78451
-34.1138 136.479 6.47684
6.05819 121.393 -6.8114
-39.6013 92.9439 11.3847
7.85406 135.4 -7.23956
-20.7138 86.519 -1.33078
-40.5557 98.247 12.7889
6.13911 117.094 0.0203395
-7.77558 127.516 -5.71046
11.8546 125.869 -7.23717
-2.84969 83.3224 0.889062
-27.7633 132.211 10.3369
4.1749 138.172 -6.8111
-18.36 145.962 1.32913
-18.9443 135.411 11.0709
-13.3709 153.379 0.762816
-11.6271 144.117 -4.36241
-1.9274 131.743 -6.21509
-5.92068 117.828 12.1219
7.38728 125.061 1.95461
-6.15043 127.429 12.5413
-22.0141 112.437 -2.83801
-39.605 85.863 12.0665
-15.8822 110.559 -6.50988
7.06823 126.913 9.24153
-37.2511 105.553 13.6097
-22.1104 110.279 -3.675
7.19449 114.118 8.2544
-29.3535 134.517 4.02143
-0.34753 128.59 -6.70022
-36.8576 97.9668 6.98281
-40.5835 100.587 20.3933
-21.5522 127.745 17.3752
-25.4078 144.258 1.01455
-33.1278 139.64 7.64284
-21.361 125.781 18.5595
-24.2538 131.511 -1.00752
-29.3052 133.693 0.568012
-35.6602 107.654 9.38804
-18.5653 94.1292 -3.23854
-35.9891 111.866 15.6244
-16.0091 152.32 0.778821
-3.72132 123.981 10.3464
-31.0139 120.29 9.50629
-23.5245 131.476 -0.959077
-16.261 109.542 17.6582
-28.9027 140.705 0.537478
-28.2426 93.3374 1.53218
-7.18737 111.095 -7.56699
12.106 131.639 -3.56648
-7.23741 110.266 15.0726
-22.3041 149.756 1.83308
-12.0769 150.254 -3.9381
6.53216 106.072 9.46094
-24.3312 105.285 -1.7329
-8.42229 97.7961 -6.95928
8.24463 112.613 9.97453
6.7574 124.35 3.50669
-26.1932 146.708 5.77425
3.91483 123.278 13.8287
-9.84937 142.833 4.94237
-35.2669 98.3604 5.95572
-10.1313 78.9105 -2.76574
-27.8125 89.5987 1.87259
12.535 132.801 6.66053
-17.1841 130.042 0.238799
-2.24678 129.59 -5.81654
-10.1046 141.856 -4.492
2.80673 132.428 -7.00262
-0.156379 88.4495 0.145246
-18.474 120.687 -2.25034
-27.7832 130.563 2.0684
6.35029 130.307 10.6851
18.8704 125.397 0.28027
-19.3195 101.102 -2.3592
-18.7097 112.489 -3.47523
11.1853 151.624 0.897056
-11.1488 139.356 -4.17575
-0.336748 119.68 -7.15541
-10.809 112.207 14.7501
-25.3062 130.686 16.4406
-15.5833 148.62 5.1015
-11.3406 123.136 17.0496
-29.9864 130.271 3.22288
9.59326 127.362 -4.29736
-24.3435 110.079 -2.20239
-19.3056 146.68 7.00927
-34.3725 115.483 10.9153
-8.70478 154.788 -1.32871
-14.5583 133.709 -1.87873
-6.65553 120.134 11.899
-38.8862 86.3073 11.0881
-7.93745 142.796 8.50237
-19.353 151.73 2.79742
-11.4982 134.835 -0.813081
-13.9829 141.947 -3.67736
-19.1517 142.277 7.36478
1.23561 128.477 -7.5968
-34.5549 100.72 4.00938
-26.7984 133.591 7.27233
-3.51638 124.532 -6.47785
-25.234 139.017 7.44965
-35.964 108.215 7.65623
19.0458 129.199 1.35543
3.22993 103.832 -3.0484
-29.6999 145.012 4.01812
8.8214 125.899 -3.85593
-15.6186 110.977 -6.45477
-1.61648 97.9793 -3.84117
-19.9339 96.8842 -2.69569
-15.8428 123.094 19.4293
2.13159 99.801 -2.11711
-29.9977 124.478 17.5771
-40.209 90.5232 12.0025
-13.8281 146.986 2.45105
-15.9164 134.352 -3.49531
10.417 119.244 -5.13652
5.21738 148.835 -3.66722
2.15705 117.353 -5.97287
3.35107 123.926 13.4841
-36.2725 132.602 5.83455
-22.7888 97.4475 -1.11587
4.90979 150.895 4.54114
-36.3663 102.659 5.04244
-32.2273 100.827 2.00257
-13.0237 77.4325 -3.48155
18.1328 126.639 3.25465
10.0124 151.429 0.216115
-7.05578 91.4671 -5.15738
-19.0986 131.774 -1.1577
-5.41278 119.871 11.5857
-18.332 135.008 -1.71133
-17.6669 137.785 10.5372
-1.81436 85.4977 0.299821
-18.1805 132.073 -2.37221
-30.4418 130.043 8.79613
-26.0521 124.849 19.011
-20.7989 150.875 2.25827
-1.92946 115.933 12.9657
-14.8969 131.852 -0.197377
-27.655 97.0421 0.337733
-25.124 110.944 -2.03641
3.53162 150.739 -2.70652
-18.2723 112.592 -3.53281
-28.4895 93.2487 1.79369
-41.4315 100.165 16.8615
16.6192 124.057 5.01484
-4.3135 122.98 10.6447
-9.85455 150.228 -4.78981
-21.0304 127.022 -1.1882
1.50392 148.131 -2.66654
-28.8674 140.843 5.7896
-26.7301 131.326 1.44418
12.0441 127.004 6.97021
-33.1803 98.9453 3.69847
-40.8728 98.1609 13.3469
-16.7966 80.0085 -2.34375
7.6093 115.812 6.48304
6.81346 108.804 3.68182
-26.4332 131.407 1.00231
-31.7603 134.746 4.50684
-9.08641 118.105 -7.25453
4.9311 116.418 -2.31039
-10.348 126.791 -4.19986
-38.6495 91.6364 9.76906
-11.287 138.82 11.6338
-1.46681 136.009 8.71266
-37.1216 105.077 9.55207
-5.03251 144.826 6.93495
-30.4764 120.079 19.5033
-34.6614 90.2068 6.93027
-0.295125 140.529 -4.6605
-32.9258 118.357 9.48465
-24.2248 112.145 -2.83913
4.67916 127.062 12.8391
-19.394 151.499 1.41728
-25.9157 94.6591 -0.14297
6.59893 124.087 1.13046
-33.1914 117.245 8.2978
-0.00203924 93.738 -1.49525
14.7942 127.769 -1.18645
7.86203 117.273 10.9698
-29.7491 133.434 1.62129
-3.72751 123.366 -6.71163
-25.9033 130.715 16.6426
-13.7273 109.969 -6.60228
-27.4042 122.619 -2.32426
-26.1337 140.167 -1.38212
-18.3314 123.631 -0.660514
-14.3021 129.95 15.7382
-0.348047 139.3 -5.20016
-35.5172 134.348 5.15901
-41.9891 98.8658 17.6713
-30.0984 124.707 16.1569
-27.1717 130.62 0.781997
-12.9311 110.426 -6.70358
7.8573 111.457 8.47846
-23.2304 127.176 -1.31184
-26.7005 130.24 1.35079
17.4751 119.086 5.77179
5.54287 113.09 -5.1025
-9.22624 132.198 14.7526
3.45226 135.508 -6.57759
10.6513 136.899 7.8245
-9.05433 144.489 1.47497
5.76688 108.246 1.06024
5.54555 122.691 -7.82545
-7.64571 129.739 14.3044
-20.6073 116.674 -3.40235
-3.42924 84.0682 -0.545057
-30.6875 144.117 4.14917
-5.05673 108.21 -7.87964
-11.6518 90.0539 -5.56186
-4.15425 128.057 10.2591
-27.4185 122.965 -2.36678
-19.8325 107.099 -4.17789
-3.9227 77.9042 3.05996
-35.6131 137.433 1.49101
-18.6613 76.558 -1.47677
-11.9414 140.817 10.2026
6.649 154.599 -0.807165
-42.13 97.0625 16.5429
-37.2022 105.949 11.4077
-8.19685 140.148 10.4721
-14.9131 148.475 4.05178
-24.3079 136.465 8.63473
-26.5629 131.241 0.909675
-25.0489 130.66 -0.197943
2.78359 138.366 5.52262
-16.7032 131.278 -0.0527917
-38.1238 88.8932 10.1501
-3.76852 144.41 7.41145
-22.3669 149.815 1.95387
-1.29204 114.084 -7.60857
-25.9708 98.7675 0.15889
15.7341 121.006 -0.62081
-22.3079 144.356 0.972088
5.12422 117.004 -3.86202
-31.1524 114.708 1.36013
-10.2912 81.5745 -3.67775
-0.879746 124.601 -6.14111
14.0783 118.362 4.49246
-17.8458 86.2601 -2.76878
-27.6011 84.2057 2.92591
5.51384 116.707 0.318136
-34.0317 113.504 18.0469
-27.4415 129.395 1.28004
10.1429 129.723 -4.85288
-42.9768 93.7862 17.5371
8.21345 125.559 -3.35348
-6.87737 143.829 1.75785
-14.6276 126.147 -0.960198
-39.6439 96.8777 10.7766
1.965 112.434 -5.98873
9.46539 151.974 1.95163
-19.4662 108.581 -5.17495
-32.916 119.158 11.5561
-5.38508 143.865 2.16624
5.55943 134.442 10.1104
-22.8642 126.221 -1.35602
16.3942 136.403 6.65074
-14.438 131.992 14.9047
-27.3877 132.478 8.2369
-29.9821 130.569 -0.218845
7.70556 130.383 8.52652
-11.9455 124.08 -3.40827
-36.7586 104.667 18.22
-30.2246 135.996 4.16579
8.60985 122.128 3.30152
-26.7731 137.078 8.9025
-22.5376 93.0818 -1.30787
7.79399 140.58 -6.39717
-29.9337 123.847 -0.835073
6.43808 138.611 6.16337
-5.03012 118.414 11.8439
10.0544 122.835 3.94159
-28.1325 131.278 0.0990665
3.18908 129.843 -7.71131
6.32174 123.63 -7.76291
12.5344 141.177 7.26875
9.03403 130.151 -6.66751
-24.6172 122.459 -1.47843
7.11265 118.771 -0.545294
-15.7268 150.587 0.466623
-42.5378 97.42 19.6488
-20.6686 132.304 -1.31253
5.99424 119.554 -6.54197
-30.4503 130.596 -0.938229
-30.1546 131.347 6.51325
7.95606 111.482 10.5463
10.925 122.524 -5.75049
-16.0409 139.494 9.61613
4.00928 103.93 0.827484
-10.2765 149.225 0.670858
-5.62011 147.472 -4.31064
-22.9805 137.275 8.41329
-33.0776 135.532 -0.632646
-2.48353 144.291 5.14433
-12.4905 116.65 -6.7217
-5.55639 142.659 4.80306
-16.8805 136.723 13.2207
-3.29417 141.681 -1.7844
-33.107 119.337 2.5355
-12.9956 109.679 16.146
-5.49658 138.194 -1.20574
-21.9283 150.367 2.71319
5.38448 105.497 6.05399
9.93886 124.314 4.75924
-29.5984 134.452 4.09164
-35.0697 135.428 1.82564
-38.5905 89.7469 10.4008
-39.1459 95.8724 9.61041
-9.47395 110.061 15.2865
18.2593 132.269 2.3145
-27.0986 131.686 13.8563
-18.9654 148.8 0.382569
-41.4663 98.9568 20.907
15.9743 129.815 1.04909
-17.8801 101.928 -3.53174
10.3099 120.888 -3.35379
-33.0262 121.313 4.51527
-12.9341 148.342 1.94734
7.9278 141.255 6.2158
16.4027 139.253 -0.0642442
-15.5734 149.86 0.728966
-17.603 140.857 6.50282
-1.60357 102.914 -5.25746
-7.08698 112.404 14.3111
0.560041 126.092 8.99687
9.46549 120.22 5.69247
10.5704 128.206 -5.67133
-22.829 116.574 -3.07557
7.60686 111.56 7.71422
-32.3668 118.468 17.3219
6.04314 108.264 1.6595
-28.7052 135.501 -1.51461
9.998 121.572 -3.47758
-4.48365 135.084 -3.58626
-13.7383 143.698 4.11101
-30.4738 105.643 1.47398
-3.30429 89.1319 -2.56855
-3.28285 84.1101 -0.422089
-30.2494 117.866 -0.957242
7.51765 149.991 2.63372
-14.0322 135.64 -3.15836
-26.9084 97.4298 0.172391
-25.7742 123.946 19.6594
-29.4731 138.724 8.7021
-26.5475 147.685 3.65505
-29.9509 144.811 3.87086
7.43228 128.659 9.72294
18.6564 128.428 0.87759
11.9344 118.538 -5.47474
-18.6079 132.952 15.171
10.3212 119.774 0.0135659
-25.675 133.711 13.748
-18.1144 83.4033 -2.30168
-30.1482 133.116 3.79517
2.04707 88.0292 5.65631
-4.372 128.468 -6.13416
-32.7248 88.5603 5.46105
-10.6883 76.1702 -2.32529
-33.4993 141.593 5.53135
-32.3096 85.2089 5.38507
-32.4641 92.1176 4.62392
-6.9582 121.703 11.9359
-1.75468 140.452 9.66056
-32.9347 114.891 19.2167
2.67869 144.545 -4.5636
-19.3273 79.7233 -1.09622
0.171063 134.307 7.19932
3.88484 138.423 -6.88224
-31.615 128.183 6.74816
6.68072 135.314 9.66085
2.5 134.237 6.59046
-26.1279 147.342 5.14962
-3.73283 101.955 -6.25983
-33.8825 91.5217 6.09239
7.22404 146.555 -5.00639
12.8728 121.819 -7.60738
-29.2352 89.7848 2.93479
-23.506 132.473 -0.911505
-9.43308 139.408 10.9905
-1.73542 137.613 -4.46237
-13.5292 154.306 1.24112
-22.8323 133.086 9.15703
-15.4861 78.4463 -2.92045
4.73799 137.783 5.38356
-27.1902 134.834 9.53661
-1.90775 150.458 -4.03077
-16.9358 123.756 19.4233
7.37548 147.836 3.198
9.65577 130.412 6.52751
-10.2203 141.036 -4.45733
13.0341 119.653 5.17494
-27.8833 97.0767 0.40491
19.3022 133.949 4.16548
-22.616 136.888 0.870731
-19.9654 132.677 -2.4249
-8.13852 127.316 14.6097
-19.968 114.166 -3.58375
-27.7284 140.107 -0.30109
-29.1577 114.358 -1.10507
-36.3062 104.251 4.71104
-28.2035 130.167 2.9436
0.529359 145.836 -2.52053
-0.324656 114.921 14.4334
-39.8405 99.2053 11.4551
-33.8361 115.068 3.06308
0.378214 130.367 7.78146
5.41141 136.925 -6.49916
14.2005 128.921 6.83306
-9.10624 141.502 -4.01243
-29.5851 133.321 7.41408
-30.286 124.269 -0.503372
10.0223 121.249 2.55226
-6.37597 77.1949 1.39522
-5.24769 119.644 -7.54367
8.00444 115.262 10.4746
-3.33712 118.045 11.9607
-23.1618 136.035 0.422011
-2.50022 85.0557 -0.261157
-35.6161 110.476 9.40419
-43.1621 92.5034 17.4543
-21.445 148.022 6.36305
-29.868 143.947 2.97039
-33.5633 112.292 2.48766
5.40291 135.145 9.301
13.3004 148.921 2.15313
0.094113 124.048 -7.09023
11.739 139.05 7.77347
7.38525 148.385 3.11501
-20.8943 139.255 0.687979
-28.6314 97.7081 0.54721
4.51443 103.767 3.92078
8.44349 125.375 -5.10389
13.9168 142.718 6.75248
-30.1829 122.042 -0.620709
-23.3468 80.3213 0.808876
-1.34395 141.297 9.16304
-32.0613 119.015 17.2039
-10.8472 93.1137 -5.9714
5.84316 139.294 5.02513
15.8564 145.974 3.21137
2.61594 100.759 -1.54276
-32.7103 135.984 6.89887
-25.2785 136.523 8.47597
-20.8293 92.2024 -1.64904
7.53992 118.452 11.7723
-0.489694 92.1746 -1.228
-19.0654 122.357 -1.41029
8.89577 122.225 7.93308
3.44607 97.2451 2.04288
-35.1975 113.362 16.0273
18.2099 133.919 5.51726
-8.15416 155.068 -0.733644
5.91372 120.005 -6.56353
-34.3184 107.75 3.54359
-25.4432 115.3 -1.93261
3.80873 93.0611 6.49509
15.1888 127.868 -1.03774
-1.5597 80.7082 5.29789
-26.0755 134.209 0.472977
-5.4431 118.964 -7.68037
-19.298 127.799 17.5581
-22.6074 142.663 -1.05778
10.9682 129.782 6.70344
-13.1843 109.94 -6.63783
-29.6593 87.6546 3.71355
-3.18566 119.935 -6.89272
-8.94866 100.931 -7.09687
-29.0827 131.262 11.2026
-12.6634 133.961 13.5614
3.35268 143.147 -5.26507
12.8682 118.825 4.23603
15.6578 143.216 1.57305
6.43733 154.801 -0.777968
5.34359 113.368 -2.4361
-42.3483 96.9315 21.6457
-2.70909 97.6806 -4.81807
8.22593 113.947 9.98941
-9.1155 112.727 -7.62461
-11.0468 97.9914 -6.40954
17.476 130.336 5.10317
-41.1301 101.35 17.4303
-40.4971 100.277 14.0885
-37.1122 91.5397 8.49167
9.15483 124.615 -3.00433
-21.5546 97.2078 -1.8433
5.79514 123.089 13.4015
-9.7171 144.199 -4.66113
-10.7536 97.4048 -6.52229
-1.81966 127.557 -5.80587
14.104 118.319 5.41736
-14.1259 113.314 -6.36956
1.8497 151.796 -3.16835
-19.0602 99.4833 -3.00167
5.75374 102.368 6.51271
-13.2369 126.026 18.2986
1.32044 118.806 14.3662
13.9673 120.779 6.66899
-27.9461 129.127 13.4409
-1.61218 92.7394 -2.38836
6.15334 148.2 3.42946
11.1078 126.398 -6.08438
-2.68743 132.464 -6.06549
11.1642 139.614 -1.41465
-33.7847 136.225 8.89916
-2.85265 82.2227 2.23494
6.66801 121.482 -6.5697
8.04644 126.963 1.51144
-41.196 88.1925 14.4012
-3.31431 120.015 11.2045
-8.51107 126.326 14.8128
-15.0651 143.773 -2.48933
-26.9518 137.073 9.10584
17.3795 133.376 0.955354
-9.45916 122.38 -6.54198
4.75517 132.76 10.263
4.97369 116.773 -4.42767
-36.7838 105.751 6.76053
12.659 125.723 7.23775
9.57325 128.957 -4.47591
-7.17034 91.121 -5.09017
-19.9449 147.786 0.831713
-13.3029 129.434 15.7706
9.21168 125.66 -2.91334
-35.4007 109.373 4.71468
-40.0645 102.98 17.2404
-8.12443 86.7614 -4.46165
-8.93776 153.457 -1.29808
-36.3627 103.212 19.1006
-23.4731 87.443 0.355508
6.04022 115.436 1.90909
-23.9162 108.407 -1.85166
-32.2671 124.913 5.16301
6.86554 124.346 3.66734
-0.20569 132.064 -6.91021
-42.1562 98.2478 20.0691
-35.4441 132.618 2.10062
-35.812 109.598 6.39004
12.4861 137.069 -0.7307
-34.0689 109.363 17.773
-21.2813 99.6284 -1.70397
-30.9724 111.682 22.226
4.87334 114.004 -2.72473
-13.2601 125.266 -1.99398
-31.6437 137.354 -0.655152
10.3346 129.689 6.18042
16.818 134.314 6.88767
-29.0036 109.327 -0.637711
-14.4684 137.444 12.3383
-31.2198 135.119 4.7058
-11.7401 134.448 13.6471
-31.2333 97.9535 1.93316
-23.5271 149.14 2.0482
8.57189 125.243 -3.50419
-19.9109 132.382 -1.74484
0.0197508 104.31 -5.01724
-7.47552 134.839 -1.87169
-27.7178 132.017 2.33865
-29.9023 123.857 12.6437
-24.5607 130.274 16.2436
-40.736 95.0304 12.9307
-11.4741 136.836 -3.16
13.047 123.43 -5.19459
-42.8505 96.5098 20.9051
-23.9831 140.081 6.53848
-29.0025 103.753 0.192811
-37.7801 133.811 5.80876
-31.1627 125.792 3.62775
-6.57094 129.313 -5.70843
1.59011 92.6219 2.5175
-34.032 139.7 2.99915
-6.20826 85.5433 -3.11266
-32.3752 136.071 -0.991184
-25.2797 123.954 19.6435
-32.9298 86.7659 5.8322
-32.1349 118.926 17.9312
-8.5095 108.769 -8.1037
-13.6858 96.5951 -5.35677
-27.3768 138.191 8.86288
16.9212 131.037 6.8086
-9.7346 145.267 -5.00771
-14.2763 119.298 18.9151
-0.684273 83.2567 5.86533
-18.2661 150.464 5.63291
4.12301 134.531 -6.65871
-6.66163 80.3498 -1.80888
-14.0324 81.6375 -3.87434
-19.3986 80.3711 -1.34169
6.20225 115.443 2.21781
-13.4533 86.8855 -4.74483
-20.8255 105.127 -2.76524
-29.9231 144.345 4.52542
-19.7538 137.486 7.05677
-35.7398 94.9842 6.84913
16.7479 119.258 7.95943
-34.5038 130.53 1.90368
-27.649 130.584 1.13036
8.97608 151.152 2.32165
15.9711 122.443 7.80905
-19.9525 132.681 -2.35061
-11.3672 132.061 -0.255179
-3.13893 103.598 -6.01652
-5.55074 142.849 4.48625
-18.6225 150.813 0.790646
7.09576 120.11 10.1754
0.852429 87.1714 4.01833
-29.2809 133.206 7.20781
19.2252 140.376 4.08627
-34.0937 136.506 6.98203
-27.5156 139.255 8.15145
12.5332 144.076 6.4054
-34.5795 111.466 11.2314
9.80601 147.077 -3.54633
8.62846 121.19 1.05235
-23.0311 111.462 -3.11371
2.58591 90.0024 5.67827
-34.5028 104.121 20.4027
4.33339 143.944 -5.25344
-20.4938 110.089 -4.26827
10.5023 122.538 4.64036
-24.8408 130.596 -1.57198
-33.4425 97.3235 4.66331
-27.5669 144.887 2.29513
2.10008 120.347 14.483
-37.5087 136.045 5.63039
-30.178 86.9356 4.08242
-7.94386 79.3437 -2.52492
4.8215 135.43 6.95229
2.24023 137.765 -6.53456
-11.6292 120.186 -6.07182
4.15369 154.12 -2.18596
3.30597 97.0761 1.82391
-16.4117 115.91 -3.87642
-2.93358 153.226 -2.94627
-7.7928 138.748 -2.51754
6.42044 123.476 -5.29836
-8.34437 153.269 -1.64959
-33.4096 114.785 4.9909
-18.2632 96.9509 -3.55844
4.31715 141.558 5.16726
5.78219 112.188 -3.96856
10.5349 124.178 5.60797
-12.569 122.267 17.9429
12.4089 132.353 -2.82044
7.68868 124.675 -4.38677
16.6815 131.655 0.426978
-19.5277 132.623 -1.79252
-9.68494 132.702 -0.948786
-9.67547 87.8924 -4.89739
-28.566 134.882 2.55191
-14.9918 148.786 -0.290198
-1.5422 98.6043 -3.99418
-15.5097 114.45 -4.46472
13.7524 117.236 2.82663
-2.10844 145.474 -2.17496
13.4269 130.173 -3.64566
-24.9569 133.928 10.5862
11.2524 148.115 -0.777377
-16.8741 109.208 -6.22531
-28.7718 127.579 15.7958
-20.9466 136.163 9.49404
-8.82297 136.158 -1.31331
-13.9906 90.83 -4.94917
12.866 142.511 6.75725
-31.9821 127.155 5.07722
-21.3241 139.721 7.22278
10.0157 126.777 4.66536
5.37806 121.808 -7.38741
-19.5284 89.6904 -2.05909
12.7308 128.307 -3.94292
-15.5356 146.555 3.68118
-34.5397 111.491 12.2148
-24.1694 126.584 18.3475
5.62528 132.258 -7.09354
-26.1681 95.228 -0.0758473
8.50163 154.485 0.361842
-4.11557 152.472 -3.45149
-22.7312 124.756 -1.47463
-40.9236 93.4644 13.1313
0.822156 140.804 6.81073
-39.046 101.11 21.2175
-32.4554 138.067 9.21476
11.0817 131.081 7.08027
-6.31507 99.1602 -6.93654
9.32588 134.643 -7.10734
-28.0513 110.411 -1.21171
-15.5801 87.0594 -3.8013
-16.028 146.882 -0.382729
14.394 138.356 -1.31903
3.43263 123.653 13.5969
-17.6392 122.835 -1.07132
-19.1917 113.473 -3.39408
-28.433 146.328 4.4581
-33.6594 115.403 11.9641
-2.07671 82.0394 3.35923
11.3825 135.25 -4.12393
3.30278 121.401 -8.07308
-36.0931 109.754 7.62904
-24.0784 135.85 1.24313
-38.4713 91.6234 9.53986
-22.6196 100.648 -1.13939
-17.1547 137.736 -1.32916
-31.8647 119.586 7.04535
-22.4229 137.535 0.701081
9.48602 118.894 4.94608
-3.66601 123.264 10.4102
-22.9635 104.179 -1.86843
-21.3538 129.249 -1.50361
-3.39629 97.1567 -5.07524
9.92737 132.021 -6.1825
-15.6471 120.987 19.7999
-21.761 106.979 -2.73448
-20.4544 83.5437 -1.57013
2.12939 133.615 6.67691
-5.75293 112.264 -7.40629
0.619388 85.7431 4.04808
4.97294 107.97 -0.100797
-2.05237 86.1943 -0.372294
-13.4541 106.144 -6.59627
-20.4367 136.02 10.8831
-20.1413 146.317 1.32131
7.01673 137.079 9.05786
-34.2388 136.106 6.27925
-26.2946 131.762 14.8097
9.18079 142.009 -5.15875
2.32447 134.48 -6.79493
5.73112 116.872 0.185003
2.07776 92.726 3.23889
-32.5999 116.948 1.3334
18.2387 130.41 1.88566
-13.4276 110.657 16.1396
7.11414 127.431 -1.67984
-28.6531 106.572 -0.177201
-0.0219683 115.458 -6.49486
-27.0475 113.705 -0.859729
-38.9034 95.4736 9.41233
-4.27898 80.7062 1.18079
13.7037 135.762 6.90829
-10.1758 140.429 10.7567
-4.51721 88.4781 -3.08436
-8.46453 149.898 -4.91296
-0.188704 97.5438 -2.42638
-29.1583 143.236 5.10725
-30.4765 122.269 12.0018
6.9516 115.113 3.88278
-13.5202 117.204 17.8678
-29.8476 90.9291 3.36458
-19.3569 82.2314 -1.73042
-28.4445 118.512 21.3091
-19.3126 99.8746 -2.71448
-28.8926 132.027 5.00439
-28.726 91.2031 2.33592
-31.7307 120.516 17.8516
14.0336 138.584 -0.849146
-1.89257 113.98 14.0388
-16.1037 123.263 19.4815
-14.2526 80.0202 -3.61383
-24.1382 101.245 -0.626472
-7.66681 129.876 14.3379
5.95883 152.551 -2.85139
18.3521 123.606 0.458208
-34.6979 112.591 4.12228
-21.4425 84.9725 -0.976893
-13.6925 81.4869 -4.00722
-0.646286 117.807 -7.16109
-28.9311 103.965 0.232243
-11.8604 130.456 -0.411016
-20.0156 135.779 10.2693
-18.9948 143.483 7.1957
11.6526 142.869 -2.25554
-20.207 87.1233 -1.70799
-20.2249 98.1892 -2.54623
-14.787 131.094 -0.0672078
-23.2024 120.556 -2.04293
-3.02407 96.0031 -4.51934
-2.73441 118.279 11.9091
9.47667 120.128 2.55689
0.800403 88.8085 3.47057
10.0126 127.132 5.30318
5.74559 113.968 4.81926
-32.5478 102.456 1.92604
3.86817 93.987 5.87535
-26.8588 134.169 8.42659
-8.03611 75.8279 -0.267509
9.72412 123.508 4.44697
-22.716 133.06 15.0982
1.29747 90.8462 3.29581
-22.0362 132.725 -1.13182
3.48688 102.362 1.59363
8.92901 151.24 -1.45611
-16.8749 87.5759 -3.39864
-24.1313 116.66 21.1926
5.60922 113.813 2.92312
-9.83323 133.883 14.7083
-25.1765 130.852 -1.33177
-10.2654 137.979 12.4727
-37.0701 103.867 18.1967
-7.61309 136.195 13.0353
-35.6843 134.006 7.18601
4.84893 109.408 -3.97752
-16.3665 123.328 -1.1954
-14.6631 123.205 -2.20062
-20.5388 83.0895 -1.44249
-22.567 146.094 6.87247
-23.0397 78.6334 0.780163
-5.98269 145.978 -3.9944
-16.0437 112.649 -5.11715
3.81845 128.337 11.4091
-4.52437 127.363 10.4391
9.33869 121.575 6.75044
-12.6014 152.98 2.20034
-21.9648 145.146 7.31275
-14.4348 77.9708 -3.27662
7.74513 111.988 11.4262
10.4448 118.303 1.60499
2.8022 127.871 -7.90937
16.9346 123.502 -1.19506
-2.0875 135.764 9.84634
11.9432 136.594 -2.24506
-17.9231 87.4621 -2.89099
19.6174 128.051 1.72334
-29.7514 99.3695 0.809642
-15.0132 134.2 14.4744
-7.70829 87.4292 -4.56278
-14.6915 123.309 -2.16477
-34.4427 112.897 13.8672
-12.6684 119.624 17.6665
17.8203 137.71 6.07329
-40.3074 99.8842 21.8372
-34.025 137.616 8.06398
-19.3403 129.565 16.0076
-13.7852 93.7091 -5.07577
-9.99256 131.523 15.2949
-0.0737297 138.397 -5.66368
-30.1879 135.422 -0.916933
-19.5321 96.1558 -2.69185
-33.1588 120.185 4.57795
-11.7503 143.886 -4.29232
-3.97992 143.885 7.84744
-6.44932 119.453 11.9653
-30.9586 135.092 9.31131
9.55138 147.839 -3.45956
-32.0849 94.2671 3.94693
5.92822 112.934 -2.39298
-30.4537 124.184 17.1262
-26.3665 145.801 1.89071
-31.1003 119.82 19.1191
11.1828 142.948 6.5391
-23.9379 118.425 21.1707
-11.4878 129.148 -1.26856
-23.2408 149.501 4.38518
-23.4415 129.996 16.0278
-14.5063 126.905 17.9376
8.32495 127.248 -3.51173
-29.0643 140.201 0.344041
4.21245 104.087 3.30222
-4.27001 90.8108 -3.59917
-24.2475 137.571 -0.965321
6.11779 128.96 11.1932
6.95352 149.394 -3.89823
-12.285 93.9332 -5.84175
-31.9147 137.73 4.87266
6.52287 140.202 -6.3544
-35.7373 133.526 3.59179
-28.5237 111.984 -0.726021
4.34837 146.261 -4.43401
-34.0439 106.595 3.21432
-30.0887 123.424 9.53951
19.5994 124.394 2.64381
-25.3821 143.552 6.04607
-32.2539 141.777 2.6759
3.12336 93.9253 4.01418
-29.948 123.481 12.1348
7.64628 153.991 -0.723597
-0.910456 107.838 -5.88926
-15.1608 76.7275 -2.80057
11.6107 141.368 -1.23385
11.9699 123.404 -7.22149
-27.8048 133.483 -0.9749
15.7204 137.876 6.72641
4.59841 133.831 7.23192
-2.84356 109.656 -7.20871
1.70998 139.623 -5.84661
-30.0213 129.948 3.52682
8.46967 138.872 8.44624
-3.6718 121.014 10.9691
-13.017 134.694 -1.53974
5.33366 114.132 -4.48668
-35.0957 134.474 3.43494
-29.7391 124.323 12.7891
12.6313 145.516 6.08379
-2.93619 92.7042 -3.44254
-0.971169 83.226 3.31179
-35.9331 134.067 7.73482
10.6479 118.219 0.00623139
-41.7432 89.7394 14.435
-11.8671 143.832 -4.24815
-33.9771 115.612 17.3373
-34.5083 138.185 9.05042
16.5212 134.861 6.84766
-30.2477 105.477 1.34854
-32.503 114.268 20.0204
-29.3549 126.575 16.3925
-7.30875 95.75 -6.38724
2.10665 145.848 -3.65878
-42.2505 92.6209 15.0127
-24.2827 141.443 -1.95947
-31.8129 115.053 20.543
-26.7079 96.3338 0.071695
-15.124 143.81 -2.43612
-28.5938 145.953 3.86652
-11.2129 83.0135 -4.06484
0.33612 112.293 -6.55718
-20.4437 132.221 -1.3604
3.24388 115.73 -6.46445
0.192566 147.559 -2.43247
-12.1494 141.137 9.02717
15.9274 124.882 5.65153
-14.9865 81.2879 -3.38374
7.52022 109.614 5.98103
-8.58036 114.906 -7.46599
-18.7748 137.307 9.00136
-3.6405 147.15 -3.37398
-7.65539 75.5755 0.837961
-10.8727 125.226 -4.37775
1.12301 107.704 -4.87489
-25.7165 109.388 -1.36809
-16.2071 99.3264 -3.82297
-22.9765 103.688 -1.75564
5.51554 120.023 -3.45616
17.1395 144.693 3.46403
-29.8358 88.217 3.67855
-7.95921 134.891 -1.25557
-11.8971 146.704 -4.02465
1.86386 117.574 -6.07946
1.80853 96.6745 -1.12592
-26.4117 134.985 -0.624286
7.3579 111.294 5.60578
-16.6204 141.975 -2.60552
-8.48002 74.5993 -0.294607
8.35524 121.68 2.03196
-11.4463 126.737 -2.58803
13.1609 127.483 -2.01634
18.7307 140.58 4.33852
-8.53522 131.466 14.6799
8.91578 149.907 -2.53418
-22.4791 127.045 17.8027
11.6204 129.257 -2.79202
7.58668 116.692 7.11769
15.2138 141.203 -0.574308
-27.7652 96.8433 0.402498
-29.7963 129.724 -0.0173768
-36.9282 105.774 13.7141
-13.7639 114.809 17.3302
-29.3338 120.784 -1.5787
-28.6431 100.812 0.292735
10.3197 125.188 4.39048
-15.3097 108.214 -6.23293
14.1895 128.093 -2.09296
-3.38922 137.194 -3.4325
8.40643 117.529 1.91717
1.30863 149.785 -2.48294
-34.2476 135.609 8.87801
11.8436 136.372 -1.59437
11.7379 134.535 -2.72944
-27.0862 132.078 13.1209
-29.9888 140.567 0.975112
2.69409 105.56 -3.85581
-36.654 107.227 14.4978
-27.8553 135.789 2.20947
-30.7408 121.012 10.4025
10.8317 151.523 1.89025
-32.1323 116.438 19.5471
-33.2242 131.189 -0.527869
4.15277 110.806 -4.4919
-16.2049 152.453 1.23171
-13.9894 121.272 18.8446
-26.936 90.1231 1.1911
-21.6465 138.444 1.13926
-36.1706 105.844 4.91125
6.02499 105.995 7.66598
-16.0848 111.456 -5.68273
-34.0317 115.656 11.4774
-7.34713 91.9512 -5.30266
-19.0512 109.927 -4.84025
-13.6662 101.431 -5.02091
6.99947 120.142 11.6792
-12.2005 99.46 -5.70052
9.13757 120.576 1.96596
1.42509 120.975 -6.42788
9.7047 153.068 1.48591
-11.07 141.394 -4.22324
-34.4118 104.952 19.3753
-30.422 131.884 6.6221
-1.26601 142.809 -2.42326
-38.6263 101.689 10.6947
6.24126 111.517 0.756084
-4.95015 100.238 -6.75563
-2.2396 143.201 -1.99922
-28.9853 89.401 2.76094
-29.9244 84.1835 4.5062
-32.98 122.016 5.49258
-14.8827 147.714 -1.35134
-24.0883 106.2 -1.68253
-11.0527 98.7702 -6.36365
7.72205 123.27 2.75003
6.88835 108.849 4.29178
-6.32729 143.355 8.31363
-12.0588 121.298 17.408
12.5873 120.49 -7.82078
-11.5426 75.5764 -2.5035
-28.1622 135.422 3.49708
-12.4413 153.963 -1.31981
-29.7361 106.157 1.02076
-25.5406 108.944 -1.46974
-11.2681 125.677 -3.46213
-11.4739 92.3875 -5.8151
-2.53595 145.889 6.27095
-11.4092 116.249 14.9702
-30.6337 127.365 4.11919
-0.679775 94.0685 -2.00005
4.61786 96.7026 5.06836
-29.754 124.482 13.6573
-27.3502 84.2888 2.70047
-15.0144 86.2635 -3.84515
6.95956 124.766 4.37752
4.73571 96.2079 5.7293
-28.3145 100.582 0.301534
-21.4086 133.712 10.1814
-25.8807 139.882 7.15656
-13.4854 124.678 18.4633
-15.6177 125.872 -0.667083
-28.0084 133.347 7.2232
-17.3671 129.825 0.250862
-7.6407 93.5664 -5.7598
5.21191 115.152 -1.78655
-16.7737 138.647 7.65404
-8.12877 135.09 -0.898827
9.51594 124.173 -3.64702
2.62555 153.371 -2.55221
-25.2285 106.006 -1.51842
-27.8846 87.5809 2.53323
1.76098 142.059 6.33004
-32.7184 122.832 2.66354
-14.4904 112.41 17.3725
6.81254 110.192 1.26658
-12.5432 123.402 18.0302
-36.6757 88.032 8.72259
-4.79667 80.2268 0.290563
-19.0095 113.321 -3.34465
-16.6651 76.7774 -2.27009
-17.0448 126.391 18.4254
-4.99493 153.779 -1.93759
-16.4499 76.658 -2.32439
-8.5533 130.445 14.9612
-8.53178 106.434 -7.94502
-38.2521 104.863 17.5046
-41.5719 97.8233 15.2072
-24.3949 142.203 6.35703
-27.3397 145.15 1.92026
12.3949 126.661 -4.76026
9.63303 127.949 4.75781
-10.7198 144.454 -4.83442
-4.33908 133.773 -4.5757
-2.5936 146.08 6.18332
1.06966 113.871 -5.80967
-21.3504 147.793 0.898753
-8.10961 136.574 -1.19608
-6.96365 76.8036 1.06017
-32.0425 138.238 0.302113
-19.8264 145.785 1.17497
-4.64391 148.864 -4.35555
-33.7256 112.439 2.50944
8.15059 121.537 1.68977
-24.0899 88.1186 0.68433
-26.0791 132.467 0.303191
-11.1974 120.095 16.0682
5.27144 114.374 -4.98109
-8.32178 119.685 -7.26529
11.1584 139.434 7.78312
-21.3338 132.952 -1.36931
10.2098 119.63 3.696
12.6887 130.71 -5.12183
-19.3948 81.9609 -1.66629
-15.4857 109.752 17.2342
-28.3562 133.085 8.93017
-38.3465 93.5583 9.57487
-32.6253 82.0434 5.51996
-12.783 132.107 14.5207
-22.744 84.6774 -0.329857
14.2346 136.442 -2.21264
-4.25111 77.0612 3.28725
-13.8756 145.779 -3.23798
4.87169 127.061 12.5169
-8.66102 139.652 10.7157
-42.9006 93.8408 17.3012
6.92117 126.18 1.23635
-22.1612 117.596 21.3252
6.61248 152.567 -2.52156
-30.7633 140.321 6.54779
-25.4517 137.332 -2.34687
2.3797 125.653 10.482
0.888223 143.383 -4.13858
-29.337 115.637 22.2825
-8.41932 124.353 14.304
-34.2118 136.064 6.12402
8.7844 125.005 -3.35084
10.1797 129.647 6.03464
-29.5342 135.822 -1.39371
-5.13227 143.723 3.17104
0.27532 144.047 7.49036
-33.317 115.652 4.25535
-15.1895 80.2418 -3.25451
-35.8283 132.785 1.33145
-27.8769 127.09 1.31796
-7.1675 125.543 13.004
1.07535 114.783 -5.80323
-35.1987 99.0776 5.52685
3.53535 105.489 -3.4627
-15.3652 88.1531 -4.22681
-32.6076 138.179 5.98778
15.1822 136.327 -3.09034
-34.748 87.3903 7.17837
-16.3741 151.144 4.96471
-14.2026 130.986 15.2927
-14.94 117.767 19.2512
12.7928 130.452 -4.65912
4.74408 116.351 -3.03778
-29.3541 131.219 9.46435
-21.3183 132.626 -1.18854
-30.126 129.689 3.78161
-34.8653 92.867 6.16798
-17.354 129.298 0.229296
3.38346 116.873 -6.59131
-24.7487 137.395 -1.57488
-33.4942 114.396 12.4447
18.0543 136.619 5.97891
-4.46327 125.316 -6.67117
-25.2631 146.153 6.53905
15.1714 128.778 -1.69611
-6.09969 129.089 12.9767
-33.529 117.088 4.08849
4.04783 138.757 5.22942
8.69251 123.943 4.47363
-0.875402 143.697 7.84986
-33.2845 112.228 19.4843
7.77003 127.326 -2.81757
-36.9561 103.341 18.4198
-26.3688 130.113 -0.100714
-17.0571 107.787 -6.09207
-30.0257 140.561 6.17044
-31.0797 124.797 2.82681
2.58382 129.767 8.17932
-31.649 136.108 7.51954
-18.0549 134.809 -2.41985
-9.6853 85.3069 -4.3151
-26.0839 94.2133 -0.0616953
-32.5062 139.351 7.81805
11.6489 125.615 6.83415
7.91872 116.755 2.13728
8.05412 136.126 9.05065
-16.073 82.3875 -3.07301
-12.9212 104.841 -6.17115
16.4596 139.697 6.91193
-10.0098 150.836 -4.55829
-5.45148 106.535 -7.73449
3.50444 133.207 -6.80583
-25.4247 129.91 -0.877888
-42.9604 94.6403 17.7681
4.93443 105.178 4.45064
-20.5168 136.99 -0.250359
-26.6368 126.967 -0.877943
-1.66974 111.75 -7.61549
-21.0598 144.071 0.323577
3.34828 126.488 10.9789
-7.86588 132.997 -2.75035
-14.0916 144.784 3.73459
11.6996 131.058 7.30806
-40.8139 88.175 13.4052
-15.4038 96.7651 -4.61702
12.5142 131.854 -4.78928
-14.2251 132.448 -0.257926
-1.88 107.554 -6.03965
-27.5414 87.7243 2.34085
-0.148805 84.3514 4.68203
-4.04609 137.659 -2.93483
-1.96037 100.381 -5.12985
-20.0508 101.912 -2.55074
0.44873 112.831 -6.27339
-14.985 139.311 -3.22598
-39.009 94.6586 10.0905
7.6962 114.243 8.722
-14.8941 118.37 -3.33637
-11.4453 141.226 9.81325
-10.9754 136.612 13.0671
-30.4981 119.258 -0.758973
9.07007 124.747 4.27423
12.972 132.35 -4.5973
-41.2263 87.4769 15.6857
11.4158 119.126 -5.61805
10.1623 120.733 4.05615
-37.6128 101.063 6.25691
-30.6572 102.458 0.761265
-14.0909 151.461 3.64118
-17.4614 89.7789 -3.19799
-9.32891 101.255 -7.04158
11.6455 133.094 -1.37225
-11.4098 116.831 -7.10404
1.25032 145.687 -3.02433
-34.7954 136.345 9.52377
8.53714 120.135 0.869512
-8.78725 112.828 -7.55005
-3.19363 91.7988 -3.20413
-11.1791 145.975 2.70868
-19.8154 84.5861 -1.80768
8.77357 117.593 2.89056
-30.8619 131.685 -1.34681
-20.3295 136.051 9.64618
-16.1115 138.485 8.03216
-14.7937 124.745 -1.43408
-36.4596 138.216 5.00884
-27.3254 138.332 -1.10823
-18.6047 135.158 13.3254
-17.2226 137.784 -1.2765
4.9366 144.876 4.3199
-17.7167 123.03 19.6071
-32.5117 88.1658 5.43009
-4.8108 143.888 7.86849
-20.6751 132.399 -1.1149
8.89525 129.152 6.55773
-12.4829 142.432 4.16153
9.29515 120.593 0.899752
-35.5251 109.591 5.61915
-30.9053 123.428 16.9359
-26.939 143.261 -0.0493681
-0.384121 141.079 8.27824
3.64603 141.578 5.52828
-30.6536 136.901 -1.33461
-8.09346 142.022 4.67586
-35.2373 84.5934 7.47442
13.4017 132.866 -3.90724
-9.06818 141.892 -4.19709
-16.92 123.321 19.5524
-9.25652 137.065 -2.22549
-3.11592 109.474 -7.3409
-41.4806 100.106 16.9809
-4.36118 89.8615 -3.42632
13.2206 139.741 -0.310342
-23.9769 149.031 2.43661
-12.4949 88.6192 -5.26252
-1.37935 138.725 8.84633
-23.7387 97.2506 -0.599993
13.4672 116.81 2.18938
9.70804 123.483 4.74052
11.1931 138.851 -2.45122
8.91215 139.215 8.42397
-13.7316 78.2948 -3.60133
12.9771 117.078 2.43057
-27.7027 126.24 -1.87007
-32.9769 120.582 3.36973
8.5546 129.474 8.01091
19.406 135.106 4.61659
7.4157 125.646 -2.40446
-36.8949 90.2969 9.01806
-18.4179 146.341 6.96748
-12.5942 86.3519 -4.77787
12.7975 117.192 0.701747
-4.79871 123.93 -6.88406
17.3526 144.339 2.77652
-33.2798 137.684 6.38311
10.1113 134.619 -6.51639
-24.8943 90.9257 0.157875
-18.8539 89.7557 -2.36476
-31.882 139.727 7.30406
-16.772 151.169 5.04659
-12.5662 98.4228 -5.55127
-7.854 130.939 -3.94242
-15.5822 152.063 3.81485
4.91714 105.128 4.38015
-19.8298 132.886 14.7972
1.15866 138.872 -5.8734
8.91889 141.575 7.2211
-15.128 143.149 -2.75727
-5.21213 135.963 -2.89679
0.441557 114.593 -6.20328
5.4213 141.91 -6.03869
-6.97562 86.9398 -4.11976
-10.1395 150.933 -4.51841
-16.9185 148.152 5.80792
9.23006 127.389 0.180331
-9.68914 97.9169 -6.74841
-22.7702 149.75 4.42074
-2.58764 145.11 6.72053
-18.5624 91.0707 -2.53458
7.67856 143.527 4.39863
-35.4206 137.028 9.78429
-29.9597 127.399 10.0768
-21.1776 133.093 14.4256
-18.1976 106.859 -5.49337
5.05267 115.296 -2.29281
-13.5918 126.514 18.1536
17.495 121.895 4.16566
-15.8881 147.898 0.583703
-27.3677 143.494 1.31925
-16.235 138.534 7.46292
-40.8164 100.826 15.6459
12.7136 124.62 -5.9577
-6.06216 118.015 -7.40431
-36.1019 138.728 5.37101
-11.8202 95.5119 -6.13603
17.6172 138.112 0.273647
5.8326 111.253 -2.04977
-16.8511 138.658 7.56999
-8.30813 141.34 10.1715
-32.7269 118.263 1.59128
17.6353 144.019 3.54528
-13.2689 79.4988 -3.77863
-34.3754 104.618 19.9204
7.1812 124.137 3.73314
-23.5731 84.1738 0.0887432
12.8666 136.279 7.29879
-9.0174 136.384 -1.51799
-0.0906459 89.2645 0.187077
8.40418 117.043 2.85616
-3.33784 134.058 -5.21289
-30.6821 136.591 3.11478
-19.648 147.97 0.729842
6.14059 103.449 7.44971
-9.71274 118.281 -7.26374
-23.5347 88.1194 0.29635
11.9357 119.888 -6.1426
-31.7665 122.075 7.95477
17.0215 139.625 0.438187
-6.34314 143.849 7.05797
10.1187 125.793 4.36195
-6.44228 136.919 -1.26558
12.3665 116.979 -0.165099
8.22327 123.015 -2.41302
-12.1528 128.961 -0.936393
-26.1751 117.736 21.2157
-31.7777 112.557 1.8048
-15.2309 116.504 -4.00659
-28.4014 114.094 -1.02844
-20.4328 134.807 14.4648
9.59227 145.966 4.22009
-10.4787 140.356 6.83306
-12.294 145.851 2.34492
11.8925 132.174 -2.1961
8.92679 117.434 3.72281
-31.9582 109.854 21.1819
13.2693 148.132 1.78282
-11.6362 120.613 16.9465
-22.7064 141.572 -0.673016
-19.0097 143.64 7.16729
-6.32045 132.664 -4.42973
-26.1769 133.655 0.283654
-11.6717 142.193 4.99608
-26.3037 132.982 1.73423
-24.5512 101.104 -0.458085
-15.5809 84.5881 -3.48718
10.4407 126.76 -2.58845
-29.3822 84.759 4.08891
-35.1083 135.777 7.24855
7.81656 123.241 10.3425
8.85362 120.631 6.60308
-30.3317 125.573 1.64087
-25.4303 124.913 19.2404
-38.871 102.225 19.3059
-4.42249 129.277 10.9595
17.8947 134.741 1.78211
-17.7348 136.554 11.4086
-25.8003 82.3783 1.94227
5.14356 114.474 -1.09617
4.93425 143.581 -5.48751
7.62649 129.93 8.75738
-3.27781 120.727 -6.51561
-15.3085 77.7161 -2.88443
-9.19484 112.203 -7.67758
5.50187 125.523 11.8815
-32.2443 97.6405 3.40173
-31.1896 120.195 9.63324
-0.13405 118.306 12.9985
-5.78289 101.735 -7.43279
8.04998 115.484 10.2937
5.55762 121.431 -7.10097
-16.1901 141.729 -2.87832
-24.8926 127.858 -2.31094
-17.4522 125.723 -0.421093
-18.4722 150.135 0.643931
7.42483 108.994 8.75256
12.8291 117.863 -4.306
11.0337 128.021 -3.06677
-3.02608 121.999 10.6439
4.65075 115.642 -4.9201
-37.4896 103.294 8.96908
-13.5959 117.403 -5.45904
9.09716 140.576 -5.59946
10.0892 125.179 -3.87598
11.9536 117.29 -2.63009
-24.9572 98.8238 -0.102474
-24.7217 86.1671 0.880538
11.6337 117.459 -2.89463
-16.9768 135.582 -2.69214
-32.3487 124.811 5.02599
-1.33629 92.8432 -2.21128
-3.97682 94.1286 -4.48059
-21.9146 150.351 4.0978
-27.8347 126.174 -1.35264
-8.86397 128.776 15.3478
-31.6769 125.936 5.94306
-1.60923 82.5991 3.29094
-16.3588 141.946 5.2349
-23.2256 131.647 -1.27035
-38.0884 94.0062 9.02207
6.79769 125.794 -8.05658
-0.411141 138.827 7.93388
6.68436 122.606 -5.59915
-18.2624 86.6113 -2.68601
4.43998 131.428 9.07016
10.9111 118.261 -4.14439
-10.0356 96.0488 -6.55161
17.1646 122.029 4.28335
-28.6336 131.121 3.53105
5.92808 152.716 -2.71281
6.44055 127.851 -8.12233
1.79779 112.032 -6.18457
13.8752 138.227 -0.8878
8.58888 125.496 -4.81777
10.3089 139.389 -5.31698
-1.51136 98.9647 -4.09432
-11.1271 124.188 -4.57054
-17.8413 138.169 8.14137
-4.85089 116.166 12.7888
19.5799 125.9 1.49686
7.8149 126.774 -7.30526
-14.3346 140.302 6.64967
-19.0821 122.307 19.7803
2.86542 154.453 -1.71599
-30.5336 132.06 5.18822
2.77914 105.962 -3.83304
-16.2265 128.492 16.3366
12.8557 130.87 -4.67508
-27.3675 140.594 6.49476
2.64413 143.341 5.73425
-29.8941 130.016 0.700752
-1.36484 107.289 -5.79027
17.873 137.967 5.90355
-31.9254 125.256 3.68995
18.4528 142.548 2.95706
-2.91681 135.406 -4.74465
-24.9634 130.631 -0.210193
-27.0181 146.462 2.3924
-22.4936 142.669 7.37496
-6.52265 137.596 -0.9164
-15.7396 147.516 -1.00452
-35.8853 112.18 15.9438
8.00356 117.003 1.95054
7.11379 114.531 5.28195
-3.32422 81.2249 2.51468
-31.3297 113.726 1.43007
-12.404 99.0554 -5.60875
-28.7246 135.844 9.61599
5.86633 143.833 -5.61261
-12.5385 144.491 -3.62819
-37.5981 105.276 14.8145
12.2852 138.3 7.6736
-8.72736 81.7379 -3.57089
2.44665 94.548 1.982
-18.9961 122.258 19.7993
6.89081 127.778 -7.98346
-8.94646 146.401 -5.16603
9.74206 127.019 -3.25344
-5.39385 137.568 11.6009
-11.7115 113.851 14.9828
-31.7532 103.168 1.73413
16.6412 133.236 -1.72257
-19.3186 119.978 -2.30911
-30.0159 130.969 7.89967
-11.9304 121.94 17.3963
11.1359 132.62 -5.07638
-11.1694 140.644 8.23769
-39.6097 97.6784 10.8539
-5.38415 107.525 -7.81599
-32.6997 88.8256 5.26278
2.70765 95.3395 1.56362
-8.26791 153.109 -3.91767
-10.1081 103.722 -6.69179
0.967213 120.081 -6.60009
-16.2719 124.157 19.2552
7.51747 113.953 8.59958
17.6638 143.992 3.71506
-5.7395 110.454 14.9661
-34.9202 114.009 16.5578
-39.6133 100.081 10.792
7.78416 110.281 10.7301
13.1299 144.528 6.24182
-7.30699 117.174 -7.09141
5.63265 120.021 -2.7098
1.53794 128.839 8.28633
-21.6313 132.073 -1.63567
5.23721 115.243 0.836291
12.3819 121.582 -1.66071
-23.3321 136.631 1.93327
-30.6037 135.568 7.87682
16.3836 132.106 -1.46548
-20.0647 115.143 -3.48798
-4.3934 96.5094 -5.24291
16.2816 135.4 -2.03845
