ply
format ascii 1.0
comment Created by Open3D
element vertex 1936
property double x
property double y
property double z
end_header
1.41543 95.9508 22.4711
-14.4832 122.257 14.4687
6.90082 129.948 11.359
-22.6355 146.353 4.02085
10.1365 109.68 4.51224
-6.91021 109.59 -6.4236
4.00849 105.257 -3.80411
-16.7863 128.77 -5.16978
-7.0447 142.431 4.88636
-28.9268 102.683 4.88423
0.879481 84.4177 22.7819
9.53281 149.135 1.94451
-22.7665 127.999 -0.366374
7.81929 98.8954 7.96755
-18.6033 143.396 0.489698
14.8294 138.169 7.66566
-11.1353 96.3061 11.1805
-26.8851 106.11 8.3167
-22.0313 130.029 -0.146361
5.05074 87.3691 7.34696
-5.43154 101.635 17.9752
17.3707 141.442 7.29108
-2.9655 112.122 -6.75827
-8.03961 131.331 -1.33009
-25.3831 117.729 5.40429
-26.6698 138.941 1.94452
-23.0886 125.43 -1.13799
7.83069 129.646 -5.93817
3.54995 120.73 8.51269
-14.3108 104.601 -5.16803
-18.4282 137.377 7.16247
1.9821 134.755 5.97805
-14.2585 133.887 -4.71715
-24.8504 124.382 8.76946
-29.3902 105.251 2.03965
-25.8519 136.801 -0.10992
10.2005 122.823 11.0261
-9.12637 105.298 14.0449
-24.4882 108.985 15.169
-6.54434 111.124 13.2056
-12.253 106.903 -5.45018
-15.5631 134.782 6.14166
17.4202 144.335 5.63443
-22.3576 99.0271 16.5983
-25.1045 124.713 7.71459
-16.4517 88.2103 15.4843
1.90756 129.3 6.3104
-0.0960965 130.762 -2.9436
2.24966 128.329 5.92431
18.4988 137.21 7.74719
-28.346 103.125 -1.96292
-26.8753 125.585 2.92474
2.92844 103.512 20.8539
-7.91941 119.308 -3.15583
-14.9048 119.642 14.4887
-3.74681 102.957 11.5186
-33.0712 127.946 3.17022
4.25519 105.269 -3.58711
5.03516 124.706 14.5401
7.6153 145.192 -4.69116
-9.69819 120.387 14.7685
5.78936 88.7545 16.4548
12.7727 119.846 -2.64977
5.50679 129.299 12.1103
-8.48632 117.688 15.0393
-30.0156 98.4136 7.61939
-18.7702 147.71 1.84888
6.66584 149.518 2.92021
19.0168 136.527 1.46675
-25.0065 121.672 -0.892364
-15.4321 116.339 -3.61263
-20.548 144.267 0.784448
-26.5667 132.53 8.03892
6.36303 92.3656 15.8113
-7.94495 106.152 11.8449
9.20797 108.765 12.4937
7.77316 105.289 16.9414
-5.07866 115.2 12.5648
-24.9796 114.52 12.8278
1.31093 82.5128 22.6607
-33.1999 127.933 1.97683
1.23587 113.135 10.8858
-20.1658 118.56 14.1349
7.85411 118.993 0.720188
-7.96803 125.659 11.6652
-17.5527 85.5309 13.8152
10.3928 109.909 5.77338
8.42706 108.606 -1.13589
-5.31172 89.6581 19.0089
-3.36618 95.269 19.3396
19.5197 141.123 2.94787
-27.6738 116.909 -1.88041
-1.92252 91.6201 21.2914
-25.5637 104.42 14.3504
3.81923 123.548 12.1791
5.4958 89.1132 8.01982
-15.2803 111.967 15.4307
-6.52233 120.029 -4.23124
5.01198 99.7739 20.1251
-16.467 147.226 7.14568
-27.7849 120.677 2.54017
-19.934 88.2075 15.9244
8.54052 116.89 3.29046
-0.735963 106.218 -7.2473
18.1094 121.493 8.75821
-12.2953 151.6 0.18425
-18.434 121.178 -4.90169
-23.6584 117.259 12.023
8.35035 103.456 0.314935
10.9318 131.22 -1.72372
-15.1702 145.879 5.45439
7.5766 135.745 -5.49805
6.38333 89.3244 13.2925
9.72292 121.048 -2.41889
9.38215 129.389 10.1052
9.69194 110.079 0.506986
2.08437 84.2464 21.8052
-28.3116 129.918 5.61242
3.5965 101.547 20.415
-13.2246 139.997 4.33005
-1.76378 110.553 8.86594
-13.5518 107.261 16.464
-23.8238 124.29 -0.957225
0.25657 136.347 -1.55703
1.39322 99.2637 21.2831
-8.02549 121.381 -2.3029
-5.41801 99.3582 19.2269
-8.48644 88.0893 14.6487
-17.8384 100.244 18.8387
-2.50565 137.361 -0.776831
-3.55665 140.374 -1.11492
5.47511 93.9517 18.9844
5.57516 115.271 -2.92818
-12.7659 92.9518 11.6984
-0.834182 122.906 7.22768
-5.235 126.985 -2.19974
1.33059 91.2107 22.8018
7.70323 102.258 -0.11732
-9.53552 135.586 6.66685
-26.9626 106.405 12.4594
6.48849 142.799 3.35255
-24.6731 125.819 6.80871
-16.0197 141.342 -1.83208
6.8613 92.9174 10.5592
-26.2005 112.924 4.0226
12.388 130.887 -1.98085
-14.8552 113.838 -4.12717
9.04586 121.157 -1.94996
-35.6406 128.803 7.58804
-21.0361 97.87 17.4905
-0.294461 103.324 -7.54535
-11.204 137.089 -5.55283
1.69675 100.934 -6.74184
10.8262 111.183 7.67969
9.426 108.973 1.27742
-13.5239 93.0028 10.173
1.58604 103.525 -6.83704
0.211389 132.541 8.75153
18.7356 131.266 1.98566
8.49855 130.421 9.89694
-13.5292 131 -6.01009
-6.70032 83.6025 18.4203
-6.82922 107.067 -6.53041
-1.08739 149.063 -1.70879
-11.698 92.7065 14.96
-5.78199 130.713 -0.810274
4.83374 134.456 4.74706
-0.146864 151.113 -1.49903
7.79978 99.0488 14.9424
3.06675 113.568 18.601
6.04968 89.322 15.9942
8.69125 115.446 -2.62928
3.20252 102.053 -5.30661
-21.2918 104.86 17.7984
-7.1638 138.006 5.17892
-10.8838 121.605 14.3122
5.39049 116.861 -3.39188
-15.5389 114.58 15.2766
1.79596 113.379 17.364
-13.3044 114.74 -3.18789
-22.3458 145.743 2.43647
-19.1023 127.301 -5.0721
2.97195 132.638 -4.93631
0.556835 133.443 -2.53263
-17.0436 107.75 -4.70515
7.6153 101.092 8.27463
-8.13696 115.685 -4.58185
3.48739 106.281 -4.31972
-10.5828 133.021 -3.98516
4.06535 132.031 -4.81508
-27.2569 125.756 4.3676
6.12379 88.2257 13.1651
-23.5439 140.339 6.62738
7.32851 133.556 6.86478
15.9813 138.019 -0.576596
-24.6943 97.6197 13.1939
-16.2095 101.938 18.5657
-26.5151 89.7922 15.5495
-18.1955 94.4642 19.4325
5.34585 130.496 -5.27677
-1.13472 123.535 8.50631
-13.7804 136.491 4.28879
-3.25273 103.656 15.071
4.66193 96.9975 -1.07466
-12.3345 137.598 -4.79656
7.3661 141.17 3.49618
15.2538 145.31 2.12435
-22.7088 131.896 7.21581
12.4144 134.476 -0.0322033
0.306353 129.096 8.89013
4.70157 86.8024 19.5552
10.2514 126.463 -2.20437
-14.7896 88.4675 9.0821
18.5126 121.994 7.81099
-32.679 126.435 3.88015
-3.79545 117.434 9.4668
3.6285 106.255 20.3159
15.7314 126.667 -0.0615128
-8.97574 131.52 9.02892
13.9471 140.684 8.01686
7.37879 126.385 2.33003
-24.3959 120.625 8.29688
-12.0579 147.551 4.67794
15.7812 125.283 -0.323476
18.3952 126.312 1.4837
-19.2025 135.879 -0.0318784
-14.6441 100.717 -3.68097
-4.91983 114.927 11.7693
10.1676 122.294 6.48069
-12.1359 142.721 4.01656
9.08646 132.019 -5.55757
11.1945 123.469 4.3021
-27.532 111.234 -2.40582
-29.371 105.944 0.0187551
-7.16078 81.9914 20.9323
-12.045 106.834 16.4701
-15.1853 108.404 15.9631
13.0954 148.512 4.27429
9.39222 129.294 10.1285
2.8405 117.153 10.491
-6.82935 100.722 17.8824
-0.058922 125.652 7.62006
1.42594 128.428 6.91999
-28.8977 132.983 6.78608
-12.6496 103.598 -5.37198
-7.17798 132.338 -1.15485
-9.12437 96.5213 17.5681
-0.0757848 125.854 7.77203
-5.12645 102.896 17.863
-27.4868 109.526 8.00622
-24.2124 124.445 -0.579507
-2.93256 144.483 -1.6091
4.43022 141.078 -4.18693
19.2172 134.502 1.73811
7.68544 100.292 8.93453
-25.5842 135.344 -0.700279
-25.5842 129.593 6.77511
-12.5263 132.802 -5.94459
-17.6959 104.824 -4.1199
-24.7591 119.377 -4.34003
-12.0417 146.176 4.4353
-29.1191 130.657 8.02997
-29.926 131.739 -0.343972
-6.0928 98.6456 -5.3288
-14.7026 151.292 3.4956
-0.153329 127.597 -3.31401
-12.2302 131.364 10.097
0.752789 144.524 4.64259
9.17939 135.727 -6.04832
-11.6769 147.126 -3.15137
-23.6498 135.927 6.70179
-27.8573 88.536 14.3517
-3.69236 144.031 -1.90964
-25.0179 135.647 -1.05294
4.79936 83.3563 18.227
3.67062 122.677 14.1909
-25.1165 104.785 -3.04797
-15.4139 107.126 -4.65545
20.7027 134.161 6.58484
-17.0133 129.913 10.2385
-1.20849 99.3415 -6.98217
-19.447 112.317 -5.0296
-23.9211 116.874 11.3902
3.41287 88.062 20.7596
-34.8945 130.532 4.62216
2.3782 99.6945 21.8603
4.21851 124.495 13.5648
-20.8726 102.316 18.3945
0.434107 118.864 -5.41699
14.431 117.345 5.20264
-22.2142 131.162 5.77539
-14.5635 107.491 -4.47232
9.06422 110.329 -1.49246
11.2414 116.678 0.949091
9.56563 125.643 6.25767
10.0791 124.186 6.79257
-14.79 131.195 8.55668
-27.2395 121.556 1.35004
4.90526 107.333 -3.54677
19.5637 137.627 6.71171
4.71746 82.4446 16.5908
-12.6665 120.472 14.839
-13.1516 100.825 15.54
-10.1212 91.2053 15.6815
-23.0787 85.8462 16.712
-13.5404 115.317 -3.16316
-3.48423 88.467 20.6324
-17.0942 100.13 -4.09051
21.5851 129.102 2.50515
21.5247 132.622 4.3813
-35.6786 126.851 4.59747
6.84637 112.056 16.9522
6.24722 90.8856 14.6029
2.76868 129.109 -3.91523
14.7462 122.425 8.39186
7.00892 133.359 5.95863
11.404 147.623 -1.49336
9.38793 118.79 -0.461868
-18.3734 130.357 8.51503
-15.3719 133.512 -4.25615
22.2654 122.338 4.90477
-24.1799 117.049 7.6476
7.86405 97.0679 8.80211
-27.1088 136.042 0.601321
-2.47049 131.181 10.4775
-29.9532 98.4706 2.34462
0.348021 129.401 -2.72151
4.41154 142.55 -3.85856
-3.31349 122.251 11.7811
-8.07257 139.994 -5.09959
6.37411 107.587 -2.34336
1.12871 85.4298 22.4446
-22.4283 124.991 10.9559
-27.5156 110.614 1.7653
8.23708 102.591 13.3381
-26.5458 118.467 -1.85574
2.49176 129.959 -3.85904
6.7314 113.364 16.5224
8.39663 106.552 8.04995
5.16898 100.23 -2.38282
-25.9902 135.003 -0.503839
-21.8529 138.781 -1.14603
7.19877 93.4108 13.4262
9.06613 124.771 -2.36234
-16.5186 118.948 -4.31596
-17.9706 138.386 -0.38428
2.45027 131.592 5.71796
-22.3966 143.198 6.58523
-5.03192 115.304 12.5409
-18.4953 117.401 15.3318
-31.443 136.216 3.69162
17.6319 144.36 5.35992
-14.8781 114.829 -3.90478
-7.96003 139.109 -4.30303
8.3046 117.414 15.2118
-28.0635 126.116 2.03853
-1.15309 119.663 7.17722
-11.8694 118.414 15.0792
-3.25403 104.965 18.2246
-25.5569 121.458 0.744701
-17.3209 103.785 -3.7349
1.73142 120.205 -3.58485
-25.8991 110.8 -2.84794
4.28997 126.268 12.023
-6.78926 90.2285 17.2628
-17.8998 120.429 -4.61413
-29.9771 100.884 2.46059
-5.9774 154.144 -0.888398
9.098 128.02 -5.9904
-13.4356 138.258 4.88835
-25.446 118.537 -3.89137
-23.5358 130.105 6.64928
-14.1022 89.0987 12.8781
-25.278 123.669 -1.19107
10.4133 147.099 -2.42386
-6.99365 99.1198 18.6949
7.76682 110.399 -3.03417
10.2299 141.413 7.6404
-2.02863 101.967 -6.95676
-30.3436 126.532 3.88403
-28.2835 137.84 2.44124
18.0568 140.99 1.5501
-12.7787 109.273 16.0997
-11.8875 94.364 13.9226
1.36856 101.419 -6.94682
-28.892 96.5916 10.7338
-2.15816 118.75 -5.83142
-5.18907 152.427 -2.80223
-3.21496 104.11 18.6674
-12.7653 141.893 4.21041
-18.7482 130.756 6.90519
11.8507 128.979 -1.04737
5.62772 86.7375 12.8764
-17.8361 137.895 -1.44157
-35.0006 130.598 6.15103
-20.4989 130.534 6.04811
5.83131 155.127 -1.1655
7.31168 94.1547 14.133
-11.5897 99.8382 11.3301
-11.6781 91.2482 10.8635
2.14234 109.164 -6.4994
-14.8398 131.885 7.87204
-1.12772 139.413 6.26812
-22.0957 102.949 -3.97626
-22.9869 97.5326 14.8392
-20.6721 110.183 -3.86206
-21.8381 85.3539 15.702
11.0856 119.31 4.91621
-22.3333 103.759 16.921
-10.1048 99.6308 10.84
7.05414 114.813 16.0363
-18.4806 121.301 -4.93593
-9.92018 100.783 10.7994
-24.3761 102.585 -3.34855
-1.0488 98.0641 20.8558
-1.94892 121.355 8.22981
6.4681 94.7822 17.5852
-27.9022 130.923 7.73899
-8.67793 97.091 12.8635
-2.59156 127.724 11.1334
-10.0234 143.26 5.61637
-10.6129 111.568 -4.02729
9.24892 139.419 8.36094
-28.9277 107.797 0.381928
-19.8262 129.368 -2.98307
-12.7679 93.4965 12.2725
-14.3527 125.743 -3.56798
-4.01352 144.632 4.12411
5.54209 90.4873 4.33054
-2.37219 126.58 11.1351
-16.454 146.652 1.46871
-16.4389 126.747 -4.23424
-19.4418 126.817 -4.71719
-26.8419 130.781 7.13344
-29.739 94.7737 11.1779
0.585728 138.251 -1.90454
-7.15373 98.3786 13.4505
-7.73187 108.67 -6.62956
-23.1637 123.493 -2.72691
-26.5325 123.921 -1.55678
10.4714 149.53 -0.821836
-33.7096 125.102 4.22562
10.963 133.985 8.92368
-21.9338 115.473 15.4088
8.01734 122.491 13.5012
-14.8409 87.5985 13.0503
20.7727 123.447 6.50731
-23.371 121.459 9.98548
18.6485 130.834 1.56805
-8.73308 97.1154 -4.37927
-27.6647 131.56 -2.10307
-21.8204 110.926 16.2031
-30.2014 96.2195 4.2335
-20.4326 100.113 18.7946
-11.6484 91.0825 8.50401
-12.8684 146.976 4.7773
-28.4338 117.227 0.654993
12.4309 122.381 8.45371
-5.00313 87.5807 19.7783
18.1878 139.415 1.50629
-8.00496 125.396 11.8124
5.49362 140.756 4.23335
-13.6916 97.9308 13.4721
0.0729794 118.142 7.30131
-5.18641 116.332 12.8725
-8.91065 139.425 4.4604
-29.3068 99.7144 4.98867
-20.416 128.829 -2.78
9.0023 128.213 -6.06813
-16.9059 139.121 -1.84866
5.92162 130.696 5.67302
3.87958 111.859 18.9714
0.0862316 135.764 8.68452
-29.1638 96.7941 -0.703663
14.2093 143.385 7.14684
-10.8753 135.774 6.08177
-10.5999 96.5711 13.6236
19.8698 131.485 6.46976
0.854391 126.579 6.78947
-17.3947 90.2319 15.9304
11.7725 145.688 -1.37289
-8.47522 127.75 10.5453
3.94233 131.039 -4.88409
9.97516 121.368 5.92082
0.823923 98.3078 -6.93108
-20.7175 131.206 -1.13752
7.69127 138.881 3.72294
-25.0528 128.326 6.48679
8.89524 144.098 -4.67061
9.14488 117.224 14.13
-12.8117 96.0671 -3.53342
-24.11 117.057 9.19592
-21.6416 138.275 7.11741
19.7749 138.508 6.37083
13.1341 134.128 8.1314
-8.18971 126.851 10.9042
-27.2702 122.25 3.70904
6.2301 90.0504 14.8334
-24.7801 125.056 7.6973
-10.4525 92.0591 15.7467
6.91235 101.1 -0.608692
7.735 99.257 6.13559
2.0733 96.0527 -4.72351
6.07093 122.243 -5.65171
0.936401 98.0134 21.3853
-16.3877 110.233 15.5879
16.3331 135.79 -0.807185
7.348 118.021 15.703
-30.8402 125.268 1.99899
-2.52457 115.743 -6.1552
5.92536 115.114 16.6983
-14.5732 91.17 11.1662
-20.0566 133.045 -1.07156
1.80753 131.207 -3.04006
17.0796 121.768 7.42517
-26.3464 130.033 -2.31219
-18.2471 104.323 -3.80922
-4.51671 143.731 -2.37748
8.02014 121.678 12.7544
-18.5852 124.327 -4.97698
11.1607 118.71 3.41153
10.9875 130.986 8.69899
14.52 123.069 8.66931
5.82747 140.138 4.02083
-24.0744 99.2956 14.6401
5.18266 92.6386 1.8263
-4.9997 128.448 -1.8548
-8.66988 101.336 -6.05676
-19.5025 123.169 13.3003
6.06376 130.675 11.0346
2.09083 116.636 -5.74343
0.219221 80.297 23.0518
-24.1347 139.408 0.428681
3.03968 126.837 -4.48139
-25.3754 135.522 6.53913
20.8196 126.125 5.07664
7.24624 127.774 1.83244
-12.5201 148.556 5.03136
10.9254 118.746 -3.29785
-4.77764 138.808 6.08919
-11.4173 125.332 12.8059
-14.0609 121.747 14.5401
8.059 121.567 -4.69714
-10.4909 105.411 15.551
-0.879099 92.6965 21.8494
9.37744 117.054 -0.250109
5.3289 96.7797 0.198256
-26.3635 96.4056 12.8364
-13.2377 144.179 -2.27921
-13.8251 144.194 -1.86027
-26.7796 133.999 -0.341165
-6.92003 83.8736 17.9637
-24.5068 129.739 -1.97966
-12.5222 114.634 -2.95472
9.75062 130.998 -5.73944
9.83149 127.61 4.13452
-23.5746 117.779 10.9769
-16.6527 129.981 9.38538
-28.7701 102.388 9.41485
-6.61819 150.354 -3.92959
-15.8819 106.177 -5.37403
5.02708 145.357 3.49394
-0.871774 89.057 23.2111
1.659 113.343 16.9412
-25.4027 143.406 5.33353
-2.59881 103.839 13.9279
-1.90818 148.6 -1.99181
2.26282 142.641 -2.52592
4.61118 126.955 11.9367
14.1346 145.507 6.37045
7.49703 96.5661 4.98328
22.8001 122.618 3.11749
-8.11037 115.55 14.9943
-24.7703 115.121 8.08789
-22.0289 105.271 -4.2997
6.98743 94.6504 5.99436
-21.4219 111.277 -4.34486
11.9478 140.862 -2.99361
19.3435 120.567 8.40814
-25.6009 110.12 -2.69393
-23.9016 124.334 -0.502025
18.5919 136.453 0.824495
0.339976 149.564 -1.23644
-2.70737 101.261 19.6562
14.3497 126.607 -0.549453
3.02608 120.81 13.4287
-12.8138 139.886 4.14637
0.530661 112.504 10.2848
1.34928 109.271 19.9048
-18.3117 149.52 3.10034
-0.946611 131.387 9.57778
0.836388 83.6534 22.8995
9.09833 127.538 9.98256
0.124413 118.953 -5.58093
9.41959 113.839 0.411458
-15.897 143.044 5.52075
6.52258 128.769 11.2668
-21.9958 116.139 -5.25002
-16.008 129.494 -6.08444
-20.626 90.2096 17.9198
-32.5415 128.209 -0.0835014
-20.0871 134.598 6.88048
-14.528 124.45 -2.8262
-25.1168 123.915 -1.42511
17.6237 120.808 -1.43945
-19.5512 106.867 16.9882
-27.7439 111.909 -2.07708
15.3041 127.467 10.287
8.66416 121.345 -4.06307
-21.7044 110.156 -3.96444
9.83279 120.236 0.194191
5.43681 129.63 11.3521
2.72433 116.968 13.4652
-31.2851 134.403 6.89254
-34.5042 125 5.20985
-4.97792 134.893 -0.657811
6.99361 136.314 8.84191
-1.36028 152.239 -2.17577
1.1366 131.084 -2.71788
-1.97129 107.475 10.8822
-28.2327 108.555 5.53623
1.98617 133.231 -2.87404
-23.5123 101.752 16.0599
-24.212 116.377 12.8276
-9.23737 117.527 -2.70621
9.78858 117.556 12.7644
-4.14251 120.368 12.6239
2.69126 132.889 5.47491
10.8656 120.04 4.1149
-8.78556 126.937 -0.960447
-5.98702 129.703 11.1427
5.91602 136.093 3.87795
0.562863 114.868 8.61539
9.62987 124.55 -3.66418
-24.2403 116.662 9.57609
-27.7331 120.744 3.17437
-11.448 130.938 9.68965
15.289 121.899 -3.27206
-23.7244 97.3718 14.2461
-6.09541 106.215 9.81839
-1.87302 141.289 -0.900867
-24.7418 125.332 0.588352
-15.9965 135.776 -2.96923
13.3253 131.377 -2.33275
-23.6093 127.452 -1.0451
-4.61267 97.0053 18.8578
-22.7584 128.315 8.99086
-2.33827 125.656 10.9062
-3.74986 146.632 -2.49417
-4.22879 103.634 17.4103
11.7112 123.357 9.74889
-20.7693 88.0018 16.1983
20.6192 124.75 0.560389
-11.5028 132.842 -4.88388
15.3428 116.859 5.39894
-19.3671 143.278 6.7737
10.3687 118.145 4.12224
-16.2039 96.0269 17.794
19.3186 142.529 4.67152
-19.1027 125.519 12.8196
9.28977 124.918 6.12427
5.1582 90.4251 2.40438
11.2096 148.75 -0.740228
-30.035 101.162 1.16038
-15.8781 140.384 -2.86947
9.49581 131.579 -0.238413
19.0749 135.537 7.4087
-9.42532 134.975 7.0842
8.08153 119.527 -4.76919
-28.1793 127.008 3.61394
10.6765 128.177 9.67524
7.62914 99.8461 7.62326
16.6403 124.239 9.13634
-23.6284 124.742 0.527878
-19.6289 97.7703 18.8883
10.1301 122.88 0.994711
18.6566 130.15 8.62281
10.3626 109.846 5.59957
16.8847 123.055 8.04383
4.40603 144.499 4.06755
13.0366 132.108 8.88441
19.5882 122.607 -0.586343
-20.8172 127.14 -3.83565
-23.7501 134.438 -1.84153
-8.90126 96.1089 17.6101
-25.3073 122.776 0.918971
6.25865 91.798 15.0525
-3.80527 102.695 14.7158
12.9202 124.485 6.86037
-10.5816 146.754 -4.32018
-21.1572 143.827 0.840004
-6.57802 117.717 -5.17446
-1.03826 114.914 -5.66218
-25.1537 114.578 11.9971
-27.681 99.0376 -2.05798
0.453667 121.931 -4.58923
9.11611 147.571 2.23161
14.0212 148.492 4.53425
-8.62134 144.376 -5.43706
6.81392 93.7111 7.67963
8.29515 143.862 2.8203
-13.3316 100.92 16.4693
-22.5696 100.214 16.4385
7.83791 103.703 14.675
-25.0506 91.2707 15.6596
20.2524 138.12 4.35291
-1.41799 135.461 9.20618
-7.00926 106.655 10.8099
-17.263 86.865 15.3346
11.496 139.532 -4.26821
-4.8311 107.202 9.4005
-13.6333 92.2282 11.6856
-14.1223 98.1795 15.3902
20.3731 120.536 7.18079
-16.9132 115.16 15.0253
-27.6076 131.646 -2.16245
18.524 141.524 5.88142
-4.54981 140.567 -1.80018
-6.2278 147.654 -4.34513
7.84216 129.526 1.17114
6.9626 94.217 15.787
-10.1385 151.313 4.04679
-25.3073 125.262 0.694222
4.48609 81.5533 18.339
8.0779 115.303 4.44236
-15.9407 126.112 -4.07479
18.71 119.643 6.63214
-2.93109 121.887 -5.51343
-24.6747 137.747 -1.32986
-5.65105 135.543 -0.803234
16.1426 117.668 5.78559
-6.496 87.3448 18.5453
-18.5996 123.206 -4.64979
13.4266 148.352 4.47967
17.5888 122.243 8.41062
-9.13714 98.4584 15.9501
4.01346 144.576 4.53253
18.4106 124.25 9.7612
3.37554 145.397 5.25028
-18.0862 130.449 7.34898
-22.9151 123.691 -1.41871
-0.995329 106.463 15.8955
11.8638 127.081 8.75723
10.1053 116.688 5.26942
1.18376 144.713 -1.41543
-4.59497 113.826 9.43131
6.01065 121.979 -5.61457
-25.5447 123.644 -1.57503
-3.33679 103.04 14.4596
-7.07465 93.6988 16.7115
-24.7993 143.951 5.70435
0.446422 141.813 -1.49141
-20.9447 126.449 11.7816
-23.5907 123.779 -0.421093
12.6911 128.449 -2.14693
7.94131 134.968 -5.57347
-6.93784 139.625 4.24505
2.31864 134.968 5.94711
-1.95811 110.682 -6.54373
-27.7421 99.4432 -2.08711
-11.987 94.2511 12.7259
5.44814 90.5307 18.4605
8.65757 114.521 9.77572
6.82835 112.893 16.6518
3.43705 139.96 4.76612
11.1285 131.32 -0.744429
-5.93501 141.921 -3.36502
-1.9542 141.013 4.79712
-5.84892 84.2666 19.7089
-25.8112 111.019 10.8274
-12.0315 146.322 4.44127
-0.0697864 107.612 13.5007
12.6869 136.52 -1.66403
8.26296 127.515 3.02798
-28.0225 108.457 -1.29622
9.67245 130.521 -5.79736
-28.2673 128.276 6.27694
-32.0158 126.705 3.15026
9.86232 122.096 -0.481
-11.0477 144 -3.64656
-28.8633 104.975 -1.56467
-13.4742 114.631 15.6532
15.0321 119.415 -2.52903
-9.74685 96.0898 13.4292
-0.654891 151.995 -1.84438
-13.5628 116.722 14.9916
3.17978 109.723 -5.45379
-11.5527 149.115 -3.14465
-16.5938 113.822 -4.27903
7.75618 119.018 -4.52333
-10.4315 96.5289 13.8531
-24.145 101.095 14.856
-26.415 108.384 11.6434
-15.7788 129.704 11.1215
12.7064 135.474 -1.49593
-18.7562 113.067 -5.18154
-13.2966 119.182 14.852
-32.9664 127.185 3.0592
-7.68612 113.836 -5.76053
14.6883 139.797 0.341226
-4.51194 112.246 9.14686
-27.2972 124.479 -1.94399
-8.04633 115.777 14.9729
-19.3404 121.644 13.412
-8.11303 125.644 11.5865
-30.0204 123.791 1.66588
8.30141 115.081 2.13509
5.37479 84.8518 17.086
-15.006 106.046 16.984
-15.4449 142.905 5.4311
-15.5134 111.145 15.4705
-7.85424 129.607 9.87268
-20.6785 148.08 3.58795
6.31267 128.26 -5.54993
8.37429 115.792 1.26777
-29.4151 134.854 1.81159
20.3004 127.75 5.76546
-13.2602 139.844 4.2857
-17.5663 99.6636 -3.99329
-20.891 110.649 16.0987
10.133 137.779 8.10138
-16.4342 119.257 14.6496
10.429 129.315 3.32474
-0.435718 86.8282 23.0994
-26.8264 121.477 5.39176
23.1413 122.237 2.46611
-31.1564 93.5452 4.33216
13.6764 148.745 1.89619
-9.0473 141.386 -5.22631
0.140451 128.429 -2.77359
-25.0111 96.6565 -2.88579
-23.0958 87.0101 16.8657
22.5773 127.895 3.83394
-16.3449 130.799 -5.52645
3.07573 120.12 8.21987
0.16442 140.553 -1.40067
-17.0542 131.791 7.33953
-27.9897 123.171 -1.39929
16.5567 137.063 -0.262555
-4.374 82.826 22.8001
-11.1719 106.018 16.6245
-6.92526 98.3223 18.5283
-29.1173 101.54 4.01411
-18.4469 146.646 1.27743
-5.38771 135.892 -0.781891
-20.7683 112.935 -5.16796
0.959923 91.521 22.7879
4.39796 112.079 18.3891
-15.4001 139.359 5.08343
-2.83076 102.522 19.6007
8.74539 116.843 -3.97656
-9.90778 126.834 -1.44674
-0.419289 148.799 -1.3613
0.991784 144.978 -1.34595
10.8656 125.587 2.96926
8.99334 125.182 6.2604
-23.2762 102.405 -3.83202
-18.83 127.602 -4.27122
-23.6711 130.472 7.32934
-7.26353 111.902 -5.95117
-22.5182 125.934 -0.642281
-29.9735 91.8426 12.3568
-1.43081 120.007 7.36451
11.6771 140.188 -1.85475
4.39658 102.347 20.1616
3.57987 120.864 11.3811
20.4596 124.586 0.470074
-16.4025 104.526 -4.69252
-0.308004 107.979 12.6714
13.5236 146.399 6.15277
-18.2596 134.651 -1.39738
-10.5565 121.819 14.0926
-26.0291 110.462 -2.67662
7.63803 95.7173 13.7398
17.4375 144.315 2.24594
-17.3819 120.593 -4.32229
-5.67226 144.532 -3.59147
-28.924 95.4079 -0.292254
-25.0925 121.742 0.4966
-14.5172 119.299 -3.23508
-31.5492 125.875 2.39429
-21.5097 130.677 -0.417305
-9.17177 115.458 15.4059
9.35303 114.868 14.5638
-23.0957 101.812 -3.57814
-25.0454 120.674 7.57114
-18.4827 130.066 7.82542
-5.73778 135.98 7.29014
-28.7302 108.532 -0.209517
-6.10923 107.902 9.63185
-25.8423 122.107 1.63277
-0.169532 126.152 -3.79205
-0.4544 103.614 -7.51677
-0.194335 125.427 -4.02134
-29.8574 101.558 0.220016
-17.714 105.317 17.5548
-13.2118 130.95 -5.62186
-33.183 126.89 2.55832
8.46898 114.044 3.69585
-2.94599 135.233 9.24092
10.8511 124.345 -2.83013
-6.62876 83.2094 18.8007
-24.386 129.162 -2.07042
-11.296 127.847 -2.38348
9.88959 120.52 0.235817
-21.9671 127.546 -0.0417842
11.4561 135.546 -3.69715
5.4321 144.507 3.26731
-27.8064 119.383 2.05329
1.33124 128.647 -2.96711
18.5367 127.738 7.19442
-11.6539 114.639 -2.7504
-10.9383 151.706 0.0832811
-11.3974 133.126 7.34486
8.95008 148.068 2.13745
-12.2443 99.9519 -4.66427
-22.8776 112.306 -4.8284
-17.8752 96.5269 19.7137
-28.181 112.109 -1.15803
20.0076 134.177 7.0366
-8.98767 131.372 -1.93078
-20.1903 110.245 16.1902
-24.9959 84.6273 16.8901
11.0467 143.875 6.12451
12.1496 138.057 0.500861
6.76793 152.173 -2.17115
-34.1638 130.176 7.73255
12.5697 144.307 -0.67187
-10.6015 136.526 -5.80112
-19.4617 122.129 -4.63579
-7.94523 130.508 -1.15839
-30.707 137.324 5.25968
-25.3798 103.368 14.3905
-22.8 97.1232 14.828
6.63004 130.771 7.75987
-14.1422 130.363 -6.21115
-12.2332 116.986 15.1404
-8.53909 83.7227 15.3778
-7.5379 114.723 14.5841
4.23376 113.924 18.2814
-5.69153 109.145 9.55455
-29.542 98.9722 8.84234
17.3995 143.424 1.9576
13.844 141.599 7.79444
-10.3539 95.6816 12.0035
-11.6617 103.294 14.5765
-26.4139 97.9759 -2.58911
-20.9322 86.3802 15.4227
-12.3451 106.297 16.589
-24.4708 127.81 7.86918
5.61087 90.7513 18.1152
-13.604 93.0451 12.2287
12.6546 131.571 -1.5494
2.27031 98.3199 21.9742
-11.7444 92.4396 12.8439
11.5809 119.002 6.82068
-11.3413 151.39 -0.991305
-20.8918 139.767 -0.455408
-15.8338 94.2733 16.9345
-24.0142 124.141 0.784841
-26.146 126.697 1.35029
-14.2104 150.931 4.5853
19.5215 137.431 6.74911
-18.1274 102.873 18.4447
-28.2193 114.54 2.33754
-0.817241 90.9353 22.663
-16.8874 100.321 18.6823
6.74398 122.438 15.1228
-17.8626 143.888 7.43249
-6.23909 87.0477 18.7736
-13.8043 97.9507 13.9285
-26.6029 107.822 10.9908
-14.5938 88.7634 8.80655
11.9599 140.766 -0.34019
-8.86602 129.279 9.85804
-26.5781 94.4128 12.7685
-1.11967 107.171 12.1251
17.2316 123.147 -0.703183
-16.5099 116.285 14.9191
9.69444 126.692 -5.27925
-14.3996 144.378 5.26237
-14.9896 146.032 5.4107
-16.6199 120.375 14.5286
-23.8173 115.555 14.1144
-16.4747 95.8123 18.0833
8.4787 128.46 0.490925
-10.1116 131.359 -2.83855
-22.0977 140.104 0.325783
-14.8111 90.889 12.8476
-11.8108 106.017 16.7238
-11.095 100.338 -5.17686
-15.8873 140.647 -2.69432
18.9261 123.903 8.19632
3.42203 100.335 -4.67968
-3.71383 91.4327 19.4879
-31.1873 134.986 3.43645
-12.1313 94.6435 14.2099
0.228243 128.119 8.64413
13.1929 150.618 1.52484
19.3429 127.12 6.29996
-19.6925 128.443 10.1026
10.3558 146.982 -2.5961
2.91231 87.7962 20.9729
3.11037 117.774 12.3755
8.17735 117.346 -3.99178
-8.09455 124.391 12.4068
-16.7573 112.239 -4.67905
-16.048 129.979 9.2663
-6.11111 99.9909 -5.77835
17.8619 121.611 8.01286
2.01031 148.432 -1.5799
4.99174 83.188 16.9945
4.10335 127.641 5.64736
-1.79008 104.708 18.8324
-9.76719 103.111 -6.15653
-16.9852 96.1106 18.9151
6.51401 94.2743 3.74123
-20.563 113.467 15.9323
-21.0603 106.966 17.3717
-29.6558 100.829 2.82318
6.10104 88.4379 15.3024
2.14612 134.061 -3.25573
-32.1229 126.503 3.14477
1.30769 111.84 18.0599
10.1564 128.701 0.322831
-1.10502 105.435 -7.5081
6.70706 101.153 17.4736
-16.1813 146.16 6.40515
7.69507 102.259 4.68797
8.50628 129.806 0.574535
22.1003 122.928 5.57338
-12.7418 142.57 -3.2626
17.9843 124.353 9.98277
-24.5976 123.08 -1.43509
21.904 128.77 2.94992
3.71116 122.985 12.0613
9.54469 108.594 6.9773
12.3628 121.905 -3.85429
-30.2954 96.4983 4.96717
16.6 126.424 0.419715
1.94352 100.364 21.6724
-4.66381 122.078 12.9792
-12.3753 146.956 4.63021
-1.25117 128.99 10.0995
-25.0945 108.325 14.6049
-25.7047 133.385 -1.65217
-7.87778 129.885 9.76606
-25.5257 133.581 -1.52749
11.2984 131.325 8.50422
-25.2345 124.994 0.335607
10.4335 147.771 3.05361
8.26559 138.588 6.5513
3.42551 115.222 17.8014
6.81109 92.8333 9.80364
4.40635 96.9181 21.0711
18.0406 128.931 0.681213
14.6661 120.917 -3.07237
-9.86527 143.049 5.65966
-12.4202 128.467 -3.31597
-21.5648 144.533 6.54611
-9.49863 141.544 5.54459
13.1628 131.061 -2.46755
7.74627 103.046 5.75545
9.7951 126.725 -1.41245
-15.6724 134.038 -3.17559
-12.199 140.284 4.15553
18.0632 140.096 1.62507
-7.96381 135.916 -2.87352
-20.6753 133.179 0.0544398
-11.6859 102.248 -5.07694
-0.971165 121.707 7.34538
-21.4308 105.089 -4.21667
9.20422 118.575 -1.01618
-6.40056 141.151 3.59437
-11.4992 136.136 5.02381
-19.6163 133.302 -0.176636
-28.7245 132.063 -0.635438
-27.665 126.505 4.07494
-30.155 128.025 3.59786
11.2219 120.642 7.25554
11.6548 122.194 7.02874
5.33303 132.328 -4.89446
-29.2013 99.6317 8.97591
-16.5643 111.999 -4.71673
10.7969 121.685 7.00379
-26.0131 125.393 2.37615
-6.3174 112.999 13.5645
-10.4716 107.401 -6.23717
-20.3783 126.469 -3.98755
-16.7734 138.191 -1.0773
9.40785 108.281 4.99827
-28.4043 97.5784 -1.41263
-8.82018 86.5859 15.3364
-20.628 148.217 4.77368
9.53526 113.262 4.58302
-5.66686 115.275 13.1152
-24.3576 127.989 8.04925
16.1374 140.972 7.64078
9.16338 142.281 4.03601
1.21358 111.728 17.5169
-6.86135 124.771 -2.13641
0.1389 133.218 -2.45406
-12.38 138.646 -4.63624
3.05094 88.2939 21.0077
-26.1598 120.897 -0.468319
-9.41892 124.073 12.6355
14.6712 133.723 8.12101
-20.3385 89.0715 17.0394
13.7173 148.919 1.95
-10.8275 110.85 -4.15573
6.40004 95.0729 2.67637
8.03445 114.436 3.69671
-2.14969 82.0665 23.424
11.264 119.24 5.05005
-22.4853 93.0916 15.9469
8.2568 123.994 3.13451
9.77436 121.488 2.45466
-25.5915 128.303 5.96567
-29.9234 137.841 3.36444
-6.53817 95.2151 17.4021
8.03469 129.968 1.05947
-11.6107 92.081 14.0731
20.2152 135.093 4.68839
-31.5437 90.7256 8.90148
8.63554 113.98 15.3869
-16.3131 122.671 14.0862
-14.2948 121.875 14.465
-14.4257 119.215 -3.23506
-13.8791 102.778 17.8031
-29.2475 103.793 0.775426
-22.6427 117.996 -5.17573
8.41674 115.74 1.43401
-24.1361 126.225 1.3794
-0.430294 138.778 6.7591
7.7116 98.8046 4.60622
-0.160942 97.0458 21.2884
8.93076 122.944 5.11349
6.85196 97.5887 2.04696
-27.527 126.113 4.79632
7.52749 96.5169 5.629
-9.7606 140.521 5.26542
0.572242 108.168 14.1717
-12.1047 92.3234 11.684
3.61086 85.8271 20.4487
-13.8248 121.843 14.6066
6.49558 93.0588 16.3224
-23.0871 134.119 7.70241
-3.65253 102.16 -6.51678
14.5629 123.527 8.85931
20.0924 128.826 5.86488
0.959843 108.579 19.7085
-3.44367 128.209 -3.14024
-27.0778 105.343 9.08985
8.07043 125.726 5.42886
-22.7298 100.197 16.3102
-16.7985 93.0163 16.9309
-36.6099 126.03 6.68183
-23.7092 109.428 15.9435
8.78759 105.442 2.82066
10.608 118.101 1.74346
13.9599 145.48 6.37998
-10.5184 106.718 16.0831
-22.418 145.386 6.04622
-17.787 125.006 -4.62243
9.11178 128.231 3.2712
-3.43018 117.174 -6.53074
9.6528 128.269 3.96006
-7.37248 139.414 -3.57626
-32.1145 124.673 2.3039
0.201542 112.18 10.0793
13.3633 127.734 -1.18847
9.13903 128.057 -5.94527
4.51095 82.4085 18.2806
-27.7619 99.9663 -2.16304
6.18304 88.9677 14.8813
5.09003 97.441 20.1896
9.55149 127.853 2.15983
-28.9298 106.658 -1.00691
-7.02727 118.591 -4.27481
4.00189 139.439 4.50216
-27.9315 112.101 1.8616
8.92831 106.483 13.736
-28.4292 117.351 0.49431
12.5057 141.658 7.72965
12.0646 133.307 -4.23726
3.78153 139.02 4.53116
16.9726 124.224 9.23308
4.90625 135.899 4.24194
-12.0326 101.513 12.8843
-15.6881 148.842 6.10961
4.99343 135.784 -5.32751
16.7544 142.322 1.29549
-15.1945 125.414 -3.56828
-1.86288 92.9069 20.4895
2.61753 118.549 14.6555
2.83028 119.804 14.9567
-27.7982 126.579 2.79772
-8.21493 99.2785 16.9935
-6.03872 126.607 12.5339
15.2659 117.362 5.7265
11.1903 121.562 7.5924
-5.95219 111.372 12.4863
-29.9402 98.596 5.60696
-2.21241 137.368 7.51698
19.7064 141.638 3.52515
7.93505 121.449 13.684
-18.3085 98.848 -3.8065
-7.24685 113.065 -6.06003
4.24495 113.021 -5.86565
-27.9207 109.006 -1.4638
-0.0547442 137.975 -1.27371
-14.4507 95.9318 12.043
-16.7007 107.837 -4.52845
11.7681 123.918 -3.06783
-17.9963 127 -5.0148
-12.4438 93.4982 11.4162
8.76326 107.152 15.6635
-9.92635 124.928 12.3888
-33.8433 132.015 3.27488
6.15683 102.942 19.0133
2.27513 133.472 -3.22936
-28.3169 126.373 4.2307
-10.109 90.4705 15.4394
-0.230014 148.886 -1.28172
-18.5646 141.921 0.0792788
12.7211 145.154 -0.131887
13.7942 136.459 7.85935
3.97302 111.152 19.2508
-1.73064 105.084 13.6707
-26.4294 85.7727 16.2072
6.84322 143.439 3.09488
-15.9916 97.6811 16.0245
-19.692 120.056 13.7639
5.51489 106.556 -2.66992
-16.8957 125.462 12.3138
8.20011 117.178 2.91198
-10.7713 137.146 4.15917
4.46501 127.319 -5.509
8.07114 125.824 5.45493
2.27625 114.666 -5.71835
-16.3863 96.4883 18.0895
-3.8117 95.5083 18.9979
-8.97766 136.703 6.00149
-20.9167 132.622 0.141453
1.80287 143.459 -2.00219
5.54129 117.75 16.4026
-27.3882 126.541 4.08367
6.28791 108.568 -3.03865
6.8843 110.035 17.0828
12.4786 145.802 -0.508522
10.2223 136.824 -5.36772
11.2752 118.791 5.70647
-21.9988 131.476 7.32654
9.48192 144.482 2.79014
-28.3006 140.533 5.36708
10.8173 120.06 7.01523
9.40692 128.241 -1.96735
15.7529 142.808 7.42708
17.1656 138.001 7.5738
-10.9263 98.5165 -4.18012
6.94323 153.5 -1.4172
-1.06647 118.851 -5.78999
-18.9952 117.705 -4.76708
-35.9637 126.762 4.44544
8.94997 127.677 5.54973
-13.7444 134.042 -4.90706
-3.16584 86.0356 22.141
-0.52043 110.037 -5.96082
3.34989 98.7306 21.5964
8.24915 128.537 -0.515724
-21.1824 116.962 14.6101
-14.9639 87.8188 13.5917
-16.0764 150.742 3.04298
-24.3295 114.36 -4.75015
0.976699 106.3 20.1458
16.2585 131.321 -0.428226
-5.38239 141.857 3.60073
9.20865 142.291 4.25672
-15.0446 89.5005 15.2388
1.11705 113.052 10.7334
-1.31316 143.334 3.88161
12.9216 119.704 -2.48371
-18.9209 102.19 18.5461
-25.6137 120.917 -1.63241
19.0504 134.252 7.68476
9.95038 147.406 2.4506
-11.7313 91.0997 11.1004
-27.6884 141.335 4.16942
-19.8882 108.125 16.7347
-6.52155 124.074 13.2884
3.71101 101.415 -4.72502
3.69878 123.523 13.5996
-25.3894 89.7649 16.3319
14.1068 129.091 9.18705
-11.8813 118.714 15.0509
3.2163 149.761 -1.76566
-10.2189 133.545 -3.87542
-25.0991 124.856 0.980004
15.0492 124.219 -1.63023
9.48134 125.985 -1.62152
-14.9511 132.571 -5.61829
-10.8489 116.258 -2.4608
15.6216 144.718 2.10604
3.72464 118.909 16.3752
5.35438 88.8102 5.94695
-27.6125 104.576 10.0768
-25.3253 109.108 -3.12316
-0.219305 144.693 -1.20375
18.1855 136.501 8.02086
-0.920225 112.466 8.59436
-9.18077 97.2406 15.3972
8.5844 107.286 8.04856
-1.261 122.521 -5.31695
6.43435 130.85 6.45257
7.90866 107.138 -0.858818
12.5749 140.674 0.687172
-4.4946 92.9736 18.455
13.1274 134.637 -0.642231
-15.301 111.92 15.4299
-15.9429 88.2798 14.9292
-21.6962 125.39 -2.74958
-25.5074 89.8952 16.1965
6.62472 104.061 -1.9499
9.84332 118.869 9.178
-7.78812 117.044 -4.29909
-2.42483 103.678 -7.22642
-15.768 88.121 14.5153
-23.7994 114.311 14.5512
11.6676 149.361 3.31761
0.0232021 120.53 6.84205
-10.1667 89.9677 9.56575
11.8581 136.57 -2.88635
-21.595 110.887 -4.16583
12.0378 121.483 8.91372
4.87476 99.4753 20.1877
-9.08903 147.684 -4.64262
-6.75133 107.536 10.9764
-21.6952 102.444 -4.00306
-15.9659 93.7429 17.1059
1.21928 121.523 -4.07249
-20.723 105.35 17.7086
-10.0789 121.474 14.1818
-20.6413 91.2587 18.4109
-0.255714 121.628 6.81768
-29.7209 96.6536 9.83805
-16.4903 99.1717 19.0196
-1.89025 147.587 -1.78738
3.50081 112.157 -6.09949
-13.086 151.291 0.72357
-1.57571 125.744 -4.45288
8.42299 137.722 4.75475
7.5287 141.715 3.28923
-5.77898 141.253 3.94755
-28.6254 122.088 0.304755
-12.7644 89.2813 9.90042
18.4915 121.892 8.19625
5.29921 130.382 -5.2776
-20.4466 95.0456 17.1368
8.10383 123.153 -2.10323
6.35156 130.241 9.03163
-11.4503 94.9848 15.5886
-25.4447 123.66 8.21895
8.80998 138.961 5.15676
-22.2571 146.888 5.34253
-21.9143 102.977 17.2535
-26.4148 113.205 -3.46372
3.34342 133.875 5.23851
-15.9546 117.52 -3.92721
-11.7827 149.418 -2.84551
-15.4768 90.1649 16.3662
-10.0183 97.0556 15.7017
-1.44057 100.677 20.0076
-16.0261 150.771 4.46671
-0.859187 125.535 9.28308
-22.4841 145.845 2.64944
6.29867 112.988 16.8571
2.04605 97.5098 -5.64051
3.71734 97.1939 21.6121
7.54825 119.295 -4.76899
5.0954 100.685 -3.04845
-20.4663 139.371 7.18621
8.73024 104.52 12.772
-27.6555 126.062 4.56262
2.84894 94.9334 -3.07322
11.2661 146.644 5.01091
8.32673 120.173 -1.0451
-20.2152 134.325 -0.890013
3.04537 121.766 13.6006
-4.76819 86.3997 19.7895
-27.2938 97.7167 -2.09966
-29.0606 101.479 -1.0232
-16.6128 96.0659 16.5871
-28.2953 107.966 5.93099
-2.06958 117.289 7.70871
-28.0231 113.406 2.33705
5.06799 114.966 -3.73529
2.07323 115.252 -5.88683
9.10382 130.926 -0.845248
-3.93696 100.114 19.1732
-19.5527 124.037 -4.75894
9.17342 120.597 11.0851
-2.59885 96.2997 20.561
0.126651 102.717 -7.44004
12.0911 141.631 -2.61744
9.25571 125.673 -1.54643
-18.5163 148.791 2.57774
-6.38961 87.2425 18.6942
-0.00516401 120.387 -5.26365
7.46295 151.563 3.21312
-21.0835 132.306 0.161223
-1.83197 127 10.7208
2.23716 118.262 8.25453
8.20678 127.65 10.2609
0.499651 104.726 19.7302
13.6595 120.954 7.92268
-3.24918 109.531 -7.58093
14.9621 130.913 8.91988
-21.4971 147.497 3.62728
-4.48264 141.318 -1.8908
-24.6131 123.443 9.39206
-22.9535 129.901 6.42354
-20.9651 139.123 7.36987
-4.98415 103.201 16.7601
-28.5631 112.009 0.245838
9.58753 109.237 3.41962
-11.8868 114.957 -2.7466
-1.02466 124.692 9.26835
-1.24562 119.441 -5.78118
1.51501 141.555 6.12756
-9.36311 149.788 -3.8228
6.65387 119.533 -4.7013
-21.2815 120.257 -4.50119
-26.6328 112.208 9.31401
-12.6727 89.4524 10.1302
-22.6807 140.874 6.99109
-22.3532 133.478 6.9172
-1.55181 85.751 23.4016
-2.91955 117.645 8.17546
9.67089 127.62 2.76335
12.9774 135.618 -2.25889
-25.2241 128.12 6.00042
-24.0364 125.218 1.08618
-9.54731 96.6872 -4.14363
-33.7079 129.051 8.00199
-8.90668 89.0498 15.0615
-3.75282 104.11 10.3257
15.3028 123.604 8.72712
-6.70905 109.139 12.8764
-24.8395 88.1295 16.7536
3.02214 98.8369 -4.75965
-0.617028 123.787 7.71692
9.52138 108.506 4.53431
-28.4695 112.621 0.80722
8.53962 120.199 14.0227
-12.1722 102.672 15.1953
-7.05026 114.917 14.2959
-5.69197 83.9525 21.4746
19.9031 120.782 -0.705114
-6.11579 101.472 16.1308
-11.3666 102.079 12.7843
4.56361 84.5212 13.5978
-15.1737 113.703 15.3516
-16.0433 98.308 16.3491
-25.928 87.4553 15.6375
-13.0225 98.9452 12.842
-15.3264 139.679 5.18824
4.57686 97.7314 20.97
-26.8861 106.826 11.1876
-13.8861 142.097 5.05309
5.66419 86.6328 13.9089
-20.5683 136.785 7.19783
-25.6086 124.819 6.49031
-27.7071 110.189 5.24067
-10.3704 102.588 11.7835
-8.3643 103.192 -6.80141
0.0889924 135.377 8.85525
-17.877 123.355 -4.79299
-23.2098 99.2951 15.6087
2.46247 114.355 14.1393
-33.7333 128.865 7.83175
2.65636 135.609 -4.20113
3.24604 104.339 20.7011
8.43599 105.744 -0.409872
7.85827 138.025 4.13234
9.06612 108.543 2.80329
-4.97949 146.196 -3.29947
-5.08984 85.3591 19.8109
11.3331 146.505 -1.72149
-23.5396 124.658 -0.909671
-22.5609 133.448 -1.90306
7.91531 143.297 -5.11294
-0.888794 136.146 -1.00747
18.9195 124.654 7.31811
0.989581 141.188 6.16834
-19.6155 128.905 9.25464
8.72717 114.028 7.99662
1.52926 125.246 5.86637
11.4853 127.217 1.79008
-2.45487 136.369 -0.771786
0.216067 111.624 10.5461
-18.9637 125.538 12.7625
13.8772 135.488 -1.31269
-11.1775 144.943 -3.09682
-16.9305 96.1402 -2.99587
-17.4097 107.886 16.203
-23.2501 86.083 16.9774
12.7326 126.277 6.63076
-17.845 96.4642 19.6477
7.59499 99.2086 2.09258
-30.5698 88.6221 12.1474
-28.3713 124.327 2.87943
1.93182 113.302 17.8541
4.03583 124.334 7.02187
8.63762 141.638 3.11972
7.7076 127.449 0.354077
-18.2328 126.514 -5.02651
2.23473 114.347 -5.7002
-24.6624 141.955 2.34018
5.79722 119.573 -3.29303
4.99303 135.11 4.36104
-24.0075 97.4647 -3.01419
1.87669 110.712 -6.40181
-4.2148 102.101 12.0747
-22.7305 106.572 16.7816
9.14405 127.172 -6.02736
-24.3162 110.213 15.3009
-25.4435 128.991 5.2691
9.64058 117.944 10.4704
-0.0760172 104.601 19.4831
-25.3958 120.396 -3.02916
-24.6386 129.271 -2.18479
17.6644 133.149 -0.07856
-34.5037 125.137 5.45425
-14.7858 114.831 -3.87157
-11.235 151.265 -1.44141
7.38792 95.8224 15.1466
10.1671 133.985 -5.93583
8.03523 104.983 6.38242
-24.87 115.362 6.34056
-31.2931 92.4312 5.19676
-9.60342 122.899 -1.45049
2.2143 127.32 5.44721
10.8782 117.812 5.84119
-5.79981 100.47 18.6938
4.49857 135.051 -5.34369
5.55822 90.1638 5.79974
-27.9918 116.47 -1.55364
10.2679 146.375 -3.27952
4.46103 100.837 20.3894
-13.98 128.448 -4.34774
-3.65991 149.639 -2.78566
-23.5378 115.866 14.337
5.03423 96.8434 20.4059
-4.73643 115.13 10.8267
-13.3191 89.9202 7.86722
-11.0689 90.8295 8.37892
6.28852 92.1151 7.82762
-21.0379 106.539 17.4765
-29.6966 123.61 1.69745
-7.93547 117.99 14.8987
-8.8806 101.367 10.7064
-9.86283 111.629 -4.50407
7.57051 121.289 15.1738
-11.7505 124.979 -2.57235
6.94509 117.149 15.8591
-22.246 126.369 -2.71582
11.5944 124.249 9.96282
-7.57181 103.052 11.3535
-17.5592 149.085 2.91176
-11.1255 112.791 -3.21298
-16.6224 96.108 18.4745
13.1183 150.255 3.0117
-24.6067 121.082 -3.00844
19.5576 134.892 2.90587
10.0032 123.658 0.327028
-22.612 110.771 -4.42333
-21.0046 145.098 6.7888
15.2779 133.293 8.35294
-20.1485 135.181 -1.93953
-0.816938 113.477 -5.62207
21.038 134.172 4.85891
16.4979 120.442 6.89356
8.24133 105.206 7.52606
12.649 118.779 -2.51902
-27.2675 130.483 7.15738
9.48993 118.346 11.8272
0.890565 86.8622 22.1969
1.08411 109.199 16.4227
-18.9422 147.367 6.89387
12.347 120.415 -3.34713
-18.7312 103.729 -3.92878
-11.267 147.318 -3.69241
7.48089 127.299 -5.69164
-26.2401 121.148 6.18316
7.51279 117.783 -3.58677
9.26097 129.952 -1.90356
19.2476 127.74 6.54849
-5.41556 115.685 12.96
-27.1271 125.142 4.01736
9.96358 127.203 2.9713
-33.4116 127.555 1.58309
-15.4378 110.526 15.6029
-10.9836 104.678 15.1696
6.41336 98.8976 0.592816
-18.9853 116.891 15.4615
12.1006 147.976 -0.582277
-17.4226 129.592 11.1432
-20.295 120.702 13.872
-1.63318 106.616 17.3417
-23.4497 93.4311 14.967
-12.8324 149.479 5.45327
-3.42212 104.631 16.9629
12.8409 145.424 -0.00463397
-5.56073 83.7354 21.7832
2.91805 100.786 21.0235
-20.6533 97.3343 17.5238
11.0925 120.452 -3.89778
0.000737693 129.448 -2.79211
3.55984 140.032 -4.21088
11.0718 119.297 6.13404
-10.2067 138.094 4.46846
-26.3691 101.972 12.4204
-31.9466 125.582 -0.161511
-16.2244 107.304 16.6556
-28.1388 88.1814 14.2293
-15.3852 108.62 -4.38597
8.62049 105.107 9.79254
0.274396 142.275 5.28041
8.34932 106.834 5.99387
-14.8194 123.993 13.4262
9.51323 134.017 -5.87281
-26.9864 106.107 10.215
-17.2811 126.518 12.2453
7.60883 99.949 4.7645
-22.3949 114.195 -5.21076
11.9807 135.663 -0.0794178
12.4536 138.372 0.53576
-29.1697 105.782 4.24045
4.26108 125.599 11.7763
-7.20443 111.598 14.2255
0.175458 104.148 19.758
-13.4243 97.9885 12.3207
21.0986 127.385 1.94439
-13.6633 94.1022 11.9992
-12.1637 131.725 -4.9101
-9.38337 124.893 -1.06742
0.166656 98.6154 20.8136
-12.9829 94.6328 13.3078
-9.32028 151.896 -1.58931
-18.2834 119.371 14.6083
-25.9281 130.02 -2.66862
-11.3718 129.586 -3.02579
-11.4957 114.488 15.7937
-27.526 141.504 5.42607
-22.9233 133.901 -1.74419
-17.09 141.15 7.16856
-28.0788 108.856 5.88674
-8.62148 131.955 -1.79239
10.359 110.639 10.3347
-24.3731 125.018 0.746829
7.15594 99.2116 1.23788
9.24809 128.16 -1.91564
-15.8428 133.254 6.8451
-28.6614 105.599 5.54467
-25.3265 122.529 1.20881
-16.3954 113.044 -4.43556
8.29574 130.123 10.1681
-12.0461 134.507 5.87386
-31.0067 93.3956 3.46025
1.59488 87.1208 21.7372
-5.59111 123.287 -3.18154
-15.0445 107.469 -4.41697
6.11343 103.413 -2.32227
5.76029 92.2659 3.07374
-8.55576 136.542 -3.79832
7.94727 101.729 0.914804
5.73148 122.938 -5.74975
-14.899 148.219 0.586629
20.1319 137.897 3.9041
7.13871 93.3891 13.6941
-17.2265 133.515 -2.64392
7.88001 114.642 3.9422
-26.982 105.944 9.81146
-19.3332 103.229 18.2683
-20.2558 133.422 -0.610556
-23.0729 120.133 9.68147
-23.6304 127.915 8.87718
19.28 140.442 2.35215
11.4036 151.801 1.55786
4.07132 96.6206 -2.22543
16.6498 141.861 0.978976
-16.7988 99.7134 -3.98091
1.38435 111.051 13.3066
-17.2444 97.8024 17.9094
-33.8741 128.175 4.25639
11.5445 123.911 3.2383
-1.7295 105.088 13.4785
-10.7868 103.535 13.9121
19.7508 125.741 1.04751
-25.731 108.105 -2.77543
7.4393 136.408 6.25958
-28.3023 126.671 -1.37502
10.2976 128.064 2.83841
-17.6612 103.017 18.4314
1.49253 121.796 6.72012
11.8526 138.652 -3.52972
1.79583 140.3 -2.62431
8.33371 130.2 10.0996
-8.43769 150.399 -3.7725
2.66065 131.949 -4.20226
5.776 113.176 17.0367
4.78189 94.4011 -0.156376
2.92891 114.628 18.0902
-22.2265 133.612 -1.65058
-14.8909 106.641 16.5646
-10.7243 90.4636 8.74335
12.1923 132.35 -3.70114
1.64397 107.173 20.3181
9.35771 150.475 1.9377
-4.45343 99.814 19.3977
-27.5131 126.247 4.99696
-8.38164 97.2417 13.4417
1.47625 115.762 9.23413
-27.7328 117.393 2.99415
3.02481 143.011 -3.12694
4.4653 105.817 20.0639
9.37742 115.446 10.1553
-19.1206 94.2676 18.3539
-17.9801 128.256 -4.92531
-0.808597 135.27 -1.09202
-29.6438 126.237 -1.0518
-27.0293 125.154 3.55493
7.59153 102.057 15.2541
3.14949 121.046 12.9835
7.66557 125.802 3.56106
-30.2313 128.615 5.90183
-3.82611 100.478 -6.04528
-27.9072 113.646 -1.6718
9.16687 120.525 0.871626
-32.8052 130.636 8.13081
-1.92723 91.0551 21.6122
7.77369 102.014 14.9165
-16.3911 95.4639 17.9401
-10.1836 105.874 -6.74409
-8.50658 125.89 11.5198
22.4681 126.547 2.82305
15.3774 142.252 7.80522
5.10835 147.647 -3.00464
-7.3322 152.546 -2.64171
-10.4608 132.432 -3.58864
-4.82418 102.871 10.7667
7.14344 117.97 15.7826
-7.9186 137.199 5.82441
-14.7961 88.6973 8.48798
7.07215 106.943 -1.53902
12.1525 134.568 8.17568
-28.8316 102.203 9.40692
-24.6479 124.418 -0.375991
-28.6616 101.912 -1.62943
7.89008 101.934 3.19508
8.56138 105.895 9.53662
-11.9103 92.0468 13.5654
-3.43462 102.879 14.2211
-20.9348 93.0716 17.7468
-6.41158 97.4323 18.2696
-0.912339 105.589 18.6945
-6.27723 132.672 9.877
-9.00056 107.753 14.8495
22.2835 122.375 3.11453
10.9495 130.732 -2.14534
-18.449 121.071 13.7372
-13.7649 93.5011 13.8819
-15.2472 88.9927 15.6347
-5.34913 116.967 13.1382
-17.2974 129.892 10.6571
-21.6876 98.359 -3.56657
3.10318 102.95 -5.17118
-27.3812 110.61 4.47172
7.46941 124.228 13.8547
10.7227 138.968 8.18329
-0.0484076 113.731 8.74348
10.8938 118.792 1.17199
-8.24221 97.01 18.0909
3.14334 98.7044 -4.56951
9.18634 125.133 -2.06544
-3.19464 95.5871 19.5887
-2.68404 87.1976 21.9628
-2.67552 113.357 8.16656
11.6524 121.778 7.72555
-24.7459 115.177 9.03237
-22.0685 137.232 -1.83384
3.79739 127.32 5.54965
-0.0776093 79.6741 23.0064
6.72559 134.042 7.81363
14.4378 129.117 9.98144
-18.0417 138.235 7.30562
-13.0701 93.9225 13.1923
-11.4767 92.8458 12.7855
8.45419 103.511 1.53743
2.70763 145.077 -2.49807
-25.9513 124.392 1.80359
-11.9509 112.979 15.9405
9.51193 120.05 10.0723
-2.36776 129.008 -3.29833
7.49006 95.597 10.0015
10.5121 116.915 6.23897
8.30614 111.377 16.0182
-18.4065 130.185 7.98605
-21.7293 113.626 -5.28974
-10.2555 94.9909 16.6063
-30.1077 127.833 5.38061
-8.48881 152.873 0.70302
0.544268 90.5653 22.8107
-10.2469 121.017 14.5022
5.73799 91.1158 5.59371
0.783922 102.91 -7.23226
-20.4395 135.158 -2.23795
-16.4798 111.606 15.5679
6.91663 146.628 -3.99316
-7.07817 121.665 14.2695
-14.9058 101.03 -3.76597
5.24958 94.0966 19.4899
-32.1237 132.488 7.49826
-16.0813 99.9229 -3.86563
9.28785 106.889 0.872754
7.14666 145.542 2.64047
5.38485 112.339 17.5118
-0.250289 151.011 -1.52688
7.90723 116.628 1.39906
7.63403 99.0783 3.94423
-14.9902 131.105 8.58765
-19.9892 127.211 -4.03392
-26.3554 125.23 2.51802
19.9154 136.712 4.36665
-14.4087 99.3059 -3.66393
8.85367 139.617 7.90471
-11.2229 140.258 -4.95305
-22.5722 144.52 6.04228
-24.6519 116.709 6.53738
11.4964 120.619 6.43088
-14.7662 96.311 13.1797
-9.52094 97.5033 11.0658
-5.96031 120.343 13.838
17.3312 143.434 6.32447
-0.606436 79.6107 22.9822
3.27047 81.1724 20.7157
-12.9554 132.516 8.83672
-4.77613 87.2175 19.8793
-4.60417 106.469 -7.42911
-25.5039 112.889 -4.04037
-14.2066 116.167 15.1101
-9.65302 125.29 12.1731
21.762 123.378 0.254434
10.9579 118.793 8.38259
-8.36203 98.4747 -4.78316
-16.1067 106.215 -5.30267
-28.3291 113.866 1.56225
9.17993 118.413 -1.29544
9.86702 124.454 -4.67677
6.23568 148.089 2.42918
-8.69483 125.426 -1.08449
1.84206 113.64 16.3735
5.73053 87.2677 16.3372
3.35665 146.942 -2.39533
-22.8966 135.442 6.8271
10.3106 112.414 9.22708
3.56734 117.024 17.2408
-30.8676 125.179 -0.823978
-19.2543 140.331 6.91475
-14.6556 127.684 12.1065
4.21205 122.246 10.3015
-9.31851 136.16 6.305
10.3166 118.633 8.75083
-25.0511 104.077 -2.79038
5.58583 132.957 9.45081
-6.73898 100.704 15.9467
-22.2865 120.043 13.7063
-24.5267 111.877 14.7011
-18.4103 111.992 15.8356
-5.39822 91.1163 18.4883
7.95817 127.541 4.25095
-13.8518 101.16 17.7041
10.4832 120.099 0.479729
8.53626 138.221 4.9133
-14.4031 106.996 -4.92377
-24.4938 86.461 16.9217
7.12838 120.863 -5.3034
-5.89322 133.419 9.71349
-2.01569 102.501 19.8731
-27.6807 134.454 5.95638
13.0964 125.85 9.37195
-10.3483 89.2928 12.8027
-12.7644 102.616 17.081
-25.285 100.262 13.0351
6.32254 92.6398 7.03526
11.9347 138.671 -3.45135
0.0252259 150.241 -1.31898
-7.1412 108.9 13.4824
-31.2257 125.021 0.273592
-4.73755 113.653 9.52997
-27.3054 110.27 7.90536
-18.7839 119.026 -4.72893
-27.8778 86.6293 14.824
-4.93775 134.457 9.04815
-18.8597 127.461 -5.27692
-13.6262 88.0569 11.5487
1.81311 128.603 6.44546
2.52696 117.837 15.0679
-14.2245 144.319 5.21956
-3.67397 86.6616 20.9573
1.28377 129.779 -2.78044
2.80796 129.867 5.38311
-27.3823 135.278 5.70219
-15.7564 116.67 -3.73421
13.1389 143.723 0.950908
-30.3512 124.75 -0.910395
-24.3399 124.553 1.07392
-8.93557 147.417 4.59949
-26.7763 123.431 5.58183
1.64517 128.116 6.66343
5.98512 105.497 18.5983
15.9644 121.302 7.59601
-5.24811 149.112 -3.56856
-3.14064 142.022 3.6716
-24.6267 93.0673 14.4485
1.64418 142.824 5.54566
-23.5933 128.261 -1.12054
-3.26824 138.338 -0.682591
-23.1602 122.973 11.1616
-27.0436 124.913 1.49388
-14.6216 91.6683 11.0274
4.71618 124.96 -5.37645
-11.8564 123.491 13.6146
1.96959 112.761 13.0846
-23.878 124.703 0.881346
9.25488 130.535 -1.48944
