ply
format ascii 1.0
comment Created by Open3D
element vertex 1911
property double x
property double y
property double z
end_header
0.264617 76.4375 11.4798
-44.3837 93.5478 16.9445
0.5665 107.099 16.2924
-20.8175 147.855 7.19878
-22.9263 83.8773 -3.7445
-25.5936 138.202 -1.15511
1.53898 92.6413 3.4778
-29.9528 134.66 0.221487
-2.47982 92.5067 -2.95739
-14.9647 146.684 -3.38802
-26.6877 104.194 -2.95974
-33.1673 125.932 5.26878
1.33428 88.5662 4.96621
-12.8286 135.289 13.627
-37.3735 135.336 2.82787
-34.3834 93.3566 1.95849
-38.1879 107.573 10.1864
-3.48888 82.7316 14.8775
-28.2124 89.884 24.0006
-33.3484 85.7137 1.45586
-37.0678 106.305 17.4436
-20.3554 102.211 19.5916
-25.8479 85.5757 -2.76646
-0.879853 118.447 12.0328
-11.5244 114.472 -7.86085
-37.8581 108.731 5.10622
-18.4798 136.811 13.0395
5.10943 101.913 7.55965
-35.0631 109.149 1.91265
-27.3178 137.153 9.60279
-33.7891 131.232 1.39901
5.46228 104.274 7.23347
-3.32776 81.2337 14.3219
-7.10314 83.537 -3.54977
-37.9459 108.276 9.18251
-18.1929 132.122 0.314233
-27.5742 108.438 -3.21587
-12.6708 89.7658 -6.84404
-21.6707 138 11.1914
-8.46385 82.3926 -3.82102
-30.0772 137.519 1.45525
-26.7534 93.4225 23.3967
-8.24252 85.3437 17.371
-27.8944 100.546 -1.8212
-11.037 76.2553 -2.9211
-15.4347 117.147 -6.26924
-3.54325 105.837 17.2975
-25.9461 132.893 -0.957504
-33.8653 103.493 22.536
-22.8821 120.37 20.0486
-30.1691 135.609 6.58697
-33.3704 103.682 23.0079
-18.9598 89.1858 -5.54389
-29.222 93.2965 25.4948
-36.3099 113.561 14.8991
-33.5131 143.467 6.26454
3.45057 107.063 13.7498
-43.9363 92.3004 14.7147
-27.0972 122.471 -2.92185
-29.8088 131.466 1.6585
-3.72484 98.1888 16.8897
-35.2372 90.9057 25.6836
-35.6524 138.612 1.173
-9.38563 83.9641 17.3595
-7.99896 86.0103 17.4845
5.72986 106.917 7.06321
-16.9784 146.952 -2.3288
-30.1383 120.37 -2.58496
0.676898 107.81 -5.25546
-0.708697 115.266 13.6866
-5.84056 78.4887 15.3163
-5.96925 120.099 -6.45201
-27.4303 132.91 1.83385
-43.7387 93.3472 14.7513
-21.7729 111.545 -5.76785
-27.501 124.128 19.2673
-39.0003 103.015 6.89799
-12.2304 139.496 -3.61421
-11.7882 83.4169 -5.70627
-17.8778 86.4535 20.3259
-6.22359 95.6629 18.3014
0.693168 96.403 15.3274
6.31146 111.308 3.57132
-31.8302 95.5626 26.1269
-31.4627 89.1324 25.21
-31.4997 125.431 8.09279
-1.98491 83.3248 14.8513
-39.5756 137.178 8.4614
-38.5252 104.129 7.09873
-16.7617 76.7137 -5.11602
-13.7082 141.155 -3.29556
-27.4363 132.391 1.57903
-12.888 82.5375 -5.60668
-17.615 149.042 0.207254
-19.6445 103.049 19.1273
-38.1559 140.65 7.91547
-30.7214 115.106 21.9446
-11.1253 80.0903 -4.51412
-36.6513 137.146 6.97875
-33.4403 82.8312 1.1169
-27.7847 132.062 1.94631
-27.8626 116.448 -2.50018
-32.5029 104.274 -0.757581
-19.491 111.923 -6.26617
-19.516 111.316 -6.72368
-32.6986 107.135 21.783
-18.3042 136.704 13.452
-11.2614 117.902 13.273
-4.32642 121.1 -5.14929
-38.0577 104.421 6.79001
-20.011 137.508 -0.169545
-12.3028 92.0682 18.9132
-36.7897 110.478 3.23716
-27.9763 124.169 -2.9098
-25.0421 135.066 10.0832
-30.8602 117.358 20.8231
-27.3954 148.288 5.89169
-13.0087 123.474 -4.49928
-2.45641 126.693 -3.70736
-27.9117 138.902 -2.20057
0.626017 112.112 -7.10927
-19.6389 80.3352 -4.17
-32.0007 122.035 10.6691
-22.2217 136.853 10.4076
-32.6116 108.073 21.8008
3.56419 92.5704 7.04586
-33.277 112.798 0.583475
-36.7467 108.997 7.56987
-2.13024 81.6904 4.34213
-30.1693 141.366 0.446335
-14.0752 101.457 18.5037
-34.0339 122.519 4.614
-21.1465 102.115 19.9391
-21.7741 128.366 17.1234
-37.599 138.456 8.53443
-24.236 135.172 0.0958883
3.92463 114.393 -2.3943
-16.2502 113.483 17.3001
-20.2372 143.428 0.116692
-21.5278 122.54 -1.85586
-1.82525 96.5644 16.3885
-31.3907 100.442 26.2852
-8.54407 119.597 11.7183
-30.8658 133.606 0.45387
-23.506 84.3654 -3.56258
-18.8937 141.704 -1.08409
-6.32062 90.6376 17.8274
-17.9463 105.016 -6.86858
-15.3153 99.3912 19.7215
-18.5499 129.28 16.2195
-25.7265 109.782 -3.45576
-18.2895 89.0224 -5.69762
-3.6846 89.004 16.4799
-8.06929 87.33 17.8644
-32.6166 98.8926 -0.190558
-1.30488 80.6377 13.2416
-11.9311 117.61 -7.38546
-15.4116 91.4251 20.2071
-31.4857 105.406 -0.911204
-21.2072 95.0688 21.4791
-27.1126 123.299 19.51
-17.26 102.8 18.6191
-9.31644 83.4972 -4.73951
-33.0558 105.997 20.6488
-33.5886 118.928 7.16413
-26.0322 148.448 1.99395
0.0124948 114.831 -5.85057
-17.3693 145.819 -0.803821
-29.4306 103.253 -1.88598
-35.5433 114.151 2.52167
-8.25065 108.428 -8.23573
-33.2446 121.294 14.7148
-10.1777 122.802 13.1794
0.0845427 117.705 -5.89492
-5.16932 109.953 14.2267
-39.8339 104.812 12.446
-10.1141 104.374 16.9976
-20.3363 110.888 19.5354
-20.8673 82.8986 -4.24469
-34.6809 84.6625 1.74536
-30.4785 130.617 11.1369
-29.6798 85.2022 -0.720542
3.92172 116.463 -1.4237
-33.7472 94.9557 1.39748
-31.0658 137.078 -0.541944
-13.7572 131.033 0.492713
-21.8734 96.5305 22.2751
-17.216 149.09 0.289449
-14.2668 141.203 8.66557
-9.58194 93.7344 -7.0909
-38.4081 135.989 4.07347
2.24287 90.4621 5.50776
-11.2519 105.163 -8.01057
-15.168 130.848 0.614714
-11.9373 127.421 -3.24294
-18.9213 144.111 -1.55304
-14.7257 119.964 -4.85969
-8.91915 78.3296 16.5453
-14.5839 113.052 15.1713
-36.7328 109.871 7.97036
-27.9808 86.9083 25.5312
1.72269 76.3138 9.17936
-18.3007 114.101 -5.35797
-26.9581 132.327 -0.705054
-33.0021 111.967 20.5114
-9.98582 95.9979 -7.78134
-10.6544 123.907 -5.94214
-1.94153 111.64 15.0129
3.61257 117.414 -4.46225
-3.07554 97.5925 16.6583
-41.2233 102.194 17.7356
-19.346 137.177 -0.446452
-29.1477 130.283 14.8211
-3.82926 120.053 -6.10458
-17.9254 140.018 11.4633
-13.1066 100.375 19.3376
-0.268226 86.0046 3.69178
-31.2268 114.687 21.8379
-29.957 89.3456 24.6077
-29.3517 88.395 -0.618859
3.58406 97.4125 12.4436
-28.6087 130.643 16.2011
-13.131 88.0552 -6.66648
-30.4214 138.146 -1.77478
-22.5121 140.926 0.985366
-15.8367 91.8439 20.5439
1.923 103.758 -3.48195
-37.7557 140.938 7.74235
-31.7624 115.028 21.2137
3.10679 116.166 -4.99474
4.93855 104.151 5.62063
-37.8837 134.118 3.57993
-31.6914 133.518 6.79126
-27.3743 130.23 -0.507276
-22.8872 103.75 20.6803
-29.1736 97.2381 25.2721
-6.10406 75.299 0.439019
-41.4982 94.3676 24.891
-21.8369 90.8669 -4.12304
-21.8004 145.519 -0.196438
-31.5525 135.09 6.07005
1.96494 89.8633 12.1365
-12.1229 104.644 16.8183
-29.0903 134.589 7.68589
3.67924 106.783 0.876144
-5.73915 123.953 -4.7839
-16.6262 108.39 16.9135
-27.2872 132.619 0.76814
-17.6914 87.536 -5.59707
-25.7411 140.964 -1.16134
-21.687 136.77 -0.739292
-39.9142 139.093 5.36984
-25.4562 142.413 6.7239
-27.1201 148.004 6.28681
-21.7923 146.233 7.39761
-17.8722 117.401 18.9115
2.11242 121.874 -7.80476
-36.1479 112.098 2.89986
1.08402 90.9316 13.8294
-42.0837 99.6451 13.3162
-26.262 140.519 -1.03305
-21.5765 90.3371 -4.27949
-19.0971 149.091 0.136576
-31.0397 92.4497 -0.1383
3.88684 111.392 13.2836
0.867291 110.98 16.1452
-32.5039 97.5798 25.5509
-36.4398 108.165 16.6362
-8.86908 91.1569 18.4226
-34.6634 98.7595 2.32927
-11.5307 122.077 -6.57527
-5.33362 94.3959 -5.63792
-29.3341 120.782 -2.97455
-30.679 126.851 0.302407
-10.2376 138.369 -1.64373
-38.2037 100.82 23.5729
-9.70555 85.5763 -5.56693
-36.1188 103.826 19.6453
-33.2109 93.6639 1.18632
-24.899 144.496 7.13128
-25.1997 141.519 6.95975
-41.4002 102.801 16.4376
-41.3449 86.328 7.78799
-23.963 136.252 13.8919
-39.9497 136.848 5.89038
-15.9801 143.387 -3.14684
-27.0836 132.769 0.855387
-10.2597 120.608 -6.63755
-14.6549 109.074 15.8401
-34.5563 118.746 9.4408
-12.4117 98.3937 -7.89235
-31.6849 134.291 2.70457
4.7298 113.297 -2.92001
-30.9142 125.492 15.2448
-6.02485 119.59 -6.68051
-31.6368 132.342 6.61174
-26.8371 117.515 -3.3912
-21.7683 139.415 8.01101
-19.0596 143.301 -0.228328
-23.2371 89.7758 21.4456
-18.6077 132.527 -0.864756
-13.4764 99.5336 19.9667
-15.9751 138.83 -3.01544
3.82127 108.908 13.3098
-22.3687 151.319 5.30332
-9.2139 99.8519 19.7358
-37.5668 95.2911 25.2377
-26.7273 149.929 3.85005
-0.534961 89.9505 15.1803
-38.0297 138.806 8.6912
0.127899 107.471 -5.43389
-41.1414 86.3612 7.48797
-23.0357 103.798 20.7748
6.7376 109.075 9.8287
-31.7094 146.053 3.47517
3.25794 92.0845 11.4594
-38.1055 99.889 4.74176
-16.9549 84.7826 -5.98069
-33.2296 116.298 1.05464
-22.2614 133.918 14.8425
-38.68 92.1603 6.12877
-30.368 127.235 16.2475
-17.7762 107.385 -7.39179
-9.07012 99.5947 19.7408
-5.97823 102.479 -7.76772
-19.4565 148.239 0.468682
-8.60366 128.288 -4.59251
-32.3799 104.418 -0.777108
-16.3216 144.887 4.0533
-41.76 100.352 12.7474
-24.2602 90.2984 21.8664
-11.5312 99.4936 -7.99256
-13.6226 144.588 -3.61184
-4.28911 110.821 13.9594
-30.8107 135.776 2.04424
-24.4296 134.937 10.2355
-38.2708 93.099 25.5899
-5.83838 90.2581 -4.78733
-4.98404 90.6908 17.2973
-17.4001 123.814 -1.38653
-10.2834 104.975 -8.37949
-30.8484 126.183 17.1529
-1.0135 99.82 -4.23643
-5.18484 100.055 -7.17676
-28.3451 131.242 15.9482
-13.8537 126.858 -1.7955
-17.564 136.561 -2.26184
-31.2106 127.911 2.99546
-18.9867 86.4928 20.7145
-37.8071 137.27 7.84515
-24.9116 140.92 -1.35724
2.76449 88.7212 9.7122
1.36952 79.9792 9.62157
-41.0654 101.597 19.3204
-18.4423 120.694 19.1818
-38.7422 103.199 6.62426
-8.75919 96.8029 19.0141
-29.0803 143.657 1.08063
-3.51578 79.313 2.00171
-34.6178 116.444 3.25289
6.12755 107.373 8.41299
-3.07349 90.0684 16.5856
-28.6799 96.4515 24.908
-32.5851 137.696 -0.62367
4.82744 114.117 3.5267
3.24665 119.174 -7.99926
-17.9563 107.541 -7.36568
-29.9211 132.59 9.75568
3.19881 99.294 13.9384
-37.7519 96.8875 4.95731
-7.59887 124.701 -5.39974
0.353687 88.2188 3.23048
-30.8174 119.088 -2.19415
-13.3342 109.204 -8.30218
-15.3724 139.375 -3.27152
-43.4366 91.9735 22.4742
-15.8381 98.7283 20.2775
-5.90076 99.2514 -7.26932
1.26122 122.607 -7.72187
-41.9696 96.9753 24.6873
-30.0289 147.683 4.5984
3.95556 93.895 10.2549
-32.7092 106.458 21.6916
-22.3715 99.4294 -4.3221
-20.9709 79.0216 -4.01704
-16.9737 140.337 7.62701
-19.5453 84.8578 21.6056
-19.1491 135.382 -1.96933
-32.0755 114.541 21.2042
-5.85858 91.419 17.7883
-25.3009 145.102 6.99636
-9.5754 132.675 14.0843
-6.26758 79.1062 -0.525508
-18.6059 108.758 -7.32736
-40.1193 138.146 5.77788
-34.7934 94.2869 2.25431
-27.8464 114.13 -2.97134
-38.5828 104.714 4.54296
1.23498 100.471 -1.39971
-24.8068 97.3544 23.4935
-28.9176 135.213 7.44672
2.85736 93.3165 12.4629
-5.63974 92.7493 -5.21855
-33.9987 99.1194 25.4442
-21.7937 94.1884 21.5444
-7.67624 84.7755 16.9339
-32.1183 143.029 5.97938
-40.676 95.0577 8.4643
-24.7901 85.8549 -3.18065
-6.77472 117.623 11.6282
-13.2125 119.261 15.8204
-18.5121 98.2128 -5.91736
-25.5316 131.473 16.2895
-18.08 116.684 -4.57989
-29.0628 135.305 -1.21974
-33.5618 122.988 6.08825
-37.2035 104.096 2.9711
-27.4005 141.027 8.24012
-20.1669 87.7927 20.6237
-25.0239 132.556 -0.973024
-32.3372 130.668 2.57321
-30.5309 88.5033 26.908
1.06067 112.911 -6.91054
-30.1646 127.11 14.6151
6.099 107.252 8.50942
-10.9617 94.1399 19.1034
-2.46045 106.786 16.875
-16.5687 128.147 16.7729
-32.3274 125.12 7.23894
-17.8286 136.819 14.0564
-32.2411 120.996 8.54727
-17.0541 103.956 -6.80092
-9.3607 122.561 12.3424
-19.5838 145.641 -0.0702825
-26.9804 92.6418 -2.1687
1.57895 114.432 -6.07664
-16.5485 141.419 6.29148
-16.2245 81.9927 -5.83045
1.29153 100.118 -1.28131
-22.306 124.634 18.6759
6.73657 110.196 4.16685
-17.2124 81.0069 19.7571
-8.16493 129.282 13.1773
-16.8908 122.946 18.2959
5.19501 113.47 4.1407
-24.248 104.005 -3.65604
-34.638 114.725 1.68721
-40.5697 98.8172 24.0158
-40.9277 93.7128 25.4768
-15.1738 88.6562 18.9722
-38.2645 105.318 7.98259
-34.3154 119.091 4.00251
-16.0991 140.527 7.85804
-2.54151 81.2809 3.08943
-16.3534 93.4858 21.0819
-19.2019 121.556 -2.73165
-1.67012 80.1727 13.4887
-34.9538 114.529 12.5649
-42.7473 94.7322 25.2719
-12.377 81.4536 -5.16026
-39.1351 94.0432 5.7973
-23.0696 139.874 0.0995715
-6.83148 119.453 11.2539
-14.0053 117.857 16.0896
-34.273 118.023 7.02707
4.39641 102.079 4.45319
-15.6829 126.671 -0.847351
-5.82238 83.1303 -2.01902
-27.2637 86.0608 25.9172
-23.6666 133.95 -0.88289
-33.5339 118.89 16.3274
0.214387 113.09 -6.7966
-34.2208 90.5406 1.99483
-27.0328 117.311 20.4811
-16.9857 129.381 0.595666
-18.541 148.679 6.33193
-31.3726 137.29 3.31554
-19.3831 143.901 7.79265
2.45203 96.1109 2.30528
-28.5101 95.775 -1.98105
-23.7199 132.698 -0.0653077
-44.4347 94.434 17.7683
-6.62182 80.1062 -0.909868
-21.3385 147.695 0.838125
-14.1177 139.1 -3.64459
-25.1113 93.0294 -3.04361
-23.5611 132.721 -0.858867
-31.0886 103.654 25.4029
-30.9138 136.251 6.81449
-19.9864 95.1154 -5.15325
-12.1545 130.035 -1.12225
-37.3969 91.4243 27.6012
-12.5459 82.5039 -5.54404
1.45879 87.9374 5.96816
-42.8775 96.0443 24.8445
-4.07353 85.7174 -1.88919
-3.01134 106.758 16.96
-11.8294 139.769 -3.46061
-21.4925 147.049 7.367
-33.8242 109.83 0.661065
-34.8189 117.075 2.65728
-29.2758 130.026 -0.440882
4.82392 101.888 8.96942
1.94333 102.986 15.3707
-9.39474 128.253 -4.30823
-2.88165 93.755 -3.77499
-21.2654 95.6226 -4.45825
-22.0509 142.697 -0.209069
-14.4277 84.3704 -6.15454
-20.8022 114.823 20.1025
-29.9642 121.144 -2.61663
-10.2121 78.8415 -3.87725
-37.6878 108.366 13.7202
-31.2232 135.093 -0.145811
-28.9995 147.153 5.64068
-31.5195 126.933 8.03489
-9.08316 104.293 -8.5385
-25.0506 128.328 17.3977
-25.3976 135.161 10.1336
-38.0228 106.128 5.8685
-13.1713 111.372 -7.84557
-23.0458 102.814 20.8116
-15.0506 144.512 -3.10137
-32.2397 129.549 6.7788
-9.51215 130.185 -3.10364
-3.59955 110.636 -7.28562
-20.6541 144.309 -0.103834
-40.9569 103.159 16.8905
-0.823591 117.812 -6.16514
-29.6983 130.274 -0.0798859
4.47756 107.734 0.784111
-3.88053 85.255 -1.52133
-18.3197 140.189 9.00013
-14.7771 143.885 -3.46804
-17.0763 91.3399 -6.26828
-40.0084 99.0653 24.1799
-10.9028 75.4797 -2.37415
-19.9496 132.819 -0.558371
-23.037 136.079 11.7483
-24.8657 91.357 22.714
-41.9602 91.025 9.89535
-17.5976 82.3567 -5.26469
-35.3229 105.36 18.954
-41.5022 101.794 17.8122
-19.4434 115.172 19.2404
-25.5253 127.423 18.0296
-34.0209 100.299 25.2662
-36.9019 100.451 3.87584
-32.6736 121.929 7.55601
-6.12351 99.3971 -7.42731
-4.02048 120.434 -5.66552
-32.4544 142.827 2.2386
-13.5869 129.669 -0.188912
-28.6345 131.772 0.182947
-34.1662 100.752 25.2145
-30.0942 137.58 1.33954
-2.69176 84.1383 0.321784
-20.265 133.098 15.0283
-11.5537 109.599 -8.56037
-41.8724 86.8296 8.96829
-31.2971 141.786 7.29798
-21.3512 104.34 19.6009
-31.2101 141.573 7.54721
-23.2513 112.11 -4.95352
-30.9063 135.814 0.0674704
-12.8759 116.628 -7.54004
-36.7078 111.536 8.68423
-13.3696 113.951 14.4518
-39.3749 137.61 8.30409
-12.1353 128.732 16.1591
-18.9046 116.534 -4.26623
-3.0303 116.52 -7.75931
-23.8308 129.363 16.8438
-32.0108 108.978 22.4026
-14.5345 90.182 -7.02716
-16.987 122.206 18.5383
-21.8753 121.922 19.2084
-13.2843 140.951 -3.44983
-20.4771 137.093 -0.471971
-5.36617 97.8735 -6.52027
-35.3897 109.125 16.8645
-6.35431 108.167 -8.33936
-3.81655 99.3513 -6.0091
-14.8064 135.566 -1.47555
-0.521548 107.719 16.7706
-21.955 136.972 10.5725
-30.9527 93.0277 -0.149213
-23.1198 108.665 21.1227
-0.0999747 85.2133 5.26143
-33.8945 95.697 1.51934
-2.56714 125.107 -3.93358
-31.6713 135.128 6.43093
-32.0926 135.753 0.637483
-13.8064 90.704 19.108
-26.6976 144.904 0.0806428
-41.7349 98.5869 23.7688
-24.3681 120.806 19.8507
-23.8002 129.842 16.5489
-8.19002 95.6469 -7.21656
-2.20479 107.807 -6.27888
-37.9017 91.6935 26.2076
-26.274 130.608 -0.803305
-13.0492 124.307 -3.81933
-11.7809 102.228 18.4018
0.534594 91.0417 14.5157
-0.685822 90.9929 15.5636
-9.59779 99.856 19.808
-18.6249 133.95 -2.21998
-39.1428 105.592 15.7162
-32.791 89.7432 0.936199
-26.876 134.731 0.713148
-0.104883 77.9669 6.16442
-15.273 93.0003 -6.95191
-3.39683 109.505 15.1636
-24.4955 147.14 7.2264
-12.7024 126.101 -3.33706
-10.0974 100.714 19.7514
-3.6689 104.999 -6.65267
-18.5037 117.976 -4.07677
-19.4192 131.676 0.573552
0.160663 89.7697 14.7068
-27.1118 125.08 18.8215
-15.9732 143.312 4.84798
-16.8543 141.532 5.92465
-27.8386 111.51 22.6641
1.95949 99.4104 0.214765
-29.6565 122.371 -2.50159
-33.8733 121.55 1.64016
-14.718 98.0809 20.5856
-16.9088 84.1616 19.5741
-7.18636 121.054 -5.89212
-2.4099 90.9275 16.545
-41.0601 87.8151 7.65771
-15.2622 115.807 16.8836
-5.66733 79.1803 15.4154
-2.54482 84.9115 15.4195
-31.6868 98.4044 -0.890408
-5.7667 88.0102 -3.92215
3.44484 95.0648 12.4475
-33.4489 84.9515 1.38949
6.05802 105.55 9.7981
-5.97547 96.0662 18.3265
-35.3647 89.3238 3.05908
-6.36229 115.071 12.452
-7.43737 103.423 18.3431
0.544076 78.0312 10.9632
-19.1958 143.596 -1.55786
-41.8 102.281 16.3138
-34.4751 117.801 7.14695
-29.1245 138.699 -1.86303
0.0863068 109.421 -6.12922
-18.7647 115.508 -4.44284
-6.52438 105.341 16.9965
-32.3176 109.439 21.4783
-18.7062 139.389 -0.735361
5.88088 105.989 8.99478
-36.1073 113.297 4.33078
1.91306 114.889 -5.81348
-42.6878 87.5825 12.4345
-30.1766 130.402 3.17212
-42.9748 92.8647 22.9919
-14.6127 104.826 -7.2087
-31.2323 117.161 -0.815572
-25.2604 88.3387 -2.51433
-36.1892 112.429 4.34317
-12.3345 85.846 -5.97884
-23.7996 94.6607 -3.63747
-32.2879 119.995 18.8593
-36.0043 111.376 16.0624
-9.87989 97.5214 19.8394
-13.8256 102.151 -7.16041
-23.4012 97.8096 -3.56188
-16.676 135.804 -2.8987
-0.0370944 95.9718 15.7547
-23.4927 90.5752 21.4832
-20.8737 128.353 17.133
-21.0129 91.3793 21.3542
-15.4723 133.687 0.325667
-13.9765 116.661 -7.25971
-24.7653 100.406 22.1767
-19.1517 119.16 -3.24262
-26.7864 121.364 19.9589
-26.4119 147.25 6.61297
-14.1953 96.4931 -7.46397
-14.1082 135.885 -1.29053
5.85097 104.276 10.2316
3.32373 107.659 -3.67912
-17.6465 148.074 0.492033
-19.8609 150.096 0.050666
-27.6738 131.839 16.0091
-30.8761 109.817 -1.76811
-38.5339 137.868 7.61717
-25.8156 126.101 18.756
-37.0172 112.271 13.9024
-18.4046 108.952 17.3157
-27.082 131.811 16.8209
-17.5884 100.605 -5.92204
-31.5026 108.809 -1.11812
-14.3431 120.764 17.2192
-29.8756 142.178 6.94337
-29.7854 132.241 12.374
-30.8758 83.4866 -0.0371767
-29.7225 93.0583 -1.25403
-7.20701 133.34 -2.74334
-26.6501 87.4683 -2.12529
-2.87725 120.491 -5.79171
-4.16406 84.5205 -1.3746
-27.9607 87.343 25.0453
-16.6166 93.6871 -6.38539
-14.8301 135.464 14.2609
-9.55781 91.1037 -6.66475
6.01225 111.823 3.44486
2.08749 89.269 6.22345
-3.24312 87.785 -2.2898
1.08611 87.0562 6.15602
-10.7774 131.563 14.8738
-31.5885 126.483 7.50009
-24.2945 124.535 18.945
-15.5797 117.579 17.8512
-32.5725 118.822 19.1849
-32.6948 127.636 5.42737
-4.86276 102.374 17.9334
-17.7433 84.6065 20.1385
-16.2863 120.823 18.5492
-20.5211 97.4384 -5.15725
1.35768 79.1717 9.74822
-40.9674 103.768 15.4706
-5.60993 116.635 11.8533
-24.3942 124 -1.45024
-31.661 103.1 24.9536
-2.91242 78.4498 3.5533
-28.8835 106.626 -2.85242
-3.67537 98.8947 -5.71028
-42.8761 97.7481 21.9489
2.65377 110.676 14.8545
-29.5737 120.953 -2.83593
-34.6995 96.0226 2.14861
-24.1611 142.814 7.6772
4.10765 113.8 -0.698088
-13.9042 94.8947 -7.39301
-29.5035 126.667 -1.95015
-22.2799 82.1 -3.62894
-22.1381 138.71 0.481809
-15.8378 144.575 -2.76389
-44.1538 90.753 20.8099
-7.8571 118.27 11.7561
-12.0667 106.609 -7.90947
-11.1768 102.898 17.8952
-27.7887 135.858 -0.372833
-42.4435 97.2916 24.606
-19.7222 134.813 -1.37618
-39.8595 104.547 11.6127
-9.5611 123.534 12.7687
-30.8355 125.523 13.8689
-39.5201 104.964 16.4563
1.76963 97.1439 14.5469
-12.672 117.525 -7.48641
-29.5363 110.9 22.9328
-19.0416 123.486 -1.33879
-9.5846 88.0459 -6.11205
-42.0721 99.4302 13.0694
-13.5048 137.372 13.2697
-12.8654 107.217 -7.91237
-9.41384 84.6862 -5.13608
-33.9993 102.627 24.1225
-3.00427 121.747 -4.64669
-3.66984 112.595 13.3738
-1.52971 83.776 14.6636
-20.9514 122.115 19.0161
-22.7027 123.915 18.8663
-21.8873 136.483 12.8225
-21.2462 138.156 9.83484
-16.9358 132.086 15.6953
-10.1355 113.505 13.3779
-14.3387 131.74 0.653888
-17.5143 142.395 -2.2663
-10.6402 82.3325 17.6557
-1.50043 112.724 -7.79795
-36.3287 91.9926 4.2203
-33.9612 102.824 23.8229
-3.76518 79.2167 1.8017
-14.1897 139.2 12.5291
-30.5825 90.1713 25.2323
-37.4153 89.4042 4.38076
-11.9627 104.938 -7.65327
-32.3052 100.016 -0.558285
-26.4187 134.821 9.01372
-28.8467 142.225 0.104689
-18.1427 116.612 -4.56191
-39.8162 105.023 15.3543
-36.7445 111.165 8.4586
-10.9743 121.885 13.835
-30.0223 127.403 16.9273
-27.9255 144.095 6.15459
-9.62584 105.232 -8.67174
-0.542457 115.301 -6.22356
-21.099 96.8427 22.2667
-32.3735 127.425 3.65825
-15.4568 133.939 14.6898
-31.6191 141.756 7.31688
-13.0698 103.736 -7.30129
-23.7256 91.9715 21.45
-40.5005 91.7971 7.70746
-22.7873 111.502 21.5718
1.21894 99.379 14.7987
-19.5186 152.198 0.564814
-0.846109 110.132 16.1983
-35.0925 110.821 17.238
-35.7318 115.7 9.78324
-0.634432 116.655 13.3004
-11.2061 141.344 -3.83799
-29.5427 132.886 9.65995
-28.5366 132.009 14.4653
-43.3219 88.9114 13.7882
-31.7788 116.647 -0.225954
-15.41 135.177 14.6033
-29.0591 132.373 0.634828
-27.2504 130.81 -0.724939
-0.471003 77.1637 11.884
-20.3853 122.579 -2.0732
-43.246 94.0218 13.3965
-25.3675 146.819 0.964859
-37.8407 101.691 22.3552
4.05945 110.474 -3.52415
2.34563 109.087 -5.22418
-37.8122 107.532 4.47365
-5.42211 110.764 13.9426
-31.03 131.521 2.08772
-5.48021 120.887 -5.97181
-15.2627 137.506 13.1678
-43.0228 91.3585 12.1215
-5.9249 108.775 14.6805
-36.4311 93.5405 3.71026
1.50101 79.317 9.52789
-2.58893 96.1817 -3.98782
-3.36414 103.356 -6.48799
-29.6648 103.941 25.375
-1.86028 111.147 -7.43981
1.0015 123.017 -7.61066
-37.8904 94.9931 25.3049
-0.988537 101.039 -4.86766
-21.9007 122.785 -1.70213
-13.2285 91.6068 -7.33707
-4.48026 88.1801 -3.45174
-37.4692 101.933 21.964
0.20895 95.6338 -1.30257
-29.3027 145.972 5.73498
-32.7844 137.079 2.29228
-22.7096 130.287 -1.52285
-25.2372 105.477 21.6888
-5.74824 95.1494 18.174
-1.86985 100.654 -5.02176
-17.1905 85.0474 19.8061
-26.5756 145.315 6.12362
-32.016 84.3438 0.649183
-38.5805 94.9822 5.2391
-37.9459 137.005 3.50184
-10.4505 83.5489 17.716
-26.8105 134.236 -0.209169
-40.6216 101.595 10.6609
-35.7941 112.043 11.1973
-5.19975 84.5996 -2.39077
-26.8839 113.888 -3.73357
-20.1411 151.109 0.280438
-7.82952 122.581 11.1947
2.40583 106.997 14.6221
-17.7282 119.123 19.0514
-0.229307 94.7386 15.8345
-12.3693 113.146 13.9669
-30.1785 127.798 15.837
0.755459 102.855 16.101
-31.9348 131.921 1.9506
-31.445 125.168 -0.645868
-24.1423 132.258 -0.966676
-25.4094 95.4132 22.9179
-41.2305 89.2376 8.13749
-29.9869 97.4478 25.8371
-25.5231 84.3136 -2.58782
-16.9794 101.82 -6.12758
-32.8132 135.77 4.41392
-24.0116 115.558 -3.82848
-11.0338 113.184 -8.19136
-29.4203 107.016 24.8453
3.20353 105.042 14.0868
-19.6824 123.549 18.5011
-8.4944 123.736 11.7896
-35.5405 106.292 17.5303
-33.3516 94.0096 1.177
-31.5877 129.147 4.36179
-31.3672 83.9652 0.24859
-2.98376 88.63 -2.62413
-30.794 125.563 14.9338
-17.1831 104.481 18.0356
-20.2002 141.326 -0.344079
-20.8538 142.697 7.79037
-30.3379 130.51 11.5137
-42.3291 94.2873 23.532
-23.017 145.075 -0.225567
-10.3684 96.6249 -8.01449
-24.8821 131.989 -0.438558
-18.4989 124.065 -1.0782
3.98634 113.795 -1.06343
-17.6525 102.093 18.9545
-21.1211 91.9207 -4.31284
-14.8367 138.71 -3.57277
-2.62575 94.7589 -3.76487
-2.34541 81.676 2.01142
-25.969 133.398 -0.831993
-0.150039 91.586 1.62746
-23.1977 110.927 21.6578
-3.14359 123.002 9.76464
-15.9074 111.946 16.4604
-4.73209 112.671 -8.12163
-30.4788 81.6983 -0.0272921
-4.73259 96.4898 -5.81964
-15.7544 93.6237 -6.74962
-27.3835 127.135 18.001
-35.7196 109.62 16.3173
-13.9854 93.0399 20.2027
-26.288 84.2432 -2.25007
-26.0408 141.724 -1.63043
-14.0419 82.3275 18.8129
-38.1575 138.139 7.37487
-38.0054 98.1739 5.24224
-33.8213 122.356 2.78817
-26.7059 125.382 18.7793
-13.4986 114.449 14.5131
-18.5122 143.698 5.82238
-3.39988 107.467 16.2957
-15.3496 141.096 9.35181
2.43334 107.859 14.8881
-31.0157 147.074 4.28997
-13.1988 136.06 -0.831503
-5.17146 78.2646 0.199643
-19.3345 124.287 -0.83944
-26.4723 130.719 -0.940267
0.913796 88.1053 4.41214
-4.98224 107.538 -7.62799
-8.10443 90.6283 18.288
-31.4866 131.453 3.57583
-31.7047 128.256 8.70968
-33.9108 142.932 3.12013
-27.1287 140.351 -1.84359
-1.64739 87.9365 15.5282
-34.5329 111.787 1.31007
-42.5333 93.667 23.3485
-32.0708 137.548 -0.658762
-19.5382 94.7204 21.161
-33.0204 119.611 6.1205
-17.281 133.1 -0.273482
-28.3839 132.395 2.17051
-41.1908 92.6533 8.95762
-6.78569 86.2487 17.0288
-22.2366 129.948 16.3476
-17.3719 133.004 -0.180826
-27.4496 145.009 0.0498314
-8.09505 110.741 14.1052
-16.1147 127.78 17.0347
-32.0889 134.219 -0.274719
-28.0901 144.377 0.0957411
-40.1724 103.222 12.287
-30.3028 116.609 21.4636
1.39492 99.0412 -1.24376
-34.8394 90.5824 26.7191
-40.2298 102.227 10.8213
-22.637 91.5041 21.3073
-26.0483 93.4082 -2.60623
-4.05856 92.8186 17.4139
-15.7739 140.767 7.88718
-16.8752 148.583 0.384235
-16.4021 112.555 -7.71359
-10.1155 128 -4.09954
-31.2494 121.154 19.1181
-3.79162 79.0007 1.98093
-14.6999 103.723 -6.96146
-2.49222 78.9247 4.07979
-12.6852 102.651 17.8784
4.40729 95.7031 8.92673
-30.932 133.114 6.72194
-23.7624 104.91 21.036
-30.6381 119.667 -2.30295
-16.2156 85.3487 19.2149
-37.4074 97.9713 4.73917
-2.71928 115.746 12.1902
-30.7333 87.578 0.125183
-34.6885 118.451 9.04482
-21.4477 115.538 -4.63763
-5.62986 109.889 14.243
-17.3579 109.978 16.7273
-11.124 125.939 15.4213
-28.6283 132.952 1.44968
-35.8869 84.6318 2.39796
-25.5726 108.007 -3.54722
-33.4673 140.767 8.28202
-9.19555 119.617 11.9798
-31.3172 101.036 26.2207
-34.3888 119.002 12.3343
-22.1402 146.775 7.50036
-30.2854 132.17 0.0041206
-30.1382 98.2106 25.7643
-27.8147 135.364 10.3685
3.52747 117.345 -2.29492
1.1254 120.823 -7.02947
-33.1519 96.0258 0.966156
-14.0588 124.641 -3.03718
-24.6307 92.0287 -3.12103
-1.43967 103.592 -5.99516
-1.07719 119.221 11.3516
-15.6987 137.004 -3.1388
-27.9334 124.809 18.7069
-22.9692 130.81 -1.67115
1.06023 96.017 15.0896
-23.4882 128.793 -1.30029
-28.6237 84.3629 -1.27122
-29.7222 107.324 24.9311
-10.335 124.174 13.955
-22.8436 145.125 -0.181305
-11.7926 121.667 -6.56856
-14.7327 127.584 -0.841805
4.86946 99.6467 6.56101
-9.17571 107.836 -8.59705
1.56448 100.157 -0.605138
-2.14906 98.9214 -4.39007
-38.7168 92.7373 5.90983
-32.7622 116.18 19.9615
-39.6513 96.5486 25.0482
-33.8298 123.841 3.81497
-16.4457 126.289 -0.669373
-10.4916 130.264 -2.2561
-10.6818 108.176 15.3022
-42.2311 93.0411 10.8064
-38.6936 139.278 8.84138
-28.5927 103.622 24.7486
-9.71005 133.855 -0.529195
-12.3369 124.99 -4.27682
-29.01 132.496 0.448243
-29.6124 129.636 12.608
-11.6657 92.7073 -7.34016
-17.4299 100.127 19.7091
-11.7724 128.278 15.9541
-38.0727 108.679 10.3783
-22.1967 152.185 3.10126
-35.0703 114.749 13.0907
-23.4706 99.2693 21.705
-28.6495 131.72 0.899717
-24.2666 146.651 0.713155
-25.0588 131.883 -0.46234
-28.6279 115.515 21.0945
-18.0726 139.1 -1.12615
3.08624 105.373 -0.364322
-33.4292 119.083 16.6667
-34.3089 135.437 4.26046
-4.46846 100.828 -7.00076
-6.01951 125.593 10.1441
-25.5304 123.481 19.2729
-5.80859 89.785 17.4648
-5.16466 87.4614 16.6788
1.18591 75.7836 8.6356
-8.99336 99.3318 19.7592
-4.06423 80.0426 0.692222
-9.28562 124.716 -5.95845
-25.8888 132.193 -1.15112
0.469265 104.442 -5.16286
-15.9034 114.073 17.0404
-14.5583 127.877 -0.775979
1.23926 87.2803 13.0787
1.43402 94.1876 2.075
-13.3018 100.164 19.4858
-8.26665 89.322 18.1602
-11.7725 110.328 -8.48581
-24.2126 117.719 -4.17365
-15.3156 114.521 16.448
-33.9957 120.339 12.9569
-31.7011 103.004 25.0096
-24.6876 120.979 19.745
0.466489 97.995 -2.64925
-30.0668 93.0346 25.734
6.68502 109.217 5.47704
6.14686 109.171 3.57041
-10.0804 121.597 12.7188
-8.9384 122.664 -6.43508
-34.4724 130.765 2.19747
-14.2411 121.223 -4.55981
-39.1885 96.3737 5.79881
-24.335 139.052 8.5967
-19.2411 149.278 0.0837597
-16.6973 109.695 -7.47862
-34.4314 119.85 3.92389
-32.1913 114.27 -0.998378
-33.975 141.691 2.5209
-13.4994 85.8838 18.7812
-23.0008 138.1 0.596274
-6.86443 127.295 11.395
-30.828 133.427 7.09035
-3.83761 102.083 17.6442
-8.89382 117.522 -6.52213
-35.1913 114.325 13.0775
-21.1864 136.187 -0.761395
-8.60538 92.2246 18.386
-32.4538 96.2456 0.378697
-8.73605 84.4946 -4.64094
-18.3874 136.593 13.4619
-34.73 117.508 2.92472
-20.686 143.804 0.249501
-34.5792 89.2311 2.14768
-14.3072 122.677 17.4986
-25.7495 89.5492 -2.29792
-17.8593 116.525 -4.70618
-20.1565 136.485 13.18
3.11782 96.0445 3.80526
-9.16989 117.922 -6.60758
-16.4004 115.296 -6.44836
-1.67157 114.008 13.5236
-3.85267 117.371 11.5143
-28.9227 96.6279 25.1558
-23.6838 110.576 21.9349
-39.454 100.106 23.7004
4.95504 100.806 7.92936
-15.2363 133.073 14.8017
-30.3766 101.696 -1.6364
-14.9461 132.507 0.614295
-4.8805 105.223 17.8024
-35.7321 107.789 2.07057
-6.57441 96.1032 18.4256
-42.4237 93.7578 11.0717
4.69774 105.349 5.73908
-41.8796 89.4391 9.57921
-11.7413 76.3152 -3.18762
5.05825 100.59 7.04401
-40.3303 86.8212 6.35808
-27.932 111.076 22.8725
-30.7838 134.155 1.03279
-12.4162 91.6898 -7.21519
-39.6258 137.25 8.40824
-42.1854 97.9737 12.1178
-30.088 122.212 -2.3771
-13.7416 111.737 14.7723
-30.9324 138.639 -0.936373
-17.6764 116.657 -4.7707
-10.4802 138.99 -2.06552
-31.4718 88.7581 25.6391
-19.1217 143.526 -1.40358
-37.5571 110.179 5.88187
-5.14469 77.7724 14.8035
-4.92575 97.298 -6.17545
-16.9512 116.058 -5.19773
-41.2253 87.3132 7.80574
-24.4294 79.9017 -3.15817
-30.4865 115.488 -1.94109
-28.3539 122.743 -2.91797
-21.1553 134.864 15.1241
-28.1994 129.993 -0.660186
-0.39329 83.7754 12.2784
-14.9724 92.7915 20.5371
-36.1635 114.166 8.87063
-5.80011 120.036 -6.44445
-22.029 112.66 -4.75206
-17.4899 145.953 -1.93735
-14.2525 91.1853 -7.15705
-8.82646 85.9996 17.8442
-27.2196 133.683 0.13033
-28.441 133.236 3.30678
-31.7392 123.041 17.6274
-2.91998 97.8632 16.5691
-29.4655 125.103 -2.29943
-24.472 149.139 6.21229
-38.754 92.0761 25.8011
-19.7658 118.853 -3.44451
-28.9282 134.77 8.51796
-35.8573 84.6921 2.37686
-21.8814 133.877 -0.530458
-21.4661 138.614 9.45444
-28.5443 118.315 20.7876
-18.8707 147.492 0.67953
-32.5388 139.572 0.59014
-25.0701 86.931 -2.8541
4.57603 101.488 11.9813
-31.8933 111.009 -0.789717
3.39963 91.8377 7.61626
-18.1591 86.9368 20.2655
0.36201 92.7915 14.6255
-10.912 115.241 -7.82378
-24.9642 131.346 -1.67266
-24.8942 139.321 1.33672
3.23407 103.695 13.8662
-30.5647 95.1867 26.0775
-22.0812 84.7875 23.1858
-28.7648 111.137 22.8448
-34.7907 118.322 11.3849
-3.64722 89.2182 -3.22116
-30.2122 124.695 -1.88987
1.17329 98.4108 -1.86683
-23.2405 106.492 20.4321
-15.3809 132.178 15.1217
-6.88846 100.451 -8.03422
2.50332 115.819 -7.04159
-10.8384 101.897 18.8748
-42.196 86.4979 9.53283
-23.1296 91.9067 21.356
2.27703 113.136 -6.24679
-10.4188 133.451 14.3733
-15.4931 117.428 17.7728
-28.4486 128.449 0.397736
-21.9162 102.219 -4.056
-7.07096 83.5347 -3.53531
-32.7141 135.868 4.24153
-35.058 93.5929 2.4574
-40.9235 102.092 13.4095
-25.5454 113.306 21.2001
-35.4918 106.082 17.7745
-15.3986 94.3563 -6.86432
-3.71176 120.215 -5.91691
-19.3043 90.2585 20.615
-28.9858 130.704 1.08615
-33.895 118.124 4.62177
-12.5558 114.015 -7.6561
-42.2681 87.5713 10.0385
-29.0738 129.735 16.0014
-0.739491 98.8283 16.2009
-34.0772 120.784 2.20206
-24.582 135.003 13.1259
-3.41479 120.378 -5.78344
-29.6809 124.416 18.4599
-7.76452 96.0241 -7.10513
-38.9832 99.3976 24.2652
-10.8332 85.222 18.2145
-15.9615 130.274 0.620054
-15.2801 127.415 17.0805
-16.5728 138.504 12.8586
-6.51311 99.006 -7.43176
-7.08122 104.136 -8.66831
-31.9463 128.289 8.14551
3.89633 98.3089 5.22406
-15.2369 87.1707 -6.54087
-22.344 132.661 15.2022
-36.8561 91.1951 27.7936
-20.1632 142.163 -0.891168
-42.117 96.0536 24.991
-16.7341 81.3249 19.5705
-14.5368 99.4177 -7.03952
-15.8702 135.161 -2.06968
-24.6171 131.968 -0.600552
-31.4569 126.262 7.62858
-5.48015 102.581 -7.48802
-15.2704 101.878 -6.56011
-8.31864 108.648 -8.2229
-31.8229 136.05 7.6641
-15.5946 116.128 17.3697
-16.1764 136.395 -2.86241
-1.64223 116.476 -6.92203
-34.435 118.7 3.70747
-14.4045 110.217 -7.79639
-42.0928 101.152 15.0243
-30.1488 101.355 25.1755
-34.3206 88.1346 1.86551
-19.8488 125.612 18.1068
5.79748 111.642 1.22807
-35.4294 96.2812 25.1891
-12.7697 100.531 -7.6382
-17.3826 98.3842 21.101
-16.2781 118.879 18.3721
-31.8552 118.61 19.8777
-35.0618 131.534 1.51171
2.80664 116.494 -7.55518
-11.9126 126.088 16.0101
-36.3011 142.623 4.40092
-30.7743 136.297 8.56033
-7.81915 126.036 11.7866
-19.6173 131.891 15.1162
-29.8064 147.339 4.14201
-15.6576 112.575 16.3317
-29.7688 91.269 25.3134
-30.0933 89.4368 -0.58929
-11.1773 102.89 17.9031
-29.9932 103.939 25.5394
-2.46674 88.002 15.9219
-37.4976 100.798 4.0556
-36.5437 100.767 3.59927
-23.5644 94.1452 -3.65559
-1.59047 110.264 15.8323
-19.6641 143.556 0.00824776
-22.1238 126.998 -0.986461
-15.8332 101.195 18.9263
-29.1748 134.552 7.58761
-16.9635 115.401 18.6247
-16.1348 118.874 18.2795
-35.1954 114.531 11.1505
0.361291 109.112 16.4673
3.37316 107.794 -3.48814
-11.1864 119.302 13.2969
-8.16434 84.4607 17.0444
-40.6405 85.5506 6.91993
-12.3969 123.051 -5.49538
5.80042 104.164 9.99838
-27.7769 105.518 -3.29464
1.9393 106.716 15.048
-26.8249 117.505 -3.39148
5.38872 110.108 -0.545909
-6.1476 83.7225 16.1089
1.05652 107.5 16.0411
0.262138 98.1954 -2.76927
1.42642 97.8053 -0.960639
-11.7639 85.9881 -5.97762
-12.2724 126.822 16.3455
-32.749 139.211 9.13924
-41.4053 92.7016 9.57016
-32.5975 122.835 16.1897
4.6536 105.111 5.25605
-14.2076 116.712 -7.201
-5.01239 93.3631 17.8972
-18.7159 138.011 -0.494483
-1.96277 108.369 15.8463
-5.09861 95.9028 -5.87186
-6.83673 100.816 -8.09562
-16.876 147.051 -1.3773
-10.582 119.801 -6.84828
-42.1369 101.071 15.0856
-31.9803 131.252 2.56475
-3.20351 84.6306 -0.56441
-21.3672 91.5747 -4.22927
-13.5284 134.971 -0.0415422
-3.90164 106.054 17.3475
-39.6289 102.93 17.8915
-25.4496 92.2491 22.9001
-21.9558 93.9487 -3.88993
-28.9269 93.3674 25.3871
3.94114 92.2646 8.79813
-16.1604 140.63 9.07621
-16.9443 115.654 -5.34313
-28.3677 129.338 17.4442
-23.3998 135.055 9.45651
-7.37777 117.567 11.7444
-38.0938 107.999 5.21006
-27.1917 103.515 23.1722
-26.4152 136.806 2.04266
-27.0659 136.15 8.76299
-20.6367 119.291 19.835
-23.0728 133.222 15.306
-30.0821 132.16 1.3336
3.84153 99.7488 12.0434
-30.2472 109.864 23.4006
-0.686766 85.4471 14.4556
-32.8132 127.013 5.17195
-39.1447 135.993 4.75583
3.10233 95.2841 12.7895
-21.4895 141.614 0.22407
-32.7328 120.062 7.30712
-26.0227 100.682 23.3033
-30.2759 144.394 1.90213
-1.94642 111.777 14.9009
-24.3722 109.553 22.2987
-30.7826 131.886 2.17291
-19.3992 99.6247 20.3857
-35.482 113.877 10.7875
3.58381 92.6998 7.04622
-31.4194 131.405 2.58085
-25.5942 99.708 23.2579
-41.2653 102.868 16.6359
-38.6412 105.222 8.3399
-35.1406 101.373 1.70595
-26.5609 98.762 23.7197
-2.32803 98.4402 -4.37478
-20.4197 96.8164 -5.17698
-21.2019 88.9693 -4.54634
-22.6652 127.321 -1.20653
-41.2219 92.5406 8.97094
-20.7689 104.678 -5.78786
-12.6339 143.428 -4.0622
-12.4176 115.249 -7.56633
-9.84898 121.716 12.5309
-29.1331 134.541 6.71191
-28.7378 133.252 11.1464
-37.2504 111.977 14.344
1.60875 102.186 15.3787
-3.18287 113.103 13.273
-37.8986 139.109 3.27868
-31.9365 115.918 -0.554021
2.88314 105.131 -1.86305
-10.0699 83.5409 -5.25648
-1.27383 87.256 15.2424
-0.603289 118.676 -6.20718
-44.495 93.4459 19.2978
-2.766 107.687 16.1737
-21.5803 152.034 1.87206
-31.6618 133.986 2.41235
0.945599 91.268 14.1269
2.99259 90.0999 9.35076
-0.840474 102.194 -5.3798
-18.5585 124.621 -0.773188
-0.117175 106.954 -5.54292
-10.6962 129.763 -2.43503
-31.3531 124.356 11.9595
-37.3739 109.735 15.4446
-26.025 107.136 23.1078
-23.854 136.646 0.555739
-32.8164 96.2838 0.715
-22.033 108.503 19.884
-6.72575 93.5459 18.1256
-22.5957 105.027 -4.65747
-19.7497 100.367 20.0517
-32.3013 124.013 0.122592
-37.8804 85.5689 4.14278
-0.538079 76.6308 5.94382
-17.9924 81.9284 -5.0232
-33.2128 109.32 20.3776
-13.968 104.898 -7.2766
-20.8174 117.879 -3.8862
-3.55743 101.698 -6.7273
-42.6106 92.3801 23.77
-38.5836 105.127 8.18246
-44.1612 90.7353 14.9284
-19.0797 113.259 19.5215
-12.8422 129.52 -0.898225
-18.7421 106.83 -7.03959
-33.5597 120.478 14.1723
-3.92777 105.178 -6.71441
-15.2182 104.409 17.4949
-29.6013 134.524 0.386871
-6.58897 83.7274 16.2792
-34.456 83.8536 1.57155
-19.288 89.8021 -5.32807
-16.6376 114.434 17.9981
-37.8131 109.648 13.5948
-13.5023 122.173 -4.9879
-38.9987 101.429 21.8151
3.40768 105.18 13.6885
-28.3111 130.211 16.9308
-12.0785 101.35 -7.85093
-26.4007 118.396 -3.85697
-27.5945 124.347 19.1008
-15.6057 113.419 -7.55631
-17.3739 122.677 -1.91244
-18.3985 117.713 19.1321
-32.7695 121.825 0.382076
-32.3508 93.9336 0.632583
-5.18798 95.4759 18.1211
-33.1885 102.381 25.3512
-16.2395 122.457 18.3365
-31.0671 83.8172 0.0495488
5.47122 107.844 3.9686
-16.3065 140.645 9.10277
0.917115 76.5675 10.6571
4.77673 113.264 -2.94759
-9.27189 126.403 -4.89546
-39.9753 97.199 6.55878
5.24213 106.559 5.74659
-30.9353 123.876 9.92348
-3.5423 114.548 -8.09213
-22.7717 144.448 7.54935
-20.385 142.443 7.41256
-12.4552 120.393 -6.82018
-38.0904 141.12 5.22077
-16.2226 119.388 -3.88927
-32.6353 93.0368 26.0009
-17.2216 104.409 -6.8742
-17.9863 136.519 14.1845
-6.78449 86.4146 -4.13656
0.564848 92.3099 2.27455
-11.606 107.929 15.4043
-21.3529 143.221 7.82373
-31.8382 115.324 21.0657
-33.5486 118.76 14.0886
-20.0633 129.935 0.465989
-36.5783 85.5333 3.01592
-24.6667 125.313 18.8636
-25.2406 108.628 -3.56512
-3.6566 79.6813 14.6464
-33.4589 137.32 6.48661
-12.6802 142.191 -3.6003
0.983994 108.425 16.3583
4.16115 104.166 12.348
-28.8494 127.917 -0.412947
-18.8215 80.1421 -4.49799
-38.6767 140.817 7.02453
6.22675 109.619 2.58293
-27.2241 96.2961 -2.26572
-26.6 125.815 -1.74554
1.00266 78.5941 7.54643
-18.4395 101.913 19.1938
-21.0562 133.698 -1.1718
-20.5617 142.155 0.203308
-27.2688 97.492 -2.24917
-10.07 118.008 12.5579
-34.2816 132.585 -0.107886
-24.635 127.704 17.7119
-11.8149 87.2502 -6.37613
-16.8933 139.756 12.0669
-11.3735 131.187 15.2943
-31.729 130.041 6.35702
5.67937 108.894 11.4799
-27.1971 123.473 -2.71677
1.20162 94.8574 0.941427
-27.9811 135.539 9.70037
-18.0205 85.2874 -5.57058
-37.6455 138.324 8.05853
-13.8334 106.114 -7.56482
-37.962 105.152 17.1699
-26.0352 101.19 -2.42354
-32.9641 127.577 4.19848
-22.9926 147.896 0.761308
-28.9713 130.123 0.567806
-15.1692 109.727 15.6381
-40.9107 102.32 13.6564
-23.3603 145.192 -0.0423156
-8.11193 105.051 -8.71793
-0.53694 97.1608 -3.084
-15.4942 100.303 19.2394
-32.158 129.027 4.49626
-28.3495 138.978 -1.92904
-27.3363 122.621 -2.99706
-39.7155 103.298 10.4587
-34.1358 117.937 14.6639
-20.4525 121.327 19.3192
-19.1309 83.3748 21.0274
-23.9846 122.694 -1.93355
-37.8219 109.155 12.4024
-22.8736 136.385 0.192361
-4.34849 97.028 -5.65728
4.67129 109.115 -0.826061
2.87427 105.07 -1.89192
1.00968 88.039 13.5257
-2.68722 86.2008 15.743
-40.8469 89.8998 7.96077
-18.3421 148.723 5.91115
-28.239 140.802 8.43981
-29.5442 141.649 7.59077
1.43735 80.4178 7.95694
-24.517 80.1205 -3.04467
-5.47995 82.9852 -1.42334
-9.4046 83.7351 17.3417
-29.5142 100.606 -1.69804
-15.4987 133.714 0.272814
2.83594 107.351 -4.5585
-28.9221 136.182 -1.62564
-0.731577 93.6489 -1.45473
-30.7979 126.147 16.8466
2.74378 94.6311 4.36915
-28.737 106.4 24.3738
-24.1256 95.692 -3.2636
3.52166 115.355 -4.81665
-23.9262 105.333 21.0507
-24.6579 94.7633 -3.17404
-37.498 141.354 4.62323
-34.0283 117.138 13.1752
-9.05869 101.096 19.5502
-36.2892 136.461 6.96654
-29.9436 133.762 6.67488
-24.3264 107.163 -3.86165
-28.7079 113.81 -2.51412
-23.5173 132.245 15.5813
-31.1109 90.1824 25.3872
3.09775 103.031 14.0505
-32.6871 86.3879 1.10152
-10.6969 87.3257 -6.20085
-1.59858 95.3118 -3.33378
1.17361 85.2997 9.64209
-10.87 124.765 14.9231
-15.546 115.467 -7.07504
-18.2916 101.571 19.2766
-25.3828 121.654 -2.52836
-33.4189 118.912 6.39642
-16.47 148.384 -1.63169
-25.2498 90.3013 -2.78078
-21.5415 141.956 0.0613041
-1.842 93.4414 16.5688
-40.9611 101.161 10.987
-18.8031 102.038 -5.56842
1.25006 113.138 -6.81374
-25.5805 108.287 -3.49993
-17.1401 140.382 7.98773
1.54566 96.0761 0.551012
-3.65264 123.384 -4.38647
-43.853 90.6033 18.9037
-37.616 136.714 3.20946
-34.6852 144.007 4.23451
-30.2974 86.5638 0.0029714
3.86297 95.2693 6.0581
-19.0675 103.838 -6.14982
-21.4186 128.355 -0.546818
-18.8943 126.186 -0.192517
-41.5481 89.8044 8.73172
-14.5148 129.378 15.594
-16.1445 115.45 17.7141
-27.2156 134.997 12.5848
-32.2483 112.479 21.2528
-9.68551 124.296 13.1288
-12.1575 111.122 -8.21112
-8.30769 87.7713 -5.32545
-3.41804 78.4227 2.81662
2.83735 104.554 -1.46897
-3.28965 115.732 12.1261
2.71059 119.759 -7.87025
-20.7143 108.811 -6.51053
-10.0652 76.0521 -2.01788
-2.09217 107.434 -6.1137
-32.9775 117.664 0.479246
-2.9107 87.7961 16.0869
-25.3198 140.965 7.23715
-37.8599 106.668 14.0594
-23.1297 144.718 7.64111
-14.9116 77.9459 -5.53598
-22.7667 132.881 -0.775767
-1.65333 77.1111 4.93022
4.48992 96.1031 7.00257
-20.1163 81.9962 -4.23166
-11.8041 85.981 18.6083
-5.13931 131.548 -3.66944
-27.512 94.5626 23.7374
-7.55246 88.9953 17.9815
-29.7328 147.018 5.26507
-11.7149 110.099 -8.51235
-26.8914 122.36 -2.85417
-18.8268 89.3577 20.1003
-42.0535 94.1098 25.8247
-32.9722 120.146 16.1932
-18.0632 145.654 -0.160906
-33.5561 124.802 2.1191
-38.4672 85.0768 4.79483
-34.5474 99.7131 1.83816
-2.85389 111.728 14.2908
0.0615227 78.7455 6.25701
-0.612517 95.753 16.0553
-9.73601 84.1338 17.51
-23.1683 148.392 6.73713
-8.92921 81.9168 16.9309
-13.2213 108.781 -8.26962
-33.3133 114.572 19.8932
-22.7317 92.8002 21.4653
-27.9483 122 19.902
-10.4766 128.041 -3.94755
-37.3653 104.58 17.487
1.65163 90.1306 12.6571
-37.6151 109.908 5.7462
-29.4032 132.13 0.231387
-19.4458 83.4193 21.2784
-24.2994 125.891 18.5884
-33.5233 113.317 19.9368
-32.8469 126.798 3.5985
-36.4444 93.8219 3.60158
5.30969 107.449 4.37072
-34.302 120.03 4.31976
-3.27782 101.183 -6.24096
-26.4648 101.674 23.0665
-24.6838 138.35 -0.212459
-18.5802 84.275 20.7562
-29.9028 127.745 14.3842
-28.615 133.132 12.4913
-3.23347 77.6172 14.0954
5.52658 106.735 6.22406
-32.1434 125.993 2.5024
-9.4745 114.864 -7.18163
-12.0639 121.927 -6.2507
-36.149 111.585 15.937
-30.5012 133.628 2.15589
-12.5491 133.486 14.415
-29.4169 134.945 8.33125
-14.8872 142.752 5.0983
-28.5313 132.754 1.04301
-33.7965 124.065 3.52627
-5.21937 106.829 16.3294
-19.5431 147.134 7.19612
0.430741 76.4276 11.2747
-34.8581 117.907 11.5333
-30.439 131.858 1.32721
-20.2899 125.367 -0.389541
-9.5527 85.1869 17.8184
-44.3236 91.465 20.7357
-31.1543 92.3547 -0.0461721
-8.4656 109.87 14.4759
-6.17059 78.7654 15.5246
-5.06672 117.856 -7.30409
-15.5004 102.037 -6.44319
-32.1166 94.0024 0.491243
-5.70372 111.143 13.8053
-28.4927 88.0865 24.9702
-11.8607 108.732 -8.39369
2.22365 110.009 15.5683
-27.3523 81.5389 -1.75013
-25.5374 137.281 1.63837
-6.70964 125.656 -5.03739
-14.0499 107.201 16.3017
-0.413806 81.7717 11.0259
-33.5356 117.159 0.998662
-10.2512 110.306 14.5229
-32.6296 119.192 18.9608
-19.2576 135.408 -1.64698
-33.3612 121.056 11.5358
-34.9988 87.9203 2.42158
-27.9472 84.2394 -1.53585
-21.7508 90.4285 -4.20405
-37.6138 110.033 5.9608
-6.53276 126.672 10.8397
-6.63761 75.2872 -0.0419799
-27.009 134.934 1.55547
1.22748 92.5906 3.00347
-37.5556 90.4602 4.51856
-38.1568 90.4712 4.78609
-3.43112 106.931 -6.57143
-11.5392 82.2591 -5.30993
-17.5737 85.6483 -5.68925
-3.7563 81.9769 0.745445
-39.4166 96.5959 6.01591
-31.6313 133.718 5.98987
-30.428 131.676 1.24328
-38.2837 99.0239 5.24687
-17.9004 134.61 15.5939
3.92122 96.9983 5.2197
-36.2291 141.947 7.43091
-11.4421 134.298 0.515038
-13.6231 133.605 0.44982
-21.461 133.569 -0.664373
-28.0249 130.353 0.335433
-26.5191 122.842 -2.52413
-24.1577 142.091 -1.51199
-27.0633 83.8646 -1.82032
-31.2502 136.54 6.84463
-37.7257 93.4492 4.7453
-25.2768 114.091 20.8739
-29.9337 125.601 -1.88644
2.28058 86.8069 10.1408
-2.26698 123.914 -4.24059
-22.0598 106.271 19.7484
-29.5072 148.165 4.49224
-32.7802 101.586 -0.498307
-8.14387 82.4672 16.6393
-32.1033 95.2127 0.12693
-29.7281 95.9209 -1.69437
-27.5454 132.692 14.3962
-27.1706 134.907 8.86203
-29.4976 112.758 -2.6366
-3.23788 82.9024 14.9145
-21.517 107.395 19.2827
3.33556 107.238 -3.08809
-24.1039 142.503 -1.31366
-5.91623 83.7791 16.0167
-28.8662 130.396 15.9306
-31.1118 134.525 7.17542
-14.4187 140.624 -3.18412
-34.5584 97.7508 25.4316
-27.6514 92.0195 -2.00908
-12.9839 135.656 13.57
-11.5705 99.075 -8.00944
-18.7607 125.001 18.2479
-30.4362 136.559 1.93033
-1.57285 116.88 12.2131
-31.9179 129.935 7.85621
-7.78852 107.618 -8.26836
-23.1663 102.99 20.872
3.25031 112.609 14.6992
-13.0048 125.53 16.8386
-11.986 137.644 -2.27843
-10.7904 117.52 -7.08592
-18.1236 129.484 0.727481
-29.2386 97.6904 25.1422
-6.71544 120.555 -6.19479
-21.9938 87.9989 -4.21129
-17.236 114.096 -6.32103
-31.8606 101.686 26.1338
-28.6773 116.91 -2.48903
-11.5394 112.556 13.9244
-34.1261 98.5903 1.84474
-26.762 138.378 8.4631
-13.971 121.671 17.098
-27.1504 137.339 9.56039
-5.83786 88.475 -4.09451
-40.7981 98.8207 7.83422
-41.6719 94.3425 27.2798
-19.4076 119.045 -3.31444
-28.8196 135.636 6.83738
2.90918 95.8291 3.61349
-22.0672 101.418 20.5241
-18.7051 99.1347 20.7852
-17.1615 82.9105 -5.49932
-23.8947 137.283 8.36586
-12.3173 116.142 13.8646
-12.2082 94.1826 -7.60536
3.28301 105.43 1.40598
-7.28744 101.323 18.9103
-33.2257 111.455 20.3622
-9.19202 124.279 -6.06274
-12.4883 125.688 -3.77989
-7.27057 123.745 10.908
-13.9246 127.979 16.5035
-15.0009 116.023 -7.05204
-42.3128 95.6327 11.1865
-37.4618 109.457 10.2263
-25.9917 102.871 22.4964
-0.75541 88.9345 1.69439
-19.2028 105.106 18.4155
-14.8049 139.596 12.2759
-28.1659 133.633 11.5839
-3.16851 96.8443 -4.59426
-19.1536 99.8581 20.1295
1.36548 89.3225 4.5398
-37.9297 138.876 3.24759
-37.0695 103.127 3.01451
6.30616 106.493 10.4152
-20.2319 86.4983 21.2504
-28.5706 95.3241 -1.98503
-36.8792 101.383 23.7977
3.59115 92.3152 7.16499
-42.4117 94.8052 11.2639
-11.7094 107.557 15.5715
-4.30693 111.967 -7.82983
-37.0444 137.432 2.37936
-32.5777 100.105 25.5038
-6.12954 123.146 10.4062
-30.3712 125.083 10.1886
-28.4826 88.6303 24.2316
-2.10281 77.7605 13.2497
3.11726 106.3 -2.08049
-35.6018 142.429 3.7964
-34.6207 92.5543 25.8412
-26.1081 136.896 9.29561
-6.97768 86.1838 17.0928
-16.1639 125.08 17.9399
3.88322 99.0525 11.907
-22.1322 91.7978 -3.90886
-29.6798 131.909 2.98337
-21.5202 90.618 21.2014
-28.2005 134.773 8.26179
-23.0508 103.821 20.7824
2.26965 89.8777 7.44371
-0.52206 96.0184 -2.69833
6.06724 111.34 2.40542
-23.9939 128.607 -1.28925
-34.0802 99.986 1.09473
-9.04816 112.079 13.7764
1.19564 101.222 -2.63378
-26.402 130.429 -0.766239
-25.8245 142.264 -1.88479
-22.2632 121.061 -2.41197
-18.3415 114.699 -5.0419
-42.3034 101.002 15.7505
6.73962 109.947 4.13962
-23.6521 138.37 0.975119
-29.7518 113.981 -1.8116
1.06591 86.3367 8.52031
-35.2596 97.6036 2.72551
-29.461 85.311 -0.860307
-30.5062 142.479 6.56995
-39.9957 94.5963 25.3265
-31.9443 129.525 7.22779
-34.7437 137.124 8.72484
-23.2317 139.955 1.54369
-32.8284 104.598 -0.354188
1.50202 78.704 9.60858
-35.4477 114.528 5.25431
-32.399 123.722 8.2302
0.580306 96.2391 15.3857
-12.671 86.4797 -6.20135
-5.61218 97.4498 18.0455
-28.2608 132.338 1.64881
-11.8605 96.3092 20.4611
-34.8336 113.947 17.9175
-40.4388 98.9301 6.71149
-36.2107 112.803 4.08052
-6.38307 119.767 11.0698
-5.70341 125.661 -4.63577
-19.4963 137.283 11.6167
-30.8139 125.507 14.6544
-24.5576 143.374 7.12568
-33.7443 122.056 5.81054
-20.7475 133.109 -0.382269
-31.0893 131.526 2.67076
-23.2771 119.41 20.3146
-3.97985 128.814 -3.71686
-27.5307 124.811 18.8389
-21.5138 107.865 -5.73313
-24.2372 124.368 -1.45557
-19.1858 130.836 0.884941
-30.0246 135.917 -0.438299
-13.7545 96.9142 -7.59467
-20.8553 152.826 2.74028
-5.91897 110.855 -8.21587
-16.2564 88.7701 -6.56494
-33.4676 136.808 0.267576
-20.7933 109.324 19.162
-38.7408 102.865 4.58453
-9.53593 101.079 19.6397
5.56495 112.029 0.780023
-25.592 150.384 3.93849
-43.6609 92.2575 22.0071
-32.5254 118.682 -0.168888
-5.41395 81.1206 -0.209166
-17.3386 139.344 -2.05217
-35.146 102.732 21.8047
-12.568 102.233 -7.63879
-2.97552 99.801 17.3843
-31.4569 130.941 2.2489
2.56399 99.4418 2.14305
2.83609 111.759 -5.46101
-33.1176 144.952 3.40403
-4.9019 82.1867 15.2622
-27.368 135.34 8.36594
-9.53893 122.439 12.4746
-23.9512 90.1476 -3.03859
-39.1327 138.962 4.38846
-36.5084 93.2128 25.8021
-7.64497 91.1114 18.211
-12.3384 98.1372 -7.92375
2.82722 116.07 -7.18078
-14.8046 87.6892 18.7558
-26.5296 86.8672 -2.27627
-19.5747 123.707 -1.25714
-27.0136 145.383 0.446089
-12.7305 93.2983 19.6634
-19.2064 134.49 -2.22597
-19.9024 135.198 15.2168
-24.955 144.892 0.00131357
-0.0851273 84.2978 7.44512
