ply
format ascii 1.0
comment Created by Open3D
element vertex 1674
property double x
property double y
property double z
end_header
-27.8927 99.138 -9.59528
-13.7275 85.3798 -7.80786
4.95453 114.857 -0.488585
-7.00831 88.2829 -11.2725
19.1854 120.879 -14.0862
-7.33418 114.921 -14.391
-27.5073 86.6314 -10.2795
18.9867 120.307 -0.640362
-3.8182 105.332 -15.8923
4.20976 120.161 3.56969
-28.6164 89.1037 -5.77689
18.2731 80.4124 -4.13587
13.0594 92.4944 -14.9058
-23.7089 109.838 -9.5259
15.0261 124.312 -13.5794
12.357 98.9044 0.29507
14.1103 81.5638 -12.6577
6.20079 94.8247 -1.98753
-6.11956 113.049 6.2455
15.0273 123.632 -10.3904
-1.68935 89.2442 -0.882703
12.1752 94.2397 -15.6145
-15.3337 93.5899 0.525931
-8.44767 114.457 6.60088
-2.61618 114.84 6.53804
-21.0679 96.9131 -12.2288
-23.6301 94.7952 -10.7807
-21.8706 96.1436 -12.0517
12.6461 94.6752 -15.5489
-29.6298 79.4346 -4.62356
-8.94606 106.658 4.91986
-2.0087 107.148 4.47358
-8.90534 113.111 -13.188
3.1841 81.1327 -5.23157
11.7238 88.768 -14.9885
-22.3341 106.434 1.09746
-15.5653 81.5896 -11.3646
18.5296 80.2629 -4.0196
-24.4191 90.3576 -5.35282
-9.62159 96.4915 -10.5088
18.4586 121.337 -0.0862193
-2.42502 109.303 5.24272
0.639782 103.454 2.32321
-16.4422 83.7655 -0.632241
8.96686 111.82 -2.68647
-2.90115 78.8696 -5.6316
-23.9865 83.0705 -2.20239
-28.9864 90.4795 -6.31635
20.626 77.6736 -5.2707
8.06757 84.0004 -3.0281
-2.45713 117.794 5.72761
-6.44252 99.2742 3.88489
19.1925 97.1418 -12.177
-0.202794 86.0381 -0.271538
-27.1594 84.3875 -9.99324
10.6232 121.993 -16.3854
-7.47121 89.3148 2.02796
15.9314 124.436 -6.63693
-8.98687 87.6244 -9.97773
17.7927 82.6278 -4.15496
-2.98023 78.0455 -6.00158
-14.7062 84.5809 -8.04073
10.0233 108.633 -2.48669
-25.0801 106.53 -2.98952
14.6468 112.16 -0.298249
9.2055 105.38 -17.6575
-3.38621 91.4565 -14.3319
12.2006 94.2723 0.697207
-29.2463 93.7751 -7.54969
5.16865 120.6 -15.7958
-10.2923 82.2681 -11.5257
-15.607 95.5625 1.60218
17.4576 125.413 -3.35697
-5.95931 98.5488 3.80182
15.9563 123.395 -11.6783
-13.6561 85.0375 0.302163
-22.2246 108.609 -10.8576
-13.2572 107.655 -14.2652
-18.7114 80.1076 -2.51813
25.1918 125.38 -7.02844
-12.5691 78.7442 -3.86141
-5.24138 101.072 -13.5909
-25.0809 94.1587 -3.2084
5.14017 105.102 -17.724
-8.5436 105.232 4.43777
-2.4503 79.5192 -12.7186
-14.7105 98.4572 3.82359
3.03155 117.081 4.32896
-9.29643 109.676 5.53963
-28.7391 79.9736 -4.11091
18.1782 94.2347 -1.00519
18.1001 126.793 -4.5446
1.01242 99.4096 -17.4922
-14.8733 110.022 7.07357
-10.5918 100.919 4.07746
-26.1168 79.1018 -5.43646
22.0172 102.293 -2.36534
20.3167 81.3288 -3.30661
4.90714 121.48 2.87196
-7.45599 89.8032 -11.2992
-17.4753 109.934 6.1711
-2.90141 91.7141 0.301715
-26.4935 89.4362 -9.83823
-17.6989 87.406 -8.50391
-16.8198 105.785 -11.5705
7.81311 116.843 -16.2271
23.3732 96.7715 -5.7212
1.14084 88.7098 -1.11611
23.8089 93.3084 -6.28413
17.039 110.747 -12.2548
4.75454 104.179 -18.0635
14.3616 114.83 -13.228
-17.8021 84.0425 -6.95389
-16.6275 92.2274 -0.631158
24.0932 88.9754 -7.45567
15.9114 93.4948 -13.623
16.9624 123.238 -10.2955
-28.2942 98.4872 -9.15781
17.1025 91.223 -1.01622
-16.6129 99.1155 3.37801
4.47965 86.3089 -1.81899
21.2695 124.08 -7.44893
3.04571 92.175 -16.3929
-18.484 79.1876 -3.25474
19.906 104.007 0.443379
-8.47964 75.8758 -5.72936
17.9696 121.08 0.58292
-2.46645 89.1192 -0.61744
-18.6702 91.0358 -11.6363
11.4452 79.9267 -4.99596
18.7292 122.992 -8.76896
-3.16521 79.3412 -14.6365
-18.4447 88.3885 -2.38487
-11.1267 99.4046 4.2757
13.7577 116.195 -0.884236
22.3138 77.9313 -5.89015
13.9271 104.499 -14.703
13.9776 115.552 -12.1621
-19.4998 109.189 -11.5756
15.2305 112.963 -13.904
18.7215 122.124 -5.52746
-8.79468 83.2059 -0.218172
-1.98466 109.134 5.06181
7.74446 121.092 -15.8033
-27.7286 101.743 -8.93458
10.2029 116.197 -16.8939
-27.5649 82.2772 -5.70808
-6.28894 108.362 -15.8974
-2.49125 105.489 3.96887
-12.2322 87.8758 -9.12431
9.1962 112.404 -17.4076
14.4408 89.8119 -2.03091
-18.5372 114.512 2.37616
-29.9185 90.3401 -8.42528
-27.8111 84.5967 -7.22178
-16.493 94.0263 -11.8311
-3.38492 97.54 2.60884
18.6094 94.1495 -1.12875
-0.397326 107.973 -17.648
7.51815 77.0434 -5.37371
12.2457 116.602 -17.049
14.8372 107.311 -13.6429
-23.946 97.7266 -1.04043
-8.23373 109.578 5.51317
12.9379 115.505 -16.2255
18.5637 111.524 1.10329
2.01693 85.6971 -15.2782
9.71441 112.52 -2.63542
13.1859 81.6145 -12.7453
15.7796 115.887 -8.99581
17.7741 97.1542 0.244165
16.8782 123.248 -7.34833
-16.0041 93.2872 0.184566
-7.29834 114.112 -14.4259
13.3425 114.353 -15.6903
19.0031 106.257 -9.6947
23.3748 86.6567 -10.7285
20.621 93.6816 -11.4371
-12.7779 94.9977 3.12861
-8.04571 109.279 -15.619
5.28266 106.346 -2.42118
22.0446 106.911 -4.30267
2.81113 95.7013 -16.7538
4.90309 94.7382 -2.12754
14.9152 81.7285 -4.97319
19.663 95.9035 -11.5861
-20.3626 87.4286 -2.80634
1.21343 82.6419 -3.15232
3.8402 100.323 -1.63877
-16.9862 85.7884 -0.607771
22.9522 101.561 -5.08885
-0.208469 85.5988 -0.157396
27.2149 124.065 -8.34893
3.71856 75.5513 -4.95689
26.2255 125.616 -6.96613
8.98619 100.662 -16.9348
7.71026 91.87 -0.507701
21.4812 125.253 -6.5094
-9.77453 113.046 -11.6788
3.78401 76.7214 -5.1809
2.81207 103.87 -0.982342
19.0865 99.391 -11.85
12.4116 111.442 -16.5906
-12.6134 101.465 5.0916
2.42847 97.4583 -17.2699
-6.98377 104.931 4.45023
8.54148 102.993 -2.49823
21.3291 77.929 -5.36855
4.4882 76.7926 -5.06406
3.4813 120.885 4.69047
9.57236 88.7012 -0.433077
-15.2477 87.5299 -0.652524
0.293756 117.009 5.91555
0.803209 112.959 -16.0527
8.50739 92.9887 -15.8564
11.0365 96.6365 -16.3356
-28.7861 89.8701 -6.30657
-8.89805 83.8162 -11.7152
10.0346 92.4551 0.334316
20.9059 102.953 -9.63122
20.576 122.18 -9.12175
3.99024 90.1696 -0.903263
10.293 94.4001 0.399299
-21.1635 83.8362 -2.42677
-9.02749 77.5207 -5.28937
12.0551 120.465 -2.15128
1.0006 103.445 -18.1107
-3.7761 88.8888 -0.099394
0.668973 94.3903 -16.0087
-3.85081 109.65 -16.9183
20.0413 117.143 -1.60259
-25.6591 79.824 -3.0436
-20.6801 109.06 1.65045
18.7604 108.311 -9.50757
25.2268 124.535 -9.62859
10.7242 98.3718 -0.710826
-2.69856 88.7925 -13.745
9.77814 81.3013 -5.51129
-14.8508 88.378 -0.741047
10.3333 111.154 -16.9979
22.2576 100.58 -6.54364
12.6549 102.941 -1.16111
2.57436 101.196 -18.0028
9.06636 87.2356 -1.15999
-7.03001 82.1114 -1.07802
17.0129 120.378 -11.0119
20.3639 109.106 -8.01097
20.0396 105.454 0.08708
16.3802 122.848 -10.5544
0.358588 100.925 1.11851
-20.3637 89.4694 -3.43
-6.39893 96.5755 3.57339
-2.21476 101.3 -15.7268
19.9802 99.853 -11.027
19.9358 124.994 -6.29115
6.05076 123.092 0.972899
-8.08508 87.9695 -10.8106
-10.577 111.948 -11.3856
9.47649 81.6492 -12.931
11.8468 123.34 -15.0558
-23.1247 86.3686 -9.09215
-23.2989 95.3413 -11.1191
17.3721 96.465 -13.2494
5.68504 89.8088 -16.0642
-25.0883 105.332 -2.44045
-28.2299 99.5273 -8.24031
-14.2695 103.652 -11.5252
-4.16793 111.878 -16.1478
-9.33817 80.7431 -2.15457
17.7002 92.623 -12.648
-21.3593 109.241 0.628391
13.228 100.226 0.225921
21.392 77.5888 -8.32231
21.4416 124.593 -14.5121
-1.66508 81.0168 -3.79401
21.5017 105.342 -7.75436
12.6057 103.714 -16.2831
-5.8186 116.557 7.22932
-17.4165 107.134 5.35417
-15.3055 103.815 -11.6383
-29.1665 94.4259 -8.73766
-8.58663 112.654 6.23631
-26.345 79.7922 -5.09843
-15.955 107.237 -13.1164
22.8889 124.45 -14.3629
-22.791 83.6915 -6.37032
-2.13027 82.4997 -2.83466
14.8927 93.4381 -14.1228
13.485 80.1023 -12.2967
-9.6503 97.5912 4.04367
-30.6828 81.404 -5.08655
22.2669 79.7033 -7.20426
8.32699 85.1451 -14.3307
-25.3114 106.298 -4.80094
23.6518 94.1704 -8.49055
19.6342 108.268 -8.85918
-1.38516 87.4404 -13.4414
-29.9714 88.4131 -8.09895
-13.5765 97.8059 4.04396
-1.40174 116.64 -14.9892
18.6595 122.436 -7.44488
14.7891 107.551 -13.6336
19.6583 118.455 -0.805456
15.4068 123.043 -8.68868
-5.94452 83.7824 -11.6456
11.7616 96.3245 -15.9971
13.8393 101.771 0.233031
19.0613 112.414 0.856346
13.8096 85.8661 -13.6372
-17.4697 81.9864 -9.96939
22.8541 82.6129 -11.626
15.571 76.1909 -5.77746
3.87946 90.3764 -1.11815
-27.7428 96.8261 -7.26122
0.220454 82.4656 -3.1877
15.371 113.787 -13.6721
-8.14331 115.144 -12.8622
-0.540984 105.595 3.51486
16.5098 77.9955 -12.5464
4.28777 100.889 -17.8968
-10.5036 87.0167 -8.89983
24.8088 124.649 -9.7187
-25.733 109.765 -5.36766
-10.9354 89.9145 -9.59299
-16.9467 106.635 5.60987
-26.7736 98.3504 -10.7889
-9.52651 80.569 -2.32967
7.33101 94.8813 -17.1924
19.9323 76.99 -5.55366
-2.72359 99.3277 -15.3104
-5.918 75.2392 -6.5451
-26.8925 105.818 -6.17337
1.12484 119.611 5.54747
-20.9756 93.769 -1.6148
-10.5048 89.1899 -9.59144
2.08196 115.856 -15.991
-20.921 83.9958 -6.31995
-3.81011 113.198 6.34057
-8.50892 105.084 -15.2568
19.9446 126.955 -5.44225
19.9203 115.53 -0.519986
17.7407 108.739 -10.5078
9.20716 78.0579 -12.3298
23.4486 96.3986 -7.60598
-16.973 84.5902 -0.680603
21.6472 83.3082 -2.46448
5.99327 78.8846 -12.2992
9.83704 109.185 -2.52771
-17.9822 82.6444 -8.57906
-20.4419 112.351 0.178326
-9.89325 100.526 -11.6437
19.1584 123.118 -8.66491
21.0377 97.2797 -1.25826
21.4627 112.276 -6.21811
10.41 120.361 -17.0024
13.837 100.376 0.679707
24.5254 87.1508 -7.77589
-9.39997 87.8287 1.9115
4.03489 107.399 -1.23855
17.08 76.2515 -13.0836
23.8164 94.3968 -6.19345
11.6285 91.7996 -15.6771
24.1843 127.463 -13.8025
3.64679 115.19 -16.9859
11.4721 111.678 -2.30021
23.0041 99.578 -4.38275
-5.31991 78.7314 -5.05735
-26.939 83.3708 -7.48055
-25.1452 97.2329 -1.90305
15.8209 119.477 -11.2818
-7.37413 98.5 3.93502
-7.56149 80.5427 -2.62425
21.9966 102.207 -6.59766
-27.6697 86.9489 -9.15693
-0.825736 110.219 -17.063
-18.2829 99.1704 2.46152
13.1645 94.6067 -15.325
21.3011 101.616 -9.56402
24.6148 123.975 -10.7069
1.70214 115.953 -15.8098
18.5132 77.9915 -12.6136
11.866 106.523 -2.00235
21.5062 90.3593 -1.58665
10.0966 76.5615 -5.03371
-11.1528 83.659 -0.230574
-3.54196 103.641 3.81518
17.2546 79.7191 -12.0855
-19.1186 89.6487 -11.173
-8.65702 106.57 4.89764
-23.4295 110.044 -3.51617
-21.3371 77.0142 -4.805
20.6284 83.1877 -11.9221
23.0626 101.192 -4.53476
-18.2261 82.56 -10.5637
6.64582 113.149 -17.6432
-19.2755 96.942 -11.7982
6.15254 112.402 -17.5083
10.8819 111.022 -2.40517
-3.77701 82.2769 -12.9764
-29.186 86.9187 -4.52828
21.1943 76.6663 -11.191
13.1418 110.679 -15.7899
-14.057 107.108 -13.9153
-1.78343 93.44 0.0103155
-5.46122 105.849 4.85457
-11.0457 83.6934 -10.9854
9.12278 103.725 -17.6028
-8.29976 99.2846 4.0625
-2.13891 83.579 -1.37671
22.1578 79.1745 -8.16585
9.72247 97.2662 -1.07281
23.308 122.27 -10.9516
-0.78038 78.6233 -5.66604
23.0225 81.442 -4.46666
-21.467 86.01 -8.56443
17.5605 102.598 1.04069
-13.213 108.3 -13.2893
-21.8174 88.4688 -10.5692
-16.6423 101.726 4.42974
14.2921 102.033 0.524215
12.4266 118.986 -12.3689
18.8693 90.6869 -12.5317
19.7129 82.268 -3.39217
15.4017 83.9447 -12.5104
12.765 90.9574 -0.805846
-7.08263 82.4649 -11.9819
-16.6332 86.2843 -7.56131
-8.7399 91.7159 -9.93339
24.557 86.8339 -7.83643
15.9985 114.255 1.31785
15.3739 78.0435 -12.735
16.2936 119.572 1.80461
-0.15409 114.456 5.61017
10.6868 86.6721 -14.269
14.1168 90.99 -1.17625
-2.35836 105.265 -16.3106
29.3104 128.74 -10.9229
18.8854 121.05 -0.458285
9.43887 122.697 -2.30685
-27.1787 97.1202 -10.575
8.54798 107.162 -2.64565
15.758 94.4493 -0.495933
13.3554 76.2648 -6.0153
24.1686 126.385 -5.60129
19.9736 126.299 -13.9149
-17.9377 83.4669 -7.56428
10.6543 90.6201 0.23401
-29.5724 79.6108 -4.11358
-9.57601 82.1986 -11.8432
-26.9263 91.8091 -9.56896
19.4279 121.054 -10.4676
24.2981 86.8135 -6.83103
-3.43705 90.8279 -14.0758
-22.6899 83.2232 -6.35616
9.36501 81.9013 -5.37366
-3.99085 104.869 -15.6868
-2.47337 92.4044 0.264575
4.58106 115.17 -17.2234
-4.53267 79.4624 -4.15604
14.3953 123.013 1.33859
6.63107 115.953 -16.4186
17.5602 88.6263 -13.1
-6.854 98.3156 3.8717
22.2836 100.389 -7.06086
-26.3448 92.0494 -9.53139
24.5097 86.2683 -7.35763
11.6566 106.121 -2.04626
-15.1601 109.754 -11.7289
-4.13083 91.7958 1.00653
-9.02344 106.913 -15.9417
9.12041 80.6067 -5.50438
21.5684 111.461 -6.6718
19.7696 116.052 -0.270601
18.3778 114.243 1.11893
10.1242 103.338 -17.4073
-0.223061 111.393 -16.3668
16.8162 90.0666 -1.84898
8.50481 82.3584 -5.03992
14.3162 80.4827 -12.4051
23.4805 84.0692 -6.20231
23.2614 85.7026 -3.76989
-9.42841 113.661 -11.6694
-0.00518236 89.7456 -15.2438
-3.10466 111.366 5.83788
20.9387 111.406 -1.91459
10.5036 112.046 -2.50365
-11.8229 88.7758 1.05713
18.905 102.929 0.741747
21.2165 124.577 -7.02821
19.6763 117.515 -0.518801
-13.8324 111.6 6.70676
1.21227 81.8296 -4.04897
3.02012 107.394 -17.7301
13.2608 114.576 -1.37585
14.645 81.8059 -5.00417
-14.8925 84.5651 -7.82164
16.6542 106.675 1.10513
-5.06785 110.736 -15.7366
24.1919 82.2108 -10.3233
-2.72558 114.118 6.55211
-7.78566 108.852 5.34929
3.54135 117.595 -16.549
20.7662 98.4744 -11.0387
15.609 86.5295 -13.386
-16.1896 79.3912 -3.16877
-9.98196 77.2878 -5.34305
-5.57987 79.6234 -13.6352
0.231849 104.336 2.86837
1.61949 82.5572 -3.21328
-9.46002 105.376 4.47757
1.45648 108.877 -17.0987
-19.8526 95.585 -11.7155
18.4884 125.025 -15.8739
-3.58165 110.511 -16.8615
21.6249 103.274 -7.15984
6.89219 96.5903 -17.3489
1.64465 85.9641 -1.32248
13.2501 87.3577 -3.13092
16.3633 94.6376 -0.619985
10.7438 98.0574 -0.577822
2.0588 101.954 -0.715207
20.1783 109.985 -0.930527
-17.0533 109.057 -12.7678
6.94844 85.8788 -1.71871
13.5519 118.52 -1.13489
16.494 121.374 1.79334
-15.6263 106.741 6.1435
12.0312 109.819 -16.694
13.9982 117.476 -0.522009
-28.672 79.4464 -4.49161
-0.54171 81.9349 -14.3015
10.1548 105.958 -17.3767
17.3546 125.57 -7.44592
-7.46608 82.5489 -12.0447
8.55634 95.7759 -16.953
10.0651 82.0179 -12.8693
-27.7041 83.2625 -7.17605
-21.3667 109.109 -10.8552
-27.1233 97.1866 -5.74598
23.4302 121.9 -11.6985
18.773 76.4397 -5.52856
-21.4476 88.6486 -3.59976
-25.4367 109.741 -8.33585
16.9614 77.7399 -12.6518
3.61963 90.5875 -1.37494
-17.5513 91.27 -11.7671
-16.5466 107.5 -12.5176
-6.36617 118.064 7.40743
-18.7212 85.4867 -7.09082
-20.9345 96.8039 -12.2481
19.6304 79.8502 -11.9647
20.8334 106.788 -1.1715
18.4024 77.0355 -4.96013
19.8612 77.0912 -11.9565
-12.2435 90.688 -9.62703
20.9878 100.639 -10.2497
-19.8519 90.8427 -10.9856
10.7541 107.783 -2.33033
22.3548 120.721 -13.6898
23.8136 93.3523 -6.57036
16.304 79.0173 -5.1721
12.4535 116.214 -16.7958
-18.0032 84.9301 -7.0176
-13.5446 91.7117 -10.5413
-11.9569 106.508 -14.5141
18.1951 124.608 -15.9878
-17.1633 83.0972 -8.4903
-10.1728 112.351 6.72482
-14.7671 85.7139 -0.100762
-23.8672 104.507 -0.943858
16.0362 79.2768 -5.20026
23.0646 78.8437 -10.972
-15.1996 88.3882 -9.74337
13.6209 87.648 -14.0952
-5.68539 94.7204 2.99514
-27.5424 81.4166 -6.4076
-16.3578 87.8259 -1.15344
-18.0255 97.3319 -11.3755
-26.1887 103.729 -3.65717
11.5678 86.1858 -13.9104
21.8382 121.883 -11.8756
-20.863 104.354 2.30221
17.1716 84.2223 -12.244
22.685 100.278 -2.50967
14.69 124.249 -11.5855
-6.23463 102.492 -14.4472
-15.9179 90.93 -11.3323
10.2511 102.799 -17.2534
-26.8268 93.5649 -4.62677
-18.4541 79.9245 -2.64613
10.3549 121.091 -2.44424
16.1863 124.563 -15.6719
-4.9807 80.5537 -12.6944
-13.8916 82.8294 -0.524443
21.5654 80.2369 -3.72032
15.2714 124.355 -6.39472
-17.7691 94.1995 -11.7565
-16.4288 91.1931 -1.19441
11.9953 85.9526 -13.7976
19.345 115.383 0.295421
5.0043 90.3191 -0.798502
-16.7695 112.429 5.73538
22.499 86.1908 -2.9648
10.876 118.083 -17.2607
-6.16685 76.5836 -6.41959
21.7611 123.496 -8.17974
-7.54563 84.52 -11.3016
6.91322 104.26 -2.73432
12.8907 118.261 -12.355
-27.275 104.481 -8.75652
13.3868 92.2004 -0.365106
-23.7711 83.7744 -7.2959
-4.55392 109.626 5.50256
8.20835 117.925 -16.3313
9.0266 113.865 -17.3553
-14.9779 85.8311 -0.170483
12.0703 105.329 -16.7182
17.9449 81.5669 -12.2848
21.082 113.453 -6.31875
22.3153 86.5351 -11.6605
-1.77673 106.292 4.13311
-2.85255 80.8565 -13.5428
10.4682 114.751 -2.55893
-20.4078 83.2951 -6.51147
1.24348 99.2057 -1.01134
-9.60541 98.1108 -11.034
-17.3723 84.035 -7.20502
0.268062 116.559 5.82977
-7.51081 117.418 7.32354
15.4205 125.292 -7.33288
18.3993 119.711 -3.26474
10.2811 103.488 -17.4296
11.0076 88.4756 -14.9883
-19.3367 101.493 2.95126
7.97504 121.547 -16.0055
11.9713 121.754 -14.5131
20.9911 77.1186 -5.93798
12.8894 101.008 -16.2444
4.39555 98.7336 -17.4252
-4.97712 90.4603 -13.2333
22.381 100.514 -6.14024
-15.962 97.948 3.04575
18.2903 96.4826 -0.125814
13.0549 122.796 -12.267
-10.5868 105.794 -14.5136
-23.3709 108.773 -2.17144
21.364 109.494 -2.47435
-9.90927 75.9661 -5.47361
7.21685 107.533 -17.7816
2.17693 85.8478 -1.71806
-13.0843 93.2653 2.33428
12.6296 94.1963 0.556864
-27.0512 83.3365 -8.10738
-12.7149 115.744 7.26472
2.70882 78.782 -12.3419
9.30387 109.56 -17.1366
3.09722 108.67 1.17395
-26.9426 87.3292 -4.77164
16.1663 102.397 0.838686
14.5172 123.647 -9.1594
9.54227 106.43 -2.50559
-14.6942 102.354 5.31422
-15.7724 106.326 -12.3966
13.7546 124.221 -0.588153
-22.4724 97.3649 -0.408236
21.4029 110.078 -2.66972
24.2001 88.9166 -5.44705
23.5636 122.314 -11.4422
-5.01942 81.6534 -12.3184
-27.1881 104.891 -8.84629
16.2161 84.4532 -12.4846
-26.5275 98.9549 -10.9169
-19.0179 84.9133 -1.14871
11.7132 83.3218 -12.8295
-9.265 111.37 -13.6344
21.6118 92.8641 -1.58212
10.7105 88.3792 -14.923
20.3412 107.261 -0.567276
22.7313 101.807 -4.24046
12.1392 102.04 -1.24458
0.59684 85.9816 -14.3808
-17.9278 114.228 3.48101
0.605334 91.0492 -15.6325
8.12863 89.6002 0.32578
-23.5217 94.185 -10.5546
21.3243 81.6459 -3.14026
-8.51379 89.3818 2.3801
13.2298 107.008 -15.8752
-26.7692 83.9007 -7.66833
-25.6972 88.1148 -4.78403
-29.8901 82.8693 -6.59456
9.39491 113.59 -2.64255
-15.9881 86.4802 -0.525209
-25.5584 103.087 -2.54785
-3.69671 88.436 0.00531881
18.4623 97.1072 0.145767
4.14656 100.79 -17.8989
4.94729 111.548 -1.14152
-8.73951 111.117 5.8126
-21.6861 100.259 0.894269
-25.3286 83.9428 -6.28672
-10.59 88.6757 -9.46043
18.9058 115.828 -7.37208
-19.5086 111.756 1.42347
20.6903 106.505 -0.939772
7.24976 102.28 -17.7363
0.0292157 117.137 -15.2839
-2.30423 97.5943 -15.6782
-24.0671 87.2845 -10.7815
28.0853 123.919 -9.40271
10.3055 103.173 -2.16504
24.4114 124.806 -9.13421
-22.4993 82.7478 -2.18037
-20.8424 104.77 2.24789
-14.8278 81.7405 -12.2669
-23.0696 91.582 -10.2765
17.586 122.347 -11.0794
15.85 80.4909 -12.1639
10.4386 120.278 -2.42176
-14.7653 108.243 -12.7378
-16.8411 82.8507 -9.08838
9.34053 88.5451 -0.471172
-5.1564 87.6631 0.961325
7.22798 77.3109 -13.7724
0.719352 88.0818 -0.834266
-24.4767 90.1833 -10.2115
-3.63781 96.2795 2.11615
-20.5662 83.7555 -7.20431
28.7194 128.26 -11.6254
-14.9672 83.9039 -9.11534
-11.8089 79.0551 -3.69661
-10.1221 112.863 -11.2595
-22.5723 107.019 -11.6443
9.78028 89.9328 -15.3555
-8.82977 97.371 4.00148
0.994223 90.4997 -15.7696
-9.748 101.91 3.98881
6.40342 86.8274 -14.6552
-22.9616 103.205 0.336045
16.4383 110.882 1.34502
-24.8854 82.9495 -6.79478
18.8626 119.945 -8.43604
-9.92065 115.678 -9.77172
10.2903 103.007 -2.14856
6.1226 103.01 -18.0042
10.2012 94.5443 0.30986
4.82944 84.4006 -14.3914
17.3001 122.203 -9.70224
-13.4902 111.076 -12.1092
10.9675 89.8842 -15.6815
-26.0981 79.6274 -5.35974
-2.77912 101.863 3.48006
20.2402 95.253 -1.09428
-14.3442 86.2971 -0.186572
-17.6662 112.228 4.34234
5.90097 116.707 -1.2097
-14.968 100.598 4.76976
-1.93438 85.4621 -13.1574
-7.4485 99.749 -12.0171
-9.36468 92.1335 3.30946
22.0601 88.6805 -2.03051
-2.0801 114.529 6.45495
-28.1038 89.2253 -9.74087
-20.7989 103 2.28313
9.34721 77.8456 -12.5673
-21.4759 108.476 1.38208
-23.1856 109.522 -2.85737
1.16619 122.079 5.39193
21.2235 127.829 -4.37008
6.8229 91.0834 -0.859356
3.19656 115.241 3.64939
-0.83583 104.435 -17.3215
19.9306 113.702 -0.310565
-23.8759 86.4867 -9.48589
-10.9137 94.2627 3.52212
-24.8645 80.0978 -2.92219
13.0364 87.1661 -3.18359
8.64723 91.8097 0.15612
5.62975 118.017 -0.493466
15.9542 122.101 -14.1544
7.48083 98.6086 -17.3309
2.51088 93.6854 -16.2458
-5.25178 113.61 -15.2633
-1.82091 118.427 -14.5937
24.4313 128.205 -4.91065
16.1373 110.621 -13.1984
24.6244 86.1948 -7.9307
-26.2622 98.2032 -3.9021
5.33497 82.4467 -13.2583
24.3232 80.341 -10.6789
-10.7835 80.4265 -2.33356
-4.99214 96.19 -13.0382
7.39983 93.3958 -16.6144
-2.04696 85.5921 -13.0357
6.29209 83.134 -13.4573
22.1244 100.971 -7.63158
4.39733 111.704 0.16245
-24.9377 92.6272 -4.24993
26.4721 123.062 -8.55981
7.98336 112.919 -2.74696
4.341 112.035 0.473939
18.8212 120.44 -0.0730521
-9.27975 84.8986 -10.3622
-17.8665 101.981 -12.4326
14.2849 105.176 -14.2975
-26.6495 94.7955 -9.87861
12.5715 105.711 -1.77485
-25.7203 104.265 -2.79258
-27.5948 83.2827 -6.6271
-1.47926 86.093 -0.209473
4.16997 114.851 1.91846
13.5395 116.736 -1.10682
18.2003 95.0484 -0.962274
-7.59806 96.9538 3.83712
-0.806708 88.6933 -14.4063
14.7352 99.483 -15.1645
21.5697 97.4509 -10.6433
-25.661 98.5914 -3.18614
12.8239 118.021 -1.75767
-8.59967 109.406 -15.6283
19.1957 124.031 -8.39039
23.1516 98.1269 -4.26628
-4.07373 104.905 4.10466
-28.7654 88.1172 -9.55059
16.0045 123.506 -12.2999
-21.0252 107.237 2.37955
14.774 100.641 -14.8589
-8.97645 105.122 -14.9561
-22.4446 86.9815 -2.95742
5.01228 82.2969 -4.6431
-17.5118 91.1868 -11.7515
15.4114 110.554 0.390346
15.8295 109.073 -12.6893
1.88658 87.3838 -14.9655
-2.83315 107.557 4.85766
21.4476 106.298 -2.71091
5.54471 88.2699 -0.322572
0.142827 99.1933 0.282565
-18.6873 100.992 3.13257
-17.1268 83.6898 -7.79798
11.339 109.659 -16.7712
26.3688 128.338 -13.4108
11.0229 88.0771 -1.60331
15.3677 115.947 -9.19389
-18.5232 111.667 3.21181
-6.93073 79.1147 -4.31079
24.2116 88.5429 -7.54827
-5.12598 91.9339 1.33034
23.2196 88.9695 -3.14604
-8.03192 109.373 5.43457
23.7282 126.42 -5.27546
10.7785 121.477 -16.2233
-20.1673 105.058 2.71565
-25.7613 83.4459 -8.87089
12.0802 93.7657 0.70888
29.7819 129.09 -10.3535
5.44261 121.242 1.65272
5.72681 110.951 -2.09994
7.90522 113.896 -17.5646
13.8363 89.9137 -1.91479
0.274583 117.345 5.96013
14.5323 114.767 -13.1247
4.98033 93.0966 -1.75891
26.4908 126.889 -7.71871
12.2844 91.0438 -15.3609
13.5885 114.394 -15.4373
22.1225 124.716 -14.2717
-29.7685 87.4584 -5.70329
11.4812 91.5602 0.353661
18.3937 99.9703 -12.1793
-26.8812 83.2754 -8.68219
-21.4752 97.2096 -12.1688
-15.5112 108.371 -12.9037
6.63875 83.4951 -13.6533
-26.2598 83.5235 -7.1661
-6.80775 82.6339 -0.714088
-23.2395 109.147 -10.7427
27.1921 126.942 -9.22908
-25.8926 79.3143 -5.60872
-9.87567 88.8504 2.59916
-20.066 85.4213 -6.82642
15.6274 98.156 -14.5375
8.45199 95.1569 -16.7047
5.23338 104.813 -2.46195
-14.3531 116.801 8.28642
-0.646147 79.9584 -12.6222
-12.3463 103.551 5.20819
8.20129 88.574 -0.210608
20.4608 111.751 -1.02777
-27.9308 92.6335 -9.84259
-3.65468 120.335 6.22455
-11.8765 85.7892 -8.50156
-16.3489 104.575 5.42886
-11.1591 81.3073 -13.1459
18.7955 90.3651 -1.22561
13.6109 113.358 -1.14417
-1.36426 117.089 -14.8617
-5.27029 117.781 6.84017
-24.4715 94.6699 -2.81486
12.1473 102.956 -16.6368
-5.04293 90.2599 0.77613
-2.36473 79.313 -14.0879
20.9493 99.405 -10.5942
16.8645 114.016 -10.26
14.7172 115.074 -12.3037
-22.7204 107.514 0.0684356
-26.6103 97.2985 -3.91317
10.0363 89.5721 -15.3455
9.48511 80.6015 -5.47603
-7.76216 99.9835 4.0311
-10.8443 81.0291 -1.77705
-29.5022 86.0587 -4.38073
-13.3395 84.1482 -10.0636
19.2439 97.1174 -0.0232506
-20.0783 88.9215 -3.20681
13.1137 112.771 -15.7846
6.10303 83.9644 -2.88757
3.92234 101.764 -1.90382
3.35546 100.46 -1.549
21.2046 126.987 -4.77836
21.5978 126.219 -13.8123
19.2116 116.044 -7.24086
-2.96369 78.7958 -5.69172
-16.6676 96.1374 1.29103
-16.8128 82.3974 -11.7885
-12.4481 95.252 3.64585
-1.56203 96.4419 -16.1765
-27.2538 102.812 -8.01605
-21.8704 91.6612 -10.4667
24.2186 122.648 -12.448
12.3831 85.5781 -13.6128
-24.349 111.409 -8.96855
-13.8153 84.5972 -8.99302
21.4333 78.7866 -7.76894
22.6502 125.668 -6.52256
28.1319 128.822 -8.78211
-24.9952 105.499 -2.3914
18.7416 108.03 -9.44732
3.89308 95.0375 -16.5788
19.7716 111.031 -0.165008
-20.3821 107.423 2.92748
-19.5933 78.6541 -3.85389
-18.3905 81.0973 -2.10082
-0.185666 79.2017 -5.58803
20.921 91.0609 -1.24929
-10.8972 84.6054 -10.4064
17.3253 89.4902 -13.0236
-16.9836 103.285 4.75479
-0.0635716 91.477 -15.402
16.2245 123.867 -7.72356
1.36329 86.2704 -0.800667
4.30218 108.691 -1.12287
21.9716 125.735 -5.89928
-12.1489 95.3895 3.93912
13.5596 79.8188 -12.288
2.30126 108.27 2.3348
28.4136 129.791 -9.35798
-30.2044 88.2217 -8.21186
22.8521 84.3664 -11.595
6.19177 117.077 -1.48027
-22.9711 105.933 0.23505
-17.7658 83.3147 -7.85443
-17.5218 114.867 3.86878
5.19048 83.2362 -3.17364
-24.0045 92.2933 -3.98648
20.6577 103.386 -0.312107
-4.62321 99.3833 3.6468
-29.9083 90.0354 -8.11755
-10.9462 98.771 -11.1163
5.60068 85.7911 -14.3817
12.8207 118.906 -1.68432
19.3546 78.8899 -4.13648
-21.2089 106.559 -12.4079
-28.8642 91.3724 -6.56938
7.7389 109.576 -17.6708
19.2619 112.813 -9.20308
23.6824 78.2162 -10.6965
12.0824 108.722 -1.98227
-2.77045 84.9592 -12.7867
17.4167 123.944 -7.16757
2.26278 81.4297 -4.7859
9.50668 76.8558 -4.95799
22.402 101.06 -2.35463
13.2544 86.168 -3.79281
17.7309 119.882 1.1631
22.3236 96.7983 -9.8534
-0.0466761 84.9135 -1.00881
21.056 107.71 -1.62184
2.58466 93.1396 -16.2567
15.3724 112.891 0.712378
19.8418 78.84 -4.1213
-14.2914 99.1741 4.48838
-25.2206 98.07 -11.3921
6.04573 101.192 -2.54145
26.6569 122.572 -9.26729
7.79572 102.443 -17.5969
12.2057 114.939 -16.5145
-4.99795 105.139 -15.7432
-23.8105 102.112 -11.8099
22.2678 80.5649 -3.69614
10.0997 108.395 -2.4643
-9.14218 92.4197 3.39428
-11.1169 112.532 6.89308
-24.5018 85.1298 -2.78053
8.23729 79.099 -5.51718
6.12299 106.639 -17.5065
-3.20839 93.8686 1.17065
-4.99587 109.563 5.51071
18.9264 121.162 -9.83861
-8.37205 82.706 -0.559267
-19.1952 84.4749 -1.22322
13.0319 101.512 -0.35313
15.1613 124.195 -11.1355
-19.5478 106.622 3.35458
17.6794 87.9885 -3.01223
-16.4064 116.079 6.88082
-9.44078 112.207 -12.8352
19.1354 115.309 0.463372
0.587241 111.318 -16.3162
-20.5806 94.4098 -1.04868
-4.2949 112.366 -15.999
-25.3427 97.8792 -2.31866
24.1137 88.3593 -9.38758
-0.965652 103.979 3.01853
19.8112 111.351 -9.18005
-6.32729 82.6231 -0.774255
-27.436 83.2565 -7.19552
24.6417 82.0373 -8.54613
-9.3765 97.1323 -10.6398
-7.36369 99.0145 3.96794
15.6097 84.5871 -4.08153
-28.9785 89.4738 -6.69328
11.3649 116.619 -16.9616
11.3595 118.082 -16.3511
8.41639 90.2431 -15.1506
-18.792 107.651 -12.1415
-12.0979 83.3985 -10.7943
15.8299 114.397 1.28758
11.345 93.0766 0.566653
1.85408 101.848 -0.552328
-4.48348 86.4595 0.446311
13.3808 116.473 -12.4095
-21.9066 86.7155 -2.69231
-26.7646 104.974 -5.64954
-23.7656 100.652 -0.285138
7.54834 113.477 -2.57439
24.4677 78.5376 -10.6022
-12.9537 103.31 -11.4766
15.4712 91.6594 -0.799689
3.53413 90.4948 -1.31313
-2.79437 96.1139 -15.3283
-16.4277 98.1534 2.98063
7.13445 101.443 -17.6991
17.7406 97.7986 -13.2238
2.3236 110.24 -17.2261
5.55844 113.599 -1.59598
-20.6146 90.8812 -10.8748
-20.7981 104.325 -12.4741
-10.635 90.7685 2.78687
13.4034 87.94 -2.83474
1.42485 101.425 -0.391545
6.17275 86.1738 -14.4184
20.5433 121.337 -10.7488
-24.309 101.764 -11.6759
-21.7752 84.6106 -6.70532
-14.2739 106.548 6.36228
-18.1593 111.717 3.89498
15.1268 108.861 -13.2645
20.9509 93.4035 -1.44584
20.9243 85.9137 -2.2239
0.134377 92.7689 -15.5378
18.9429 122.586 -8.27914
1.34918 92.819 -15.9163
-1.60886 101.345 -16.2092
17.4261 122.129 -10.2082
1.20209 89.5623 -1.47063
-12.2291 80.9015 -1.89709
10.1397 83.0988 -4.58852
24.4553 84.7854 -9.58875
27.2183 127.414 -9.4811
9.84819 85.6351 -2.57342
17.4468 101.332 -12.169
18.8884 113.634 -7.80578
15.2391 118.357 -11.3978
-0.726572 118.818 -14.9508
-28.0568 94.4284 -9.86433
-17.5534 115.221 3.7889
4.16166 119.896 3.57461
-24.3093 108.262 -9.04205
-26.4837 82.0775 -6.16643
-8.98394 95.3939 -10.4308
-8.44446 114.725 -12.5375
16.0409 94.6333 -0.571942
12.1067 120.273 -13.9045
-4.40233 79.2454 -13.7458
-4.64057 94.9108 2.585
-25.4601 103.915 -10.7371
3.72701 114.863 -17.0379
9.41221 98.3526 -1.57348
18.8736 122.027 -13.0076
11.7801 81.079 -12.6912
22.8483 79.0354 -11.0921
16.8719 81.1847 -4.76561
20.5237 107.457 -0.911191
-14.985 112.061 7.36672
0.328181 117.303 5.96143
-14.1804 110.423 6.81586
24.1957 87.8549 -5.36187
9.14416 76.9629 -5.0426
19.1691 94.6464 -11.7155
22.3697 86.3228 -2.88476
-26.1895 109.452 -7.86259
12.8068 75.4552 -5.86
26.763 128.508 -9.25068
18.3024 82.1058 -3.95463
18.7988 100.781 0.274567
-28.8154 80.6675 -5.57442
1.78466 91.3071 -15.9961
3.32564 81.2249 -13.3692
21.7316 77.6769 -5.81693
-17.3123 104.875 4.96358
-19.4303 77.4382 -4.49781
23.4391 96.0248 -7.95033
-27.3358 104.485 -7.83494
-16.7943 105.445 -11.6078
-15.1207 86.3208 -7.6565
-29.3781 90.2596 -6.87795
-0.87879 97.3159 0.307709
-13.9269 78.2002 -4.43677
19.0528 119.445 -1.18537
23.5554 77.4372 -9.71241
22.6271 124.235 -8.07525
-6.64204 106.669 5.03087
-0.367335 107.68 4.06552
1.12423 83.4716 -14.8377
10.8888 80.6272 -5.13596
-5.24675 81.2892 -12.282
13.1938 95.164 0.219659
-2.83635 98.729 -15.1814
4.85435 118.528 2.04109
-9.69973 111.983 6.44487
-13.1948 101.452 -11.1446
-6.73061 83.5803 -11.8005
5.58061 79.394 -4.95118
21.1801 78.0839 -5.17697
20.8639 113.68 -2.1352
0.643659 98.9193 -0.553601
9.43124 118.961 -2.52098
-17.2477 112.518 -11.5058
8.28678 85.9448 -1.68943
14.2938 79.3531 -5.24239
-0.00360512 119.067 5.69649
-15.7264 96.1209 1.9469
-11.4874 101.039 -11.9109
11.7318 108.213 -2.08052
-11.1104 100.173 -11.0561
-3.82315 91.0532 -13.9548
-8.20274 77.7543 -5.21314
20.2628 102.412 -10.3769
-26.2045 101.684 -3.1742
-10.368 114.699 7.01265
-13.7851 93.7708 1.91303
26.7996 123.455 -8.10566
9.43657 77.8718 -12.5314
23.7478 85.8643 -10.6003
15.754 123.184 1.79933
-9.83274 80.7639 -13.4476
12.9103 105.426 -1.63445
12.023 80.5476 -4.96503
22.2347 89.7353 -2.07697
-5.27056 75.7028 -6.64484
24.0399 85.2512 -10.4979
-7.05161 109.406 5.49336
20.5641 78.8425 -12.071
-19.8263 99.0397 -12.4031
6.69482 101.807 -2.74317
-22.8351 98.4744 -0.139461
-9.0361 97.1932 -10.7193
-14.1222 106.195 6.23987
17.6075 106.708 -10.779
15.7036 122.737 -14.473
15.9851 114.547 -11.2903
-11.0499 99.1115 4.23426
-27.2807 102.124 -6.67341
1.3121 93.7316 -1.69278
17.09 80.3527 -4.76853
-11.3829 110.321 -12.1205
20.6376 82.1651 -12.0848
23.9993 90.6103 -5.2465
17.2299 96.3316 -13.3025
-21.5545 107.396 -11.811
-17.8545 82.2099 -10.3327
-10.6445 108.462 -14.6337
-5.74969 80.0929 -3.24213
26.9895 126.591 -13.777
16.6189 114.08 -10.7782
13.6834 112.988 -1.17209
-27.3704 102.71 -9.38655
-28.0082 99.0269 -7.26409
-5.51827 85.3683 -11.2475
5.53504 96.8771 -17.1489
-17.0352 86.7779 -8.04981
-17.9018 105.065 -12.1327
12.392 102.019 -16.4215
7.91088 82.9701 -13.873
14.5281 99.3397 -15.3106
12.4844 76.9805 -5.63156
19.6428 114.011 -6.41533
17.1929 86.4162 -12.9356
-10.5311 101.264 -12.3046
17.8343 113.198 -10.2927
-21.873 103.487 1.49951
11.8553 107.584 -16.9004
-7.65455 104.544 -15.5718
6.73814 118.625 -1.66045
-14.2399 93.4786 1.46581
-22.8368 108.645 -0.927351
-0.864284 92.8185 -15.437
-29.2141 80.2648 -4.33828
-7.15887 104.614 -15.7219
20.01 88.6004 -2.19986
14.0482 119.838 0.0807261
22.4111 77.6859 -10.8062
20.5735 103.719 -0.23409
-12.9824 93.8634 2.59513
13.6046 100.53 -15.7571
22.7534 94.4267 -9.71717
-5.68777 114.101 -15.0184
-24.6824 88.6332 -4.34208
26.2192 128.365 -8.96319
13.7206 84.6652 -13.1019
-13.3983 87.5112 -8.9768
-3.94017 77.1089 -6.36608
-20.8963 78.6758 -4.18952
4.7984 86.4088 -1.69273
20.8169 107.403 -7.26431
22.667 88.7939 -10.7478
-21.4155 77.9342 -4.52895
15.2765 124.361 -6.41366
3.17691 115.325 3.70915
-13.3072 92.3806 -10.559
-2.95206 115.647 -15.4581
16.8298 124.565 -7.08828
-16.4947 88.6432 -9.58325
-19.3661 88.6508 -2.86579
8.50407 111.167 -2.70587
-23.5138 109.722 -10.2532
-2.11874 90.9508 -14.8341
-26.9489 81.2676 -4.85374
3.25621 89.2282 -16.3302
19.3497 86.0774 -2.65519
12.4938 83.874 -12.8594
14.9544 91.1938 -1.09242
-17.6116 111.376 4.76158
23.9875 83.0799 -5.34551
-20.8488 99.0555 -12.1712
-20.4304 84.8954 -1.72473
-27.7852 82.4044 -4.90773
-12.7666 108.769 -12.7591
-29.2525 89.3239 -9.33979
11.6561 123.298 -2.19859
-3.86864 78.9854 -4.97897
23.7018 95.4772 -5.70719
-14.23 104.045 -11.4315
19.1235 79.992 -11.948
-9.12339 116.607 7.38444
14.7961 122.732 1.41576
9.35977 80.2186 -12.4628
20.6797 127.18 -4.71262
15.3218 104.473 -0.00153778
-25.001 83.8708 -6.45516
-25.2142 107.984 -5.83344
-3.99662 99.8069 3.57442
24.0761 125.781 -7.84031
19.4536 120.757 -11.0787
-19.3143 96.2998 0.141939
20.1165 111.901 -0.498605
-18.6873 80.985 -2.18513
0.700541 89.269 -15.2082
19.5411 111.773 -9.50261
3.11417 111 2.27581
12.8772 94.158 0.475104
12.4572 96.2102 0.655527
15.228 124.53 -6.13776
11.5865 115.47 -2.31052
-9.05193 112.315 -13.4233
16.4489 124.497 -6.88855
-7.20644 83.1391 -0.280401
-23.6217 89.8626 -10.5714
-0.331989 90.9417 -1.31527
16.4066 84.6722 -12.49
21.7858 95.766 -1.31246
-5.97106 102.01 3.80934
23.2484 97.3968 -7.63439
-2.34042 84.0955 -13.3538
-5.50078 90.0099 0.842512
20.4529 107.888 -0.975659
-14.4379 91.8129 -10.9411
-18.8752 107.74 4.3242
13.5966 84.9419 -4.32764
16.4982 78.6446 -12.361
14.9948 82.754 -12.4659
7.30753 104.954 -2.69588
14.4556 112.883 -14.3621
-4.43706 108.24 -17.0364
-10.2297 112.436 6.75822
-5.03369 89.4129 -12.6694
-21.7997 81.4165 -2.52427
19.1336 124.446 -8.65157
-1.20892 113.719 6.02547
13.837 99.0628 0.861408
-5.77529 95.8401 3.29577
3.26568 80.2192 -12.9684
11.3815 122.876 -13.1394
-11.2869 106.491 5.27971
5.85272 115.041 -1.52804
28.2936 128.211 -11.9014
8.99739 92.9893 0.00564834
-7.63298 81.0119 -12.1614
14.9022 121.404 1.2809
-0.939635 102.302 2.86373
-3.91696 96.4458 2.48978
11.6528 79.2819 -5.18897
20.6196 91.4144 -11.6201
12.2792 119.482 -2.02875
22.3555 100.194 -6.51378
21.5469 98.3736 -10.432
7.10518 95.0772 -17.1918
10.0319 96.3278 -16.5937
29.3751 128.727 -9.77816
-2.24981 117.121 5.92175
3.30928 85.5411 -15.4911
-13.7928 110.699 -12.1939
-10.7846 99.9679 -10.9097
0.68008 95.3822 -1.40144
-28.6668 84.6375 -6.92097
7.78042 83.6597 -14.0221
13.0401 119.961 -11.5162
6.19266 93.4135 -1.67497
3.59962 87.0838 -15.8361
7.81366 121.486 -15.9274
-1.96007 111.951 -16.5476
-25.738 96.1838 -3.03799
10.3759 103.946 -2.20712
-14.9328 88.9085 -10.1598
-15.5673 109.968 -11.4745
14.9641 113.631 0.48306
22.2649 80.2775 -7.48242
-21.4623 85.9023 -8.39625
-30.4519 80.5154 -4.20462
-8.92179 99.152 -11.1647
-8.82548 105.075 4.37561
-11.2315 83.819 -0.162709
13.12 113.491 -1.69989
14.8607 75.9543 -6.09048
-12.192 89.1485 0.871313
-17.2466 82.0361 -10.7584
4.77198 110.669 -1.24871
7.75782 98.0388 -2.16412
-29.6821 87.8302 -6.29562
3.57223 107.859 -0.390958
12.2523 86.2603 -13.8702
17.9044 122.043 -10.8992
19.0838 119.826 -0.693818
2.22396 82.4845 -14.4896
-1.36866 78.6043 -5.76201
-23.9502 84.4771 -8.54884
24.701 80.6162 -8.03557
18.3316 105.516 -10.8471
25.7853 124.029 -8.74306
-2.07272 118.467 -14.6411
22.7347 99.2779 -6.57808
-4.07503 97.9323 -13.9556
-17.8064 77.0426 -4.8328
2.1234 106.972 1.97954
30.9453 126.227 -9.43318
8.12547 98.5009 -2.15193
15.8631 105.479 -12.3294
18.7712 121.511 -4.20951
-18.1872 112.779 3.45375
-4.78699 111.963 5.95353
12.6607 107.985 -16.3205
6.32315 99.2179 -17.7139
8.82436 79.579 -5.472
18.0042 75.9901 -12.3948
18.1954 123.689 -8.16521
14.4274 95.3571 -14.6513
-18.6109 92.1383 -1.72391
-21.1178 101.291 1.63364
-0.00948126 99.678 -17.2931
-23.1822 110.031 -10.3769
18.5539 121.454 -0.9219
2.81111 81.7065 -13.975
16.0273 118.432 -11.1271
-0.368321 111.495 5.09022
9.11154 121.702 -2.35338
18.1932 97.9688 -12.9581
16.0954 115.335 -8.95278
-4.25026 114.95 6.83494
-28.7151 87.2736 -4.59004
-8.82265 106.665 -15.9638
17.9571 106.004 -10.9392
14.1963 118.032 0.0287328
-23.5822 87.5233 -3.28821
-3.60287 101.135 3.60493
-24.6362 83.4375 -6.73875
-28.3107 80.9917 -3.40816
0.769228 92.1747 -15.6707
20.9752 100.7 -10.2435
9.19994 98.51 -16.8815
-2.35039 81.1603 -3.54274
-19.11 76.2409 -4.61282
-2.63624 103.388 -15.4555
2.62578 113.032 -16.9199
-26.5539 83.4141 -7.13506
-10.6374 102.595 -12.983
4.95039 86.4302 -15.033
-6.65232 90.6758 -11.9421
-24.5394 108.154 -3.47154
19.7107 126.556 -5.90917
14.8412 106.266 -13.8028
9.47497 100.474 -16.8008
7.83645 81.9429 -13.6502
-23.2307 107.747 -0.680994
15.7539 97.8932 0.454854
-22.5204 85.6966 -2.16502
-19.6093 110.662 1.69733
17.4483 106.442 -11.1092
-0.584712 107.663 4.14657
6.9656 94.286 -17.0926
-2.00275 93.0469 0.169777
-11.4574 106.562 -14.8375
-5.35761 91.8229 1.34633
7.52171 103.399 -2.69102
24.3696 83.9092 -8.01169
-18.5983 106.64 4.17118
-24.465 82.9238 -7.34092
24.2316 82.1366 -6.42299
13.7232 124.238 -11.793
21.2623 81.8515 -3.04149
22.9511 127.492 -4.63149
24.8506 124.778 -9.62824
7.35588 86.3477 -1.40332
18.6107 77.2296 -4.93742
24.5855 80.3067 -10.2129
-16.864 79.3611 -3.12152
-18.7658 110.811 3.23101
0.301984 117.308 5.96762
23.459 95.2854 -8.38
15.8939 96.4681 -14.2
19.8411 116.599 -0.605793
15.8397 103.415 -12.677
6.99365 84.2335 -13.9886
13.2022 107.993 -1.41666
24.2422 87.1558 -6.16004
-0.832067 84.3712 -1.00809
-14.8791 114.439 -10.87
15.1636 124.425 -12.5029
-2.84632 97.005 1.7619
3.33472 85.9707 -2.05688
28.9214 124.139 -8.78024
18.5126 77.7358 -4.56147
-11.6329 110.249 -12.114
-16.9836 101.005 -12.2348
19.7919 101.12 -10.8068
25.7221 127.354 -14.0024
17.6461 111.433 -11.8833
23.7152 93.8515 -3.99454
8.26522 104.309 -17.7249
3.61429 94.9253 -2.02315
1.25273 78.4874 -5.33872
16.9397 108.467 -11.1345
-25.0019 89.6201 -10.0128
-4.15993 94.3061 2.05443
1.86415 106.777 2.14065
-24.1293 107.312 -1.82096
17.6352 81.8375 -4.30334
-3.77704 116.568 6.4662
-2.55635 116.206 6.15336
-9.42195 97.3466 4.01771
14.9941 83.2909 -12.4768
20.5426 114.582 -5.77109
-11.9256 102.816 -12.0828
-26.8602 88.6629 -10.2727
9.17083 96.1403 -0.952892
5.90166 100.208 -2.44384
16.4411 108.755 1.10944
-28.2147 91.2209 -6.1141
-8.14718 84.8276 -10.5188
21.0576 106.343 -7.74348
15.7119 94.8939 -13.7492
-11.8029 86.2934 -8.34335
-6.29788 90.7344 1.48863
-15.9629 110.966 -11.3675
-6.04996 82.1042 -1.18978
-8.28459 112.82 -14.5734
29.6671 128.785 -10.6892
2.18081 87.6711 0.0140456
-6.56465 105.001 -15.8675
15.9239 116.485 -9.64684
-25.9096 105.735 -9.1578
-8.70704 98.0827 4.02734
-11.6409 88.8863 1.1097
-4.53538 113.188 -15.7395
-8.50465 80.458 -12.1313
10.4646 103.977 -2.18782
-8.20399 102.017 4.05302
-5.1004 111.768 5.88478
20.2971 98.4327 -11.4288
26.7747 127.553 -13.5242
6.619 97.7071 -17.4769
-12.8992 77.7037 -4.96322
0.742753 96.4769 -1.31678
-27.5475 102.362 -8.53486
15.1361 124.114 1.95345
2.8054 100.861 -1.46515
1.59221 117.573 5.28307
9.33577 107.576 -17.4439
12.1882 121.311 -13.6671
-13.4746 104.265 5.53431
-23.0502 100.302 -11.6492
15.86 77.2697 -12.9035
11.5698 100.791 -1.19732
8.02977 82.4806 -13.7747
-10.9435 87.7571 -9.26048
22.6176 92.9537 -9.88015
6.64144 88.8269 -0.0205754
0.268584 118.194 5.82015
-12.5125 92.3617 2.38753
14.9112 90.5346 -1.58831
-5.71005 78.3434 -5.33507
11.5302 81.2206 -5.18023
14.7638 105.189 -13.6442
-16.7616 82.3073 -10.076
-5.58235 81.6079 -1.6144
23.6126 96.6075 -6.46246
15.2166 102.881 -13.401
2.80542 86.7641 -15.3502
0.092402 97.8928 -0.234341
-24.929 96.8193 -11.2148
-22.0253 102.844 -12.2377
-1.35247 105.204 3.60073
19.7026 112.663 0.123348
12.1017 84.1153 -4.58654
-10.434 88.7028 -9.42275
19.8179 105.761 0.361937
4.8737 92.4728 -16.7667
-13.339 90.1493 -9.77492
19.7778 115.755 -0.257432
14.2281 120.152 -11.8233
-10.1476 93.8775 -10.0614
-0.0882437 107.563 -17.6402
-0.715253 117.375 -14.903
-7.45044 75.6141 -6.08746
-19.0062 103.914 3.55665
-12.8396 103.429 -11.6137
18.8236 93.1518 -1.10156
-15.234 101.623 5.07216
-14.6531 78.6447 -3.81856
2.73504 105.814 0.286993
3.10288 94.1482 -16.4305
-3.05366 88.5035 -0.353865
13.8073 120.002 -0.623875
16.0275 113.755 -12.8391
-16.0118 82.3784 -1.47773
-12.1997 80.8436 -1.92855
4.25003 116.141 2.2535
-22.0285 102.767 1.3592
12.0104 119.234 -13.4612
18.4506 101.09 0.429421
-6.91039 89.5767 -12.0193
4.51363 87.8669 -0.611022
0.31622 89.9975 -15.4635
7.38244 109.575 -2.73634
-29.9238 90.4344 -7.84204
14.409 125.627 1.78148
9.71243 105.438 -17.5267
11.1106 116.504 -16.9568
1.18438 81.6238 -4.30473
-8.93472 102.692 4.02505
-5.7441 119.212 7.19323
-1.0933 118.491 5.56086
-1.99277 77.4046 -5.80864
-9.89866 103.431 4.2024
14.3353 112.218 -14.442
13.7474 119.912 -0.820333
9.39676 81.2776 -5.45853
17.6206 98.0374 -13.3355
7.59782 102.606 -2.63793
-20.4373 77.8844 -4.52107
23.161 98.8835 -3.42617
-11.9373 103.725 5.01457
-8.75732 110.553 -14.6249
18.7732 117.109 -6.77731
11.9742 117.201 -16.1842
-5.64435 83.132 -11.6436
2.7899 119.542 4.91495
-10.1405 82.0811 -1.13178
1.70433 100.667 -0.941417
5.11769 110.715 -1.86342
11.0262 98.164 -16.613
23.7802 90.1542 -7.131
22.0795 121.284 -12.925
-14.9446 83.6662 -9.72312
24.2432 128.671 -5.11921
-16.4019 115.803 6.97323
-22.6842 96.4337 -11.8198
9.59037 77.4842 -12.9573
16.1064 111.341 -13.3902
-19.0143 105.442 -12.1133
-1.71218 102.149 -16.0718
-13.7162 86.7889 0.20462
-13.0037 81.4487 -12.083
-17.5427 113.112 -11.6395
-24.0868 98.4036 -11.7316
16.0268 124.717 -6.85671
-3.41783 108.337 5.21221
-9.00629 79.5923 -3.54174
-26.4692 81.5991 -2.82902
23.2225 99.4205 -3.34137
22.1597 98.6755 -2.41082
13.3138 100.601 -15.9339
5.76672 85.7334 -1.99332
-4.33097 89.7237 -13.1659
15.2188 102.86 0.632024
-10.2781 91.8872 -10.0585
-11.5643 84.2048 0.0183757
22.6062 79.4471 -11.2871
-0.374233 93.3591 -15.5901
19.4471 103.443 0.612143
-21.9749 109.099 0.0194301
-5.82945 116.767 7.17911
-13.7214 92.0258 -10.6755
4.82466 86.7636 -1.42155
13.8896 124.091 -11.7144
-8.63159 101.096 -12.5006
18.8065 124.992 -5.16686
17.1889 102.315 0.979495
3.16919 105.619 -0.834589
-6.49947 117.302 7.4218
17.5677 105.923 -11.2681
17.5761 108.007 1.34142
-20.412 104.585 2.57504
-17.9358 115.058 3.36973
16.7467 124.048 -8.52013
-21.5198 110.493 -1.15786
19.4813 87.7643 -12.7124
7.38676 107.536 -2.70476
-15.853 75.6905 -5.07344
-2.90098 95.8973 -15.2052
23.5642 83.8499 -6.31194
18.4059 121.493 -8.74401
-14.817 114.487 -10.8489
-15.6122 94.617 -11.642
-20.6672 104.811 2.35556
19.3964 110.606 0.295005
-4.49154 108.267 -16.9839
1.26767 113.501 4.4971
23.5969 89.1105 -3.74274
-18.4277 85.9591 -1.25105
-14.9579 112.869 7.68699
19.5385 121.655 -9.43107
9.03208 120.782 -16.6507
-16.8924 93.5973 -11.9069
-21.153 99.0694 -12.0838
14.3074 107.07 -0.299066
2.57482 115.601 -16.315
17.7257 104.41 1.23411
5.52211 90.1202 -16.3234
22.7161 94.2472 -2.25837
4.95712 111.67 -1.09422
-11.4994 81.3326 -12.6618
-5.31041 115.885 -15.0815
7.86537 88.0606 -14.8579
