ply
format ascii 1.0
comment Created by Open3D
element vertex 1938
property double x
property double y
property double z
end_header
5.50345 119.613 1.47706
-12.2871 72.8006 6.15354
-16.1077 120.719 7.69899
-3.15884 95.767 11.5438
-4.60033 110.547 9.76948
9.57993 120.353 9.91667
-6.64583 97.8324 12.1388
11.5589 90.3154 10.7027
-14.3486 108.061 2.3807
18.9674 94.0948 7.25635
19.1463 108.552 5.94578
21.4171 82.6662 7.59258
6.55024 83.1849 -0.503347
10.4927 83.7203 4.64062
11.4511 125.675 9.95699
17.2058 84.1363 13.4358
-8.85729 108.672 -8.36994
3.63073 91.0961 4.35101
-7.7738 129.904 -6.59464
-17.336 127.564 -3.2124
-15.7251 120.551 6.23841
-15.6094 140.314 8.22182
-5.00767 120.29 -4.63268
-17.8029 119.484 5.11236
-1.82612 97.2035 -6.73485
9.67843 114.571 12.4177
-8.24287 82.8397 -5.30679
-5.13569 129.136 -3.50779
13.3599 114.766 14.3037
4.20611 126.138 9.12527
-3.51153 141.489 3.78496
-12.585 114.217 7.21559
-1.68106 139.256 -0.5039
-15.2589 127.639 -1.44326
15.0397 96.8609 4.7205
19.5952 85.4126 9.63487
12.9685 117.858 14.0864
17.0642 114.752 0.454327
6.92749 90.2598 6.7539
4.87424 96.3949 7.26026
4.94154 111.752 8.50199
18.7746 104.567 14.0884
11.7297 126.066 3.77521
-21.6974 123.374 1.00073
21.6189 82.3731 8.7118
-3.19203 86.9761 -4.63083
-1.0111 100.362 -6.93086
21.9829 91.6116 11.1755
-10.4792 81.5318 7.12894
2.48904 106.598 -5.87846
-12.8054 121.971 -6.6574
-3.89629 116.789 10.3932
18.394 116.952 7.13042
9.91342 100.253 12.9907
-16.8828 130.719 -1.72175
10.9248 98.523 13.5348
-3.80985 113.871 -4.10961
-9.49223 87.4726 -5.72256
13.1991 93.5246 14.3755
18.1708 96.8634 14.6028
10.9558 112.552 8.41238
5.48317 85.6421 -0.778556
-16.1226 91.4842 -0.949965
-21.7238 122.853 8.00778
8.48968 107.682 -3.14943
22.5601 103.243 11.5792
7.11962 84.8632 3.43164
5.88074 130.149 7.0748
-5.73397 135.732 -5.85322
17.1731 85.9465 4.29107
-6.02418 126.822 -3.7232
13.5612 117.773 -2.62839
6.60889 120.163 2.56481
14.7444 83.0461 12.1094
-5.3296 133.022 -4.09763
-14.0712 107.593 4.93361
23.809 78.0124 12.5431
-15.906 79.7354 2.5618
8.08226 91.9206 7.67414
10.957 105.819 8.77491
-10.278 95.4128 8.56573
-5.42873 86.4182 -5.08529
-7.24607 90.9865 -7.41519
-9.63937 136.545 6.18694
-16.6538 114.587 -1.40426
-3.55298 100.293 10.5768
-13.1641 101.783 -7.96729
-11.3626 119.586 10.1814
14.618 110.847 0.368258
1.00271 119.615 8.91399
1.6878 80.4236 -2.16687
-6.27269 135.199 -6.11001
6.14701 93.8479 -3.4861
6.25147 107.808 2.64614
14.3597 118.632 2.35866
-6.51907 117.4 10.079
-6.79053 104.842 11.923
13.4799 103.573 -0.0200718
2.89065 123.238 8.62294
2.54658 91.9146 -2.4057
-3.75437 94.4575 12.2554
-1.16303 81.8609 -2.89369
-5.7921 97.8595 12.5568
-0.495956 137.24 0.465871
-0.538622 94.7455 -4.84517
22.2796 89.9956 12.2509
-15.1701 99.6042 6.00087
4.40038 113.368 -4.1101
-4.59419 90.5036 -6.79975
0.430137 130.797 0.549831
14.3816 87.0275 -1.4312
-8.14669 93.2338 8.96611
-2.40254 100.312 -6.89626
6.33529 123.627 5.91756
7.47512 102.141 11.171
-11.8113 129.28 6.98135
12.3417 102.124 -1.09818
22.4786 102.399 11.1777
7.03629 105.164 -3.77421
5.88545 92.9942 8.52674
-17.0345 120.646 5.18775
6.31242 122.3 4.90973
3.28611 81.016 3.13792
14.928 90.8058 4.72545
-13.5252 97.5481 8.22566
10.1635 115.198 1.72384
-14.9207 139.803 8.61728
7.78494 123.515 1.9698
10.6873 110.039 9.60165
0.343807 115.042 10.1373
-1.17294 81.8861 9.57728
-8.14773 98.1749 11.5507
8.42051 107.919 -2.74179
-13.3081 84.2747 -4.536
18.1095 83.0891 4.6668
-9.05757 130.377 7.06555
2.82078 90.5684 3.98371
-7.06849 111.204 11.0421
11.2648 128.459 2.38634
-6.83789 148.802 2.21391
-13.346 134.915 8.48717
11.867 128.636 3.98379
5.56434 94.4004 -3.02982
13.9661 90.9897 2.77355
9.30984 89.2092 -2.41364
-10.9502 103.228 -8.47183
3.73611 109.032 -5.09905
-5.99224 80.1396 -3.42898
12.8567 127.537 9.55713
16.367 106.27 1.30407
9.39251 124.761 1.60198
-11.9524 142.133 7.97187
6.07468 125.288 7.39985
13.3342 92.075 14.3982
-7.37852 99.8431 12.2359
18.3862 116.842 7.37917
11.9455 84.9298 10.2266
7.15155 86.024 4.86215
-16.8047 142.436 4.87364
-16.8927 118.502 -0.973551
-18.993 134.931 2.68568
-0.62563 107.164 -6.00629
-10.9125 103.533 -8.40195
21.4344 104.467 10.3781
-10.9 148.268 -2.05409
-9.54003 128.709 -7.65261
0.0220905 101.126 -7.04216
-21.9908 130.169 7.25133
21.0045 102.032 8.66969
-11.4868 135.793 -3.42602
17.5816 116.487 5.6977
15.7434 112.945 14.0417
-6.37986 85.3658 -4.99219
-1.84974 149.919 -1.11232
10.8088 106.975 10.7885
10.6657 99.2493 0.857719
-1.22396 104.321 -7.16557
-11.2654 127.477 -7.1587
-0.872989 92.3545 -3.23708
7.03012 133.783 5.24186
4.10106 126.402 9.24453
15.1207 121.647 1.2028
-5.18418 92.9738 11.0013
10.6618 114.221 3.07583
-17.3546 123.792 7.41416
-1.20717 111.762 -4.02089
1.45317 98.6397 -4.81347
0.91083 79.7714 7.43482
11.3782 130.496 5.26731
11.1447 118.321 13.4361
24.8591 85.7925 13.7211
-12.5232 131.91 -2.41717
-0.266046 119.795 9.43671
-1.06738 123.891 9.38871
-16.7467 103.995 -3.26616
9.45899 127.155 9.49288
-13.9588 107.308 6.34927
10.5366 121.136 2.63977
4.98268 89.2473 3.99514
0.457329 134.731 6.10394
-16.998 125.843 8.60173
-10.0385 114.987 11.712
1.39501 96.9084 -2.72691
22.1849 94.1356 11.0908
-3.33504 119.682 9.95518
-4.66885 120.713 -4.3421
-12.4798 139.251 -0.646143
0.242841 107.669 9.28974
0.738221 141.667 0.145336
-22.434 125.344 1.69152
9.84004 86.0886 5.53553
-16.9388 114.516 -4.91297
20.7591 90.2969 13.6638
-13.0871 92.6482 -6.35686
18.0692 98.3728 5.51424
-6.29654 85.5362 -5.23042
-3.66144 105.818 -6.39611
8.7753 90.331 7.54136
16.2673 100.571 3.80639
-19.2951 131.914 7.37402
19.6669 78.6041 10.4504
0.221508 141.529 4.09659
5.48814 82.008 2.73717
-8.18692 104.343 12.1824
22.72 77.7949 12.8732
-17.5832 128.981 -2.78752
4.09769 82.0918 -2.21763
19.0365 112.172 12.6101
-11.1193 111.856 11.8568
13.5671 117.216 14.0766
-14.8305 92.0759 5.21802
4.85702 86.3386 1.84531
-14.0174 111.222 4.47178
-12.1464 103.451 9.65215
-8.64142 132.238 -6.47815
-13.745 135.253 -2.42892
-1.07468 126.095 8.45216
-17.0398 113.803 3.10013
1.86816 94.4527 7.73593
-2.97471 86.0463 9.58507
11.3077 85.9449 8.89264
14.8893 118.509 -0.0233725
10.3615 103.269 -3.55084
-20.9671 133.534 7.70127
-4.04784 98.1548 -7.53468
-10.9083 122.304 9.81836
-15.1066 130.16 7.46697
1.78101 131.956 1.55439
0.496021 127.474 0.880562
13.4819 89.7786 13.8506
7.42596 93.5657 -4.19341
-15.7875 124.361 -1.77704
5.70678 131.384 0.231551
-13.9669 78.6775 -1.0222
-14.4154 104.194 -6.96847
-0.700898 101.394 -7.26842
2.87171 122.69 -0.986226
-6.73792 111.205 11.037
9.41781 112.274 1.613
7.19791 126.554 1.49701
-8.23235 122.147 -5.0197
13.1076 127.304 9.29062
-17.8848 118.415 6.13985
16.5199 82.2079 1.14674
6.23209 121.474 5.8413
-16.1151 119.592 -3.80142
-18.0231 119.198 3.1043
-16.5745 93.9471 -1.70476
-15.039 106.466 1.87272
-6.40711 98.0682 -8.07534
0.714019 95.5345 -2.66617
-21.6799 126.975 3.49826
5.61359 86.5871 4.09807
10.7012 100.15 13.6549
-4.89257 153.664 -1.65943
0.0492282 93.8194 9.56619
-12.9657 76.5855 5.8635
-24.5762 120.714 5.69867
-1.93942 103.685 -7.19874
-3.65176 84.1465 -2.21659
-0.439417 116.144 -3.24966
-16.8522 124.104 7.23359
3.07255 108.463 9.15897
-13.787 101.684 -7.66797
9.76613 86.4533 -0.156693
-0.388172 137.764 0.472193
15.1516 90.7133 0.0270939
-18.8794 126.756 7.12453
-17.5579 135.367 1.17634
-13.3406 82.3296 -5.13271
-9.24255 96.0217 -8.01268
3.27958 79.312 4.89295
12.0394 117.013 13.9378
-3.41612 80.1168 -4.02653
17.1403 108.793 1.25705
9.88927 84.6055 6.08558
-3.32929 132.9 4.97891
-4.51858 133.367 4.53384
-23.0585 120.279 1.23928
10.2513 125.149 1.96238
4.01847 90.9711 3.67633
-7.17641 113.516 10.4774
0.134637 131.991 6.34333
18.0292 111.5 3.04492
10.4155 123.48 8.00706
-15.8702 120.005 0.899883
22.3614 86.824 12.1431
11.191 85.6328 -0.00844983
-12.6858 79.2612 -1.58844
-18.0243 140.436 4.89998
15.692 89.5713 14.4197
-16.0313 119.959 6.46486
-8.00969 94.674 -7.70233
-5.49146 113.771 -6.12701
11.3204 113.812 1.90602
-14.3825 125.114 6.0456
16.1651 106.748 14.8322
11.5234 99.9631 14.5438
-24.4552 120.264 5.13873
-5.83141 103.656 11.5018
10.1185 128.906 7.18576
14.6533 108.684 14.6646
21.7868 95.0442 9.73158
-4.32504 100.302 10.7847
-2.77285 90.8005 11.5298
-15.6798 115.536 -6.52813
-9.92455 145.422 4.91131
-13.9224 125.413 -4.40097
10.9177 125.77 9.98726
8.39886 121.043 1.53242
-14.988 132.462 7.27627
10.641 124.257 7.66718
21.6255 100.226 7.57154
-3.18948 99.29 10.8078
-14.6593 104.839 6.69111
13.7079 92.3371 -1.2158
-12.3273 126.598 -6.30936
6.49371 99.595 -2.77916
-14.926 118.642 -6.58681
-16.7278 95.4546 -1.11686
-0.664368 90.2403 -2.47754
20.7982 103.943 7.6235
10.0261 85.6731 5.9769
-15.6595 109.894 -6.32127
3.44048 92.1536 3.36053
3.18201 100.737 6.51415
23.2391 95.9432 11.8368
6.27856 97.0207 -2.91492
-20.9342 133.333 7.77638
-8.9664 117.918 11.5758
3.6714 142.414 3.21587
0.990436 116.386 9.94461
21.8354 94.9474 10.6936
-15.59 131.42 -2.62808
-13.8293 76.6129 5.55523
6.58613 100.992 -2.81065
15.7498 105.5 0.713599
0.495761 129.863 0.736751
-9.96544 122.452 9.47343
9.42996 96.5513 11.7448
3.76981 88.9302 2.23633
-14.153 107.794 3.56541
-4.64755 107.321 -6.42108
9.86408 115.848 2.35952
7.44953 92.3272 8.08327
-14.4221 82.1029 -4.58811
-16.8404 119.749 4.3834
-21.7016 132.019 7.03868
-11.3007 132.278 8.05353
-20.2361 129.287 6.74722
-3.27938 118.405 10.2272
-16.6799 125.293 8.99805
-7.51499 144.941 2.92609
-17.5276 120.736 4.82826
6.43889 97.8159 5.84701
3.27464 89.6205 4.30975
-8.78443 89.0856 -6.71952
6.3536 114.235 2.7821
15.7228 96.012 15.173
14.5539 101.748 -0.759883
-16.0687 120.894 0.975928
11.212 125.024 10.3621
21.765 84.8506 11.9889
10.6913 106.709 4.79788
-3.77809 74.6572 5.71978
-14.8781 108.97 -6.99131
20.2125 80.1169 7.25576
-1.96196 98.4533 -6.70784
-10.9445 82.5229 -5.56867
14.0567 120.073 -1.67094
-0.467469 100.171 -6.92969
-16.0129 86.3636 -3.66115
11.0614 118.938 3.44044
-15.0479 130.82 -1.16023
-16.9982 106.35 -3.03343
7.79618 101.116 -4.24895
-14.4135 139.988 0.87634
-10.5579 101.902 11.0494
-11.8371 143.252 -1.83556
7.40287 126.382 1.10785
-6.31285 145.68 -4.6839
23.6739 83.0841 12.6069
-14.8534 118.489 -3.50279
-19.5486 134.903 3.24067
-15.7796 120.701 7.03331
-13.0938 78.8217 5.59578
3.71135 85.0894 7.13504
-4.41562 118.812 -4.06167
3.36643 132.251 1.9122
-1.72037 99.2787 10.5045
0.410864 108.71 -5.55044
-13.4576 101.456 8.43109
6.88877 110.787 2.50852
11.4576 88.0836 9.85798
3.20148 92.2784 6.43421
2.26391 86.9162 -1.32907
-3.71798 105.302 9.6221
-5.44865 83.5211 9.03481
-16.7647 87.1309 -3.58468
-2.68992 140.225 4.04974
4.74355 96.257 7.43492
-15.2041 112.074 -6.88971
-12.3546 93.4435 7.65653
18.0156 103.391 2.04419
-5.80033 121.697 9.89919
-18.7203 118.339 5.38149
-12.7765 81.2231 6.44075
-5.07048 121.207 -4.22701
-16.0038 122.889 7.56905
-17.6694 130.565 6.62191
-8.0691 126.981 7.97306
-22.5422 123.361 0.960745
10.1275 103.308 5.35333
10.9154 124.18 11.4205
11.0087 102.56 -2.42864
24.2767 88.6107 12.9928
-8.30136 124.211 10.0828
18.2805 106.494 0.718071
3.33273 101.636 8.67494
14.1419 115.812 -2.09893
23.5699 96.6669 12.3679
18.0352 112.046 2.84377
10.166 127.981 1.78359
-5.54512 89.105 -6.95823
-23.2181 124.555 4.60611
8.25229 92.052 7.79328
-13.2392 89.825 6.5057
-3.38497 124.486 9.5546
21.697 99.2665 8.43344
-13.3128 121.639 8.76406
-11.2425 77.7492 -0.879427
2.81177 98.6012 -2.78493
-7.94618 131.245 -7.15795
-16.9115 132.545 -2.42949
-20.5292 133.947 3.36286
-5.1625 145.786 -3.95825
11.6963 124.825 5.58402
10.4275 85.718 7.29723
-13.1936 101.918 -7.99614
4.35387 89.0031 4.68778
11.8109 89.7389 10.952
-14.425 116.014 6.82659
-14.7016 124.573 5.99153
-3.47428 117.449 -2.92715
19.4683 90.4089 8.98602
-11.7238 138.859 8.03803
-1.84225 87.0533 10.6551
-12.3345 141.612 -2.31538
-15.0979 130.573 -2.42011
-14.7152 104.65 6.57338
5.78192 102.464 2.83398
17.4272 80.277 4.06586
-13.4604 130.83 6.87781
-11.705 110.188 11.2178
10.4121 105.303 -0.922132
-3.30673 117.062 -2.97475
-13.8335 125.264 6.44544
-14.2833 74.0355 4.43154
-16.2087 129.442 7.78463
3.75249 99.2695 -2.55524
4.6657 123.388 8.72118
5.95652 102.03 2.79757
10.9006 103.881 -1.49296
8.44933 108.546 -0.989273
11.3466 112.981 5.16699
-13.6203 132.845 8.55002
2.47333 119.852 -2.33984
-2.86997 101.789 9.94646
3.78834 82.8697 6.08684
-15.772 102.853 3.77904
-19.5355 122.549 8.70403
-15.8404 122.856 8.55347
-13.6857 120.091 -6.50345
18.6495 85.0943 2.71235
-12.6872 76.3244 6.04477
6.3346 116.812 3.28758
-16.3346 119.086 0.388294
12.8782 82.6569 -1.05261
15.5561 87.7204 -0.71326
15.9946 87.197 2.97375
12.7914 112.769 14.3337
19.0239 88.9409 8.42701
20.4468 104.255 3.3695
-15.4028 101.127 5.12943
6.3035 110.167 -4.68453
-18.5432 135.75 8.39944
-4.47374 135.374 -3.58017
0.849952 99.0545 10.3872
10.468 121.25 12.4861
-10.3155 104.286 -8.39576
-13.9513 98.1975 7.59017
12.6945 116.51 14.2443
-4.34938 102.697 10.2089
10.0608 128.248 9.95284
5.76805 110.716 4.05649
7.41672 132.299 5.71247
23.9463 79.0942 11.5641
8.03166 84.0179 4.54147
9.72834 123.797 9.00478
10.8112 86.0558 8.28581
15.5872 115.135 2.93171
19.1128 78.8899 6.32934
-0.54449 132.766 0.171684
-8.09058 81.6333 -3.46323
2.5696 94.6508 4.57014
7.52404 109.638 -2.20358
8.46768 99.0289 -2.68169
-15.3266 122.009 -0.302041
-16.0073 122.551 -2.20489
-23.4958 123.881 2.50446
19.7113 84.5679 7.71904
-3.06907 120.869 9.82447
4.97767 129.801 8.22353
-14.5327 115.263 -7.20121
-20.3983 132.538 3.00476
-12.1348 113.77 9.9805
16.5157 115.522 6.93196
16.7035 114.198 -0.894889
16.9879 99.0677 4.52034
10.3306 107.277 12.9209
-13.92 142.604 7.75721
-12.3534 140.066 -0.456067
-17.9042 120.292 4.19152
10.6358 108.123 9.84328
-15.8089 96.839 -5.45174
-10.683 77.6363 -2.48729
-9.19559 150.949 -1.23483
20.2252 113.09 11.0222
17.6626 114.754 6.17834
-3.90953 110.195 9.63786
1.43158 85.0534 9.83766
-9.85436 101.417 11.4329
7.34297 99.2792 10.9383
-14.9241 93.1971 -5.88425
-14.6942 129.112 -1.80008
9.2517 119.573 0.4599
-14.1479 80.3684 -4.27356
-4.94199 120.357 9.75417
-3.59681 134.062 -2.03189
2.89792 93.2427 -2.51535
-1.20522 85.6276 -2.25051
16.1049 114.294 -1.11519
-14.2047 94.7308 -6.44476
-12.8365 140.749 0.654567
-1.38407 85.1962 9.55172
9.95066 107.898 13.3022
5.70187 108.316 -5.26585
-12.6575 141.305 -0.485238
18.2497 82.7244 13.2097
0.516597 92.4456 7.1484
-4.09992 141.966 -3.36187
-20.7705 131.891 4.10066
-16.7383 132.79 7.10221
16.7124 120.057 2.87372
-10.611 136.451 -4.90851
18.414 102.636 14.3309
-15.3445 79.6902 3.55191
-7.09082 114.736 -6.94021
-14.5005 112.146 4.2049
-6.83581 113.272 -7.01379
6.05914 117.28 3.69333
-13.9171 75.6452 0.504711
-0.330087 104.242 -7.07503
-9.5598 94.1747 8.6707
-7.16465 80.0961 -3.45143
-16.2885 95.9789 3.94658
-15.2968 121.141 1.91207
9.90105 115.3 1.85336
1.73289 87.61 -0.914771
9.45087 102.103 12.3008
7.11773 101.396 3.47357
-15.0013 124.841 7.18211
13.5968 92.5578 2.95939
-4.59584 101.395 10.6032
5.83613 108.673 4.56104
-3.95826 89.4472 9.65472
-15.9687 98.998 -5.67422
-19.5374 124.153 0.0181967
-6.03282 130.183 -4.75571
10.1239 97.0373 0.61281
-4.6529 89.367 9.24887
-11.9195 80.4483 6.82674
10.5315 109.226 3.78492
-3.98136 106.662 9.88562
1.31303 111.348 9.13638
-7.7268 136.815 -5.6319
22.0116 78.4179 10.909
-15.4938 121.461 -3.20097
20.9245 111.112 7.58572
-16.7535 142.537 5.73442
-18.1464 121.188 3.67758
-16.2982 120.546 6.83105
25.197 82.2204 13.9253
-7.59225 83.7351 -5.17076
-8.31448 138.752 4.77401
8.04686 80.6768 -0.843516
16.5191 116.397 5.14327
13.4594 123.483 12.0374
-9.55989 114.58 11.839
10.6768 120.422 12.8028
15.278 82.7942 -1.02245
-5.54569 95.5807 -6.83058
-20.3714 133.2 1.77382
20.5185 103.689 8.72013
-12.569 138.096 8.2405
0.587681 127.88 7.56427
-16.4778 112.752 2.99133
-9.39245 119.237 11.5502
12.5722 84.8667 -1.67907
-9.41433 77.7898 -1.59561
-19.0597 117.031 -1.5342
4.7218 113.3 8.49538
2.18122 94.0667 6.11197
-14.2517 86.9307 5.81161
-17.014 141.687 3.87263
3.68284 100.105 4.30483
13.5534 110.852 14.2765
-6.05971 80.5012 -2.61216
5.50148 128.129 2.2665
19.7589 113.023 7.30863
22.577 78.6544 13.2135
-0.149599 92.2206 9.23585
9.04408 100.893 5.10288
14.1866 107.547 1.65805
-22.2193 121.471 0.96578
-14.1985 131.702 -0.861249
10.2617 99.1378 0.555143
-20.9443 134.517 6.38432
-1.694 109.716 -4.68265
0.733422 132.87 1.05744
11.14 88.7033 9.76539
6.29382 129.911 6.63058
3.55353 140.743 -0.114418
10.1967 121.134 8.72769
-16.0746 122.028 -0.881388
6.25737 86.0407 4.00499
-4.24707 95.7653 12.1045
3.17329 84.416 2.96055
-7.30698 124.752 9.88146
-14.089 127.847 7.54477
17.46 103.934 14.6154
-20.9603 116.644 5.451
12.3112 113.143 14.4354
-16.3357 110.687 -5.5357
10.4079 95.2029 12.7242
-17.6219 110.351 -2.37604
9.17561 100.394 -1.84057
22.4614 97.7768 11.4493
-16.9668 98.6446 -1.00858
-5.72567 126.558 -3.36642
6.67901 117.312 2.93717
6.82138 79.9087 -3.742
-2.71454 116.102 10.2365
12.3584 94.9864 0.981134
-13.573 80.5526 -4.40261
11.7251 128.687 9.90761
9.3471 108.436 0.00112118
0.924735 97.1273 -3.36415
15.0343 112.512 -0.132875
-10.2735 110.886 -8.4304
-5.20451 140.598 -4.6809
7.46491 125.239 3.04936
15.9854 114.993 2.47163
-7.63533 102.256 -7.70423
-16.6851 97.6116 -4.14507
-15.7194 123.239 -0.936858
-3.94064 86.8929 -4.98877
-16.9272 119.544 1.87918
-12.7943 90.0794 -5.86827
-8.52192 115.645 10.8992
0.748555 102.992 -6.65169
-18.0406 121.66 8.66133
21.5588 96.8523 7.97876
7.24501 134.623 4.57803
9.14561 95.4016 12.0866
-8.70868 121.903 11.0858
-5.8734 103.162 11.6973
-20.9275 124.147 0.110505
23.071 82.8914 13.6262
6.25154 122.008 5.68903
15.2836 89.6071 0.962824
-11.1447 84.8295 -5.34723
-12.9868 113.525 6.89505
-3.94524 109.418 9.5864
6.28417 122.277 5.29587
11.8491 84.384 -2.17514
-20.9217 118.659 0.789224
-13.6099 111.619 -7.6899
1.17454 138.251 5.84778
-16.4807 92.2131 1.99117
6.4261 131.331 6.34785
-9.37538 113.61 11.6109
-9.87081 137.939 5.78231
0.119435 114.061 9.7872
-10.5139 123.124 8.54709
-15.8914 80.8454 2.33038
-14.2383 118.363 -6.59972
18.9731 95.1278 14.4081
3.65644 90.0239 -2.75269
-14.7759 144.501 6.30756
-12.6372 139.451 -2.18616
-9.96382 98.783 10.7648
1.47593 114.793 10.1437
-6.9799 123.396 10.3727
-1.57153 106.547 -5.94311
-14.627 138.99 8.61145
6.92386 95.6613 10.2721
-3.38468 140.069 -2.42669
19.8908 106.179 2.39667
7.89845 86.4546 -0.156859
-5.59913 85.9133 -4.69054
8.582 98.6709 -3.41173
14.9856 118.256 2.74388
21.8714 106.518 10.3702
-0.0718281 143.073 4.63779
-11.0855 138.863 7.60988
-17.4281 119.885 3.60171
-18.5609 132.119 7.57038
-17.938 134.717 0.612925
-23.3459 124.295 2.5274
2.85702 124.536 -0.66996
-10.4835 104.6 -8.28497
-22.7193 129.229 5.53656
-14.0603 141.659 8.05213
-4.64124 102.873 10.3429
15.7859 103.412 14.9996
-1.91785 93.6901 -5.32343
9.67502 125.436 10.9592
-15.9757 122.199 0.102072
19.4499 84.5688 9.06006
5.05496 114.516 -1.07314
-13.1982 110.608 7.22483
-16.6576 119.446 -0.122291
20.8854 110.389 8.78543
1.88483 97.2515 9.44699
4.78768 113.731 8.68708
10.4808 104.873 8.46634
11.3884 121.344 13.0449
11.4653 89.0943 -1.06859
-7.86988 127.576 7.29205
-16.0563 100.988 -5.6107
-5.44529 138.888 3.13733
16.8337 86.1178 2.73446
3.78917 96.7177 3.63214
18.5637 111.986 4.61278
11.7383 126.314 3.59376
-11.4949 149.436 1.59054
16.5911 114.946 -0.380958
-17.6405 119.314 0.942894
-5.552 139.477 3.27154
-13.9122 79.5642 -3.57952
8.4248 96.4283 -4.24077
-19.3531 128.039 6.70031
-12.7144 85.4464 6.42284
-15.0574 119.832 -3.87023
22.6215 93.6177 13.0133
-13.971 101.051 -7.29429
-23.1572 118.881 7.76195
7.43634 125.491 1.74137
10.2211 130.901 8.59669
9.71162 101.082 4.32567
16.9746 119.184 3.24788
-2.02611 118.448 -1.86989
12.0831 119.142 13.6146
8.68549 113.322 1.71218
-1.31801 138.624 4.30724
-14.7684 121.502 -4.12317
8.77588 97.9101 -1.93654
-10.3187 128.209 5.90141
-5.31922 89.7922 -6.97812
21.585 105.724 12.0886
-15.5847 120.567 0.484601
8.66463 128.897 -2.4973
0.203511 91.4172 7.92953
7.36053 86.8268 4.49447
-8.57507 102.741 -7.97663
-9.03358 110.975 11.3276
2.31027 98.4322 6.92181
23.4214 94.6311 12.6013
17.1508 115.009 7.70501
-8.04679 100.047 -8.30975
-10.3959 104.875 11.5423
16.3212 83.9324 0.396761
-19.2078 126.475 7.40188
-10.0135 85.4563 7.37087
-13.2109 135.907 -3.12831
-5.95502 144.191 -4.67041
-22.6099 120.218 0.895483
-16.1712 124.748 7.64007
-0.947894 115.879 10.3351
-21.7539 126.704 2.90676
13.4979 92.5369 0.092386
5.47332 111.278 -4.38863
3.05017 91.4394 3.88629
-1.17324 123.026 9.76532
-17.6331 110.757 -1.221
8.48118 132.905 2.46415
4.78819 113.429 8.3002
-13.935 127.939 -2.36344
-17.3708 120.139 4.73665
-18.526 119.033 4.56564
17.3359 101.875 3.27506
3.42077 116.463 -2.63381
5.27173 114.117 6.91225
-19.6072 119.618 4.10419
-6.3871 107.277 11.3582
-16.8506 95.533 -3.15766
-15.6178 122.935 -1.01185
1.53323 139.75 0.613801
-17.3938 126.292 6.92489
-13.2788 110.251 5.80346
-14.4223 133.336 -1.11764
4.34111 99.6059 -2.29584
-21.1879 129.521 2.74219
4.42183 136.821 0.258174
-14.6526 90.507 5.27941
-8.85771 125.545 7.93703
-7.64355 106.614 11.9721
-23.6133 124.926 6.86906
10.0385 104.779 -2.51596
13.9734 81.6426 6.42442
6.56226 87.0841 2.87595
3.51591 84.8614 3.9754
-15.2306 139.195 8.62178
1.22806 130.833 1.04753
-12.8166 142.286 -0.739307
9.65656 85.3496 3.43026
-15.0925 89.0157 -4.96361
11.9483 102.811 -1.00706
-17.2658 125.844 -2.12047
4.81082 100.027 3.48222
0.162466 85.1221 -0.701628
11.4431 117.082 3.96318
17.5634 108.042 0.984525
-12.6553 83.164 -4.9773
-2.94047 147.352 -1.77444
4.3054 86.492 5.75004
-23.4753 118.618 7.38206
-14.6352 87.9681 -4.61937
-9.31582 96.3724 9.84362
0.27526 122.663 -0.543147
10.6296 130.133 6.11894
-8.00616 89.4336 -7.08455
4.32198 101.437 3.61732
18.365 81.542 5.88141
-1.33554 140.021 6.23272
-11.5593 126.792 -6.04553
-14.7559 127.116 -0.680351
-14.3843 138.141 -0.0259266
-12.683 145.494 1.31133
-4.04521 88.5321 9.58155
-15.5248 79.0501 3.61873
-11.2907 142.067 7.45636
-14.0016 137.341 8.65727
4.7499 127.554 8.85872
-18.5169 119.557 5.45793
-6.38411 132.885 4.45199
15.2525 118.207 1.77455
18.3372 84.8916 6.15449
1.38611 86.5455 -0.529182
-5.63703 111.887 -6.05787
-17.5544 110.406 -0.658321
0.568234 118.219 9.40321
4.63881 135.972 5.48285
-0.961979 118.86 -1.86532
-18.5102 127.324 -2.82114
10.6025 112.65 13.9446
-5.063 131.482 4.97103
20.4998 88.7177 9.88711
6.76094 99.3304 10.4139
-13.8385 113.286 5.25209
-7.80536 107.494 -7.79926
3.41641 93.8049 3.81719
-4.68759 74.5841 6.52882
9.19918 85.1888 0.360134
-11.7899 89.6182 7.35453
-11.3685 122.323 -7.03709
-8.42337 114.748 10.8164
10.6612 133.074 5.68758
3.47605 119.703 -1.62415
20.4759 87.1843 13.6183
11.9479 85.6585 10.1867
-16.2669 123.188 -0.3487
-1.85398 112.789 -3.53096
15.5237 114.647 -1.42239
-0.122823 89.3227 -2.02722
7.19234 123.092 2.08192
-6.68858 91.8299 -7.44279
6.12186 106.798 2.60154
-6.9446 129.319 5.90171
14.7684 111.775 14.254
17.529 117.258 9.62582
-16.2785 95.3178 0.955572
-10.2787 79.6839 -2.66424
-16.2901 93.2379 3.13501
-8.40095 151.674 0.981016
3.43866 86.8993 7.72376
19.4868 113.087 4.91871
9.10381 130.042 2.04805
12.5695 99.1633 1.88636
-1.25418 121.069 9.92514
3.32877 99.987 -4.00835
20.9054 108.316 11.8422
-9.23859 83.8384 7.73045
-6.31408 81.6784 -3.19699
-12.5584 147.901 2.67775
1.25629 95.0473 10.0658
-8.34496 129.801 -7.30523
-0.352082 99.6999 -6.82195
-16.7711 105.461 -2.02731
9.88879 114.152 12.9375
-0.604355 114.999 10.0544
8.61825 84.6847 3.70655
-15.4528 121.908 -0.147383
-6.47752 96.9689 11.8762
11.8896 122.978 -2.83123
-11.0212 108.672 -8.44277
-0.535255 109.69 -4.8796
-15.7161 122.252 -0.286474
-13.1932 146.654 5.35496
21.3055 107.358 11.2928
-16.5711 116.106 4.44441
13.4376 92.6523 2.68539
-0.19289 139.839 0.313866
-2.5292 112.467 9.13477
10.8099 92.2259 11.7829
-18.727 120.602 3.67659
9.74362 86.4203 5.83231
-14.9905 101.416 5.86476
-1.92419 83.1458 -1.18052
19.7941 95.4314 14.1431
14.6504 115.334 14.0897
2.78329 83.9152 -1.2992
-16.0396 101.333 -5.62305
-16.6066 118.995 0.654732
19.3496 87.5103 8.81698
15.0048 81.2178 9.71323
15.3663 96.0861 15.1696
5.64411 81.3846 3.04878
23.0415 84.6529 13.5829
-15.6821 82.4509 -2.17417
12.0349 87.8952 10.6468
-6.6811 119.774 10.103
-16.4526 109.504 1.81145
-20.6866 129.729 6.90253
-16.5913 90.3368 -0.427891
-12.1074 103.353 9.70818
-17.4013 119.401 2.14231
-20.5155 126.67 -0.971032
-15.7233 89.711 -4.72167
7.54381 107.895 2.23184
11.5958 129.071 2.89315
-16.2523 103.891 -4.54959
13.8703 85.0278 -1.67631
7.02532 85.1117 0.236875
24.3135 87.2293 13.3508
19.7712 97.4298 6.43798
6.41144 111.509 -1.26702
-11.722 127.352 -7.00935
10.1373 121.286 -0.48304
-9.38734 148.281 3.56143
-7.65891 143.163 3.26183
-10.5108 83.5641 7.13728
8.31125 103.924 -3.50237
-19.5843 124.165 0.110957
-7.46686 146.214 -4.59903
-12.3348 96.0655 -6.9678
-16.6389 93.707 -1.99145
0.659748 84.0641 -0.513333
-17.3766 141.261 5.95521
-6.56252 130.514 -5.40531
-9.19363 137.668 5.39592
16.6387 124.058 9.52587
20.6248 109.814 11.6586
20.2662 109.009 12.8425
3.51721 112.453 9.44988
-16.4026 90.074 2.22241
10.0317 115.002 12.8466
-14.775 83.5855 4.57901
-21.6844 118.141 0.777042
15.183 124.415 4.60308
20.5282 112.21 11.58
-11.9271 110.783 10.3522
9.08356 127.01 2.04021
-3.49392 122.607 -2.60995
17.7369 114.069 1.29993
10.1114 105.065 -1.6571
-15.301 94.9419 -5.75241
-10.3963 148.779 -2.4905
0.437735 126.564 6.99639
-12.6763 141.736 0.032315
-2.15855 132.781 -0.71141
21.8934 101.387 10.8057
-5.75002 127.42 -3.46715
12.7442 87.8177 12.3661
6.68563 86.5341 3.29716
-21.7872 124.242 7.74765
5.43798 106.743 -5.80321
13.6778 115.45 14.2187
-6.99005 124.319 -4.87709
-11.1157 112.622 -8.14832
-13.4886 131.422 7.34513
11.67 82.323 5.16175
22.163 103.818 11.8922
0.0246073 91.8568 8.23034
-2.43871 121.204 -1.22544
9.34845 102.089 12.2462
7.54762 116.779 2.18595
-2.78324 116.759 10.4259
9.89474 101.968 5.02783
-15.7149 102.969 3.99953
-4.87243 122.52 -3.95899
18.2139 116.288 7.49383
16.8542 119.003 8.34076
19.9366 92.338 14.1904
-14.189 121.784 -4.23877
8.48053 93.7344 9.70577
-16.8417 129.758 6.86525
4.98043 105.445 7.49339
2.07311 128.743 1.32461
-14.7213 124.945 -1.25432
0.667169 128.198 7.7455
-15.3194 124.6 -1.49211
21.4681 91.101 9.35916
3.69781 117.662 -1.20359
0.707233 116.662 9.91271
-4.36775 130.068 6.67611
-9.59117 99.4088 11.2464
-0.682457 121.847 -0.915079
-14.6871 127.763 -0.956649
-12.3006 129.649 6.85818
-15.488 84.1221 -3.73673
-11.9735 145.661 6.11995
4.47279 107.244 -5.51766
4.24988 128.011 9.03536
3.52935 88.0327 4.85445
11.8465 124.413 -2.72326
18.9644 96.4776 14.5468
-18.3363 122.331 -1.89021
7.70575 109.174 -1.30945
16.3559 124.096 9.65971
-9.2332 103.268 12.0453
-0.183407 129.739 0.487188
-15.0857 113.55 4.72277
12.4248 116.792 -1.6261
-5.52743 100.721 -7.31999
-13.2781 129.772 -3.74366
-16.4122 119.892 -0.345723
20.5239 103.166 9.16072
-13.7441 130.48 6.82295
-3.84126 119.785 -2.67262
-2.25677 111.519 -4.00235
-10.5889 89.44 -6.28942
-21.8336 117.594 1.09501
-2.07705 91.3799 -4.63357
-8.25859 80.7482 -4.56116
-14.6452 136.505 -0.819454
-6.72991 120.171 -4.94788
-17.8281 119.244 -1.50753
-2.97383 111.297 9.28137
13.494 121.483 0.00343474
-13.0949 124.964 -5.36507
15.493 82.6149 -1.78659
-16.6256 101.445 1.08599
23.4105 93.3268 12.7196
-11.1284 87.5897 6.77174
-21.184 119.84 8.24637
-13.2384 131.064 7.31818
-6.81585 105.469 -8.34501
-6.80365 82.1414 8.61261
5.83322 112.652 3.6907
-11.0673 79.6687 -5.44457
-5.0917 107.918 -6.52461
12.4906 94.8346 3.29271
2.56846 137.974 0.915193
-7.95499 84.3004 8.29111
-5.69009 128.699 -3.88224
1.0454 128.906 1.12783
13.6692 97.6406 15.1108
-12.5745 141.146 -0.973809
2.37367 116.242 9.90668
-11.395 124.296 7.01226
11.745 101.958 14.6243
1.30001 129.418 1.23403
-14.9206 123.044 -1.8487
-9.42083 112.507 -8.20082
13.8475 92.124 -1.07977
-11.5341 132.71 8.17476
3.79534 127.671 9.20245
-13.6643 103.426 7.78009
-3.82516 141.519 -3.0127
6.56544 96.1955 -3.38366
-3.98867 94.5422 -5.92584
-8.1881 119.231 -6.25059
16.6226 95.737 6.02921
1.96341 127.365 7.96415
6.58146 124.185 4.47355
-15.6153 127.445 -2.95644
-16.3877 116.92 -1.88352
17.9368 91.2629 7.25135
-16.6083 90.2232 -2.01274
11.889 131.224 8.8938
-16.869 119.973 3.41834
4.74436 114.006 -2.18045
-20.8876 133.78 6.20129
12.6645 87.406 -0.249108
-17.9005 120.115 3.14515
-10.4306 102.928 -8.54918
25.0262 79.5416 12.8102
19.7099 107.26 3.43483
13.0354 87.7273 -0.555902
-1.87736 96.8188 -6.56351
-1.74137 116.859 10.5317
-17.4326 115.448 3.26275
-15.3618 103.18 5.2634
-13.1971 110.155 7.08064
1.01487 86.1735 -0.587208
11.6519 112.357 14.4663
-17.8723 112.255 -1.84576
2.77213 123.82 8.60221
-1.47277 149.818 -1.09595
10.6516 83.3685 -1.71076
-7.5354 74.9696 7.5675
-15.3765 84.3414 3.9412
7.33642 110.919 -0.530711
15.979 106.103 1.13682
-0.0223733 120.037 -2.06333
13.0724 96.4527 3.90258
-3.62838 85.5684 8.88874
9.97736 113.541 13.2893
-11.5056 87.408 6.63157
8.87093 115.745 2.34905
-18.1419 121.023 4.91048
12.9935 94.7938 3.70536
-5.50923 120.007 -4.82027
-8.6392 122.2 11.0426
5.10929 79.4698 -1.78181
-1.09089 121.363 9.86435
6.99472 124.98 3.97449
15.5458 106.034 1.03048
7.46073 83.0474 -0.280313
-11.7518 134.124 -3.09841
-13.5151 108.915 7.09492
3.67729 89.6146 -2.71341
21.7382 92.331 9.56435
-15.2046 97.6267 6.20135
14.7408 118.618 13.417
-2.56293 142.866 -1.47509
10.6137 101.331 -2.68593
16.9626 114.349 13.6898
-3.22939 88.0546 10.0201
15.9106 113.813 -0.755263
-11.4078 80.2005 -4.01296
-20.0904 117.235 5.59657
6.49383 99.3371 10.1788
-15.1193 100.561 -6.5952
-3.30947 140.696 -2.33667
9.5981 119.42 0.320264
-2.04644 104.255 9.17653
15.1973 90.3442 0.407203
15.8338 115.544 5.97302
-5.9558 135.638 -5.99072
-9.89454 103.891 11.7552
17.3765 117.227 9.06742
11.3496 86.9567 -0.237038
-4.84493 141.366 -4.22126
-9.10547 149.984 -2.23472
-13.8651 86.993 -4.18988
24.2747 82.6711 13.1004
7.8977 132.112 5.16186
-2.6843 120.363 -1.6005
-11.4151 97.6854 -7.43111
2.87498 83.4049 7.33274
-0.852251 97.9377 10.9708
-6.84119 117.564 10.0066
16.1779 111.839 14.0378
24.0177 80.7619 12.6513
7.24417 86.6125 2.85101
-13.9715 90.9523 -5.9417
-11.3164 116.454 11.2993
-21.25 126.65 1.70996
-10.3839 81.3882 -4.34975
16.7196 82.4844 -0.180308
-17.5303 120.028 4.32546
-3.5743 108.351 9.56696
-16.102 118.599 5.80737
-11.3579 89.4117 -5.95157
-7.39608 104.984 12.0341
-9.18183 145.713 -4.60492
-20.0174 121.302 0.800819
-10.5036 142.232 -4.04109
17.5168 90.8607 14.3142
-0.766859 108.818 9.14962
11.3058 124.498 -3.21882
-3.46626 130.689 -1.4717
14.9004 99.6654 3.5825
11.3227 111.596 5.76358
-2.42798 80.5665 -3.70225
4.13542 91.9406 3.35407
5.68131 94.5522 9.32639
-1.1237 76.0768 4.90741
5.38413 84.9865 -0.889897
-2.3033 78.9377 -3.56308
-16.3086 120.852 -1.35328
17.999 112.114 13.2931
-3.59256 99.1489 -7.24776
12.684 121.187 -2.52602
-3.59575 124.837 -1.90524
14.8256 82.8912 -0.476323
14.5784 119.391 1.14643
8.9472 125.425 -2.04262
-11.8965 148.656 1.22015
6.18861 125.855 6.79694
10.1125 104.95 3.18677
-12.702 119.51 -6.43761
-17.6121 119.366 3.95565
3.48809 132.289 8.24927
-7.22305 137.346 -5.89992
15.5416 105.196 15.0395
0.715807 132.775 1.02846
-15.4627 122.572 6.50971
10.6932 98.1049 1.30073
4.61216 121.802 9.16203
19.2814 105.288 13.8944
2.62452 95.6111 4.40628
17.8598 117.025 12.1054
-5.92292 89.3727 -7.13594
-16.8505 97.2504 -2.15491
-6.70435 108.592 -6.90523
2.96561 119.154 8.90976
-20.1034 130.916 1.56881
-6.19075 108.567 -6.73823
-17.074 127.281 7.80925
11.5332 118.462 6.12024
-17.1547 107.954 -0.667847
-2.98503 82.1658 9.52216
10.8758 89.014 -1.5901
-13.0273 78.7039 -4.0914
15.4921 114.8 0.942553
17.5552 87.3364 6.30219
9.47038 96.8988 11.6364
-0.96073 95.4535 -5.46243
-14.2216 127.773 7.62585
-1.10646 92.6187 11.0327
-18.1614 121.036 2.47442
-24.7045 119.822 5.40065
-13.1807 76.5804 -0.635569
-2.23915 81.0961 -3.69379
16.5996 117.129 3.6898
-18.3546 121.211 5.98979
8.91507 98.576 3.64825
5.94386 116.181 4.17796
-15.274 140.725 1.10202
-14.6028 75.4026 4.16678
-10.8468 124.998 6.03345
22.3785 93.7476 11.9762
-10.9208 79.5511 -3.07207
12.1876 81.6209 -1.04461
13.4809 110.03 2.17318
-14.3278 126.092 8.10496
-19.7527 130.665 0.261597
5.64706 98.9249 2.9498
-17.0746 100.043 -2.49261
11.3852 120.965 6.6971
7.11929 126.894 1.35908
6.34755 86.5812 -0.232905
-22.7476 125.742 4.0827
-18.5599 126.627 7.08054
-16.2305 125.771 9.12093
-5.92409 138.828 3.12697
-16.0997 92.5419 -0.487476
2.69983 99.1706 6.2317
16.0536 118.774 2.6712
-10.1308 116.753 -7.22988
-18.4305 119.759 2.84522
-1.09594 141.064 4.58168
9.77459 122.251 -1.82909
-5.14462 101.422 -7.13287
-4.65042 93.268 11.7668
-10.7005 124.841 6.1001
16.7178 89.1252 14.2027
23.6625 86.0736 13.7514
-20.7653 130.983 3.30108
-4.56507 112.202 9.83441
-9.50426 147.327 4.01541
11.4577 118.201 4.14374
4.92198 137.805 4.29713
-5.07549 116.923 -5.55205
17.0147 117.924 3.84757
12.2311 92.2378 13.3418
-16.7309 123.885 5.15914
13.8066 117.399 14.0264
-13.0614 124.764 -5.52312
-20.8192 121.452 8.39575
14.2238 95.1718 15.0117
-8.61903 92.1099 -7.53422
12.7053 82.4862 8.09535
6.13043 97.0301 2.39046
-3.33186 116.154 10.1019
-5.79644 97.1751 12.7027
-16.7599 119.587 2.13974
14.4373 121.379 -1.19243
-5.98524 142.102 2.94313
8.40703 113 1.9902
2.65881 98.9878 -3.59315
-23.8486 119.329 3.1797
11.4143 121.42 3.97429
6.24736 103.483 2.78698
23.6361 94.0998 12.5699
-14.9716 117.119 -6.71557
-14.107 80.5681 -1.37301
15.5079 115.775 13.9325
2.56681 79.042 5.57786
-16.8563 123.913 7.22325
3.93226 92.3647 2.1248
-13.7278 145.942 3.79666
6.44154 86.7555 4.34854
21.6383 95.68 9.88568
-1.60756 102.506 -7.55134
3.03046 88.6747 -2.01472
-16.4355 120.803 -1.45286
13.2154 94.5871 3.87906
15.5578 100.121 14.7508
20.6573 111.692 11.1686
3.42811 93.2014 3.82643
-15.239 120.845 1.02762
-1.01821 141.521 4.13871
-22.4667 118.282 7.41042
20.126 106.725 7.37788
13.7137 125.997 9.33738
19.0828 112.188 12.5776
4.59498 113.269 9.14116
-13.3475 134.585 -1.03966
-12.7124 82.7675 -5.07182
9.96408 101.769 -3.03579
14.0131 91.1984 1.71581
-2.12479 141.857 3.97052
3.71969 90.7511 4.45429
12.0899 108.232 1.5796
-4.82412 80.7694 -3.88047
15.2053 82.9636 -2.13892
12.584 101.842 -1.02015
20.4071 94.9831 7.43589
-6.96493 154.462 0.161164
-1.18072 99.7553 -6.76523
-2.71468 130.476 -0.764355
-4.72418 96.9604 12.094
-11.1017 77.8445 6.07885
20.6416 91.4319 8.74856
17.4664 93.9239 7.04623
-16.8758 120.841 6.06544
-15.2496 111.386 3.65333
5.89156 111.991 -2.51963
11.8661 81.7313 -0.622934
-14.1859 107.248 5.48916
-14.8637 106.43 -6.0166
3.04269 137.318 0.967648
0.00688476 91.6373 -2.1157
-9.53829 81.4875 -4.56527
12.9797 118.528 13.9691
-8.1807 111.881 10.883
-16.2122 90.4055 2.95561
-15.0052 130.73 -1.80647
19.0544 113.84 5.4527
0.374652 97.7319 -4.52057
9.86418 102.371 6.33644
-11.439 142.371 -2.87614
1.92567 134.987 8.06767
2.46958 108.633 9.18862
23.1519 80.5105 11.6278
7.71558 86.6125 2.91272
16.9855 81.8095 4.71297
-12.8657 79.3885 -1.41394
-8.81184 115.487 -7.53675
3.82861 82.3954 4.95546
-11.0358 128.712 -6.87635
-13.2187 144.468 6.9047
-19.923 132.056 -0.0669785
-11.0276 131.174 -4.02222
21.0821 82.9189 7.13663
21.3953 80.205 13.4599
-7.60617 107.857 11.8965
4.93706 92.0619 7.90656
-5.75279 92.2384 -6.85629
-4.95405 113.475 -5.62098
-7.58395 125.228 8.57328
-3.34612 79.6036 9.12833
14.3839 82.1601 -2.13477
20.1501 82.0439 6.60347
13.0911 116.45 -2.46883
5.35087 136.067 -0.964416
-16.1016 92.4343 -0.470359
-14.1084 84.3117 5.92189
9.86968 107.378 2.6647
15.4832 118.404 1.14314
-10.2095 82.5119 -5.46752
20.7669 79.3207 7.75873
10.0612 120.384 9.08761
-12.0479 130.326 -3.93581
-14.7329 85.1388 5.05766
-15.651 120.31 2.41363
-11.1335 79.5336 -5.53983
11.4305 117.352 6.75119
-12.3171 139.097 -0.847043
4.96047 93.464 5.47735
-15.4225 122.061 -2.40723
-1.22912 84.4907 9.75247
6.08233 119.932 4.56633
8.80134 95.0525 11.6491
17.2316 114.995 7.68095
13.723 120.39 0.337747
10.909 123.367 7.12458
3.34633 87.696 2.07208
-3.89566 127.805 7.92808
14.7106 104.761 15.1273
1.83114 126.28 7.70612
-24.2443 117.945 3.12457
8.14232 113.502 1.54082
-5.41418 112.707 10.2426
14.786 127.683 9.02983
19.1714 104.73 1.3634
8.78431 96.3652 -3.94808
11.143 82.8641 -1.39109
7.22158 99.3725 2.79669
-6.14541 132.043 -5.2125
-3.08866 141.946 5.21025
12.068 97.9124 13.6871
6.27718 106.933 -5.39241
2.46916 116.098 -3.92233
1.75152 92.7055 -2.28889
3.03971 91.8422 3.29026
-14.7425 120.551 -3.26414
17.2518 94.1405 6.70485
18.4444 112.294 4.19484
-4.97646 101.813 -7.29021
21.5592 97.4798 8.14016
14.6654 87.4057 13.627
-6.27503 138.842 -5.61971
18.3404 98.6423 5.52323
-13.0045 91.8517 -6.2979
-22.014 118.75 7.66239
-13.9668 136.14 8.80298
8.9185 103.768 11.7291
-7.18579 138.148 3.82356
-21.1845 117.545 6.19977
10.2048 84.0196 7.62875
2.61232 77.1176 4.49832
20.3293 112.196 8.23024
-5.22924 144.009 2.83125
-16.7741 140.412 7.74599
-19.9876 118.828 6.921
-9.20114 131.191 6.79382
-15.8216 118.622 -1.049
-3.74261 120.167 9.8118
10.6821 107.014 0.36359
-3.72104 94.9667 -5.87377
-11.6878 112.155 -8.18835
-8.33377 100.958 -8.12731
12.676 88.339 -0.293949
-4.34142 97.9732 -7.57444
-12.6969 141.593 0.046075
-0.539869 121.562 9.62518
15.4604 114.214 -1.16074
16.2792 97.9821 4.80251
5.82631 83.4088 4.56299
19.536 87.8555 9.89045
0.124229 103.952 -6.88339
-4.31877 89.4854 9.46512
-20.5082 131.973 3.63957
19.6032 80.131 12.951
-3.4474 131.896 -1.54185
-1.9245 80.9254 9.26137
10.416 118.315 2.46553
-16.0753 118.55 0.652104
1.61319 118.616 9.00179
21.5735 80.065 8.95287
13.0042 113.307 0.756325
11.5611 118.054 5.98934
3.19661 81.2281 2.76459
-15.6661 78.7912 3.01828
0.12582 126.825 6.93214
-15.5321 123.268 -0.633916
21.208 92.5611 13.636
-14.609 88.0326 5.53414
21.7207 98.9109 8.70334
17.8144 111.752 1.87987
-18.6998 118.188 4.42093
23.9209 78.1061 12.5415
-15.6893 96.7186 5.42428
-17.4822 125.829 -2.30157
-17.0827 119.945 0.176312
-6.08405 133.196 4.55859
2.75092 127.28 8.38982
-21.3655 117.729 0.760644
22.3845 104.414 11.1039
6.36379 118.094 2.16757
-23.5613 116.221 6.32712
7.80685 107.204 2.18278
11.8673 127.705 3.75789
-6.74056 112.951 10.597
-18.3868 120.912 2.56451
-8.3677 143.928 -4.89153
-6.77865 122.985 -4.42576
16.3648 101.981 2.48598
-14.4559 133.876 -0.857689
-15.6857 121.366 6.43852
-15.2771 121.285 6.49526
-5.58796 87.255 8.3662
-7.4548 123.688 -4.88954
-15.0275 105.788 4.73211
6.17961 86.5427 2.23686
-4.15089 98.6902 -7.53856
-12.6296 136.1 8.17819
-1.30753 78.9055 -4.97095
13.467 109.126 2.1034
16.2458 114.354 3.63221
4.00063 89.8079 5.9975
-11.433 100.159 -8.34567
3.50948 143.743 4.16617
6.45958 96.3365 10.4923
12.9906 128.37 9.78417
-17.1696 114.488 1.49792
10.3413 115.379 13.3008
-0.915798 110.615 -4.45601
3.60363 88.2704 4.73806
-5.5175 97.2267 -7.66862
-13.8619 125.6 -4.33841
-16.8499 99.2236 1.75233
-0.596318 106.254 -6.51358
-11.1691 79.4906 -5.57003
10.6998 117.044 -0.155684
-14.8397 126.05 -2.58665
-4.44539 89.6497 -6.6307
6.33725 84.1426 -0.665353
-13.1931 100.679 -7.62413
13.8457 81.898 8.35741
-17.8992 112.823 0.017186
-20.0894 135.932 5.02969
-11.3169 75.1153 6.84444
11.1993 102.188 -2.51054
21.9603 88.5906 11.3486
-6.71016 94.2157 9.83992
3.9152 85.2243 5.17681
3.09795 82.3867 -2.39161
-9.68246 129.817 -7.0705
7.14295 100.894 10.3974
3.86822 90.929 3.62034
-5.49839 87.8769 8.2447
-4.27379 147.638 -2.85612
16.3473 90.0803 14.3864
-3.8147 104.411 9.74107
-24.0843 118.818 6.59152
-14.0585 107.885 -7.27926
18.3014 110.405 1.96304
-11.3375 100.232 10.2519
-10.8237 129.048 -7.31669
5.58797 93.4751 -3.12814
22.7831 92.1472 12.1086
19.0256 85.1296 8.45521
-12.4853 105.95 9.38758
6.55576 84.6837 3.49981
-8.13791 148.082 2.82481
11.6028 117.587 5.74069
17.2105 116.797 12.7139
18.3508 110.765 3.86424
16.3868 114.631 1.29788
-16.4996 92.8835 1.71822
15.4469 87.9862 0.930752
-11.0629 96.5185 -7.17822
-13.4756 144.456 6.87732
-5.09455 113.266 9.89501
-12.8986 137.087 -3.55799
-12.3112 115.306 8.70558
-22.4357 120.503 0.908763
9.60341 122.252 -0.837662
17.7588 92.4526 7.24402
0.404512 136.533 0.942663
-3.29459 75.4577 6.41836
-5.04011 81.0549 -3.66816
-4.85568 82.5934 -1.82845
-9.22504 116.639 11.6905
-20.2152 132.281 1.34841
19.8637 107.231 6.99501
-15.6009 122.557 -1.92734
-16.9448 122.5 8.64205
2.76828 106.978 -5.69418
6.07642 97.4555 -2.64797
9.48509 117.346 10.8788
20.5537 103.53 3.51021
18.0219 116.652 6.35323
-18.0972 133.737 -1.70479
-16.186 93.6012 -0.72299
-4.99663 84.5483 9.17521
-6.44657 103.566 12.052
19.7526 81.6152 6.6791
-1.2607 136.244 0.0215598
-20.6573 120.285 8.3501
-6.32307 131.355 5.27118
-8.85289 121.299 -5.53443
14.3293 94.0782 14.9654
-14.2029 132.061 7.15603
15.391 108.299 1.62161
-16.4591 132.084 -2.50257
19.0063 90.4299 8.72674
-15.1904 118.816 -3.00202
21.3222 83.8132 11.442
7.68192 111.581 2.178
-15.7596 121.96 -0.760416
2.13182 93.6777 5.71417
10.6579 110.418 1.72052
-15.304 120.925 6.18815
9.42002 131.277 1.82101
-18.7987 136.024 8.18869
-11.8168 92.8377 7.95997
-9.43748 116.399 11.8833
-16.4875 138.976 8.18128
-4.35653 136.307 4.09237
-8.60717 126.991 -6.29653
-14.6053 110.199 3.86486
6.15405 99.7134 9.06661
13.2443 99.7079 0.970636
-12.9744 132.827 8.35874
-13.6928 112.788 4.94996
-10.8281 107.484 11.4203
-18.3453 129.608 -2.29537
-17.9524 121.14 -1.51387
-16.6221 115.752 -3.90108
12.3568 112.266 1.78488
6.1638 86.7088 3.48675
3.3095 134.774 7.90758
-6.78016 146.363 2.68198
-12.1749 113.757 9.1668
-16.1739 121.89 6.01223
-7.43095 98.4678 12.0856
10.4238 99.2056 13.6565
-5.11927 99.0358 11.8101
-24.884 119.279 5.44238
-16.458 127.535 8.62183
-20.9819 130.851 3.62519
-6.31945 83.6074 -3.13929
-9.70008 83.302 -6.00102
20.6418 99.1073 13.8171
11.2921 110.676 6.21591
-7.68763 116.987 10.1631
-10.7627 122.013 -6.74615
4.76101 85.6816 -0.463127
19.5373 100.412 14.0979
3.2167 98.3526 4.96193
-10.471 120.166 -7.07196
-14.6047 124.145 -1.83939
-14.2453 81.0464 -3.0201
16.9364 86.065 3.64167
4.80793 85.0017 -0.642034
-14.2323 75.7189 5.34245
2.85201 89.9275 5.59552
-19.8111 119.215 7.27922
-18.8411 125.278 -1.80933
18.0798 113.696 1.72449
-1.80274 124.358 9.83497
23.5609 81.8294 13.8496
1.77665 82.1046 8.14508
6.71406 111.646 2.60204
6.54947 110.795 -4.4951
13.6863 111.492 1.05883
-12.4012 80.0103 6.46546
-13.207 109.764 8.42805
-23.3575 125.021 5.9382
-16.228 95.081 3.72388
-20.4023 123.63 0.605121
-8.86148 96.0715 -8.22848
5.31858 113.907 -1.13547
-15.8742 116.811 5.67881
12.0691 96.6369 13.3908
11.2555 124.138 6.49839
5.61781 85.7465 -0.721051
10.894 121.668 12.6846
-7.24579 94.3221 -7.17707
15.5135 82.2851 3.10017
-9.64825 82.9061 7.49056
-14.6895 120.092 6.92134
-12.3106 138.523 -3.4425
-18.4182 117.519 5.7828
-7.98081 129.322 6.14569
6.44575 88.1718 4.27266
-15.4304 93.4437 -5.51937
10.5349 90.5742 9.67194
-18.5739 133.793 -0.257332
-14.8032 87.7066 5.18326
11.9023 122.121 -2.70802
-14.5865 78.8465 -0.949216
-16.0119 132.681 -1.92456
10.8016 98.9759 13.8514
-11.8137 75.7987 0.333502
-8.38381 144.647 3.47168
7.34038 125.78 3.46505
-13.2921 132.938 -2.01082
14.922 116.62 0.738898
3.19529 138.374 0.602394
16.2014 106.912 14.8028
-16.1641 117.024 5.64711
5.89983 97.3758 -2.58444
-16.3092 95.6497 -4.65414
-13.4601 89.2449 -5.08241
-17.9325 139.558 6.7323
5.50295 81.8901 2.76064
4.78006 116.036 -0.389185
4.6291 87.3487 6.42024
-3.55791 90.4179 10.4998
-12.3579 116.552 9.37477
9.26213 121.386 0.900604
-3.64622 86.1844 8.94055
6.49338 128.624 6.89789
-16.8577 113.693 -2.59515
23.9663 80.4975 12.3387
15.8807 102.567 1.18318
-12.9924 89.8908 6.77228
9.01123 98.9742 12.599
-16.3476 91.4792 2.71795
1.34463 142.764 0.14597
12.7937 93.5931 -0.422518
-23.4247 122.205 7.07471
2.36959 136.86 1.36651
17.4041 118.995 3.66115
-6.52721 114.761 -6.6058
-11.0486 127.307 -7.05352
-16.2853 95.7606 2.75723
-9.96485 123.974 -5.73621
9.01959 96.3482 -1.94835
23.7387 79.819 13.8281
-13.248 103.069 8.48913
21.2468 104.038 12.9849
-5.56858 87.9591 -6.81272
9.62977 82.8731 5.58471
1.55532 120.809 8.62366
17.2754 116.211 10.6768
3.12943 91.9302 5.14081
-18.9549 119.937 5.71712
-6.05199 152.312 -2.11827
5.65862 136.587 -1.75762
-8.87069 131.682 -6.89797
13.2756 123.365 12.1436
-14.3642 100.446 7.2939
-16.9821 97.6016 -0.130298
-13.7567 98.0435 7.89506
15.1843 95.4464 5.1558
7.85444 103.348 -3.8832
-7.66281 105.49 12.0583
-13.9637 124.057 -4.13394
-10.0833 151.292 0.0740774
7.67304 97.0389 4.26219
-15.2038 122.609 -1.08508
14.1005 114.831 14.1987
-7.86012 113.791 -7.49899
14.5742 116.167 -1.49626
-5.70361 87.6491 8.27972
-1.3779 83.7274 9.85528
13.4633 99.4095 14.6816
2.07615 87.6818 -1.21709
-9.18347 138.793 -5.33719
23.4801 90.5709 12.853
-16.3512 96.8168 3.54441
-16.6123 98.9695 -3.56734
-10.3577 149.065 3.50484
-14.1837 80.4549 -2.28716
-0.93787 78.7723 -4.46861
-23.4679 121.788 2.33521
8.32004 83.035 -0.750045
-15.0568 141.967 1.61634
16.5961 115.311 6.25405
10.4396 119.831 0.0509393
8.26851 99.478 11.9986
-0.875185 95.7409 -5.37467
-10.1629 106.071 -8.12454
-10.5204 129.62 7.24966
-0.297833 91.6589 -2.25314
0.769707 129.654 0.883652
11.5889 112.645 2.19885
-9.77646 138.311 5.67268
-2.30083 125.665 9.38384
14.5877 83.5113 -0.923375
-16.6563 114.177 -2.56835
-17.6113 121.689 2.72207
17.2827 94.9818 6.70644
-12.4704 125.616 5.86395
-3.21453 115.534 9.91594
-15.7559 121.254 0.338481
21.3707 101.215 5.64328
8.95334 103.731 -3.76236
3.27119 115.961 -3.83806
10.1899 106.262 12.6968
-3.71323 132.501 -1.85453
6.99066 100.908 3.65747
-17.1055 122.826 -1.60935
-1.32884 102.919 -7.49304
-16.0453 143.491 5.59113
7.77066 94.9027 10.1864
5.46288 125.065 8.20735
13.0585 93.0558 1.29304
9.09712 92.5405 9.45759
5.13171 112.242 -4.21992
7.83017 86.0213 3.80594
21.7338 82.2272 7.81957
20.9072 83.6382 8.16311
1.72634 131.472 8.08027
-2.24684 85.9164 9.65572
18.05 115.891 11.8854
9.94783 103.046 7.1692
-1.7616 87.2241 10.8578
10.1135 111.288 13.7866
-14.5533 79.3678 4.92178
7.29553 133.655 3.86419
11.3315 113.454 4.97562
-12.4263 106.085 -8.20094
0.182622 90.9379 9.0078
7.43011 86.2927 3.16448
-0.379628 114.073 -3.7198
-5.61991 141.812 3.19675
-16.116 113.129 3.30153
7.87697 96.8973 -3.87471
-8.26938 135.026 -6.35168
5.6504 134.934 5.9073
9.125 83.2769 5.3668
19.105 80.1677 6.38013
-6.74017 150.106 -3.43728
2.35037 94.3805 6.24226
6.76323 87.8049 3.21106
10.5929 114.515 13.7427
-18.6284 123.631 -1.09286
-16.7474 123.993 6.34003
-17.8655 111.929 -1.87072
2.85143 135.384 7.72134
13.5413 91.9076 1.89875
19.0007 105.194 0.759874
17.6885 105.266 0.740155
-8.13337 130.484 6.71885
-17.4339 114.582 1.99387
8.53308 107.517 -3.22695
-11.085 75.6522 6.80126
-16.3347 123.006 8.61723
6.99584 115.59 1.6033
1.15237 93.9295 8.00606
18.5082 101.23 4.16732
-3.91312 115.382 -3.79168
-11.1267 104.854 -8.05171
-12.6786 144.835 1.55949
4.57889 136.672 4.97497
-19.4698 119.258 5.47605
9.66222 123.395 10.7173
-20.0881 135.159 7.66228
9.46609 107.106 -0.697086
-13.0333 115.824 -7.08594
3.75098 91.4103 3.47721
8.49573 117.883 1.3561
0.32426 118.401 -2.62902
21.5887 95.892 10.0564
-10.9548 122.379 -6.65163
-11.9108 133.346 -2.93526
-3.64387 145.762 -2.46673
7.28547 133.098 5.39061
6.93335 100.974 3.67264
-7.28115 127.771 -4.85185
-3.66903 144.818 3.16371
-5.84533 118.339 9.93776
12.0495 91.4976 -2.34392
-22.1455 120.803 0.92089
-9.09716 99.7124 -8.33617
-15.7797 112.486 3.34478
16.9317 87.5915 5.65485
17.5603 103.63 1.16994
12.1506 115.843 -1.32913
-8.81493 127.381 6.77752
8.64057 119.92 0.948352
21.3572 83.9176 13.5889
-11.1359 124.491 6.66406
7.37005 79.9095 -3.43827
3.82726 117.188 -1.17155
-4.14001 116.614 -3.73602
-15.9721 98.2122 -5.60625
3.37509 94.4483 3.89969
-8.75058 133.817 6.48109
-22.2911 125.762 2.19183
-12.566 78.5719 5.83515
8.09943 119.666 1.34845
22.7362 89.0001 13.0544
-1.48925 125.986 8.86128
-16.2062 127.96 -3.27946
-4.36936 102.804 -7.89538
-5.59211 150.089 -3.28707
22.7836 78.7243 10.8085
-7.92408 135.468 4.85425
0.00122867 126.771 7.03336
4.7432 92.5965 -2.63477
-13.0957 105.146 8.54473
-16.9402 102.8 -4.23826
10.9902 112.369 14.376
-19.9698 122.775 8.70773
-11.3975 75.6326 0.473138
-4.2137 80.0906 -4.0764
-0.456057 93.5605 10.9106
-4.32132 117.296 10.3497
-15.1409 112.997 4.03645
-4.60612 108.699 9.78561
-7.53727 80.1932 -3.98789
-0.706757 78.7747 -4.43775
-3.71417 94.5082 12.219
-3.50019 121.156 -2.3944
-14.9167 124.89 7.03397
2.02227 139.155 0.752438
-6.02433 99.8885 -7.64712
-2.44141 77.9172 8.37889
-13.6293 75.5288 0.413571
2.52698 79.8133 6.13265
7.29627 110.102 -3.91442
-17.1939 112.746 -4.34877
15.4067 88.7226 -0.270132
4.74746 109.747 8.33588
-14.2915 81.3477 -3.10333
-16.2755 98.7374 -5.32724
