ply
format ascii 1.0
comment Created by Open3D
element vertex 1788
property double x
property double y
property double z
end_header
18.8191 136.1 2.85837
10.438 152.774 1.26125
5.20605 112.357 -2.63845
14.0182 130.824 -4.10808
-5.60488 131.42 -4.102
13.6657 127.837 -2.65451
11.7578 102.842 4.81538
13.9441 133.108 3.17932
-7.71144 128.261 -5.25116
-3.84412 142.133 -2.73204
21.5175 127.359 6.74194
15.5033 85.0034 7.14123
9.43772 113.462 2.80562
2.52269 128.726 2.14649
12.4831 99.3041 5.01861
15.3103 85.0401 7.83771
16.6348 135.202 -5.24564
11.455 143.396 2.11349
17.5002 125.485 -5.6376
15.8185 108.574 3.31855
20.654 124.856 -6.52823
16.8816 133.519 5.37742
11.5157 83.4549 6.17874
9.62528 93.338 6.6577
15.4185 85.8672 5.48887
22.8785 111.699 8.53991
12.486 100.913 6.75961
14.3836 121.692 4.64245
19.8602 116.074 11.4726
14.5349 107.812 7.08894
14.5722 126.098 2.06893
16.1797 140.082 4.74844
-2.96301 148.165 -1.5833
9.5634 91.202 -0.601966
-3.86366 79.9092 -0.905839
22.2599 142.605 -1.0368
-2.52839 119.796 -0.904047
9.19852 106.761 7.23331
18.3222 134.794 3.16048
20.0277 81.9506 10.7705
23.3482 126.648 5.66089
23.8796 133.106 -4.50754
-7.62034 133.495 -6.00163
9.70042 109.103 4.47126
14.4219 129.126 2.83891
11.5324 128.575 2.02363
-0.893673 85.1459 -0.131043
13.5531 85.8289 3.09413
14.2739 109.71 5.33594
14.7472 122.401 -3.09849
16.8833 122.379 -4.80783
20.2301 120.519 4.254
16.2181 97.974 6.15539
-2.50874 143.457 -1.10971
17.9019 83.2317 7.34355
-9.59111 87.7496 -2.36088
13.6036 126.269 -3.38405
21.5492 131.358 5.30971
-3.31632 117.742 -2.31161
20.0191 123.64 5.41181
5.43289 130.145 2.9944
19.8609 144.506 -1.94697
19.4017 118.547 10.1885
7.5686 94.2705 -0.783096
4.26437 148.926 -2.82546
9.445 111.877 4.44681
18.4932 115.433 2.21201
13.9219 103.668 6.80564
20.2134 125.079 7.33272
-1.76071 111.386 -2.24172
19.0917 86.4968 5.55825
10.7242 98.8059 7.87471
-7.99213 127.597 -5.28383
-8.6209 128.673 -6.35656
12.9902 109.163 3.6555
17.1027 120.797 2.17211
15.9171 129.925 1.48779
15.7857 136.45 5.21644
18.6955 125.871 3.13936
9.21262 118.613 5.75296
24.5918 106.374 12.3743
-0.306369 97.4698 -4.3819
11.3529 102.1 -1.20161
18.1291 82.7696 5.44544
16.3457 125.027 -0.574321
16.9914 144.738 3.66352
21.5201 124.938 -6.58803
24.2657 127.265 -0.951561
12.7868 121.785 8.35051
16.8835 110.616 2.58139
3.97013 131.036 2.83331
15.48 136.069 -4.78742
9.57553 146.277 -4.71549
6.92685 79.3573 1.10598
17.6264 106.617 2.6378
-7.3799 80.9404 -2.28652
8.34041 92.1892 5.28264
3.25665 136.96 6.18162
18.7384 81.6571 7.38916
-3.38949 115.951 -2.78775
-6.35788 100.626 -5.6936
22.2108 141.496 -0.185781
13.1222 88.4013 2.28502
1.55298 79.2147 0.195664
17.4733 122.775 -2.4593
8.64533 126.922 -0.894253
13.2324 139.308 -3.55899
11.2801 84.8707 3.11824
-7.80948 80.6291 -1.70406
9.84489 137.791 2.53331
12.3364 119.238 0.497846
-5.07917 86.0245 -3.95148
8.17012 125.176 8.20293
6.8158 83.3074 1.43649
16.5342 91.0739 4.55782
15.8261 115.865 -1.00169
22.9437 131.509 2.23977
16.7386 131.655 2.53988
16.8217 129.703 3.32168
23.3736 127.762 -1.14988
19.5253 114.985 4.74192
21.7289 85.5774 9.61903
11.1621 121.378 -0.977768
15.4601 86.0808 5.53632
13.5552 118.296 -1.18965
21.0306 125.949 6.29373
14.3016 135.029 2.13019
2.83861 140.958 2.51186
21.3588 120.527 4.20697
17.6457 115.037 2.52193
22.6246 137.929 -1.60133
15.8534 101.035 3.1294
-7.0568 97.2252 -5.84722
4.25345 118.796 -0.592433
8.80351 129.478 -1.78906
-6.04469 120.251 -3.45881
8.1406 99.5955 -0.760759
21.5896 93.4171 10.7651
-6.90071 152.903 -0.87525
12.4836 94.807 0.928377
-13.6143 122.333 -3.30229
21.8603 127.596 -3.95169
5.35519 134.821 0.835217
18.1181 128.582 5.79664
18.8891 89.9105 8.42904
13.5208 129.234 0.267361
12.4005 87.0891 4.54027
2.12773 117.31 -2.21943
8.05276 145.251 0.769512
24.8798 128.705 -4.93383
21.9068 88.6107 11.6632
22.4489 123.549 3.49473
15.1786 146.511 4.25556
11.8131 145.404 -1.18751
18.5858 116.519 8.51676
-3.4062 135.891 -2.17494
21.9511 114.474 12.604
5.05761 124.977 2.47924
-9.42286 126.012 -5.28095
24.1846 128.525 -5.41294
6.54693 154.563 -1.04458
19.219 115.183 2.8196
20.9201 121.649 6.53657
3.67204 123.611 0.0782146
19.9213 101.006 6.44745
-10.5559 104.705 -5.59119
20.3515 121.332 5.69943
-6.69302 85.3013 -3.57209
14.0194 118.7 7.96151
9.28503 124.547 5.83813
-3.02766 86.2747 -1.97426
15.997 118.673 3.39107
18.6628 92.3035 7.90218
-6.56796 91.0514 -4.82265
9.33919 89.4307 4.35548
13.1265 81.3303 2.681
-11.095 111.08 -6.11963
14.8275 86.7796 5.64004
17.4831 98.84 6.34962
15.9673 120.234 2.65438
-4.91769 122.581 -2.94372
18.4101 128.733 4.62623
10.1442 151.861 1.77718
24.6229 83.4542 13.5449
2.01483 123.11 0.595343
20.1971 86.4288 8.79825
15.3395 115.812 -0.530539
17.0276 121.656 0.467203
17.0846 120.511 10.0633
8.93673 152.019 1.32535
16.5035 127.09 7.39724
3.67403 144.043 -0.953384
12.3969 104.134 0.170713
14.9535 127.822 7.63646
14.9151 87.662 7.6487
2.56565 152.864 -2.68978
14.9231 87.0873 6.75229
11.8187 119.792 0.90544
-10.1068 110.002 -6.31856
11.6569 145.682 -2.74283
14.1591 131.565 3.20013
-11.3519 113.95 -5.52588
13.0039 80.9667 0.949194
15.1523 144.918 0.292929
8.99833 104.047 -1.27806
17.2455 89.905 6.29293
-3.33693 80.2644 -0.82038
15.1464 143.387 -0.394197
13.2337 141.294 -3.81713
20.1103 133.354 2.30394
5.45795 91.4254 0.0563248
13.0327 85.04 6.39072
18.5221 82.8749 7.57688
-5.76191 82.0283 -1.31828
18.7616 116.695 8.29316
16.6672 115.655 4.65116
20.0083 98.1376 8.49972
7.61381 102.691 -0.813295
14.0459 85.0542 2.39707
-7.61124 151.714 1.54773
7.30757 141.179 -3.82625
5.23571 119.686 0.771882
13.1532 137.97 4.87235
10.4828 110.193 1.95764
7.84833 127.164 2.44266
24.6117 82.3438 12.7547
11.262 98.5822 1.447
7.31316 86.5633 2.73269
24.8456 95.6532 13.4648
8.40404 111.229 0.751358
12.0615 129.786 6.15303
6.37345 85.2244 2.43876
14.3 132.374 -2.83326
14.4059 128.14 3.86329
8.09869 142.309 1.50328
3.38723 154.621 -1.63545
14.9358 87.456 4.57991
22.9688 91.6283 12.3309
-10.2219 150.054 -0.495282
0.40254 140.05 0.869582
11.9041 87.3373 4.79415
16.568 126.656 -4.95289
18.4216 133.496 4.66224
13.2313 134.354 -4.69549
16.1129 81.8586 2.79234
7.73183 153.526 -1.46929
14.45 138.306 -1.97869
7.69757 82.8671 2.33033
12.0521 116.527 2.7238
13.8566 138.382 3.06816
-1.98754 102.254 -5.55047
-3.87538 125.721 -1.26486
15.0525 88.2557 4.51588
10.6803 147.046 -3.98344
14.6625 119.171 5.16288
13.0068 140.45 -1.3047
12.7025 97.9808 5.53988
7.07489 96.9751 -0.292958
18.1471 103.156 3.79537
0.222997 87.2088 0.323996
11.9906 101.165 7.79856
21.5159 82.9208 9.87624
-7.673 116.095 -5.52499
11.1762 117.33 2.73275
16.0965 143.117 3.80856
16.8499 129.394 5.73809
8.88165 78.7024 4.57767
13.5892 103.172 7.91056
10.394 89.8491 7.24472
18.0858 90.2037 7.76466
12.1367 146.288 3.98938
-8.59224 142.768 -4.23379
21.2645 128.566 -6.30601
25.1585 80.2471 14.6599
1.07849 124.296 0.890893
-7.33545 151.947 1.40341
9.67516 117.871 3.89524
13.8965 104.469 4.56003
4.84723 117.325 0.0392536
17.6221 130.302 3.48821
-1.51697 115.987 -1.226
5.2091 102.227 -2.56915
14.8324 87.2393 4.74861
19.3553 120.163 8.03822
19.0216 124.391 5.34134
15.2545 87.9113 5.13368
19.5953 107.955 2.13236
7.69039 101.16 6.96119
8.38251 92.2416 5.3902
13.4712 143.289 5.93979
12.7731 101.346 5.02862
-5.76415 84.0227 -1.49114
7.68276 128.803 0.847537
19.3959 137.634 -4.815
-7.49237 80.2146 -2.25525
-8.10077 150.374 -1.91313
13.331 92.5564 0.60426
14.903 86.7709 8.65622
5.32148 78.7239 0.63113
-9.16455 83.765 -2.99662
-5.68865 89.7763 -4.69472
4.15982 147.116 -2.45801
4.03273 142.058 -0.177361
9.39982 80.5681 4.47643
25.2495 99.6802 13.5036
15.6433 133.194 6.01785
-0.171682 85.2849 0.508391
12.0048 151.579 1.68542
11.5181 120.595 2.47778
9.12667 148.435 0.459283
-2.39554 135.673 -0.641521
9.63137 145.383 -4.84241
20.225 85.6179 5.57103
21.9657 83.0606 10.129
-2.92615 115.663 -2.16157
21.7663 92.7239 11.3399
-3.62277 148.582 -1.88586
16.227 128.149 1.87596
16.9602 85.8365 7.27574
18.7228 125.227 8.4777
21.9713 139.957 0.70034
15.0662 118.025 -0.684457
3.21774 96.6013 -0.213431
13.7185 122.54 2.98581
9.5396 111.428 4.21714
8.13011 93.0882 4.6803
24.4954 128.906 0.164432
6.49314 79.1361 1.49481
-14.4792 113.865 -4.42165
-13.8367 118.834 -4.61131
10.4277 124.65 2.9205
9.5291 142.539 0.266442
10.7558 126.808 9.50073
1.36348 136.585 1.80642
12.5929 97.2282 3.4218
4.76979 80.751 1.12967
10.1499 92.888 4.60388
13.3571 99.8621 3.01586
8.24401 91.7119 6.73428
18.638 98.8649 7.16886
13.4682 139.621 -1.1172
11.7911 133.82 7.12272
-5.26759 100.875 -5.19305
22.2231 106.567 10.797
13.731 134.835 -0.696788
16.9423 90.4298 6.35055
15.2687 89.4348 9.66116
12.0465 99.8731 4.61519
13.2337 111.256 3.54784
13.1077 146.546 4.17894
-12.6929 121.167 -4.63841
18.8153 115.205 2.11033
22.6086 102.244 7.03203
5.28448 86.7343 1.68814
8.70499 132.235 6.65387
20.2215 125.959 5.90233
16.5381 82.9077 2.76232
-6.59397 83.7885 -3.44853
0.736539 137.093 5.12658
9.23814 84.7992 6.75473
-10.6601 92.0574 -3.8093
12.9704 131.079 5.07083
18.3224 120.977 8.48265
-9.53263 101.465 -5.95146
10.1493 101.394 5.3035
-7.80604 104.894 -6.39255
3.13503 149.749 -2.17911
10.518 104.609 -2.27116
0.74308 144.976 -0.0011363
17.4609 124.954 6.30081
13.8462 81.5093 1.01938
11.047 125.451 9.38641
21.0285 125.706 6.85107
9.3165 99.104 -1.7021
23.8246 127.1 0.0423684
13.4103 138.59 -1.63976
3.58906 132.8 2.54374
13.5727 114.557 1.49476
16.7022 131.915 0.0220098
8.81853 102.561 5.25541
-6.21999 90.9941 -4.84134
8.95524 92.1511 -1.11747
9.61946 111.627 3.98504
-5.85203 138.72 -4.78611
15.9229 127.694 2.10439
21.6674 127.767 -1.03023
10.8934 145.775 1.41841
23.9182 99.6135 11.6859
23.8521 135.275 -1.36923
10.0675 132.853 5.6765
14.227 105.024 6.13924
-12.1379 104.339 -5.42146
6.8454 147.548 -4.2533
26.7444 90.6751 15.5563
-6.67228 81.9199 -1.22279
-7.13914 140.424 -4.97204
11.9008 121.467 9.33789
16.8389 127.03 6.88542
12.1885 134.357 -4.18449
25.6133 91.682 15.3771
4.17635 95.0167 0.428722
10.8 124.687 2.55709
13.3845 89.6518 6.49281
-12.5689 120.796 -4.5721
-4.03106 145.942 -2.56424
15.8188 130.059 7.03706
11.6367 97.7073 6.76819
10.9853 104.504 -2.52232
19.1236 127.599 5.11476
3.83706 118.158 -1.06502
-9.28819 118.354 -5.3182
9.82706 90.4892 6.30867
1.71195 92.824 0.679712
9.8883 91.7292 5.50452
-9.42274 84.8632 -2.72341
22.9846 131.976 0.941598
-3.67786 138.497 -2.51121
7.01592 101.645 -0.628949
18.5681 111.78 1.17401
11.6179 118.589 1.01237
24.8318 83.6244 14.5117
1.45654 85.8644 1.4763
23.3931 137.906 -0.814743
-5.05033 143.028 -3.68651
11.4345 121.338 -1.47178
12.9657 140.586 -0.892762
20.2111 123.37 6.39593
-9.91139 82.7422 -2.76416
24.7601 95.8262 13.3087
17.8429 132.797 -4.28721
20.2294 145.234 -1.45956
22.3717 80.7855 11.636
16.7486 98.3077 6.19864
0.498061 151.792 -2.06057
11.4571 99.7374 1.53194
23.1222 110.81 9.57104
8.5771 89.0716 0.368326
14.4312 87.4676 6.65006
2.689 90.2995 1.08881
13.3746 130.223 -2.32912
15.7154 126.51 8.80275
13.8702 124.837 -3.23737
24.3049 107.714 12.5227
23.6931 126.533 -2.11139
14.5054 110.544 6.0965
16.6911 126.732 7.92696
-2.76932 83.9124 0.200939
21.6033 108.512 7.50822
14.6306 130.097 1.73699
7.03176 133.074 7.55135
8.97719 112.52 1.9418
0.0216368 128.255 1.36794
8.42272 97.6366 -0.77088
14.5391 120.772 5.04501
6.42642 90.403 -0.291613
10.1825 86.5773 4.62706
15.9534 85.2885 2.09236
10.5159 147.412 1.59511
20.0769 125.94 -6.52002
22.7959 127.86 0.230454
9.60562 114.395 3.20895
18.0701 103.728 2.66426
19.0869 117.087 7.77266
12.9172 142.112 4.61363
7.5768 84.2125 2.26986
12.9506 140.62 -0.789331
22.4389 114.232 12.0628
-10.3066 135.313 -3.71038
4.05775 139.021 0.515335
13.5342 127.981 -3.63324
20.0608 126.997 5.04949
-0.294962 101.004 -5.05902
26.8138 96.8134 14.246
9.12226 117.668 3.50337
23.9572 127.711 2.3046
13.6919 127.298 -2.71198
11.5137 133.083 1.58055
10.5607 98.5783 4.42299
10.2093 104.503 4.70114
23.9271 128.785 -0.13008
-2.21621 89.2991 -2.85435
-1.79253 133.836 -0.0962398
11.6549 83.6802 6.38208
-10.0481 144.413 -3.14197
9.31145 90.079 -0.0727316
21.1479 113.256 13.3691
-2.98632 144.983 -1.5978
24.2646 129.614 -0.127447
17.493 103.329 2.58178
13.5685 125.929 2.39662
-2.47944 80.0015 -0.788003
-9.76589 110.478 -6.30985
15.6978 107.159 2.87662
11.5394 143.389 -4.1326
18.4084 122.845 3.45133
23.6364 93.3132 11.6641
3.78949 137.869 1.09103
20.5875 109.926 6.11009
-11.5938 127.836 -3.61473
8.11121 109.589 -3.05316
10.8187 148.243 2.68725
13.9516 110.8 10.238
8.50217 97.1353 -0.933676
-5.1689 130.249 -3.34692
1.76585 86.7646 1.25962
17.3842 129.015 1.69017
6.68295 136.537 4.87802
-10.4666 146.034 -2.34864
15.5862 132.307 1.32575
5.92192 86.1144 2.45172
21.1121 124.182 -6.30982
22.3917 114.151 11.1933
-4.07133 88.8637 -4.34939
19.5752 115.643 6.65191
-9.54122 143.204 -3.59529
22.496 129.81 3.36809
11.3138 127.626 9.25024
20.0764 136.884 2.05222
18.9152 144.909 2.7175
9.40034 129.944 6.31303
11.3985 137.867 0.276473
13.4567 132.318 -3.52982
23.3761 85.4364 13.951
-10.9937 92.8596 -3.90988
10.5662 92.0021 6.01171
23.1645 134.611 -0.929693
21.0855 127.331 -0.62906
1.59152 83.9062 2.28846
18.6209 103.724 3.29636
9.77594 104.848 6.55593
14.0319 140.489 4.47294
23.2849 135.864 -2.13827
12.9784 130.777 5.1829
14.3776 120.725 6.55157
15.5291 130.43 -4.27917
9.85622 82.7699 2.5716
14.0514 131.948 -2.46358
10.9942 93.8417 -1.22961
22.5807 126.876 1.42986
13.8021 126.153 -3.01534
19.8105 117.627 6.99438
15.749 128.859 0.250431
12.3648 137.689 -4.42202
16.0939 119.565 0.613641
-5.82654 81.2596 -0.685495
12.2865 86.798 4.07497
11.0497 101.773 -0.680203
-9.71608 82.6026 -2.94758
11.8584 141.625 2.68095
16.927 122.452 -3.86307
19.444 96.9949 8.92755
23.4869 102.619 8.82057
11.4311 150.624 2.38537
12.3647 136.732 -4.85369
-13.111 107.212 -4.6866
11.8513 88.8288 6.24849
-6.24714 121.072 -3.34219
16.9148 120.83 9.85397
20.7667 115.363 6.66452
-9.45416 111.155 -6.28025
10.5447 91.0412 -0.368227
9.47808 127.896 6.52556
10.7411 89.7015 6.98756
6.17269 137.352 4.28681
16.3801 126.758 -4.91115
13.5278 96.4129 3.88579
15.3143 86.0051 5.67795
24.5576 104.787 13.5647
5.45323 123.211 2.42595
-9.70606 84.7141 -2.53799
24.8865 101.301 14.5074
6.07732 133.87 -0.595965
10.0438 104.499 5.7205
19.5646 129.721 5.31694
8.93253 113.923 6.0964
18.1534 120.289 8.50377
17.607 88.5925 5.30051
14.3472 139.584 -2.84972
22.7174 113.004 12.4254
3.53573 87.6807 1.59548
16.0631 111.092 2.27145
15.3416 85.1294 8.14979
22.4463 132.587 2.64625
11.7749 147.506 3.38123
16.956 126.68 6.78156
-8.38412 124.535 -4.83222
17.4968 135.473 3.5357
16.2634 119.919 0.876705
20.0759 110.585 2.278
20.0311 141.584 2.5685
-8.94927 103.348 -6.22877
9.58841 114.669 3.88316
-10.937 148.676 -0.374071
-5.81495 147.031 -3.81202
9.75019 143.494 0.492845
17.5769 144.265 -1.68099
15.8488 86.5868 6.34796
18.9723 115.196 2.38617
23.6768 93.6649 11.6482
15.8999 129.314 0.481936
7.67075 129.418 8.17224
12.2052 142.301 -1.15327
19.9398 104.877 3.02813
6.38446 78.5617 0.263952
23.4291 126.969 5.55268
8.49601 126.457 0.608655
9.51303 127.34 5.95584
-7.43366 81.9957 -2.02352
10.1587 143.066 0.677441
1.12834 93.0017 -0.508347
-0.815228 142.257 0.12094
14.3906 138.025 -1.27868
1.19792 103.927 -4.85138
10.3987 129.362 -2.96121
12.2227 98.3625 2.88738
9.64661 123.644 4.18904
9.14156 119.504 6.42097
24.4542 127.35 0.18822
2.27787 123.347 0.59912
12.114 129.349 -3.76118
6.83667 112.394 -2.5985
-12.1871 96.4463 -4.28059
13.9591 128.845 -0.461852
7.1706 104.386 -2.10114
19.7665 119.955 4.749
17.31 88.2574 2.74305
12.4859 136.902 5.66653
-9.77254 90.683 -3.92872
16.0654 91.5507 2.01411
15.3295 113.97 0.402981
-1.97487 134.519 -0.103691
4.87751 110.246 -2.92658
14.4063 140.933 6.29352
11.4465 134.423 2.51868
12.4258 147.37 3.44765
17.3329 100.848 5.6016
10.9232 90.5393 -0.0217099
19.3165 132.184 5.47152
14.808 122.074 -0.190998
-2.05167 136.116 -0.275197
14.4411 123.58 -1.48182
19.6947 120.032 2.83528
17.8505 141.205 3.10892
19.677 141.184 -3.25759
14.198 115.417 4.00608
15.0937 103.349 1.4633
20.592 82.3648 9.2158
15.8499 82.2599 1.49968
18.0623 121.591 2.66809
20.8649 124.904 6.57037
9.77276 100.685 5.35795
14.907 140.423 -2.63713
21.2868 127.368 -5.60608
0.445378 96.9449 -3.01002
-0.922646 135.713 0.551699
10.154 101.632 -1.58011
14.4531 134.516 -0.975987
-2.00784 127.399 0.351626
8.40732 85.0764 3.28185
17.7685 135.113 -5.045
-11.9309 114.771 -5.21257
-0.715375 144.443 3.13124
14.2285 125.515 -3.79348
23.8089 101.234 10.8558
21.667 111.025 8.01618
10.7546 129.021 -3.14949
8.69146 80.3945 2.5097
19.3465 117.465 11.6915
12.8654 119.98 2.51733
-8.65806 87.4429 -2.67076
14.0797 128.319 8.31677
-2.64063 86.7681 -2.3845
10.3681 79.83 4.90513
4.97913 139.033 -0.789213
16.9325 115.317 1.99045
22.5242 136.735 -2.25628
18.9858 146.807 0.866357
0.310125 86.2537 0.422405
1.21815 89.7923 0.359881
13.9401 103.104 1.10364
23.0111 127.747 1.22357
19.8897 125.232 5.90273
14.588 132.638 -2.41427
-12.9686 101.773 -5.15588
13.8043 87.498 3.01593
12.3473 141.142 -1.81478
-3.56314 103.683 -5.73315
20.7818 126.348 6.1863
11.3596 105.646 -0.585211
16.4672 126.188 6.78617
14.1729 116.985 7.90909
17.5004 123.129 -5.76029
21.0655 113.367 13.3765
22.7322 105.932 8.46637
21.5456 114.46 12.8789
23.0686 106.954 11.3982
-2.83213 79.6031 -0.938921
-10.7596 136.674 -3.52381
8.68881 137.015 -3.45785
19.8152 122.827 7.85267
9.64225 152.177 -0.976147
14.3586 89.2077 4.9696
9.82218 125.815 -1.90109
11.1742 88.6765 5.24166
-7.23535 152.348 1.2767
2.8605 146.511 -1.15803
22.1288 121.223 2.53336
9.36444 109.911 6.13079
-6.60943 94.1298 -5.05492
-0.77482 114.296 -1.55811
20.6106 127.771 5.68303
16.6375 87.4934 1.95774
21.2672 131.718 5.13645
11.794 130.081 8.57603
-7.18627 114.48 -5.57531
-1.61722 84.6824 0.0534203
-11.907 99.5506 -4.94435
7.33758 105.714 -2.86895
23.4666 85.0034 13.594
22.7055 132.373 -0.652615
15.6298 117.328 1.06142
5.73157 114.58 -0.629666
17.3889 84.317 10.387
19.3921 124.208 8.13916
-9.16077 82.3718 -2.93517
11.7607 146.707 -1.77957
18.7812 119.324 9.72658
15.1008 148.644 2.81568
16.869 118.227 2.60229
13.5237 146.602 -0.268417
14.6595 117.024 6.18839
14.8206 90.2048 6.04025
13.2761 137.586 2.34952
-3.99036 91.9921 -4.09836
10.0211 90.2719 7.34764
18.0885 126.128 8.3581
18.7922 116.594 7.40952
13.7113 128.946 -3.19854
21.4981 126.932 -6.43879
23.7329 101.997 9.98226
19.262 140.426 -3.62471
-3.07796 144.281 -1.70297
10.2033 121.774 1.93217
0.231813 127.221 1.48915
9.18046 120.635 5.82335
22.1281 127.554 1.47048
19.2864 117.015 11.4514
3.77097 100.837 -3.60341
20.515 119.942 3.42102
-4.25956 117.252 -4.10994
-8.0945 139.475 -4.74359
7.11601 130.41 -0.497042
-13.0515 97.5794 -4.13545
18.4731 83.1625 9.15386
9.48593 108.806 -0.00761317
2.48662 150.054 -1.89334
14.4106 136.733 -3.67732
14.8009 113.897 0.577957
11.4872 95.6423 0.477738
14.7577 105.071 2.15404
8.80111 81.4814 2.9378
5.57078 122.362 2.30694
-2.94589 94.5847 -3.638
5.40359 141.606 -2.57818
16.8091 110.321 3.15837
13.3461 123.429 -2.75058
5.92709 138.228 2.67207
-8.86146 87.902 -2.73811
11.0818 89.3237 6.53668
13.5911 140.404 -3.80549
-6.7403 107.218 -5.63817
20.5296 135.475 1.45449
21.1384 124.251 6.22055
15.3242 93.8508 5.42949
14.9438 125.524 1.80871
16.58 122.233 -4.97605
11.0677 116.344 2.89333
11.808 138.552 -4.76459
17.2201 126.1 6.71472
-7.73953 84.4713 -3.39059
1.27835 125.845 1.3686
10.0216 95.8564 -1.78521
13.7899 130.502 1.54663
-14.5154 114.269 -4.49294
1.81276 141.636 0.757603
19.3911 119.147 1.83272
22.7575 127.787 1.01661
24.8124 104.564 13.3265
19.3653 117.196 7.13011
16.5414 147.202 -0.752967
7.56938 111.556 -0.887681
-3.45651 104.328 -5.48222
-7.55572 135.078 -5.44764
16.6547 97.8399 6.40523
11.1041 130.735 3.89692
18.4003 119.639 2.52954
10.4458 92.6291 -1.11026
8.98733 154.74 0.960545
18.9365 94.4344 7.89574
9.04362 128.791 -1.82265
21.9417 136.6 -3.77935
-2.03726 85.431 -1.08448
22.0733 123.359 5.93424
8.31361 146.532 0.715198
21.9202 133.559 -4.02384
18.7968 124.627 5.17108
-2.93109 133.956 -1.10239
-4.71214 154.113 -1.46833
12.2073 128.739 -3.75241
10.9729 108.332 3.67692
20.8205 81.5876 9.77789
5.26976 137.615 -0.775987
-9.01063 140.844 -3.66935
14.6122 111.71 7.71717
-4.27134 131.157 -2.11328
5.35684 142.78 -2.76417
20.8776 120.609 5.08309
18.4457 130.931 -4.40097
19.5332 110.704 1.57647
5.51936 102.576 -2.44007
-4.53126 95.9941 -4.92498
18.1431 147.602 1.11771
14.4056 108.088 6.17266
4.32662 83.0404 0.933401
1.1705 92.2068 0.375647
-8.90434 143.202 -4.14079
16.1798 136.644 5.07253
10.0076 135.335 3.47443
-7.33329 132.379 -5.94592
-6.72118 132.127 -5.40609
5.64929 141.687 -2.75052
18.7393 128.511 6.46424
14.9302 130.115 7.57982
24.0003 99.4956 11.189
-11.7518 140.194 -2.02394
17.7758 110.24 2.72233
-8.83547 118.964 -5.24691
9.39298 112.451 2.21436
-6.11051 89.6265 -4.60223
24.7702 92.0769 14.4435
18.582 144.441 -2.18677
12.1174 130.646 -4.04264
-3.80318 147.347 -2.19686
9.03499 123.164 7.20347
-4.61713 104.898 -5.82521
22.095 137.731 -2.25813
12.7659 137.434 6.83554
2.74622 128.803 2.14761
16.7473 121.031 0.963579
22.5923 126.549 2.5647
23.2561 125.362 1.4712
10.7015 95.0543 4.63172
23.8192 128.708 -0.616774
12.484 99.6574 4.95579
9.40102 124.42 5.12404
-4.50837 111.119 -4.02299
13.2018 88.269 2.37976
19.3664 108.993 2.22433
15.2091 144.594 -0.00402519
19.0419 115.377 6.10753
-4.40651 143.393 -3.16897
9.03372 152.94 1.32919
14.1229 92.3001 1.02494
21.3511 142.615 0.456859
21.2046 114.415 13.1246
17.2759 89.7632 4.26007
-10.2634 122.803 -4.48598
10.6928 125.713 -2.52778
13.7406 111.744 3.7383
9.88764 124.126 -0.863895
9.33936 91.0769 5.58324
1.31019 146.6 -0.589066
12.1775 124.504 -2.54985
8.15883 97.9879 -0.576995
8.45085 92.9736 5.04815
24.863 100.017 13.3387
23.6737 94.5447 11.4976
10.5021 133.146 3.95918
8.3149 93.0664 4.35371
14.6012 117.171 4.69276
24.8389 127.898 -3.07432
9.98763 106.089 4.74393
-1.37316 84.2622 1.42236
9.52362 115.313 4.03159
-12.8981 135.561 -2.045
18.7958 126.797 5.10529
11.6082 102.506 4.97726
1.78604 88.1429 1.13802
13.8527 125.131 -2.9902
13.9885 85.8353 2.97617
-10.039 119.09 -5.35846
7.36983 149.376 -4.00125
25.6424 81.9664 13.9678
8.04905 118.069 3.58459
5.22739 153.28 -2.33601
6.40057 141.451 -3.18985
9.12677 119.262 6.72043
-2.93428 136.916 -1.95326
24.952 83.0432 13.6835
11.178 120.794 1.19469
23.1006 128.338 -0.120646
4.1765 133.213 2.45625
13.2858 116.293 9.31951
-1.07386 143.35 -0.166987
13.9745 86.5673 5.89491
10.9289 150.88 -0.613923
16.6562 113.761 0.763738
18.1845 116.782 7.96736
10.7652 144.318 1.14169
16.0687 133.223 -4.41688
20.5629 119.995 7.0569
7.85025 126.892 2.76541
15.2336 133.762 -1.56587
14.5193 82.5568 2.69781
20.5925 85.4923 6.04412
-1.17087 103.553 -4.97029
20.1685 113.413 5.3631
2.11254 141.487 3.69297
11.7872 125.832 -2.8768
13.6805 143.892 -0.20492
12.3016 132.171 -3.83573
23.01 133.266 -4.71203
-6.32729 134.28 -5.30055
-12.4775 102.588 -5.3783
21.9579 139.228 -2.80184
-11.0787 144.077 -1.91388
9.10111 81.8878 2.82008
-12.7393 127.344 -2.14376
20.9448 115.889 12.0384
4.0794 142.861 -1.01224
2.34223 106.078 -4.62062
11.8483 141.833 3.18303
11.6374 108.153 1.88872
20.9367 122.767 6.49174
5.99327 154.099 -1.50214
10.2093 99.5981 4.91152
17.993 89.1092 7.29741
24.2235 89.6885 13.772
10.7791 98.407 4.36119
-11.0421 126.427 -5.0443
23.6356 101.279 11.8476
20.8593 125.348 5.92814
15.9102 128.483 2.26537
17.5882 120.231 3.09909
14.7905 125.792 -4.43823
13.9507 124.893 2.70512
22.8226 110.468 11.3054
16.1093 124.956 -1.01187
4.21098 78.6628 0.0926922
12.9535 89.6727 4.61487
9.07617 85.2675 6.47741
12.1426 129.523 -3.74805
17.3918 130.344 5.01236
20.1001 139.606 -4.05278
17.5192 121.705 2.05133
10.8231 120.048 1.33121
-9.31441 137.048 -4.20485
15.5638 123.776 2.03147
13.5934 145.349 -0.111006
17.6187 123.265 2.4367
20.6909 115.947 10.9189
-9.24856 120.29 -5.27349
13.6385 130.026 -0.556304
2.23995 94.6746 -0.0221441
18.9164 126.553 5.32103
19.354 141.586 2.93535
8.1292 115.689 2.88569
4.18521 118.369 -0.655928
3.74002 81.308 0.904163
22.7096 112.139 10.0081
8.61201 113.05 1.97147
6.36156 133.703 7.44206
21.4397 133.733 -4.16443
-3.2115 89.5123 -4.1368
12.5205 97.0438 5.69085
14.3079 108.924 5.53266
15.6695 134.019 -0.0985265
14.6076 122.221 -1.41056
-9.6317 139.998 -3.35615
0.851415 81.8592 0.356215
10.3867 116.144 3.58623
22.0252 103.326 5.85055
15.7136 136.779 -1.638
20.3331 123.731 7.41121
17.0962 121.188 0.941131
12.2802 151.872 1.11607
-13.4623 123.262 -3.34906
24.6514 127.848 -2.90742
14.5447 136.23 -3.72221
-9.20304 83.4831 -3.03686
11.1729 85.1398 3.37222
22.4476 86.9875 13.1589
9.15979 146.369 -4.79378
15.3045 89.6214 7.15084
20.6117 109.594 4.91963
24.3663 101.572 14.8797
14.3873 128.47 3.74995
22.4068 123.484 1.98941
2.66307 151.248 -2.2595
13.8805 131.13 -1.79098
20.7667 125.622 5.71499
18.2183 83.4059 9.20709
14.173 114.95 4.00326
5.24628 137.061 5.78456
17.9951 114.679 3.34345
13.7998 108.303 4.01257
15.5855 125.197 4.90425
-1.4345 132.59 0.140007
5.94329 135.423 6.99044
14.6294 117.677 5.71302
-0.865204 108.566 -3.10989
22.7934 108.842 14.2131
22.1805 132.467 3.17669
13.8916 106.998 2.73368
2.69742 141.431 2.14845
-3.23895 90.4797 -4.23675
6.87413 129.073 2.4738
3.08083 127.031 1.46105
-0.41153 103.366 -5.16181
11.0743 129.64 -3.54624
13.98 126.642 -2.92488
10.6256 91.5352 -0.623708
13.4156 140.015 -1.38759
22.7773 128.772 4.03285
19.2321 81.1851 5.94711
13.3808 119.482 8.49377
20.5324 93.6718 10.4845
10.6398 148.068 -2.81908
16.8935 110.011 3.29371
19.5182 106.913 2.41727
20.3733 145.704 -0.122717
4.67779 127.281 2.20944
8.62047 81.1092 2.68797
8.27981 149.478 -4.25056
9.97167 110.589 3.89324
21.5107 90.89 11.4898
10.548 86.3361 3.03925
2.39981 87.8932 1.51405
12.3012 89.8059 4.68673
1.7191 82.315 0.692199
-7.1107 94.9183 -5.5563
11.3342 134.951 6.47006
-10.4877 144.774 -2.61425
10.3848 87.3252 4.43016
-6.42174 149.708 -3.16091
13.1376 97.5857 4.0737
11.2152 148.232 3.20709
22.9613 138.109 -0.643739
10.2363 107.004 3.8597
10.5784 83.0897 4.62496
16.1277 145.613 4.36609
15.0599 117.01 -0.398154
8.44572 79.1728 4.64401
22.701 89.3807 13.2768
8.43697 149.549 0.536897
10.4654 88.8139 5.87268
21.769 114.306 9.24303
23.158 133.965 -0.954444
-6.80434 128.02 -4.02604
-0.110627 102.542 -5.32191
17.5344 134.69 -4.91166
9.20997 138.979 1.96705
18.7877 122.435 4.06146
-2.50281 80.8826 0.183509
20.6337 104.383 4.33568
-2.70853 85.1495 -1.10455
11.6216 102.367 -1.57715
-11.3845 109.999 -6.06495
14.3874 122.327 5.07628
5.93289 119.164 1.64778
4.09996 99.329 -1.9722
-11.3792 107.286 -6.00826
14.3946 124.782 -2.44955
11.4928 151.692 1.92607
19.0417 146.947 0.00838972
-7.16512 131.599 -5.82285
14.2081 127.685 3.11851
-5.21468 125.012 -3.37384
13.203 146.992 -0.900212
6.14581 128.614 3.08044
-6.20434 98.0749 -5.86429
23.1781 130.112 1.96594
1.88411 142.216 0.312172
-13.2087 104.599 -4.41907
10.1335 102.916 -2.28953
19.4787 142.57 -2.84824
16.147 84.4121 8.474
17.9617 115.061 0.521961
22.3933 102.984 6.31185
9.41265 136.561 -3.6609
4.51892 121.757 0.703407
-3.42675 93.4296 -3.64415
-11.3167 131.001 -2.04756
12.2697 130.24 1.69156
19.031 111.945 2.79167
-2.83947 133.386 -0.919052
-1.56802 119.827 -0.371996
-7.73635 86.9955 -3.02274
9.18001 117.001 5.76029
3.75634 154.497 -1.77171
0.180263 128.356 1.42875
19.4381 126.887 4.77056
15.6974 128.063 7.52724
13.7355 100.682 5.31288
2.13865 128.011 1.95689
4.72634 99.2915 -1.09266
11.2449 150.657 -0.411264
-10.8792 103.773 -5.524
13.6606 129.145 -3.42073
14.5485 113.682 7.55135
15.4827 131.507 2.34284
9.67671 145.297 -4.84947
-7.22784 81.2591 -2.00723
17.8242 103.808 2.23843
11.4064 148.282 3.20932
18.7721 112.373 1.49163
2.53431 98.2682 -2.50199
22.4412 109.343 9.62768
9.6724 138.086 -4.42277
9.07891 86.6075 2.81697
21.6781 109.45 8.98209
15.791 142.535 -2.27974
21.2176 87.7701 10.5335
-12.1186 100.357 -5.06849
-4.78549 111.656 -4.418
13.2365 140.641 3.6493
17.5676 127.808 4.79951
13.6508 99.7181 3.39796
21.7605 98.3197 8.67409
16.0862 132.157 1.67798
14.2383 86.7758 6.5667
-5.93883 118.032 -4.34139
15.711 88.1701 8.28013
15.6982 110.863 2.92175
15.1225 146.706 0.351289
2.95206 140.732 0.483649
15.5883 119.83 2.50466
12.9546 114.806 2.52158
5.98449 85.4456 2.6207
-13.256 104.994 -4.0985
21.3557 139.84 1.51503
12.2048 143.483 4.37357
19.6583 86.0715 5.60182
8.14399 126.705 8.26562
-8.09544 90.8913 -4.6391
-0.848548 80.1925 -1.70872
7.39103 122.347 3.36448
13.0415 122.219 2.63583
8.97581 124.943 7.29604
10.5109 97.9059 -0.190893
-3.22382 118.546 -2.10769
-10.4947 108.387 -6.1959
-12.4144 140.629 -1.53209
-13.8749 118.263 -4.60243
13.8943 83.4906 1.70032
14.7368 134.28 6.49139
10.359 142.099 0.461295
5.88489 122.08 2.51902
12.6081 146.575 -1.07426
24.0985 127.492 1.61566
13.9109 87.1703 4.66984
11.3612 100.214 7.78871
2.19072 132.478 2.19584
-11.5755 127.021 -3.88035
-4.07995 85.0509 -1.46558
24.098 127.057 -1.22847
18.2967 138.623 -4.04444
-0.834779 86.4966 -0.374838
1.90251 101.972 -4.59055
18.4428 100.718 6.0576
-9.47917 140.245 -3.38868
5.33125 132.759 2.10989
-6.24583 142.976 -4.45455
3.01691 117.942 -2.20199
19.3089 112.713 3.47856
9.77837 116.125 3.60888
9.4071 89.3855 4.27316
2.63878 118.861 -1.90049
21.272 124.325 -6.28855
-6.82176 81.4516 -1.49061
17.3649 116.242 3.06851
-13.9397 106.489 -3.53862
8.33346 140.465 -4.20883
13.9397 149.703 0.735713
-1.93696 101.388 -5.25078
13.4611 98.9533 4.13489
6.10903 121.053 2.45027
-11.9688 112.621 -5.72862
6.6255 97.6173 -0.0238329
12.0082 125.299 -2.64663
13.3085 118.773 -0.961881
2.68532 107.712 -4.26491
4.02964 141.675 -1.19845
-13.6541 123.226 -3.34809
24.8049 100.009 14.8291
17.8086 110.92 1.80006
14.8841 97.3893 5.88189
15.7131 129.953 7.22714
-11.738 125.065 -4.5663
21.7266 92.801 11.269
15.0325 113.04 1.26127
15.0974 129.004 0.106952
9.18841 110.667 6.32607
12.7605 141.284 -2.7543
-1.01597 97.8692 -4.4093
10.5854 133.098 3.76608
17.9944 147.209 -1.13289
16.4585 142.807 3.54284
22.5936 125.314 -4.16393
8.14945 154.546 0.122109
-8.99246 89.689 -4.0326
13.7464 81.7819 2.33602
20.3169 120.441 5.14027
-6.0317 97.3983 -5.74671
23.3889 103.35 9.80524
15.549 120.01 2.63412
6.09088 118.642 1.55198
23.478 103.115 9.74244
23.7493 83.7274 11.4562
10.8959 95.4461 4.40172
23.0648 124.386 5.78334
1.02149 81.9184 0.398442
17.9989 90.1864 7.68313
-5.21596 109.446 -4.5243
9.64151 94.091 -1.69712
-7.17601 115.277 -5.47336
-10.0805 94.0258 -4.152
14.1815 112.84 4.42396
23.4801 131.57 -1.45972
14.1945 123.958 0.352323
14.3132 142.119 6.12524
12.583 144.029 4.98127
23.09 128.023 1.98001
10.8459 147.457 2.82861
16.9082 137.303 4.07134
20.9546 139.806 -3.43509
12.6909 137.664 5.37426
17.5522 128.807 6.72159
19.8874 113.792 4.65188
2.49087 124.5 0.826761
-5.73861 153.865 -0.910777
-3.4222 122.915 -2.46443
11.0347 104.68 3.93305
25.4283 99.5193 13.5735
9.23352 107.189 6.88538
-13.4451 115.08 -5.01626
-4.34219 97.541 -5.50342
5.89116 102.922 -2.25221
-12.4693 125.313 -4.76278
22.4047 135.967 -3.38611
16.8139 121.042 2.19561
19.0549 126.838 5.13694
-9.00317 135.333 -4.27485
8.53959 93.0348 4.91482
14.1996 151.316 0.783105
3.63959 142.211 -0.316521
-13.2185 99.7088 -4.34211
0.677003 78.4659 -2.16299
3.0349 104.607 -4.61418
14.1264 89.3832 2.54609
16.0103 137.877 5.24162
19.417 123.42 8.17662
23.4323 109.216 12.838
22.5961 132.875 -0.274358
16.3926 117.591 1.93791
-3.23734 119.563 -2.10251
14.9662 125.275 -4.46504
-10.3821 121.822 -5.16174
-7.29632 112.113 -5.94474
18.7976 98.7412 7.39906
4.47755 124.705 1.53644
24.7338 105.413 13.0152
7.35742 105.692 -2.8325
-2.13202 124.01 -0.229865
-2.04271 136.555 -0.441334
14.1766 114.192 4.00682
16.4666 123.39 -0.208938
6.01416 132.18 1.732
11.9784 139.997 2.15987
13.9972 125.134 -3.45076
22.5332 136.045 -2.88673
17.7245 122.307 3.54243
16.4079 121.951 -1.98953
11.6242 118.13 1.05999
2.79588 127.658 1.70914
6.68779 148.487 -4.00003
11.7259 121.333 9.55764
23.6428 108.939 12.4132
6.92096 78.8635 -0.144764
10.7995 128.503 2.96491
22.2863 132.893 -4.23395
10.6407 122.566 3.02269
2.06412 89.2306 1.08963
-11.6206 97.5713 -4.67239
-13.3046 123.941 -3.43188
9.32897 107.421 -3.1109
1.61682 95.4873 -1.05487
16.2277 146.437 4.13529
11.3905 97.4295 6.99963
0.248366 85.5964 0.620607
-5.45116 142.223 -4.01371
9.08122 126.3 6.46193
17.5582 126.531 -5.2103
11.3953 113.442 3.55079
20.9563 123.443 -4.85135
11.9873 119.892 -0.088464
13.9913 85.8229 5.76648
25.219 129.937 -2.26028
21.9569 136.219 -4.39195
0.889234 131.786 1.24273
12.0065 80.5753 1.52278
20.6485 109.521 5.29588
19.8507 111.032 4.0457
11.499 89.2541 6.33523
-10.3496 147.923 -2.0048
-9.96292 140.029 -3.10199
1.73173 125.254 1.26237
20.4752 85.7989 6.95061
16.1776 122.95 1.28733
3.58745 137.889 6.08359
-13.8425 122.476 -3.72455
20.7595 109.439 5.83456
6.27829 136.818 5.17582
16.5148 84.9049 10.17
-0.42465 111.207 -2.48729
14.2646 98.2029 5.07766
8.37876 84.2579 3.22358
5.74902 145.58 -3.43492
13.2593 140.635 -3.11904
10.3201 125.093 3.16622
12.437 132.559 7.73642
15.7366 92.1488 3.13706
16.5288 131.702 5.74885
3.21854 79.9418 1.00006
1.97271 86.5995 1.59782
13.4336 131.032 -3.51684
19.2101 114.906 2.53963
20.1481 115.972 10.3619
3.80118 152.127 -2.97552
8.8617 88.739 0.579281
-3.7451 115.046 -3.61101
13.5735 102.612 7.29229
8.86871 108.788 -2.61489
4.25271 136.984 6.47868
10.2982 126.777 3.35078
14.7408 102.927 1.25503
20.8712 92.1506 11.0709
17.3676 124.927 7.17685
16.3011 119.298 1.85206
8.86386 121.545 3.06318
-9.85794 126.726 -5.73838
25.9537 91.4651 15.3648
-12.1095 113.357 -5.59113
19.9982 115.52 13.787
11.3211 144.44 3.44943
10.029 150.979 -1.97822
2.44817 92.2279 0.756942
17.8871 115.862 6.03948
9.17206 90.7428 6.99446
14.6066 81.7655 2.97992
-6.55493 82.4857 -2.70864
0.0470216 133.749 0.986555
0.476816 83.3326 1.84574
15.6198 136.224 -1.88095
9.50286 125.769 4.92572
10.1202 137.216 2.19745
0.814655 97.6754 -3.45536
5.85276 140.355 0.576261
17.4889 121.031 1.30977
14.6288 117.743 5.12928
-8.87163 87.6339 -2.56816
-7.28985 125.494 -4.44554
15.796 121.925 -2.22912
25.4518 92.5286 15.3054
19.104 125.297 6.35089
12.6213 90.0198 5.55401
-2.02717 127.548 0.33735
3.5416 121.877 -0.433054
18.8756 128.472 6.38995
20.8048 95.9557 9.47707
23.1122 135.655 -2.43001
16.3429 104.296 1.79887
8.71939 99.6007 -1.09818
19.4146 124.935 6.85632
-11.9481 105.001 -5.69981
22.8084 111.105 10.8244
17.3199 126.836 2.26624
11.6343 130.63 -3.74589
16.651 118.87 2.16686
9.69482 102.423 4.68696
12.2318 90.0437 5.33217
19.2464 123.24 8.23544
7.33152 135.541 5.38389
14.1126 129.759 -1.67808
14.4044 124.575 4.46288
14.9486 90.1418 9.4563
-11.2304 121.623 -5.17867
13.3845 148.744 -0.69564
7.80652 134.065 -2.19113
7.36366 144.174 1.01993
23.4566 93.4145 11.4558
14.6589 119.019 5.13743
8.65555 148.231 0.608795
16.747 128.38 1.942
11.9288 88.4413 1.46988
22.7502 130.055 2.9718
-12.3217 105.831 -5.47905
5.4518 152.439 -2.94803
14.9274 143.883 0.164776
8.40663 96.2917 5.28499
15.9371 124.457 4.67113
10.1042 137.056 4.17938
7.84435 145.706 0.869143
9.34622 91.067 5.56238
-2.70917 117.301 -1.68916
10.0672 104.728 5.52779
-2.63078 110.585 -2.86418
14.8568 133.61 -2.11052
-13.2085 112.472 -5.13716
-1.79449 122.31 0.103937
2.86122 112.855 -3.03248
10.7715 134.687 2.4703
8.53302 139.989 3.02417
9.2111 87.8656 5.23096
14.3012 108.96 5.50714
12.0252 94.4439 0.140614
-12.4864 127.593 -3.1448
11.6892 133.522 7.1822
-0.092804 129.626 1.14248
8.01084 150.032 -4.0434
13.4179 81.5916 2.72028
13.9045 129.105 -1.08279
19.4065 81.116 5.51507
18.2707 128.53 5.70805
14.3766 128.576 -0.271871
24.3737 97.1493 13.5125
0.173741 143.818 0.146781
14.4877 121.669 0.513112
22.9581 134.997 -3.40104
9.00761 143.129 -5.0796
10.1253 144.586 -4.75364
5.58329 127.786 2.99847
9.12495 122.893 6.6367
13.8046 134.22 -3.90945
14.4841 120.369 -1.74768
10.7559 131.736 -2.91381
20.314 109.305 2.47626
16.5051 82.6872 3.31319
9.25747 105.831 7.66129
24.3581 84.2471 14.3991
14.1142 91.7974 7.37712
-11.9497 124.705 -4.04751
14.4393 137.227 6.38864
-2.35067 147.098 -1.11255
-0.795377 107.203 -3.57785
17.1905 135.318 3.87157
13.9226 127.211 0.803847
21.3568 123.446 6.50488
21.002 143.37 0.502655
0.787705 125.567 1.1617
9.36032 124.093 5.26544
19.7894 141.641 -3.00382
17.2935 127.736 6.71063
-3.49114 96.0548 -4.365
2.05095 137.508 1.67054
0.497271 91.377 -0.0840101
13.1479 120.997 8.21334
15.0487 135.387 -2.09568
20.0523 92.8601 9.18468
18.3586 98.2124 7.59142
10.9814 86.4768 4.15536
14.4171 121.511 4.7756
15.3023 136.487 -2.52761
-2.77285 115.204 -2.06773
12.217 140.868 -4.46741
20.3049 109.803 2.42032
-4.65724 129.24 -2.70901
-13.6366 112.536 -4.8802
13.8919 108.08 3.03697
7.91613 87.4034 1.87705
20.1432 80.3521 6.90824
16.9511 113.014 1.20128
11.7004 127.681 8.07113
12.2223 91.8659 8.71568
-6.25027 103.421 -5.62629
7.1248 141.402 1.89353
-5.64575 92.0026 -4.91386
10.3822 80.2736 4.69938
23.4105 135.101 -2.28273
22.441 141.921 -0.776244
-6.20293 129.086 -4.04076
20.2651 119.532 6.05735
-2.16607 114.254 -1.85679
18.1083 81.5539 2.46683
14.4578 133.902 1.40528
7.97213 126.767 2.62675
24.1624 83.7433 12.8618
15.9072 122.289 -4.50264
14.3656 126.519 4.02142
9.69295 109.742 4.23041
-12.596 123.848 -3.96368
11.2421 100.108 1.06678
0.417469 119.637 -0.556845
11.5941 127.052 -3.23549
-5.34063 82.048 -2.14852
-0.0637239 125.812 1.02526
11.6037 112.86 3.39544
15.2058 121.296 0.490462
-12.3877 114.887 -5.15356
-1.98725 130.01 0.189321
17.0975 107.884 3.05816
13.7039 114.474 3.66683
-10.6664 139.364 -2.73027
10.1304 112.366 2.70319
9.09185 124.413 1.56073
20.5785 94.4403 10.1987
10.1381 91.9511 4.61099
23.7862 128.261 -1.71384
18.7377 121.357 8.38395
-2.56511 106.004 -4.2168
10.348 142.739 0.753148
-5.93825 147.133 -3.79102
14.1281 127.983 -3.83572
8.63905 111.801 7.66799
-6.55918 120.991 -3.45443
13.3887 95.7225 2.64764
-0.675969 96.0833 -4.02838
19.5551 134.502 2.65822
12.0715 105.903 3.79839
8.81989 126.292 7.36754
-0.345773 106.898 -3.78787
9.70578 110.942 3.98495
14.9076 135.727 -0.202435
22.7845 105.243 7.19289
10.6842 148.967 -3.08227
6.75211 149.147 -3.9132
16.7523 99.7287 5.70742
-3.85185 94.0402 -3.89112
11.0778 147.406 3.357
-10.5659 143.103 -2.83351
-8.7595 121.259 -4.34895
20.3482 114.789 5.72602
10.1941 118.587 3.24395
22.2948 127.189 1.87496
9.27861 125.423 6.08393
17.6928 115.309 2.11168
7.78599 126.659 2.80234
17.2078 96.8193 7.45171
-10.4182 112.158 -6.07503
9.13407 152.952 -1.04595
8.61669 91.8654 -1.03249
18.1212 116.899 7.75876
21.4136 125.051 6.74189
10.6321 130.342 -3.25002
4.93059 128.698 2.67688
22.9477 109.121 9.86077
16.3962 130.893 5.59138
20.129 88.0309 9.58765
7.53187 154.968 1.06239
19.5863 125.479 7.71832
15.9733 124.185 -5.22173
6.57168 98.3398 -0.0847707
-12.642 138.575 -1.86025
-13.2306 99.8068 -4.33047
8.47807 126.668 0.399965
-0.536293 81.3761 0.326826
22.1947 110.095 14.2355
-6.00712 136.349 -5.4655
-7.77301 141.289 -4.64652
13.6923 93.8199 1.80967
-3.36023 133.477 -1.52986
0.123179 119.942 -0.350009
0.129805 132.364 0.845675
7.31867 116.278 2.67249
13.8138 114.62 0.605925
19.4336 133.018 4.23891
16.3994 131.766 -0.485057
-7.79041 132.33 -6.18639
8.04115 154.591 0.181361
5.60903 101.472 -1.64776
11.5067 116.063 2.75938
7.62911 128.96 -0.136426
17.9302 119.875 2.14867
17.8943 131.682 5.52212
15.3781 135.659 5.57096
21.8345 128.111 0.514134
17.5165 99.2395 6.14822
15.8665 119.783 -0.0312471
6.05313 115.87 0.824461
14.3845 112.298 5.1125
-5.6371 115.684 -4.83981
20.8539 114.521 13.3551
8.53435 139.08 -4.24131
13.3469 141.8 -0.781127
8.81382 112.393 6.27625
6.90893 144.72 -4.10759
14.9266 97.6202 5.85954
2.08602 82.6033 0.969608
21.4988 141.389 -2.54958
16.55 114.562 -0.0414729
13.2664 122.883 7.46207
14.4982 133.091 -3.34934
-5.87277 144.114 -4.1415
21.0482 121.278 6.34349
-6.43382 113.383 -5.45919
18.6792 130.577 5.60998
26.0656 93.4314 14.7504
10.9265 146.967 3.34006
21.8559 80.9675 10.5154
14.018 84.7251 2.03049
3.61475 124.963 0.546105
-12.4319 124.709 -4.67458
2.69534 110.483 -3.57334
18.0534 121.225 1.93867
10.5158 96.0292 4.48636
19.0944 104.717 2.21305
9.87449 123.59 -0.528766
17.7595 120.297 2.10987
8.00913 146.729 -4.75701
-7.38002 135.946 -5.05528
4.10232 128.823 2.00537
22.315 134.403 -4.37949
20.6338 81.6134 12.5107
7.25918 118.218 2.89121
-0.89357 128.034 0.941372
-12.1822 141.296 -1.24291
16.7491 134.523 -4.85137
-12.9759 126.175 -2.27807
11.7394 143.275 3.68865
-4.34703 152.369 -1.99488
13.8433 135.341 2.88992
-12.4935 113.441 -5.46059
-12.4858 95.2702 -4.06928
9.59563 110.509 4.47258
12.734 121.966 2.41099
8.22484 118.829 3.17366
-7.21398 87.1471 -3.11826
0.829082 115.346 -2.05419
14.5639 116.419 7.00124
15.9612 87.8885 9.66146
-4.29439 152.905 -1.96607
14.1946 148.941 0.680213
20.026 134.122 2.37941
20.2141 92.2475 9.0898
16.4927 134.523 -1.07999
14.3933 125.969 3.40627
25.645 129.58 -3.30782
17.8076 104.287 1.50561
17.5937 130.172 1.04072
-2.64778 113.046 -2.54895
0.815034 147.208 -0.585065
10.2003 133.04 -2.91779
19.5862 142.202 2.77879
13.72 151.721 0.233562
19.6219 126.777 7.06356
11.4897 146.936 -1.99871
14.0946 144.071 -0.0588361
16.4606 118.128 3.51323
20.4858 80.8208 8.47584
18.706 125.843 8.27281
-10.7448 117.104 -5.16764
16.8375 129.687 3.4268
24.4656 107.858 12.2055
13.7719 122.446 -1.78322
-8.56184 151.92 0.775657
14.132 132.47 -1.72247
4.35094 112.548 -2.7758
14.5082 125.539 3.54558
17.2711 129.859 5.25759
22.5562 129.702 3.27327
9.88193 106.21 5.06989
17.5559 123.988 9.68372
-7.83382 124.625 -4.75526
20.1821 100.696 6.77201
21.7297 136.598 0.168009
13.2466 94.2498 1.57715
21.6097 85.5859 9.29356
10.9958 106.403 -0.792704
6.9118 126.267 3.18352
-8.69862 84.2078 -3.25493
21.2843 109.078 7.33938
13.5932 119.096 -1.75757
1.46608 142.666 0.528395
10.3924 98.816 -0.0482221
21.5656 127.426 0.836284
-8.42213 149.971 -2.05444
16.2084 128.624 3.6778
4.57333 92.3942 -0.0501307
16.4305 88.3478 2.10127
22.4355 130.958 -5.18224
12.7139 96.318 2.44029
-3.45363 129.205 -1.20636
14.1857 122.125 0.558551
16.4531 135.882 4.85642
24.014 98.9062 11.4856
10.7806 80.3128 1.58304
7.6605 135.058 6.17718
8.53716 120.364 3.22471
10.3493 126.706 3.23584
2.79117 125.928 1.14114
11.5148 107.085 1.29056
4.43516 133.61 2.35728
-7.90902 124.24 -4.61245
-3.8307 117.749 -3.25805
9.61439 108.601 -0.693945
11.1388 145.268 3.22945
13.5312 134.418 6.69257
-10.9989 107.198 -6.11296
23.3628 132.848 -1.27575
18.758 94.1654 7.84713
8.78482 90.3168 4.94396
4.1827 149.134 -2.80307
21.4064 121.672 5.1764
18.0352 115.669 1.40589
-3.12595 91.2287 -3.94703
8.65276 110.908 0.774509
7.66661 154.125 1.10157
15.4067 88.931 6.37125
16.2967 85.0354 10.0552
7.65725 82.2923 2.15186
15.5247 106.852 2.74294
8.24228 88.5417 0.610664
4.58765 138.329 0.364219
8.8527 137.188 3.53373
9.8669 86.5583 4.74948
21.1851 112.021 13.8377
-9.59592 139.645 -3.54491
21.2286 85.9657 10.2085
14.3452 123.132 -3.04522
8.68703 91.4395 5.89632
8.57882 106.58 -2.54647
14.182 125.644 -0.12246
-5.56856 149.847 -3.0473
12.8977 96.5765 3.1328
13.598 113.927 9.50871
17.1051 125.861 6.952
22.511 131.647 3.32629
7.79609 142.857 1.30881
-9.65071 142.572 -3.65635
13.7962 139.51 6.13494
11.6718 141.26 1.79653
9.23839 126.28 5.92623
9.20025 107.332 7.00061
-3.40947 80.6816 -0.599968
5.0409 78.7655 0.559361
23.6205 127.591 -0.12168
5.02038 138.078 -0.479523
10.8605 96.1081 0.221431
12.7102 89.5483 5.16685
8.80059 90.6394 6.97155
3.78027 106.037 -4.03779
9.04296 89.6912 4.70436
2.18836 138.698 5.30958
9.74715 80.2548 0.532277
11.4802 89.2976 7.28742
-10.9444 136.788 -3.47608
2.45045 145.377 -0.518595
20.9448 122.137 5.52663
5.82672 144.084 0.959106
12.2979 83.2805 7.87336
21.2697 136.393 1.1779
-9.39669 132.5 -3.80562
16.0388 101.148 3.48283
14.9552 133.867 -3.10758
17.3942 89.2541 4.52485
15.2748 104.621 2.0163
20.1283 96.8628 9.11049
10.6356 122.266 1.13794
21.7769 137.592 0.282196
-12.0156 124.792 -5.01527
-3.20477 107.34 -4.2041
20.2188 101.358 6.40852
15.3416 105.487 2.15271
-8.82746 136.837 -4.31131
7.04914 149.063 -3.97664
6.23975 133.092 -0.740058
14.5701 113.76 7.20739
17.4718 124.023 -5.78946
13.7838 131.189 -2.59795
0.994059 134.509 1.71697
11.5212 83.7139 6.09081
14.0132 127.137 1.40409
17.4367 116.984 7.27827
13.8468 129.082 -2.08924
20.9331 125.034 -6.58685
0.785485 116.906 -1.57004
13.8667 83.4174 1.81502
-10.1431 90.3971 -3.78616
