ply
format ascii 1.0
comment Created by Open3D
element vertex 1917
property double x
property double y
property double z
end_header
-20.4815 96.8022 -5.88347
-15.3846 127.43 -2.38112
-10.797 118.544 -10.1753
6.83716 107.248 -11.1112
-12.6092 86.288 -10.9147
16.3389 138.696 -5.90742
-16.1452 85.3712 -9.65906
-9.66263 94.3052 -11.2348
16.2639 124.349 -7.11892
-15.198 125.018 -2.67839
16.975 87.8638 -6.8055
-25.6947 120.342 6.39914
16.3041 116.452 -8.17304
-4.53609 106.946 -13.0387
-8.04215 98.9179 -12.0806
-22.6608 119.3 3.17544
-18.2027 114.51 3.16778
-1.8577 134.56 7.64129
-16.6418 121.651 -6.56446
25.8835 132.798 -0.52027
17.1475 136.294 -6.79742
3.24918 135.611 -4.37784
0.442851 134.533 -3.9734
16.5855 118.538 -4.76943
14.6678 132.199 5.57378
21.1028 121.787 0.689849
-13.7701 128.082 -7.21278
24.3031 116.887 2.32809
15.6842 84.7681 -6.73348
2.76108 138.06 -4.08809
-14.5059 120.426 -2.51043
-9.53895 128.234 6.40973
-22.1564 124.551 -0.841969
-13.2671 113.56 3.19776
-0.608099 143.589 3.86854
18.7597 115.488 -4.55017
2.89584 117.229 -8.20108
3.30455 141.215 5.57902
23.939 138.821 -2.84143
17.5744 131.62 -7.8285
-19.7269 78.6844 -7.09569
11.5762 93.1428 -9.89268
6.00861 122.384 -6.14754
-10.2405 86.3506 -11.4428
-16.3528 123.975 -4.4131
29.3036 124.403 0.192429
-15.2678 126.603 -6.87575
-22.4866 120.136 2.15843
9.66546 90.2284 -9.72029
18.3744 96.5763 -7.93379
16.8323 149.388 2.44071
17.6559 133.374 4.26059
17.736 148.237 -1.75598
15.0164 127.197 -6.68625
-14.4311 119.408 -1.72738
-9.06193 124.841 6.93358
-19.1115 127.271 6.91746
-13.8235 123.386 -9.30335
6.77424 127.484 8.05927
15.3175 125.723 -6.47662
-16.6402 74.8269 -9.09865
14.224 127.578 2.85049
-12.6196 146.167 -2.55112
-13.455 129.246 7.24573
-13.7724 107.803 -11.4467
-14.6509 142.924 7.34801
0.266681 133.655 7.96544
-3.86928 140.08 -4.80995
-19.9174 129.762 -1.51958
24.4662 140.658 1.7229
-15.5192 94.764 -10.7787
25.1015 138.72 1.09949
-4.4815 152.708 -2.40289
-18.1033 140.268 6.9976
-15.4826 80.0711 -9.12822
5.64563 130.532 9.578
14.175 109.382 -9.84949
17.2748 123.355 -6.60857
-21.8989 121.01 6.44335
13.8512 135.316 -10.2108
-9.96854 143.101 5.09136
-15.6075 121.389 -2.41902
12.3689 148.07 -5.40246
18.8462 124.058 -3.19099
22.3249 141.725 3.22479
14.7498 119.327 -8.57336
-12.4508 142.477 -4.86477
-19.9696 101.306 -2.26275
-9.88855 85.7512 -11.5905
-8.52908 134.704 7.24745
7.15804 124.524 7.47333
-23.9205 122.699 6.7
-0.239255 119.752 -10.3188
-4.76317 121.27 -8.35668
17.0849 96.5925 -8.29104
-13.4816 83.7482 -10.1689
0.548386 151.246 -2.79127
-18.0403 102.1 -7.88585
0.726834 153.798 -2.18963
8.83958 134.131 4.48326
-15.7768 133.098 8.2526
-0.168227 89.4677 -11.308
25.7724 127.069 0.696452
-10.1066 80.1068 -10.7601
-8.0773 134.044 6.97971
5.50376 140.066 -4.56249
22.8482 133.625 -6.36155
23.4165 127.786 -6.36959
-15.477 119.833 -2.45683
13.1928 116.496 3.91618
-12.4818 87.8399 -11.4703
-15.5653 138.776 8.27325
-13.1099 105.057 -11.5114
-14.947 130.391 -2.19775
-20.3861 132.276 7.39778
-16.6191 133.009 8.00169
6.9752 153.491 -2.28067
8.46621 80.9856 -7.69646
18.5485 147.702 2.42033
11.9695 132.874 -10.4341
29.5611 124.804 -0.469637
3.7942 134.378 7.4259
18.9603 117.579 -2.76027
-15.1477 93.8128 -10.8572
-7.34831 140.039 -7.31815
18.3195 132.846 2.286
1.0255 143.779 -3.1991
13.6569 146.173 2.90198
-12.5374 148.151 0.0166691
2.3984 144.222 5.45293
1.94728 142.18 4.7521
22.4376 124.256 0.316795
-6.65503 79.4734 -10.8271
18.3351 113.28 -8.08958
-21.4391 116.446 1.264
-17.7131 113.652 -1.58164
-1.40197 95.5661 -12.5293
15.5468 123.664 -7.01967
2.74278 127.009 -5.68154
-5.93081 94.5442 -12.2867
-3.47993 118.919 -9.28422
-15.9314 128.125 -2.72238
-15.6415 108.114 -10.0039
4.03724 112.394 -9.65713
-16.8007 114.993 -3.38145
27.6515 128.561 -1.2678
18.8834 148.837 -0.0817142
17.0492 127.113 -3.11627
8.77215 137.462 6.2343
9.53975 150.362 -5.18103
-14.967 122.293 -3.42006
-2.33789 112.55 -12.1565
-8.41287 139.856 -7.07968
-4.9784 117.969 -9.07892
6.55665 139.198 -5.6865
-20.8342 78.2522 -6.47513
10.0516 135.392 3.14555
10.4876 135.334 -8.57414
-17.5554 140.77 7.14559
14.0116 109.079 -9.83792
-3.03696 110.162 -12.4672
10.1097 132.622 2.96939
-13.4375 118.367 2.7657
-17.5505 128.535 -4.11301
25.2456 138.626 -0.466397
1.73606 135.289 -3.80456
15.1605 142.476 4.7836
21.0147 104.173 -5.08275
9.53875 131.792 5.27646
17.366 129.704 -4.12511
-18.9056 113.785 -2.91923
17.9534 122.268 -8.20542
-8.3025 80.041 -10.5732
6.63685 155.289 0.471829
9.59453 135.591 3.34578
-15.2297 111.44 1.05907
17.5898 92.0762 -7.42255
16.1097 113.438 -10.0844
-11.5135 127.556 -8.67217
-8.30996 125.296 -9.26651
-9.21835 134.144 -8.88285
15.8122 146.252 -4.26302
-14.567 120.853 -2.30433
23.286 113.487 -2.19964
27.8706 128.604 -4.7586
19.6954 136.487 2.99654
15.3173 141.83 5.13826
3.74312 149.013 -3.17672
-21.7491 126.222 -0.522951
-0.294137 130.711 9.30994
19.3844 126.058 5.16163
15.5908 147.398 -3.19679
26.7238 125.268 0.20223
-5.13828 129.508 -7.22506
9.11166 86.212 -8.99092
0.278866 124.884 -7.43486
8.38472 103.812 -12.3059
-6.84987 136.826 -7.36003
11.9563 137.179 -10.2624
8.03141 128.459 6.82157
20.8059 123.637 -2.24269
27.3604 133.478 -3.09451
-20.0343 139.765 2.88862
24.6761 111.711 0.643201
-14.7152 99.4091 -11.3636
-21.1517 123.63 6.83846
1.97998 141.703 4.84446
19.8933 129.203 -0.53844
-14.9092 107.804 4.38413
-15.4547 115.564 -0.446677
12.2364 139.749 1.49453
7.27271 154.341 -0.757811
-14.6188 146.739 2.16022
21.3288 118.292 -1.74823
7.89064 154.175 -0.618885
21.7199 113.363 -4.90982
21.8834 137.01 -7.17858
-20.5884 135.649 7.09895
5.02017 117.006 -9.09107
-21.7885 79.2743 -5.38868
-20.9243 131.915 7.04766
3.96284 137.615 -4.57241
11.1315 88.2566 -8.89622
9.45591 119.154 -8.80855
20.5959 115.051 -2.85249
-19.0513 116.642 4.63778
4.81545 89.392 -11.1098
-16.3615 126.32 -3.43785
14.7726 130.881 -9.05075
9.76476 143.484 4.60002
-8.1332 86.5635 -11.6089
-1.48957 92.8222 -12.128
-15.9353 143.053 -0.531731
4.54199 154.115 -2.11515
-17.7623 113.431 -4.87258
17.3925 110.782 -9.73693
-19.7076 138.819 1.61958
-2.19481 141.035 -3.88664
1.53661 140.381 4.85524
-20.3236 138.626 2.64743
-5.06266 110.261 -11.6546
1.82763 93.7275 -12.0178
22.8436 120.142 4.4306
-11.2287 147.967 -3.46426
-17.0884 139.699 -0.130451
-24.7847 120.281 3.59112
9.44964 139.132 3.69563
15.0838 100.898 -9.60033
6.76159 78.8063 -7.32598
8.58436 153.569 2.07814
-12.8405 125.104 -8.44251
20.1935 116.409 -0.869886
27.6695 124.498 1.81521
-10.5435 136.766 7.88162
13.6664 144.008 -7.33398
21.1679 121.732 -4.90738
-9.71818 101.797 -11.8128
-4.25877 87.9019 -11.6183
-9.39385 134.623 7.46595
-8.98691 144.273 -5.81199
-20.9485 114.286 4.75504
-9.92405 127.041 -8.29134
-18.3308 101.252 1.33933
-0.523571 98.6851 -12.7603
14.6908 131.595 3.34528
-12.5259 119.351 1.98855
-13.4469 145.884 -0.453038
14.3423 135.52 6.15801
-5.47517 138.194 -6.15511
-1.53812 116.992 -11.06
-24.5982 116.557 4.95591
-24.2115 122.26 3.41769
25.9481 131.548 -0.228239
-21.2592 90.0581 -4.30581
-0.137459 138.184 -3.50368
15.5992 127.292 -8.20399
-18.6146 116.026 -5.19385
16.3411 116.841 -10.1996
13.5175 129.27 2.35015
-11.0887 120.686 -10.25
-5.33177 138.772 -5.96957
19.0393 125.021 -4.89728
-17.0074 108.719 -9.42705
12.6296 98.2527 -10.477
-20.3215 99.4204 -3.62301
22.1374 126.313 -7.3347
-14.469 89.0203 -10.2698
-12.6346 116.867 2.29893
-16.0174 126.417 -2.97537
-12.93 129.728 7.22204
8.86571 108.969 -11.2592
14.4338 119.845 -9.82654
-8.91646 75.2026 -10.0299
24.3204 107.321 -1.29608
-8.81324 107.768 -11.6944
-13.7616 113.99 -11.1871
26.117 129.128 -0.667478
13.0164 117.39 -10.3332
1.37414 81.5508 -9.89143
-15.4106 108.298 -10.118
-20.8243 131.079 6.76849
23.1676 140.667 -4.10183
-15.5398 117.957 -7.67271
-20.0024 102.195 -2.36519
7.57571 79.7548 -7.50505
-16.2659 126.346 -3.31078
-3.75061 119.27 -8.97623
18.9085 128.948 -11.2313
-19.6457 89.9357 -1.42454
-22.1303 116.239 2.12325
-19.5052 78.8468 -7.20297
-7.5469 136.624 5.72462
-1.77024 135.478 7.07118
2.82413 118.974 -8.03621
-14.136 119.515 -1.70551
-15.5692 110.942 -10.3291
-20.4558 78.3042 -6.73116
25.3983 131.953 -4.00891
-7.55181 149.289 2.60626
8.15595 154.036 -0.665438
-12.9647 132.873 -6.87272
-13.8695 114.715 1.89193
-6.057 132.025 6.87022
-15.6535 127.821 -2.26141
-12.1958 117.638 1.22757
-10.0639 75.5722 -10.0555
-15.8329 86.4154 -9.77285
6.53347 138.215 -5.54767
-16.876 123.467 7.30801
-15.8646 134.473 -1.93015
-15.7664 116.597 0.233003
10.8132 120.312 -8.46726
-16.1078 111.101 0.825877
-19.862 100.149 -6.16926
19.0414 145.997 3.61056
20.0735 92.3513 -5.93271
-13.5879 145.021 -1.18648
8.77652 148.003 2.52315
19.6283 115.052 -4.28499
9.52786 125.426 -9.59687
-9.27813 128.413 6.66995
-17.4615 98.4734 0.983158
-13.2341 141.551 8.16026
-12.5512 121.802 3.2731
-17.4541 144.044 3.85948
14.7369 104.933 -10.6322
-19.3414 139.59 1.75704
-15.2198 90.4629 -10.2227
-16.4567 81.9457 -8.83536
-14.0343 96.2 -11.4324
-10.7419 134.126 -8.81899
14.9397 141.354 5.33163
-21.2324 88.4755 -3.05976
-17.0003 119.956 -7.60173
4.50402 131.208 9.89325
-18.2659 110.858 -1.20241
20.5817 125.004 -12.087
-19.3507 99.2558 -0.426899
13.179 90.2045 -8.81647
0.93572 138.67 5.28116
-17.9304 123.588 -3.46686
23.1514 116.624 1.52708
-19.8523 132.732 -1.45528
5.52207 105.248 -12.6876
-15.3774 80.1743 -9.20074
-13.5772 115.849 -11.1532
18.7822 123.185 -12.0981
-14.3174 127.04 -7.18552
15.9365 129.125 -6.21929
14.5314 139.74 -7.53193
1.08708 141.675 -3.37261
-12.7713 115.054 4.76354
8.81109 91.3713 -10.2723
-15.3102 132.598 -3.15485
7.44442 90.9973 -10.8285
21.8063 117.97 -0.731902
20.2303 128.969 0.193398
-3.26063 115.962 -10.3353
-11.0371 131.004 7.37099
5.7458 82.3438 -9.06921
7.44951 94.8937 -11.8275
-11.0261 147.993 -3.67982
-8.46734 135.355 6.06263
19.0451 115.089 -5.30438
21.5555 132.922 2.9902
-17.4841 135.09 -0.743307
-26.217 119.966 5.03345
-21.0392 128.864 -0.485996
-8.31082 141.428 4.51544
3.5988 139.539 6.17719
18.3352 124.614 -11.6395
19.367 121.463 -5.17328
-15.4248 119.763 -3.89641
26.9531 135.645 -0.635204
3.89449 80.2081 -8.8875
-13.5512 103.917 -11.3374
2.28948 132.058 9.0982
-13.6396 141.944 -4.29203
-5.84128 74.1475 -9.45943
16.3721 140.463 -6.06928
-12.4806 136.815 8.02434
-14.8393 123.414 -3.15712
-23.9218 119.943 3.45065
0.879059 114.157 -11.3003
19.7959 92.2906 -6.29386
6.42803 124.544 8.28879
-21.9348 132.422 3.27904
-12.6008 86.6901 -11.0491
22.8078 109.739 -1.88799
-6.50406 142.367 -6.22404
-6.4989 109.543 -11.1486
-2.85514 150.04 -2.74723
3.22894 131.614 9.65388
19.5149 132.918 -9.82912
10.1359 114.701 -10.6575
19.1119 126.794 4.50236
17.6148 122.215 -10.9975
12.9722 96.4521 -9.79588
-13.8738 143.325 7.34268
16.9906 126.39 -1.30073
-18.8469 77.2732 -8.80213
9.31174 136.655 -7.37979
-9.80445 79.9556 -10.6532
16.342 130.818 -8.73578
-18.7387 114.137 -3.69275
-15.8511 122.438 -4.90943
-22.9861 122.34 2.81103
10.2725 143.34 -8.0354
9.3118 100.154 -12.0377
20.0223 129.639 1.0287
-14.1372 80.1353 -10.1762
0.0119057 81.6205 -10.3257
27.6436 129.021 -5.10883
24.4947 105.011 -2.29257
-19.6979 103.509 -2.35601
20.5661 141.749 -5.83797
-9.41814 83.7406 -11.3127
21.4005 124.599 -0.788923
16.9679 136.076 -6.97228
22.8739 143.502 1.64752
17.9276 115.61 -5.7756
-12.2016 112.574 5.83021
6.44166 141.884 6.4624
7.89334 138.79 6.01698
-14.7234 108.293 -10.5493
-15.3717 116.472 3.26853
-18.7014 85.1913 -7.49864
2.12563 116.407 -9.10871
27.6011 126.765 -5.72291
14.5825 129.23 -5.12098
22.1659 143.448 -2.94801
-12.2053 148.36 -0.866658
-12.6743 118.234 0.30784
-13.7496 130.273 -6.32635
6.74033 133.003 -5.67856
4.36701 134.842 -4.65364
5.3888 97.7456 -11.9758
-14.4477 140.894 -4.08122
13.7274 103.954 -10.731
-9.01264 92.1216 -11.5291
18.7324 129.27 4.78305
24.6749 131.589 2.54611
-10.9395 85.6819 -11.1522
10.1176 150.961 -3.47142
-19.782 97.0121 -6.87386
-4.31347 83.3133 -11.1187
8.9965 131.49 -6.97484
13.406 138.073 -9.20481
17.8719 132.506 -5.5585
19.0355 94.1328 -6.86463
18.015 121.863 -11.4012
21.5518 104.296 -4.44574
21.2145 122.362 3.87642
-5.57086 121.907 -8.05668
21.4035 126.508 1.93341
-8.9447 149.262 2.89922
-16.891 106.916 0.270115
6.4373 90.7007 -10.9871
-4.34463 90.3398 -11.8827
19.9436 124.575 -2.72753
-12.3785 86.3709 -10.9388
-16.6529 120.636 -5.88681
17.6528 99.5455 -8.50412
9.85654 144.771 -7.46804
3.8824 132.171 9.41338
19.9957 121.832 -4.22744
0.319656 138.917 -3.48166
9.19694 141.793 -8.0497
18.4049 141.923 -5.15471
-14.4572 120.824 -3.11362
2.30366 134.271 -4.29109
8.79036 81.5112 -7.82815
22.0325 128.059 -7.26056
8.85671 88.789 -9.5684
20.8868 123.256 -3.10323
-14.9205 139.489 -3.64362
-14.615 123.343 6.85752
24.5408 128.334 3.22745
-5.27108 94.4708 -12.229
-10.0975 78.2894 -10.3458
-12.8458 117.799 8.67713
1.84939 125.333 -6.96933
-13.7254 146.409 5.0728
3.0636 76.7856 -7.73758
1.64608 85.8164 -10.7968
-10.8711 122.616 8.43474
-16.1719 127.679 -2.53605
26.5565 135.231 -0.284308
16.8697 117.225 -4.94802
19.8415 117.702 -2.27814
-5.92612 141.22 -6.26182
18.3356 130.788 -10.5123
-19.102 139.589 1.54716
-17.5119 131.334 7.64343
25.957 126.774 2.0301
-15.0461 127.22 -2.40476
9.94379 135.005 3.49098
-20.0767 84.8883 -6.81797
22.9649 103.412 -3.56174
16.7171 127.904 -6.87009
-11.9002 120.627 3.09839
-12.0426 146.171 5.34056
10.9672 146.663 -7.0298
-8.1412 78.8497 -10.5498
19.2314 97.6625 -7.4201
6.96499 152.349 -3.71196
-17.6057 96.0724 -9.05011
-8.62789 102.739 -12.1887
14.0299 146.968 -4.76995
20.8719 122.302 -9.63013
20.5513 147.417 1.39536
15.7185 133.387 -6.21128
-14.7522 127.767 -3.80616
-5.20946 79.4604 -10.8867
-15.7646 95.8144 -10.5281
-16.8853 105.591 -9.13969
-1.60399 140.017 4.9849
-15.9664 86.5232 -9.67373
-9.99991 118.67 -9.69528
21.6197 121.485 -1.11098
-13.3909 94.2018 -11.3614
-17.1608 136.911 -0.889959
-18.0875 105.351 -1.11749
-20.4489 121.049 6.68657
-2.34511 138.124 5.96455
-6.92644 129.66 -8.29281
6.19486 80.5368 -8.27445
12.0368 84.4572 -7.55228
-19.0139 111.18 -2.43685
-14.8418 121.601 -2.4101
-11.4235 122.555 8.28436
15.48 128.627 -4.19516
-12.9654 128.692 -8.97354
-18.7032 134.77 8.25735
12.1049 117.733 3.83675
-4.95601 88.3047 -11.7883
16.1049 124.606 6.22546
16.4133 132.398 -8.42872
5.08619 136.816 6.94135
-16.0185 116.012 1.77092
18.9854 130.066 0.555623
17.3611 147.043 -3.4141
-4.55398 99.436 -12.7323
17.7878 128.225 -4.45713
-19.7324 105.508 -4.11598
-16.2027 121.534 7.21983
11.4281 127.07 2.55539
-3.83802 125.555 -7.33802
-19.9877 89.3598 -1.63593
27.6597 124.334 -1.10043
-11.2422 148.922 -2.86798
-2.15818 149.171 -2.80031
8.85625 126.276 4.67155
16.5086 133.255 -9.0777
-12.3135 122.845 6.7077
0.572965 134.013 -4.0372
10.5368 124.758 3.1762
20.986 119.469 -2.49514
4.61608 134.459 -4.66418
16.8922 118.113 -4.50947
19.1084 101.379 -8.51839
-2.76002 142.115 4.42199
16.5105 147.524 3.74346
11.2159 149.982 1.36793
-7.42008 152.443 -1.55543
18.5498 139.306 -6.49172
-3.83287 84.137 -11.2205
23.5703 98.0028 -3.94455
-6.99448 108.565 -11.4206
-14.3422 123.736 -2.66599
-17.7173 137.624 8.04544
9.57515 130.72 3.62962
-16.217 126.105 -3.46442
5.02115 97.068 -12.0246
-24.8218 125.86 4.42659
16.6227 126.902 -2.41687
-12.905 82.3929 -10.1685
4.6319 154.593 -1.88001
13.9509 136.403 3.14131
-1.90064 139.375 5.4151
-15.1422 134.678 -3.66042
-11.8787 119.012 2.0825
-14.032 108.271 5.25394
24.6971 142.42 0.0972157
-20.5226 95.3409 -3.18532
-3.05617 79.5608 -10.5169
-3.73621 101.383 -13.164
14.0454 101.844 -10.5583
-15.6593 140.2 8.17266
-0.978278 77.1944 -8.8849
-20.2015 100.196 -5.63907
-18.9934 88.7858 -6.43055
6.58456 84.8824 -9.33157
-17.9288 127.885 -3.76322
-20.4449 138.754 2.22608
-6.43653 136.338 5.34984
-9.48307 94.2713 -11.2596
-13.0242 118.288 -0.00491406
-21.0633 84.5811 -5.77112
-20.7464 136.091 2.6328
23.2746 109.747 -1.34955
-18.6371 122.952 -3.43661
5.48952 132.723 8.83033
-11.966 146.155 5.29986
5.6877 141.937 6.4811
-20.2148 102.587 -4.76937
-5.76194 94.551 -12.2612
1.75686 114.134 -10.5245
11.1027 136.049 1.61949
18.8032 125.353 -5.3302
-16.0086 121.692 -4.96392
-13.6044 90.0898 -11.2887
9.92103 130.194 -8.49816
-1.21469 117.37 -10.9577
16.3011 128.828 -1.77573
19.3368 135.022 -9.50635
22.6945 119.989 3.75331
14.2526 149.5 -2.91181
12.1681 96.5808 -10.1831
-21.0979 92.4232 -4.52316
-15.0244 144.105 6.523
-10.3257 111.434 -11.4801
-8.66381 79.0335 -10.4659
-12.5626 116.474 0.678083
6.3531 135.993 6.6913
-13.073 109.778 4.07143
12.6565 119.929 -10.2268
-1.50713 126.214 -7.5661
-16.7108 120.255 -4.05571
-0.687993 127.621 -6.96628
-20.2192 82.8788 -7.19399
-0.690944 122.564 -8.82777
4.15933 151.979 -3.07992
18.3305 126.558 -0.929658
1.49231 134.726 7.69673
-16.4997 117.392 -0.842301
-3.33162 94.6424 -12.3524
10.2208 135.926 2.50684
-20.0192 139.235 2.13918
24.2496 101.808 -3.18522
22.1176 144.893 -2.3198
9.14566 112.661 -11.0657
-11.5013 78.3658 -10.4409
-1.5652 96.6958 -12.383
-20.9473 82.3373 -4.75975
-14.8523 139.453 8.23081
-22.1793 76.2156 -5.37216
-17.826 92.268 -8.69723
-13.6486 79.8124 -10.478
9.12196 152.737 1.66495
-13.1326 121.542 -10.0901
14.4972 95.7347 -9.24069
-23.1364 116.477 3.61077
-5.50916 116.563 -9.41426
23.997 133.782 -3.56243
20.1012 125.748 -1.0113
15.8592 131.867 -5.28773
19.6102 115.199 -3.91846
15.5522 131.232 -8.78192
-13.1172 93.3557 -11.4743
8.69352 140.018 5.81864
-16.3219 120.717 -5.07051
3.39401 118.19 -8.14852
16.3164 126.389 -8.24991
3.67727 140.582 5.95939
18.2347 100.339 -8.45422
8.31156 87.6512 -9.5458
8.75728 124.924 4.77947
13.524 129.639 2.3403
-9.19661 83.1779 -11.2031
-19.9318 104.431 -4.51546
-7.04971 148.427 2.78852
-13.1608 120.785 -10.1504
-13.6462 121.72 -9.59861
4.33097 79.1025 -8.27827
23.888 130.66 -5.32383
4.52032 133.889 7.72838
-17.6966 92.6332 0.997823
-12.1456 141.7 7.58647
-14.7299 142.807 -3.09176
-17.3184 102.064 2.80852
-15.8378 125.931 -6.15613
-11.0977 94.5361 -11.1267
-16.4046 144.873 4.31035
23.3645 125.474 1.3826
17.5601 133.445 -7.98231
-14.7946 127.577 -3.48791
-1.26032 148.068 -2.86163
-15.3208 123.281 -4.34647
23.8865 132.905 -4.85134
-17.7606 108.837 -7.01364
20.613 133.008 3.07261
-15.2545 119.021 -1.76432
14.4201 117.671 -10.7108
-14.73 139.958 -4.30802
-13.2623 132.35 -6.85225
-11.1817 140.846 -5.8401
15.852 102.366 -9.80383
17.5947 115.187 -9.19454
-15.8172 107.603 1.6143
20.8544 103.261 -5.51742
-6.52534 146.628 -5.40213
-4.20968 93.2512 -11.9611
-20.2158 102.701 -3.37029
-4.19266 83.561 -11.2008
9.32758 150.329 -5.5455
20.3188 129.571 0.564173
-18.6884 116.282 4.30565
-16.2411 115.39 2.76601
12.4559 117.705 -9.32133
14.1812 124.205 -10.0722
16.2017 124.695 6.76256
21.6614 125.161 1.06105
-10.8069 111.825 -11.3387
0.855063 135.789 7.07307
20.2757 126.456 3.75105
-10.4792 112.705 -11.2311
17.6446 122.477 -8.34113
18.0549 90.9543 -7.2504
21.2392 97.5923 -5.87709
10.5984 153.804 0.820863
-16.9611 98.6857 -9.42742
-2.03272 81.5654 -10.7614
-17.4855 126.272 -4.01367
13.4632 139.053 -8.2028
17.9357 148.003 -1.79561
18.2265 121.415 -8.19508
-17.6032 121.872 -3.73613
-21.6033 86.0377 -3.31149
5.80388 80.1596 -8.21831
24.7467 139.948 1.23068
18.1219 128.888 5.43006
-13.1061 133.637 8.39661
22.2252 96.0834 -4.24228
12.5969 137.668 -10.0946
-2.12643 130.325 8.76174
-15.626 109.265 1.65996
9.01781 143.179 -7.67516
-21.3807 135.211 3.28327
-14.7538 122.41 -1.62844
5.87298 154.029 -1.61956
12.5141 151.765 1.40904
24.1852 137.585 -2.4379
-14.7756 114.864 -9.96671
17.6718 109.921 -9.65782
-17.9075 96.8156 0.108211
9.34693 128.122 -7.92333
18.0559 112.174 -8.52521
-11.1827 125.466 -8.55629
22.9225 145.186 -0.945858
9.19372 118.975 -8.88578
7.42158 131.95 7.98722
-12.4459 119.034 1.11398
-12.385 137.658 -6.59078
24.8876 114.001 0.547493
13.7269 143.134 3.33516
21.6126 122.795 -1.29443
21.7537 145.27 1.82605
-18.7405 102.942 -0.979658
14.1286 134.574 2.41709
12.1963 97.3191 -10.3405
9.42783 105.46 -11.8422
18.8018 129.646 -11.0139
17.4386 136.527 -6.55291
-18.7312 102.619 0.987565
-21.9005 124.885 -1.18209
-17.6534 106.25 -8.51448
-15.5259 104.351 -10.9451
16.6571 111.862 -10.1034
11.707 94.605 -9.94135
-13.1229 119.244 8.10629
4.56459 131.377 9.82756
4.42126 82.8613 -9.4491
7.56563 99.4887 -11.7897
17.4409 135.23 -6.9347
-9.04702 128.845 6.65485
-16.7146 144.838 2.94069
0.721014 135.673 7.14033
-5.8124 144.355 -5.4928
-16.9894 144.623 3.48591
19.3307 136.971 3.34545
9.47184 107.319 -11.3606
-16.079 117.373 -1.43986
-14.2556 146.879 4.06324
-18.7478 105.641 -2.82404
-10.6979 146.167 -4.9479
21.2497 123.8 -2.67813
5.77208 139.416 -4.64634
9.27403 134.236 -7.01158
-14.577 126.918 -6.95187
16.2794 137.259 -6.61964
13.2565 116.032 3.94339
-18.8586 93.4435 -8.09554
15.5259 126.102 -7.1573
0.15256 117.765 -10.7689
22.3553 95.9109 -4.03201
-19.8633 121.971 6.83404
22.9561 136.919 -5.83644
-18.0985 112.93 -3.99521
-18.5943 97.6563 -0.550125
-22.0198 119.217 0.851561
-18.4611 136.065 8.19471
-9.477 121.225 -9.30436
21.5442 122.307 -2.00265
14.4777 112.169 -10.6347
-0.895007 127.908 -7.1031
6.44462 78.8443 -7.41113
20.5875 125.226 5.33043
-7.86617 127.111 -8.71388
8.98873 113.826 -10.9785
-21.9079 132.924 3.37126
13.2793 146.38 2.11782
-9.43281 81.2729 -11.0013
-16.8452 128.608 7.70801
28.2572 125.855 -2.69213
-13.1386 120.875 4.43632
0.15526 79.6819 -9.90806
20.2596 123.917 -3.07724
7.52634 143.897 -6.29074
-14.5568 119.097 0.0733155
-13.5497 140.454 -4.48374
7.10017 108.909 -10.8091
-14.5784 124.755 7.61389
-20.766 120.483 -0.939231
-4.91335 134.66 6.61083
9.94006 122.835 3.87144
12.197 121.016 -10.3992
18.1084 148.225 2.39743
-18.7376 98.8958 0.208446
-10.8337 85.8118 -11.1963
-11.0669 136.356 8.1321
-10.444 124.919 5.26791
10.1793 129.247 -8.78498
14.2108 139.815 2.69267
1.69442 76.0382 -8.33726
16.6561 98.8828 -8.60359
21.391 123.538 -9.97824
-17.0952 117.746 -0.602728
-13.2545 136.112 8.20899
-15.2977 129.608 -4.09957
-20.1007 127.244 6.55102
18.1274 107.385 -9.30337
14.0622 86.7478 -7.22819
-8.153 137.641 -8.18074
-1.93283 101.19 -13.2104
9.81695 103.864 -11.9185
1.32208 134.777 7.62039
-8.09642 91.6132 -11.5243
-4.27811 110.969 -11.6805
16.7656 116.942 -6.72615
11.387 128.412 -10.8791
-22.8472 74.5316 -5.30069
17.7402 112.957 -9.1896
17.8921 125.659 -2.05088
-1.10691 105.022 -13.1608
25.746 127.165 1.60756
-20.6127 78.8154 -6.38086
22.0423 113.415 -4.39143
13.4963 146.454 -6.10118
-17.8734 113.037 -1.41844
16.55 128.298 -0.939169
-15.4201 130.693 7.81469
13.6305 135.939 1.69954
14.1973 121.489 -10.2511
6.89716 138.343 6.06786
9.53885 152.999 -1.20276
-3.90906 106.777 -13.2905
5.23062 89.8473 -11.1068
10.9562 112.959 -11.2509
17.5452 125.365 -2.44934
18.4214 116.142 -3.92438
-18.1706 104.715 -7.18461
1.79289 129.181 10.4779
8.80432 93.5229 -10.9542
-1.6038 129.621 9.39974
-2.85875 151.247 -2.5322
11.1879 149.839 -3.80108
-16.0575 108.196 -9.85908
19.2575 101.67 -8.15897
-3.1103 101.476 -13.2539
-14.6193 117.829 4.1099
21.0514 120.165 -0.460713
27.827 133.672 -2.18437
0.720051 139.858 4.90153
-9.83978 143.851 -5.48697
9.99219 143.837 5.30623
20.9479 128.488 1.73581
19.8813 121.755 -12.4797
-5.56767 136.66 5.60454
1.41799 116.47 -9.82187
18.0231 114.778 -8.64134
-4.97206 136.337 -6.08874
14.7446 127.864 -8.82489
-14.5856 142.289 -2.90557
-9.73083 126.25 6.04095
-17.1719 93.0292 -9.29188
8.13369 133.259 -6.17963
-12.8715 116.75 -0.158569
-20.3278 85.5222 -6.36093
10.2777 91.2557 -9.80584
8.79022 108.546 -11.4536
2.29461 123.034 -7.2797
23.4942 99.9794 -4.89565
16.8262 127.01 -0.304595
17.9325 129.938 5.87851
-7.50958 141.69 -6.61524
1.69929 105.38 -12.8809
0.440605 121.75 -9.17017
-12.7639 118.105 8.58601
17.2391 122.666 -9.87124
-4.78596 95.6385 -12.296
20.1325 131.201 1.63126
19.6767 138.841 -7.66337
15.4986 128.698 -7.13784
21.5759 122.204 -1.76083
17.5341 131.116 -7.62462
23.5781 97.8743 -3.87223
-3.53264 120.721 -8.56172
10.4903 116.046 -9.77883
26.6086 126.289 -0.368969
15.2946 133.02 -9.06269
-5.21856 105.701 -13.3434
-17.1664 103.996 -9.66354
-19.1891 83.4173 -7.98469
16.2295 146.418 4.04892
8.01846 140.311 -7.3986
-23.7506 126.569 2.37542
17.602 144.998 -4.03086
-14.196 116.211 -9.3337
25.3936 136.513 1.06825
-21.5468 82.0495 -2.78965
15.9457 127.38 -1.50168
-14.4275 145.474 5.50029
-10.9905 97.6969 -11.8182
-9.32284 74.7013 -10.0483
0.971007 108.379 -12.2746
3.49497 147.14 -3.31007
14.1045 138.727 2.493
-20.5005 126.881 -2.97322
-22.6185 75.4197 -5.04027
-5.7988 104.409 -13.159
23.0332 119.623 3.33361
-12.9049 124.77 5.14159
15.6117 127.541 4.11349
-12.1865 149.544 1.15431
22.7904 143.071 -2.79667
9.99433 143.119 2.1582
21.8932 131.534 -8.60047
-23.2714 124.143 2.01382
15.7253 133.851 -8.20867
0.652391 77.853 -8.85938
-1.31281 75.3732 -9.2857
-3.57508 114.879 -10.4531
-13.4999 135.739 -5.86751
9.16171 132.426 5.51882
-2.60263 118.702 -9.84858
14.4931 127.961 -10.4756
-12.4074 136.767 8.02926
-6.067 143.204 -5.94108
-18.8049 137.411 7.6259
-13.4944 110.241 3.38959
17.5755 122.836 -10.9564
-16.6063 113.519 -0.720241
-7.96121 126.517 9.05166
-17.7424 106.032 -0.726106
-14.5876 144.075 -0.996578
0.887113 142.609 -3.2412
-17.03 106.809 0.30205
18.8779 123.873 -3.51291
9.50559 132.367 4.08187
16.4555 150.436 -0.689284
-11.2036 146.628 4.45618
10.8708 128.959 -9.90088
17.0261 134.42 -6.88198
-3.16174 100.125 -12.9235
24.4676 102.221 -2.7227
16.4436 128.248 7.90112
13.843 124.05 -7.85255
10.5934 117.705 4.34395
20.4814 146.332 2.59258
-19.9139 134.386 -1.31758
24.0541 121.331 -3.55438
1.97344 102.654 -12.6249
-25.5645 123.589 5.09933
22.4812 132.215 -7.80319
-19.2761 92.9812 -1.82849
-14.6305 119.854 4.33295
23.7216 144.277 0.359634
-3.39152 98.9887 -12.5086
-15.1682 132.225 -2.71705
17.5572 108.532 -9.75638
18.4662 124.939 -11.6934
-15.3001 119.79 -4.55843
18.756 112.877 -7.28953
-17.5492 109.059 -7.86007
10.8001 85.8256 -8.1342
-7.05554 127.906 -8.0704
-5.58895 130.872 8.05907
-13.9013 92.0454 -11.1957
-9.86703 90.202 -11.6235
13.3307 100.523 -10.8112
20.8904 108.814 -3.95856
20.8679 136.615 2.77916
19.6202 113.204 -6.70044
23.7954 133.486 3.11154
28.4747 126.43 -2.25136
8.06284 83.7677 -8.57291
-18.0776 109.807 -6.8198
-19.1138 90.5433 -0.610242
21.2192 104.638 -4.64059
18.7103 117.559 -2.95243
-15.7708 110.203 -10.1885
-17.0863 126.875 -3.52615
12.4037 146.679 -6.95627
16.5809 144.161 -4.38786
23.2361 142.498 -2.83734
9.51787 92.0487 -10.1048
19.9477 109.38 -5.51642
19.1538 104.436 -7.98662
-21.8808 131.837 6.78544
16.2886 128.342 -2.14592
10.2444 110.792 -10.4135
-10.2271 140.993 6.26901
16.8529 108.062 -9.92841
29.9468 126.894 -3.26624
-20.2805 134.99 -0.614463
15.7857 103.203 -10.1291
1.85405 108.631 -12.3248
12.514 108.724 -10.0916
10.5434 118.895 4.16833
-19.7998 83.296 -7.49339
-17.3725 100.971 2.06263
-17.3998 96.3537 2.12629
23.1825 130.282 -6.00531
-13.2504 75.1562 -10.1093
-11.4445 90.4436 -11.6872
13.6922 124.898 -7.92489
-20.6765 136.287 3.39379
9.19846 126.762 -8.51236
10.0375 141.909 2.58571
5.09324 133.982 7.39518
16.2557 124.589 -7.53551
11.9765 99.5479 -11.3505
-3.32307 107.571 -13.1566
13.4376 127.82 -11.132
17.5835 116.618 -4.17301
6.22779 154.031 -1.55854
11.076 104.945 -10.7017
12.3077 151.211 -1.35199
9.10891 115.129 -10.7195
-15.8893 145.432 2.85184
0.590703 142.547 4.13096
17.2411 117.614 -4.43547
-12.4864 135.168 -7.03422
23.3165 118.076 1.94965
16.5325 115.888 -10.1235
7.34833 128.539 7.37539
21.6195 144.81 2.72525
14.1831 119.11 -10.0119
-21.0237 136.878 4.6567
4.0661 111.958 -9.81135
-17.2518 126.946 -3.51684
23.2082 99.3157 -4.91493
9.46196 139.681 3.74801
7.97114 144.283 -6.70202
17.4804 127.441 6.47754
-17.9688 119.118 6.61447
18.7457 125.53 -1.74756
8.53056 133.657 6.13912
11.4487 85.5621 -7.81144
16.573 138.873 -5.62414
8.40524 125.569 -7.88953
-18.4927 117.927 -0.613997
-16.7726 128.456 -3.66406
-14.9799 89.6078 -10.0597
10.7132 134.854 -8.76519
-8.89448 129.058 6.67537
22.6663 129.627 -6.57553
18.5528 138.03 4.19648
19.0818 114.375 -6.87369
16.0365 139.089 4.98374
-12.6901 120.292 3.15517
7.06057 116.423 -9.66486
-1.04378 136.82 6.07407
-19.4614 106.852 -3.90559
-11.6962 82.411 -10.6859
22.3271 145.041 -1.89124
11.4206 147.272 1.29072
-9.68077 124.498 6.13383
16.0063 128.247 -6.9683
9.8778 129.608 3.34958
-12.9739 119.678 -1.34016
-10.7232 95.1942 -11.2334
-14.6725 87.1579 -10.2487
19.5643 147.31 2.20715
10.6746 132.521 -9.07425
16.8441 132.505 -8.29889
-13.3456 125.176 -8.2891
7.01255 140.619 -6.33524
-21.8978 126.599 0.893941
13.1139 120.902 -11.133
12.9277 144.284 1.25812
-11.0642 148.723 3.60308
16.9932 136.462 -7.31676
18.5801 125.541 -5.65327
27.2826 125.073 1.93789
-7.82732 153.57 0.417321
20.6978 129.25 1.39158
21.9513 127.079 -7.25575
19.8933 111.291 -6.28807
-4.58498 84.2245 -11.3717
-15.2954 121.144 -3.35913
-10.524 147.336 -4.6543
-21.2863 132.524 0.677091
-17.7651 120.347 7.03753
-10.8407 132.657 7.76467
19.5186 121.453 -6.45754
-16.6536 123.44 -4.05727
23.3476 131.804 -6.44483
15.2158 130.159 3.83807
-20.0466 138.375 3.8452
12.7618 88.7558 -8.38794
-12.0033 115.852 -11.2709
9.80618 99.4423 -11.8842
-22.279 116.506 2.22434
-7.98688 91.1948 -11.5458
18.8548 135.125 2.5793
-19.4555 135.492 -0.0387515
-18.444 105.683 -5.66031
23.8836 132.818 -4.90655
-13.3014 122.903 4.75426
-11.7178 104.312 -11.5809
-14.0807 110.201 2.89862
16.3997 88.9281 -7.07334
-12.2426 117.058 5.21397
0.802568 101.908 -12.9531
4.79222 91.544 -11.3188
-17.5952 112.579 -1.00946
-20.7216 90.4452 -3.51262
21.0931 119.657 -0.757979
10.2385 119.08 -8.74499
15.5835 124.554 4.37244
1.63654 136.843 6.07382
19.8567 105.511 -6.38719
18.8157 146.606 -3.48335
6.99089 140.862 -6.22055
-5.83996 85.9352 -11.6153
9.69617 95.7265 -11.356
-8.77403 144.176 4.39433
25.9329 137.511 -1.18961
10.5274 144.069 -7.70384
25.2348 131.803 1.19193
9.83716 120.505 -8.49533
-20.8742 83.2737 -5.15074
-8.55895 97.1081 -11.8276
9.07644 118.531 5.72133
-0.0453867 96.4536 -12.466
-1.0502 143.026 -3.34396
-7.49625 129.569 -8.27813
9.31692 118.018 5.53301
2.26567 140.853 5.11342
24.6855 128.18 -6.42497
-16.0314 119.148 -3.65635
10.3646 149.683 -5.06877
6.56728 106.695 -11.5102
23.9454 138.477 -3.04218
18.8782 121.736 -7.48018
-13.1211 118.958 0.290582
16.4903 134.286 -7.98394
17.4535 131.505 4.74002
20.0122 129.451 0.454318
-14.6194 122.031 -2.45562
8.55177 149.403 2.55684
21.0961 110.661 -4.66124
6.23247 138.168 -4.97627
-19.5992 115.908 4.41904
18.1375 140.789 -5.50274
-17.5856 111.79 -0.467185
-22.8566 120.423 3.40805
-22.2147 119.861 1.16368
15.1906 123.761 -7.39681
-15.0586 91.1677 -10.5434
8.09183 139.29 -7.29353
12.902 139.326 -8.51023
25.5472 127.558 1.26323
17.2153 123.89 -9.73606
-15.8296 145.131 4.85342
13.0285 151.57 -0.891153
3.12944 97.7618 -12.1248
-20.6883 85.0993 -1.8884
-18.0961 77.4061 -9.14348
-21.2415 86.653 -4.77685
21.4663 129.626 -9.4971
5.2693 83.8744 -9.38347
13.6433 149.256 -4.07902
0.786041 135.574 7.22281
-19.0302 104.426 -2.39351
9.58378 136.447 -7.64296
-10.1848 149.37 -3.40512
-10.9886 134.373 8.1737
11.0211 133.358 -8.98685
-3.48089 136.668 -4.85695
-8.52147 151.821 -1.4577
-2.52246 133.944 7.85908
-8.32622 74.3966 -9.81163
14.7461 143.673 4.09984
1.78569 141.452 4.79586
12.2847 149.168 -4.35898
-7.48634 140.975 -6.94716
18.3564 98.4805 -8.34602
15.9659 126.097 4.88297
6.89917 133.49 -5.82964
-1.73136 74.7203 -9.53864
0.617095 108.251 -12.2714
-3.27681 151.697 -2.49193
14.7618 133.274 4.12405
27.7352 129.271 -4.84072
-10.5605 81.0895 -10.944
-15.2138 127.895 -2.50666
17.5983 119.138 -4.73592
4.3676 107.47 -12.431
3.42214 110.949 -11.2334
13.8824 135.048 4.7713
-16.5852 122.902 -4.20456
16.3651 134.515 -8.80044
-21.8952 132.032 3.42575
8.09453 103.644 -12.2541
-14.5433 122.851 -2.27287
-8.12545 141.003 -7.05153
-14.6889 119.02 4.2695
12.0434 135.865 -10.1825
-11.9384 79.4874 -10.734
8.83241 103.446 -12.3831
16.0511 136.206 -6.94331
-3.40189 97.2396 -12.2847
-16.9111 111.133 0.429783
14.3462 137.122 -9.80689
19.1801 121.234 -12.1057
-9.80175 97.5031 -11.7932
24.32 137.104 -2.29971
20.0098 136.532 -8.75514
14.7263 144.83 -5.35488
-21.8509 81.3461 -2.36777
-16.2339 118.384 -4.00371
-2.30745 133.163 -5.70473
-15.4 132.803 -3.18232
-6.98651 97.6692 -12.1295
16.6296 92.0608 -7.82294
-14.1004 114.656 -0.763852
-20.7344 128.682 -0.922598
-8.28428 138.941 5.02685
3.40114 98.0509 -12.0429
-20.1936 135.641 7.40138
-6.28315 77.6726 -10.5837
7.64537 124.039 -6.22952
-10.9884 149.942 2.076
1.54712 118.159 -9.27094
15.4551 117.479 -9.47993
-21.0394 133.246 7.40214
18.4588 138.279 4.27024
1.4462 92.4866 -11.5899
-5.28493 128.495 9.3868
-12.9258 140.218 -4.86845
19.9635 101.836 -7.29374
0.38877 132.253 8.45333
-9.04874 125.243 9.37458
4.01905 113.896 -9.17133
-0.860258 80.4005 -10.3736
-15.039 127.076 -2.40266
-15.9655 141.458 -0.89059
4.70646 136.527 -4.67287
6.88351 154.843 0.0403173
-13.2263 100.575 -11.8454
0.439393 101.775 -13.0484
-8.87379 142.705 -6.51338
-13.757 134.357 8.51855
6.8817 80.2796 -7.91087
5.60086 152.146 -3.23238
2.77681 134.547 7.7157
-12.5365 124.065 -9.34479
-6.14893 97.274 -11.9718
-19.0341 139.426 6.27929
12.3749 140.144 -8.49176
-1.66774 77.0127 -9.03333
-6.41176 111.858 -10.6735
17.2778 149.843 0.765346
8.97536 129.219 -7.36011
-25.0217 123.972 4.35583
-15.8208 94.402 -10.5137
-16.454 133.704 -1.78419
9.2865 95.2778 -11.3662
-15.593 116.157 3.29084
14.1002 134.396 4.82468
-9.98403 151.474 -0.91197
-4.67335 94.2401 -12.1722
-5.99632 151.407 -3.24486
-14.6852 128.282 -3.83541
-6.42867 136.367 -7.09957
7.34306 91.1123 -10.8969
-18.2994 142.403 4.38379
-8.12241 146.531 -5.60683
-0.00171554 128.448 -6.25924
-15.6127 136.168 -1.52773
-0.308765 90.7686 -11.6654
26.6185 126.922 -0.608642
7.7668 143.859 -6.5693
-4.79745 137.508 -5.96885
6.21955 127.8 8.92728
14.0204 137.395 1.83238
16.156 135.929 5.77324
0.886334 123.094 -8.28282
-19.2092 110.806 -3.19191
-14.6122 96.8913 -11.4107
19.8736 147.229 -2.14713
-18.3604 121.011 -2.9988
-23.6584 127.928 3.4913
-1.41571 153.811 -2.07614
16.5464 99.1089 -8.6716
-18.0843 136.178 8.33398
16.3849 132.99 5.24112
8.97872 130.655 6.57248
-17.9168 115.938 4.10162
4.54362 122.22 -6.46438
25.0125 139.235 1.09658
-13.0014 103.362 -11.4016
17.3 131.186 -9.85496
-12.0848 130.708 -8.99175
-16.973 111.501 -7.68664
-8.9621 139.302 5.23766
-13.1303 132.466 -7.08222
-5.52069 116.963 -9.31634
16.6053 135.821 -7.27949
29.2268 124.893 -2.29322
-20.4841 124.833 6.54061
4.55695 110.344 -10.81
-11.3473 83.0241 -10.8809
-13.6686 130.369 -6.30587
-13.3263 131.326 -7.31336
16.0359 124.92 -5.40043
9.03825 143.043 2.93977
-15.3689 126.748 -6.15407
16.3379 129.889 -2.11065
0.264189 142.889 4.02035
8.78818 89.793 -9.7281
-13.2386 97.5207 -11.6847
-15.107 132.601 -2.86537
0.658611 138.384 5.37895
-17.7176 133.701 -2.29431
-7.95039 140.528 -7.13333
-17.1341 86.3682 -8.70503
23.2882 130.044 3.45157
11.2352 151.406 -1.78434
-18.4247 116.047 -4.72404
13.5331 147.387 2.20701
21.305 121.624 -2.61364
-9.0084 91.1271 -11.5771
-18.6592 100.244 -7.99545
-6.2204 128.222 8.71551
-16.4445 107.206 0.501811
-16.6984 120.23 -3.93129
13.8874 116.378 -9.50159
12.0104 143.055 1.41711
22.3571 133.345 3.27886
15.51 105.186 -10.4868
14.5202 127.21 -8.60178
5.76216 151.535 -3.34117
8.4055 131.385 7.02849
-8.49608 144.208 -6.12396
-18.0346 137.294 8.06314
22.5113 103.953 -3.89634
14.6243 149.287 2.61249
-21.5521 135.158 5.50555
-4.02197 117.546 -9.27762
-15.5552 79.9486 -9.0831
18.4813 134.001 2.32996
19.9374 104.641 -6.29613
22.5558 144.312 -2.30519
7.33706 123.101 6.86565
-0.321668 132.471 -5.41016
-16.7961 75.3737 -9.38278
-2.00139 106.26 -12.9969
20.6266 129.786 1.23075
22.2445 140.455 2.90963
25.1936 130.56 1.41261
-12.5493 147.641 4.6699
-18.1186 102.542 -7.41706
19.4346 100.341 -8.26317
-10.0061 143.492 -5.50758
-21.4563 83.4833 -3.01488
20.0356 127.889 -0.620164
-18.5858 112.333 -1.74495
-4.26761 98.606 -12.4086
20.4009 119.606 -3.24598
0.937303 133.277 8.075
-2.15518 87.2225 -11.2274
-18.4441 102.943 1.39006
21.2193 146.61 1.43366
6.97905 131.626 -5.72525
10.4688 143.615 -7.87569
13.5951 146.933 2.43466
-15.56 108.839 -10.1408
20.2847 95.5099 -5.83053
-12.9667 122.75 3.88172
-17.4932 137.992 7.99059
14.01 150.192 2.19379
-3.38045 141.015 5.19909
-9.40406 140.575 5.49076
19.3954 141.92 4.37702
-15.7321 92.8455 -10.3724
20.6345 147.322 -1.41342
19.1005 128.821 4.11152
-21.8374 128.401 1.29454
19.4646 100.14 -8.17881
0.868623 152.718 -2.76627
-15.2211 117.393 -0.405267
10.061 116.761 4.99099
-10.9661 148.136 -3.66192
13.2743 139.142 -8.25865
-4.92231 83.3568 -11.09
1.49585 139.474 5.00992
-18.8233 130.655 -2.44251
9.78425 126.547 -9.61077
10.0491 146.955 -6.95964
21.1208 96.3419 -5.33395
16.8045 132.327 4.98355
-3.91352 141.194 5.20809
-16.8156 82.7641 -8.61904
10.6508 138.908 -9.55851
21.6142 124.861 -0.475872
-21.6212 133.543 1.00831
-17.4337 105.525 1.80799
-17.0694 126.294 7.2582
-13.4585 120.305 1.02539
20.3033 135.404 -8.81138
-1.2564 138.929 5.26952
22.0754 144.731 1.96642
9.38348 103.62 -12.2311
16.9001 148.419 -1.78903
0.634583 145.784 -3.12293
6.5048 155.312 0.297059
11.5904 113.529 -10.9781
-14.7514 128.183 -3.131
6.40767 135.989 -5.12864
11.9625 121.842 3.41413
-10.4334 142.796 -5.36088
18.5491 116.893 -2.60241
5.8241 93.6915 -11.5774
-22.5131 122.27 1.28428
-9.56666 135.78 7.00895
2.50427 98.4759 -12.3115
-13.1168 123.115 4.18538
-13.5598 83.2827 -10.0277
-12.927 80.6055 -10.6174
8.71897 136.489 6.4108
-12.5654 121.342 3.18031
16.3092 125.398 7.07194
13.3901 85.2056 -7.07223
7.58693 132.295 8.01503
-21.4686 120.942 -0.00619604
-19.984 116.312 -0.172339
-13.0319 94.2109 -11.3262
-16.0134 82.5732 -9.44275
10.3156 109.399 -10.2702
25.1501 126.001 -6.52319
10.9462 143.505 -7.70534
-15.4951 112.352 -10.3184
-20.4503 137.844 5.50901
24.537 127.339 -6.83882
9.30537 136.21 3.83036
-23.9331 128.004 5.58822
12.6328 83.5837 -7.24795
-18.8314 104.147 -1.92489
0.352096 114.389 -11.5109
23.6404 106.615 -2.40344
-16.2069 86.273 -9.5558
-3.25589 125.472 -7.66935
17.1528 123.817 -9.21938
-6.01066 141.22 5.05977
12.9887 136.757 1.62219
18.1773 104.374 -9.21167
-2.88737 139.17 5.82222
15.7498 125.704 -7.51283
-8.95115 144.28 4.49174
7.66551 123.061 6.47693
-16.1073 112.594 -9.58794
5.94383 140.803 6.58868
16.3133 116.726 -9.6521
5.32556 112.477 -9.47999
-11.3451 129.02 6.40159
4.8188 144.521 -3.95165
-2.72451 101.369 -13.2565
6.53687 108.299 -10.7037
-22.7173 127.109 2.04749
3.9053 102.247 -11.9605
21.6619 121.904 -2.35112
-19.1627 105.829 -3.21267
8.34372 115.181 -10.347
-4.66787 138.256 -5.78138
-19.8732 124.784 -3.22488
-21.6658 85.2659 -2.99356
3.345 129.189 -4.74673
-15.1308 121.348 -1.83333
13.8265 114.614 -10.5526
-21.0086 122.803 -1.76271
-20.5169 95.5826 -3.14093
16.2827 126.232 -1.84313
-19.8645 98.9029 -5.98138
-9.17939 137.202 6.11397
17.4115 124.552 -9.59782
27.1342 124.426 -0.458131
13.0985 83.1422 -6.95384
-7.76715 145.073 -6.20858
-13.2541 119.124 2.38015
11.4419 132.798 1.95596
-16.4396 107.351 -0.12729
-19.3932 92.275 -1.01754
10.3676 132.257 2.62514
20.9974 134.182 2.62684
-7.09391 106.791 -12.3505
-23.3932 124.261 2.51145
7.41297 89.1439 -10.0646
-17.7935 128.513 -4.31325
-13.2546 141.31 -4.50207
7.9771 124.594 -7.14071
22.4295 145.243 0.916945
3.20408 120.078 -7.83763
10.6073 123.01 -10.375
-11.3248 142.317 -5.13662
-7.13424 144.33 -6.14343
-8.92003 140.285 -6.92257
-14.1247 122.179 -1.832
-14.0857 134.974 8.57366
9.25632 136.576 3.96302
8.265 120.263 -8.1169
-14.8456 128.03 -2.15978
13.2573 113.847 -10.9393
-21.202 90.8832 -4.40802
-19.2283 93.2759 -1.61136
18.8863 121.466 -9.72624
27.778 126.695 -5.52054
1.27202 131.816 8.90014
-23.8751 119.002 6.42601
-18.7416 127.985 -4.198
-25.9845 119.805 4.65403
10.6821 87.4383 -8.80146
5.06952 96.7747 -12.0474
-11.8 116.611 -11.2365
9.26583 145.835 4.22539
9.74408 120.119 4.55012
9.7562 139.667 5.95737
18.8516 117.205 -2.33687
23.8911 134.448 -3.39372
8.45388 124.301 -8.22691
6.21685 118.19 -8.58329
25.2403 132.192 0.988004
19.9725 122.732 -11.7109
-16.3872 114.697 -2.80318
10.0328 125.328 -10.0183
-0.705525 138.632 5.33095
-19.6089 134.323 -1.64833
-6.10801 151.868 -3.13161
-18.4088 106.317 -5.81362
-18.881 101.157 -7.60043
7.40065 142.057 5.8715
3.40723 94.5686 -12.2219
24.0544 116.61 1.87854
-17.8857 112.121 -0.987134
-15.2264 106.761 -10.2321
-3.72946 133.382 -5.48238
-10.2927 93.3613 -11.196
-15.0294 137.223 -3.77424
-10.5797 131.28 -9.30029
20.8144 121.128 -6.31133
-13.4178 117.259 -10.0992
0.619685 91.364 -11.5706
15.9141 126.248 4.74954
17.4895 134.336 -7.81222
-16.9009 75.2203 -9.32712
23.4903 130.149 -5.51519
-12.4352 132.267 -8.27225
-15.5059 120.312 -2.37985
-15.4811 119.207 -2.69373
6.54485 154.514 -1.14045
4.46482 88.6135 -10.9742
5.45798 133.431 7.94797
-16.33 113.528 -0.646406
22.1935 96.5062 -4.50703
-14.6775 119.744 -8.47875
-8.90661 152.524 -0.316722
-13.1976 108.282 -11.595
-14.4058 127.326 7.53237
17.4358 93.4672 -7.57446
1.70881 142.446 -3.39934
3.54961 111.618 -10.5488
-9.86254 138.63 6.07681
-20.559 117.264 5.54544
-12.054 147.796 -2.39621
-18.1001 88.2322 -7.54669
18.0726 93.2735 -7.22789
-6.80197 139.206 4.93674
21.817 97.6383 -5.46582
-13.6421 140.468 8.24582
-4.45594 130.316 -6.29477
20.865 124.243 -2.06027
19.6015 127.635 -11.4932
-17.044 114.425 -3.04771
-16.6065 143.894 0.834642
-9.37455 146.881 -5.41917
23.9199 133.628 -4.34318
9.22573 144.351 -7.74919
4.8546 144.257 -3.98938
0.692918 97.2774 -12.5892
9.25471 135.421 5.14515
19.3294 129.498 -10.907
-4.03189 140.771 5.11537
9.86073 134.285 -7.78602
23.5534 116.436 1.60061
-13.5652 96.5895 -11.5547
14.8613 90.0743 -7.97609
16.7577 139.17 -5.33634
9.36439 138.569 5.11806
-18.5056 116.249 -4.91403
-1.45425 86.0386 -11.1456
7.70075 139.607 5.8127
4.64008 108.966 -11.7478
-25.4989 122.77 6.05565
8.53914 118.51 -9.31862
-21.5229 126.932 -1.17086
-15.3049 140.636 -1.30746
-8.58508 125.997 7.80022
-18.137 106.173 -1.9668
14.5837 130.845 6.54718
17.7755 133.703 -8.66937
-18.5309 98.8372 0.367527
17.388 127.208 -10.1167
-18.284 142 5.24459
-2.15598 142.549 3.93441
-1.61177 96.6294 -12.3932
9.37398 132.566 -7.68561
-18.1567 136.666 -0.01623
17.4548 125.582 -2.76097
8.69225 128.187 -7.10351
6.2424 89.7098 -10.7233
-13.815 118.822 -0.466883
21.4217 105.671 -4.17355
-21.0408 117.882 0.151035
-15.2205 143.269 7.07769
6.47127 136.806 -5.44935
19.125 106.533 -8.17065
-19.8468 126.792 -3.45573
15.3283 134.171 -9.29551
-9.56268 152.349 0.0236857
-17.8866 100.731 -8.5951
-11.6831 119.131 4.26377
-11.6577 142.579 7.40958
10.4618 129.985 -9.3031
-21.4999 114.934 4.98162
-16.5989 133.483 -2.10429
-15.9474 116.258 4.2329
-9.44033 112.285 -11.1473
0.393801 103.103 -13.0694
5.83065 82.9616 -9.16702
-13.5828 99.4326 -11.7466
-19.2156 114.34 3.13281
9.65525 108.78 -10.7824
-2.88494 113.551 -11.5076
-17.5625 97.396 0.491735
15.1403 106.475 -10.3944
-20.2713 136.632 6.8097
-13.2644 109.614 3.62242
-15.7446 120.465 -3.82462
8.95384 125.95 4.39948
-15.288 132.624 -3.11219
19.2619 148.591 0.730085
-10.3146 139.624 6.48517
18.9988 135.485 -8.31705
-16.8539 95.2716 -9.65217
8.75488 139.157 -7.6138
-14.1209 121.767 -2.77731
-15.9765 118.496 -4.18835
-12.3214 126.558 5.15649
13.6223 142.914 -7.63028
-0.439319 128.557 10.4131
11.5349 113.533 -10.9711
-14.4561 123.484 -2.31833
-16.7517 117.054 -7.58668
18.9655 120.94 -8.87878
6.11322 139.646 6.34978
19.0828 126.248 -11.9899
-16.834 122.601 -4.08292
-19.1357 119.551 -1.86005
-6.4354 118.897 -8.84498
17.7216 124.738 -5.85413
-13.1216 122.176 4.93427
8.90916 133.643 4.5443
6.2891 114.338 -9.31447
19.3701 124.878 -4.51017
4.56745 137.878 6.83463
-20.2463 134.562 7.58792
-2.65699 130.324 -6.68138
9.30126 85.1896 -8.48735
6.99096 139.328 -6.58761
-19.8569 101.11 -1.65299
-24.2047 127.201 4.5627
-0.326903 78.4153 -9.32581
19.1092 120.255 -4.49154
-14.791 112.6 -10.7637
-8.72481 129.756 -8.31995
-14.5082 121.44 -3.13854
-5.87313 138.151 -6.34192
29.311 128.074 -1.61742
21.2746 127.379 -10.76
22.9909 145.011 0.571946
3.65742 95.9568 -12.1016
14.0551 138.033 3.97128
-19.2499 108.305 -4.73045
5.21337 119.786 -7.05475
-7.14028 96.2587 -12.0541
-4.43794 128.1 -6.77987
5.69398 97.3813 -11.9726
24.8808 141.574 0.0932735
16.844 136.862 -7.37868
20.7489 127.928 0.859012
-5.95498 132.375 -6.58852
-11.001 145.394 -4.80892
7.33533 128.285 7.36509
-21.6411 131.679 4.91586
-3.51686 114.542 -10.6202
9.45413 153.429 -0.851057
-14.0003 120.857 -2.23265
16.0192 145.489 -4.21222
-21.4908 91.9688 -5.1793
-15.486 122.279 -7.64585
16.0133 143.403 -5.36579
22.6486 104.899 -3.66646
-20.139 114.889 4.3976
-17.9983 139.488 0.531235
7.96845 124.763 6.50035
-18.9094 97.473 -7.98613
-20.5401 91.6325 -6.34801
-18.8019 106.585 -5.321
-21.0193 131.417 6.82055
-17.4135 107.591 -9.10002
-17.6435 132.695 -2.81049
-25.4829 119.305 5.64223
24.3309 112.74 -0.442846
-3.27313 134.006 7.42844
-8.67555 86.2794 -11.7744
-9.36047 124.373 7.45693
11.6114 141.96 -8.43943
25.3714 130.152 -4.92471
19.7769 137.872 -8.21551
-17.5795 106.174 0.00407602
-10.6795 146.979 4.21468
-21.2784 132.347 0.847634
-20.6035 122.663 6.62674
-21.7213 126.943 -0.654418
-5.24712 132.41 -6.11068
-9.02684 82.7732 -11.1366
16.0114 99.2782 -8.8831
10.2367 129.091 3.15232
20.2105 139.649 -7.20626
17.9108 129.419 -5.13981
6.28465 137.118 6.49885
21.1467 120.603 2.77039
-16.5927 121.078 -7.06612
-16.2777 133.097 8.17983
-23.0528 125.825 7.00972
-10.789 137.389 7.79199
-18.9942 110.251 -4.66928
18.2815 129.674 -10.7066
-15.0171 104.25 -11.2008
13.5489 126.626 -10.0187
8.57948 142.437 5.67936
21.7336 109.101 -2.93007
-12.433 121.38 3.71723
11.7809 110.636 -10.5354
23.2101 105.046 -3.30829
19.6191 109.582 -6.11041
-4.13703 121.521 -8.21324
17.8676 131.525 -5.29955
8.97473 131.863 -6.94079
-17.8389 78.3531 -8.94097
-21.5436 90.8174 -4.78204
22.059 125.143 -8.86878
-11.1953 148.234 4.15367
23.6583 101.377 -4.0345
-8.20458 126.621 -9.04217
-9.60645 78.3171 -10.3326
8.22023 113.897 -10.7005
27.9546 131.956 -3.77849
-25.0379 119.294 5.70779
25.6899 132.539 -3.89979
0.354096 113.834 -11.7114
6.24896 103.741 -12.4478
-16.6202 132.196 -3.28095
-8.65141 127.299 7.30774
21.4849 122.78 -1.5037
11.4155 151.624 1.68777
-7.13053 140.005 -7.33702
-9.55598 152.186 0.119988
-15.0521 129.09 -2.12787
24.8637 124.628 -5.16479
23.219 144.7 -0.990073
-16.1067 145.02 1.64641
15.7842 134.025 -8.03043
21.5813 122.72 -0.214226
-19.6078 136.638 7.3029
-7.12759 111.248 -10.7383
10.8374 96.277 -10.845
-23.8966 123.959 3.36795
19.0226 114.863 -6.39032
-10.882 115.013 -11.1174
-15.622 108.079 -10.0062
21.3878 140.839 -5.25393
23.3939 118.776 2.64875
-14.2926 116.16 -0.143733
20.6391 136.212 -8.60439
11.4385 118.414 3.95927
0.774793 140.664 4.62177
-19.0699 108.491 -2.6745
-5.56233 152.236 -2.83276
11.3287 136.438 1.56326
6.3021 104.033 -12.5588
-15.9929 129.654 7.94402
-20.2496 101.199 -3.85844
8.85509 132.842 6.34757
9.27284 140.971 -8.21693
2.70304 98.0234 -12.2524
-15.2847 79.9546 -9.29445
-7.277 141.758 4.65838
14.8029 121.97 -6.72491
10.5248 111.421 -10.5962
-5.69609 125.891 -7.85359
17.7305 123.116 -11.1016
-23.1677 128.534 3.61233
3.64591 127.904 -4.9724
-7.69582 96.6514 -11.8903
4.54312 82.5993 -9.40512
-19.6493 130.915 -1.51191
-8.79229 115.247 -10.1221
20.1106 137.268 -8.60354
-6.36333 133.759 6.32005
-22.0208 125.998 0.702807
16.6025 125.187 -9.03486
27.9598 122.88 0.355379
9.61147 143.256 2.32795
-10.3522 135.814 8.1749
4.58051 99.0848 -11.9257
22.0371 117.975 -0.332098
-22.5236 131.837 6.72871
13.0451 129.722 2.25223
6.62626 94.3094 -11.7073
20.1442 145.385 -3.3984
13.1944 124.548 -11.0205
-0.0237267 131.809 8.64307
6.62675 134.228 7.42054
-15.3835 118.591 -0.373718
-16.5132 124.149 7.22609
18.5808 121.64 -11.0885
-20.0903 103.297 -4.07445
-16.9248 141.792 0.131217
4.49715 125.513 -5.44419
-16.352 107.655 0.0616907
14.8445 144.531 -5.52717
12.6461 119.816 3.49788
-19.4736 131.32 -1.68454
-13.3372 142.923 7.57561
22.2596 115.343 -0.579701
-11.0506 95.7273 -11.2666
6.04115 101.774 -11.8687
-7.5049 84.752 -11.6217
15.1043 123.092 -7.30946
-20.1179 138.638 4.4922
-25.0092 120.056 6.34462
14.2796 148.732 2.92318
-25.0389 119.824 3.54048
17.4961 126.319 -10.2852
18.8639 146.147 -4.08958
-20.6492 77.4588 -6.97526
-5.64166 121.934 -8.04459
10.9296 124.439 -10.794
-4.60048 144.103 3.67338
-9.88192 128.271 5.90438
-21.6492 133.724 4.5398
-11.9526 115.008 7.30299
-8.31158 127.91 7.36552
13.1032 136.477 1.66432
-19.9455 92.0027 -2.29999
1.98348 127.403 -5.82478
20.1336 91.9033 -5.41474
7.85463 146.13 -6.21018
-15.0896 86.5935 -10.1548
12.1539 113.566 -10.9218
0.454454 76.9141 -8.38339
-9.42479 90.4141 -11.5932
16.8241 97.9439 -8.51275
