ply
format ascii 1.0
comment Created by Open3D
element vertex 1688
property double x
property double y
property double z
end_header
-30.7749 108.967 21.4619
-13.2211 88.3709 18.0223
-39.7567 102.397 11.0373
-1.63431 147.599 3.21504
0.903975 119.303 11.6919
-24.0457 116.472 18.7052
-20.6824 134.624 -1.5825
-34.9256 120.06 2.57745
-5.88875 120.804 9.90328
-17.6081 134.282 -1.65605
-10.0965 137.332 -0.0610125
-4.10746 127.388 8.55782
-7.11207 147.367 3.1833
-8.72986 155.377 -1.36655
-11.9984 87.5892 17.5131
-33.2926 118.677 -0.95185
-40.8619 89.1081 17.0211
-33.4559 127.724 3.28631
-1.60614 106.394 15.1712
-27.892 91.2313 23.5378
-22.5281 121.269 -3.16738
-10.972 109.867 13.3213
-12.8084 147.801 3.19604
-30.6614 101.984 23.1061
-6.83559 140.968 -0.989456
-7.38796 134.612 -0.86047
-17.6117 147.171 -2.61216
-31.8438 91.4335 -3.46639
-24.3183 137.732 -0.295873
-14.4359 153.472 2.3857
-42.1261 96.4595 14.2301
-31.7903 131.547 3.04657
-19.274 116.786 -4.8112
-35.4092 91.6876 23.6203
-35.2871 104.273 16.3625
-24.933 138.702 -0.118395
-11.3828 93.3717 18.714
-35.2518 90.0371 -1.19308
-0.602325 131.228 6.62262
-8.92095 117.083 11.4908
-11.4043 125.54 13.8939
-33.4134 86.3138 -2.9204
-30.5309 126.296 -2.22662
-32.9784 113.775 18.4372
-24.3817 136.786 11.2375
-26.2255 109.919 -5.23109
-26.7102 99.3189 22.2514
-29.3838 133.73 1.62143
-31.9422 131.834 2.67498
-26.5046 100.671 21.5405
-0.809856 140.142 6.49395
-17.3337 137.676 -2.74595
-26.1384 119.61 18.5625
-5.05967 136.576 9.00499
-20.606 128.336 -0.275107
-2.96526 127.164 8.03718
-37.6686 105.847 12.5963
-23.3446 85.3051 21.8988
-23.9074 139.82 0.525671
-0.135108 115.031 12.3141
-33.8287 128.313 6.31076
-35.1241 140.141 1.04857
-36.3526 114.306 8.21758
-7.00263 136.927 9.6456
-34.0789 114.02 -0.266966
-33.0131 139.89 8.50117
-29.3604 134.021 11.9272
-27.8186 134.21 13.6671
3.55832 123.632 12.0586
-33.861 148.15 3.31435
-23.5466 126.264 16.4392
-34.8901 136.859 6.62169
-39.0213 89.7304 3.19365
-23.4515 136.75 -0.508242
-29.9266 98.0818 23.5973
-29.246 132.112 0.219629
-29.2924 106.646 -4.87165
-16.3048 140.991 -3.5651
-36.4722 144.465 7.3276
-34.31 117.713 0.0897735
-20.4593 138.662 -0.893182
-24.265 125.494 -2.07149
1.5719 143.927 4.85882
-1.92228 116.975 10.4174
-38.3594 89.0832 1.7793
-22.2877 92.8383 20.2996
-1.41842 144.828 5.83705
-35.3551 115.559 4.86233
-23.4465 141.196 8.12993
-27.41 96.7254 22.1764
-40.4411 86.7408 4.37067
-21.1221 139.999 -0.950899
-19.8291 137.558 11.6392
-1.71862 118.503 9.95253
-26.8347 108.709 21.333
-29.1006 87.5675 -5.25949
-35.5428 146.09 3.00497
-27.8612 135.376 11.1789
-35.125 135.588 1.05
-10.8004 155.184 -0.688713
-20.719 132.987 14.3253
-32.6429 87.7168 -3.61001
-2.08281 105.346 15.8024
-15.0908 134.049 12.7883
-16.3891 133.196 13.4882
-23.017 109.284 -6.90327
-7.76133 134.791 10.516
-0.92502 145.006 5.78618
-7.98602 141.129 -1.96365
-15.7974 127.044 15.2409
-14.5832 126.477 15.2456
-30.2326 132.581 12.1787
-23.2889 132.273 14.6453
-6.6084 146.2 4.27779
-32.0811 149.594 3.71247
-30.4536 118.925 18.598
-5.17674 130.404 9.56655
-27.1016 134.813 12.8419
-34.4999 99.6913 21.5248
-7.91908 123.198 10.9861
-31.2639 139.684 -1.04952
-6.00495 123.668 9.79074
-18.2442 139.857 -2.35984
-37.4278 96.6004 1.95105
-2.34004 110.215 13.3839
-30.4203 128.609 -0.382849
-6.09872 115.697 10.9541
2.10076 141.429 5.16258
-23.3664 153.233 2.22044
-28.1059 94.4403 23.1906
-31.2803 141.081 0.109071
-14.1398 145.35 5.56311
-40.5641 100.922 14.8015
-20.6092 151.296 -0.627209
-16.3674 128.594 14.4161
-32.9724 131.029 7.40444
-26.1608 142.432 -1.99332
-7.16678 128.136 10.9228
-33.4057 120.228 5.97148
-36.1618 110.493 14.4807
-11.7105 140.989 -3.88642
-35.509 87.2836 -1.61725
-29.3531 129.801 0.54062
-21.2496 94.7527 20.5957
-32.6205 123.73 12.778
-28.3996 134.95 1.52971
1.74217 144.715 4.87017
-22.2854 104.768 19.1483
3.31208 149.227 4.34716
-15.1842 123.099 16.0699
-31.6368 129.963 3.36695
-25.9089 118.17 18.891
-33.0345 121.575 15.1868
-24.6801 117.37 -4.94076
-19.0257 132.717 -0.504352
-14.5586 105.513 15.6569
-33.8629 102.052 19.25
-36.5984 137.672 6.16711
-28.8522 116.101 -3.41553
-27.695 135.533 1.62841
-12.2129 152.762 -4.12253
-15.8841 125.653 -1.82964
-12.6329 147.738 2.70226
-35.8061 134.942 3.7632
-34.5665 115.784 16.0121
-39.3943 100.034 3.65244
-30.3862 106.377 22.2987
-27.0277 120.331 18.4372
-32.7811 127.522 2.93248
-22.8954 108.049 20.1686
-31.569 135.63 5.44391
-24.848 146.562 -0.263393
-15.6668 155.201 0.474342
-29.1015 147.693 0.854526
-25.3932 122.882 -2.79259
-33.069 114.309 -1.00702
-30.0877 133.878 1.9821
-40.5405 101.052 12.1143
-0.502555 140.445 6.24341
-0.672 103.2 15.4864
-25.423 84.8795 23.8078
-24.5948 85.4383 22.35
-14.1493 115.43 15.2705
-15.9342 126.456 -1.33504
-32.0913 116.326 18.643
-26.5371 150.79 1.37614
-36.3641 105.163 -0.0967798
-5.54984 124.051 9.52073
-19.0507 130.171 0.370524
-13.3953 126.677 14.9338
-11.4799 143.054 7.83796
-13.8565 119.566 15.4523
-13.5957 117.294 15.0834
-23.5945 126.353 -1.88544
-31.9972 132.105 8.81928
-2.53287 140.415 7.69936
-14.1689 153.042 2.25431
-25.0489 92.4211 21.2297
-18.9749 111.984 18.3572
-1.00988 125.071 7.93194
-25.4311 138.231 0.578171
-31.5457 124.707 16.1124
-21.3965 113.155 -5.99021
-33.6374 88.8492 25.4571
-31.8653 147.069 4.43546
-19.7705 154.304 1.18658
-15.9197 93.8142 19.6556
-0.719962 129.825 6.97567
-14.6246 140.746 10.2269
-17.6122 90.9166 19.7287
-38.8684 104.21 12.5639
-36.156 111.167 9.59419
-13.518 90.3766 18.8244
-35.084 116.918 1.01744
-16.8363 135.987 -3.24312
0.391508 135.287 6.18479
-24.6247 119.158 18.6344
-13.5014 148.215 -4.37319
-0.19317 139.111 6.08568
-7.54993 141.154 -1.69472
-21.8214 129.046 15.5189
-4.8387 85.6414 15.3971
-39.4499 92.037 3.32986
-26.9547 109.269 -5.22007
-37.9643 107.781 3.5535
-38.1229 92.397 23.0094
-3.37293 145.684 5.88926
-36.9938 106.713 1.01576
-25.3167 116.73 -4.4891
-28.1268 142.066 7.94861
-32.8438 91.9141 24.0177
-34.8682 112.865 16.3027
-19.0381 125.993 -0.885157
-23.4395 103.708 19.8227
-17.2268 152.125 5.0796
-18.3128 134.903 14.0766
-29.7578 87.802 -4.93743
-2.08207 103.152 15.6224
-31.2526 104.998 -3.93116
-11.8592 148.663 -5.03256
-13.7771 125.273 15.2242
-25.4668 131.426 15.219
-16.0684 143.481 -4.17395
-29.8495 94.3179 -4.86324
-31.647 125.954 8.78096
-28.6548 127.193 16.6979
-42.9678 92.7922 16.5306
-18.1443 97.8848 19.1363
-25.0196 84.9967 23.0795
-32.543 123.663 13.366
-29.2549 134.116 2.85434
-0.898298 127.235 7.38817
-37.1924 100.783 17.3969
-15.9996 137.695 11.8248
-14.9365 143.429 -4.34763
-33.2091 98.5137 -2.35458
-38.4916 85.3895 1.18826
-25.7057 101.381 -5.52156
-19.0921 127.919 15.3333
-13.2063 114.662 14.3166
-17.8098 126.029 -1.07731
-12.4089 107.195 14.5264
-19.953 111.206 18.8589
-19.8158 116.772 18.0612
-30.6669 128.174 14.8478
-20.3449 140.029 10.261
-41.681 140.85 7.22744
-10.5119 125.512 13.268
-3.58859 111.271 12.196
-37.0973 95.3909 22.1828
-4.78532 137.138 8.8979
-33.9875 125.72 5.60978
-6.54857 134.373 9.72457
-36.5658 143.744 7.79841
-29.8076 133.397 3.30154
-41.8331 97.2097 13.1798
-22.73 136.583 12.1811
-35.7695 139.003 7.86728
-8.67875 111.178 12.6011
-20.5771 141.523 7.34745
-39.1616 141.316 7.84588
-27.757 95.0224 22.8027
-15.526 99.5245 17.6124
-17.1154 84.959 19.4474
-28.8513 136.222 8.37265
-0.632196 115.383 11.7083
-21.4105 152.766 0.0079013
-19.8058 150.442 -0.789896
-7.82874 97.9373 18.0926
-15.3991 130.749 0.280784
-11.6441 130.839 13.1556
-16.762 145.265 -3.58192
-4.90821 107.177 13.6262
-17.1614 132.688 13.9156
-3.53541 120.066 9.51269
-31.9327 134.032 4.65863
-31.0006 133.766 4.47853
-24.0044 137.029 -0.228036
-30.7972 131.233 1.60374
-17.2064 81.4146 20.1043
-0.903223 98.951 15.4536
-9.74647 131.703 12.0954
-33.2708 133.424 6.21797
-18.4009 144.886 5.42199
-12.5878 141.427 -4.08013
-26.0791 130.047 15.6048
-32.2198 131.056 9.4662
-34.4656 121.511 1.39289
-14.2732 138.587 -3.64113
2.68029 123.933 11.6309
-28.2449 134.333 13.1812
-20.0314 134.971 13.9175
-27.901 97.958 22.3853
-22.415 136.797 11.78
-19.3231 143.732 6.87139
-1.15466 110.916 13.7756
-29.5208 110.244 -4.40501
-27.0008 103.637 -5.21594
-9.65552 136.865 0.621058
-34.3822 134.753 4.04152
-12.3406 121.947 14.5362
-2.24486 111.555 12.5504
-37.1722 100.258 1.38726
-28.3319 106.297 -5.50078
-16.4156 142.437 -3.96794
-4.38616 153.696 -2.42757
-29.6751 87.0617 -5.0019
-22.2656 112.241 -6.7028
-26.3576 93.5554 21.8463
-5.4518 98.4638 16.5389
-15.1042 84.7298 18.6055
-26.9636 110.884 -4.97177
-23.8377 148.204 0.0615528
-39.63 139.599 4.28152
-32.4759 126.932 8.54925
-13.8882 109.588 14.486
-31.6864 124.787 9.92568
-24.5386 97.3124 21.6196
-31.1082 126.634 15.0703
-4.10233 146.601 5.08391
-29.9385 149.969 4.86591
-37.0233 136.987 6.41035
-30.661 87.1043 -4.54749
-31.8681 124.97 12.9565
-27.53 130.183 16.0233
-14.094 150.08 -3.85855
-31.5743 90.6965 -3.88362
-26.5051 104.617 21.5385
-33.2368 132.616 5.8609
-9.69657 144.502 5.87985
-15.0289 142.47 7.22028
-36.6924 100.907 17.5899
-31.2966 126.667 13.6508
-39.2769 102.896 6.38982
-19.5748 101.027 18.121
-34.5253 114.273 16.4796
-26.9023 100.438 21.9141
-21.9328 110.594 19.7876
-3.93185 132.071 8.70467
-17.6695 148.586 -1.128
-14.022 144.099 6.33888
-16.3886 113.784 16.9507
-31.9893 105.388 21.0377
-25.5037 150.521 1.21861
-29.5019 147.924 1.93821
-33.6003 118.905 14.1528
-39.112 100.657 3.54686
-30.0656 131.881 2.43025
-24.837 149.344 0.188068
-30.1187 124.102 16.999
-31.7869 131.355 2.31962
-17.2061 148.429 -2.58502
-38.207 103.873 3.08907
-4.29963 132.12 9.04051
-33.2615 101.898 20.7378
-31.2974 150.048 4.01689
-18.671 153.43 5.05359
-38.8638 99.9638 17.4519
-33.7487 99.9675 -2.25284
-10.757 119.016 12.8569
-25.593 91.717 21.7999
-5.09238 87.8941 16.0212
-18.4375 96.5276 20.1741
-39.012 139.369 3.84274
-13.3317 153.11 1.31251
-13.887 130.196 -0.211782
3.99399 119.09 13.1456
-0.0784215 136.675 6.79539
-9.15721 82.9239 16.5087
-1.77939 129.202 7.31014
-18.291 112.223 18.0034
-41.7807 93.0526 8.52291
-23.033 124.079 17.1331
3.62644 114.188 13.9065
-18.8718 110.674 17.9491
-22.7895 139.931 -0.912162
-32.004 117.81 18.1996
-30.4049 143.238 0.689096
-36.2452 92.6679 0.322843
-34.0369 82.527 -3.1231
-15.1569 148.112 3.48079
-5.78799 106.874 13.799
-31.8616 100.894 -3.84297
-18.0448 132.807 14.3401
-18.8951 113.364 17.9204
-32.8626 130.287 6.76792
-38.0273 91.3308 24.4603
-14.3047 98.8581 17.6298
-37.2876 104.764 0.981645
-13.8819 151.886 -2.59772
-30.8528 135.933 6.67274
-25.5444 137.847 0.145431
-19.3413 122.907 16.8624
-32.7611 132.58 5.05661
-9.56336 87.3096 16.9545
-22.3123 87.2722 20.7292
-14.533 152.361 -0.995629
-25.2274 88.8438 22.4057
-1.77198 117.367 10.2941
-7.92992 155.07 -1.77498
-41.6927 95.5653 19.5656
-18.8327 138.869 -1.78345
-24.9771 108.945 -5.72206
-31.9033 138.166 8.02844
-11.5906 122.211 14.0125
-8.69983 139.787 9.30795
-38.7048 136.902 5.52718
-34.535 104.82 -1.86215
-7.65652 143.533 7.81986
-36.598 136.475 3.3393
-32.8687 102.969 -3.18111
-2.04069 128.999 7.43335
-18.3775 134.227 -2.31892
-32.3426 106.748 20.1157
-11.5611 111.777 13.1189
-23.1954 121.28 -3.33313
-38.3798 104.455 14.3249
1.81929 122.95 10.4839
-17.2002 134.583 13.8033
-29.2709 149.791 5.31732
-39.9978 98.2429 19.154
-27.0231 142.478 7.37297
-37.9655 142.056 2.74549
-14.5982 150.779 0.48564
-26.2568 122.389 17.9923
-35.1272 135.691 2.25113
-38.2485 91.7094 23.2326
-35.264 111.269 16.0143
-39.8648 92.3206 4.12453
-40.7995 88.4371 10.001
-29.3048 122.684 -3.39171
-36.4202 112.102 1.36285
-23.7354 124.755 17.0546
-31.0294 101.455 -4.3942
-33.0692 125.125 0.911289
-34.0533 134.556 3.23338
-19.4832 136.589 12.5183
-31.4344 133.665 3.17587
-6.19569 103.905 15.8126
-26.2758 147.875 6.8405
-13.2541 88.317 18.0222
-7.63199 133.062 10.62
-13.2972 141.42 -3.96186
-29.9264 147.219 5.65816
-12.6272 127.456 -2.28878
-16.4806 141.754 8.52431
-12.5893 126.631 -3.04034
-6.96963 147.315 3.23316
-7.17987 126.631 10.7975
-34.0743 108.618 17.1095
-2.90721 126.312 8.1399
-19.4413 90.0377 20.0064
-11.2534 81.6087 17.3786
-10.5386 90.0608 17.4063
-25.6915 128.428 15.9371
-36.5418 140.796 8.3628
-4.00795 129.935 8.70367
-24.615 129.713 -1.75822
0.469636 120.014 10.8273
-23.1625 135.313 14.1354
-23.2061 152.7 0.973343
-21.3364 153.241 5.15573
-14.2275 106.147 15.4633
-16.6577 150.936 2.90539
-35.0367 117.947 7.31689
-32.4374 141.378 8.85542
-11.6225 136.635 11.4637
-1.48339 147.348 4.27015
-28.9574 108.831 -4.9995
0.0270187 127.448 7.30691
-9.29426 153.713 -1.24181
-22.3053 104.903 19.1372
-35.796 100.63 19.251
-42.4655 94.7457 16.8003
-23.4459 127.019 -1.90898
-29.5516 118.295 -3.64185
-19.8132 136.699 12.2441
-1.0783 143.329 6.37767
-26.5936 133.986 -0.475744
-30.3351 87.0057 24.5566
-24.3136 100.867 20.3863
-27.684 133.599 1.93877
-36.0925 109.526 14.2251
-18.0525 132.816 14.3429
-18.8574 142.66 6.40885
-27.1974 120.038 18.5718
-33.1494 134.113 5.71605
-28.8936 114.889 -3.34114
-17.6536 148.961 2.33019
-0.815705 104.708 15.7883
-26.9083 143.642 -1.9734
0.0494965 126.534 7.53696
-22.5727 121.041 -3.30071
-0.283182 128.835 7.05171
-24.0121 127.045 -1.95326
-12.7732 132.37 0.255579
-31.693 135.347 5.07401
-35.7588 112.494 0.185286
-28.775 147.545 0.441987
-19.8774 149.197 6.46721
-19.4748 136.177 -2.60663
-39.2402 100.31 3.32631
-33.9802 134.991 0.943439
-18.207 104.008 17.1391
-12.9512 100.611 16.6802
-2.77428 147.16 4.40501
-9.66826 121.497 12.2593
-22.139 96.7623 20.7958
-10.9028 144.152 5.45932
-27.312 149.602 1.47505
-24.1407 109.311 20.6103
-26.3618 134.555 14.0636
-21.392 138.059 11.2447
-3.45363 122.426 9.02754
-28.1461 140.622 7.83287
-42.8497 141.886 6.31942
-22.9692 113.337 -5.56806
-27.2624 104.72 -5.50665
-19.0921 98.5558 18.7632
-16.0333 138.75 11.3405
-25.9547 127.126 -1.97435
-19.3149 148.79 -0.616797
-29.8843 98.8664 23.3979
-23.2287 148.418 7.27466
-10.4242 129.302 12.9333
-6.49741 125.728 10.1552
-21.3115 130.57 -0.485068
-11.4856 151.511 -5.08442
-36.8251 141.017 8.28675
-27.8045 135.375 11.1805
-32.7105 126.035 7.2306
-9.67898 147.424 -5.50957
-4.34527 108.05 13.1685
-3.56657 145.271 6.12864
-28.8788 131.788 0.00237913
-1.7265 136.892 7.01221
-35.778 137.164 3.15633
-12.3656 133.686 12.43
1.39177 116.92 13.18
-28.3934 144.102 -1.10053
-21.5829 134.19 -0.914413
-16.283 98.2653 18.3132
-39.1077 101.332 4.80675
-3.63836 125.269 8.64039
-16.2164 144.054 6.43961
-24.0923 131.252 -1.99234
-9.98836 78.042 16.372
-41.1015 139.665 6.6786
-35.2786 93.1252 23.1664
-29.6347 135.086 0.987669
2.52388 147.788 4.43296
-12.299 147.861 3.94211
-10.6033 136.352 0.511412
-30.097 89.6938 -5.05389
-9.67574 83.5053 16.9554
-38.8363 139.196 6.38765
-27.3545 86.763 23.2631
-22.7615 89.3475 20.4884
-40.5215 97.1613 6.52835
-21.4124 149.08 -0.322501
-1.41829 111.369 13.2255
-29.5008 130.307 0.465923
-31.0094 130.804 2.05435
-41.9098 141.234 7.28719
-37.1676 102.396 15.6945
-3.80731 90.3063 15.7772
-18.1288 154.506 3.62734
-31.6549 134.41 3.44917
-3.52696 94.6174 16.1006
-23.661 151.804 5.4166
-38.3643 104.483 14.1491
-23.8211 138.208 -0.615207
-3.13022 126.186 8.25762
-42.0958 91.1793 12.9053
-10.8484 142.221 9.23525
-22.9543 130.146 -1.83636
-26.2212 126.635 16.7947
-18.1136 136.603 13.2932
-31.5955 131.611 10.988
-10.0346 139.512 9.80136
-33.2446 134.702 1.20335
-37.4429 105.506 15.1926
-32.1728 105.576 -2.95511
-15.4168 83.7646 18.824
-1.93085 134.43 7.22215
-29.9408 132.46 2.48394
-39.2953 141.445 3.44394
-20.3626 103.546 18.2479
-6.20507 88.3334 16.4771
-12.8972 150.125 -4.7305
-25.5957 133.541 14.9921
-12.372 137.289 -0.960843
-30.5459 132.945 3.42455
-4.83093 121.238 9.47924
-11.5568 144.352 -4.69438
-31.6006 100.305 -4.01266
-20.3237 132.357 14.3035
-30.5169 111.381 20.6742
-27.6022 130.808 -0.0772857
-19.5192 144.552 -1.78074
-35.7732 106.04 15.2871
-18.2189 136.817 -2.86342
-34.028 135.287 5.85942
-33.3427 126.777 6.51447
-24.5906 125.49 16.9725
-37.3056 136.289 4.5127
-17.0631 140.643 10.421
0.35837 131.956 6.31711
-32.5559 125.267 -0.765668
-25.6404 134.481 14.6685
-32.6667 134.327 7.26845
-26.5947 143.375 -1.9676
-22.0949 147.949 -0.447252
-38.5186 100.991 16.1746
-29.1335 96.5289 23.4348
-19.6291 144.372 -2.55347
-26.1208 150.688 5.95838
-33.4854 113.841 17.8617
-41.793 90.04 18.4379
-11.8269 113.74 13.2233
-30.1522 111.97 -4.17348
-32.5207 133.506 3.49448
-12.7772 96.5586 19.0339
-29.2655 131.456 2.59721
-20.1784 96.7289 20.1437
-33.9723 120.812 13.0258
-31.4051 137.114 7.78166
-40.9729 91.5388 21.752
-12.7575 115.988 14.1232
-27.33 104.182 21.8399
-38.0145 145.607 4.9768
-41.4728 92.8086 7.52275
-29.1614 105.278 22.9822
-8.82192 97.7287 18.2715
-12.9769 130.962 13.3972
-9.52534 98.7674 18.1749
-38.6691 91.5957 24.367
-29.8314 132.189 0.873371
-36.0768 114.268 2.56728
-33.5509 128.315 7.14702
-14.7627 83.2582 18.5032
-15.8887 128.485 14.4116
-26.0515 85.5005 23.6328
-32.8777 133.983 6.71148
-3.00354 136.011 8.09221
-3.72625 118.612 9.88132
-37.2808 97.9153 21.8927
-15.6299 154.591 3.22152
-29.8251 131.936 3.04522
-19.9041 123.774 -2.02049
-33.7567 115.335 17.1337
-13.7237 154.192 2.04458
-39.1621 100.734 16.2301
-24.6295 132.98 0.190666
-36.3772 113.082 1.5523
-2.45109 143.988 6.35572
-38.6508 100.806 2.47063
-2.16358 108.695 13.9153
-10.464 154.936 -0.336574
-32.1464 124.063 14.3334
-16.8946 134.068 13.687
-17.5524 131.455 14.3252
-12.8105 99.8373 17.0735
-33.5591 98.3432 23.0111
-0.104606 107.512 14.9739
-7.36636 124.442 10.5709
-13.1387 154.301 -1.49928
-36.3933 103.359 15.6362
-32.9262 121.419 7.49488
-4.60705 134.551 9.26287
-39.747 143.725 7.81962
-40.4793 142.488 4.12194
-14.1975 110.299 14.534
-23.5618 131.575 -2.01161
-15.3703 147.989 2.49545
-19.2512 145.61 -2.08871
-11.8062 110.709 13.4135
-1.59935 117.61 10.2332
-6.97491 135.531 -0.27565
-22.6842 146.153 -1.1908
-42.2047 93.6533 17.4315
-22.3149 108.958 19.8511
-28.9671 133.881 2.64256
-29.4839 99.9104 23.0685
-20.8783 107.651 18.3671
-36.7782 85.8135 -0.842957
-16.7295 135.85 -3.00093
-25.5241 99.6877 -5.77363
-37.1701 109.905 5.82585
-11.08 101.38 16.4893
-5.06008 139.228 8.52106
-26.7466 125.347 -2.45283
-20.483 132.113 14.2827
-28.7955 128.497 16.4593
-26.3073 144.244 7.1671
-29.9264 130.623 1.59721
3.54048 121.032 12.8585
-30.2641 124.725 16.7527
-39.1196 100.693 3.41405
-31.611 88.1134 23.8593
-28.6628 132.359 1.83702
-29.5899 150.107 4.98515
-12.8522 135.532 11.8713
-16.8211 136.733 12.6521
-36.4647 108.954 14.0512
-33.2698 120.366 7.34673
-2.47603 109.584 13.6347
-7.15692 139.355 9.10965
-17.0308 83.8186 19.7746
-24.0893 153.123 3.37529
-38.0678 90.1897 23.5829
-34.8828 111.39 16.5776
-31.1696 133.955 4.72183
-27.6985 133.801 13.9276
-38.9461 101.327 4.52963
-41.2197 87.0032 9.90927
-12.8825 129.433 -1.11221
-26.345 144.143 7.16286
-40.5869 87.773 12.9382
-0.590099 119.139 9.89098
-39.4919 84.5465 3.33686
-39.3034 91.3442 23.9113
-5.46559 99.4206 16.816
-32.3786 106.584 20.1465
-41.897 93.287 10.0502
-31.1704 92.9846 -3.80427
-6.9121 87.258 16.4892
-34.7181 116.396 3.64248
-11.4809 134.697 0.66696
-36.5545 104.723 0.0458425
-18.4796 82.3251 20.7344
-32.7215 130.102 6.1417
-6.34596 117.594 10.5641
-9.69799 119.102 12.0649
-33.3454 86.8303 -3.02325
-27.3915 148.669 5.99018
-31.8038 128.435 3.01945
-36.64 84.121 -1.12699
-18.6116 141.352 9.41735
-2.09891 136.098 7.16465
-13.023 127.789 14.5281
0.51652 103.506 15.2305
-37.3776 142.65 8.24819
-37.1663 108.778 13.6036
-1.06807 147.735 2.81632
-17.6603 150.765 -0.641477
-29.6913 132.565 2.56607
-37.4701 96.0013 1.85651
-0.947385 136.151 6.80797
-34.9144 116.24 1.95581
-13.9778 130.701 13.4886
-38.0575 108.006 8.76066
-30.6875 118.69 -3.36136
-37.3584 108.38 1.89788
-30.5407 90.5798 -4.80671
-24.6402 119.697 -4.34251
-35.7729 135.859 4.98018
-13.4898 136.553 -0.937642
-40.0609 100.156 6.52127
-41.9106 89.4786 11.3674
-25.165 139.671 8.30522
-8.49468 100.496 17.6758
-36.2515 135.188 5.39919
-41.2434 86.7564 9.37753
-29.0358 110.217 20.9313
-42.032 91.6958 12.1059
-1.65282 136.627 6.9603
-20.7667 134.146 -1.81025
-35.9354 135.898 4.88683
-29.0538 141.445 7.98281
-26.4129 93.5004 21.9065
-13.7009 91.1931 19.1043
-5.43666 142.278 7.70175
-31.683 94.9885 23.6933
-0.814377 134.407 6.43385
-2.41461 129.118 7.5765
-13.2549 89.3608 18.3809
-42.7441 142.443 6.9589
-33.6917 92.8578 23.7135
-14.4861 122.693 15.7847
-29.9618 116.362 19.5008
-25.8551 132.255 0.346599
1.55236 121.876 11.1835
-10.674 142.997 -4.20978
-26.0066 104.284 -5.82494
-30.1887 124.342 16.9032
-6.39218 136.259 0.0342431
-26.8068 100.084 -5.2032
-32.2108 102.676 -3.638
-36.1186 89.5633 23.9278
-23.7389 152.467 4.86759
-7.37021 145.353 5.6599
-3.46737 105.234 15.8822
-29.3489 83.117 -4.98126
-4.83351 107.048 13.6985
-18.6023 121.636 17.1915
-33.36 135.383 2.17063
-24.2815 140.392 8.55039
-29.7406 132.336 1.57538
-1.07788 107.53 14.4508
-23.9337 86.4549 21.9477
-33.3396 118.82 15.5655
-6.55974 109.181 12.8996
-32.0093 106.128 20.8369
-12.4612 147.725 -4.54958
-29.5287 131.803 3.1809
-25.7937 145.768 -0.803695
-18.2287 141.881 7.40914
-5.71002 145.84 5.89614
-23.2291 98.2677 20.6549
-36.4541 84.9813 -1.26907
-28.0584 100.564 -4.85582
-27.8402 92.2723 23.3615
-41.2857 142.669 8.04406
-20.5242 141.676 -1.73587
-21.6252 154.009 2.8413
-19.653 133.156 14.3874
-26.11 122.884 -2.96553
-31.9184 136.985 7.56266
-39.3126 104.018 7.57262
-42.8889 92.6909 15.2307
-30.9375 107.546 21.8353
-21.1418 83.3128 21.9469
-5.29304 135.413 9.21316
-32.5694 134.069 5.12851
-33.9468 118.265 13.0934
-27.6159 146.815 0.162768
-7.32952 153.393 -4.45476
-21.9817 86.8547 20.7657
-25.3735 142.558 -2.21338
-36.4942 110.088 7.56344
-5.88383 153.401 -3.65823
-16.3069 153.686 -0.580003
-23.2634 148.987 7.28882
-1.49119 127.153 7.52884
-16.2875 131.258 0.370874
-41.8661 91.2429 11.2769
-7.85456 80.6671 15.6468
-13.5626 109.148 14.417
-14.5116 135.129 -0.186428
-24.0457 97.976 21.1113
-34.0542 96.0497 23.2801
-35.791 113.404 12.8618
-40.9469 86.618 6.53139
-36.2187 88.1041 -0.552936
-20.6151 135.246 -1.11434
-35.7787 89.5864 24.1201
-9.49688 96.9727 18.5087
-27.6215 106.231 22.0849
-8.36836 127.531 11.7275
-40.7996 97.6523 8.72506
-36.9698 140.698 8.26717
-6.06091 115.142 11.0979
-21.077 154.051 4.08192
-28.5942 98.9103 22.8463
-28.3867 129.057 -0.709395
-18.1484 121.417 17.2124
-39.3721 103.669 8.09162
-20.5038 154.249 3.66439
-20.3653 152.692 -0.222372
-20.0073 143.749 -1.57489
-16.3695 109.828 16.0239
-36.7892 136.324 4.68252
-37.3067 138.279 2.917
-19.4729 99.0019 18.7127
-34.1089 101.318 19.7201
-23.1591 138.436 -1.13574
-38.1051 98.1566 21.3016
-17.38 153.824 -0.107593
-37.3212 110.671 5.63333
-32.6885 84.1722 -3.32971
-30.8982 113.665 -3.12697
-14.1405 119.673 15.6159
-35.6449 95.0794 -0.122513
-27.0781 124.631 17.3061
-17.5576 154.761 2.77657
-26.5857 140.187 8.35992
-7.04398 82.4472 15.439
-14.4792 100.887 16.7839
-27.2542 142.655 7.48487
-20.3241 132.918 -0.314555
-7.62153 146.737 3.56708
-27.0217 100.156 22.0353
-29.1037 131.092 -0.384406
-9.1747 93.7089 17.6366
-29.4336 102.549 -4.46333
-35.7978 84.3131 -1.99875
-17.8473 134.115 -1.63735
-2.89227 132.172 7.82741
-26.6038 145.179 6.63164
-36.3073 89.4642 23.6903
-40.2931 87.7033 13.2949
-8.26046 101.027 17.3176
-6.35797 96.9447 17.3892
-15.2285 138.258 -3.82422
-28.7845 140.249 -1.6128
-31.0477 134.204 2.81851
-1.84498 103.596 15.6661
-1.53983 124.142 8.24998
-17.2784 120.172 17.2535
-20.3339 145.199 7.56198
-5.2998 145.302 6.51513
-18.762 98.3354 18.8576
-32.221 109.748 19.502
-28.6693 115.926 -3.37177
-37.4674 89.3877 0.618094
2.40904 111.874 14.5308
-7.58277 123.448 10.7419
-33.5869 101.983 19.6863
-12.9226 95.6586 19.3496
-7.68394 130.939 11.1265
-37.0146 136.052 6.24302
-7.63529 128.545 11.2251
-8.71531 91.8198 17.1269
-37.9562 106.937 3.51004
-28.5978 108.323 -5.26294
-22.6128 132.273 -1.57713
-3.90704 121.473 9.32232
-12.1687 150.917 -4.83131
-9.331 146.39 3.70364
-27.565 131.822 15.3434
-31.0629 100.515 24.0366
-34.7908 122.264 4.25533
-19.1308 154.042 0.319185
-35.1408 115.145 12.0468
-18.2863 124.95 16.1807
-22.5726 120.406 -3.69778
-24.2384 130.486 15.322
-31.9029 133.908 6.42003
-16.0241 144.885 4.98646
-26.9831 138.163 7.52665
-7.3019 142.315 -2.13955
-33.2741 139.609 8.41665
-10.6592 88.3974 17.2591
-15.686 146.472 -3.80885
-12.6267 122.689 14.6963
-26.9083 151.343 4.9707
-24.1487 140.232 8.64132
-29.6137 129.955 15.2089
-30.0609 127.547 -2.13799
-8.71445 129.983 11.8936
-36.1096 142.865 2.21437
0.0269363 117.819 11.3488
-33.7279 128.177 3.66422
-9.09753 151.452 -5.25188
-17.2469 143.018 6.95766
-4.0463 105.449 15.447
-10.8789 131.481 12.6241
-8.72955 136.534 0.411575
-39.7438 97.9377 3.93738
-38.9016 145.28 5.63901
-7.83998 126.917 11.3427
-18.3615 138.027 12.5229
-16.4907 93.6676 19.6413
-13.5343 117.451 15.0666
-33.7077 109.35 18.0446
-42.41 95.5492 16.9206
-28.9764 103.674 -4.74694
-17.2379 101.831 17.2847
-30.9371 109.733 21.2446
1.33523 114.92 13.7124
-7.75237 128.666 11.2977
-17.6274 142.736 6.96748
-35.4226 96.8983 -0.158415
-26.4308 105.396 21.7905
-5.54885 130.869 9.88127
-32.8849 117.881 17.5332
-17.874 143.654 6.09295
-20.3975 137.505 11.6057
-31.5856 124.845 14.7178
-16.1527 141.757 -3.76453
-26.6781 145.759 -0.732368
-30.29 110.527 20.9406
-13.568 120.328 15.2866
-35.1179 147.096 5.16774
-29.238 126.438 -2.90996
-3.02766 127.75 7.97359
-14.4157 149.304 -3.94995
-42.5466 143.657 6.43586
-11.0164 96.4023 18.8436
-42.6363 90.7137 14.3913
-27.2202 112.688 19.7203
-31.3943 93.6298 -3.56399
-10.377 153.685 -4.34699
-24.6094 134.396 14.6352
-40.379 92.4329 5.1658
-29.1169 129.781 15.6459
-34.0095 118.817 5.84408
-18.4864 141.932 6.99055
-5.96887 153.347 -3.99115
-36.5872 111.836 11.8237
-18.9502 154.578 1.20714
-16.123 96.2236 19.7286
-34.1824 138.384 1.38659
-16.2173 140.98 10.1509
1.17071 115.095 13.5229
-33.9201 95.7348 23.2406
-31.5353 142 0.731041
-37.4266 107.856 4.41275
-40.2319 96.9729 4.56442
-3.72815 126.929 8.38518
-36.5778 142.702 8.27828
-5.4836 138.792 -0.0738935
-22.3981 136.737 -1.48203
-35.1834 103.841 16.9444
-42.3684 141.799 8.02177
-29.8795 124.563 -2.80158
-28.0904 132.752 1.14351
-19.9312 153.866 4.70965
-16.4274 82.4137 19.5025
-33.0991 115.532 -0.486958
-34.9248 118.747 10.3296
-18.2055 120.547 17.4063
-13.9183 136.97 -1.95315
3.6665 150.269 4.43515
-26.6065 119.72 18.6233
0.320957 144.13 5.4214
-38.7981 101.427 4.21171
-21.6607 122.365 17.2905
-28.5633 138.242 8.66105
-35.2574 138.58 1.92542
-37.5251 107.903 4.26684
-5.40771 123.505 9.48389
-29.9943 134.219 2.29691
-35.864 96.7282 22.8182
-26.8029 146.455 -0.0682852
-35.7779 114.9 5.35955
-31.5011 109.847 20.5619
-17.4718 105.82 16.7274
-38.2281 88.2863 1.55586
-38.0841 137.262 5.65654
-11.9888 117.806 13.8034
-36.3327 146.493 3.48913
-26.8789 146.034 -0.447617
-24.726 123.29 17.5961
-12.2385 104.504 15.0385
-22.2388 114.454 18.9196
-34.1863 114.005 17.0335
-32.1976 137.766 7.82179
0.11758 119.57 10.5719
-40.6596 88.1144 13.6359
-13.515 132.618 0.469685
-27.7114 126.138 -2.6516
-18.7804 120.831 17.4269
-10.9462 94.0568 18.6921
-6.07716 139.285 -0.0131493
-24.6719 84.2066 23.9544
-17.0179 103.778 16.75
-1.96706 126.08 7.88748
-30.5442 133.81 2.83889
-38.0501 140.855 8.22032
-26.6751 136.501 1.5014
-14.7953 146.795 -4.04429
-12.2824 144.161 5.9707
-30.665 137.131 7.51671
-41.2283 95.6888 21.3768
-19.3248 154.781 2.15728
-36.1153 136.991 5.76334
-20.3474 84.3014 21.1988
-12.788 125.981 14.6461
-9.17253 141.362 -2.48808
0.881485 145.879 5.21226
-15.7906 137.068 12.0248
-39.4472 97.0122 3.81117
-33.4058 138.451 7.92508
-22.7595 106.858 19.6778
-42.2191 89.6339 15.0201
-11.0165 84.3867 17.529
-39.1637 99.1282 19.0518
-16.5751 128.024 -0.443007
-30.37 99.5022 23.6776
-35.6286 114.51 14.0613
-8.08358 111.411 12.4418
-30.5125 132.782 3.43936
-7.42968 148.164 2.02487
-37.848 85.9759 0.24822
-33.0224 146.222 4.88994
-22.0174 83.2346 22.4575
-16.8048 150.346 -0.68279
-34.4963 90.0094 -2.14564
-22.508 97.3869 20.704
-13.9074 146.729 4.57047
-7.47633 108.113 13.361
-31.6731 144.669 1.48204
-38.3847 145.311 5.15763
-37.7734 93.4327 1.52412
-5.55019 146.102 5.38248
-33.8731 147.231 4.66247
-37.476 145.334 3.61744
-15.937 147.584 3.92383
-19.5951 96.7022 20.1254
-26.3933 137.492 1.50516
-38.4869 93.2551 2.25289
-32.5743 135.052 6.8759
-16.3107 122.332 16.5555
-37.3953 138.702 6.21549
-4.05919 135.582 8.92871
-35.4157 114.74 12.6618
-11.5756 103.256 15.4528
-20.1019 103.967 18.0644
-12.1953 143.104 7.5395
-27.3579 133.996 1.69778
-26.6677 128.787 15.9521
-31.5596 93.1885 -3.42522
-41.7697 89.7089 10.2947
-31.3628 127.459 0.0364101
-10.5865 145.565 -4.9151
-3.58637 113.494 11.4135
-33.4793 134.077 6.47116
-37.7746 109.536 11.7893
-22.2435 132.877 14.2476
-22.9025 150.514 -0.114218
-38.9902 101.114 3.48496
-35.6101 108.955 0.0169799
-1.89708 92.7943 15.3328
-11.5553 137.905 -1.42885
-31.4365 97.2776 -4.13678
-40.7179 97.2663 7.91067
-14.6523 148.609 0.387277
-34.9954 135.468 2.0844
-29.3144 107.348 21.7923
-0.303374 135.043 6.35721
-20.2704 122.635 16.9808
-38.7331 105.595 7.49866
-16.1074 135.643 -2.07813
-28.6487 132.283 0.293794
-24.8262 148.676 7.25719
-41.6164 139.25 8.08166
-12.9268 107.774 14.6474
-30.9156 101.23 -4.46571
-31.73 121.116 17.1473
-19.9659 143.767 -2.84714
-33.4451 135.923 2.18136
-10.1003 148.65 -5.5934
-39.4496 100.602 4.922
-6.04078 109.581 12.7369
-30.3661 131.116 13.6209
-30.7074 126.721 15.706
-22.3412 144.899 -1.23839
-15.3051 137.23 -3.11443
-36.3159 98.5612 1.03309
-41.7812 93.3451 20.8208
-23.3164 129.31 15.6311
-27.5096 89.7774 23.2736
-7.52188 96.4883 17.5882
-19.8077 115.12 17.9618
-14.8731 100.108 17.2233
-8.62276 79.238 15.8554
-26.6316 89.1136 22.7411
-34.5096 99.8195 21.3323
-21.4083 110.85 19.6185
-24.5818 90.2762 21.7909
-29.8501 133.107 1.62046
0.200282 142.522 5.54593
-30.8734 132.262 11.3059
-32.3524 88.2838 25.3852
-23.6878 85.7732 21.8892
-22.6831 121.379 17.7446
-39.1515 103.632 6.50235
-41.1701 87.0903 9.40764
0.736978 148.291 4.18365
-1.07255 130.175 6.96888
-12.0105 127.946 -2.5961
-7.22926 123.757 10.4827
-17.7456 97.6874 19.2397
-20.6866 145.801 7.8884
-7.11398 121.436 10.4591
-25.5696 139.528 8.13941
-13.3764 95.8935 19.3952
-24.5229 132.825 14.9852
-26.3346 145.215 -1.26998
-33.733 97.4095 23.1889
-26.7364 122.285 18.0579
-32.998 147.092 4.48456
-27.3408 104.088 21.8107
-37.1742 87.6677 0.0857482
-25.6504 90.6048 22.3543
-38.6966 136.97 3.84811
-37.3591 108.854 8.64574
-20.901 121.274 17.4936
-33.8822 135.675 6.33496
-40.2363 139.789 4.65535
-28.2982 122.345 -3.85241
-11.3023 107.861 13.8324
-29.3988 134.012 2.31538
-39.3025 100.684 16.2327
-1.79049 135.107 7.09522
-10.1357 88.3242 17.1449
-18.6816 118.689 17.7135
-42.679 91.319 14.2239
-19.6928 146.861 5.04155
-37.3921 137.537 3.21274
-14.9622 148.078 -4.15197
-11.6406 142.044 9.37666
-20.3924 109.054 18.3008
-33.8363 137.237 6.85694
-33.2593 134.904 2.16462
-31.5241 100.451 -4.05765
-35.8877 84.0603 -1.94117
-2.32719 127.484 7.77041
-30.2966 134.553 10.0752
-9.9786 155.831 -1.54947
-35.77 88.9361 -0.46804
-20.5114 139.601 -1.02408
-36.9918 107.579 5.8241
-38.8107 96.4411 3.04477
-16.272 104.949 16.3935
-41.7109 89.2821 15.3992
-28.0459 145.13 6.41023
-26.1396 141.564 7.75651
-33.3542 104.803 18.2764
-19.1803 111.165 18.3577
-25.5895 143.957 -1.78944
-2.82403 132.706 7.74652
-24.8793 135.601 -0.284038
-41.7884 95.3395 19.7818
-39.3006 86.1541 2.13012
-12.6878 147.88 1.67796
-30.1421 143.592 7.77572
-27.9352 113.386 19.5807
-7.88379 154.954 -0.543728
-27.7808 93.6879 -6.03299
-29.5685 130.977 1.4453
-2.97305 124.893 8.41664
-30.6342 128.252 14.0927
-23.137 93.4069 20.816
-16.7473 83.7201 19.6082
-7.99268 131.65 11.16
-8.10969 116.016 11.3309
-28.282 132.777 1.8899
-20.3773 154.042 4.4057
-13.4048 136.314 -0.574138
-29.7621 110.332 20.9503
-23.0755 136.06 -0.885875
-29.0048 95.5961 23.6208
-19.9897 146.323 5.59215
-17.4379 145.649 4.48775
-30.6507 122.004 17.667
-26.384 137.04 1.41434
-26.5067 92.8734 22.1028
-40.2326 96.7329 4.64219
-3.71636 144.157 6.63131
-35.1146 140.101 8.4145
-9.27959 116.081 11.7516
-32.6791 91.0287 -2.66388
-15.1351 149.393 -2.88998
-19.5507 83.407 21.1986
-33.5669 103.044 -2.69054
-23.066 114.503 18.9991
-40.1466 94.1552 22.2922
-13.2056 151.479 -3.91602
-30.8991 98.5168 23.9938
-32.9345 112.815 -2.13008
-39.3023 104.309 7.92282
-36.8926 141.517 8.26005
-22.5832 105.285 19.2157
-25.1842 151.248 5.56414
-36.7313 112.446 4.15169
-41.1604 99.1355 15.5996
0.924652 111.689 14.525
-4.23055 154.323 -1.90036
-27.2433 137.334 0.164915
-26.8978 129.563 15.9223
-32.8467 101.72 21.2851
-27.1898 136.045 8.83889
-19.4861 115.837 17.8881
-35.3674 84.0962 -2.53327
-15.3378 97.2741 18.8788
-32.6531 145.666 5.33265
-30.1779 137.171 7.77398
-36.6959 138.591 6.6095
-32.4859 123.02 10.1476
-39.6914 86.7572 2.72104
-12.8591 131.94 0.115252
-23.3327 133.046 -0.390869
-14.7801 103.13 16.1769
-12.3364 132.773 0.219993
-20.544 138.496 10.9956
-23.7113 151.109 0.0791934
-32.2042 96.2609 23.3944
-18.5187 145.433 5.41684
-37.5149 137.326 6.32812
-36.8831 143.07 8.18205
-29.5249 125.957 -2.85
-11.7459 152.055 -4.70475
-12.4248 93.0006 19.1327
-15.2733 145.745 4.23072
-22.0503 124.047 16.9604
-30.8253 124.114 16.9471
-41.1006 89.2209 6.29526
-0.210954 126.881 7.47128
-24.5306 113.224 -5.8408
-34.188 126.324 5.0827
-18.0862 129.367 0.235434
-28.4955 127.021 -2.78723
-34.1215 119.837 8.57191
-24.3782 109.894 -6.27703
-29.5979 97.6759 23.3778
-29.9231 148.445 5.39348
-33.7766 119.395 5.01119
-35.6297 116.889 9.19722
-20.1185 125.407 -1.00537
-18.5392 127.271 15.545
-31.5224 104.426 21.695
-27.7241 132.979 14.1948
-12.8655 133.643 12.4798
-9.67403 121.585 12.2819
-4.32668 116.501 10.5478
-26.1825 111.628 -5.12675
-32.6217 105.744 19.7611
-5.15382 138.025 -0.0956321
-29.5512 93.1706 24.0294
-10.499 150.738 -5.52886
-25.2346 138.063 -0.929115
-9.08803 124.743 12.0225
-25.2754 101.596 20.7591
-8.36932 133.983 -1.14542
-27.6308 144.744 6.54809
-7.018 132.727 10.3193
-36.2738 111.912 8.478
-22.6819 119.668 -4.13044
-19.0543 97.717 19.4066
-29.6783 108.324 -4.70632
-34.9154 83.59 -2.83413
-20.2548 92.6155 19.9743
-29.8588 94.5332 -4.88677
-26.2784 136.987 0.703322
-21.1364 143.988 7.24059
-9.30924 96.3258 18.4913
-24.543 139.372 -0.824389
-22.4619 82.9925 22.8442
-11.7492 130.286 -1.43213
-35.0259 144.908 2.76892
-34.0595 98.6696 22.914
-34.9022 117.525 5.50432
-25.0326 101.136 -5.92516
-41.8503 97.0392 13.2009
-9.12972 121.062 11.653
-17.6625 132.637 0.270075
-12.9581 101.242 16.4285
-12.4792 118.492 14.3944
-41.089 100.673 13.4246
-19.7437 135.887 12.8704
-42.7895 138.456 7.03612
-18.4765 154.644 3.32409
-25.5357 128.549 15.9045
-35.6016 144.188 2.77502
-12.0637 99.2284 17.565
-28.681 92.7354 -5.90689
-23.0129 142.008 -0.895507
-17.5957 154.875 2.51792
-34.3655 101.908 18.95
-24.2794 137.026 12.266
-25.6442 116.019 -4.27467
-32.9421 125.13 0.647041
-13.4746 151.323 0.165394
-7.88272 145.483 4.87094
-37.3366 137.679 5.98256
-35.6461 114.66 4.05598
-42.2117 91.9446 12.8136
-24.842 101.406 -6.02199
-18.8281 102.447 17.59
-18.167 138.659 12.2662
-41.9722 90.5571 12.1944
-8.99597 80.3686 16.122
-35.0839 117.267 5.4189
-24.7491 93.1406 21.0529
-21.8465 142.608 -1.70855
-30.1526 144.504 6.81494
-31.1149 126.096 15.781
-15.4382 138.819 11.2857
-12.9324 115.184 14.1517
-13.8939 93.0379 19.4762
-34.0807 126.982 4.56386
-32.4837 102.901 -3.45199
-37.1671 109.909 13.3518
-25.9308 147.104 7.1949
-35.7972 138.426 2.23411
-23.7129 144.11 -1.18221
-37.9177 144.095 7.67652
-15.3503 101.487 16.7674
-24.0778 84.7818 22.7677
-18.3459 154.624 3.43691
-33.3837 133.627 4.08017
-17.3783 137.527 -2.79284
-16.5683 140.218 10.6275
-29.3396 141.005 8.01315
-29.1391 124.618 16.8693
-35.7579 113.048 0.299691
-23.2926 107.101 20.1711
-37.2044 104.668 15.4453
-13.9314 129.473 -0.565176
-32.8103 114.942 -1.1028
-37.5387 109.484 3.52288
-13.1142 138.351 -3.05687
-24.3777 114.873 -4.92804
-6.60753 124.011 10.1085
-29.4856 106.037 22.7272
-1.13344 109.546 14.3193
-21.4702 125.057 16.505
0.555307 105.034 15.4316
-36.0189 84.067 -1.78895
-27.7388 132.482 14.46
-21.0637 104.123 18.5737
-27.3958 132.733 14.7685
-0.0531297 141.105 5.86364
-36.4816 139.012 7.31488
-7.00593 154.428 -1.58294
-30.9702 83.1047 -4.16168
-37.3157 102.037 15.9419
-36.9028 109.131 6.14054
-35.3002 99.5313 21.4788
-12.6555 118.44 14.5419
-9.87314 144.552 5.50457
-14.3629 105.016 15.5922
-6.62074 133.018 10.0416
-22.0922 99.58 19.5689
-30.2257 132.24 3.06536
-5.71719 99.8765 16.9402
-20.317 145.129 6.93813
-13.8224 92.0037 19.3889
-15.4434 143.703 -4.29296
-5.91058 153.562 -3.04795
-34.3529 115.668 16.3501
-25.8277 133.926 -0.728911
2.0909 112.749 14.5242
-29.4839 147.108 5.69864
-7.56982 145.781 4.42624
-11.4275 152.444 -4.78152
-26.5903 118.908 18.9369
-26.6642 144.62 6.7716
-36.0392 138.804 7.40049
-16.01 91.5178 19.5786
-3.82127 106.859 14.37
-6.97579 80.9419 15.1789
-38.5263 96.7119 21.8809
-35.4032 115.51 4.96426
-14.9632 124.236 -2.82954
-24.3903 137.902 9.42384
-35.5906 117.014 9.81635
-34.5946 104.251 -1.87755
-9.10055 133.146 11.5604
-13.6343 117.906 15.268
-28.6627 141.047 7.68881
-9.05606 139.435 9.54264
-30.9959 142.3 0.655898
-0.044177 147.47 4.63266
-4.73907 147.225 3.4
-26.728 87.835 22.5035
-29.3401 132.56 13.0039
-6.28179 110.844 12.3762
-28.7881 133.932 12.745
-7.52205 142.459 8.42784
-10.6146 93.3407 18.2889
-23.742 139.96 -0.278892
-30.9571 147.935 2.36943
-32.9895 123.184 -0.552224
-22.1642 136.74 -1.69807
-6.52209 84.5432 15.8477
-36.2101 106.064 -0.113983
-33.2815 113.246 -1.49212
-8.67698 145.14 5.06305
-3.84473 90.0621 15.7611
-35.6622 90.0572 23.6494
-37.5276 97.709 21.9116
-5.89642 105.774 14.3756
-11.7905 132.524 12.767
-41.1853 88.4204 13.4373
-30.9831 91.5899 24.1013
-37.4651 136.262 6.01189
-37.6331 91.2087 23.3403
-34.6338 104.227 17.4469
-12.422 127.027 -2.9019
-22.5273 127.628 16.0339
-23.7153 138.682 -0.7832
-7.51751 141.43 -1.83506
-37.9594 93.5758 1.71515
-14.0729 108.127 14.9614
-5.65819 141.338 7.93472
-23.3851 115.93 -4.96217
-31.1243 117.449 18.7417
-40.9262 96.4062 20.6998
-36.3357 91.5953 0.682277
-38.7619 140.048 3.46783
-17.6214 134.586 -2.32884
-30.233 131.014 1.00806
-3.98062 114.925 10.9818
-5.23603 92.1548 16.3861
-26.5461 110.265 20.7015
-1.84948 118.854 9.83084
-36.1212 113.9 3.63191
-27.25 88.0154 22.6695
-30.3592 120.317 -3.4921
-5.74221 146.334 4.70835
-29.3606 137.33 7.95736
-37.6613 106.238 12.9991
-42.165 138.834 7.93904
-4.66829 129.595 9.19593
-33.7325 101.896 19.5019
-7.01655 138.869 9.26968
-30.3488 150.458 3.9543
-36.6071 86.7521 -0.755788
-23.7638 146.483 -0.568248
-25.0265 137.172 0.026168
-41.2014 89.0148 15.4489
-30.541 145.23 5.86771
-8.90575 87.8403 16.8664
-28.8043 90.191 -5.40958
-25.3011 134.029 -0.845259
0.7644 122.752 9.34858
-11.1544 154.075 -4.17306
-35.0965 82.695 -2.94692
-27.609 148.247 0.844068
-36.6289 104.871 15.516
-40.6073 96.5647 6.17906
-23.3075 153.226 2.0707
-3.73345 94.5734 16.2172
-18.8908 109.886 17.6253
-34.6361 118.628 7.33759
-33.2316 115.963 17.5509
-7.91772 78.9924 15.4707
-24.4132 134.028 14.683
-38.2926 93.9452 2.05805
-5.26145 88.177 16.1291
-16.7102 98.2413 18.4663
-27.4464 105.457 22.3236
-30.1689 129.465 14.1962
-33.6278 134.378 1.45283
-37.3269 107.028 1.70315
-39.8892 143.824 7.61896
-20.8174 118.953 18.2397
-13.143 127.823 -1.79866
-23.4489 132.092 14.721
-25.4126 131.658 -1.6424
-32.5887 88.7572 23.539
4.11815 125.378 11.9989
-28.2406 133.358 0.223219
-29.3962 92.4445 23.987
-14.9582 120.724 16.0827
-36.2671 113.436 4.35673
-24.1304 143.326 7.8738
-6.31093 112.52 11.8882
-38.1473 104.351 5.734
-11.3827 154.522 0.563975
-37.1782 98.2117 1.94039
-39.3044 103.819 7.30112
-37.1379 108.439 7.4991
-19.9441 123.939 -1.91889
-24.5858 138.878 -0.602306
-33.3383 130.436 4.46745
-35.3879 84.5801 -2.42207
-28.183 137.785 0.392987
-40.2987 92.4815 22.9332
-29.3217 144.301 0.422239
-19.1233 143.852 -3.60519
-25.9611 137.315 8.15847
-29.6543 122.28 -3.38765
-4.25632 93.2813 16.267
-11.3406 142.63 9.09637
-33.9107 104.391 18.0509
-22.4709 83.0682 22.8515
-29.8216 131.271 3.52788
-33.0903 133.425 5.40329
-6.93681 124.912 10.3217
-33.5807 127.995 6.87505
-38.2228 96.7167 21.8591
-14.3895 142.388 8.80508
-41.9922 94.4535 17.9698
-41.7851 91.9414 8.79979
-19.6688 151.098 -0.808589
-21.701 143.848 -1.10391
-32.695 121.528 8.64807
-34.2902 91.954 -1.72539
-30.5057 126.945 15.6998
-15.8663 135.112 -1.15882
-14.1513 118.438 15.6923
-42.8014 141.158 7.56124
-25.2264 142.159 -2.29318
-31.3381 136.543 7.45876
-32.9347 120.915 16.0022
-31.8283 129.587 9.25052
-23.532 145.03 -1.35852
-23.9042 137.197 9.86493
-41.3561 140.022 6.7427
-20.7434 142.411 -2.0633
-29.3057 128.096 -1.52262
-34.8766 138.23 7.50994
-40.7607 90.2956 4.88699
-2.87767 111.445 12.241
2.66723 145.203 4.46107
-25.305 138.454 8.48489
-13.0976 152.241 -3.58412
-38.0771 104.187 5.45407
-27.5748 104.597 -5.41044
-33.4296 134.328 1.99644
-18.093 142.873 6.47369
-20.02 140.6 8.83177
-29.6424 131.539 13.7275
-14.8987 102.36 16.4046
-34.6412 116.183 3.44781
-15.7589 129.986 0.107739
-29.0006 134.359 1.85715
-8.99943 128.89 12.0742
-32.0679 123.472 9.52895
-42.6449 94.1028 14.8952
-35.0922 94.4475 22.9416
-11.7514 143.248 7.09015
-42.4725 93.7993 16.748
-37.4044 93.6422 1.26983
-23.5142 83.7747 23.5396
-30.9794 128.763 11.9137
-34.9517 112.646 -0.133385
-26.844 97.7055 21.872
-40.5845 97.4227 7.30393
-30.5566 89.8482 -4.79149
-19.5023 122.089 17.1035
-2.84882 118.588 9.89896
-24.7762 139.554 8.38051
-26.7958 135.223 11.408
-2.37805 127.991 7.70893
-18.2281 154.792 2.93371
-30.2243 135.32 9.96591
-41.8597 93.5273 9.09912
-16.0143 135.46 13.1779
-41.8635 94.0917 18.4453
-25.4909 136.29 0.0660461
-31.8192 88.2356 -4.08628
-19.7868 137.589 -1.56649
-16.734 127.208 15.3355
-23.8478 95.7315 21.5372
-34.735 137.329 6.37204
-14.4711 81.3481 18.6728
-42.614 141.073 8.24292
-36.555 112.952 3.93668
-5.54557 128.136 9.79976
-20.2214 104.892 18.0238
-26.6818 143.095 -1.80917
-11.7406 145.804 5.15103
-36.7405 93.6945 22.8547
-32.4762 119.378 -1.64683
-27.4613 129.8 -1.31755
-28.1771 110.68 -4.71956
-33.7733 144.863 2.22902
-12.8346 104.034 15.2884
-13.5924 132.16 12.9767
-39.3644 102.25 8.29883
-31.5802 104.708 -3.80861
-35.2837 136.989 3.61519
-11.635 134.591 0.671902
-12.2789 143.827 6.05159
-26.2539 119.19 18.7544
-36.1685 111.118 14.7052
-9.38414 147.596 -5.5063
-4.08191 135.761 8.92535
-27.1297 142.759 -1.49339
-10.9207 117.089 12.8088
-23.1535 118.061 18.7444
-17.6032 135.989 -2.96892
-4.09205 132.212 8.85616
-29.2679 111.137 20.6563
-31.3595 92.7353 24.0684
-12.4554 94.6113 19.2689
-36.6793 92.5995 0.7054
-16.0038 118.854 16.6844
-35.2066 112.321 -0.0705489
-35.0701 89.0628 -1.29384
-7.4527 135.684 10.1542
-7.16034 87.6542 16.5576
