ply
format ascii 1.0
comment Created by Open3D
element vertex 1944
property double x
property double y
property double z
end_header
10.881 123.543 3.41303
1.60729 125.567 9.29903
-5.72146 87.3458 7.62164
-28.9339 93.9593 2.39978
9.5402 114.836 17.6296
-13.0909 103.165 -2.66069
12.576 139.191 8.90863
3.13276 132.428 8.43413
9.07425 128.251 5.02686
1.32342 106.56 16.45
-16.084 123.937 -3.36821
1.93401 76.3643 5.53457
5.62164 122.278 7.69258
5.70228 96.1378 0.570007
10.7899 127.67 7.78707
4.66208 110.147 20.9116
-25.8677 108.851 3.20919
-21.2953 128.568 0.982394
-24.4918 123.408 1.20088
3.14901 114.846 16.5126
1.12127 105.692 12.7108
-29.3539 91.2617 9.18371
-1.70675 110.94 9.55103
-9.51385 117.442 -0.731798
-1.23242 86.8168 -3.50396
-19.3855 120.089 -3.69218
-15.9809 127.832 -4.09669
1.18162 83.5441 -0.155376
0.700731 78.3601 -1.56481
-26.8146 124.855 0.0435996
19.5177 132.544 8.74227
-14.9292 124.968 -3.00353
-19.4412 98.5605 -1.76038
-0.457083 133.532 1.02869
16.8267 132.104 0.637759
10.2683 120.002 11.409
2.89397 113.482 -2.60718
-14.7166 82.2718 10.3103
-3.1989 85.1029 13.0501
-23.1769 107.493 14.0808
4.17955 110.124 -2.91924
-6.72877 108.206 -4.5267
-22.7256 127.885 8.19654
5.81704 89.7537 11.9247
2.91021 111.107 11.3158
-11.2925 127.933 -2.44327
-12.2577 94.4682 14.7422
-12.6482 120.815 -1.39016
11.6617 132.004 0.50508
-18.0033 93.8453 -0.737667
-9.6679 96.0827 -1.09772
10.8508 109.959 3.7445
-27.5952 94.4876 1.59469
5.80175 98.2151 23.5101
-8.21352 124.659 12.8878
8.53926 122.848 0.873198
10.4209 120.058 11.3837
-25.5403 115.917 -1.18262
13.6811 126.269 9.43486
-26.6003 116.134 1.52424
-21.1941 126.151 0.597264
-25.932 120.167 4.14483
10.0742 124.213 0.488859
9.94656 128.809 7.57099
-8.5234 130.506 9.11155
12.6917 121.497 10.9592
13.451 125.976 10.0844
8.19049 96.2519 15.7016
16.6437 136.756 8.39701
9.22049 100.494 15.7971
-21.5981 125.479 1.49428
11.1729 126.512 5.57897
3.26449 136.677 -0.640599
-16.4867 84.3312 -0.104094
-4.07063 105.074 11.6459
7.40833 124.399 15.4868
9.73126 114.627 3.59049
-16.167 121.103 -3.80799
-12.706 106.605 -3.3201
8.02024 105.318 20.4338
-26.3057 108.597 2.24312
-29.1175 89.0112 3.49195
-24.3588 102.754 13.775
4.22644 87.1893 23.7887
-22.5794 124.254 1.26513
4.92766 85.9021 12.0767
-30.1702 123.852 8.6365
4.26642 118.871 18.013
3.60479 118.03 14.654
6.29077 125.063 10.6772
-18.6302 127.25 -3.12891
-15.1679 124.934 13.5915
-4.89729 128.773 10.6238
-2.194 105.271 10.0529
9.13152 100.308 10.4266
-2.0381 95.6741 19.284
-29.9161 90.4871 4.29776
11.7815 111.619 10.1738
10.8748 116.87 10.935
-6.5284 133.187 -0.477333
-1.70432 86.8248 26.7748
-24.8673 85.9878 1.64173
-7.41291 95.9832 14.331
-26.6091 123.577 -0.569656
3.04619 81.7928 2.17259
-26.3087 106.863 7.33609
-10.6779 83.6688 -0.440387
-30.6497 125.783 0.844418
-25.965 105.046 7.94665
-3.04419 131.335 10.9271
-26.1643 125.916 -1.56122
4.23398 85.9222 13.395
-0.905462 117.932 10.3943
8.2566 121.818 -2.40836
10.1889 129.573 6.70655
-23.1771 107.186 14.3704
-3.50389 102.788 17.4379
20.2217 125.522 1.57262
-19.0965 110.694 16.7734
-6.64948 103.599 -4.5859
-11.853 106.84 15.7793
9.56114 104.551 2.62364
14.4616 127.086 8.70679
22.4171 120.571 9.60089
-31.8962 125.39 3.0673
-16.8904 111.638 16.3255
7.06285 93.1882 10.102
-34.0143 123.959 8.59282
-29.9691 86.1115 5.02394
1.22332 92.5345 26.0991
9.14678 130.053 -0.218189
-22.1237 122.58 0.215708
2.03738 115.455 -3.07394
11.4367 112.536 3.88011
-18.1286 111.152 -3.53778
-10.7854 95.8313 14.4489
-30.4815 81.0153 9.71786
11.8476 121.533 9.00161
4.45914 136.621 -2.49983
-23.1971 128.923 8.80819
6.64998 127.432 6.30821
-6.58158 87.2673 -2.02242
21.5341 128.29 2.73043
3.46903 83.3198 14.4047
20.5587 138.523 4.14282
5.47064 119.361 10.0783
7.92859 136.217 4.14858
-30.3197 79.8661 4.26614
4.80957 121.144 12.1089
-3.34648 101.651 16.6176
10.3155 130.888 -0.795058
4.64956 110.187 20.8921
-17.7094 96.2395 -1.01998
-25.5964 97.5667 12.153
-30.6293 87.8752 5.48866
-24.8035 119.902 7.04248
6.4428 90.5121 18.7501
6.65008 96.0554 21.7267
3.78769 129.228 -1.57906
17.2684 122.892 9.63325
-24.986 119.928 6.62768
-8.67833 132.424 -2.09783
-30.766 80.6483 8.78052
-19.5231 81.0648 12.7733
21.202 127.358 6.4898
-28.7587 95.1026 6.85481
5.32816 125.305 -2.44577
-22.7761 124.703 -1.46653
9.19731 115.275 4.9303
-25.5942 85.9656 1.90826
-22.8333 76.2421 3.66484
20.9315 125.427 1.69135
4.09651 124.083 13.9822
-9.83233 91.9892 12.2537
-2.60147 115.345 13.1121
3.56663 116.137 18.8118
-7.91069 82.6052 8.05412
4.97165 128.689 -1.85682
-24.7155 118.437 -1.51811
-25.3741 126.88 4.91407
-20.4795 125.063 -3.33036
-24.314 125.611 3.007
3.33702 120.691 0.350184
2.30799 119.543 7.16917
-14.3259 111.048 15.6619
-19.4885 106.948 17.1242
-4.06339 83.1136 16.8561
13.5845 125.983 -0.0326781
6.64541 125.908 7.18437
-22.9358 125.753 -1.361
1.51029 135.913 8.49851
10.7015 130.95 10.7136
-0.881718 108.024 -4.86188
3.74582 90.127 24.2662
1.45557 105.641 14.3574
-27.9923 99.0199 1.1879
-10.3375 90.7136 12.0132
1.51256 77.7333 -0.046576
-13.5383 91.1597 16.0816
0.616497 123.268 -0.491501
-4.41228 96.0631 -2.26233
-9.9262 112.758 -1.48518
0.22259 93.594 -3.87471
11.3123 128.864 0.664356
9.88264 141.562 7.48735
-23.1311 120.917 0.628145
10.2652 105.265 4.23771
8.63685 104.012 18.1327
-24.036 88.1062 1.38817
-3.3511 83.6029 17.2038
9.68401 105.879 2.27512
11.6362 140.338 -0.821941
-5.21982 127.546 10.9455
5.78921 137.712 -3.33119
-19.7083 102.339 16.8058
-12.5983 113.241 -2.45079
9.05154 100.435 13.3663
0.0505822 103.096 11.42
-16.5428 89.5261 16.956
-5.04175 86.2799 -2.52071
-18.4474 87.8939 16.7686
-15.8628 126.279 -3.53567
-7.91926 95.3136 12.2317
4.01428 115.214 9.95084
-7.18211 95.5298 10.8959
5.09149 89.0262 4.90661
7.35419 135.16 9.32655
3.42369 112.672 15.4523
9.87219 105.123 13.5226
-5.14806 118.165 14.9556
1.32493 130.082 0.869626
-0.228884 108.097 -4.69564
16.1657 137.135 8.41508
-9.07566 91.023 12.517
12.4893 123.734 9.92054
-14.5143 129.892 9.83211
-10.3046 116.272 -0.825672
-19.3906 121.685 -3.55068
9.44773 115.197 17.5853
-17.7967 94.8108 15.9118
-20.6087 94.6534 -1.23455
3.39568 112.108 20.9478
21.272 132.716 4.31004
10.9414 130.213 3.43925
-7.09519 97.9274 -1.87003
-0.462605 102.137 14.0901
-0.496813 118.454 9.45543
8.73716 104.18 17.9518
17.5196 140.209 1.41938
12.4037 137.513 -0.00166263
11.2125 114.682 1.14946
-29.5061 83.1721 3.6608
-0.242707 107.561 18.6717
10.4196 109.295 11.3647
-1.50127 114.49 9.87696
-29.8238 83.8142 4.38118
6.12786 89.9031 5.55433
1.78599 94.55 -3.8854
-22.5391 112.04 13.7594
-10.3155 94.6588 12.364
-16.0495 100.399 18.2631
-24.6118 120.736 6.64718
0.899595 100.333 22.4741
-1.37527 90.5255 -3.70411
-25.7723 109.466 4.21528
10.9499 121.668 5.47245
-24.4581 92.8073 13.2216
-24.4432 125.102 4.26111
5.52169 103.628 22.7365
-18.4497 126.705 -4.07308
-19.6211 79.9191 2.45645
-10.7225 101.983 17.4247
-22.9238 103.301 14.8928
-20.6002 77.7591 2.81579
8.1174 97.4911 4.84335
-25.7269 102.294 12.0518
10.0067 116.06 16.7919
-10.6238 124.942 13.3336
8.14534 98.0788 19.3372
-23.425 122.812 -0.393167
-18.7412 131.014 8.56996
-6.22769 121.627 13.5234
-13.4005 123.797 -2.0229
9.89181 116.325 9.4101
4.60214 82.3882 6.70427
-30.1329 83.2838 11.3644
10.966 117.138 0.835782
-9.18943 99.564 14.4177
-21.5967 95.534 13.5148
9.47603 122.021 -1.88732
-10.1225 79.2698 -0.505318
-22.0572 128.728 8.10713
-9.43486 97.804 14.2143
23.5558 121.145 6.3184
2.22637 79.5739 23.4995
-22.4366 77.4872 3.01449
-1.3392 100.107 12.4354
-28.3285 97.4447 3.26523
-11.3448 124.746 13.236
-7.97609 115.514 15.2914
-19.3547 109.698 16.8695
-24.6636 116.29 -2.14254
-6.90301 104.205 14.9732
11.682 112.627 6.39524
-22.1844 76.0471 3.78443
-7.96462 115.987 -1.33923
-0.659267 83.0665 27.5349
2.68653 78.7246 12.3828
-1.55743 135.589 0.995758
7.14528 127.953 9.55677
-11.7654 84.6555 10.9223
14.0813 120.969 -3.30863
-27.7225 126.505 7.58669
-21.4121 127.398 9.90043
19.3406 133.049 8.73296
11.1841 113.222 10.2589
-11.654 130.486 9.34731
8.97333 129.335 -0.228307
9.85811 119.742 0.467922
-11.2497 93.2003 13.3383
-2.74668 91.8283 18.1366
15.4311 125.455 11.3487
-21.6534 120.743 -3.71018
21.7192 130.331 3.55688
4.0969 115.084 10.3096
-28.6355 97.8808 2.83364
0.319001 83.5066 -1.51982
-3.03714 98.8283 11.8672
3.81543 113.702 20.2445
-6.41763 80.4685 -1.98297
11.1895 113.584 11.5059
-3.50392 133.754 9.04326
-28.2226 126.214 7.44319
-2.47953 128.9 11.7243
4.35615 83.1753 10.6055
-12.3073 93.404 16.3136
-6.99209 119.836 -1.01032
21.6187 125.127 1.76443
-1.03107 106.688 -4.99272
4.02528 120.493 7.14874
-24.4326 104.706 -1.04606
10.1888 114.319 3.50167
21.5751 135.386 5.6917
1.36048 106.721 11.8886
-5.8795 97.2787 15.8292
-11.1186 120.365 15.0908
-9.51574 88.3803 11.0289
10.8065 111.679 14.9521
-23.2652 123.169 9.41462
-14.586 81.4586 0.609975
-4.4113 118.127 -3.54828
-26.215 108.562 -0.215966
12.3698 133.635 0.571148
-19.5612 95.7167 15.0077
-14.719 107.723 -2.77196
1.23756 121.829 7.78933
20.7858 134.438 6.90714
4.49455 136.556 -2.57208
1.77031 105.128 -4.07564
8.94168 128.303 2.22881
-4.37094 101.512 17.835
-12.4714 113.921 -2.25226
6.93296 134.814 -2.78602
-17.8001 116.124 -4.09698
-15.9865 87.6903 15.531
-0.756812 102.55 21.443
-12.8115 122.93 14.0157
2.2804 116.369 -2.86119
5.59222 134.929 5.5594
-15.1615 98.0885 -1.4821
0.836418 76.011 -0.599716
5.04432 125.443 11.81
-28.5747 77.7911 3.80717
1.55867 92.0287 -3.54221
-1.9083 128.111 11.686
6.01958 108.757 -1.26479
-23.6654 107.701 12.796
9.57651 103.59 2.86428
0.67006 138.376 6.59477
-5.61958 108.839 -4.35235
7.99322 94.7572 8.49688
-10.6422 99.0582 17.1304
-25.4488 96.5179 12.1405
-3.20108 106.534 11.9102
-30.038 78.2146 8.43175
-16.5236 93.0085 -0.833754
9.049 121.902 -0.154077
4.92426 102.369 23.3228
-21.6414 103.417 -2.67879
-18.2064 110.775 16.5897
-21.5347 116.38 11.6958
-25.0457 125.14 6.92686
-3.85659 135.269 7.53499
9.90852 125.011 9.1954
-32.8207 125.803 7.70487
2.73995 82.3868 25.2719
2.29663 106.222 22.2259
-7.78195 90.879 9.5085
-26.5458 114.219 1.08221
6.43648 93.877 21.3924
1.909 111.757 18.1899
8.36468 96.716 16.5086
2.87113 94.4475 25.9921
1.71853 77.8812 0.614706
-24.4474 80.0431 3.18005
10.3128 121.807 4.7882
-23.7339 88.0363 15.5818
5.12435 124.28 6.32236
1.55938 108.667 17.7846
18.7433 136.5 8.30451
3.28994 103.152 23.316
-27.6852 94.4405 11.4721
11.6558 140.783 -0.738274
-22.2527 103.891 -2.37364
-26.1686 108.951 -0.402071
-16.3774 129.752 8.3611
-6.28998 101.179 11.126
-27.1185 99.6616 4.88594
-10.3097 91.1228 12.55
-7.78103 91.0817 12.0749
6.77871 126.874 6.64168
1.32211 95.4724 26.0286
1.53183 104.239 22.7527
5.16472 128.566 11.6897
-14.2803 113.905 -2.95564
-22.2179 111.123 -3.4297
-26.796 85.9284 2.14917
5.93789 88.4829 16.935
-7.01545 134.333 7.6637
16.5459 141.763 7.75461
-2.59997 116.651 -3.94387
2.12623 125.28 8.12454
5.02941 119.581 -1.31502
2.6015 79.9356 23.1658
-7.14874 123.112 -0.00386191
11.9544 128.389 10.2725
-10.3589 99.2693 16.9372
1.57807 119.708 7.28649
15.1341 127.544 11.5156
7.14911 128.193 6.46563
4.57303 84.2552 11.4564
-22.3488 92.3049 14.0735
21.1654 137.485 6.01431
9.81607 104.459 6.36432
2.49618 81.9181 26.1736
1.89655 136.518 0.437926
2.50112 121.439 6.80273
-23.2376 123.539 -0.510759
-21.3182 125.489 0.684518
4.01649 85.4555 16.0015
-12.9773 128.918 11.0754
0.142731 94.8679 23.0844
-4.11573 115.417 14.3968
-24.6023 103.314 13.6021
2.99814 130.747 -0.772441
-4.37094 104.966 11.7329
-24.6539 83.7049 13.5292
-3.6009 124.899 -1.45174
4.88136 117.013 12.1826
6.15938 99.7825 22.5059
-22.4941 92.6507 13.8912
6.5565 124.651 9.53331
-22.3915 110.49 -3.3974
-21.9045 124.426 1.11895
1.81084 89.8983 -2.43585
12.6532 121.608 11.0048
9.22591 118.046 2.18591
-20.2934 128.415 9.27805
-5.07917 117.52 14.9445
-0.714097 110.975 -3.70124
-27.1844 99.6331 7.49233
-18.4306 106.877 -3.32231
-8.417 126.436 12.6696
-24.9479 126.085 -1.30078
-23.3068 120.119 -2.71247
20.1307 136.218 4.5727
2.81566 114.58 8.53962
10.6035 109.277 9.26778
11.0522 121.616 8.29759
-1.52732 94.4538 19.691
-18.5412 77.0481 3.34129
-22.7193 93.1499 13.6268
-7.11055 89.542 9.54639
-0.710907 105.56 19.5564
-5.24182 133.216 8.8112
-10.6099 129.76 -2.79889
-5.28941 99.8632 17.235
-13.9411 105.633 -3.88793
-14.528 112.03 15.5304
-5.69101 120.874 14.101
-30.5713 88.0114 5.60074
-32.4649 124.723 6.63007
21.042 127.865 6.67399
2.20032 113.835 19.4622
-2.79559 98.0285 12.5604
-14.1888 105.948 16.3495
7.0935 90.5684 7.34867
23.89 120.815 6.92813
3.88787 133.218 -1.77364
-0.845188 119.022 10.8222
12.0152 124.423 5.3178
19.297 144.167 4.09604
10.8261 132.766 1.01414
1.45552 82.6254 0.00049226
-3.1013 89.5729 -3.12939
1.47606 76.2811 2.37071
-7.81087 119.682 -0.620641
16.1987 124.061 10.3933
10.5705 118.683 13.2731
10.215 108.717 6.22447
-14.4814 124.305 -2.42711
-27.2009 124.159 5.91739
4.97094 118.793 -1.51978
6.15613 101.49 -1.10409
9.48217 127.018 -0.405061
5.30314 86.9436 6.637
9.88681 105.261 13.5846
-10.448 134.066 6.14881
-10.7051 96.5311 14.889
-13.4518 128.907 10.6635
4.18478 83.1931 22.3377
-11.5647 86.6835 -0.795271
-27.1369 126.339 8.83044
17.4665 135.546 0.266516
21.2813 126.777 6.40018
21.2089 131.533 6.17969
-23.2004 124.033 2.46224
-13.56 83.8285 11.0713
-23.7209 83.8202 2.56876
0.711636 104.767 11.6552
2.6622 116.949 17.2938
-20.0215 124.161 -1.75932
-21.8312 114.812 13.7904
9.92982 139.661 -4.13971
15.267 119.575 9.2614
-24.1336 107.752 -1.26065
-27.6488 104.503 3.33472
-2.43617 79.9136 -2.19598
-22.2692 116.14 -3.59895
-0.774381 119.615 11.2337
-25.1389 92.5448 13.1172
6.60168 112.19 -1.96227
-3.62108 124.709 -1.46005
-9.96634 91.6279 -0.717205
5.12101 88.1298 14.11
-2.4192 85.8012 20.9876
-21.5452 100.851 15.2385
20.5098 137.094 6.42779
-22.4548 124.187 1.5945
8.28086 119.27 16.9966
11.5862 127.348 3.08469
-29.7094 90.6441 2.94816
20.2467 142.557 4.06854
-27.5099 125.715 1.357
-17.6075 76.4278 3.39914
-18.8163 114.138 16.2333
-0.693737 109.491 9.04781
-12.153 129.38 -3.6341
20.0029 126.216 8.0773
6.39114 126.526 13.0868
7.77499 125.596 3.96699
-2.43315 124.199 -2.10554
-18.5497 128.038 -2.98043
-21.1784 103.255 16.2167
3.4058 140.579 6.73223
-24.6034 100.74 -0.965044
14.2693 119.162 5.66657
12.9389 129.996 8.82128
-31.0785 80.4773 7.17719
-21.6507 96.445 13.9146
12.5416 135.962 9.43477
3.64678 89.6162 0.485369
2.02598 85.1607 0.881396
8.54773 97.1209 14.1511
8.76694 124.691 -3.4373
-19.0874 82.6105 12.8791
-6.40707 95.1374 17.308
-9.30912 131.228 8.8335
-3.50322 110.596 13.5122
7.9727 130.723 7.31367
-17.5267 100.421 18.0347
16.4566 120.535 -0.562922
-13.4132 96.21 -0.933189
-0.14607 117.251 8.61964
10.4563 113.895 16.8469
-24.4193 123.162 -0.184652
-15.2273 123.302 -2.63836
5.10095 121.308 11.6906
7.20974 123.13 16.3085
-24.5527 86.4185 1.61687
12.093 127.221 0.878484
-13.5375 89.0681 -0.830654
-6.64152 123.352 -0.158832
3.91719 136.107 6.05108
6.62795 127.166 10.546
11.0968 126.81 8.07708
2.47235 109.939 11.2629
5.01834 97.9248 -1.57755
6.45623 123.191 9.41871
3.43938 96.7277 -3.14291
-30.856 124.791 0.904714
9.75947 119.48 0.555212
-1.45302 122.016 12.604
-10.7789 134.052 6.01411
-23.7128 114.486 7.08334
7.702 102.629 20.0188
-30.2149 88.89 7.18693
11.864 111.781 10.0659
9.47546 121.745 0.770746
-4.75542 84.5983 7.4095
2.71755 109.745 12.5105
-12.633 102.697 -2.54561
3.53351 135.908 6.74788
-22.0158 106.787 15.6608
9.02565 131.15 1.23583
-26.7709 103.501 -0.22861
0.614398 135.702 8.81614
3.51828 82.7507 3.13299
0.794299 133.428 9.42207
14.5907 123.698 10.736
-25.2322 126.914 4.78357
11.8876 124.327 12.0644
20.839 138.44 5.40309
10.8231 117.934 10.5742
-24.5524 125.778 3.44143
-4.00789 87.4599 15.1686
-20.5061 99.9 -1.59765
-18.2942 122.285 14.8087
-15.7002 127.926 12.6886
-4.07573 96.7899 12.8473
-8.77608 110.125 -2.81786
-1.23001 116.659 10.5937
8.68095 125.727 13.6124
5.91102 124.118 11.0189
-28.764 86.4762 3.34161
8.11118 126.844 5.53233
8.97858 101.872 8.75059
7.04902 121.311 16.9686
-25.4103 87.9424 14.6774
7.74509 104.505 0.534889
-4.03497 87.4692 8.82173
2.76105 115.641 8.21313
9.39476 118.54 1.70238
9.65125 126.672 -0.0938678
1.09092 91.2464 -3.53151
-1.02521 84.0965 27.5387
0.757737 121.209 -1.35206
-19.0741 95.5426 -1.15154
-3.40558 79.4605 -2.04185
2.98921 113.8 20.068
-12.5451 109.452 15.3435
9.88782 107.408 15.8597
9.67881 115.691 12.9373
-12.283 111 -2.63253
-32.7405 126.949 7.03343
7.39435 134.197 8.36775
-16.1174 129.087 -4.50402
-31.73 123.928 10.3309
9.80383 108.287 2.30598
7.97652 102.77 0.930654
19.5028 139.929 6.35102
-27.8758 87.5465 2.59807
-13.2414 110.488 -3.06898
-26.5503 106.302 4.64337
12.9849 127.338 1.05957
-19.465 124.891 -4.12597
2.03407 112.628 19.5098
-4.01302 88.8109 11.2685
-24.601 114.978 -2.21938
5.48098 89.5835 5.04285
-15.1971 105.872 16.4173
2.69358 101.053 24.2368
0.0234394 119.182 -2.46786
4.52916 85.1681 12.4562
-1.92892 90.7092 21.4244
10.7864 109.533 4.35695
6.34612 127.249 -2.49164
22.1135 132.305 5.64575
2.20362 110.535 20.9651
-26.6652 99.8106 10.6927
8.87401 119.116 16.7073
0.547395 134.245 9.59241
-21.4248 107.205 -2.22596
-0.771285 85.6813 -3.44794
6.73759 126.012 7.33207
-20.372 128.973 0.756789
8.0354 97.756 19.5335
8.43356 99.0286 4.6995
-26.1364 111.966 -0.578173
-0.911614 91.2133 22.4204
-14.5087 128.851 11.0017
11.4487 126.344 10.6646
-0.343614 102.397 14.147
6.68896 90.7651 9.76226
1.50533 85.108 0.121944
4.39941 123.401 6.49434
-9.65081 85.7027 11.1281
-25.1116 127.927 9.86129
0.821027 128.386 1.0021
18.0858 135.246 0.535802
-7.87944 93.1424 -1.23642
-6.06256 125.927 11.4034
3.07167 119.565 15.4416
-10.2311 105.974 -4.12074
10.5003 130.905 -2.20677
8.61688 122.636 13.9438
23.0982 125.145 6.37308
-0.965217 128.232 11.477
-9.17252 121.29 -0.11956
-27.5654 125.003 7.57151
7.90727 95.1771 5.96442
-0.678965 93.3165 21.8186
-18.0877 112.285 16.4373
3.1064 117.512 7.76534
-18.0006 85.2705 13.9422
-0.688642 84.4734 27.4847
10.6452 107.907 2.91415
-7.55454 100.533 -3.2423
-4.54681 86.1703 7.2141
-30.8646 80.1714 7.66236
-11.8493 85.7965 -0.837332
9.25054 104.938 16.6715
8.16155 107.596 19.7717
-9.17987 96.5087 12.331
-24.3603 117.669 -2.33986
1.81647 131.158 9.28195
-22.6063 121.823 10.3631
-7.42199 92.9761 11.4084
12.3959 122.657 9.15128
-14.3539 82.6414 0.381088
-25.9556 81.3873 14.4159
-9.15536 105.195 16.129
-13.5536 96.5248 17.7649
-2.36553 85.1516 26.7045
7.64082 135.534 7.60302
7.03001 103.147 0.193728
-20.6739 85.5638 16.6004
10.2124 121.052 11.9287
-10.8166 117.314 -0.811973
3.88944 91.5048 -0.297364
-19.7707 123.058 -3.64581
3.98079 120.569 13.4784
7.25721 91.5284 6.48831
12.6444 120.741 8.83678
-15.2996 80.8659 10.4243
-7.35037 99.6214 11.4319
-18.5364 87.5466 16.625
-7.32887 113.381 -2.91435
9.72479 119.924 14.4883
-29.1975 92.317 2.884
-14.3225 105.731 -3.76337
-23.6418 108.738 -1.87058
-1.11053 121.018 12.3446
19.6615 135.609 2.20807
6.9487 137.418 -3.56088
-20.061 83.4803 14.1688
9.06529 126.615 0.244257
-22.8102 99.9955 -1.09477
-13.0905 90.6421 15.2985
-7.09488 106.707 -4.41912
-4.0119 116.934 14.4166
-25.9618 79.8826 3.319
-1.15341 77.7956 -1.35778
-2.68731 91.2459 19.4338
9.43011 122.353 1.73773
-26.8257 109.942 1.04167
-6.21071 102.294 12.8216
1.77132 88.8189 25.4423
9.00194 103.231 9.31461
-14.8108 85.4845 -0.685533
3.02591 79.7807 18.5248
-13.9771 122.657 -2.08756
7.11379 132.474 -2.5102
-2.58602 91.5759 19.7116
12.0292 135.171 -2.24307
-8.18114 89.2035 -1.20321
-25.9201 87.7918 2.32738
-25.9005 84.6198 2.40336
5.53909 127.561 5.18414
3.55072 112.556 11.6915
-0.418696 100.174 21.9353
4.2588 107.918 22.2294
19.4153 140.119 6.30048
1.44534 105.939 13.5203
-22.5621 131.294 10.265
9.89 138.775 5.05194
-7.08006 76.8717 -0.431034
-23.6202 78.6288 2.87513
-1.58371 114.235 10.0199
-17.0692 102.936 17.8612
1.36894 123.239 8.77568
-14.5519 98.6124 18.3314
-16.4088 107.793 16.5505
-24.1115 125.212 6.622
15.8262 130.211 0.897262
2.10031 102.129 23.7344
-21.8749 117.771 -3.93103
15.6553 124.282 10.8238
-7.05697 81.9512 -1.76558
19.8783 142.82 4.36229
0.714635 85.1572 27.308
-22.4754 113.593 13.3528
7.59202 128.4 8.31664
-11.3992 112.356 -1.99495
8.14138 119.984 -2.04881
-11.5911 120.377 -0.949342
-5.35507 74.7628 -0.524485
8.41067 96.7867 14.0066
-22.4719 123.448 0.527952
-27.1653 99.6178 7.39787
-0.351769 79.4073 -2.18786
-10.8204 79.8557 -0.712287
2.42621 120.59 6.92289
3.15818 118.523 15.5199
-21.9676 113.882 14.525
-11.9722 104.796 -3.89401
-21.1588 98.904 -1.23475
-15.5305 111.893 15.9071
-25.9587 125.082 7.12107
9.65958 108.266 11.8629
-27.7276 76.732 4.16128
11.8774 122.87 9.24339
-23.1343 129.571 9.45492
2.01749 99.742 -4.4033
-8.88273 89.9312 -1.00372
-27.9113 82.9752 13.0287
-23.3829 123.208 1.78632
5.90841 121.857 8.85402
-15.9454 97.4912 -1.3109
9.08303 110.845 18.681
4.53867 122.088 7.01266
-8.1713 115.793 15.2506
-18.2233 86.6664 15.5315
12.7976 136.589 -0.971599
3.68141 88.6507 1.35755
-9.64809 95.5297 12.1654
6.10283 122.198 10.4214
2.95773 82.0794 19.9256
7.68972 139.454 3.78878
3.39853 134.11 6.86299
1.95691 125.875 0.785889
-21.4589 103.388 -2.65507
3.67589 86.0419 24.1351
0.661805 101.727 22.2926
-30.9079 86.4089 8.50079
-27.2606 98.9722 6.37636
-2.92916 119.246 13.6967
8.97749 101.144 10.6559
-22.3262 124.017 1.97762
-7.60208 116.651 -1.48381
-14.5208 115.386 15.4859
-26.2286 89.0256 14.2468
10.6455 122.154 7.14489
-20.1001 96.3675 -1.57027
1.69855 77.4487 16.3136
12.8225 117.952 4.07104
-28.8326 78.3028 12.2964
-20.598 100.305 16.0406
2.45734 117.308 -2.0972
-3.97286 83.1919 23.7944
-22.4534 79.3347 2.92197
-17.4291 79.923 1.37958
-8.78099 91.4331 12.2448
20.0928 140.073 3.19491
-25.5612 117.192 0.962128
-0.783101 117.136 9.43101
7.51352 117.736 -0.0398764
-19.4322 99.4408 -1.82498
-13.9785 91.7091 17.0277
-3.01421 89.4165 19.4078
-1.79024 81.7294 27.3587
-6.66385 126.141 11.7558
-11.6146 119.762 -1.10008
18.5641 136.114 8.44232
-22.5179 125.279 2.39321
-6.93755 108.038 -4.53665
2.40006 79.4574 1.70567
-17.2354 112.161 16.362
-25.6115 96.2115 11.9822
5.34628 87.5897 16.829
-10.5919 105.172 -4.4452
9.04609 116.495 4.27048
-0.875965 118.696 -2.69905
2.92016 107.404 -3.39996
-9.60769 97.1819 -1.18273
10.8121 128.614 11.2541
-30.0545 124.691 1.1263
1.93868 117.186 7.53268
10.8913 108.138 3.80313
-20.0233 126.008 -3.27275
-5.50114 131.804 9.94364
0.449965 106.214 19.9338
-3.6775 86.075 -2.89734
-20.6129 95.6892 -1.49382
-4.64816 120.919 14.2142
-18.8282 118.908 15.4662
20.3536 122.483 9.40278
15.554 130.396 11.2291
0.575818 110.613 8.90373
4.90576 104.633 -1.7137
-9.5761 95.803 12.3564
-26.8193 109.975 1.98627
-3.15877 123.532 -1.91065
-10.1513 75.2184 1.30242
-2.08441 126.512 -1.27341
9.82962 115.013 17.4591
-22.7499 125.381 2.8473
9.34322 116.086 4.01156
2.2464 114.318 -2.60637
9.27206 128.783 6.42026
-26.1049 125.086 5.29091
0.256346 118.099 -2.8407
3.16103 122.907 0.478354
10.7459 117.761 6.50402
-17.9743 131.541 7.73113
-26.663 89.0229 2.68683
5.41534 120.214 -0.872755
-24.0978 97.8826 13.0001
-13.0957 93.4543 17.1584
-27.1948 80.1561 12.793
9.963 125.893 8.12508
12.4006 132.615 -2.19579
-14.1989 96.266 18.2956
-3.23858 92.4196 17.2068
9.73245 116.292 9.3017
-28.3447 87.3411 12.7418
-1.28658 132.029 10.5947
10.8247 128.062 1.57622
9.66033 107.97 11.5424
-22.2273 126.904 0.158424
-6.7587 82.3051 -1.86815
-16.5774 109.845 -2.91258
0.874637 108.421 9.56625
22.4583 128.951 5.12923
-22.4801 121.615 10.4682
0.286418 114.745 8.40917
9.0099 123.348 -0.141341
-23.4822 125.164 1.71352
-2.19568 102.644 19.7733
1.78929 107.497 12.2056
3.16346 119.293 16.1542
-21.6141 101.978 15.7432
7.5076 107.641 20.1443
-26.2602 100.234 11.9475
-23.6274 122.542 -0.622848
-22.0745 122.867 -1.55366
-30.6 79.8865 4.48262
-4.60827 122.194 13.4371
11.415 138.561 -2.99695
-2.47369 83.2093 -2.60404
-11.0323 121.367 -0.767375
-18.4416 111.215 16.6268
-27.8315 91.7802 12.5722
-24.6085 110.452 9.98844
19.5441 142.742 4.67033
-24.9781 99.5225 12.6555
-28.8713 92.3687 7.52568
-2.1194 111.857 -4.71039
3.94614 85.5047 3.9746
12.2806 137.528 1.37165
16.3909 139.327 0.53351
-25.674 107.519 8.89012
-15.8625 111.836 16.0193
-9.99487 124.134 -0.972858
6.90808 114.522 18.5438
-9.4584 131.689 8.59751
12.2443 125.527 8.60003
-4.97594 101.931 -3.90216
-15.4667 119.396 -3.54117
-17.2025 83.1531 12.3728
-23.2327 90.9926 1.20013
3.26503 80.6925 4.09815
-21.0113 82.5258 14.8392
-0.156129 117.619 -2.81792
-27.6405 104.796 2.97623
6.66456 101.199 21.8988
-3.77621 121.873 13.8844
11.6816 132.094 0.286582
4.06192 122.406 15.869
-5.93777 115.312 15.2261
7.96559 134.811 9.51561
-23.2733 123.625 1.96078
12.712 120.658 8.89394
-2.33276 124.37 -2.13917
8.81704 128.002 4.86195
-8.43568 93.68 11.3139
-19.6813 80.7895 1.81037
-26.5395 110.056 2.34716
3.09112 80.4192 16.9208
-5.49413 112.57 -3.94147
9.75132 137.916 4.69094
-21.1951 117.392 11.4207
-6.98621 82.7852 8.13531
-19.4519 110.83 -3.25385
-2.70602 83.8371 21.7913
-5.53828 110.468 14.8755
-24.0796 94.845 13.308
-7.55591 76.5811 -0.0214109
-4.51004 133.531 0.940443
2.02988 106.801 14.7145
9.49001 115.796 10.6972
-19.9226 122.047 13.9474
-17.3988 88.2297 -0.535224
-5.50817 105.26 -4.48549
10.5969 106.95 4.3017
-24.8856 120.444 3.45579
-8.25558 90.573 11.035
-25.147 80.5361 3.14926
12.8553 140.171 8.66191
-26.9963 87.3129 2.39995
7.10668 131.023 5.25219
16.6231 135.356 -0.109681
-16.1925 92.4238 -0.957486
-2.21711 84.3582 18.5692
10.2264 129.644 2.55099
9.77735 122.279 -0.737496
10.8598 129.81 5.42492
-10.4821 94.9987 13.1303
7.47724 129.373 -3.30631
10.1325 129.406 11.3098
9.13144 115.614 8.8034
-19.1142 82.9858 1.06295
17.1706 135.2 8.82938
-0.13997 83.6853 -2.68153
-14.4702 115.061 -2.89518
-20.6543 108.493 -2.54667
2.61265 125.936 7.57364
16.4771 125.513 1.77708
10.693 130.611 -0.784936
9.31474 106.548 17.8747
-29.8472 90.5679 7.2933
9.84692 119.843 1.20273
-26.6011 126.817 8.69563
11.3272 123.03 12.1695
-22.732 124.535 0.90508
9.13074 139.068 7.54614
-9.33247 125.103 -0.435421
-25.1798 119.205 5.50987
-0.138686 105.663 10.2376
-12.2529 106.291 15.9109
18.9214 141.457 6.09083
-3.33939 107.089 12.5195
2.69186 130.896 -0.245748
20.6909 140.371 5.08531
-2.24816 85.504 22.1929
-2.53873 109.941 10.8231
11.0871 131.173 -2.06276
9.02957 102.556 8.30079
-17.6847 82.8537 12.2804
12.882 124.361 9.11263
-22.8637 97.859 13.0064
17.8792 120.83 8.93549
-24.8869 124.571 6.11306
9.43037 135.329 9.95714
4.84941 118.152 -1.59892
-1.29959 121.19 12.4849
10.5406 121.851 -2.40672
-22.7964 108.63 13.8526
6.65845 133.281 -2.39594
15.0252 126.567 1.73628
2.0253 77.5413 4.82052
-17.5244 86.6402 15.0255
9.31409 105.321 10.1005
-5.44544 93.3797 17.2475
-24.9748 80.5618 3.09771
4.65045 115.008 -3.07492
-25.8919 126.916 8.68066
-7.06914 98.779 11.0521
12.5787 131.362 -0.398735
1.79953 131.154 9.29144
-16.1656 112.937 -3.41501
2.22015 110.156 18.9488
-9.87723 133.418 6.79862
21.631 127.104 5.99037
3.74126 83.7015 13.4995
-8.19198 87.9673 -1.23798
5.82576 123.024 16.4031
9.67786 122.707 -1.55927
-2.87059 78.4239 -1.76053
-1.50396 89.668 22.9995
7.58062 93.8087 16.4393
-28.2019 96.5183 6.43548
-13.7016 124.134 -2.15774
-10.7637 95.425 14.187
2.63435 109.114 13.0372
-3.99765 82.0484 21.2934
1.98955 103.311 -4.60209
6.29753 115.934 18.3014
-6.69289 89.3519 9.56662
20.0052 135.269 3.73863
0.621875 83.4522 27.485
9.29048 116.524 -0.932709
7.9499 128.34 4.76117
-7.31505 87.5081 9.74213
4.63393 90.5885 2.23797
-28.3792 81.8987 13.7377
-28.8932 82.7611 13.1103
-11.1286 97.5588 16.0249
12.7961 124.59 -1.24164
5.35504 123.773 -2.42413
-22.4445 108.268 15.0668
12.9581 128.042 9.48013
-12.5518 96.6657 15.9991
-18.4229 115.365 -4.20621
-7.70057 94.2607 14.731
-1.04143 124.164 -1.66291
-11.404 115.96 14.9553
-11.7671 85.2514 -0.692134
-9.14871 94.8786 -1.11117
9.82703 105.383 13.0512
8.73228 119.685 1.91237
-22.6287 124.105 0.375527
-23.0149 128.957 9.00027
17.4233 132.642 9.63667
10.7239 109.271 8.01507
7.60564 126.664 -2.97044
10.5923 116.585 8.78463
7.04494 92.5489 13.6854
-3.455 117.317 -3.81517
0.718043 106.691 10.1144
-13.903 107.716 -2.89441
-26.9407 126.17 6.22497
3.62734 107.318 22.6792
-14.0718 100.571 18.0452
-25.3049 115.205 -1.54878
-25.6399 93.58 0.951159
-0.523924 96.1472 23.0265
11.7761 121.035 8.43778
8.88241 128.109 5.05829
2.25937 109.987 -3.16865
-6.05593 104.711 14.7538
4.98671 140.699 4.6505
13.106 123.263 10.12
-2.5836 132.404 10.4578
-27.4882 126.052 7.72638
10.558 117.259 6.55599
-5.44446 98.9376 16.3868
-20.8482 125.701 0.590925
16.5158 130.27 10.6847
5.83714 113.845 -2.13014
9.16386 104.821 9.73047
11.5305 122.616 8.6341
9.91474 140.898 4.33594
-10.1978 107.477 -3.24325
7.60985 123.236 16.1816
-5.52036 123.045 12.793
-3.38646 84.1069 23.2946
-12.0615 106.609 15.7581
-15.5561 109.956 16.0027
-23.1001 108.584 13.2193
3.96789 115.121 19.7153
-19.8694 132.241 8.37911
-22.088 88.6053 16.1593
2.39259 116.372 7.78125
16.3699 129.281 11.2307
9.27691 117.51 -0.788804
8.96274 121.089 15.2093
-25.9526 111.017 3.49567
-25.869 108.231 7.5972
-29.9569 90.4838 5.92761
-13.3671 78.4526 0.791491
2.26818 117.175 -2.20067
-1.78127 110.928 -4.71381
-2.4936 107.411 9.71938
-13.8089 101.214 -1.87652
14.3625 138.856 8.82355
-13.4626 129.973 9.5677
-8.52558 99.263 12.6034
0.944966 75.3994 -0.412218
1.31698 102.658 23.2485
-13.2229 97.7387 18.3477
-2.76692 86.1528 -3.16892
-23.8306 125.192 -1.65605
6.79737 109.864 20.3844
-1.87703 130.652 0.194468
3.63784 86.9121 3.41649
6.35302 101.614 22.3634
8.02507 125.061 14.9726
6.94633 126.509 9.62105
-26.4175 101.173 10.8835
-9.58593 93.1985 11.3912
2.9951 87.0341 1.17539
9.79785 115.573 0.874938
4.65381 116.152 12.7535
-24.3882 123.691 3.50474
-10.7192 104.328 -3.98142
-19.4906 127.097 11.5474
5.0484 117.877 18.0156
-24.4118 80.7377 3.07794
-33.9815 124.025 8.66514
9.13392 115.504 10.0624
3.1228 82.1567 2.14391
-23.3296 80.8284 12.7285
10.2711 128.913 -1.28147
-27.1404 127.308 9.82953
7.44002 134.495 8.18946
-17.5486 104.717 -2.46155
-2.71544 82.4454 -2.61888
-26.3378 92.7267 1.79161
10.9346 110.448 13.4645
-21.6055 94.4424 -1.28429
-23.2916 120.193 8.32357
-22.1974 123.636 1.16541
19.4661 131.092 9.11035
-26.8062 100.602 8.42485
4.36621 85.6358 4.69655
3.1937 133.264 -0.60966
-4.13208 88.4208 15.8116
9.87647 105.055 13.5853
-25.9978 108.639 -0.348703
-23.3343 116.632 -3.2294
17.7242 136.04 8.50405
-14.5208 81.3049 9.81005
4.97438 108.78 21.5951
7.29145 92.6759 8.43412
8.76671 99.5132 17.6457
-8.6234 110.126 15.5951
-2.51576 93.1318 18.7319
-6.78326 125.088 12.0498
2.41418 118.399 -1.21987
-24.4141 108.958 10.5928
-7.70742 130.881 9.42719
-8.12286 132.999 -1.76196
-27.7991 125.473 0.753993
23.269 126.794 4.12601
-6.14821 124.872 -0.317141
-24.3702 114.592 -2.39594
13.4965 124.488 -1.25
2.36958 107.793 14.5108
9.58101 121.014 -0.400212
-4.9493 133.294 8.85716
-10.9325 133.612 6.54518
1.8614 111.367 19.0297
-7.61405 87.6944 10.3665
-25.187 108.97 9.35782
-25.7712 127.406 9.90618
18.1764 128.142 2.09847
-22.8191 97.9817 -0.895336
-18.1345 93.2595 16.1599
-22.8155 76.9812 3.28922
1.017 89.525 -3.33872
-21.4382 125.76 -1.11461
0.770844 108.245 17.9076
-4.28494 102.826 11.573
-22.9279 92.8705 13.6691
6.02649 89.1217 20.6915
-21.7765 118.398 9.08906
-12.758 100.239 18.007
3.58083 91.1143 -0.58932
5.53802 108.761 21.6185
3.28793 119.549 -0.195844
-5.41356 79.2135 -1.90223
-21.1063 115.052 15.1694
-4.66284 104.126 10.9672
-0.029649 119.175 8.85387
-10.8092 131.214 -3.88853
-21.9514 121.786 -2.61446
11.2112 110.552 11.4151
-7.81375 120.069 -0.552807
-7.58143 95.8984 13.4441
-24.3594 125.395 6.98583
-12.6014 126.773 12.9611
-27.3261 124.395 -0.880635
-27.2771 123.568 5.60425
-28.2486 87.8497 13.039
-4.70152 85.0906 8.61679
6.3524 126.94 6.15803
10.0933 112.839 17.4493
17.0789 127.024 11.6622
7.99891 119.304 -1.92269
-1.35338 89.5832 23.3571
-8.09905 131.336 -1.40181
4.88255 83.9883 9.30856
9.26083 99.4572 12.3813
-1.56195 97.6497 21.3307
8.92247 127.981 10.9975
-22.8162 123.228 1.35292
14.3452 123.286 -1.69609
-15.676 96.3797 18.5781
-16.9022 88.943 16.9563
10.737 127.263 2.73017
-10.344 125.378 -1.35454
12.1896 119.695 8.07476
5.42099 103.086 -1.55589
-7.63853 131.326 -1.02406
-23.017 123.207 9.7443
10.3177 122.777 2.99822
-24.0623 120.429 0.610359
1.74881 126.363 0.740885
16.7329 128.308 1.45441
-8.75152 92.6646 11.6682
-6.97857 126.694 0.261526
-29.9246 90.683 5.91544
-9.05123 91.6619 13.3444
9.95941 113.361 17.6049
-21.6072 89.2377 0.533479
-20.4558 123.628 12.305
-27.7952 97.034 5.72801
2.35867 78.3549 17.2445
-12.6511 125.883 12.9274
-3.70095 112.821 -4.38821
1.24694 131.589 0.701896
-7.27168 91.6577 14.7842
2.51921 119.985 7.01988
1.14491 103.039 23.1175
-28.4421 79.8639 13.5397
9.28185 105.42 9.47232
-8.7931 107.986 15.4801
-8.7894 118.904 -0.513167
7.27596 131.448 5.18549
6.31917 121.79 16.8672
-9.84037 132.401 8.04803
20.7062 127.849 7.03865
-24.5495 88.6517 15.1712
-10.9472 126.496 -1.9672
6.63838 91.7149 20.3282
-18.7592 131.139 8.10701
11.9107 123.815 9.16638
11.2782 123.279 4.82357
10.9018 132.759 0.962781
11.6901 110.955 8.2946
-17.9237 80.5029 1.21542
-22.7436 123.904 1.93598
-6.7978 127.634 0.316281
8.42177 119.269 16.9116
-1.09309 88.1477 24.4112
-24.4786 107.212 9.92618
-7.63433 93.2261 13.0833
-11.6111 98.5351 17.5942
11.4774 111.901 13.2949
-8.10013 102.175 14.7835
-24.6774 80.9007 12.3644
4.70675 99.6639 -2.39953
1.40832 127.843 9.90948
0.135557 114.85 -2.47735
-17.7064 122.813 14.7964
-9.89481 90.4769 -0.959332
-17.1847 106.299 -3.029
-5.30367 99.069 17.8784
4.20027 120.258 -0.0116993
-31.4933 123.155 10.0516
-6.07885 106.416 -4.26172
-4.66382 85.8748 -2.60612
9.49622 127.424 -0.734422
-7.12289 76.439 -0.183553
16.4817 130.121 10.7743
2.93948 112.293 16.219
-0.414147 127.679 11.2288
-25.5938 124.047 1.33735
6.22714 108.469 21.324
11.4309 117.736 8.33223
8.16357 98.605 19.4047
2.60218 125.058 0.593708
-13.7078 126.135 12.8933
18.5549 141.679 6.55521
10.8243 127.465 7.78651
-8.30567 88.6918 10.1504
12.5295 120.671 9.92063
-24.0232 122.286 8.57088
-22.553 87.8633 16.2122
9.30298 99.3214 8.15545
-30.3002 77.2791 7.00832
-18.6889 118.854 -3.70598
-20.0828 77.0758 3.25659
-3.06497 134.646 8.31629
-10.202 80.1385 -0.984025
-17.1983 80.5785 11.4572
-26.4251 117.973 2.95194
2.91543 102.508 -4.28916
4.69979 133.67 5.50929
-8.98983 99.6415 13.9172
11.099 110.676 2.29545
-6.68754 131.049 9.5815
-7.08346 111.605 -3.79949
5.5432 103.449 -1.18783
14.9185 120.184 9.51857
-25.9625 129.498 10.1217
-2.39946 111.287 11.7739
-8.77199 97.0596 -1.3655
0.603222 86.8034 -2.32979
9.93995 133.364 -4.30045
-4.68006 91.792 16.6046
2.05475 123.443 7.56949
2.33528 115.389 18.2652
-7.23248 133.899 7.86623
-9.23735 96.6738 12.7486
16.7023 138.188 0.530388
-3.85575 112.649 14.0171
6.60968 109.613 -1.27174
-27.2903 98.7719 5.71299
6.12712 106.486 21.8128
-22.7793 113.566 10.3368
9.44481 123.014 -2.64429
-13.2311 112.534 -2.85092
-3.36341 81.4736 -2.5906
4.4716 82.0764 6.43917
-18.9483 92.5658 15.409
-2.64699 91.7919 19.2505
10.2498 109.095 11.6885
22.7646 121.24 3.44462
7.63678 132.21 8.71409
-11.0699 89.0127 14.0784
-16.1627 84.8086 -0.275054
19.7235 129.801 8.49388
-12.8616 89.8012 15.8331
9.60696 125.053 13.2099
3.27607 116.44 18.6734
10.7612 107.511 3.04482
-12.8519 87.5214 14.5456
-22.8685 124.794 1.69578
6.32772 90.025 10.4758
2.07235 108.038 16.522
4.72761 119.636 12.6141
2.07414 86.6862 -0.114075
4.10939 110.09 -3.01172
0.528146 90.131 26.5549
9.26289 101.876 16.4999
-25.7014 97.8847 11.9358
5.13932 89.9508 23.4066
-6.68168 99.0998 -2.37459
-0.73831 103.941 -4.45399
8.17259 129.24 2.36822
-4.35297 129.252 0.025927
-27.3529 102.576 -0.0676106
9.14372 100.51 14.8921
7.325 104.265 21.5558
-29.2985 81.6733 12.5624
17.7394 134.758 8.95431
6.1609 104.358 22.5501
-21.5327 116.241 11.8988
-9.40287 122.972 13.9933
-13.274 96.1186 -0.945657
6.0793 117.172 17.8524
-7.91405 122.998 13.2118
2.54022 121.354 0.0923855
-15.2652 99.0062 -1.9078
-12.4187 89.1655 -0.721102
-24.6294 122.363 3.5084
2.49843 118.042 -1.55682
-1.81171 123.39 12.5819
4.32922 94.0382 24.9561
-13.8394 110.425 15.6148
-0.411978 125.277 11.5391
18.5493 143.964 2.16844
9.33071 102.379 3.17767
4.92259 123.578 -2.17326
-20.2353 98.0523 15.7451
-19.2155 98.635 -1.79701
7.09947 134.649 3.9813
-0.397914 92.3202 -3.81395
-25.0771 107.201 9.34711
-21.1856 81.7086 14.9602
-5.76475 90.5985 13.9629
-18.9003 96.2099 15.7629
-21.6043 128.691 9.36521
2.97618 95.9135 25.7575
7.69794 94.5982 14.0673
-27.3295 106.587 1.02439
-13.0886 104.937 -3.74171
-8.29835 116.31 15.2472
-9.93548 92.2255 12.9477
10.1278 127.3 -2.95419
-14.3728 118.727 15.3285
-23.9376 93.6266 13.1604
9.94025 140.735 8.30018
-24.8947 109.434 9.93604
-26.4114 82.2282 13.9517
-18.2858 83.6762 13.0553
7.97235 95.4425 15.2227
-22.3345 86.2551 1.32225
4.20402 133.674 5.69573
-23.4268 107.708 -2.41331
-5.75763 114.894 15.2293
3.93539 121.595 13.3672
-23.0758 92.1586 0.224946
7.94338 96.3027 18.816
7.75169 95.0043 17.739
6.57051 92.2417 11.3279
-29.788 122.381 8.63265
-24.77 110.523 8.89573
-14.9997 76.8098 2.47797
-9.17869 89.456 10.2658
4.67111 93.7978 -0.0282717
-1.20976 117.592 11.3291
-2.89087 86.0288 20.3456
-28.7986 95.7079 1.66166
12.0347 133.575 10.098
4.38364 95.854 -1.20039
16.7219 135.875 0.0697373
1.01526 80.5306 -1.16076
-24.5571 105.95 -0.916681
-7.17267 78.9192 -1.50413
4.29126 114.648 12.0411
12.2978 128.733 1.6543
2.09709 128.774 9.29162
19.9436 140.348 5.69908
6.91532 104.259 21.9614
-26.2997 78.6912 2.89944
17.1089 123.058 9.82578
-25.9235 76.8135 4.16547
-9.24887 97.349 13.5192
20.8208 132.571 4.15255
10.8448 110.152 5.98136
8.69325 115.505 6.24705
3.52874 140.085 6.93749
-26.9907 100.186 5.35089
2.24867 107.461 14.5187
-4.28266 99.893 19.2735
13.555 127.336 8.24771
6.08576 111.62 20.4032
6.3714 90.7598 20.5278
-19.8286 113.002 -4.12297
-25.6537 125.387 7.33389
-26.2031 127.718 9.27946
9.05397 101.43 8.41543
-25.0189 125.998 3.8446
8.42797 96.5098 6.03793
5.17153 127.719 5.17055
-12.5456 96.2342 15.7073
-20.7652 89.0755 16.5691
12.529 131.479 -0.509918
-3.10359 94.6288 -3.01375
-13.1096 92.0754 -0.904975
14.1259 143.043 7.54206
2.72901 90.676 -1.53787
11.5817 133.304 10.3194
-15.1998 96.4314 -0.921932
4.7354 128.153 -1.95042
-26.0047 80.5387 12.218
-9.71578 106.736 16.019
-5.69658 100.088 10.7458
-26.6832 105.695 -0.129151
9.82977 130.191 11.2
-13.8085 128.915 -5.17734
-17.2701 88.986 17.2543
-11.8005 124.87 -2.07337
-0.978279 133.769 10.0877
11.2709 114.467 0.985875
22.0385 127.69 5.4391
-6.02401 106.173 14.9751
9.32674 122.757 -0.0290889
-9.74228 89.0495 11.0328
-28.6001 94.0702 7.56056
0.664611 120.111 -2.14596
3.67485 83.334 15.9223
5.68434 111.349 -2.65666
6.20595 91.012 12.1755
-2.34735 113.353 -4.46431
-3.26295 116.085 13.8019
-20.649 108.396 -2.50947
-2.73016 135.752 7.9109
0.866991 131.041 0.724104
3.73645 112.661 13.9215
-24.3954 125.225 6.3562
2.68249 116.827 17.9614
3.47666 120.506 14.4293
-0.840274 89.4364 25.0214
6.92506 90.7888 8.45435
6.91873 103.969 22.1047
-2.86164 112.201 13.0631
-4.25302 85.1999 9.82687
8.36652 96.7978 17.4859
1.18504 76.4406 0.546407
-23.2331 120.664 -1.2043
-13.4457 75.2235 2.49689
-8.73018 121.885 13.9876
16.9407 125.393 1.82133
2.3022 110.029 18.5895
11.1013 121.474 6.07839
7.16404 94.1973 18.8996
8.45588 110.514 19.1611
-32.4817 126.045 6.89369
3.58667 83.7949 17.2003
-29.8361 91.115 6.15224
19.0527 139.848 1.979
9.21214 115.356 -0.0675617
20.1946 136.809 4.23296
-25.7691 123.706 -0.91416
-20.892 117.96 11.4512
-6.19303 89.0229 -1.97626
-3.37237 84.555 11.474
10.8696 132.348 10.3244
-14.1632 92.4235 -1.02808
-11.4617 91.1353 -0.69756
-6.13878 103.354 -4.55942
-28.7984 97.1582 2.34932
-9.36491 91.7433 -0.767691
-2.67492 83.7264 19.2764
4.13214 99.3692 -3.12829
21.5084 132.243 4.34561
9.30255 131.558 1.58948
7.9863 108.947 19.5434
-12.2786 93.4302 16.5505
10.8348 108.62 4.13709
-2.88593 124.093 -1.88879
9.86975 125.561 -2.94186
6.17489 125.107 6.80442
20.4896 126.599 2.24405
-20.5493 93.0913 -0.920089
13.7197 125.836 9.21993
7.94957 136.442 7.45591
-1.56429 135.585 8.49883
-3.06549 106.917 11.5138
-17.2755 97.1702 17.8569
8.93015 102.195 8.70549
-4.54027 127.594 11.4201
-27.5048 102.649 1.44916
8.79486 96.6282 9.16285
-13.3783 93.6118 17.3782
1.51161 76.0711 2.34221
14.7208 137.005 8.78939
8.56398 128.73 0.422008
14.5813 144.994 6.58674
5.43615 117.575 -1.03901
-6.23863 90.3762 13.272
12.7022 134.136 9.85784
-21.307 80.8728 15.1819
3.99097 83.1464 20.7175
-10.3796 78.9999 -0.28714
-2.98551 81.8853 -2.62418
1.85258 88.2966 25.6626
-10.6587 83.8729 8.72885
-15.0819 132.991 7.61726
-19.9888 103.666 -2.58157
-2.16807 86.2038 23.5333
13.9991 142.6 1.72466
5.51451 95.1714 23.3421
10.9101 116.76 8.27568
-26.8476 126.418 9.27534
-3.55579 106.696 -4.60766
2.74042 121.426 0.167994
-18.7639 125.884 12.994
-7.99629 119.967 14.9036
-23.8126 120.644 7.90104
-22.1373 127.562 0.138579
-1.60675 93.6698 20.1722
15.0824 128.043 11.147
-12.7689 124.029 13.4255
-24.8038 125.249 7.21201
2.37649 78.776 3.39116
1.82182 107.706 -3.1447
-21.6246 117.31 9.61775
-6.40173 110.933 15.1976
-24.7408 128.023 9.48718
6.45218 94.7915 21.6119
3.72737 87.0513 3.54628
-13.5275 118.964 -2.3795
-10.1196 101.916 17.1775
-14.4311 123.032 13.9749
1.86374 108.565 11.072
-19.3839 105.749 17.196
14.5798 124.52 10.9121
-12.1214 102.216 17.6712
-23.806 85.72 1.55635
-1.43876 84.0867 27.4108
1.66564 119.883 -0.713585
5.82458 132.996 4.72428
2.21946 137.183 0.181488
10.1594 126.025 8.50381
-11.6759 128.024 12.255
2.90001 102.426 23.8275
9.95586 113.795 17.614
-12.1315 96.6209 -1.16019
17.2561 128.577 11.334
-21.036 99.5547 15.3096
-18.3873 85.8385 14.5402
14.4057 127.126 11.0437
-4.4702 84.0977 8.1583
11.8637 129.898 3.9231
11.5701 125.26 4.34209
22.0113 128.499 3.03268
-8.45166 110.644 15.6763
7.0775 103.741 21.985
16.452 127.098 11.7975
-24.4018 123.629 3.36997
-27.568 105.746 2.23871
4.4855 86.5097 13.1135
-23.5507 105.359 14.4543
1.30263 111.435 -2.53945
-4.40656 111.897 -4.08272
-15.9561 90.1207 16.7564
-7.91024 80.7036 -1.61365
-28.4553 83.9905 12.4034
-3.56411 96.3936 -2.66768
20.3951 126.377 2.06819
10.0136 104.724 5.97807
-23.6239 107.323 13.246
-10.3137 86.4392 -0.799948
6.90623 134.592 4.26049
-16.8027 83.0465 0.318045
-21.9044 84.1183 16.3942
-9.94922 84.4923 8.66956
9.07607 102.877 8.30796
7.32122 99.6586 2.39142
-15.5567 130.099 9.60531
-22.8624 121.588 9.52451
-13.485 128.528 -4.39535
-27.6385 99.3664 4.12465
-18.1809 122.864 14.5274
1.78845 135.17 9.25053
-32.4468 124.73 6.75728
8.29323 96.2294 11.9809
-0.384457 102.187 11.7532
9.77139 110.795 0.49703
9.10271 127.561 -0.565565
13.5985 127.101 8.58092
-1.02449 102.398 -3.88423
-30.5378 81.4027 4.15472
12.2392 125.232 -0.738134
2.98854 95.4764 -3.09196
18.4127 133.224 1.10573
5.45626 114.766 -2.18071
6.78163 105.249 21.6006
-11.0365 93.905 -1.04471
-0.985216 91.5847 22.1601
-1.40658 89.6879 -3.68945
-3.22977 133.953 8.95927
8.28228 117.55 -0.729563
-19.8701 84.2684 15.1503
-1.58809 74.3198 -1.04196
-25.4588 109.608 6.32625
0.648746 85.3547 -1.58827
-32.0925 127.727 9.90737
17.4908 123.397 9.6043
6.96411 88.9831 7.61559
-15.2904 84.1069 12.5737
15.5698 133.921 -0.803087
4.97342 103.976 22.8329
-26.289 114.86 -0.203099
3.52526 120.399 0.391673
-4.99544 91.2691 -2.13954
-11.5119 106.435 -3.64998
4.67761 86.5612 17.3976
10.8449 112.824 16.3703
11.442 123.015 8.32958
-14.1693 125.511 -3.26656
4.32546 107.311 -2.68084
-29.598 128.061 10.4687
-18.2146 76.3612 3.54322
10.3436 125.144 -1.67313
-14.4027 128.884 10.6759
10.0516 139.756 5.5904
-23.2377 112.747 7.71703
23.0693 122.826 8.00854
-22.4467 81.6678 2.75976
-10.358 114.755 -1.12797
1.25621 109.457 9.36672
-13.4816 120.709 -1.77318
-26.5259 111.655 3.07985
-1.68746 134.598 9.11822
-18.7406 83.9268 0.881229
9.25963 100.734 4.89388
8.77945 131.41 -3.23757
6.39134 97.9482 0.813537
-28.6081 96.5528 1.39785
-1.33431 104.229 19.6892
-29.0817 77.8237 11.0893
-14.6828 129.092 -5.51575
9.66177 108.73 18.4668
17.5702 135.407 0.263424
-18.6224 84.5851 0.767276
-22.1537 93.1192 -0.786111
-7.85007 107.382 15.3698
7.42631 92.2814 6.16452
1.34513 127.127 9.9612
1.26056 89.3766 -2.894
-23.587 112.362 7.48904
-24.8742 80.6213 3.04804
-30.6184 78.0129 6.72693
9.99801 110.925 0.801894
9.49957 127.9 1.94386
0.785396 76.1237 -0.790155
6.77529 127.323 12.2155
-16.3512 131.002 8.14957
-29.1219 125.065 0.995172
-1.55998 118.919 -3.14845
9.56698 125.319 0.561085
-17.256 84.563 13.1472
-25.3608 102.887 12.1574
8.21745 131.388 -2.97051
-25.0289 114.591 -1.9013
-6.36484 78.5891 -1.59175
13.4231 135.543 9.47033
-19.8043 105.018 17.0994
-14.638 106.199 -3.42696
-3.9543 123.764 -1.38502
-7.44969 94.3513 11.0513
2.84177 114.992 17.133
-30.7288 83.7464 9.44071
9.27063 99.3811 5.71363
-22.2376 115.823 -3.62499
7.22434 129.238 9.72615
-2.02315 90.9198 -3.49018
3.53907 109.376 -3.53378
13.8643 144.168 6.9913
-26.872 110.949 1.38635
14.1048 133.461 10.1225
11.8896 140.451 -2.87609
20.5853 133.873 7.0819
0.146923 97.9787 23.4378
-8.70686 120.984 14.5088
1.84231 97.7519 25.2659
-20.6954 99.8604 -1.50794
-1.41815 108.459 9.48562
4.60961 93.0534 0.357928
-25.036 87.6787 14.7411
4.4731 87.0713 4.71437
0.963415 112.999 -2.37445
-17.4673 96.2266 17.3959
-25.1051 103.38 8.74509
-16.7109 122.973 -4.19122
-1.87495 98.0017 -3.24139
3.56917 79.6359 9.82804
13.333 126.296 9.72817
-4.81718 130.986 10.2007
-30.2433 86.6959 5.07226
6.70142 131.482 9.41511
11.0637 116.928 8.47154
9.15096 122.518 -0.0202223
14.7286 128.823 9.93397
-2.44179 82.611 27.2822
11.1531 120.751 11.3713
-4.68738 132.224 0.57477
-6.73193 113.814 -3.41365
-21.6677 110.228 15.7724
-26.2145 101.789 9.36429
10.8692 130.803 -1.91035
-25.3007 82.4356 14.1825
-4.04814 122.45 -1.94303
-7.76298 109.141 -3.74714
-24.6655 123.086 3.32931
-24.3468 118.807 -2.29332
-31.374 79.5957 6.1048
-26.4597 93.5841 1.45914
8.86409 116.772 0.785899
3.49687 82.5447 3.23334
3.97615 120.492 0.141939
-11.1249 116.427 14.9674
15.9817 136.09 8.72411
-19.864 93.629 14.5956
2.10486 138.158 7.14632
9.17402 140.626 3.41959
-7.10319 101.943 -3.93183
8.02568 95.2691 10.9766
-23.635 128.201 7.45241
4.97123 89.9659 3.51376
2.61227 76.8611 12.7375
11.6368 128.445 10.6316
7.09451 127.216 -2.66459
-9.5618 87.3309 12.2919
6.62291 91.6372 18.8087
10.415 118.075 11.9034
8.49281 105.121 19.3859
-27.1144 102.864 6.32212
-16.1829 107.334 -3.42747
-20.2612 126.838 -2.05767
-5.92837 90.7147 14.0732
-22.8197 122.724 0.139577
-17.4248 77.1033 3.11153
9.39382 102.978 6.63084
-4.82656 123.692 -1.0618
-8.24693 89.5661 9.67387
2.50281 112.538 20.0165
-21.3043 128.101 8.88422
-7.45048 128.915 10.7428
13.3577 142.762 7.5197
8.24713 104.606 20.0394
21.7669 130.867 5.24976
-7.57668 87.0344 -1.61078
-10.6215 125.553 -1.64027
-3.48796 122.755 13.7325
2.73957 131.18 -0.220009
22.6881 126.377 3.44303
-0.194686 103.187 15.1821
8.36815 122.607 -3.01403
-15.9528 90.7988 -1.00853
3.69124 94.124 25.4262
10.0447 121.072 4.25053
12.6577 132.728 9.8437
-3.35692 82.77 21.2239
-5.73324 82.964 8.08739
10.6804 118.961 5.34168
6.09861 108.935 -1.279
4.43079 93.9958 -0.506021
-26.1032 117.001 3.85555
-2.24176 102.246 -3.7545
10.0312 120.441 0.697279
7.23093 100.506 21.273
-23.8785 130.026 9.31962
11.1555 130.042 -1.24464
-24.2486 124.863 2.2693
2.18396 118.289 7.32869
-22.4201 108.735 14.6672
-8.00983 75.0122 0.245042
-24.8327 110.853 6.93439
3.18067 86.2385 24.7195
-13.6233 116.971 -2.35445
-3.31583 108.172 12.7887
-0.733819 99.2044 22.5898
-23.6209 118.787 7.67142
18.9681 120.47 -0.277775
7.4687 100.272 21.0639
0.300056 87.0183 -2.98334
-13.7451 91.1848 -0.930398
-9.04014 122.722 13.8845
5.28974 137.327 -3.08486
4.48522 87.746 4.68496
0.0208119 116.703 -2.82998
2.77409 114.602 19.492
-13.6132 114.14 -2.84437
-22.6074 95.6066 13.1199
-30.0033 82.1735 11.3979
8.73098 96.3914 8.69481
8.9746 98.1826 14.4752
-3.66107 132.902 0.680519
6.98209 91.5766 16.234
-23.7278 107.929 11.1255
10.4595 127.905 5.16884
-3.07429 83.0905 21.1136
-11.6815 76.1209 1.89422
-0.932978 101.101 13.5439
2.01332 86.3114 26.2482
12.1618 119.295 7.3469
1.72621 75.8709 2.94385
13.9412 126.303 8.37676
3.53427 113.496 15.471
18.9612 132.752 1.80185
4.07497 123.327 15.141
10.4966 126.778 -1.37287
-25.6836 125.115 4.31792
-26.6711 87.664 14.226
-10.7028 77.8415 0.442815
-7.32744 92.6044 -1.5115
5.06335 107.394 22.2957
3.85104 118.22 -1.91195
-33.8526 125.226 5.57056
-26.3413 97.5972 -0.200735
4.0091 117.945 13.9988
-17.0437 114.259 -4.05539
-22.0502 115.016 12.4367
-15.078 130.592 8.79137
3.31369 123.565 6.3208
-3.68376 118.39 14.1945
-4.19541 109.994 14.2333
