ply
format ascii 1.0
comment Created by Open3D
element vertex 1937
property double x
property double y
property double z
end_header
11.4088 149.635 -5.77713
2.28895 135.719 3.44583
1.38428 93.1727 8.83835
-3.90951 134.066 5.26293
17.2205 129.661 -5.00133
21.9219 106.425 -8.31625
18.3113 134.146 -6.77379
16.6017 130.469 -5.7122
0.246514 116.951 10.0795
-1.225 117.832 10.2038
18.0473 131.337 -1.47371
8.4923 84.2041 7.82449
1.56705 102.045 11.0731
10.273 136.052 -6.1035
-13.4316 117.613 -2.35703
7.6432 91.8774 9.01072
-4.24446 134.996 -4.18911
-15.0524 106.128 -1.40685
8.9716 100.284 8.83089
-4.07836 75.2968 0.247722
8.76885 136.57 2.62566
5.11695 96.9687 -4.79822
24.2336 121.147 -5.36061
-10.7537 123.918 -5.06134
-13.4767 122.111 10.3857
-16.3982 120.487 8.1505
-4.41383 83.2756 3.33043
0.00441372 83.9566 -6.58969
-0.255256 101.139 -6.27442
16.0215 121.866 -8.40231
11.1397 85.4318 -3.38156
-14.9199 114.743 -1.69031
11.8938 117.838 -8.00229
19.9339 124.131 -10.6931
19.9907 97.6588 -7.60899
-5.70488 103.936 8.0068
19.5137 108.446 3.24149
13.9722 115.651 1.45694
-5.98308 129.496 7.52126
7.87506 104.708 8.82247
-13.0959 119.592 1.90881
25.3111 131.45 -5.20085
-0.587206 131.155 -1.96899
-3.69848 134.622 4.45837
8.0123 98.6398 -5.98734
20.2104 141.462 -7.44166
-6.48705 75.7375 -7.02844
21.6175 131.946 -6.47601
16.8895 139.207 -7.11314
-5.16833 96.2028 6.55056
-0.676072 111.614 -5.5824
21.5255 118.013 -5.41653
8.39192 120.288 -5.55625
17.8327 124.529 -7.7052
6.18399 146.756 -5.8822
-20.1789 120.358 3.95207
19.6024 127.725 -10.696
1.42469 82.3071 6.04542
9.65828 84.7492 -3.88562
-4.97637 88.9951 -7.8678
13.0015 123.34 -5.73042
10.4269 124.644 6.07627
17.4872 132.478 0.0418047
9.88915 105.829 -9.5823
22.9635 140.6 1.00912
10.5731 143.693 -8.30094
11.5426 124.872 -6.83877
22.6917 120.288 -1.83712
-1.04132 138.462 -1.99641
5.89715 83.102 -5.87779
-5.83474 76.4939 0.520121
22.9564 129.231 2.55655
-6.90865 111.187 8.49685
-14.8547 119.799 7.46688
15.1263 142.01 -1.69256
-12.1755 118.133 6.87164
18.8137 119.157 -8.85575
12.3419 135.02 3.75511
0.471048 128.434 6.8853
-12.3394 134.889 -0.801189
22.3592 122.992 -2.78354
18.4707 141.212 -7.84798
16.1909 90.1957 7.03454
-1.5269 121.385 10.1132
-3.86507 119.549 -3.82033
-0.556307 138.255 3.12912
-13.0076 132.524 0.268137
15.4014 128.274 -0.886342
17.3073 149.393 1.24262
17.705 132.279 0.519166
18.8996 131.58 4.99389
-9.85234 142.347 -3.17792
-12.3757 124.146 -3.90823
18.1857 137.159 -9.7927
13.1862 91.4971 -5.62853
15.3348 134.335 -6.97983
17.7379 104.984 2.66178
-20.5321 117.564 4.82792
-14.8649 128.729 0.365094
23.4674 140.281 -3.96846
9.07881 84.8434 8.62348
-0.106659 118.483 -3.87547
-15.5226 136.835 7.72694
11.7263 122.995 3.55969
-3.3166 132.162 -3.10434
-12.6428 106.185 1.55547
18.2277 81.451 -2.55195
-13.0338 131.824 0.217312
-12.8613 129.339 0.952661
-15.1085 111.003 1.78396
-5.29953 110.74 10.2244
22.6676 128.566 -5.92737
13.0213 77.2954 -3.68498
8.96306 144.298 2.97046
16.0208 112.407 1.27477
0.762467 123.888 9.21506
-8.27658 123.62 6.71082
17.6776 126.262 -9.06606
9.37806 84.7891 -4.03701
-2.73379 150.638 -1.89836
-8.72665 150.832 -0.587233
17.7453 93.3386 6.29572
20.6056 140.107 3.23244
-5.76867 96.1859 6.20033
10.5608 141.718 -8.59363
15.2386 94.1539 4.35848
-6.79614 86.2167 2.0255
-9.46979 143.853 -3.36973
16.0008 132.091 -3.42051
-13.884 119.661 6.06431
0.621101 135.162 3.50555
24.1524 117.446 -2.21746
24.6881 127.721 2.17608
-6.0013 97.6044 6.33056
-6.84672 98.9259 5.44515
10.1465 129.026 5.96332
3.76416 138.816 2.26515
-4.88143 138.674 4.15933
-17.7609 128.002 0.82221
17.607 140.851 -6.87406
-6.10539 77.337 -7.30146
5.51791 132.936 -2.74425
21.7394 116.949 5.65434
-9.18605 103.963 5.80825
16.145 134.843 2.99423
6.85066 137.321 2.62181
13.2917 76.2705 -3.9551
3.93417 122.781 8.719
-0.106047 103.187 -7.93276
18.7006 150.247 -2.78664
22.6484 105.88 -8.1046
-9.27697 127.373 -6.49555
-12.3105 87.3098 -1.67409
9.64095 116.555 8.48498
15.1251 98.8553 3.60463
14.7491 139.591 -7.85901
22.0573 124.802 8.27202
8.5988 80.5508 5.99591
16.5292 83.491 -3.35891
-8.57024 102.351 -7.63845
-1.45695 142.768 2.39146
8.68991 138.719 1.79175
-2.09799 122.189 -3.4301
18.2918 121.822 1.07599
-15.0298 102.263 -2.43638
10.4718 99.0933 -6.92284
21.5073 106.178 5.60126
-0.0808351 100.866 -6.26913
2.30792 78.9167 -5.46197
9.68255 132.454 -5.74952
11.8493 151.471 -1.42097
19.9153 126.095 7.89593
6.82134 121.336 7.34793
-12.0843 109.826 4.19778
19.2203 127.057 -5.38239
3.36283 140.15 -2.64744
7.92612 80.7892 5.90174
2.55716 147.276 -4.00432
16.0785 133.831 -7.82056
-2.61429 83.3845 -6.46664
-1.92657 78.9356 -6.44175
1.52437 97.1277 -4.76536
18.8714 98.3112 -7.79629
-2.71235 124.827 8.2092
-9.6728 111.683 5.26145
7.9406 155.024 1.37508
-12.8325 121.239 -2.72718
16.2146 145.956 -2.71801
-11.5544 137.601 1.34809
-6.18281 137.445 -5.65157
4.8382 136.156 -2.33598
20.4228 99.8351 6.92888
-17.2287 122.593 12.7664
21.2584 116.338 -7.67991
19.3193 131.477 -3.10993
22.8445 147.286 -3.44354
-3.71735 87.9006 -8.46094
21.0018 126.116 -0.942898
-16.4611 135.048 8.70445
15.3818 86.6101 4.47653
-9.87094 147.614 -2.06044
18.9449 88.8006 -4.9223
19.4792 124.373 -10.8557
18.9617 146.488 -4.74685
-12.3579 124.126 -3.93783
15.8953 135.318 2.90503
26.1029 131.957 2.332
16.473 130.837 -0.751307
13.7137 120.385 0.858708
-9.90714 137.708 -3.90411
-9.508 144.365 -3.30476
-3.65778 144.478 2.3831
16.8799 136.692 -8.59392
15.5874 82.8012 5.40436
-18.1759 118.737 3.1466
-18.1157 116.795 11.7007
22.0792 126.679 6.87226
19.0452 85.7476 -4.16496
3.23509 103.605 10.1146
24.0927 117.2 -3.5929
-15.3039 138.87 7.77565
18.5716 131.953 4.83647
-7.23016 120.271 -4.46084
18.2021 126.203 -5.24266
-0.159255 86.1149 5.04678
-6.04096 136.84 -5.86833
-5.56176 102.278 -6.59887
20.9056 117.868 -3.91001
0.117017 103.477 11.2705
-4.63888 92.485 4.90207
24.3774 130.275 1.04718
-11.6235 100.096 -5.70245
-11.0523 139.93 10.1001
24.2797 123.199 -2.33363
13.3948 115.205 2.03775
17.449 110.813 -8.06771
19.716 138.776 -8.61132
-6.07765 116.257 10.8348
16.9084 80.6063 3.04558
-11.1767 110.869 -6.89074
14.694 124.643 -0.345466
-8.26658 79.7174 1.12807
-12.9004 104.076 -5.72934
21.0078 140.528 -7.56999
22.6254 124.618 8.23383
-13.1032 121.551 -2.71551
12.7152 152.361 0.534148
16.5794 120.427 0.36891
-7.99076 128.428 -6.20023
10.9778 125.134 -4.49288
13.1158 130.605 1.06071
23.4035 141.257 0.47183
5.82362 122.443 7.54572
16.0564 91.8508 6.04633
-15.0922 127.84 10.0483
-11.3593 139.533 1.85025
-14.5404 116.853 3.91091
-13.403 120.329 -0.304642
17.3707 129.094 -5.53266
10.3621 152.288 -1.14346
20.3655 145.702 1.86817
-1.27673 139.16 -2.09478
-14.2473 121.595 11.1412
0.516096 116.17 -4.75059
-10.126 77.0534 -7.92994
20.4741 112.881 3.58727
20.899 109.242 4.34003
1.3294 94.3606 9.15684
20.4243 99.887 7.95232
22.7018 109.257 -7.97491
20.9796 101.509 -7.9556
-2.05103 97.3379 -5.65194
19.1131 124.044 4.63888
-12.4557 112.668 4.50914
-3.62299 117.943 -4.33063
-5.95842 91.1064 -7.23981
-0.19873 91.1353 6.31064
6.12868 139.348 1.84837
-0.933318 89.5682 5.32917
-14.0088 113.732 4.03242
21.9582 126.703 -1.76166
-4.58131 113.332 -6.27391
13.4028 123.43 -8.17426
10.8642 140.496 1.90116
-3.17746 123.638 -3.75023
20.0035 135.756 4.0035
16.908 138.993 -4.95216
-16.6282 123.329 0.26474
-14.4391 137.752 5.06972
11.9053 111.469 7.11209
-5.49662 99.5248 7.3619
-14.0435 93.3468 -3.74897
19.0616 95.1601 10.2713
5.85112 107.891 9.94791
20.6355 118.333 -2.58627
-10.4783 146.442 5.82482
-10.3504 147.596 2.31153
12.291 111.659 6.71048
-11.1194 126.466 -5.41173
-10.1224 132.399 -3.12598
-8.13762 85.2108 1.14419
22.3383 119.725 9.7763
-7.16088 112.982 7.86698
-17.0967 119.471 7.00309
18.4501 123.696 5.97087
16.3296 140.148 -0.75646
19.8737 97.4639 7.22323
24.5257 130.577 1.51007
-10.4226 129.67 -4.24864
6.04211 138.435 -4.18981
24.0204 126.538 1.38345
13.6153 101.486 3.48101
-7.21079 108.842 8.13451
17.2602 109.584 -7.98621
14.6892 146.136 0.292164
-13.63 123.67 10.3251
9.40682 104.782 -8.58988
-3.63035 130.264 6.26145
15.5523 135.96 -1.54813
17.5394 133.343 1.43038
18.1637 100.023 -8.39779
-12.1246 110.71 4.25865
-13.4086 92.8676 -1.60885
11.0339 107.712 -9.48925
15.0638 126.468 -0.689257
13.5814 113.575 2.4494
-20.2066 122.938 4.52138
15.8907 127.86 -7.22418
23.2734 131.833 1.12869
5.89882 108.916 9.79058
13.6218 89.0619 -4.97156
17.493 142.761 -4.75816
-8.22211 122.315 8.31843
18.1379 83.3912 -3.24712
15.6073 142.357 -0.721798
17.2128 108.08 1.96303
22.5591 119.053 0.293706
-13.6406 125.271 -1.33167
19.2143 107.65 3.05973
7.87868 135.116 -4.26042
19.059 133.195 -2.76032
17.4108 80.388 -2.46655
3.46072 135.541 3.55318
15.4504 119.086 -6.64213
-14.9824 105.393 -2.97781
-14.5606 101.305 -1.45922
13.5502 152.491 0.24518
21.6048 126.823 7.21219
21.3536 135.113 3.42601
-16.314 119.082 0.916442
23.9036 126.328 3.70986
10.9651 98.8961 6.30595
-13.4536 116.032 2.35336
14.9816 81.1644 4.82876
19.5326 132.083 4.32448
-13.7216 120.694 -0.0648856
-13.1345 121.32 0.533783
4.93753 147.54 -5.14488
-3.17568 130.478 -3.1085
7.98163 135.227 3.43775
-1.20869 123.646 -2.91542
7.15497 122.246 6.78311
7.42253 105.106 -8.86039
20.2616 124.337 -8.65745
3.26629 95.2319 -4.66484
6.99523 103.001 -8.02568
15.27 86.481 3.96546
3.35808 92.9304 -4.53409
20.1048 106.355 3.87543
24.2682 120.715 -0.200076
-2.03835 122.673 -3.29905
3.03784 98.9124 10.773
18.1563 91.1684 8.15688
-6.60202 117.203 10.4868
6.64894 138.965 1.93803
11.4777 149.945 0.0559597
13.7668 108.773 4.49862
-12.1693 118.947 6.72856
19.026 129.812 0.916213
21.918 129.21 1.0632
13.4818 85.1905 -3.6109
3.16971 85.8764 6.97761
12.3337 82.3183 7.0651
1.48558 113.082 10.3553
-0.624243 84.2525 -6.86518
-4.10925 99.2467 -6.87377
-16.3677 119.276 11.008
13.1371 113.446 4.06898
-13.8037 138.15 4.47602
9.78623 76.3564 2.14071
19.5536 122.883 2.08326
-5.11926 134.532 -5.21794
21.5167 114.595 4.65523
24.5193 130.326 -2.23163
9.0456 147.343 -6.41436
14.6368 104.354 3.96118
18.7111 132.23 0.247231
24.622 126.533 -2.38174
15.4914 149.495 -1.47468
11.8792 143.26 1.13993
20.5578 110.345 3.91457
15.5917 79.3419 -2.81535
-10.4915 139.863 10.0313
-12.5161 118.149 6.73106
10.585 121.59 5.92328
-10.0007 138.549 -3.3179
-5.69751 87.3067 2.89678
19.9115 105.192 3.88877
6.01837 104.382 -8.95589
-5.89606 89.4001 2.92735
15.2533 100.321 3.66464
10.9949 92.0427 -4.61032
7.29668 141.585 1.90345
19.0904 117.379 -8.29539
2.52078 93.3665 -4.7634
-10.9218 76.307 -2.70221
9.65033 136.474 -5.69213
1.42333 111.987 10.6815
0.743172 139.183 -1.6246
-9.26297 127.817 9.17978
3.96796 130.167 -3.05934
7.92678 77.2988 -5.02172
-9.50381 131.607 9.07228
6.5141 78.0573 2.91016
-14.7614 108.036 -3.95036
-18.0785 117.202 9.28378
-5.57234 137.029 5.43133
13.9078 128.391 -0.238689
18.5916 130.536 -2.92887
15.5055 152.486 -1.2251
10.2638 103.489 -8.25749
-13.2188 119.538 2.24281
17.9572 117.275 -8.26421
1.79366 84.3046 -6.31093
17.1071 130.187 -4.7454
16.3835 139.182 -5.62109
17.2055 126.724 -8.74009
19.0764 139.003 -9.07822
-4.30626 89.3886 -8.38327
-1.54067 141.559 -2.10874
8.14382 79.6476 -4.81475
-14.4797 129.152 9.88079
3.32384 126.445 7.3904
3.68854 131.471 -2.57683
8.88608 127.497 -3.36156
-0.601429 99.4836 10.5978
-18.2472 127.381 4.28908
-10.724 142.311 -1.97692
13.0253 145.397 -1.39027
6.63391 142.111 -6.19722
7.74942 136.558 -4.39036
20.1953 120.069 6.13003
9.42919 115.739 8.59251
-9.33953 125.851 8.65028
5.2672 89.8463 9.7317
21.9074 131.926 3.62561
23.7968 144.08 -2.12808
-16.7912 133.265 10.6054
15.4483 88.9455 6.67989
1.87992 132.07 5.12233
-1.6422 83.8126 4.47603
15.1425 87.4826 6.46764
-11.0364 77.6122 -6.51764
-0.716771 109.694 11.247
-8.24817 75.9864 -7.40424
-8.35382 135.119 9.063
20.5913 125.963 -2.88135
-8.90316 81.2355 0.638095
12.2201 132.735 3.64715
-15.2106 115.689 -3.66624
0.636579 75.4583 -5.15037
12.534 132.104 3.19499
-10.6688 144.339 1.35986
13.27 92.0933 4.75111
-13.5189 120.224 7.1879
2.75142 141.373 -2.48844
15.7784 88.4219 5.61594
-12.2834 94.5305 -0.526198
-10.0791 103.33 -6.99651
-6.7167 139.567 6.03712
16.5077 148.219 -1.85426
-12.1679 129.369 -2.6272
4.95875 109.028 9.8916
-8.20763 147.006 -3.60048
-10.1565 122.601 7.59859
-4.33724 101.242 8.59047
18.7002 87.3153 -4.31012
15.2316 126.864 -9.5874
17.1264 135.369 -10.1908
9.55139 106.699 -9.75972
24.5799 127.637 1.47464
3.93883 133.945 4.34404
5.38995 137.7 2.73377
-4.66454 92.5464 -6.49935
19.7967 141.623 -7.34314
-16.238 126.923 11.3898
11.9388 105.272 6.69384
21.6719 128.981 3.83343
16.3585 94.6457 4.50562
-6.90824 96.4009 -7.20463
-18.217 117.873 6.70333
-4.31664 136.583 4.72396
-13.1565 122.102 7.74747
-15.7843 120.778 8.24643
-14.9492 105.655 -1.45046
16.7499 113.97 -8.99091
-3.28133 142.904 -2.84132
14.1383 145.957 -6.7006
19.7768 125.859 -8.7725
-14.4134 113.52 -4.78262
-1.50683 75.3939 -5.84505
10.1952 135.596 3.05313
7.0472 111.33 -9.13848
1.25101 110.676 -7.30569
-8.38187 92.6479 -7.564
-14.2514 121.588 7.98213
-7.70492 76.7414 -7.73834
11.8805 141.976 2.15695
-10.3789 97.7695 2.39662
11.2131 81.8341 -3.4155
-2.29787 113.023 -5.27048
-14.4451 113.195 0.23098
12.3026 134.921 4.0488
13.9686 122.88 -7.96921
18.9921 128.492 0.370298
14.9864 134.087 -8.83721
21.5111 117.807 9.97038
-12.4332 87.3725 -3.94306
-2.2772 113.755 11.414
-1.52175 91.9519 5.77369
15.5497 91.1786 5.05124
-1.83918 106.83 -6.8964
-17.8972 128.823 11.5419
-2.13548 81.3268 -5.96169
9.7382 95.953 7.41871
19.4932 126.9 -8.79973
-3.49259 137.052 3.34286
-10.301 75.4965 -2.59664
8.84246 89.3419 9.26455
18.7938 135.505 -9.06617
-4.86104 113.77 10.9892
-14.9956 111.08 2.15696
10.2083 147.407 -6.71783
-20.8034 121.187 5.30833
24.9469 131.936 -2.9842
16.0339 135.321 -6.31469
-17.234 124.269 12.432
-5.44121 134.673 7.06376
17.0657 118.804 0.687187
-11.0107 145.86 3.34933
8.48955 119.12 -6.45232
-3.56676 141.091 2.85795
-1.75733 84.6731 -7.00029
17.6748 146.715 1.66937
17.372 88.4373 5.50774
-14.8411 120.676 9.03216
16.3424 84.6969 4.16107
-9.94979 106.388 4.46337
-3.3157 143.994 2.43386
17.8302 91.4578 8.01886
15.5444 133.14 -4.93641
3.79617 148.867 -4.46775
-12.3382 116.093 5.97603
-6.95872 133.768 -5.96234
11.5418 149.858 -5.57146
17.8881 114.072 1.52392
15.8142 137.376 2.3076
11.4529 114.597 7.35954
-8.41025 108.261 5.987
15.8189 130.775 -2.59116
-10.8679 93.5427 -6.68612
24.4503 138.192 -4.60995
-9.33745 96.0281 -6.5479
-5.16529 78.769 1.83433
9.14004 113.082 -7.36866
-2.63108 135.065 -2.82034
16.926 127.951 5.9538
6.24741 155.296 -0.160251
2.92488 113.512 9.7239
-19.7328 116.922 4.74393
23.1899 144.571 0.37014
-4.33157 138.792 -3.94038
20.7025 118.864 3.73873
-10.6712 87.4725 -0.534838
15.8119 135.827 -1.50391
19.2366 123.109 1.79191
-11.4836 80.6848 -1.66572
-9.35535 75.5943 -3.52515
-11.0046 78.1777 -5.63966
-8.72467 76.1786 -1.19475
11.8927 145.177 -0.996311
0.17546 90.3435 -6.85035
-2.78351 77.154 -7.35229
16.0556 131.344 -8.18748
15.1562 99.0263 -8.54734
-14.1349 95.9447 -2.0009
1.59941 124.624 8.422
15.5003 132.325 -9.0311
14.0905 136.876 -10.2402
23.6183 138.752 -4.72725
14.9174 142.253 -7.16342
-17.1486 131.919 8.29852
-9.31279 122.841 7.17603
-5.01592 84.0936 -7.72507
-0.741921 90.6638 5.7367
1.6765 76.6038 -4.93888
-11.1616 104.231 3.41804
22.1066 131.461 -7.06182
17.3045 137.489 -6.09031
-9.19165 90.2422 1.34508
-14.1217 125.492 -0.530007
-0.492708 140.235 -1.91522
-11.4072 127.434 10.0976
10.0303 96.5611 -6.16872
-3.0103 128.637 6.00104
15.8544 139.005 1.79812
-14.808 114.534 0.215838
-8.99044 82.386 0.45586
-10.8849 127.549 -6.37338
18.2487 143.013 -6.8607
-2.79485 112.11 11.3727
2.53451 114.899 9.60529
-9.32808 126.517 8.58883
17.8651 90.5081 -5.68135
-1.11204 152.956 -2.04533
-6.10498 105.96 8.84676
-13.3936 124.44 0.826742
12.7838 135.99 3.46556
15.8806 134.491 -1.58285
-0.32531 135.948 3.6754
-13.9577 124.601 0.910366
12.355 121.072 -7.00539
4.01908 76.5467 1.11513
-13.8049 119.809 5.41342
9.59909 76.6245 2.35811
12.6018 123.174 -5.4865
0.337398 88.345 -7.19491
-17.0344 126.359 0.133407
13.3738 86.1321 4.90891
13.6154 78.2955 4.54531
-5.50085 148.565 -3.3769
-12.2853 123.156 -5.07905
20.8598 128.059 0.80293
16.0316 133.697 -9.37462
11.6995 116.981 6.13085
-13.0526 120.075 0.761702
-14.6246 118.85 1.99373
18.9157 118.81 -6.09969
4.02456 120.643 9.02324
-7.83947 125.899 8.0315
5.036 114.14 9.11771
21.0946 118.267 5.72152
-11.32 122.452 7.61942
8.93299 134.159 3.84727
0.211296 94.0809 8.58747
-1.67883 95.6987 8.27407
7.79251 99.6591 9.38323
-13.263 121.927 9.85892
-14.5723 105.409 0.0985415
13.7271 100.949 -8.80617
20.1159 118.816 -3.29483
4.48216 132.956 -2.13183
25.2527 130.261 -1.66014
-22.053 116.841 6.41054
-11.0069 108.13 -6.88646
11.9119 153.186 -0.912192
-16.4694 130.442 11.1345
21.6736 106.743 -8.38978
4.06213 97.0163 -4.76452
-12.9188 103.482 -5.08607
-4.6243 122.265 8.90306
2.32696 80.4343 5.79147
3.34255 102.526 -8.22914
4.25991 76.971 1.58946
-13.4901 137.224 10.7489
20.3803 136.312 4.15779
10.0585 140.039 -7.99039
-14.3314 115.598 4.22122
-13.2895 117.68 -0.439444
1.35446 130.573 4.93862
23.4267 118.781 1.13392
-11.3733 124.092 8.90751
-11.0439 142.078 2.217
-6.92069 131.088 8.26331
-2.64873 87.787 -7.92285
-3.04342 98.1095 -6.43759
-6.22856 114.634 9.76394
4.51229 122.417 8.56597
17.3649 143.187 2.68227
-15.3092 120.493 0.212119
-11.7272 85.9522 -3.66903
-12.348 135.267 -1.62374
-12.1614 140.776 9.6653
23.3053 124.169 7.74815
-4.22337 149.858 -2.37333
18.2405 136.534 -9.63501
21.0133 146.485 1.47707
-13.2474 125.965 9.57604
25.6524 129.133 -3.12545
7.11488 115.677 9.06728
9.11258 114.389 8.47012
-14.9658 119.094 -0.833288
-7.60432 150.567 2.18385
7.50557 140.837 1.83138
-2.79103 101.682 9.93206
11.9786 133.088 4.00508
4.98722 143.298 -5.03104
-0.283158 78.5838 3.87575
6.33781 124.845 -4.73763
-8.31577 136.894 -4.72929
21.2433 125.883 -2.81868
11.5382 115.077 -7.74032
-8.62814 113.36 6.89917
19.4075 129.613 -10.7951
17.2902 130.334 -4.53644
18.075 110.802 1.98881
21.3144 110.53 -7.86713
11.3129 96.1891 5.59902
5.79626 94.8533 10.0563
15.9017 118.624 0.49304
-6.63211 100.996 6.37551
-18.5425 126.413 7.25468
13.8861 132.462 -9.81105
12.59 76.8892 4.0093
16.3738 130.988 -7.51657
20.3793 106.571 4.1583
20.2675 99.9398 8.88505
-13.0537 131.601 10.1083
15.9056 136.096 2.30846
16.8001 131.286 -5.3168
-0.784822 122.511 -2.93187
-10.9743 121.628 7.82194
3.34474 79.4226 5.5078
-18.2459 123.551 2.20996
3.46093 76.3617 -5.00016
-2.98493 127.639 7.10777
18.5214 129.405 0.307376
8.38586 149.151 -5.86786
4.82899 143.101 2.01566
0.940028 110.017 -7.10536
18.4219 127.473 -4.05095
15.8421 92.4177 7.16533
-11.5022 85.1698 -3.48353
10.9013 123.359 5.89993
23.4648 138.997 -4.65285
-18.1386 123.194 2.57251
15.4212 123.704 -8.55831
24.9965 138.34 -2.71524
19.3084 130.901 -4.16773
17.7591 135.119 -10.5087
9.0203 126.708 7.07749
-11.1418 128.03 9.95964
6.39418 112.718 -8.82844
8.56198 140.538 -7.55316
14.8493 134.476 -6.37268
-8.85266 135.828 9.67805
-22.4019 118.711 6.09609
1.67725 114.646 -6.77386
2.89215 88.4079 7.31175
-6.95157 101.503 6.13462
-6.25061 112.423 9.63006
24.7644 126.826 -3.1801
-18.3421 129.017 10.3312
-5.9858 74.8412 -1.06898
6.33086 117.007 -7.45174
14.5306 150.104 -3.35366
7.03919 91.0026 10.0485
-0.533738 112.487 -5.34884
0.683752 84.7945 -6.81391
7.36941 112.986 -8.4285
6.83988 127.414 6.84963
20.9704 98.6135 -7.91424
7.56679 76.3875 0.885246
16.402 134.68 3.97673
-5.53441 81.3398 -7.36507
18.6206 129.254 4.78587
6.38333 143.665 -6.26326
13.392 79.306 -3.14329
-13.16 111.297 3.9638
18.8206 120.68 -3.59221
18.3905 129.995 1.28989
12.974 92.0266 4.94993
19.7336 127.901 -10.3649
15.2538 117.289 -7.4442
-7.79212 129.658 8.13333
11.2775 126.307 -6.79271
0.806697 127.192 7.3611
-12.5831 109.093 3.60028
-1.47376 129.913 5.41246
-9.67434 123.171 6.98846
-13.8022 122.509 8.97502
0.936103 143.805 -2.14455
4.5364 115.779 9.31433
22.6296 113.835 -6.82518
18.9613 122.862 5.33176
24.8345 139.002 -4.02372
2.04837 127.082 7.53859
-0.992944 141.275 2.88446
-6.78503 99.5931 -7.55073
-11.8421 125.989 10.2557
18.8173 89.0742 -5.03851
23.3983 122.225 -4.79665
19.7762 127.185 -9.64532
-13.3104 91.3571 -2.39455
-7.47941 115.262 9.06533
-8.5968 133.218 -5.29704
23.4264 125.522 -0.405285
-1.03579 88.5925 5.03382
-14.2491 119.085 -2.04586
17.1202 143.552 -4.42734
-15.4132 111.65 0.0872231
11.8978 93.0156 -5.54712
-11.8843 95.4743 -6.40211
1.57659 119.976 -4.81757
21.1817 103.859 6.14884
-0.960196 132.487 4.03948
8.59452 151.561 1.19695
13.8508 115.351 -9.0773
-0.522495 107.484 -7.04869
21.2542 118.507 4.64511
-1.87489 104.717 -8.66691
0.233035 146.635 -2.30863
20.7475 128.77 1.17596
9.03899 80.185 5.9466
-0.27806 144.112 1.93374
23.0614 130.637 2.52454
-0.947039 129.895 5.97538
24.8116 129.788 2.58626
17.793 87.5764 3.38758
-6.14324 138.013 -5.4358
-19.8433 121.67 11.1487
21.7125 123.601 8.85462
12.6286 148.09 -0.980509
-9.45456 85.2307 0.226135
8.93051 112.397 8.50299
10.5216 87.907 -3.62519
19.1534 136.081 -8.59065
-9.14995 95.4307 2.51256
21.991 130.639 0.37425
8.58184 133.634 -5.09202
-5.16816 105.795 9.52033
-9.87049 102.708 4.89226
-13.1903 143.441 5.42718
14.2929 124.839 -8.99837
17.6737 141.952 -6.06948
3.6769 121.02 9.0057
9.67964 95.2488 7.20829
5.43097 88.4865 9.0553
16.8948 102.631 3.53928
20.2835 128.978 -2.90457
2.14587 132.51 -2.20098
14.9822 83.4289 -3.41157
10.5151 139.701 -8.0558
-8.81568 124.547 9.22206
-5.92415 96.6655 6.32863
3.3101 127.226 -3.60587
18.9926 127.005 1.54441
9.88134 81.9585 7.04324
11.3524 105.023 6.96425
-6.81453 152.919 0.798449
17.0338 137.414 -9.73111
14.6882 149.667 -3.22754
19.5716 124.98 -9.5641
20.4874 128.451 -2.8257
19.7598 126.816 -8.93515
-7.21908 119.695 9.8417
-13.4842 117.379 5.22454
-13.9961 122.433 -1.85633
25.2551 137.515 0.205634
-19.4589 125.785 3.08017
20.0927 105.53 4.03436
20.2607 148.511 0.314133
23.1048 133.508 1.38166
20.6701 122.604 -3.70427
16.5336 133.459 4.27699
19.1913 124.047 -4.42492
-10.5941 95.13 0.730131
13.5871 85.3706 5.28016
-9.05802 128.093 8.62775
-5.41836 92.1631 4.21613
-9.58498 117.747 8.72335
15.578 128.945 -9.30088
22.4463 125.48 7.48142
7.48422 102.282 8.77537
19.669 127.242 -4.37855
-3.92993 120.545 11.1008
-12.9186 122.61 -4.63124
-2.95493 120.924 -3.78964
19.465 96.6227 6.87841
22.9753 109.842 -7.75849
16.8733 129.831 -9.89099
-9.63245 106.187 -6.33695
-6.06285 82.4573 2.71373
14.6826 145.474 -0.451666
-10.8363 114.331 6.63256
20.843 121.583 -3.40617
-10.3589 131.571 8.92105
21.5779 130.104 0.64133
-12.1959 105.563 -6.27644
-14.4149 135.46 11.0417
16.0361 86.2918 -3.95928
-11.6095 141.182 -0.190862
2.09046 129.077 -2.83476
21.9425 124.828 -4.68296
-10.5712 144.97 1.15014
6.05735 85.9547 8.79453
8.89469 152.094 -3.91029
-6.17547 117.926 -5.15356
-11.5058 82.6046 -5.59716
19.7161 135.823 -8.05695
-17.0308 119.687 5.88013
-0.898846 151.701 -2.25774
-13.5847 127.418 0.0489104
6.66736 138.841 1.99296
14.7335 145.959 -4.54708
-2.46399 76.6369 1.57308
3.42045 120.452 -6.22372
-14.664 118.727 2.26933
-3.30397 74.3446 -2.09635
-1.98338 79.0988 -6.48176
19.5162 96.6845 -7.24771
-13.4825 109.691 3.26267
3.0727 112.844 -7.99828
15.7782 137.18 2.42853
25.1449 126.69 1.48087
12.3077 96.3421 4.88941
12.7596 142.699 -8.35859
7.10178 131.085 5.90711
12.1084 125.971 -8.09449
21.3646 123.043 -9.88416
15.5688 84.9401 -4.01313
-4.8367 113.752 10.9965
8.44262 84.1701 -4.78631
-7.85594 147.382 -3.55037
5.9684 137.45 -3.70968
-2.8863 89.6474 4.71437
-15.2173 131.328 0.21335
-4.76055 138.514 -4.41595
11.3643 122.27 4.28328
-10.9789 124.407 9.91049
-5.05728 136.462 -4.75463
23.2154 117.983 -1.92031
-10.9285 106.824 -6.85808
7.27676 125.53 6.5834
6.65118 131.841 -2.94323
-9.90637 149.839 -0.0574367
19.295 124.716 3.5995
9.20128 114.905 8.55802
3.63246 87.9008 8.07411
-3.97945 96.6278 7.50632
18.5995 99.7623 -8.26955
25.5363 131.129 2.41106
19.7225 96.812 7.46202
11.7913 121.819 3.1589
23.9071 143.786 -3.89036
-7.16258 123.111 7.28827
15.4068 149.551 -1.65167
-15.4962 134.184 3.08564
20.9793 136.916 3.99972
14.8286 145.521 0.203072
24.3475 141.922 -1.67803
12.8032 153.238 -1.21705
8.62836 86.6462 -3.97386
-8.48628 130.39 -6.6682
10.553 145.798 0.844555
-16.6596 134.319 10.1091
2.05096 113.271 -7.72375
-17.0585 132.602 3.34877
23.608 129.039 2.60255
-1.15953 74.9898 -0.324198
21.3123 144.906 -5.47397
-2.90101 123.892 -3.51203
-1.2308 133.179 4.03711
-10.3804 99.8619 -7.21313
-2.79106 133.366 4.47601
-1.52684 74.9834 -5.48765
11.9918 137.437 -8.64431
-3.56605 120.532 11.0105
24.1028 126.486 1.31782
18.3781 125.76 -9.53486
12.5444 81.4535 6.61995
7.13324 149.178 -5.50344
24.2459 123.095 -0.889518
-14.5735 118.981 1.70931
9.92863 85.3373 -3.55676
10.1919 145.704 0.102768
-0.819404 77.9804 2.14779
16.4736 136.374 -9.05228
12.7636 90.65 5.37117
16.409 131.9 3.71998
-13.8881 136.809 3.86151
-12.968 119.626 6.99472
18.6132 102.229 -9.07952
-11.0076 144.828 2.80067
15.9509 126.14 -7.01782
-14.1236 135.741 2.32506
7.13554 149.059 -5.56932
-5.94705 150.194 1.75797
8.29532 154.156 1.46527
20.5675 111.017 3.86748
-12.739 121.413 0.032267
0.0177379 94.4428 -5.21223
20.6864 118.117 8.54606
-12.8432 113.908 -5.85143
-8.67846 147.811 -2.99244
21.057 126.516 -6.86867
2.74344 78.459 4.01824
-14.8906 108.493 0.51012
13.2559 77.9366 4.83597
-10.467 128.064 9.86994
18.6814 127.712 -7.71794
-8.66783 80.9016 -5.88578
-8.42392 132.83 -5.35572
1.52735 120.538 -4.56413
-4.17831 92.7859 -6.29132
15.6059 87.6324 6.3227
18.1362 88.7297 6.01304
-5.70607 109.648 9.78171
-11.7064 140.41 0.0484061
12.6869 97.7935 -7.3351
-4.42799 123.727 -4.39153
15.8387 138.001 2.74117
-10.5262 145.851 2.53103
9.85199 147.301 1.24809
-2.16037 136.509 3.40394
10.8202 134.399 -6.47519
14.6581 128.071 -9.85987
-13.1744 123.552 -3.63603
-2.38121 105.451 11.1016
1.19152 134.676 3.71249
23.6065 123.134 -4.3485
-16.8454 125.279 0.869772
-7.82892 149.332 3.41805
-6.18483 80.5247 2.03008
-13.6016 122.246 10.8604
4.74938 86.33 -6.09002
16.995 138.031 -7.10006
20.0737 118.023 2.78893
-14.8194 105.921 -0.105486
25.5732 133.839 2.34475
2.34406 93.1001 9.53699
7.20644 83.3801 7.60751
-12.0449 88.9159 -4.08036
9.52233 150.313 -5.80252
10.3004 127.334 -4.33202
-4.51025 126.064 6.70135
20.6913 148.102 0.355833
-4.26024 87.6124 3.67606
13.3781 122.086 -6.59324
-12.3685 124.722 9.84101
-8.56488 136.165 -4.59159
1.16978 116.901 -5.36679
22.1789 117.486 -4.61063
-4.52643 79.2581 2.24669
15.1086 143.319 -4.35025
7.82283 92.9431 9.17176
17.3773 77.9874 -2.80985
10.3072 132.742 -6.03403
3.18878 113.834 -8.09686
-5.89057 97.2135 6.44154
-13.4689 118.382 2.08975
21.1937 118.686 -6.79714
-15.7236 119.968 7.24465
17.9987 130.494 5.19301
-12.7035 143.958 4.53012
12.0619 139.497 -9.58138
10.5429 119.805 7.47025
18.798 124.371 -4.48416
-7.86257 80.2034 1.45161
-7.4581 84.7563 1.64204
-13.0307 119.44 1.11104
12.5434 94.5451 -6.45892
-14.3875 116.749 4.13686
-11.8414 136.135 -2.11153
19.7305 138.779 -8.59944
16.7838 151.653 -1.52847
-13.2891 104.741 0.391743
11.1048 133.72 4.84884
15.494 128.817 -0.945668
0.474123 84.4382 -6.68624
6.2725 111.724 -8.81048
12.9011 134.273 -8.38627
23.2387 122.573 -4.55307
-18.7077 125.572 11.1712
16.2385 131.524 -9.20219
-12.178 136.14 -0.657152
7.66809 86.3085 -4.8195
-10.9942 117.999 -5.62288
-3.84605 103.676 -7.92838
19.3184 127.081 -2.45411
16.0619 129.126 -8.69777
11.2223 82.9816 -3.29175
-21.3158 119.459 4.73487
23.4976 135.874 3.18766
-10.2538 101.751 -7.49368
15.9991 81.0127 -2.84467
16.2812 125.955 -8.77753
-13.6368 105.117 0.418589
-12.7284 129.53 0.710863
17.5021 139.759 -5.64359
-11.439 125.025 10.5016
18.3201 127.926 5.95207
15.0851 136.921 -9.86983
22.0111 132.148 -6.42949
-10.5352 80.7218 -5.97368
22.1549 126.318 -0.758959
12.2274 136.753 -0.214255
-13.3673 120.575 0.432096
16.8947 148.978 0.974404
-3.04206 95.1348 6.91308
15.4614 142.064 -1.52355
16.1049 121.094 -8.08958
8.14582 154.533 1.50141
13.6274 129.761 -9.23144
3.88091 115.859 -7.81218
4.9743 124.162 -5.51732
20.8058 108.622 4.33763
20.5503 123.767 -10.6479
7.39484 137.873 2.26849
-4.86213 126.007 -4.07487
-11.5814 84.5998 -3.59893
-18.676 125.686 9.24092
5.60091 128.987 6.61263
16.3718 94.0892 -6.68296
-3.34622 133.068 -3.15029
-3.111 115.929 11.4216
23.8201 135.525 3.19586
18.7048 90.4826 7.86602
10.2116 142.707 3.12907
18.8208 104.143 -9.15856
-9.37623 123.893 9.34767
7.46548 78.0088 3.21063
21.3637 133.748 3.60456
-1.31181 104.773 -8.79681
10.5063 121.203 -4.95327
3.46898 96.8493 10.7186
4.49223 98.2163 -5.27428
13.6509 81.8693 6.17996
15.9412 93.8961 4.49046
24.9633 134.656 2.83107
-12.0233 122.481 9.38329
15.9593 116.188 -7.81361
18.4783 91.3498 8.80237
-12.1958 78.1967 -3.28859
16.2989 139.402 -7.45165
-8.18373 79.4568 -6.4405
-0.902903 130.658 5.46401
-4.14825 135.596 -3.9311
24.0169 123.166 5.95053
-4.35645 152.664 -2.0432
12.859 107.643 -9.17987
1.87434 138.227 2.71056
4.41742 90.8619 10.0077
12.4275 112.113 6.2573
1.68685 89.2986 -6.70616
18.7522 132.633 -2.34492
-4.33826 133.625 6.19653
-7.82156 139.817 8.22263
-15.1301 120.238 6.16316
19.8026 97.5824 -7.57484
17.3933 118.752 -7.83858
6.94068 141.848 1.82769
8.95446 117.389 -7.01205
8.49714 129.199 -3.22389
-12.1526 97.8029 -6.11489
22.1197 144.293 -5.6313
23.6899 123.774 6.96879
10.2083 100.584 -7.29528
5.32486 144.943 -5.67948
5.23785 134.06 -2.59237
15.595 83.7511 4.92397
6.57599 116.49 -7.48085
14.5559 123.299 -0.0826674
-13.6401 89.4698 -3.57513
-14.0743 101.996 -3.34787
-15.789 111.463 -1.20779
-9.14496 124.839 9.63988
-12.9508 121.141 -0.580888
20.837 127.52 -3.31449
20.4459 123.977 -9.90697
-4.91195 129.635 -4.39009
-14.019 116.806 3.07573
4.77365 83.6025 -5.86646
-21.3932 116.181 11.866
15.8663 150.56 -0.194345
11.2428 106.062 7.18132
22.2597 112.903 9.03775
-14.0363 121.551 -1.93292
17.8929 108.404 -8.30695
24.273 126.695 2.78595
19.4579 98.931 5.3195
-11.3506 78.2007 -1.16805
4.6476 117.941 -7.4236
13.0093 152.374 0.479133
13.2831 133.033 -9.33657
-7.86297 109.594 7.04608
20.6532 138.266 3.58456
-1.86767 118.973 -3.44401
-7.41477 95.9078 -7.21699
-17.4257 131.838 7.4493
18.2667 97.6109 4.78096
18.3523 142.549 -7.11541
14.3008 123.2 -8.57182
-2.38108 94.7453 7.00497
0.904309 119.687 -4.17202
15.5721 132.746 -7.45703
14.0255 108.589 -9.3721
25.8922 131.65 -0.618645
12.2488 77.1728 -3.88651
2.18711 152.689 -3.04281
14.6642 83.044 5.97568
-20.7089 120.283 8.99555
21.2342 125.804 -4.50583
11.3674 90.6701 6.24656
15.4035 149.662 -1.47308
14.4422 143.87 -1.60928
14.3849 81.1186 5.31922
6.26458 118.367 -6.80399
5.6622 78.691 4.76419
-0.702868 80.3647 4.09409
-4.70747 113.451 11.0345
18.1059 131.384 -8.63379
13.1634 142.125 -8.60305
24.837 129.515 -1.96446
-10.3949 147.902 -0.777072
-4.45067 129.707 -4.05436
-4.63797 136.848 -4.17199
-8.44633 102.529 -7.57627
19.6797 103.839 3.94198
-11.4712 124.203 9.36719
16.1602 86.2934 -3.94926
-10.3953 122.959 7.10596
16.9405 79.901 3.26399
16.8745 136.132 1.06315
14.7811 140.603 -1.60741
18.9136 133.635 -10.3737
9.74935 113.891 -7.01187
7.37422 110.767 9.05167
3.95936 95.6157 10.6505
-3.87262 124.012 9.2591
21.4678 136.622 -5.82334
9.27101 122.744 7.42634
1.28757 104.907 11.2092
12.6596 152.04 0.749738
-14.1774 118.814 -1.0867
15.5253 129.407 -1.04338
1.13317 127.146 -2.58505
10.4749 133.646 -6.01408
-17.1942 132.518 4.49392
7.73723 109.682 9.27809
18.6413 128.207 -7.48017
11.8889 116.819 5.61767
-0.789755 84.0102 -6.85499
12.5237 88.9869 7.33564
-12.0654 114.917 -5.67333
-2.43701 75.6804 -6.08581
14.6951 76.4121 4.15421
7.28225 152.558 -3.88519
-13.6373 90.8149 -3.72602
-0.981832 76.5768 1.51914
16.1593 131.703 -7.16169
-9.86726 125.258 -5.02837
22.0891 123.947 -5.69637
16.409 104.156 -9.61078
-13.2586 131.777 1.11776
12.113 153.669 -0.207401
-13.6065 93.1112 -4.57143
16.1358 141.986 3.21185
17.2521 106.319 -8.83359
-6.16136 125.067 6.35527
-6.85524 113.085 8.14089
13.8032 150.404 -3.82481
-11.0632 121.228 8.14558
25.1964 133.902 0.167843
-12.5915 82.4075 -3.1037
-7.71069 107.36 7.62214
-5.73463 135.947 -5.7288
14.5831 141.061 -1.31552
15.0671 120.913 0.28319
4.82565 136.832 -2.51845
4.34491 87.7443 8.49265
-8.66202 136.417 9.40415
-0.336237 130.815 -1.87925
4.90926 151.784 -3.90577
15.2979 90.0677 6.893
-12.1066 137.791 -1.7786
20.0529 127.193 -6.96308
17.9607 125.57 -8.02097
-19.8419 117.035 13.0114
8.82978 79.2712 5.45738
13.2741 99.2208 -8.10352
7.86302 93.9563 -4.44602
11.0188 151.013 -4.12413
-13.3884 116.247 2.11938
3.9641 147.851 -4.71777
21.5192 125.63 -4.59147
-4.06116 113.785 -5.81954
4.38248 107.003 -8.70568
15.7473 151.721 -1.62369
15.1626 124.963 -8.76802
0.336315 150.474 -2.92194
-6.38183 125.828 6.437
5.69225 94.2206 10.3489
21.2558 141.383 2.27373
-1.9094 136.049 3.68675
14.9898 99.812 3.57926
-13.9163 119.973 6.03519
21.355 109.822 -7.90449
6.04113 140.172 -4.81257
-9.69895 92.0391 -7.00905
23.5792 129.469 2.33054
18.1128 131.986 -3.94952
-16.4352 122.791 0.204858
-11.6689 141.239 9.61624
-8.86013 142.827 8.44005
22.8729 129.251 0.847886
-10.6289 141.042 -2.46006
8.31215 120.2 7.23802
-10.4019 89.9525 -5.52575
19.0237 126.482 -7.97462
-12.4984 112.098 4.29865
-8.02276 120.882 9.45649
-9.57914 89.9596 1.1134
-8.98345 106.676 5.56587
2.0357 89.0674 -6.67221
-13.4061 111.349 -5.65904
8.05852 124.889 6.95718
-17.8032 129.946 6.06411
17.7744 129.642 -8.66799
9.47605 154.144 0.294041
13.8216 106.566 4.96251
24.7268 139.863 -3.56419
7.89914 77.5837 -4.94943
3.95283 139.357 -2.81676
-11.8087 77.7174 -5.70568
12.6887 137.019 1.24438
22.8454 121.858 8.99512
12.5108 125.575 2.89119
-16.4788 127.53 11.4196
-3.7831 143.044 2.58788
15.997 130.61 -5.5422
2.58384 118.159 9.6212
13.0515 113.744 4.10742
3.50702 133.007 4.85321
9.08992 106.337 -9.3109
16.7873 138.614 -7.49756
17.0519 135.957 -8.51453
12.9773 144.815 -7.06452
16.3528 128.952 -8.16813
16.9369 84.4402 4.23999
10.9247 132.157 4.47344
0.798104 116.221 10.198
19.4585 128.959 1.26676
2.07908 82.6157 6.42234
-15.4036 119.951 10.2643
17.8444 128.961 -5.49311
9.92018 118.203 -7.04978
-11.4805 145.208 3.43618
12.3331 109.159 -8.65264
-8.03815 86.8635 -5.68509
18.309 127.51 -3.16073
-9.52108 149.542 2.29133
-6.0872 82.3792 2.6847
4.98181 109.534 -8.55256
15.311 89.0052 -5.01815
-10.9267 109.153 -6.96357
16.0089 89.5028 5.59827
12.9742 114.361 3.88125
5.44184 116.45 -7.80992
-12.0806 127.729 -3.51074
-17.1532 120.815 0.265942
-16.8382 118.059 5.87802
17.9488 131.54 -8.76377
17.3319 129.162 -8.24266
23.2526 129.752 -7.80808
1.69094 154.067 -1.95329
6.63318 127.496 6.76126
-13.4672 121.691 -0.114954
-12.7315 135.724 -1.64838
-13.7967 92.7308 -4.28499
22.2745 143.723 0.843661
21.7503 118.145 -5.67681
-9.49626 84.5108 0.259775
17.7285 117.382 -8.02996
15.965 105.413 2.24966
15.6149 133.683 -1.57059
15.8688 139.247 1.55408
22.5855 133.594 -6.28861
16.5863 80.9984 3.08537
-7.26052 104.145 -7.27799
-11.916 93.5415 -0.951972
-6.61684 103.026 -6.83505
-16.8894 125.653 0.801298
-11.9033 137.644 -2.05561
-18.7697 122.766 12.0548
20.795 149.654 -2.07082
-14.0575 115.352 3.23419
-11.5959 124.674 -5.16062
-5.80516 76.2535 -7.34392
10.7024 151.32 -3.9134
2.89159 141.144 1.96455
24.9574 133.198 -6.13417
11.9378 109.938 -8.43329
21.989 114.517 5.54414
9.27383 118.514 -6.77791
-8.96119 94.2043 2.85259
5.73521 132.422 -2.78557
2.11277 130.492 -2.7417
10.6894 100.231 7.27544
11.5846 84.1778 7.71601
19.4207 127.514 -0.0788646
-15.3643 120.083 10.0732
-2.01117 101.433 10.4349
-10.098 124.403 -4.759
19.7484 120.425 8.24487
0.38374 88.5959 -7.1526
-18.6929 118.049 13.2573
-19.4858 116.627 4.84922
13.4779 101.776 3.64887
5.60556 120.197 8.17809
-0.353085 129.73 -2.01196
11.346 142.169 0.348824
8.59057 127.576 6.94021
-13.4692 122.175 -2.64928
-7.0786 102.686 6.37653
8.07994 141.692 -7.26313
-13.8357 132.21 0.77758
25.0383 122.431 -3.15429
-11.8052 142.849 8.40245
11.0919 105.868 -10.0556
18.4964 89.0638 6.27897
12.5789 96.6572 4.66346
18.0733 136.038 -6.81922
-19.0815 124.396 10.7892
-4.83868 112.585 -6.59536
-4.32438 129.487 6.33396
-9.80982 85.3261 -0.0199812
21.5764 128.849 4.13749
4.24359 99.0874 10.3963
8.55052 93.3792 8.23033
-4.06733 80.4034 -7.03038
20.4404 108.284 -8.18445
15.6351 132.085 -6.013
16.6559 97.645 4.03872
3.17607 94.1445 10.6547
16.0704 142.207 2.49532
-12.6049 97.0196 0.685811
17.3662 112.219 -8.44216
2.30064 78.174 3.94281
-13.266 98.6834 0.23326
20.8325 138.418 -7.45262
21.4664 105.752 5.71653
4.35433 85.6178 -6.34934
-14.3871 113.731 3.20143
18.1893 133.467 -7.154
16.5359 88.388 4.17098
16.8251 130.846 3.77384
11.6586 91.8032 5.85692
-10.7016 89.5527 0.432703
-11.2919 75.9745 -6.34554
20.5624 117.493 -7.97985
2.80373 129.102 -3.21546
-1.55642 133.719 -2.18096
-6.11633 129.856 -5.15333
23.8087 122.239 8.13323
-13.4949 111.235 3.77195
-5.20918 134.517 6.13068
25.1179 132.915 -3.48556
-4.94475 138.762 4.19033
6.57579 150.547 -4.76573
-12.0976 82.6945 -1.63067
22.0085 148.261 -3.04893
-6.13419 91.0123 3.04359
8.06983 92.8644 8.69031
10.2985 115.717 8.1334
-2.75174 133.267 -2.87693
-5.2435 85.4046 -7.99827
10.949 105.2 -9.86956
-5.3645 80.6708 2.30749
19.4562 128.737 0.708572
-1.09037 76.74 -6.21172
18.1984 118.974 -8.21109
0.624261 110.198 -6.79679
-10.3771 149.386 1.72576
-14.6608 117.523 -4.35728
12.1057 153.107 0.253357
-12.3396 133.589 -0.735969
10.4395 121.16 6.72202
0.713037 134.122 -1.58445
-9.2067 133.907 10.1371
4.95528 135.152 3.70311
24.9386 132.042 -2.59066
20.8432 141.666 -7.34508
-20.6551 116.627 12.6664
25.3047 127.766 1.70329
-16.9456 134.266 9.86372
10.9196 91.8034 -4.57844
1.89335 79.4548 5.15861
6.79291 90.5034 10.6978
-2.07979 124.691 8.3522
-15.7654 120.904 8.06496
11.2717 121.157 -5.53533
6.04874 152.124 -3.86565
7.7943 87.416 -4.31046
14.6245 143.114 -5.5505
5.39958 127.133 -4.4808
-2.54784 126.978 -3.0215
-4.25848 105.726 -7.29895
-2.89996 107.231 11.1363
5.61873 100.174 -6.49589
4.01524 139.269 -2.83329
19.2548 149.512 0.169897
4.75954 124.746 -5.30869
-8.74408 125.484 -5.73748
-15.526 118.885 1.78739
-14.9228 117.495 2.5997
16.8482 128.914 -3.85922
-7.94601 137.993 8.93248
-13.9541 122.951 11.1489
-7.3084 83.9229 -7.28077
-1.48064 76.0988 -6.71178
-16.8961 119.483 9.15207
3.30267 90.3269 8.33152
-12.4448 143.09 7.90465
17.103 137.922 -6.6946
12.2353 87.7395 -4.00431
2.11357 101.923 -7.49482
16.655 140.705 3.36178
-20.6829 121.258 9.133
12.9482 126.171 -8.81337
18.3694 126.944 0.77486
10.8422 104.382 -9.17854
20.7391 136.313 -6.64035
-15.8975 120.283 8.08037
-11.2779 80.722 -5.19285
14.5329 86.7422 5.41023
14.5627 143.58 -1.62929
-14.677 109.985 2.05229
20.6342 117.881 -5.23165
13.5086 123.369 -6.14723
14.0036 146.977 -0.965247
-4.05774 99.1182 8.34129
7.92419 138.759 -6.07178
-4.92342 145.093 2.76759
18.67 94.5731 7.00571
17.3003 129.071 -5.04549
20.5599 146.11 -5.37258
16.8515 129.912 -8.50216
-11.3204 92.2125 -0.435035
12.8191 104.205 -9.84607
6.21495 114.161 -8.4616
14.7781 120.332 0.411129
17.7966 133.548 -11.0848
17.713 141.944 -5.59177
16.6604 146.823 1.48184
18.6174 132.791 -10.1568
9.79855 129.826 5.87772
8.6343 146.058 -7.05941
14.1893 151.156 0.103282
-14.9227 117.327 5.68079
4.68437 120.246 -6.75409
15.8489 108.416 1.99697
20.7073 149.54 -2.43051
13.3134 132.649 1.34656
21.6937 143.313 1.45483
13.8672 76.8967 4.37906
-7.41505 97.6031 -7.09402
8.3454 120.313 -5.53417
9.32983 144.325 -7.63987
21.4543 116.409 4.73987
-7.53853 116.393 9.70854
6.05406 149.357 -5.17415
-7.55426 97.0148 -6.91128
3.30496 80.9729 -5.6939
-10.5388 144.884 -1.50806
17.4528 119.594 0.730003
-10.6043 94.0955 -6.59925
-14.1559 121.784 0.326978
15.5882 125.728 -9.2777
-19.3293 122.192 3.92828
4.29127 92.2053 -4.39019
22.6429 113.227 -7.47805
10.7166 127.061 5.60195
15.22 133.555 -7.06608
13.0579 117.141 2.04619
11.3684 125.142 -6.57636
-13.1629 101.317 0.154124
-11.6713 77.8299 -5.61024
10.6755 122.396 5.96296
-13.559 120.724 0.648327
24.3887 122.026 -3.88034
10.9017 135.213 3.54582
-16.0971 129.011 1.13171
-7.51768 82.3054 -6.53879
-13.4979 118.568 1.95056
-5.39912 81.1029 -7.45758
-17.1253 120.94 0.220545
-10.8977 108.708 4.10849
-15.4904 120.817 11.9229
6.77229 95.4539 9.88822
7.90461 93.2627 9.26091
15.5778 87.053 3.83649
23.0965 134.129 1.91384
-12.0331 100.238 -5.26662
12.6706 123.887 -6.3025
11.3137 144.072 -0.52354
0.564905 93.886 -5.40346
18.0929 121.848 -6.39095
-7.19727 83.3465 -7.52302
2.84992 116.416 -7.27746
20.3478 125.593 8.14502
-12.8879 102.469 0.0848285
-0.0166129 136.9 3.48714
14.5887 143.676 -5.49502
-13.2021 120.352 3.91132
18.3104 91.8913 9.08794
10.5961 132.144 4.76419
-8.04515 132.766 -6.31026
-0.985931 125.332 7.72261
-18.3 127.499 11.2277
18.5762 126.875 7.21656
15.1016 126.753 -9.61241
1.94742 85.4255 6.39775
4.08048 80.839 -5.71271
7.31222 107.409 -9.88419
12.1685 101.994 5.73784
2.33586 110.819 10.3876
13.9455 153.031 -0.598041
6.46404 75.4257 -5.18156
-8.94686 76.9044 -7.92235
11.7952 118.781 -7.82769
-6.84715 111.621 -6.91245
9.43714 104.679 -8.55544
-10.1298 84.79 -0.125811
-8.10829 119.168 9.31736
-6.06387 116.768 10.7686
-1.27063 86.4204 4.50582
24.3529 142.385 -3.36911
-11.9104 78.1341 -2.42002
3.77009 126.246 7.41428
12.7269 112.703 5.42693
11.1414 142.972 -8.55656
22.8487 136.64 2.97453
-14.5846 120.148 6.80851
22.002 125.517 -1.25405
-15.4499 119.178 6.39101
17.0513 144.548 -4.16156
-19.4184 116.263 5.73527
13.1025 111.867 4.88873
7.85791 133.627 -3.92434
-21.3715 120.782 7.5567
-10.8857 100.89 3.52181
-10.2949 146.387 1.34043
-4.44196 79.4855 2.38114
8.73958 89.8543 -4.15706
-5.50842 104.808 -7.78396
-7.29059 81.16 1.90807
19.4162 149.458 0.0853706
-14.7048 114.546 -4.5409
-8.85309 86.2538 0.546415
20.5228 130.084 -8.16179
-4.84313 128.216 6.13378
19.2083 100.795 -8.59019
10.3081 104.71 -9.08225
-13.5806 129.28 9.64728
8.62452 152.183 -4.04739
5.95111 77.6472 -5.25727
22.9337 118.272 -1.06091
8.3305 143.001 3.25532
23.6711 124.896 -0.907973
-18.4058 125.631 0.894888
19.0965 110.384 2.70591
-15.1838 119.931 7.59659
16.5731 131.998 -0.684659
11.346 112.541 7.62486
3.73415 92.7186 10.458
-18.567 126.483 6.22287
20.0415 99.2791 9.25192
20.8277 118.06 7.45039
6.19821 98.5395 -5.46706
11.1842 114.827 7.70536
13.2683 123.842 0.849062
-14.7156 116.249 -2.58302
19.6784 107.681 3.43959
4.87196 138.257 -3.23799
22.7469 140.113 -4.95809
24.2696 133.685 -6.45368
-6.98845 78.0973 1.03063
-5.36894 93.4899 5.00265
17.4729 88.7652 5.61561
-15.0771 120.845 5.78532
12.6127 106.755 6.62941
11.2958 85.912 -3.42675
16.4872 144.391 1.89829
-4.14983 144.73 2.52965
0.453098 91.6979 6.85692
-9.82662 92.2913 1.4281
-13.1111 104.783 -4.11853
-3.04713 98.2022 8.75309
-2.05123 78.2986 2.18814
24.0571 138.801 0.903483
17.7975 131.587 -4.36236
-12.374 129.392 9.27302
5.58166 85.434 -5.83095
20.6519 117.417 3.54789
14.8819 141.475 -1.54374
-11.5095 75.3148 -5.48861
8.97625 84.9937 -4.21446
4.60822 90.8808 -4.82557
10.2712 110.181 8.20826
-8.60804 105.564 6.62133
-1.22737 114.816 10.7074
-2.50523 126.281 7.53463
22.1919 127.981 5.47974
21.6468 127.722 5.7691
22.0859 111.416 5.58445
-6.11957 134.262 8.01188
0.493466 140.118 2.76852
4.64926 131.414 5.43762
8.68018 120.386 -5.50251
-13.4387 121.658 7.66639
15.5595 82.4343 5.23013
12.6277 87.6222 6.53558
-17.4368 132.316 3.10743
15.0483 129.527 -9.49165
-12.9021 119.205 -0.0856437
-4.8975 102.169 8.30898
-9.98191 139.642 -2.75949
-13.0159 118.513 -4.98786
11.6276 110.525 -8.23505
-9.31818 84.6613 -5.14287
1.55846 92.6064 8.79961
-14.98 108.257 -3.16996
-17.9552 129.739 8.61112
9.08012 147.011 -6.6342
-4.86531 108.688 10.6493
11.5344 77.3703 4.29939
11.2075 134.75 3.99061
-17.888 118.24 7.44666
-7.67609 87.3295 -5.81168
-5.95013 78.3641 -6.21897
-2.82113 118.418 11.1227
17.6509 133.238 2.18832
20.1073 131.297 -7.4007
19.5232 119.014 2.18644
-10.4602 101.466 -7.46858
11.5326 139.294 1.03378
21.1735 146.585 -4.9188
-13.2796 119.83 4.99128
-13.7017 125.814 -0.589005
1.80004 119.359 -5.27532
-12.7882 134.078 1.21991
-4.04988 134.7 -4.06336
-10.1806 86.2292 -0.315588
-2.48596 81.7783 3.54604
22.9406 125.991 1.00363
-15.017 136.604 10.4368
16.6675 100.422 3.90921
25.9047 131.865 2.50141
17.3518 138.513 -5.64661
20.5023 118.209 -3.00609
2.5967 122.717 -4.33004
-11.757 127.291 10.0606
15.8664 93.8358 4.47352
1.01615 131.028 4.88566
15.8758 128.635 -0.900425
7.68092 124.166 -4.45017
8.68103 149.935 -5.68519
3.37473 109.733 10.1249
23.5075 143.921 -4.35742
25.5044 131.13 -5.61786
-17.3235 117.622 10.1843
-10.367 74.8201 -3.81266
18.0752 118.491 1.17305
-6.45636 120.976 10.3095
11.2805 105.42 -10.1543
11.8615 144.588 1.32262
19.4894 117.657 -8.29091
24.5913 138.742 -2.16896
16.1696 92.2386 -6.03811
14.956 130.288 -0.909965
19.124 125.116 3.804
17.2008 128.72 -9.82937
23.3962 123.538 -4.08761
1.25752 102.623 11.2391
-7.81207 78.3475 0.774786
7.56675 97.0777 9.75229
-7.58427 79.5282 -6.30263
-11.8682 80.0048 -4.8646
19.7534 137.053 -8.02745
-4.115 143.776 2.68533
11.0439 131.04 4.2722
2.31534 149.44 -3.78482
-11.3859 101.767 -6.95718
-1.80527 134.044 -2.31086
-3.93301 76.4428 -7.47412
12.7387 124.129 -7.74132
23.0491 145.682 -2.2436
6.83743 81.8731 -5.57755
-14.3776 118.218 3.03545
3.18922 129.509 -3.38126
20.837 147.416 0.831378
15.9738 152.603 -1.53478
15.8907 93.3212 4.58765
-15.2762 138.984 7.30226
-13.3516 124.27 -2.69018
15.7851 132.639 -3.46837
16.5544 138.543 -0.850791
-6.20099 140.432 5.07774
17.8556 126.969 -10.1569
20.2011 99.2194 7.89409
-4.65603 135.626 -4.45405
15.7871 127.031 -6.27161
18.7785 117.019 -8.26551
-14.1616 120.888 7.91218
-12.8435 133.68 -0.00980547
20.0427 125.04 -7.62802
19.9017 128.021 4.98359
10.0962 109.851 8.29163
8.30524 139.126 1.64685
16.4664 109.69 -8.06007
1.77614 115.545 -6.68352
-6.51576 88.1935 -6.6572
-13.8872 118.689 4.77567
22.3184 122.559 8.96074
-5.57193 114.953 10.9288
-14.6783 117.396 1.47298
-11.2249 145.51 3.33277
3.13765 105.785 -9.05287
-9.71963 74.6595 -6.04937
10.7735 144.631 -7.87706
2.88744 91.3952 8.98138
-0.99213 106.744 11.3748
25.3273 139.51 -3.31534
2.0163 123.824 9.14191
15.9969 80.8458 3.56478
6.85099 140.323 1.6898
3.27973 80.9194 -5.69711
18.0512 134.045 -6.42292
16.1595 125.284 -6.35644
17.2051 113.106 1.45452
-11.1649 139.009 10.3651
8.53679 77.9684 4.11637
-4.57559 137.796 -4.1586
9.6821 127.412 -3.62188
10.2256 78.6277 -4.09346
-13.6043 125.004 9.55662
0.242827 99.166 10.7849
-11.8341 126.563 10.2404
-5.24928 121.439 9.95165
9.1928 140.47 2.42964
8.15032 109.682 9.11395
-1.54668 126.61 -2.4996
-14.0387 109.622 2.8403
11.8815 90.0098 -4.32044
1.40913 139.635 2.56379
12.5527 101.083 4.79917
18.2641 120.404 1.18125
14.8076 89.7724 5.15742
-8.10308 143.297 7.86879
-15.3034 114.996 -3.5102
15.3395 143.529 0.0855684
22.6382 142.252 -5.58444
6.71924 117.17 8.77217
0.530208 138.592 -1.58059
2.12471 76.9046 0.607027
16.6113 98.4789 -8.29492
9.95245 86.4854 7.67686
-5.00361 135.721 -4.85157
-4.66753 125.427 6.61115
-1.22925 123.721 9.68399
13.6396 85.1627 5.42781
-4.21031 136.174 4.61902
4.19332 80.965 5.75685
-12.9786 121.221 -2.80474
16.7501 136.262 -5.91505
-6.25804 75.734 -6.95327
11.6928 151.691 0.789444
5.18972 149.513 -4.80244
-15.2357 134.677 11.2065
23.4511 123.541 -4.10518
-12.2704 83.5297 -3.82215
17.3388 134.801 -7.92724
-11.5645 105.911 2.00267
-9.35587 75.8196 -1.54162
-9.70671 130.814 8.56859
-3.94271 80.3875 -7.08644
-9.30596 149.942 2.08666
1.5057 109.433 10.7813
-6.36321 111.416 9.12337
7.00899 116.444 -7.07859
-0.0634044 110.966 11.0977
25.5572 132.593 -5.02968
24.6501 141.641 -2.69084
-1.97025 147.984 -1.97104
18.5295 113.204 -8.44345
-7.51281 93.017 -7.74067
-7.42043 85.0479 -6.08266
3.02584 117.62 9.78683
-13.2064 125.509 0.757061
22.583 119.504 -0.324898
24.3349 130.913 -6.51329
2.14428 153.4 -2.73257
0.846344 103.053 -7.8126
19.752 141.315 3.34427
-0.717495 120.229 9.80722
4.72033 126.091 -4.64333
17.6063 129.912 -6.58496
15.2069 145.971 -4.0027
-4.97177 119.424 10.5695
14.5668 105.058 -10.0016
-10.0842 83.3088 -0.32648
-9.62073 128.304 9.31478
-13.7369 126.111 1.37152
-1.12463 112.791 -5.04587
18.7427 98.7625 4.78528
21.9698 141.308 -6.30086
-14.4477 117.931 5.46921
13.1354 105.847 6.01383
-10.3169 132.188 9.2737
20.4272 130.448 0.813664
-7.59272 101.784 5.59509
12.3812 121.722 -6.55543
9.20197 85.3701 9.16011
-20.5839 120.956 9.42914
-4.65708 116.481 -5.28369
25.5744 133.662 1.92201
17.1105 90.2246 6.45479
21.7121 117.359 -7.13327
10.433 102.213 -7.83534
24.0509 117.117 -3.96919
2.6991 128.229 5.76129
7.77275 139.462 -6.33493
18.8232 128.632 -9.33474
-19.6035 117.492 11.3504
9.64155 116.665 -7.06784
17.6492 141.894 -6.35447
