ply
format ascii 1.0
comment Created by Open3D
element vertex 1929
property double x
property double y
property double z
end_header
-8.4846 103.548 6.38477
-0.537915 109.795 7.08022
7.78387 144.887 4.77453
-0.733899 74.996 -2.44231
2.80592 107.147 -16.402
0.93876 99.2102 5.31952
6.12818 115.657 5.56575
28.2748 80.9254 -12.0509
9.27183 138.639 2.06171
5.76118 142.495 -7.36824
-2.69815 122.956 -8.92083
13.1457 111.876 -0.106641
19.9271 90.4244 -13.9783
-8.91191 125.558 6.56076
21.0943 96.4882 2.024
9.6559 139.687 1.96977
21.06 143.57 -6.29393
3.42048 134.659 -7.58466
27.3976 96.7708 -8.46847
2.62273 76.7348 -1.80049
0.589365 129.647 -8.57787
16.0587 145.343 1.81361
-15.2495 133.713 -2.37761
29.348 83.8954 -3.90453
21.6755 125.596 -6.21704
28.8315 92.1471 -3.61052
8.55485 113.164 0.669254
-2.49134 79.7199 0.233873
-5.41544 149.8 -3.88828
22.9183 109.865 2.89092
13.227 124.182 -14.1635
-14.4222 137.517 -2.95877
19.6732 122.869 -11.0393
5.15057 142.445 5.83934
-4.62994 75.811 -2.60405
2.27476 137.441 4.62879
6.047 130.691 6.12693
-18.3846 123.263 -7.44866
24.0304 127.63 -3.65456
22.8913 95.0565 -11.7015
10.0216 95.1152 -15.2697
-5.03162 84.4444 -7.96549
10.0781 149.705 -6.08431
3.1872 134.574 -7.52806
-8.89437 95.5026 4.96059
7.91888 106.265 0.595426
9.04782 103.705 -16.6651
10.1036 102.557 -16.6311
0.564924 97.7332 -12.8389
3.77151 103.874 -16.2278
12.4643 136.328 -0.144231
17.4247 129.794 -7.7113
28.5991 93.9909 -6.46666
-12.9676 146.866 -0.675049
21.6432 106.848 -10.0933
21.2671 121.871 -11.9437
17.3537 124.141 -13.3925
7.60674 88.2491 2.60666
5.53143 154.879 -1.41158
29.1767 77.6576 -11.127
16.9017 127.855 -5.24691
-9.8581 143.27 4.58518
12.7654 149.882 -3.29369
4.06952 133.902 5.9033
-13.0978 144.787 -1.83821
-3.33275 103.321 5.84771
-0.804239 91.6453 3.82617
29.89 82.122 -7.95656
27.6667 136.965 -8.76104
-0.557289 107.922 6.94673
20.5656 124.213 -8.0543
3.93625 150.282 -3.5091
17.1669 128.035 -6.56252
21.8519 146.158 -2.28355
23.4742 97.3236 1.41659
13.8111 130.911 -10.771
26.2334 102.67 -0.173956
10.0381 85.6594 -13.9957
16.3715 81.5655 -0.609148
19.2024 125.003 -7.13765
27.3328 130.719 -5.76949
-8.85569 146.851 -5.4309
-4.05513 149.72 -3.27447
-8.93948 117.201 -8.90889
18.5176 115.995 -9.09355
-11.5543 88.0401 0.233762
10.6924 76.6897 -2.56579
8.74131 128.515 3.88228
-15.9592 128.212 -4.92428
19.0906 131.935 -11.1688
18.1639 75.7585 -2.89801
-11.9475 128.127 4.90475
6.2571 102.664 1.86013
8.69191 154.522 0.319445
20.4557 122.487 3.27159
-2.62339 111.486 -14.0166
8.41321 137.201 4.29796
-1.3396 139.375 2.90605
11.2035 134.594 -0.17347
10.6457 94.9319 1.02849
19.5517 145.888 0.559131
-4.68126 106.216 6.36497
-8.41479 105.061 -13.5024
12.5863 138.794 -11.1389
15.4487 75.6754 -3.7777
19.0754 123.414 -10.4606
16.4737 136.267 -8.02901
-11.0142 88.2918 0.499695
16.8222 128.254 -5.53228
16.3732 108.43 -15.6728
-1.31973 104.689 -14.815
8.50113 115.278 -15.1485
11.1 130.9 -14.1814
9.75803 85.603 1.77205
4.35267 86.0723 -11.8426
15.4284 130.737 1.15403
23.2222 109.849 2.24491
-5.08553 129.29 5.71725
-18.3305 122.253 -5.70604
27.1492 132.229 -11.6145
-1.07547 88.9886 3.35296
6.92369 120.501 5.16819
23.3257 132.354 -2.50447
25.6079 104.036 -6.69142
4.8045 114.056 -13.8821
1.8983 136.338 4.7978
26.5366 95.6067 -9.84146
12.779 76.559 -2.93437
-4.19559 79.0185 -11.0332
28.5526 89.0813 -2.24817
-13.6915 128.877 -9.3577
-4.627 120.629 -8.3385
3.87345 138.055 4.53878
20.6972 103.509 -11.5576
-9.51436 147.782 -4.98128
13.9751 130.479 -10.7165
-13.7638 114.786 6.88123
14.2069 148.86 -2.71676
14.1822 106.832 -16.1056
16.5168 147.049 -2.55748
17.0167 143.195 -5.37988
-12.8769 134.039 6.88788
-6.92538 140.954 2.19874
21.1526 118.508 -7.84429
-7.00522 137.742 -6.88544
16.3662 125.936 -5.43123
8.56545 113.726 -15.3839
23.0242 121.623 -9.25009
17.0224 126.164 2.57141
21.0356 142.119 -0.336287
16.5781 125.547 1.94646
15.5639 121.871 -10.6348
4.50985 134.838 5.09544
-8.72597 82.4038 1.47175
27.6754 134.075 -8.04125
3.56777 76.125 -2.14767
-17.1636 125.319 -7.47858
3.0547 116.985 -13.5654
5.52462 84.1648 -12.546
15.4123 128.003 -6.5052
22.0684 123.088 -4.97955
-10.503 137.349 -7.34643
-14.086 110.48 6.21569
13.8275 137.709 -11.0269
7.16251 121.99 -12.5813
2.6319 85.878 -10.6743
-6.5819 89.9942 -8.59814
23.5723 118.426 -0.653308
-1.52261 131.657 4.71246
23.9619 94.8652 0.56936
26.9636 129.645 -3.61199
8.01064 126.097 4.674
15.8941 128.368 -8.48679
15.7221 81.7342 -0.314371
11.1453 132.164 -13.8277
3.53128 78.8715 -0.138757
3.41515 78.4141 -0.497707
13.9628 132.605 0.217248
6.76088 111.571 2.33847
1.36424 126.363 -10.4741
17.9972 126.218 -7.107
19.2107 110.252 2.55792
17.8513 140.212 -8.17487
13.8031 129.107 -11.7029
-2.93921 90.457 4.20232
-7.75174 134.979 3.36119
11.9605 107.854 0.0521841
-12.7654 84.2363 -6.54347
5.82935 105.201 2.74129
4.20625 138.556 -7.5179
14.6863 129.465 -9.93375
-1.83048 90.7675 3.92423
-9.27559 90.2543 -9.45393
-5.68572 119.034 7.3979
3.4358 115.966 -13.5814
19.0154 81.6182 -12.4023
29.3668 88.1946 -5.98664
-0.556221 95.3923 -11.5423
25.3744 127.146 -4.20355
4.59909 78.8933 -0.21044
6.86584 99.0638 1.33879
-11.7661 147.346 -3.00014
8.30177 139.821 2.90129
17.563 146.58 1.46915
9.1594 78.2118 -11.6843
7.06994 76.809 -1.77977
17.4237 93.3434 -14.6786
-8.07496 134.897 -7.95214
7.00576 84.1289 -13.278
-11.1894 135.941 -7.88413
-10.9793 107.115 7.30656
8.63638 142.454 2.27608
-6.75202 144.6 -5.84713
-17.6279 123.613 -6.00552
9.38613 106.045 -15.551
-3.80247 135.133 3.33601
13.8634 128.39 -8.0045
24.9512 102.778 1.22747
14.8268 117.457 0.380666
-16.7209 142.016 1.73771
9.04729 143.695 -9.35384
-15.5845 135.038 -1.6805
9.17485 134.552 2.0541
13.4788 139.685 0.200105
10.6931 120.902 -13.7892
-3.95098 125.273 7.47784
-6.10408 122.908 8.29045
-17.643 122.338 -3.19912
-12.7709 119.604 7.38344
12.264 125.469 -14.7046
-17.6127 121.106 -4.202
-1.22095 153.82 -2.14489
29.0081 84.727 -4.60322
10.1275 84.8515 1.67868
4.02866 112.059 6.36393
-6.912 117.292 7.41668
-4.76176 136.519 -5.60485
12.8996 138.492 -10.0029
-13.3035 98.604 4.2116
16.3501 121.283 -10.5695
-12.053 147.886 -2.12825
6.91513 76.7375 -12.025
4.33633 103.619 4.67273
13.0738 95.2576 1.72844
20.8174 79.1753 -1.26782
14.7906 141.721 1.55115
16.7003 129.676 3.12138
29.5555 85.4148 -8.84463
1.32636 108.94 6.88918
8.81306 98.1422 0.618889
2.86752 130.711 -8.4517
20.2143 122.278 -8.93256
-7.46954 80.4043 -9.68693
29.9409 81.5581 -8.01737
-11.342 76.9383 -2.36269
14.9378 120.938 -11.0966
20.2122 121.738 -12.299
8.61079 115.366 0.634166
5.52449 144.011 -6.28234
0.280318 132.235 4.87008
3.76604 114.861 -13.5866
29.5689 125.125 -8.07198
-6.416 83.0632 1.80568
24.8024 130.825 -10.9959
15.024 150.753 0.726101
-8.51787 82.4846 -8.56084
2.36087 104.532 -15.3622
25.2346 82.3237 -0.873053
4.14586 153.606 -2.54229
6.41841 98.9922 1.36096
-11.0348 74.2466 -2.79317
-7.50492 154.169 0.214455
-18.1121 123.629 -6.19091
0.362637 92.6426 -11.9819
18.0549 103.184 -14.1235
5.22043 136.474 -9.24727
0.623637 98.3986 -12.9776
5.71688 95.7615 -14.8718
-14.8301 106.859 -12.0475
27.153 101.434 -1.7864
17.8745 121.68 3.35401
28.7261 81.864 -3.49411
-7.81892 153.681 0.351216
-17.7977 124.842 -2.90809
-15.1226 138.066 7.52028
16.4267 135.952 -8.00095
-5.87556 133.689 -5.91373
24.112 116.572 -3.25374
22.1324 100.389 -12.1
-17.2487 125.639 -3.5498
6.32587 139.391 5.42625
-1.85434 87.9979 3.78617
28.1471 88.1506 -1.48058
27.1785 89.8745 -10.7817
-14.035 127.307 -8.23171
-13.6156 133.947 -4.63823
-12.9901 127.346 4.36952
26.3735 122.987 -8.15519
5.81021 122.633 -11.6489
-5.26595 143.385 1.95061
5.6308 130.624 -10.1563
19.8134 137.187 -0.630363
13.1216 129.675 -13.0544
4.89798 84.557 2.58923
-7.36281 104.47 -13.4217
-14.1577 128.124 -8.64014
-9.11463 116.898 -8.98765
16.9335 126.108 -12.84
6.10197 128.719 6.06424
-14.0125 85.8928 -0.757033
-10.9964 114.488 -10.494
26.7126 136.421 -5.7483
1.66995 105.261 -15.1859
12.8391 80.8784 -0.221902
25.4821 99.9457 0.314699
4.61717 131.576 6.66161
22.7149 118.292 -4.22441
10.9554 92.0517 -15.2718
-3.68613 99.8893 -11.6529
-7.07992 92.6599 4.98955
19.6777 136.474 -10.275
22.4166 140.89 -7.98048
-16.0895 100.473 -11.7641
18.4305 111.612 2.07689
23.6123 113.375 1.54972
24.1427 76.6718 -1.90337
26.0151 91.3897 -11.1237
14.5297 137.341 1.11665
-7.34768 112.838 -10.1764
8.16624 118.436 1.49933
26.7474 76.6465 -2.40335
10.6602 149.712 1.25557
18.5699 99.8242 -14.9062
14.8138 91.7455 -14.6723
-1.93724 99.3985 -11.7284
0.0007912 136.904 4.01405
-7.99927 128.4 -6.97384
11.9759 117.04 -0.296443
7.13918 93.4168 1.12392
10.0218 118.346 -13.8819
15.8908 77.1176 -2.04708
5.75305 119.856 -13.8132
0.900756 126.652 -10.3225
15.684 107.39 0.655344
-4.42208 144.888 -4.60781
-11.0154 109.076 7.34251
4.57189 78.0385 -0.847968
16.8612 80.9725 -0.809345
-15.4151 92.8247 -10.7803
6.06762 102.888 2.19472
22.5234 92.9529 -12.2402
6.92848 110.552 1.78626
-7.42922 83.5124 1.94781
18.2438 118.689 3.24758
5.99321 113.947 -14.1832
25.669 79.1959 -1.42846
-3.79729 102.839 -14.0256
-13.507 143.674 -0.920383
16.8294 128.218 3.13879
4.87672 81.0878 0.688422
6.1974 84.2148 1.70354
13.2634 122.321 -0.196952
-15.9227 121.151 -9.13781
4.41598 135.105 -8.26407
13.3585 80.6992 -12.7731
28.8737 89.6635 -8.81874
11.2377 153.369 -0.00257501
-4.03381 139.272 -5.14571
12.3546 88.0848 -13.958
1.99246 136.914 -5.5027
16.8338 102.329 1.64541
-10.1922 107.513 -11.9764
23.1367 119.602 0.903301
-17.3504 122.596 -3.59898
11.934 142.003 0.195308
27.5058 98.119 -3.12159
14.7932 96.9283 2.08775
7.78787 125.884 4.89462
28.7438 92.2418 -4.34299
1.10059 110.199 -15.8011
-6.18198 109.081 6.43268
2.55847 146.34 -3.95997
25.9216 100.03 -9.31931
-14.4143 144.875 2.95896
-16.8216 126.481 -6.24723
13.6214 77.4122 -11.975
19.0765 91.842 1.75474
13.3783 130.43 -0.122694
-3.21807 144.291 -4.02148
20.519 118.912 3.38284
19.1171 103.741 2.48701
15.454 110.804 -15.5493
16.744 109.996 0.981533
25.9109 82.845 -0.877551
14.5398 146.351 1.65444
16.786 125.875 -11.9556
10.1723 151.199 -4.30681
20.6296 125.688 -13.3662
12.669 125.324 -0.324031
9.06289 122.985 -13.0621
1.36556 117.262 7.11443
2.99331 77.6906 -1.04333
3.01619 128.142 -9.57251
-8.68845 88.155 -8.62883
-7.18848 124.924 -7.25821
-17.2925 125.354 -7.00595
9.67148 81.9362 -13.0118
26.7081 89.9282 -11.1089
11.7071 104.454 0.288482
-4.38536 128.771 -5.66427
22.4193 77.8992 -12.2171
-6.00346 106.681 6.06888
11.8361 116.219 -0.301164
8.58171 123.252 -12.8003
7.70171 84.3979 1.46529
20.0044 129.866 -0.955841
26.9141 79.1294 -13.1021
-11.4171 96.4869 4.02569
-0.0678978 142.951 3.6279
-15.0814 139.285 -0.507552
4.41235 113.243 -13.9126
15.014 117.296 -13.5424
-9.24869 139.42 -7.64173
10.2142 86.9499 -14.1558
8.04439 146.192 4.80896
20.8725 127.315 -2.47083
16.7948 83.5021 0.143546
6.86923 135.121 5.01485
5.32544 112.757 5.57958
8.43931 128.907 -13.4559
-16.1422 142.869 7.06029
-1.64501 115.989 7.76123
-14.3293 119.601 -9.91887
20.4671 121.37 -9.00337
25.2587 93.9657 0.187549
-16.4106 144.335 4.05579
21.3007 128.844 -4.4176
-8.27419 129.788 -7.27692
18.1363 97.9255 -14.9836
15.1037 128.834 -9.29777
-4.83235 112.222 -13.145
19.9109 139.935 -8.64165
-10.9098 114.699 -10.3567
25.2257 122.858 -7.44582
-1.06578 101.073 -13.1047
15.836 87.1109 1.7214
-13.1456 142.957 -2.87545
17.5612 114.965 -13.4331
-1.04578 123.029 -11.1308
-1.4231 110.171 -14.4879
25.5858 92.6124 0.257221
-6.24593 98.7611 5.77869
1.8938 78.3238 -0.345818
18.0798 84.0781 -0.00377264
-5.26281 85.4962 -7.49546
9.45475 153.526 -1.12578
6.41611 123.176 6.14045
6.82423 92.8997 1.14415
16.9481 135.187 -10.2771
23.7401 113.757 -5.77634
-10.9342 122.573 -8.14804
8.16157 138.942 2.93411
10.6528 114.105 -0.0765735
-14.1613 95.5951 -10.7726
14.6078 112.687 -15.886
18.2203 125.219 -9.47201
8.51901 136.56 3.82227
28.8647 85.0688 -4.56033
16.8712 112.061 -14.4382
5.72466 114.351 5.56746
17.0625 118.224 1.99243
15.6351 135.917 -9.52425
4.14132 124.213 6.48308
21.3087 137.305 -9.52427
5.83433 130.365 -10.4583
21.9606 140.659 -1.397
-12.0973 87.9087 -8.86618
0.521609 103.738 -14.3332
10.111 149.283 1.41727
14.9068 138.238 1.3969
0.426598 122.681 -12.1473
-8.56888 126.44 6.30864
26.9322 101.657 -4.3916
32.6373 129.882 -10.107
-3.53258 110.54 6.78712
-6.92102 133.305 3.35743
-9.43124 142.417 -6.68467
-7.09567 104.892 5.98541
13.8626 150.246 -0.984375
16.6843 125.85 -12.2019
17.9644 124.743 -12.603
-1.48103 110.99 7.08202
24.1808 90.2095 0.223464
-10.5125 134.215 5.85397
26.8302 134.263 -6.25482
1.43061 84.1565 2.52917
32.962 127.232 -7.28602
-15.1543 133.882 -1.99891
-8.82852 148.474 -4.72739
21.5554 120.04 -7.45859
-16.0187 133.486 -2.37527
10.0167 123.446 0.114814
-15.5522 112.061 -11.4332
17.4484 115.277 -12.578
-4.62093 118.134 7.75986
16.7446 85.6955 -13.6687
19.14 123.787 3.68447
-15.6081 121.726 -9.08149
-1.25261 100.878 5.63346
-5.84 85.7507 3.41655
-12.9068 100.776 -11.7246
-9.30167 100.834 6.31075
3.34489 139.462 -6.32666
-6.4056 128.006 5.34472
18.0367 119.986 3.25928
1.59359 110.529 7.18268
26.0389 134.422 -9.63178
-1.98098 78.7448 -10.2631
14.811 121.834 -10.8324
18.7953 123.587 -11.243
-11.3842 146.742 -3.83432
15.1917 148.142 -1.5719
-11.7143 111.25 7.57125
17.0655 112.215 -14.2081
5.81861 119.826 -13.838
14.5406 88.736 -14.2481
2.8389 95.5724 2.55507
17.773 124.285 -13.3968
-1.15805 100.181 5.6096
22.2858 112.364 -9.23247
7.98322 120.715 3.09124
-3.75393 90.9691 4.51553
-9.19145 144.421 3.77993
-16.9921 108.78 -10.5889
-0.153328 93.6954 -11.5525
-11.769 143.25 -4.83201
22.3908 121.979 1.1092
20.8261 100.566 -13.1248
18.316 136.238 -0.0153531
-12.2225 115.989 8.22803
-2.05877 140.339 2.62642
1.45643 132.177 -7.63285
8.29401 88.033 -14.0919
-17.9263 124.237 -6.55014
4.72908 115.432 -13.7929
21.6701 121.352 -8.12151
17.1284 124.755 -11.1682
0.887532 142.19 5.00227
2.45167 79.4493 0.278652
-13.3743 140.096 7.71411
2.26341 132.018 -8.12563
7.86067 145.162 4.19884
18.2417 107.246 -13.9056
19.7912 124.401 -6.04667
25.7512 139.513 -6.39979
1.20285 107.082 -15.8621
6.6826 125.104 -11.9236
22.3226 92.3983 1.24926
-0.191136 141.96 3.36815
6.58325 97.8876 1.12644
13.1925 105.123 -16.4002
0.765105 127.672 -9.90013
11.3734 149.249 -4.66989
-13.5769 127.379 4.47796
21.1678 104.333 2.69482
5.63201 97.3843 -15.5106
-17.4464 122.779 -8.26476
13.1582 109.214 -15.3452
18.0994 133.728 -11.2424
-11.9621 131.812 6.44658
-6.01498 146.861 -5.08358
-5.02076 87.5403 -8.15997
24.727 100.207 1.38191
5.93386 109.43 -15.0783
-4.42057 136.691 -5.44561
10.8642 131.131 -0.278264
5.21233 131.873 -9.89573
-11.5647 82.2562 -6.2055
-11.5032 120.904 -8.38484
9.12654 84.7942 1.56547
4.73942 104.298 4.193
-6.80864 132.452 3.42289
-10.5635 142.473 5.53045
-2.24882 85.3019 2.97614
2.31615 141.749 5.63043
26.9056 139.305 -5.8167
18.4187 88.5763 -13.8505
3.29611 96.3383 -14.732
22.0969 118.489 -4.75226
4.30044 92.9882 1.53824
29.7378 128.494 -11.2562
7.01246 124.942 -12.6114
-12.5951 119.18 -9.80971
-4.37165 117.08 -10.7846
-2.5816 110.646 -14.2605
19.6225 94.1489 -13.5751
23.5838 105.036 -9.43128
15.284 90.9347 -14.7495
-10.3136 128.926 -7.96363
0.727108 109.559 -15.9476
6.6591 86.4983 -13.0024
-3.50497 96.9211 5.77634
-5.08689 150.725 -3.29817
-6.79025 123.546 -7.33535
-3.781 81.7305 1.40044
13.8581 143.699 1.37967
20.3408 113.802 -11.2501
-9.35715 136.977 -8.49507
-2.69924 113.078 -13.7199
-12.8999 132.431 -7.81197
17.817 109.892 1.61468
-4.76548 114.464 -11.7808
9.69653 111.972 0.0631028
4.37838 102.817 4.46446
18.4182 133.224 -11.264
-13.3524 121.234 -9.394
16.6479 139.949 -6.36382
23.125 97.8894 1.79471
8.60035 151.156 -5.30706
-16.1259 128.954 -1.66257
-5.26973 140.7 -5.68777
15.8163 97.669 2.44292
20.3096 113.264 -11.7265
-15.1837 120.622 -9.70167
-7.00276 139.505 -7.09923
-1.50664 106.299 -15.5543
-2.06856 99.9383 -12.0658
10.1211 108.149 -15.0893
1.06543 85.4324 -9.94221
16.686 124.4 2.22002
-0.16834 121.954 -12.3099
-8.40928 138.58 3.34738
17.7986 101.616 -14.8872
-15.5749 85.6518 -8.92336
28.1267 89.8526 -1.39592
-0.354836 104.413 6.00278
-9.26748 85.8858 1.38821
8.41002 97.643 0.715587
20.3271 95.187 1.67149
-17.1044 104.265 -12.0741
-17.8415 123.395 -3.91326
4.829 92.2282 1.39473
7.70818 81.394 0.892684
-15.4939 133.919 7.53836
0.43361 113.248 7.72883
13.2426 151.981 -0.884301
19.5134 101.548 -13.6071
-5.78914 82.8357 -9.49525
7.03467 89.6381 1.87605
19.3297 82.7411 -12.4516
2.80797 89.2908 1.95732
-14.6358 120.322 -9.75382
15.7325 136.64 -7.46595
-9.82153 146.887 -5.341
-4.00136 149.427 -3.34716
25.6477 133.686 -3.52419
14.6129 138.05 -6.40375
13.0466 138.322 -11.3163
4.45108 76.6906 -12.2342
-12.9089 81.678 -5.88889
2.84219 115.1 -13.5169
1.02732 111.551 7.40149
6.92395 127.238 5.76893
6.56532 137.638 5.73203
7.86431 80.0331 -12.4667
-9.0508 144.685 -5.98956
12.444 112.154 -0.132772
-11.0313 142.852 6.54213
-0.0137057 97.1448 -12.2289
-16.4573 125.85 -2.71186
6.79275 105.313 1.18731
-6.51464 105.235 5.88853
-7.78437 83.1894 -7.76885
4.04754 79.1455 -11.3241
-11.8864 99.9817 5.4309
-7.99887 105.007 -13.6246
14.0507 129.411 -8.04771
-9.05708 108.847 7.35941
16.403 126.002 -5.28915
8.01811 146.892 3.62559
14.6586 121.711 -12.522
18.1614 131.997 1.36304
5.67396 142.072 -7.44481
21.7456 91.2411 -12.9489
11.9802 126.273 -14.8417
17.4161 122.986 -12.3872
8.00673 144.761 3.87114
21.9418 127.176 -3.90642
3.78087 99.0031 -15.2972
27.8767 131.611 -7.61071
2.69851 100.116 -14.7042
11.9896 133.988 -13.3953
-15.8301 86.1709 -9.40505
3.51378 84.1448 2.66396
17.5164 122.598 -12.0603
19.2111 112.351 -12.5539
-18.3436 122.376 -5.4885
12.9477 144.974 -6.43815
3.67091 124.333 6.39325
27.3105 99.4491 -6.91081
11.7568 86.2976 2.21264
5.96685 80.5464 0.608853
16.8727 146.177 1.74003
14.7151 119.687 0.227732
22.407 135.89 -2.24179
15.7747 129.186 -6.82659
17.8849 139.787 -8.58185
21.0065 111.596 3.4375
-6.1269 102.286 -12.6438
24.5863 107.557 0.780115
-18.075 124.41 -6.97141
22.1876 111.541 -9.20011
-0.244609 120.288 -12.973
22.7489 106.768 2.86226
19.7587 115.632 -7.53459
25.2947 99.3162 -10.1106
-6.52877 151.545 -3.37356
28.0371 84.7425 -11.4491
-15.8097 133.958 -2.23736
6.82772 109.862 1.781
-2.69785 104.175 6.17742
24.4692 78.3051 -1.47752
22.2666 79.5914 -1.20132
16.3845 88.2594 1.81627
9.95366 105.601 0.100989
16.7843 76.1301 -2.85847
23.683 128.297 -11.4943
-8.46335 96.1302 -10.1751
-15.0299 129.179 -8.99182
14.2317 150.975 -0.741826
9.80708 139.237 -11.1559
-9.29049 148.473 -4.69094
25.0847 76.6 -1.96248
17.2532 136.964 -9.81206
8.89655 149.883 -6.09815
14.4545 100.485 1.03951
18.9874 79.4083 -12.0231
30.136 128.112 -7.41394
14.3736 129.539 -8.86656
15.6314 82.2449 -12.8745
28.574 94.094 -5.48969
6.66863 139.374 5.34393
7.38819 123.234 -12.4164
27.2819 131.816 -4.91761
12.9358 151.165 -1.2352
-11.0183 150.986 0.00750665
24.1272 110.623 -6.58097
29.2252 88.5555 -8.64754
15.5433 76.2194 -12.174
7.92618 143.05 4.24135
11.0899 101.493 -16.6112
-18.4921 114.51 -10.41
-10.6923 125.025 5.57201
-8.86503 96.7623 -10.1126
11.4482 88.5447 2.77182
-10.8636 119.564 -8.77769
-16.8603 99.9738 -11.4283
21.734 134.273 -10.1187
-13.8569 83.1096 -6.01108
-7.12636 115.272 7.39627
-8.63941 82.4273 -8.4983
2.39321 144.213 -4.30068
-8.39524 133.796 -7.83935
-2.18092 137.642 -4.20083
-15.9702 87.4377 -9.9765
1.81321 112.815 7.39597
10.1214 107.688 -15.1873
22.2479 117.833 -5.21777
23.7545 128.764 -3.12698
-15.2871 144.715 6.18581
-13.0325 144.062 0.0750116
0.693081 113.902 -14.439
13.1744 128.085 -13.6253
5.26004 111.303 -14.5494
17.8782 125.542 -5.62403
21.0383 122.007 2.7899
29.0171 80.8444 -2.39608
-9.31921 140.577 4.07185
22.9478 117.912 -4.41482
19.2522 122.341 -12.378
3.40705 93.2804 2.04863
27.078 100.422 -5.20489
8.28087 112.188 -14.7611
-16.7321 126.91 -5.54266
18.669 116.354 3.12362
-12.5029 82.4842 0.543758
17.8917 129.729 -11.6715
25.1336 95.6738 0.397065
5.84684 79.9358 -11.8838
-9.77417 83.9369 1.66133
8.23102 109.31 0.476505
-16.3369 127.229 -4.37503
-8.91316 113.014 7.12287
-7.76696 97.8474 5.8627
10.2834 79.0987 -11.9634
28.4558 132.626 -8.85401
-6.40757 104.445 -13.6212
7.06344 86.6224 2.7336
10.671 90.7072 2.36696
16.5283 134.166 -10.3912
-3.8024 100.859 -12.5293
-6.14569 130.538 -6.13314
-9.32217 100.818 6.30812
25.5695 84.7097 -0.657204
6.38768 136.861 5.74638
4.64974 84.3609 2.5794
29.2854 129.964 -11.0714
9.95072 76.8126 -2.25716
-13.2584 116.327 -10.3867
8.21174 110.792 -14.7455
-7.84368 121.965 -7.85936
23.1925 123.653 -6.21463
-6.63198 129.121 5.02775
28.0866 82.0968 -1.47015
4.91281 107.799 -15.4104
17.778 118.742 -9.93681
16.9733 85.9436 -13.6809
17.2711 105.764 1.18315
15.3401 81.2299 -0.556351
11.5278 76.5908 -2.79469
16.7915 121.78 -10.5315
18.1898 87.572 -13.724
1.67074 77.0377 -1.58258
22.9998 128.084 -3.66223
-9.25065 122.698 8.52184
-9.35921 122.992 -8.12181
27.3063 91.9267 -0.695314
-2.50285 90.015 -9.57112
14.7358 137.637 -6.54974
-6.22486 138.197 -6.30118
4.18392 100.384 3.66905
-0.370551 112.507 7.59274
0.466738 120.895 -12.7734
-6.7341 126.883 -6.60612
3.3135 99.7814 3.91568
6.99923 87.3401 2.72638
-8.49921 80.1432 -11.668
-1.09434 125.199 -9.37415
-8.17565 87.1178 -8.38963
21.3764 110.671 -9.907
32.3663 127.353 -7.58163
-6.87729 106.23 -14.6516
22.2558 94.2713 1.21189
16.1914 126.793 -12.7759
18.4405 103.745 2.20133
17.8754 108.838 -13.9289
15.3974 128.41 -7.13174
15.034 136.187 -7.20474
16.4249 91.0661 -15.0797
6.46527 95.7906 0.949511
-15.6025 136.944 7.95154
26.4111 106.669 -4.09534
-12.2455 133.628 -6.37774
28.8969 134.306 -9.91711
6.30928 109.174 2.55654
28.4835 77.0524 -12.2881
7.81802 134.85 -10.8109
-4.56109 94.3773 -9.44678
16.2912 149.556 -2.36716
17.9513 127.228 -4.99489
26.9788 90.585 -10.7538
7.55282 126.894 5.19359
-13.0196 99.6402 -11.697
13.1384 148.028 1.14795
21.0665 95.4399 1.51491
10.7257 111.899 -15.6318
-15.4285 103.274 -12.034
-6.33821 122.234 -7.50087
-5.60619 87.3561 3.9289
-13.1096 99.1727 -11.6398
8.78837 111.93 0.245659
29.9503 129.676 -10.7694
24.3736 98.9626 -11.0143
-14.036 107.656 -12.3177
-5.50085 79.2075 -12.2279
17.7069 103.122 1.9504
-4.45436 105.285 6.13599
18.2205 129.48 2.80997
26.9847 101.329 -4.14266
-11.6487 77.0135 -2.29127
2.6764 112.553 7.12045
-3.79024 141.335 2.46568
4.85959 91.6297 1.37957
28.0345 125.122 -8.42261
-1.52064 135.021 3.82943
0.728072 78.489 -0.249885
-7.68657 74.5868 -2.87167
6.01992 110.267 -14.9044
8.13126 147.03 3.38361
-15.7207 125.279 -8.88109
-7.70279 98.8186 -10.2519
25.0118 88.3582 -12.1744
11.6613 117.418 -14.3282
5.78539 111.663 -14.5543
21.2342 107.401 -10.1014
12.7692 131.539 -13.287
-17.5684 124.909 -7.59767
13.3806 123.654 -11.5455
19.1618 85.4201 -12.9208
21.7288 120.271 -2.63958
2.70306 106.268 5.95558
4.96165 128.398 -9.47304
25.8429 135.732 -3.22055
25.8535 110.034 -4.20359
7.22482 124.263 5.33999
24.8235 98.2216 1.22809
24.8252 98.6271 1.28291
0.972937 81.4033 -10.4367
14.4571 98.421 -15.6661
-0.743111 85.3649 2.86127
14.2495 133.906 -8.74725
3.1138 80.2966 -11.4843
13.8255 142.841 1.09723
-15.5139 134.855 7.88349
6.33677 96.0808 0.97898
22.0775 136.431 -9.33573
17.4491 149.661 -0.762571
17.7199 95.3211 2.61761
-14.3147 145.318 6.16065
6.38868 134.723 5.07092
8.15587 105.791 0.375783
-15.9325 131.757 -2.13849
24.6639 115.2 -1.47377
13.9225 125.544 -0.0897339
-15.2871 131.619 -3.85668
-4.51765 74.0285 -2.27453
18.7505 102.901 -13.3732
-19.0493 118.952 -8.96287
-13.1787 131.665 -8.5089
7.89431 140.835 4.34812
-13.3736 96.4864 -10.6722
26.1611 103.807 -1.03934
6.83262 76.7361 -1.77947
-11.3616 135.222 -7.87303
25.5112 102.702 -8.51799
10.3604 115.208 -0.0392529
-10.9787 113.438 7.87769
-18.4078 103.854 -11.911
-12.4162 146.558 5.34093
-15.9047 128.425 -6.88806
-3.16161 114.087 -13.5814
-5.45585 129.891 -5.90727
-8.0214 78.1681 -1.28516
16.0806 86.3613 -13.8137
-7.17775 95.7645 5.53219
14.9377 103.451 -16.2361
12.7828 129.891 -0.243041
21.6762 121.488 -10.5967
16.661 83.2998 0.100721
15.1153 121.986 0.795465
-14.2847 139.825 -3.06281
3.52542 100.265 4.01002
12.0932 150.526 1.11556
25.6752 93.2159 -11.0294
27.7811 137.249 -8.12361
12.2664 132.564 -0.254686
10.4249 107.116 0.103494
-6.51659 96.4933 5.6531
13.3685 117.942 -0.23187
14.6751 87.5862 -14.1331
30.994 129.415 -10.6708
23.5958 141.162 -7.04352
12.8841 86.16 2.18949
-12.5707 82.402 0.522017
-9.09378 118.134 7.72393
-17.2327 122.992 -3.67946
21.1344 130.492 -4.242
8.11681 109.655 -14.825
15.9796 125.183 -7.40692
-12.0317 96.2048 3.62428
-10.1949 96.5075 4.46495
-14.0985 116.967 7.22369
16.6657 131.888 -8.2722
-11.8641 132.379 6.60903
19.277 93.133 -13.7963
2.72182 111.202 -14.7939
-4.18264 137.294 3.07113
9.35184 107.415 0.162979
-9.54344 122.926 8.37073
16.6363 112.951 -14.7739
11.9693 93.7139 1.57717
18.1456 124.889 -5.82762
-2.26918 100.718 5.59167
22.0505 147.037 -3.47172
-14.5594 105.873 -11.7707
-7.13274 124.813 6.92086
-3.14615 120.739 7.8485
10.1606 151.914 -2.4269
20.0495 141.982 -7.21233
0.0700371 85.526 -9.53531
13.9761 92.5187 -14.5943
23.9327 78.3471 -1.51194
8.72864 121.837 -13.3241
16.0306 147.924 1.50052
-6.56924 130.272 4.94858
8.04435 88.7671 -14.2673
19.0874 146.255 -4.33923
9.53878 122.952 -13.7724
-15.238 143.859 2.24958
-15.6984 113.472 -11.3732
-13.3445 122.282 -8.94235
3.30379 138.368 4.43145
24.2118 109.216 0.731086
13.6728 136.741 0.166249
12.9568 110.296 -15.312
-7.8187 95.1551 5.42137
-5.46474 137.171 -6.03729
23.1601 110.625 -8.13461
28.9365 90.6032 -3.37424
7.01309 131.204 5.82207
29.1224 89.1755 -4.13145
15.4221 98.9114 -15.5345
-13.9005 142.601 -1.18326
12.4266 97.9486 -15.905
-9.22922 95.8474 -10.1061
-9.75858 111.104 -11.422
14.5948 84.4157 1.30894
8.84904 77.6509 -1.58076
7.87456 108.143 0.65228
17.9266 100.586 2.63583
16.4186 129.293 -5.61911
15.1377 125.955 -7.78879
-14.7975 136.56 -1.63443
13.7645 129.157 -12.4656
-9.05904 99.9871 6.28517
6.29323 142.097 5.4485
14.0749 118.003 -15.727
6.07282 90.674 -14.042
17.3643 145.162 1.46221
11.0658 99.424 -16.4089
-5.68075 73.67 -2.60582
-0.477454 135.69 3.88717
18.3972 92.6513 2.18236
-9.99923 151.614 0.587321
-9.64517 128.457 4.89062
7.58432 122.619 4.60122
24.7749 103.731 1.3268
11.1106 131.978 -0.363968
-17.0614 125.937 -6.32583
24.338 95.1869 -10.8984
-13.409 78.6643 -0.999946
-3.97554 84.9966 -7.93432
-11.1203 130.028 5.13424
21.2944 116.908 -7.0573
20.91 121.988 -10.7581
16.2614 113.71 0.987549
-0.136429 128.37 -8.83435
25.8629 91.2501 0.145475
-13.1388 112.488 -11.1801
22.2298 86.2416 -12.0741
14.6042 146.24 -3.219
21.4734 99.8349 -12.9521
16.8856 128.875 -12.0695
-2.99948 122.58 7.92033
4.12395 138.359 -7.52585
-5.07249 132.253 3.8587
12.5113 94.2238 -15.4873
12.0606 149.808 1.01297
-3.50824 118.288 -11.3384
-3.05476 102.467 -13.8724
3.43078 110.562 6.479
19.9004 98.5997 2.50921
19.8572 105.536 -11.5515
20.375 79.591 -12.0158
-0.516431 95.8259 -11.6207
22.541 89.2836 -12.7356
10.6146 103.121 -16.6749
6.88521 98.9525 1.31622
22.2846 121.855 1.30916
6.40178 155.277 0.0598915
28.8754 131.121 -8.50991
22.5594 129.007 -10.9593
16.3758 146.563 1.69927
12.8669 134.259 -0.173032
19.3072 139.946 -8.7202
14.2554 140.707 -5.58202
15.8262 90.6535 2.73588
-8.47038 102.139 6.34169
-15.0634 81.9364 -7.2533
18.4213 123.273 -12.3243
-1.73457 147.899 -3.25767
-10.1704 95.1151 -10.1419
15.0461 77.2005 -12.0095
7.33613 101.935 -16.6979
9.61998 90.2714 -14.9289
19.69 125.604 0.565664
25.4641 83.7242 -11.8719
-8.38751 118.64 -8.51758
3.06251 98.3277 -14.892
11.2603 138.594 -11.914
-17.8705 125.085 -5.33276
-14.1018 147.26 3.6402
10.6381 151.5 1.37783
10.5613 115.734 -0.0821691
12.3416 114.816 -15.4437
8.98429 131.694 2.29333
-7.57616 147.27 -5.35855
-2.78817 116.855 -12.8525
0.0022654 151.798 -2.8616
-5.02809 74.6628 -2.504
4.52944 95.4635 -14.6503
-2.31053 114.944 7.91468
29.9619 81.479 -6.16776
16.45 89.9895 2.31226
15.1906 112.523 0.339562
14.8427 133.791 -7.90044
9.78086 119.251 -13.8198
25.4189 108.977 -2.05502
-11.6473 89.5286 -10.3734
-14.2852 107.054 -12.0748
9.15134 136.604 1.6722
29.6838 128.152 -6.86626
-5.11446 129.705 5.32055
8.33709 132.281 -12.4258
24.8193 137.866 -8.16244
-16.417 143.466 6.36486
15.7385 133.854 -9.40694
-8.71246 96.7306 -10.1321
3.99176 135.209 -7.80502
29.5619 80.9959 -6.22354
21.7833 118.448 -5.11739
2.72099 104.564 -15.682
23.4734 143.058 -5.97237
19.3528 123.376 -8.78819
-4.37038 145.706 -4.42649
-3.45479 128.177 4.9978
27.248 135.686 -7.44325
29.4013 83.3573 -6.11379
4.0896 82.236 1.18057
12.8512 144.845 0.684327
14.274 146.275 1.50404
17.4003 97.584 -15.1921
29.2335 77.9153 -10.9002
13.8396 95.9267 1.98611
22.98 111.541 -8.40295
17.3421 75.2918 -3.48003
15.4974 130.014 -9.43997
1.04596 115.393 -13.7648
7.18941 143.886 5.03473
24.2495 108.087 1.24821
6.28535 133.476 -10.5532
17.4832 149.648 -0.736169
-18.6965 121.669 -6.60635
18.0738 124.768 -9.52189
-3.84019 117.242 8.1107
-17.2957 136.835 -1.36832
0.466435 82.0616 -10.0334
29.1303 84.2081 -5.26842
17.1563 102.278 -15.2511
19.388 139.914 0.0517075
16.1915 143.506 -3.89255
18.7175 120.065 -9.79165
19.8288 130 -2.86666
15.8831 138.807 -5.91792
20.8078 107.141 -10.5087
8.96391 113.353 -15.4455
23.2206 143.036 -1.78598
-7.52013 76.6558 -2.51607
-4.19694 85.3392 -7.91831
-3.8597 114.234 7.62474
-17.0656 126.093 -6.66975
15.852 125.382 -9.37104
20.1873 124.162 -6.44003
-8.28555 116.484 7.24651
-4.52021 128.825 -5.70638
13.9498 129.206 -10.2761
-10.429 87.5251 -9.02129
4.71143 121.063 -12.4295
16.2835 126.228 -12.0215
18.4354 137.294 0.37084
-13.1994 76.4231 -2.82968
19.4555 134.344 -10.7189
18.2987 129.407 2.80222
7.71962 117.246 2.081
-5.13533 92.9376 -9.03969
19.0886 105.714 -12.5365
19.2552 148.259 -0.670736
-7.82505 112.149 -10.5004
16.4744 122.109 -10.7293
3.37898 86.0962 2.69918
20.4876 105.476 2.36021
-14.3659 140.481 -3.31498
3.22211 120.944 -13.0123
22.629 84.3554 -0.787168
-1.3931 103.283 6.07429
15.8949 85.259 -13.6864
13.6808 78.1286 -1.38402
1.15552 145.491 -3.85053
17.8248 97.024 -15.0213
23.4544 110.648 -7.84927
16.8513 109.191 1.04494
25.1829 79.642 -12.6631
12.3638 117.811 -14.8821
-4.91035 107.457 6.35191
-10.6247 93.2261 2.62587
-16.2001 126.179 -7.61316
19.6206 139.4 -0.111654
-11.1605 85.6529 0.922759
26.6285 86.1529 -0.332139
23.2435 141.411 -7.20336
-7.1129 135.772 -7.28397
14.3454 144.713 -4.09866
1.42624 140.765 3.89224
-4.19062 120.301 7.67026
-14.8398 137.757 -3.61626
9.82342 110.147 -15.1151
-10.5094 75.9167 -3.19252
23.4959 142.228 -1.42819
25.0544 108.068 -5.92223
9.61049 81.8196 0.969743
-5.60254 101.892 5.54635
18.0491 141.274 0.479316
-8.34116 140.262 2.9672
0.977965 89.8581 3.00546
1.8962 84.6715 2.77336
9.13959 84.7453 1.56083
21.2577 82.5488 -0.799295
24.6399 127.421 -3.89527
14.6437 136.171 -11.0667
-9.43353 86.7737 1.40318
20.4232 79.2963 -1.18949
12.8866 142.336 -7.78818
-3.3786 121.641 -9.13067
-8.45466 79.9302 -11.3036
-10.0348 148.508 -4.21388
16.0028 110.258 -15.6115
-8.16979 144.169 -6.4518
-11.7445 85.7705 -7.74699
22.7313 91.2361 -12.3178
-5.65065 96.7806 -10.1546
5.5657 130.507 -10.0011
-11.1142 143.437 -5.24713
6.52906 113.176 -14.3752
22.207 75.8266 -2.46102
18.8942 109.74 -12.4514
14.365 113.18 -15.7185
-11.5976 80.1652 -0.193188
-8.58974 141.073 3.29402
20.3461 121.524 -10.8978
-11.2471 80.3367 -0.169987
-12.5829 137.26 -6.26481
16.4663 131.842 -11.6905
9.32763 109.919 -14.9128
-13.1386 146.239 0.281307
25.2365 105.918 -7.20314
-10.8162 105.306 -12.9887
7.48578 133.573 5.97986
-17.6517 124.81 -2.98446
-0.640856 130.278 5.335
-6.9762 118.653 7.40561
7.54105 133.804 -11.1464
26.6815 103.411 -4.55403
28.2167 129.835 -6.86713
24.9509 104.384 -8.61189
25.9699 109.612 -3.58264
22.3559 81.0052 -11.9692
20.0295 103.67 2.70872
31.4507 130.857 -9.27846
16.5701 77.9586 -11.9154
5.29654 75.2216 -2.65116
24.5982 132.665 -9.97599
-9.42737 89.7534 -9.41549
22.658 109.348 3.01225
-7.57107 117.133 7.32451
20.7751 122.208 -8.66924
30.3182 130.863 -10.4061
10.3597 120.244 0.0580206
21.1334 110.845 3.39407
16.8102 113.854 -14.6094
-13.3633 123.928 -8.17015
8.15939 132.172 4.15475
17.2021 139.378 -7.79217
-12.9878 110.539 7.68802
-7.50985 140.502 -7.20726
15.0109 128.972 -7.69645
22.1161 118.586 -4.56307
4.67332 76.9834 -1.60282
11.3588 83.9934 -13.2863
12.1561 130.211 -14.0468
15.7718 115.434 0.824667
21.9563 140.189 -1.5032
-9.44798 133.086 4.6775
20.729 110.493 -10.6439
17.4936 123.257 -12.674
-17.3917 125.676 -4.89344
24.3954 110.791 -6.14725
-0.0205298 99.7372 -12.5274
19.6763 125.815 0.391915
19.8905 130.024 -3.62386
29.3521 83.6409 -6.65016
14.7852 130.501 -9.95892
15.459 148.356 1.29823
21.5595 121.205 -4.70704
29.3891 80.1145 -2.921
1.87704 85.6815 -10.2818
-10.1022 88.9106 -9.58905
16.284 127.744 -9.92489
17.7079 148.977 0.340546
9.54158 108.747 -14.9061
-1.01343 82.6562 2.21684
-3.9142 127.79 5.82563
-11.0852 129.709 -8.8248
4.66877 95.8451 1.46697
11.7942 120.602 -15.0155
6.13856 112.593 4.61294
11.0452 119.554 -14.0413
21.7047 96.8017 -12.7338
-8.51101 120.966 8.19625
22.0299 90.5809 -12.8265
11.4011 132.101 -13.7327
-1.1731 88.8977 -10.9273
-15.6254 87.563 -9.94715
9.61216 105.321 0.114845
14.7611 137.909 -7.15271
14.3354 81.3701 -0.261712
8.45282 136.943 4.03341
-7.14265 127.359 5.72943
4.30381 113.875 -13.7674
4.5224 78.1568 -11.279
-13.9064 110.379 6.5106
3.10746 137.892 -6.77183
7.71711 116.451 1.92159
-10.4605 108.893 7.36975
5.42278 119.998 6.47871
8.10609 147.289 3.36654
4.15351 83.1265 -11.9814
21.5805 145.752 -1.19584
21.4653 135.102 -9.85318
3.65487 124.092 6.36539
2.03003 148.61 -3.59544
15.3774 116.767 -14.0691
16.708 140.139 -6.31745
13.314 121.637 -0.141292
8.54743 115.227 -15.1637
-7.22575 141.309 2.0064
16.8335 115.612 -12.0856
-0.439348 110.074 -15.0663
13.4914 84.6859 -13.479
-8.24283 135.191 -8.0549
18.8294 106.037 1.81152
14.5077 94.3578 -14.9451
-10.383 88.8095 -9.70945
21.3209 116.227 -6.4502
6.07608 120.428 6.31628
-9.69712 134.56 5.75585
4.65993 83.7298 -12.2374
13.6752 111.811 0.00429536
31.8075 128.207 -10.9023
-7.84547 113.375 -10.0369
22.9578 92.0049 1.03875
3.5669 85.2427 2.91486
10.706 84.2671 1.67518
9.40783 99.5212 0.585479
-4.31537 120.544 7.62815
0.979147 82.4398 1.98549
26.7573 133.926 -4.58494
-3.97983 99.757 5.89035
5.56611 143.991 -6.34949
-13.8082 135.769 -4.08691
22.8935 100.864 1.98707
-8.18899 125.537 -7.65029
-5.82106 81.6465 -9.61068
-1.38385 85.7824 3.1845
20.6787 143.531 0.518039
29.7123 124.991 -8.54281
4.2958 76.3678 -2.00609
-10.6336 125.276 5.25333
16.6724 90.716 2.42331
8.73028 127.243 -13.8644
15.1127 151.144 -0.691997
0.814173 118.387 -13.205
4.16153 142.444 -5.78347
8.37776 127.682 -13.4916
16.192 121.485 1.64369
12.715 103.177 -16.3585
19.0251 111.951 -12.6309
24.785 107.672 0.43915
-12.1386 149.602 0.352494
28.3664 86.5784 -11.0618
-8.14434 128.751 5.53689
1.99171 117.903 -13.1598
-15.8387 128.07 -8.05066
-13.9535 114.132 6.41492
28.544 80.8983 -5.15163
3.13907 118.056 7.23498
1.31795 86.0723 -10.1806
5.10413 97.0637 1.28388
3.53903 107.593 -16.1209
30.8459 131.023 -8.50703
25.5264 80.0921 -1.22928
3.60025 144.094 -4.89454
-0.75132 143.296 -3.87429
-1.81908 87.6613 3.75989
6.64691 150.353 -4.65141
16.2673 129.468 3.13556
-15.2562 144.347 2.88585
0.821743 103.73 5.67479
10.2565 150.226 -5.47151
5.59282 107.506 3.57751
13.3094 151.089 -1.06361
24.3661 80.003 -12.3706
18.6626 87.1665 -13.5635
3.96814 96.5727 2.06318
11.2201 108.146 -15.2011
18.1656 124.612 -13.4218
2.85554 150.981 -3.292
24.7015 126.417 -12.6122
9.45296 90.2915 2.36666
7.4626 78.5713 -1.07018
8.65053 88.3106 -14.4089
9.82676 151.643 -3.71591
-2.85566 79.3112 -0.125416
10.9157 131.508 -14.0207
16.5815 125.138 1.99896
14.7308 128.129 -10.5997
-8.68228 74.7345 -2.76193
-15.6024 134.791 -2.528
20.7822 122.274 -8.8099
7.12688 113.634 2.13409
3.13583 104.439 -15.9704
-12.8084 107.72 6.77264
16.8422 138.616 -7.71596
15.2325 82.5133 -13.1495
4.83078 123.63 -11.2895
-1.25966 147.047 -3.43741
-11.0999 146.824 -4.1731
-13.1823 133.651 7.05908
3.19443 90.6971 -13.3861
-5.11184 152.451 -2.6387
3.67338 86.9737 -11.8164
-13.565 92.8321 1.27849
17.1626 92.2236 -14.8258
-6.69012 102.185 -12.3277
11.7674 147.881 0.792119
10.8225 129.885 -14.2527
-10.7206 103.801 -11.8107
23.078 88.7256 -0.187704
21.405 127.64 -5.53744
-10.932 123.433 7.00123
-4.5243 85.5623 -7.67797
20.6832 95.5105 1.7313
-1.73142 116.254 7.69862
-8.90861 108.392 7.24085
23.1885 86.1796 -11.8126
3.41857 141.652 6.18079
-7.82586 136.081 3.00637
0.636841 152.604 -2.87232
-4.64271 142.712 -5.11742
17.482 146.076 1.48985
16.922 107.363 -15.2669
-11.2223 150.402 -1.00191
5.2259 133.724 5.84996
-12.5144 129.54 6.06457
9.90395 103.495 0.11282
-6.49398 87.0171 -8.26044
16.2191 81.9677 -12.5078
10.2111 149.482 1.38151
-1.46389 118.787 7.1365
-2.39626 85.3063 2.96399
22.3599 139.408 -8.78719
-2.03377 121.3 -11.2316
15.4163 82.6965 -13.1431
16.3652 116.136 -12.3046
-13.7867 87.6828 -9.69133
21.8582 123.138 -0.859504
-2.54129 78.4792 -11.0429
4.77248 110.009 -14.7845
25.0788 95.7619 0.407143
-1.5708 142.744 -3.90929
7.01113 111.62 1.87583
7.65434 116.318 -14.9147
11.0951 114.957 -0.153534
16.042 105.511 -16.0208
-8.66987 81.5553 -9.40795
1.19558 107.707 6.66121
-10.0726 149.693 -3.19575
7.15497 140.737 -9.80626
16.9591 124.72 -10.4936
5.96363 79.8705 0.196229
1.87506 99.395 -14.0937
-14.1547 136.443 -2.96919
4.76476 149.069 -4.13608
-5.10871 74.2792 -2.48886
-7.29353 76.0437 -2.97688
23.2999 131.891 -2.35597
-14.976 127.977 -7.90836
21.5088 117.685 -6.5632
-8.89442 107.981 7.15129
-15.5018 89.3711 -9.78847
-3.838 146.933 -3.85649
12.7325 125.329 -14.5937
15.1156 131.991 -11.2861
-11.2589 142.965 7.00828
8.58258 146.01 2.44604
-2.92098 107.197 6.77396
-6.95958 144.539 1.67061
-2.07414 113.314 -13.957
6.42498 135.598 -10.3746
15.1107 93.9087 -15.0288
-7.63442 110.013 7.04574
26.5275 103.944 -2.53864
22.3666 127.715 -11.2359
28.6021 93.8751 -4.38932
13.5733 82.3905 -13.1785
-16.3241 126.629 -8.1245
9.66459 80.7537 -12.5209
29.3628 84.2219 -9.6237
17.7198 94.2037 -14.7818
24.2601 79.4307 -1.18848
-11.3706 134.427 -7.77049
25.2741 126.409 -12.9764
15.006 93.8575 -15.0108
-8.28075 139.819 -7.47315
-12.0051 101.041 -11.4781
-15.9684 131.931 -2.13228
9.84306 88.663 2.88542
-0.978411 150.462 -2.93274
8.0656 98.8192 -16.0803
8.23023 150.248 -5.56969
16.6251 118.574 1.67154
-7.10598 85.7369 -7.19118
15.5183 97.7293 -15.6012
0.746225 108.96 -16.069
17.5666 126.051 -13.5516
8.38115 116.547 -14.7997
-7.01551 130.171 4.56387
0.0859002 102.081 5.83809
21.8953 106.207 -10.2043
23.7129 110.953 -7.47321
-0.779737 154.273 -2.08869
-15.0057 82.5464 -5.76743
9.61338 119.009 0.172044
-14.2713 140.124 -0.600733
-1.00914 88.599 -10.8274
27.7789 77.8892 -12.7974
9.35012 131.794 -13.209
23.9358 142.945 -2.86164
10.505 97.4091 0.634147
19.4666 95.5506 2.01615
-2.83406 88.3715 -9.51378
-13.4364 140.346 -1.75407
8.92997 78.4943 -11.8108
9.78531 106.025 0.113504
26.1649 122.408 -8.35705
-10.3366 104.817 -12.7307
13.6257 113.21 -0.0763775
-8.90675 115.426 7.1165
14.5849 87.8345 2.37346
13.3874 117.273 -14.7919
25.4608 106.767 -1.10414
-9.38663 91.0567 -9.74812
12.7742 150.037 -2.76682
11.6096 140.335 0.401922
17.5559 147.667 -2.95206
24.9176 113.869 -4.21668
0.834639 142.124 6.0699
-4.1566 147.757 -3.83464
0.654912 77.6053 -1.10875
-10.3544 142.688 -5.82055
27.272 138.055 -6.2934
29.1417 85.6609 -6.14005
2.50424 125.184 6.27029
22.0892 104.69 2.99076
-10.3417 94.6407 3.46558
27.4094 78.0809 -13.0861
-0.909297 92.7202 -10.9737
26.0452 136.81 -3.98582
28.3867 84.7321 -2.75004
-8.25347 136.209 3.57567
13.4068 145.373 -4.69091
27.4203 136.155 -7.58274
12.0455 99.9323 0.579139
25.7139 82.4297 -0.888852
-5.87937 140.203 2.52385
2.36844 93.5212 2.90724
19.1295 87.5171 0.513382
15.3702 131.722 -11.5126
6.96771 123.092 -12.2233
18.264 102.49 -14.0208
13.595 124.444 -12.8277
3.97638 151.176 -3.36842
29.5841 83.2188 -4.98047
-17.1617 132.023 -2.91769
21.5591 123.917 -7.3197
18.1775 144.934 -5.24799
1.9234 86.6947 -10.8661
-16.5815 126.994 -5.00765
-3.06311 88.2432 -9.29885
13.7686 98.9588 1.12038
-9.21525 142.307 3.96666
-8.58926 121.495 -8.06578
27.6318 98.3019 -6.98003
15.9798 149.452 0.832936
5.97726 80.6318 -12.2066
9.1797 122.778 -13.0683
-12.4433 127.899 4.71899
-1.29267 137.238 3.15062
-13.9039 113.598 -11.1027
-12.5352 123.162 5.80436
-9.76129 141.757 4.42956
9.31867 77.4181 -1.75439
-1.41396 115.806 7.76306
22.1238 79.7335 -12.031
21.9271 121.696 -7.60167
-11.2779 131.806 -9.60984
11.7735 98.7792 0.636633
-4.7355 97.7075 5.85334
9.30049 126.586 1.99004
15.7938 87.2075 -14.012
27.7741 77.9776 -12.7936
-11.6138 140.426 -5.65183
-4.18462 139.627 2.93027
-14.093 131.302 -5.85506
13.303 115.896 -0.187831
-7.6159 151.608 -2.62763
-7.46701 140.691 2.06926
-13.4744 84.6608 0.0654306
11.957 120.568 -15.2206
13.3973 146.638 0.900019
-2.52064 116.063 7.942
23.0939 135.39 -9.23415
10.2637 149.672 -5.76118
10.0517 135.784 0.520162
9.10847 142.646 1.91681
-2.13254 110.957 -14.146
11.5994 107.444 0.079262
14.0595 132.673 -7.815
7.77859 127.289 4.99286
15.6968 134.97 -8.15386
2.22052 101.144 5.27117
7.24862 97.1554 -15.6544
11.6209 94.1417 -15.5644
8.24699 146.982 -7.71585
-9.48949 125.876 -8.15503
3.9266 110.083 6.14693
-8.51454 94.0768 4.46741
11.7825 120.596 -15.0007
-12.1236 139.573 -5.67367
29.3899 87.2296 -8.9171
-0.021935 128.426 6.1324
28.6521 133.682 -9.63405
-2.4207 105.437 -15.2306
2.58721 128.676 -9.39
22.9074 100.398 -11.4865
15.9668 94.6149 -14.9715
-10.5854 84.4412 -6.49565
26.8732 90.0348 -0.155524
22.4805 111.415 -8.88546
-10.6969 139.788 -6.8026
-6.28354 83.9413 -7.54826
21.9076 131.085 -3.44032
-2.5724 86.5071 3.55991
7.36892 134.561 5.44744
3.41837 106.178 -16.4765
-9.4584 135.474 -8.59099
-7.38379 79.7493 -12.0773
18.191 92.0344 2.0386
-3.6372 108.118 6.72403
7.82852 149.038 3.50566
28.5662 85.7611 -2.16117
21.8059 90.2349 0.521664
20.7711 128.671 -1.5309
-3.97826 80.7682 -10.1778
-3.96388 86.2765 -8.37204
-16.7224 128.886 -2.80965
-17.3079 125.38 -3.3265
26.92 128.114 -12.1867
26.1914 82.9468 -0.885047
23.5743 89.2412 -12.4504
27.85 85.7126 -11.1795
-0.419234 76.147 -2.37203
11.4266 92.1273 1.88105
17.2141 111.996 -14.014
-7.19481 137.238 -7.14694
-0.78034 125.484 5.48631
3.97444 109.346 -15.172
16.611 134.531 -10.0134
13.7337 146.802 1.07855
-14.7867 125.912 5.43487
25.2612 141.474 -3.97335
13.611 126.828 -11.3625
-3.19082 105.358 6.38138
4.9961 86.1343 2.60276
4.18542 79.11 -0.00983416
14.8468 111.233 0.326021
-13.8355 133.716 7.33868
19.3885 79.2492 -11.9928
19.8877 130.018 -2.37694
29.9011 132.767 -9.90203
25.2983 93.1612 0.275713
-1.90136 106.105 6.69507
-10.6898 112.868 -11.0491
-4.67872 154.633 -1.22951
-16.7765 123.237 -3.16933
15.1521 129.148 -11.6889
23.6135 117.913 -3.30179
11.3458 95.0453 1.18862
19.9881 101.416 -13.2855
-8.60223 80.0391 -9.95341
25.7742 132.988 -3.72124
1.79245 81.696 -10.8821
7.71915 132.515 4.95435
13.3012 145 -5.41545
-10.1081 125.344 6.68757
-10.9549 133.126 5.61469
13.6248 106.716 -16.1731
22.4929 97.6024 -12.322
-2.44845 80.7955 -10.4457
3.81022 125.038 6.60589
1.3708 100.406 -13.7614
11.5982 86.9418 2.33743
0.893382 142.349 -4.12922
10.5724 140.656 -11.1388
18.39 124.269 -9.94685
-7.32995 127.862 -6.7618
-6.77521 152.218 -2.44359
-13.6571 127.076 -8.36082
7.99221 155.07 1.54434
-10.6148 135.752 6.53264
15.765 100.407 1.64581
-8.7373 134.838 3.8376
-15.0543 137.442 -1.11709
8.77327 129.376 3.97014
11.5042 150.783 -3.18757
-0.62844 127.919 -8.53867
7.62448 117.729 2.74232
-12.4011 90.0591 0.171878
-5.3764 118.359 -8.79644
-4.65259 122.071 7.86284
-4.97202 131.763 4.01621
0.787322 98.8398 5.3508
23.4934 113.292 -6.98407
26.133 121.94 -8.84803
-12.9921 106.158 -12.2133
24.6422 87.5871 -11.9539
-8.64669 90.0015 -9.16936
15.1783 130.56 -11.7312
13.348 143.434 0.886052
18.8009 130.156 0.504514
3.98684 135.175 4.91869
12.9167 140.974 -8.28554
16.2375 115.058 -15.1019
-14.5713 101.471 -12.0145
-13.4635 123.362 -8.51012
20.5644 94.2381 -13.1586
1.65228 134.513 -6.23664
24.8013 103.753 1.29427
27.2657 85.4578 -11.2258
-11.2545 110.012 -11.6254
-11.3525 86.461 0.531645
6.33306 85.7681 -12.8156
15.1889 118.939 0.546509
-1.96363 133.681 -4.87443
13.5315 140.899 0.480744
9.21666 131.844 -13.1189
17.9654 85.6071 0.555279
22.3683 140.936 -7.97366
5.2284 85.6057 -12.282
16.7978 79.5606 -12.0701
4.40157 114.634 -13.753
-17.6467 122.829 -8.21488
8.54105 153.124 -2.71718
13.1824 132.245 -12.0281
-4.34223 143.788 -4.68379
-12.7466 148.422 1.1842
-15.7341 133.542 -1.55292
33.335 128.808 -9.84384
-10.3739 107.972 -11.9624
-2.14473 97.5541 -11.1058
1.25844 126.32 -10.4804
8.85043 109.72 0.206893
14.1419 100.218 1.01999
15.9459 131.306 -7.01117
-1.6486 124.945 6.68554
23.9887 124.989 -12.2031
-9.76955 85.6665 -7.3853
16.1544 145.193 -3.03093
10.35 96.3987 -15.5688
-18.1747 124.441 -4.68655
6.77881 115.315 3.94053
-14.8814 128.512 -7.63703
21.0565 100.394 -13.0552
18.8926 128.335 -12.6508
9.14626 141.813 2.01593
6.94288 120.981 5.1642
-1.84465 113.047 7.59081
-9.26373 144.829 -5.89666
3.67095 141.494 6.62089
27.6991 128.182 -4.21782
24.2795 91.0951 0.54518
-12.9741 82.9514 -6.04855
9.94847 75.3006 -4.39949
29.1362 79.6834 -11.0591
14.6314 148.969 -1.57646
20.3244 127.095 -1.52597
14.063 131.388 -8.11209
-3.77346 100.364 -12.0613
8.16787 131.345 -12.611
12.3113 142.935 0.103104
26.4985 99.3875 -8.71151
6.72707 144.809 -7.30121
16.211 150.585 -0.969409
-13.5607 115.383 7.2624
-9.31699 86.0662 -7.89903
17.1916 102.884 1.71473
16.9042 111.025 1.12209
7.19903 107.732 -15.3832
19.072 125.166 -5.33267
16.2057 128.259 -12.3681
-6.26351 84.7411 2.56576
1.09223 139.909 3.55376
-9.53782 133.39 -8.50673
28.7152 129.346 -6.78309
17.3914 99.7874 -15.4265
6.97624 106.1 1.13692
14.127 128.623 -9.27546
27.5819 90.8401 -9.99571
10.6958 130.186 -0.281345
-8.39537 101.36 6.24842
4.65164 83.8761 2.21835
20.6108 88.1072 0.260392
18.425 114.441 -12.3828
-8.10369 150.357 1.90637
-8.93189 121.102 8.35486
-3.0909 120.381 -10.5219
26.9164 133.954 -10.5732
17.3314 126.039 -13.5491
-14.9938 128.925 -7.19124
13.8505 111.875 0.0459443
-5.59298 135.424 3.46004
-16.1616 93.6347 -11.0274
-10.288 125.733 5.42696
-15.6845 119.382 -9.74914
-3.80471 90.5433 -8.78907
3.80747 128.687 6.82498
13.2091 124.414 -12.0623
13.8988 87.4313 2.38213
-11.7193 107.278 7.217
18.7717 140.763 0.361016
-9.43821 126.474 -8.15718
27.6736 96.5718 -8.06795
-3.96469 98.2445 -10.5925
13.8365 84.8518 1.71844
10.3064 75.7078 -3.86755
8.36282 133.436 -11.9724
12.0774 135.096 -12.9483
-6.52859 101.517 5.55075
16.3309 130.317 -9.33907
-10.9923 102.101 -11.1778
11.428 92.7388 1.68107
25.05 97.4041 -10.3985
-13.0707 88.5266 -0.432628
18.9972 141.297 0.46596
-6.38665 84.5954 -7.33422
-17.9875 131.51 -3.00892
-4.9575 90.2108 4.81817
-9.83546 100.33 -10.9313
-0.41793 78.5976 -10.6138
-7.58261 79.5561 -0.239715
17.115 142.37 0.725169
-18.5723 116.556 -9.94203
-7.2211 98.416 -10.1933
-12.6687 115.71 -10.1944
6.52823 95.665 0.935625
19.6254 116.98 -7.80942
-0.878173 141.05 2.86708
-0.445621 126.26 5.4173
17.9571 140.389 -8.27071
-13.8593 81.6749 -5.71057
-0.0462297 119.524 6.70403
18.8744 91.5493 -14.2213
14.3836 137.748 -9.90982
-13.6932 112.738 7.12237
19.7848 104.804 2.34666
7.41256 115.581 2.44607
2.51741 126.922 -10.2237
-10.5446 141.6 5.17556
-1.11326 87.8211 -10.3581
-5.30341 84.8142 2.99897
14.9707 141.637 1.67106
15.0679 100.864 -15.5907
29.3952 86.3636 -6.67523
-3.23547 105.039 6.28516
-7.33812 123.408 -7.672
22.8502 121.774 -10.1885
5.2635 117.608 6.3885
14.9231 131.214 -10.2533
-16.4405 129.732 -3.59559
20.004 129.587 -11.7959
-13.8977 109.866 6.68105
1.3751 124.041 -11.7337
-9.36397 149.643 -3.67583
-12.8038 139.46 -5.00817
-12.135 140.882 -4.70193
26.5719 130.657 -3.51786
15.8696 88.5145 -14.2461
-2.45518 136.225 -4.49508
29.5246 78.5644 -9.84387
-17.2402 127.013 -1.81479
-5.96271 117.141 7.60739
21.3336 116.733 -6.86098
-0.842311 95.3667 5.31399
6.66048 92.6857 1.15218
27.4322 98.6254 -1.61399
-16.5016 127.2 -7.00614
23.8745 132.575 -2.8676
26.5759 105.331 -3.40143
21.7905 120.62 -6.1397
-18.5324 122.888 -6.78432
25.2592 134.505 -3.19374
-7.84034 137.696 -7.85308
12.1192 144.365 0.321176
11.8398 141.33 -9.42837
-10.1152 118.315 8.45447
17.3744 128.106 -7.52439
21.7121 120.42 -6.82737
-6.22572 109.765 -12.4614
6.13932 106.512 -15.931
-15.816 109.377 -10.5949
-12.2927 96.0754 3.35713
-12.7426 122.917 -8.22079
11.1397 142.058 0.630278
17.1259 92.276 2.63725
20.6598 127.813 -5.96996
8.36739 100.643 -16.5024
-2.31597 91.0188 4.01228
-13.1381 94.9059 -10.4136
-16.8297 126.822 -5.75439
-16.4887 108.443 -10.5352
