ply
format ascii 1.0
comment Created by Open3D
element vertex 1890
property double x
property double y
property double z
end_header
-15.6372 75.9211 6.56042
-27.0517 83.8934 4.9748
-9.64522 103.287 16.0224
12.4269 112.392 15.4409
-8.77832 103.922 15.8864
20.3756 126.186 10.2515
2.35364 81.8481 0.760104
-20.6306 122.545 2.335
13.1976 122.218 10.2012
8.981 122.509 1.04439
-16.8682 91.7003 12.6771
15.7594 119.716 8.75578
3.48061 87.4475 25.7724
2.0611 111.799 10.6374
23.8462 124.227 5.03997
-19.6667 110.921 11.832
1.68298 105.263 11.4745
-25.9083 79.1266 9.81775
-23.7421 96.1409 0.182565
-4.10263 81.8287 2.0644
4.84567 123.74 0.224905
20.5423 121.195 1.9808
-16.0097 83.518 12.2377
-9.89104 88.2377 15.067
4.56675 88.603 23.1617
-19.1088 85.2298 12.3629
-29.2325 81.296 5.94767
13.1779 123.465 10.8876
-25.6247 85.7957 2.98618
-3.17346 90.2786 11.3186
-23.4013 78.4324 4.78107
6.70962 87.97 6.26091
-24.2905 88.5175 11.6204
-22.8942 123.343 2.6109
-17.3832 109.965 -2.54758
2.22269 116.605 -1.56744
-23.5361 123.431 0.447641
-11.3423 83.8682 2.90672
8.85406 89.7538 23.0547
-4.63019 101.274 -1.93952
5.54357 85.0294 5.15645
4.63012 102.934 -2.3178
-22.124 77.6816 4.8469
11.4432 98.5672 13.5894
-2.4158 116.792 -2.67469
9.09527 100.725 2.51047
12.0454 110.557 7.14642
-25.6228 95.3593 3.91771
3.15301 120.986 11.1907
-19.6214 107.455 12.0935
-14.892 79.3904 5.01512
-10.9588 89.95 15.856
-21.1766 87.9389 12.575
-7.45691 112.236 -0.939857
6.59652 118.891 7.48614
5.16385 123.747 -0.295896
-29.0766 83.8336 7.60049
15.5684 119.461 6.77254
-15.3944 81.5509 10.3246
7.73288 123.312 11.0875
6.91863 118.52 0.759451
-22.8896 105.283 0.15474
-12.17 82.3106 10.3692
-27.6881 82.0919 9.06833
-9.87576 91.1443 1.57265
5.23679 120.468 1.4867
-13.4583 118.609 -2.87105
7.87425 89.4464 14.3035
-20.4321 115.382 -3.02362
-26.7724 78.3552 5.1802
-22.4066 104.953 9.0488
-4.25372 90.9551 1.02947
4.49877 88.4642 24.8226
11.8092 118.629 13.5032
4.99295 103.233 13.9184
-16.1858 80.8548 10.0796
-4.09056 120.147 14.424
20.6244 122.006 10.7905
-21.3381 101.366 -1.0406
1.09902 96.7025 11.5101
8.38686 118.509 10.5126
-0.620005 92.0146 13.1234
-25.2681 80.1787 10.6135
-2.70427 95.3077 11.5473
-0.0513424 119.311 14.2563
11.8144 101.166 9.59629
-14.1152 81.8626 10.428
0.386821 116.312 -0.930117
13.5561 121.322 9.76285
-21.652 90.3372 2.41987
-2.22375 93.369 11.0522
-27.5543 89.9099 5.37798
0.586955 99.8987 21.4343
4.78814 83.1705 14.4628
-11.8098 104.233 16.2073
7.70474 117.286 12.2537
9.17618 96.9883 4.50249
4.7615 122.158 13.8703
-20.507 123.02 1.17587
6.37685 88.2104 4.87148
5.9413 83.8544 23.1055
11.6764 106.778 3.996
-3.69815 96.4738 13.2581
-24.2945 95.0417 10.007
5.4834 125.054 -0.745163
-1.17965 103.995 -2.52283
10.4263 92.7084 8.51768
-12.3124 110.22 -2.49342
5.83493 112.002 16.067
-16.9642 112.863 -3.60306
6.00461 81.4922 15.5462
-9.82936 108.717 -1.36027
-16.3294 94.7676 13.5482
22.9605 126.141 4.03229
-6.60873 80.2421 2.47314
4.55232 112.793 17.1178
10.1299 122.941 0.81244
-10.1984 124.708 -1.95134
-11.2882 110.821 -2.02349
9.42509 92.455 12.5
10.4995 96.6968 15.7173
-8.15394 112.487 15.4575
-4.76775 99.8632 -0.996856
3.29744 124.351 1.98389
21.9173 123.07 8.57801
2.41124 89.5871 16.4837
-16.2332 117.389 15.0258
-3.9468 115.632 15.4528
-5.55173 90.9022 14.4111
-6.46667 124.559 0.932139
11.6022 101.987 7.83997
9.71361 116.662 2.20805
0.103473 116.664 14.1735
4.30214 115.437 19.7238
-0.178422 96.3068 10.7748
10.0993 115.799 7.85106
5.56322 121.69 16.9372
-12.5071 98.9415 16.9768
10.5028 125.657 -1.67582
10.6249 123.55 -0.96116
4.91386 86.6934 13.2153
-2.1768 126.622 -0.170479
10.6781 97.0682 16.9666
10.6973 104.758 19.8585
-17.2622 125.056 -3.9967
6.56061 115.963 8.18479
-25.0691 80.5291 10.7526
2.84154 120.827 1.28217
-1.43484 82.7219 1.49256
-10.7069 102.186 16.3839
18.2721 120.514 10.024
6.44963 82.5083 15.5423
-13.3023 95.6579 16.0895
7.65025 92.7055 26.0699
11.3246 108.423 11.4874
11.1747 103.37 10.6409
-23.5183 107.211 0.23376
-14.2182 84.9133 13.1661
1.79775 107.977 -2.77823
-0.904928 91.5241 0.228088
12.488 120.346 5.01819
18.7245 121.101 1.27593
11.9685 100.507 9.46702
-22.0697 113.568 6.89798
1.38254 112.561 12.7055
1.41234 122.153 12.9383
-19.5432 115.233 8.46126
-22.8566 100.317 10.0325
-12.8194 80.4003 4.06609
-19.7794 107.226 11.9486
-18.7489 114.241 10.1921
2.4608 89.5054 16.548
9.20383 126.843 1.41246
12.3801 114.378 6.62073
-12.48 118.885 -1.95743
11.4074 122.545 9.09139
2.68268 88.9762 15.4776
-10.8522 113.532 -1.39928
-19.9465 90.611 1.47107
-23.4831 116.303 0.414622
-7.72106 81.9823 9.03042
-14.3076 94.7799 14.932
-21.9784 83.8858 3.75282
3.85058 96.2782 22.8141
9.29353 112.344 20.4507
-11.2148 118.717 -1.38573
6.5835 81.5154 7.22355
-6.5374 82.3775 2.68385
-18.932 76.0456 5.80667
-20.2312 111.633 7.84744
11.98 117.08 17.1074
-24.5266 93.923 1.39701
19.3341 123.075 1.46924
-20.9561 107.193 10.9101
-16.3986 105.209 16.2143
-4.53524 102.005 15.9385
1.96928 120.948 0.148482
0.779533 90.9532 13.2191
-1.87414 97.0398 11.0493
-0.343347 92.8186 -0.261715
2.84967 88.8328 15.3157
8.04534 116.911 18.4611
-3.75563 114.948 15.4241
6.73768 79.1719 9.30253
-25.6698 94.1206 4.78861
-24.5016 98.4678 0.0289837
0.622069 104.984 -2.70287
2.58093 86.4524 10.8044
-4.69206 94.166 13.353
8.85783 127.198 0.461579
-12.2395 95.898 0.755341
4.62296 80.1114 16.3222
-22.3234 96.4815 -0.28402
-20.4211 104.415 12.5172
-8.17506 96.2068 0.918933
-21.1485 112.964 7.51557
-24.5339 81.0963 4.49617
12.8523 123.914 12.6798
-13.2233 107.882 16.2438
-15.9598 88.4952 13.4849
-5.34782 111.036 -2.69161
5.9301 103.186 25.2786
5.81022 115.545 15.6769
-20.9672 101.979 12.6025
-11.8467 112.495 -2.1616
-14.793 117.537 -3.47443
11.5673 103.598 18.259
-25.0271 77.5365 5.28657
-17.8126 115.578 -3.43706
5.35294 87.3866 23.0423
-24.7115 103.817 4.85669
13.2769 113.852 10.9258
14.4362 125.532 10.382
-12.7875 90.7521 14.8806
9.67611 115.867 0.872169
-15.0536 118.859 -3.44021
-25.6002 81.2256 10.7505
-13.2854 87.1029 1.31392
-12.1845 105.567 16.2454
9.74231 129.071 -2.94771
-10.4858 107.36 15.5997
11.8959 106.266 15.1253
-0.377449 93.9704 17.794
0.366756 90.2562 -0.28455
-1.55747 117.241 -2.48796
7.72969 121.67 11.3151
11.1376 122.408 4.38493
-15.3884 86.7606 2.2218
-23.6851 105.847 0.391323
11.6479 123.418 9.60308
6.69103 97.3453 0.466082
-22.185 84.2467 3.32988
11.9542 99.9874 8.6018
-0.137211 92.7697 17.292
16.9556 120.461 1.02636
7.8427 85.7565 8.29996
7.20298 88.0343 25.8298
2.91122 116.058 -1.54683
-17.9828 111.36 -3.21673
5.63339 82.9724 19.3421
-27.1119 90.8851 4.95887
-2.03451 114.286 15.2044
4.50897 123.937 1.26819
-25.6398 77.3316 5.57799
-21.6389 98.2158 -0.534759
3.60133 83.0612 30.3585
5.01183 95.8602 -0.805472
-20.104 90.2979 12.0904
4.28636 118.783 16.9001
-19.9217 118.69 -3.03619
-20.9978 121.953 0.652413
-2.43146 120.243 14.1132
-15.8146 103.201 -1.64959
10.505 95.9499 11.9294
3.49876 93.1148 24.8383
-7.6171 116.257 15.407
2.99641 122.548 11.6445
2.55036 108.217 19.3589
-19.8383 107.544 11.8642
-18.4093 92.8735 0.228874
10.9108 105.02 3.48521
1.63898 115.391 12.6749
6.20539 84.8107 5.87979
-26.4931 89.7792 8.75161
4.34568 101.374 -2.31149
4.66378 115.551 8.07945
3.70326 91.5846 23.6517
-1.09781 92.6847 11.8716
11.6489 99.4701 14.5941
-2.48791 107.81 14.7874
-19.1757 95.2715 -0.407489
9.43754 103.982 22.619
-19.0081 77.6465 5.13711
-16.7993 78.3441 5.42534
5.3595 111.537 16.541
-2.59412 85.7875 10.8994
-22.1395 119.292 4.2549
-12.2399 125.567 -3.13176
2.07759 74.9805 3.84074
13.0944 112.982 7.62751
-26.4278 94.2715 2.87841
-18.7315 113.449 10.8264
-27.0744 89.0791 8.2534
-17.2263 116.467 13.6316
4.73912 105.778 16.0886
4.63648 75.6169 4.53238
4.77836 96.9753 27.4506
-7.64689 82.411 9.73544
-3.44291 88.767 1.09218
-20.805 123.301 0.386972
-22.9413 99.9973 8.1396
-3.28429 116.748 -2.48573
-26.7625 77.8788 8.82202
-6.74544 81.0673 2.51203
-9.13066 85.968 13.0638
-2.09096 86.7082 10.4175
10.1107 118.798 2.06072
-19.3157 94.5617 -0.278383
-16.4505 84.439 3.12041
-25.2612 95.0629 8.05188
0.252135 100.934 10.9191
23.6603 121.128 6.62434
-15.3345 115.903 -3.63769
-28.5671 82.0131 8.11479
3.70805 114.074 8.9138
-14.41 108.63 16.5296
-0.0563398 91.3298 16.8137
9.09742 91.4509 22.4255
-14.818 107.951 -2.1602
-11.4406 114.738 16.1431
5.13203 118.488 7.50082
8.55627 88.5344 23.8836
-1.73167 89.9596 12.8184
10.5384 93.8304 9.73359
-7.72895 118.742 15.5326
-25.2721 94.8436 1.2186
-18.591 124.935 -1.61125
5.34604 84.2026 13.9447
-20.1798 122.285 0.945304
-20.6972 122.753 -0.0871829
-19.2864 81.7998 4.04714
9.66237 116.735 2.42766
-20.4231 114.048 -3.08157
-9.83474 88.3183 15.177
-7.59851 87.2439 14.8424
-2.98924 87.9695 10.6386
12.0593 110.67 12.8822
6.72709 102.839 -0.865408
1.74624 100.446 21.6372
7.41501 116.531 12.9288
2.6286 94.8803 26.4188
3.04049 93.2299 18.2752
-15.1823 118.398 15.6969
-7.13105 88.9188 13.8437
12.7173 111.737 7.61668
4.77258 104.305 24.5462
-28.4366 83.4651 6.16414
7.99947 84.663 15.8879
-6.20128 84.7946 12.7079
8.43253 91.4071 6.61435
11.8366 99.1974 10.7397
-14.982 84.4367 2.57249
-14.1047 117.976 15.6267
14.2071 120.071 9.75092
-12.8181 86.1186 14.0388
-12.6529 119.374 14.9675
-18.3892 119.711 12.1254
-3.54224 80.4148 9.33158
-22.3392 87.3866 12.3533
-13.991 103.13 16.6972
6.80375 113.592 14.0935
0.326962 107.711 13.2212
9.62654 116.808 18.4883
-3.61516 100.585 -1.54592
6.29768 85.4181 22.9311
-2.57877 91.0521 12.6793
11.5231 96.9186 9.68992
-12.796 118.851 -2.27471
-2.9709 81.2607 9.89195
2.59802 81.4596 0.990547
1.41271 115.87 12.9489
-1.60412 98.8802 -0.325826
-4.63838 94.1529 13.2838
-27.6002 87.3996 8.16882
8.14379 87.3287 22.6819
-7.0369 105.235 15.383
-18.6724 116.448 -3.25907
-25.3593 94.6662 5.44217
-16.4612 96.0473 14.1421
20.3646 126.176 1.86152
-4.325 96.968 14.1766
11.7195 99.638 14.9774
-16.8688 102.789 15.7769
-8.63301 111.636 -0.681306
-22.4044 89.7873 2.53632
-15.2007 123.949 -3.09334
-15.6617 95.6458 14.3591
-2.30193 83.0943 9.02085
4.61168 112.845 17.0673
12.1699 110.011 8.68931
9.13259 91.6165 22.1138
3.33165 115.57 8.95478
-0.6489 101.933 12.2527
4.95302 118.974 14.6348
-22.8959 103.355 8.21479
-8.74307 98.4799 -0.0910376
-13.5938 82.3233 3.12054
10.5761 108.989 20.8138
16.9609 122.358 1.36387
4.72598 121.971 13.989
2.83976 103.164 16.4703
-4.75065 121.797 14.0028
2.7089 127.133 2.26547
6.67123 106.81 0.4788
12.3154 110.976 12.437
9.03475 90.8692 19.6774
7.8238 108.612 22.7161
-21.4691 110.328 6.05495
-21.3953 110.084 7.61063
7.63753 123.63 6.4677
4.31058 100.872 12.6524
-1.28445 80.3476 1.59851
-12.7286 86.7421 1.43321
7.53263 86.0707 25.6193
-27.2007 78.4785 6.99531
-2.77705 79.0357 2.99805
4.44087 111.709 -1.51503
11.0128 122.745 5.64106
3.61436 89.0232 28.2846
-17.6556 88.1514 1.62467
8.81223 87.1754 12.9194
13.3181 113.413 12.6316
2.374 93.9409 26.0854
0.919675 99.1981 -1.20206
12.5329 120.072 7.69017
-8.49828 79.01 4.24773
-2.85346 96.3826 12.0682
-1.60588 92.3239 12.4455
11.6456 101.391 15.9759
-19.6574 79.5188 8.96704
-21.3839 110.41 -2.45465
-22.3948 107.178 -0.284571
6.16454 99.1381 -0.81784
-1.01163 84.0267 1.24141
6.14827 109.707 15.5493
10.8352 102.515 4.20694
11.4552 118.899 11.8032
8.53646 86.3363 9.86995
-25.5811 94.5149 6.51093
21.4707 121.584 10.7333
-15.9366 98.4823 -1.10737
-21.407 83.8891 3.89684
-14.4893 109.936 16.5279
-1.53932 114.514 -2.99947
11.0792 102.819 4.3086
-21.4331 84.1521 3.62726
-4.59331 115.133 -2.30937
-19.0126 80.6324 9.11005
11.4553 109.297 10.5485
10.461 116.254 1.31048
3.4968 115.743 18.4518
9.0472 98.3068 3.86944
3.16281 115.076 9.04783
9.29822 87.6948 12.0276
-18.0775 98.4689 13.6873
11.8772 127.938 3.29243
2.92764 92.3528 17.8851
5.02528 116.581 16.0721
9.7421 124.569 0.118989
-6.93117 112.491 15.4581
8.85113 89.934 23.5503
-18.9392 123.326 -3.21794
11.5619 110.14 15.6521
11.852 113.394 18.4193
-25.7191 95.5173 1.25015
12.8314 113.257 5.86092
11.6579 101.808 7.61502
-8.7235 113.527 15.4156
0.695864 118.224 13.7216
7.90592 85.7365 13.861
-23.6522 109.537 4.00832
-18.9658 87.7387 1.87044
-4.9953 118.578 -0.842182
-20.4844 114.625 -3.05224
-3.18424 86.912 1.07349
-0.735864 97.138 18.9193
5.19195 79.8326 4.54624
-15.1858 95.3233 0.504911
4.18015 91.875 27.3259
6.79278 88.7075 25.9959
-27.2264 77.749 5.92601
3.33702 96.9103 23.1508
4.83765 84.8285 13.4045
3.75898 99.2755 13.4459
5.49965 109.375 -1.40334
4.13451 101.55 24.1205
0.776634 109.075 12.7209
9.19544 91.7324 20.7206
8.49963 92.2349 5.91044
-17.8065 84.7571 3.2841
-20.8007 116.444 -2.97903
10.7033 123.038 3.55406
-14.6543 101.475 -1.14817
23.0673 128.072 4.39331
-15.6826 109.263 16.4311
-10.3835 83.3386 10.8952
7.08552 87.2236 7.10387
-1.99244 85.5644 1.00316
10.2248 116.631 0.110485
7.50627 114.818 0.685666
12.508 108.26 6.43012
11.8692 100.307 15.7577
-5.82182 92.7156 13.3198
-10.4322 85.64 13.3059
5.36409 104.243 13.3964
-17.8391 95.8768 12.9759
0.510823 119.9 13.8497
4.06759 101.383 14.6687
-21.0917 103.148 10.67
-1.9956 83.2248 9.15682
11.5212 125.642 3.63923
11.5674 128.863 -0.0725282
-5.80288 80.4686 2.29678
5.35777 84.7319 23.9987
-7.75915 126.014 0.312456
5.91801 106.497 13.6903
-7.91844 120.851 0.60869
-3.62949 90.5722 11.5447
-24.5032 96.7269 9.04153
4.29504 100.349 24.8443
-7.54806 118.257 0.277854
-4.60632 91.6352 1.00669
-19.1875 123.748 -1.48907
11.8743 115.826 15.3744
-16.6539 85.2264 13.1924
-25.8011 89.5129 3.11713
0.722303 95.8616 15.4857
11.3247 122.739 -1.3887
-3.65847 80.6441 1.93563
-11.5241 103.92 16.1265
9.0506 121.072 2.68031
12.2203 121.306 8.83021
4.46893 119.302 0.886524
9.6681 123.49 2.24678
3.8194 112.185 8.93109
-15.1091 116.036 -3.49827
2.01717 93.9174 18.3741
-9.3703 97.2427 0.693789
-25.5488 99.9154 4.89195
4.82631 83.8577 4.09625
10.2665 95.8131 15.103
1.5517 98.2115 19.9221
-9.95807 92.4545 1.22326
-24.587 97.5728 8.06389
2.57153 97.1443 20.246
-7.8865 122.298 0.202989
-14.6462 114.346 15.7292
10.5016 126.901 2.67149
0.256254 89.7037 -0.188407
-11.9188 92.4226 15.5068
1.69896 77.356 3.4052
-23.0276 104.72 8.48434
2.51206 118.404 11.8665
7.93097 88.6586 14.3458
-3.14741 90.005 12.7266
-27.0419 90.8764 4.51758
-12.3971 84.2067 11.9312
4.3878 122.588 9.75057
4.61711 74.8976 3.90281
-6.08683 87.3311 2.10956
-23.9075 115.576 1.11299
11.186 104.838 10.7678
-0.285084 83.1828 9.82398
13.081 127.32 1.38449
12.697 111.201 3.51784
-9.89055 85.2171 12.4237
-16.3675 109.826 -2.43982
-10.7897 115.176 15.9657
8.57137 117.316 1.42661
-16.8052 94.0189 12.964
-14.2086 99.2145 -1.07668
-14.3236 85.6759 13.6341
-8.5429 111.734 15.3807
-9.64081 86.0728 13.4511
-22.772 123.226 1.72126
-20.968 122.65 2.60145
-27.1408 89.082 7.87861
12.8243 118.469 10.031
-22.4631 79.8915 4.53612
12.6202 120.327 4.39983
-22.4991 100.665 8.72915
3.11223 115.637 -1.48414
4.67047 111.328 -1.67712
-21.2298 92.917 12.4302
-5.57749 77.5993 5.42651
22.8913 125.881 6.08354
-23.0493 107.19 0.0107252
11.7125 117.574 7.85371
-0.2516 92.3409 11.8115
-5.76503 85.6978 2.03794
5.98532 108.726 15.7796
-16.0486 99.5508 15.5641
-22.6626 101.978 8.16715
-17.6312 107.989 15.6417
-10.1718 125.664 -2.15097
-5.76376 83.3161 2.41338
-18.0226 118.053 -3.00015
4.10348 107.149 17.4216
-15.4397 97.2129 15.1517
5.18284 122.329 15.9755
-16.1999 83.8312 12.3724
-10.5126 111.647 15.5655
7.91647 91.7699 25.8671
2.95537 122.557 11.6972
-27.2095 91.6017 2.41353
2.61408 100.987 22.2872
-23.0655 117.417 -0.738715
-13.6536 113.136 -2.47559
3.70694 80.4232 22.0167
9.68361 90.8792 12.1275
-18.7509 124.898 -0.901611
-22.7945 123.622 2.90579
-8.61268 116.865 0.0822806
11.7481 123.789 5.22556
3.53862 89.6658 26.1152
5.3983 117.477 18.9828
-1.17418 102.4 -1.75434
11.5769 122.247 8.75839
-20.1513 123.292 3.17357
13.3011 114.038 12.5044
8.53553 88.3023 13.7284
4.0756 110.868 -1.45534
-25.4678 94.4468 4.94868
-24.3998 115.402 2.56868
-2.4554 117.235 15.3017
8.98559 121.297 16.9407
-8.81132 124.202 -0.828988
7.85484 83.4592 9.00441
-22.2853 86.0524 2.7512
12.954 114.68 16.4911
5.38089 104.044 -1.82684
5.76233 111.286 21.485
7.95279 127.898 -1.97932
12.3787 122.057 9.9659
13.2193 112.057 9.71404
-16.6069 105.737 -2.52816
8.98614 104.907 23.2455
0.384395 95.4536 15.5014
-14.923 100.025 15.9226
-25.9177 93.8998 7.13965
10.3248 124.456 8.68589
-19.4665 105.938 13.5111
11.591 126.203 4.44
-13.0638 111.232 -2.64972
5.18797 109.598 22.5069
-9.25209 110.383 15.3025
-1.23151 90.1173 11.8052
2.92748 94.786 26.6318
1.08686 95.1078 18.6767
11.5041 110.159 19.833
10.561 116.043 0.740224
9.98833 126.082 1.7237
-14.1973 89.6709 13.6359
-19.1285 82.2962 11.0047
7.91841 95.0338 25.1312
1.39144 98.8944 21.1726
4.05112 90.9407 18.7074
10.8426 120.687 1.10313
2.53197 103.057 22.6367
11.1001 116.845 11.6916
-18.7027 80.4762 8.9794
-3.50407 99.1172 -0.474929
4.6022 96.9618 -1.43428
-20.0349 80.501 5.01205
9.63997 93.6936 19.4223
-5.41715 89.6131 12.6555
-18.2598 111.067 -3.05099
-4.53835 102.667 -2.6756
10.0263 126.296 -2.54744
9.02513 126.536 2.73553
4.61389 107.85 9.64499
9.26838 106.982 2.4605
11.61 115.371 9.78452
-22.2623 122.538 3.54552
10.7663 116.964 8.36288
11.0376 125.375 0.117537
-10.0195 118.625 15.6691
-23.4628 94.2127 0.776273
-11.0869 90.1978 15.7467
-13.7388 89.7468 13.973
-6.84669 119.931 15.4889
-25.3769 80.1969 10.585
-20.9201 117.225 -3.10241
-24.3545 102.181 0.0258574
6.9267 89.0045 5.55658
11.0701 100.597 20.1032
-22.1287 124.569 0.644624
-27.2648 90.403 3.65785
-5.91899 96.581 15.7619
-26.277 89.6459 3.02753
-8.39598 97.8106 0.457124
-0.919212 94.4572 14.4974
1.51774 92.2065 -0.904421
6.91021 79.2712 10.7769
6.55161 84.1841 22.2322
11.9839 109.695 8.46198
-17.6196 85.9635 2.47331
7.52855 121.1 11.6657
-7.13209 80.7049 7.88393
-20.1863 120.253 9.68629
5.6006 82.9747 20.9891
-15.6015 86.9444 2.07967
9.96976 100.033 22.6142
-19.0669 105.241 14.5432
11.7413 113.073 2.85142
4.32871 104.073 15.8679
-25.0156 80.2031 4.84996
11.2253 125.758 3.0753
-26.3982 87.3311 9.8726
-23.6886 116.649 4.56112
-4.53425 99.5366 -0.733359
-7.64305 89.5168 1.65943
10.034 120.8 16.7352
-18.9727 125.206 -2.32927
-9.86054 100.896 -0.635354
3.9917 85.0969 29.8126
2.13019 96.4792 12.2943
-4.05693 90.5498 13.7791
-21.22 110.463 6.90701
11.7989 117.269 10.1538
9.30964 118.551 5.46285
-27.151 79.0458 9.4966
-0.837966 91.809 0.182777
6.66551 77.3272 10.5679
-2.342 102.884 14.4808
1.98501 108.22 10.1911
-21.1403 96.3627 -0.188577
9.14292 112.572 20.3877
-11.9109 88.1443 1.57747
5.83096 115.553 15.6397
10.9981 125.275 9.22048
-11.1902 113.641 -1.60982
1.87004 97.1144 15.0098
-23.9208 80.6969 4.45335
-7.80108 118.313 15.4905
10.169 120.277 -0.0320794
6.60985 86.9137 18.7673
1.88961 98.4877 11.2583
9.10027 116.474 18.5878
11.2292 119.127 16.3568
-8.80631 122.324 -0.568664
-19.1555 75.8848 5.83047
-9.37495 113.743 -0.556547
-2.43355 99.8642 12.8893
-12.4826 102.173 16.8044
-0.60778 101.983 12.0534
21.4914 125.318 8.25405
4.03382 84.1656 25.4104
9.19586 112.861 0.59794
-13.6056 91.9004 0.766523
-7.24167 88.5945 13.7765
6.009 94.6693 27.1973
-20.2493 109.436 -2.74036
-13.7136 107.918 16.3544
-0.538908 89.8117 10.5393
6.46983 99.7823 26.3776
-5.24891 123.022 0.588554
10.3089 122.435 -1.23326
3.66643 95.3534 27.3587
-14.4784 108.285 -1.97016
-9.17512 82.0894 9.86325
11.7235 101.917 17.6649
9.93402 117.072 1.36339
-17.1932 118.568 12.4114
-5.87439 114.782 -1.2674
-23.1036 105.07 0.21183
4.59305 75.3315 4.19545
-3.2848 89.5246 1.0843
-21.3299 92.323 0.877155
8.96259 118.044 1.00894
5.83847 108.505 -0.731613
2.19167 84.7873 11.6449
1.79446 93.6798 18.2711
0.957218 84.825 9.39708
5.48991 88.1873 3.14482
9.44933 127.484 1.25096
-4.11812 91.0105 1.00226
-22.0166 109.41 6.9648
-4.22866 89.5656 1.34268
-19.5888 93.5053 12.3841
-0.854291 92.284 11.6488
4.2679 105.929 16.8502
5.00256 81.0061 19.5503
-17.439 111.029 15.5294
2.22485 104.127 16.9958
-16.3899 87.8885 13.5412
-21.0429 77.7431 4.88364
20.2405 120.707 1.62496
8.72533 109.182 21.6174
8.03538 88.9828 18.8325
-7.91878 95.5117 16.4396
11.9483 100.268 10.3343
10.9984 102.683 20.1526
4.16921 112.861 17.4714
-0.974826 118.199 14.7411
4.91541 104.998 -1.69191
-13.9784 80.8129 8.90937
3.1352 90.2135 26.2797
8.59231 96.668 3.67662
2.72546 92.8869 18.0717
1.92228 85.1783 10.6007
2.28719 115.283 11.4714
-25.8933 96.8037 1.15597
4.5156 80.7127 17.4353
3.51883 108.144 -1.1734
9.85765 95.6605 21.5896
8.87116 125.323 0.802639
5.02376 86.5666 18.181
8.12759 84.5226 15.9771
19.57 128.792 3.17065
8.61327 91.0123 13.4473
8.47608 89.7343 24.5128
9.04757 97.0497 23.8067
2.26916 89.4932 26.8014
8.42916 91.4052 15.4815
0.0498389 96.0459 18.84
-5.55143 119.388 15.3001
-16.0946 108.189 16.3694
-16.603 100.456 15.6039
-10.2952 87.3516 2.07271
-22.5163 118.225 -0.626779
8.25151 120.524 7.72666
-14.8495 83.8571 2.63382
-21.4708 95.1198 11.7413
-25.9445 94.2469 3.52935
5.32676 109.247 22.8384
2.94596 104.512 22.5089
10.758 111.314 1.55806
-24.0849 98.4304 8.43728
-25.0284 124.205 1.11667
-25.8276 94.5127 1.66746
3.64433 100.962 23.3317
5.86051 80.8961 5.75661
9.98691 123.935 1.93099
9.12196 91.0721 19.2324
11.3382 101.39 19.2793
-0.173045 116.675 -1.69821
-3.45976 86.5049 11.5453
-22.8526 88.0017 2.78046
-3.99502 100.039 15.0187
-22.4425 115.387 -1.97152
-12.6857 119.3 -1.99204
-2.54379 124.041 -0.424216
-7.17146 95.8108 1.03203
-9.77557 83.1471 10.7869
-7.66441 86.4898 2.35787
-28.017 77.9745 5.7983
-12.6104 116.625 15.4793
12.8772 112.19 13.2743
-18.3277 116.998 10.1194
9.61345 95.3507 22.8571
8.22309 97.722 2.37064
7.93146 120.922 -1.26958
22.9198 127.515 4.71914
2.82203 109.271 -0.966134
7.08152 89.9234 25.8777
4.04366 102.419 15.3243
-14.8309 78.1358 5.98798
7.32051 114.929 13.1799
-9.48036 90.3086 1.78937
12.0747 118.223 16.1579
7.66257 93.6007 26.1234
12.2548 114.08 17.7612
-18.5641 100.228 14.3942
7.84798 81.7666 10.1853
6.39942 85.0075 6.10759
7.85257 102.948 0.704298
-22.6375 79.8197 10.7188
21.6855 121.983 10.7849
-22.0511 84.576 11.7804
8.51546 90.6211 24.5982
-3.41663 80.69 1.91127
6.31883 109.777 10.1387
3.37431 123.164 1.87787
2.32434 94.9046 -1.28463
-12.0638 76.5403 6.92954
-18.5199 114.669 10.5729
7.85637 120.335 11.801
1.67736 99.1663 22.4171
-22.1125 122.762 5.2235
-7.98242 91.8488 15.7343
-19.1284 91.8019 0.328513
11.9606 100.317 9.76673
-15.6695 86.5291 13.7011
16.4045 121.432 1.28491
-3.44162 112.686 -2.77178
-9.66368 104.091 -2.61608
-22.865 92.0277 11.8425
12.102 121.048 -2.15044
10.0645 116.278 0.0487895
-4.02931 94.2048 12.6291
-14.3064 115.817 -2.86684
-21.8552 79.894 4.59563
16.028 128.462 1.70532
-15.5781 95.4785 14.301
-2.3688 90.9353 11.1232
-6.75699 83.7516 2.68629
-7.65602 95.3917 1.00935
-18.6334 110.316 14.2269
-1.49923 93.8082 16.3537
3.36903 112.341 20.5714
-20.4307 98.9851 -0.708486
-11.2886 86.6453 2.04721
10.8227 119.902 5.56844
6.99391 106.565 0.809818
2.56024 108.552 20.3049
-25.1739 99.673 0.763852
-16.147 119.88 14.9755
17.3173 125.506 11.4426
5.41498 112.342 8.78325
0.83198 95.1014 14.5545
2.99537 94.8086 -1.26338
8.54193 93.1084 5.13766
11.2281 109.287 15.2716
5.31647 89.1952 2.30732
-21.1931 109.344 10.2283
3.98879 125.8 1.86633
7.41616 113.151 -0.871211
-1.45737 88.1071 10.3202
1.30672 85.9551 9.95431
2.51282 84.3086 13.1934
-25.7457 81.6408 10.8007
2.52367 98.0686 22.117
-5.18697 80.4898 2.20506
8.3989 116.914 1.58383
-25.9147 85.3873 11.0183
-20.828 120.413 -2.88335
9.53908 103.446 22.6972
-0.53464 116.072 14.5688
13.5399 119.914 7.7639
-4.22714 105.192 -2.77493
0.581868 103.138 19.22
-20.33 123.379 2.11043
1.55485 84.7372 10.4167
1.80179 107.796 -2.84177
3.75905 114.37 8.87845
3.24218 121.171 11.0882
-6.30118 120.042 15.2318
10.2013 95.5931 14.8303
-5.20632 80.2241 8.28293
7.08186 127.122 -1.52345
-0.0497361 86.9151 10.5139
6.07364 87.9398 4.37279
-14.5788 84.4648 12.5355
-8.91704 87.1105 14.2192
-11.1021 124.478 -2.01397
8.6851 126.113 6.14333
8.50161 88.3418 23.2966
-8.51696 119.946 0.467309
-10.6842 118.163 15.6471
11.9153 100.546 14.8285
6.2496 113.359 15.4355
-11.1985 77.3599 6.52933
-16.9294 117.801 -3.2246
-8.26598 125.774 -0.0775253
-8.5895 77.0673 5.81734
-23.0643 113.014 -1.34619
-15.1841 88.058 13.7983
8.52282 91.6093 15.0066
-7.46401 111.019 -1.27811
4.03524 117.189 16.9038
6.35191 85.8981 14.8195
-22.9084 115.049 -1.433
1.18755 117.044 13.2146
3.96114 88.7879 13.9223
17.3975 119.542 10.6179
3.12869 119.023 10.7081
-20.674 102.92 12.5796
-26.3407 123.248 2.33967
4.67144 75.9091 4.94517
-5.38849 95.8971 14.5806
5.26452 106.261 24.0232
10.3766 116.324 12.0313
-0.214957 107.32 -3.31404
4.35193 89.8194 0.946313
-20.3678 90.8954 1.48111
-3.36013 80.6402 9.71166
10.5277 119.311 -0.0480672
-19.4391 99.0481 13.1006
-20.1163 103.838 13.746
-16.6881 103.319 -1.77726
5.79314 106.741 10.8463
-2.47532 126.823 -0.158403
-7.39585 120.144 15.5801
-18.1521 95.671 12.6315
7.02688 113.847 20.386
-22.4964 119.128 7.28759
-23.8395 98.7918 8.39712
-14.5725 85.9637 2.09722
-0.207331 78.9926 2.40406
-7.07171 116.619 -0.0381026
7.267 88.0867 17.3667
5.7552 108.325 16.4206
-5.62935 82.5694 2.52841
9.04411 90.7287 21.6967
-13.8623 88.2148 0.993054
16.1625 127.468 2.3823
-1.12666 86.9177 0.530636
-8.22009 81.6522 8.62696
-6.35676 121.867 0.721814
17.8784 120.878 1.0281
7.87063 110.221 22.0994
22.8123 123.91 7.12299
21.6086 120.918 9.93669
-23.6568 93.2348 11.0205
10.6505 104.691 19.9457
7.29002 82.9345 14.636
10.6358 119.545 16.7276
-1.35404 123.748 -1.10991
-19.1805 99.7578 13.7063
-27.6697 80.2481 9.08309
2.72584 115.862 10.2512
-28.1999 79.3227 8.83167
3.05186 90.2745 27.2675
-25.2263 94.9643 1.15569
11.5019 111.339 18.3253
-15.1313 105.035 -1.9601
20.3894 121.208 9.72578
-15.7003 118.545 15.3341
0.395796 82.4701 12.5775
-17.1497 104.988 15.8168
-28.5088 80.0266 7.89416
-17.134 117.535 12.4866
2.91096 92.5042 -0.864501
-6.72184 99.6432 -0.884045
4.26046 94.6014 27.4971
-7.07611 98.3301 0.133552
-23.7677 84.0597 10.6559
-3.35649 105.008 -2.9402
-22.2647 97.6086 -0.420521
5.49106 116.299 15.6734
-28.5537 82.3513 8.17982
-4.08823 119.36 -1.32633
10.3649 124.077 8.56172
-18.2868 113.317 12.4843
0.679703 94.2717 13.7363
11.5991 98.7573 8.11558
-20.2554 123.181 1.27672
5.66338 82.8796 20.5036
2.10861 118.455 12.5458
-4.2962 78.6579 4.22711
-25.2205 92.9346 8.47229
9.02323 104.215 2.01841
10.3045 106.173 20.8258
-1.81919 91.1859 12.619
2.24887 87.1075 10.0799
-20.7599 118.102 9.01911
-22.514 119.031 4.36213
2.70937 91.6885 17.6287
-0.169634 97.5544 -0.805195
-8.93411 126.554 -0.755987
8.95725 112.388 0.0380985
-1.57028 81.0028 1.65739
-17.6328 115.064 12.5639
-6.98342 113.647 -0.684496
-4.81007 85.1372 1.80441
-25.4733 99.0563 4.58605
6.11497 81.5907 15.4914
11.1602 122.719 7.34933
-8.83435 103.117 -2.12343
8.23773 101.187 24.4539
-0.341625 91.2633 12.2672
-20.1947 122.944 3.25431
-20.1861 108.173 11.7343
-19.1405 112.73 10.1903
0.800836 111.318 -1.85218
-5.24951 92.0738 12.6452
0.0898633 95.5921 -0.836077
-0.181037 82.3132 11.1464
0.0558829 94.3043 18.2144
22.1567 127.985 5.86291
5.73507 94.8829 0.0144896
9.40673 124.786 5.13162
0.325128 106.216 13.4318
2.54473 102.595 22.3246
10.3865 93.2021 9.13954
-14.1429 79.4105 4.50775
-6.65602 122.954 0.938252
7.44873 96.9128 1.84438
-26.4892 83.7084 10.5789
4.11321 79.9104 19.8565
2.3796 107.424 18.4189
-16.639 103.167 -1.7502
3.74203 84.5991 25.541
-24.5028 78.6062 4.91207
7.48349 121.748 7.14868
4.47513 86.5832 15.9687
9.51637 93.3272 22.6047
3.30038 91.6893 -0.687042
7.61753 86.0327 25.4461
8.96272 90.1898 20.4753
-12.2543 92.4923 0.872782
-4.49244 121.509 13.9296
7.31558 86.1435 7.39519
5.34033 119.548 13.9489
13.332 120.01 6.81035
12.4472 107.432 5.25208
11.394 124.922 -0.277076
-21.8048 101.923 -0.889101
11.3824 98.3934 7.58993
-2.74584 86.9943 10.6261
9.15192 128.523 0.576803
-12.5346 115.961 15.655
9.8215 103.838 21.6773
16.2551 124.508 11.2031
13.4022 113.136 8.52348
-14.7989 101.128 16.2907
3.20234 112.021 -0.773536
8.18607 121.417 -1.37831
-20.2782 123.206 2.32131
-20.3375 124.274 0.523473
9.1041 91.4237 22.2168
3.54523 93.3343 27.2132
-27.7379 78.7746 6.13811
4.99664 112.457 -1.5673
10.7517 126.096 2.34599
10.1347 93.9213 7.47419
-20.6139 99.9276 -1.14377
3.01035 84.2896 13.6912
2.62754 118.908 -0.212436
3.7651 80.2335 2.26626
7.09406 97.5165 26.2449
-21.2112 82.0211 9.75981
6.25473 117.254 7.59088
-10.0192 117.289 15.6508
4.00169 90.5087 18.9589
-0.10982 119.315 -1.64139
-2.90016 76.2573 6.09061
4.2164 87.9612 20.1671
-15.4788 119.328 15.4369
-17.0079 118.35 13.5236
8.79362 125.942 6.3059
-13.2941 107.615 16.2728
4.38503 125.279 1.2895
8.18718 117.137 10.1785
5.98054 84.1218 19.4238
-5.58482 118.092 15.5495
-3.39243 102.843 15.5422
11.6513 126.087 4.44928
-25.0284 93.6742 8.8725
6.14075 100.459 -1.25034
5.16413 83.8691 14.0763
5.08953 102.957 25.5637
-19.5272 111.959 -3.33802
5.34596 103.891 12.8735
7.19841 84.6635 14.9931
6.15816 77.2174 9.11043
-15.6702 119.906 -3.55387
-25.784 81.4537 10.7469
8.21722 92.4626 25.4179
4.90992 81.6298 24.8164
0.251087 82.09 12.8828
-22.7376 79.0255 8.91281
7.06353 102.46 25.5364
12.5504 108.047 4.60905
4.66213 120.808 16.3852
-0.972261 76.9246 4.4639
-16.1097 115.954 15.6689
4.62622 101.483 -2.18599
8.69689 124.629 6.58652
11.3805 123.134 5.42194
4.89719 111.043 -1.72855
6.95687 97.1199 26.479
-24.4539 97.8735 0.117223
13.3584 113.782 10.0036
11.5713 115.174 11.3145
11.2498 106.382 11.8444
5.59712 116.05 -1.38727
5.14817 98.7741 27.1938
7.96368 92.8103 25.9179
0.527569 95.3999 18.688
10.291 116.588 5.89357
-22.8067 120.325 5.36941
8.47885 121.303 10.9976
10.6282 122.62 3.99372
6.44067 83.4258 14.9369
-7.36154 122.877 0.640037
-22.9105 88.3769 2.74453
-19.6664 82.9502 11.3138
-18.8916 93.2028 12.1281
-7.69854 83.4843 3.09858
3.75435 114.283 18.2374
12.9985 119.093 9.60509
5.83717 117.069 14.7436
2.00371 104.067 17.0343
2.08135 96.5895 13.7866
-1.24531 89.4659 11.6099
-4.59424 111.187 15.5917
6.11963 115.431 8.08091
4.38958 88.8094 23.2782
11.7034 114.434 18.4108
5.25978 119.407 14.0965
-9.40501 107.575 -1.60442
1.86317 84.4178 0.31977
-19.3147 92.9846 0.0321042
8.98553 90.2049 21.0887
5.41602 103.732 -1.94824
9.42047 122.104 1.89403
11.8742 107.824 8.26682
9.9403 123.296 -0.300206
6.05194 82.3233 5.46435
-20.3939 123.164 2.71526
-15.4267 125.244 -3.28192
-2.72843 89.669 12.8918
-0.315589 88.3749 0.15537
12.6637 110.605 4.44035
-20.0762 122.833 1.89697
-7.33174 106.126 -3.13483
6.66457 106.274 23.9616
-24.9398 101.331 5.63362
20.2109 121.696 10.2815
0.128996 101.596 17.9277
12.5146 112.004 5.21526
9.98436 94.0205 16.7123
-3.07516 96.7864 12.416
4.91685 107.545 17.0647
6.67414 82.958 6.76071
-10.2459 82.4762 10.2441
-20.6477 102.494 13.4384
9.99264 118.709 4.00707
1.23755 108.104 11.4064
-21.4471 109.317 9.46507
-22.6078 120.533 5.08497
-12.9188 116.146 -2.11543
-3.27102 79.2929 2.74902
-7.29159 89.4209 1.76373
5.897 106.885 -1.24296
6.80271 84.7945 15.571
-15.2603 88.7082 0.894157
5.73581 85.7838 5.41205
9.81192 115.931 0.742467
-21.5852 121.612 4.1864
-4.95687 119.558 -0.597198
-23.4532 101.646 -0.593515
2.06841 84.4433 28.9987
-25.4345 79.9496 4.89518
-3.57927 117.991 -2.04523
-20.123 122.855 3.00541
11.8532 118.12 12.0874
14.4662 124.003 11.1862
8.64518 88.7679 23.8002
18.6723 121.799 1.31456
1.52105 96.6426 11.7491
-0.204494 109.765 -3.19813
5.1256 78.3644 5.60863
-20.1867 82.9986 3.66175
6.59671 91.1351 25.9455
-17.4256 113.973 14.1745
-17.8876 94.7751 -0.187912
-1.03012 94.2548 13.4822
-5.72083 78.9923 4.2768
-19.513 91.042 0.876329
-19.86 123.957 1.39169
-19.7709 124.25 2.56679
10.6974 120.457 0.454407
-23.5071 108.174 -0.121179
9.6954 120.841 -0.0716228
5.92806 127.363 -1.16187
8.88445 118.503 0.975313
5.21437 104.155 -1.80973
-20.6326 104.211 -2.09379
-11.0429 127.42 -2.88571
2.50142 83.793 13.7679
12.0123 100.707 11.6025
-7.57251 92.6556 1.55867
14.4673 123.985 11.1851
-0.731218 100.146 18.5172
-5.29349 79.6997 3.05167
-21.2478 110.167 7.99972
-25.0173 105.973 0.912021
6.29549 121.952 -1.20909
-17.717 115.988 -3.33813
11.0539 122.922 4.77784
5.11363 77.5296 6.29393
10.3641 124.899 2.05303
10.1767 111.86 0.742814
-1.22383 89.6019 11.6441
-12.5548 82.8433 3.17782
1.97415 101.541 21.3161
4.34759 101.175 24.7337
0.71857 92.1415 17.5258
-2.76913 103.625 -2.77559
-2.85582 116.156 -2.6518
-15.6318 109.133 16.4575
4.60681 92.1314 27.2343
1.10518 77.0484 3.92866
9.67743 119.578 3.88748
-14.2014 109.681 16.5198
10.6551 119.48 16.7425
3.0655 110.465 20.7802
7.13167 84.3264 7.25759
13.0076 113.532 15.1594
6.33763 86.2835 19.5657
-17.4676 93.9161 0.170258
-28.1993 87.1416 5.51202
5.0847 104.11 24.5398
9.20576 112.302 0.0441723
7.45603 107.453 23.474
24.1435 126.063 4.55871
2.87667 112.954 9.35002
-1.57563 94.2847 0.0426916
4.88089 110.818 -1.70718
-20.8021 119.469 8.97034
-22.9957 85.4257 2.85398
5.58688 116.294 19.5115
1.77288 125.061 1.48803
6.99616 107.97 23.5627
9.17824 92.1942 17.0386
-1.6904 95.5322 17.5212
-25.6948 97.5299 1.06772
5.91938 89.9723 2.59123
1.12899 95.8874 18.959
6.98564 112.299 10.0967
13.7396 126.727 1.17706
2.36612 110.766 -0.89266
-9.10099 94.3813 1.00135
-17.1257 100.218 15.2945
1.88877 92.7527 17.8852
12.0155 99.8983 13.1425
-21.1453 121.097 3.75103
-0.989178 92.8854 0.0176116
-6.76417 82.7076 9.64943
-22.0031 122.26 4.02747
-18.2741 83.5774 11.6919
-12.096 108.794 16.0977
6.502 80.437 7.48809
7.11485 85.8368 17.8494
-5.58398 80.7468 8.24039
11.2768 123.38 9.3548
1.9774 98.1931 21.0247
-1.50546 108.657 -2.84201
12.6568 120.727 8.52198
4.08942 121.374 1.89721
5.88823 111.026 21.6417
5.81858 122.516 12.2923
-18.8348 95.1773 -0.429666
-14.6639 116.594 15.8562
10.4517 115.976 1.10817
12.589 124.55 6.4095
9.37171 93.3269 15.7521
-15.1778 104.311 -1.60984
-9.35623 125.135 -1.28225
8.80854 89.4592 13.2999
0.503032 76.0201 4.23704
-5.93661 110.325 15.7093
7.27583 115.122 9.0681
-3.33407 105.476 15.0952
5.69608 111.229 9.21824
-23.7803 93.939 10.6738
10.6675 95.2128 10.5483
-6.96528 106.588 -3.11644
-17.5552 125.054 -3.77663
-9.71066 93.4552 17.2473
-23.7303 76.5958 5.77456
-14.9782 82.6187 11.6055
-1.1907 124.906 -0.865552
-19.6465 124.985 0.531225
-15.0215 94.8387 14.2953
3.18748 86.8054 29.1286
10.9599 101.842 20.4087
4.98306 86.929 17.2652
7.40882 85.878 23.9394
5.62599 126.494 -1.27721
11.1176 96.7276 11.3332
-24.5669 103.324 0.375828
21.1783 120.65 9.26683
10.2096 128.153 -2.42804
10.2451 106.981 21.7103
-26.1046 93.2404 3.76285
6.53256 84.6538 22.3103
-7.6445 82.7904 2.97933
15.4517 119.846 7.6939
8.19435 83.3963 11.6682
-22.6059 108.983 5.19819
11.824 108.853 7.74262
3.3214 99.9347 14.6826
12.4308 109.735 6.28885
-8.86447 80.9673 7.85983
-20.9341 116.775 7.7448
-13.7343 92.5238 14.1688
-21.3616 101.796 11.5863
-6.40204 113.245 -1.18836
4.78109 83.9568 4.07146
-0.789182 87.1127 10.2348
11.2922 105.266 10.0556
-18.1101 90.5349 0.671561
7.14507 85.2561 23.8472
-16.8079 112.687 15.7081
-22.1976 101.198 8.55847
-19.2931 79.2427 5.1953
2.59604 97.0137 20.1037
4.92888 86.6598 3.47405
13.2665 123.117 11.1024
-19.5569 100.14 13.7209
4.83828 124.393 0.137569
6.73574 115.67 14.2697
8.64933 100.625 1.62851
5.03115 109.185 17.6794
-6.86375 103.252 15.7648
20.6494 128.729 3.01024
-16.6178 95.7 0.00415867
-24.5983 105.116 3.84816
6.3563 108.005 0.141685
-9.74599 79.7798 3.41278
-29.66 80.9735 6.78162
-25.6764 79.9902 10.4335
-18.3289 103.17 15.0654
-21.5706 94.0954 0.258271
-24.0411 113.901 4.28363
12.2446 127.525 1.64187
18.4701 119.712 10.0895
-20.0133 106.208 12.1831
3.60326 83.6749 26.1702
1.89919 106.165 -3.07697
10.3637 100.195 5.50899
4.98257 110.725 21.5113
2.06005 86.104 9.8643
-2.13167 102.773 -2.16331
21.8985 124.577 3.54423
-9.68277 108.022 -1.42711
-11.0954 88.0307 1.81963
11.0166 118.933 6.12986
2.54561 86.357 10.8012
4.70391 118.639 15.1181
-9.98121 93.0165 17.0752
-20.5858 82.5675 10.4836
0.180661 116.91 14.1218
2.87864 106.388 17.9254
23.4858 120.609 8.92323
-1.04667 75.6982 4.70406
13.1432 113.738 7.43199
-2.87187 120.109 14.1527
6.06742 121.572 12.415
2.96501 115.2 -1.26516
11.5391 120.397 3.77498
4.48454 96.4641 27.5413
3.23677 76.6235 2.65452
20.6609 122.161 2.38737
19.3592 128.789 2.9934
-11.3983 125.982 -2.92635
-7.62066 107.984 15.3207
12.6534 112.056 14.5714
5.32191 120.404 13.6001
8.57774 121.153 -0.631313
18.9387 124.035 1.54556
0.126163 82.0819 12.4464
20.4665 121.969 10.6976
-21.7837 89.1538 2.3952
1.83519 115.639 -1.2016
-13.0775 105.921 -2.55401
-20.6737 94.0052 12.4842
6.50669 107.658 0.35152
-13.1538 99.134 16.7498
-21.8923 122.697 3.48601
7.20906 122.03 7.01601
4.40257 87.2761 20.0398
-12.0661 79.0565 4.29318
7.42858 112.05 -1.13829
8.57506 89.9318 13.4968
12.3584 107.455 7.00832
9.0475 95.2881 23.5365
11.7954 103.882 7.76608
6.24918 86.2986 16.2974
-17.6168 117.461 -3.06473
-11.3588 91.3576 1.14883
-21.146 101.953 -1.08633
-6.75351 111.423 -1.5458
11.2341 102.125 19.5447
6.97884 92.2935 2.9137
-17.1493 107.364 16.0564
-5.69692 102.389 15.9114
-25.0056 97.4977 4.41741
1.69671 93.0767 18.0083
-17.2804 108.859 15.8482
8.72936 99.8886 1.98864
1.26205 122.019 -0.175804
2.97595 88.5336 16.1762
-26.0848 85.8113 3.24522
-2.71792 123.069 -0.539246
-3.16992 117.974 -2.34443
-26.3523 88.1835 9.48313
-23.23 106.234 0.340128
3.95716 88.4025 21.6831
-9.93698 100.438 -0.504698
-24.6241 79.148 4.93998
-27.1256 88.4986 3.54448
4.11681 92.4083 24.047
9.0047 100.985 2.05398
10.5467 93.6131 9.33136
7.37389 85.808 22.8192
-8.21989 82.4545 10.1036
5.18622 90.5654 1.57743
-2.50804 112.418 15.3008
11.8007 123.324 9.70829
-20.2235 102.885 -1.96343
4.3953 85.2971 29.6298
3.10874 98.4495 24.5997
5.21143 82.8282 16.9508
-23.4375 123.92 1.16119
9.0622 91.1321 22.3478
-11.5045 98.9128 -0.16202
8.78418 123.405 -2.01049
2.87784 103.201 23.143
6.27616 80.2989 14.5136
-18.3681 82.0935 3.66794
6.63169 76.7187 10.3446
-10.7057 85.2031 12.8343
-22.5435 99.6311 11.2854
4.1176 113.656 20.5329
1.8434 85.5292 29.3093
3.42093 88.7807 28.4962
8.00913 116.898 11.6646
-0.201048 93.4948 12.4108
5.28598 84.2113 13.9033
-29.3483 81.4378 7.69856
4.00288 100.706 12.4383
-16.0085 86.087 2.54871
3.13596 93.6126 -1.06309
3.56018 85.48 2.15555
-25.13 96.409 6.81312
-17.1784 116.918 13.1888
8.53108 91.5683 24.6753
-28.7218 86.0157 6.13691
9.63461 112.3 0.193535
16.1756 117.924 9.14109
8.64529 124.514 0.916878
0.830145 94.1213 12.0874
-0.309628 98.3871 10.6222
-14.2986 107.594 16.5038
3.66991 114.47 19.6074
-21.029 122.691 0.140141
12.032 120.302 7.1861
-25.3864 95.8833 4.25096
2.75462 89.92 26.3847
-5.30577 86.7659 1.82826
8.94605 88.463 13.2729
-21.1653 125.101 -0.230758
-21.227 110.581 -2.70317
-18.8554 79.3245 7.97559
-11.9969 112.058 16.2141
-16.9152 93.8122 12.7746
8.08805 97.0278 25.2063
-12.2104 89.9554 1.205
-21.6208 121.162 8.00551
7.53768 113.701 11.4737
7.75383 114.812 1.26494
-8.53193 113.305 15.4215
-24.599 99.2944 -0.0241855
-13.5825 96.9474 0.25418
11.5962 114.546 6.30299
-15.7264 119.244 15.3089
-20.6049 116.592 -3.09203
10.4387 125.606 1.81373
1.3337 91.7025 17.3743
5.33225 120.253 17.3854
11.3976 103.827 8.99735
3.38955 125.881 2.17578
11.9392 109.808 8.06629
5.08379 80.8503 16.1772
22.8408 123.723 4.38742
-19.4245 118.934 10.3582
3.91261 94.5237 22.6405
-3.36359 126.847 0.324469
8.51039 103.372 23.9027
2.89683 110.621 21.1499
0.676597 89.3345 13.8071
-25.8028 77.5713 8.82877
8.07934 104.447 1.44544
8.25383 88.4951 21.2652
-15.9019 91.8161 12.9422
-20.9397 75.6595 5.99721
-19.6575 121.7 -3.08356
-23.0505 119.831 6.19054
1.70984 98.8411 11.1689
4.37669 119.589 16.129
-9.52396 92.8147 1.21728
3.73361 83.4163 26.1116
-26.9994 82.118 4.17847
-0.673212 120.799 -1.8724
12.58 115.435 4.65064
7.84843 84.7996 15.5371
-25.5483 83.8159 3.16675
-26.4877 91.0624 6.52487
0.319538 102.962 18.7047
8.3755 83.4016 10.228
2.08054 114.544 -0.855802
4.45738 89.3075 27.6858
-17.9929 92.5624 12.2815
4.1214 120.807 9.38297
-21.7118 92.892 0.778892
-9.61439 109.859 15.4759
-4.4909 105.625 15.3716
-3.51843 119.99 -1.59234
8.92472 92.7572 13.3024
-18.3007 102.672 15.0284
4.83845 92.0627 27.0584
-24.0127 100.689 6.81544
-3.86064 96.3863 13.4758
7.58783 107.746 23.2262
-7.93457 113.233 -0.514174
-0.980424 82.983 8.84703
3.72897 85.4435 12.9723
-28.2134 85.278 8.49376
-22.9892 123.798 -0.139722
5.33986 109.585 17.3831
-23.4012 99.4727 9.27296
10.8015 126.654 2.02557
-1.89397 92.0461 13.1673
2.30472 116.506 11.8656
-19.8957 88.1346 12.586
8.42218 91.3446 15.2732
-2.54515 101.581 -1.80556
3.66515 93.6486 22.3838
16.9917 120.944 10.7989
4.18138 112.662 21.1287
-24.4271 111.925 0.90662
-9.98086 108.785 -1.37273
-16.0052 89.2208 13.2539
7.30274 113.534 10.358
-3.75544 102.501 -2.55465
-2.17278 92.3427 11.1727
-3.54076 93.966 0.909444
-8.12625 93.6111 15.8476
-9.22132 88.9211 15.9012
-18.902 105.631 14.569
8.54142 85.2665 11.6277
1.88753 109.871 -1.48273
7.74635 112.944 21.1227
-26.0922 98.8234 2.06632
6.30684 105.797 -0.646406
-13.2798 89.4982 1.0383
-17.4305 102.068 15.4481
-26.0863 93.0634 2.17759
12.2127 110.637 7.70843
-13.573 78.646 5.47203
10.3686 95.3966 17.1735
-11.129 87.6338 14.5185
17.7551 123.304 1.49926
-20.2501 120.951 0.253073
21.647 123.776 3.19537
10.8505 116.089 0.532025
-26.0408 98.9704 1.91741
-20.1998 94.5408 -0.178373
-19.7567 114.315 -3.28099
8.64653 96.6894 3.75383
-2.12617 119.681 -2.02242
-21.6594 122.082 3.49255
23.6722 121.859 6.67699
-26.6173 92.8462 2.2009
-24.383 97.8627 5.28757
6.45933 125.168 6.50619
-11.5423 82.142 3.62658
3.71292 122.332 10.6618
-14.4144 89.744 13.5777
10.4769 123.994 -0.682563
10.1444 122.424 2.69485
-11.9541 84.4403 2.4681
11.6701 101.852 17.0108
5.12019 81.2144 19.8354
-22.495 103.022 8.4832
-23.6359 116.029 4.7985
8.21644 90.5049 25.2058
22.2129 128.676 2.59348
1.08118 124.77 0.95139
-5.24438 83.6511 10.6797
-14.8824 99.0532 15.749
-15.8899 105.987 16.4996
-29.5914 82.1052 7.17214
-7.88244 104.763 -3.31134
2.81155 99.4119 11.6506
3.88805 78.6228 2.71402
4.86191 89.9471 27.0481
11.7457 119.221 11.5776
-8.82209 117.951 15.3539
-27.6759 84.2851 9.51215
5.97546 126.028 -1.42668
-22.3652 122.464 1.0456
-9.51704 126.625 -1.30637
-27.27 77.0685 7.80136
10.0943 120.376 2.0369
4.28553 87.6673 19.9631
15.8438 119.266 8.85911
-11.0359 113.668 -1.49901
4.87997 85.0482 28.8223
0.147179 123.433 -0.682919
-5.06248 119.714 -0.468251
0.270497 102.317 17.2544
12.6068 111.235 4.05128
-27.6075 82.5863 9.25359
-4.08701 104.765 15.3792
6.8803 124.647 5.91596
-18.8919 97.7809 12.8307
4.49234 103.659 11.7988
5.86601 93.2326 27.1176
11.0776 112.907 1.99369
6.87627 114.668 -0.573587
3.8151 89.1072 28.1554
-28.1321 81.8453 5.22223
-5.57017 90.1699 1.61081
-5.84816 114.625 15.3291
-7.14863 108.557 15.4197
-17.4972 115.225 -3.52365
-19.978 109.928 -2.72021
-7.98932 111.306 15.3717
7.69941 114.276 20.1298
-12.7331 101.838 -0.760718
6.65951 85.6617 6.42889
-17.9434 118.798 12.0061
8.49649 95.7825 24.2851
8.44885 114.451 1.5901
0.856615 101.349 11.3608
4.80723 103.364 14.4721
-2.8731 87.0928 10.6931
10.7139 102.182 20.8199
-3.37148 95.7536 0.559051
-8.30178 89.8098 1.66268
-5.70581 102.898 15.7136
-20.1659 121.191 -2.69
9.57785 90.9293 8.5211
-0.382826 115.401 -2.22465
11.883 99.7223 10.7935
-22.227 122.488 4.68388
6.68022 84.3132 25.8223
-6.33505 96.4595 15.9645
-2.08149 99.1953 11.992
-6.62965 95.5585 1.10605
7.94911 90.2201 16.1976
-18.9 97.6986 12.7921
5.41953 79.6515 15.1149
-7.04611 95.5406 1.06072
-25.6397 81.585 4.50889
-21.8694 108.999 -1.09527
17.7513 124.478 2.02679
-14.4468 87.4464 1.59465
6.53721 122.976 -1.54371
-9.8104 84.7723 12.1777
2.80125 99.9957 15.3793
-5.10377 79.8069 2.78108
-27.1673 84.2841 10.0062
-22.1538 124.58 0.663653
-24.913 81.2424 4.55954
5.91919 123.324 6.69716
-17.1351 107.455 -2.10778
9.76051 95.673 5.61371
-12.6449 111.155 -2.59367
12.9793 112.105 11.916
7.40329 100.476 0.444654
20.1022 121.683 10.2329
-7.76965 107.633 15.2907
21.5324 123.287 4.36257
-4.43343 98.5059 14.681
-2.98185 81.7212 8.47826
-10.4938 108.974 15.793
5.53468 108.963 23.1287
-3.49175 89.215 1.1406
-25.4616 102.806 1.062
-7.99162 94.2736 1.10792
19.9135 123.468 1.61328
-1.67035 92.6772 12.913
1.81405 102.202 -1.96134
5.83938 119.927 7.14659
11.505 121.9 4.8458
10.1115 124.384 -0.417629
8.69082 120.948 17.2594
-5.19137 84.0219 2.10173
-8.75977 100.224 -0.773002
2.43447 112.366 9.85083
5.41178 104.241 13.1172
-20.58 77.1662 5.1
1.8461 96.2307 13.6608
-20.41 110.419 9.99725
-19.8867 124.364 2.19295
-27.9727 82.1683 5.10896
0.381753 92.7951 -0.58819
-8.17111 79.8879 7.45139
-9.85031 86.3659 13.631
0.817063 115.082 -0.88691
10.787 126.393 0.943897
-8.67091 126.828 -0.682819
7.15247 116.368 8.5496
-19.7694 111.058 10.3031
-12.876 116.092 -2.07151
-11.3278 104.805 -2.86679
-17.6626 105.815 -2.40406
19.8105 124.048 1.68001
-9.79922 86.2918 13.586
-0.0548772 90.8685 12.2057
9.34078 92.5931 22.2307
10.7596 128.354 1.33923
13.244 112.233 9.04823
-21.8509 118.136 7.74703
2.70272 86.6613 26.1639
-21.4227 91.6576 1.45286
15.1248 125.333 1.81766
-6.7483 122.732 0.937023
-22.4305 94.2111 0.478708
-1.88079 104.758 14.7568
-22.8331 120.124 6.08638
12.9613 113.447 14.4248
10.8048 97.5963 15.519
1.81729 89.9922 16.8225
8.37721 111.51 -0.367456
13.4049 113.082 11.5128
-15.1927 107.543 -2.38586
12.4446 119.519 2.24782
-5.89108 118.781 -0.198668
10.5646 103.912 3.14466
9.31944 123.42 1.11495
5.95348 81.3911 15.5371
-26.7298 78.9897 9.55399
-14.4245 118.43 15.7315
-25.8013 123.59 2.50348
-1.92724 121.32 -1.67952
9.12705 110.215 0.84236
5.06333 118.552 18.2132
-21.0867 103.421 10.5449
-24.3876 76.6914 5.74186
0.125693 102.345 11.1123
5.6281 111.719 16.2554
11.515 109.966 19.2888
0.373191 89.5634 12.4939
-20.7228 121.504 1.87369
19.3742 119.359 9.84817
9.86988 110.813 20.5786
-3.22575 102.217 14.9382
6.5309 114.187 8.785
11.2266 118.479 16.9277
10.4053 120.464 2.41755
3.61404 114.052 19.6419
-10.1148 112.225 -1.17996
-10.4569 116.681 -0.57976
4.48049 88.1824 13.3773
-16.783 110.737 15.9002
-16.9801 104.625 -2.21993
5.83158 120.249 13.1027
-3.91086 109.811 15.4705
-20.1048 122.328 -1.39169
-6.04617 108.065 15.6466
-4.54837 111.915 -2.57356
-27.1187 91.6285 2.40432
12.7687 114.291 11.8486
2.94525 96.1854 19.8164
3.21316 112.636 19.0108
-6.76978 109.887 -1.89936
11.3098 104.272 9.82102
6.53347 87.3129 6.36118
6.07067 110.665 16.0777
2.85298 84.0837 30.6886
15.8909 119.227 7.71974
-14.8243 97.6085 15.4295
2.23251 78.7478 2.48912
0.903158 102.578 19.6882
2.53021 94.8509 18.7118
-0.66542 82.8562 9.54812
11.8833 124.322 4.81868
11.6532 114.654 6.05558
13.2643 112.443 11.152
-27.1364 79.6801 9.6334
-9.31244 126.903 -1.09308
-26.2299 98.7572 2.59283
12.3444 106.557 5.36409
11.011 97.8347 13.9746
-17.8632 99.3109 -1.09733
9.16735 113.675 19.9938
-28.119 122.667 3.33646
5.5546 95.1955 -0.197772
5.60186 110.136 16.7139
7.97962 91.6475 25.8166
-13.123 94.2275 15.6191
11.7428 107.384 9.39465
-5.58435 85.5061 13.0582
-9.95539 120.982 -0.677473
-19.3545 102.056 -2.06968
22.5569 128.589 5.01553
-0.429641 91.3568 15.988
1.36017 98.5205 20.1697
6.73777 121.504 17.2171
4.99214 105.391 10.8782
-27.8804 88.4977 3.55489
5.92866 102.159 25.9081
