ply
format ascii 1.0
comment Created by Open3D
element vertex 1931
property double x
property double y
property double z
end_header
-1.08432 122.104 -3.76993
-10.5075 109.806 -3.07676
-12.5248 128.867 -4.44469
-16.9429 140.319 0.198582
-12.756 137.589 -4.72639
-4.5786 116.955 -2.63913
-5.11717 119.265 -1.42549
-10.1458 126.132 -1.09164
-21.5509 108.443 8.02726
17.8149 97.1155 -0.149754
8.23883 108.693 6.38563
-22.6188 111.452 5.59261
-25.4064 123.31 10.5224
-16.3933 125.408 11.072
-22.4205 118.864 -0.550827
-25.1026 122.771 9.38971
7.69124 154.729 0.44232
-25.1439 97.7855 2.9215
-19.6736 86.4962 0.0676166
-23.5942 118.12 5.47769
19.8253 107.949 5.97672
16.804 121.164 -4.04551
-20.6054 83.7708 4.73948
13.8923 118.215 -0.913144
-25.0236 112.412 1.76475
7.90898 104.058 -2.60491
8.09705 150.884 -3.69302
-6.64772 94.0221 0.938429
-3.83422 97.163 -0.193165
3.23745 111.92 1.6292
2.63096 127.424 -3.26309
18.5668 89.0907 11.054
-10.0961 104.902 -3.17375
10.9818 137.507 -7.14142
-23.5818 122.369 4.37254
-12.8848 132.219 8.15412
16.9081 84.5873 3.48651
-16.0737 136.887 -2.20906
-4.42429 114.467 8.58155
2.60407 141.526 -3.24129
-11.9192 88.3403 8.10936
12.2932 110.858 -3.71482
-21.1964 125.943 11.0648
-7.04591 81.2708 2.37333
11.0182 108.823 -2.26842
3.05924 139.308 4.02128
1.25653 139.395 -2.19685
15.7669 128.271 -4.47862
8.88129 109.265 8.33684
16.4744 123.873 -4.94582
-9.00287 91.0481 1.59886
0.327835 105.168 3.13522
6.26662 125.313 -3.89441
13.2431 120.916 -3.41646
-12.7761 131.894 8.23195
-12.6316 104.48 -3.96312
-23.4447 135.684 -0.616095
-0.0223728 105.402 -5.05553
-0.647139 111.425 3.76942
16.1739 84.2504 10.2979
12.9672 142.602 -3.87119
-19.1906 131.791 -0.50333
16.5493 127.908 -0.396624
19.0999 83.1074 9.68242
-4.19737 117.179 8.75467
23.032 84.186 6.27867
5.29639 79.4456 5.69424
17.6373 135.454 -4.53541
7.88295 107.744 -2.2685
14.3049 138.839 -4.23009
-3.6406 135.931 6.8606
23.1512 90.5869 7.12156
-19.9066 121.935 8.93134
1.57189 140.979 3.82351
-11.4123 147.225 4.58645
-1.08831 106.259 5.13798
-27.7715 121.526 8.11912
-1.47195 79.9042 2.17013
-13.6234 80.4941 1.84236
18.6463 119.799 -0.721958
-25.6333 100.663 3.54188
3.43717 133.856 2.44781
-24.2577 112.926 -0.584455
-16.9261 105.559 11.9384
-3.34266 110.462 6.85749
-20.4883 114.707 7.01299
17.4913 136.429 -4.25717
-3.66386 137.543 5.21528
-12.7859 120.702 -1.51816
-19.2568 84.3942 0.0900743
-23.0461 118.778 0.889903
2.95558 96.4588 2.84064
-1.2725 104.09 5.14373
11.1055 85.898 3.18626
-12.6746 97.9158 -1.64691
18.0077 142.118 -1.25414
-0.11072 110.983 3.27938
-12.3841 86.2202 1.19857
-1.83869 102.973 5.43502
18.5258 136.239 -3.84494
-23.197 118.37 5.98616
-15.2731 83.0665 5.66866
-6.85651 113.078 -2.12743
2.75423 96.0702 6.52744
-11.7789 150.275 2.07763
-16.864 104.886 11.8742
-21.3559 123.493 -0.154856
7.82293 119.845 3.96049
-13.362 78.3243 1.93327
-5.83667 144.393 -3.06
-22.4963 90.072 4.163
-11.8751 81.9335 3.17245
20.9186 75.2419 7.00495
-21.1473 117.977 7.73268
9.62588 98.5853 -2.67208
19.1217 75.2352 8.76492
-23.9421 123.592 5.33944
-11.3858 103.746 11.0204
20.7593 77.9122 7.24435
-22.7732 89.0151 -0.248209
-22.6379 82.7869 3.42717
21.6549 137.438 -2.00156
17.2911 120.447 -0.194807
-21.949 136.311 -1.32713
-21.7898 123.078 6.36383
2.14395 90.2895 0.23057
-7.5528 95.1348 9.94316
21.9584 137.525 -1.71494
8.32465 88.9178 9.60072
-8.74447 151.106 -1.95343
-12.3812 98.3805 -1.85258
3.23614 119.873 -3.31277
-0.85305 88.3683 3.78283
-28.2637 84.4191 1.27171
16.004 123.28 -1.95944
14.621 139.566 -2.25749
-22.317 78.4188 2.26118
18.3853 79.5781 8.38492
-18.1314 76.9558 2.63505
-5.39961 89.5169 8.52043
6.44593 121.004 -2.82073
-4.24316 88.6724 8.1283
-12.2152 101.036 12.1637
-22.9387 122.871 3.92413
-25.1169 101.827 -0.942
16.1697 128.206 -4.69939
8.04715 81.5044 4.76935
10.8066 86.9165 2.81165
-25.001 123.479 6.65591
21.6523 79.6918 8.53736
-16.3465 109.507 12.5967
-3.48855 136.926 -1.46699
-25.44 101.851 4.4929
-25.9016 88.821 2.93042
-21.7395 93.1965 -2.22977
-3.70749 101.38 6.98166
-26.3439 122.56 8.25855
-21.5881 123.488 1.08354
3.21926 85.0296 4.06341
-7.95512 139.59 4.85347
-17.8948 123.881 -2.63449
-17.5605 138.764 8.68331
-7.36293 85.6405 8.58998
23.0148 124.635 0.377657
-23.9566 115.347 0.349932
-13.7653 125.356 11.2895
8.57525 151.35 -3.03945
-15.1081 133.043 -1.99207
6.04189 108.857 -2.68345
14.4816 127.78 2.25124
-14.144 83.3434 2.72429
-23.8965 103.045 -2.03911
-3.86055 149.022 -1.96025
-3.27168 97.4995 5.98151
1.46484 82.5065 8.04306
-11.0127 145.586 4.69676
-20.0098 125.704 -1.58451
9.90878 89.5576 1.62561
-25.26 109.327 1.5783
10.3553 140.969 -6.60349
0.263313 89.5461 5.67674
-21.3252 120.109 -0.900754
5.39623 127.471 -3.80984
-23.4259 109.451 4.05243
-24.0403 120.717 4.38398
13.6052 121.244 -4.11164
23.0015 91.759 7.02318
-25.5036 99.8905 -1.58799
19.1238 121.824 -1.94871
1.66648 118.671 -3.88911
-26.4302 122.997 10.0754
7.73129 154.811 0.690574
24.1733 135.924 0.987425
15.803 133.214 -3.12799
-18.3302 126.117 -2.3472
23.7598 76.6234 10.1025
20.3523 75.912 9.32283
14.8072 79.889 5.39185
-15.0813 117.347 -2.28608
2.51632 100.827 -3.59493
17.8171 80.9329 5.01098
20.7997 119.721 2.80805
-27.5122 92.6147 0.518103
1.95117 126.723 -3.56893
-24.3472 81.025 0.273401
-3.75723 101.176 6.95225
-25.7709 94.4643 1.26068
-8.1005 118 11.4019
-13.4203 114.643 -3.10924
-8.97815 104.734 8.84078
-5.83206 100.791 -3.29644
-24.4106 97.2249 6.02884
3.50769 109.974 1.72509
-14.0695 99.6514 11.9517
-19.8994 138.191 0.410068
-15.2475 106.99 12.6368
-8.52394 84.0493 4.13294
-17.3552 119.787 -2.67416
-2.51755 129.416 -0.598173
-20.9456 111.015 7.05736
-22.95 117.344 1.99721
1.33394 139.307 -2.25456
13.6395 131.606 -5.17528
-18.0385 115.46 -3.97041
-5.85781 80.8191 1.51753
-25.1407 101.659 -0.745479
17.4894 124.985 4.10726
-20.5808 119.704 -3.41091
-9.31106 141.03 -4.24755
19.798 103.911 3.91323
14.0434 141.923 -0.681775
11.2734 112.389 -3.33764
23.1865 86.0554 8.98425
11.4835 134.591 -6.95456
0.0297317 81.8285 3.70317
8.94144 137.398 3.47544
-1.56488 96.3593 3.89069
-23.2488 104.048 6.81709
-22.4115 81.0599 0.41717
-5.05221 88.1234 2.08686
-1.61526 85.9759 3.68239
-2.43862 113.372 5.79819
-20.0967 140.163 1.39056
0.163521 125.698 4.74119
14.1351 118.35 -1.70676
18.4924 118.651 3.88114
-13.9867 106.697 12.6904
22.8375 128.734 -0.709836
-3.85034 86.3371 2.59108
20.094 96.0856 1.53429
3.22666 85.4728 4.21625
14.4399 77.7639 6.75525
-10.5758 80.9021 5.57132
4.65762 146.25 0.48872
19.7669 82.8144 9.50684
17.5813 107.825 -1.74256
-3.09165 93.3716 5.62063
20.239 105.541 6.90337
7.3617 122.031 -4.06228
15.1515 81.9812 9.2566
14.6251 119.192 -3.5602
12.4173 107.715 -2.39926
-15.843 115.278 13.0556
3.23424 85.525 4.62623
8.15254 117.235 4.97947
18.5216 139.814 -1.90581
-23.6553 113.801 -1.25866
9.08716 124.741 5.54541
-28.3854 89.3351 0.917083
14.068 123.713 -3.1559
-1.90075 123.164 -2.50697
-13.5234 80.4089 2.6107
7.87811 121.994 3.58878
14.8892 125.964 3.39364
-22.5434 126.155 11.1517
-24.4763 106.702 4.83281
-27.306 127.36 8.14011
-20.0485 81.0529 1.02926
13.9998 78.3878 6.11618
-17.2338 102.004 -3.84533
-7.93491 108.068 8.83862
13.1296 142.083 -1.35563
13.2322 79.4576 7.59213
13.6924 132.398 -2.47902
-3.76663 98.973 7.04299
8.35838 87.6583 8.75229
10.5543 142.531 -6.29201
-13.5709 96.0228 10.1786
-26.5348 126.773 9.21629
-24.6679 97.8598 4.99553
14.517 135.761 -5.53082
-25.0362 94.7789 4.32141
19.5508 80.6148 5.30371
-25.2567 85.1499 -1.09249
15.0563 132.642 -3.55818
-14.9766 137.308 -3.77977
-21.6693 121.231 2.4331
13.8595 125.58 -2.05213
-10.4816 83.2538 7.12539
-12.8974 84.5212 2.45289
5.601 129.53 1.78879
7.22715 102.398 7.40964
16.471 137.824 -3.56563
6.90075 136.663 1.23469
10.0152 87.198 8.41195
-17.7563 114.479 10.8757
-4.27485 149.544 -2.20701
8.52713 124.193 4.35234
16.9571 88.2477 11.1546
-16.3162 122.335 -2.75207
-12.9757 99.8898 12.1039
-0.920982 92.3506 -0.611254
12.3854 74.6446 7.43703
-16.7762 80.3435 1.62049
15.4307 123.89 4.48742
-23.4755 103.64 -1.84557
-16.3052 80.4072 2.30305
13.5117 144.086 -0.361722
-20.0193 125.377 8.16089
-20.3878 102.695 -2.67193
-7.48817 107.15 -3.51063
-26.2343 80.072 -0.182775
-8.32666 102.742 8.54755
-3.89963 121.624 8.32804
9.0292 105.049 9.58077
1.31396 124.149 3.45027
18.0411 122.89 1.75471
13.5186 129.497 -4.6463
8.86351 128.227 4.04362
6.42463 122.313 2.10555
-25.5326 123.919 -0.960725
-15.2287 82.3436 5.3543
19.8199 134.33 -3.729
-1.05173 84.1124 2.15567
6.71027 83.8419 5.73405
-11.3881 78.9756 4.26485
3.39142 147.704 -3.53532
-22.4436 130.484 8.78742
22.6731 131.325 -1.27187
-19.4257 123.464 -1.25074
0.67708 84.5335 7.49389
0.940203 85.4661 7.41674
-26.3184 97.1247 -0.785002
21.738 96.8397 5.47235
-21.1518 118.094 -3.28391
8.21564 89.6644 0.946022
-19.3085 144.018 3.70563
20.9666 121.399 0.4466
21.8719 128.11 -1.17095
3.79499 102.44 -4.43809
-6.09156 131.512 -0.731484
-22.1142 123.877 -1.46469
24.988 127.414 1.93946
-1.35648 123.74 -2.75704
16.9428 131.422 -5.03844
-4.88145 135.116 -1.62224
-12.12 133.573 -3.51081
-16.0791 140.453 -0.144192
-3.94509 81.5025 2.04266
-9.12142 110.444 -2.41874
-25.5431 79.0986 2.06611
19.9739 107.6 6.88399
-5.0672 80.9671 1.77245
-9.99117 151.407 1.37684
-23.8054 108.646 4.11763
-16.441 141.018 0.197436
-27.5496 127.402 -1.2367
2.52593 93.8074 6.10823
21.1054 84.896 4.0492
-3.41118 125.271 8.62955
-21.8297 123.08 7.35648
-23.1373 117.702 2.86659
-13.5598 145.459 0.21074
-2.49741 110.393 5.47819
23.6393 86.7058 8.36707
14.4574 81.2363 4.81653
-3.78262 97.8218 6.84617
15.6472 136.109 -3.84795
-22.3998 123.159 9.24248
-22.4594 113.074 6.08556
-24.3002 105.92 5.6382
1.37646 109.537 2.01629
-27.8706 129.454 0.604674
-12.451 99.9271 -2.48468
1.08925 85.249 3.92274
-5.94031 101.5 -3.50072
-14.5073 104.792 -3.53667
-23.1321 123.659 1.25206
-15.7387 100.126 11.4079
-20.555 130.774 -3.31996
-6.10945 81.5111 3.06505
-8.33124 110.743 -1.98468
22.8178 88.5078 8.97279
-13.5997 145.089 -0.397353
-4.72296 129.433 -0.0725596
17.525 123.773 1.17766
16.0014 87.275 11.2334
-1.66304 86.5875 4.62922
-19.8638 109.742 9.77613
1.28419 88.7313 5.94923
-3.37801 151.617 -1.9021
-1.391 117.292 5.01448
-14.9015 103.03 -3.37786
-3.00613 89.5014 7.60375
-23.0884 123.641 2.85717
20.3926 122.732 -2.46959
-5.05427 98.2047 -1.55643
-6.9416 79.8822 3.61979
-16.6909 147.035 4.29113
-26.381 130.131 -0.196205
-25.3586 129.787 8.0843
-23.2377 135.797 -0.583165
1.0266 114.501 -4.48636
-23.0403 98.9567 -2.92302
13.5826 141.088 -1.10868
3.87626 86.0244 2.63048
8.8833 106.646 8.18209
6.3632 101.943 -3.3119
-10.6496 142.423 5.20563
-10.1241 80.4915 -0.49167
-24.7618 121.685 6.06341
23.2626 89.3315 7.25698
20.6255 89.0719 10.3827
13.0022 130.367 -6.85628
6.66419 105.395 4.48167
18.2249 119.968 1.25092
15.0745 127.719 -2.10403
8.96933 123.099 6.36676
-16.386 132.83 -1.90449
1.66441 131.248 3.11933
-2.48375 115.698 -4.44826
12.8646 75.7425 7.03737
0.48604 89.5058 0.68087
-8.16725 149.428 -3.63176
12.8438 106.858 -2.42295
9.06162 111.708 8.67987
4.86126 82.472 4.69453
-21.748 125.025 0.574562
-22.1961 122.164 3.58554
-1.96682 91.9799 4.02692
-19.6245 133.316 -1.41994
15.304 110.251 -3.95801
-6.58057 106.738 8.31011
-10.2596 79.904 3.30899
-24.3651 91.5274 3.10487
20.9635 79.5202 6.15386
-19.0139 143.961 5.80932
-0.735437 141.069 3.83144
-11.2412 118.274 12.2423
14.035 145.094 0.355502
-19.7893 140.017 1.24372
-5.49081 100.836 -3.3591
22.9002 91.2377 8.4832
14.9347 141.748 -0.358829
-23.2941 116.709 1.65952
-10.4765 146.361 -4.08515
-24.988 90.9016 2.65931
-10.3215 139.012 5.90775
8.35289 107.182 -2.1606
2.15475 95.9308 7.80484
-1.7544 127.851 7.94197
-8.97758 153 -0.0361873
0.337859 100.366 -2.46167
-23.1103 131.45 -2.4468
13.035 82.6897 4.41982
-1.40878 85.4851 3.36768
8.91259 136.056 4.09514
-2.76291 117.414 6.8807
9.23131 129.725 4.57465
-26.3548 122.353 10.0323
-17.6887 104.298 -4.33878
-26.6398 123.297 -0.299536
-16.6521 99.1787 -2.91935
-3.75064 138.669 -1.81145
-24.6901 112.322 3.67508
5.83398 146.497 -4.57218
-0.804229 91.759 3.63948
3.06003 83.4564 4.29764
-5.95909 132.164 -0.873604
-24.9394 110.927 3.05731
18.3232 124.853 -4.73759
11.9735 133.105 -6.81309
-4.55736 81.6837 3.50527
-10.3829 80.5981 5.18469
4.17715 139.763 -4.62568
2.30338 139.844 -3.17141
-22.0319 135.624 7.64696
-20.3056 139.981 7.65765
-6.29354 103.07 7.62582
4.00481 126.272 1.95116
-8.37024 145.575 3.53203
17.9399 137.181 -3.38912
-16.5089 102.751 11.6081
-22.4845 122.854 5.89909
-14.0203 134.625 8.45007
-14.8159 86.3374 6.91389
-13.4471 140.183 7.24593
13.6984 130.925 -3.92462
11.1259 100.317 -2.73395
-4.68315 116.466 9.15051
-3.87867 87.7761 7.26756
20.8941 91.3502 10.2112
13.807 139.531 -2.42826
7.34495 121.902 3.09141
16.8991 75.8716 6.17983
-0.593648 123.426 -3.72131
-15.1733 137.581 -4.07857
-20.7823 104.743 9.17252
-16.9047 130.933 8.44979
9.35724 80.7493 6.88777
3.29538 137.492 3.8761
-7.28823 154.273 0.378507
3.92877 151.576 -3.15409
5.82531 118.61 2.01939
-22.6753 122.761 2.875
-11.0731 140.078 6.01364
-0.642426 96.6641 3.22926
-25.7782 101.43 1.61788
-12.5951 98.8434 12.0976
17.8719 124.29 -4.88452
-8.68763 111.281 9.49058
14.7447 113.792 -2.20095
8.42399 112.892 -2.60438
-3.69606 78.7103 5.42929
-23.676 118.33 4.34724
22.6749 85.8444 9.3368
16.4812 124.541 1.49236
2.95205 86.3352 6.68328
3.38928 136.144 3.44945
-18.4441 94.9213 8.19741
-2.43857 110.896 5.55108
-19.6458 124.905 9.5079
8.88474 138.637 3.24409
-9.63829 84.0239 3.80745
4.31649 97.8378 10.2489
1.38097 151.139 -2.63889
24.3132 81.1047 6.90797
-15.7438 83.3488 5.69472
-24.7725 123.24 5.65236
0.270913 88.2759 5.9199
-21.5324 122.961 2.01915
-6.67648 138.461 -3.02309
13.2928 75.8554 6.9288
7.85634 115.32 -2.88675
23.0877 78.5984 7.22984
-5.07662 110.996 8.16012
10.9647 95.6748 11.6497
15.4474 124.723 -2.02995
4.42247 133.626 -4.04902
23.7223 82.5534 8.20691
5.79623 100.588 8.52431
-26.8921 130.832 1.02455
-22.4952 81.1875 -1.49438
21.5381 87.2131 3.7874
-12.5678 145.249 -2.84183
-1.84877 121.645 6.02099
-25.698 129.252 -1.94971
-5.29125 109.622 -4.33011
-9.27027 105.294 -3.21636
-27.9259 128.191 3.97719
-11.0251 82.9697 3.58541
-19.0391 133.712 -2.3469
-21.0374 121.378 0.300238
-20.301 120.314 -2.20708
-27.4566 128.062 6.4008
-5.91015 82.7955 6.37538
-17.6182 85.2629 0.56208
-11.9684 86.2223 1.33366
-23.6232 112.832 5.18863
-11.4704 144.356 5.29859
-23.313 121.311 4.09681
-2.39228 113.453 5.75039
-3.75979 129.777 0.00535785
8.73272 108.687 -2.16175
0.980332 128.156 -3.57867
23.5713 125.727 -0.0139654
-1.74599 121.641 5.93931
-20.0723 128.93 0.043015
1.37215 83.0337 8.71504
7.61214 118.07 3.96724
-17.8932 93.4748 -2.26471
-10.9273 100.339 -2.0203
1.90455 84.7554 5.78275
-4.42433 89.9717 7.35008
7.95478 94.1821 11.0885
-17.0437 80.4154 1.61474
-7.85331 112.615 9.26111
-4.96226 103.463 6.90366
12.443 144.954 -3.01813
18.0132 144.768 0.623039
7.84144 91.1125 0.250377
-6.6906 143.405 -3.60432
-23.4082 123.797 5.78858
-2.84043 100.898 -2.74304
-24.3009 123.305 7.67716
5.77949 135.946 1.97274
13.4628 126.075 -1.65819
5.60196 120.89 1.81018
22.5244 92.0987 5.36707
-24.5053 125.817 10.5927
1.61968 89.5656 6.04014
-21.0768 141.201 2.78683
1.10795 83.4375 7.25788
2.55415 94.6893 -1.8135
-23.1566 102.784 -2.08776
17.15 125.035 0.0318411
15.9447 125.933 3.65655
17.0808 108.392 -2.34327
-27.5262 122.143 -0.452473
12.1205 149.542 0.748999
11.2679 136.425 -7.14681
2.39921 116.222 1.66443
12.4131 142.258 -4.42369
-25.7778 122.54 8.57185
-17.7767 96.4018 -2.69286
0.589384 92.1937 3.49621
-2.45664 92.5387 0.126626
-26.4332 121.93 7.55614
-20.4145 81.3376 0.758957
-27.4767 81.57 0.685258
14.2405 127.432 2.02698
-17.9639 79.8563 1.43605
-19.833 116.123 8.59045
4.6852 103.92 -3.80989
14.658 94.3503 0.119206
-16.1222 94.5075 -1.6868
22.4486 93.7501 5.51827
-21.0823 121.919 -1.19701
1.16384 98.6131 -2.75855
-21.7093 103.527 8.21333
4.25322 123.241 -3.22509
24.2218 77.2992 8.94663
-14.8806 142 -0.0389069
-23.8846 90.8827 -0.979126
20.4317 98.8143 1.78624
-22.4066 118.749 2.56675
1.10311 136.318 -1.97632
6.11497 82.7139 4.11696
-13.5727 84.8718 1.64778
-14.2783 89.5216 7.05021
-19.845 130.004 -0.573669
-21.2682 132.422 7.66091
-7.63186 118.729 -0.68276
-18.1925 104.09 -4.30149
14.4041 113.977 -5.09895
0.231013 95.2487 2.83336
-24.552 136.667 4.89416
-15.962 114.887 -3.34357
-4.60714 123.888 -0.572718
12.997 146.933 -0.860794
-6.00986 91.6047 7.87749
18.6518 135.626 -4.19267
3.61978 93.2311 9.98916
8.9014 136.097 4.20727
9.06423 92.015 11.4408
3.52855 110.848 -3.20302
15.8488 122.542 3.05912
-11.9777 136.343 6.93918
-13.6724 92.4209 8.09222
-23.625 118.237 4.15464
6.18962 137.9 1.27045
-23.0218 95.5985 -2.71224
7.12353 96.2096 10.8008
-16.5523 130.737 -2.76146
16.6065 123.78 -0.66232
2.63682 89.8642 8.50666
8.42654 104.052 10.1467
1.47572 101.735 -3.31795
-21.3051 124.911 -1.36675
2.9964 88.9619 0.735913
8.36035 133.103 -6.01817
3.38636 97.7678 2.80249
-18.5045 144.764 5.59172
-22.3997 122.898 4.44628
10.4394 120.431 -6.44087
2.95923 96.5502 2.83196
23.6512 86.3703 8.64269
-17.5417 143.6 7.31548
-10.3249 135.212 -4.53237
-26.3243 125.768 9.53365
13.5966 138.296 -2.84618
3.73286 145.202 0.968745
2.3817 129.117 -3.18129
-0.809293 131.399 6.83642
-1.22912 132.152 -1.142
-0.866256 88.5806 5.35416
-19.2711 96.2324 8.16172
1.62596 94.3211 2.98146
-28.4669 121.519 0.144197
-28.12 124.14 -0.904499
6.05483 126.245 -4.1104
-6.87688 94.9971 0.745143
-19.5375 94.895 7.84711
-3.9522 154.521 -1.77214
-17.8349 81.3372 2.43914
-2.24028 142.635 -1.20467
10.6425 81.9217 5.07637
13.5064 128.235 -6.01491
15.6628 135.37 -3.73845
-5.13966 122.398 10.0756
1.1531 89.9404 5.36833
9.98919 102.293 -2.52072
19.894 82.523 4.56238
-1.72978 93.7279 3.84413
-21.35 80.9433 0.739576
6.22034 78.7656 6.08191
13.7132 128.139 -1.14055
6.70404 138.456 -6.47801
-5.86436 100.881 7.96226
-23.627 95.9611 -2.7291
-3.87049 79.0209 5.10447
-24.8338 126.975 9.75099
0.310884 144.977 -1.71975
-19.1446 124.684 9.71981
16.6687 125.972 3.61444
-7.89307 141.577 -4.07212
5.41056 85.6389 5.53335
4.20745 110.859 1.80614
8.4078 135.699 2.13652
1.64212 109.248 1.79845
13.5061 126.903 0.706195
-21.4556 128.739 10.5296
6.00941 146.308 -4.6465
-20.1863 132.313 -1.62142
-8.30374 114.287 -1.47256
-18.3346 96.5553 8.60505
-14.9444 141.772 -0.110727
-18.4253 126.107 -2.30531
22.8741 76.592 9.96214
-23.4388 116.159 1.05913
3.32552 140.116 -3.88382
-17.8038 106.666 11.621
6.6193 147.295 0.736245
-21.2501 80.5907 -0.227378
-19.1526 84.2074 0.192076
9.32319 146.758 -5.21255
1.97854 128.837 2.76645
-5.15475 103.867 7.00146
-21.2135 134.947 -2.99458
-28.3517 128.603 2.04929
-6.01599 131.075 -0.550953
18.6983 120.007 3.83948
22.1507 134.082 -1.74352
3.51283 81.4075 8.20325
-16.9794 126.599 9.36848
7.84551 120.089 -3.90684
4.63702 85.0409 4.55899
1.50779 143.081 -2.37724
-18.6725 130.153 -1.06109
17.7783 93.3939 0.822484
-12.9934 100.105 -2.6298
-16.5949 94.9213 -2.07688
15.5717 130.866 -2.91061
-18.8305 130.153 -1.83824
-21.1553 124.859 2.06804
13.9172 138.415 -2.12892
-4.72203 127.715 0.00967318
16.2702 123.343 -3.51237
19.049 76.5605 7.46852
-21.9414 93.5296 5.63645
-11.8321 150.242 -0.58637
-22.4508 88.0231 4.48824
4.359 103.669 2.6124
-19.1798 125.431 9.21567
-20.9292 124.853 7.8381
17.8112 82.3885 9.63392
-4.18609 143.606 4.02832
-23.3965 122.952 3.35072
-0.3623 90.8299 5.4237
-4.22209 98.8361 7.50727
-21.924 123.569 1.55627
13.7036 91.0707 11.8052
-4.89167 121.027 9.3696
20.4012 122.639 -2.49292
10.2744 84.5171 7.77116
-22.2502 122.611 2.73892
20.8383 88.772 10.2573
2.12971 134.02 -3.46275
-15.8413 106.484 -4.41129
-2.49635 84.736 4.25167
-24.3934 114.599 3.94381
19.6155 109.104 4.08758
7.41941 122.44 3.04435
-5.48852 88.8541 2.21332
17.617 121.686 -1.67984
6.72863 154.588 -0.697403
5.69084 128.219 -4.3154
-7.59092 105.757 -3.93474
2.4778 97.4486 2.34823
3.02916 86.5558 5.52785
14.8523 100.494 -1.96974
-22.8942 122.01 3.62831
-19.9538 128.742 -0.825914
-18.2234 114.031 -4.3229
7.25896 83.4571 3.61783
-21.0491 85.0396 -0.550094
16.5191 99.5224 -1.22231
-5.00603 138.852 -2.7159
7.40414 93.4537 -0.620771
6.59275 80.8461 5.02478
8.1618 81.208 5.00835
1.46108 124.549 3.28311
2.61648 93.4606 4.41521
-22.3268 125.618 0.073123
-0.613963 118.933 -4.53121
14.3255 131.997 -1.76571
1.26781 129.706 3.56284
16.9531 122.703 0.453005
-18.6609 129.607 -1.04097
8.73864 116.254 6.96262
-4.33384 138.745 -2.23213
17.6652 115.522 4.7562
23.1574 83.6583 7.04642
2.97473 120.15 -3.39516
0.846785 92.489 6.39275
-0.650115 142.014 3.74579
-14.0888 134.065 -2.37074
-9.96492 115.959 -1.56773
-22.9285 83.0003 3.35481
-20.6372 137.129 8.4907
5.25763 131.191 2.52548
-18.2793 101.637 -3.72536
-13.1726 89.3739 7.45808
22.888 91.4146 6.27543
-25.7866 122.13 10.198
6.02159 82.2204 3.71608
-20.819 80.6737 -0.640359
-1.90791 123.883 6.72597
9.98799 96.0609 11.6215
-25.0019 99.0057 4.48327
-6.44091 119.056 10.8762
1.10851 121.067 -3.80713
-8.66236 139.706 -3.84754
-12.2558 92.8279 -0.356879
-24.6088 97.3221 5.02843
-11.2162 94.6236 11.2334
-5.71028 99.7278 8.37913
-0.0466761 121.808 4.61393
5.90487 131.66 -5.3479
20.0909 77.437 7.54987
9.77433 89.2771 10.134
-18.7826 144.713 5.16781
-20.7166 102.722 9.07104
-2.45165 82.7687 3.62597
-17.0514 99.8959 10.7642
7.43235 99.3533 -3.4404
10.3459 134.564 -6.65972
-25.4032 131.04 7.18592
19.6644 82.4295 4.57864
0.802984 76.9074 6.50065
-14.8587 124.678 10.32
16.4945 130.702 -4.97572
12.5536 109.134 -3.06994
19.9358 108.335 6.80467
7.53719 134.722 2.62656
-16.2156 135.632 -2.84169
1.15968 83.1186 7.80278
-1.69784 98.1714 -1.06396
0.74309 86.6292 6.34566
8.35608 103.998 9.46209
-9.46163 78.1893 4.54185
13.7771 135.358 -3.32602
4.85489 106.565 2.58932
-8.82845 132.616 7.93052
-14.5846 128.343 -3.04102
19.4576 84.0961 9.84399
2.84277 144.706 1.20989
-21.3003 129.502 -2.0255
-23.5788 105.194 -1.69953
-26.0244 99.2697 0.059185
-15.2127 107.482 -4.32804
22.1317 97.9174 7.3219
2.88368 100.732 -3.71941
3.6622 90.5424 9.23136
-11.6136 150.376 1.82571
-11.6409 137.389 6.77839
-3.27972 110.395 -4.4503
-13.4893 114.688 -3.11387
-21.8644 130.706 8.8653
-13.2389 148.608 1.46692
20.1727 119.275 3.26773
20.2777 77.0384 8.07837
-16.4267 117.39 -2.58824
12.4856 133.825 -6.96671
-23.0259 79.9401 2.93939
-24.016 99.4061 -2.69417
-9.95529 145.133 4.14776
-17.3276 77.4387 3.23161
1.02053 153.784 -2.06694
11.8085 93.5338 0.310884
-16.7377 106.662 12.1676
-1.51245 97.5139 3.95552
-15.7783 125.498 10.2751
-22.068 123.452 5.69528
25.7635 130.365 -0.140287
-6.83964 109.308 -3.41301
17.1752 113.178 2.36359
-9.52184 95.648 0.228778
11.5372 104.225 -2.60185
2.45371 144.922 -3.17803
-19.7801 81.0579 0.130653
-22.1223 124.212 -1.60997
16.7417 121.646 -1.15112
-11.7266 150.393 1.55138
-26.323 95.1272 -2.02962
6.97604 82.6172 3.99951
-15.4592 129.623 9.40059
-7.86355 140.739 -3.86778
-22.4211 124.584 -0.608236
-6.18651 79.5581 -0.971859
-19.2073 98.0733 9.27061
-15.1335 114.917 -3.40288
14.3718 127.945 1.08413
3.71521 82.8912 4.50199
-14.2998 116.587 -2.48389
-24.8672 101.861 -1.75272
-25.992 95.9239 -1.96223
-8.12426 92.1734 10.4888
-24.1545 130.808 -1.74624
1.96594 95.1027 7.30397
-18.5009 127.409 -1.84865
15.0506 122.599 -1.96078
-24.6448 95.0584 -2.55587
-28.2091 87.0502 0.69186
-16.9506 126.575 9.37156
-2.5445 130.716 -0.488937
1.27756 83.3344 8.57454
-9.64654 92.2815 0.771483
-3.19131 109.104 6.32311
-7.62463 83.0475 7.00782
19.5277 127.514 -4.05883
14.2056 141.136 -0.841623
-2.04147 143.39 -1.16579
-19.8352 118.186 -3.74955
4.38645 154.628 -1.72822
-12.1235 102.649 -3.14733
-5.58095 79.7888 -0.692584
1.61025 88.5982 7.50989
-17.59 127.692 -2.35428
3.39165 135.195 3.0793
1.01024 144.402 -2.13156
-10.2828 114.299 11.0272
12.5526 98.1211 -1.18563
-16.33 99.2714 10.855
-18.2454 125.091 8.51073
7.12938 133.98 -5.98677
4.02563 111.622 1.757
-24.4249 135.827 1.05178
-11.3765 86.5464 1.73142
22.0211 80.9524 8.95074
17.9846 103.654 -1.45435
-4.94141 81.6266 3.82834
-13.7969 122.832 -2.38124
-4.33833 95.3955 7.64871
2.01684 84.0348 3.94141
1.19206 126.118 3.54346
-8.52961 101.994 8.86092
17.9094 104.032 -1.60045
24.151 78.0309 8.48148
9.56784 89.6965 10.4049
10.4433 91.1723 11.7345
-15.5335 146.358 2.9908
12.7512 115.464 -5.76967
19.5609 91.9262 2.13583
19.421 79.9059 8.49207
22.9599 89.2157 8.73931
14.047 81.7191 4.58419
-16.2274 122.431 12.4512
16.9457 139.478 -2.54592
24.9352 130.387 -0.11801
-7.01523 87.5104 3.24407
-7.16889 86.6437 3.45357
18.7978 122.272 3.98782
-25.7041 94.5511 0.907956
-14.0306 139.245 8.14816
4.07687 83.0373 4.40631
22.493 129.258 -1.19924
-5.54064 99.8096 8.28969
-16.285 135.622 -2.84926
-10.7452 112.112 -3.10008
-21.1255 137.305 8.44228
-14.798 95.9445 9.67517
-13.3446 135.016 8.17007
23.2269 86.5411 6.38904
12.1557 130.582 -7.30312
-0.392022 114.14 3.73916
-8.71101 100.329 -2.88839
-0.58978 90.29 5.22995
-24.6789 124.986 10.6812
23.1373 75.7467 7.80344
3.80089 84.3985 3.75099
3.95487 125.405 1.90403
0.940522 87.1257 3.44539
-3.20972 143.097 -1.49945
12.4457 148.921 0.299871
2.54647 96.4283 -2.27841
21.3703 100.134 6.30147
3.28363 125.597 -3.21875
26.9407 126.49 1.96732
-7.80377 99.7455 -2.87097
7.31125 126.452 2.3576
-16.8121 118.791 -2.846
7.25636 123.423 2.63939
23.4807 78.9742 7.2045
-19.7189 101.695 -3.04293
14.7669 114.237 -2.02733
8.17662 139.138 -6.5842
-24.9939 105.864 2.61043
-19.3613 139.826 7.97617
21.7066 87.6603 9.83408
6.67628 119.396 -3.30879
-25.0314 120.744 6.47313
19.9745 107.391 6.7432
19.3494 143.734 -0.166937
12.3047 78.4207 6.26081
-2.57997 94.934 -0.105206
2.71881 128.559 -3.07805
13.6957 127.561 -5.63366
-16.0243 115.734 -2.97549
-22.0595 114.882 6.01061
-0.298109 83.2014 4.92692
-22.7774 126.168 0.872868
4.72669 105.375 2.65653
22.4578 79.6563 8.63805
-4.28769 94.3679 7.28635
-11.1061 138.827 -4.66193
0.0454934 82.0281 3.17657
13.8823 97.3473 -0.684068
16.7693 99.828 -1.18614
-22.11 123.219 6.33066
18.6434 134.072 -4.76189
-15.8049 81.5893 4.85754
17.3479 100.282 -1.05213
14.987 123.702 -0.248446
3.5003 90.782 -0.0990605
-21.8442 141.145 4.29566
-11.777 95.045 -0.0845479
13.7772 128.471 -3.97269
-23.6423 124.258 2.39145
1.25553 90.2908 8.06517
-14.5205 80.0562 3.63766
6.56262 125.764 2.04224
-22.5826 80.7573 0.401393
-8.4033 127.306 -0.552381
-27.907 125.036 -0.900817
0.615797 85.4805 5.71074
7.65956 146.957 -5.0893
14.0075 127.1 -3.03712
5.43373 110.749 2.58633
15.2481 98.7572 -1.12367
-2.68573 80.3683 0.277617
-13.3135 129.624 -4.51005
13.3419 135.932 -6.78281
11.2163 96.098 -1.00307
-14.9436 128.97 8.97515
12.6208 80.6643 4.8763
0.172448 132.654 5.93161
-9.96089 143.085 4.67934
-18.491 79.6953 2.4259
-22.6922 96.0058 -2.70224
14.2706 89.5718 1.51137
-2.53163 84.1413 6.17912
-19.2132 123.452 -1.40352
17.8065 125.875 4.13768
-22.6378 122.368 5.3743
14.3408 137.261 -2.4106
18.9783 88.1223 10.8185
-16.6951 96.7046 9.25376
2.41949 96.1144 8.2116
15.3121 113.394 -1.82718
-23.7311 106.068 6.27807
14.1482 81.1541 8.6427
1.51406 80.7598 5.67069
-7.25637 104.832 8.1419
19.275 89.0347 2.43676
7.13231 91.5332 -0.0491927
-19.1753 82.1572 1.41676
-4.9798 78.9716 4.85233
8.39509 130.5 2.67337
-20.3212 128.826 -0.326016
15.8864 130.957 -0.35613
6.8536 100.592 11.6191
-16.6291 112.899 12.6917
-22.9193 79.5983 0.0158336
-7.68561 130.512 -1.24971
5.33367 127.316 1.7431
-15.8978 113.14 13.2891
2.88464 104.112 1.82859
1.29214 143.05 -2.18766
6.9404 107.196 -2.57948
-5.95674 109.179 8.13123
-4.40131 117.87 8.94678
-23.2826 138.423 3.70555
-9.56026 131.543 8.98902
-5.2797 80.3527 0.495773
1.33955 117.53 -4.05446
-1.96327 154.153 -1.90985
-5.33363 81.3312 3.20288
7.36342 100.941 -3.18553
-24.5733 124.105 -0.421125
-1.56367 123.847 6.36473
18.1238 122.354 -2.60294
-15.1647 125.144 10.0114
-16.5849 135.283 8.70073
-16.4059 94.0809 -1.75256
15.856 109.157 -3.46981
-9.54324 150.507 2.4326
18.7182 122.735 4.17603
6.53761 98.6654 11.5227
16.2057 125.781 3.61438
-1.82768 85.4931 3.42281
-24.699 129.76 -2.69821
15.2789 136.511 -3.60368
9.06299 127.869 -6.6064
-22.263 131.051 8.2515
14.205 127.865 -4.14748
-6.3741 137.298 -3.30439
-12.1639 119.731 -1.40784
14.1631 127.263 -4.55837
-22.3028 81.0647 0.406683
4.93404 99.8926 6.09368
16.4472 80.5569 5.01741
-18.5614 129.581 9.50522
0.87437 87.3679 3.29381
1.62988 94.4815 7.4875
-8.96738 109.732 9.395
-18.8031 125.374 8.5467
-7.5059 107.685 -3.33492
14.3915 123.929 2.47474
-15.1059 129.441 -2.706
-15.9653 146.788 3.68788
-10.2039 142.214 -4.2017
6.53769 103.782 -3.03561
-8.01255 143.52 3.72648
1.3925 86.4946 7.29411
-24.7972 86.0575 3.83111
-1.76832 146.741 -1.33265
15.9336 125.967 -5.10265
-4.92054 131.822 -0.278465
18.9797 94.0465 1.24739
-18.7587 123.551 10.5873
13.6097 122.702 -5.36858
-2.12735 120.78 -3.75173
-8.56583 80.5358 2.75874
14.0814 120.585 -2.2701
17.2518 113.242 4.26415
8.95622 147.505 -5.11569
-3.25827 112.313 7.30034
12.1029 97.8341 -1.28098
-18.0232 79.9869 1.40508
-5.494 151.027 -2.67465
-2.23989 123.957 -2.16264
3.00213 92.2988 9.65793
-1.55894 136.164 -0.332663
18.986 120.455 3.95455
-8.84495 95.1001 0.439544
-8.99437 84.667 3.82911
11.8784 120.29 -6.53351
-22.9487 119.215 5.62994
-1.4647 141.006 3.80703
5.38601 146.285 -4.47625
-21.2995 125.254 1.06199
10.0365 135.566 -6.66248
6.84934 116.398 3.19435
-4.17397 118.257 8.79081
8.72606 119.782 6.9616
-0.525396 99.0311 -1.82104
-9.21445 132.735 -3.96113
1.16454 115.388 2.60677
6.399 123.598 -3.24596
-24.1576 135.784 0.482623
0.43552 153.909 -2.08567
1.39363 93.859 8.46231
-9.43658 133.314 7.55012
-11.6692 135.225 -4.38761
-19.9342 127.282 -0.159422
-11.2225 78.8769 4.30269
5.90343 135.572 1.72824
0.225287 88.8723 5.6313
3.97141 152.378 -2.97295
-24.5921 99.5761 5.96512
2.89449 105.921 -4.65873
-13.1321 111.317 12.4641
-26.2293 132.699 6.42802
16.2135 129.569 -0.123653
-21.719 123.372 -0.269525
9.91894 79.3102 5.69833
-14.5685 128.464 -3.03065
21.08 122.937 0.342927
-4.05465 119.871 8.41735
-22.4787 114.443 -2.53834
-19.9321 106.288 10.0912
8.11239 116.277 5.01823
19.2418 98.5006 0.396843
15.7364 124.127 -3.17493
22.4184 124.107 0.099763
-19.1548 133.966 7.77809
-28.0389 123.845 -0.861001
12.8184 87.3084 10.2279
-22.6501 127.123 -2.06091
15.4087 109.003 -3.86896
-22.6307 81.5813 -1.03526
-8.24312 81.3183 3.64228
-22.6132 111.288 -2.6637
19.4778 84.0145 9.82184
-14.7942 95.4937 9.31583
-20.5736 122.894 1.63461
-18.5137 96.5544 -2.46314
13.3025 90.9736 1.39526
7.90736 147.509 0.8552
-28.5103 82.3465 0.861065
22.8702 92.1032 6.59888
14.6655 76.786 5.68775
-1.02226 147.625 -1.56021
5.76586 132.079 2.20344
-6.26141 153.079 -1.39876
-15.7579 95.9878 -2.03423
-28.634 121.125 3.18528
-19.0375 107.698 -3.91121
-13.9427 123.72 11.8569
4.53371 131.107 -4.15089
-5.70225 130.04 -0.203975
-22.689 108.325 6.68849
-17.8419 100.705 -3.45673
-21.8763 124.21 7.95477
-20.0868 122.598 -2.04559
-13.7807 145.568 6.67842
7.46983 103.145 7.17505
8.97742 112.253 8.09246
-12.515 138.934 -4.37078
-19.8836 127.347 -0.130693
15.7512 124.233 -4.81841
-15.1739 84.9685 6.54243
6.08776 82.118 4.4682
-5.92606 97.6966 8.82472
2.21262 98.7107 -3.06317
-1.97217 84.9354 4.10487
-17.6513 103.205 -4.1297
18.474 119.838 4.3137
14.2068 87.2301 11.0622
8.57083 112.754 -2.63089
-0.804164 108.475 4.18732
-18.9824 127.432 10.8106
3.68285 90.1581 9.06458
2.67273 96.6971 8.07716
8.92197 111.035 -2.63158
9.65028 142.155 -6.40704
4.8873 97.9203 10.5848
-21.477 107.67 -2.2842
4.59903 85.4129 4.97285
18.2708 94.2938 0.773925
-12.1794 95.6458 -0.317488
-18.1388 126.612 10.0926
-28.233 81.7311 0.998335
3.50325 108.544 1.73342
-17.9217 130.432 -1.0476
-1.3137 86.5411 6.38351
-21.1592 108.53 -2.54077
-8.23975 133.081 7.77151
4.90813 82.9796 4.24062
15.3587 120.67 -0.981679
-15.9504 80.8747 2.94399
14.3159 121.131 -2.31265
-23.3335 130.111 8.80964
-15.1658 111.414 -4.03289
-1.74633 143.533 -1.08816
2.0028 93.3572 9.03778
-1.7168 82.0611 0.783319
-12.8399 82.6961 3.31168
-19.9496 89.9918 -0.635342
-0.286682 82.7874 5.13602
-1.7142 84.5232 3.88728
15.2543 134.82 -3.23825
-10.2308 142.985 -4.3258
1.80969 128.773 2.80911
-22.2161 121.884 2.08009
0.335688 125.706 -3.83935
-13.9315 80.0781 2.50763
-15.1376 133.876 -1.90615
-17.0798 84.8301 5.95686
0.305574 89.0711 0.91282
22.7744 92.5445 8.2702
2.3782 95.7632 8.61825
-13.0686 112.188 12.3607
9.94642 112.995 -2.83642
-25.3613 104.135 0.273853
23.0906 85.7837 5.95142
5.66537 120.86 1.83377
23.4196 127.631 -0.834988
13.2478 91.1861 11.7567
-8.01135 91.6466 10.3053
-19.294 129.338 0.224911
-21.3806 107.926 8.69208
-7.67627 106.422 8.62977
14.0389 76.436 6.63683
2.81489 113.9 -3.20705
-1.71788 81.3824 0.447993
18.7047 123.361 4.61167
-9.739 145.331 -4.51882
-9.67871 143.777 4.37621
15.9435 100.02 -1.54544
12.6247 88.5639 11.2407
-12.4661 137.735 -4.71767
-27.6645 79.6348 0.363052
-4.78651 110.705 -4.41518
-3.51737 119.167 7.85295
-18.199 108.319 11.3166
16.6678 103.121 -2.16063
-10.2518 141.695 -4.10608
17.1436 139.339 -2.63141
17.5011 97.2301 -0.339275
-21.842 112.773 -3.07921
0.370038 103.869 -4.14544
-4.73049 110.32 8.02477
-5.68509 82.9987 6.4641
-2.67153 154.116 -1.81205
-28.1109 120.366 4.69353
-14.3475 106.043 -4.32998
7.08913 151.085 -3.55651
15.8649 135.343 -3.78879
-17.4837 127.745 8.52281
9.03031 87.9131 1.95419
15.6763 137.561 -3.33341
22.0989 94.419 4.71047
-21.5096 123.283 8.09537
15.1102 76.755 6.72231
0.653471 90.1316 7.6845
3.3515 109.426 -3.4984
-13.3022 148.9 4.21763
-17.0879 96.5407 8.98573
-15.3228 130.999 8.96482
-2.66971 130.214 -0.391171
18.873 87.2284 10.6723
3.99433 93.8089 -1.49495
12.8626 129.022 -0.589582
16.8856 121.103 -4.33631
-20.0867 107.976 10.0124
5.00945 152.775 -2.89952
-27.9167 91.1389 0.630799
-12.2147 79.6001 0.071877
-2.06692 80.5373 0.436439
-28.0349 120.795 3.88276
-11.1364 129.157 10.0729
-14.865 85.6919 1.208
1.34832 90.7548 5.40522
-20.9772 125.784 0.0611387
-7.00356 125.586 -0.174426
-21.7414 92.851 5.32244
-12.6058 87.6118 0.535452
-22.5466 121.9 5.83851
-19.372 97.1205 -2.10349
9.72364 150.834 -1.14481
-7.67815 103.47 8.19036
19.0296 138.31 -2.28035
-22.1438 122.107 2.34435
-8.35616 152.031 -1.31488
-23.9952 96.1129 6.14488
-24.9303 123.993 8.16029
-13.2334 93.8252 -0.410864
8.2329 126.605 3.08547
-9.1269 114.067 -1.87853
4.80506 109.438 2.24237
-1.75379 86.2483 6.90363
1.51254 83.9849 6.28087
0.152055 82.6537 2.33559
11.236 79.1469 4.29259
-14.0927 123.978 11.4815
4.97199 96.5785 10.3523
-1.36526 82.1051 0.509189
13.5153 127.64 -0.79543
-17.0207 79.3445 2.40027
-3.47216 114.532 7.81604
-22.1575 123.618 7.48476
5.63673 124.637 -3.00768
-15.626 107.067 12.5364
-15.2329 131.37 8.5824
3.48556 137.796 -4.2964
5.13898 120.526 1.71267
-5.63551 83.8998 7.19189
7.38717 94.7234 10.8991
23.5814 133.777 -0.138764
-14.6385 142.379 -1.23436
-4.41046 79.8726 -0.998555
-19.3298 135.279 -2.40175
8.89285 85.6489 7.1016
14.2534 136.634 -4.77063
4.28413 129.746 -3.44533
22.564 76.9883 7.15908
-1.18088 114.512 4.39736
27.1923 129.81 0.265283
9.93657 147.44 -4.92463
-6.73725 133.968 7.7051
22.5994 125.356 -0.611128
-16.6007 108.308 -3.59948
-27.7775 126.371 1.10307
-9.9284 129.12 -1.75414
-5.67196 90.2484 7.91145
-3.04032 89.3235 0.918155
-8.48326 135.865 -4.28039
2.06354 87.3944 5.8859
9.48577 115.019 -4.19503
19.1482 107.674 2.6449
19.0748 132.289 -4.3627
-23.9803 105.886 5.99737
2.81633 130.644 -3.35284
-1.70637 129.038 -1.4023
18.0063 130.022 -4.86314
-21.1368 124.993 10.7167
-14.5246 129.533 -2.65817
8.41732 90.8599 11.1903
-16.4747 138.102 -1.3355
-21.5202 129.064 -1.98784
-22.8767 123.132 4.78681
0.935792 83.789 2.8716
19.9585 108.555 6.86242
-28.7639 123.023 -1.46923
3.60872 134.596 2.69098
-5.81426 124.103 -0.310659
12.7942 125.902 -7.01062
6.72213 88.9442 9.53225
-6.79385 80.7109 3.26275
-22.3862 94.17 5.82519
-21.6653 133.089 7.61529
-15.5177 109.194 -3.72888
-25.2892 89.0336 3.32296
-19.5377 127.054 10.5655
8.84487 115.852 7.42253
-13.4081 106.902 -4.42447
18.9969 110.072 2.13775
-0.931383 90.81 4.98478
14.291 120.43 -4.30721
-22.7355 100.389 -2.88653
2.99387 142.522 2.98158
1.95778 115.538 -3.52439
-13.0733 127.865 -3.69048
-4.19163 81.3217 3.71055
2.96217 143.765 2.1529
-27.1777 84.091 0.956754
-0.488116 88.7009 4.27919
22.9522 93.3288 7.74967
2.4671 80.4439 5.66163
0.832999 77.5868 6.41907
-19.3699 128.045 -0.94882
-15.9772 122.551 -2.91483
-22.1671 104.267 7.8566
-17.4974 138.929 -1.14273
3.99578 122.798 1.80739
2.36878 120.574 1.93012
3.41814 111.44 1.67111
-16.8325 79.704 2.01388
-23.4245 79.079 0.916628
20.9512 99.1993 4.82028
-19.9412 124.372 9.01992
-20.9331 137.43 0.588742
23.478 136.709 -0.517694
-7.3779 117.242 10.9523
9.84134 97.8564 -2.31255
12.2596 149.03 0.329016
-3.79329 142.547 4.32136
-25.9176 95.2297 3.19429
-5.4936 120.049 -1.00524
23.3902 130.172 -0.627333
-22.5717 84.9645 -0.838937
-24.7127 121.97 9.26794
-16.0961 144.396 1.47757
-5.10922 138.514 -2.78843
7.3093 151.251 0.458537
3.3509 131.172 2.81871
11.9915 78.005 5.41352
5.58481 89.682 9.61483
-24.46 106.881 4.65424
-19.2523 139.423 8.17711
-23.9203 122.87 5.17126
-5.92671 80.0844 0.146222
-18.1134 124.228 -2.68005
-0.85603 113.894 -4.96466
11.1029 118.255 -5.57349
19.9425 91.894 2.31921
3.40129 127.079 -3.0928
-27.3575 122.353 -0.453614
-23.857 87.3122 4.35235
-1.129 129.143 7.11089
-25.869 99.2812 -0.723797
-3.66165 121.075 7.93714
-22.4657 83.251 3.73454
-13.0639 149.383 1.7575
-23.8342 101.655 6.46564
-4.26261 80.9944 0.318395
7.19898 132.376 1.97268
-6.26516 114.82 -2.05586
-19.9657 97.832 8.82865
19.5621 143.759 -0.158681
-16.3008 79.5724 3.08526
-13.0847 128.459 9.63455
10.4624 148.152 -3.74351
-23.0586 95.5521 -2.71322
9.48466 144.501 -5.93312
-24.3226 124.362 -1.63952
10.8383 96.7138 -1.44381
0.737245 86.7652 6.41944
23.3879 87.1973 7.30268
19.5309 120.681 3.97129
19.9119 133.439 -3.57918
-23.6887 115.647 0.44604
17.5651 92.3063 1.09303
-3.51243 88.6801 7.44113
-6.86154 144.757 -3.96631
-21.1573 125.656 10.9552
-25.3766 81.306 2.09261
-17.996 88.6863 5.91762
-21.9427 96.1753 -2.57253
16.1912 144.636 0.683228
1.02769 86.4557 4.00093
-8.61246 107.441 -2.70565
3.1098 97.2638 7.17652
-10.5458 104.275 -3.41542
-9.01416 150.752 -2.21125
14.0258 135.53 -6.26078
-19.127 91.8615 6.86112
18.8476 120.47 3.27478
3.81622 98.6534 2.88577
-11.8255 142.707 5.74312
-16.8046 80.9548 2.73544
1.16359 90.2235 5.91701
6.98667 77.9085 6.62394
-6.25809 83.8788 7.32151
-15.3379 79.1047 2.85093
8.42049 81.1517 6.64843
-5.50346 151.624 -2.63469
-0.329751 104.447 3.98922
5.8137 84.4614 5.16919
-16.7254 131.165 -2.46543
9.29203 132.288 3.40498
2.83388 75.8847 6.88334
3.64153 119.183 -3.01776
-1.05333 87.6751 1.53762
25.5354 133.823 0.499177
13.3098 125.013 -6.59281
-2.22371 113.795 -4.72566
14.4357 127.365 -0.749559
15.6577 129.346 0.36541
-16.3739 83.5903 5.65948
-0.288942 141.734 3.86473
-7.32452 143.823 -4.1693
-4.41171 123.352 -0.691686
-20.3754 81.1293 2.68844
-14.9095 130.301 -2.57892
-18.1386 111.738 -4.39191
-20.5213 124.128 -1.24679
17.5802 78.922 8.0204
-21.9989 98.4258 8.05905
-25.2665 103.428 2.36184
-9.50427 88.0389 9.33439
-27.0607 82.0939 2.64309
13.7679 128.219 -5.69245
-17.4153 77.6697 3.37691
-19.2752 98.2939 -2.16246
-8.9641 124.933 -0.588107
-22.9384 117.52 0.755903
-23.257 136.126 0.445208
-25.1188 87.644 -0.693871
-23.7862 102.826 -2.07504
-1.12511 91.8535 -0.442405
20.0059 119.229 2.96856
14.971 85.2189 3.34843
6.23313 103.459 4.30851
-19.3969 103.197 -3.80278
-1.08858 126.458 -2.37683
-23.1063 124.179 -1.38456
8.74616 140.174 3.28451
18.1525 121.769 2.59053
-5.167 88.6378 9.08572
21.5062 90.0335 9.90279
1.86285 147.812 -2.76707
-14.205 102.487 -2.99967
-14.7606 85.3415 1.32532
-22.1547 122.765 -0.577126
2.03338 144.994 -2.88005
-20.2695 106.54 9.82924
15.3549 136.483 -3.9892
-7.44248 114.128 9.65716
5.61883 113.552 2.35705
-27.7392 89.8015 -0.204703
4.99481 123.748 -2.98754
3.52761 100.265 2.41442
16.8861 121.882 -4.56144
-1.85817 142.28 4.11038
-6.53075 107.765 8.27383
6.21269 113.016 3.03819
15.877 143.681 -0.130577
11.0214 115.097 -5.22042
-11.3509 86.3626 1.78982
-14.9983 140.119 -1.37878
-9.98576 91.374 10.4649
-26.2536 89.7585 2.0671
-24.7675 108.156 -0.363787
-13.986 98.4502 11.2926
-21.1545 109.766 7.25862
10.0473 129.502 -7.04214
2.57372 141.626 2.26506
3.43729 139.983 -3.96687
0.849016 84.6631 3.38733
-16.8993 108.752 12.3581
-27.8318 121.007 3.27669
-7.66578 109.807 -2.50379
-18.6439 108.534 10.9998
10.9981 133.28 -6.72557
-7.12746 114.899 9.93338
-21.7847 109.715 6.50874
-4.54645 103.479 6.68461
19.7983 119.994 -1.46358
-10.7754 128.728 -2.19765
1.96777 81.8277 5.12457
-22.502 124.46 1.60746
-2.70334 93.9915 5.52771
10.9184 82.8964 8.28742
14.0482 145.367 0.500198
12.599 148.396 -0.643267
-9.33595 133.793 -4.32194
-6.43934 142.398 -3.24439
7.44766 131.361 -5.88439
-24.3253 90.7979 -1.10015
-27.4155 129.173 7.04546
-9.84354 101.709 9.69076
-7.19151 112.472 -1.91638
7.64942 127.258 2.53113
14.7802 86.0042 3.06457
-2.64758 76.2049 6.34752
23.1722 128.673 -0.503882
12.5172 109.459 -3.27629
22.1239 76.2928 9.90052
-3.37085 139.807 4.85871
-19.7803 132.654 7.99078
7.57399 127.691 2.45712
-9.50112 151.139 1.95728
-18.8549 77.1299 2.44583
-5.34462 105.862 -4.76791
7.89942 103.531 8.09167
3.96756 133.351 -3.9319
-21.2137 102.515 -2.47559
-4.83892 118.2 9.44052
19.8172 88.9806 10.8025
11.0518 136.134 -7.06765
9.07908 124.251 -6.37272
-2.15571 97.3392 4.61001
-9.57797 91.6046 10.6685
-1.6036 86.2206 3.72179
-25.7751 101.061 2.11247
-13.2225 141.842 -3.70309
-19.8289 136.213 8.28189
-18.1836 144.809 2.51602
-16.593 80.0212 2.3304
20.7345 104.225 6.36522
-21.7072 98.949 8.23946
12.6367 102.493 -2.79501
-10.1097 118.062 11.9435
8.55649 104.401 9.20927
15.4173 123.699 -3.83753
2.37481 83.0382 4.54316
-0.846146 97.5184 -1.46489
13.8665 131.92 -4.91669
-13.7465 137.192 -3.83373
-12.5098 107.353 12.2378
-26.7452 79.1998 1.0292
-16.0432 144.901 1.87567
13.7157 126.279 -3.23042
-15.9199 112.435 -4.32901
18.8174 111.537 5.18221
-5.97424 101.49 7.75559
16.7114 96.2417 -0.243561
-12.3328 82.0095 3.35896
-22.2104 85.0736 -0.771635
-11.2108 141.215 -3.8647
8.29222 89.3953 1.09688
-17.7098 98.9101 -2.49495
11.4442 130.634 -7.26022
-8.84175 103.275 -4.06782
-23.7861 134.023 0.360713
-12.1547 128.65 -4.05173
-18.0647 122.175 -2.37334
-10.1817 117.381 11.8745
3.26403 127.283 2.23864
-9.33515 88.6012 2.16303
17.649 112.954 5.00653
14.6373 88.5059 11.6577
3.48928 139.41 -4.05761
-26.4894 133.67 5.18649
-11.2211 92.0786 0.0502619
18.7585 80.622 8.80818
3.19569 113.975 1.53891
0.709606 88.7316 5.82815
-27.8151 130.601 2.45848
21.2772 90.3415 10.0206
-7.47063 106.829 -3.60241
1.14067 82.3859 6.44715
0.199682 139.854 5.05282
-22.5115 124.728 -0.484639
8.7076 121.355 -4.78327
19.5746 129.348 -4.23004
-10.4894 81.9126 3.01353
-20.8962 103.809 9.14168
-20.6985 142 2.90239
11.226 150.492 0.275273
-10.6043 122.666 -0.79212
9.21857 128.879 -6.69549
-11.4254 131.701 8.3032
-3.3912 80.0593 4.8868
19.7229 82.9612 4.34618
10.1039 113.031 -2.86094
-16.1575 117.91 13.1317
-5.64749 153.515 -1.29521
6.92052 117.735 -3.4819
-1.12292 80.9295 1.3056
-3.33837 120.155 -2.84942
-22.3991 123.457 7.25587
17.9846 122.156 3.04771
-4.19415 143.134 -1.96634
-18.5954 129.91 -1.51021
-17.7527 137.772 -1.64531
3.93483 129.689 2.28941
19.0115 123.461 4.49928
10.5683 92.4231 11.8446
-15.6335 99.9333 11.3896
-11.4561 119.519 -1.25589
8.89051 106.316 8.1351
-15.5186 82.9109 2.33989
-16.2252 78.8514 3.33873
15.0465 128.714 2.48762
-3.16829 86.5393 2.18867
-16.9649 78.8973 2.35679
17.9765 112.751 6.60665
-23.0945 123.088 2.91113
-13.476 145.715 0.0858432
4.739 86.924 1.94445
-14.2452 126.943 9.23895
-7.77301 107.028 8.73501
-9.09111 135.949 6.63328
-21.1445 124.628 0.112051
-0.631133 140.106 -0.786508
0.122644 98.5827 -2.21087
-11.8389 95.5697 -0.169969
-0.348738 119.739 -4.40188
-16.1804 126.837 -2.76421
16.1154 133.917 -3.20625
-18.2996 91.6955 -2.13272
-15.6224 102.042 11.8746
5.09973 144.44 -4.69341
15.0214 125.939 3.74785
-25.1103 129.356 8.67901
-6.79905 146.469 -3.94706
17.7685 80.4654 8.77333
10.6832 81.6584 7.91819
-17.2816 88.2732 6.22929
-4.06766 104.751 6.43521
-2.37836 113.557 5.7493
-10.0892 133.927 7.11041
-20.523 113.144 -3.86373
13.6474 140.005 -2.48873
-4.56711 101.396 7.39779
13.673 147.519 0.491369
-26.4251 123.472 10.148
15.0571 113.48 -0.960392
14.0027 77.5841 6.15817
-5.38433 118.411 -1.52736
7.6688 95.3077 -1.23799
-11.1852 97.0163 11.5851
-12.0542 144.135 5.77763
16.1838 123.938 4.323
-2.50335 135.309 -0.269912
-23.4073 105.219 6.72424
-5.51473 103.916 7.181
-14.2691 82.4639 5.72146
16.4162 121.282 -1.95834
7.44137 116.717 3.79662
1.02257 145.167 -2.21039
-28.7137 121.758 1.49353
-19.1483 101.207 -3.43791
8.21497 85.9087 6.81054
10.4006 117.565 -4.92136
21.068 121.525 0.682763
-0.114669 130.115 5.84578
-4.38394 102.009 7.13753
-19.126 106.962 -3.72242
-12.1155 102.445 -2.89206
-19.5123 144.09 4.48288
-6.4253 124.417 -0.238387
2.04287 132.235 3.15008
18.6517 111.263 3.05775
-20.6282 102.233 9.08221
-16.659 145.284 6.64398
-6.56091 143.2 4.06321
-25.406 96.7835 2.00487
19.1705 128.483 -4.56202
-1.13934 135.461 -0.471828
23.0894 86.8849 6.02154
9.39976 81.316 7.20509
-23.2969 122.772 4.30251
-7.11609 86.0412 8.93627
2.77017 125.543 -3.42676
-23.2881 84.6288 3.96419
-26.165 99.0948 0.53823
-24.0779 89.8104 -0.584743
-14.2736 141.722 -3.20134
1.11316 107.728 2.42995
-0.212489 100.889 -2.58716
-13.7862 111.214 12.6393
6.33555 114.198 3.08509
-8.74777 83.7902 4.03368
15.1878 126.604 2.59557
21.1487 129.475 -2.49933
2.52543 86.9217 1.78766
18.9823 110.553 2.58716
-22.6974 107.802 7.02492
3.90746 151.011 -3.25745
-10.7346 106.321 -3.30621
11.7731 85.192 8.95722
-22.6488 124.152 6.5018
0.916515 117.2 -4.32717
1.77462 123.568 -3.7226
16.7666 141.408 -1.71707
-23.1804 137.99 3.30717
-6.53141 82.4311 6.27636
-2.94051 138.574 4.62264
3.70216 83.3179 4.30884
-24.902 78.9548 0.441804
-21.6865 123.343 1.64208
11.5147 146.081 -2.05858
-22.5901 136.383 7.81598
20.0085 101.487 1.07371
-23.5316 81.2862 2.00595
-20.8064 92.1864 5.78219
-24.1984 80.9435 -0.816641
-0.765973 98.7141 3.41255
4.4288 130.671 2.49077
-9.51977 82.2881 6.62413
-0.536538 126.204 -2.91054
-0.81802 96.6043 -1.37303
21.3302 97.5669 4.5716
-0.350725 132.977 -1.33096
-4.23251 86.8243 7.44585
-1.0414 122.386 5.49398
-13.772 146.684 5.78011
-4.43744 146.808 -2.29127
2.67293 86.5332 2.12219
-21.6814 101.083 -2.67491
-17.1999 135.403 -2.87222
21.2893 77.246 7.07429
9.3556 132.41 3.54391
-1.37496 147.064 -1.38185
-18.1017 144.007 1.93455
4.19992 140.874 -4.63128
20.4473 94.6081 2.03787
0.0128695 104.245 3.36428
-20.0391 116.984 8.96518
-7.89461 146.738 -4.17834
-17.306 82.6714 4.78498
-2.78936 119.976 -3.51421
-0.156636 92.5413 3.6576
18.8382 120.367 3.60904
-4.07118 83.3309 4.0905
-19.6587 96.8916 8.37465
-8.9457 114.259 -1.73402
11.3951 79.4381 6.84402
-21.9672 105.475 8.23968
-16.8374 128.547 9.39877
20.5495 103.426 5.17309
-2.18365 86.7303 1.94281
6.54784 123.338 -3.37746
15.905 127.995 -1.10992
20.5706 80.504 5.56241
3.93827 106.918 1.95656
-15 128.775 8.99293
6.16936 95.1958 10.6825
2.35709 137.141 -3.29375
14.7015 76.5368 6.703
-17.209 102.928 11.3258
-25.7447 96.9072 0.953435
-7.27804 105.041 -4.54457
-17.1772 135.774 -3.15406
-23.7107 131.566 7.34731
-24.2173 77.4702 -1.00969
15.0268 118.839 -0.89932
-18.3787 80.4808 2.77402
-10.7686 80.4245 4.9698
-24.3923 114.954 0.481152
-13.6147 129.842 -4.43875
-27.9417 125.997 1.83143
0.019433 80.4468 5.63142
0.825253 140.941 5.19696
-17.4985 107.325 -3.43806
-26.265 122.884 -0.117176
-26.5274 125.914 -0.530334
14.3008 126.777 -3.16233
-23.9719 115.455 0.627055
8.70505 99.9895 -3.0305
14.1243 145.16 0.456011
-11.8996 82.4292 3.48648
6.65545 138.266 -6.45744
20.5539 85.8592 10.0399
-0.531943 94.9425 3.18661
-8.58047 143.083 -4.33335
15.2654 75.9408 6.97445
16.0575 130.863 -2.50153
4.03853 140.279 -4.50023
18.0571 121.464 -1.83521
15.873 85.5021 10.7821
-15.8026 84.1844 6.07452
-29.0414 123.656 6.00396
19.6652 105.671 3.57666
18.7835 128.109 -4.69234
19.8265 133.317 -3.65816
-15.3889 124.775 10.9595
-19.7081 132.113 -1.63512
15.5259 81.4271 4.81422
-7.56242 107.81 -3.24101
2.95991 98.8041 -3.27812
13.6528 147.587 0.52736
-4.3162 138.443 -2.23704
-1.20093 100.404 -2.35086
17.2293 97.4561 -0.52016
3.9702 135.139 2.74313
-10.1575 101.634 -3.56983
-10.969 86.1785 1.98177
-8.45213 81.6507 2.77293
2.14854 84.3417 5.00039
5.3083 144.68 -4.69735
-12.628 95.0679 10.1853
-2.17747 82.257 2.21241
-14.3894 118.58 -2.26443
-6.32225 80.2157 3.56973
-14.5839 124.823 9.98939
