ply
format ascii 1.0
comment Created by Open3D
element vertex 1934
property double x
property double y
property double z
end_header
21.6704 142.787 -5.21672
-14.4542 137.18 10.708
-11.3092 130.724 15.7689
15.1897 99.1953 14.8389
-12.7008 112.719 16.1057
-17.4588 108.269 -1.03183
14.3083 151.102 -2.24826
-24.5377 133.926 -0.0555961
-16.9865 128.877 -5.37158
-21.6784 117.404 6.84856
21.3072 122.183 0.310264
20.5636 80.6039 9.74903
19.5794 93.9854 11.1926
1.17743 82.0948 21.5423
17.0629 84.0435 13.7699
-10.7763 146.686 9.68612
-16.2846 122.487 -5.89012
-18.7498 112.956 -6.39169
-18.3541 97.6177 8.72254
-6.3984 106.769 19.8994
16.5714 108.53 13.7308
-20.0695 91.1059 -3.63174
5.64493 152.902 -3.47198
-8.86678 110.797 18.0299
-19.2471 100.961 -4.66816
-6.17896 123.998 -15.0036
14.0653 133.678 -11.9733
-16.3105 131.165 -9.17355
-18.9148 108.459 2.91313
1.15064 114.2 20.8342
-5.62931 131.837 15.877
-19.8305 83.9613 11.5269
-16.2172 88.9649 14.9188
-21.9782 135.504 -4.76968
-19.383 104.01 -4.66111
13.4446 148.398 6.0041
-15.7415 119.563 13.7602
-0.0519841 86.6886 20.9775
3.54419 153.417 -2.90451
-20.36 91.6201 7.22312
16.351 136.357 12.5023
17.641 125.738 0.966447
-18.0825 132.267 -7.32234
5.65757 110.626 20.3216
22.4014 120.865 -0.0756004
-14.4674 86.188 15.9503
22.908 122.697 -0.0707461
15.8159 129.547 -7.88502
-1.31065 139.54 12.6064
9.09773 127.611 16.118
15.5071 126.045 14.4588
18.529 148.509 -3.07663
-5.65001 123.267 18.6891
9.47348 138.457 12.0686
-13.5046 114.142 -13.3369
-0.163245 153.387 -2.88822
-2.26093 92.7355 21.2436
9.3661 132.596 -12.2091
-18.793 97.7492 -0.177025
-5.42289 133.934 -12.6748
13.2319 120.471 15.6225
-20.2242 129.359 7.8733
14.1909 126.605 -7.93612
8.53047 147.896 8.63791
8.35263 153.188 -3.2651
16.3884 115.451 -5.80523
-2.47346 148.655 9.69425
-5.00597 103.444 -15.5451
19.6197 114.086 8.92843
17.619 109.794 0.150633
-0.667718 150.456 -5.73996
-18.9163 98.1338 -7.74111
9.40472 122.069 16.9558
18.8638 112.726 9.90997
17.135 125.384 3.71363
-16.3229 90.528 12.5856
-2.1151 139.108 -9.81977
-9.55773 94.9004 19.2317
19.4754 143.561 7.11637
-2.44755 120.177 19.6238
-16.6927 120.117 -2.37385
-22.0326 84.3028 4.53633
-16.4153 117.279 13.1796
-19.0728 105.436 3.49427
-4.58393 112 20.4225
-17.3664 129.449 -5.49786
17.3317 126.748 9.6928
-17.4591 110.735 -0.390451
-17.0544 149.848 2.0611
-13.4278 150.047 -3.79263
-2.36847 150.51 -5.48299
-16.6982 115.546 -8.44974
-10.5907 141.821 -10.0147
-11.3597 152.161 -1.91564
27.9351 130.405 -0.525619
20.2527 78.8569 9.73474
14.0921 112.039 16.3972
-9.61607 120.392 -14.6947
-21.047 83.8102 -1.89597
-17.6479 121.939 -7.9295
-0.1296 133.078 15.2753
-18.4961 130.882 9.02855
-18.2 117.897 -7.46145
-18.217 115.11 0.723647
19.9167 143.849 6.67322
-11.8097 152.547 5.03091
12.9986 129.676 15.1562
-16.6107 94.676 -9.87485
13.9437 131.818 -3.80419
5.3601 129.074 -10.5341
21.7241 135.89 5.23968
-11.8057 90.7448 18.5249
-19.5047 96.8844 -5.62425
-22.1447 129.713 -6.46547
-19.1712 148.229 1.00017
22.4502 146.381 2.47604
23.6917 144.275 2.43506
26.2207 131.289 -1.7096
-21.7325 83.1761 0.617544
1.0706 146.637 10.2397
3.07623 146.68 9.94252
1.35624 143.674 -8.22366
-16.7413 123.998 -4.05503
-9.59522 144.377 -9.21984
5.53468 124.411 -11.94
-17.6983 77.1186 -7.98016
-18.0083 110.572 9.44679
17.8002 112.339 -2.29282
-7.68584 114.915 19.4273
-5.91902 123.414 -15.1365
-17.6036 109.697 12.2301
-14.1714 97.5489 12.0737
18.148 121.334 -1.13424
-19.0412 133.78 -5.78126
19.0682 139.561 -8.45344
15.8155 115.329 15.0498
-15.2576 138.896 -8.32592
24.9972 132.752 -0.809591
10.6167 93.6652 19.058
17.5897 132.991 10.6118
10.5271 127.18 16.0867
-18.8318 110.887 6.98767
-16.4488 124.565 0.535769
-20.3869 135.246 -5.35296
5.1202 152.82 -3.6101
-17.0114 141.133 -6.54578
16.9278 104.51 13.7002
-1.63881 151.881 -4.14725
5.26338 107.377 20.8046
16.0094 125.049 -2.51464
-17.962 117.058 3.59867
9.25568 131.975 -12.251
17.419 85.141 13.7826
18.3299 123.373 0.595358
-12.9587 151.599 0.26919
-17.2807 123.911 8.86085
-13.1924 132.528 -12.4315
-16.6551 127.061 -5.0506
17.0225 137.842 -7.92384
10.7695 152.162 3.42985
-21.9954 134.871 7.05188
-16.2245 121.584 -4.93721
9.87278 122.627 -11.1644
-16.2917 100.488 -10.5414
19.3361 115.805 10.9442
-23.6922 136.652 -3.41257
14.918 130.912 0.320899
-19.8845 79.0155 11.4839
-16.2362 123.842 -4.82478
-18.8151 95.573 -7.38953
16.3011 91.5244 15.5506
-16.6203 123.711 -2.32166
18.5227 111.392 1.94779
-24.0516 123.183 -4.5651
-17.588 111.548 12.493
-1.68814 125.796 -14.4308
4.44516 89.0518 21.9745
-16.3757 138.882 -7.22126
16.14 139.833 10.9395
-12.8309 114.658 -13.6117
-12.7702 99.1882 14.4678
-19.5315 100.244 6.98865
9.49758 148.082 7.84199
-7.89924 149.69 7.62971
-11.1637 115.298 -14.5041
7.09587 122.436 -12.0306
-18.645 111.872 -2.58294
-16.5689 126.748 12.2579
-24.3306 138.385 3.05893
20.1855 87.4095 9.27088
-26.9409 122.865 1.62734
4.86404 123.409 -12.8387
-6.65019 109.966 19.5113
-12.7761 131.52 14.2566
-10.4741 89.0657 -13.4284
-21.2512 80.7035 10.0851
-19.2624 96.8605 -2.6358
-21.6027 86.7631 6.40588
21.7409 139.793 -7.12001
16.7704 115.164 -4.65502
-12.4593 151.825 2.01224
-4.0495 126.987 -14.6453
19.2398 135.873 6.59013
-2.63053 91.9974 21.092
-14.8532 121.095 14.4273
-7.86114 80.7275 20.8145
-23.8696 140.749 1.63188
20.2356 93.2107 8.81556
-8.46639 152.566 -3.49222
-11.6249 102.916 17.3321
-10.113 122.985 17.7859
-17.3223 123.661 5.96305
20.2638 79.2603 10.1855
15.5965 142.132 9.84492
14.1356 151.341 0.612786
-22.8129 122.377 -4.73399
-26.967 121.228 2.89018
13.5017 93.4623 17.4728
10.2244 96.1913 19.1214
-17.3487 122.051 8.13501
-2.76924 114.237 -16.2831
-19.2019 104.923 2.69788
-15.5559 147.63 -3.93859
11.9786 83.6567 19.1717
6.66341 140.403 -11.0032
-20.9034 86.2494 9.02615
24.269 139.245 1.63462
-27.0539 121.131 2.51461
20.9743 148.221 -0.284721
5.76031 146.215 -8.43337
-21.5278 77.2594 1.16439
5.69227 112.234 20.0798
24.189 138.115 1.63097
17.3401 130.068 10.0777
-6.48138 131.301 16.0927
-16.169 133.903 -8.58269
-19.2308 100.03 -1.00124
12.435 152.027 -1.61676
19.8954 144.97 5.96538
-13.9423 88.2779 16.9585
-19.1052 82.0596 -5.59074
-13.6351 83.5321 16.8157
-18.3953 89.1024 10.3587
19.0532 106.623 1.0829
-8.27348 114.163 19.2479
18.9106 145.244 -5.3532
-11.7214 89.4214 -12.8343
-3.93996 140.469 -10.2254
-16.7684 85.7079 -8.02122
-7.89487 132.604 -13.5469
8.96762 153.445 -2.33251
-5.07668 132.51 15.8155
-16.0835 124.738 -1.24309
-4.42076 145.446 10.4127
-13.4104 87.1059 16.9744
16.5454 147.579 -5.92626
-6.26625 148.122 -7.49506
-8.22468 84.1731 18.3257
-17.6549 88.8559 11.8669
14.2308 124.256 -8.49031
-16.9156 120.606 -0.939917
-7.32194 130.957 -13.8984
16.9509 126.72 -3.06566
19.516 148.585 2.09999
-6.39302 133.712 15.3741
15.2061 128.888 -2.06002
20.0606 89.9893 8.16003
-7.78991 149.522 -7.1888
11.5427 112.263 17.888
-16.5881 89.3905 -8.54271
17.2096 149.085 -3.24344
17.8377 139.674 8.46319
17.5917 83.4132 12.8624
-10.3069 153.195 2.48428
-17.8552 146.078 -3.51101
-24.5141 120.015 -5.73055
11.8687 88.3156 18.6453
11.2967 135.22 13.1009
-11.2164 99.9252 -13.5204
-13.4899 131.399 9.88125
28.006 130.911 -1.29642
-4.82475 113.031 20.4736
-13.9235 102.111 -12.9311
-15.9608 134.584 8.83071
-18.1952 107.978 9.61962
-6.85772 113.558 -15.1008
8.40538 145.358 9.88547
-15.8704 122.803 -5.74705
19.607 102.827 1.10259
-16.4872 122.812 -5.31536
-10.6598 133.38 -12.6283
-2.47207 139.466 12.8079
16.0891 126.95 -0.337466
20.436 148.631 0.441276
18.5399 132.523 4.25213
-26.551 122.026 3.70458
17.4222 126.011 0.666902
-12.8857 131.418 13.7197
-8.08535 127.831 -14.3052
-19.5988 146.941 -1.28664
-0.535221 113.052 21.0454
-17.5509 103.571 -8.90114
21.2512 97.2956 4.93984
-25.036 133.643 1.46516
14.7493 127.642 14.8352
8.74381 87.2392 20.6056
11.9875 104.016 17.614
17.5075 130.335 9.31105
-16.4699 125.554 -0.999951
-16.8514 137.979 -6.68828
-26.2285 126.265 -2.56146
-16.5096 125.093 0.398084
9.54648 153.728 -0.599205
-11.1405 118.583 17.582
6.012 89.0257 21.8239
20.8536 90.8134 6.23832
-4.97934 93.3567 20.4292
-2.32991 117.834 -16.1857
-6.5793 120.068 19.0752
-24.5575 133.557 -0.377241
2.09022 116.211 -14.9817
-10.7629 101.721 17.9035
-17.5146 119.203 0.917205
-17.5787 134.005 8.14823
-16.4539 123.181 13.0238
-18.3958 114.324 0.631617
14.3613 149.763 -5.6207
-11.683 131.368 -12.0606
-21.5124 145.645 3.92633
-13.6096 130.544 14.8195
-21.9125 80.3363 4.75558
24.2767 139.739 -3.43518
-19.9515 95.5056 0.379994
5.49222 138.427 12.724
14.2061 128.307 14.8716
6.74949 132.514 -11.5999
19.3022 107.378 2.3087
15.5126 126.08 -6.11666
-2.34472 128.346 17.0437
-6.09673 116.488 -15.3653
-17.4651 108.556 -2.1396
-18.7125 86.9579 11.5132
19.5904 114.683 9.88785
8.97479 89.4842 20.2614
-16.531 105.299 12.9414
-13.7919 133.055 11.6792
-4.1422 127.531 -14.5099
-18.6454 108.83 1.87908
4.23446 133.25 14.6913
-17.5822 124.847 -5.82647
2.98701 84.4164 22.133
16.6214 129.167 1.95772
-14.2667 81.8118 -10.5981
-5.0961 87.9824 19.6188
-18.0592 84.4507 -6.13226
15.5263 142.521 -9.26431
26.9573 126.737 -0.542378
-4.82189 86.1013 19.5701
14.7165 122.959 -6.17711
15.4449 121.858 14.8371
-13.4682 136.842 11.5268
18.6421 149.004 2.40994
-8.33762 137.377 13.4492
-17.6227 105.266 -7.26147
-16.8079 91.1023 10.8719
21.8801 139.717 -7.00832
-17.005 124.015 -3.76626
10.6436 86.0548 19.4558
1.03787 127.839 16.7235
10.9348 152.844 1.98615
13.672 133.57 13.7045
-18.4382 112.545 -6.87201
-21.8558 86.0485 3.6786
11.3274 151.991 -3.64948
-7.94079 110.624 -14.7501
-24.2867 128.912 -4.65713
0.625606 87.8611 21.1286
12.2618 145.292 8.17278
8.44025 154.258 -0.53526
13.3854 135.202 -12.348
16.8397 109.833 -1.84105
14.9869 129.838 -1.99209
-17.6111 95.7757 -8.97032
27.8692 134.063 -1.71177
-19.8783 135.739 8.50614
12.5644 87.4089 18.4348
-14.7815 109.986 14.5645
0.583909 118.063 -15.6267
13.9782 140.454 -10.8084
-17.1218 123.837 -3.96435
23.6891 131.953 0.954178
14.8827 150.858 -1.32837
3.99685 86.0628 22.0349
-13.2958 85.2378 16.5026
18.6426 148.851 -2.02918
21.2888 146.933 -2.67045
-3.1513 128.506 -14.3717
1.50534 150.105 -6.30104
15.4937 106.446 14.3091
16.6225 134.837 -9.38138
-19.0336 87.3665 10.639
-18.3774 139.498 8.9962
17.2812 140.634 10.011
-6.06198 104.087 20.2287
-15.6422 135.331 9.23134
13.0509 113.582 16.9438
0.156093 139.382 12.6674
-14.7626 130.199 -10.084
19.3688 92.0231 11.1341
-12.7849 92.666 16.7057
-21.1114 85.4623 9.13207
17.7238 134.125 9.26299
3.80566 147.074 9.90267
-17.0048 123.784 -4.27545
-17.8905 84.5312 15.2188
-6.82097 115.654 -15.4494
10.287 153.718 1.31019
-25.7667 124.905 -4.47956
23.3809 131.114 2.36809
-2.21508 116.569 20.4529
9.72798 96.5435 19.3954
-8.75284 91.8379 -13.9791
15.3246 131.893 -1.11763
-21.4518 123.912 7.78943
18.0627 97.0942 13.2678
13.375 102.26 16.257
-6.27451 133.67 -12.6562
-14.1457 93.2862 13.2304
4.96199 103.885 21.2402
-21.3392 78.944 -2.67158
20.2759 86.4686 8.37003
-16.1161 121.513 -2.83375
-24.3879 136.799 3.90078
-27.4839 120.636 0.678524
-20.8242 89.8678 6.43921
-16.3941 127.271 11.057
19.2331 98.5655 11.8302
21.1613 135.662 5.49416
-20.3841 146.872 4.61834
-16.6579 90.2034 12.2318
16.1963 136.27 12.5428
-9.70282 88.0847 18.2033
-16.1858 81.6018 16.7616
12.3639 96.9034 17.7494
-17.3252 132.342 -4.65208
-13.3175 144.567 9.01611
-22.5252 127.202 -5.7517
-22.1194 83.291 3.60126
21.6364 122.251 0.289932
-10.7457 110.707 16.6747
1.94615 148.507 -7.19469
25.7793 132.119 -4.3489
-15.4277 130.958 -10.7466
5.00899 112.147 20.282
21.3177 133.867 4.90525
-13.4548 110.857 -13.0119
12.099 146.557 7.5867
-18.8027 143.33 -3.64225
-12.4024 94.0776 16.0186
-8.33156 102.923 -14.7607
17.3091 149.223 4.29372
8.52266 153.136 -3.45808
0.733755 120.257 -15.5208
-14.3667 93.8609 -11.9728
-11.2047 96.2923 18.0892
6.3055 122.887 -11.7645
-19.0566 98.4243 5.563
-7.33998 108.587 19.1348
20.6243 94.7872 8.58428
-16.7934 104.331 12.0697
-10.3918 105.159 -13.8387
-20.8236 122.073 -4.93447
17.8133 126.511 11.6987
15.4792 150.22 -3.34311
-11.3723 149.781 -6.19656
18.013 133.34 4.99754
-20.3378 83.4325 -3.79843
-1.67114 142.954 11.4652
-22.7934 143.31 2.43323
18.3307 139.138 -8.36701
16.5412 100.362 14.1541
7.64726 151.413 8.11675
-6.65083 85.2604 18.783
21.4731 147.262 -1.90534
-13.934 133.077 11.8736
-20.8338 127.976 -6.20916
14.4004 148.514 -7.00381
21.8897 125.365 1.45073
-3.01463 111.939 -16.3285
-3.3501 124.801 -14.7498
-3.18039 136.7 14.3049
-19.7041 135.55 8.63625
-16.2527 127.918 5.7498
15.408 122.681 -3.89056
24.1376 137.287 1.69574
-20.8525 77.0535 -4.26821
17.1428 123.967 2.8553
20.2784 82.3762 9.28847
-23.7166 131.531 -4.30469
-4.67835 84.2058 19.7183
-16.0371 123.647 -1.60647
19.2664 127.791 2.86904
-16.3717 126.902 5.81963
11.4568 143.825 8.87397
-16.9852 120.78 -0.356777
-17.592 82.1891 15.9773
0.824043 143.693 11.3577
-10.4145 119.213 -14.4911
-17.2552 125.408 -8.97484
-3.37373 88.9656 20.5285
-27.0765 120.651 -1.17316
-14.4209 129.139 9.01427
15.513 134.541 -9.60516
-18.564 106.373 9.46794
-10.6625 152.183 -3.46034
22.2143 129.186 2.70499
11.5795 120.465 -10.8359
15.5599 82.5557 15.9802
-14.2599 89.856 -11.2221
-14.4544 115.388 15.9184
-20.2068 84.0736 10.6045
-9.62611 88.6499 18.5083
-4.4661 126.023 17.6634
12.3963 149.931 -6.41246
-11.6467 117.588 17.4379
5.73704 152.055 -4.87882
-3.04032 127.727 17.3203
-19.1712 107.251 2.78894
27.5148 127.066 -0.578747
17.302 96.1933 14.2035
7.88213 141.084 11.0833
-10.7386 122.709 -13.9032
23.2924 121.94 -0.30174
-22.0196 84.1269 3.00539
2.62827 103.261 22.021
16.3068 86.9684 15.5248
-16.0186 150.412 1.83756
-9.04282 150.477 -6.07173
13.6478 105.759 16.5443
3.72668 146.21 -7.82011
-13.1731 92.8401 15.8051
9.39476 139.114 11.4956
-6.27503 84.8255 18.9512
-7.44232 109.701 19.175
-13.5775 89.9425 -11.7476
6.36784 141.23 11.6918
-22.8913 134.761 -3.78548
13.903 150.528 -5.15475
-21.8712 144.476 4.4711
-18.6092 88.2855 -5.58154
23.0207 125.196 0.923796
-13.4185 130.857 9.76665
-18.1751 136.021 -5.59872
-23.7429 124.39 -5.02674
-16.8149 125.594 -9.54658
20.8057 146.881 -3.13806
-0.269123 140.039 12.5154
24.6497 134.651 -0.446595
-15.9506 129.002 -8.54472
-10.7975 111.121 16.7289
-21.662 77.2658 0.444209
3.65276 106.37 21.6102
-22.1456 81.0866 2.45952
19.713 148.646 1.81228
9.12952 151.05 5.66469
14.862 127.829 -0.1531
7.54239 142.327 -10.8571
0.0826395 135.849 -9.95799
17.4482 117.361 3.64799
-21.7383 85.2096 1.31673
-15.6789 98.9652 10.5056
-3.0854 129.762 -14.049
16.5949 128.397 -9.55243
-20.5419 86.605 -2.84838
-15.3889 82.1655 -9.40774
10.4896 106.385 18.6863
-3.60006 151.566 -4.53396
-13.3774 104.599 -12.8316
-16.5093 124.293 7.65752
9.41401 125.724 -12.626
19.0933 149.119 -0.915225
-0.670449 130.862 -12.9976
-9.35964 152.618 -2.92777
19.0606 115.817 11.6855
-16.6823 116.386 10.5014
-14.3266 142.718 9.42714
-9.83153 146.149 -8.45843
-14.728 129.76 -9.9574
-11.7717 89.5833 18.2031
13.6678 95.0373 17.1556
10.985 124.673 16.1478
17.2424 116.005 13.4851
1.04175 140.789 12.1947
6.11631 87.2481 21.6862
-10.1342 128.852 16.8146
-16.4759 131.422 -8.87554
24.7599 141.047 -0.901886
16.1513 129.542 1.67915
-18.525 105.076 8.16107
13.1985 138.302 -12.1068
14.5557 129.404 -1.58547
14.1452 103.604 16.2572
-16.0969 120.286 13.6082
-11.2086 81.7746 -11.9812
-14.5924 96.6997 11.6628
19.6903 114.21 4.13952
2.00615 141.708 11.939
-19.4599 104.303 0.627876
8.06735 106.637 19.7824
-6.94569 147.989 9.01154
13.9083 131.854 -3.44367
23.0728 136.883 4.09505
19.1242 144.803 6.4837
-4.63206 109.34 20.543
-16.0442 99.1786 10.1401
9.03487 116.999 17.7035
23.0523 135.288 3.94489
-18.7654 104.225 -5.7791
-26.3415 122.094 4.14664
-15.9856 122.013 -5.64298
21.1896 130.153 3.39203
-0.0159854 95.6818 21.2713
-16.7135 126.341 -3.78953
-12.6478 116.328 -13.7124
-8.70352 119.052 18.4315
-5.06534 135.984 14.5343
-6.26384 146.483 -8.21065
7.73825 146.774 9.68082
-16.4821 150.172 3.41885
17.8783 130.867 5.69434
25.3596 142.345 0.74847
19.1575 104.688 11.4398
4.98907 141.882 -9.95027
3.82104 103.907 21.7671
-6.8517 95.311 20.2328
-22.7612 130.204 -6.40049
7.02147 153.79 -1.9071
-3.68992 127.434 -14.5897
10.918 97.5436 18.5675
9.94166 144.452 -10.1665
-10.7182 123.743 -13.9298
10.2658 80.1297 19.0431
-7.60619 106.768 18.9117
-17.1158 121.169 2.20677
-8.9668 127.874 -14.0773
-14.2967 124.477 14.4389
-13.9698 77.411 -10.7036
-1.29063 146.244 10.4595
-14.2204 91.6899 -11.7567
-1.00324 124.157 -15.0801
19.5772 79.1135 13.5715
4.95921 87.4183 21.9052
-6.61177 122.153 -15.1799
10.6004 120.04 16.6184
27.5441 134.413 -2.44625
-19.39 83.5428 12.9938
-16.7427 118.429 4.22411
18.7733 112.547 9.97234
-11.4009 84.3415 -12.4293
-10.121 112.236 -14.6466
17.367 106.219 -1.64929
14.35 147.529 6.17973
-26.0683 130.303 1.36548
23.78 139.14 3.38471
-20.3814 91.9243 -3.79794
-13.0693 91.1823 -12.4688
-20.8214 79.5466 -4.01522
-13.4763 151.294 0.955398
-3.62372 137.348 -11.0943
6.33827 128.351 -10.8299
-15.1809 95.8748 10.9336
-15.8344 116.39 -11.683
-18.9307 99.1417 0.673437
-11.7813 89.7519 -12.9436
-1.26383 128.071 -14.294
-10.8922 112.03 -14.3562
15.2246 106 14.7914
23.5931 143.751 2.91453
13.3641 145.618 7.66322
-24.7975 121.589 -4.8998
-9.21506 149.684 7.42705
-15.563 100.808 11.2978
11.7903 149.274 5.95546
-17.7611 112.863 12.2397
-15.1595 132.433 -11.5074
-21.5169 81.4612 -1.80126
-18.2579 140.102 8.98604
15.8847 122.821 -1.92691
-10.5786 153.324 3.58836
-18.5011 93.282 8.70342
-24.6474 134.086 -0.436028
15.0917 131.708 -8.81281
-22.1715 144.263 -0.877484
19.8597 98.24 10.795
17.2652 88.3489 14.6482
-22.0419 82.1405 1.50242
16.2917 128.17 -2.6445
21.6832 146.843 -2.40849
-21.0872 89.1222 6.82009
-18.7452 94.458 8.68208
-10.1448 93.9287 18.9886
3.61947 79.9205 22.1341
-18.2267 137.16 -5.20136
13.2402 128.29 -12.0938
9.02889 154.776 1.94575
-17.7376 110.339 1.3307
-21.8116 82.8714 8.00887
-4.59779 119.865 19.5957
-22.8721 142.083 0.0455871
-16.3004 87.436 -8.90947
10.3218 151.565 4.4638
-7.80892 150.68 -5.96677
-8.65738 82.142 18.2809
3.73101 115.648 20.0786
-18.9408 96.7515 -0.952105
-21.5213 87.091 2.81555
-14.2736 93.3135 13.0473
-15.8066 81.5971 -8.90235
-8.23569 127.271 -14.3325
4.39765 148.03 9.96679
16.9506 125.261 6.49228
-15.6545 125.955 5.30871
20.9041 148.471 0.566031
18.0923 141.414 8.41302
-16.7092 85.8824 -8.18
-17.2233 124.147 -4.61699
22.275 129.213 2.68972
-14.3803 116.47 15.6977
9.51296 141.896 10.4439
-14.5489 118.953 -12.6422
18.6333 106.286 11.758
-15.4987 127.361 -10.7716
-18.6931 106.3 -1.77276
-17.0361 118.557 0.107122
6.03213 128.996 15.666
17.0009 131.948 4.97032
-11.325 98.6204 17.8761
28.4131 128.707 -0.0991882
20.7595 143.543 6.07302
-21.9374 81.9291 6.26474
-1.4611 118.113 -16.0372
-21.945 144.283 4.50756
-1.83372 124.245 -15.0636
13.598 150.514 -5.27919
-21.6722 124.703 -5.60142
-18.1546 104.17 10.0128
26.1022 127.096 -2.03496
-18.4099 112.53 -0.730167
-19.6122 91.12 8.58364
-8.83354 96.8442 19.3051
22.479 138.159 -6.65546
8.32022 124.965 -11.7327
-17.6053 109.785 12.1023
-15.757 130.758 -10.4882
-17.0285 121.251 2.0871
15.8004 129.532 -7.97185
-13.2834 97.3485 13.3595
-14.6348 136.898 -9.15755
17.6956 148.598 -4.28402
-23.2866 130.894 -5.27462
23.9749 132.476 0.0524822
-2.60657 110.674 21.1463
17.7313 85.7148 13.2933
17.8635 100.656 13.1312
-12.7427 151.616 -1.52071
-15.6274 94.8214 10.6549
-16.0465 122.943 -4.24747
20.6881 82.9345 8.63859
17.7433 122.562 -0.435782
-13.8604 131.885 12.726
-22.7734 125.877 6.90853
24.013 134.519 -4.23035
26.1953 129.924 -1.49428
24.4932 135.779 0.385827
16.8774 135.234 12.6639
17.9594 106.424 12.329
-10.4851 122.819 -14.0037
11.1266 111.5 18.0733
-18.3375 125.461 7.67518
-22.8643 142.33 -0.529379
-17.5564 104.734 -7.70516
14.1621 105.086 16.1768
0.600017 117.041 -15.7513
7.5654 102.159 19.5033
-4.70866 131.152 16.083
-2.36622 105.382 21.2016
3.40506 111.46 20.9229
4.41811 126.863 -12.2596
-1.58765 143.003 11.4627
16.7692 122.613 -1.3268
-2.33834 111.388 21.2914
-9.69094 124.866 17.6802
-17.8227 129.959 -5.27357
-21.1746 128.58 -6.43185
18.3333 119.139 8.6699
16.7119 102.04 14.1353
-21.6512 77.8626 4.32096
5.82488 91.2594 21.9417
-16.355 124.153 11.9711
-9.18648 126.012 -14.2328
-6.78695 149.575 8.12652
18.5236 147.276 5.05819
16.3352 93.7932 15.4011
-17.2228 118.266 1.06398
-3.60008 122.865 18.7633
-18.4845 99.8427 0.673862
19.0106 116.117 5.39565
24.1212 133.31 0.0347514
-10.3704 142.053 11.1067
8.62754 111.902 19.0192
-24.2635 129.931 4.43447
10.6629 89.8067 19.1685
10.9563 83.9894 19.5879
-12.0406 103.368 16.702
3.17117 127.265 16.4648
13.5408 127.892 -4.89357
-10.6634 82.8249 18.0654
-1.69231 146.963 10.1762
26.4604 129.024 -1.00484
-16.1923 123.444 -4.68942
-20.1987 94.0742 1.78055
18.4262 133.058 4.65274
28.2405 129.245 -1.33396
-11.9678 98.4788 16.412
-11.7063 108.17 -13.714
9.53732 121.712 16.8734
-18.6096 79.1211 -7.1777
17.1358 114.143 14.0075
21.2854 145.138 -4.43621
25.846 135.456 -0.527604
-4.40093 138.573 13.2225
17.9685 131.795 11.8599
-18.7325 114.642 -0.343825
-17.4975 110.185 -9.52577
-1.23758 80.3125 21.0644
-16.1487 123.18 3.32301
-16.9224 134.499 -8.15776
-10.7031 143.694 -9.29864
14.2887 112.61 16.2871
-8.12446 114.388 19.3639
-16.5962 104.59 -11.1448
-13.2873 120.479 -13.529
-21.0209 88.9117 4.31353
-10.2194 105.469 -13.8567
-15.3649 125.416 4.70915
-12.8865 150.02 6.72412
-12.2679 94.8696 -12.538
12.9083 130.866 -5.7624
-15.6092 124.203 5.5846
1.62134 94.7708 21.6965
-4.97543 88.5627 19.8395
-16.3052 91.6073 -8.39451
19.3775 117.058 11.0327
-14.9616 110.02 -11.5594
2.00747 122.587 -14.966
18.8698 108.371 11.017
-7.60991 132.439 -13.5723
-15.4052 94.2368 11.1829
14.8887 123.734 -4.68537
26.9066 128.112 -0.498682
-21.5666 133.581 7.46251
-18.9006 148.474 1.35058
19.3737 115.138 8.73691
-21.3468 88.3289 6.87344
-14.8902 84.3936 -9.64711
27.7083 132.053 -3.96578
-7.15666 112.853 19.5791
17.7286 128.649 3.97714
6.60192 85.8109 21.3459
16.3683 120.806 2.78097
-16.8882 112.374 2.05891
14.1879 130.193 -1.37591
11.0683 130.244 14.8337
-17.9393 123.869 6.59179
-13.0661 81.42 17.8815
-21.6248 78.5457 0.504301
-15.1464 123.543 -11.4327
16.8069 149.854 2.88864
-18.441 111.302 5.60766
-13.2195 150.985 5.77718
-8.04602 97.5048 19.4432
7.3468 106.808 20.0154
20.1053 109.483 7.56101
-16.2683 124.261 -6.43806
-7.5065 111.052 19.2071
17.1371 145.291 6.69423
-13.2671 148.775 -5.30903
-2.51413 133.102 15.8172
4.35878 148.36 -7.29253
7.81615 113.819 18.8715
17.5382 106.375 12.6569
1.12344 141.827 11.9174
22.1299 134.532 -6.36487
-20.7885 79.813 -3.94373
24.3144 136.905 -3.32265
-20.7929 83.4953 -3.2584
-18.6725 99.709 0.917107
-16.4583 125.059 1.26121
-18.6724 114.121 -5.32351
-16.6365 120.83 -0.95883
8.03386 147.699 9.03849
-16.7559 124.939 5.31804
22.3737 134.672 4.41298
-15.3364 137.16 9.72839
19.5319 130.265 3.55633
-17.6121 143.851 8.784
-0.564521 108.227 21.545
-11.5976 98.6229 17.2762
-17.9258 115.213 -6.26783
19.7721 114.529 6.60503
-18.9737 103.398 2.70483
-5.61289 93.3177 20.2132
13.9176 109.828 15.8638
9.13658 134.967 13.6871
-22.0769 83.3345 3.24115
-20.2582 78.0206 -5.21856
14.2687 126.222 -5.47665
-14.9528 119.045 -10.9953
11.4222 113.419 17.5822
-17.8985 109.414 9.4896
-7.14476 106.991 19.1544
-10.2422 90.875 -13.4298
-16.2556 109.809 13.5571
-21.2 127.676 -5.88035
-12.5222 137.05 12.0177
19.7816 107.509 8.18377
-27.4659 118.833 0.747957
17.9026 114.59 -1.54045
-19.0178 95.3257 6.56442
9.95743 146.128 -9.54731
-15.9067 82.3277 -8.58909
-18.1599 107.481 6.31496
-7.08227 144.289 -9.47846
-17.5866 112.233 5.58751
-22.8332 142.539 -0.134285
9.96316 125.508 -12.6329
-16.7841 87.0579 15.225
11.9475 149.995 5.23545
-21.2382 136.188 7.81566
18.1793 110.713 1.39766
-20.8792 87.6738 -2.49423
-1.53374 132.579 -12.9296
-8.45423 103.792 -14.7563
-17.1254 97.6649 -9.8393
11.1342 142.781 9.47471
-16.8119 129.379 -4.97716
22.0501 137.434 -6.9066
-17.3856 122.831 8.71079
1.35854 142.424 -8.57488
15.0483 129.289 0.50116
22.218 137.353 4.98652
-6.33216 148.366 -7.41401
-20.1656 129.198 -7.16717
17.3562 123.7 2.19622
-17.3484 132.206 -4.95141
-20.4134 94.1767 0.288578
1.01417 100.836 21.531
19.2563 141.738 -6.81954
-14.5784 150.063 -1.58078
14.762 132.28 -10.7276
-4.78466 152.406 -3.55379
17.3798 128.073 2.31645
-9.97858 105.547 -13.9652
-22.057 139.948 6.72363
6.28915 93.6045 21.657
21.0357 95.3556 7.50791
-16.9667 123.329 -7.67071
15.8923 102.706 14.8209
-20.4103 135.195 -5.32712
-1.93473 111.334 -16.4171
5.74951 107.94 20.4482
-16.7741 130.934 -4.57441
-21.544 143.44 -1.86141
-16.3157 122.82 3.91328
-22.9277 141.67 -0.0500601
-1.72926 89.2361 21.1898
-13.7557 150.429 -2.70931
5.73961 118.132 19.1621
13.5648 132.202 -12.1756
15.637 131.707 -9.21779
1.27371 148.28 -7.2221
22.4682 130.268 2.94726
-2.46318 145.438 -8.24473
19.8274 105.217 9.92972
-11.0963 140.837 -10.3503
-12.2356 95.3608 15.6773
17.8857 125.684 10.5867
20.2967 133.913 -8.45705
-0.192689 141.011 12.2476
20.5493 138.828 6.67754
-20.9608 89.2356 5.47536
-18.3337 123.037 -5.05472
-15.0022 150.384 0.430984
1.7253 111.306 21.2201
8.9763 109.079 19.3604
-12.4571 83.528 -11.6095
21.7546 139.567 -7.15821
-21.2883 89.2528 -1.88416
-19.7201 91.303 -4.28344
16.8781 142.606 -6.73907
-10.9508 153.152 3.90888
19.6196 91.8394 9.44129
-10.9424 123.763 17.2929
-2.00992 128.379 -14.3886
-10.5623 122.436 -14.0629
-12.7593 136.346 -11.7855
-15.1999 92.2646 -10.7256
16.3543 149.555 -2.95806
-17.2797 123.741 9.17686
-8.4993 104.444 -14.7687
17.3584 83.2731 13.3159
-21.307 88.0055 4.10308
17.174 114.721 13.9198
-20.4521 117.525 6.55001
-8.50144 147.895 -8.09767
-13.4526 79.1252 -10.7481
21.13 143.986 -5.45497
-18.33 146.915 -2.32683
-10.617 136.516 -12.5603
8.58631 121.469 -12.6117
27.3448 131.918 -2.01097
-19.2492 102.59 -3.12183
-14.8904 132.55 -10.2907
-1.85275 144.726 -8.39867
18.5289 106.695 0.306839
24.9375 141.745 -0.696831
28.2078 130.491 -1.01768
3.29211 85.504 22.1308
-16.0102 150.372 3.80856
-16.9719 123.755 10.1451
11.6678 134.776 13.1457
-5.09478 127.361 17.3095
15.4513 119.307 -2.54812
14.6727 125.996 -4.49728
-8.52859 92.6079 -14.0547
-18.7715 123.111 -5.11035
6.36855 135.087 -11.4663
-16.8241 109.965 -10.1963
-17.2451 105.061 -10.6197
16.8813 138.44 -8.2362
-11.0405 144.101 -8.85679
-14.0604 143.701 9.23413
16.2281 135.764 -7.49154
20.9388 100.516 4.83331
6.66359 145.009 -9.18343
-16.9503 92.073 -7.62942
-12.9342 112.235 -13.4738
5.54773 142.645 -9.91529
4.87653 135.367 14.3354
19.7021 107.46 8.66659
4.87448 80.123 21.9283
19.1539 136.505 -8.74276
-15.1211 128.543 -9.42733
4.78848 154.928 -1.69609
1.24056 130.877 -11.5879
-20.7509 84.4518 -2.76431
-11.9112 115.658 17.4396
23.9523 144.181 1.99888
-4.99809 147.121 -7.77404
-17.1366 133.181 7.80054
-9.47935 143.036 10.7934
4.39318 130.42 15.2572
21.1289 97.9497 4.31505
9.63474 133.406 14.0838
8.6803 125.03 16.8142
28.4133 132.133 -2.01443
-11.2825 119.76 17.262
-17.7268 110.098 9.95981
-19.322 148.293 4.21889
-16.4297 123.984 1.74527
16.2268 131.852 -4.90281
21.3945 127.717 2.4634
-11.1321 149.389 -6.76295
5.70186 129.867 -10.9055
-18.0952 140.919 9.03068
-20.7787 120.957 7.29911
-20.5234 87.281 8.63034
20.1606 103.932 9.29438
-8.8403 148.853 -7.50476
-16.8493 114.982 -9.07368
-18.6365 105.845 9.23638
-7.37939 126.456 17.5149
25.978 139.083 0.855513
-24.016 137.512 4.40345
14.0337 151.185 -0.624185
-12.875 99.9533 14.4055
-4.73247 142.362 -9.89906
9.88084 110.017 18.9786
17.0414 127.57 1.44639
-14.9907 125.325 -11.8218
-16.2327 127.277 -4.53346
15.2859 131.79 -9.49642
-4.70097 135.911 -12.3964
13.9456 145.284 -8.72328
-19.2269 147.771 -0.355059
23.0667 144.718 3.25495
-12.8441 134.91 -12.5188
-0.0223359 95.4182 21.3001
20.5387 133.953 -8.25746
-19.1633 116.886 5.9904
18.4113 125.736 1.49323
15.0172 118.682 15.5148
-10.8494 137.408 12.8272
-18.1321 112.893 10.9833
-1.71221 113.172 -16.4136
2.60984 120.999 -14.5157
0.611018 151.525 -4.65354
15.3601 119.938 -5.23023
-20.3031 92.0574 2.6106
8.34204 119.66 17.7072
-10.4259 147.325 -7.69302
16.3412 133.439 -8.50787
-9.02582 119.859 -14.8237
-4.96862 114.385 -15.6803
17.3598 131.114 3.98424
-6.67001 134.609 15.0058
-16.137 144.781 8.5994
-26.5326 120.529 -2.96265
-16.3937 127.545 9.14946
-18.2815 118.058 -0.298726
-12.9582 151.122 -2.61259
19.7686 104.193 10.7432
-17.3585 138.754 -6.00493
15.0407 123.544 14.9704
-14.6497 120.886 -12.3324
-17.3761 110.947 -8.10811
-26.5503 123.28 -2.84085
2.18722 123.951 -14.685
10.796 143.08 -10.6791
-5.8102 145.826 10.2022
-16.1193 124.218 1.16287
-16.7366 136.938 -7.46753
-2.52626 137.733 13.8285
8.88513 110.222 19.3252
-16.7967 121.012 12.3683
-6.03298 105.34 20.418
-17.0349 97.37 9.57038
20.6993 101.407 3.69292
14.401 149.672 -5.65688
-2.71823 127.366 -14.5879
-12.843 143.297 -8.41907
5.75151 86.1082 21.6753
-12.1596 98.6038 15.9518
14.1954 120.251 -5.60474
-18.0887 110.268 -2.94313
15.3907 117.172 -7.13734
3.43675 80.0506 22.187
17.1211 132.391 4.3483
2.3477 127.269 16.6471
-17.8999 107.012 -8.02697
-16.8043 126.787 -7.72686
-15.7496 127.998 5.36749
20.2485 92.8116 8.09867
14.9074 130.929 0.17049
-13.7818 105.501 14.9612
-16.3984 100.472 -10.3887
-21.9666 125.563 7.52979
-17.1593 115.151 -7.74015
-12.5667 124.323 16.1969
18.2053 148.831 3.93473
-11.2548 136.289 14.0629
18.554 115.104 2.5953
-19.2743 96.1236 -2.80235
-19.5677 102.188 -0.968212
-13.6896 122.961 15.2683
0.550011 145.881 -7.63604
-9.62254 117.826 -14.8275
14.5137 123.273 -7.77576
-15.5876 125.967 3.88308
-12.2828 146.654 -6.98501
-13.0631 119.341 16.6359
-11.7572 115.822 -14.1865
12.9306 150.692 3.77946
21.0478 95.1727 7.42293
9.79711 136.31 -11.7334
18.3369 92.533 13.405
-14.0698 95.3554 12.698
20.0293 87.242 9.83648
-18.577 100.922 -8.14261
9.88603 146.489 -9.40266
-6.12871 127.012 -14.5318
-20.5298 79.2214 10.7297
-8.05741 144.704 -9.23412
-11.2789 94.0769 18.5421
-20.3459 93.9732 0.545989
8.1636 95.657 20.4127
-21.8128 138.101 7.12734
-20.1599 136.614 8.17295
-18.7445 109.403 3.23217
-14.9047 99.5612 -12.1706
-18.2789 142.555 -4.26031
17.6812 85.4342 13.3542
18.3448 131.847 4.01474
-9.68601 127.961 -13.7925
-0.143418 81.9108 21.0925
-10.9993 92.1104 18.9045
-16.1764 101.431 -10.8434
-26.4347 126.211 -0.276074
-17.4711 130.983 -5.60811
-3.76302 113.807 20.5172
16.2 126.953 -1.01791
21.5091 132.567 4.23119
-21.8253 80.994 5.6254
17.6543 112.208 -2.60036
15.8856 101.641 14.7983
21.8643 145.452 -3.41069
-22.4202 143.695 4.05903
21.8123 139.13 -7.20384
-16.1129 120.518 -9.26461
7.6238 83.2932 21.1971
-7.91553 95.2437 -14.2821
-12.9353 151.868 3.95798
-13.7218 117.1 16.4975
-9.07079 133.044 -13.1317
-12.3055 150.261 -4.87262
2.70624 136.377 13.9421
-15.7658 149.029 6.00782
-5.09221 112.388 -15.8906
24.7354 138.438 1.07942
-0.93908 135.211 -11.1607
1.98403 135.189 13.9509
-17.9988 121.632 -5.774
19.6945 132.939 4.62704
-18.277 146.791 -2.4917
15.9056 130.043 -9.40812
-13.5923 115.311 16.4756
-6.43933 96.9665 -14.646
-16.3368 124.811 -6.48455
-2.68081 81.0126 20.3842
9.00038 127.156 -12.1782
-5.18903 92.6061 20.2314
4.39026 138.071 13.1092
16.3452 117.487 14.1448
15.4791 125.828 14.5416
15.9217 116.198 -3.54777
-16.6542 121.51 -6.36849
-0.248385 127.011 17.266
-17.9934 121.987 -8.59354
-9.22977 103.858 19.0904
6.69113 90.5361 21.6855
12.8411 130.475 -4.78829
11.2613 100.851 17.329
21.1986 136.787 -7.62235
-18.6467 118.012 -4.47862
6.8314 126.571 16.3791
-14.7529 103.294 -12.5176
-17.863 112.863 -9.45307
21.0302 138.917 -8.04882
20.3962 102.352 7.26271
-18.543 128.237 8.76646
7.58421 126.287 -11.5166
-4.11814 138.139 13.472
-15.1934 121.435 -11.4969
24.4625 139.427 -2.66413
24.5085 144.247 1.02287
-17.3109 116.276 1.8788
-18.2366 100.862 -8.62215
14.6268 130.376 -11.0607
21.2319 138.926 6.23215
-7.83579 143.728 -9.7809
-21.8889 84.7251 6.2154
19.7287 106.949 9.16194
-10.2364 118.996 -14.5487
-19.3734 94.7699 6.40009
-11.3539 127.102 16.1973
14.6511 148.544 5.40494
20.7084 101.257 6.42316
-2.64968 97.5097 21.0319
-17.615 109.73 -8.41658
-17.4134 105.561 -9.67289
20.6903 101.608 3.88347
-17.4933 78.1798 -8.125
-21.3652 87.6139 2.47224
-13.4846 89.829 -11.7426
15.6333 105.054 14.5719
-17.8721 113.478 1.51183
12.1378 78.7032 17.3458
13.5625 80.157 17.589
20.1396 103.239 5.65497
18.6454 121.473 9.82677
-19.6447 92.4772 -5.02237
-17.5316 129.242 -6.53271
-17.4956 123.767 -4.54999
25.1231 135.53 -0.334359
-1.20976 124.629 -14.8988
14.2395 140.416 10.8949
-21.3339 87.949 0.624409
27.7844 128.34 -1.25719
-15.323 129.934 -9.61743
-26.7131 123.953 -1.89583
17.7014 117.121 12.8975
-14.456 140.789 -8.92244
22.9229 136.988 4.28463
11.1747 151.15 4.41148
-20.5356 136.42 -5.87713
-18.8972 89.4206 -4.91488
13.2507 139.151 -12.1763
-16.9821 114.476 7.37069
-7.76376 95.914 -14.3797
14.3195 127.89 -8.46312
15.6398 132.969 -3.96973
-16.151 106.441 13.6202
15.6466 96.4794 15.495
16.725 145.866 -6.64911
-11.2955 144.25 -8.53774
-1.18744 113.715 -16.4359
-18.4448 137.788 -5.04871
17.7852 122.054 12.6725
6.25293 116.506 19.158
-0.732547 95.9668 21.1519
19.4748 115.024 9.60206
-4.64132 83.5293 19.5803
14.5735 90.0584 17.1335
-24.6591 123.377 -4.54786
-17.1322 126.99 -5.1517
-16.388 125.215 -1.81613
-17.9739 108.932 -0.119378
17.01 131.374 -6.51543
-9.74625 81.3189 19.8044
1.31565 136.792 -10.0435
19.45 96.4863 11.4404
-10.0517 127.613 -13.7676
-17.4636 120.716 3.95785
-26.0645 126.737 -2.91109
10.1709 105.887 18.7697
2.15385 136.585 -10.4461
14.8592 127.119 -1.72806
13.4558 129.652 -6.4808
10.0135 116.047 17.4654
14.2254 146.83 6.6788
16.0245 134.156 13.2003
-19.1423 95.5532 -6.91161
9.24135 85.4157 20.1476
15.4245 78.5332 16.4828
-5.94205 103.496 20.1805
-2.66632 131.371 -13.6703
-19.3358 91.9433 8.40842
-16.3233 82.5676 15.4077
-1.92934 141.72 11.8376
-6.38392 127.69 17.2664
-18.8105 140.046 8.60539
16.1001 128.703 -9.40582
-22.0446 83.9486 4.75243
-21.2221 82.8176 -2.23265
15.6949 132.756 -3.1557
-16.7831 146.665 8.0627
-23.6234 137.503 -3.29367
17.3338 134.825 12.1058
3.598 135.141 14.2223
-10.2066 84.1647 -12.6765
-12.1102 104.018 -13.2427
3.47245 89.8054 21.6661
-0.682862 115.296 -16.2416
-15.8674 126.656 -10.9477
1.62089 113.429 20.902
27.8159 127.426 -0.335209
5.11204 135.001 14.3926
0.162569 97.4776 21.2038
-11.1082 133.393 15.1873
-12.2011 77.0261 -11.5564
-9.00165 145.345 10.0951
21.3022 97.5051 6.78393
-16.7112 114.914 -10.877
-11.3152 82.1874 17.8463
-18.5605 146.377 7.27192
6.86612 128.851 15.7825
-9.63492 131.799 16.2974
-9.6611 105.811 17.8646
-7.11562 131.124 16.2836
19.5838 108.297 3.4027
-16.1391 119.549 8.482
-19.017 85.1329 13.5559
16.836 124.765 5.64271
17.5794 125.641 8.42239
2.76902 146.514 10.0046
8.45138 123.609 17.2834
-20.3232 93.918 0.649317
-16.2813 124.962 -3.55149
-10.7239 103.932 -13.8947
-17.1394 113.199 -10.2324
20.5364 139.123 -8.47421
-27.4825 121.014 0.179562
-20.625 134.154 8.33938
-4.91627 126.705 -14.6259
-16.1816 77.6393 -9.34158
-14.9709 146.361 -5.51825
-21.3318 88.0096 4.77933
6.33705 129.583 -11.1998
18.5782 118.184 8.73321
-12.7868 124.395 16.0058
11.4143 152.041 -3.41081
-17.7079 109.073 12.283
10.6945 127.937 -12.9914
2.2342 149.412 10.8808
6.60686 146.063 -8.78819
-4.87645 119.037 -15.2771
-16.589 121.686 -6.57474
-22.1995 140.167 6.4041
14.614 147.973 -7.45435
16.6504 147.694 -5.81207
-4.23294 95.7781 20.9087
-3.57646 110.021 -16.3025
-15.5411 78.3201 -9.84854
-20.0728 92.7548 2.35332
7.45176 80.5083 20.8915
-15.6741 82.6531 16.1377
-18.9726 131.07 -6.09079
8.21013 134.727 13.9566
-13.9914 151.046 0.199355
6.78682 110.375 20.0098
-15.7577 146.699 -5.23321
12.2576 126.524 15.7884
16.8811 122.02 0.287007
-17.3228 120.082 -0.215732
-20.1553 87.2317 9.43736
15.7348 150.314 2.44703
-16.2476 97.7079 9.62434
16.5574 120.036 1.51909
6.66661 146.482 -8.66227
15.6153 150.893 0.899279
-17.9826 144.319 -4.18976
-17.7678 120.29 0.865234
0.511087 118.063 -15.6509
-16.9133 119.625 5.79211
-21.0624 89.1577 6.62133
24.2432 135.957 1.48947
-8.78144 103.968 -14.6545
0.257932 154.328 -1.93248
21.4049 140.9 -7.18034
-22.9062 139.039 6.09751
13.108 100.47 16.3515
9.89797 97.9068 19.1687
-21.831 79.4934 5.02644
-23.0681 141.709 -1.23084
-17.7287 118.907 3.88268
-10.8792 101.817 17.83
11.7167 141.855 9.72055
13.9696 119.54 -8.67862
-2.52078 152.728 -3.23638
14.9425 122.404 -5.69027
17.4246 130.838 3.2149
16.4492 143.585 -7.90046
16.9084 129.241 8.16529
14.3155 127.353 -2.64229
-8.52513 94.2085 -14.0135
-6.64647 111.69 -15.2299
-20.141 145.741 -2.21177
8.33892 120.711 -13.1175
-15.6223 126.103 -11.2531
15.0649 123.478 -8.96012
-9.98346 145.054 -8.94528
-14.5359 149.857 -2.38409
18.6774 119.85 11.5344
-21.87 134.442 -4.40103
21.5867 147.089 2.88378
-18.384 105.302 4.91001
1.12864 100.945 21.5589
0.465757 113.733 -15.8683
-6.78674 91.745 19.6345
10.8201 105.948 18.44
-15.3634 125.616 -11.524
19.8754 111.526 6.3435
-20.5465 81.3237 11.3899
-15.6536 142.959 8.99765
-6.0235 138.62 -11.7954
19.4779 91.5356 9.8802
-15.9868 102.336 -11.4459
-22.9269 140.713 5.31221
0.242388 118.599 19.8745
10.407 146.317 8.20829
14.3575 150.006 3.97125
17.7852 119.594 6.65921
-16.5362 101.668 10.5873
3.57063 130.67 -11.1658
20.9129 134.275 5.2886
20.1932 134.322 5.58206
-7.09706 142.654 11.1611
12.1424 130.368 -12.7875
18.4614 109.06 11.3513
18.7225 144.102 7.40402
17.0332 99.6677 13.4724
-19.3168 114.881 -3.88416
24.6788 140.847 -1.08763
17.6521 124.498 8.53461
-16.9907 121.502 10.7085
-13.1234 137.035 11.704
-3.88758 98.7235 21.0262
-20.7367 89.75 7.85424
-21.9839 80.5497 1.76952
22.8055 132.571 -6.49511
16.1766 131.054 -6.27462
-17.4056 142.414 9.61027
19.8211 78.672 13.1836
-11.324 139.435 -11.2772
-15.9737 117.936 -9.26996
9.97857 107.442 18.9929
-0.0429249 112.199 21.1549
-4.94711 103.006 20.3601
10.5416 120.709 -11.1314
-0.969186 137.247 -10.0825
-3.2074 148.214 9.60178
9.97083 153.295 -1.58703
14.4046 99.1286 15.4632
-17.9816 89.2491 -6.40098
-0.218915 116.66 20.4077
22.4867 135.178 4.41618
-16.244 82.4739 16.501
-20.8918 89.514 5.79008
16.0401 139.801 -10.193
-21.0844 120.034 7.07739
-18.2207 117.195 0.0839878
-14.463 111.133 -12.4312
10.3203 134.272 -12.2482
-18.4622 116.776 -0.241702
-15.9488 127.899 6.26771
-26.2427 126.983 -2.22856
14.19 122.65 -5.57411
-12.2739 151.888 -1.26835
-4.95508 131.148 -13.3095
-18.5676 112.796 -1.08437
-17.7884 119.567 2.82761
8.58755 100.999 19.156
-7.24211 139.666 -11.6095
20.8825 141.336 6.28171
-19.8133 93.3793 -5.22431
9.16202 81.4736 20.0082
19.3755 115.161 8.35834
-23.4942 133.995 4.46882
16.9528 128.651 8.49876
-16.0207 125.263 -4.23793
-16.3901 117.199 9.42233
16.2939 130.783 -3.18095
-15.7128 127.401 4.84577
4.47529 82.3047 21.8049
-2.3607 148.977 -6.88258
-15.5375 121.297 13.8151
-2.12309 153.005 -3.07106
3.84735 126.93 16.5187
18.007 101.725 13.0252
-20.0384 93.4548 2.32704
-15.6884 124.79 -0.904836
-10.9774 84.4757 -12.587
-6.99614 148.574 -7.51925
-10.8696 141.98 10.8841
-7.02429 141.18 -10.9759
-11.0055 139.127 11.6019
13.465 129.867 -6.63633
21.4688 95.0798 5.83294
7.11519 141.143 -11.0631
10.078 127.98 15.7948
3.10242 127.751 -12.6207
18.2826 82.8415 12.1742
7.28313 150.325 -6.86589
11.4757 145.898 -9.25356
17.9022 106.41 -0.977153
-6.03631 130.737 -13.6943
-16.1414 124.032 6.97543
-17.9958 148.712 5.75194
17.1072 112.005 -3.91587
-26.6091 119.997 4.79753
-17.2276 85.0762 15.585
11.563 98.1583 17.9664
-14.7373 128.585 10.5536
15.7671 129.995 -7.12228
-16.0922 125.379 -2.23117
-19.3262 103.218 -5.18462
19.6311 96.242 11.0022
17.6388 130.304 3.44094
16.8135 120.707 -2.40839
15.849 122.061 14.7151
13.416 130.993 -2.8505
-15.7556 124.106 4.42152
-1.35352 91.1578 21.458
2.80114 107.378 21.7125
19.5414 148.28 -2.0523
-16.6533 91.0132 11.08
-4.92936 106.239 20.7531
-15.3773 118.079 -10.8221
9.17784 135.851 -11.6152
18.4397 147.38 5.04535
-18.853 122.479 -4.82379
17.0325 127.625 1.32691
20.6714 101.337 6.22285
13.5161 139.702 -11.7785
-6.94965 120.336 18.9434
-4.6704 141.454 -10.3172
4.19538 112.173 20.5029
-17.5745 148.802 6.0011
-17.4027 112.948 12.779
4.55753 151.886 -4.91954
-4.61477 117.596 19.9845
-18.9304 109.254 5.63702
-16.3501 101.398 -10.5411
-7.89696 93.741 19.7273
18.6486 117.743 8.75716
-6.99919 83.1397 18.5879
-13.8281 143.769 9.30523
15.288 81.1176 16.741
-17.1719 122.372 9.98429
-6.97257 139.911 -11.4799
-8.04944 152.808 -3.07372
-16.6964 118.351 -8.97734
23.4959 136.05 3.42767
-9.41243 149.979 7.16534
-16.4904 125.031 -2.60984
17.9044 141.258 -6.83763
13.8723 127.143 -7.02805
20.5169 101.922 3.1264
0.512174 104.218 21.7791
-15.5721 126.213 -11.2401
13.6683 141.185 -10.6726
-21.1691 90.3525 -1.9546
-18.8916 106.633 0.918419
23.5701 140.397 3.43088
-4.37045 89.0294 20.1374
12.5691 150.98 3.65565
26.1084 133.911 -1.52391
-12.5894 101.861 -13.3832
16.7343 129.792 2.67834
19.4446 103.435 11.1534
4.26396 102.002 21.4512
10.4578 124.043 -11.816
-20.1015 125.829 8.21246
-15.483 85.3885 -9.38195
-12.7203 118.037 -13.7886
-1.33279 148.294 10.0698
15.0108 139.306 -11.4547
-20.6493 90.7135 3.7756
9.90139 119.767 -11.6341
0.605028 138.454 -9.30205
-19.3709 99.6738 6.17941
-16.9196 108.467 -9.58383
1.6849 91.4239 21.5638
15.4144 123.02 -2.32959
24.1952 121.682 -0.637105
-14.8278 94.6935 11.8529
-20.8696 82.4958 10.2468
18.1738 144.716 -5.78082
-6.67206 120.823 18.9956
-12.183 138.023 -11.6004
17.4513 125.167 0.517083
-12.3064 139.049 11.1418
-21.4905 87.1477 2.0501
-9.43697 127.905 17.2141
-22.0428 82.3232 1.60797
-22.4767 139.099 6.5433
12.3619 148.258 6.53111
-11.1542 110.374 16.3798
24.4128 135.762 0.760747
4.84723 140.091 12.6412
-22.9539 140.323 -2.31075
-16.2602 124.68 -1.78254
16.8773 139.997 10.6273
19.5047 91.4196 9.68271
17.7931 103.206 13.1341
-11.5568 110.625 16.2055
12.3363 113.828 17.1843
-15.343 131.202 -11.0989
22.3319 141.169 4.38881
-17.181 110.339 -10.1113
-11.0729 115.274 17.7099
-17.0414 120.197 -0.747383
-24.5227 134.182 0.173189
-17.0479 120.942 -3.55914
-10.7296 128.97 -12.8529
1.85849 121.534 -14.9793
17.1879 122.731 1.5298
-17.3392 88.6656 -7.43133
-5.75151 146.6 9.91111
15.4711 137.993 11.9096
3.37819 147.928 10.2339
-13.9834 79.8971 -10.607
19.0075 119.043 9.90045
20.3371 134.984 5.71094
19.9634 112.627 6.01725
3.85955 144.303 10.8154
-15.2984 99.5305 11.114
17.2958 133.94 -6.11237
12.5569 136.386 -12.0249
18.93 114.095 11.2195
-16.4509 145.513 -5.36998
-17.1173 108.806 -9.5411
-17.2777 81.5836 16.2603
6.97361 115.513 18.9058
-20.0117 82.4706 11.6904
13.6805 127.756 -4.2241
17.3015 138.962 -8.28879
9.11748 144.826 9.98001
6.09977 152.752 -3.68079
-2.27648 81.7648 20.2872
1.23337 147.683 -7.39313
21.0582 140.717 -7.46255
-12.6664 83.6856 -11.4569
5.00084 89.6376 21.9567
-24.1452 128.895 -5.06877
14.2877 146.776 6.68649
8.21593 130.497 -12.238
-18.9941 104.729 3.19896
17.6026 110.152 -0.343211
12.2096 111.149 17.3059
-13.7367 119.527 -13.3857
-16.4154 148.95 -1.45538
20.6717 101.28 5.57331
-11.6665 93.0124 -13.0243
-9.72854 96.5679 -13.3289
18.1395 125.654 11.856
8.2839 139.841 11.3144
-24.7178 135.219 -0.465153
-19.6816 147.875 0.891943
-14.2912 87.5092 -10.5409
3.5797 127.215 16.434
-16.8056 127.882 -7.86668
18.2647 130.708 6.97075
15.2137 125.99 -6.79616
15.7859 126.444 14.1757
1.89216 128.939 16.1121
-3.27132 110.567 -16.3351
13.2914 107.656 16.5137
-13.9506 151.167 5.09452
-15.2737 85.9008 15.7379
-16.7593 137.819 -6.85039
18.4464 119.964 9.13922
-15.4299 96.2749 10.4314
20.032 81.7712 9.87483
-6.30613 135.476 14.7142
-1.05611 128.233 -14.2509
-5.8148 152.344 -4.09041
8.08749 144.471 -9.87567
-1.03183 131.419 -12.9436
-19.9182 93.6145 4.83701
-17.165 142.022 -5.67392
-5.0556 114.747 -15.613
-24.9032 127.266 4.89646
13.6084 79.2886 17.2358
17.2084 105.695 13.0899
15.0435 125.409 -5.85578
-18.9793 115.718 -1.19881
11.3228 78.6305 17.762
-17.0557 112.084 1.40022
-9.20048 141.946 11.4551
10.7673 103.581 18.093
-15.1348 94.1892 -11.2499
-14.5234 131.398 12.4591
-3.34452 144.343 10.8242
18.3027 96.46 12.9341
22.5102 145.038 3.64463
-21.511 131.149 7.11186
-14.4912 98.4387 -12.1018
3.31792 111.277 20.9897
-8.3932 128.213 17.1896
-8.04057 144.171 -9.47715
15.8899 141.851 10.0036
-1.0003 91.4814 21.497
19.4141 115.252 9.61196
-14.8935 124.62 -11.9521
5.554 107.062 20.7334
-18.0316 139.88 9.2158
17.5993 130.481 9.74145
-14.8702 147.805 7.73838
18.2635 115.476 3.22903
19.0225 139.972 7.79573
-13.2774 134.226 -12.2636
23.6048 131.648 1.39239
-17.7642 131.501 -4.87363
17.1884 110.478 -1.63798
-0.767799 112.016 21.2014
-15.8668 119.466 13.459
-8.9816 80.9393 21.0148
2.18372 116.255 -14.9184
-4.48686 122.911 18.791
-14.8961 94.0533 -11.4622
-12.7726 83.7666 -11.3793
0.31577 135.161 -10.2535
17.3747 128.712 -4.04689
17.3664 118.345 3.3539
-14.4687 136.516 -9.2263
8.39235 133.097 14.4445
-21.1578 90.8042 -0.169357
14.028 145.13 -8.80006
10.7451 86.8383 19.3452
-4.22414 111.678 20.55
-0.457749 116.978 -16.0553
-27.1157 119.397 -0.477105
-6.97015 105.057 20.1377
16.7264 85.4222 14.6302
-8.46914 131.04 16.5134
-13.8525 78.2072 -10.7252
21.1193 97.3708 7.63123
-8.9951 106.544 18.0203
6.90092 128.019 16.007
-18.9171 86.9334 -5.72069
8.99594 148.432 -8.32179
-10.7154 152.444 -1.44062
13.9099 111.498 16.457
14.1581 147.525 6.26425
-8.01348 128.842 -14.2485
-20.576 145.858 5.44326
-7.31537 126.477 -14.5266
-17.6912 124.377 -5.58164
15.1307 142.293 -9.5095
-8.44149 138.089 13.3272
-17.7781 110.36 -5.98207
-12.3571 103.971 -13.1256
-15.5547 90.9319 13.2967
18.144 109.995 12.6284
14.2924 130.52 -1.50076
-18.2656 92.4804 -5.94768
19.6927 136.443 -9.10759
-17.0051 104.796 12.1419
-0.975887 130.241 -13.5917
20.428 79.6989 9.73413
-19.1017 107.457 4.65349
-14.6746 97.0066 11.4951
-16.3347 124.47 -3.70308
-23.4699 134.541 4.77732
-19.7108 99.8475 4.23675
-10.9398 104.075 17.8555
14.9228 124.04 -5.92625
-18.134 76.4926 -7.58466
-17.6611 113.754 8.98752
7.30715 147.414 -8.49577
17.4545 137.675 -8.0306
-19.7405 128.289 8.195
16.4171 102.298 14.3828
-0.0223432 127.957 16.9042
25.0321 139.499 -0.386371
4.75003 99.2921 21.4694
-8.59803 121.576 18.3446
18.6915 141.358 7.79435
-10.1126 145.348 9.56143
-20.3054 127.38 8.2523
18.6027 143.308 -6.05643
17.4488 113.196 -3.92291
-15.8821 147.043 -4.65676
-5.07563 81.4154 19.505
-19.5809 99.3504 2.76058
15.9986 125.11 -2.41552
-2.02251 138.307 13.4546
21.4874 126.854 2.10812
-6.28307 96.7884 20.2415
11.0548 147.079 -8.72026
-21.8155 81.5167 0.280409
22.6498 129.709 2.70067
-6.4824 150.111 -6.51227
-22.2096 124.362 -5.36799
24.3641 131.055 -1.17321
17.0281 126.317 7.17453
21.054 96.2966 7.7307
17.0261 118.605 13.8126
-16.6787 109.327 13.3528
0.622774 114.195 -15.8302
15.2216 125.002 14.8487
-16.3043 128.044 -8.87048
-18.7382 142.407 8.24951
-6.27646 121.963 18.9123
-15.4219 128.756 5.82211
-2.56306 122.891 -15.3469
14.1527 124.025 15.2901
-9.82424 81.0682 18.0829
-12.5081 87.1819 17.3515
19.8546 112.199 6.4084
-6.3539 95.6726 20.3589
-8.23228 137.536 -12.2805
17.1911 120.179 13.7937
-0.72827 115.24 -16.2594
25.0148 142.646 -0.310669
14.5032 118.833 -7.1724
-24.3215 130.523 -3.85829
-5.42774 152.05 -4.34479
19.973 147.376 3.8716
0.228975 137.574 13.7146
-15.0683 103.818 14.1943
-5.32792 141.131 12.0244
-10.3777 101.97 -14.1499
-19.0326 101.939 8.50038
9.80431 150.868 5.28599
2.70957 121.076 -14.4644
-16.0725 124.721 -9.86489
-12.2058 103.652 16.4044
-3.31145 152.223 -3.80941
18.4241 139.686 -8.34671
5.44432 96.68 21.631
-11.1097 136.049 14.3428
-4.9639 80.5432 21.7596
9.59449 100.617 18.4509
-17.3592 121.349 -5.98529
2.63656 131.117 15.1385
19.3946 94.8514 11.5118
-14.6459 147.069 8.46875
-19.0252 140.632 8.43072
22.1967 144.2 -3.53588
1.88005 136.502 13.8581
9.48621 84.837 20.0288
-9.09674 145.489 9.98275
-6.23878 103.663 -15.3681
-15.0292 87.1724 16.0224
-13.5697 104.716 15.4128
26.0985 130.69 -1.98324
-17.0152 116.373 11.3635
-22.1058 82.945 4.16722
-6.14719 139.881 -11.3945
18.3041 104.678 12.4158
-1.8128 80.6231 20.7666
-18.4657 117.986 -0.995021
17.5737 106.089 12.7099
9.41962 138.024 12.5132
18.0252 145.877 -5.02158
14.5792 83.2312 16.6489
8.86168 153.576 4.46068
10.7973 125.614 -12.6764
-19.8079 94.0357 5.15422
15.0929 124.159 -5.34393
-17.5086 120.749 2.65186
19.6969 107.237 9.22572
-11.8164 91.4248 18.5642
-13.961 117.678 16.1809
22.5706 140.728 4.17259
-17.2213 136.08 -7.20405
13.8372 100.534 16.0813
3.7763 131.295 -11.1702
-21.5076 81.6599 -1.67312
-17.2021 104.007 -10.6909
14.8329 128.886 -1.75235
12.8362 120.944 15.7533
10.9047 150.946 -6.28691
23.9751 128.725 -0.191624
18.1231 131.764 8.05338
-11.0172 95.7504 18.6939
6.09365 97.4042 21.2509
-17.2111 131.033 7.90538
-5.39434 80.7814 20.1862
-4.10227 137.683 -11.0183
9.20321 131.927 14.4425
-5.22313 99.1084 -14.3851
