ply
format ascii 1.0
comment Created by Open3D
element vertex 1924
property double x
property double y
property double z
end_header
-17.3668 80.6535 -9.44151
22.7315 129.738 -1.14894
9.66354 119.877 4.24401
15.1938 123.159 4.48903
22.0338 123.739 -0.994504
22.5566 125.151 -2.66841
7.52875 135.312 -5.05386
7.74579 98.4213 -5.01695
17.4976 118.85 4.8219
-18.8005 103.223 -9.8206
-5.21775 113.404 7.73547
9.68541 151.782 -0.727902
6.47532 140.128 1.85519
13.9308 135.07 -5.70012
-20.8502 127.616 -4.63381
-26.7497 122.438 6.46736
-16.1596 81.7835 -7.48493
17.9013 126.526 5.67151
-15.0414 113.177 -11.1631
4.5568 149.756 -3.36207
-20.3809 136.114 6.87652
-20.6191 133.279 -3.02582
-7.8946 111.76 -8.97842
15.8514 119.765 -1.90664
-23.6977 133.695 5.35138
-6.3591 115.708 -7.46235
11.8799 127.166 -2.19788
4.05335 132.983 4.52315
15.7502 131.246 7.0338
10.7471 149.379 -2.85723
6.93933 107.429 0.70939
-11.1938 126.145 6.49562
13.8298 127.036 -2.00812
9.89299 125.834 2.73061
-18.9304 98.2853 -10.0268
-16.8284 122.766 6.34929
-7.94553 114.551 -9.31455
-13.3642 142.696 6.96768
-19.9884 103.322 -3.39629
15.7696 148.171 1.2266
-12.1061 142.497 5.73494
2.50396 114.6 -7.2263
17.4721 124.02 6.09921
-7.79366 152.929 0.655606
16.9231 111.437 0.101508
13.8871 127.039 -1.94722
3.89184 125.278 -1.44893
-18.7801 109.128 -9.11696
19.8117 136.36 -3.67713
-19.183 131.351 -3.50523
-20.9929 92.07 -1.25023
9.67874 121.33 3.85482
5.32599 128.922 4.51338
0.692401 138.028 -1.19848
12.4613 142.632 -3.39476
-4.20685 108.328 -9.43419
9.68583 125.122 2.12617
-13.0236 134.383 6.5301
-2.4364 154.136 -1.87154
20.2363 122.092 -5.48622
-18.7577 134.418 6.66138
-8.11485 150.238 -3.58053
12.4602 125.238 -0.0684262
-3.08375 91.1429 -6.44981
-13.3248 131.104 6.1303
1.22413 140.179 -1.3385
-14.2432 117.377 -9.73888
12.1502 142.102 -1.16293
-15.603 113.771 5.22827
-1.14012 95.4895 -6.65629
-12.0198 82.2519 -8.65796
18.6315 134.661 4.44257
-16.7182 107.476 -11.1185
13.8554 138.185 -4.26564
11.7085 126.495 -6.01236
-18.6517 122.99 4.03847
15.1352 113.224 0.170248
-6.99742 106.417 -10.3762
11.5295 103.765 -4.35734
-19.1322 101.703 2.28001
-21.4619 90.9104 -7.00418
-17.2802 142.716 6.29968
-4.70011 95.2308 -9.45451
2.04844 116.867 7.58732
-16.3501 126.406 4.3526
-14.9774 135.865 -2.43799
-26.4919 128.054 3.16122
10.2517 116.955 -4.02519
-19.596 134.92 -2.75772
10.2577 133.765 2.94046
-16.6174 85.427 -9.4121
15.6195 132.431 7.12248
-1.48325 124.146 6.65161
10.0747 101.487 -5.90738
9.38578 132.096 6.98049
-20.0472 120.39 -2.17214
21.9251 125.967 5.38237
17.8313 120.247 1.92312
21.8043 133.047 0.677446
-7.41483 93.2753 -9.94461
7.12393 147.527 1.44698
16.1952 146.946 -0.225774
-20.8781 119.492 3.28705
-11.9887 140.383 5.04859
15.4374 130.993 -5.58079
-7.03434 125.921 -6.03608
3.1289 148.812 -2.54249
-5.26576 130.143 -4.21164
14.2535 118.107 -1.57304
2.87227 107.579 -9.97027
-7.81949 96.0983 -10.3736
2.71752 146.107 -2.18927
-11.1578 112.687 -11.0712
-14.912 116.026 7.53968
-16.5808 124.858 5.78909
-10.1863 143.088 -5.66415
-18.1275 119.284 4.06199
19.6904 127.925 7.15773
0.0534044 100.491 -9.0287
-2.11584 91.989 -6.57912
-10.75 103.134 -11.4274
17.1891 134.525 -5.2946
6.79385 154.556 -0.65006
-18.3233 109.807 -9.65037
7.29837 129.399 1.33021
-16.3559 124.112 5.15813
-19.8486 120.209 -2.77667
2.77125 118.869 -4.28015
21.905 125.208 -3.30913
-5.8512 88.1425 -6.92501
2.72203 121.2 7.01119
4.42645 110.317 -8.58506
3.78273 132.144 -1.15011
-18.6804 127.283 -4.03344
11.0749 123.784 9.53929
12.8709 137.062 -1.94404
17.711 130.463 -4.75657
9.41129 129.678 8.39579
-14.7613 124.521 -9.32365
5.60507 135.748 -4.27322
1.39714 125.685 -3.38953
6.55871 119.185 -2.18014
-6.20621 109.73 -8.82765
-7.04477 121.403 -7.26825
-12.5673 138.79 5.9253
14.4476 138.924 -4.04592
-28.7985 123.234 3.20056
11.8787 143.796 -2.1582
-1.9043 132.475 6.17803
-8.79113 116.184 8.30211
2.66631 113.504 4.72067
18.7407 134.298 -4.56896
-14.0002 138.862 -2.99127
4.73417 138.834 4.02948
-13.457 134.985 -4.54248
-20.2401 115.714 0.150583
-14.0556 142.309 7.06387
-17.954 143.577 3.68946
-9.23097 85.5277 -7.87465
-7.67636 147.142 -5.29136
-7.37381 94.7813 -9.8609
-11.6346 117.126 9.02408
-17.5831 125.721 -4.76017
-14.0153 82.4003 -8.75888
14.3869 117.243 -1.03569
-17.7831 108.27 0.611544
-18.2685 116.532 2.76322
-5.46509 142.28 3.26464
-19.921 131.206 5.59511
11.9746 106.506 -2.90707
-8.39268 147.472 2.41993
2.21089 95.9726 -7.79766
1.70855 132.788 -0.891079
22.3138 126.352 1.39434
-1.51574 119.301 -6.09037
-15.6061 131.565 6.36352
-5.77075 124.314 -5.79689
9.58357 146.74 2.36015
11.9328 126.88 -6.44889
-12.369 132.794 -5.59778
-19.095 106.424 -2.03959
7.24716 144.112 1.24251
14.8024 145.901 4.75036
10.2107 138.351 2.27373
5.38905 95.3528 -8.47475
14.2892 127.924 -7.02803
-16.0002 118.598 7.24479
-24.2645 125.536 -2.19112
2.52071 141.159 -1.74414
22.1018 125.418 2.24654
-0.434808 115.196 8.47096
14.9277 123.095 -1.09452
1.04721 115.534 -7.96848
-6.30692 143.868 -5.67979
-13.9373 117.834 8.78237
-1.44107 98.0302 -7.96344
9.88631 139.395 2.0396
-15.3955 102.298 -11.8785
-14.1759 131.735 6.38535
-17.1355 124.646 -4.2372
-25.5904 128.295 2.08432
-17.1952 116.903 -9.96519
-12.4438 121.945 -9.51404
-21.491 129.072 5.60775
-15.9565 108.921 7.25917
-19.5751 94.7468 1.43933
-18.1843 89.1 -8.69669
13.2459 101.584 -4.3762
8.46706 144.417 1.36178
13.4479 114.997 -4.69634
-18.0618 121.631 -2.85584
-13.9608 139.731 -3.69393
10.4425 147.241 -3.81759
-0.832596 143.045 7.12261
6.89433 136.695 1.58853
-21.1445 87.8716 -8.05291
13.6301 124.733 -1.74994
11.8374 148.29 3.39425
-18.4364 121.051 -4.75558
7.58779 108.757 0.935239
-21.6854 121.323 2.30352
-6.49746 135.753 -6.78438
7.91392 114.777 1.20692
1.66494 140.141 -1.43764
14.1102 139.527 -3.40803
5.54999 98.2526 -8.27263
9.8067 126.006 2.3955
-19.9167 119.401 0.447661
14.6965 144.017 -0.0105515
-14.7789 112.426 8.67509
-17.4308 114.434 2.86906
-7.64409 146.737 1.80884
-11.1003 117.175 -10.1817
-4.41768 125.959 -3.60741
-6.18073 136.834 -6.06806
14.2588 121.545 -8.67214
-1.15102 122.112 -4.64616
16.2471 135.146 5.76732
21.0936 123.321 5.33994
-2.45372 138.419 6.43497
21.6749 125.977 2.73732
-24.6076 125.752 6.68121
17.117 127.569 5.7279
-20.4306 129.772 -4.44752
11.0979 120.107 -5.70464
15.0716 121.381 0.0747876
17.9211 126.555 5.68047
5.26063 90.3943 -8.3297
-20.0093 98.8743 1.3174
-12.2882 100.374 -12.0385
17.0756 121.098 4.08921
6.23785 99.6397 -7.43203
12.6624 101.039 -4.55963
13.6723 120.667 -7.68621
10.5524 123.115 -6.02852
15.6613 121.515 7.67131
-7.61299 101.151 -11.0422
-20.3811 138.965 2.71282
13.3449 136.709 -3.83167
22.8858 124.325 -3.08471
12.103 127.086 2.03803
-17.5171 114.16 2.39018
-4.56131 131.687 -3.75223
-17.5557 80.7647 -8.75776
-13.9133 126.586 4.42215
2.469 104.391 -9.18847
-2.86012 142.322 6.52756
-6.81292 148.74 -4.58973
6.55229 106.731 -7.54742
2.08757 132.179 -0.885744
-11.3446 116.584 8.64696
21.8616 124.5 0.945422
7.80931 115.964 1.1157
-20.7777 112.471 -5.82432
-21.3619 123.955 -2.88248
10.1169 152.594 -0.0716631
-9.7036 109.247 -10.4438
21.2441 124.031 4.68887
16.0774 147.022 3.27198
22.5887 130.787 -3.38757
1.75069 119.157 8.14999
22.7334 127.475 0.1321
-11.7744 128.113 -9.34392
-19.3018 120.154 -3.33653
13.4712 147.866 3.5492
-0.575901 144.455 7.14389
13.6836 118.03 -4.15233
6.35284 107.473 0.501189
-5.37535 106.341 -10.2001
-19.9552 120.368 -1.95023
11.9136 142.253 -2.37578
5.40303 152.45 -2.97499
4.90448 136.698 4.11935
21.0823 130.335 3.75206
7.78428 114.972 1.09683
-16.0039 119.76 6.63814
-20.3121 90.0214 -8.71642
7.01294 101.008 -7.94677
19.2313 129.89 7.06645
-6.5382 121.889 -6.87913
13.0868 132.169 -0.538672
-19.0665 109.005 -1.93608
9.58359 133.056 6.947
21.7517 125.932 3.33044
13.3933 150.437 0.821179
-13.9851 114.646 8.86456
-2.08013 116.468 8.21575
-17.804 124.639 5.59417
-19.3266 85.9212 -8.64204
8.10793 109.39 1.93093
-18.5036 102.775 3.48933
1.82221 91.8999 -8.08556
-19.0248 123.928 5.41357
-9.12477 145.581 -5.71073
-11.6413 139.746 4.84132
-20.792 124.98 6.98469
-18.3704 129.725 6.53467
-1.21572 98.6628 -8.5437
-13.6943 132.042 -4.98954
-3.18778 98.1639 -9.33045
-20.709 90.0972 -1.64167
-21.9082 127.848 5.97299
-18.6548 114.216 0.970416
3.58352 144.585 -2.67561
0.224178 124.955 -3.43785
-16.9213 126.351 -4.60567
13.2965 127.433 0.0781575
-18.5612 128.663 -5.3561
-13.9042 126.045 -8.8558
7.07551 144.604 -5.05571
1.27782 103.892 -9.87721
21.0596 132.198 -3.50921
-17.9753 115.533 3.03286
-20.1593 93.6511 -9.00534
19.0144 136.402 -4.2093
3.29982 95.9729 -8.41894
1.18787 95.6263 -7.13487
5.22003 98.3799 -9.46761
-5.15071 137.11 3.94272
-21.1683 98.4012 -4.96158
-4.3213 116.056 -6.26154
-6.52083 124.565 8.00252
-14.9005 126.358 -8.65598
-16.8779 90.1939 -9.35037
-16.7363 129.065 -2.63668
-19.5714 135.9 -0.633442
-7.89573 135.014 3.88102
17.112 121.295 6.15352
-12.5287 122.723 7.747
12.3349 119.95 -5.91917
-10.408 145.061 -5.191
-20.9949 130.287 -2.83368
-8.79318 124.381 -7.23223
-9.76374 119.003 -9.19727
-20.2428 131.117 5.63415
-13.0713 142.816 -3.16884
20.1042 120.228 1.55072
-10.3302 86.5792 -8.71281
10.0737 134.972 1.68883
3.78607 112.817 1.40624
-9.29843 148.168 2.84285
-18.3792 86.8748 -8.4408
16.1193 118.879 1.24763
7.61387 144.509 1.26972
-6.37674 89.3158 -7.75216
-14.2171 132.198 6.57044
-8.81308 152.289 -0.932639
-7.38601 101.154 -10.9847
-3.34807 111.813 7.41069
-18.9705 120.506 -1.63622
-0.832432 98.7855 -8.33321
-3.86989 90.7705 -6.8444
-18.5915 106.327 2.3493
16.9051 122.756 5.07352
16.3477 104.734 -3.26574
-11.7138 137.536 4.82138
8.98337 137.205 1.20222
-16.2747 131.833 6.05207
-17.3771 113.562 -10.2129
2.54695 93.0833 -8.4556
3.0779 108.441 2.92236
9.30513 126.671 1.53171
7.29388 111.778 -3.22628
-19.2038 109.132 -8.85679
12.2691 122.405 -2.88616
13.1286 115.214 -4.82855
9.69754 131.151 8.19524
1.91452 144.255 6.32356
15.5041 147.434 3.6722
8.29653 125.96 -5.19813
-16.914 131.369 -4.19047
22.644 131.721 -0.339332
-18.8704 130.961 -3.74547
12.6305 120.752 -5.41251
6.39781 140.46 1.86208
-10.3329 87.6926 -10.3056
13.5272 117.959 -0.747572
22.3702 131.459 -0.120505
-23.9755 118.761 0.753304
-13.6099 130.164 5.88165
-4.66696 141.803 -4.6368
-2.69084 117.367 -6.29259
19.1353 133.54 3.7498
13.4809 124.299 -1.08734
-21.5644 122.537 -2.27344
5.13016 132.254 3.68657
15.8974 122.61 -2.87933
-21.9094 122.312 -1.00476
-26.6636 126.942 2.52705
-17.8991 84.4848 -9.47285
-11.8436 112.287 8.37553
-4.12313 125.943 7.7539
11.2256 143.473 -4.73553
-1.30886 139.682 -1.86771
6.2369 137.48 2.34209
-3.77207 143.316 6.17771
-24.9241 118.724 1.61931
-5.5559 127.424 7.35123
-5.25326 142.813 -5.19398
11.4682 151.814 1.53333
14.9912 129.002 2.69173
-2.21389 114.556 -7.85353
-2.69232 136.56 -2.3852
6.61849 130.609 2.21697
-25.2205 131.493 3.53078
-20.3727 122.648 2.24571
1.85403 119.112 -5.43686
6.38173 132.811 1.7967
-9.07044 129.327 -7.56318
12.3098 139.824 -1.83934
5.28853 95.2578 -8.87148
4.64842 116.356 1.38773
12.506 127.906 -6.34203
-20.9411 126.78 6.58752
-12.006 126.712 5.24966
-8.64146 101.395 -11.1892
10.3884 134.514 -5.58474
-4.27562 133.788 4.72944
7.72823 138.099 1.13948
10.3361 103.127 -4.87923
-18.8094 108.977 -1.659
14.9037 122.492 -7.86804
-0.214022 138.146 -1.3314
12.0076 128.174 -2.53784
15.2658 109.82 -3.52348
-16.7132 109.204 5.75158
-0.646468 137.392 -1.47366
-17.6175 107.711 3.5906
-6.3362 132.567 -5.24128
-18.9396 114.549 -8.90904
-4.73082 108.054 -9.41826
3.38409 151.894 -2.73698
9.20758 148.494 2.20918
2.33532 134.552 6.60642
15.9906 121.502 -2.75967
6.67499 127.097 -2.98143
13.3472 118.994 -4.9916
-24.7567 129.698 5.32862
-8.83118 86.9854 -8.74498
21.3987 133.466 0.953627
-5.00201 143.043 -4.91352
-11.338 111.539 -11.2649
-20.4163 130.375 5.52755
22.5489 131.247 -0.455552
19.1288 134.94 -4.42245
-9.25476 148.308 -4.67972
-24.4403 123.017 -0.701027
-14.9755 131.087 -4.98665
-0.532879 123.806 7.04094
-7.43892 111.932 7.56594
-15.5487 80.6838 -9.08202
20.6816 140.875 -1.02433
6.84118 137.068 1.65859
4.6319 133.134 -2.18457
-9.45017 117.904 8.1553
6.34038 115.75 0.646571
-21.3026 119.695 -0.155896
5.05246 126.931 -1.01302
13.3275 111.674 -3.92522
17.2576 119.161 5.38899
19.9268 123.221 -5.39028
14.7962 129.193 7.09501
13.0742 123.181 -5.42749
-9.74513 131.005 -9.10586
2.2081 143.895 -1.75194
-19.7084 101.693 1.26448
-22.0966 84.9598 -4.71223
19.6612 124.37 7.08032
9.9179 124.125 3.5265
-21.0024 122.801 4.87377
16.6493 131.334 -4.8117
-6.91556 132.608 3.87782
5.11396 136.234 3.85788
-2.30089 126.541 -2.75847
11.5976 125.234 8.76225
12.9066 120.062 -2.50186
17.8446 126.355 -6.83884
-13.9609 89.3572 -10.0748
-7.83968 143.981 -6.23832
14.3616 119.019 -2.46356
-12.9469 120.514 -9.75854
7.47096 133.19 1.81035
11.2704 110.585 -2.45231
-12.7945 95.8699 -11.87
-18.6253 90.4122 -9.11234
-1.00498 145.217 -2.00348
-12.4628 135.372 -5.48908
-12.6003 92.6506 -11.3717
1.55847 128.131 8.16708
-4.17964 144.004 -3.85462
14.6489 145.126 0.278969
22.86 123.873 -0.133812
13.503 119.044 -1.7459
14.8828 124.005 3.80807
-2.64486 129.288 6.85133
-9.46269 99.4654 -11.8402
16.9541 120.97 -1.39422
-16.0711 82.3714 -8.68228
10.0347 134.432 7.17015
-8.15126 124.771 8.3182
-19.3267 80.8733 -7.03772
9.75874 123.745 10.2627
-2.16784 105.368 -11.0138
-14.7399 113.607 8.462
18.1528 121.365 4.40952
-18.2207 122.123 -4.83283
17.2982 107.474 -2.10712
15.14 122.58 1.43278
-8.87817 112.227 -9.79964
22.4589 135.35 0.0809544
-20.937 138.673 5.50246
9.733 123.045 4.70383
4.82219 119.263 1.67295
-16.5002 113.152 2.35291
-21.1847 124.531 -2.79296
14.5531 127.17 -0.642449
4.54636 139.013 -3.35499
1.22546 122.107 -5.03229
-16.3923 115.736 5.46567
21.7866 128.35 2.51481
-18.1914 122.122 -4.14694
16.1544 121.488 3.172
-20.3228 106.298 -5.91232
13.6683 129.464 -2.26445
9.49381 125.269 6.42845
-18.227 88.3482 -8.47274
-17.9403 123.213 -4.18834
4.82062 138.657 -3.78176
-18.3624 106.86 -9.11266
-0.121077 146.167 -1.81613
-20.7865 94.2972 -5.32817
-8.9363 98.6429 -11.7813
-3.65125 94.8509 -7.56991
-15.9263 82.0235 -7.35997
-17.4898 125.804 -4.79928
21.3221 135.254 -1.19059
-16.7564 109.994 3.09024
6.01663 144.269 -4.51606
10.0602 142.399 2.72961
-13.0234 106.363 -11.7672
15.7455 124.931 2.20476
2.97079 144.151 5.59384
4.68637 121.785 2.59252
17.4065 125.917 -7.05312
-17.4635 108.028 4.67524
16.9703 125.674 6.70639
-15.4582 113.887 5.44536
21.7211 123.496 4.73722
-26.7406 125.38 0.961426
14.98 149.453 2.11429
-16.3285 130.631 -2.55438
-1.08734 121.359 -5.45557
13.6276 119.43 -6.96148
-9.38855 122.111 -7.55256
19.0221 133.257 -4.32155
-19.2947 94.6454 -9.74727
-1.52311 122.105 7.2691
12.9684 131.601 -0.240151
-16 143.803 1.28007
-21.958 86.5772 -6.67843
-24.9058 121.887 -0.38506
3.63279 116.243 2.96824
2.86646 114.49 -5.97304
-13.667 98.5492 -11.5761
11.1578 125.457 -5.99707
9.57792 126.395 2.00653
-17.9339 108.766 -0.940044
22.8748 125.792 -2.65248
-3.84231 145.492 -3.46408
-2.10908 93.2947 -6.76789
5.58192 128.418 3.69268
-12.7101 129.994 -7.26376
14.0294 128.313 -1.36231
-16.9108 110.223 1.27576
-18.4269 132.532 -3.89596
-3.45635 113.75 -7.26793
1.3077 128.344 -1.87815
-1.98858 94.9804 -6.67487
-29.5493 121.25 4.45229
-5.32336 117.457 8.84838
3.47101 140.867 4.5831
21.3854 126.484 -2.87763
-14.2129 82.6876 -7.96051
-19.7717 125.616 7.41419
-16.6232 115.612 4.8551
16.8816 112.7 0.365801
-11.5051 112.451 -11.1965
5.4773 105.948 0.27538
20.7462 135.551 -1.94643
13.0365 127.496 0.233102
22.386 122.822 -0.0947007
-9.63773 123.538 8.88059
11.2591 138.207 5.88033
-16.4874 106.166 5.81999
8.42088 128.276 1.01407
11.7202 131.873 -2.89667
-19.4992 132.577 -3.53172
-6.68625 122.434 -6.69649
-4.1772 132.293 -3.49398
-7.98796 120.183 -7.93627
-22.4221 121.878 4.4111
-15.4992 126.168 -3.99708
-20.9645 92.4454 -6.06244
11.5648 141.186 5.27048
4.15019 134.363 4.57478
-17.625 137.127 7.33817
-19.3997 111.247 -0.418401
-11.7704 149.699 -0.897082
-13.2688 94.1562 -11.6055
-24.2039 128.273 5.64049
-7.60173 140.098 -7.02847
-19.7647 116.007 -7.03363
-20.9073 102.016 -5.64358
-0.774602 122.857 6.79613
-6.18986 115.088 8.0785
9.67338 127.92 2.08165
-10.4358 105.476 -11.705
-18.882 123.522 4.66461
-17.5796 119.957 -9.22308
-9.45801 87.654 -9.4263
-18.2565 123.845 4.55732
-17.7442 117.713 -9.69003
14.1818 118.114 -1.50948
16.7697 119.51 2.28294
-0.0192627 140.898 -1.63067
17.9892 119.875 4.32381
-17.5995 119.785 -7.63854
-18.9773 119.526 -0.849926
-20.5334 97.1279 0.419606
-19.708 117.578 -1.38298
-10.9704 131.391 -9.06257
-20.7207 100.242 -5.74821
-15.1981 132.937 -2.93602
-7.19538 132.45 -6.48362
-2.88001 120.227 8.08538
-21.5216 122.462 4.42906
22.7177 131.287 -1.02082
22.9522 123.204 0.69241
-16.1146 128.032 5.61299
8.32734 141.111 -5.69189
17.9208 135.767 4.44511
-19.6385 108.479 -3.14543
14.9455 132.132 -5.29773
6.58924 97.4582 -5.93169
6.47013 97.9249 -6.25823
-3.94567 127.366 6.31662
-14.2134 146.225 4.92967
1.11185 120.221 7.98866
21.3883 126.552 -2.65759
1.7904 120.012 -5.45239
6.67963 123.94 -1.78883
-11.5851 147.534 4.17997
-23.3299 122.085 6.33637
13.8527 101.84 -3.79213
4.84245 105.003 0.352646
-21.5366 124.927 -2.05926
4.85061 120.964 2.07307
-25.9551 121.654 6.16838
22.7128 127.115 -4.54309
-7.75374 150.113 1.82691
-9.92114 144.974 -5.59295
10.5797 150.631 -0.683057
17.2645 133.384 5.40392
2.84225 113.471 -8.16895
-20.7571 120.868 2.43326
8.47232 121.274 -2.79129
-23.9183 127.562 5.82093
18.4505 135.492 -4.71741
21.1876 141.03 0.583581
-3.03971 140.739 -3.07517
23.3951 125.092 0.783206
5.32943 113.624 0.86541
17.1575 130.49 6.99248
3.73174 111.506 -8.63646
13.9592 131.797 -5.75824
-1.32787 97.2538 -7.27648
11.9522 129.706 -6.00609
-26.3557 126.598 1.56373
-17.4311 79.4614 -8.97016
-22.1398 122.145 4.78327
13.0701 119.288 -5.3336
-20.5752 110.797 -3.03014
3.98647 138.311 4.80399
1.40748 116.737 8.08171
16.0625 140.652 -3.00493
10.5653 146.053 3.74745
14.4039 126.51 4.72989
4.36211 125.472 4.71546
-19.5646 97.733 2.34823
18.4036 143.764 -1.44482
15.4006 114.323 -3.35057
21.122 129.136 -4.78974
-17.6879 121.181 -3.46658
18.7423 143.53 2.98358
-8.49729 136.477 -8.15473
-22.5655 121.66 5.0834
12.8462 130.984 -4.12251
12.9883 115.817 -5.44494
-18.2081 142.223 5.60299
9.0819 129.697 6.59305
-15.7822 108.668 7.45531
8.41275 121.594 9.49966
4.61465 146.473 2.24377
-10.801 89.0029 -11.0938
-5.95451 114.901 -7.14336
15.1538 123.114 -8.5512
-17.0017 137.787 -2.02134
-3.98941 108.406 -9.45882
21.5049 128.753 -4.80089
-14.0372 138.047 -3.04883
-25.1095 130.077 5.32272
-1.37288 111.689 -9.13887
12.8802 135.191 -1.34176
-0.53888 142.986 7.22441
12.0995 140.812 -5.12026
2.22765 124.538 7.52692
-18.1593 110.699 -9.93147
13.6939 117.963 -3.98225
17.4862 118.956 3.13756
-18.3222 121.803 -1.83021
-18.5912 142.82 3.97066
16.3962 147.365 2.51919
-15.8701 103.308 -11.83
-6.32858 89.5985 -7.77158
12.6267 128.041 -2.56127
-8.66774 151.966 -1.35015
-8.58274 105.625 -11.6728
14.1685 137.945 -2.81919
19.2643 121.193 -5.64663
-17.1979 122.219 -2.83452
-20.0302 120.663 -0.342114
23.8631 124.377 1.09602
-20.381 114.792 -2.01628
11.9493 131.639 -4.46895
-4.74864 92.5485 -7.56913
5.90111 130.367 3.68222
-6.42551 116.162 -7.40676
-19.7517 124.66 3.77585
-4.43194 137.515 4.30879
15.7223 123.729 -8.01619
-8.11128 119.686 -8.1814
6.12912 136.062 -4.92813
4.89733 108.245 -9.22269
-14.1839 117.709 -9.74713
-2.69689 135.703 5.15193
-17.0712 82.9216 -9.57277
5.46651 139.867 -4.50689
21.4671 138.529 1.0533
-8.50829 135.155 3.64318
-8.7554 102.074 -11.0933
22.7821 123.425 2.90134
-8.08832 118.866 8.26104
6.51287 126.16 1.31803
-5.38126 129.283 5.73426
-6.33255 114.153 -7.84238
-22.0528 86.0993 -5.71357
0.747046 128.237 8.3005
9.90132 147.109 3.16532
-17.6131 100.398 -10.7091
-9.16178 113.663 -10.0872
-8.04912 146.249 -5.62429
12.3718 123.602 -2.70383
-0.713525 135.079 -1.65508
-19.8718 112.969 -7.70229
-4.14508 141.587 4.18757
-18.3743 121.019 3.25486
-4.23145 133.645 -3.49536
-7.02201 139.838 2.92935
-12.1397 144.665 -3.5827
-18.5412 122.227 -4.08248
-8.03252 129.202 -6.72322
-1.78497 118.193 7.77357
-18.7236 130.057 -4.57549
2.60385 109.828 -9.10461
9.37437 116.641 3.47431
-25.5226 129.864 2.56809
0.677989 107.859 -9.75395
-9.18097 135.634 3.35217
-9.7752 139.556 3.8388
-13.0764 95.5382 -11.8638
9.35685 116.192 5.00757
-13.7869 109.912 -11.6152
22.8501 129.532 -3.82647
-17.4602 142.301 0.93647
5.94543 139.28 -4.97109
20.102 125.007 -4.82246
-28.9605 121.443 5.97111
15.4726 108.256 -2.75516
3.43398 138.974 -1.99399
5.07804 135.052 3.46107
9.29729 148.199 -5.11989
14.3522 109.858 -3.4933
-14.0865 82.3795 -8.11177
7.68809 114.986 -2.03517
-17.6245 117.609 4.16378
12.2502 133.355 -5.94854
-7.43769 143.194 -6.34153
21.4314 125.275 4.63947
-15.4393 144.339 1.62397
-19.1922 134.118 6.23446
-6.40477 110.374 -8.8041
7.65075 105.414 -6.98853
9.61548 126.903 -5.86322
13.6628 125.589 -2.50369
8.06702 146.514 1.26708
20.6462 125.472 4.1685
-14.3638 98.9601 -11.302
17.7445 131.746 6.83797
-3.89458 143.531 4.32209
-18.4356 120.226 3.17003
13.6699 133.468 -4.02429
8.16648 149.647 -4.35564
2.96514 111.377 3.05175
-0.0716791 97.696 -7.21815
12.9485 133.857 8.14843
-19.9354 133.418 -3.56474
-24.6051 126.324 6.45112
-16.2519 124.486 -6.43044
-25.2201 131.194 4.99112
8.63675 129.45 1.04855
-17.6264 107.805 4.50815
9.94355 149.018 2.91077
11.4152 131.131 -1.65979
11.6744 128.165 -5.58651
-16.6816 93.6063 -10.3658
-21.7179 88.3716 -7.1082
-2.03545 115.29 8.51968
5.87007 107.211 -9.14068
-6.17271 133.705 -5.26561
-18.4866 130.156 6.3542
-0.78818 137.22 7.56279
-1.0652 122.235 -4.55324
-14.1753 131.382 -5.52031
0.436032 102.544 -9.76386
21.6254 129.716 1.89851
-19.1865 106.455 -3.94181
-10.1566 140.695 -6.24496
-22.8622 121.339 4.72661
14.1406 108.704 -2.78202
13.8598 120.906 -8.0224
15.4417 125.028 4.15651
-20.1942 123.192 -3.78275
3.67975 107.26 -10.0318
-0.204821 116.801 8.0946
17.6873 124.127 6.0454
11.735 140.092 -1.45092
12.9638 130.585 0.583111
-3.34754 131.617 5.61273
12.2697 133.831 -6.01303
13.7263 127.857 -1.84132
15.6618 130.872 -5.56751
-14.3653 88.2479 -9.82123
14.3301 118.442 -1.90151
-4.38931 140.192 -4.24946
-13.9515 145.278 1.07929
-10.9637 87.5227 -10.8073
-13.8661 142.657 -2.04473
-21.9969 118.023 0.48627
13.2554 134.346 -5.37868
-15.6616 141.715 7.02429
21.2184 137.416 -0.53727
17.0026 122.533 3.09313
-18.0049 112.912 -9.91064
-10.2095 142.024 -5.60194
-8.70729 94.5785 -10.2492
-7.23081 146.375 -5.5393
-12.9844 139.644 6.3079
17.0687 118.85 2.33006
12.7765 131.514 -4.88677
8.24267 103.973 -6.76854
8.9407 130.074 -5.51998
-16.0338 106.866 -11.4244
9.60332 129.687 8.53287
8.14464 115.849 -2.7992
3.98061 135.079 4.77069
-20.4007 107.065 -6.4532
-11.704 123.058 -8.18735
3.03595 107.069 2.51712
14.7817 124.055 -3.90311
11.3716 137.675 6.89519
7.31432 136.45 -5.12629
-19.1202 107.167 -3.54299
-17.947 126.368 -4.01285
-20.3483 122.682 5.26197
9.821 100.749 -6.75307
11.8933 142.706 -4.02242
-0.516035 132.468 7.79815
-20.6352 83.997 -7.51114
12.3397 148.853 -0.291941
16.0719 139.02 -3.76914
14.9898 149.944 1.44312
21.0778 134.964 1.21259
-19.5095 139.878 6.22219
-14.6452 139.806 -1.00417
2.43465 133.646 6.67702
-8.32115 139.552 -7.31831
-16.4581 109.901 6.18226
-16.2875 122.488 6.84205
-26.4476 124.141 0.198525
14.5576 120.821 -7.69903
-13.2186 148.631 2.09104
1.22515 132.512 -0.920379
17.6052 121.31 3.9842
13.0303 120.353 -4.8563
-17.0665 109.416 1.42529
13.0927 116.258 -5.96446
14.5349 127.248 3.30244
17.5604 121.66 3.20164
-17.0232 109.098 3.50456
4.7055 99.1386 -9.03468
-2.14217 124.118 7.07502
-3.05605 154.404 -1.81662
-14.0604 138.946 -3.91422
-7.21572 88.3186 -8.23822
-0.885981 132.986 7.27297
-14.0478 145.003 1.27829
-13.4918 141.229 -1.78818
6.25929 139.25 2.05106
-5.27248 122.079 -5.60054
12.9053 150.121 0.669586
9.51719 132.248 5.54778
3.92673 138.604 -2.30604
9.53085 122.414 5.3526
22.0194 126.889 -3.71695
-19.9537 122.83 4.0819
-14.159 125.559 4.42854
-19.1654 106.385 -2.30862
17.55 125.272 4.59587
0.558792 119.035 7.67757
-15.8962 131.484 -2.81481
21.0571 122.659 3.32651
12.308 127.134 -3.72699
-18.1672 97.3208 -10.3774
4.47205 130.992 -1.21858
-9.52055 116.577 8.29364
-3.74856 108.439 -9.53166
14.0755 129.803 0.906619
-14.9377 138.123 6.99921
9.85901 125.836 5.31773
-20.237 121.22 2.14348
-15.6819 126.508 -3.88891
3.54353 109.835 -9.18372
-5.31192 129.111 5.86472
-21.2386 121.717 5.28006
10.1757 131.423 3.67841
-10.7048 151.014 0.545081
7.42719 122.131 0.8725
5.2244 131.56 -3.42034
-12.0324 129.078 4.78582
-7.08392 133.176 -6.48869
-6.12885 145.19 -5.32694
21.0696 140.203 -0.703269
17.6328 136.169 -4.98117
-18.3283 120.857 -3.36857
-13.3325 128.995 -7.3129
-15.7326 128.066 -4.49354
12.892 144.57 -0.192166
-18.0853 142.891 2.18474
-19.4765 81.6332 -7.51718
-12.14 145.925 4.96677
-0.841788 128.587 -2.11732
20.946 122.006 -5.25291
18.0785 133.46 4.89253
21.1769 126.143 6.87385
-13.6648 121.559 8.99552
0.398687 144.732 -1.71421
10.9751 149.029 -2.60628
-1.60922 133.555 -2.32247
12.53 100.819 -4.38081
12.8929 122.841 -2.62071
16.8254 128.939 -5.63377
-19.5607 122.854 5.74332
11.2263 106.42 -3.14042
-13.9389 123.119 7.32852
-14.1736 136.288 -3.67462
3.34766 136.469 5.32546
16.8521 119.061 -1.57096
0.975495 115.699 -7.95544
22.7965 122.954 2.5522
-14.0003 133.393 6.66271
-25.1729 129.875 2.16108
0.910376 129.197 -1.44169
7.19675 121.382 0.753878
5.6913 104.992 -9.05206
3.35186 115.776 3.80817
-10.2322 93.0117 -10.9564
-8.5732 133.502 3.59131
16.6147 121.73 -0.856049
5.33025 95.3252 -8.74323
17.7613 125.506 5.05921
-21.6008 136.641 2.60413
9.25744 148.392 -5.05058
14.6201 114.047 -1.38004
-22.5923 123.801 6.92092
-6.63289 141.442 -6.22263
-7.40924 134.617 3.99776
4.1117 137.4 -2.54742
20.4009 142.18 -0.744708
-18.199 123.02 -4.45747
-17.588 143.998 4.11233
-18.3209 115.831 -9.42957
19.604 136.689 3.18107
5.03686 133.596 2.99917
-20.611 92.9392 -4.96947
-7.80711 124.862 -7.20352
3.88886 124.973 5.69009
17.0688 110.07 0.390114
-1.17437 92.72 -7.33333
16.4952 146.437 -0.231281
-27.2135 122.506 1.43751
10.5159 126.75 -6.17981
-5.81007 140.916 3.74639
-20.9166 129.139 -4.49268
16.0551 119.502 6.44176
-13.2485 82.2904 -8.84968
0.279682 141.714 -1.55075
-5.89848 121.324 8.41887
1.01556 88.9355 -7.77974
-20.49 113.097 -1.84612
-18.749 139.371 0.275905
12.7982 130.162 -3.25714
3.63681 125.699 6.43968
13.6677 127.063 -4.12189
14.0259 127.187 1.18731
3.14495 149.397 -2.55752
-18.2249 122.849 -5.07759
-18.588 122.009 -1.25658
15.4956 103.761 -3.5839
-21.6221 130.39 5.26255
-16.3052 124.202 -6.4506
14.5144 120.648 -0.744445
-2.39084 115.879 8.44506
0.114259 127.118 -2.31881
6.60647 123.3 0.896462
-5.04388 145.432 -4.56602
14.6022 123.572 4.05083
-0.171952 138.434 -1.33588
-10.4946 130.127 5.15561
-24.6632 130.583 5.14607
-6.89878 142.706 -6.11901
21.808 133.527 0.692513
14.6754 113.919 2.1609
4.14077 102.121 -8.23922
-26.0461 119.185 1.13792
15.6634 122.205 7.89896
13.8114 134.679 -3.6192
-6.67132 132.133 4.07837
-14.0825 117.898 8.66292
7.496 119.803 -2.63222
-2.00111 108.491 -10.1562
-22.9606 127.783 -1.72287
16.0113 133.414 6.86895
-16.8356 128.773 -3.18637
14.7123 147.058 0.362909
-11.2255 145.981 4.52365
3.98293 125.403 -1.37729
5.90839 108.582 -6.58096
10.18 134.65 1.71268
-0.135315 143.549 7.10694
11.3384 131.263 -2.04372
3.38304 136.044 -1.39891
18.8637 132.558 -4.35072
-17.3015 143.863 5.3275
-23.3656 126.405 -2.61502
12.5391 134.484 8.28895
10.4615 110.969 -2.16823
6.09746 127.519 1.90384
5.35197 117.788 1.01435
-26.2549 129.529 3.41913
17.4299 133.709 5.22618
13.5247 132.133 -0.617616
-16.8117 128.286 6.58939
-5.45634 133.123 4.52327
23.1195 124.511 -0.144769
-6.4993 90.3663 -8.04172
-8.9946 119.381 8.26207
-18.6683 119.721 -1.79351
-17.163 109.08 4.70618
-6.64058 120.393 -7.30898
15.0925 124.465 3.34345
17.9238 143.922 -1.10635
-17.8989 111.267 -10.1309
-11.7558 150.272 -0.0313347
7.60307 154.728 1.37472
-25.585 130.215 2.75989
-8.50852 119.549 -8.2805
11.9036 123.086 -6.01372
13.0777 144.611 5.34454
8.8368 129.861 7.69763
-21.5212 119.288 -0.471147
-20.4151 130.008 5.58307
-13.2521 119.016 -9.95568
-20.8073 101.696 -2.99944
-27.6609 119.583 3.85873
-14.485 125.482 -9.15995
-21.0208 123.347 4.89833
15.5885 135.876 -5.34662
10.7951 135.174 7.77531
9.23389 126.574 1.39778
4.18177 111.385 -6.85482
12.8903 146.58 -0.595954
-18.402 103.523 3.49388
-5.11894 127.128 7.03936
22.5665 123.174 -0.132581
3.35908 115.962 3.94881
3.07714 111.439 -8.73117
-6.35314 135.629 -6.55035
-10.3792 139.928 4.23087
7.31438 125.873 -4.16681
-20.2352 107.82 -4.4851
15.4691 122.269 1.71614
14.9724 131.632 -1.9634
8.81366 148.069 1.65437
19.4647 119.894 2.91491
-19.9104 138.889 1.54013
13.857 133.927 -5.79795
-3.10472 118.775 -5.57414
-5.53263 91.1507 -7.35681
-8.47596 86.4835 -8.39036
-18.2306 112.694 -9.67941
3.05372 132.068 6.01353
-28.7309 118.843 5.44
-4.01843 112.698 -7.67301
-2.5912 143.473 6.52748
-19.372 117.007 -3.81255
21.6433 139.503 0.385578
-9.83551 150.065 -2.98953
1.05194 124.45 8.2551
15.1225 122.566 1.62146
-13.8169 141.198 -0.990684
-21.8926 87.9382 -6.17694
-26.9863 121.809 1.44248
10.0826 119.176 -3.78199
11.7749 127.1 -6.51255
-1.16396 110.056 -9.75852
-13.6555 110.331 9.14087
12.246 120.73 -5.88907
13.6457 117.958 -4.25481
4.791 100.457 -9.11347
19.4934 144.456 1.12337
-17.356 123.089 -2.63332
8.10598 130.094 1.16393
-11.017 140.738 4.50344
4.44662 144.107 3.89838
-1.44027 133.35 6.50776
-15.0838 144.733 1.90084
16.1966 128.763 5.35217
18.3721 121.039 4.82612
-15.2804 82.8079 -7.34034
-0.462506 130.531 -2.21542
-21.4028 135.189 6.56246
18.4663 131.348 -4.5269
4.87821 109.853 0.645821
-4.85437 96.9848 -9.93098
-4.07759 140.56 -3.9656
5.67552 134.175 -4.18921
18.9739 121.627 -6.02483
-21.9455 137.548 3.13916
-4.55023 126.086 7.85992
8.44654 131.911 1.10728
-16.793 105.722 5.37031
-5.16151 137.833 4.0868
11.8106 127.54 -2.53838
-15.1256 125.103 5.07292
4.03618 137.598 -2.45963
-10.2198 151.721 0.0476873
-12.1537 129.048 -9.70216
20.493 140.379 1.8701
-7.43579 137.83 -7.82809
4.31324 110.813 -7.72543
15.8167 122.794 4.93012
2.89047 151.757 -2.58014
15.4857 115.775 2.07207
-19.1911 80.5695 -8.2904
-18.7542 116.806 -8.87274
11.4382 115.72 -5.00783
-13.198 98.5884 -11.8304
8.37827 115.731 1.63342
-16.2688 130.115 -3.30758
20.8033 122.119 4.76771
4.38763 122.456 3.15105
-2.28054 139.289 7.02313
1.81705 102.116 -8.47773
-17.0678 108.841 3.03951
10.3467 117.533 -3.96299
13.2952 136.452 6.95429
8.78581 118.057 1.88358
14.268 125.722 4.89107
-20.6853 93.436 -4.44639
15.4445 127.142 7.42431
-8.21152 119.587 8.27595
-26.2644 119.452 1.23276
-18.1386 104.179 3.57697
-14.5511 83.5627 -7.93523
2.2814 118.123 -4.93072
1.87428 129.819 -1.2855
-6.07713 114.226 7.85681
0.871114 140.974 -1.38929
-2.18644 136.961 -2.16315
7.25304 135.721 -5.04239
7.496 148.498 1.06725
-22.0182 131.204 -1.19774
8.89129 150.538 -4.00616
12.4827 141.262 -1.13555
-10.1453 132.795 4.57472
5.10161 151.46 -3.2172
-10.4956 120.124 9.01415
-8.25877 142.955 -6.48637
-21.163 91.7898 -5.2805
7.75232 105.36 -6.81711
22.0116 125.174 2.83845
-2.9522 101.629 -11.149
17.4801 120.742 0.739194
14.759 140.591 5.107
4.57473 129.725 4.79709
5.68814 148.927 -4.00761
5.37649 131.41 -3.56937
-27.2435 120.856 1.78317
-12.5485 130.169 -7.75443
-28.7175 123.355 5.49839
16.9478 120.896 -1.61087
10.9656 135.832 3.51084
11.7448 128.549 -5.9257
-19.6471 102.118 -9.30932
-16.0348 144.574 2.13699
-18.364 119.03 -4.09739
-21.398 128.785 -4.00076
-16.6129 92.2752 -10.3729
-0.451662 94.7409 -6.78983
-10.7687 95.1686 -10.8733
15.155 123.341 -0.862674
11.9619 123.33 9.86783
3.57436 139.232 -2.13697
-1.20512 91.7699 -7.25797
-15.9424 129.248 -4.64589
20.4521 130.665 -3.65919
-19.4038 106.525 -8.40216
21.7856 124.574 4.12499
-20.4538 108.787 -3.97884
-18.7784 120.722 -2.53262
10.0852 127.532 2.94803
13.9866 118.549 -3.51189
-14.5279 123.041 7.43153
-15.7454 112.573 6.18292
1.88023 146.519 -1.82843
-12.3139 131.534 -7.68152
21.5637 122.902 2.85055
-5.39608 116.486 8.82175
-15.9278 131.85 -2.33005
8.48838 124.57 8.91379
6.09665 107.082 -8.4693
6.3086 112.185 -3.59911
3.73954 118.088 -3.65602
-7.50714 121.316 -7.39396
6.47704 124.572 1.22014
15.9467 123.406 5.10058
-2.63149 137.403 5.61542
3.19935 108.858 2.5463
-17.5291 107.629 4.73247
4.22564 128.742 5.42548
-8.59815 145.311 2.27161
-12.4027 117.151 9.6817
7.20385 152.588 -2.60602
1.1428 114.175 -8.37447
18.2156 140.032 -2.67927
5.5055 128.836 4.08896
-11.183 146.329 -4.13411
9.19695 124.924 9.93199
-19.7868 88.9594 -8.74227
6.64632 122.467 0.686516
-15.0874 121.799 7.88346
5.53233 153.819 -1.74913
13.5748 129.25 -2.23739
-5.48143 121.933 8.50396
18.9389 120.315 3.48503
15.2135 123.048 8.19666
4.96136 139.09 -3.97764
16.3005 135.134 -5.68189
-9.22922 90.4208 -10.8686
-19.2224 104.181 2.12202
18.887 139.257 3.80769
-19.5246 104.859 0.358238
-16.8626 134.937 -2.30473
-19.7965 92.1487 -9.22191
-10.187 113.541 8.14182
-5.96347 116.169 8.55027
11.6269 108.817 -2.23213
-19.7098 110.16 -8.03624
-19.8477 120.498 1.9906
-16.7032 127.924 -3.36273
15.0136 137.708 6.37053
-20.7873 119.5 1.16165
-1.36016 101.954 -10.7187
-10.0736 143.82 3.74625
-16.663 114.569 3.51423
-8.01155 126.732 -6.97853
-7.10615 126.27 6.81016
-13.3238 129.97 -6.83165
-3.6139 146.292 -3.13248
-8.8756 136.889 -7.68641
-18.4761 123.931 -2.29695
20.2211 141.41 -1.46342
11.8923 141.361 -2.77895
-17.8614 118.265 4.42412
13.7196 134.16 -3.39602
-23.845 127.451 -0.930399
12.6825 104.137 -4.19655
16.4764 121.923 4.5588
16.9873 134.594 5.2246
-16.1646 130.306 -3.39082
-14.5229 104.861 -11.7123
15.7922 119.218 0.837791
10.3312 111.231 -2.17609
0.580847 136.864 7.61255
-11.5456 123.74 8.50787
-20.9235 134.419 -1.54815
-20.8765 119.747 1.0585
10.9684 117.612 -4.32329
5.17709 147.859 -3.74788
-19.2015 119.737 -1.89026
22.8789 123.889 -2.63427
8.46956 111.6 -2.70205
-23.9661 123.984 -1.00789
9.97763 125.187 4.93183
8.51877 121.317 8.18793
-7.94326 127.306 -6.60781
-16.9385 123.407 -7.16708
-7.1278 141.92 2.77279
-16.1442 125.115 -6.76473
11.7628 127.379 0.0385529
19.9779 128.185 7.33834
-14.7588 89.8875 -10.0608
-10.8892 148.349 3.67119
5.93215 101.525 -9.0667
14.0167 134.767 -6.13425
-19.4396 92.3492 -9.53
7.04909 107.43 0.748486
-12.6202 132.58 5.9066
5.8628 107.541 -8.82416
-15.9863 130.861 -3.90561
-19.5158 122.061 -2.42191
-4.28854 126.683 6.61891
-15.8296 117.242 6.75924
4.44897 147.03 -3.32468
-15.1118 116.399 -10.1196
22.5618 124.68 -3.35899
13.2684 136.258 7.01538
-20.7997 95.3262 -1.61387
-5.96687 148.515 -4.60437
-11.832 112.602 -11.2677
14.8738 131.696 7.50463
-28.1853 122.779 5.87154
7.24874 126.993 -4.36238
4.97565 141.607 -4.00982
0.86228 115.13 -8.14546
5.2116 105.527 -9.11061
10.5286 121.202 -5.52148
-21.2008 95.93 -6.09066
-14.9029 124.669 5.66817
-19.9945 90.8905 -9.06183
-21.7439 121.277 4.88273
-17.2142 125.71 4.54672
13.512 122.735 -2.35672
-10.9133 124.497 -8.00582
22.0891 130.776 -0.184039
-7.58225 110.687 7.45417
-21.1494 135.48 0.464992
2.07466 102.207 -8.3812
6.43635 126.209 -2.10983
3.97954 141.111 -2.83669
-15.1941 126.895 4.63551
-23.371 124.855 -1.56001
-15.1446 137.363 -1.93044
-22.6824 129.19 -1.25785
-11.4282 100.938 -12.0233
5.6541 125.546 2.03916
8.33492 154.727 0.680662
-15.9831 141.808 -0.207865
7.42975 122.731 -2.1806
-16.4652 125.87 -3.38155
6.54764 123.933 -1.44462
12.9566 118.646 -5.3438
9.55473 118.677 4.24502
-14.9965 82.0324 -8.90686
6.76653 139.113 -5.47186
12.1174 125.732 -6.50376
8.70077 137.251 -5.54138
0.132781 119.816 -6.29882
-20.2478 93.9557 -8.95102
15.5289 117.586 1.04248
20.2088 122.917 -4.88525
18.1697 120.611 4.63268
19.25 134.854 3.77216
-13.4455 115.225 9.22723
15.0692 133.38 -1.68106
16.767 128.841 -5.69695
-10.8416 127.76 -9.08146
-7.68686 144.828 -6.03932
-1.44083 91.888 -7.03621
-17.0952 109.177 4.99167
-3.87596 125.633 7.88261
9.33079 103.348 -5.75924
-2.82742 132.452 5.49492
19.2723 124.321 -7.30482
-12.0924 99.7124 -12.061
6.77096 140.682 1.63636
0.226531 129.58 8.30916
-20.8816 98.2105 -2.18175
12.1624 148.326 -1.80028
11.9848 141.604 6.4968
-16.8733 99.3147 -10.8321
-14.5096 137.51 -4.49658
21.9677 135.966 0.636637
-7.57571 128.808 -6.2764
-17.9909 122.992 -3.1234
-11.141 95.5566 -11.195
21.512 126.539 2.18254
12.7129 115.665 -5.27096
-4.68142 117.764 -5.86907
4.32499 135.698 -2.65075
-23.4794 118.116 1.18458
-0.500296 142.756 -1.79497
-4.72834 136.296 -4.51423
-20.0512 103.349 -0.44423
5.67072 96.3029 -7.89978
-4.13684 119.384 -5.1271
0.679367 130.261 -1.58162
-13.1974 120.34 -9.75568
-25.949 129.372 4.82625
-8.71576 138.79 2.56224
13.0582 130.718 -3.09223
5.9485 107.78 -8.27145
-9.791 126.612 6.58926
-19.8555 114.763 -5.71409
-20.908 93.9835 -1.50677
-2.7366 145.437 -2.54847
-22.1052 85.2328 -4.97489
12.9631 122.432 -7.89873
-23.5546 121.856 -0.590441
-6.41665 115.785 8.2766
-12.7142 140.667 -4.45548
9.02637 136.921 1.14246
-1.22422 111.505 -9.1549
-20.1985 98.9479 0.887302
-20.4705 97.9848 0.399872
17.4769 121.296 5.69081
22.0421 125.635 -2.70507
-20.495 123.916 3.89647
-7.76976 114.274 -9.19296
3.68903 132.852 4.94227
-15.0078 134.059 6.70991
17.8675 130.037 -4.77078
-9.82673 151.114 1.50562
3.02224 91.0519 -8.6098
-25.226 128.33 1.57226
-24.7401 124.011 -1.08149
8.09462 130.417 -5.09644
-14.7961 130.234 -6.39326
-5.18846 120.913 -5.04792
-25.7077 130.568 3.02374
2.86209 116.018 5.84494
-6.75395 113.327 -8.34278
5.6549 143.863 -4.3251
12.8925 126.272 -2.06637
21.4344 125.39 3.68317
16.3522 134.913 5.73265
8.73735 123.959 9.94329
-12.2011 100.937 -11.998
5.40523 116.92 -2.10487
-2.0218 126.284 6.27355
-14.0267 140.926 -1.00685
-21.0105 120.49 -0.406329
-2.25098 141.844 -2.49376
-7.28485 127.061 -5.83508
-18.5021 121.199 -2.80878
16.8057 127.167 5.07351
-19.9177 112.072 -7.6367
-19.886 105.177 -2.64335
21.2676 129.925 3.43643
-24.8713 120.908 5.17735
-6.24652 87.1539 -7.02771
8.48734 112.418 -2.27567
15.9774 137.362 4.95103
-12.7204 129.879 -9.18097
6.92203 128.851 1.38091
-17.0502 126.33 -3.50189
-23.073 135.37 5.14709
19.4644 129.971 6.71059
-17.8498 124.199 -5.60386
13.7564 142.914 -0.048924
-3.71922 96.3364 -8.65422
10.8547 140.252 3.2715
13.603 140.438 5.98041
2.21971 127.695 -2.38927
-16.2046 130.013 -3.57399
1.0395 141.655 -1.34857
23.0654 129.832 -3.26155
-13.2528 121.318 9.17504
-1.7755 145.782 -2.18034
-9.52093 140.776 -6.64002
-1.5218 136.579 6.94552
9.38807 106.878 -3.61731
9.80146 101.962 -5.93628
-2.55581 95.9099 -7.19802
16.0376 118.821 1.12104
20.6584 134.754 -3.22365
-27.0516 122.391 6.33801
9.85844 128.965 2.14752
-2.56716 118.806 -5.69528
7.60796 117.434 -3.01511
-20.2316 111.383 -1.6859
20.6051 126.817 7.26663
-12.1758 108.593 -11.7749
-11.5014 101.357 -12.0052
21.0093 122.336 5.07167
-9.97622 107.957 -11.0221
-21.7277 87.1281 -7.66239
-0.848083 127.773 7.36016
15.404 130.21 -0.911436
-4.96203 150.333 -3.28367
-9.96949 143.966 3.62414
-19.6773 115.656 -6.37376
-15.4393 113.907 5.48526
-20.1326 105.302 -7.61723
-19.5623 121.493 -3.1766
-2.37257 139.488 6.97454
13.4375 121.096 -3.49108
-8.30863 135.809 -8.28367
10.5971 135.859 5.05672
9.62791 122.016 -5.36953
-12.1403 148.36 3.89052
13.0118 125.33 -5.04425
-17.1074 108.662 2.77887
-6.07407 132.877 -5.03991
-6.59754 142.312 2.93278
-18.0918 104.733 -9.88336
6.90606 152.613 -2.70916
-2.74163 138.8 -2.61491
-16.4052 128.81 -4.89432
-11.1702 125.413 -8.43891
18.476 121.525 -6.03052
8.86714 107.43 -3.88861
3.137 103.32 -8.37378
13.1337 113.153 -4.38779
1.15003 150.071 -2.20957
20.4591 139.303 -1.8887
0.501995 108.581 -9.73271
-18.5371 142.77 3.64189
-14.1851 136.76 -2.63786
1.20024 123.149 8.24934
-9.27622 87.141 -8.89448
-15.3594 118.008 -9.53315
-2.36773 111.867 -8.84835
-18.2005 122.253 -5.55939
-5.54456 116.83 -6.54251
-19.408 102.939 1.48435
-16.3534 127.429 -4.67465
15.241 133.669 -2.035
-6.99999 103.961 -11.464
13.4839 130.038 -6.33553
12.8486 128.875 -0.496444
23.4605 124.289 0.375435
-19.4383 121.059 -1.51392
-14.0674 129.856 -6.7797
-13.6222 147.949 3.21818
-13.913 139.102 -4.62429
-16.9167 106.945 -11.1989
17.4402 140.518 4.47255
16.4196 112.776 1.21193
18.2441 132.823 -4.60507
10.069 134.38 4.96781
-18.0512 93.8454 -10.1747
12.073 131.389 -0.201614
-15.9474 128.858 -3.38985
16.2137 113.548 -1.92436
-18.9777 82.7372 -9.54505
-27.914 119.435 3.76348
-20.9883 119.928 -0.87878
-16.8764 129.417 6.37322
9.27107 116.208 2.89151
-14.7314 116.88 -9.93332
2.10467 129.385 -1.51135
-17.5558 85.0315 -9.27909
-20.3949 119.795 3.2682
-1.15428 129.818 7.44222
8.69058 127.423 7.87158
-17.3999 123.643 -1.74525
1.89122 140.878 6.46309
-1.93463 153.515 -1.88448
17.0491 146.943 0.383914
13.3943 123.048 -2.49388
-3.10288 140.688 5.83972
-0.897283 125.341 6.75958
-13.7102 122.308 -9.27793
-8.29976 136.952 -7.88717
14.0672 150.345 1.54654
-9.139 142.362 -6.31623
-16.3169 126.943 -5.10191
-22.2763 133.064 1.15629
-9.5821 139.614 3.4973
-17.8969 105.504 -10.1674
-17.1903 117.526 5.41995
17.1138 123.77 -7.58691
-17.9603 124.746 5.41104
-19.5092 125.281 7.29802
2.25665 100.287 -7.30314
12.4874 128.392 8.65932
13.89 118.016 -1.15445
8.43464 129.851 1.11912
15.8739 122.847 -3.22994
19.2873 130.125 -4.17914
-19.7521 117.726 -1.33977
21.6513 124.668 -2.99839
-8.21837 133.172 3.73937
-4.73625 120.959 8.66811
3.62927 117.023 3.53553
6.31594 126.415 1.44415
20.4017 127.484 6.20624
-7.00898 127.322 -5.68971
-18.2574 123.809 4.47809
-1.21963 104.31 -10.8874
13.1536 133.582 -1.23075
20.3543 121.872 -5.35044
2.06469 125.272 7.80093
-0.24945 138.759 -1.36709
-7.78847 120.411 -7.8217
-7.4978 151.042 1.64088
18.1712 132.359 5.22217
-20.4404 100.194 -0.206146
-2.99533 130.191 6.13888
4.97552 111.766 -4.98531
-14.3836 132.7 -3.86297
13.3732 133.995 -4.44822
-4.68081 121.334 -4.71861
7.81317 131.498 1.09118
1.42274 123.639 -4.34893
-16.7855 125.889 -3.8643
11.6671 116.638 -5.04859
-19.8549 115.349 -3.109
-12.2211 139.589 -5.2201
-18.3541 117.235 -9.22469
-0.913438 131.218 7.27577
12.2135 111.879 -3.51692
13.0009 141.078 6.04534
-15.7819 127.827 -5.0199
7.23163 98.6649 -5.72417
4.99249 137.228 -3.81155
17.0961 125.771 4.30547
-18.1309 119.797 3.76593
-12.4971 94.184 -11.6859
12.2125 126.539 -6.67416
12.6143 122.031 -3.06911
14.1308 125.907 4.99048
8.35659 149.31 1.32875
18.0077 130.287 -4.72244
17.1851 135.657 4.85151
21.5351 128.999 2.7218
-8.43173 99.956 -11.5554
-18.2967 123.082 -5.0741
18.0479 119.972 2.34003
18.0004 119.634 -0.98629
-1.54251 122.574 -4.00764
-2.08257 121.275 7.76634
-20.3931 121.52 1.33662
5.51848 114.249 0.696598
19.984 137.183 -3.28264
-27.4762 119.643 2.08963
-14.041 147.549 3.70326
-2.10752 124.082 7.05355
-9.9715 140.002 -6.74955
-26.1494 127.332 2.11138
8.40754 152.453 1.20774
-9.33764 136.551 3.75227
-6.47707 148.318 -4.74515
12.9666 127.742 -6.81183
-18.6084 118.492 3.76623
-20.497 133.37 6.05261
-6.29801 124.16 -6.44293
-20.9621 94.435 -1.78487
14.8594 117.268 0.366996
-15.2681 87.9617 -9.69294
-5.43066 147.923 -4.39662
-12.2386 120.343 -9.62895
3.88313 126.403 -1.22746
3.70218 121.348 5.32248
-20.9538 126.59 -4.0588
-19.4233 131.33 5.5323
12.2699 138.565 -2.24011
4.63729 102.461 -8.52718
-22.8268 121.303 5.56631
-17.1268 127.897 -4.56402
-7.24456 122.053 -6.98331
-19.4524 116.083 -5.30669
18.4489 130.253 -4.47352
10.5944 148.99 2.97903
-24.5167 127.159 -0.485548
7.86485 145.431 -5.38031
14.092 150.65 1.15225
-6.48916 97.6183 -11.1506
1.31836 134.779 -0.909419
-26.016 126.622 0.756759
-13.2429 120.937 -9.57496
-3.89686 100.907 -11.3081
-0.710034 123.374 6.87494
10.083 120.168 -4.94836
-18.8686 88.3156 -8.5002
0.230636 135.106 8.08325
-10.677 114.459 -10.645
14.2951 133.447 -1.05753
-16.5014 145.029 2.91567
5.12614 134.53 -3.68604
21.7172 130.363 0.670577
-2.18488 126.017 6.4517
-10.0416 129.68 5.03008
-6.04724 110.47 7.27615
-17.4523 103.169 -11.0958
16.0763 138.728 4.68816
-13.2674 83.4408 -8.78587
-6.4122 113.675 -8.09779
-1.74564 115.212 8.47308
6.1593 110.855 0.429068
9.50136 118.179 3.22655
12.6668 145.947 -0.428883
16.7404 130.018 6.79771
16.2699 122.598 7.38894
-15.1177 96.7112 -10.7584
-2.83035 149.686 -2.25409
-12.2868 121.955 9.22922
14.0309 127.328 4.04147
-15.4378 82.2185 -9.00033
-28.7275 122.319 2.8153
18.3011 123.129 5.14296
-21.0447 122.54 4.98967
-0.873368 119.738 7.34479
-21.1418 130.999 5.63803
-20.1849 118.601 -1.09047
-13.4521 147.578 4.42764
14.7437 125.753 7.17054
-5.63312 139.567 3.80238
15.8169 122.086 3.76404
13.2274 111.014 -3.88495
-2.12153 128.761 7.27537
-14.0346 146.267 4.96071
1.47959 140.252 -1.41143
-5.64078 133.462 -4.75033
-12.364 89.127 -10.5717
11.1827 100.254 -5.84627
-1.44714 122.571 7.11503
12.2866 140.115 -2.24727
11.0164 121.895 -5.54665
-21.5092 133.727 -2.07644
-20.9478 139.306 3.46539
-12.7466 144.557 5.90337
-10.8122 104.812 -11.5606
-19.586 96.1523 2.02641
21.29 139.298 -0.606177
-14.4783 146.084 2.20043
13.3037 122.921 -2.56826
11.4874 113.43 -3.73488
2.25342 130.049 7.42037
-4.44039 98.0784 -10.3449
9.05337 117.609 2.32011
-14.1926 135.989 -4.4465
-5.21236 110.523 -8.35163
-18.2339 112.217 -9.75221
-3.54514 127.045 6.22117
19.6567 138.174 -3.14731
9.14007 143.809 1.43272
-14.3576 126.253 -8.03153
21.6686 124.333 4.31336
-19.6825 102.313 1.05064
-18.2393 141.741 6.19497
1.23272 115.041 -8.01861
6.26864 120.677 0.816906
-3.84098 138.558 -3.88009
-17.315 126.808 7.00874
-17.6603 97.1987 -10.5835
-20.8179 94.2029 -0.90783
22.745 124.328 -0.4884
6.35158 130.049 2.54496
-8.91587 113.684 7.93685
12.1207 117.956 -5.52968
-25.8303 128.291 2.41816
22.6392 125.524 5.09885
15.0265 103.55 -3.82649
-4.37429 116.207 -6.23154
-19.6133 83.0892 -7.56562
-16.2095 137.88 -2.13862
-7.77968 123.064 8.9508
-7.54274 131.3 4.38403
3.58375 131.415 5.32086
-16.1288 126.568 -3.38113
-24.5192 126.159 6.49441
-22.0983 133.117 0.334027
-18.5246 120.771 2.93802
10.8588 131.844 -5.57524
-18.001 134.871 -2.57489
14.8446 133.541 -1.5546
22.1073 125.745 1.56941
-18.598 118.027 -3.05737
5.15501 121.796 2.10147
-5.81362 124.679 -5.5696
8.6033 101.872 -7.65346
-29.0585 119.262 5.46555
-14.0019 139.931 -1.65364
12.1475 141.936 -4.03094
13.6591 123.775 1.13011
15.041 128.74 -0.828967
0.557686 146.763 -1.80737
19.4846 134.988 3.58072
-4.09952 92.5804 -6.77382
-16.4166 142.157 0.0786108
13.4238 136.9 -4.09784
14.4077 135.912 -3.26127
-20.3873 125.633 -3.26734
-15.4798 80.854 -8.91898
13.9547 130.882 -2.40929
17.4903 124.381 6.08322
-16.8425 137.691 -2.15309
13.8816 127.427 -1.82302
-16.4828 142.154 6.70412
-16.6549 143.407 6.13578
5.05997 127.545 4.42333
-15.3596 85.4326 -10.1696
-9.0384 123.916 8.90314
4.63387 108.164 0.567229
-15.0855 130.27 5.77676
-9.70876 133.587 -8.90763
-13.513 127.233 -8.37117
-20.6106 112.114 -6.33392
22.2063 123.169 0.483487
0.93408 123.17 -4.61537
21.8198 125.243 4.79508
-14.0174 121.454 8.72208
-15.5558 122.792 7.09869
-2.32926 140.834 -2.60452
7.83513 116.205 -2.83406
-10.5933 130.599 -9.49254
-19.5255 104.724 0.488816
-3.12219 132.787 -3.0594
-13.5157 127.94 -8.67272
-15.328 134.676 -3.41649
13.6638 144.64 0.208021
13.8454 148.293 3.23726
-19.1552 117.946 2.57605
-8.02058 122.257 -7.07222
-11.7948 117.331 9.20865
4.04566 145.708 4.09755
-1.71311 112.931 -8.83957
-9.74606 137.576 -6.88586
13.9536 127.94 1.81591
-16.5881 134.987 -2.315
1.26519 89.4582 -8.04337
-20.821 121.073 0.12482
4.42272 112.457 -5.24988
-9.77982 111.659 -10.2969
5.90215 146.729 2.23121
-19.2769 108.328 -8.65855
0.213198 130.677 -1.85175
-19.0665 94.0612 -9.9229
-8.28086 103.533 -11.696
-16.9399 118.165 6.04572
12.5182 138.176 -2.49833
23.1293 125.458 2.61179
12.3129 140.76 -3.72504
-11.1669 150.848 -0.166085
14.4868 120.629 -8.06523
-15.544 108.418 7.69156
8.16165 109.688 -3.4813
-17.5386 123.967 5.92321
-8.44809 136.392 2.78191
-14.0812 140.958 6.97082
-17.5272 122.785 -3.56766
16.657 108.288 -3.13643
13.2778 129.299 -0.219651
15.3158 132.915 7.32237
21.5274 139.458 0.061605
6.45263 118.626 -2.40948
-2.94209 139.01 -2.80503
-4.74333 150.329 -3.15439
-20.2164 125.464 -3.28686
9.27862 118.204 5.96932
-19.431 98.8428 2.3135
3.12086 116.491 5.37733
11.743 124.967 -5.83265
19.4181 120.24 -0.193735
-19.0023 113.061 -8.82741
0.951437 119.491 7.87369
15.6839 129.893 -6.09858
-14.0854 145.425 1.28876
-20.1455 104.399 -1.74627
11.6277 127.176 -5.7199
-13.0873 148.589 2.87167
-8.96529 97.7348 -11.3445
13.1564 110.613 -3.69788
14.3544 133.803 -2.82544
16.4133 126.418 -6.81781
-20.5215 127.52 6.57973
19.9303 123.495 -5.15757
12.4205 119.533 -6.09934
-20.6833 113.121 -6.16896
-4.79732 142.631 3.37313
7.89485 151.527 0.972681
13.7455 150.821 0.832418
