ply
format ascii 1.0
comment Created by Open3D
element vertex 1641
property double x
property double y
property double z
end_header
8.44595 109.129 9.3569
-2.42742 90.6663 -0.24605
0.384044 101.347 11.9245
1.77631 106.962 11.9261
-15.7234 117.422 12.9128
-7.63985 88.1673 0.0990336
20.9653 103.681 5.20815
-8.96783 79.7246 2.82816
-18.2631 105.857 10.902
20.0316 114.308 4.68376
-17.1925 97.6703 -0.70645
-15.0113 79.3776 16.7351
24.2972 126.686 7.6507
-18.4145 76.1789 16.6378
-27.7233 121.671 4.25133
0.548011 87.4991 14.4016
23.7073 84.7901 10.2021
11.7393 135.696 8.03495
0.153905 121.873 13.1876
-16.3274 106.078 14.2207
-21.8607 75.4349 9.9194
-16.7976 86.0703 2.92292
-12.7506 85.4071 2.45034
4.98846 116.575 7.16156
-12.1379 93.956 -1.02668
14.1912 95.3348 19.7713
17.1551 78.2297 -4.39699
-3.44445 98.4205 -1.57794
-21.7714 124.364 7.12883
-19.4142 123.252 6.53709
22.5804 88.0285 1.81031
9.40579 88.4672 17.2023
-12.8096 128.553 10.6251
-12.0603 75.6812 3.55497
23.816 82.7804 5.2427
2.8655 82.525 0.59846
-7.64551 97.9534 18.2036
22.0539 88.4143 0.901727
-19.6511 123.574 6.30611
-17.6465 108.738 8.12139
-17.1987 109.467 9.26491
23.6585 82.8863 8.88577
21.001 111.246 8.69238
-11.1637 103.469 18.31
26.7903 124.853 6.79112
0.788886 124.609 12.5432
-10.039 110.798 17.1147
-19.7657 75.6218 15.6561
23.432 84.7168 6.86976
0.819377 88.0231 12.4922
26.1115 127.562 7.73229
10.7475 99.6916 18.1355
20.2872 75.7429 -3.6057
-21.3331 80.5963 10.0645
22.3803 85.4894 14.1376
10.6026 97.1321 19.1442
-12.3919 127.096 13.4048
2.48923 81.5879 12.6003
-10.7627 95.9936 17.7431
0.0282259 133.542 10.9289
11.5037 110.687 11.4161
18.494 117.318 13.5363
-0.125206 93.173 -0.83259
-20.5756 122.267 6.56083
-17.5962 86.8831 2.58299
-3.40013 92.1417 15.0112
3.57766 90.4923 -1.09359
-19.4114 100.056 6.52126
8.39525 99.4951 14.7378
9.68002 106.441 11.2127
-21.2912 81.9778 10.2235
-10.2877 122.772 14.9547
23.4566 84.4428 3.17135
20.4719 99.2279 16.5975
15.5298 81.9703 20.0877
-0.273669 100.743 12.4786
1.54078 119.573 12.0018
1.79014 91.0786 -0.644675
-0.760507 88.9492 -0.177989
-20.3044 125.879 9.4484
-16.3995 102.955 -1.35014
19.9321 110.011 13.9558
19.802 132.838 8.24602
-18.4488 89.7783 12.9416
2.01321 96.0689 -1.7256
12.1572 101.947 18.0719
0.0993917 97.4515 11.8538
-16.6244 123.984 8.54556
7.11777 102.137 10.6783
-15.0137 104.437 16.6671
23.7146 83.2859 5.73431
21.24 84.6575 17.2791
-13.5509 85.2738 17.0266
5.26883 92.6499 -1.83435
-2.92004 139.765 7.90726
20.9074 113.408 4.33376
-4.31789 87.1955 0.147527
14.2507 93.0593 20.089
10.7833 91.5566 17.3919
11.1291 126.844 5.88698
-5.48788 91.5114 18.3052
-14.6738 139.031 8.83835
22.7159 93.6173 9.76672
23.8037 82.9866 6.7545
-18.141 82.0162 15.6116
15.5084 119.183 14.9646
4.75456 75.4381 -0.135999
-9.02283 92.447 18.2729
6.59805 83.5629 -0.0755489
5.33501 77.5769 0.651672
-15.3257 99.6531 15.6713
-8.21247 129.396 13.4647
23.3043 84.1638 2.10305
22.8269 88.6282 11.7312
11.6657 133.678 7.99011
-21.699 123.354 3.46161
17.0591 121.594 13.7195
12.3061 119.366 9.73996
22.6435 93.489 4.95889
23.1875 82.0511 11.7566
-24.1761 121.888 4.99098
-1.03042 128.362 12.4992
-10.4633 76.0201 14.8643
-19.3469 81.6867 15.1549
1.92891 84.434 0.702738
2.49042 113.286 10.4673
-27.5039 120.749 3.11085
1.93198 85.233 0.558207
-3.55954 76.787 12.6651
-20.4902 82.9989 12.2462
14.1583 126.119 11.4598
8.03206 120.412 6.22976
0.930985 91.4312 12.8069
-19.1931 130.641 8.76134
12.8667 118.35 14.1963
3.62046 89.0892 -0.5818
5.14161 120.681 6.65916
4.55401 86.5662 13.9113
-11.59 98.7249 17.9275
-16.5434 122.869 10.9677
-19.951 74.9749 15.1421
13.0517 107.937 14.6511
21.6127 100.955 4.4131
-16.4005 114.579 10.1451
8.4113 99.5643 14.6759
-18.5568 132.357 7.94786
-8.53104 133.644 10.8417
-16.0197 97.5151 -0.633969
19.3718 115.229 6.83973
-10.3569 110.367 17.2124
-12.3554 81.4893 3.37567
-0.702395 128.311 12.4565
-18.7197 82.662 4.27283
-17.2204 88.8177 13.2787
-19.4899 128.839 9.34209
-2.77837 130.489 12.9341
-3.39409 138.493 8.39725
-24.9322 127.034 6.68964
26.6873 122.624 6.63183
-18.5674 132.876 7.86805
-10.7656 74.0539 3.69013
4.45847 88.2874 -0.532628
-21.5865 125.243 9.07808
23.0255 79.9021 0.31624
22.043 98.2451 3.25592
-12.0879 74.0552 4.0481
13.0041 112.653 13.5699
16.5813 134.753 8.81807
21.9454 98.3178 2.63473
21.7932 103.332 10.6911
12.1457 120.188 9.11401
-4.77583 88.0422 0.0508982
-15.3443 76.5909 15.1061
-1.92102 93.9815 13.7512
-6.32715 119.721 14.88
12.1399 106.496 14.5474
-0.66605 112.248 14.747
-13.7927 123.475 15.4969
23.1866 78.3155 4.5604
-5.64935 85.6463 0.898623
-11.7877 95.4387 16.7589
-25.3039 130.298 5.46712
-14.6623 111.981 16.7471
-9.56153 79.3367 3.11903
-2.18769 133.481 11.9094
0.673145 85.6683 0.490312
19.2354 102.022 17.0114
-20.0642 111.656 0.297381
-1.64735 137.733 10.7889
-6.09221 114.304 15.8786
23.0336 80.731 12.8562
9.01611 101.316 13.3381
-12.4632 82.6637 2.82588
21.1043 80.9291 -1.07212
20.7023 125.8 6.56402
21.2923 112.39 7.7633
11.3038 102.812 17.9466
0.637737 78.8229 10.2063
20.4951 103.785 3.92917
5.58873 119.782 6.55836
20.1993 79.6471 -2.35263
-10.8734 117.864 15.7941
25.628 124.548 7.37575
-5.378 138.462 9.07583
-11.8863 100.149 18.1722
13.0714 84.0871 20.044
-5.0489 88.816 17.5102
13.1144 80.4321 21.4852
19.7785 118.683 9.22005
-9.44275 126.684 14.6604
-20.0652 117.175 6.12792
16.9777 80.029 -4.58946
4.8893 94.6742 13.1833
21.9291 81.1694 15.9838
-10.2325 131.223 12.2267
23.3667 86.4914 8.86361
17.334 101.473 18.8778
23.0449 87.5096 5.14299
21.9774 86.6232 -0.340604
21.3664 87.8079 16.4095
8.12655 106.396 9.97908
-3.85609 94.8442 -0.491094
-15.7304 115.791 12.9405
6.9757 91.2553 17.8785
18.8044 76.5763 -4.15081
-20.744 121.58 5.59597
-3.51319 87.6323 0.251126
18.0081 119.192 13.4451
-5.53658 121.393 13.9937
-19.9377 121.898 2.06387
-9.44931 133.78 10.8076
-11.7597 90.881 15.5954
18.7666 120.001 10.3608
0.635045 75.3192 0.358698
-19.2541 98.972 1.3282
3.83741 137.372 7.80168
1.60247 94.1502 11.9766
20.9733 113.666 5.96133
19.9422 123.915 7.04976
-12.178 123.544 15.7328
-5.95008 87.6718 18.6807
-3.69097 115.349 15.3059
22.8836 80.9293 13.3506
-20.5137 85.279 9.472
5.46192 79.4389 17.2995
17.3329 113.435 15.5024
7.52262 87.5866 -1.34848
21.1664 110.33 10.8179
16.6417 130.014 9.16481
18.4486 88.472 19.2273
-6.09634 81.4074 16.4617
8.41525 86.3061 -1.68103
-19.9728 84.6362 5.16649
19.423 109.29 14.8745
-19.1523 94.0858 5.54039
-22.886 121.677 5.53932
23.6304 80.7293 7.69341
-19.4858 120.694 4.71927
-13.2149 127.265 9.73868
-19.0082 105.056 3.66758
-14.9054 124.367 8.73658
-3.47926 126.566 13.4166
21.3384 105.64 11.7621
1.10248 78.353 0.626953
-22.7271 136.339 6.20768
3.08279 123.689 9.52199
12.3158 126.559 10.5429
19.8836 129.191 7.24869
-2.3908 90.0342 16.2935
-3.28258 123.564 13.6833
-19.0868 90.1027 11.7951
-5.04697 128.22 14.0402
4.26849 105.332 9.22619
21.0098 111.286 7.07833
-14.8328 140.382 8.6509
14.8421 81.9418 -4.31777
-20.215 121.76 3.49192
-20.0102 86.8674 12.3514
8.44567 100.524 13.0089
-20.3892 75.3304 14.4633
-11.3237 119.93 15.4885
-17.4532 93.4518 11.7893
-8.88066 81.2168 2.62424
-11.9281 95.7631 16.6651
-17.0261 120.411 11.894
-27.1921 128.19 3.53188
23.1001 80.4122 1.16624
3.39031 78.829 0.510963
-4.4931 127.429 14.1372
-18.532 105.761 9.80592
6.96589 114.878 7.23219
21.3209 88.4633 16.3716
22.2178 96.3984 3.69085
-21.2526 80.1579 9.05154
-20.2378 121.183 6.22403
-13.7482 113.136 16.5291
-1.97578 125.035 12.9238
20.2483 107.887 5.72162
-15.4198 134.902 9.33849
21.5023 89.2998 -1.18452
-14.0156 84.6397 17.038
-15.7394 123.847 12.3265
-10.2429 112.632 17.073
-14.7123 90.8583 13.7007
3.63932 91.0265 -1.30271
14.0973 107.343 17.2831
-7.68399 93.8833 -0.29915
-0.968523 74.6807 1.40925
2.76105 80.2186 14.5158
13.5095 86.6415 20.8425
-19.4674 117.146 7.04655
6.93582 115.388 7.09565
-13.0672 100.381 17.4284
-10.4473 80.2057 3.05403
-15.7314 83.1101 2.94325
2.89697 82.3694 10.4729
14.5008 125.288 12.3658
-0.138944 82.5698 12.523
-17.9008 85.6231 14.7198
19.96 105.359 15.3238
21.6683 80.3931 16.6757
-10.6272 100.766 18.3708
-8.76931 120.644 14.7867
6.67499 114.233 7.32277
-9.56879 87.723 18.4029
-20.6148 122.482 6.39138
2.57807 95.5959 -1.71672
-18.3274 137.256 8.70142
-12.3006 96.7671 -0.834599
2.36933 112.951 10.7009
-4.09602 118.738 14.7344
12.2459 114.671 10.8607
-6.81691 90.7744 -0.134237
20.1356 78.4341 19.1118
17.7539 121.421 11.9795
0.197524 101.214 12.1346
-3.12066 99.2408 -2.05204
-5.30635 91.2898 -0.21123
-19.0409 94.2848 7.84236
2.42715 135.907 8.85527
5.09467 88.8504 -1.01983
-3.31474 97.9535 -1.48052
22.909 88.0344 4.7044
-9.45427 98.8618 18.4309
-11.299 120.215 15.4629
2.45463 80.1598 12.6829
-8.51103 84.3127 17.6479
-17.9319 95.2403 -0.0761849
22.3993 93.2624 4.42731
9.51309 83.834 -1.5765
8.48484 83.1908 -0.751452
21.3992 98.4915 0.625042
6.10417 92.5416 18.0008
23.4209 89.8587 8.20599
14.7954 98.8812 18.268
20.8213 113.363 3.48459
-3.54831 88.7864 15.5568
2.30999 119.469 10.6801
-7.95914 77.5459 14.9107
23.4374 84.6521 2.44811
-23.0127 134.728 6.37745
-20.0234 122.677 3.91728
12.6019 116.387 12.6509
16.2593 107.033 17.9047
4.48159 131.695 7.9305
0.711767 125.687 12.3544
6.18356 117.982 6.63109
19.0946 113.398 14.3816
-18.3475 116.333 8.79855
23.6403 81.7564 3.48437
4.62038 90.7515 -1.29244
-15.5928 78.8587 16.2
22.1743 100.331 11.911
19.3945 108.093 15.3047
-19.4205 76.8636 6.87169
19.2212 114.97 13.7266
-20.8448 74.931 7.808
-10.5289 84.007 2.20551
0.169295 92.7326 12.463
22.6061 100.121 8.20836
-5.72291 113.097 15.9419
22.4567 98.2246 5.80788
8.70725 78.7341 0.173913
-21.3564 81.6918 8.90952
-18.957 78.0119 5.80719
13.6413 75.3605 -2.41458
-2.19093 82.8986 1.57055
18.9866 122.88 7.71383
-0.845462 111.247 14.7577
4.79112 118.52 7.1621
12.0031 79.9934 21.6871
-5.94383 140.61 7.82207
-14.2439 122.877 15.212
20.0932 109.854 4.9435
20.3445 108.259 6.90111
-20.7887 129.994 7.93705
-15.2815 93.7311 13.3455
-4.81699 77.4146 2.53815
-27.2966 122.906 5.59283
18.2926 99.9572 18.5586
-14.6972 83.9505 2.93828
-18.9685 100.909 7.62251
-3.24674 109.545 15.8972
5.64515 88.2158 15.844
-19.7774 117.296 4.34437
-16.7316 114.945 9.68088
13.6561 118.684 14.7037
0.547183 87.4211 14.3877
18.7114 108.961 16.0723
10.596 111.294 10.3319
21.3259 112.491 9.71671
-19.0823 121.77 7.36832
-8.84444 98.073 -2.12656
15.3274 124.909 12.6279
-18.5303 122.13 4.3843
11.7294 86.0167 -3.77993
2.76752 93.3573 -1.51984
-2.28004 117.275 14.7531
23.3353 84.7078 11.7669
6.55286 77.9049 0.562021
11.0804 96.6443 19.0146
22.6003 98.3702 6.73497
-19.0472 99.0039 0.00222519
23.4846 78.9368 6.92095
-6.38323 107.446 16.6651
3.17855 131.353 8.96784
-3.66028 92.5281 15.1778
2.57766 95.2274 -1.61987
10.1204 92.6031 17.9817
26.2041 126.326 7.40972
-14.8989 102.404 -2.28628
8.37202 78.7491 0.356076
-16.09 76.5845 16.0276
12.3087 123.601 10.726
-22.0273 122.462 5.24351
-17.2109 97.5101 -0.682245
18.1237 122.408 9.55741
15.3561 92.7536 20.5296
-23.1953 123.5 6.14796
-5.1822 139.059 8.9955
-15.2996 98.4948 -0.720647
-2.273 74.5178 1.75045
12.2313 80.7844 -2.65595
-12.7072 114.08 16.5704
-2.26767 137.717 9.89793
-17.2784 120.52 3.16984
-16.5484 125.221 9.20757
-20.5585 125.8 9.36667
-17.6757 100.237 11.7397
2.04401 135.127 9.2851
-12.6592 96.1074 -0.659271
-19.8944 109.964 0.335634
-5.36858 109.992 16.5722
5.18654 127.701 7.09887
-27.4192 120.912 3.23482
1.28802 120.193 12.4064
1.29556 113.278 12.2128
-13.308 94.7082 14.5821
-24.1315 123.844 7.93338
-18.7684 75.8374 16.4278
11.4569 106.73 12.7051
-18.1713 118.34 2.65009
21.4455 110.065 12.0098
3.11482 125.155 9.82594
-16.4628 104.802 14.7447
-22.5154 128.283 7.39059
-19.8699 87.5129 8.78372
-3.3661 137.377 8.86247
-6.05467 114.172 15.8791
-4.92305 77.052 13.5524
-18.0826 91.2569 1.37268
7.96132 82.0011 17.2408
12.6099 133.419 9.06858
0.629802 76.8825 0.664196
20.6351 102.437 3.00399
-11.2394 89.5654 16.0492
8.84695 101.409 13.0528
-20.0593 116.596 5.87155
21.2739 88.0947 -1.68796
21.9965 100.15 12.7981
-20.8159 83.9338 9.73529
-2.98723 83.3077 1.37143
-18.8786 105.951 7.81995
-13.1005 124.281 15.1034
-7.33903 133.964 11.9897
9.77478 113.788 8.75604
21.2759 94.8902 1.28168
-14.7397 78.1151 4.49775
12.5314 120.371 11.5965
-7.92692 88.1983 18.7682
5.68588 99.7313 11.1573
8.44487 81.8608 18.9284
-21.363 78.6764 7.33027
-17.8329 120.51 9.78553
-20.4389 78.3009 6.85499
23.6439 81.207 3.52906
-2.38588 129.846 12.7964
-16.7073 140.748 8.34071
-14.2749 76.7301 15.5284
0.964222 89.9375 15.296
-5.38401 89.9927 -0.0791947
-6.55887 76.0455 14.2971
-16.4391 124.48 9.17331
-2.16077 136.439 11.6116
-21.3248 74.1888 8.71942
13.6748 108.658 15.8287
-4.33918 88.5739 0.0436856
1.34428 81.1699 10.0041
8.28188 90.2714 17.787
13.9494 95.8357 19.7192
6.65419 92.3177 18.0804
-17.6119 101.244 11.8547
-18.8811 93.4862 0.720199
-21.6974 124.347 7.79179
-21.5696 122.751 3.09926
-14.8528 134.516 9.60163
17.0593 106.265 17.978
-0.662765 136.974 10.9855
-18.2444 101.986 9.04531
-6.39743 90.3825 -0.124456
-27.1403 120.948 4.65729
19.5623 126.915 7.98554
-0.159774 86.6035 12.6656
-8.11899 84.8017 1.72959
-0.537464 131.593 12.0788
-9.61433 75.2506 3.01468
9.22972 93.6617 18.5013
22.6484 93.2818 10.0074
19.746 113.947 13.4801
-2.52628 119.681 14.1335
-18.3549 95.0358 0.118127
19.5717 118.806 10.9467
-17.1822 121.26 10.4123
-18.55 120.672 8.06525
-15.9947 94.1553 -0.430222
-15.4121 94.1876 -0.584447
22.3346 101.973 8.90213
20.1347 124.93 6.77958
-7.36108 105.601 16.6224
-0.571446 111.866 14.6748
20.221 76.991 -2.98043
6.65072 103.556 10.0636
-5.70899 111.637 16.2563
3.58224 87.7361 13.7996
-17.2127 95.6786 12.8977
22.614 98.7726 6.87266
-14.3495 93.7925 -0.647485
-8.42552 137.592 7.86467
8.87189 85.5887 -1.68911
-14.9589 94.0096 13.1811
-18.3952 92.8046 0.717273
-20.5116 85.2024 11.4389
5.57171 103.363 9.99345
22.929 123.339 6.89842
13.3732 79.8991 21.6183
19.096 114.983 5.07083
21.6028 93.2818 2.3689
-11.895 127.772 11.4227
-6.3368 92.3167 18.8611
-18.1085 79.6152 15.1834
-22.6097 137.451 5.6332
11.576 117.783 9.10894
-20.2746 117.157 5.61803
-13.2041 77.4602 15.8972
19.356 121.43 6.97286
22.7374 88.5086 2.62652
-18.0563 88.2711 13.4208
-10.7058 120.382 15.2945
22.1718 96.6327 13.5811
-20.0345 86.8637 4.79371
-12.7772 121.53 15.9772
-17.5791 122.745 7.73689
-24.9017 130.285 5.55978
-16.6811 82.4288 3.19271
-20.1241 78.812 15.0772
11.2381 127.344 5.89261
-2.25734 98.3269 14.4239
5.12881 91.8833 -1.6235
-17.8828 123.22 7.72404
19.5578 122.949 7.06253
-20.4448 122.292 3.78514
5.66135 86.7581 15.3654
-6.24218 88.5879 18.4369
-19.2695 123.942 7.15313
3.53172 129.086 8.67585
15.0327 125.809 11.3699
-14.9861 116.134 15.8822
-11.4428 113.841 16.7711
-3.29778 94.6775 14.7227
-0.305912 112.963 14.4622
10.9097 83.6594 20.7524
-18.2977 125.593 10.1841
-1.61956 138.178 10.2867
2.36449 111.286 10.6201
-16.0712 106.184 15.003
-16.027 86.4841 2.78296
-19.7859 120.045 4.08156
-15.1863 84.3999 2.93932
-19.6188 118.523 5.19161
2.68887 103.132 10.3438
-15.7589 99.261 -0.859255
19.6944 109.773 3.05812
-13.2732 111.057 17.1154
-19.948 122.397 2.48461
-5.289 110.215 16.5138
6.33704 95.1963 15.258
-12.9465 106.393 17.6282
20.9323 101.175 15.4431
-9.07237 109.734 17.037
22.1376 100.035 4.76338
3.70094 99.4791 11.1405
20.6188 110.939 5.5665
6.14539 91.1931 -1.81074
-18.9903 114.209 0.9113
16.0316 115.391 16.044
-14.8799 120.527 14.5623
12.5415 117.564 11.6196
-2.50923 88.5293 0.0194566
-12.8888 86.7948 2.16038
8.42697 121.363 6.189
-26.7117 129.757 3.54457
-3.39312 122.384 13.7494
-18.8438 104.982 8.79829
14.4517 119.617 15.0208
-10.5556 125.266 15.0365
1.25458 96.2533 11.5718
-5.00944 81.5126 16.1567
-17.942 92.7483 10.2276
23.3778 78.609 6.08172
12.5649 125.138 9.5629
-7.23315 135.272 9.99277
-17.8603 78.5892 4.8204
-21.2842 80.2049 12.3804
-19.2668 120.359 3.11258
-6.42617 92.5427 18.7488
2.90331 80.4508 11.8104
-16.4757 136.285 8.8516
-18.8348 116.788 1.92967
12.5438 126.805 9.55071
8.84571 103.945 11.43
11.33 92.4713 17.8405
-3.99743 98.0856 16.912
-19.2547 124.954 9.11774
-6.87378 86.1621 1.13978
22.2318 86.9564 14.1777
-17.382 123.138 8.4078
10.7377 101.32 18.3162
-28.3633 125.844 2.35433
-18.1897 76.1031 16.7794
-18.7074 126.997 10.1737
20.6632 95.1424 16.4225
6.42692 97.5684 12.4478
1.98007 122.803 11.2091
-8.45741 103.124 17.0997
19.9407 114.104 13.2133
-19.0966 105.459 2.77322
1.5547 132.839 10.519
5.00213 94.4377 -2.3833
-1.21582 112.69 14.9778
22.8975 88.3827 11.6838
-5.15624 96.6119 17.8532
-15.046 94.4041 13.1547
9.33598 85.1963 16.5502
-0.227631 136.016 10.714
16.3039 100.415 18.899
12.8868 90.8464 20.0502
-6.22912 96.5733 18.0422
-26.8825 122.271 6.39254
-11.6426 120.888 15.5034
22.4494 79.6963 14.3768
0.383109 82.9563 12.2053
-13.9698 100.663 -2.04399
2.89821 87.3003 12.729
-15.504 125.839 9.59035
-26.9501 123.77 5.84692
12.0835 128.183 9.48318
-2.16199 119.403 14.1972
16.5925 118.908 14.5056
3.67709 80.3968 15.1853
-20.8204 136.71 7.75727
26.4104 126.604 7.46684
5.81183 115.797 7.08657
-16.6982 86.4245 2.88132
-17.1435 103.688 13.6367
-0.462548 82.9924 13.5876
-18.8019 96.7512 11.589
14.1041 119.149 15.0136
20.5448 108.198 13.5064
-6.79337 127.891 14.5491
11.6875 110.844 11.5696
15.439 122.572 13.9408
-5.29247 94.8411 17.5951
-19.6033 89.1204 4.28638
6.44637 90.5211 17.5358
10.8557 122.607 6.94463
-1.87882 90.4772 13.8616
-17.5765 86.3621 2.82004
19.6404 81.005 -3.50704
-18.9377 73.4787 7.71541
-1.28596 96.1541 13.1096
23.1189 80.8778 12.5433
22.3972 81.1505 -0.44486
-16.436 114.408 9.46167
-0.522838 100.13 12.5187
-17.4194 103.098 12.8652
2.93606 83.0399 0.699286
9.22897 95.9699 18.91
-11.7003 128.964 12.4371
-12.8886 122.435 15.9843
-18.1419 96.6972 6.19749
-12.9002 84.7763 17.5268
1.22972 132.612 10.7918
21.6669 91.4362 -1.09183
-15.4585 82.7801 2.94013
1.79268 90.8449 13.2118
-16.5392 83.8147 15.6496
-19.1241 119.006 5.95526
-1.0064 89.2041 -0.16663
-7.15048 83.828 1.88559
20.235 125.309 6.57103
2.53639 124.249 10.5524
-0.60706 138.504 10.2755
4.4512 87.561 -0.283465
17.4132 79.2222 20.7396
18.5053 92.1993 19.6284
-11.1685 84.6913 2.23615
-4.83511 132.653 12.9181
-2.99325 125.602 13.2333
15.8511 89.1672 20.3664
-19.1295 103.594 4.53611
-0.899527 79.4453 11.4513
-7.20885 134.182 11.5345
-19.386 103.737 0.327301
-21.5457 133.151 7.05107
-19.2475 120.024 2.1106
10.1988 82.279 -1.87625
12.4606 116.866 11.2789
21.4294 80.8898 17.3308
21.174 107.746 9.17388
-7.71493 78.8732 15.8264
-12.39 79.158 15.8594
-19.48 103.354 5.73531
4.63902 93.3266 16.8857
5.83385 89.2887 -1.4472
-18.3816 107.027 5.98808
3.32863 80.7279 14.563
-27.9481 123.814 3.72589
-24.5726 128.67 6.10547
2.62069 103.595 10.6512
-9.10977 130.101 12.5799
-13.6846 76.1748 15.2038
-0.3034 130.363 12.1005
-19.6789 114.593 5.67928
-17.4159 121.262 9.73835
18.7196 126.837 8.41581
-16.4319 114.452 10.3174
15.89 97.2408 18.753
11.294 125.735 6.34762
8.95796 96.7489 18.9108
-0.337658 81.705 1.45958
20.8574 83.7058 -1.31964
19.7703 122.971 6.86616
-20.0459 109.526 2.98942
-1.36546 75.5087 1.38733
-10.5939 108.063 17.6898
0.110415 124.251 12.9235
-19.8559 129.267 9.00321
-22.4964 121.944 5.58109
-2.41781 89.9637 16.2478
12.3745 119.99 13.2266
12.146 129.021 6.75738
12.958 127.362 11.2401
18.273 79.334 20.3341
11.3735 126.396 6.21463
-5.02811 94.7834 -0.36989
-3.04051 104.446 15.7929
19.6511 108.488 4.0751
-15.2943 103.48 16.305
-12.243 78.4486 15.5599
-13.6688 131.24 9.78556
7.38331 82.9741 -0.10281
-10.5003 93.1557 17.0232
17.2399 121.824 13.507
20.2274 127.146 7.0051
22.4434 94.4049 4.35773
-23.0103 136.9 5.5932
20.6856 114.863 11.8337
12.8097 93.4871 18.8021
-26.1321 129.175 5.30335
12.6129 95.8007 19.1059
-17.1061 118.877 12.18
-8.77304 102.777 17.2932
15.0177 79.7916 21.4746
-21.1822 79.0853 8.88263
-17.3299 78.476 15.8171
-12.6427 129.364 10.7337
-1.23064 116.734 14.5769
-9.26513 118.339 15.6806
-20.6441 85.174 10.2119
19.6803 119.034 5.12036
12.322 104.245 17.5387
4.9802 78.3232 0.540794
12.197 84.771 20.4349
-4.00425 82.8326 16.3618
3.99256 127.221 8.42592
5.24307 93.4132 -2.02495
-9.75879 126.303 14.9306
15.4618 78.3876 -3.5993
13.9327 127.972 10.2453
22.4238 82.4674 14.6326
19.2832 97.3588 18.7689
18.0289 120.67 8.43168
3.46801 94.2536 -1.68484
1.70138 92.8742 12.29
-6.06694 100.977 -1.82967
-15.544 90.6697 0.895706
-7.10798 102.296 16.9798
-18.2751 83.8451 14.9526
22.6354 81.1035 -0.33312
6.64139 83.7164 -0.0677464
-14.0288 90.8397 14.2715
-6.70354 108.309 16.8734
22.7715 98.5924 9.76443
-18.132 95.9305 -0.114028
11.0153 121.952 7.28747
6.8475 98.7837 12.1802
4.6382 79.9458 0.154824
-7.95932 89.5811 18.5699
13.5431 83.2876 -3.93686
4.93574 81.216 0.0128203
-19.4869 90.0207 8.34982
-3.81431 78.4031 13.6194
17.7568 108.976 16.5321
3.89031 90.1865 14.6965
-12.4447 120.349 15.8145
20.4068 110.681 13.3422
16.2643 101.494 18.8917
19.5889 113.212 13.9171
-17.0045 105.953 -1.00488
-12.4679 86.1223 17.3816
22.1592 77.7378 -2.08003
0.775747 122.729 12.9367
-16.6824 112.817 9.86661
-11.5531 103.637 18.1745
-16.8783 124.713 7.60885
19.6798 87.3144 18.7044
-15.0599 100.145 16.0125
-24.5954 121.569 4.19958
7.33507 97.319 14.9821
27.0017 124.95 6.87364
-21.2528 130.122 7.46997
22.1325 84.3563 0.900835
-16.5182 139.304 8.51399
6.4892 95.8785 17.15
-16.8042 101.604 14.7702
23.2217 79.0184 9.76779
-4.87147 98.6754 17.5218
-18.4776 96.873 0.177227
1.38114 118.953 12.3058
-19.9153 85.4815 4.96449
21.7242 78.3705 16.6509
6.28884 100.48 11.0326
19.4485 85.6418 18.3485
-1.07662 101.82 14.1661
18.0748 90.3068 19.5946
19.8406 102.446 16.5822
-6.36057 122.311 14.1535
-16.6988 125.226 8.82871
-1.15726 109.389 14.8955
-17.9861 83.2521 3.50929
20.0724 121.479 5.66793
23.5013 79.0923 7.16936
-5.91966 77.8102 14.8282
-11.7909 132.01 9.95027
-6.40674 109.265 16.8971
22.8024 98.8723 8.60956
-14.98 109.89 16.5307
21.565 106.428 9.72757
-7.41861 104.427 16.7819
4.95942 95.8551 12.274
-14.1763 97.5817 -0.669428
-13.4066 127.664 9.73658
-15.5086 84.5199 16.3237
-18.2924 134.121 8.11514
-18.3631 119.387 9.71976
11.5505 82.4759 21.0122
6.15734 97.3717 12.3213
-21.4902 77.634 12.774
-20.0341 85.7927 5.9362
-20.6195 82.5186 5.98665
21.1594 113.048 6.47407
-1.61479 110.439 15.1479
-0.0413793 89.7941 -0.435051
-3.47719 96.401 15.4301
-14.5739 88.9047 14.3159
-4.74689 118.931 14.7562
-18.5893 126.496 10.3069
-11.9443 136.686 8.45598
-17.3489 132.679 8.55768
4.36346 88.5849 14.4046
21.7616 90.8706 1.40862
-16.7698 79.9353 15.8459
20.6543 112.392 12.6758
14.6852 130.843 9.45296
-0.182759 127.473 12.5303
-16.8781 123.452 9.06594
-4.81814 94.2997 -0.262298
-13.8157 94.2287 -0.588497
19.6794 82.7925 17.8632
15.1414 135.904 8.71732
-17.1257 115.969 10.2671
10.6305 103.309 14.451
-5.97443 139.17 8.35063
-4.55046 139.34 8.76638
15.1127 103.339 18.0843
-15.7671 110.361 15.9416
18.9148 119.225 12.3872
20.9547 110.563 9.55589
2.95046 117.766 9.44696
4.86027 91.7958 17.0557
-19.3396 121.009 6.59029
-14.5922 124.479 8.99434
-20.6891 83.2326 5.74703
20.482 82.4767 -2.78493
3.64928 122.849 8.41946
-17.1273 103.778 13.6173
9.79954 87.2746 -3.16691
13.2678 113.966 13.9126
19.2524 116.989 8.71013
20.446 106.057 4.76741
-18.0205 99.3617 12.5331
-18.9494 104.859 8.29756
23.1827 82.6168 11.4681
-16.0325 125.045 8.90555
11.1515 113.16 10.1657
10.6271 97.572 19.1481
9.36891 101.324 15.0901
-7.19028 112.263 16.4784
-19.9743 85.5431 5.53366
-1.3353 93.7929 13.2578
12.748 127.67 11.1823
-18.725 106.443 3.93062
-16.4189 111.217 15.3715
-18.4474 92.4044 9.73632
13.3556 109.127 15.4892
14.6781 112.89 16.9203
-0.20276 77.592 0.7382
13.55 101.713 18.4178
-19.2526 95.1074 1.38024
1.62721 100.993 10.7579
11.6921 78.5369 -1.70618
-0.0933157 99.5869 11.9952
-13.848 128.806 9.65942
2.55287 105.635 10.9603
-16.077 112.861 13.9826
4.28311 82.5371 13.6816
-20.2324 140.262 6.48605
-14.0484 99.3137 16.6357
15.7067 89.6331 20.4168
-15.1793 137.043 8.96303
-14.3424 140.159 8.51399
-2.60045 106.069 15.3455
6.15746 111.082 7.98028
-1.60356 87.479 0.233627
13.7459 126.266 11.6534
-4.77119 119.123 14.6759
-8.06598 134.272 10.0318
-21.7074 128.186 8.08884
-5.72435 88.2287 -0.0214615
-21.6255 77.4843 9.70573
6.79013 91.0494 -1.98548
-0.594949 89.2459 -0.258856
-4.86894 122.901 14.1503
12.6599 123.432 12.673
5.83518 101.096 10.8604
-14.4201 110.638 16.8065
-0.607642 101.782 13.4338
0.0540143 139.166 9.9234
-18.9641 105.587 7.10728
-19.0458 137.421 8.47341
21.8467 89.012 0.814552
-12.2298 118.926 15.8492
-21.3866 121.956 4.5864
18.6425 83.3404 -4.18961
4.09795 106.55 9.01404
-20.5637 75.3593 7.68323
22.8046 88.2609 3.51259
-5.93329 86.812 18.2735
-27.0962 121.359 1.74663
-5.51644 77.4957 2.64805
-5.85783 78.8257 15.3001
3.86492 93.1254 -1.64631
3.16504 92.7443 14.5149
1.76354 129.76 11.062
10.622 88.433 17.71
1.38707 114.958 11.9221
1.9283 117.46 11.3127
14.4884 109.88 17.5801
19.3147 119.59 5.89422
12.5765 121.76 10.613
16.7734 104.972 18.2668
-18.963 139.222 7.87494
-7.48038 86.1436 17.7138
-19.8136 124.631 3.28557
3.44655 90.6785 14.5575
23.7429 82.2331 7.84046
-17.8216 98.6818 8.12159
7.28517 117.325 6.74023
20.1057 107.18 4.56342
23.4273 79.1418 9.39491
-5.46293 73.99 1.96286
-16.9775 111.021 11.9134
22.1725 91.3289 13.3897
-2.89293 81.4269 14.4834
-24.2896 124.046 6.64622
-5.7054 138.568 8.99388
-25.4982 129.372 5.71432
11.0984 104.294 14.3981
-11.9955 126.315 11.9458
17.2134 88.9937 19.8343
-20.3094 137.266 7.88613
-19.9644 119.007 4.77181
-12.2954 83.779 17.4976
-12.6661 122.611 15.9208
-18.3994 93.6869 4.2252
-14.3083 76.8382 4.55398
-0.867135 100.88 13.2857
16.5953 92.6713 20.2143
-6.55235 122.995 14.3502
26.8584 126.976 7.53167
12.5826 83.3227 20.4798
1.39162 96.5027 11.4996
-14.3209 103.866 -1.99518
-7.13862 92.7937 19.4349
-16.6654 113.274 10.8937
21.2794 103.882 12.155
1.64645 80.2761 0.393419
-5.73975 107.403 16.551
0.305826 103.738 13.5552
17.395 87.4086 19.3532
8.21084 99.8307 13.4578
-14.1954 124.863 8.80703
-13.8837 110.138 17.1566
0.880771 121.179 12.9699
6.96254 91.9104 18.0345
-14.9973 112.631 16.5787
-1.83189 98.6501 13.7631
23.2516 85.0686 12.057
-15.7414 105.482 16.3606
-19.7334 124.393 8.79933
0.895861 86.6034 11.3841
-2.82891 108.709 15.7217
9.76142 125.333 5.42566
3.00089 81.9136 11.5654
-3.57135 89.303 -0.0312201
-3.82626 83.4245 16.5493
23.1104 93.3641 6.59384
24.4821 124.66 7.48168
-19.975 107.129 1.84014
3.82415 80.2809 0.139483
9.06542 86.2938 -2.25875
20.1028 122.363 6.09616
-0.124879 117.308 13.9391
21.8775 78.9131 16.1704
-18.6029 121.145 7.09108
-17.673 134.388 8.9666
-11.0313 108.598 17.6506
-19.6079 111.971 5.72243
23.687 83.749 9.39049
23.0645 90.6305 6.23262
20.1213 110.602 13.5788
-2.12708 138.484 8.79627
13.065 114.93 13.6194
1.79472 105.868 12.0995
1.81866 75.0251 0.110844
-19.2856 89.4434 1.73544
-19.545 124.189 3.03413
-19.5569 101.699 5.01733
-15.3853 133.605 9.56688
24.0007 121.45 5.5134
22.9786 86.2036 4.09323
21.1181 113.144 6.01541
14.1936 84.4509 19.6755
-20.4516 76.4034 14.7763
17.4002 98.147 18.6469
0.182482 119.041 13.7639
26.7982 127.886 7.56892
21.7336 97.7325 14.575
-19.8129 124.125 8.69179
4.0614 109.448 8.71023
1.36921 139.11 9.65422
-19.4751 123.612 8.25687
16.5207 134.414 8.77601
20.0559 83.4888 -3.31353
-6.04338 78.2147 15.1357
-11.1885 104.24 18.1999
21.9466 92.3622 13.4696
-4.47132 126.804 14.0993
-17.7553 92.629 10.7881
22.9616 83.0738 12.7969
-11.0696 121.268 15.3214
2.06454 135.383 9.17266
11.2652 114.107 9.93464
-20.1832 113.908 4.39293
22.5841 99.9212 9.85712
2.41526 129.993 10.2974
-20.6902 79.5749 14.4159
-13.925 85.0638 16.936
3.5628 85.4839 10.9676
-7.73974 83.6291 2.15928
-0.0468779 79.5627 10.7897
-11.7615 111.647 17.2456
-24.2057 134.668 5.15035
15.956 110.815 17.629
-21.1008 82.3795 7.22844
-1.53378 91.2249 13.4567
-0.234961 95.9022 -1.12793
-19.7496 136.386 8.15197
-16.5448 132.24 9.09835
19.636 117.961 8.668
-25.902 131.578 3.88117
-12.7078 98.7781 17.1347
12.5192 120.183 10.307
13.1056 81.8503 21.0629
23.0577 85.4265 12.6639
-18.5858 91.5964 3.62107
-20.398 84.3639 7.7472
3.75032 130.474 8.38352
-16.6973 101.976 14.9343
3.93852 129.841 8.30483
-5.03153 82.1207 1.75831
-1.06095 112.539 14.9387
-1.58521 100.574 14.438
20.063 105.455 15.0317
-17.1891 123.854 6.97822
23.407 84.7326 2.67956
21.4896 99.8756 1.84612
7.35012 115.782 7.09868
-15.8465 134.867 9.27822
-5.54271 82.3382 16.5672
-10.4971 82.5923 2.44727
-19.3735 91.5104 8.32759
20.9862 110.976 8.85076
22.2518 101.867 9.82515
1.87893 90.2154 14.8595
22.9173 87.4325 12.5035
1.92294 91.2348 13.3827
1.43019 138.391 9.76682
-9.40906 76.8537 3.05049
-18.3911 88.784 1.84187
20.1476 81.2993 -2.98416
14.4856 80.4404 -3.50768
-5.80885 101.442 16.9345
25.0022 121.596 6.12953
17.4217 101.832 18.6873
-18.8398 124.483 9.39762
-28.2866 125.098 2.11174
8.7733 124.909 5.29151
3.77182 135.723 8.28665
6.27503 89.1156 17.1404
18.6388 117.578 4.90679
-9.97895 95.1004 18.4301
-17.957 122.73 7.0501
-14.8752 124.458 9.15578
-8.40237 77.8795 15.0004
13.4707 116.19 15.3315
10.1521 124.772 5.8289
-22.7941 121.813 5.82706
-18.7196 106.164 6.58761
21.2587 108.973 10.8234
20.7947 78.9232 18.2193
-18.2943 122.922 8.19736
11.0092 90.959 17.9001
-16.4951 107.57 14.3488
-26.8346 127.884 4.98369
19.5687 96.0983 18.7368
0.0847782 97.9783 11.8454
-5.21171 134.532 12.2484
13.8661 133.789 8.55253
15.8546 96.2159 19.4341
16.9413 113.013 15.8442
12.3536 98.099 18.5072
-9.38962 78.4056 3.11976
0.826961 83.7775 12.461
-19.2905 122.892 4.86058
21.8561 93.4178 3.14562
-10.6194 97.7379 18.4894
-4.0216 115.933 15.3016
-19.7696 122.153 7.5218
-2.24363 83.4424 1.32711
22.652 94.5491 5.11202
3.30941 108.022 9.2536
-3.94447 79.2009 14.042
-8.20477 96.4602 -1.65834
21.5338 89.2082 -0.935421
-13.5258 89.5965 14.856
-13.9154 124.793 11.1808
19.009 115.069 5.21984
22.7195 90.1297 5.15097
21.813 100.181 13.471
17.7333 117.233 4.66362
-4.46481 91.8273 16.3109
-2.49163 112.605 15.3796
6.41548 88.343 -1.31378
21.1895 112.088 7.00924
9.23361 80.6773 20.6302
-16.7909 90.5454 13.2432
16.1657 124.234 12.8935
-12.2011 126.447 12.3478
18.9566 116.721 8.0783
19.3144 76.8728 -3.61333
-20.6322 83.9696 8.6698
-10.3665 99.3982 -2.25014
14.5227 125.928 11.3839
-19.7603 122.805 3.04341
0.624167 91.0385 12.8497
22.7374 94.6788 11.1277
-12.0114 108.949 17.5427
-12.1783 126.04 14.6686
14.3815 104.545 18.1278
17.0008 134.531 8.60982
-12.2375 139.751 7.2556
22.2158 77.9407 10.7238
-19.2881 121.08 3.55643
23.1266 126.283 7.78689
-17.5061 101.332 10.5655
-11.9273 113.573 16.7024
3.96459 95.7837 11.9526
-5.83595 84.6221 1.21478
20.1044 98.8558 17.4446
-12.1275 122.172 15.8131
-18.7327 111.528 7.02218
-15.9494 120.511 13.4503
-1.32545 81.3099 1.74879
-1.91072 99.7861 14.7052
20.3673 103.453 3.61916
17.1259 98.7277 18.4699
0.311621 84.8137 12.1604
-19.3663 120.208 3.19045
16.0634 91.679 20.337
-27.7068 121.274 1.67135
-19.2245 120.082 7.67383
19.7078 119.608 5.36576
19.0212 91.5382 19.2273
-19.451 88.5213 8.61921
21.5368 83.8044 17.11
-22.0089 125.84 8.68618
-10.4793 129.341 12.6275
4.47658 119.974 7.34611
-6.94252 101.317 -1.90407
-10.7132 89.6561 -0.0971259
-17.8091 80.4777 4.53721
15.5336 116.204 15.8747
10.4322 76.6771 -0.545639
13.1341 116.286 14.9635
-11.1784 99.5704 18.5745
-7.31726 108.605 17.0991
-12.8005 135.045 9.20469
-9.1215 115.669 16.1737
-16.0925 74.5751 5.96339
-20.3976 112.44 3.03848
21.1024 84.0261 17.4031
3.03835 113.109 9.43646
21.265 103.067 13.4531
-3.69462 138.399 8.55191
-19.269 124.002 6.69242
-16.7589 138.424 8.67482
-19.5447 77.4215 6.64811
-2.9402 92.3664 -0.405497
-16.7709 123.708 10.3344
-0.920167 138.02 10.6357
11.2176 104.113 15.8205
3.56932 92.7013 16.3036
10.2489 109.701 10.6055
-12.0076 137.95 7.86926
3.14398 92.3131 13.3944
-20.1733 79.1349 15.0004
22.8918 85.4049 13.1208
-16.7967 77.0661 16.3417
22.4989 121.546 5.87649
-19.8804 99.0504 3.74435
23.6608 84.371 10.1078
-18.6646 92.1861 9.56247
21.3094 106.836 8.24003
-5.35019 135.896 9.85229
-2.79098 108.745 15.7088
3.76305 87.7661 -0.222886
17.8674 91.998 19.8412
-11.8755 133.952 9.14023
9.80184 80.5563 -1.02489
-19.4144 125.844 9.47875
-19.8159 122.484 3.52259
-15.9346 109.713 15.9153
19.9495 85.1344 -3.40553
9.35648 88.4573 17.2153
10.2069 86.616 16.9908
-6.22873 140.52 7.68705
-10.4456 78.2605 15.2969
22.2195 99.662 12.2745
12.2881 127.427 10.2782
10.4108 103.051 15.3006
-18.3495 97.4325 -0.0362248
21.5436 132.112 8.69008
-15.9019 120.827 13.3286
1.88739 88.2539 12.5362
12.9518 125.026 12.6245
12.375 122.557 11.0405
-16.8254 95.6554 12.9704
23.748 128.36 7.95984
-16.991 110.724 8.80911
-10.5681 119.11 15.4942
12.4472 81.7404 21.1912
-1.67135 91.4797 -0.337902
-10.7404 92.3513 15.9579
-16.8003 124.379 8.24267
21.5249 88.8515 -0.663106
-19.0358 123.174 4.61142
-19.6879 82.9665 13.7039
-0.83238 89.839 13.1853
3.10181 90.4605 14.2539
-1.93651 122.537 13.149
9.08128 80.6148 -0.561664
-2.64352 96.0076 14.1792
-19.0361 105.407 7.12866
12.2602 125.799 7.68151
8.61749 119.148 6.60512
-19.6976 98.4676 3.15029
-14.4546 92.4282 13.382
-19.4981 88.4458 8.39664
-17.4462 139.241 8.41248
15.9146 132.062 8.68231
-2.21729 129.478 12.7353
-4.00196 128.628 13.4655
-20.4658 139.211 6.90471
8.61247 93.95 18.6852
-6.3114 121.54 14.1411
-0.333198 108.285 14.3233
1.67557 82.031 10.0091
2.29132 104.87 11.5515
22.7402 98.9983 9.77735
20.2844 113.408 13.0431
-14.4085 94.6556 13.6498
-17.6771 87.7544 13.8706
23.2969 93.4374 7.55694
-4.00818 122.936 13.9969
-8.68902 139.199 7.30493
22.8501 77.1463 6.1781
-12.3746 130.664 10.2991
-13.524 96.1698 15.3574
-14.8657 100.619 -1.07489
22.8559 77.3823 5.14161
14.9568 86.3344 20.2905
0.902088 110.294 13.0939
19.759 127.156 7.89111
-14.1544 76.7523 15.6376
-19.1902 99.2877 1.05387
-11.7108 79.5032 3.57362
0.523492 83.2363 1.20666
15.3633 118.985 15.0822
-25.9349 122.32 5.83966
1.17739 112.555 12.4482
-14.4381 84.7142 16.8321
22.6916 92.4159 10.8439
-15.5325 143.111 8.06619
-20.5212 82.0977 12.568
-1.87556 100.552 15.0603
-8.94023 105.067 17.1022
-7.53389 90.7865 18.7077
20.3754 100.249 16.6879
-18.3712 95.3641 11.0324
14.7559 119.312 15.2315
-21.2504 78.9515 10.1941
6.80795 85.7239 14.1037
-3.14742 97.6721 15.7341
4.99528 91.339 17.0176
-0.545639 99.6047 12.3521
9.08602 120.04 6.61327
-19.7274 88.5525 5.70969
-7.63987 127.299 14.082
-1.72896 112.821 15.1474
9.80815 118.388 7.38729
-4.95201 114.046 15.6422
-14.2564 134.813 9.66943
3.30553 85.1793 10.5607
-19.1609 82.0801 5.0715
4.23846 104.651 9.3738
4.415 89.4499 -0.944242
11.0083 107.733 11.8984
-19.8098 107.173 2.67253
8.17077 112.565 7.96928
-0.709881 127.75 12.56
2.41096 88.5531 13.2225
-26.2264 130.031 4.44397
-17.9836 103.458 9.79637
-5.79022 88.1744 17.9736
17.7119 124.803 10.231
-10.5513 95.4317 -1.35027
-18.1219 98.0638 8.44492
0.695805 138.685 9.87128
20.3998 87.923 -2.89484
-24.1866 123.688 7.04289
-5.28276 95.7984 -0.62188
-15.4696 77.641 4.75841
7.51205 97.4009 17.314
21.4752 82.3473 17.1632
18.6082 94.5752 19.4165
11.56 97.795 18.9985
-19.4299 120.23 3.58159
2.90016 80.2312 0.259847
-12.9999 78.0998 3.79851
23.5884 76.6699 1.68459
6.51502 112.59 7.69243
-5.2357 95.285 17.9594
-18.3973 95.5117 0.143247
2.48864 87.6749 12.6315
-0.9606 97.6432 12.6815
-18.8754 108.126 4.52479
-19.4747 126.085 9.68075
6.42687 90.0599 17.4176
-7.0481 101.134 17.3294
-15.8614 129.187 9.25949
-12.2491 79.8504 3.50648
-14.3521 77.5749 4.54925
12.6297 118.677 11.3547
-17.092 110.372 11.0862
19.7961 90.5299 18.6865
-10.0365 76.5318 3.18004
16.2732 125.404 11.5961
0.498473 91.2685 12.822
-27.5045 126.712 4.42929
-12.5244 107.998 17.561
-12.9531 77.404 4.1609
12.8984 113.578 12.7964
17.9626 117.358 4.62829
-21.5462 138.012 6.58557
2.35211 116.449 10.3837
8.68066 104.097 11.219
13.7408 94.902 19.4167
-3.08453 81.2629 14.5169
-14.9185 82.1698 3.0065
11.0859 109.951 11.2126
-19.9706 122.167 5.78863
-17.168 120.869 2.2507
-22.0231 136.034 7.0647
12.6227 126.628 9.2471
21.5057 91.3464 14.9998
0.527757 101.182 11.6038
-5.69029 130.244 13.4327
20.1369 114.575 6.04384
4.28358 93.0881 16.989
10.0941 79.9138 21.2174
22.6116 85.685 13.6378
6.40424 108.427 8.62045
-19.0625 118.953 7.82086
16.1401 109.553 17.5501
-19.6531 75.3613 7.35359
-19.7326 123.912 7.65681
-2.6607 100.029 15.8522
-6.67261 94.5181 -0.346869
19.2327 114.892 4.05105
-9.10973 77.9975 14.9981
14.0718 100.395 18.8897
12.3114 115.41 10.7495
-17.5371 106.135 11.7037
-5.06596 77.4427 2.58098
-19.4497 99.4411 2.19374
1.08363 116.477 12.8343
19.0831 83.0825 18.2027
-0.316118 126.705 12.6776
-1.83559 88.0856 0.0653065
20.5087 107.99 7.36094
-4.04379 112.52 15.6462
-8.13955 81.7804 16.4172
-19.9981 134.172 7.28512
6.68846 96.2549 14.2234
-5.0857 128.715 13.8193
-10.0874 83.4079 17.388
4.3559 127.178 8.09431
18.4766 117.382 13.5414
-4.13576 97.5498 16.9942
12.9777 114.869 13.176
21.4065 80.9912 17.4599
-16.6518 98.0788 13.7436
-16.2899 92.3434 13.7915
-17.3338 133.071 8.69155
13.1445 82.8459 -3.69499
-9.15886 85.8599 1.41601
-9.99135 105.323 17.5652
-0.654498 94.2503 -0.980732
22.7356 90.0865 11.5609
-19.7677 74.2092 7.52693
7.77132 108.22 9.12212
-20.7841 135.321 7.20656
-16.8807 140.1 8.39847
3.32774 95.2834 11.9954
-19.5764 101.82 0.729706
-6.61432 92.5249 19.0765
-15.4377 117.005 15.2768
-8.84439 98.6288 18.3258
-12.598 88.8217 15.4586
-9.03783 128.837 12.9446
-15.3796 119.137 14.9539
-21.8916 76.1571 10.6275
-16.5065 125.11 9.54549
16.6955 100.935 18.9399
-11.0913 137.587 8.10481
22.6732 125.231 7.6178
-5.6405 87.6651 18.1218
5.47314 104.456 9.48291
-17.4506 108.931 12.8499
-13.3821 124.081 15.5166
-12.9185 126.313 13.9886
15.2551 122.841 13.9014
-4.38507 94.6592 -0.347022
-18.6935 135.388 8.32149
22.2723 78.2401 11.1077
-18.9666 91.2359 2.63786
-20.7605 76.0364 14.4395
22.0095 98.6833 3.18052
19.2397 83.0308 -3.86559
-6.97012 114.87 15.9991
8.35239 125.198 5.12744
-17.6561 120.38 10.498
21.0702 94.6211 15.7962
-18.7213 110.784 6.68893
23.4557 87.4287 8.03487
-4.46423 93.1068 15.7393
-19.5215 121.757 6.4254
2.85257 102.633 9.97661
2.17145 76.1245 0.320179
0.280712 83.6635 12.8273
20.7877 89.2814 17.4193
-15.7326 105.375 16.3444
7.48909 82.9091 -0.105768
0.965349 82.086 10.2113
-4.82014 95.6348 17.5092
-19.3943 120.27 7.35441
9.75975 97.0894 18.9447
-0.393792 90.6843 -0.32854
-19.0736 104.296 7.91335
2.77931 90.811 -1.00617
-2.49062 98.0572 -1.8595
0.0672564 138.632 10.048
6.99398 123.481 5.36603
-3.90757 136.893 9.42403
-4.00705 82.2725 1.62204
11.6903 103.584 17.7618
-3.83344 133.861 12.548
21.4538 109.335 11.7493
1.35092 108.096 12.6132
9.02553 86.2513 -2.20429
21.6843 93.0302 1.4553
-15.0696 81.657 16.9888
-19.3829 114.757 6.04905
15.2457 135.508 8.8089
-18.9427 111.395 6.63275
21.3227 78.2321 17.3388
-11.9551 99.6655 17.9211
21.2869 102.115 13.123
22.117 95.1356 13.2644
23.0788 80.7372 1.39154
13.638 118.066 14.8856
-2.87188 124.706 13.3243
-3.5675 86.0997 16.7454
1.46242 83.1866 0.997359
12.4435 90.5025 19.8918
22.0652 98.1489 13.6246
19.747 106.55 2.38109
-16.5922 79.1827 4.52185
-9.34243 95.6095 -1.51663
-20.1578 87.199 5.88194
12.828 123.321 12.9208
-13.7502 138.648 8.80179
22.4836 84.3116 14.1622
8.6198 113.169 8.09585
9.85521 91.3248 17.7264
11.8048 103.15 17.8564
20.8185 114.005 6.12032
-10.6183 106.247 17.7664
1.01778 92.0545 -0.590768
-20.6384 139.727 6.50049
1.94962 128.981 10.9593
7.99714 107.058 9.6563
-11.5888 103.621 18.1662
22.7122 126.637 7.89924
-10.4062 81.3268 2.51693
15.4064 77.7462 -3.51974
-18.7057 93.6831 8.56046
21.6844 90.1723 0.81468
-6.34733 97.6341 18.0003
12.568 124.574 9.03577
17.2044 121.853 10.9737
1.36518 97.1047 -1.95981
-19.2201 94.3898 5.65807
-3.17703 95.358 -0.724998
12.2733 80.7537 21.5111
23.468 89.7946 7.32536
-18.5466 120.637 3.81344
-8.74782 94.4555 18.9685
-24.6837 121.784 3.17207
-6.13416 89.312 18.2356
-20.5884 135.46 7.35182
17.8686 80.6892 -4.59683
18.6132 117.479 13.4491
15.6127 113.847 16.6531
-19.2075 104.848 6.27203
1.93306 124.801 11.2145
-19.1795 92.2921 2.26545
-12.8087 81.9921 3.128
16.9803 109.452 17.044
22.9899 78.5568 -0.353397
21.8298 98.7575 2.3974
10.1177 79.0899 -0.805616
7.92159 92.4387 18.3407
19.4535 110.439 14.3988
-19.8544 103.25 1.55551
-14.8209 126.025 9.04608
13.6878 90.8738 20.5435
-21.1848 138.186 6.92709
5.4708 104.566 9.45624
-1.59303 106.789 14.7214
19.6955 120.855 6.25637
-13.7144 133.286 9.51216
-15.5301 91.5991 13.5037
-6.28113 83.0811 16.8041
-16.891 141.568 8.11878
-18.2406 114.345 7.35208
-20.9613 83.139 9.20342
-19.8686 107.805 1.11946
2.36966 107.401 10.8521
-20.58 80.7342 13.911
-17.2236 109.929 11.1148
7.32651 96.9149 17.7533
10.1196 86.2512 -2.94825
0.613842 109.457 13.5979
15.6222 82.0405 19.9904
2.02615 111.629 11.289
-19.1437 92.1124 8.1947
-20.369 123.2 7.47074
-1.24216 89.1955 14.8151
-4.93303 104.22 16.1946
