ply
format ascii 1.0
comment Created by Open3D
element vertex 1935
property double x
property double y
property double z
end_header
-4.98958 98.875 9.5443
-13.7283 112.846 3.9385
13.6211 106.288 -4.20297
3.75233 99.5122 9.33421
-9.50437 105.657 -6.85831
-11.3333 86.8455 3.08897
-3.42239 105.942 -6.24782
10.8314 120.906 7.30516
-11.914 85.4631 -4.81563
-9.70494 145.331 -4.1489
-4.49765 113.111 -4.0967
-3.83316 102.521 -5.49223
-14.9234 93.8386 3.24397
-1.53213 95.8446 -1.98366
-9.7122 82.4494 -4.88885
-11.2562 76.0795 0.888135
8.81108 123.637 -2.27804
25.7849 105.286 4.38964
-17.1768 121.431 7.78439
21.2273 82.1165 9.89633
21.3229 116.958 2.95207
-17.631 86.9693 -3.63205
0.514248 125.591 -2.77232
-7.00855 125.608 6.57036
-7.86789 130.577 -5.99669
18.733 79.5703 12.0921
-9.75465 126.431 -6.37721
-12.8146 76.8881 -1.22198
29.098 82.4113 19.584
-2.148 110.159 -5.08641
-15.0539 124.452 -0.530428
5.70461 103.999 -5.89165
-3.65722 101.563 -4.67126
10.5711 97.8393 6.41366
-2.18353 94.2017 -1.64607
21.2666 111.768 -1.24639
-1.5361 116.997 9.702
-11.7199 93.7319 -6.42753
-6.34737 97.7574 8.60767
15.3846 126.3 -4.21864
-15.2426 113.02 3.33382
12.9698 120.37 3.94775
-12.3129 100.029 6.20152
-15.1374 93.7673 2.9865
10.9294 87.5034 8.5193
-8.06001 124.98 -5.25521
-8.319 92.3399 4.86503
19.7148 109.438 -3.54798
-7.12722 136.846 -6.1962
-2.59852 138.728 -2.31985
4.07053 113.278 -6.22019
-1.19747 99.6547 -4.44501
-3.41224 91.0852 -2.11841
15.9431 91.2713 13.4026
15.982 117.733 4.32833
-14.3684 135.488 -2.11976
14.5862 96.9315 -2.43096
-14.1833 135.818 0.36216
-11.8925 101.613 6.76447
-3.54177 129.057 6.68367
19.0594 103.434 12.975
29.0914 80.3809 12.4681
-12.873 132.81 8.9368
-16.665 108.643 1.59569
3.15145 85.4158 7.97496
-16.5077 91.3054 1.15379
18.7597 91.4938 14.2344
29.8631 93.0162 17.8386
25.3343 81.062 16.8147
-13.5571 79.6175 1.09831
7.04458 85.6034 -1.60916
16.8026 101.732 7.64974
-17.1965 119.826 1.33595
1.88288 99.3555 9.0196
17.1644 78.9777 11.4322
0.0728862 81.0739 -1.98044
-15.7388 120.355 5.27693
-11.3747 128.93 8.72845
-1.17867 121.657 -2.62292
-6.27993 119.086 10.8492
1.26376 83.2363 5.86333
-15.846 115.062 4.34966
8.50846 81.3146 5.57061
-1.82681 112.639 8.95569
5.82002 98.1131 -4.18342
-1.09643 110.203 -5.85173
8.71328 126.303 -2.83444
-9.5394 105.829 8.60642
30.6552 96.2776 15.641
16.5349 80.6945 7.67154
12.4473 116.625 4.68427
19.7898 91.0318 14.1257
-4.24871 81.6919 3.74629
12.6397 85.0198 6.14678
-8.58855 117.043 10.3027
-13.4386 109.206 3.38675
-6.3217 125.068 8.88248
-15.0209 88.659 1.16533
-7.5863 116.334 10.615
-0.558858 124.289 9.49281
-17.3192 133.821 0.953073
16.3791 113.473 -4.91411
9.2677 104.796 -6.14085
8.02966 105.172 -6.7231
-4.57731 110.634 9.5326
-19.0615 134.12 5.65918
14.8751 126.458 -6.85618
8.37562 83.8776 -0.988563
13.2043 105.432 -4.46315
-2.78375 91.3608 -1.7361
-15.6616 119.498 0.53321
-24.129 118.691 6.53318
-15.3689 82.7725 0.455876
-15.8425 121.028 2.30815
-10.8516 83.7404 2.84356
25.1078 97.0518 16.7068
-4.89866 116.679 -3.39968
-8.24805 133.621 -6.62618
17.5063 80.7473 8.47672
-12.8725 100.79 5.9015
-16.3233 81.5509 -2.76318
14.0526 113.112 4.39163
-13.6473 128.12 -4.7469
-17.6236 83.8287 -2.15538
-11.743 92.799 4.01132
11.0414 84.1854 5.88167
25.6139 95.7502 3.97983
-14.459 86.2664 1.56548
16.2193 80.4333 8.60595
19.6649 81.8857 8.40768
21.0118 87.5134 4.50895
-20.8589 126.026 1.05019
-15.1537 127.425 -0.349867
-11.041 84.163 -4.08777
6.28242 115.216 10.0749
-9.29495 98.728 7.58959
1.78584 123.25 9.07538
-5.19534 112.289 9.37178
29.3418 89.0218 8.42039
6.5928 92.143 -2.99155
-15.9996 122.325 2.72263
-15.6031 112.358 3.16621
-12.029 135.885 10.0565
-14.7047 142.926 7.37964
20.8159 86.1154 5.06971
30.6559 81.7926 20.2787
6.70729 92.3343 -3.10307
-8.79806 96.8458 7.04478
-10.3463 107.161 -6.11196
-2.08549 76.4189 0.484096
-17.4893 134.961 3.65541
0.00416888 81.7246 4.45922
-15.151 81.921 -6.04031
1.65636 80.9542 3.7856
-0.507242 126.568 8.65809
12.3737 129.553 -6.91064
19.9673 106.676 11.5943
7.48382 127.496 -1.83368
-9.91988 105.354 -6.61121
12.5268 105.715 -4.85167
-11.4199 125.742 8.50111
-6.86202 139.375 -5.53627
-16.2198 97.815 -6.07413
5.29011 101.034 -4.48059
-21.0721 127.469 9.74944
-6.46737 117.409 -4.52813
28.0865 94.0886 17.5865
3.08856 131.461 -1.39044
8.01775 106.273 9.15086
13.6666 111.956 -5.26775
-3.18719 140.186 -2.65206
-21.1304 126.407 3.20887
-4.73776 108.043 -5.1636
-19.0676 112.179 -1.808
16.2241 83.4295 7.21324
-2.31232 102.589 -5.62906
22.8345 98.6964 15.6538
1.2564 105.457 8.25389
32.4372 86.1746 16.9545
10.5376 121.839 7.65698
-4.27377 82.7268 -1.93851
19.7697 86.7975 13.3904
-7.28513 96.2713 7.34222
19.5918 103.478 -2.93543
30.4223 89.8909 9.01479
16.0867 126.14 -4.49928
6.83088 108.332 -6.48004
31.2212 94.8048 15.3441
-20.1107 116.974 4.45279
12.8712 108.134 5.3259
19.4098 124.776 -7.70086
-22.2945 117.283 6.28051
17.1924 80.6426 8.93043
-0.925222 105.641 -7.17189
-10.104 84.1523 -3.41777
-2.79203 84.86 5.3831
-6.88108 111.466 -5.79399
-7.92133 83.9814 -3.68662
-10.3717 79.9559 1.60352
-11.3838 125.331 8.99445
10.6827 102.598 7.55745
12.4462 107.991 -4.47772
2.17243 134.048 -0.882667
-11.4036 110.545 6.67359
-4.53119 90.8558 5.69451
1.72871 100.968 8.64888
14.6005 87.6206 9.40961
14.8817 78.295 7.39785
-15.2044 78.5016 -0.882427
-16.8325 132.909 10.599
-8.82741 136.404 -5.61947
7.01772 97.2825 8.35827
-8.69264 137.51 -5.5163
-12.1561 92.1907 -6.44701
7.61101 122.542 -2.27655
-10.7998 123.366 7.88845
-16.2156 89.5792 0.791801
23.1118 83.4335 7.18751
-10.1676 107.482 -5.8447
-15.1666 83.0524 0.573796
-15.4078 140.091 9.60273
0.881436 122.196 -3.51466
1.09159 107.456 8.30116
31.2488 91.4144 10.4648
-0.247127 85.9447 -1.01895
21.0878 100.417 15.5062
31.2279 88.0701 10.0944
20.4002 108.819 -3.04011
18.078 85.5313 11.8162
-8.85817 104.266 -6.16783
-18.8996 134.756 8.90688
-5.97398 81.1031 -2.70558
0.59023 84.4446 -1.20985
2.26973 91.0867 9.16911
13.2622 95.5377 7.26858
15.9097 127.308 -4.61944
19.0417 122.816 -3.65103
9.16482 109.344 9.12628
9.64898 102.484 8.5213
3.01049 77.1463 2.75277
11.4482 89.4293 -1.24478
-13.1084 125.953 -5.53162
-10.9987 92.8246 4.37332
9.86296 87.0851 -1.34425
-11.0865 115.327 7.77631
13.9775 118.376 3.73621
11.9323 83.6484 0.997589
-17.3641 135.074 10.6231
-14.1657 109.845 -6.80186
-9.77952 81.7945 -5.28013
-5.19632 84.4615 4.454
-0.504823 105.174 8.37
22.8414 84.2337 14.6343
2.24296 120.725 9.06239
-15.134 131.335 -1.36137
-15.2152 103.32 3.67715
-11.2686 94.9232 -6.34694
-9.34428 85.8932 3.40449
-4.21196 120.918 9.64128
-3.84725 136.111 4.55218
-11.1684 139.435 -3.52104
32.7807 83.0283 17.6473
3.41513 124.303 -3.75628
-0.415856 118.972 9.56574
-11.5277 125.485 6.80975
-20.368 128.95 5.21357
-16.5421 111.622 2.76145
7.58768 109.21 9.65374
16.5358 97.0721 -1.61395
-4.73547 107.984 9.82069
-4.59411 80.5247 -2.48356
19.5767 107.265 10.0495
-7.92033 134.381 -6.52696
7.23006 118.039 -4.08348
27.746 79.9927 12.2284
20.0497 100.759 15.1788
-15.5904 121.512 0.662701
-20.6029 117.954 6.25313
-7.31959 110.745 10.3614
2.99729 107.978 -6.26145
28.1706 102.844 6.81105
7.09433 91.8775 -3.17295
-7.44051 95.9975 7.05999
-14.7611 79.3939 -3.80145
-18.4363 134.497 5.15523
18.7733 84.054 4.30525
22.2982 100.695 15.9685
-14.0746 136.254 -2.33256
-14.8528 112.74 3.45615
-1.10915 119.8 9.20728
24.308 92.0094 3.56989
-9.85173 134.84 -5.74405
2.65678 87.9343 8.39186
5.48062 120.874 -3.52559
13.5055 130.227 -7.36934
-8.35015 86.0225 -3.85012
-17.2165 90.4301 -0.101537
29.7191 92.6426 8.71622
3.98324 119.119 -4.63702
27.9944 104.205 6.96121
-14.0386 135.174 -1.66023
16.6821 98.7463 9.69451
-20.2088 120.605 7.7616
12.4023 87.1248 8.18504
20.2808 107.923 -3.10435
-16.0714 119.027 -4.08929
-17.9914 112.525 1.49515
-5.14939 128.798 -3.74782
-4.56068 104.071 -6.76059
5.01095 88.7459 -2.08016
30.1769 90.5078 8.85317
-8.89391 103.978 8.78811
-6.74847 114.22 -4.92197
-20.422 119.175 5.35164
-15.8825 120.329 0.120529
14.5296 101.748 6.98033
-14.4731 129.528 0.0240407
-13.2282 109.338 -6.55793
10.9157 119.422 7.40647
10.792 86.1749 -0.171722
-15.1827 122.289 -1.41662
-8.13311 96.0074 6.74609
-23.7224 118.196 6.03164
25.8156 96.1588 4.17983
-1.89954 130.123 -1.52732
-2.48476 81.7579 -1.67348
19.3461 86.9699 3.70193
15.4604 94.5362 -0.985441
14.3653 108.18 4.99656
17.9795 115.08 6.58869
8.81304 78.561 5.19943
1.88982 133.195 -1.12831
-4.73502 116.829 9.07142
25.3703 84.6033 7.16019
-14.8119 105.952 3.46514
26.6219 106.4 5.36062
-0.722059 96.7547 -2.32621
-7.30069 83.5088 3.53251
12.4827 90.0817 10.365
6.03702 121.808 8.38535
12.4398 83.2966 6.14883
25.1043 87.2838 16.2915
-16.1264 80.2517 -3.06149
-17.8541 116.572 -4.54217
23.1241 92.5911 2.6255
-4.99171 131.633 5.91357
20.6866 105.479 14.6671
-0.640959 100.747 8.59717
-7.25983 103.244 -6.01986
12.4696 112.452 -5.4881
-4.3152 91.2875 -3.26484
-0.501166 113.684 -5.51814
-17.5549 115.431 1.63772
4.75895 116.874 -4.19393
27.9402 96.6221 17.6483
-6.68365 126.938 6.80402
-16.9582 118.999 -0.13967
0.632132 133.221 -1.12385
-1.90515 138.088 -1.80218
-6.26797 86.2369 4.00922
26.8723 93.6221 16.6988
7.97496 104.901 8.71004
-11.3136 109.257 -6.51363
-7.0613 78.0377 -1.8797
9.25606 132.79 -5.10346
16.8538 113.047 5.55678
-9.91269 87.4237 -5.03077
3.52876 114.956 -5.93859
2.83867 115.349 -6.08091
-10.415 107.22 -6.08152
12.8252 81.5618 4.42606
-7.85026 131.486 -6.18091
-9.86524 93.072 -4.97246
-15.8138 86.7113 -3.15553
2.47825 103.712 8.40205
9.0323 79.3329 4.53027
-10.6896 85.769 -3.65
-9.48287 85.1837 -3.32151
2.37398 77.1708 2.4874
-15.172 121.629 -1.13882
9.23944 96.4619 -4.85046
13.5622 83.8385 1.63804
-14.7986 130.41 -0.962258
5.49994 102.24 9.00974
3.28037 77.4918 1.2474
7.37832 96.2087 -4.31647
6.52413 94.9931 8.81623
19.1407 95.4279 0.155378
2.3891 85.0716 7.15704
-3.75923 113.877 9.07272
13.2365 125.501 -6.83382
24.2956 82.087 11.4073
30.3786 81.9688 12.1919
5.84551 82.8396 -0.87062
-11.8264 108.78 6.46118
-19.5816 133.682 5.86839
17.0385 97.1026 12.7219
-17.2979 121.047 5.81194
2.87673 101.507 -5.40988
-3.33191 114.167 -3.79493
18.1575 111.731 -4.47623
7.54105 133.945 -4.89236
2.71142 79.1538 2.73589
-15.1823 97.3111 -6.25538
22.3157 100.589 -0.159049
1.67121 117.704 -5.62833
25.152 94.4254 3.77505
18.659 115.657 -4.79965
13.7392 96.5768 7.16961
-1.5064 133.358 -1.44579
-15.2959 117.735 4.86302
1.28161 94.8199 9.32867
14.2777 87.5691 9.06943
24.0184 100.398 1.68671
3.10725 123.908 -4.00016
29.6082 95.3911 17.4906
-15.0187 131.289 9.37848
-9.84453 106.083 -6.79494
-16.2848 136.304 2.38369
20.0072 105.458 14.382
-9.7113 141.514 -4.21101
-9.16584 80.6193 2.11336
4.32383 127.133 -2.56845
-3.29813 111.284 -4.40089
12.1938 95.122 6.71081
-16.0235 103.277 2.75927
-9.31488 145.307 -4.41568
-11.131 133.244 -4.2925
-3.94348 112.999 9.24207
-14.7006 121.634 6.24408
14.7791 80.0652 8.14619
-18.2958 113.821 -2.16871
19.6606 88.3316 3.56192
-6.09806 111.361 -5.41163
15.5026 123.057 -5.44603
30.3475 92.2572 17.7986
-22.7123 120.394 7.1
9.38567 118.453 -4.21486
-1.79747 83.3748 5.32284
16.1981 125.306 -3.8323
-0.259365 133.663 -1.074
7.81171 80.7873 1.69413
19.6933 109.349 9.93493
16.6521 78.9687 10.6282
-19.0681 134.336 6.12956
-13.6614 91.901 3.24427
6.79692 108.094 9.40479
-11.6715 101.058 6.82678
-11.6375 81.4706 -4.20591
31.6275 83.9074 19.7928
-10.8713 144.932 -2.85296
-6.47174 143.79 -4.75672
14.9416 120.04 -5.74384
11.6955 111.113 -4.82174
-6.04374 90.57 -4.3149
-5.60594 135.468 -4.89067
-17.5084 121.469 -1.21405
17.4712 120.566 -2.23182
0.897502 94.0697 9.49157
-15.4168 112.49 3.24042
-10.2848 139.546 -4.3912
-9.48449 128.928 7.68876
-12.6153 122.949 7.22582
26.7034 89.2783 16.697
27.6645 108.13 7.8105
-18.8911 90.2355 -3.29546
-16.2061 88.5136 -3.40646
18.0943 79.9144 9.82625
-14.8217 86.7488 -3.82252
2.67588 79.1314 2.7111
-14.0913 131.692 8.91512
11.7367 80.2303 5.54098
-16.8778 125.969 10.3553
18.2833 123.966 -6.19737
-15.7141 84.0657 0.36783
3.06895 124.139 -3.9213
31.8233 90.1661 14.1128
18.5667 83.838 4.28437
-15.6446 123.997 8.59553
1.49941 102.037 8.44886
2.82246 98.5134 9.36201
-8.75053 124.325 6.77531
-14.0656 132.999 9.27637
3.39875 93.9087 -2.21426
-12.5317 140.898 0.284419
29.5252 99.7664 8.57419
8.52217 111.185 9.44454
-4.15513 93.2466 -2.75474
11.1371 121.444 -3.48196
16.8839 110.777 -4.26087
5.80757 86.7886 7.34415
13.1898 83.0321 1.88416
-15.4477 121.858 -0.586392
13.9276 108.639 -4.17503
-18.6336 134.637 9.76901
16.0068 95.6133 10.1407
-20.3579 120.689 6.94651
-13.2412 78.6509 -3.78861
-4.7667 78.4458 -0.00662165
-13.9814 120.811 5.8257
3.27942 85.8428 -1.43195
17.4996 111.116 6.45491
-15.7345 120.351 6.12756
24.4641 107.989 3.53272
3.40067 103.056 8.55825
-15.9625 121.785 -2.78501
-11.4521 134.498 -4.374
-15.0823 120.893 -3.40266
3.27992 79.5802 0.282005
-9.12664 123.858 -5.25966
22.6714 92.8887 2.25566
-9.34034 111.58 9.0162
27.9068 85.8158 9.1988
-18.8738 105.177 -3.14471
-19.9135 130.242 5.18249
-2.93919 87.3649 -2.3003
-17.36 86.4126 -0.909057
-10.1684 117.672 -6.32442
-5.73263 81.8691 3.35652
27.6688 85.32 17.3238
-4.83267 88.6082 -4.60843
-14.6679 106.382 3.40441
10.0836 92.5966 -3.67118
14.8108 123.402 -5.87027
-9.10065 105.501 8.91068
5.5699 107.53 -7.07646
17.8377 84.9482 10.6309
15.5468 110.255 -4.35362
-15.7236 138.451 10.103
-17.1542 123.033 11.9895
-6.72816 130.461 6.53915
21.9769 107.178 -0.361283
29.8216 100.614 12.9813
1.92934 85.8552 -1.45411
15.9561 88.9793 1.84239
12.9469 106.008 -4.50932
15.8199 126.63 -3.71833
-11.7364 110.682 -7.00512
26.4879 80.1575 18.0442
29.1574 99.7357 7.79931
5.11264 126.936 -2.17792
13.7324 92.3227 8.45137
7.24477 101.605 -5.29519
-2.93819 128.594 -1.99964
18.9957 92.3372 14.4351
22.8384 90.9747 14.8585
19.6572 108.953 -3.52724
-10.1019 112.184 8.23333
25.7638 86.506 7.55366
-18.2696 113.349 0.230552
17.415 81.152 8.01537
-11.9723 143.435 2.2207
-16.9655 115.43 0.721086
-13.8299 96.4213 -5.83694
-18.4228 88.4184 -3.23244
26.1589 88.6233 16.5925
-16.3308 106.101 0.601943
-5.72132 130.336 6.42953
-14.8533 79.3957 -3.76821
-13.606 83.7783 1.48459
-6.44027 124.382 -4.60891
-6.36919 88.6737 -5.71327
-10.9403 126.94 7.77485
-6.71309 93.6972 -3.36641
-11.0084 105.659 7.57776
22.4117 97.5756 0.662603
16.3789 116.218 -4.27418
-13.1877 79.8734 -2.62277
-18.8998 95.3392 -1.58445
-1.84975 81.6426 4.07787
-8.29649 87.2631 -5.21626
14.6287 79.3928 5.92574
31.9787 90.4152 12.073
-18.3786 120.977 10.6702
15.6251 80.3381 8.20707
30.65 88.0561 9.49606
14.8712 126.47 -4.02825
-14.8034 123.709 -5.12256
14.8149 82.3074 5.60148
-14.3977 117.901 6.5824
15.7596 118.241 -6.04839
-17.6972 120.518 -1.21197
28.8024 96.4797 7.19535
11.947 96.829 6.36071
-0.735128 96.3543 9.21637
-16.532 84.0357 -4.30441
25.1759 84.0993 15.8739
11.1525 129.694 -6.07659
-18.9716 133.569 8.18919
-8.18477 110.542 -6.31071
-16.6883 108.7 -5.87843
-12.5702 129.949 8.94124
-16.0708 121.41 9.43675
3.40295 116.624 9.80634
10.6806 106.206 7.49387
-15.7684 118.61 4.77369
-0.913756 94.6303 9.47478
-15.8974 95.2531 2.11774
-16.3963 132.856 -0.0542214
-0.68662 88.1967 7.2444
-0.352571 107.698 -6.80505
3.12294 81.9269 -1.21818
16.2417 95.1531 12.3234
-7.85982 88.8687 -5.97972
-6.52674 91.8339 -4.0488
-7.91574 77.905 -3.44068
-19.1575 130.147 1.08673
-10.4037 91.2601 -5.47592
-11.7162 136.761 9.64737
4.72387 77.4503 1.58066
-13.7571 80.784 -4.19431
15.4248 122.75 -5.42801
28.7283 87.2262 18.4938
-10.7975 126.512 6.38231
-13.0633 95.0222 4.58401
-7.37378 104.48 -6.80116
-13.6994 83.0837 -4.9122
17.8096 120.15 -0.291036
-15.4975 139.985 3.33319
-9.21188 133.449 8.42102
18.3679 84.5336 11.4809
14.5143 81.3372 5.97787
-2.25593 111.324 8.92967
13.2863 91.3864 -1.08509
26.7025 81.6105 10.5297
-12.6495 124.728 -6.13765
9.42789 95.0085 7.02005
-16.0034 120.243 0.45108
28.7926 94.1644 7.6318
-10.5969 80.4114 -3.9956
26.1989 90.2085 16.3265
18.8086 80.513 9.5627
2.216 129.063 -2.38645
10.6174 124.039 -5.24166
18.3398 88.5456 2.72879
-8.81979 86.2993 -4.69501
-16.1051 130.626 9.74598
11.7585 120.037 5.65206
1.87814 124.386 8.67541
4.13782 124.05 7.13587
-17.2647 82.1273 -2.11783
16.5898 111.626 -4.73238
19.7388 107.717 10.1501
29.754 82.4422 19.9941
7.2441 108.803 9.57236
1.88136 122.496 9.21433
-4.25693 142.505 -3.39754
11.1035 122.146 6.5675
-11.3383 137.578 9.30975
19.2062 116.619 -0.438668
-14.5724 114.985 -6.46655
13.7437 96.4748 -2.69791
-12.881 134.805 -2.45173
-1.04076 79.8061 3.07724
21.427 107.281 -1.61339
-7.27749 80.4653 -3.67898
-14.2974 80.7958 -6.33091
-19.7718 133.041 4.78984
13.5538 91.9521 8.42646
6.02216 75.5955 1.62626
-19.0666 101.662 -2.9097
-17.9579 116.059 -4.4644
-17.4939 116.025 -2.16037
-5.68472 94.4716 -2.88677
-22.4618 124.829 3.83679
-10.3249 123.482 -5.31423
-15.6316 102.386 3.22893
0.730524 109.457 -6.47549
-7.61714 96.7661 -4.33659
0.647972 84.9643 -1.3239
-14.5035 113.515 3.97236
-21.0515 120.44 2.54717
-8.73297 92.1144 -4.57825
-5.36393 82.8802 -2.72729
14.8769 86.673 1.6154
17.7282 97.1214 -1.23027
20.2162 107.134 12.5738
10.2231 119.227 8.63676
6.6166 84.4895 -0.837138
7.92117 130.358 -4.38417
-19.4756 127.752 -0.393238
-6.06699 106.319 -5.64726
13.4484 105.339 5.48194
-12.8961 86.4013 -5.14264
-12.5852 116.712 -6.3286
11.9542 88.1536 9.22387
18.7723 91.2954 1.67665
22.7773 90.6971 14.8701
-7.40817 91.0743 -4.60506
-9.95428 81.7177 -5.39833
3.82019 109.604 -6.45526
24.2021 102.905 2.92987
-22.7511 118.645 6.50581
-11.9584 77.513 0.879544
2.97348 119.602 8.75238
-17.3701 109.562 1.54616
8.94989 79.4429 4.34775
-4.40744 107.753 -5.16293
-4.95479 131.5 5.9396
4.57699 111.698 -6.53012
3.55031 92.4654 8.91747
-3.42118 129.463 -2.50275
-0.5447 111.8 -5.97964
-9.11512 79.1855 1.43331
5.62949 106.539 8.84439
5.77643 124.683 -2.3844
2.65242 96.2044 9.45478
-17.91 112.881 -4.81958
23.0135 92.3357 14.8172
23.3478 102.238 1.5107
27.0755 85.5282 8.67247
-1.50589 96.1496 -2.05355
-6.65608 125.929 6.98106
14.584 91.1938 0.125388
4.22933 93.9438 -2.64922
14.1023 94.5218 7.95743
-6.99831 122.938 -4.37291
17.7202 85.2423 2.99593
30.0276 92.6704 17.8076
-7.53049 102.022 -4.68313
-5.07562 123.729 10.0862
-12.8675 122.613 7.36962
3.92754 97.102 -3.13714
4.14879 98.4825 -3.50941
-4.75802 132.881 5.14501
15.2406 96.2257 8.349
15.36 121.509 -6.14215
-15.8049 106.355 1.16024
6.52243 80.244 1.18384
13.0754 93.4962 7.55986
-20.4752 123.849 2.10355
26.4147 82.0069 16.2833
-18.2204 107.417 -0.0586036
15.0937 86.071 9.27389
-17.6659 120.502 8.77219
17.5359 105.618 7.53091
27.5928 103.629 6.25385
-16.4434 112.042 2.84812
-19.2072 119.004 4.46221
27.8322 87.1383 8.62826
-23.1812 118.291 5.52894
22.8038 86.9126 14.818
2.37984 119.216 -5.10628
-18.3427 120.633 12.5463
27.6812 85.791 17.3856
-9.75765 114.257 8.17507
-10.3264 144.522 -3.58377
-7.72399 97.2891 -4.75144
13.2078 101.223 6.70627
-18.3707 89.9769 -1.72772
27.1862 81.3441 10.8982
5.28151 80.0802 3.85161
-13.5514 104.756 -6.00896
-5.5125 134.323 6.06181
27.8989 97.9665 6.34667
-14.7227 118.848 5.97066
-3.91494 75.6674 0.912404
-5.79474 81.814 3.28754
-21.2661 126.103 9.30388
-15.4582 90.1331 1.67102
17.0529 86.5406 2.27434
-4.38139 140.966 -3.64996
-2.32625 134.316 4.88198
18.8437 122.32 -5.65515
31.2464 82.9246 20.0052
1.11826 99.051 9.02236
-18.4624 129.158 -0.0840332
31.5329 92.8184 12.4386
13.5131 88.1643 8.85678
-8.22567 78.7099 -3.05757
24.9626 83.3792 15.7204
-20.3654 117.815 3.64509
15.0318 124.324 -6.41089
2.06362 118.036 -5.47473
14.6796 127.236 -3.94294
15.827 93.6005 -0.205678
32.274 82.647 14.6039
-10.7126 134.958 9.1216
-0.756093 124.2 -2.65394
31.1002 81.8449 20.2988
-7.60503 100.935 8.99224
-5.14257 101.058 -4.14492
12.4028 78.9484 7.25322
-23.3587 118.898 8.81617
22.7275 102.316 15.9223
6.85965 122.376 -2.44722
-15.6988 139.845 9.29124
5.80742 132.944 -2.58549
25.675 84.1548 7.90363
13.7888 111.867 -5.22184
3.89474 120.762 -4.57546
-19.7292 131.644 9.67052
10.9032 101.611 -6.0339
-18.164 104.841 -3.46325
-12.3276 74.7056 -0.194554
26.1151 97.2174 4.36326
15.8367 83.3994 6.75388
-0.260367 104.155 8.34155
-13.2329 79.455 1.13024
7.29269 82.9358 -0.802823
9.66281 105.554 8.83097
-18.0173 114.376 1.39596
-14.3396 82.534 -4.97531
8.59592 120.267 9.07604
5.19371 122.689 -3.41057
16.899 80.2305 9.5898
16.1165 97.0323 -1.7339
25.3603 81.557 15.8525
14.9715 92.8132 -0.368986
6.31606 97.0618 8.83678
-13.1895 131.97 8.6952
-3.35916 83.716 -1.67882
14.1686 117.011 3.98861
-2.46875 132.31 5.076
11.0881 78.6361 3.3914
3.32042 88.4471 -1.94888
18.7097 88.01 2.96672
-9.92604 97.6162 -5.8881
-16.7816 121.311 3.30638
29.2938 100.436 15.7166
-5.56514 134.619 -4.97988
-4.06197 132.615 5.08251
31.9333 90.7366 12.1947
3.63544 101.933 -5.31025
10.291 84.9412 6.06708
3.32264 93.6945 9.63134
11.9825 89.6771 -1.06823
-18.9985 104.235 -2.30554
-10.832 81.1149 -5.15274
24.6659 114.146 2.31892
-6.32604 74.758 -0.087994
21.4526 99.0601 -0.403306
-11.4636 145.929 -1.30402
-2.59014 98.1552 -3.11175
8.78373 78.9192 2.58674
7.41838 78.6592 3.74173
-17.3607 126.437 -0.0375119
-15.7135 119.703 -2.0681
17.1209 100.822 8.8592
6.35165 84.4491 -0.772501
11.9478 84.9143 0.847528
-20.7636 129.071 7.63377
-11.0123 138.689 9.06683
-19.1959 103.941 -2.61373
20.2986 82.143 8.72184
-2.73209 85.2115 -2.14754
24.2195 101.172 1.99925
-15.4571 126.768 -0.0667298
-17.107 115.635 -5.70461
-3.55473 112.167 9.32413
15.7879 124.754 -5.0671
-16.1488 118.588 -0.22046
-6.72168 83.4308 3.66311
-15.2473 123.383 -1.10042
20.7693 87.7583 13.3997
-23.0159 119.039 9.11306
8.17073 107.453 -5.7685
26.4095 99.2685 4.31925
-15.6869 117.788 -0.0420506
26.6811 85.8909 8.37657
-15.2546 122.956 10.3661
32.1512 89.7541 12.3638
16.3536 83.3264 7.27523
-18.0777 93.1662 -4.66284
12.0557 128.843 -6.45175
-15.4312 136.558 10.7342
-19.3756 117.31 8.42273
-3.52504 80.6717 3.36196
-11.8617 81.0479 -3.81901
10.4952 110.016 7.74667
-16.2737 103.68 -5.91459
-0.68262 122.082 -2.67515
-23.0256 119.871 4.71511
20.0886 104.351 -2.84829
5.78233 88.8453 -2.07186
-11.6477 106.541 7.39474
-5.89566 102.682 -5.51012
-8.82063 106.482 -6.30499
19.2159 123.865 -3.68415
-20.9319 128.231 8.91276
6.09124 105.206 8.54843
-8.60437 126.969 6.30265
-7.69133 134.684 7.87075
-5.01829 108.791 -5.18058
-12.2399 124.834 7.20689
-18.4622 110.593 -0.263579
-7.44734 127.585 6.71382
-10.5969 133.026 9.1468
-8.22317 133.139 -6.61449
27.7189 85.8944 9.06817
31.0674 91.4661 10.2347
-10.0423 130.345 -7.01934
-16.013 123.318 8.7161
-2.68011 96.5111 9.74465
6.4573 85.3211 -1.35968
-14.0863 119.596 5.95158
10.0461 109.58 8.52431
-5.9587 138.415 -5.30386
-16.7872 95.8292 1.01305
14.656 82.3354 4.6601
-2.91985 103.555 -6.48546
-11.2715 140.846 -3.29374
-10.9797 112.071 7.25481
11.4645 79.2728 3.39062
1.66602 113.366 9.27604
10.5631 92.0776 -3.21158
4.76718 98.8841 9.47386
17.1161 96.547 -1.28295
8.90262 120.44 8.99949
31.2453 92.1606 16.5136
17.3667 124.227 -2.61663
-17.2868 121.203 10.3579
29.0712 83.3075 10.3938
-0.755921 132.707 -1.26741
-14.2199 105.067 -6.06699
-10.5434 82.7851 2.57515
23.7977 106.782 2.91578
-1.05785 134.188 -1.23582
-13.0257 76.5661 -1.54399
29.5828 96.6442 8.35719
10.3437 92.8549 -3.71039
13.2484 91.752 10.9883
-2.51306 125.163 8.94843
23.2401 101.991 1.25915
-22.6475 119.408 4.37563
-14.3514 132.329 -0.822639
22.4008 100.892 16.0363
-11.8325 144.905 -0.601899
-16.2913 96.8506 2.12465
0.656262 77.9696 1.51198
-4.52712 85.426 4.73949
-0.883531 121.13 -2.90658
4.84612 80.4584 -0.526868
-1.1907 84.1832 -0.818977
-15.0063 89.7473 1.78937
-5.18053 98.7841 -3.34391
-1.7992 124.644 -2.11494
-13.8869 133.928 -0.692168
21.7214 97.6535 0.243391
-17.1464 135.343 3.5905
-13.65 124.381 6.78125
29.4675 89.3534 8.2663
27.0058 85.4753 8.60359
26.5403 99.8554 16.3916
-19.1925 91.7938 -3.61479
10.1581 96.9221 6.48753
0.388 94.9326 9.32239
8.51435 116.115 -4.67031
-14.0718 140.553 9.72031
-13.7069 123.212 8.87762
-14.7995 107.492 1.92771
28.8367 88.2997 8.58105
-15.8589 126.238 -0.97021
31.5567 84.7537 11.4839
15.9353 93.0086 0.180701
-1.69893 98.0018 -2.8434
20.9309 81.3586 10.9094
-16.5383 104.897 1.1732
-3.80334 92.1413 6.79433
23.3978 104.3 15.6281
10.4689 118.456 8.37479
-4.54845 127.293 7.60922
-14.9351 121.105 -1.27539
-11.9759 136.255 -3.44784
10.9982 82.515 5.95591
-15.184 104.941 3.55092
5.98175 114.073 -4.34977
12.1834 111.323 5.28365
-10.6981 132.803 9.24074
-15.5583 120.362 5.36408
12.7173 107.196 5.37858
-2.92058 127.732 -1.90119
-14.3405 122.516 7.46588
12.2803 78.6093 4.29772
26.0752 99.2591 3.93199
-7.86061 134.852 8.20165
-18.0503 121.157 10.3438
22.3411 82.2283 10.1878
-14.6589 101.078 -6.30684
2.81674 82.7264 -1.07208
-9.02012 79.0233 -3.8422
2.9315 133.227 -1.25667
-22.95 123.424 8.34412
-11.8246 143.916 1.73413
-3.14459 120.271 9.05355
6.25696 131.717 -2.60279
9.20432 119.202 8.96028
4.10523 106.473 -6.9356
-18.5884 121.211 12.9126
3.12661 115.686 10.0925
3.62589 102.63 -5.62945
-18.0578 114.037 1.14604
-18.9811 134.84 8.34499
15.3016 113.921 4.52175
17.6621 116.183 6.06645
-13.9248 97.2875 4.7786
-7.37409 116.666 10.6723
4.16736 131.511 -1.74694
-7.2403 121.444 10.2591
12.4681 78.7344 7.53874
-5.73471 110.008 -5.51016
31.2082 95.05 14.5975
22.1642 89.4105 14.3931
-10.174 91.7433 4.3777
-12.379 98.8362 -6.3602
-15.2148 120.521 0.744239
20.8768 102.332 -1.50733
20.3913 86.6354 4.56168
6.49461 81.993 -0.626489
6.51446 94.8559 8.83534
-17.7083 90.5833 -1.02203
20.1521 96.885 15.4227
17.2484 97.7853 13.4086
-6.03467 129.322 6.14247
10.5435 128.82 -5.75033
-16.6782 116.084 -6.1626
-13.9745 94.2 3.80703
-10.6524 107.081 7.99463
-11.5106 128.582 9.09929
-15.6272 85.4637 -4.79022
12.7256 83.1573 1.38261
-6.65794 136.263 5.84602
-0.379892 113.398 -5.71876
-19.044 132.561 1.17451
-15.1794 117.195 5.24632
21.6087 90.2773 2.86617
11.2192 92.4073 -2.74327
-18.797 106.18 -2.05696
-16.0766 119.534 -1.99786
29.4708 96.0368 8.39619
-18.9993 110.256 -1.7878
10.0349 107.938 8.28387
6.23085 80.0407 1.03391
11.8436 111.312 5.45609
31.9758 88.0164 10.9753
-16.0713 101.819 2.87282
7.81042 84.8393 6.8759
-16.144 93.3393 -5.63511
-15.9534 120.106 4.37836
4.03649 122.064 7.96407
9.75907 104.186 -6.41316
8.79582 112.139 -4.67042
-7.13526 81.7342 -4.3769
-10.8048 97.4391 6.52831
-12.124 84.9125 -3.72039
-17.5134 131.912 -0.805978
8.28136 84.672 6.6812
-7.95019 83.2257 -3.60914
12.7268 109.057 -4.31485
-17.488 91.2139 -0.995174
19.0764 107.045 -3.59941
-16.401 125.255 -0.0379881
-15.4971 122.119 -3.97942
-18.2024 123.717 -0.703552
14.1545 97.4111 7.10698
-2.11472 93.9939 -1.62504
8.40548 101.95 -5.94488
-19.3746 129.618 0.749429
-12.5859 124.4 6.54781
-15.8165 124.563 -0.3663
19.3422 89.6372 2.98081
29.1353 82.576 19.6016
-12.8506 127.789 -5.04636
-14.343 86.0958 -4.05694
-15.4944 91.155 -4.75075
-12.8252 117.612 7.73242
1.549 77.3961 0.910532
-14.8449 112.016 3.50217
3.51632 117.007 9.59227
-20.5786 128.673 6.37512
-14.4201 93.6537 -6.20273
-2.077 136.319 -1.70423
-10.3698 116.322 8.59257
-5.23644 106.997 9.97313
-6.54895 131.606 -4.98656
6.19672 84.8541 7.33636
27.636 82.73 9.62966
16.9248 80.6819 8.12183
-6.7888 133.077 -5.6272
-8.12641 132.511 7.37082
9.74342 82.156 6.00369
-20.514 118.428 7.68577
-4.36114 77.1441 0.808684
25.5158 98.0428 16.4685
18.6337 114.929 7.75494
20.4158 96.3953 0.219095
13.7405 130.696 -7.228
-7.07587 120.15 -4.25143
-7.76578 130.045 -5.85445
24.321 96.0445 2.89998
29.015 85.7595 18.9492
-2.37059 122.743 9.54874
-16.3524 106.636 0.514239
8.50868 117.884 9.24232
-16.8203 121.143 7.98303
8.94742 78.7331 2.32597
21.2623 95.1691 15.0936
-4.94392 83.8825 4.48972
21.499 111.368 -0.885094
12.3434 116.205 -4.54611
-18.1089 116.142 -4.15328
0.357851 134.362 -1.00584
-14.8256 92.1448 2.79884
29.0184 97.908 17.2516
19.5474 82.4275 11.4356
-11.8412 94.3962 -6.38218
-16.9394 107.589 0.746466
0.558265 79.3767 2.67869
13.5895 105.962 -4.22771
15.8296 90.6915 13.1661
13.7766 77.7582 6.02678
2.72364 121.731 8.86807
-1.61753 94.5986 -1.69549
23.6547 87.6643 15.4027
-4.71131 81.1837 3.22393
28.4311 98.8827 16.9728
-13.8321 78.5689 -2.68573
22.8236 114.823 0.59088
-12.347 90.1323 -5.5328
-15.7482 121.707 -5.46042
-11.984 130.382 -4.24825
-7.42379 103.048 9.56607
-16.249 112.521 2.94578
-16.2252 110.123 2.56968
7.21299 89.4211 -2.66149
-1.66394 121.416 8.94754
16.8049 122.367 -3.86103
-1.47508 122.832 9.50349
24.9945 89.4565 4.86475
-18.7202 135.085 7.37505
-13.6423 140.286 9.78505
2.79142 86.3643 8.06656
-2.37277 106.63 -6.33391
21.5259 87.4223 13.6326
-16.3421 122.024 9.16961
-20.9872 127.594 9.33137
18.1321 124.121 -6.16403
-4.89145 86.429 -4.77903
2.24393 89.4253 -1.40268
-3.33126 109.382 9.40078
-2.77905 130.76 -2.11498
-12.287 81.2729 -3.76597
-5.92228 98.3944 -3.86581
-17.7589 121.962 7.51628
-6.32715 108.748 -5.93845
-7.65881 125.385 -5.17174
-9.67193 74.7147 -1.02336
-16.2141 118.495 -1.455
-17.7434 121.059 4.75881
19.4753 107.75 -3.58229
14.5254 127.844 -3.9887
8.89631 105.976 9.1864
-1.06793 105.872 8.44454
-16.8352 117.419 2.56803
31.0803 93.7908 10.7552
-7.0958 102.486 9.57237
2.95557 91.535 -1.73508
-3.23962 131.765 5.43294
3.01815 79.0482 2.73824
-17.6034 133.65 10.8987
-17.6889 135.816 4.57812
18.5044 93.6865 14.7689
28.3285 93.3092 18.0811
2.98434 122.402 -4.30508
-3.83165 92.5586 7.06029
24.1585 83.8091 7.50442
-15.0175 103.766 -6.01634
18.9465 81.5963 8.22211
-21.5288 123.128 3.41771
-14.0978 89.4437 2.31087
8.13645 78.972 2.79288
-1.59061 117.442 9.56595
-15.4258 120.452 -1.22612
4.23873 96.8848 9.53158
-20.1476 128.976 4.28642
0.705827 104.703 -6.71294
18.3434 100.221 -1.74416
10.1899 101.757 7.82404
16.7728 117.943 -3.25598
-6.00909 121.086 10.4673
-5.39798 121.156 -3.67154
-20.9759 127.625 9.2736
-5.88072 137.627 -5.13317
14.4683 108.562 -4.11707
9.50738 115.88 8.88427
-8.53583 124.262 6.77839
-21.665 125.259 10.3163
18.5617 107.135 8.53796
-14.1986 103.397 5.02959
-19.2119 134.453 7.30863
-20.5534 118.829 12.6093
10.2705 98.6161 6.99099
4.40605 119.697 -4.37956
-18.7425 133.717 3.84227
-19.7879 131.555 8.39688
-0.450223 80.6407 -1.60529
-11.9704 128.301 -5.15394
-11.1254 99.6476 6.89727
7.43027 84.269 -0.926911
16.4906 95.9751 11.6689
-15.3978 120.174 -1.69943
14.7018 117.234 -4.32781
13.7282 81.4277 4.93483
-15.6933 121.41 -0.889109
25.8578 91.9084 16.0594
-18.3626 95.3539 -4.91218
-3.26584 79.1568 -0.652993
16.353 114.069 -4.80454
15.6852 96.695 8.60294
30.4319 99.5492 12.0473
-4.56337 119.976 9.68354
-13.1209 81.4355 -4.9015
-16.8769 115.712 0.871554
14.8391 92.6439 12.0692
-11.6986 146.035 0.169699
-2.11323 138.221 -1.96731
10.0246 82.7641 0.150725
8.05011 90.4399 -3.0912
-17.3804 137.112 5.46392
7.36637 93.4278 8.26441
-3.04244 131.939 5.32722
-11.0219 121.605 -5.78122
-1.79861 78.4755 0.540265
27.8704 92.5355 6.27274
-14.7271 130.881 -0.785112
-14.8836 129.981 -1.60693
16.9664 114.104 -4.58355
-8.70783 130.628 -6.84726
28.4038 84.4828 18.7052
-2.29941 123.334 -2.12008
-13.3492 138.055 9.62732
17.3951 109.76 -3.69401
-3.16024 131.465 -2.40138
18.2725 100.533 14.0712
-4.55017 79.2302 -1.59892
31.7329 92.5868 13.8566
-2.80516 76.7905 0.437364
-14.4305 105.51 -6.29784
16.6275 87.1273 11.7367
19.0765 113.118 8.91527
-22.6872 123.938 4.68491
-12.4468 116.141 7.12144
9.91669 109.876 8.8019
-4.9521 116.356 -3.49954
19.0584 120.981 -0.860773
13.5316 116.811 -3.61171
19.1832 87.0763 3.55794
14.4108 119.058 -4.40934
20.7554 109.567 12.5789
-18.9145 125.973 12.0465
12.7048 85.3624 6.22942
6.18999 108.849 9.44101
30.0055 100.073 13.7475
9.59075 112.681 8.82519
11.0742 89.5849 -1.48974
-15.7996 120.35 4.21965
-0.721096 118.537 9.55813
17.1031 100.329 -2.44975
31.8955 90.3161 13.9435
-15.4313 119.13 0.343181
-17.0549 82.6902 -1.21206
-16.0092 124.165 -0.457576
-9.56699 121.525 -4.83349
13.7659 117.356 4.00489
5.32398 131.742 -2.05607
-14.2986 97.6186 4.49805
21.9097 98.7634 15.4102
31.7895 91.1708 14.0479
8.62243 117.152 9.28357
-22.7656 117.687 6.05984
-12.7914 136.991 9.9096
-1.58715 80.0289 -1.08241
23.9987 90.9982 3.63472
-11.5274 130.381 -5.65006
-16.5092 135.562 1.33537
9.36647 117.629 8.96716
-16.4234 130.689 9.80322
26.8409 97.9434 16.7367
-15.7107 120.345 2.93856
15.9479 82.1194 6.39106
-5.73554 92.6249 -3.5834
0.583065 124.964 9.23005
-7.81408 97.8854 -5.19042
-6.81502 117.203 -4.75083
3.70635 86.6977 7.64455
-17.6104 120.895 11.6464
-1.91525 101.041 -4.87931
8.45908 118.852 9.18627
-14.1133 120.706 5.78961
-14.809 134.083 10.0994
25.5945 105.258 4.19558
-13.185 76.3506 -3.15338
28.6083 81.7313 19.3008
-10.4551 90.3507 -6.00082
-16.8827 85.5883 -0.597832
2.09874 78.2145 1.84962
-10.5677 131.888 -5.48315
-9.23293 92.7632 -4.5248
-19.8878 127.241 -0.119419
21.6976 83.9253 6.1834
22.6845 110.11 1.21284
-11.2619 89.5971 -5.48687
-17.2763 109.603 -5.64399
-12.9433 117.379 7.45267
4.37534 104.602 -6.49245
-15.8943 119.064 5.18966
8.43104 84.1667 6.61603
-7.06009 128.044 -4.63946
-15.7064 121.328 -0.337227
11.3295 80.2392 4.98131
-12.877 87.3325 -5.27715
30.4233 80.0339 13.6765
9.90043 88.3254 7.81512
11.7433 87.3291 0.00712713
1.58819 101.706 8.51036
-12.4633 123.525 -5.9674
8.46249 117.147 9.34072
23.7203 97.038 2.02942
29.102 95.3241 17.7482
4.01847 130.313 -1.5246
-3.66048 126.777 7.59302
-18.8531 133.275 9.93814
8.55611 128.439 -3.86199
1.53718 84.5843 -1.09888
-11.8799 125.57 6.58777
0.204594 86.854 -1.0781
-10.6498 115.169 7.83763
-2.62118 78.4236 0.26106
-19.2753 123.601 0.595426
-10.409 120.955 9.01744
-16.8131 93.6047 0.633022
-4.93129 82.1538 -2.0907
-0.734055 122.532 -2.65509
23.0521 101.472 16.2676
-13.5882 133.367 9.33176
26.5722 86.6405 8.04014
20.4678 92.3837 1.38699
-15.226 116.258 -6.14283
-8.60202 132.715 -6.9781
-15.6816 121.35 -2.87446
12.5267 90.8024 9.53641
22.255 99.7086 15.6674
-4.42382 82.7863 4.27375
-11.4924 105.87 -6.51747
-15.0446 120.79 6.07612
-14.403 82.2528 -4.96769
-4.68003 100.023 -3.68956
20.1421 110.537 11.8446
-6.29125 109.505 10.1459
-7.78272 134.447 7.87906
-18.7704 112.326 -2.8326
-15.8364 109.455 -6.7127
-23.957 119.362 6.19634
-7.47971 102.17 -4.85226
-0.910201 87.3759 7.08576
-10.8899 88.8186 -4.42492
0.855706 107.835 -6.75539
-15.3555 137.572 1.47198
8.68341 111.805 -4.67395
-6.70809 124.555 9.02507
-17.1429 88.1706 -3.68038
5.82282 125.643 -2.16687
2.02293 102.196 8.40336
-22.8467 119.784 7.31237
-11.7818 120.578 -6.38384
-3.88373 126.712 -2.53421
8.60275 111.207 -4.7433
10.6737 106.517 -5.51355
16.0229 96.7747 9.13554
12.7231 128.762 -6.89956
5.57423 112.78 -4.8211
25.6729 88.7807 5.93348
-7.63952 74.8586 -0.977556
-3.21053 75.411 1.44456
0.447292 127.97 -2.16484
-22.5124 120.783 9.60944
-0.595011 117.485 -4.25009
-16.3963 97.3508 2.2336
13.2387 106.675 -4.23735
-16.4785 109.93 -6.29848
-6.43265 107.484 10.2959
-5.93812 111.57 9.67072
-17.7913 89.9564 -0.823642
-16.8229 98.0143 -5.80881
19.7423 104.54 -3.07072
-22.9794 119.429 6.97349
32.6682 83.977 18.5298
-15.5461 140.551 3.86642
-10.5903 97.0283 -5.87262
-3.25915 86.7336 -2.74173
12.3091 94.6381 -3.02845
-18.728 111.479 -0.767408
15.7573 106.911 -4.01544
-7.75544 92.2681 -4.18014
-11.2287 80.3607 1.55966
-15.3755 121.992 6.33621
-13.0944 121.757 -6.24907
-18.2202 105.356 -1.21588
-20.8718 122.86 2.65605
-12.1754 118.474 8.12511
16.6743 96.1867 12.9605
-21.7928 117.346 11.5323
0.154767 119.571 9.62844
-2.83774 131.837 -2.14306
8.54667 85.3809 -1.54714
-19.7589 131.86 3.9294
-17.2558 86.7197 -0.872547
15.5168 107.325 5.61421
19.8506 100.01 14.9524
6.86905 107.543 -6.64627
-19.1533 119.637 12.1335
8.02082 90.8584 -3.18778
24.3135 87.6438 15.8327
13.5451 79.754 7.68245
12.5222 95.1017 -3.1512
16.8149 117.88 -3.39388
-7.11514 77.4341 0.642234
29.4144 101.197 8.85976
1.23387 77.2419 0.745265
-17.6333 119.454 4.8458
14.567 102.105 6.9734
9.0488 92.2766 -3.54042
21.3552 87.4169 13.4666
-11.6208 119.938 7.81813
27.3281 99.0634 5.49194
19.1637 82.5107 6.39291
-16.5517 119.733 1.78473
-20.6416 129.54 7.98566
3.53775 96.8191 9.51048
-16.9034 127.2 -1.63473
-15.6135 123.532 -1.55736
2.95626 92.1133 -1.78912
-18.0383 123.641 -1.05322
-17.5259 137.63 8.87273
-10.4665 82.2201 2.3979
-8.86713 130.428 -6.96254
30.5029 98.8319 14.1505
-6.19473 132.252 -4.60399
-15.7814 140.332 8.54885
-16.5481 120.47 -0.0772845
-16.2665 126.268 9.83647
25.3602 111.432 4.50596
-17.5877 113.492 1.94225
-14.6689 143.338 5.12873
-11.7139 135.047 9.98863
4.0739 84.3682 7.27965
-18.1394 136.36 9.27915
-7.2661 118.183 10.4004
-12.4278 105.951 6.90227
11.9142 115.35 5.26087
-17.1751 118.034 1.72976
19.5201 104.813 12.398
0.357257 91.8706 -1.56161
30.355 86.2434 9.95038
22.1604 91.0043 2.5445
-19.462 122.216 0.86886
23.0845 85.3972 14.9093
30.3869 98.1798 10.1702
17.8693 105.815 7.9555
22.1866 101.268 -0.124637
0.850387 78.0457 1.59382
9.18183 78.5056 2.17806
-8.4369 87.2019 3.55004
-12.1941 81.5682 -4.61564
-2.12123 98.3283 -3.22428
-9.09046 91.4842 -5.1624
14.623 89.6935 11.3228
-16.9239 139.373 7.23306
-9.24973 81.0964 -4.85142
29.8855 87.7964 9.29969
-14.5762 81.0268 -3.83293
-6.49532 121.887 10.5426
-15.2848 119.619 -0.267743
-3.29269 117.888 -2.99416
-2.25886 115.007 8.96888
7.85116 129.187 -2.98377
-13.28 124.957 -5.55436
17.4724 115.583 -4.92031
-20.6581 119.28 13.0239
-15.7841 137.995 10.2045
-3.70812 90.0882 -2.82243
-16.0735 121.446 9.31224
-14.696 106.568 -6.70596
-10.2601 96.8389 -5.88676
16.3585 114.052 -4.80629
-20.174 119.211 9.35943
8.11934 100.195 -5.21053
12.2112 130.525 -7.1159
-6.73576 79.3049 -2.29634
7.928 109.309 -4.77657
31.0066 94.6366 13.1298
-9.17076 75.0751 -0.129416
-0.768448 93.9503 9.59179
-7.85806 85.4446 -3.78712
14.1391 100.75 -4.46947
-16.345 123.483 8.47845
-12.2021 130.69 8.35663
-17.1743 102.41 0.0803574
-6.05784 78.0215 -0.787505
-15.048 120.774 -0.918252
17.3359 111.152 -4.33866
9.43504 100.84 -5.99044
-18.1007 113.479 -1.09912
-6.45955 80.6682 2.35925
-0.25216 96.3558 -2.175
23.3796 106.221 2.57336
18.7878 101.409 14.122
7.30457 114.253 9.84891
1.90721 117.141 -5.75095
9.68908 85.5327 -0.85919
-1.06178 114.606 8.90035
5.53962 89.3171 8.1661
8.90875 108.072 9.36817
-15.9383 121.048 0.33581
-17.0979 117.285 -1.67825
18.6891 79.7711 10.5588
-12.1069 127.836 -6.93356
5.31262 130.491 -1.76726
17.3819 100.456 9.82537
-17.9394 108.361 0.580269
25.9965 94.8186 16.9732
19.1813 93.1182 1.02899
5.6639 81.3433 5.06081
-15.3538 125.415 -1.23339
-7.03731 110.522 10.2749
-12.7543 124.025 7.45108
14.007 81.7909 5.28033
-8.96745 75.9928 0.998911
17.7342 99.5912 -1.74734
0.176002 115.166 9.47568
23.3052 85.7849 6.43203
-16.997 120.756 1.33394
26.4577 105.143 5.09436
-13.4767 76.8705 -3.89439
23.3513 92.0308 14.9567
15.623 94.3921 -0.830652
-16.3115 103.787 2.3744
8.16937 81.8066 0.476451
-14.077 80.7793 -5.93521
8.70522 89.8816 -3.00954
-1.21018 104.562 8.47148
-17.4878 121.513 5.98734
11.1558 82.6468 5.97287
-8.44791 106.255 -6.32286
17.0265 80.3039 9.52507
-3.58622 87.3032 -2.78388
-8.15063 132.116 -6.57127
-11.1943 82.572 -5.28725
15.4324 122.443 -5.59766
-14.0444 101.393 -6.95962
15.5627 112.712 -5.25929
26.6749 98.1719 16.5851
21.7596 106.286 -0.563183
13.6823 86.9266 7.90824
-6.04736 127.354 7.07618
31.9498 87.2086 11.1089
-3.27141 104.188 9.28718
27.5074 92.3192 6.02538
0.105621 101.604 -5.78471
-15.9643 129.066 -1.35612
10.5492 118.868 8.16298
27.1995 105.847 5.95139
-7.14174 110.795 -6.03649
-16.6992 92.225 0.730278
9.21907 100.105 7.90776
23.7576 124.894 -10.0088
-10.8559 116.405 8.48175
11.0533 100.167 6.42983
-18.3147 86.3157 -2.75967
-16.1638 120.118 0.349545
30.0629 99.5727 9.83142
0.451464 130.046 5.97506
-12.9871 95.2329 -6.05381
0.650265 78.1391 1.69139
-8.83048 86.526 3.44774
3.92073 79.7413 3.46856
-2.57003 114.26 8.85656
-15.7389 141.6 5.44253
6.31026 79.3326 3.17092
-7.70183 128.575 5.95785
14.6909 94.8101 -1.4444
2.62144 123.356 8.52565
-16.7178 86.4317 -3.20328
13.7541 108.074 -4.07346
-15.3396 127.842 -0.658859
13.7816 94.2725 7.80819
13.2968 114.033 -4.96142
-18.6031 109.688 -0.857122
23.6032 105.502 2.67946
23.0674 93.6727 15.189
16.1499 80.7259 6.71169
-15.135 123.198 -1.23443
-5.00887 91.181 5.67213
0.0191948 84.1066 -1.03874
8.92282 106.57 -5.51089
17.5747 124.281 -2.34512
-15.5803 119.643 1.04442
3.45901 115.727 -5.63417
-7.83195 136.492 8.09359
18.9732 117.288 0.857665
-10.4982 128.694 -7.42417
26.8304 103.816 5.56978
15.9846 106.629 -4.06322
11.6338 118.257 -4.05462
17.7571 125.415 -6.55022
8.72139 86.7464 -2.12443
-17.3646 99.6013 1.27286
-13.3682 113.554 4.86579
-16.9075 127.665 -1.67975
-10.2397 110.743 -6.73494
4.15772 88.4356 -2.07188
27.644 100.961 5.79788
-14.1194 121.465 -5.91857
7.03281 107.371 9.30236
17.6518 98.6555 13.9576
22.3313 100.321 15.8574
-4.75523 96.4565 -2.57734
21.4114 88.9892 3.96828
10.899 86.1843 -0.11453
-14.0465 75.9792 -2.67844
-16.0501 120.341 1.09167
-16.2429 120.616 0.42563
2.50122 87.2888 -1.89062
-15.1148 125.437 -0.113482
-1.00041 116.701 9.66477
15.0837 99.5259 7.15635
-11.1638 120.352 -6.35579
-23.2385 120.254 6.59609
7.8574 123.832 8.45911
7.63541 123.853 -2.06318
-7.06717 121.647 10.2111
-2.43362 126.709 7.58445
26.1757 90.4944 16.2916
12.3285 101.784 -5.6478
-16.5024 85.4805 -4.51024
5.92604 85.0522 -1.09868
26.5399 84.0164 16.3479
-14.2557 76.3109 -1.56532
-13.2856 126.527 10.1178
-7.29611 89.3308 -5.9675
2.71895 115.845 -5.9396
29.6701 98.5959 16.1389
23.6441 97.1661 1.9074
-14.3563 91.7976 3.09873
-12.3257 125.078 -5.98203
33.1085 83.4355 16.2645
-11.8027 105.271 7.08042
-7.28075 109.392 -6.21547
28.3295 83.9865 18.8978
-19.0419 100.8 -3.79018
12.3972 127.873 -6.75719
-3.08973 115.658 -3.45592
-10.0338 105.673 8.15346
15.2946 125.576 -4.38351
33.312 84.8373 14.5425
12.368 92.1594 7.47502
1.64584 131.664 -1.63672
5.87624 81.4248 5.16335
31.0096 95.8311 13.7326
-3.24736 107.637 9.16548
-10.9695 117.759 -6.45848
0.182857 81.6486 4.39062
2.7327 75.5164 0.930244
17.737 94.4023 14.5929
-4.23742 136.463 4.2725
26.0872 80.5941 17.4948
-12.4245 130.934 8.34414
16.2859 94.0606 -0.320779
18.6292 81.6911 7.74457
-17.3823 82.6245 -2.52967
-6.77349 78.3941 1.12158
-13.6732 87.2115 -4.67588
-14.7564 131.651 -1.34971
-9.78187 137.867 8.70337
-6.54659 121.543 10.5574
15.9617 126.485 -5.07774
18.1709 120.698 -0.637358
27.7581 85.8334 9.11185
-2.28762 113.001 8.99394
-7.94993 78.2501 -3.13686
4.75928 120.83 -4.04142
-11.5066 102.913 -6.50652
16.1634 93.4948 13.8371
-12.1814 92.3977 -6.46227
24.104 81.3534 12.4223
-1.88767 91.1663 7.90516
-19.7214 117.485 3.42829
23.838 89.7722 4.09823
0.798485 126.482 -2.61448
17.0924 97.9381 12.4128
-8.94751 131.769 -7.32308
-15.2974 110.777 3.37042
-1.32707 113.871 -4.61949
8.44557 99.1945 7.88913
2.83311 84.4114 -0.845864
-4.55056 113.023 9.28774
3.40878 94.6474 -2.37423
-12.8102 135.472 10.2369
14.627 90.6086 12.1925
2.44704 89.5124 -1.466
26.1221 95.9964 4.53542
-12.6338 124.768 7.16999
-17.4158 101.804 0.0181717
18.8096 96.73 15.1529
-20.2976 128.787 10.6892
4.21204 84.789 7.66218
10.5145 114.563 8.27784
-11.7965 106.104 7.2495
10.1088 122.064 8.36239
4.05052 101.858 8.75412
-14.2156 112.264 -7.00766
19.4582 105.773 10.9724
-20.6834 126.862 4.53174
-15.1719 126.026 -0.425827
1.97152 99.6949 8.94896
-4.13192 133.537 4.73425
-5.97105 142.261 -4.60044
11.6325 115.211 -5.09085
-7.51186 112.45 10.5054
26.9325 98.889 16.6156
-1.95138 113.87 -4.04397
16.2725 99.6646 7.94409
3.21786 120.997 -4.67266
22.8934 95.732 1.85786
15.9847 81.2484 6.87307
3.29875 124.515 7.49598
3.36984 97.8974 -3.13753
-14.7878 122.82 9.94042
-12.8908 76.9272 -3.89237
-13.2072 137.986 9.615
16.7744 104.755 -4.15076
-20.4935 119.323 7.61048
-17.104 99.4573 1.77619
12.2919 114.154 -5.28646
16.6801 104.749 -4.1533
20.2749 125.7 -7.21699
-5.5715 121.867 10.3757
16.114 101.327 7.33517
-16.8605 130.567 -0.900419
29.7259 84.0977 10.4968
20.1777 114.414 -3.38143
6.10451 89.9173 7.77345
-2.4708 127.411 7.27449
17.336 116.405 5.55226
3.34448 131.91 -1.40219
-14.4316 80.0362 -5.14674
32.0013 89.3683 11.2701
28.9554 95.6135 7.6313
21.9862 84.9992 6.11363
11.5513 84.9383 0.622063
-4.07027 134.186 4.84442
-23.1294 121.46 6.96733
-14.7997 86.2561 1.30343
23.3132 114.747 1.3475
-7.23786 107.384 10.0635
-16.5525 126.465 -1.15596
22.8004 109.015 1.90928
-18.4982 128.709 -0.585155
23.7555 102.144 1.97349
-20.0588 123.996 12.4353
-13.8792 87.8018 2.16362
21.4826 108.907 -0.786745
-3.42725 81.7429 4.08229
4.45294 88.6876 -2.08435
10.6607 83.4248 0.41502
-17.0807 86.2089 -3.31299
-8.61482 133.909 8.324
-5.71319 104.308 10.0939
-16.8537 119.86 0.406462
14.383 102.666 6.55272
-3.90743 138.708 -3.28214
-9.31941 147.281 -3.82035
19.725 81.9088 8.44121
4.52537 124.908 -2.96365
-11.1011 129.482 8.01175
-10.3199 120.856 9.06244
-8.10642 144.939 -4.72381
0.241624 99.8356 8.80963
-9.41608 134.37 -6.20939
-10.8971 110.08 7.85095
12.5881 112.396 5.05851
12.9352 130.695 -7.47693
-7.80832 132.526 -6.24209
-22.4694 123.995 8.73555
15.9392 128.047 -5.8663
-13.9968 103.169 -6.72999
14.0636 92.3913 10.3995
-10.407 86.104 -4.5284
-7.72303 114.756 10.4133
-10.9403 140.474 -3.45143
-18.8667 120.213 7.80151
-2.4367 136.309 -2.06277
-14.3054 100.019 -6.54672
-9.67986 111.514 8.54692
10.9621 81.2384 5.37203
-6.1986 82.5938 -4.19472
-11.1595 92.4308 4.13519
-14.1989 123.247 8.30995
32.4397 87.1937 13.4537
-5.49882 133.01 -4.14582
-21.7298 121.095 11.7448
-15.7666 114.935 -6.37732
25.1688 89.7146 4.91289
-17.8379 119.018 0.407365
14.821 117.065 3.8878
6.00473 101.81 9.22359
-14.1053 121.529 6.62694
-6.00198 118.577 10.5006
-18.099 97.2855 -4.99765
10.8866 94.0996 6.71777
-17.9276 104.905 -3.63657
10.1627 108.721 8.2964
0.0131054 128.144 6.84285
-13.9192 99.8522 -6.83985
7.52346 112.813 -4.17116
18.0085 99.7859 13.9574
-1.70347 94.9551 9.68251
-14.5611 91.6037 2.91205
25.3596 88.8728 5.62
-4.24303 136.551 -3.63236
8.06867 86.0482 -1.91117
-10.3876 90.2747 3.90168
-10.1978 134.661 -5.5816
24.9329 82.2217 10.8289
-16.3875 139.349 4.4105
-9.53623 143.68 -4.49857
16.431 99.2396 -2.58307
30.9127 95.1634 12.5628
8.32334 121.302 8.86037
19.8516 95.4299 15.0614
11.3618 82.7861 5.99607
15.1626 84.1733 2.58932
-0.0300988 120.794 9.39986
-15.8972 136.078 0.897533
-4.14355 120.242 9.51247
6.60804 86.136 -1.94413
-13.1875 97.2063 5.2639
-2.45952 91.3965 7.52395
-11.3668 108.155 7.45838
11.6821 100.909 -5.763
24.4246 84.2448 15.6146
-0.348475 84.0775 5.99491
-19.9952 130.546 6.95645
19.6026 91.5572 1.55533
30.9083 86.1478 10.2413
5.34156 83.3473 -0.72087
-3.55297 140.428 -2.95754
8.9625 106.262 -5.64439
-16.2331 80.1807 -1.97101
4.10811 77.3699 1.37739
-15.8372 141.303 6.84062
4.76104 118.599 -3.89307
-12.4802 125.751 -5.97604
-5.71859 87.6607 -5.18195
30.2814 98.0081 15.0518
-15.5074 123.664 -0.83419
-7.37482 108.329 10.1443
6.65176 94.5382 -3.86259
33.5194 83.306 14.0813
-11.9762 144.526 -0.301684
16.6786 84.9542 2.62817
-21.1842 119.988 12.9414
10.71 112.769 -5.40442
-11.1655 120.291 8.2068
-3.61972 114.25 -3.73677
23.9448 84.6585 6.78688
-19.7413 130.847 6.06246
-10.8869 96.3461 5.97283
-22.7256 119.078 4.44738
17.7169 116.262 6.12231
22.2239 115.584 1.37621
-12.4214 115.895 6.9458
28.6592 90.2277 18.5432
5.83937 104.017 -5.89477
-4.90086 80.9675 3.00418
0.796974 122.275 -3.41804
28.0599 106.434 9.28009
-0.130927 109.568 -6.50766
14.8931 83.8393 2.68167
17.2707 113.287 5.95641
1.72421 117.766 -5.59508
13.2187 104.219 -4.97545
28.4327 85.5322 18.141
19.891 124.824 -7.67511
-10.8616 126.233 -6.29601
32.3798 82.574 12.9347
16.1965 99.0706 8.09683
-14.2033 94.7587 3.99191
-5.49413 107.569 10.0774
7.96409 95.6283 -4.39873
18.2522 112.757 7.43284
-18.4685 94.6351 -1.43757
10.8717 119.976 7.39914
-7.09463 78.9902 -0.848942
-15.0011 81.8695 0.644833
-14.168 86.9408 -4.28376
-3.13102 119.809 9.10295
-14.0865 113.43 4.24579
-7.52851 115.736 10.5999
20.8712 118.147 1.87587
-15.3191 139.092 10.0646
-11.513 124.564 8.11892
-15.5843 139.722 3.25852
-8.23933 80.3546 -2.37654
-6.16147 119.818 -3.77474
-17.66 92.9494 -1.28165
-16.4165 83.5829 -0.495607
30.6132 89.1871 18.0284
1.75866 126.997 6.92494
30.9447 95.0382 12.8854
-15.8595 84.323 0.313705
-16.7868 85.7843 -3.63535
17.7363 114.89 6.2887
-15.8703 120.321 4.73569
10.2933 97.2873 6.44735
-9.23577 82.1592 -3.62976
19.8071 86.5796 13.3686
-19.1276 134.14 5.83779
4.06006 100.121 -4.2822
8.39217 100.31 8.15127
33.4542 83.7735 16.117
-18.5944 117.713 2.26614
-0.609557 135.403 -1.14318
13.114 93.3477 7.64083
5.63092 99.6042 -4.3379
5.94191 131.189 -2.07934
11.7524 122.743 -5.35595
12.5202 114.367 4.9102
6.0476 88.5647 -2.05806
-2.72092 88.3455 -1.85632
-0.625821 128.075 7.8134
-13.0961 139.215 -2.30299
3.19009 113.309 -6.37353
23.4908 103.748 2.44847
28.7213 103.776 9.35943
