ply
format ascii 1.0
comment Created by Open3D
element vertex 1931
property double x
property double y
property double z
end_header
-10.2907 144.297 1.26477
14.0105 135.368 7.83
-35.7391 88.3143 25.7676
-24.276 128.153 -1.90258
-25.3704 124.327 1.95655
9.02541 96.9799 17.6644
11.8353 115.629 4.67826
10.401 91.7182 10.5993
-21.3872 132.281 7.95735
-7.07707 91.9661 -2.84076
-2.35741 81.1694 -2.69739
-1.06209 143.03 -1.02519
-20.6277 94.6601 22.4319
-9.79116 136.028 11.4258
-19.0268 145.813 -0.583623
2.47827 85.7913 -2.04085
4.12837 91.7154 -2.17249
8.0681 85.7873 17.6476
17.465 125.371 7.49279
-3.77921 107.96 15.223
-23.2396 138.472 5.72503
20.9461 124.944 6.08063
-25.7016 121.797 12.2613
-9.00558 114.314 -4.98977
-9.9083 109.888 16.4388
-26.9212 132.386 5.53906
-20.2867 133.71 0.811606
-30.8361 104.752 8.28855
-21.6628 126.288 16.2079
-7.08412 118.895 -4.72458
-17.2089 96.7758 0.961845
0.768462 134.534 -4.27613
-32.5456 97.9811 13.0361
23.1006 122.529 0.889384
0.571933 142.349 -1.88557
-4.38288 96.6488 -4.93653
-20.7917 131.457 8.75513
-26.1044 122.598 16.5651
-0.44612 79.2933 -2.21388
-30.8096 104.039 7.09267
-33.3655 131.324 3.92727
-21.9772 116.456 20.7564
-27.3272 115.664 0.281522
-21.3895 93.9808 23.7727
9.31248 101.712 4.18404
-34.2074 85.0213 18.0664
5.23038 131.833 -4.65613
-10.7422 122.768 17.8433
19.6023 136.371 -0.0791541
-24.1238 114.583 21.3035
-0.778189 83.3948 -3.04495
-31.4774 132.834 5.05366
7.62708 85.0858 17.9418
-25.9705 124.374 3.40332
21.451 122.597 -1.72045
-23.0579 88.3249 6.53085
-13.2605 96.9627 -0.798927
10.1559 99.4606 16.6464
-9.24786 145.096 -4.30581
-18.8331 144.785 -0.50084
9.07466 115.586 2.02748
14.4046 121.677 5.57318
6.96388 77.6492 20.2104
9.80494 106.469 16.1645
-2.19928 136.933 -1.1382
-11.8567 129.602 14.1752
-1.69659 120.138 -5.52212
-31.9345 87.8078 27.932
-28.9869 115.858 4.2277
-31.4091 105.537 14.6946
5.30327 140.531 5.33386
-16.2941 135.749 7.96519
-16.0466 96.9824 0.347506
-19.2808 91.1936 2.73187
-24.5494 117.697 -2.06929
-24.3704 127.534 2.27481
-17.9965 140.39 5.76622
-23.9368 119.441 19.4229
10.2858 113.77 5.66934
17.6184 126.625 -1.07494
8.41772 95.9032 1.47989
-14.5828 129.171 -1.76325
20.9295 127.845 3.71923
-24.1666 86.6938 7.70847
5.19511 131.712 -4.66181
-0.660235 140.781 -1.39855
2.70027 89.0825 20.2448
-34.1207 90.7152 26.5658
-19.9298 137.904 -0.716873
-0.896317 87.0254 -3.79343
-0.637731 115.224 12.6955
-17.1094 146.733 -0.366011
9.47404 114.704 4.73075
-16.6358 114.582 -2.35358
-17.8415 104.723 22.406
-20.7594 112.396 -2.47595
23.952 122.962 0.750221
20.5627 122.695 7.13955
8.18448 99.0536 18.6148
-16.8089 83.7467 5.20281
-24.0092 111.326 22.1398
-12.9757 125.382 0.0905993
-8.58675 88.149 18.684
-13.9781 110.155 20.3019
0.680283 97.5755 21.2427
-15.2931 134.571 12.3684
-7.7741 93.3057 -2.97036
-25.6381 121.959 11.7548
11.5046 134.374 -6.03243
2.10294 131.255 -4.21317
10.3425 92.1046 10.2814
-5.83931 125.03 -3.35879
-20.269 134.297 -1.34122
-16.2782 134.918 9.72954
2.90419 126.863 -4.48868
-7.92819 140.99 3.11622
-29.8721 94.2874 25.7228
-16.9166 104.987 21.3655
-10.9442 99.5233 -3.00646
-22.1483 119.3 19.7412
-12.9602 126.237 15.3245
22.5179 128.865 0.213346
11.7395 121.885 11.1414
8.39993 115.062 16.8368
-15.5082 133.531 12.3179
-10.4697 125.669 16.074
-28.9778 109.689 3.02542
-21.4152 119.749 19.5869
-7.45818 142.876 -3.59747
15.2166 137.722 -2.58308
-14.1756 137.505 5.72823
-19.5068 143.736 6.0684
-15.0137 126.804 -0.270998
5.34169 77.8192 10.6855
-33.1232 83.1693 19.2268
8.84512 114.66 -1.09782
-24.5218 127.25 2.20263
-26.0372 106.364 0.658951
-28.6525 86.9613 24.5338
9.30224 114.286 1.3575
9.56875 103.198 4.98888
-7.88375 74.1112 -0.256758
-26.0314 121.792 15.1042
4.03963 108.76 18.561
-20.7866 147.019 0.222399
-31.0396 127.153 -1.25824
-34.6704 94.8989 21.2988
12.2144 111.972 8.44203
-1.72547 113.516 13.1834
-27.6077 129.846 6.4638
-5.6211 103.771 -5.56483
-28.7606 111.979 6.62434
-16.1381 141.784 -1.8604
-3.60104 98.3425 22.0793
-19.2132 146.529 5.38731
13.9205 127.988 -0.992454
-18.6509 147.166 -0.351359
-33.0581 93.6789 26.4644
-35.7083 91.0007 18.9914
-15.5125 93.9521 21.368
-20.6952 134.254 -1.53678
-29.2836 98.2976 4.88231
-8.79167 75.3953 0.387062
-27.3587 116.635 8.72579
-1.47806 138.47 -1.23288
-30.7789 135.366 0.262108
-21.9698 141.635 -0.691718
-32.8424 97.9916 13.983
-25.2436 134.788 -2.45538
-20.5104 131.339 -0.980324
0.100901 123.357 -3.9165
-7.02976 98.1658 -3.47091
-17.9426 95.4143 22.0286
-11.5185 76.3055 2.52972
-23.8367 129.663 8.68329
-3.78463 89.2552 -4.17437
-9.08817 132.39 12.9833
-23.0422 145.143 0.593072
4.20695 88.7659 -1.39898
20.016 123.012 7.08485
-25.7866 82.1977 10.1491
-23.623 130.735 9.34657
-1.97413 89.6878 -4.2974
-31.6292 92.8413 26.4836
-11.4944 137.811 9.92688
17.6067 126.118 -1.3802
-25.9558 97.7725 2.86328
-34.6204 90.4215 15.7671
-12.1882 115.146 19.1772
-17.8502 103.692 21.5728
-12.0948 142.063 -3.10872
5.83425 113.746 17.8297
-4.38816 91.6878 19.5709
-27.7444 135.536 3.17986
-9.9834 74.8927 1.28459
11.1191 120.17 -5.5334
-19.5756 144.146 -0.378886
-25.9539 125.293 1.7479
5.39675 85.4191 20.194
-25.645 127.439 12.7203
18.034 126.458 -1.12633
-6.11971 140.938 3.13126
-10.6759 130.126 -0.139064
-16.364 149.664 3.79446
-1.8824 91.5245 20.5342
-24.5465 90.6819 6.38454
3.07469 80.0459 4.12306
-25.2532 125.467 15.5102
10.7349 94.4374 10.1576
-9.98335 118.796 17.8368
11.4574 101.799 9.36386
-26.9275 80.5582 11.6883
0.703416 134.386 -4.25687
-16.9802 105.333 21.7172
-14.5545 143.198 -2.59817
-16.7902 118.145 19.7625
-2.86578 109.022 -6.07878
-9.48967 97.757 -2.56853
-2.17122 76.2198 -1.41679
-11.7319 96.1375 -1.79327
10.9777 120.422 12.4858
-24.8756 129.845 0.72624
2.35045 137.855 -4.37929
-15.4763 114.448 20.2635
19.476 134.662 0.167814
12.6105 116.365 5.34994
-18.0089 124.611 17.0694
-8.40018 94.082 -2.79488
9.89972 126.934 -1.3971
-15.6582 143.511 -1.40205
-19.7927 94.6625 22.1239
-24.5425 118.494 19.6216
11.0277 120.668 12.9422
16.5421 119.783 -1.3899
-26.7856 135.408 -1.55639
12.2081 122.371 -1.45762
5.7097 83.317 7.94648
-11.0523 105.826 16.9379
-14.5825 109.602 20.8159
7.90262 90.3212 19.1655
-27.7161 133.963 6.52845
3.49146 80.569 20.1001
5.33042 103.929 19.8602
-24.8865 99.5306 23.3972
-0.286032 103.145 -6.24856
-9.98142 122.406 -0.975651
15.0255 130.054 -3.88453
-12.4841 113.456 -2.61955
7.44727 132.784 8.26105
14.1644 121.901 7.33589
-20.9973 130.573 8.69999
-30.4174 102.788 5.26569
-5.49173 78.9162 -1.66885
-24.7452 128.459 12.561
7.22007 136.487 -5.32933
6.69618 110.567 -4.23867
-29.5389 110.575 15.3442
5.39217 98.1593 20.1297
12.6922 131.9 -3.02229
7.04797 99.4051 -1.33651
-18.6521 131.006 14.2751
-14.8117 111.484 -2.76758
-1.16447 101.338 -6.37085
-13.403 113.495 19.5629
16.8042 126.875 7.8642
-13.8993 104.076 -3.76293
7.73273 132.364 9.86171
-10.9811 95.2149 -2.03069
-5.19231 88.6315 -3.56287
-4.94786 128.812 13.5985
-28.2223 98.5736 21.3511
-27.5964 131.225 8.48885
9.88956 121.728 -3.19737
-24.0054 129.534 -2.89617
3.19218 134.818 7.00403
-5.94687 127.639 -2.28485
1.72328 132.599 7.53728
-7.31151 135.621 11.9446
-28.135 109.859 19.7958
11.1136 124.869 5.89008
4.94396 88.7248 -0.743376
9.72453 105.045 1.2537
-26.359 121.459 16.9704
-15.7547 137.008 -1.51626
13.6873 117.29 -2.14414
-3.52132 135.664 -0.808566
0.388567 139.232 8.54152
1.22771 130.033 8.03617
-29.7597 129.219 7.10132
-14.0766 145.603 1.89728
8.27985 106.008 -1.85783
-20.3876 118.339 -1.42865
3.67981 106.697 19.5084
-16.3682 96.1736 0.88453
-26.7753 129.085 8.12304
-21.1073 87.8652 5.93766
2.26408 85.7822 -2.25043
14.1761 128.908 -0.923545
12.1107 106.62 13.8526
21.8123 126.438 -0.958895
11.9753 109.553 4.43883
-14.8738 137.462 5.08781
-25.2662 130.009 2.16901
11.8979 121.872 10.9422
8.28894 85.964 17.154
12.653 126.2 -1.61511
-3.90897 125.858 12.7642
-14.2225 97.7105 19.3669
-24.0294 126.403 16.8242
-30.5244 126.534 -0.398651
-17.6031 116.093 20.5902
-13.743 98.5805 -1.17731
-29.4898 100.256 4.62732
-13.5326 124.142 17.5039
1.12022 103.615 20.4884
9.40221 102.943 3.48899
-7.38313 91.3855 -2.49981
13.2632 137.147 -2.2396
-23.2723 127.379 1.06123
7.35933 85.0717 18.7799
9.99432 95.2373 6.8002
13.3134 135.155 -4.01082
-20.1678 126.354 15.9417
5.47103 95.7423 20.4324
-24.5839 130.669 -3.37051
-30.0336 126.791 -1.4237
-7.73614 118.257 -4.14528
-15.6117 141.133 -2.37921
-1.69381 110.361 -5.37503
-28.9714 113.981 3.21971
-4.3156 131.789 12.2413
2.12833 141.328 6.34926
-0.695062 84.2633 -3.32536
-22.9002 91.6929 4.77961
-16.1 117.604 -1.51303
18.5834 127.571 7.90256
9.39461 86.2055 14.8849
-30.3326 106.109 6.78112
-25.5246 130.699 -4.39637
-0.636934 89.3768 20.8423
-12.8877 117.831 -1.46067
16.0339 123.531 -2.22626
-12.8854 93.0428 0.0842991
8.6343 76.7711 16.1623
-13.7032 104.578 18.2196
-26.0533 127.452 8.86245
-1.2142 102.79 20.5263
-31.7877 134.517 1.41223
-0.484306 142.877 6.60736
8.68716 129.411 11.9015
-22.8148 83.3881 8.2757
0.408586 110.519 15.3007
-30.8121 107.558 16.634
13.8705 126.147 5.85472
3.80006 127.976 -4.98072
-4.01755 136.161 -0.246153
9.41169 113.288 0.468107
-10.579 110.869 -4.14234
-11.4659 96.7479 20.7679
21.3305 134.228 1.69051
-5.70156 138.987 9.21709
-6.17758 100.752 -4.40607
2.9166 100.72 -4.73443
-6.05131 122.568 -3.94331
-22.4939 131.951 -3.93662
9.37942 88.9631 16.555
-9.8878 128.617 14.5516
-24.3228 127.799 -1.07139
6.84107 80.3628 10.9416
-6.87255 89.0212 -2.32796
-0.924213 103.194 20.4723
9.01694 97.4791 17.6611
-23.8624 81.938 9.22663
8.70681 77.2268 14.6504
16.3421 129.336 7.91065
-17.0243 145.725 4.70341
19.2855 117.975 3.11801
-25.7941 123.295 11.3616
-1.3603 88.778 -3.96188
-29.0452 110.966 18.3322
6.74201 138.004 -5.64591
-22.9269 131.042 -1.22197
-13.3137 95.5655 21.8936
-17.687 104.956 22.385
-2.18121 116.423 11.966
-24.4689 92.3839 5.62484
-3.88454 92.6668 19.9678
-17.967 99.4321 -0.582406
-10.2488 91.4193 20.2955
9.52953 98.5028 4.09887
-16.2937 88.9313 2.82024
-33.8379 98.475 17.6138
7.97383 86.4742 8.09037
-0.118239 94.5074 21.1508
-5.43578 130.35 13.4248
-1.72098 126.933 10.3126
-5.16099 140.215 8.67789
-32.7357 131.369 6.05425
11.3245 127.988 -1.41654
-33.591 91.174 27.8774
-28.7358 89.55 25.2667
-31.4352 90.1109 10.9522
12.4468 115.672 6.09499
0.582115 75.2675 4.64202
-12.4528 79.0433 2.84612
-10.4381 78.3756 1.29618
8.56831 82.9967 13.8668
-28.1019 137.451 2.56354
11.0935 123.068 0.514929
-32.5238 97.1028 21.1138
0.244622 97.8932 21.2638
-26.3447 101.999 20.3316
-8.68925 83.9979 17.8526
-20.6919 146.338 4.70246
-12.6557 133.936 -3.89497
-9.66393 129.234 0.399413
-21.9816 87.1015 20.2067
-7.01927 103.394 16.7403
-12.7679 96.4811 21.0492
-4.85332 105.503 -6.34998
-0.814646 119.628 10.9545
-33.2459 95.8783 13.9417
-24.917 139.188 4.23537
-7.94525 139.469 4.97955
7.61553 95.6142 0.338981
-25.2143 112.677 -1.16862
4.73792 123.007 -5.57873
-14.9275 88.824 17.638
-7.27144 133.072 0.303215
13.8823 135.058 -3.42813
-30.0577 104.085 4.83136
10.2117 105.535 15.636
-14.766 93.6876 0.649726
-0.757664 136.301 -2.3875
-23.9461 122.628 18.0136
5.50566 94.8826 -1.19251
-19.0039 128.115 15.0123
-29.7793 128.38 0.416504
1.54986 138.655 -4.33148
-28.6052 132.376 -1.73218
9.2488 141.697 -5.76079
12.3611 117.622 3.39011
10.442 101.712 16.212
-27.0381 102.313 19.4758
-5.8398 129.745 13.7863
-23.6132 131.252 9.44529
8.72733 111.03 -2.58739
-2.7053 98.6491 -5.75619
-9.85626 80.7844 0.491452
20.6194 131.531 5.89491
-31.3605 100.103 10.2751
-5.49746 123.349 14.115
11.5068 129.688 -4.42828
-22.8905 128.006 -0.0499147
0.67379 75.9728 0.39376
-4.16407 90.524 -4.29086
-9.87111 74.9349 1.19894
-10.2357 90.7424 -0.927495
20.5032 135.181 4.75036
3.11394 76.2425 9.66713
-5.77894 141.298 5.08408
15.3368 128.245 6.82949
11.7956 117.198 8.42702
-22.3275 95.542 24.2249
-18.2362 148.948 0.708563
-10.637 132.14 12.6736
19.6537 134.752 0.712599
9.12822 116.385 2.01016
2.29887 81.0949 19.5541
-7.0489 138.954 -2.06336
-31.276 94.8904 26.2468
-34.2214 92.3662 26.0844
-19.8206 122.005 -1.6704
12.5542 133.957 -1.2435
-16.4803 150.58 1.04349
6.63403 124.323 -6.1271
12.1797 110.755 5.34152
-27.5684 115.394 18.9801
5.40353 112.588 18.033
10.4119 113.786 7.05236
-26.1658 122.271 16.987
-31.6147 127.267 0.229554
-11.6183 124.768 17.0214
-27.0444 127.513 5.60913
16.0263 122.085 5.90363
-3.3986 79.8842 -2.52332
13.5302 126.946 8.0639
-10.9634 98.5954 18.9456
-10.9478 144.716 -3.70948
8.44564 115.303 -4.46629
4.13909 120.343 -3.90797
-27.4123 85.7307 23.6695
-17.3754 149.051 3.88665
-20.5162 131.093 11.5139
-13.312 108.22 18.9448
-1.0499 128.477 9.94124
-4.50114 119.96 11.7851
-17.7151 138.469 0.16963
-27.0886 130.108 8.77708
1.71663 142.511 -3.05969
-10.3514 145.812 0.0850814
-20.9702 143.636 -0.595989
21.5628 126.379 -1.12612
-29.6763 108.118 4.40796
-34.3135 91.0366 25.8046
-32.7997 129.22 5.36064
-29.0944 117.958 5.20923
-22.1811 88.4078 6.10085
7.02258 137.303 -5.48727
-15.1473 95.9658 20.229
-25.4838 100.532 2.20705
4.66755 139.502 -5.24432
9.8223 121.175 -1.45709
11.2136 104.269 8.89801
-21.6438 114.155 20.9265
-25.7661 122.751 14.5204
8.48108 128.015 12.6074
-0.859639 87.1212 -3.80638
4.59703 114.454 -3.94508
9.38055 116.448 15.8683
-11.3534 94.4501 -1.65728
3.27112 88.8645 -2.25256
14.8834 125.296 6.46968
-31.2598 102.846 11.1713
-0.185902 90.4409 -4.25768
-30.1696 109.394 17.0357
3.90368 118.245 -4.59855
-3.40056 85.0775 -3.41065
-4.2634 111.234 13.7405
-25.0379 98.4241 25.6235
-29.2959 130.95 6.25769
-35.4054 89.8563 17.7884
7.73287 135.491 7.61896
-9.89689 98.3634 -2.83531
10.9685 130.528 -5.63811
13.6844 118.729 -1.30951
5.59129 84.7257 1.52522
9.67303 92.4943 16.4351
9.80078 94.3209 7.17724
9.16821 108.734 16.8513
7.42548 97.6815 -0.0809515
-6.4873 140.567 4.86604
7.9407 110.864 17.7196
-0.498975 130.889 9.64868
-20.3375 121.367 19.0901
-28.953 125.789 -2.57977
-17.2767 94.5242 1.65246
-31.9698 96.9896 9.86796
-20.6348 143.139 -0.322064
-4.08987 113.373 -6.23958
-24.9027 95.93 3.25564
8.86864 79.8419 14.4263
-0.491192 96.425 -5.57406
-29.0976 127.493 -1.75094
4.08195 136.527 5.87342
9.71698 125.596 1.30419
7.50637 79.0591 12.1934
-26.768 110.103 21.4016
-18.55 87.9126 18.803
-24.263 126.634 16.2695
18.0878 128.03 7.71969
-13.0804 102.726 -3.88333
-32.3226 131.296 6.48761
-18.2809 122.436 -1.47109
-13.1883 79.2055 3.26396
3.54891 81.1166 1.94417
-31.1482 103.38 16.0389
-26.5164 98.2877 23.6211
10.3222 94.1668 8.97927
-16.3869 132.708 11.8397
-20.6578 100.071 -0.395507
-30.445 130.721 5.83805
-11.3398 80.7802 1.16905
-31.5616 127.3 2.04935
-11.2875 90.9246 -0.353094
13.4559 135.3 -2.65481
-25.5672 129.683 3.00029
-17.9535 111.96 20.9864
11.2181 124.953 -4.51551
3.14632 76.5261 9.59997
-27.5848 108.823 20.521
-7.53248 133.014 0.19351
-31.7852 100.424 14.2064
-13.9172 121.186 18.6598
11.1157 102.725 14.0376
8.89049 123.93 -6.05711
7.88878 89.2917 19.1557
-9.26925 118.785 17.3167
-10.7693 97.5099 19.6544
-11.7418 125.266 16.5479
-31.6681 129.723 5.99176
-31.0032 129.135 -2.74454
-3.21613 110.791 14.1265
1.40077 137.231 7.67824
-7.51739 116.283 14.5761
-20.0358 134.966 1.7188
14.4207 122.207 5.93493
-14.6912 78.3162 4.63601
13.3922 134.286 -2.16766
-11.5434 112.968 -2.90861
-23.1501 116.712 20.6545
-9.84762 90.5239 -0.949055
13.7133 120.68 -1.06478
-25.1323 123.326 17.4428
-0.442915 121.777 10.3374
-34.087 84.5289 18.2583
0.574023 108.498 16.2999
1.27128 119.832 -3.92656
-13.1178 88.0424 17.7556
-13.7614 129.914 -2.02059
-23.4358 137.143 -3.1711
10.1757 125.681 10.8791
-29.9561 128.253 1.00848
6.52131 136.374 5.58717
-4.20409 143.455 1.67181
-34.9714 95.2357 19.274
-21.8857 138.671 6.12738
-22.9623 139.685 -1.02022
-29.1678 107.542 12.6569
2.03058 128.178 8.13788
16.5085 134.849 -3.4161
-21.8832 146.666 0.945434
-20.9074 106.931 -1.54728
15.8553 131.496 -3.19351
0.221171 110.349 -5.73493
19.2337 117.615 2.46758
9.96441 89.7864 13.5566
1.32783 85.3116 -2.93832
-15.4368 87.4072 17.2983
9.21045 101.967 3.33029
15.1395 120.872 4.93961
-13.9733 141.36 -2.58581
12.5969 129.021 -2.67743
-18.9857 130.565 -2.13617
10.8995 120.772 14.284
-6.06422 136.38 -0.866233
-7.04978 100.728 -4.37014
-18.5205 144.198 -0.249409
5.13161 106.99 19.7882
-1.47734 124.558 -4.86397
-25.7877 121.712 -0.738888
-12.4152 121.797 -0.324721
-19.0615 133.733 -0.125597
-32.4017 133.333 2.03219
-24.4723 97.1231 26.1141
-22.106 89.2549 22.6512
6.72044 118.786 16.0721
-6.76571 97.0504 -3.60651
8.25177 85.2871 13.7031
-20.7915 104.372 24.1458
6.89937 128.979 9.59188
-10.1734 124.833 16.9627
-0.628279 140.038 -1.63957
14.1033 118.934 0.634208
12.0918 123.442 -1.10053
-30.2149 131.455 6.6401
3.44814 121.23 11.249
-17.5357 104.78 -2.32556
-10.2005 138.676 7.23799
1.74753 134.378 -4.08977
13.3625 127.509 6.54829
-30.9404 135.222 0.370413
12.9042 115.154 11.4283
0.0403246 135.794 -3.64329
10.0045 90.9167 15.7916
6.74465 136.053 -5.1655
-13.9821 99.3424 -1.92992
21.556 127.13 -0.984272
-23.1693 128.582 -0.255355
-20.1284 132.285 0.218653
8.61116 87.3816 9.50252
-13.8789 116.149 19.7696
5.4973 89.1482 -0.0446717
-14.5332 134.439 -1.80357
-18.3652 121.843 -1.37543
-25.4043 80.0844 10.701
-29.3401 129.13 -3.94085
11.5193 97.1874 11.1694
-25.0549 127.05 0.189119
-9.00971 104.099 -5.46954
3.03301 86.8459 19.7075
13.5998 130.866 7.76999
-8.69109 97.6964 20.0782
3.33413 95.2412 -3.45089
0.254796 86.373 -3.65425
-11.4433 140.851 -3.89006
5.44887 107.439 19.5803
0.391342 138.815 8.49532
-8.99378 77.1359 0.818195
7.45079 83.8 16.6557
11.8672 112.018 7.4385
-6.66763 85.1416 18.5955
-10.9981 94.2794 21.3501
4.14914 131.698 7.08907
11.8371 109.05 14.1118
-8.3146 104.524 -5.69303
-31.0584 96.3586 7.76243
-27.8362 117.133 8.169
8.78817 109.889 16.9507
-4.62761 142.332 5.29641
5.47079 118.977 -3.68068
-5.44278 93.4435 20.9462
-16.7012 108.356 22.0105
7.11524 136.526 -5.30517
9.30102 115.638 0.783471
8.42366 138.32 -6.12449
-25.8575 80.0225 11.2897
-18.5483 145.305 5.29422
-21.9438 129.311 15.78
3.48204 96.6886 -3.7828
-26.9579 105.101 20.2851
11.4693 136.242 8.41949
-26.7195 80.6028 11.4371
9.07656 114.86 -2.09666
-7.43465 132.562 0.414417
-19.996 108.599 -2.23532
6.41908 98.585 -1.28855
-17.8424 109.632 21.3778
-10.9141 120.398 -1.25087
-11.5613 136.852 10.8752
-23.4184 111.212 -1.41451
9.43457 114.354 0.913718
-10.6384 136.678 10.984
-11.1516 111.993 -3.1029
-10.4579 110.816 -4.38795
-22.0678 99.1548 0.554667
-22.9805 110.568 22.0502
-32.6592 90.2492 12.5415
-28.23 115.606 15.4638
-35.7236 90.7537 22.7746
-25.5071 127.579 4.00076
-26.392 130.819 -3.69672
-27.7668 126.668 0.0291151
11.04 138.55 -5.27951
-26.944 106.417 20.9115
-17.1339 100.282 20.5654
-28.9467 109.916 5.12449
-14.5201 78.8505 4.31956
-13.0784 130.364 14.3893
-19.1827 135.05 -0.147175
-8.52898 142.174 -3.77986
11.8381 122.384 11.041
-26.0782 88.9681 24.1628
9.16366 83.4305 13.102
-10.6947 101.973 17.5345
-20.23 132.515 -0.0116678
10.1763 115.41 15.3102
-2.42912 101.105 -6.06011
0.119469 123.1 -3.92538
-27.023 127.04 4.73801
10.6015 114.601 6.34278
11.5558 111.392 3.69226
-31.6648 129.892 6.52383
12.4611 125.724 0.920475
1.78243 78.2556 20.4514
-24.5256 126.107 0.966813
-18.2387 100.986 21.3172
7.19071 90.7214 19.8281
-5.27865 91.466 19.7494
-21.7033 131.354 14.5814
-23.5205 131.877 -4.00388
-25.8725 131.054 4.63063
12.4816 132.153 -2.28217
-10.5063 82.8063 0.815949
21.3927 124.319 5.59509
-1.30962 104.037 19.4385
-6.80165 123.262 15.5092
2.2221 78.8381 2.17533
-25.4166 123.213 12.277
8.69112 84.3734 15.8651
-6.11278 130.674 -0.710117
-5.5888 119.539 12.856
-15.9622 108.629 21.6853
-14.8055 111.3 20.4105
-3.26093 86.314 20.1801
18.2953 129.039 7.14783
-16.4089 131.5 14.529
-17.301 144.794 -0.0776911
-13.5579 141.996 3.33808
-0.715976 128.028 9.51622
10.4828 126.812 -5.57004
8.79785 79.143 14.5728
13.0572 133.697 -1.52166
8.83151 79.5138 14.5198
-24.6438 143.733 0.352664
-7.14602 115.055 13.8966
-16.2484 100.685 19.9323
-17.4923 80.8973 5.76973
-27.0397 107.139 2.07388
3.4882 113.769 -5.12006
-9.57544 107.069 15.7169
-26.0569 97.4943 25.9196
2.41696 84.4881 19.5005
-29.6008 127.861 -1.969
-8.67453 98.1948 -2.98769
-30.0508 133.619 -0.213202
-2.22396 126.077 -4.96067
5.78349 113.891 17.6993
7.34166 118.641 -4.88773
9.46961 113.292 0.707084
3.19705 86.3263 -1.42914
-26.1795 118.313 -1.15876
9.93925 112.847 1.84246
7.44277 122.94 14.6409
-4.99591 142.396 -1.64683
-34.893 84.2323 20.4088
-3.61052 92.6424 -4.7154
-3.55402 103.223 18.4861
2.1001 80.1118 -1.26419
0.405032 118.238 -5.02928
7.69473 132.184 10.0721
-18.7599 131.709 10.4374
-14.8893 95.6558 20.7146
2.43661 114.865 -5.75647
-6.72739 108.151 -5.73918
12.283 136.4 -3.86845
-23.8711 137.321 -3.01743
-0.99093 98.5124 21.5584
-27.736 134.63 4.52861
-7.83709 124.073 -1.71309
10.9866 125.849 -2.13213
8.92845 109.424 16.9257
-20.5742 131.397 0.311508
-25.3463 124.455 14.2071
12.4797 121.509 -2.79177
-4.79333 90.2593 19.3908
19.7644 122.072 6.87586
-5.88007 146.119 -2.95164
11.9945 119.719 2.02328
-9.86137 131.732 -0.365442
-27.1523 129.137 7.51082
-12.01 97.3941 -1.69147
5.47253 82.9683 8.83847
9.6051 98.576 4.54223
-6.0343 89.3603 -3.02178
9.96698 87.8928 15.6592
-35.3118 86.8306 25.3731
9.37953 102.958 3.01728
20.7143 133.22 0.990502
-1.73638 114.872 -5.36718
13.9585 128.192 0.744837
7.68339 80.1578 11.997
9.77151 125.47 11.5471
-19.2474 136.949 6.24661
-3.30202 120.822 11.136
12.1816 131.356 -4.49049
-3.03573 93.4748 20.2254
-30.0456 109.87 8.65301
-13.1566 105.937 17.984
12.7412 126.076 2.65216
6.82086 127.551 10.502
-0.800247 118.209 -5.55026
-12.8673 142.064 3.29849
-22.1176 130.572 -2.95575
11.6318 110.303 2.99938
-24.9807 105.782 -0.0339895
-6.7344 125.696 -2.36928
-25.6328 105.639 22.0044
-30.9112 101.724 15.2748
16.1151 132.913 -3.44969
20.608 129.885 5.04449
10.6736 90.7452 14.9617
-10.4014 108.976 -4.89786
-14.3506 138.304 4.94646
-31.9624 96.448 9.87088
11.5089 113.778 14.4541
-24.7773 122.219 17.896
-30.9386 104.639 16.3881
-28.313 113.882 18.0376
13.227 123.226 5.46632
9.74534 129.967 -6.39864
-14.3561 118.468 19.3649
5.6227 115.419 -3.30188
-1.46796 84.8911 -3.48876
-16.7406 150.147 2.9174
-31.5891 129.656 6.04632
-30.5092 128.251 1.74186
-3.65339 101.307 20.5119
-31.4249 129.679 6.33124
-22.7798 130 0.281649
14.2162 123.495 6.19173
8.90315 94.9437 3.56336
10.9863 124.484 -5.3145
5.51279 90.5161 20.7242
-25.018 130.065 -2.04873
9.72659 113.739 -2.22607
-31.5878 94.8526 26.1334
-30.6792 103.725 6.45434
2.66306 137.697 7.00992
-23.8541 128.661 13.5301
-16.8976 103.732 20.3294
-32.1667 92.802 10.1119
-18.6434 114.666 20.7063
-9.87301 114.877 -2.71781
-29.0428 109.095 13.4046
-27.1332 131.35 4.70192
-5.4831 82.1247 19.2543
-5.30827 106.565 15.4977
10.5677 124.326 4.62819
-31.1955 86.3678 12.6957
-15.4261 86.0075 17.1313
-14.2649 141.654 3.30057
-20.4666 133.171 -0.355431
-34.4692 96.7462 18.7472
11.821 104.26 12.4171
-25.6245 124.178 2.89852
-13.6783 109.384 20.3651
-16.7467 143.912 0.622283
-15.6009 96.3919 20.119
-17.9382 82.5077 6.18049
13.1527 137.5 -0.595667
-6.30522 147.847 -3.5792
14.1593 125.05 6.01087
-8.65108 86.2827 17.9553
-5.60979 141.026 3.56612
-20.3595 137.527 -1.29847
-28.8158 115.66 2.51792
-8.32153 133.389 -0.346774
10.5065 92.7338 10.4382
-11.1191 118.565 -1.29308
14.2012 123.575 7.32625
-2.88459 92.2851 -4.80975
-14.797 91.9119 1.51414
-17.8977 108.691 -2.34579
-3.17392 103.124 -6.31916
0.996669 134.782 7.99945
4.38412 123.916 10.6213
-20.043 88.7855 21.0058
-23.4128 122.562 18.1018
-3.69653 101.765 19.9966
8.44324 86.6914 12.036
12.5059 125.794 1.19976
-16.7183 145.168 0.167989
11.6248 103.694 12.0453
-22.6623 130.063 -0.384112
22.4663 124.284 -0.116556
11.5327 127.763 -3.99743
-24.2825 108.146 -0.0578116
-9.03223 136.894 10.5328
5.9032 92.2851 20.6514
-26.512 117.636 10.1253
11.4615 112.253 6.86716
-25.4749 105.47 22.1328
-17.2435 126.354 -1.03237
-6.73817 110.467 14.0484
-22.3615 107.774 23.2732
-12.9582 122.909 -0.0359997
-25.9883 142.155 0.33404
4.00408 112.285 -5.17198
-19.1794 111.415 -2.30248
4.57437 80.2301 7.18942
23.9193 122.156 1.08718
13.4971 120.349 2.25406
-22.8752 127.269 0.39087
-31.6489 129.779 6.53175
12.927 128.807 1.0295
-3.28942 125.661 11.9921
7.2463 108.006 18.5859
-28.897 95.0734 6.60501
8.70058 116.464 -2.70738
-18.6585 133.517 8.54347
-25.682 143.152 1.39296
11.4517 122.918 -1.29852
-27.2045 111.465 1.24752
8.99944 128.968 12.1547
-9.33116 118.547 17.3435
8.59343 76.189 15.4095
-25.9837 129.141 3.86135
-2.0789 90.4153 -4.54569
6.78906 111.192 18.5557
-13.1413 108.884 19.3421
-6.76338 141.13 7.33096
10.2568 114.76 15.3252
0.130379 81.2766 19.6307
-3.42087 142.912 3.16749
-13.4005 88.5796 17.962
-18.8704 119.413 19.4812
9.22129 101.528 3.70971
3.07431 124.854 -4.50316
18.9679 125.061 -1.8238
-18.4109 93.6036 21.9338
9.27613 126.381 -6.45959
-17.8038 139.193 6.04306
-0.0714499 100.443 21.1811
-27.0927 90.9379 24.7604
12.721 120.179 8.36387
7.83704 104.753 -2.16209
-5.49032 83.0304 -2.30291
-25.247 99.1778 23.8618
6.27079 88.7898 0.834186
5.22395 93.8166 -1.36763
6.51486 111.971 18.3932
3.3413 109.474 -4.82314
5.04669 133.762 6.4496
-32.4213 97.4533 20.4063
-6.63043 87.2713 18.4746
11.9849 115.296 13.7939
-14.4176 109.571 -2.57771
4.77589 102.704 -3.51335
-20.4236 136.293 -2.68761
7.95188 121.25 -5.21753
-19.0878 145.239 -0.691827
4.00221 137.7 5.67816
-11.066 114.821 18.5726
-32.2958 99.5587 11.122
8.08311 101.051 18.5719
-33.4197 128.398 4.85497
-32.0439 130.715 -0.897144
7.38619 109.344 -3.4457
-17.1009 129.589 -2.41208
-5.40371 135.265 0.322036
-22.4865 130.572 1.3987
-20.069 99.6461 22.6721
2.48181 76.8995 7.56296
-26.0897 121.124 13.434
-25.4642 126.23 12.9385
19.0755 118.99 5.06832
-17.2808 82.8601 16.3883
-3.18755 94.1607 -5.09908
-36.2183 85.553 21.4964
-21.2397 129.982 9.14104
-17.524 100.938 -1.34897
-28.0036 126.851 -1.90762
9.1889 123.978 13.911
-15.4963 108.932 -2.71207
-14.3957 82.4924 3.13812
-3.42868 97.2813 22.1295
-1.27594 112.488 13.8091
-4.84488 142.464 1.89345
5.13376 121.168 12.5662
-25.7742 85.4968 9.52477
-7.69738 124.581 -1.73339
-9.11624 76.7403 0.886438
-29.0577 112.136 3.67083
6.82064 77.2298 12.1316
-9.33751 127.347 0.159952
-6.62063 113.603 13.5926
10.8223 124.605 -1.31268
-20.15 133.091 -0.0867212
-3.56668 143.437 5.76987
11.5445 129.22 -3.91579
-18.3988 124.823 -1.83488
-10.3554 87.668 0.244151
-34.9112 95.0004 20.3023
-24.7056 129.159 7.97877
-11.6628 134.737 11.9761
-25.3953 87.6949 21.6712
13.5933 118.675 -1.30237
0.0448159 141.352 7.81638
-8.82757 116.077 16.7242
-25.4457 120.168 18.5039
8.30168 111.287 -2.94743
-15.8626 143.407 -2.01842
-4.28964 90.5286 19.6488
-22.8997 127.141 0.524696
-26.4673 136.385 3.75046
3.1579 99.0162 -4.38327
8.34694 111.532 17.1785
13.4515 132.064 8.17031
-23.7139 122.789 -2.14003
1.12501 80.6747 19.5163
23.6862 125.628 1.02647
-30.7517 104.076 11.8331
-13.3027 136.948 -3.13964
-24.186 127.352 -0.0266675
9.35687 137.549 7.59643
-20.4306 117.048 -1.79756
-21.757 120.149 -1.63945
-14.2102 122.665 18.2303
-17.7894 141.171 5.00185
-4.45316 111.882 -6.29287
-11.3713 133.896 -3.32228
-25.3102 125.644 2.49745
-13.4664 148.81 2.68555
-29.8161 105.684 10.9563
-24.3918 128.51 7.52286
14.4008 136.298 7.62073
-15.712 121.603 -0.353045
1.63471 128.484 -3.5827
5.44462 116.039 -3.50591
-17.7022 115.129 -1.98622
-11.8031 147.947 -3.50949
-2.56037 113.201 13.1671
7.08588 89.5495 19.7907
-25.593 107.288 22.6466
-6.43921 138.027 -1.718
14.1288 132.792 7.71748
-4.27562 96.8272 -5.00844
-4.24865 89.9466 19.6618
12.3233 136.083 -3.90886
-7.53703 79.8123 18.2778
-28.7162 130.327 4.50293
-25.6744 136.033 4.09977
9.33183 118.911 0.602428
-20.9153 128.617 -1.03573
-12.3753 89.2408 18.6857
-12.3632 145.221 0.889391
-4.48526 137.74 9.82165
6.84262 83.4312 18.0255
4.99163 121.935 11.9991
-17.852 130.195 14.4755
11.334 112.948 8.59777
6.06372 83.2323 10.8663
-16.4503 132.317 -1.22843
11.2333 123.714 5.36144
-27.7055 134.767 4.15169
2.60348 120.862 11.1267
-28.4693 95.5495 25.9632
-16.4951 113.148 20.6387
-19.293 132.332 12.6021
-22.2172 82.7488 8.28521
-11.9169 126.363 0.122617
-22.5948 126.225 16.577
-3.53985 134.251 11.0468
-9.75865 93.8205 -2.0623
-29.863 104.915 16.9005
-31.4193 100.372 18.3625
-14.4378 135.767 -2.68341
-21.1489 96.1164 23.6743
1.8357 75.8999 7.31136
11.6067 122.989 -1.31113
-29.7498 109.591 11.4971
-20.7184 127.005 15.7633
15.2212 122.14 5.65472
-30.6309 126.695 2.48425
-30.358 97.1847 23.0094
-18.8905 132.091 -1.32687
13.1876 126.622 -4.9978
-16.8373 89.8429 18.2075
-14.9276 128.29 15.0079
-21.9882 94.7202 24.1493
-5.7264 136.144 -0.44472
4.22535 111.283 -5.38894
6.07999 133.266 6.92762
-28.768 138.154 0.453829
9.33182 94.9141 4.67235
13.8325 136.143 7.91353
3.20825 132.182 -4.61325
-25.3351 124.295 16.015
-16.2625 143.014 0.300909
-3.9857 75.2447 -1.54969
-29.9553 92.5236 8.79828
-6.16888 97.6221 -3.93533
-6.99748 140.917 6.41304
-31.2319 129.945 -2.74587
-7.77411 79.3485 -0.288445
5.32481 107.728 19.6427
-25.682 111.605 21.7736
-31.6848 104.855 15.6492
-2.83762 129.57 12.0375
-1.5056 108.743 15.4542
-26.1321 102.515 20.6143
11.2584 125.044 -4.1543
-15.4141 128.129 -1.34815
-1.3439 97.0846 -5.7196
-27.1832 93.8578 6.76182
9.3121 84.0493 15.1329
-3.97351 126.876 -4.30304
-25.688 129.014 -2.49153
-12.3364 96.8951 20.2204
10.973 95.867 14.4743
-10.7273 110.377 -4.22084
-28.3827 125.499 -2.33625
-22.2548 78.3262 8.80929
5.43977 111.796 18.3005
11.6067 136.48 8.10781
1.6019 133.408 -3.91991
12.3235 109.206 7.6278
11.5953 109.531 14.4785
2.18758 141.693 6.20479
14.1894 123.219 7.28691
-26.7517 112.241 0.591542
12.6108 129.475 1.23069
-23.8673 127.578 0.0588556
6.51709 140.86 -5.16629
-18.9839 102.661 22.2749
-15.5606 124.948 17.0579
-5.53977 91.7975 -3.84301
-11.1807 82.709 17.3488
-21.3824 138.324 6.1782
1.70963 75.8948 6.81152
-22.6036 89.4338 23.1151
-24.6555 92.0461 5.89322
-1.38346 118.116 -5.78377
-18.7699 99.4361 -0.342188
11.6723 135.554 8.59699
-30.2179 109.445 16.5341
6.47538 109.276 -3.8661
-30.205 88.0439 24.5423
9.68576 92.5013 16.4218
13.1429 137.529 -2.43651
-19.6842 102.366 22.8984
5.50845 94.3316 -1.09241
-17.9536 133.538 9.49718
12.7317 128.357 7.27509
-4.30407 79.18 -2.37037
7.35674 86.8585 5.68887
-17.206 150.267 1.30308
9.18032 133.372 9.94866
-12.3195 86.8079 17.4198
-23.5224 127.018 -0.260976
0.45101 75.6161 3.63685
-11.4954 111.458 -3.02424
-29.1463 111.641 15.219
-22.6913 130.475 12.2579
-13.5863 130.118 -2.12648
-30.1037 134.898 2.72746
-0.839323 132.568 10.1723
-30.8547 130.726 -2.33659
-21.8844 92.2007 3.35566
7.63518 80.662 16.2725
-23.5902 123.842 -0.496464
-13.2186 144.091 1.82653
-17.1638 96.2593 1.1394
-23.5502 140.931 5.57757
-6.95717 122.527 15.6383
12.1425 140.513 -3.59005
-30.5171 136.336 0.56493
-4.83983 119.228 11.9687
-2.38972 109.638 14.7981
7.4705 82.2382 17.8099
-24.2448 99.6559 24.2399
-25.6863 105.755 0.712341
-20.2152 143.396 -0.204683
-0.483925 90.024 -4.17139
-31.0344 132.372 6.48853
7.12176 126.189 13.1459
-30.5337 93.5507 25.7856
-25.3622 129.497 2.61778
-28.9618 81.0038 14.2054
10.486 129.107 -2.84713
-31.3721 90.4688 10.5407
-30.7951 129.807 7.1565
9.84134 99.8835 17.4931
-20.2092 147.823 3.5296
-23.4173 120.916 18.6647
12.989 129.956 -2.74287
19.3622 136.568 -0.414292
-15.8709 141.46 3.50482
-1.33977 83.6579 19.4524
-27.4435 100.365 20.734
-24.6399 125.514 16.6976
11.9482 137.82 7.85519
-24.2636 127.402 15.0983
0.739685 102.097 20.7329
-3.10835 130.297 11.9456
-5.89006 124.478 -3.40882
-21.6996 140.376 -0.542894
9.21651 116.089 1.61569
-30.5898 130.73 -2.54301
12.8466 132.055 -3.60055
-12.4051 76.7689 3.04494
-6.16521 136.951 10.5426
20.5702 119.146 6.25625
-0.802193 135.917 -2.45758
-30.0724 107.397 10.8052
10.9702 120.178 -5.1523
-18.8757 97.9061 0.77867
-25.0202 127.776 -1.3233
14.2956 118.757 2.59417
-29.2287 128.542 -3.63868
-6.08365 114.111 -6.05825
-11.4377 129.439 -0.103851
21.265 124.455 6.42786
-11.5287 138.114 7.58696
8.30953 131.103 11.1384
-4.63133 78.1495 -2.07396
-19.1257 131.44 10.8117
-22.7839 117.49 -2.60706
-28.2159 100.02 3.57399
3.21478 78.5326 6.91079
-26.7354 126.798 -1.13803
-16.1716 125.525 -0.570619
-14.302 97.1474 19.5779
3.32386 133.089 -4.64146
-24.4339 144.32 1.84212
10.2679 131.556 -2.05399
-18.9518 137.212 0.652395
-21.7345 114.001 20.934
-7.53031 98.4697 20.2259
10.3624 112.285 1.89302
-21.2697 87.8268 20.8053
4.39273 115.663 -3.97413
12.0854 125.944 -2.53325
-11.1646 131.429 -1.21804
-32.2794 131.785 0.0671859
-5.18825 108.385 -6.4991
12.8314 118.467 -1.83664
-22.7454 124.892 -1.00516
11.9326 127.207 2.04504
-7.64796 95.1039 22.2074
-21.0296 127.848 -0.434634
-23.7484 134.29 6.43873
-11.7821 139.11 -3.51729
-35.284 93.9159 18.7976
-5.58192 79.7502 18.8577
-4.04203 143.57 -1.30042
-16.662 115.032 20.6311
12.0902 119.647 -6.59816
-32.4454 95.7838 10.7917
-29.6651 105.321 4.20306
-16.4248 146.539 4.52516
11.7864 138.115 -4.50702
0.987436 103.798 -5.84961
-32.0672 97.2031 21.0105
-7.92134 146.362 -4.23251
1.93401 136.051 7.82924
-24.6046 109.7 22.7889
6.93686 83.2074 17.114
-5.49498 139.482 9.01229
-25.4878 125.318 1.86779
-28.6177 112.851 2.55145
-8.21795 127.627 -0.219328
-19.5994 78.757 8.0876
-16.6565 89.0577 17.5477
-13.6852 131.545 14.4439
13.8273 131.603 7.72576
-9.11507 95.8537 22.3068
-4.54241 137.216 10.3182
-27.2244 140.651 2.94938
-12.591 138.344 8.70507
-14.4843 78.9447 4.23754
-12.6383 118.36 19.185
12.3269 139.138 -1.08074
-10.4087 139.6 -3.61479
11.6617 111.261 3.78171
6.35253 83.629 5.59721
-18.9047 91.9971 2.53539
22.7916 125.125 0.264215
-27.3094 115.609 9.49544
-17.9287 148.604 4.23546
-20.0307 92.0323 20.862
0.874219 140.333 7.88769
-0.775062 102.275 20.9232
-11.7387 95.962 21.8957
-15.3761 130.881 -3.3997
-14.8535 117.863 19.689
12.21 140.386 -4.12073
-6.62964 122.405 -3.44384
-12.7677 114.334 -2.21116
7.65263 99.8322 -1.16986
-26.3584 129.966 -1.04026
-29.2339 128.432 -3.60465
-30.7385 127.515 -1.26241
-22.7145 145.2 0.0169362
-15.8835 136.32 10.1647
-33.6306 85.3203 16.606
-14.4889 144.807 -1.70489
-19.4958 135.608 6.34756
-23.9615 92.3935 24.6962
-0.930189 130.319 10.1772
10.9774 93.6921 13.8398
12.6305 128.072 3.0545
4.47375 143.094 -4.16801
21.1915 127.374 -1.06261
2.71932 110.578 -5.48743
-20.7621 123.491 17.8818
8.38602 135.328 -5.84629
2.90865 91.8181 20.9449
-26.6679 88.7937 24.1515
-9.0354 121.787 17.2249
9.06561 115.098 16.2334
-12.3577 135.827 -3.89611
11.5509 124.626 -2.48268
-32.1507 97.4584 20.4361
9.04903 108.122 -2.037
8.35736 94.6316 2.67123
-29.2052 108.794 3.16287
-26.4179 115.865 -0.67126
-31.2007 87.8125 26.2067
-13.0691 94.7567 21.1135
-22.7835 135.684 5.62643
10.9337 126.897 2.9685
15.9316 128.69 -3.11652
-0.117127 102.641 20.9466
12.3237 116.853 7.18848
-18.3095 99.2922 -0.340367
-29.8886 107.995 6.66414
14.4805 138.615 -1.01299
6.83856 94.176 20.016
2.02806 127.63 8.30715
-2.91552 103.016 -6.42353
-30.1616 105.202 6.13017
-15.3033 136.322 6.6083
9.95632 128.958 0.461758
-19.385 86.205 5.13982
-19.5902 132.148 11.8309
3.36377 91.6668 -2.72265
-20.8215 85.8304 6.75615
-8.23958 114.63 15.2517
-20.6403 129.919 10.569
-4.68067 113.701 -6.20659
-27.4712 123.034 4.22761
-33.5099 130.38 6.29645
-27.9582 88.8869 24.707
-16.2965 89.4196 17.6859
-8.69953 96.6563 -2.88011
-19.4967 112.29 -2.75727
7.70294 94.0851 1.63932
-28.6204 105.499 18.0727
-26.6917 120.205 0.323733
-6.65538 89.6077 19.1776
-30.6167 101.347 9.54669
-9.90614 98.8009 -3.12297
15.8998 131.983 -3.32432
-1.60957 75.7994 -1.22754
9.06358 103.574 -0.800979
-16.7168 101.103 20.3643
13.8915 128.046 -4.34855
13.0492 134.716 -1.18546
-16.515 105.608 21.2918
-22.5917 131.685 8.33835
7.45955 81.7667 18.7553
-0.307145 73.2611 -0.112466
13.1553 112.199 11.273
-13.8904 96.9698 -0.300515
12.7695 132.22 -2.22311
7.61959 137.662 -5.6454
16.3426 121.535 -2.1186
12.4285 129.128 -2.80251
-13.3514 85.6021 2.48088
-26.7637 102.55 19.7566
10.9298 103.34 7.77403
-23.1953 98.4021 26.4059
-4.02584 137.825 -0.344675
-28.8474 99.0745 20.3265
11.2891 107.565 6.53724
1.54288 98.8309 20.8324
10.199 95.1373 7.61733
21.4696 121.115 -1.34346
-27.8076 128.486 6.83495
22.232 120.373 4.11021
9.37785 142.15 -5.50799
-29.686 108.89 4.8687
-25.9411 127.225 12.3376
-27.0586 116.962 11.3679
12.7443 131.815 -5.04798
8.91786 80.6419 13.2657
-27.3993 123.263 8.75281
14.094 118.963 0.474283
-16.4702 146.501 4.55309
4.04347 94.4358 -2.87431
-12.2746 137.528 10.0456
-25.2324 125.7 1.35187
-5.91475 102.504 -5.11499
-23.6552 130.542 8.18739
-12.3974 95.7936 21.5765
-12.0572 114.954 19.111
-13.0038 148.211 -2.57588
1.19863 96.8696 21.4464
7.06578 136.77 5.49922
-6.0831 99.2954 -4.07287
15.3034 137.254 -2.92304
3.92248 102.355 -3.72697
1.64581 128.14 8.14395
-18.8786 90.5244 19.853
-21.3425 130.724 12.7975
-20.8076 134.037 6.89901
-2.08526 118.846 11.299
10.392 110.182 15.6747
-9.07052 84.7636 17.8767
-14.8575 112.49 -2.44955
-23.5061 125.374 1.48736
-15.1048 126.403 -0.211201
12.8696 122.081 1.01226
10.0497 87.7926 15.5362
-10.7263 119.94 18.2964
-21.4116 130.872 -2.26428
-11.6387 111.528 18.9489
-26.3289 98.8527 22.561
-27.1966 132.455 8.32486
7.46559 130.681 -5.68325
-23.2322 128.271 -0.749284
-23.4062 127.888 -0.56771
11.3539 96.8467 12.9335
-5.79264 93.7953 -4.26975
1.94709 78.9173 2.92843
6.51018 76.2977 12.4289
7.77561 90.2771 4.57945
-23.909 136.182 -3.01005
11.344 107.341 14.6684
19.4392 131.5 6.46686
-0.256266 74.8693 3.50795
-26.7368 116.88 18.9629
-8.54372 144.157 0.359639
13.2684 120.862 8.2658
-30.3271 99.9449 8.77549
-31.1605 105.184 13.1443
-18.4719 107.818 22.6452
4.03318 106.569 19.6865
13.5022 121.405 2.75471
-26.8995 118.985 13.2051
6.29609 87.727 20.1757
-19.9195 147.158 4.57057
-23.0253 100.762 0.865221
14.2358 128.077 -0.414838
11.4439 119.248 12.371
-29.7014 130.74 5.43074
-33.2014 95.0733 24.7928
-2.03288 104.378 18.4071
-18.879 79.1547 7.69244
-25.9173 124.431 3.36938
-7.99208 131.028 14.1092
8.95252 96.2214 2.60123
-17.8823 130.157 -2.11963
-28.4912 120.617 5.60753
-31.6504 104.829 14.5159
-18.4943 122.417 18.3272
-10.0144 133.282 -1.74817
6.05206 135.855 5.70862
-26.4227 108.656 1.105
10.4135 106.749 4.91644
-21.1151 132.927 -1.54794
-8.94119 144.072 0.511865
-21.0834 124.495 17.1603
11.3075 103.765 15.1113
-18.787 103.245 -1.13425
-21.0747 142.236 -0.33975
-27.853 88.4101 24.0108
14.4303 117.255 -1.40731
-6.53848 120.383 14.4769
5.89623 85.0339 19.9135
-17.9922 134.556 0.0558264
10.9061 130.216 -5.70889
-26.9709 134.778 5.21329
-12.5937 124.361 17.2852
9.41374 105.268 -0.898773
-27.3649 114.508 7.66984
-29.9779 110.351 16.6327
8.16177 121.171 15.4744
-28.7276 89.3819 25.2729
-23.9311 127.741 0.562097
-28.7043 116.733 6.46825
8.64116 94.2894 18.1067
-14.0371 93.6863 20.3678
7.83193 104.012 18.8123
-8.66101 122.926 16.8748
9.94903 124.497 1.74738
-15.8563 112.751 -2.7551
-6.69162 97.3135 -3.6214
-29.3147 111.983 8.79402
-24.0733 107.643 -0.293474
16.5176 117.582 0.787271
-19.8784 102.488 -0.924691
4.12775 88.6375 -1.45214
11.5591 121.48 -6.30393
6.40024 117.429 16.4299
-30.0495 107.625 6.74056
-25.4773 97.3754 2.72011
13.8937 137.896 -0.974118
5.07185 125.457 -5.59076
-9.18624 102.796 17.1037
-29.847 109.77 8.32315
-12.9781 101.884 17.8928
-22.873 94.3453 25.4519
-18.0934 132.009 11.7568
-28.7944 109.475 2.93136
-1.0509 128.888 10.0287
-28.236 138.881 2.36427
-8.11139 137.641 10.0096
-7.76862 88.4924 18.9118
-1.93782 95.0863 20.8183
7.91481 86.9636 6.95007
-20.1532 77.6325 8.8221
-19.1274 97.6754 22.0163
11.2129 94.806 11.2577
-7.20053 128.822 14.6496
11.7265 119.141 1.76328
-8.27432 90.9261 20.2955
23.0421 123.383 -0.413574
7.25654 93.2515 19.4051
12.2774 107.055 13.5547
10.0731 137.782 8.4196
11.5526 126.111 3.79997
-10.5256 94.6843 -2.11957
-2.11487 106.092 16.9036
5.55107 131.858 -4.8202
9.5192 107.894 -1.76965
-24.9637 94.42 25.0185
-17.1476 136.182 5.63458
-26.2545 126.614 11.4237
-32.4415 99.9474 14.9863
-11.7716 96.5347 -1.7265
-22.9322 117.968 -2.59601
-24.3738 127.797 14.1113
-6.84631 114.626 -5.99753
10.9524 117.486 14.5819
7.8157 102.788 -1.89202
2.54164 110.584 16.9694
-27.5685 84.4184 10.5605
10.9876 98.6913 9.47904
-16.2003 107.651 21.7358
9.41761 105.345 -0.932731
-6.32772 89.5557 -2.80812
-22.2627 88.3182 6.19346
-13.4295 116.273 -1.84727
12.2033 114.813 9.18142
-16.4461 150.208 0.434963
-12.2411 138.75 5.38596
-28.959 111.794 7.02243
-0.770422 93.9876 -5.15545
-32.0971 127.155 2.46338
-35.0691 91.7769 16.9388
-29.0499 116.69 4.67793
-31.3425 88.306 12.3533
-8.43326 93.9132 -2.7238
9.624 89.9849 11.4379
0.969863 78.1455 -1.73461
-31.4243 101.993 10.6033
-15.3701 108.187 21.145
7.49159 131.313 10.7616
-28.1891 123.111 6.85143
0.0364995 119.482 -4.48955
15.3946 132.777 -4.0877
20.5935 129.949 4.54026
-28.8778 127.91 -1.72072
11.9051 119.649 1.91042
-9.53924 148.443 -4.28705
21.0567 130.598 0.232484
-0.834233 73.921 -0.583063
-14.5912 120.272 18.8618
-25.6633 126.8 -2.96871
-32.9023 94.821 11.3877
-22.7945 130.828 -0.104358
11.6239 117.624 8.97535
-12.9148 124.086 0.112616
-20.9383 124.335 17.2642
-0.603263 102.562 20.8706
-28.3594 97.319 24.4027
-13.375 124.14 17.4868
-20.7932 130.173 15.1134
2.79383 134.504 -4.23311
10.8157 123.966 -6.40007
-16.1322 97.5371 19.9958
-6.83501 129.526 -0.538745
-30.2701 103.752 8.98782
9.06948 82.9689 13.2163
-24.7016 87.9116 7.65104
-26.9668 128.003 4.75293
-34.6726 95.1514 16.8006
8.68588 84.1493 15.7441
-12.8227 144.436 -3.24924
5.61361 115.865 -3.39296
9.28998 115.664 0.772494
-8.46664 97.3497 -2.86765
-3.53789 118.283 11.6355
14.4654 121.356 6.32811
-20.4549 92.469 21.7866
-21.4959 122.34 18.7115
6.89946 84.8299 8.61136
8.93036 139.454 5.62462
-6.01567 140.708 4.27653
-9.42712 127.601 0.247759
17.4633 126.514 7.9016
-14.7633 110.978 20.5031
-26.9989 118.729 17.7208
8.2144 134.765 9.36325
4.89741 124.934 -5.49828
-32.6742 88.7912 28.3482
9.3995 138.276 7.07411
10.363 108.091 2.17211
-21.581 121.871 -1.67998
-17.5945 139.449 5.52344
-30.6567 103.376 7.94353
-17.104 137.238 -0.448471
6.6135 102.591 -2.71811
-29.6718 132.253 7.0546
-20.9288 114.598 -2.72536
15.2865 118.125 2.12409
-8.90638 114.47 16.4861
-15.4226 129.277 -2.79483
6.77951 98.6581 19.4934
-28.2763 114.43 15.0456
-30.3741 104.749 6.4683
11.5671 109.548 14.5067
-24.8189 126.726 1.44931
-12.1898 96.5087 21.4291
-4.89445 139.99 -1.08945
-31.4324 97.8772 19.5692
-9.75433 121.266 -1.49244
-9.94358 87.5268 18.0968
-10.7986 117.165 18.365
7.56557 88.0753 19.4009
5.45109 83.6945 2.66427
-22.2398 144.798 4.62344
-2.502 136.247 -1.23403
-16.1639 137.161 -1.15687
-30.6377 107.439 15.1178
-29.3748 127.318 -1.71749
-3.86466 120.147 11.5383
1.19658 92.6343 21.3981
-12.6107 128.617 -0.318669
-33.0681 130.549 2.12114
12.3721 133.745 -2.13018
13.0196 113.528 11.8398
12.798 138.287 -1.96975
9.7345 105.465 3.13974
-14.8419 129.858 -3.23914
-1.53853 89.7085 20.7811
6.56053 114.02 -3.14306
-31.5424 96.8336 22.5994
10.9383 97.4659 14.9335
1.14693 81.3387 19.3365
12.6552 126.713 0.546675
-17.8021 88.3813 18.3058
-18.4101 132.801 10.1446
-23.8927 114.779 -2.30701
-26.5825 79.8907 12.1756
-32.9464 98.2564 14.5915
-21.6797 95.8661 1.85424
-12.5856 135.258 -3.83972
-4.1954 129.434 12.9299
-2.79856 126.729 -5.11581
-4.46492 136.798 10.7095
-34.5735 93.5496 23.5425
22.3966 121.401 6.62524
-31.8279 131.992 6.5058
11.4337 125.17 5.70779
-12.7869 138.164 8.91847
-3.40313 145.141 -1.37464
10.1335 134.212 -6.29097
-16.0919 149.599 3.71678
-22.8208 130.876 0.223842
20.3327 130.991 0.434106
-24.235 125.814 17.0829
-14.4286 96.805 -0.122529
-14.1707 140.363 -2.85329
-9.08335 139.06 9.54173
-22.3239 133.325 7.14985
-30.5624 103.631 8.28215
-27.8544 129.934 5.57778
-24.5691 128.734 -1.10391
9.90653 104.236 16.1871
9.39201 94.6693 5.15561
-25.3671 138.283 3.7425
3.56722 89.7755 20.3952
-2.19032 81.9944 19.7615
9.37564 102.547 17.4252
8.45269 135.714 8.61734
3.66311 91.7203 -2.53498
-29.3985 135.313 2.61533
-24.3543 118.668 19.6111
10.5357 124.597 -5.37844
-15.2413 98.1369 -0.646975
-24.4305 84.9635 8.87544
12.3758 110.27 13.3384
-25.447 125.742 1.53576
-24.2827 129.605 8.38798
-30.3062 134.416 -0.239877
-16.0854 145.229 0.56351
0.36366 140.202 -2.51338
8.67449 126.807 -6.40859
9.44699 113.722 0.596399
10.0188 127.706 -1.96968
-8.60228 98.6457 -3.29456
-6.11208 106.362 15.3631
5.0813 112.768 17.8083
-11.0936 121.012 -1.0819
-5.68589 115.589 -6.11698
-2.11638 131.583 -3.78962
-18.7509 132.4 10.4293
-27.8837 113.372 1.10275
6.85524 114.931 17.5226
-32.994 128.646 3.1026
7.9687 119.376 16.0227
12.7544 132.239 -4.3512
-26.3716 95.4508 25.8429
-3.08371 139.02 8.8394
-26.8718 85.6798 9.89292
10.9967 123.068 12.9654
-5.06352 86.4372 -3.25865
-15.9014 143.057 3.10361
-29.4224 111.54 16.0931
0.863297 76.6142 2.78277
-19.7617 95.8951 1.83284
7.119 78.1532 12.0333
5.81411 112.362 -3.74731
-33.0405 131.165 2.1845
-30.898 94.2277 7.84053
5.8675 84.0999 20.011
-0.992317 125.993 -4.45434
-32.7118 94.4256 10.9088
-24.7122 101.608 1.47344
-33.0494 90.7373 12.6116
-15.5121 135.521 -1.40806
3.82337 113.795 -4.78353
-32.2961 99.5953 12.0275
-26.846 121.593 3.19787
9.55062 98.4109 4.1044
-8.40497 140.05 4.25453
-11.8501 88.8849 18.5596
10.3199 100.2 7.38317
1.61688 76.992 4.02673
-11.3862 119.161 18.6728
22.5627 120.22 4.57093
-14.111 83.8656 3.1113
5.384 97.5338 -1.85662
-6.50098 120.085 14.2974
-3.68258 108.3 -6.65657
8.94786 115.313 2.59646
-15.0478 139.989 4.2533
10.2579 130.072 -1.57935
-7.63755 112.357 14.2396
-17.3036 138.131 -0.161708
8.51357 107.672 17.4747
-28.0513 114.928 6.84276
9.33544 109.353 -2.4917
-14.8361 142.836 2.83937
-30.045 107.268 10.8401
6.29813 112.288 -3.74515
-3.80904 143.251 5.98678
-22.2404 85.9766 19.2674
-7.3621 105.763 -5.88427
20.3605 119.695 6.92046
-22.1746 126.388 16.3972
12.8214 115.13 11.6546
11.8676 118.581 2.0844
10.4543 110.37 1.04665
10.3122 124.368 -5.08012
11.6639 135.915 -5.05433
19.5908 120.176 6.92362
-18.3841 79.2655 7.53637
10.7714 123.198 4.77194
-3.9711 80.5216 19.6109
1.53385 127.788 8.28719
-11.7431 123.232 -0.190935
0.793249 109.751 -5.86945
4.70329 132.233 6.93271
0.458189 111.344 14.9308
13.4487 130.983 -0.859455
6.70518 123.966 -6.10453
-28.7187 100.016 4.01003
2.56443 133.484 6.97616
18.7485 124.893 7.23274
-15.7615 128.3 -1.50398
-23.0866 130.131 -1.48776
15.4032 119.402 4.15069
-15.2809 132.626 13.4569
-36.6835 84.9699 22.0259
9.3127 134.721 -6.21477
-22.476 130.917 14.8199
20.8999 121.711 7.08916
0.231996 134.964 -4.43059
-6.26577 87.3343 18.6466
22.4373 121.035 5.78299
-2.59423 124.573 -5.12154
3.75613 130.277 -4.76291
22.5367 119.749 3.54405
-25.9448 104.215 1.40172
-0.256414 117.115 11.9795
-34.1448 97.6342 18.3482
-9.31456 87.4579 18.0901
-13.1787 76.372 3.37717
8.22566 86.0199 12.4631
-22.823 130.414 -3.33827
-3.07181 81.7476 19.7434
8.29476 83.0756 12.4791
-26.7217 111.967 0.725151
-13.1553 80.7071 2.62776
-28.2727 117.182 15.2121
18.2783 124.055 6.95006
-24.7963 81.3815 9.77733
10.2061 92.37 9.81322
-5.62293 89.2289 19.0058
-27.5102 87.8898 23.0194
9.31874 122.082 14.8878
0.879462 140.382 7.87071
5.50939 105.655 19.7842
-13.1776 109.344 -2.76343
20.6586 130.967 5.09216
-13.4234 76.9759 3.56806
10.2559 110.259 -0.795474
-12.3015 97.5833 -1.499
-8.22143 117.61 -4.00494
-17.1412 149.943 0.89575
-0.332482 78.5488 -1.92434
8.89676 95.0765 3.39788
21.4605 124.944 -1.07894
3.77803 90.4895 -2.05157
-26.6031 132.074 8.65106
-18.8072 138.059 6.46713
0.712585 134.914 8.37994
-22.7622 99.3219 0.86827
-28.8286 132.281 7.61338
5.95459 123.538 -5.99227
10.0183 115.253 3.14751
-25.9508 130.483 -4.31941
20.7049 131.294 5.03884
8.17913 136.853 -5.86227
9.30564 89.4348 16.5917
2.91385 103.089 -4.32059
-21.9772 104.364 24.2606
-11.0803 115.799 18.5162
-29.7357 110.27 11.4827
-16.0292 136.795 5.71853
-12.8351 79.1844 3.04711
0.433992 76.3522 -1.38404
-27.989 117.836 16.0251
-25.5519 124.61 14.9926
-28.8337 113.99 13.5682
11.1626 94.5397 11.2603
11.4029 125.485 3.94492
-13.9861 147.989 2.63342
3.50236 136.5 -4.56303
7.96583 101.675 18.6759
9.72476 106.009 3.37017
10.5559 90.995 15.156
-11.7758 78.4182 2.57043
-4.55157 77.8889 -2.04207
-13.2845 86.3029 17.2655
-17.2868 85.0734 4.86213
-27.4427 126.179 7.348
2.23162 89.5504 -3.25464
2.01826 91.5854 21.1099
9.23017 112.831 16.5809
-20.3479 81.6194 8.02081
7.03983 85.0291 6.21687
9.35088 136.457 -6.44056
-35.5985 89.2115 18.6854
-9.79722 118.348 -1.86863
-27.4039 117.587 8.87504
-21.6565 109.678 -0.987727
-33.548 97.7624 16.2802
-29.9801 83.9231 12.801
-11.1661 94.8825 -1.8558
8.00447 84.991 13.3734
-20.0201 118.634 -1.30598
11.6975 125.897 5.46746
-4.43954 118.667 -6.13572
6.97 77.7509 12.0248
11.073 121.049 0.265837
