ply
format ascii 1.0
comment Created by Open3D
element vertex 1936
property double x
property double y
property double z
end_header
-3.87642 123.39 -5.2811
9.07032 139.113 -7.37266
15.5825 94.7362 0.993275
25.7542 126.956 -2.67754
4.47185 81.3274 -7.3782
-21.0772 105.314 4.76756
-23.6819 116.237 3.75338
19.335 128.143 3.5113
-19.408 103.659 5.13264
2.26572 144.015 -2.65452
11.4025 113.775 -5.90422
-22.6369 143.684 4.99833
11.9906 104.796 7.22222
-2.60443 117.314 0.646239
10.9327 83.5606 -5.51075
11.7101 132.211 -6.91857
-3.31367 132.46 -3.82728
12.4472 129.617 -5.00899
-24.0239 112.006 3.48019
2.03042 121.845 -0.60833
14.6782 88.1845 3.75902
10.9087 83.7 -5.5337
12.285 138.781 5.43199
12.882 130.29 -2.69494
-5.40002 139.886 -5.67937
5.35215 112.297 3.71355
3.36642 120.091 -4.68507
3.05973 115.019 -5.63169
-11.1254 144.254 1.08249
14.9018 112.547 4.54383
12.4141 128.194 -6.10339
-7.1874 113.273 4.17327
15.1639 110.668 -2.51213
-4.36392 138.22 -4.48314
-13.9172 127.663 5.59915
2.03969 77.242 -5.23784
16.0741 146.42 -0.232365
13.5838 122.21 -5.37053
-8.14014 151.399 -4.28889
2.5035 131.041 0.918074
22.0235 128.77 1.04608
12.4168 135.237 5.11285
-20.6633 108.614 5.66712
11.6098 87.7768 5.73541
11.1759 128.635 -7.28934
22.1426 131.148 0.0233757
-3.19757 85.2693 -1.83395
16.1591 101.87 1.88882
-11.13 107.578 3.09437
18.0987 122.453 -12.0748
-18.6768 102.398 5.37899
-10.9406 152.397 -2.46837
12.5929 117.795 5.96811
2.90479 75.3168 -4.4075
-10.3587 149.66 -5.15845
-7.83854 118.489 -6.54832
-24.6662 115.031 2.74944
14.0607 112.069 -2.04377
24.8591 131.543 -2.81366
-5.46161 140.454 2.13147
8.6298 111.925 9.08089
4.00011 104.647 -9.39246
-4.20456 116.795 2.33278
11.7683 148.509 2.78046
14.4604 119.843 -6.20918
-13.0012 111.052 3.95054
16.9487 146.206 2.24277
12.0293 117.959 -4.19482
6.83508 115.027 -8.1675
8.53282 140.673 2.86413
-17.5502 88.1617 -0.229374
7.59991 134.726 1.74173
14.2079 84.3 -1.28266
20.2675 138.923 -3.39715
6.40584 94.9246 -8.70635
-27.7582 124.439 1.0896
-15.6588 150.186 2.62257
9.35805 87.9773 6.41585
1.21307 115.184 -1.10546
-6.11018 144.071 5.19097
-11.2683 148.043 -5.75921
-18.0187 93.8952 2.28205
22.2849 124.862 3.0065
-1.70488 134.672 3.41133
-7.06788 138.038 2.08757
17.1282 140.632 3.62813
-9.35619 99.603 3.05516
-0.640597 143.887 -3.69054
12.6162 119.345 5.79755
10.8978 92.2688 -7.37553
17.9453 124.077 -11.865
24.5466 131.055 -2.55474
-18.3484 140.073 4.92921
-15.623 111.663 4.95002
15.7668 86.7939 1.59828
12.0186 112.373 7.97685
10.5306 144.138 -5.45379
-23.7628 141.001 5.5718
6.1596 94.5133 6.95451
12.0726 132.845 5.85752
6.22672 117.102 4.17036
-12.1535 150.985 -2.9687
5.75475 112.798 5.94542
8.68682 140.842 -6.98236
10.0996 114.348 -8.672
20.6518 138.163 -3.53851
-11.9475 143.246 1.19208
-23.4413 145.32 4.24621
9.00642 107.495 8.66883
15.7923 108.65 1.54251
4.11504 84.0699 -8.60764
13.3293 126.235 -8.05288
-10.7565 83.601 0.933279
-21.0281 107.353 5.23248
11.7525 109.509 7.67824
8.60218 105.989 8.72676
8.94609 77.2069 -3.36832
20.6965 141.683 -1.33132
-10.3691 117.291 5.29923
11.5424 135.781 -7.58079
-17.7403 111.587 5.73379
0.856436 130.269 -2.73363
11.3156 126.966 -5.02948
15.2801 95.6898 3.9898
4.97562 91.5554 6.52183
2.16633 149.78 -3.49038
-18.0882 131.193 3.96919
21.3725 121.98 -8.82013
-18.989 140.138 -2.87732
-7.21159 127.041 -3.98626
16.1096 141.887 3.78359
11.9844 119.572 8.06744
-1.12942 97.9554 4.94704
-10.5774 87.3454 1.93142
-30.8377 128.008 2.50697
15.1164 81.4407 2.96474
-18.308 126.931 5.72291
-18.6488 90.4159 -0.62879
-6.86013 121.183 4.56632
-6.08701 109.094 2.75389
-14.0217 98.4128 4.57478
-15.3439 132.923 3.73815
-17.1087 102.472 4.69077
-7.06112 91.1864 0.222173
17.1319 119.725 0.914257
-0.803298 86.412 0.29839
9.58647 151.265 2.03335
2.47179 112.087 -0.858912
2.38587 133.706 1.1073
16.8321 143.837 3.46465
9.30607 135.63 -7.64456
-4.97537 119.012 -8.19466
-0.292567 99.593 4.592
4.1867 141.912 -4.26287
12.8819 75.0843 -1.33337
-2.75017 77.8847 -7.31622
-21.7291 99.4705 1.72252
-24.4422 110.003 2.58592
5.32747 122.99 1.1582
3.05553 95.4832 -9.8446
6.73291 116.495 7.02661
4.37882 133.822 -5.58976
-25.8527 130.861 4.2718
-9.77546 142.868 4.69515
-11.4816 140.185 3.47248
-8.44265 147.707 -5.99273
-23.3105 125.921 4.17293
1.1489 85.9917 1.89635
-4.71701 117.185 2.97973
-10.5405 146.118 0.577705
2.15312 133.074 1.44048
4.80079 146.749 1.84753
5.29108 120.241 1.43555
12.961 108.536 6.92219
-0.704298 133.521 3.20619
15.6915 137.676 2.97705
-2.02548 133.203 3.70041
-18.4043 89.6104 -0.594322
-3.4679 77.8682 -7.75777
-12.5325 133.549 3.96673
-11.0409 112.643 3.96342
-10.2532 140.956 -6.80933
11.9093 131.389 -5.45557
6.11352 113.821 6.44782
14.706 136.638 3.90466
7.45853 136.182 -6.63029
18.1573 131.406 2.62269
-3.67667 134.849 3.68936
23.2472 130.377 -1.27059
-8.12655 122.518 4.43882
-3.52589 110.029 0.0131676
-3.38885 109.286 -0.314473
17.6696 122.141 2.57956
-6.72896 91.3319 -0.320121
11.4051 96.6367 -7.68873
-16.5394 132.086 3.88307
-2.78571 88.9644 1.40277
12.2628 147.975 -1.77517
13.699 111.949 2.59357
18.4507 136.778 -5.29953
-20.8298 122.634 6.60288
15.0867 99.985 4.72862
16.5892 134.325 -6.80817
10.9936 79.7043 3.54826
-17.892 143.456 5.26386
-21.4037 126.98 3.3735
3.99576 117.886 -5.94559
-1.09725 130.447 -2.86818
12.8068 122.315 -3.32921
11.7309 115.293 8.47698
-9.77922 117.3 5.14347
-22.5727 97.4203 -0.669392
-11.3376 138.85 3.93285
13.4468 89.4795 -3.74385
6.86248 147.474 1.90316
13.0244 126.892 5.07135
-12.5643 117.28 5.55605
7.98075 82.4076 -6.34152
10.868 111.301 -8.18875
2.54726 102.315 4.59666
12.2272 134.271 -4.42106
6.86562 148.559 -3.7065
-14.3521 108.567 3.87177
-4.95595 85.5543 -3.2913
-23.3697 142.85 -0.206574
-12.0195 151.703 -2.69396
15.341 109.37 -0.975356
-6.97868 92.0522 -0.333028
6.86481 142.555 1.76772
-1.00189 136.431 2.93524
-26.8637 125.789 1.71648
-10.7569 151.299 -3.833
9.97917 138.272 4.27859
-16.6163 115.941 5.16254
5.8587 108.07 8.08204
-15.0754 88.7091 2.79855
-14.6894 91.007 4.04162
22.5347 125.838 -8.51891
1.39973 118.41 -5.17954
-25.4687 134.304 4.24878
15.6896 96.8363 1.10982
14.3938 120.368 3.82628
11.2731 126.059 -5.53956
-6.47371 117.145 4.31354
-21.6851 143.36 -0.867801
15.9036 97.3031 1.42879
9.64502 100.387 8.02452
15.8264 126.481 1.33387
18.5352 135.928 -5.78177
5.7267 143.974 -4.32579
-3.97125 116.499 2.00634
-23.1256 142.344 -0.485103
6.57944 84.3382 -7.78753
13.2181 121.62 -1.99135
25.0064 125.04 -2.13664
-22.6756 134.627 3.82297
12.0373 101.3 7.23534
10.5244 117.956 -8.24539
7.81215 149.925 -4.03749
18.2841 121.763 2.51758
0.0269393 84.9607 0.344348
12.7582 124.947 0.509416
-5.14189 131.38 -3.86751
12.2864 125.724 -3.46203
0.468027 122.732 -4.48263
-25.819 119.019 1.84775
-23.765 140.034 5.162
16.4836 120.408 0.0947555
16.5479 124.895 1.66477
2.41647 131.243 1.12223
5.40357 134.925 -6.09221
15.2707 108.896 4.90063
-19.9165 132.242 3.71717
6.17926 147.232 -3.57708
-21.669 138.159 4.99525
0.730275 142.758 -3.01046
11.6967 102.607 -8.84277
14.9861 79.8308 1.52754
4.406 143.92 1.55753
14.2323 136.857 -5.35936
5.59691 138.19 -6.21793
13.8948 75.8437 2.7372
11.4526 128.02 -5.61582
-21.6654 126.587 3.73531
18.8296 145.115 -0.588448
-18.5214 147.509 0.756793
7.4823 122.783 6.07002
-9.72677 90.8476 0.417572
-1.98685 122.539 1.31461
15.0774 98.0688 0.125482
-7.08218 131.636 4.57212
-12.7991 127.916 6.00783
-9.17914 139.707 2.69651
-9.81347 149.789 -5.20666
15.4162 109.68 0.999685
15.916 106.456 3.17415
-18.821 109.413 5.74567
-0.381034 134.511 3.17024
21.6487 141.155 0.304521
-19.394 147.729 0.965584
10.6994 74.3206 -2.35915
-9.61472 142.995 4.69557
-9.32257 87.0265 1.82303
24.7532 128.553 -5.60327
-12.4046 151.025 -2.3874
10.7065 146.628 -2.82659
-8.59891 141.065 3.57644
8.31987 153.955 -0.465359
13.1681 136.338 -4.21051
-12.2468 79.8856 -3.42908
-22.6467 143.891 -0.200445
12.1828 126.368 -2.84837
15.0918 111.195 1.64602
10.4547 115.942 8.79899
8.54519 152.358 -2.25897
4.01069 117.944 0.207945
-20.0002 130.65 3.92797
0.307656 118.344 -0.77122
-5.28577 120.244 -7.18508
-22.9342 113.384 5.13978
-7.80926 137.276 -6.36344
11.7164 125.956 -0.070778
24.6798 129.333 -5.3384
2.86761 104.394 1.03738
5.43307 133.283 -5.74055
13.6848 81.9864 4.145
-8.06232 144.289 5.25938
-22.8884 145.863 1.95636
-0.713981 127.544 1.82893
11.2998 142.281 -4.84696
-5.82929 141.398 -5.64269
15.6496 86.2503 1.4564
14.7109 121.023 0.425618
-4.32014 114.341 1.61576
4.64744 122.83 0.480598
-22.8407 98.4766 -0.251677
-18.6083 98.096 4.2488
-2.51285 96.8627 -2.14912
18.1565 132.511 2.30416
9.93162 124.352 -7.86775
8.99989 136.207 -7.53425
-22.9737 118.035 6.03409
-7.9552 130.27 -4.71455
-8.22178 92.4029 -1.26118
8.07866 99.6148 8.27233
7.51742 111.236 -6.96883
5.50276 148.702 -3.23157
22.3062 130.861 -0.137673
11.1777 101.531 -8.81841
-25.369 118.87 3.24217
-3.04132 86.7456 -1.66215
8.58922 82.3656 -5.87138
13.9544 94.8386 -3.52899
-4.76677 95.6917 -2.13237
11.513 128.865 -3.00137
-20.3087 93.8141 -0.259997
-20.4622 106.28 5.34139
-19.2888 120.104 6.40005
-9.5106 105.04 2.83296
14.7738 118.952 -6.46939
-6.68809 125.488 4.73395
-15.2514 134.535 2.5674
-12.7108 151.873 -1.22336
18.5442 128.104 -8.27111
-0.945551 99.1999 0.906514
-1.36316 130.061 2.9121
-8.60823 128.558 4.52775
-9.49806 130.854 4.89347
-3.18058 78.57 -7.58667
24.5837 127.916 -6.04922
19.4288 142.822 1.582
13.8841 84.236 -1.94474
-1.45152 123.929 1.17975
13.5629 105.652 -6.29195
-11.1554 103.581 3.25474
-20.8 93.6533 -0.770015
12.1195 141.992 -1.83872
19.2797 134.373 1.90461
14.6076 111.32 -0.481531
-1.9197 106.362 -1.8828
-12.296 124.261 -5.71217
5.5998 95.2608 6.7582
11.489 89.1091 -6.48552
8.58835 104.605 -8.61675
-11.4853 152.869 -1.08478
12.3656 113.28 0.318476
8.83676 77.7852 0.811738
10.5206 126.999 -2.33152
17.0084 117.521 -1.44597
-27.2363 135.849 3.38083
18.9718 116.562 -2.83208
11.1498 113.685 -8.85771
2.81161 107.323 0.121142
-13.8582 137.125 2.90991
-8.05363 89.9041 1.25653
15.6967 105.203 2.40493
10.3204 150.131 -2.33376
1.58739 119.093 -4.82162
14.6308 101.315 -3.31994
9.06183 141.247 3.3529
3.80279 105.602 2.01776
-7.03298 84.8347 -0.892197
-7.92854 127.772 -4.24705
5.08488 148.236 1.82562
13.831 95.711 -4.00677
-12.1641 107.319 3.1561
-0.639625 82.3107 -9.07233
-2.40671 85.2039 -1.19772
-3.2443 144.342 -4.83338
-10.9775 90.1512 2.86711
6.89677 119.891 -7.60655
-2.38241 126.407 2.47807
1.24839 80.8657 -0.224158
-1.89037 111.122 -1.22781
-6.82001 153.908 -1.10527
5.03393 108.585 4.37478
-22.2125 120.542 5.87408
13.9693 75.9254 2.80108
13.162 76.4198 3.16121
-19.2187 109.49 5.76541
3.93202 138.259 1.21129
-24.5284 144.015 4.50278
-9.80679 133.85 3.67727
-9.00503 153.752 -0.473656
-31.2543 129.123 2.9968
18.8712 127.927 3.82367
19.3327 144.78 0.28942
0.0149064 143.207 2.14162
19.9266 129.75 -6.71286
10.0677 88.9859 6.49045
11.2706 146.284 3.53259
7.92617 90.561 -8.356
5.56805 115.016 3.01951
14.194 100.752 -4.73714
-29.0375 141.252 3.82827
5.52765 122.156 -5.90856
12.5617 127.058 5.40761
-24.218 144.881 3.72406
-26.8222 120.72 1.77283
-2.59677 123.033 2.00442
-3.37201 105.247 -0.925088
-9.75534 114.985 4.87063
-0.926178 88.4474 1.20016
3.17511 131.672 0.564647
14.5323 119.512 -6.7618
10.5301 125.366 -7.97848
-12.2528 150.452 -3.53665
-1.63701 97.1695 4.83691
6.43633 77.9062 -3.8578
7.55872 122.93 6.60623
-25.2615 114.024 0.987406
-5.29105 102.945 -0.323243
6.5424 78.1206 -0.103822
-0.712649 117.346 -0.655049
-22.8466 106.123 3.17587
1.67473 153.763 -2.15454
-17.506 90.1981 0.677466
10.449 126.435 -2.15159
-27.4012 142.106 1.85447
17.0039 135.268 -6.58527
-10.0891 143.922 2.75102
-3.82823 91.795 3.22352
-17.8467 141.119 -2.60232
-3.64228 121.197 -6.94236
-25.6765 134.447 4.24185
14.7178 99.263 -2.97469
-2.57801 77.6188 -7.25951
-25.2171 142.413 5.0432
-9.85278 90.917 0.729193
-18.795 121.71 6.59127
-10.783 93.8564 1.18509
-15.6745 133.945 2.53866
-4.28563 130.836 -3.73639
15.8393 101.15 2.94788
22.0085 138.123 -0.351933
14.5971 111.19 6.03429
-31.7317 138.607 2.74143
-10.8733 135.085 3.09687
13.7784 106.022 -5.51372
14.1866 124.536 0.588883
11.1999 91.0975 -7.02182
-7.56084 127.923 4.54176
14.5049 124.366 0.71343
14.1989 114.691 2.11457
13.965 122.944 -9.13759
-21.5182 142.029 -1.4333
25.7014 129.572 -3.2218
-8.20277 153.302 -0.0523821
-0.126183 111.196 -8.49597
11.827 117.818 -4.24056
-8.80263 102.149 3.3726
-10.6588 122.472 5.09114
-7.98814 135.36 2.7773
-12.1882 147.07 -5.41502
2.24353 108.958 -8.30075
3.95507 132.128 0.408642
7.58248 99.2673 8.37231
-4.57008 84.4631 -0.578286
-19.105 97.4135 2.93735
-16.9635 88.963 0.886611
-5.48301 129.564 4.9166
17.3506 130.129 -7.71214
-11.9407 145.562 -5.9197
1.95856 138.089 2.37669
12.053 114.739 -3.02242
14.6905 102.391 -0.843366
20.2297 126.17 -9.35882
12.4775 150.967 0.340585
-14.321 90.778 4.45528
11.4877 112.227 -8.16131
20.3181 138.336 -3.78052
8.75484 84.2389 5.52761
16.1256 131.414 3.88499
-17.1542 136.124 3.19089
-6.83881 82.6721 -2.94532
-14.5451 139.6 2.03707
-9.10055 99.5027 2.68513
-13.2908 80.8292 -3.93253
-19.9038 146.461 0.176608
-22.3396 132.421 3.89679
6.4415 147.62 -3.69203
-7.0077 98.2445 -0.533404
-3.89613 93.5966 -0.836446
15.6059 99.3534 0.968555
-23.1176 112.302 4.86917
10.2989 135.406 -7.95018
-3.57088 146.642 -4.75427
-23.7628 106.934 2.60606
16.2866 125.357 1.84054
16.6471 121.86 0.802167
10.0917 85.2034 -6.09384
13.7937 134.062 -4.76907
4.43047 99.9239 -11.0164
5.00511 94.7113 6.52294
13.1452 95.9077 -5.5896
15.9748 102.664 0.856682
5.66448 116.734 -7.28319
7.99881 125.367 6.33023
14.275 83.3154 -0.819916
-28.4853 141.847 3.58893
12.6588 120.097 6.06565
-7.64951 141.695 -6.16308
-10.0421 143.021 3.74496
20.9378 141.118 -1.34431
11.7477 105.026 -8.68589
-6.24374 101.841 -0.00689386
-5.76644 90.096 -0.30517
19.4273 128.532 -7.67811
6.58776 138.113 -6.45174
1.09619 146.223 -3.30648
-14.931 98.9611 4.71806
16.9149 130.678 -7.47825
5.46041 110.371 5.87039
-24.8476 121.413 4.65009
-18.6096 99.6418 5.03459
4.96414 137.458 -6.02536
12.4963 147.862 -1.46119
-5.79728 143.75 4.25805
-10.36 120.551 4.87878
-25.1523 114.429 1.49774
16.1212 118.559 -0.0228546
-7.63202 118.648 -6.57872
11.5437 117.816 -6.0286
-27.2305 128.366 3.07336
7.753 112.614 -7.02588
5.32191 83.9327 4.56708
-16.9015 149.547 3.40139
7.9816 124.679 6.56245
11.0456 78.0518 1.82314
14.5521 78.7545 3.08954
13.3305 129.882 4.50607
19.5272 129.003 -7.33277
-7.56266 81.8599 -3.77127
-2.04325 139.325 2.56808
4.03412 79.9519 1.42956
17.9997 145.668 1.80347
-5.15888 131.084 4.72231
0.572653 134.603 -2.61139
0.234884 118.969 -5.72278
-15.5225 79.6946 -2.30779
-8.0263 101.521 1.78971
-6.24007 139.279 2.07391
14.0064 119.831 -2.45425
3.91583 143.403 1.69376
12.0656 123.959 -5.06179
-28.0437 139.586 3.81697
16.208 135.872 -6.28878
-6.60419 89.8893 0.807086
-15.3223 133.74 3.27105
-2.04601 137.032 -3.33524
-12.2345 142.614 1.97823
-1.49378 128.191 -3.58102
-24.4654 142.021 5.3173
12.7044 148.7 0.272141
21.7273 135.587 -3.41237
14.4224 114.902 3.25769
3.24334 146.069 -2.99207
-3.63326 124.003 3.20373
16.2168 124.205 1.37142
-13.1946 139.298 1.66566
19.6916 122.092 -11.0662
17.9918 117.814 -0.883387
-11.024 86.536 2.24325
-18.61 113.299 5.67783
9.63913 146.109 -5.34316
-3.97129 95.164 -2.29867
14.7849 97.175 -2.37694
10.7212 125.46 6.83253
18.0483 140.849 -2.63722
13.0967 84.1888 4.46977
2.63888 102.465 6.16415
-14.0781 149.92 0.0979829
-7.43243 121.608 -5.1576
-0.108584 149.231 -3.93588
8.71997 134.671 4.79421
-2.07125 128.907 -2.98206
25.4205 127.019 -2.91976
23.2782 132.775 -0.553191
-23.9702 141.497 5.46649
-18.4473 139.293 4.81728
17.9137 134.126 2.56798
2.26444 85.1074 2.2312
1.21321 81.0809 0.219341
-1.70026 124.631 1.5968
2.23592 114.713 -5.7937
3.6066 122.334 -4.38973
-7.7301 99.0301 0.127022
-25.3042 129.127 3.8241
16.3686 140.468 -3.47417
12.6997 136.588 -3.9202
18.8909 127.774 -8.37325
5.92417 104.741 -8.63593
4.65871 97.9115 -9.90188
22.9936 119.253 0.778731
-22.7382 99.7639 0.679612
-25.0467 114.852 1.92013
12.8329 127.021 -2.92802
13.803 123.864 0.985648
11.8839 121.811 6.9466
13.75 143.367 -0.450912
23.9904 128.228 -6.22395
13.0249 121.634 -1.1876
25.5906 125.292 1.45862
-17.0944 109.577 5.06685
-2.93374 127.595 -3.40914
-4.42069 131.111 4.4953
16.9375 131.802 3.12124
-19.5346 88.2664 -1.43849
19.5059 122.854 -11.27
13.7596 134 -4.2556
-4.64502 92.8023 -2.3671
11.8693 140.296 -4.28903
16.5589 117.816 -0.708929
13.6976 128.475 -1.72887
-1.95842 141.269 2.13899
14.4971 85.3623 3.77963
-13.9753 146.985 -3.48496
14.9239 80.5204 2.91605
-10.0448 102.971 3.27035
1.91401 85.8341 2.2714
2.82689 134.203 1.40056
-9.98505 130.11 -5.76888
-9.15479 142.272 4.41731
-9.73476 98.4565 3.06476
23.5868 126.088 -0.219411
7.11697 126.231 -8.56355
11.4525 147.816 -2.5051
-14.4415 121.887 5.76011
21.1439 134.586 0.68865
10.3578 97.4025 7.14122
11.5385 139.674 -5.91487
7.99979 103.7 8.42448
15.6872 119.178 0.000797599
10.3767 97.4363 -7.78987
-20.3917 109.223 5.74482
-3.67713 147.231 -4.69875
2.77013 79.1035 -1.96355
-3.82045 106.665 0.0645605
-8.62175 119.807 -5.78222
15.1141 121.011 -1.57548
-2.69191 149.816 -4.09137
-1.39285 111.093 -1.32323
7.5458 145.518 -5.39485
24.4645 121.793 0.0683948
6.11253 117.287 3.65902
-18.0548 102.859 5.24678
-0.207036 115.302 -1.12873
-27.15 141.32 4.50732
-24.9285 122.132 4.44846
-27.5213 126.201 2.36217
10.6923 120.864 -5.85678
-8.29868 111.146 3.85618
8.58991 85.06 -7.07962
-19.8673 103.138 4.99195
-14.2449 128.791 5.35581
13.6648 130.244 -2.35733
-1.50923 143.873 2.85643
-1.31922 118.367 -0.181153
24.0163 120.64 0.426331
4.03774 125.015 0.0625443
-14.1798 150.872 2.46231
24.5144 127.458 -5.58421
-0.0463654 84.0562 0.184594
15.4364 106.326 4.48459
10.1812 118.806 8.85274
-5.51318 92.9517 2.57372
13.1829 79.2979 4.23965
-5.81704 114.54 3.35511
13.509 87.5729 4.656
10.2412 128.66 6.81748
-2.609 116.128 -8.67725
-17.3136 132.372 3.51157
14.1783 120.803 4.27654
-18.1168 122.097 6.47475
-18.9968 130.848 3.95091
9.58361 98.2153 7.45121
-24.786 116.234 0.83904
15.221 146.686 -0.106592
-7.91039 137.87 -6.36706
9.37362 93.1513 7.37117
-15.3943 115.825 4.937
4.13019 108.128 -7.72789
9.61856 142.932 -6.30484
-0.391256 125.979 1.02878
5.80951 126.194 -7.58562
-7.70194 123.147 4.44277
-14.1631 127.617 5.49696
-27.1276 140.545 0.913108
-7.47824 115.614 4.64221
10.2146 139.793 -7.26236
15.0249 142.201 -1.76964
12.7103 125.501 -5.63867
-7.75069 102.156 2.11691
-25.0647 143.362 4.50765
-10.1309 136.074 2.33847
-20.3927 102.487 4.5378
14.4719 98.7885 -3.55693
1.19304 132.571 2.22083
-19.0543 85.6522 -1.8131
20.9804 141.289 -1.11201
10.0937 135.347 5.88504
-6.57579 95.6684 -1.424
4.66905 109.631 2.66465
-11.4583 110.103 3.41989
5.38174 107.495 7.12827
0.692891 141.299 2.2437
-1.38697 98.6342 2.93338
12.4757 94.774 -6.54935
4.23537 100.22 7.04211
13.843 96.4772 -4.22972
10.7933 105.279 7.75922
-15.961 134.812 2.17417
-4.36736 152.965 -2.81938
-24.206 138.669 4.32047
12.0222 131.471 -3.18203
-24.0967 103.964 1.31296
4.70101 138.763 -5.44745
13.2606 120.253 -3.22531
13.6637 88.4315 4.63034
18.4853 145.693 0.978553
23.5866 125.853 1.53776
12.6203 82.2131 -2.88514
14.2564 121.379 -5.81153
10.0718 122 -6.67764
-23.9042 127.464 3.36717
13.1385 125.735 -7.04015
-0.813839 83.0109 0.832046
14.6939 125.213 3.4953
-6.8095 105.006 2.14976
14.5904 122.564 -1.31356
-17.0007 121.512 5.9248
16.3407 134.737 -7.04017
4.6506 82.4969 -7.67116
14.7916 76.53 1.82115
6.92541 127.326 2.29383
3.19545 99.618 -10.9074
-4.18303 120.491 2.96618
18.6665 141.759 -2.31882
-3.76716 126.365 3.5217
12.5895 128.065 -3.72859
-25.8783 107.858 0.529916
19.4674 126.092 3.83737
7.28944 109.314 8.97433
15.6177 100.715 0.930102
8.22491 144.417 2.63021
5.8305 76.1226 -3.32358
7.62151 102.776 8.56806
11.3323 126.503 -5.37203
-4.2778 119.971 -8.04195
-20.0331 124.887 5.66401
8.8531 79.0801 2.30824
-28.8721 140.009 3.43012
10.3809 140.446 4.32022
17.2622 135.107 2.62818
-3.52211 103.214 -1.75461
2.28007 87.7972 -10.4041
-6.60751 109.53 3.22153
6.59134 146.366 -4.22348
14.6228 95.6955 -2.65969
15.8357 134.581 3.01154
11.3439 113.206 -8.63474
-21.9833 116.084 6.05159
-2.27859 91.9382 3.54643
5.52172 115.282 -6.38255
-4.78511 119.719 3.44929
15.677 96.4368 1.1111
11.747 99.1281 -7.98446
-6.96637 82.4154 -3.70895
-5.62476 93.3109 0.925249
6.22089 118.206 -7.14844
13.9315 128.781 3.64842
14.5174 124.432 -10.4344
15.7928 119.954 1.55934
9.6669 150.915 2.05472
3.17469 131.18 -4.50342
9.24478 148.541 -5.19483
13.8698 97.3617 -4.46509
8.46723 128.796 6.79505
14.8455 120.752 -1.72894
-0.26767 138.91 -2.8327
-11.5198 143.896 0.691197
11.7339 113.851 -1.54485
10.1868 147.435 -3.77774
-11.6633 81.1674 -0.446257
-27.386 125.224 1.63526
11.8522 82.8685 4.70989
5.06206 107.341 5.93367
-14.5086 83.6919 0.495251
24.5897 127.246 -2.27905
10.4625 112.079 -8.18219
0.544012 133.49 -2.56128
-25.6709 125.295 3.56637
16.4328 146.729 2.40584
-22.7496 98.4331 -0.199042
23.0366 132.811 -4.36171
-14.1788 125.09 6.49949
15.114 120.096 -2.36791
14.4107 148.893 0.605651
14.3876 116.358 -1.56167
-26.4034 126.115 2.05805
-15.7369 128.316 4.95998
-2.16258 85.6935 -1.51083
-1.72586 95.8388 5.06666
1.00591 151.554 -3.48176
11.34 130.232 -5.85808
11.0469 114.968 -8.53138
14.0815 90.9437 -2.5363
-17.1064 143.193 4.20585
7.85586 78.894 1.85828
2.11186 120.038 -0.706206
-6.06007 109.658 2.62865
19.4815 123.984 -10.8813
-2.32802 116.132 -8.01657
10.8183 144.673 4.15787
11.5109 80.5568 -4.04831
-6.2544 116.595 4.08493
12.3415 127.332 -4.17032
-17.3245 121.875 6.12956
-8.84256 90.7476 0.71978
13.8017 123.547 -8.51577
-4.70563 126.676 4.22704
13.8066 129.747 -3.46467
7.18352 119.891 7.06428
14.5158 114.231 3.77987
-7.92213 81.6985 -1.71999
-0.736581 85.1493 -0.711013
14.7745 96.5224 -2.24936
8.09628 133.77 4.19096
2.44985 81.8011 2.73269
14.8313 121.3 0.791706
4.78539 80.54 -7.05113
11.167 133.945 6.16215
9.07211 150.1 -4.2458
2.29484 117.087 -0.727151
4.87287 90.7223 -9.66577
2.86799 129.066 0.281251
15.4203 106.024 -1.07977
15.6938 123.033 1.33814
15.7934 119.282 1.14696
-7.58985 147.665 -5.95081
11.743 138.905 -5.61968
1.79002 131.451 1.84713
-17.3397 123.787 6.38853
-4.72541 108.331 1.26711
11.137 128.81 5.59497
-9.94229 119.422 -5.95884
1.91224 111.912 -7.05985
4.21439 111.27 -6.6862
20.6642 139.182 1.42079
9.55663 144.139 3.69883
-1.00724 134.706 3.27036
-22.2522 105.333 3.5495
13.9307 112.014 -2.80597
-22.2195 143.884 -0.4163
12.0094 76.7528 -2.31471
-24.4841 126.654 3.18156
-23.5297 117.219 4.28174
-17.2039 132.358 3.52106
9.57636 119.981 8.77911
-33.0738 135.17 4.00351
-3.6464 87.3 -3.09371
18.6878 128.056 -8.27053
0.671592 110.238 -8.41105
-19.7261 106.246 5.42684
12.7333 75.6617 -1.46556
-8.22968 133.013 -5.3077
-5.33471 122.657 -5.44007
-6.24171 154.347 -0.573159
16.2901 124.73 1.94179
-26.5829 136.146 3.45803
2.40524 86.5326 -9.9336
3.22919 129.725 0.32016
4.57839 90.5352 6.42374
13.4177 118.133 -3.3499
-4.54546 89.8104 -0.472026
18.0989 142.025 -2.39147
-6.20462 95.5339 -1.47744
-3.75321 140.354 -4.72519
-8.07045 138.991 -6.44448
-6.61693 127.916 -3.86576
-5.64459 90.0411 -2.03208
-1.84849 106.801 -1.81721
11.7691 122.82 -5.26235
12.7432 115.171 -2.84998
-14.6632 118.346 5.8691
-4.12166 119.446 2.77667
-13.5667 91.6787 4.16016
-23.5628 113.483 4.08686
-16.5261 88.7029 1.45996
9.00539 123.513 8.11172
-18.7856 84.9445 -1.96999
6.47818 124.973 2.02696
9.32481 93.1076 -8.17462
0.728873 111.072 -7.96397
5.45586 125.7 -7.13722
17.9111 134.006 2.56905
2.31459 106.003 -9.77117
6.51057 77.4623 -3.586
25.9244 127.174 -1.64188
14.3546 126.889 -9.54668
22.6935 127.82 0.719569
10.9387 105.016 -8.49229
10.9159 144.242 4.37686
-12.7173 95.7869 4.1571
20.7847 140.954 -1.77737
-5.97128 136.877 2.81216
4.5167 147.96 -3.2008
6.85923 140.457 1.63952
12.9823 113.048 -1.73204
-5.8306 91.0312 -0.328209
4.345 107.208 2.45317
-4.11677 120.718 -7.42753
-6.55445 89.8079 -2.66234
0.697236 128.787 -3.19158
15.7328 94.1659 2.87476
11.2039 121.743 -7.99612
2.38107 86.8088 -10.0538
17.9526 123.907 -11.9734
15.2327 117.903 -5.85007
4.99337 90.3377 6.4894
-2.07154 129.129 -3.01795
8.82633 122.946 8.46684
-16.1091 141.897 3.05683
5.78818 136.93 0.719902
10.9341 127.673 -7.84829
-28.145 139.173 3.56229
3.52257 138.56 1.40249
-20.8703 107.973 5.49467
12.6067 140.4 -1.87598
14.9637 126.014 3.2918
7.34387 152.91 -2.29993
16.8621 125.936 -10.6752
-3.97313 95.1706 2.21705
11.6663 87.6506 5.6977
4.83126 125.84 -6.47125
14.2496 121.906 -10.6521
-26.3719 137.355 3.31801
7.10321 100.764 -10.2547
13.093 121.578 -1.19442
-19.7326 143.284 5.79293
9.38924 115.303 -8.90987
-26.0648 109.552 0.603751
11.7799 136.433 -6.33462
13.5041 138.818 4.47076
7.61707 127.063 5.53325
-9.61029 153.396 -1.468
12.2051 130.009 -6.15272
-2.3031 129.531 3.53585
14.9706 120.315 -11.1873
-3.37358 139.157 -4.01918
-17.5816 143.248 4.83779
6.40794 78.5589 1.0761
-23.5353 113.917 4.24809
8.03816 151.595 1.89013
11.9395 92.7363 6.32401
-0.758573 114.73 -1.01258
-6.50143 118.253 4.56548
-14.4874 80.0163 -3.36597
-14.8275 100.85 4.40273
17.5323 137.101 2.44292
-4.39727 107.137 0.891282
17.7347 126.336 -9.96436
-0.635613 138.609 -2.87573
10.1935 116.649 8.85219
-1.46633 144.022 -4.16139
-20.4709 98.7737 2.61379
6.17009 114.169 6.45044
6.50138 136.433 1.00211
19.6146 126.177 3.57821
6.40861 112.303 7.61131
-11.9015 105.964 3.17511
-18.7803 144.668 5.85725
11.2354 103.55 7.65307
-8.03463 102.343 2.67175
16.4737 121.128 0.430842
10.8504 81.7309 4.88991
-22.6965 139.552 5.46786
9.56996 88.8825 6.56971
2.37402 81.9938 2.59579
17.4693 128.788 -8.16615
2.59 102.375 4.24516
15.7386 132.375 3.58931
0.34778 85.2156 0.984222
-28.0993 142.113 3.29247
-0.45187 83.1935 0.738752
-29.924 139.332 2.31905
9.69395 142.394 3.88839
15.8045 91.2831 1.28046
21.5351 136.013 -3.59632
-1.80413 141.865 2.03513
4.22357 119.756 0.331126
6.94699 120.133 4.95705
2.3327 92.068 -10.4312
12.7715 107.676 -8.15867
-2.54346 133.133 3.88094
-8.53852 143.79 5.44151
-9.93287 84.0892 1.15207
-12.3704 149.171 -4.13366
5.37936 113.52 -6.04461
14.2999 120.254 -8.30487
14.8224 119.863 -5.36891
23.4012 132.968 -3.85797
-4.15514 106.155 0.453817
-12.7766 141.356 1.77416
21.8151 139.354 0.560669
-4.54111 106.344 1.01113
-1.52209 124.282 -5.43185
2.47826 115.1 -0.658236
1.51011 101.807 0.30808
14.6974 97.8447 -2.89291
3.57885 134.805 1.45693
-13.474 145.159 -5.46633
-3.04879 150.12 -4.02044
24.9368 124.345 -2.64995
24.0718 127.575 -0.536494
-4.28141 86.3174 -0.455637
5.35858 134.094 -5.90795
12.8733 100.653 -7.03113
5.84169 147.904 -3.39796
-15.0097 84.5096 0.670648
20.8156 131.541 1.53833
9.05576 78.8137 -4.48177
-8.8177 114.359 4.6989
15.1385 109.864 -0.429709
-8.52392 101.361 2.3298
-5.15124 120.533 3.8992
0.0288869 123.492 0.259027
7.44729 107.503 9.09332
-14.6183 146.741 -2.5242
14.355 147.098 0.299769
-10.8246 144.938 -6.37338
11.7709 88.6724 -6.08499
-6.40824 91.5592 -2.03477
-6.68511 112.751 3.61182
-5.78437 91.8788 -1.26686
6.97387 120.223 -8.031
0.857313 100.294 5.5073
-6.50848 90.8557 0.11375
-22.3475 129.849 2.65058
9.18665 74.2214 -1.63158
16.0344 144.752 -0.417673
-22.3475 141.731 -1.05339
-30.6718 131.11 4.54921
9.08766 82.3915 -5.57562
11.7571 117.293 -4.08322
-12.4559 152.118 -1.3587
7.85397 112.037 -7.09838
12.9604 127.197 0.00408968
-23.8438 126.455 3.85671
12.2167 128.379 -4.72215
-18.2133 126.566 6.16556
-1.73718 126.489 -4.49528
-25.2242 140.774 5.1899
14.9914 85.3761 0.146486
6.70582 96.1196 -8.58554
9.95452 124.192 -6.32702
5.89078 129.376 -7.05343
4.65284 75.6878 -3.69291
-10.6586 110.766 3.60584
5.90954 121.21 2.03496
-17.4881 84.6942 -0.966618
22.195 131.768 -4.60199
-21.041 147.246 3.31493
-10.4889 88.3965 1.96104
5.80839 134.754 -6.1543
15.1438 90.441 3.24618
8.98476 136.064 -7.51741
5.71991 115.923 3.08655
-6.50515 90.8642 -0.836089
6.70839 151.491 -3.43082
0.172163 100.499 0.386559
-20.4736 131.127 3.56257
15.9437 136.265 2.82891
10.0583 121.646 -8.32763
11.2493 86.7033 -5.78948
3.83599 79.4735 0.301314
3.7807 81.4643 -7.56866
-1.1696 135.96 -2.78179
-12.9853 139.663 1.75859
-5.61379 88.373 -0.108974
21.4146 125.728 2.54767
-9.94446 124.363 5.12557
11.4995 125.893 -5.15005
-12.1815 99.0601 4.27205
13.8962 121.719 -5.97697
-17.1417 121.456 5.94463
14.0472 124.022 -1.7784
0.792595 115.006 -1.17413
9.94795 116.707 -8.56218
9.25882 81.2284 4.44359
25.8554 126.005 -2.85929
15.5629 118.968 1.54801
-21.315 141.885 -1.68735
-14.1691 125.468 6.37005
-4.92631 93.1448 3.15399
10.6592 105.11 -8.41584
0.755736 119.883 -0.664389
14.5011 123.735 -2.59398
2.46935 84.6663 -9.38896
5.59208 101.078 -10.6172
1.7259 142.076 -2.73041
19.3092 133.469 1.61596
15.8311 146.899 -0.227905
6.52372 133.191 0.685152
-6.82399 133.598 3.92113
6.46934 108.805 8.53406
-0.235981 110.854 -9.06524
-27.939 129.952 4.14501
10.3008 123.577 6.72068
-13.5717 96.6833 4.08468
-6.29342 84.3191 -3.04677
22.348 135.36 -2.03483
-20.7928 121.286 6.53638
-2.23158 105.315 -1.90634
22.4305 129.502 0.209148
12.5016 135.048 -6.34902
16.0696 118.713 0.466337
-14.0197 80.3665 -1.51191
14.231 85.3704 -1.49793
-9.9209 113.972 4.60622
9.48551 96.6126 -8.02504
16.2156 123.044 1.39616
-4.01383 85.1861 -2.20868
11.8499 87.3522 -5.68935
3.08742 93.9348 6.39222
11.3315 145.122 -2.02097
11.521 130.943 -7.13988
16.8835 140.975 -2.95283
11.7757 103.201 -8.93481
-16.5028 121.547 5.90063
12.9337 89.266 -4.67782
21.8586 123.538 -9.18785
13.0125 122.891 5.51381
-4.15921 112.996 0.858696
9.8461 74.3852 -1.98822
7.10044 149.408 1.82376
0.0798784 92.5051 3.74828
-0.702735 81.3821 -2.35511
2.46467 110.884 -7.34872
8.05932 110.54 -7.2693
-16.0344 137.493 2.1031
-4.00915 126.53 -3.80917
-11.8689 121.858 5.58766
2.05257 127.764 -3.10902
-5.46378 127.333 4.89059
-14.3437 135.948 2.79061
13.334 108.561 -6.6251
10.4678 77.9361 -3.97011
0.177125 92.9827 4.24343
-4.67429 86.816 -1.00714
-15.0343 133.526 3.67308
-25.9111 138.241 3.59678
-17.725 104.838 5.19315
10.3666 123.362 6.66618
8.36866 97.7898 7.61978
-19.7299 98.0201 2.79882
15.0921 110.334 -2.81604
11.548 123.656 -0.544623
-15.3289 115.38 4.82023
-6.9984 141.422 -5.81485
12.9023 123.342 1.42714
-6.82739 133.154 4.07153
-24.3641 113.153 2.94121
12.7964 84.1606 -3.42512
8.57544 117.962 -9.01302
-7.93875 82.223 -1.2846
-13.0324 151.968 0.100417
-6.91009 120.913 -5.58569
10.2988 96.0698 7.19549
3.50686 107.774 0.957083
-7.32438 134.406 -5.26301
-12.7168 148.499 2.4241
-9.5457 79.6269 -3.81623
16.8379 129.996 4.05501
9.0817 130.28 6.67829
12.709 142.423 -1.32901
13.8392 78.0294 3.5111
-14.2352 122.964 5.75772
13.5917 119.404 4.65074
-3.10339 146.112 -4.73649
9.77277 87.6346 6.27819
13.6211 85.1943 -2.62188
-11.4976 132.235 4.22271
13.2924 118.038 3.8677
11.6393 137.826 -5.62516
15.9966 108.981 2.75786
7.12765 114.064 8.17816
-9.58749 124.063 -5.05138
9.44262 135.261 -7.64586
-25.2748 127.587 2.98281
11.4748 102.939 -8.99509
6.95637 119.801 -7.70061
13.3489 106.481 -6.91634
21.073 130.815 -5.3854
-21.7348 141.877 -1.34536
15.6741 120.124 -11.9463
-17.9572 135.116 2.8274
15.387 121.916 1.691
7.24666 92.7756 -8.70915
0.169813 99.1856 5.39958
13.3068 122.945 0.0603367
10.4661 125.148 -8.83167
-1.89739 136.205 -3.1797
13.4018 92.3672 5.27175
2.57918 153.651 -2.32032
-6.99067 83.079 -2.98487
-18.7168 88.2716 -0.90834
4.23787 86.0746 4.47556
-23.0293 133.835 3.6527
-10.6081 135.078 3.03972
4.99667 118.899 -6.53579
8.03471 119.008 8.31162
12.1788 78.5799 2.80462
-0.0404629 132.461 2.82801
13.1498 103.091 -7.14794
14.0772 120.94 -2.22056
27.6914 123.116 -1.33259
-19.6908 88.9732 -1.44303
-5.14704 93.198 2.1628
8.34422 120.755 -9.04243
8.27424 140.469 -6.96261
-3.01184 87.0895 -1.6922
9.45775 115.246 -8.89785
5.07475 109.598 -6.79667
-3.36863 124.838 3.08358
-24.8427 130.182 4.1515
-22.0792 146.638 2.46977
19.9507 125.124 -9.94371
1.75753 146.083 2.705
13.9816 112.677 3.52091
-6.5003 106.151 2.28813
-5.35993 122.818 -5.2329
7.58368 145.586 -5.41756
-16.9656 143.568 -1.60409
11.7164 140.651 -4.02477
10.1236 94.9761 7.14688
-26.1854 137.255 3.28599
-22.515 145.947 4.26781
13.7148 124.114 0.800274
11.044 137.187 5.80501
-16.8625 144.493 -1.20204
5.54439 150.078 -3.15048
-4.37957 86.3667 -1.24096
4.20952 146.359 1.93784
21.4225 122.727 1.55349
-8.51099 122.387 -4.78425
8.92817 89.0542 6.72898
-2.27691 85.1048 -0.842221
15.4855 99.9056 0.766
8.88265 151.738 -2.24341
11.0779 115.621 8.69559
22.0093 124.282 -9.43932
-14.151 105.263 3.55324
-15.6431 110.73 4.63395
-1.35531 123.492 -5.3957
-4.38254 119.894 -8.03032
6.14153 130.158 -7.07568
16.7398 133.734 -6.64938
-28.8188 127.948 3.22686
-7.48646 82.1348 -1.79283
8.1194 90.2511 -8.26325
5.74292 117.279 2.64554
14.6616 102.904 -1.22671
-4.99443 112.454 1.66186
23.2061 130.113 -1.10886
-10.7323 117.592 5.35776
-3.16053 94.7641 0.683304
-0.897444 136.173 2.99065
12.3512 125.299 1.26916
13.4399 101.485 6.18873
-21.8031 107.499 4.55217
-24.4627 133.022 3.97342
-27.4677 128.463 3.16484
21.6243 136.864 0.555988
15.1091 87.4212 0.00292024
-7.44789 85.6088 -0.148248
11.2367 139.68 -6.18823
13.3584 128.64 -1.96963
-10.5196 100.433 3.81674
-11.4437 81.477 -4.69084
-6.19719 91.725 -0.0859888
-15.3117 133.216 2.83866
1.06637 98.7828 -11.23
5.37344 144.462 1.57877
9.16874 107.671 8.56067
-19.365 96.4578 2.02768
0.511835 135.325 2.74388
-4.3567 143.13 -5.26416
2.14779 97.1199 6.52602
-7.72548 138.317 2.06116
-28.089 140.523 4.04265
-2.99509 94.7311 3.99355
8.07162 150.519 2.02004
14.5177 103.458 -2.94283
3.32252 104.959 1.52028
5.57892 97.0749 -9.3549
10.6553 122.064 -8.51979
-0.835025 100.626 -1.84064
4.51324 110.081 -6.8137
11.3723 116.708 -3.73603
-19.0552 148.386 1.95025
15.8831 103.524 3.55358
-17.8252 95.5537 3.61017
7.1712 127.086 2.6898
-0.353159 122.401 0.222066
7.30801 144.271 -5.46368
5.13009 87.6154 5.50074
1.20779 91.4776 -10.6117
15.2897 119.935 -4.79241
14.7648 122.389 4.00905
-4.63539 88.4177 1.10777
2.25132 120.141 -0.692206
12.4535 125.967 1.47897
10.6979 115.826 -7.52723
5.82217 115.222 -6.7809
-2.5534 82.2517 -1.36302
-11.5227 139.618 3.26661
15.5375 120.82 -0.512015
3.81218 119.208 -5.55281
-6.81665 131.926 4.44162
-5.0201 91.9096 -1.75318
-1.28532 117.222 -0.450074
1.67295 81.4555 -8.38396
12.6374 132.854 5.58826
13.4738 133.037 4.78518
2.29923 117.757 -4.85555
-1.73941 152.206 -3.19335
13.5615 130.803 -2.905
-23.6505 102.029 1.01497
15.1869 87.3019 0.202135
-5.16465 84.795 -4.03583
8.99826 97.6351 -8.02467
4.65116 83.2955 4.06206
-0.959769 86.718 0.412379
1.04994 147.715 -3.60505
1.90483 99.6717 6.45183
8.90244 107.152 -7.51087
-11.4679 142.794 2.9103
-9.27027 114.118 4.69907
22.2867 135.275 -2.3004
-6.35099 89.4795 0.733761
-8.97254 140.123 2.9368
-27.1364 141.246 4.53787
22.7185 131.964 -4.57548
-29.7535 130.693 4.4465
-18.4019 141.512 5.22316
-22.0918 141.491 -1.28147
10.1369 99.1368 -8.2515
-3.22077 96.454 2.09305
6.59216 86.916 6.03442
-1.70576 131.804 3.18245
-20.2602 98.7728 2.78998
-9.85324 130.363 4.86007
-18.6021 132.464 3.3847
3.41596 80.5113 1.73136
11.3704 131.273 5.64358
-12.8061 140.619 1.5292
-2.42987 132.64 3.74479
7.72536 106.697 9.26503
15.927 142.653 3.77827
-9.31895 141.88 -6.79953
11.9171 134.54 5.89388
16.6632 141.665 3.79648
6.15437 145.321 -4.08685
14.0801 145.609 0.322965
15.093 148.601 1.02756
2.29029 111.975 -0.962638
-22.3368 145.81 4.69549
-2.30458 119.198 0.692502
12.4589 145.748 -1.06696
10.2817 99.9033 -8.53161
3.76957 148.746 -2.98014
-3.63186 98.0597 -2.3759
0.338505 94.465 5.7285
14.5454 119.374 -7.16653
4.54037 142.408 -4.29989
11.7371 88.7207 -6.13888
3.66492 126.036 -4.10519
-8.91712 117.791 -6.67603
-4.02499 128.668 4.39988
-3.80933 103.247 -1.48965
13.969 127.599 3.59012
13.3506 109.958 -6.3339
-2.32775 115.235 -9.00613
14.94 111.035 -1.96859
11.3936 124.09 -0.618444
-15.356 145.964 -1.40642
12.7808 140.829 -1.40044
13.0292 116.895 5.24025
-3.93283 87.1812 -0.713793
-3.54426 82.9719 -1.45984
-14.1288 104.24 3.5999
-12.6532 116.971 5.47098
16.2985 119.945 -0.466276
3.29357 99.2072 -10.6305
10.4299 111.767 8.70701
-0.116435 145.052 -3.65466
13.9593 115.176 1.65412
-22.7954 132.699 3.74819
19.6055 136.341 -5.15613
4.10518 113.536 0.679237
-21.2425 136.083 4.6332
13.9301 73.4106 1.66633
5.74059 126.09 -7.49735
-4.07602 121.162 2.94523
12.5479 122.66 -3.75107
13.6141 121.067 -0.798001
4.96216 86.6432 -8.66959
-8.94929 133.001 4.03506
15.8189 126.86 -9.96725
11.3571 101.441 -8.73185
21.4367 131.206 1.29706
14.6991 115.361 -0.339982
23.9471 132.592 -3.57959
-2.15015 144.767 4.34344
-7.18959 154.396 0.293868
8.33533 144.275 2.73733
3.39811 126.533 -3.79376
-15.7378 102.932 4.10341
4.88314 139.261 -5.66895
3.50725 99.1726 6.92459
-1.84115 146.057 -4.39401
5.20421 119.904 1.31751
-4.78261 85.2092 -0.760643
12.7159 98.3134 -7.00586
-27.1003 140.204 0.977793
-2.85729 115.52 0.497835
9.00366 83.0836 -6.07686
-18.0219 91.0884 0.217876
6.96331 109.398 -6.6824
13.8479 133.581 4.2493
-18.0638 134.648 2.91152
4.24899 88.0923 -9.41191
-9.54684 136.301 2.3935
-6.45107 83.2809 -3.48732
1.36956 93.9934 -10.4532
13.0305 148.613 0.663568
8.54193 118.951 8.70075
16.7814 118.165 -4.17146
-19.1728 116.702 6.01309
-8.59627 118.417 -6.40917
5.16891 124.116 -6.69593
-14.2035 129.862 5.28199
-6.63424 103.048 1.63417
-19.1393 128.133 4.84249
16.3117 133.82 -6.88349
20.7246 133.855 0.764444
-9.68933 144.753 -6.55151
16.1529 92.4607 1.86102
15.6745 100.675 3.48537
12.9083 76.8677 2.98277
5.45498 111.968 4.94775
3.06408 87.0386 -9.73243
-9.81427 119.707 -5.82513
20.5804 141.482 -1.73835
1.09292 88.7839 -10.8884
11.7909 108.478 -8.26524
6.93649 81.3744 -6.11913
1.56132 129.951 -2.83652
-1.20347 98.8113 1.21963
7.57847 133.062 -6.65375
5.10422 92.4482 -9.51681
10.7372 84.7859 -5.70377
4.97178 87.1004 -8.70355
11.856 74.4075 -2.11255
9.64366 144.979 3.70228
-3.36609 86.575 -1.8573
-7.02307 135.029 3.22129
10.2753 120.198 -5.94056
13.2055 77.5537 -0.7724
12.4898 139.348 -4.83089
-7.93563 81.8965 -1.59705
-13.3506 142.696 1.42226
-3.02738 87.5394 -1.62503
11.8024 140.968 -4.16518
2.01872 133.819 -3.06108
6.82976 132.608 1.1471
-19.5601 102.898 5.09235
3.08082 138.069 1.63339
-5.91801 112.765 2.78608
-2.87385 141.377 -4.53054
-2.79552 125.79 -4.47848
19.7518 136.235 1.94322
8.81876 117.902 8.74051
12.0914 126.745 -2.16778
-15.1238 148.934 4.04485
1.71763 79.1425 -6.82061
-5.73596 111.03 2.28614
-7.71495 141.033 -6.25638
-18.461 143.46 -1.42237
-3.8647 86.8384 -2.42651
-2.76619 97.5972 -2.36072
5.79779 115.118 3.66394
-1.53736 98.299 0.980519
5.32516 114.013 2.84674
2.17996 110.187 -0.906524
19.2631 123.011 3.167
11.6983 145.649 -1.74922
-11.9422 122.016 5.66479
8.65546 131.306 6.42516
-12.5426 128.084 5.8476
13.4862 108.24 6.61026
-6.68436 87.0443 -2.53466
-14.746 129.005 5.07622
-8.24442 89.599 1.27941
8.18041 108.542 9.22138
2.79521 89.1689 3.82946
11.796 83.6326 -4.56389
2.53644 92.4457 -10.3468
5.15676 90.122 -9.4502
20.7699 134.397 0.966537
-20.1939 111.689 5.77387
-24.1244 115.632 3.32998
0.427452 113.782 -6.96357
16.7175 143.105 -1.68481
0.974372 116.855 -0.936816
11.6159 125.414 0.724932
7.83958 144.132 -5.98786
13.0078 112.342 -6.59879
9.43299 94.9766 -8.1699
-9.6719 83.3988 0.684022
8.23964 125.129 7.49846
-10.074 102.643 3.34544
-11.3142 97.4517 3.74918
6.12132 126.765 1.34138
13.5444 87.3642 4.5743
17.3218 118.783 0.30633
11.5295 151.735 1.19995
-7.63063 144.779 -5.96518
-5.80052 84.3288 -3.71523
6.82746 127.845 2.04452
1.57325 101.323 4.72541
-6.42704 85.802 -3.229
1.22792 93.149 5.23194
0.0929469 116.009 -1.1531
0.746265 146.621 -3.53665
3.53076 75.2287 -4.07006
-12.3206 102.49 3.55122
0.21873 144.66 -3.42013
14.7535 141.854 -1.68856
24.7328 131.334 -3.79648
-17.4397 129.416 5.01994
-13.5474 86.0105 1.69658
9.06506 121.796 -8.53451
14.5324 121.059 -4.76599
11.9384 133.843 -4.38298
-14.3324 146.755 -3.0382
11.5599 135.511 5.95358
9.91648 122.678 -6.73081
-7.93206 116.347 4.83773
9.96851 132.874 6.39439
-2.50042 153.446 -2.50051
7.30274 125.612 3.48285
2.82743 135.556 -3.78748
13.8158 106.252 -5.35642
22.6032 134.38 -3.24469
7.02448 103.639 -9.19017
-15.5341 91.7089 3.80211
13.9659 84.0876 4.1084
16.2607 124.235 0.763135
11.0192 84.2026 -5.47888
8.61201 77.3633 -3.43055
-14.5611 127.217 5.4925
14.2891 115.6 5.51216
16.0255 144.13 3.80959
-3.41972 85.4129 -0.32283
14.6636 133.452 -6.88453
14.6254 101.352 -1.87521
21.2436 138.877 -2.26023
2.6199 80.3764 0.215165
11.4636 131.146 -4.41534
-3.64555 120.639 2.46053
11.34 126.095 6.38286
-1.28994 91.356 2.88515
-0.0262609 82.6271 1.13213
18.9625 142.23 2.50435
-11.4639 107.699 3.13996
1.66919 105.803 -10.2982
-11.2875 83.664 0.98343
4.34197 82.9175 3.78999
1.08744 93.7548 5.68157
-1.5078 137.12 2.78888
-2.89148 124.351 2.61747
10.7962 112.092 -8.17672
-19.5619 88.5724 -1.40447
-5.99149 85.0567 -2.57274
-4.53963 87.9547 0.865181
-5.37284 133.685 4.02624
0.0037809 109.767 -9.821
10.8861 114.421 -8.94403
10.4497 123.218 -5.96148
10.3228 87.9185 6.24012
11.7407 75.0755 0.280964
-1.57072 130.156 3.04207
21.1479 130.24 -5.97728
10.2937 101.821 -9.2137
-19.9432 127.601 3.66878
18.0845 140.75 -2.64819
10.4392 90.3678 -7.39609
-24.3366 112.428 2.9944
-11.9102 151.21 -3.35771
2.48202 140.052 1.97819
-1.06159 132.793 -2.67835
12.9849 119.331 -3.6628
-23.5986 123.462 4.6377
15.9373 125.533 2.638
-3.34566 104.598 -1.19062
-11.5314 151.775 1.01978
11.8812 114.202 -1.4185
5.22922 112.71 2.87943
11.874 141.535 -3.9463
17.7929 116.762 -3.61342
-13.157 147.204 -4.62286
-14.3929 150.313 3.29184
17.1287 129.406 -7.99945
-5.29303 153.231 -2.65263
13.1759 95.3923 -5.28793
13.3933 117.844 3.41494
-15.1948 118.228 5.81339
12.6426 88.2296 5.43709
-23.2974 145.532 2.14658
2.15903 80.2874 -0.613063
3.63821 126.362 -4.21895
20.6415 124.647 3.6009
18.9979 139.34 -3.52858
-15.4113 92.1483 4.21288
14.9886 111.11 2.60921
-4.03065 94.8399 -2.12559
1.69909 137.54 2.5344
-8.45461 112.437 4.24467
-3.60312 130.655 4.25204
-7.32521 133.404 3.83003
3.6537 108.77 -7.71703
13.8301 123.43 1.23972
-7.88805 127.905 4.49331
19.2234 127.385 3.67448
-4.61403 97.1881 -2.28942
4.50021 101.811 7.52858
12.2047 128.154 -5.51105
13.5217 120.899 -3.0694
5.00591 135.414 1.15794
5.52932 138.932 0.867984
10.6816 125.582 -5.60994
-18.5718 116.25 5.84296
17.0035 143.668 -1.09221
11.7346 96.9645 6.65565
5.30104 89.239 -9.25422
2.54265 115.153 -5.65126
-3.85129 124.278 -4.67245
-30.7016 131.598 4.5046
13.61 124.571 0.673188
-4.40808 153.168 -2.69966
-4.09057 94.826 2.14382
2.04021 101.769 4.30492
-7.10432 136.624 -6.11928
0.657355 108.588 -1.55711
5.09936 150.165 -2.99342
-8.18453 114.778 4.64724
0.491481 139.045 2.65671
-7.46021 84.4064 0.100653
6.2134 96.0035 7.43658
15.1534 79.3881 1.93706
-18.7978 132.681 3.33456
5.51855 113.147 3.81973
14.5173 108.845 5.87598
6.72726 94.397 -8.68184
-6.77774 136.54 -6.02003
5.87891 102.698 -9.66117
9.45495 103.227 8.1716
11.9372 86.3275 -5.23846
1.75598 109.187 -8.41711
-17.852 118.471 5.68667
8.37846 130.715 -8.1029
-3.9841 143.796 4.59445
-10.872 144.602 0.883258
-15.5375 95.4105 4.5849
6.89298 119.593 5.07164
17.4063 133.768 -6.41431
-10.6984 79.9276 -1.95686
28.688 123.279 0.278405
-14.0565 151.497 1.35283
5.16252 122.066 1.05821
14.7433 124.959 3.34286
-5.75888 127.718 -3.61278
1.12254 80.7199 -0.70588
-6.53972 126.712 4.76762
13.2618 131.242 4.84387
7.55384 143.051 2.167
13.2083 135.125 -3.92092
-7.78598 119.739 -5.98229
3.17068 81.78 -7.82817
13.0992 133.084 -3.34532
15.1722 117.95 1.71944
19.2347 123.827 3.48905
16.231 133.983 2.88987
-2.60862 103.298 -1.95945
-17.418 149.255 3.5783
-7.45926 140.423 -6.11913
-9.95408 141.345 -6.87401
-3.32949 139.966 -4.32302
-9.50618 123.458 -5.10807
-8.76188 122.952 -4.86106
13.6928 127.622 -3.29832
5.45181 115.444 2.52226
6.70655 96.8906 -8.73109
-13.7732 143.441 2.12072
-8.87271 129.041 -5.0343
-6.28931 154.585 -0.245004
3.25816 102.016 -11.1884
-8.20151 118.884 -6.22057
-3.75806 87.4673 0.529121
-10.7154 152.638 0.208431
18.278 121.918 -12.0119
-23.5307 144.885 1.35614
-1.41192 131.77 3.03417
-0.087104 116.024 -1.173
-12.7255 138.588 2.55095
13.765 122.185 1.34921
-1.25503 153.864 -2.32196
-15.8591 144.138 3.38028
-8.37507 137.251 -6.75278
-4.43359 127.385 -3.48789
10.6395 99.9213 7.61108
-0.414973 112.763 -1.28928
-16.7756 147.062 5.00091
16.4435 118.301 -8.25064
10.9694 126.066 -5.38853
-4.27496 150.455 -3.99721
-21.109 134.757 4.04276
9.94866 130.407 6.71789
6.05288 87.1585 6.02509
-1.65707 121.752 0.735229
11.7156 77.6278 1.5731
7.44653 135.902 1.77127
-5.85808 92.0313 1.9217
-11.875 117.395 5.55322
-4.60462 127.557 4.46088
11.8128 103.983 -8.80473
3.06546 97.4075 7.10402
-7.12901 114.357 4.26457
-5.10605 91.7793 -0.178111
-23.0036 105.491 2.8257
-25.2889 143.772 1.46689
-16.1929 89.1697 1.82149
3.15253 132.506 0.854521
9.8544 99.4999 7.71762
16.4326 125.223 1.76169
26.8762 124.57 -1.2723
-10.3996 80.8075 -0.86531
-3.68519 139.091 -4.17177
-21.5477 121.318 5.95528
-9.22241 97.7144 1.62757
8.25182 105.673 8.76944
10.869 152.67 0.672184
20.8959 133.419 -4.67309
18.5064 144.934 -0.691723
15.3628 109.441 4.80519
-24.8085 103.947 0.645282
11.9928 90.0781 -6.09174
14.5404 99.7489 -3.6853
2.48484 111.437 -7.07049
-11.4121 97.958 3.88265
17.7219 124.782 -11.3356
1.10188 102.653 -0.899356
5.27828 86.3473 -8.54134
-6.60602 144.41 -5.54248
13.3382 130.951 -7.45101
16.3593 118.352 -8.50584
23.035 129.485 -6.17659
-13.4401 104.701 3.43942
14.8921 107.412 5.21031
9.18406 91.8189 7.02858
13.7108 99.5286 -5.48569
11.8736 123.767 1.33904
13.8887 95.6237 5.18914
7.94463 151.309 -3.92793
12.0919 122.769 -2.46503
9.57224 97.0138 -7.97066
5.32268 111.673 4.16036
15.8852 139.656 -3.92298
-23.9475 111.207 3.55375
-15.3923 136.748 1.91928
-24.1716 145.027 2.21399
11.2465 106.302 7.48875
5.26216 137.395 -6.0864
-13.954 141.571 1.54798
3.16377 149.712 -3.19818
-17.6648 126.313 6.40265
15.6603 119.672 0.959607
-3.89332 93.5888 -0.458945
16.2535 125.253 2.05626
-8.22292 116.24 4.89223
-3.79078 85.8779 -1.87814
16.5919 117.853 -0.68379
-20.4548 143.571 5.68888
26.8205 125.944 -0.0183672
-21.1714 146.541 1.13929
4.79951 113.572 1.61566
-7.82329 153.256 -1.98987
8.72661 116.779 8.79972
6.05531 132.17 0.54007
-5.99684 93.3174 -0.387432
-11.6508 111.185 3.6057
-11.0602 145.191 0.567453
-5.03085 112.4 1.69387
-7.52482 116.983 -7.74434
7.25193 131.028 2.11276
13.6894 91.0899 -3.46612
10.1977 118.495 8.85138
9.7339 148.062 -4.99774
-6.62633 88.9658 -2.84151
18.7221 124.963 -10.7077
-0.865073 82.9985 0.836564
14.2334 121.839 -10.3786
14.2362 111.649 2.07906
4.54882 115.58 -5.74394
-3.08437 87.7709 -1.09516
20.3417 135.771 1.70389
6.27643 129.928 -7.19588
7.33541 126.983 -8.4626
-5.1939 92.9099 2.97068
15.3541 143.421 -1.21874
17.1789 135.351 -6.48222
-6.2769 83.5171 -3.76744
-3.15184 131.076 4.03806
6.69332 110.141 8.63707
13.6667 124.059 -7.62399
-5.33334 88.5585 -3.34872
-20.2417 117.916 6.45673
7.709 119.636 7.80356
5.59017 105.251 6.58219
18.5096 116.647 -3.31019
17.6442 122.189 2.60348
10.5848 97.7578 7.16669
-3.56777 116.115 1.44705
-31.3087 129.082 2.95484
-24.8506 114.842 2.38266
13.1385 100.883 6.34674
11.214 91.1588 -7.02419
11.4032 113.83 -5.90412
-4.18793 145.869 -4.9565
-0.448546 144.791 3.55207
5.44212 155.076 -1.34696
11.8852 127.709 -5.81241
12.5877 139.372 -2.63596
11.9918 78.1347 2.22305
-15.1337 101.085 4.40777
-4.6092 142.808 2.92149
5.03533 153.667 -2.05634
10.9814 124.718 -3.07175
14.5406 88.2103 -1.21851
-9.24111 87.7932 1.63354
-5.84202 90.1409 -0.29067
23.4095 122.886 -4.36597
19.7129 127.941 -7.99672
0.854214 131.975 -2.66105
-3.34749 95.9093 1.8515
-2.38191 125.383 -4.93173
-19.4304 126.978 5.83042
-31.668 129.388 3.15791
7.20046 78.4431 1.18368
-2.49062 153.683 -2.36481
-4.4676 86.9003 -0.400995
-15.1863 116.383 5.04917
4.87798 108.927 3.51884
-8.41066 133.452 -5.51644
14.5824 84.9269 3.64021
-27.336 141.975 1.60362
0.356057 107.237 -11.0382
13.8943 122.084 -5.8799
9.96143 91.064 6.60353
3.33641 85.8346 3.49739
-12.2159 94.8677 3.75589
-23.0507 104.091 2.3295
15.0477 82.8975 3.07411
7.56118 109.386 -6.85939
10.655 143.041 -5.44835
-6.49299 142.335 3.17648
-23.3807 103.543 1.81705
14.8847 110.58 5.62387
-11.5776 103.429 3.30278
11.1893 116.148 8.67679
-0.0171713 99.858 -1.58144
-31.7153 129.147 2.94541
-9.40481 103.365 3.17546
-13.195 123.299 5.89872
-5.46499 140.372 2.11589
-7.15131 82.245 -4.26693
10.9687 87.0869 -6.23961
2.62668 114.253 -5.86758
-13.6827 128.697 5.62048
-6.07736 89.1264 0.028889
4.53167 106.531 3.08001
6.27943 116.078 5.18604
-23.5231 105.569 2.38188
3.69972 126.576 -4.46358
