ply
format ascii 1.0
comment Created by Open3D
element vertex 1934
property double x
property double y
property double z
end_header
-9.75118 113.423 -2.21574
-13.2953 118.584 18.7966
-18.15 143.299 -0.126053
-30.0471 129.772 7.01128
11.9409 110.403 2.02123
-20.2777 106.843 -1.43427
-4.3468 83.6718 -1.89912
-13.7888 107.402 20.1314
1.48524 84.7916 19.949
-18.0527 133.233 8.54037
-16.9888 87.8876 18.5247
-27.3978 127.844 8.20421
-25.1376 127.142 9.30356
7.99069 78.2384 11.8232
18.6424 132.408 -0.993649
-15.0446 131.064 14.3882
10.0469 100.305 2.7256
-13.2147 129.527 -2.37504
-24.9386 122.472 3.41031
11.2638 113.478 15.448
-13.7386 90.4697 17.8955
-8.25004 113.659 -3.95057
-0.777641 125.441 9.41482
11.0914 115.922 15.2049
-28.8174 109.308 15.8504
5.39711 124.867 -5.34742
-19.6176 120.6 18.9469
-6.56407 117.511 -4.13954
4.71179 130.95 -4.6702
-15.9379 127.811 14.5553
-11.5091 84.3438 16.7959
12.7102 107.423 11.3313
12.7571 123.822 5.59244
6.78611 78.8266 10.4795
-3.43067 98.7589 -4.82725
3.52633 133.421 6.49468
-6.33543 137.228 -1.0969
14.7545 127.155 5.89505
-0.796509 99.7274 -6.05498
-28.0126 130.498 4.76405
-12.8894 94.5561 21.5501
-23.0626 114.641 20.8903
-29.0122 99.2321 9.06649
-7.56562 84.9163 -0.18047
-2.55169 73.5647 -1.19941
-32.515 130.913 3.13078
-23.2011 142.353 4.27004
11.9677 101.576 8.12499
10.6923 121.225 14.7662
-16.31 91.7536 19.2717
-13.0202 115.75 -1.37244
-31.9391 129.277 -0.599285
-2.65015 88.7449 19.9055
12.8214 118.316 -3.32306
-17.0117 117.33 -1.07824
-6.91992 112.051 14.0106
-27.9535 114.294 2.70575
-18.8285 133.336 7.38571
-24.7114 129.965 -4.73164
-12.1 109.018 -2.2611
13.8019 131.693 -4.77281
-30.7692 83.7808 15.0847
-31.8758 128.579 6.22994
-4.71698 128.907 -1.20473
3.1428 111.415 15.8988
16.7843 134.849 6.68225
-5.01512 85.8216 -2.09479
-11.4783 119.38 -0.370779
8.92944 133.903 10.0906
21.5956 125.116 7.02444
-25.7178 125.21 3.4684
-13.8725 119.648 18.5455
-33.281 84.165 18.4926
-17.4135 141.03 -0.0689938
-26.2984 133.135 6.7548
-5.99287 90.4675 -2.28223
-30.9871 92.8868 9.97796
-5.9674 112.927 -5.61694
-13.7761 123.764 17.1132
-15.2409 106.144 -3.06539
13.1808 118.547 -4.95051
-2.4 133.254 -1.50874
-27.0023 128.994 4.47392
4.05837 79.3703 3.00996
-31.6503 94.8064 12.9125
7.79566 99.4379 -1.58173
-2.79528 129.633 -3.24822
-15.9978 134.744 -0.616116
-4.43342 102.138 17.7777
-11.6838 113.254 -1.8857
-28.6757 127.285 3.27159
-11.9694 121.778 0.157855
-28.1734 125.538 2.04775
-19.954 127.539 -1.09744
-14.4256 123.71 17.2631
-21.9464 121.804 -2.41392
-25.1487 142.219 2.75712
-22.2419 124.502 -0.354744
-0.0837147 106.923 -5.59025
-23.7107 104.773 23.5926
-33.4645 92.4116 16.3993
5.14051 80.6812 1.81218
-23.42 114.084 20.9493
19.5744 131.915 0.317607
-1.1323 93.4213 -5.1026
-21.1438 132.046 -3.81078
-28.3033 125.431 -3.94269
-27.7352 113.266 2.09444
0.85929 94.3789 21.2031
-23.435 130.451 9.1291
-21.9549 132.711 7.12483
17.0161 119.622 4.83855
-19.4105 123.274 17.4488
8.99372 130.304 -5.97838
22.9066 126.021 1.78044
-26.0165 126.197 -2.29262
12.4836 123.045 -0.979292
-26.2196 133.631 -2.51767
12.7632 117.154 7.69406
8.44335 99.8044 18.9404
1.68262 90.2778 -4.20727
-17.1503 134.17 6.9085
0.213167 135.852 -2.95164
3.75509 76.2628 6.73373
-28.1196 114.078 3.96862
-28.4059 95.4725 24.8532
12.5293 123.385 4.63292
11.4631 105.333 6.98619
-31.4413 92.733 11.2954
-9.94373 139.033 -3.40689
-4.93735 120.251 12.9725
-32.2068 89.7243 26.4017
-28.5881 98.8494 4.89715
0.102546 79.4036 20.3112
-25.6722 124.271 2.2932
-26.4254 84.908 10.6222
12.2698 97.1607 9.80334
-24.8845 113.955 -1.149
11.9295 129.62 -4.58833
-24.7303 125.201 13.7571
2.30935 120.552 10.7225
-30.2092 102.9 15.7672
-29.1543 129.641 5.24302
11.8143 103.657 7.54909
2.03399 81.286 19.723
7.1961 117.742 -3.64281
5.14033 119.108 -4.14081
10.1292 128.324 0.845906
12.3848 98.7823 10.4191
10.4999 125.967 2.06383
-0.407783 122.307 -4.57428
12.3144 119.839 -4.91969
3.38533 77.4917 -1.03868
-18.0371 121.778 -1.51023
-22.6734 116.442 -2.26535
2.46899 75.8342 0.471475
-24.958 124.122 15.142
-6.50471 103.399 -5.27354
-22.8261 82.5383 9.38145
-4.352 88.9334 -3.1472
-8.54521 97.4685 19.3195
-5.40223 122.063 -3.14332
13.3949 133.982 -1.45871
8.70292 100.993 18.8902
-30.8909 129.566 6.29051
2.12945 100.855 -5.78405
-12.2984 81.6022 16.3822
-3.54694 112.758 -6.09068
2.09437 138.892 7.08154
-3.74931 119.906 11.5584
11.9807 127.366 2.52922
-22.9652 129.216 13.9994
13.0577 124.256 -5.6364
11.0769 98.2785 16.7229
-29.8865 99.9374 14.1093
-22.7245 97.1903 25.6918
-26.477 131.542 5.19401
-15.5102 132.309 12.299
3.89597 107.561 18.6124
8.32976 80.2472 11.3477
-0.0713375 128.622 9.17956
-20.6249 102.668 -0.568212
16.162 129.448 7.4685
11.3236 98.5259 7.12441
-10.3968 102.11 17.0636
-29.212 89.2592 25.3977
11.2342 89.2886 15.6034
-3.03346 135.954 10.3847
8.36862 134.085 -5.52432
10.2836 132.232 10.2287
12.2725 111.842 3.92382
-26.7826 88.0609 8.96051
18.737 125.874 -1.72508
-19.2291 88.339 4.88383
-14.8805 92.568 1.79926
-27.7057 122.436 4.70204
13.3279 110.319 13.1446
-27.311 123.783 4.15532
-21.0213 105.217 23.4939
-8.17015 76.5628 1.67291
12.2647 94.4043 12.3763
-14.6542 137.296 5.52088
-4.14969 125.254 -3.07859
-19.5644 134.203 6.38401
-27.3955 132.426 -1.75551
9.8861 110.213 16.7268
-13.377 93.9129 21.2147
-12.9361 90.3383 1.56468
-0.724502 134.373 -2.4003
10.2181 114.395 -3.8615
-19.3287 96.7993 24.0676
11.4418 110.912 -0.531919
-8.41741 74.729 1.45333
6.21141 112.918 -3.66327
-7.71639 114.262 -4.47494
9.24542 133.284 10.1999
-11.1211 93.5809 20.0012
-5.37847 122.914 -2.56056
-4.67711 119.799 12.5778
-10.6251 135.891 -4.02963
-25.4038 105.538 1.41417
-17.4459 103.003 -0.898824
-7.58228 140.123 7.57146
20.779 126.511 6.62761
-18.9434 134.658 -1.18402
-15.0476 103.347 19.4733
12.5328 126.324 -3.72461
-28.7159 91.4763 25.6014
-24.6933 126.785 13.1787
-9.55565 127.434 0.748644
10.7174 130.594 -0.24978
-19.7888 95.598 1.76951
-11.9745 90.0147 0.890185
-7.01011 103.371 16.2615
18.6394 117.767 0.591333
7.43505 83.5586 7.58827
-11.2686 127.79 14.5727
-23.6505 132.912 6.90605
15.559 127.807 -3.57352
-27.6389 133.24 5.35595
-28.2442 118.459 3.24112
-31.0597 96.9491 11.7453
-23.3797 129.315 7.82958
15.4852 123.922 -2.75112
3.28354 123.974 9.59964
0.537297 86.8244 -3.79425
-20.244 137.353 -2.89375
-10.3952 137.894 9.87349
-28.3087 125.553 -2.46008
-27.2682 129.714 4.33365
-2.99078 127.442 12.2048
-6.43395 112.262 13.7045
6.99214 120.271 -5.51329
6.31538 98.0607 20.2767
5.26023 101.052 -3.7855
9.77993 98.1567 18.4453
-29.797 129.54 4.6584
-12.5945 113.229 19.2939
21.0989 130.696 6.05248
-25.5942 121.161 16.769
15.023 131.419 -4.36387
-16.5223 112.782 -2.15503
-22.7078 85.3746 7.7157
10.5982 93.4259 6.27399
4.556 132.492 6.50544
12.6529 128.656 -0.458856
-19.2968 85.5888 6.49486
-19.3855 131.767 13.8558
-22.1268 130.508 -1.23115
-14.4226 120.484 18.4286
12.2698 96.5685 13.5437
1.26908 138.901 7.86725
-31.3542 91.9105 26.5013
-11.9831 96.8332 18.9116
5.75611 82.3797 2.41404
9.83498 110.721 16.6663
6.31978 123.603 -5.83348
-11.5377 107.795 -3.19341
-15.8148 99.4049 20.0792
-2.94878 95.2805 -4.89872
3.73481 138.138 5.92105
14.2215 120.573 1.73116
10.7011 122.446 -6.35132
-19.4598 83.3375 7.35149
-21.9825 129.841 -2.8078
-6.71829 86.2053 -0.79768
8.81627 100.324 18.7896
-27.164 114.015 9.4958
-19.5637 78.4064 8.6344
0.944091 130.682 8.28267
7.6288 108.926 -3.54458
1.93487 131.563 -3.76945
-5.51418 108.041 14.3276
-31.3162 93.955 10.4859
22.7481 121.473 6.07133
17.9146 123.275 6.93843
11.0023 94.4651 6.79347
9.90196 127.034 -6.366
-21.7398 80.4175 9.0415
-19.121 133.735 0.232025
5.97459 81.088 19.7812
-7.91992 132.668 -0.0389824
1.06624 116.484 -5.36146
12.0822 122.564 12.1771
12.5471 121.694 -3.70502
-12.3736 139.508 4.03311
11.9528 133.9 9.23269
-23.7129 111.051 -1.24626
-29.1213 125.656 0.0705761
-3.51596 106.676 15.2599
-4.69272 127.137 -1.99277
9.10963 94.2244 1.7827
-17.3313 107.462 22.0805
-18.6372 124.819 -2.1371
6.28415 97.6745 20.3217
7.60088 121.759 -5.85668
-1.81195 85.0683 -3.45181
-11.3126 129.583 -0.766149
16.6081 123.678 -2.45837
-19.1303 143.162 -0.420378
4.94862 78.2475 8.43151
2.57106 108.367 -5.59957
-12.8671 136.621 7.24681
-9.74225 140.553 4.95207
14.7797 125.446 -4.18756
9.86264 80.2472 15.7972
8.92462 92.8132 19.1358
12.8 133.125 8.857
-9.34931 95.5267 21.8103
-32.9619 129.358 3.84412
12.8493 127.452 9.27182
-33.2515 91.574 23.8567
-5.41469 118.064 -5.21195
10.7351 103.865 4.6586
4.31285 82.9663 19.1774
10.5801 127.715 0.243599
3.26349 85.5561 -2.76032
-12.9113 142.671 3.34083
-9.20312 132.485 12.4169
-27.8687 98.2785 19.4079
23.5433 122.935 2.95476
-17.9274 134.32 6.63732
-13.25 93.4412 0.632412
-18.4636 136.625 0.0866524
-29.3376 108.335 9.53076
3.47968 91.4203 21.2296
9.27379 93.56 18.6023
-21.2884 132.536 -3.78056
2.34092 91.0386 21.4418
5.26802 103.906 20.151
-14.0337 87.534 16.6617
7.24602 80.3454 20.384
1.52778 102.996 20.6846
-10.4183 130.009 13.1826
-28.8979 96.9662 19.938
11.5052 94.3553 16.3464
-9.94985 102.099 -4.36056
6.69926 92.4798 -1.06292
13.7826 125.329 5.76493
-15.9576 132.532 -0.981159
1.9556 110.028 -5.81144
-22.6839 125.942 1.14315
12.1516 102.884 8.41333
-0.0516425 119.863 -4.77901
-29.9356 97.4528 9.49192
10.9167 125.038 11.3646
-2.18381 103.039 -6.16024
-22.0133 118.462 19.719
20.5373 118.485 3.94992
-20.933 101.753 25.0205
-2.38857 138.088 -0.533622
10.8417 116.299 15.3849
-29.2294 87.1395 11.4491
18.7014 121.236 6.83145
-27.7094 112.812 9.01125
-29.2541 104.759 16.3254
14.4441 124.937 -4.51441
-29.8713 95.0232 8.01489
-15.1427 142.327 -0.711622
-9.59565 140.936 4.61754
-15.0259 115.239 -1.64063
-27.9572 137.373 1.88613
-2.20604 102.38 -5.91377
-8.28577 138.895 5.33221
13.216 116.162 12.2239
-24.5021 133.336 -2.97124
-17.3714 118.873 19.1646
5.54285 133.301 -4.44715
-8.5206 138.71 9.59265
-26.8682 131.566 8.09434
-0.750676 125.311 9.36553
-8.01017 130.872 0.440493
-24.5095 95.665 3.49648
6.94802 131.494 -5.34782
-12.8093 100.918 17.9384
10.7097 86.7316 16.2892
-3.94125 126.235 -3.03242
16.6244 132.652 7.22387
10.8005 105.624 3.62605
9.87994 93.6037 17.905
-29.4579 102.875 8.33909
-22.3231 117.962 19.8485
-7.49708 134.381 12.1229
-22.8405 129.916 11.7194
-15.258 109.875 20.6674
6.54652 97.9896 -1.99844
-9.11528 109.005 -4.49653
8.95117 112.101 -3.16456
-21.3214 110.107 -0.875095
10.8829 128.439 -5.82129
12.484 119.291 -2.94383
11.0547 91.0589 12.6638
7.37139 104.974 -2.72062
0.610303 112.796 -5.00811
21.4238 125.375 6.7643
4.76183 95.2899 -3.35104
-30.1054 102.142 11.2938
-10.0272 118.836 18.025
8.8118 120.613 15.6472
-14.0135 91.6813 18.558
-15.8799 141.382 -1.84695
-7.96141 137.82 -2.02489
12.8393 111.98 7.48938
-26.4352 129.125 7.98677
-27.8638 94.0659 6.71034
-28.0235 113.407 5.37186
0.911147 136.674 -3.99346
12.9699 122.374 -5.69531
-21.127 130.423 -2.22647
-6.77549 79.1591 0.303575
6.37964 135.174 5.72278
-17.9923 125.712 -2.0526
-15.971 93.7414 1.82547
-8.62599 87.1419 17.7302
-11.1816 106.333 16.8006
4.03317 80.7718 -1.3022
-28.6866 127.73 3.60205
-2.75471 112.121 -5.72456
-6.48402 133.34 0.32743
-24.2644 130.108 9.10525
-27.0844 127.088 6.96847
-14.7029 106.75 -2.7533
-27.2882 113.105 16.4548
12.4538 105.558 10.8923
1.96071 106.971 18.0253
-20.4848 123.7 -1.90893
7.22163 105.833 19.4359
8.28043 127.403 13.3224
-28.1229 99.4914 18.457
-25.5743 134.25 5.88641
-30.285 91.8866 8.96263
-23.3395 105.006 -0.45902
-21.8187 143.176 4.97684
5.01575 90.4865 -2.16229
-2.4339 83.4481 -2.94966
10.4274 123.787 -4.03386
-26.8296 140.075 -0.200732
12.9156 106.524 12.9952
12.7638 109.379 4.44453
9.85486 79.526 13.6528
1.78473 75.2604 2.73443
-35.0279 85.5439 21.4477
-24.1558 126.45 -0.82397
-11.5987 133.312 12.0625
3.92855 98.6211 -4.49907
3.77688 123.132 10.0733
17.6284 132.435 -2.16207
-20.9407 133.684 6.57881
-32.3015 88.4885 14.1436
13.1126 115.688 5.94498
-8.93132 75.3378 1.92849
-0.99248 131.63 -3.79142
-22.1462 130.268 -1.02924
-24.0295 127.722 -3.17324
0.685158 125.198 8.96733
0.743682 104.346 19.6885
-6.70617 85.3327 17.9217
23.2373 128.493 0.699559
7.4038 114.766 -3.61662
7.0854 115.538 17.2334
-12.9484 101.826 -2.74793
-15.7885 132.551 -1.22769
4.03273 82.3445 19.2319
8.23406 77.7468 12.33
18.1458 128.07 7.89635
-4.75667 106.646 14.763
-23.4131 129.897 12.6143
-3.08421 91.2353 -4.32285
-17.7967 83.3274 15.7672
-27.5372 129.416 -4.6705
7.35294 105.648 19.4184
14.022 130.068 0.389599
-28.5719 128.107 6.53401
-29.2114 88.0193 10.8877
-31.8074 96.2653 14.9832
-28.0985 90.8398 25.3444
10.9361 106.549 3.42197
1.71294 85.8633 20.3689
-29.345 102.613 8.35643
9.1887 101.179 -1.32583
11.3733 125.065 -5.08649
11.58 124.058 -4.93582
-12.1765 125.154 15.7527
-28.3244 110.502 15.3323
1.33082 90.6371 21.3835
11.286 111.605 15.5985
6.53005 108.87 19.4756
11.3767 109.816 1.29952
-22.1961 129.537 -1.33622
11.1914 93.6382 8.39749
-10.7414 109.075 -2.94959
11.1172 108.851 15.4483
2.10612 94.6714 -4.81122
-26.2338 112.775 0.188707
13.8797 117.633 -2.50862
-26.3216 83.8267 10.6976
-25.7899 124.972 2.79021
-27.923 111.75 15.6468
-27.7343 120.359 3.82676
-15.1403 116.121 -1.32397
-11.3173 139.963 -3.75108
11.2625 127.295 -4.41021
-12.7609 95.4365 20.3472
20.1796 124.277 -2.06154
-22.2238 124.13 17.1488
1.55215 129.777 7.90857
-4.17585 83.5634 19.6914
7.98632 112.73 -3.5016
10.907 108.628 -0.2139
-22.8247 117.421 19.903
-10.4594 100.209 -3.39864
12.3632 105.935 10.8037
22.7108 122.024 5.49976
-4.86824 92.6073 20.7597
9.30668 83.4387 12.6207
11.8675 123.827 11.9412
10.1907 122.103 -2.3711
13.4824 131.87 8.40935
-21.6452 87.0463 20.4628
-4.7875 128.604 13.3877
11.7369 126.665 9.67611
12.1526 98.2069 9.83273
17.0854 119.634 4.93083
11.6048 95.1263 8.44792
-9.07032 123.116 16.959
-7.73493 98.9212 18.5094
3.04743 121.01 -3.45282
-6.42997 112.632 -5.34135
-9.26051 122.969 -0.218808
6.55477 94.6297 20.8724
-0.102618 82.0532 -2.73668
-26.9853 126.756 6.06596
-29.7808 82.9988 14.4256
-16.0232 95.9479 1.29146
-17.2634 99.6241 21.1511
0.388434 121.247 10.0967
-1.94816 87.4954 -3.93646
-5.62721 141.37 5.84671
12.2378 119.844 -4.90178
-20.7467 139.591 -0.746046
25.304 123.419 0.859257
-17.4561 139.734 0.216588
-29.2644 81.126 15.2189
-3.20854 135.432 -0.474422
-29.8845 127.689 -3.72193
-24.1485 100.114 21.4197
8.84766 109.171 18.1441
13.1653 130.909 -3.3459
-20.2488 130.462 -0.839989
-10.4653 99.0907 18.0335
-23.6524 130.674 -4.57106
0.991169 110.039 -5.56644
-19.2285 127.062 15.2642
-16.9862 141.712 0.470142
-8.4982 76.8115 1.95612
13.7728 114.778 11.46
-30.8144 96.0007 20.9159
7.93908 79.3037 20.6772
23.4791 119.949 4.37486
12.4362 96.347 12.4125
-3.83356 125.885 12.8657
-27.8744 86.8793 23.3604
12.2943 125.863 5.73394
3.21477 136.765 6.93933
6.83831 122.109 14.4621
-19.8967 109.724 -0.952742
-23.8603 119.932 18.2982
23.394 125.395 0.19779
-4.20093 79.6116 -1.44668
-6.22888 124.64 15.024
-7.3844 111.603 14.2913
-26.6648 130.719 5.16474
-16.5701 129.237 -3.31661
-3.63275 103.236 17.3461
-25.6758 126.935 -3.43323
7.75907 112.29 -3.6738
-4.38459 96.3971 -4.095
12.5204 117.656 9.6146
17.5069 128.65 8.14446
-27.9723 137.418 -0.139094
-1.4454 138.64 8.78472
11.936 129.704 0.555853
-28.3443 100.31 4.40514
-23.4961 128.793 12.9577
-18.5427 89.2928 3.7241
-31.5444 133.014 1.39599
9.02635 89.5342 3.11499
-20.245 96.0707 24.4598
-21.1423 117.504 -2.01884
-22.168 122.319 -2.3085
-20.0566 135.202 -2.73261
-31.542 89.4272 12.4724
-30.3759 94.7723 24.5867
2.37945 106.999 18.3294
-32.9981 87.9158 15.9043
-27.6421 90.8859 25.0297
-25.3707 100.868 20.0287
-25.3014 122.998 11.8985
2.59075 82.7603 -2.86488
-3.70128 76.4329 -1.37798
-28.8782 83.2383 12.8559
-26.0727 118.959 13.2075
-10.4052 75.2328 2.80701
2.49177 106.022 -5.57546
4.53707 93.2399 -3.1996
-9.1095 85.8448 0.558989
-17.2482 131.873 12.5149
-27.7589 123.198 4.75139
-12.5974 78.5009 4.29996
-8.68578 138.803 7.28159
-17.2629 140.559 -0.286677
2.55776 128.824 -3.54859
-23.3814 103.81 24.2324
-2.5839 115.175 -5.49453
-23.9223 126.868 -0.813663
9.46398 77.1929 19.5441
-23.628 126.929 -0.134988
-23.9115 124.822 2.98866
12.5507 103.174 9.43712
-24.1975 141.974 3.92054
20.6303 124.941 7.65059
-17.3932 134.266 8.73917
-4.85298 133.37 12.0224
14.2224 128.483 -4.6064
13.0155 118.84 -4.88211
-8.99625 111.64 -3.7476
12.4431 103.594 9.19535
-7.52198 138.189 9.50771
-6.76229 94.1632 -2.99598
-13.9642 106.101 19.4518
13.1802 126.419 -1.87781
11.755 120.392 -6.02548
3.23382 113.797 14.5991
-22.3412 123.534 -0.897703
18.3389 121.292 -2.0741
19.2272 131.736 6.62606
-23.2498 144.565 1.19185
-27.0628 121.467 3.92351
-5.55792 96.1293 22.1629
-3.83468 116.641 -5.86403
-16.6139 90.738 18.4312
7.71222 101.734 -2.61072
-18.6042 87.4032 19.7172
-19.3923 99.5779 23.6332
7.16673 125.443 12.0913
15.197 118.712 3.52645
-16.1911 108.22 -1.82082
-30.408 97.062 9.74679
5.64717 108.862 -4.28673
-21.0405 95.868 24.5074
-9.25165 90.0798 19.499
8.00253 119.565 16.0806
-0.771533 109.442 -5.28892
11.4946 121.209 14.1699
-25.5735 128.198 6.91446
-1.17306 101.824 -6.30356
8.65049 88.464 2.12201
-3.8782 122.497 -4.86056
11.4042 108.771 1.78728
9.04831 102.532 -1.76172
-10.2026 132.015 -1.99036
-33.598 94.1281 19.1907
-1.41622 78.0303 -2.04458
6.89231 129.161 -5.67457
11.5891 118.841 1.28068
-17.8807 111.849 -2.48162
11.2376 125.992 3.93217
-24.3453 134.506 -3.03479
-16.7128 103.77 -1.34836
-2.484 97.1439 22.2108
7.64097 126.631 -6.10232
-23.7119 86.6195 8.14249
5.2201 81.0233 0.0410553
-27.0471 112.572 6.76533
10.7118 98.9055 4.62007
-15.1274 111.12 20.4634
-5.22346 121.262 -4.05991
2.97402 83.5431 19.5806
-25.6444 141.013 3.41994
10.0688 79.7316 15.508
-27.091 117.914 8.01735
1.20963 133.107 8.10411
3.58857 116.97 -5.20494
9.88208 81.2308 12.9606
-20.6585 125.735 -1.2391
-10.9156 127.299 14.6326
-7.61714 105.987 15.6136
10.3635 91.8347 17.022
-16.2314 138.708 4.87063
2.84511 133.822 -4.01333
-16.0513 86.6027 3.38288
-23.2048 111.757 -1.53311
-23.8128 103.444 23.1919
-9.25759 134.265 -2.45038
-17.5548 90.2307 19.3528
8.07009 127.393 13.3047
-13.2299 87.8593 2.19752
-4.23362 120.447 12.199
-6.08513 114.193 13.4676
-8.69294 108.889 -4.97535
3.92021 110.788 17.3688
-3.34069 81.4001 -2.52396
-18.3174 81.5157 7.82325
8.27933 122.343 15.1065
-12.3419 122.465 0.2698
-2.88079 95.6319 21.7819
9.24692 99.3165 -0.611018
-16.9842 90.7687 2.56218
7.93373 101.03 -2.24246
2.23509 98.9602 21.0633
9.20671 125.185 13.491
12.408 101.866 11.5092
-0.349052 131.976 9.74816
-8.60149 136.785 10.3519
-13.061 114.903 -1.45814
17.7168 117.669 -0.363157
15.6136 126.454 -3.2882
-34.1512 89.0998 17.7653
13.2941 117.453 3.85638
-17.8365 87.3695 4.20677
-24.4344 124.112 1.56258
-14.6889 136.568 9.62698
8.63733 128.276 12.7257
9.99912 114.797 -3.09242
-20.4176 87.1677 20.5088
-14.7799 134.37 12.1485
2.04601 111.703 -5.62323
-19.8439 144.916 5.74532
-23.837 98.5944 22.9775
-26.2827 136.578 -1.38333
-27.8621 132.171 6.88029
4.71811 107.597 -4.2022
10.1291 128.241 11.287
-8.47207 111.161 15.9634
-5.65281 101.585 17.5648
-26.6628 127.856 7.20345
-16.1625 116.336 20.012
10.9818 128.724 -5.79628
-10.1306 137.628 6.7087
-7.36459 132.732 12.7892
-5.69245 76.8366 -0.142401
-22.1517 102.267 -0.0655717
13.5101 124.74 6.08005
-28.5638 107.225 17.8356
-15.1279 141.482 3.49701
-1.76136 76.2444 -1.7636
-28.4712 111.354 9.17487
-7.00508 119.406 -2.37708
9.76832 101.181 -0.566155
10.0082 77.8934 15.609
-21.7625 121.328 18.4734
-27.3994 113.131 14.7936
2.2518 95.1101 -4.76744
12.6873 111.532 6.15674
-10.6736 119.611 18.079
14.8812 124.311 5.99288
7.66118 131.25 -5.48508
-10.3867 109.193 17.9301
-8.05636 100.902 -4.26521
11.9568 126.995 -2.80952
-16.4145 110.683 20.7735
9.9689 118.171 15.8519
1.94092 97.7931 -5.45176
-4.90601 101.898 17.6892
1.2565 118.103 -4.8102
7.63163 90.8655 0.546131
-24.5342 127.514 8.37772
-29.3889 126.107 1.1784
-21.7095 124.808 16.59
13.4628 116.473 11.4529
-12.5112 124.535 16.4433
-29.0978 108.381 16.211
12.6593 124.385 -2.92147
16.7268 129.171 7.70601
6.01187 82.8072 2.06016
-22.9216 129.754 9.25758
-29.1755 107.783 15.8711
8.24389 85.9601 4.8848
-23.7126 126.941 -0.119425
-8.56581 128.576 14.438
8.39136 133.392 9.81273
-15.6574 128.654 14.6337
-0.00481652 120.065 -4.71389
-4.70818 77.767 -0.910657
-19.4098 137.415 6.65742
10.1579 115.782 15.8734
2.92186 118.75 11.8486
10.0005 124.438 13.0494
12.5366 126.143 -2.39871
-21.7877 139.672 -1.09672
13.4861 119.526 -3.41544
-20.5109 112.662 -2.44667
-11.1474 111.199 18.7441
12.5988 126.496 3.44413
-9.62111 97.3412 19.0508
-23.6804 106.586 -0.0280742
9.50364 124.908 13.2344
21.6608 121.758 7.2511
13.7493 121.704 -1.76328
-20.7518 133.142 0.904776
-3.48392 94.4476 21.355
22.7455 132.079 1.49251
-24.6621 85.6595 9.34629
2.48298 102.833 -5.47765
-21.338 135.844 -3.73192
-12.7192 112.212 19.2479
15.3526 125.107 -3.24244
13.6981 132.869 -4.67549
-26.0716 124.735 9.28789
4.50725 103.283 20.2453
-19.1139 78.5446 8.46137
-25.63 126.676 4.93819
-22.5121 84.8352 18.4201
11.5359 125.35 10.5304
-7.65247 99.0678 -3.47933
1.43428 80.403 20.1003
22.3638 126.798 -1.04849
14.6883 127.021 6.4351
-2.29532 112.224 13.0599
7.00344 86.8515 20.6003
-29.0849 134.192 2.33241
-28.1909 129.135 4.00343
7.90387 109.025 -3.45853
-15.7927 131.719 -1.65888
1.64003 115.801 12.7331
-5.53883 89.081 18.9825
8.67175 100.788 -1.61967
-15.3465 100.22 19.8451
-2.41361 130.591 11.2735
20.8623 125.623 -1.7573
10.8401 129.519 0.252439
-11.0775 119.83 -0.379051
9.4113 116.115 -3.84397
21.4317 127.354 3.83884
-13.9691 104.512 -3.10635
0.44698 134.431 -4.17797
-20.3306 112.08 20.7965
-11.2536 97.5976 18.595
-28.1414 134.035 -1.61245
13.5386 123.452 -2.83455
13.0747 110.243 13.5902
-5.96546 128.682 13.8629
9.42992 108.697 -2.53464
11.288 128.86 10.4389
-32.2304 84.2285 16.3798
-0.418796 104.34 -6.19645
-27.7972 110.813 14.321
23.6325 119.885 5.7243
5.16407 102.187 -3.60845
-10.8932 125.664 0.487984
1.56214 130.781 -3.61797
-0.956986 88.8831 -4.19061
-20.5172 131.779 0.694853
-10.2999 105.579 -4.9717
-27.1135 117.851 1.16049
-4.11578 128.197 -2.26669
7.43015 128.082 11.3424
23.9249 126.922 0.382868
-31.4716 88.9292 27.6679
-8.43416 108.756 15.1724
9.43523 113.486 17.1893
-7.91458 133.28 -0.250617
-4.95163 122.973 13.9143
-22.1092 119.393 19.2335
-30.1935 126.303 3.18177
15.2804 129.515 6.97203
-4.73678 96.7177 21.8857
-3.22026 116.974 11.5774
-16.2006 112.498 -2.26722
-14.8403 86.5175 16.3777
8.5148 80.4374 19.1961
14.8018 128.765 -0.969331
-2.07494 94.1537 20.6571
10.2566 104.744 -1.35681
-0.559088 125.435 -4.34881
-31.838 129.872 -0.736397
11.3086 129.27 -4.55662
3.53847 109.318 17.529
6.36017 131.582 -5.0214
-30.2933 103.129 15.9592
2.57082 73.9094 0.0791986
-12.4151 107.163 -3.16161
12.1323 126.704 4.03241
-4.18041 137.281 -0.227895
12.4033 98.6964 10.4837
4.78332 132.088 -4.5015
0.574419 101.035 -6.22038
-15.5931 112.435 -2.35889
-9.95719 117.524 -0.987735
-21.7856 136.127 -3.70805
7.20537 134.954 6.11588
-22.1085 103.864 24.0111
10.7055 103.727 2.03858
-26.6382 127.367 -1.13188
-3.04146 77.4864 -1.87578
-22.0744 137.389 -2.3644
3.42617 137.653 6.2807
-4.78668 119.535 -4.96241
-13.0619 95.472 19.8185
-23.783 127.603 -0.979477
-10.4562 80.0911 2.04209
-27.859 111.842 17.0493
-21.3989 129.035 9.80691
-25.887 83.8984 10.1961
-11.5077 118.444 -0.659082
-8.17671 134.689 12.0253
-6.58852 113.802 13.7927
2.25158 75.5152 -1.33325
12.4937 124.27 -2.72469
0.138487 117.316 -5.44437
-24.8756 121.789 11.2596
-15.5361 106.974 21.6603
-23.9041 108.51 22.7169
2.39272 74.3454 2.26312
11.6666 117.667 1.86091
9.34616 86.4373 8.52881
-0.511579 127.6 -4.10138
12.3429 123.478 3.71204
20.4091 127.805 -0.808822
-9.11498 118.833 17.401
-13.2448 109.098 20.2702
-17.1971 119.309 19.0203
12.2802 122.836 -0.231205
-9.07003 106.006 15.8364
-3.51463 100.578 -4.84969
4.99268 125.002 -5.18152
-18.9499 136.71 -0.348649
12.2617 125.558 -2.82911
12.0983 100.088 13.3795
-4.82849 98.6506 20.9607
-0.650699 121.889 9.98236
-3.28089 78.5019 -1.88217
-12.1182 116.581 -1.19504
0.196673 137.062 -2.76907
-14.6076 137.311 5.32632
-25.6844 117.426 10.1804
22.1505 126.914 2.54364
9.49118 137.503 7.28908
11.1567 112.756 2.35444
-7.8272 93.1633 21.3025
-16.3987 81.6955 6.31727
-28.9996 131.884 6.34254
-7.25995 90.099 -1.43567
-4.61711 127.431 -1.99291
-6.8579 119.968 -2.3604
-25.1803 92.2287 6.57723
12.1715 99.7307 13.3191
-25.6954 125.394 11.5579
23.3578 122.167 -0.710546
-34.2826 83.726 20.7361
10.9306 124.794 11.6116
-25.7344 124.888 11.5031
4.03126 124.772 9.41648
-27.0006 120.079 6.81777
5.39452 92.1395 21.2363
0.180478 125.627 8.90055
-24.6878 124.873 13.3814
11.1774 121.339 -5.55408
4.59538 84.5913 19.4602
9.42816 98.9391 -0.239415
-29.5536 101.896 7.6956
-27.0905 134.248 3.44732
-1.96145 112.308 13.1194
-24.1871 101.669 1.34187
5.23452 77.8404 20.9616
-31.2906 90.499 11.4849
-20.6897 131.14 13.3541
-27.491 99.7946 3.79016
7.81863 77.4284 12.0814
-14.6943 117.342 19.3948
-24.6872 116.757 19.5473
-22.1875 118.846 19.527
-11.6742 106.461 17.5045
7.71683 88.0105 20.3662
-27.2172 137.24 -0.739853
-23.7792 123.747 0.510321
-16.773 121.145 -0.85732
-10.6121 93.2869 -0.805021
0.749007 79.4749 20.3647
13.6125 114.984 11.7578
-29.025 96.6863 6.09519
-17.0124 97.0839 20.841
-24.9642 124.394 2.8973
-26.242 128.158 7.06445
0.41545 76.2788 -1.4216
8.91451 120.619 15.6287
1.06193 134.181 -4.10677
13.6641 117.637 4.44148
-16.6855 89.6932 2.69847
-3.36652 112.593 -6.00522
-23.7361 87.8562 22.5937
-15.796 107.503 -2.03453
4.17832 80.5198 20.1882
-15.9979 94.5006 20.6539
6.90524 128.732 9.22256
-11.9783 111.805 -1.94866
2.56334 130.527 -3.97865
-0.190545 140.109 8.10963
10.4007 82.4984 13.4085
11.1328 96.5667 5.39945
0.0703325 85.6729 20.4839
-10.8235 130.707 13.032
-22.0008 128.644 1.22371
-3.24178 82.8101 -2.76928
-19.9963 91.2292 23.1555
-13.9186 136.457 8.15187
-7.12614 123.56 15.7626
-5.14127 123.525 -2.69215
13.1517 133.342 -1.22546
8.75986 93.3413 1.19911
-32.3961 127.909 4.78141
9.12318 132.441 -5.69875
14.2431 121.08 -1.44147
-22.1565 129.294 -3.09364
-6.02541 102.549 -4.90606
-9.9067 133.109 -2.23874
10.0174 118.025 -0.252911
-27.8295 121.914 5.12202
11.9196 126.142 -2.47732
-14.4145 126.093 -0.28221
-5.13155 94.1999 21.6803
21.9586 124.75 3.88108
-21.9187 126.668 1.23052
10.0484 124.06 13.528
-25.3831 104.947 1.8108
-12.4945 99.5681 -2.25754
-20.383 130.396 -0.222058
10.6716 89.9675 12.4049
10.2405 113.616 0.177806
-23.549 137.53 -2.45171
9.5401 121.403 15.2115
-6.40788 79.7973 18.5115
10.1572 97.8689 17.7851
-26.753 124.08 5.11053
-8.11391 79.6302 0.746871
10.6376 103.5 16.7385
-27.698 82.0769 12.5505
-29.5849 96.8996 8.84819
23.0616 120.647 4.16916
-16.1338 107.638 21.7872
-6.23512 109.06 14.0991
-24.356 124.145 1.4478
15.6573 131.482 -3.72793
-28.8084 125.725 -2.51408
-7.19745 81.9344 0.00172664
-4.14947 136.673 0.0777689
4.54141 77.7482 6.95439
-6.19446 118.139 14.2148
14.8867 124.223 7.33949
1.44026 135.516 7.6598
-6.0732 111.009 -5.17955
-2.54708 130.553 11.3468
-27.9763 116.111 2.58988
11.5026 123.643 -0.192085
-34.093 88.8552 23.8583
-23.3459 97.4548 2.08058
-10.5716 85.0122 1.56468
14.9367 121.213 5.60897
10.0376 117.666 -0.618906
1.17448 104.164 -5.94081
-6.75359 91.5936 20.6075
8.18641 106.35 -2.32009
-15.9016 139.656 -2.45721
9.36641 119.789 15.7753
-33.7375 90.0935 16.7872
13.1466 128.544 0.420126
12.6036 123.767 -3.81411
10.6066 89.2781 11.3958
-20.4328 125.364 -2.20801
-26.7927 135.696 -1.59625
-31.1554 128.327 -1.72582
-20.3398 108.784 21.8539
-26.1649 135.787 3.46608
-29.0417 130.495 -3.13151
-30.1463 95.7748 9.13755
-26.9129 120.164 3.49153
11.346 118.429 14.8828
3.02766 105.674 19.7873
8.78847 81.9997 17.1005
-30.4539 133.783 2.27803
21.612 127.873 3.55223
5.12616 81.0567 20.1723
-12.9448 78.1039 4.87006
9.66429 82.5882 12.5453
-9.90797 101.459 17.1566
-31.6636 129.031 5.28201
-21.759 123.787 17.2738
6.88232 109.211 19.2974
-17.2781 87.0885 3.80116
9.00608 111.007 -3.17243
-7.81388 109.68 14.4986
-13.2621 86.644 2.30332
-26.4173 95.0778 5.46618
-28.076 114.442 12.9864
-25.3342 89.8491 7.74343
-14.7855 104.888 20.0382
6.29772 134.516 -4.68937
-27.3452 139.466 0.253973
-26.4762 127.141 4.56118
11.3624 124.406 11.6955
0.341726 85.748 20.4868
-4.76953 137.848 -0.634903
-14.2936 92.8222 1.55451
-17.733 120.262 -1.12218
-0.0574994 106.076 17.2223
-2.55816 123.198 10.7095
13.8083 131.789 -1.50441
-19.4942 86.9741 5.81967
15.5742 134.491 7.18528
8.31872 84.7298 5.85115
2.32196 128.624 7.6858
12.0396 123.794 3.99923
-20.6669 91.7583 3.19711
-33.6066 87.2565 26.463
-15.3936 94.0795 1.62226
-28.8532 106.223 11.0291
2.15261 107.654 -5.87959
14.0154 121.7 2.30367
12.5103 97.0849 11.054
-13.2897 119.528 -0.46548
-16.3169 86.9295 16.7944
-30.019 93.8879 8.48524
-12.6879 138.078 5.96527
-29.032 127.401 3.50034
12.8043 119.739 8.88509
13.7349 115.161 11.3627
14.2807 133.856 -3.21151
-5.34669 105.245 -6.07557
7.32264 131.954 -5.28329
-19.0497 90.2359 21.7954
8.39016 87.6361 4.34589
11.0483 121.316 -0.915227
11.3485 129.681 0.105374
7.52022 127.451 11.4011
-10.387 102.648 -4.4144
-23.7771 129.322 0.604973
-6.07743 112.727 -5.52322
8.18837 131.72 -5.42572
14.9856 119.516 -3.02704
-17.3883 120.733 18.6846
-21.8026 106.536 23.1392
13.4475 129.63 7.28144
-31.1117 88.8367 26.7398
-21.7862 129.661 1.78717
-25.6297 86.2055 9.51134
-25.5973 124.283 11.9186
10.4594 108.024 16.6018
-18.5697 127.878 14.8325
-11.7051 131.474 13.3325
-24.432 130.16 -4.80417
11.9038 132.42 -2.11476
-23.2306 130.037 8.76208
5.48601 126.932 -5.51009
10.2443 119.989 15.349
-25.4684 139.551 -1.25817
6.85251 111.015 -4.52729
-30.3813 83.3748 14.9955
-16.5654 139.064 -2.12629
-27.6764 113.587 9.92452
9.98204 127.685 1.07942
5.4443 81.9161 19.6321
8.05448 125.698 13.758
12.6023 101.259 10.7264
-26.4973 114.859 9.51558
-9.54471 109.164 17.0308
5.21212 80.5083 20.451
7.92958 111.878 -3.90666
-31.8406 126.737 3.02714
-21.8595 121.387 18.4257
-22.3397 122.224 0.529453
8.47457 133.643 10.2058
-16.0793 135.423 8.19933
-27.0829 113.958 16.215
-21.0973 114.861 -2.37168
-33.8811 92.7029 18.999
-6.98019 77.6577 0.693588
-16.0081 134.484 -0.486418
-31.1236 97.9218 18.0498
-18.1403 132.004 11.3463
9.79057 115.364 2.43279
-14.7041 86.5627 16.4342
-27.5844 127.341 -1.16434
-18.3814 123.202 -1.62287
12.1942 124.108 5.2504
-15.5665 88.473 2.89827
5.74906 99.1106 -3.32691
4.70163 103.859 -3.88005
11.2719 113.716 6.5303
13.8183 129.041 6.21889
-14.0271 106.49 19.8578
-23.1328 99.1334 23.4965
11.9491 129.904 9.31365
12.4062 94.909 11.6922
-15.6022 137.507 5.58792
-15.5215 135.768 8.05301
11.1017 130.865 -0.0590231
1.80087 100.957 21.2358
8.07522 114.291 -2.94206
-18.4402 117.185 -1.40888
10.9668 96.8393 4.80577
-33.7661 90.8625 22.6399
-26.212 126.24 4.72966
-28.2216 108.681 5.21789
-23.7607 103.502 0.534434
-28.8334 100.97 18.3832
-24.4596 128.124 8.83653
-29.5799 93.1081 7.81639
-30.2513 133.738 -0.645532
0.495431 110.991 14.5745
1.08426 87.7005 20.9193
-17.4381 139.453 5.51726
-0.246077 101.652 -6.39824
-21.373 104.253 -0.550798
6.11176 118.667 15.286
-24.0012 111.107 21.816
-10.701 140.458 4.22668
-2.76802 135.278 10.3103
-22.7862 112.659 21.4803
14.3448 133.488 -3.06614
8.76696 85.4108 19.1338
11.2478 110.1 0.096313
12.7715 128.936 9.07247
-23.904 125.544 1.13647
-21.8504 131.398 1.0789
12.7738 120.63 1.97674
-26.209 88.0149 8.76357
-9.45797 137.962 6.58995
6.83589 130.268 8.3798
18.0027 131.209 7.02615
-1.07275 109.342 14.7529
-17.9034 137.694 0.375896
-9.99097 105.74 16.4185
-19.6578 94.9675 22.6729
-26.7302 106.665 2.49032
13.0019 115.63 5.72275
8.62156 84.7195 11.8936
-7.89193 101.637 -4.60303
-31.2526 89.2874 27.134
-26.5483 136.768 -1.21482
3.85146 91.9088 -3.42287
-16.1244 125.091 16.4037
8.11025 126.041 13.7134
-18.4309 97.9453 0.534491
12.8277 126.177 0.980096
-12.6046 79.1435 3.96562
-14.6691 83.3115 15.799
11.2206 104.416 6.11633
14.1335 122.827 5.51935
13.2258 121.041 -2.25317
7.33297 94.232 20.7974
-3.05117 104.006 17.1527
22.7662 121.219 5.5556
2.4283 135.354 -4.10885
14.3053 133.406 -3.11233
-26.7097 140.086 2.67761
24.3357 124.129 0.454334
-23.0842 108.039 22.7417
-20.5547 144.01 -1.02262
-6.44066 122.427 15.3902
-9.5584 76.1279 2.52294
12.3797 94.6064 11.8256
-18.6509 97.6294 22.2981
11.0849 128.374 -4.33859
-28.5582 87.8457 24.3135
3.06952 101.948 -5.25253
-26.5454 93.2313 25.5643
-29.0447 92.7472 25.4851
-31.0599 89.1062 26.6418
-29.9884 100.792 9.8793
-28.1825 106.327 2.96276
2.84628 122.794 -3.28361
-20.7924 132.362 -2.48301
-29.4711 127.344 4.67277
-20.3345 113.822 -2.55297
1.60129 134.229 7.54635
-13.1358 92.6547 0.92325
-22.7907 128.709 9.14939
-10.6332 98.7444 -1.96579
-20.8248 78.1345 9.14781
-22.3622 111.066 -1.3482
-11.2274 117.297 18.7238
-25.7518 123.652 10.6924
-4.45163 85.1817 19.1581
14.3796 120.161 4.52577
-26.7314 110.642 19.7805
0.222167 106.209 -5.59767
-20.0813 130.61 -2.1736
-26.3238 125.753 4.19332
-0.113057 105.775 -5.8511
-6.87278 126.791 14.8851
16.5642 135.45 6.67513
12.041 124.661 -3.85928
-30.3678 132.88 -0.500682
-6.71527 90.7949 20.1675
-9.48645 107.104 15.8632
18.0265 123.015 6.90327
-15.3847 81.0491 5.38213
-20.7105 126.043 -1.48116
-25.7707 118.042 11.4011
-14.1595 107.75 20.8062
-0.87421 104.719 -6.37687
10.7528 86.6017 15.0685
-28.4948 112.369 12.5069
9.42957 118.895 -5.27632
4.41741 118.842 12.6883
5.9327 127.605 8.95461
-3.72078 122.211 12.0568
-17.2511 128.903 -2.63215
-4.94082 141.035 7.74247
14.7115 120.046 0.259279
20.9118 118.709 5.25866
-20.9128 106.374 23.204
3.19527 103.325 20.3579
-26.1953 125.967 5.93852
14.656 118.927 6.26099
-2.16634 123.565 10.41
-30.9585 95.7202 11.229
-0.189827 91.143 -4.73175
-23.6187 119.445 18.6415
15.6636 127.281 -3.32334
-19.4064 96.9719 24.2965
-20.7668 129.366 9.66648
-4.18513 80.3278 19.2251
-2.94132 78.9178 19.605
22.4054 122.685 4.18221
-32.3077 92.229 25.5325
9.82195 98.501 0.413999
-15.6604 94.681 1.53409
-24.5136 102.24 21.8475
-24.6794 128.433 7.51861
12.5457 99.9859 11.5422
18.0653 125.951 7.73194
11.7192 98.5424 15.3162
15.0191 119.221 1.61581
-5.08091 116.206 12.7518
-14.2383 76.6831 5.7947
-24.352 112.827 20.9821
-2.26556 114.333 -5.52405
9.55779 132.591 10.5189
22.3855 132.816 1.66669
-29.0138 105.092 5.69034
8.85245 95.6953 19.6583
-26.1804 101.774 18.8035
-9.87168 94.3793 21.2516
-31.8166 129.712 5.61061
-0.878652 126.93 9.77277
-22.2938 130.714 0.854793
-24.0798 119.781 -2.16213
-4.76499 131.277 -0.383986
-27.855 92.1442 24.8825
-10.39 139.424 5.26636
-25.4856 119.876 -0.301996
-18.7687 138.912 6.48691
3.71989 108.204 -4.61757
-33.454 84.9162 18.3828
-24.5139 123.983 16.2132
-31.4259 131.595 -0.407595
-23.0278 119.369 -2.49999
-6.33198 132.217 0.377492
1.19023 99.4892 21.1804
-1.21345 121.653 -5.1322
11.1823 99.9941 7.24235
-28.762 131.368 -2.33435
9.66236 99.6603 0.436191
-7.20749 95.7095 22.1141
-27.7459 111.311 14.5148
11.8792 119.974 11.3815
11.0858 113.439 -1.76155
-19.6529 129.719 10.9439
-19.3302 131.958 9.45114
3.00041 73.6855 0.975629
-25.6362 129.43 9.01577
3.9475 113.572 -5.53572
-18.9034 89.62 21.362
-21.6246 87.7916 21.881
-13.3297 89.4795 17.4894
-2.4118 103.172 18.2706
6.16605 82.8325 2.45227
1.96942 107.642 17.1563
-29.2045 105.969 6.22334
-19.9874 132.274 -0.405946
20.1786 131.808 0.48521
-26.3937 115.598 18.6209
7.51333 96.4741 -0.659817
-16.5395 100.48 20.6574
-25.2305 127.407 -3.21386
-30.5862 99.1544 12.5783
-22.5887 88.0705 22.5292
6.58733 89.592 20.7571
-27.0466 102.039 3.09167
16.9461 126.691 7.70021
-27.7275 120.365 4.86209
-33.5227 86.8669 17.9
-21.0432 94.5393 24.2757
-10.0209 100.421 17.5385
9.18713 107.977 -2.22577
22.411 126.154 -0.827707
0.118689 117.814 -5.34517
-33.6195 88.7715 16.7035
-0.656345 101.927 -6.47585
-28.5878 129.043 6.59818
3.5546 78.4353 -1.25172
10.5204 97.4099 2.98604
-16.5728 88.105 18.2108
-1.91955 140.582 7.78662
-1.01169 102.334 20.4702
-12.4678 96.5177 19.0466
-22.0903 129.1 -1.07216
-24.0394 118.823 -2.17105
-26.2209 86.5757 9.48421
-12.6879 115.642 19.2991
-26.8487 137.269 3.23239
-21.3211 122.869 -2.41911
-16.7958 103.248 -1.00992
12.563 97.906 11.3633
-0.812777 84.4057 -3.35523
18.3284 130.717 -1.23084
4.43937 87.6151 20.0485
6.01256 79.9069 20.6398
-4.47919 85.5473 -2.54883
6.46217 86.3776 20.4523
-29.9677 84.8508 13.0005
-32.5928 129.724 2.35721
2.92301 115.95 -5.5305
11.1715 129.079 -2.60463
11.1035 132.246 -2.10048
-0.677645 131.006 -4.08094
-8.98532 123.788 -0.109562
11.9183 130.089 -4.94051
11.7975 97.3636 8.30486
-4.57798 98.9239 20.8281
5.38092 77.848 20.9641
-13.0831 84.2464 16.7298
-3.97483 82.1084 19.6494
-6.16708 95.1671 22.234
-24.7099 141.005 4.24249
9.83508 117.146 -0.945397
-0.628816 132.984 10.1483
-19.9732 83.0492 7.56152
-29.8858 95.5654 23.488
22.1089 126.033 -1.02008
13.3961 109.515 10.097
-28.1555 132.545 6.22975
-31.2458 89.1078 27.0979
-5.21224 77.1304 -0.50435
3.38581 119.152 -4.24046
-14.7226 89.1517 2.54368
-25.5476 119.741 -0.847847
-17.8749 95.9347 23.0086
-17.355 85.1793 4.99675
-22.2937 140.835 -1.35036
9.72029 105.102 -1.69886
-12.8899 139.49 -3.5471
8.48116 85.1906 7.83769
12.5968 119.204 -4.07798
-28.3571 102.818 3.87646
11.4069 120.3 0.0610575
-16.4535 116.532 -1.17277
-5.37085 125.598 -1.81579
-25.3727 129.905 9.0241
8.65259 88.4674 4.63501
7.14559 109.36 19.2185
-0.491866 128.036 9.4971
10.7578 91.1109 8.52327
-0.288855 121.878 9.97399
18.3202 123.678 7.0552
9.47758 87.3486 7.36439
-12.7065 76.1326 4.37579
-33.0646 91.191 15.457
9.70257 92.5262 18.3251
10.8125 111.01 -1.68901
9.34522 122.533 -5.67113
-19.1294 130.766 9.83543
-23.9695 131.017 9.32386
-20.9781 133.734 6.50188
-6.59598 91.9515 -2.32194
-10.4428 115.071 18.3444
-14.0653 110.178 -2.39749
-19.2077 136.976 -0.59205
-19.0569 83.8326 16.3626
2.52783 124.142 -3.23816
12.3167 119.752 -4.25483
-10.614 96.5958 -1.53596
-31.4383 97.4046 17.9774
-12.2411 132.994 12.453
10.7926 122.629 -1.86858
-10.6105 85.3405 1.55127
-25.7172 118.116 10.022
-29.4756 127.292 1.07464
-26.0952 93.1092 6.79845
-17.2609 81.1198 6.89492
-2.66313 133.258 -1.30794
9.1545 110.046 -3.16809
14.4269 121.936 2.49054
-25.1134 121.442 13.9997
-35.1305 85.7289 21.4989
6.99292 113.134 18.1893
-25.2299 122.01 14.6846
-30.5998 126.016 3.388
3.95292 80.7968 20.0109
6.75058 81.174 9.39005
-18.9158 127.266 -1.30497
-19.3364 93.8672 2.15994
-22.0181 88.9989 23.3676
0.252067 127.119 8.69348
-2.8876 110.181 13.8352
9.99697 119.772 -0.369738
-13.7974 139.981 -2.97772
10.682 120.06 -0.249041
-3.34145 124.088 -4.72784
-18.5974 123.495 17.2447
-14.9223 83.4802 4.97257
-4.20564 112.562 12.843
-1.36892 129.88 10.8492
-9.65552 79.1898 1.83572
13.6865 120.101 8.09287
-7.94843 99.1411 -3.48035
-13.6999 101.178 18.3568
-18.8534 109.811 21.2305
-26.1974 95.372 25.6509
12.132 104.032 8.44267
-32.9417 128.263 5.46096
-22.1472 121.696 -2.41098
-10.856 137.844 6.24476
-16.8553 96.894 20.6951
13.5623 131.054 -0.70466
-16.9587 91.7247 19.4457
-24.0763 127.542 -2.27265
-24.1043 124.139 0.306196
-28.5551 125.858 -0.771591
-14.8391 129.191 14.8227
-25.9058 132.201 -2.58863
-7.80407 90.4172 20.0959
1.18913 93.8733 -5.07038
-0.401206 130.864 -3.96365
7.75801 130.354 9.7032
13.5149 128.833 -4.94569
-28.6286 129.878 5.35848
5.82724 120.274 13.5802
-8.96239 80.2193 0.935142
-12.4803 121.288 0.0557363
-27.8572 119.396 3.62852
-10.9427 109.485 18.6996
-10.473 90.2559 19.2406
4.45472 107.693 18.6426
-0.833567 88.5197 20.8087
-4.7131 102.911 16.9922
-14.9465 93.8189 1.55293
12.8414 128.046 3.36285
-27.7294 106.214 18.7303
11.8407 125.364 -3.22507
11.4361 110.588 0.631343
4.66665 87.2192 -1.92825
-30.5149 126.955 5.43547
3.47165 78.8687 -1.56641
-2.92 138.408 -0.0904677
10.7562 125.442 3.50808
-19.2212 134.566 1.13459
-18.313 142.818 0.0543517
12.5207 112.482 7.90187
2.39724 79.5591 -2.40626
-25.9446 124.734 10.7388
-29.6396 97.1572 6.85063
-24.4136 90.2191 6.95842
-0.0318466 123.928 -4.23441
-11.5232 139.715 4.16705
-5.48727 141.175 7.40019
-4.26061 123.389 13.1755
4.81988 110.668 18.121
-5.33861 109.744 13.7557
-18.124 136.605 5.84763
-17.0855 138.18 -1.38525
-5.53513 135.43 0.111433
-9.03196 131.586 -0.46492
18.917 120.216 5.74192
-8.59486 80.5711 0.739206
-12.1562 136.563 10.8452
-15.8099 81.5659 5.7988
-5.51211 96.279 22.095
-30.5863 132.372 3.85539
-14.0819 129.067 14.9989
-2.90929 97.3725 22.1202
6.55137 127.384 -5.77245
8.92884 137.505 6.51692
19.2993 128.618 -0.361087
9.88426 113.58 -3.06816
1.20839 112.048 -5.25662
12.9691 120.368 2.30735
12.4406 97.1873 12.5512
-29.8728 103.353 7.50276
-30.1789 100.995 12.0817
-5.96023 138.017 9.37501
-25.6027 125.482 11.8752
9.14699 133.107 10.4249
15.0997 121.659 5.83066
-15.3765 123.821 -0.379773
-2.13009 139.264 8.31866
-13.4359 139.027 3.90908
-18.6283 89.3608 20.6239
13.9447 123.651 5.68697
7.52801 135.031 6.26727
-25.0436 125.568 12.8577
5.12824 128.734 -5.12555
-21.1363 130.791 0.579064
-4.07125 127.377 -2.65043
-0.901789 96.1759 -5.56835
-15.2846 78.5113 6.88097
-30.058 127.953 -3.50596
12.8043 131.808 -4.23637
-8.39478 126.622 0.348004
-2.11309 94.1053 -5.05126
10.4409 130.446 10.2797
-27.4734 132.47 -1.71773
-26.9307 115.514 18.0541
-19.967 133.671 -1.54452
11.2465 108.213 1.97434
-7.28088 90.5956 20.1566
-17.1522 128.639 -1.9118
-13.3874 81.8873 3.62446
-10.5699 87.0636 1.2662
-15.2882 108.448 -2.16017
-17.7225 129.008 -1.81551
3.02225 75.1693 6.7404
-28.382 138.406 0.845145
-8.78639 84.1969 17.4901
-6.51261 136.417 10.5833
22.4767 131.064 1.18127
-24.4552 127.711 2.97993
9.84692 100.206 1.07892
-11.8021 96.7638 -0.682751
-3.77039 89.0934 -3.67898
-19.1133 89.8963 21.8646
-23.7321 123.606 1.76884
-20.5849 83.261 7.59433
-17.5474 127.251 -1.96392
-9.6381 114.176 17.8551
-24.431 127.478 2.1433
14.5263 126.187 5.16968
-18.8643 130.979 10.825
-10.7658 90.0331 0.535636
-22.8592 85.3863 19.1282
19.2742 124.2 -2.14151
-28.2442 125.956 2.33066
12.7173 125.814 -1.83564
5.08475 81.9762 -0.439316
-14.8752 112.498 -2.32102
9.44193 110.885 -2.79884
13.7065 132.142 -3.49184
3.4724 110.534 17.0359
-27.4216 92.5537 7.5959
-0.180494 97.6108 22.1481
8.39006 79.3549 19.6523
6.44243 127.07 -5.77809
-32.0362 93.5174 12.914
-15.661 101.47 20.0239
10.7994 87.4329 14.5902
6.11878 84.9285 -0.0915438
-19.8905 86.3227 19.3088
-21.9113 100.749 0.752375
-4.59827 125.597 -2.57619
-20.6906 95.1445 24.0231
-22.1449 131.066 0.951258
-17.2759 134.452 -0.0259141
10.7778 116.613 15.4308
19.962 118.955 4.05053
-6.7396 106.141 15.3895
-15.7338 115.944 20.0659
10.1788 100.25 3.58473
-20.3185 131.29 14.5152
-1.88316 100.056 -5.7354
6.092 75.3074 11.8482
20.5975 128.761 -0.549424
-18.2317 119.097 19.1856
11.6216 90.9137 15.3155
-14.2364 83.0804 4.30863
-19.9469 110.168 21.2466
13.9865 133.952 -2.14793
6.98428 119.573 15.6734
-18.1019 89.0944 3.45354
-11.9272 104.363 17.4141
-27.0556 128.934 4.91711
20.7231 121.993 -1.90236
-22.3805 87.0355 20.538
2.43531 106.319 19.305
-22.1773 97.4856 25.7766
-8.11143 100.255 -3.97539
6.63576 82.2944 9.33388
-6.99201 101.067 17.2145
0.490771 83.1928 -3.03843
-13.8952 108.211 -2.27961
4.39213 84.7792 19.5616
-11.4318 141.377 3.65357
10.5223 125.709 -0.843925
12.7744 117.093 8.96454
-27.0324 128.824 7.72499
9.83776 115.269 2.25553
11.9703 96.6505 15.2645
11.0882 101.322 6.22169
-16.9526 121.277 18.3789
13.9773 129.968 6.92114
-20.4281 131.534 0.653586
2.0417 128.362 -3.41804
5.51799 121.212 -4.40141
-8.8052 74.7089 1.69615
-22.8834 143.767 -0.530479
8.14037 81.8866 19.1668
-19.7423 122.675 17.81
-9.56414 104.11 -5.00253
-1.58178 102.238 20.3337
-19.9242 137.285 -2.04416
10.3005 101.941 1.25152
-6.65804 124.517 15.3388
11.1034 105.813 5.80492
13.0872 106.621 13.8372
-11.9802 130.716 13.6631
18.5555 134.03 6.39757
-24.5573 131.041 9.11035
3.15537 88.8065 -3.57075
-2.69906 82.2562 -2.69144
-17.5801 110.668 20.7115
7.88356 106.515 -2.41312
-24.3008 85.9732 21.2061
-23.8442 144.415 2.36628
-31.837 83.121 17.1927
-24.0085 130.287 9.132
13.6989 114.426 11.2063
-29.286 98.5855 8.20555
-26.9527 104.66 18.6957
-9.59797 111.495 17.5069
12.1264 134.603 9.1506
-30.7146 131.7 4.9777
-6.48841 116.447 14.1971
-6.95692 114.022 14.1375
10.386 113.26 1.53034
-22.112 94.2224 25.2361
9.97967 114.939 -2.36667
-13.8312 94.9381 20.3439
4.91 109.834 -4.85192
3.72377 78.1118 1.59575
-25.1191 128.766 -2.72827
7.69923 85.6445 2.39962
-15.1176 142.12 3.2865
-24.4559 90.9669 6.65038
-17.66 96.177 1.51523
-14.9278 121.346 -0.162399
-23.3708 115.809 20.3285
-28.4475 110.398 7.31118
-22.1053 101.636 0.366774
-29.6171 85.9847 12.1321
1.50121 118.589 -4.44269
-12.903 110.18 19.6855
9.33708 134.226 10.0067
-7.88183 121.841 -0.908709
13.4819 122.383 5.28278
-33.9958 92.0234 21.1122
-23.2669 126.648 16.1037
-34.9073 85.0094 21.3719
0.369286 131.114 -3.8278
9.6171 86.8866 9.1347
10.3575 100.683 4.49679
11.6045 131.191 -3.45726
17.3093 118.809 2.86629
-17.3995 119.725 18.9484
-9.66962 87.9603 17.7572
-4.05351 129.106 -1.95541
-18.3683 143.461 5.30116
10.1879 100.088 3.4617
-24.2937 86.8613 8.32242
5.49931 78.821 9.41351
-26.2514 112.449 20.0419
-18.7408 96.4436 23.7965
-21.9931 130.723 0.452827
-12.1833 121.568 17.9604
-28.8062 109.503 16.0231
2.64515 113.238 -5.41622
-26.094 134.57 4.29223
10.0235 117.984 -0.307362
-30.9099 98.8032 13.6201
-24.4479 122.725 2.54964
2.28784 98.1898 20.8687
10.9746 116.823 2.2518
-22.5464 90.8308 5.43905
-7.19706 130.318 0.484285
5.11606 78.6262 8.38576
6.93508 128.887 -5.71288
-12.6572 89.2462 17.7787
-10.8597 117.708 18.563
5.62882 79.8834 9.04169
7.80874 105.283 -2.54119
-7.61202 135.81 -1.07132
-18.7923 138.641 6.54934
-18.0843 101.795 -0.777451
-14.3267 138.186 4.5702
9.6755 119.852 -0.834851
-25.7571 116.666 18.7503
-27.4974 139.721 0.622231
-7.042 88.9041 -1.41458
-20.0398 132.119 -0.711178
-1.21573 99.0415 -5.81914
8.68927 133.751 10.2639
-25.5518 138.974 3.45439
-19.9944 135.773 6.53926
-27.8598 127.883 7.80269
3.41752 120.37 11.2146
-26.6758 127.567 7.12413
-20.8524 100.163 25.0258
12.6692 122.53 5.12065
8.72113 99.8667 18.8066
9.40308 82.8275 12.4697
10.7211 101.298 5.54601
-7.57446 115.355 15.7858
9.32793 113.333 17.2812
9.58955 86.7016 9.37756
8.37962 82.0565 11.4023
14.0516 120.906 0.693279
-29.4617 99.7623 7.82141
-14.6598 133.54 12.92
-23.8125 126.349 1.98403
-28.5989 124.735 -3.10491
-3.6733 127.172 -3.11576
-15.769 88.4348 2.91212
-29.0982 125.175 -1.84902
-18.0108 85.0034 5.6619
-3.33633 99.2843 21.6423
-2.02597 98.2814 -5.53546
-10.1399 82.276 17.1711
-7.01635 89.8617 -1.5654
4.21729 76.8038 7.80335
-5.93056 140.273 3.90226
-26.4832 128.57 8.1267
4.40026 114.657 -4.74067
22.0795 133.034 3.41213
6.46443 82.6831 3.94624
5.8295 129.226 -5.17768
-30.9935 96.9084 11.2465
-13.7088 83.0596 15.928
-26.9597 90.3995 8.41023
-1.36753 89.149 20.6099
-24.1074 138.122 -2.08273
-27.1125 122.027 7.78891
-31.8969 96.285 20.1116
-3.38146 129.997 -2.61361
6.31238 82.9086 2.69168
22.9795 128.907 0.0158366
5.07553 101.832 -3.75859
-21.9354 123.116 17.7872
1.84251 107.109 -5.81729
-27.7552 128.624 6.02151
-15.3307 136.325 9.79213
-24.9631 87.4998 22.5311
7.69736 122.428 -5.94421
-1.55006 98.7053 -5.70994
-14.5179 114.412 -1.97669
0.943836 113.954 13.311
-2.59576 131.488 -2.56174
11.1474 126.947 10.1444
-1.96802 88.8011 20.3144
2.35953 86.4741 20.4828
-27.1698 109.415 19.5224
-23.1799 127.453 -0.871014
11.3943 98.1901 16.295
12.6301 117.451 9.44735
2.63437 93.3304 -4.37018
-4.04141 122.891 -4.32341
-26.8431 123.375 7.07369
21.4444 130.912 3.18344
-27.0326 129.795 6.53877
-24.218 127.393 2.58936
9.13462 86.3243 7.12861
12.4619 100.137 12.2168
-5.39034 88.9961 18.8876
-28.4747 138.436 0.911079
12.1703 126.043 -4.38664
-24.5384 111.172 -0.109435
10.7139 104.518 16.4524
-12.6109 96.3883 19.1005
13.3443 122.687 3.87045
-27.6985 129.116 7.77193
13.3216 133.694 -1.43353
16.2265 125.372 -2.52083
-2.09255 116.591 -5.16359
-25.9331 82.5088 11.1671
-13.1374 137.215 9.55729
-30.0331 86.6943 12.4279
-27.8698 95.8272 24.6409
-13.2791 141.501 -2.73955
12.0222 102.654 14.6084
-16.14 97.0495 0.726781
-21.4929 120.515 18.8405
-5.51687 104.275 -5.67552
-4.90544 82.2363 19.3238
-26.335 123.334 8.68747
-26.3499 102.529 18.7776
13.4103 133.247 -4.36855
-18.7894 85.1522 6.29096
-2.88299 85.3143 -3.41153
-25.2862 97.2808 3.02886
-13.3088 82.3206 15.6981
-26.289 125.858 -2.49904
-28.8921 107.206 6.25974
-26.4496 112.376 0.501332
-27.8888 129.491 4.9701
-16.4205 101.845 -1.04294
11.0761 93.3974 8.20131
-24.6839 128.007 9.40721
8.67914 90.5519 2.32416
-24.4101 91.4142 6.42867
-15.6458 117.125 -1.10429
6.96995 81.125 19.4951
1.03491 127.506 -3.23068
-34.2806 89.7365 22.3238
-25.7342 127.031 6.30872
12.1748 121.73 11.4044
-14.7781 138.371 4.63145
