ply
format ascii 1.0
comment Created by Open3D
element vertex 1928
property double x
property double y
property double z
end_header
-23.7213 123.722 0.460365
-11.3286 128.322 -6.84531
-30.5171 124.375 0.612169
7.97954 133.537 0.779275
12.8911 117.986 -2.45508
-30.3842 124.861 -0.533131
-19.91 109.187 -10.3579
5.09668 111.507 -5.81274
15.4076 122.839 3.42635
12.8515 116.438 -0.892305
2.97509 130.198 -2.31649
6.85122 146.099 -5.19923
3.69052 106.682 -0.807792
20.9447 137.232 -2.9833
14.773 116.901 5.54656
8.97642 116.599 10.5811
1.19044 92.0626 -11.3087
15.4414 114.401 5.97232
-5.06069 84.4658 -4.64269
24.12 129.996 -5.04226
20.0616 139.164 1.68179
16.759 144.376 -0.786081
-7.92619 116.329 -8.48579
-17.7072 116.461 -9.95169
1.45063 83.6715 -0.189432
18.71 122.236 -8.1131
4.0015 116.455 -0.320688
-29.1869 131.584 0.993091
-22.6645 124.998 4.81376
24.3418 130.307 -3.41857
13.4718 132.839 -5.23394
-6.65912 83.2201 -10.1378
-3.97811 116.443 -8.83327
-3.8493 92.5391 1.21515
-23.3278 132.06 -1.19475
-8.01167 126.049 6.84954
-27.9174 127.003 6.87951
-27.6191 120.655 -1.61755
-15.7751 126.998 -6.8084
13.3004 133.945 -3.08731
-33.4388 129.293 5.75339
13.1132 126.937 -4.07189
-18.0933 107.67 -11.8429
11.4019 104.343 -5.76998
2.69149 94.342 -1.25035
4.88002 78.6378 4.70094
6.81697 145.407 0.916833
-2.7157 100.084 -11.3813
22.9703 125.146 2.21695
-27.3485 133.382 5.23564
-2.80567 96.5102 1.63498
7.80858 106.638 3.44391
22.1317 121.884 -7.01651
5.64022 134.35 0.718576
5.42051 99.7518 -0.260793
3.14034 88.3658 3.31036
-0.914293 88.6124 -10.6154
14.2918 116.35 -0.72338
-8.23601 108.458 -11.907
13.4804 129.335 -3.24611
-1.26269 89.993 -2.36634
11.3317 151.799 1.41124
-19.1149 116.956 -9.49188
15.2024 97.8577 9.89605
-9.08546 125.131 7.09656
-4.11163 121.999 5.18519
-8.38014 130.084 4.53109
-15.6454 95.7271 -14.1701
-9.87331 92.7063 -13.0325
-15.6388 148.417 3.8395
14.441 121.553 -4.86129
1.14908 85.8882 0.558327
-0.283451 112.626 -10.1701
9.25787 126.636 5.00927
13.308 117.81 -1.75891
-5.27249 80.4716 -10.8121
10.1956 141.919 -6.23659
-12.331 149.757 3.45564
10.5047 130.462 -7.21835
3.32064 96.7237 -0.727874
7.538 107.111 8.42041
14.9864 131.688 -6.59963
-1.7398 123.963 -5.21068
16.8951 103.378 -0.502229
1.37776 126.476 -4.2391
14.2401 142.21 -0.795879
18.6063 123.447 4.80221
-20.6565 122.621 -5.0535
14.9547 128.95 4.39002
-22.9379 98.7668 -10.4622
10.2217 119.941 -6.99883
-10.3286 119.512 8.15892
13.2085 120.116 -4.61285
13.5094 89.6577 0.486034
-12.0559 106.117 7.21577
15.7143 130.738 -6.97421
4.15904 115.579 -4.43723
-5.10972 85.6449 -4.27163
-9.11207 151.97 -1.85381
8.06049 139.227 0.667962
-27.6341 131.922 0.953854
3.16071 148.021 -3.01434
17.2021 125.039 2.76667
21.1715 126.377 -7.72418
8.14952 131.868 0.277519
-3.98416 118.828 -7.71015
-20.1686 142.523 7.00079
5.47312 105.223 -9.48925
18.0394 122.432 -8.47579
-18.9137 129.243 -2.39327
-1.34303 122.261 5.30504
-27.9067 128.48 6.92755
-0.798323 111.944 4.20217
8.89263 118.586 3.51314
17.2675 81.5299 8.2873
15.2127 121.693 -2.10415
16.437 106.378 1.31073
0.122672 105.81 2.71354
15.7139 91.5233 9.31689
11.6139 129.658 -3.45672
-9.76662 111.507 -10.8362
2.49984 84.6996 1.05107
-19.3442 126.853 -4.19101
7.45392 112.699 0.619795
16.4585 124.111 2.83559
-21.7536 126.681 6.13907
-21.8073 112.182 0.521099
18.4999 97.2084 6.10448
-9.2888 138.245 -7.33411
11.8113 141.58 5.76947
19.1518 118.863 0.420818
2.30917 127.74 3.16069
9.40646 146.801 2.86229
-15.6544 137.488 -2.62631
-21.8738 125.869 -2.59561
-0.321552 128.721 -3.02771
2.6524 119.584 0.911945
1.77843 97.6288 -1.17349
-8.07423 134.365 2.02177
-23.8291 121.6 2.81424
-3.73841 105.276 -12.7383
19.1607 145.216 -0.137898
15.7523 123.66 -1.39639
-11.4231 126.607 -7.30876
24.7987 124.547 -5.3681
21.8318 139.969 -0.29416
-13.5594 136.115 3.39056
-19.8975 126.254 -2.83906
1.07382 114.734 -8.53106
-17.2582 95.1435 -13.6563
-22.7636 114.994 -7.19604
1.53229 113.848 1.404
14.3698 75.9861 -0.445503
-6.3787 106.461 4.72217
-1.59182 147.21 -3.26764
-23.8386 119.829 1.81525
-7.51314 88.3431 -10.0409
-22.7614 126.863 -2.5179
-18.9199 137.759 7.47827
8.87685 100.318 11.4658
12.2762 79.5916 8.35016
14.1954 124.966 -4.4274
7.52071 137.139 0.204254
-25.1558 138.853 6.56304
-14.4395 142.583 5.97259
-13.3988 135.948 3.3991
-3.01524 148.754 -3.53069
-5.53131 96.0853 -10.2851
-18.7663 127.426 -3.4306
9.20761 112.121 -4.16244
1.44503 108.139 1.09997
7.72311 114.585 7.93167
15.2662 112.176 -4.7557
-11.2781 126.945 6.1855
7.57968 148.538 1.30886
-12.7483 135.526 3.26566
-8.14996 134.529 -6.61234
16.9049 144.037 3.47374
3.69638 102.843 -10.5532
-0.617993 93.2557 2.25765
15.1684 122.632 -1.54485
16.0311 122.283 -0.363485
7.93631 93.1513 9.77542
-23.0098 105.972 -3.80641
6.3906 94.678 8.87249
0.172278 80.0383 2.2543
7.65441 112.249 -4.00975
-9.48437 85.1549 -9.86451
-9.23802 119.421 -8.93032
-16.3566 126.934 -5.99177
-12.1281 109.321 -12.1062
13.9786 120.538 -5.32901
9.09429 94.4012 -3.80038
-2.45121 98.3477 1.72918
-21.3522 119.466 -5.90984
-22.4565 118.567 -2.60075
16.4994 116.14 2.9513
8.84703 131.245 -6.26391
-16.1793 112.363 -11.7438
-8.43771 103.906 5.1508
-8.52598 97.0799 -12.8874
-2.03789 108.368 4.55876
2.63472 99.2502 4.27723
15.3259 128.692 0.0967756
18.2246 144.111 2.47334
7.21812 151.036 1.26655
16.9176 93.1099 8.71788
-1.82486 89.4631 1.69281
-14.4376 140.546 5.22963
-13.0852 133.349 -6.24417
12.5347 112.012 -5.57232
-12.796 131.445 4.40837
12.0254 125.944 7.07388
5.84689 105.348 -8.85394
20.8134 121.028 2.83464
22.1993 133.128 -4.84092
10.2783 100.845 -7.41312
-6.27443 131.008 4.11282
-0.0937525 87.2093 0.367577
15.1045 112.968 -2.53893
9.57745 93.3936 10.8157
-8.65396 140.372 -6.67197
-26.4564 136.396 5.69302
2.62113 128.431 3.08832
-14.3215 89.8793 -14.3909
-4.59782 122.875 -5.15364
8.63641 118.401 2.07596
-25.9382 138.918 5.00169
-24.5672 136.693 6.58092
2.03651 144.884 -2.5526
20.0006 122.177 4.21209
-21.3137 115.453 3.63382
14.8677 128.411 -7.95966
8.87506 126.296 8.82902
-22.1131 117.481 -6.98639
-6.03562 89.3884 -9.63758
-12.3251 132.611 4.15167
2.99223 117.71 -5.2858
-24.1331 122.833 2.95716
-20.3543 127.245 -3.28822
-23.3441 133.801 5.67186
-18.2952 120.944 -7.64137
7.98196 113.914 6.47937
-17.835 135.398 -1.73971
-0.739712 84.3937 -1.1502
-19.8752 105.125 -11.9384
16.5983 92.5163 1.60991
-15.1966 135.49 -3.73321
-14.5338 120.388 -9.02075
-0.913576 81.8934 -8.5703
-25.4133 131.409 -0.505688
-18.6731 132.005 -3.32475
10.0366 135.13 5.74453
5.4337 105.138 -9.60189
-3.68304 126.365 -3.97967
-4.65938 119.772 -6.8178
-7.69203 97.2019 5.75621
-9.1132 122.944 7.65215
6.54596 106.318 -7.33971
11.8589 113.673 10.9885
-21.1685 132.269 6.16464
-22.83 98.5323 -10.6667
-27.9002 124.563 4.99392
-12.7239 147.151 4.97864
17.3915 92.2539 5.43884
6.12918 80.4407 -9.39447
-5.26231 118.753 6.37648
-20.6667 138.157 7.6126
-26.4503 123.259 -0.108305
-20.3632 144.11 5.87156
6.07573 139.624 -5.79708
-5.0825 100.58 -12.8086
-20.4087 107.742 3.96598
23.7084 124.179 -1.93723
-34.4137 129.929 2.71501
-10.7846 145.906 2.58754
-18.3725 124.919 -5.74446
18.9563 139.867 2.68413
11.3586 128.294 7.81325
7.06545 144.59 0.906316
13.8676 127.62 -0.123952
-21.6935 142.935 5.17867
7.56354 107.807 2.00704
8.45832 97.4305 11.0045
12.3517 128.56 -6.73372
13.2753 80.577 8.68378
-10.3491 123.032 -6.8667
-1.11594 90.48 -0.188603
6.91538 119.833 -4.41752
-0.45304 113.552 -10.0477
-9.27603 128.568 6.24065
6.59649 118.911 -0.0887809
-11.1586 146.508 -4.64026
-10.5812 151.505 -1.43773
6.35331 120.495 -3.76314
15.0609 131.856 -2.57229
17.2389 78.289 6.04276
11.7553 127.334 -2.86735
-16.5024 122.201 -7.4917
6.68506 154.841 -0.293212
-7.21428 151.567 -3.45814
10.5082 75.8617 6.89638
-30.0978 130.814 0.562922
8.63659 115.704 5.00026
-22.5853 116.093 -6.22737
-16.6506 98.7834 -13.3445
3.87915 141.598 0.549005
-1.94651 114.323 5.50598
-10.404 126.862 6.43523
-17.1237 132.934 5.99105
-12.6666 87.981 -12.8313
-26.4093 121.912 -0.478576
7.20065 114.867 0.2993
-18.6724 116.586 6.96786
14.0254 114.087 -4.73318
13.6387 106.608 10.42
8.70061 150.419 1.93778
-9.37588 150.198 -3.54163
17.5744 110.596 6.18456
3.34265 153.494 -2.44454
9.40122 124.913 4.30165
13.4425 129.051 -0.921953
15.6394 121.838 -9.28963
-7.77344 82.7774 -10.3395
21.3293 135.682 -3.06173
-28.7833 121.919 0.466001
-9.39222 139.018 -6.98279
-9.02794 142.482 2.02967
-11.4398 134.539 -8.09263
-12.2269 118.69 8.36434
-27.172 123.629 -0.673701
10.2968 117.144 -6.20448
12.1159 124.711 -4.04803
10.9763 119.399 10.6417
11.9544 83.653 9.52469
-18.9372 137.253 -1.14672
9.94193 115.068 -6.33175
-23.865 98.9143 -8.51929
-1.43795 87.8946 -0.32279
8.26893 111.284 3.46312
13.5471 89.7031 10.2499
-6.09981 136.363 1.28988
-24.3359 125.381 -0.769258
6.39996 98.9179 -8.03536
10.117 150.114 -3.26762
8.82147 118.198 3.21478
13.7817 120.329 7.35253
-16.2178 136.676 6.4117
-14.3339 135.543 -4.40772
12.4408 125.362 -5.53229
15.9625 93.013 0.758481
19.8145 118.958 -0.231441
17.8903 132.548 -5.77683
-34.2944 126.149 1.66453
3.71713 121.064 -3.31112
-33.0906 126.226 1.54261
17.7859 109.188 3.23953
-20.0203 141.261 1.20832
23.7328 132.497 -3.15241
24.2173 126.544 -1.88424
15.9908 107.275 -3.83052
-20.9786 130.604 6.16699
10.1866 146.945 -5.09356
-10.9361 139.824 1.81781
-30.5556 129.628 6.70526
-5.03252 78.4958 -12.0712
17.0633 146.512 1.99848
-13.5241 145.568 -1.57318
4.51888 139.799 0.481094
17.6109 107.388 5.76841
15.1752 75.8299 8.15894
16.998 99.2593 3.14363
-13.7483 144.196 6.18259
18.0671 120.49 2.92244
2.51242 82.1959 -8.72775
-3.75339 103.318 4.15417
15.3673 122.032 6.12553
-19.6573 109.177 -10.6713
14.8607 103.581 -5.06058
-8.78588 141.867 2.06068
-20.4166 122.736 6.32175
13.5921 101.182 -4.86635
-10.8292 139.158 -6.32422
9.9598 148.042 -5.08792
13.1431 118.461 -8.07844
-24.3666 116.06 -0.692923
9.91743 148.509 -4.39522
-20.1185 109.335 4.49934
-31.0512 126.008 5.57031
12.2823 111.207 10.7236
-23.0475 123.723 -0.56777
10.1082 149.094 -4.20399
-15.3649 140.728 -3.16005
-29.1584 131.271 0.596628
2.83229 138.889 1.35155
3.22672 116.559 -4.99553
-18.753 132.226 -3.39916
12.5368 117.879 -1.94733
-13.782 136.749 3.88424
-19.9767 112.732 4.27498
2.90338 152.254 -2.81265
-23.4634 123.765 -1.77416
18.5108 87.3518 6.70874
7.83488 82.2496 -8.94111
9.37475 108.405 11.5482
-12.2559 138.136 2.6818
-4.50335 128.454 -3.85799
13.4422 137.835 -3.51132
-1.28453 113.434 -10.2108
13.4407 139.821 5.24845
13.9709 117.824 9.28331
7.23057 96.9638 -5.96848
-32.3639 131.651 2.86922
15.7928 103.429 -3.94138
5.44698 102.227 5.83316
-0.786719 127.37 5.00003
-10.8126 110.324 -11.5916
16.6524 122.573 0.887661
-29.776 127.931 6.71718
11.8681 87.83 10.2101
15.8545 86.302 3.04364
-16.1705 107.155 7.47055
17.531 96.1949 8.27111
11.7495 143.9 -1.84453
-32.4313 129.053 6.41584
9.42224 77.4324 7.48121
8.66112 128.896 0.900578
-22.3063 123.949 -0.837649
-22.0804 107.602 -2.75274
1.30096 120.123 2.83197
0.927812 78.6219 -9.4265
11.5199 143.152 5.3276
3.98527 130.831 -2.52336
-5.84597 141.961 -5.55669
-3.20504 152.288 -2.68831
-6.49115 90.5411 4.87247
-20.3167 140.71 1.27097
-1.6527 86.8977 -1.35692
16.6474 105.389 -0.776901
10.213 83.8092 -4.49874
15.7542 125.719 -9.01324
-13.6252 108.768 -12.5288
10.4812 78.763 -4.50101
8.83779 128.586 5.14469
-15.6968 104.717 7.24494
-13.1782 149.431 4.02197
9.80294 99.0637 -6.47825
6.70812 147.1 -4.97714
-11.849 132.531 -8.37497
-12.8427 132.726 -7.56991
6.96813 118.105 -5.02605
-23.819 124.049 -0.756254
-31.3474 131.199 5.3047
-12.9213 134.519 3.35227
-8.23285 125.96 6.97258
13.3542 150.236 1.68713
6.72746 85.5247 8.74023
13.8588 95.7518 -1.44734
-26.2462 130.326 -2.20386
-0.317301 121.094 -6.94268
-3.81992 81.2688 -2.54247
-27.618 137.284 5.33665
-22.5074 121.67 -3.48518
16.8776 95.3153 1.20129
9.96643 151.603 -0.551496
-9.21152 84.9922 -9.47238
-11.7934 80.6807 -12.5315
-12.3601 105.359 7.37946
23.9526 128.823 -1.80709
14.3455 123.884 -2.61912
-22.0277 132.137 -2.35012
10.4854 86.6046 10.0863
-12.1108 102.493 7.1091
-25.6003 138.937 6.38465
-8.17251 142.933 -6.02068
16.2555 132.547 4.50766
9.78017 80.6187 -6.72012
-19.3198 133.03 6.33747
-21.9865 125.343 -1.62226
8.14306 143.644 1.38913
11.4956 130.472 -3.71083
-3.60393 141.389 -4.21591
0.197629 112.117 2.66183
-22.4864 121.223 -3.58688
24.7876 124.054 -5.59989
17.2816 122.316 4.24617
-6.33444 104.661 -13.1933
17.4032 77.2572 5.75682
14.1162 86.383 1.95086
14.7108 126.443 5.99148
21.639 135.562 -2.59129
0.832076 137.843 -2.29834
-3.61948 99.6298 -11.619
-20.1646 123.442 6.18942
-12.4123 146.026 -3.49717
-23.9186 110.797 -4.95948
6.20821 142.134 0.28515
11.8727 90.936 10.6877
-18.156 119.869 -8.06755
13.3798 115.321 -5.1945
0.668187 116.288 -7.74693
-15.9052 107.703 7.7336
17.5097 121.958 3.85801
15.9164 78.6006 3.1482
-15.9032 124.535 6.96844
0.391777 108.732 2.74154
22.228 124.082 -1.97029
4.22724 107.581 -9.63458
18.723 138.486 2.50302
6.37 153.445 -2.13054
5.70509 104.829 -9.35782
-12.1218 143.195 4.07223
13.3709 125.505 -3.57936
-1.8395 100.094 1.75249
-8.99608 86.9314 -10.6762
-4.57042 84.0493 -4.48581
-19.0352 102.62 -12.3461
-0.485715 90.765 -2.14071
18.8175 127.061 4.75322
2.8241 107.767 -0.546342
-16.0733 100.929 -13.546
9.1958 100.133 11.3723
6.85453 147.711 1.00779
-11.2256 99.6743 -13.7612
-22.2436 137.218 6.87543
-20.9236 121.385 -5.3596
16.6458 116.825 2.50966
11.317 104.637 -5.60014
5.3373 89.8178 6.06427
1.69397 136.163 -2.09777
2.80746 84.0644 3.01138
7.77144 143.285 1.16141
7.37116 106.198 2.05347
-3.33872 127.153 -3.66881
-2.52927 111.685 5.50869
-2.80904 130.492 4.99698
8.13309 121.933 0.850659
13.734 125.098 -3.23681
-16.7567 87.9167 -13.7885
-12.5993 81.8554 -11.0762
15.4799 122.532 6.06056
13.869 86.9767 1.55192
-30.1284 122.955 0.584059
-22.8315 116.573 -4.1422
7.70519 106.982 2.81956
-3.54972 143.1 -1.69846
-15.6727 143.409 7.3957
-30.1585 129.4 6.7503
-11.3265 137.143 2.18457
-6.31831 87.7818 -9.43314
8.25976 78.9969 -5.89196
-14.4298 131.678 -6.05655
-25.8707 133.023 1.74807
-8.65376 136.801 2.11152
4.22933 107.543 -9.65506
8.78003 85.5529 -7.59844
12.4946 78.8602 -2.55997
13.0025 123.432 1.57372
-19.4859 130.489 5.73348
7.65066 116.927 -5.32122
-19.4763 117.739 -9.24091
-23.1274 138.369 2.49289
-7.75047 113.08 6.591
16.9107 107.422 1.60918
-21.9143 104.023 -10.1009
-10.6181 80.4963 -14.0108
12.4412 117.794 10.5928
-21.2028 114.008 1.74855
-2.06927 100.113 2.00744
-23.9405 129.602 6.96103
17.0436 125.58 2.55142
-6.42334 136.139 1.145
18.9195 126.819 -8.30281
11.4996 146.401 -2.03181
8.11464 110.888 2.77519
9.26642 82.3891 -7.8483
-3.99355 82.6878 -4.41419
-14.7561 90.4089 -14.2222
-20.029 139.602 0.869581
21.7443 129.145 1.44266
13.7789 113.75 -3.44069
-1.7483 99.5977 1.41804
-4.3192 109.85 -11.3843
11.3659 115.515 11.0403
-19.8773 118.103 7.02964
8.60495 79.0737 -5.83541
7.72319 107.317 2.77688
12.4776 126.494 -7.61264
-22.6784 125.997 -0.637441
-22.5159 106.42 -8.86861
17.7553 124.146 3.58203
7.79727 109.082 10.7452
16.096 101.138 -2.7217
5.85901 137.894 -5.79528
-10.2936 130.415 -6.79904
-17.9231 121.489 -7.46901
-1.18348 141.697 -3.16499
-20.2045 140.538 7.23185
7.5061 104.596 3.98654
9.84129 84.9236 -4.46974
-0.0480519 86.5959 0.0120361
-1.03267 102.236 2.31459
-14.504 132.236 -4.81228
-15.265 120.201 -9.17381
13.6209 82.1172 1.6003
8.04202 107.157 4.60529
-5.85733 120.673 6.45246
-19.4407 109.964 5.53761
1.3309 145.498 -2.66627
10.8631 83.5303 -3.05558
-23.907 127.404 -2.35604
15.2883 127.796 3.64428
-22.9858 96.5832 -10.9865
11.7333 140.969 -2.02174
-5.4294 136.047 1.78847
1.52134 92.0997 -11.3623
14.5754 134.324 -2.597
-21.2393 139.608 7.45122
-21.787 114.135 1.47248
-11.7718 133.478 -8.34323
6.4868 88.2681 7.37491
-24.7489 123.508 -0.310461
4.65052 148.029 -3.72477
5.18481 120.488 -0.206359
13.8558 143.428 -0.22082
15.1932 124.324 1.0218
-0.968081 97.06 -9.92184
5.40707 138.164 -5.20444
-23.5576 107.452 -7.5154
13.9888 113.876 1.51419
-6.53663 90.0023 -10.0609
5.00716 94.9009 -8.34979
17.5264 109.781 2.42674
14.2645 142.882 4.21133
-6.78406 138.541 0.807174
12.7193 135.185 -6.62183
-9.37852 108.54 6.03779
11.4463 125.625 7.65676
-0.884818 93.0392 0.969237
-15.3734 125.063 7.54679
18.1372 143.703 -1.98072
-0.831057 90.1829 -0.0519795
-5.45951 93.8263 -9.80202
17.892 98.553 5.29845
11.8146 141.687 -1.8033
-5.45863 127.431 4.86735
11.8392 123.831 -4.09778
12.3187 128.525 -6.94744
-25.5721 134.364 2.99383
13.0407 119.023 -3.58608
7.34915 106.433 10.7997
-12.3588 133.21 -7.45459
-2.76879 108.477 -11.9448
18.8932 130.42 -6.07611
18.1384 74.387 7.87808
-0.68565 89.8712 -0.246089
12.6345 131.566 6.38865
-1.40773 89.1355 0.0114346
5.79046 153.856 -1.69641
15.3102 79.8335 3.76527
-17.6908 140.052 7.45059
21.4345 132.189 -0.049069
-22.077 138.039 7.55476
14.0293 134.171 -5.13474
-5.53979 101.465 -13.026
7.57326 145.347 1.27526
1.20724 98.7921 -10.4205
-8.823 127.88 6.1876
7.90575 119.006 0.899696
4.02501 136.129 -3.64822
10.5142 123.531 8.5911
-27.0454 129.973 -1.8449
11.5447 107.694 -4.35998
6.75822 130.277 -5.71083
-17.2373 135.925 -2.68955
6.05212 96.4167 8.3683
-22.2624 121.961 4.22513
-31.3044 125.077 3.61922
18.3412 136.153 -5.67171
17.646 124.484 3.0998
11.6308 91.624 -2.30531
-2.4805 126.521 5.16535
-19.9306 144.717 5.26371
-0.875623 128.932 4.75765
2.39619 142.615 0.713369
-21.2649 125.542 -2.37514
-22.5871 121.649 -3.80919
-17.458 130.693 -4.12191
-10.3675 111.81 7.11794
19.3946 119.848 2.34875
8.59129 133.168 0.57753
-27.7599 132.621 5.52275
-1.88319 88.9283 -1.10584
17.1075 92.5408 5.09902
-3.86847 140.732 0.689848
17.2188 101.191 0.568298
-23.3728 125.08 5.15991
-17.8017 105.826 6.10183
-20.354 108.812 4.02554
13.888 140.461 4.46088
20.0438 141.096 -2.77066
-25.2599 129.307 -1.9598
13.578 113.82 -3.49504
10.7054 152.816 1.2578
2.45799 126.281 -3.21491
-8.49021 146.867 -5.30517
9.7932 107.411 11.4757
-13.657 145.415 -1.242
16.9676 92.6395 8.66176
3.49032 140.14 -3.01462
-12.7569 149.1 4.34628
-23.2851 137.694 6.95316
2.76323 143.855 0.556577
18.2904 80.5349 7.81822
7.36505 103.654 11.0583
7.70235 89.8816 -7.7982
-16.5363 114.89 8.49162
-11.7657 108.46 7.25028
-8.43398 151.086 1.85451
10.7263 102.536 11.4862
12.1568 81.8779 9.17918
14.7815 95.3022 9.94094
12.5807 124.448 -4.03201
-28.9567 123.253 0.0439825
1.2653 105.781 1.26481
1.11826 95.9478 -10.7862
11.5405 102.804 11.3648
-18.6731 131.806 -3.13313
-6.82361 128.311 -4.81293
-14.2141 148.918 4.68085
-31.4517 130.987 5.31013
-18.5864 132.136 -1.72754
-16.2444 109.506 8.10882
2.3126 95.5265 -1.27745
-28.7328 136.222 4.70921
-14.6005 135.879 -4.00999
8.42538 123.226 8.42757
12.3803 144.551 -0.733268
0.67566 78.3141 -10.8321
19.4274 132.724 -5.513
9.12052 112.017 -4.12773
-28.4125 132.478 2.33387
-8.18811 91.5429 -10.6897
7.98243 96.6409 -5.25587
1.28581 92.1409 -0.9244
6.40647 144.283 -5.27685
6.64686 93.23 9.11595
10.7512 153.61 1.00325
-22.5223 109.883 -8.60107
-14.535 105.195 -12.9054
15.3763 127.911 -8.14966
6.05283 137.108 0.251134
-18.3606 93.1933 -13.2701
4.32831 98.6185 -0.446974
-10.7968 92.6044 -13.4447
3.97912 95.6902 -9.64538
8.53023 117.735 1.82597
2.93331 104.439 -10.6206
-0.596793 99.0857 -9.91436
-22.0137 141.118 2.99746
-23.2643 135.927 0.609541
-24.6751 132.609 5.75784
-9.32241 145.048 -5.61136
23.9023 127.895 -1.70073
-17.9563 125.79 -5.61595
-20.2046 122.776 -4.88576
-14.6439 143.77 6.8992
-19.007 116.898 6.83498
9.27136 120.526 -6.61314
-19.0797 110.315 5.87287
-19.3822 117.628 7.18144
8.36587 108.561 11.2353
-22.9641 112.674 -7.36223
15.523 79.0141 1.91442
8.52436 117.6 -5.40638
-0.317788 87.3067 0.1843
18.7008 80.6521 7.52069
-24.4296 131.23 -2.48712
14.7077 115.565 0.0200002
-24.2505 117.94 -0.00843528
3.47668 106.046 -11.0095
-21.7127 102.432 -10.8575
-32.9285 128.536 6.30944
-0.424565 95.6509 -10.3709
16.008 108.806 -3.09186
15.3123 77.0833 8.31242
-3.45587 128.518 5.05863
11.9531 113.075 -6.05744
21.5338 131.777 -0.069003
10.3066 79.7333 -5.72534
17.3045 130.135 -6.8919
-22.9271 135.921 0.122995
0.794881 93.6464 -11.0668
-20.0365 138.563 0.504707
-4.99973 136.157 -4.56464
-9.19036 132.721 3.86022
12.8518 76.5768 -3.02683
7.74446 114.585 7.40596
3.47456 126.272 -2.6876
12.7425 124.919 6.78241
16.4428 126.221 4.78313
24.3101 125.021 -2.45777
17.6384 101.441 7.77191
-13.4203 103.255 7.41333
-17.9154 126.727 4.5561
7.43952 93.3606 9.41704
7.22582 146.254 -5.33468
13.6499 116.519 -0.888657
14.7775 130.624 -0.443005
14.4051 118.937 5.77919
13.7189 134.496 -4.0186
-5.00174 142.04 -0.502277
5.92487 81.6342 -8.80588
9.64875 144.706 -5.74541
4.61224 116.504 -0.414243
4.84388 132.77 0.840237
16.8932 77.9849 5.52625
5.57774 146.348 -4.38503
-20.0466 101.148 -12.0453
-5.4519 91.1064 2.33326
-11.7306 147.63 4.29536
2.79583 80.2997 -9.57889
9.47817 123.58 9.48377
5.27354 108.254 -0.656732
-15.9865 124.177 6.99368
-4.02296 113.001 6.20592
-28.9684 123.199 3.21263
16.2156 145.728 3.35875
-0.963045 122.364 -6.60587
-17.3666 130.302 -4.27471
7.20167 106.899 1.32925
-20.2585 120.729 -5.36117
-24.294 112.25 -2.9577
13.9602 131.613 -6.75121
10.1473 98.1726 -5.017
-5.25904 85.2463 -4.57799
-7.24072 110.578 5.83576
16.9414 96.2265 0.872328
-9.18732 135.81 2.28294
3.05631 117.421 0.425441
13.2871 89.9391 10.3585
-16.2429 133.619 5.29706
-7.20995 137.357 -6.19327
-6.63094 117.495 7.3481
-7.19366 82.3664 -11.2921
6.65139 124.234 -0.227476
5.69383 123.717 -2.95196
19.1476 144.194 -1.4279
-16.6095 107.196 7.23355
-10.7692 133.671 3.02596
12.641 107.507 10.6979
-15.9096 116.907 -9.79089
9.92271 120.156 10.3995
8.52869 117.216 10.0058
8.26369 110.629 3.882
-21.9475 142.728 5.2676
-0.286294 124.453 4.57978
-21.9973 120.532 3.97304
11.1832 149.711 -1.69149
16.3902 112.167 3.23197
-15.0303 99.7321 -13.9415
12.2828 124.725 -7.54573
14.684 134.323 -6.84926
-14.2845 107.319 7.87465
-14.3687 103.377 -13.2311
-10.2832 92.7771 -13.2434
-9.67212 85.68 -10.6013
-9.78662 107.832 -12.4088
12.1514 124.322 -6.33522
21.4837 123.604 -6.72309
-2.4518 120.299 5.47569
-13.579 149.958 2.96018
-12.3328 126.045 6.44294
3.70141 91.879 5.1287
8.37282 118.879 9.55638
-2.44792 108.01 4.54191
-3.9375 85.3984 2.27772
-15.9266 100.072 -13.7206
-20.6757 133.203 -1.63483
-23.249 117.605 1.99262
-8.97555 146.78 1.30579
17.4623 134.486 2.96092
5.53008 93.1833 8.63307
5.65992 107.24 -0.588992
12.8678 135.129 -1.93007
17.696 93.7477 5.44111
7.8078 116.447 8.03571
15.0116 114.896 2.14668
-14.7456 119.811 -9.34985
8.56377 117.401 5.57175
-0.74906 109.219 3.82677
15.1769 121.569 6.25316
-16.435 146.522 3.04724
14.7468 123.701 -4.80881
14.1235 134.247 -2.19756
-23.3324 131.833 -2.16794
23.3063 121.376 0.0620967
-5.94921 94.4192 -10.1812
13.6 120.258 -4.95082
-5.94314 144.452 -5.27152
11.9598 144.321 -2.87273
13.1432 112.487 -5.58093
9.0118 130.745 4.40743
-8.56438 142.286 0.734863
16.8621 144.953 3.05229
0.25086 138.9 -2.445
-10.9771 111.296 7.37267
-17.1602 125.673 -6.44653
6.46378 103.452 0.370744
-17.0189 127.298 -5.66156
2.76451 152.456 -2.8398
-8.8422 107.888 5.74603
20.765 142.734 -0.780926
0.00859735 101.756 0.275651
3.40214 138.126 1.35052
8.63604 136.533 -6.16329
11.9031 79.3112 -3.62899
-23.9437 134.463 2.18481
13.3756 139.551 5.47352
4.73607 137.024 -4.46701
0.276508 84.9535 -0.0457207
7.29624 80.2365 -8.96112
-9.09425 137.056 -7.53526
1.75166 113.354 -8.30139
-18.1443 99.7061 -12.7121
13.5215 118.34 7.83541
16.622 135.201 -6.27527
-14.8439 105.488 -12.9352
7.3335 139.368 -6.27672
2.68818 110.428 -9.52287
5.87589 110.884 -5.64091
19.4095 118.839 1.43032
17.62 101.096 7.88714
-19.4591 126.901 4.45339
-15.1809 148.6 3.55517
6.35753 88.5919 7.09512
-13.12 108.412 -12.6133
-6.54364 128.319 5.08747
15.3166 125.205 -0.460464
1.51916 91.7686 -1.39354
4.4525 120.274 -3.13549
-0.0792243 91.0033 3.54931
16.9021 93.2026 3.42044
25.4641 125.962 -3.31747
5.14321 122.921 -3.03739
8.43394 76.3046 6.63635
7.91554 105.812 7.39974
-6.52005 95.9926 5.16003
6.8661 116.424 0.137227
-21.3875 122.049 5.25218
-15.4237 136.233 6.14585
-22.887 117.359 -2.42715
7.31198 79.1925 -6.72065
21.0479 122.291 3.58154
8.43904 143.068 1.56538
17.0603 89.9855 4.5947
-13.7847 82.1456 -13.2877
3.91543 138.732 0.945758
14.4008 132.56 5.766
-3.46518 110.474 5.38376
5.6318 111.132 -5.68934
-10.5506 84.7579 -9.79106
13.881 146.404 3.97558
12.7424 126.408 -6.3075
1.44325 83.4656 -8.07243
12.6995 124.07 -1.85475
-0.0687782 90.0808 -1.13901
-0.454536 87.6819 -0.205612
16.0944 82.9207 4.8661
11.2349 126.287 8.05702
2.77042 126.942 2.37345
-7.85879 113.808 -9.30727
23.9673 131.8 -3.73115
-1.87018 138.899 2.55837
18.6859 128.416 4.66468
20.5741 128.758 3.03
9.45285 127.671 3.0715
17.3774 88.1486 5.76558
1.85436 108.689 0.391433
16.7343 137.16 2.75515
11.5352 151.037 1.73131
20.9049 132.544 0.867475
5.84337 146.59 -4.55785
4.13805 80.2054 -8.96447
-22.1042 120.93 -0.860712
-3.64162 86.6431 -3.3775
13.663 124.896 -8.8998
24.9816 125.777 -0.893739
-9.12055 81.8686 -11.9965
-8.78338 112.808 -9.70693
25.0626 124.472 -5.58328
-7.72047 138.022 1.58426
5.20287 100.918 8.29844
9.36175 130.665 3.42353
-1.60984 79.7756 -9.39564
17.8745 108.214 3.17494
-7.81349 90.0592 -10.4105
-21.7387 125.555 5.03791
8.5037 119.394 9.69523
8.06184 115.019 6.43473
1.63008 121.462 2.64737
11.5771 128.43 -0.822333
-15.9091 92.56 -14.0541
0.9804 88.7405 2.52188
0.534773 149.35 -2.78925
5.43854 122.692 -3.08351
-2.26037 119.139 5.49511
-4.53261 86.372 -3.38614
6.42984 79.2021 -8.96993
-19.6253 105.482 -11.8621
-17.508 91.4984 -13.4563
19.6925 144.624 0.49932
-23.4437 111.655 -6.94459
-20.5363 125.363 -4.37119
9.02964 84.4235 -6.88608
0.105386 107.319 2.89866
-30.9071 131.478 5.7182
9.98622 79.1849 -5.43665
11.1083 99.731 -5.2684
-17.3127 125.477 -5.96302
-16.1751 90.7381 -13.8383
-1.27588 148.641 -3.10255
-10.0869 79.1869 -13.0641
-7.73151 133.432 -5.60956
10.487 117.139 -6.34484
16.2862 120.78 4.73295
7.03541 84.3485 8.52968
-8.98604 94.7317 5.74957
17.9845 102.038 5.25365
12.8282 132.451 -3.97169
15.6077 78.3726 1.0353
-18.4976 125.207 -5.91387
6.63035 116.309 -4.43995
-1.03487 93.4997 3.07322
-1.83683 86.5553 1.46333
2.4765 111.039 -9.2302
6.63002 107.948 -6.39164
14.6005 117.046 5.49623
13.4763 130.155 -0.219649
-1.16613 126.436 5.12945
0.444392 122.908 -5.99063
6.63497 116.572 -0.0730486
-6.55914 126.274 5.97195
8.54405 151.864 -2.93153
7.02047 91.2035 9.35465
-1.47226 86.5095 -1.35127
-19.4286 94.3557 -12.7218
17.4105 132.116 3.62051
17.1594 137.376 2.61525
15.2734 128.653 0.409755
-20.3378 119.787 -6.41834
-13.5838 122.63 8.48239
15.0159 82.9764 3.80454
-11.3013 98.3985 6.57628
-21.8203 138.908 7.57637
1.93607 92.3304 4.6747
17.5386 122.603 -8.16125
-20.5205 119.835 -5.25157
8.10477 115.681 9.62904
-16.5673 122.088 8.00883
-4.4964 86.8799 2.21197
-4.38272 91.7181 1.40828
-8.00482 149.392 -4.38734
-1.15577 102.807 3.24674
-28.6495 132.248 5.92498
-15.8925 113.842 8.56541
-22.339 106.928 -8.96948
7.67288 112.208 9.22294
-23.0683 124.441 3.18513
-17.816 141.944 0.554056
23.1979 122.11 0.812257
19.4769 119.11 -1.38433
0.654528 84.04 -0.00933852
7.39576 107.746 8.08835
-6.46609 121.686 -5.99888
-3.203 132.284 -3.73151
-17.2406 132.85 5.97605
8.95863 119.142 3.25892
12.543 135.354 6.60485
-20.2178 108.392 4.15586
-19.2042 115.201 5.43327
16.4331 137.888 3.09304
5.61478 125.38 0.0135367
-34.4909 124.976 1.78136
21.4469 124.91 -5.85648
-30.1989 131.413 1.42961
-10.9037 131.092 -7.46871
5.15923 87.0748 5.78716
15.5697 115.307 5.12036
-21.8875 99.2594 -11.4433
13.3199 129.146 -0.818156
11.707 140.781 -5.71089
16.5912 146.71 2.39728
3.62247 152.354 -2.94397
3.69698 132.538 -2.75811
14.8494 134.506 4.87809
-18.5008 107.45 5.98113
13.8081 132.354 5.98886
9.03552 88.6984 -4.52732
3.46906 125.976 -2.68771
-16.3607 93.5266 -13.9671
12.5276 146.569 -1.21042
-19.3378 142.027 1.12757
2.61943 147.965 -2.93499
3.37069 140.899 -3.00308
-10.5163 117.447 -9.79147
-7.05633 100.012 5.23119
0.0535505 106.338 2.82869
-23.0224 126.002 -0.705771
-6.76655 125.288 6.44161
-33.1928 124.001 0.875403
-20.9731 143.934 3.91422
-23.592 123.671 -0.850073
-9.1011 111.949 6.5118
-13.1663 134.443 3.35448
17.2427 76.2847 4.34773
-0.50574 83.2658 -8.24262
7.60286 132.185 0.169361
3.94616 93.3207 6.42535
-9.12254 131.687 4.18656
-0.731087 105.782 -12.17
19.4803 135.085 -5.40928
-20.4307 111.951 1.48146
-0.333114 134.425 3.28678
10.24 129.549 -7.39186
15.3352 79.3131 1.71314
9.41026 129.432 2.29997
3.46917 79.4107 -8.69991
0.296604 132.637 3.29687
17.0127 132.086 4.12033
5.2519 91.5859 7.36358
14.1757 85.1897 2.23383
7.76156 90.219 -7.40044
5.31018 118.711 -0.43179
-23.7767 104.183 -7.17929
-2.05315 94.2499 0.584609
2.18585 96.2518 6.42136
-3.81962 89.9612 1.647
-8.5544 146.172 0.901127
8.93258 140.633 1.75764
6.21296 150.664 -3.78817
12.9588 126.482 -4.26006
-18.7644 123.446 6.78735
20.2646 140.194 -2.92005
6.98674 145.62 -5.33421
12.9808 86.9987 -0.923453
-26.7149 121.392 0.869783
-16.0887 134.203 -3.20398
-2.12568 87.9626 -1.85753
-25.9831 128.538 7.08516
13.9181 127.613 1.146
-20.3736 119.86 -5.63308
10.8508 123.339 8.65114
13.0293 122.434 -3.63491
-2.81444 92.299 -10.3736
13.0762 135.015 6.07549
17.7433 83.0642 8.27387
-16.2651 123.157 -7.62639
-4.69297 95.4986 4.63559
-1.4034 108.675 -11.5
-3.15016 119.156 -7.89417
-25.2938 134.666 3.04712
0.298713 93.7341 4.65141
-23.8631 113.914 -0.584211
11.4846 89.4446 10.6254
-9.98878 146.749 2.2506
-20.3099 140.215 1.16424
12.726 129.978 6.256
12.3268 120.457 -3.73815
10.1734 83.3252 -4.95631
10.4599 131.084 -6.89723
14.1481 114.786 1.83412
-5.18254 139.786 -5.06866
15.1677 129.423 -1.06916
13.1235 148.424 -0.0102524
-32.4793 127.142 4.66139
1.03008 154.157 -1.91374
8.53937 114.418 4.15347
-19.4853 111.304 5.2156
-24.6235 124.462 4.95969
-18.2159 109.944 -11.5952
14.4842 122.719 2.5028
-16.4048 126.171 -6.02809
-9.70447 94.7631 -12.5988
-18.7757 105.535 -12.1158
1.04707 125.713 3.77335
7.81405 83.1103 -8.70769
-14.036 131.419 4.7352
0.282311 141.653 -2.6422
2.07724 132.916 -2.08908
13.183 124.785 -3.68477
-4.2023 135.433 2.71713
14.5461 123.394 -2.40937
-26.242 131.787 0.425998
13.9619 81.5905 1.90141
20.6464 143.203 -0.599416
5.36808 78.2298 5.15777
15.6512 115.676 7.21849
-32.0948 125.412 2.07112
12.5095 140.646 -4.32816
14.2991 138.525 -4.50929
12.465 82.088 9.24906
14.3796 144.47 0.165618
12.386 134.39 -2.3114
-2.17927 113.418 5.54158
22.1866 130.585 -0.851771
3.34663 79.1954 -11.037
-2.74356 153.369 -2.2507
15.7022 125.18 5.033
9.30808 151.271 -2.03555
9.31526 145.487 2.92082
-3.34797 153.308 -2.28676
18.5437 94.4998 6.91231
-16.8296 91.8466 -13.8453
16.4111 137.204 2.92418
13.4807 146.08 0.199009
-22.9268 105.348 -5.04213
-5.15834 79.2048 -5.89423
-6.92301 90.3505 -10.3015
-28.7698 128.67 6.86664
-10.3195 96.925 -12.9137
8.91054 100.712 -7.94581
-24.098 111.501 -4.13663
-6.35505 100.377 -13.1706
-1.25039 90.737 -0.149969
11.9277 132.627 -3.0919
16.1075 95.2319 9.42486
16.1474 75.3003 8.29241
4.50423 148.843 -3.57102
-12.633 149.15 -0.106462
13.2925 77.5417 -0.605135
-15.0706 142.901 6.64471
1.08435 133.067 2.78817
9.35757 127.521 2.51213
6.97307 78.5176 -7.12689
-2.82309 83.7183 -1.99395
-30.6909 129.045 6.69556
-22.5053 102.957 -10.1441
-22.8438 123.434 -1.48035
12.1185 132.909 -3.00058
-23.0312 122.874 -1.02689
-23.0096 120.08 3.0832
-6.32994 107.57 4.90528
-4.24896 112.343 6.02812
0.0793282 97.2465 -0.791422
12.2527 101.273 -5.67858
3.7293 85.1681 2.94293
-6.44623 129.143 5.19293
-2.94155 107.044 -12.1787
16.1026 74.4629 8.16602
-21.6576 123.662 4.9449
12.615 127.443 -7.46167
10.5575 88.4374 -3.01531
-27.665 133.915 3.02831
-9.69079 132.551 3.95158
-24.7844 124.687 -0.205883
0.372319 86.7412 -0.180554
17.5228 84.7439 6.30823
-24.1439 120.772 0.0537845
0.905752 127.446 -3.98951
-23.1094 107.952 -8.20573
17.5994 138.079 2.74288
21.6302 139.793 -1.0304
18.8042 82.9722 7.4834
8.86217 78.5475 7.80116
12.3751 123.938 -7.20112
2.72117 119.947 0.90977
-3.98396 139.771 -4.31045
1.02806 83.3241 2.28954
8.99488 109.26 11.6182
8.75256 83.6451 -7.92493
-22.482 113.399 -7.83946
-3.19981 139.657 -3.84395
-1.64252 107.657 4.19138
-4.29518 138.401 -4.56793
1.31005 122.766 3.24348
-2.27611 78.4123 -10.0104
11.2224 119.428 10.6248
-21.2039 119.331 5.43796
-24.6097 122.114 1.3451
-32.7529 127.244 4.27897
4.02628 152.298 -3.03468
-27.1761 128.597 -1.35216
5.19229 97.1874 8.2992
3.22209 152.597 -2.81184
-19.5787 99.7656 -12.3488
-7.36333 111.387 -10.0816
16.2225 147.742 0.110692
-10.3108 124.197 -6.68011
14.5089 141.62 4.10803
-24.2427 124.293 2.85989
-3.52183 78.4476 -10.1572
-13.8352 103.608 -13.1706
-27.3666 133.545 3.00221
-2.76736 139.024 -3.43754
7.78525 114.089 6.96931
-18.5281 113.242 -10.829
-1.15539 106.947 3.80562
0.122566 149.851 -2.88902
-24.083 135.219 1.90261
-21.4118 113.811 -8.79998
-23.1449 120.995 -2.47412
-23.754 123.822 -1.9214
9.60769 118.052 -5.5633
-6.32808 86.6378 -8.9605
-26.2175 128.667 7.04902
9.36011 150.895 -2.93057
14.8944 132.889 -2.39311
9.78308 153.631 1.30825
17.1274 119.706 0.260205
-6.5213 96.6347 -11.405
-6.58059 148.833 -4.61715
-3.377 86.3029 1.95875
13.1887 91.4231 10.5738
3.59752 100.229 7.11104
-10.4351 114.919 -10.4943
7.89342 138.368 -6.23394
11.7048 79.8559 -4.11896
4.90075 95.9871 -8.30186
13.8042 122.049 7.40769
10.2954 108.997 -4.11878
-23.9746 140.754 4.09394
17.32 84.7867 8.43254
-6.99341 99.5507 5.31631
2.61658 127.022 2.56219
19.2004 126.032 -8.59627
-27.4566 121.546 1.12703
17.6423 85.3944 6.29668
-2.87441 84.4106 -3.33631
0.108332 136.957 2.43218
17.6886 90.987 7.9609
-5.84604 83.7152 -9.33125
-15.2715 119.413 9.11427
17.4143 78.7159 8.28643
-20.8896 121.777 -2.58877
-12.1502 97.2727 -13.2177
19.3848 143.317 1.23696
15.1005 122.853 2.12058
-9.85778 104.561 -13.3284
18.1767 78.0713 7.27705
-10.4199 104.016 -13.2913
14.8862 99.6025 10.111
-5.18696 134.898 -4.33428
-36.318 127.242 4.55672
8.95025 131.209 4.42284
-3.96868 115.663 -9.18884
-33.7005 127.757 4.45569
0.0307376 129.211 -2.87833
-19.3767 145.131 5.49691
16.5583 98.9185 9.13895
6.84783 104.094 -8.19237
19.9554 138.347 1.95607
13.1171 123.202 1.89826
-5.79616 95.8975 -10.4188
8.11289 108.473 5.21365
22.9582 126.249 0.363657
-1.56564 88.9762 -10.8418
21.7257 127.957 -7.15549
-23.0908 121.696 -2.5598
-1.58607 99.5206 1.20359
18.0368 122.724 3.3998
-16.7264 89.7113 -13.1955
-6.47507 95.3828 -10.9756
12.7318 126.203 -6.46106
3.56284 131.986 -2.52551
-18.8066 128.333 4.61206
24.0389 127.471 -2.63211
17.1883 125.122 2.7404
-12.3568 144.996 4.55266
14.6024 114.331 3.04021
12.8226 124.832 -2.3459
7.22829 79.4953 -7.46816
0.31598 99.3863 -10.1426
16.8264 136.647 2.80837
10.2421 148.815 -3.80539
-0.231536 101.316 0.323577
-5.70971 101.148 4.71505
14.9501 116.471 8.54212
-30.0812 133.064 3.34656
-25.646 121.994 -0.749392
14.1731 121.414 -5.15072
1.90429 95.1565 1.71671
-23.605 123.814 -0.556758
-8.00835 125.005 -6.4568
-2.34718 88.6114 -1.04012
7.66619 113.728 7.68409
4.11412 101.214 7.73574
25.333 125.385 -2.76702
11.4105 124.457 -7.22833
17.8931 118.312 -0.0469798
-30.1541 132.856 5.88634
16.1722 112.127 -1.05631
6.95235 138.786 -6.20472
-11.8199 150.288 3.02624
-2.40313 95.6876 -9.85455
8.69335 96.1537 10.261
23.7576 127.759 -5.92331
-12.4564 133.043 3.85571
0.410453 140.111 1.6826
15.7214 99.923 9.72588
7.63366 112.944 8.70758
13.4301 123.678 -2.96084
-15.2057 85.917 -12.3264
-11.4817 126.662 6.27027
-16.2113 121.028 -8.19345
-1.66717 138.882 -2.94486
6.96913 78.3021 -7.3481
-6.53388 95.9608 5.15785
-2.23596 115.741 -9.67056
11.2921 95.188 11.1762
-9.688 118.765 -9.3338
18.1806 135.584 2.52008
6.15853 102.57 -0.232643
2.95702 86.9619 2.66626
1.57215 98.0456 4.9803
-12.2415 143.222 4.16697
-3.19025 98.1669 3.17559
-16.2381 111.361 -11.8151
6.17785 125.939 -4.31188
13.0614 122.143 -6.39176
-17.6688 128.37 -4.51039
0.231205 116.557 3.76109
16.3287 86.7289 3.54564
10.8088 140.993 -6.47323
-20.5231 123.444 5.99883
-8.15162 108.538 5.65948
10.9473 108.947 -4.3039
9.00028 153.361 1.50038
-2.31084 79.3455 -9.99093
19.9935 118.685 -1.68147
7.23995 85.7666 -8.40844
16.7149 80.1813 8.53293
7.85528 124.396 -6.21638
-27.6073 128.031 6.98084
5.43323 82.0415 -8.71689
19.0997 144.958 -1.12717
20.2592 123.885 -8.83073
-19.541 132.752 -2.78335
-23.3021 111.978 -0.765407
15.1059 114.854 9.00666
8.38435 121.433 7.10767
17.5171 146.134 1.85112
5.41005 94.8033 -7.97074
-8.54358 132.873 3.74748
-4.36487 110.755 -11.1593
-23.7202 122.716 0.604719
7.67024 91.5913 -6.85645
13.8829 138.03 -4.74578
14.8603 76.3306 0.0144684
-23.8152 123.394 4.05539
-12.7714 146.696 4.97097
13.1578 108.012 -4.40213
15.9874 109.667 -2.06109
8.56173 115.795 10.1609
-19.5545 108.315 5.1104
15.237 133.6 -6.24221
12.0074 129.608 -4.09398
1.37462 79.1705 -9.48672
-11.6779 122.288 8.12315
-7.01022 144.967 -5.48842
-21.0897 113.783 -9.07792
4.11378 131.054 -2.97329
3.98138 114.704 -4.78674
14.7869 123.755 -4.77713
9.95066 137.11 2.31981
9.37508 126.31 4.41177
-17.3587 144.897 6.84578
-17.7559 96.4867 -13.1754
10.8496 98.3055 -4.24493
-18.9846 122.767 -5.22584
11.3545 128.951 7.34048
12.443 128.32 -5.42731
-4.70284 89.9347 -9.75348
-10.011 97.0815 6.16968
17.7241 141.433 3.40471
-3.5317 87.0685 -1.92643
-16.5746 131.402 -4.79115
-10.4979 151.53 1.5687
16.7294 121.681 3.09467
16.3514 123.534 -9.87449
1.66318 131.587 -2.23645
12.7027 137.199 -2.67966
25.1356 124.886 0.0568976
-7.66912 117.175 7.72045
0.342106 100.862 -10.0724
11.4457 147.693 3.36301
14.9722 149.897 1.35743
21.2481 137.865 -2.23719
-30.234 123.695 -0.166706
17.9675 130.051 4.85463
0.93119 105.736 1.73027
6.64703 79.0004 6.14433
-19.8538 136.818 7.46407
8.66731 128.838 5.48068
6.24627 131.411 0.0397531
21.9452 128.705 -6.55989
-7.33882 152.981 1.04178
10.4495 97.0787 10.9183
-5.32252 142.742 -5.18211
15.3259 83.3684 3.89583
22.8835 119.327 0.0412815
12.2035 125.984 -7.43044
2.35302 115.953 0.620092
-9.83233 122.759 7.80333
-1.25321 91.8881 0.679301
15.5269 91.4393 9.42699
-14.5567 135.857 5.24617
10.5127 112.169 11.3437
7.69895 116.264 8.79483
-10.6498 110.84 7.17099
13.2796 147.37 -0.67221
-23.6678 123.267 2.04431
-4.3587 90.3498 1.17956
9.14031 125.692 2.17575
13.8087 131.592 -6.76405
-9.87295 90.2637 -11.7639
-23.9787 113.079 -0.973124
5.85506 140.862 -5.29251
-14.9008 127.926 -6.79036
-14.6308 141.09 -1.8394
-7.96138 79.9945 -11.4349
0.559158 95.2553 2.36771
-16.7096 133.36 5.76407
4.10161 131.706 -3.0576
3.41883 112.004 -6.84166
-11.5686 133.267 2.75094
8.98635 146.15 2.45888
0.338877 97.0255 -10.2705
18.95 128.258 4.76164
12.393 137.829 -2.8179
13.7009 125.24 -4.06216
2.47179 139.906 1.11891
-18.9569 131.703 -1.85353
-1.44521 91.0154 0.468087
5.44159 84.1426 6.04593
6.13652 102.473 4.77655
-24.7529 139.744 6.44123
-1.07628 117.272 5.1484
16.2258 117.497 -4.57166
-4.19628 85.1774 -3.59661
-33.2277 126.255 1.65532
-6.47394 137.278 0.917241
16.5035 105.823 0.45844
13.0789 124.157 -6.50261
-17.7725 146.874 4.49902
-3.27459 147.091 -3.71253
14.1666 137.376 -3.34208
16.7491 118.048 -3.63235
-0.475197 92.2848 3.65775
6.73542 124.057 -0.159072
-28.616 125.355 5.74032
-0.371135 100.756 -10.3019
13.3327 81.6689 0.0667483
25.1879 125.692 -0.847406
-23.7779 109.343 -6.39671
21.6764 124.839 3.58125
-4.04446 127.568 4.9406
7.87778 117.608 8.09002
-2.70742 85.7549 -1.58313
-20.9861 128.648 5.88184
-15.0675 145.671 6.51633
21.3577 138.983 -2.09585
3.65848 92.8916 -10.6351
11.7404 131.069 -4.63063
14.7538 149.083 0.337605
5.66221 99.3576 8.8575
7.9144 95.8036 -5.14562
13.9724 149.611 1.02944
8.19316 101.189 10.6507
22.3052 122.527 2.25934
6.66912 134.926 -5.8016
-19.7826 119.01 7.04495
-1.64977 87.5478 -0.496892
-22.4764 126.202 -0.434212
3.81127 111.621 -6.61399
-23.0407 96.6167 -10.9386
0.114632 84.4552 -8.31449
-16.7302 102.673 -13.159
-23.8093 110.195 -5.46654
7.76883 78.6553 -9.17407
15.3165 79.344 1.69599
17.797 117.931 -3.46079
-20.5921 121.551 -4.66518
3.18751 80.3338 -9.41375
4.47793 109.697 -7.2768
13.4874 118.996 -2.0551
-6.92757 142.491 -0.951744
13.1684 117.986 10.0512
-19.0896 132.824 -2.41677
6.25099 125.771 -4.43716
-16.925 114.197 -11.0233
-12.1675 140.724 3.37703
-19.0677 141.469 0.780564
-18.5388 115.512 6.84786
-2.47149 87.2287 1.60535
13.9167 126.125 2.53318
13.7929 135.426 -2.34814
-10.6958 85.0646 -10.2548
7.42657 143.312 0.952228
15.9354 121.606 5.43216
-4.34815 111.065 -11.0716
-21.2655 131.501 -3.29926
6.66153 141.581 0.311502
13.2537 137.414 5.71647
7.65166 91.5514 9.94598
-1.43345 89.4713 -0.388812
4.42873 137.759 -4.06887
11.1747 122.862 9.0545
-0.136539 107.654 3.2442
-23.9055 136.165 1.26083
-10.4676 109.862 -11.799
-4.66872 78.3685 -11.9495
-23.1991 120.399 2.87079
-1.61203 134.659 -3.12274
13.0909 134.405 -1.59892
-7.14848 114.059 6.88643
-17.4847 143.971 7.13333
18.6502 88.8239 6.66395
13.1182 136.205 -5.38787
-23.2321 121.482 -1.73312
-2.10689 122.49 -6.15334
14.3182 75.6954 -1.13231
-0.280806 87.0372 -9.90693
15.2798 119.249 -3.57031
1.8618 123.029 2.50802
13.6482 119.483 -6.35884
-14.1732 145.688 6.28654
-1.34894 96.4529 -9.89181
-9.78202 137.089 -7.60269
-14.3742 120.316 -9.01713
-21.2799 123.539 -3.88064
-20.203 123.147 -4.75896
23.3583 132.393 -2.02521
14.4372 82.2865 2.85005
17.7658 135.585 2.68958
12.2001 124.389 -6.4229
-18.2348 131.525 -1.52038
14.8606 93.5601 10.0163
-19.9809 111.366 4.18077
3.02614 114.483 -5.82735
15.4576 83.9424 3.76825
22.6362 125.58 -5.11215
4.32561 153.866 -2.18769
17.6758 129.223 -7.12086
-11.431 151.297 0.951705
-32.5386 125.725 2.97663
-18.8057 108.095 5.93681
-16.9766 117.635 8.55047
10.8666 96.9109 -3.82037
-15.2158 124.572 -7.32073
-9.81151 134.608 -7.47526
-0.136728 128.727 4.47248
-14.941 86.6072 -13.1514
-2.53403 149.153 -3.38014
23.8592 126.473 -1.13238
5.01469 79.2118 4.79426
-0.40266 112.041 3.60155
8.75416 94.6018 10.3347
-9.84111 145.675 -5.39856
-1.89214 89.1899 -0.700267
7.25225 98.6815 10.1928
11.0066 96.6691 11.006
-11.3164 146.446 -4.51677
14.4687 89.3201 9.93641
23.8402 129.94 -2.82082
-16.8121 136.664 -1.5478
7.87598 108.431 2.96033
14.0694 134.127 -6.95725
-35.6488 128.444 5.21547
16.2959 87.2447 3.1584
-6.16433 120.857 6.61163
14.0898 124.863 3.16448
15.8878 81.5385 4.83592
-19.0681 104.025 -12.3733
16.1714 112.003 -0.00325026
17.2158 100.485 4.36567
-6.2159 97.2998 -11.1234
9.91538 98.0484 10.8398
24.3421 126.032 -1.00993
19.873 130.459 2.93207
-3.19346 104.143 3.78197
-6.65637 82.1287 -11.261
-12.2455 108.447 -12.5308
12.5832 121.71 -8.4558
-10.9535 137.604 -6.48524
-30.0533 123.161 1.49659
8.19475 89.1861 -6.78709
-5.53247 127.426 -4.15871
15.172 113.014 -4.20344
17.191 131.763 -5.98957
-30.2384 124.896 -0.873756
16.4558 88.8674 2.831
-9.82265 104.853 5.83481
-11.518 149.15 3.78668
18.3286 120.723 2.87798
10.8363 123.036 9.01608
-8.23878 111.42 -10.3056
-15.4451 97.9794 -14.0412
1.16178 126.318 -4.49764
-3.0503 112.219 5.75174
1.15749 128.822 -3.21145
-5.87598 90.7307 -9.87957
5.95349 131.603 0.438003
14.5207 124.788 2.5457
11.0197 85.3476 -2.74391
-15.4085 127.348 -6.56534
-2.58025 133.016 4.13182
5.20574 84.8941 -8.04424
-17.3162 107.798 7.0207
3.60767 100.535 6.49469
-28.1442 124.459 -1.62058
12.3026 126.977 -4.1251
-0.253486 112.163 3.36004
-10.094 129.152 -6.24
-0.323359 119.211 4.63221
10.7722 110.03 10.8914
16.585 126.038 3.05667
3.43535 81.345 -9.44284
1.7128 111.749 0.672008
8.5952 149.637 1.94299
-13.5158 128.799 -8.32854
-9.73064 121.879 7.673
6.40048 87.1486 7.26777
-9.04558 92.7456 -12.334
14.0677 147.337 0.617497
14.3605 99.0586 -3.01555
-11.19 106.17 -13.195
14.6633 130.204 -2.78267
2.12554 110.59 0.11945
-13.1964 146.528 -1.49074
5.65724 79.2071 5.22042
5.46046 111.005 -0.558353
-22.2971 115.733 2.60671
12.3223 120.957 9.94692
16.5598 111.881 3.55888
-1.60781 142.561 -3.37414
-24.0282 128.831 -2.83372
-6.46166 142.777 -1.12988
15.5636 148.428 2.3514
13.4056 138.313 -4.02657
18.587 124.36 -9.01676
-15.7128 131.352 5.16316
13.9085 80.2012 -1.28531
14.2444 122.298 -0.690495
-20.779 126.443 -3.69516
-1.37511 85.604 -8.65649
0.85717 85.6406 0.242578
9.79107 112.971 11.2448
3.75264 119.163 0.237734
-3.98726 82.9293 -5.82192
7.229 152.869 -2.34599
18.9803 137.05 -5.19925
8.17178 117.515 -5.34693
-22.9393 126.065 -1.03572
-14.889 133.826 4.47525
-12.8241 133.506 3.64387
11.5367 103.742 11.3775
-18.5333 108.247 6.27526
0.0833817 126.616 4.57919
-8.63677 98.774 -13.1766
15.962 76.9311 8.42424
-4.72629 121.783 5.61459
-25.1339 123.889 1.91899
8.04819 136.308 -5.99852
-11.693 142.261 3.31134
-8.09579 142.998 0.910513
-26.5263 134.561 3.18167
17.7924 108.703 3.59386
-1.60398 136.805 -3.04451
-19.5791 122.384 -5.02004
10.6626 98.5284 -4.65531
23.6399 125.336 2.1638
13.9938 122.142 1.76787
-5.53036 82.5718 -10.8655
4.96924 139.35 -4.74924
8.0802 111.083 2.54443
-0.265328 138.14 2.53671
17.9045 128.694 -7.28875
-19.3582 104.032 -12.2094
-20.2527 110.526 2.12332
15.4943 112.908 9.27181
7.3996 108.426 7.74991
-30.2991 128.921 6.73913
-1.56932 129.637 -3.44357
-19.0875 128.237 -3.5403
-11.7132 91.2896 -13.7046
-3.11729 135.295 3.47907
4.84135 112.592 -0.625216
13.1385 82.2039 9.32146
-11.174 127.777 5.8934
-24.077 133.933 5.57197
19.7614 131.26 2.3466
0.905014 138.944 1.98359
17.3276 98.5364 1.85953
10.4629 141.306 -6.61868
-20.9385 107.838 -9.66094
12.9747 93.1323 10.7902
6.24509 106.565 -0.444365
2.55075 123.865 -3.58911
-4.56594 142.741 -1.20275
-8.03346 120.632 7.56964
7.57577 122.948 -5.39256
7.47627 138.769 0.213052
21.9347 135.022 -2.80778
-2.91579 90.3601 -10.4567
16.1104 120.864 -1.38089
22.2886 134.192 -3.31035
8.81238 130.427 -6.66974
8.80752 82.3763 -8.34226
-2.40038 85.9213 -3.66372
14.1861 122.266 -0.251176
9.09879 132.759 4.56578
3.13249 99.947 4.40785
13.4602 150.202 0.785757
14.1002 118.398 -5.956
-3.91949 142.346 -4.33331
-6.20101 135.326 1.6436
7.53932 111.492 8.87668
17.2125 108.651 7.66409
14.4577 143.873 4.38523
7.45948 96.7798 -5.73424
15.7642 116.085 7.06737
-21.9756 113.698 0.681118
-14.8111 134.994 -3.93026
5.88115 103.275 -0.473891
17.0659 94.1555 2.69749
11.9776 128.317 -3.85492
5.57415 83.8561 6.8509
-11.4664 139.384 1.93427
2.92447 84.2682 -8.26525
-17.4871 114.849 -10.6935
15.7913 120.883 5.28701
15.4112 99.8941 9.87211
14.3272 135.532 -2.71549
-0.611661 88.4462 0.414967
-16.5875 137.993 -1.03229
5.97547 90.2196 -9.18122
6.93369 79.9909 -8.88625
-9.80999 122.357 -7.07768
15.6019 85.169 9.07473
0.566619 83.8811 -0.47734
14.7774 130.875 -0.844659
-12.6611 116.062 8.01335
-36.2523 128.427 4.36639
-8.5276 103.623 5.16008
-6.94569 138.152 0.753111
12.1145 99.8089 -4.56462
2.20542 99.3435 -10.8215
12.4876 143.594 -0.841773
9.05673 129.734 4.52207
-13.7301 87.6517 -13.1419
17.8572 100.86 7.40007
22.7634 134.813 -0.844248
-24.6518 139.607 3.85149
-26.3003 123.194 3.33583
-11.253 135.661 3.16031
-34.7415 129.417 2.71384
-2.89142 96.3178 1.76954
-32.6768 129.734 1.06091
12.3614 123.912 -7.18114
9.38599 133.543 -6.20414
11.5669 125.125 7.39945
7.59786 139.66 -6.28095
-15.0853 120.114 -9.20619
12.6476 78.574 8.09933
-20.3885 120.162 -5.02536
-3.50573 108.804 4.94077
11.8284 96.5629 10.9849
-8.03017 141.16 -6.39358
-22.2176 111.391 -8.57909
14.6961 124.386 1.72089
12.9975 123.709 7.48994
-5.08403 82.0344 -10.8908
6.91244 103.909 5.53339
-3.66895 113.766 6.23176
4.02675 134.508 0.882345
-0.230364 144.331 -2.88308
-15.5821 139.004 6.6793
-8.75368 127.132 6.64333
-7.06841 102.158 4.79019
-19.0448 118.453 7.444
-16.7108 122.243 7.83404
-13.5597 146.15 -0.271629
14.6235 142.436 3.98301
-9.59523 142.895 2.47715
-22.3693 122.507 -3.90744
-7.79416 123.798 -6.98447
0.217274 86.5898 -0.257055
16.9918 118.786 3.43878
-12.2598 80.9902 -12.5421
-18.5134 97.4728 -12.6161
9.27568 81.1694 -7.49644
-27.9875 123.429 4.27462
0.658971 100.976 -10.0044
5.4579 128.581 -3.71723
-23.5709 124.779 4.92675
-25.4757 121.397 0.962467
6.73347 125.375 -5.30125
-12.0641 133.623 3.28617
13.9914 106.934 -4.63966
-5.44578 137.833 -5.35807
-12.0311 143.393 -4.68568
-12.3488 116.786 8.12838
-19.1779 128.464 -3.93319
13.7632 136.232 -4.3359
0.698543 99.3287 -0.569498
-0.911226 90.441 -2.2256
14.4041 119.671 -1.72344
10.3122 77.739 -5.27536
2.31636 112.955 -7.59668
-21.5646 119.495 -5.69839
8.91238 115.764 -5.79163
-24.0711 124.546 4.78632
-17.185 145.524 2.26901
-16.2768 105.422 -13.0248
-16.4226 114.836 8.53242
1.46687 82.5862 -8.38703
11.1093 127.148 -7.67326
-6.82436 108.573 -11.4288
17.3146 125.035 3.09238
7.88653 100.646 10.387
11.6518 85.7907 9.83702
-19.4453 110.16 5.50011
-20.3238 134.558 -2.61532
17.6768 142.255 -2.71516
16.0471 106.752 9.14615
-3.81482 82.4666 -2.48786
4.00816 95.7562 -9.58314
