ply
format ascii 1.0
comment Created by Open3D
element vertex 1949
property double x
property double y
property double z
end_header
6.1831 97.7705 -6.1559
5.85899 124.049 7.59205
-12.734 115.317 5.78708
19.0787 110.286 7.19921
-13.5342 113.236 3.53237
27.5305 137.112 -0.446902
9.87022 105.784 7.61788
16.5301 92.6247 10.017
-16.3856 118.666 -1.48783
23.0095 78.4106 9.37975
20.0948 131.734 -3.31386
-17.4388 132.835 9.78061
26.7055 126.601 0.0665062
8.72069 116.331 8.66922
-9.59076 122.011 7.88717
13.821 129.577 -8.81807
27.0661 80.3179 7.48195
-12.7988 141.432 -2.41134
24.242 129.271 -0.325012
11.8351 143.299 1.32901
35.356 82.1547 9.88247
-21.1727 127.791 7.37697
-12.8811 113.347 4.05852
31.3082 95.4015 3.9584
-5.35355 140.648 2.62875
-19.3185 129.249 -0.568862
30.536 81.9328 6.60372
-20.6928 129.132 9.56519
-19.6749 129.374 -0.16633
33.466 93.9698 7.04165
6.94129 150.706 -4.562
28.4455 129.567 -7.61121
19.6233 129.558 -7.13478
17.3412 116.194 -6.33124
4.05022 117.929 -7.1461
-16.7849 119.737 0.245476
4.98328 120.009 8.19893
-17.5094 138.195 7.51808
16.7021 141.721 3.59725
22.4404 127.109 -7.71461
-16.0681 123.201 7.68879
16.5586 102.846 6.07467
-1.26573 129.8 5.24987
17.5024 142.971 4.35645
-23.0359 122.173 4.73258
-6.41964 104.221 -8.60044
26.1893 140.81 -1.59501
9.15611 127.724 -5.39174
29.1513 95.2262 2.0702
-16.4707 116.903 -1.22929
17.3736 147.416 -2.10645
31.3366 105.163 8.07251
-8.45128 132.795 6.58443
-20.4268 128.066 3.09824
-10.0888 146.128 5.71039
29.219 129.294 -5.51472
-10.8359 122.612 7.36035
-19.8833 123.976 -0.204674
16.6969 125.666 -4.84599
5.07368 93.9013 -4.9233
-17.5563 126.504 -1.23864
29.0863 129.07 -5.23988
15.3632 115.013 -5.50851
9.00104 105.531 8.61937
19.0933 103.514 -6.10162
8.52959 139.41 5.58346
36.2152 86.0059 11.1163
16.6372 120.337 3.90407
19.8757 143.627 -5.03888
-22.4733 124.391 6.40016
10.3885 102.313 -8.23569
28.0341 104.25 1.45127
27.0809 114.498 1.93594
-2.44516 93.9339 7.89885
-1.11953 99.8263 7.96057
-9.59408 127.432 6.18717
25.2073 120.317 3.44174
35.0009 88.9865 7.65629
-15.1984 143.104 4.90475
17.9245 100.265 8.09281
-5.30939 120.289 9.5039
-12.3042 141.158 8.72971
12.5377 137.361 1.64315
5.29315 122.514 -5.34597
-6.70029 143.827 3.40774
-18.4256 110.327 -1.91103
-16.3785 112.833 -7.4785
-4.06016 117.576 -4.57402
14.7134 125.788 2.50657
1.41549 93.7638 8.47454
-17.5869 115.764 -2.95584
3.83696 118.713 8.50576
-14.2688 107.851 0.948695
6.52531 148.744 -5.16425
26.9648 97.8506 0.00847578
-3.09383 138.534 -3.42102
-5.30569 143.279 -4.45199
21.4769 81.1395 9.6073
29.7535 127.03 -3.32009
-16.1228 130.204 8.57259
15.6417 96.3237 -4.89665
-8.29869 137.892 5.69894
13.6562 134.146 2.28647
16.38 117.833 -7.03748
-9.28395 134.043 7.51105
11.416 77.2665 4.80635
15.174 100.061 -6.49431
10.0639 108.575 -6.37754
-14.1099 124.648 -6.08698
2.85936 124.35 7.07376
11.0893 112.587 5.97589
18.7661 101.752 -5.30888
17.09 129.564 -0.967487
-19.6092 132.136 8.47866
27.508 132.199 -8.54841
24.7272 127.957 -0.0581799
14.8945 116.264 3.65386
-3.73714 132.741 -3.58748
28.1898 86.4224 12.5942
-12.0364 127.506 -6.5949
-2.6306 91.1354 6.54401
0.856366 101.298 7.91224
5.22189 140.183 -4.75325
12.3396 131.13 3.63163
20.0214 126.484 -0.012818
2.23084 119.943 -6.62444
-12.6967 141.511 -2.49079
-16.9513 133.692 0.0333693
14.6507 121.175 3.12564
-11.4986 115.67 7.04006
13.6569 134.392 -8.80433
-17.8005 113.878 -1.01235
30.7222 81.0386 8.57105
27.9241 126.467 -7.11771
16.235 87.9855 -2.50592
-14.0214 118.671 5.46656
-0.735459 107.955 7.91581
-20.7289 120.662 11.8656
28.5038 125.023 -2.42828
-7.19423 146.069 3.64264
-5.49219 109.983 9.033
30.2487 105.202 5.63601
25.2677 132.729 1.69811
-4.69639 139.744 -4.28811
9.00159 118.741 8.47234
24.8193 81.8644 11.016
-12.3107 144.663 1.79032
-11.1165 126.507 4.85364
-7.25489 117.134 -6.47875
19.1139 80.8803 2.05319
0.8274 142.405 -2.31195
36.0471 85.4093 8.44948
20.1458 83.6325 9.98353
13.0508 115.886 -5.96002
24.9441 124.287 -0.162991
11.5053 147.848 -6.15606
20.4952 127.363 -4.08578
-15.6511 138.908 9.25491
22.387 110.431 10.959
24.1834 113.184 12.1405
-10.304 137.769 7.9754
22.7301 122.707 -1.78717
25.6207 97.2739 -0.971864
15.9957 130.635 -2.84175
24.9028 125.306 -8.71847
-19.0803 120.944 12.0272
-15.9802 120.979 -2.14031
-14.2732 122.781 -7.16251
-6.74259 150.065 1.83538
7.24733 154.535 -0.274381
1.84499 153.761 -2.21504
35.7884 82.4033 11.9763
21.5816 114.349 -4.39913
18.0546 95.2097 10.6156
-0.800758 85.9865 5.69093
8.29695 92.5508 7.30001
24.4165 85.3579 2.30651
5.37359 141.915 6.45736
-11.7526 116.836 7.65843
-5.46835 112.061 -6.6891
-7.16857 150.933 1.71688
-6.79626 140.391 -5.75844
-15.7862 123.325 -2.72343
-0.0764755 94.2497 8.31768
27.678 110.613 10.862
10.4245 94.6012 -6.56823
-14.5868 133.283 -1.54027
14.6206 100.827 -6.72117
17.487 140.708 -5.63875
-11.3851 117.42 -7.77211
-15.4477 126.478 -0.515576
27.3175 138.283 -5.47103
8.22924 129.701 -5.12925
20.119 105.64 8.60441
1.47733 91.9382 -3.9793
14.1988 141.441 -7.3381
31.0553 93.8735 3.89245
-6.98487 130.594 -6.12861
-17.0541 133.691 0.0359856
21.2329 122.846 -2.56213
31.7888 101.345 10.5265
1.26782 100.242 8.05983
28.7589 126.078 -6.08607
19.3967 114.911 -6.40573
-8.39857 140.751 -5.89589
-16.4618 136.377 1.47621
-2.02178 109.642 -7.08642
17.7999 114.466 -5.91468
16.2478 93.1593 9.33189
-7.90301 138.663 -6.37742
-21.2332 120.089 5.35928
23.6737 94.1026 -1.62357
17.3406 79.608 7.20632
27.4984 115.44 3.14918
-8.52097 95.8466 5.63858
8.13755 113.466 -5.73792
-5.55841 134.792 3.97803
16.9089 138.49 -4.16094
-23.0425 121.378 5.42477
-11.6603 109.061 5.75574
18.8176 125.07 -5.98985
15.9107 126.516 2.73306
7.96082 151.537 -4.46662
21.5214 92.3101 12.0283
19.5787 131.443 -1.58006
-23.7581 118.011 10.0058
15.2912 120.437 -7.92457
3.54639 130.519 -2.90143
16.1817 107.843 5.14768
0.931738 141.202 3.20264
15.8744 82.8977 7.3536
-2.20629 123.371 -3.57109
27.0753 96.0621 0.563104
-4.0368 122.886 9.20288
17.3483 138.641 5.39327
-10.4264 125.534 5.09443
-18.4135 133.91 1.6
13.4947 129.609 -8.89845
13.541 131.075 2.1963
31.6674 102.58 7.27188
-16.7874 103.011 -0.111616
-10.8127 105.903 6.6574
4.03675 128.595 -3.75461
-14.2345 129.33 -4.27254
-14.2207 116.73 5.0409
6.91073 90.0658 -4.65956
11.1329 138.151 -8.19193
22.5488 106.872 11.2218
26.2375 84.1891 3.3512
10.2927 145.728 -6.94199
-2.07241 110.774 -6.80004
-17.2769 115.195 1.75282
22.5296 83.8778 2.17132
19.041 101.372 9.03634
-5.62104 133.137 4.00749
20.9427 100.743 11.8692
22.5519 107.523 -3.86691
14.1452 116.962 3.55338
9.83437 134.187 6.65851
16.4393 80.1172 6.87313
-7.10898 125.739 6.15397
-18.4416 111.039 -1.57198
-15.6197 116.888 3.42055
30.2397 87.003 4.38795
16.7732 131.097 3.29835
12.0861 86.324 -3.26641
-7.65697 105.969 -8.11401
18.3244 135.86 6.39829
-14.5115 125.349 -5.30189
9.98892 87.269 8.02262
16.0174 124.928 -5.48023
14.6993 110.539 4.32719
9.34107 124.426 -4.13475
36.6946 84.9856 12.0903
-8.13473 136.161 6.6994
19.4202 144.265 3.17501
24.1409 79.3736 9.88182
21.7953 130.124 -6.86552
29.9507 130.611 -0.700016
0.817743 90.3733 -3.31306
-19.0613 134.124 4.65956
13.4228 150.957 -1.03048
20.6956 121.735 -2.89568
16.936 130.938 -5.42917
6.33283 132.573 -3.76865
-9.78691 144.981 6.13207
15.8728 81.3703 6.73204
27.4902 101.3 0.423455
11.9517 130.989 -8.1825
-12.1464 128.24 -8.21303
-15.6369 139.919 8.80105
24.662 119.999 10.1833
4.45048 116.444 -7.08825
-11.1219 147.968 -1.60604
1.77641 99.1659 -5.68935
23.9119 141.659 -5.46178
27.9596 112.484 3.1507
13.8746 134.122 2.13189
-7.09393 122.135 9.24481
7.46513 135.987 5.19678
-11.5081 126.501 -7.04621
-12.6595 145.803 6.07036
-4.76064 99.4009 8.59716
-22.1382 118.599 2.4603
20.5773 78.459 4.18837
4.8111 115.558 -6.81946
-4.07422 98.8214 -5.41927
27.607 101.305 12.9626
23.0553 115.151 11.6814
12.1972 139.048 1.98091
-6.29245 117.272 9.53595
-4.275 135.845 -4.15017
0.823173 110.792 8.47161
21.733 99.422 12.4034
15.7864 128.537 -4.65389
-12.2192 97.6258 4.58138
12.1373 125.037 -7.79649
28.3026 111.874 3.73966
-16.6512 126.485 -2.16161
-1.25078 110.547 8.29147
-14.3619 110.345 2.46686
-11.8722 105.576 5.98179
22.2104 116.686 -0.595947
6.63696 122.906 -4.19417
6.38374 143.272 4.87283
30.5532 107.832 7.35297
22.1271 80.5087 9.64842
-19.9782 129.905 9.65473
14.8149 77.8279 2.3462
-3.23256 121.463 8.79214
27.9547 111.774 3.0416
-7.91358 129.9 5.7438
-3.65754 127.822 6.29947
36.5857 84.534 9.58564
4.91294 140.13 4.69821
2.92771 97.0866 -4.88915
24.5114 129.651 2.08138
-0.357729 99.8294 -6.46897
26.3634 107.302 0.543305
21.112 115.405 -3.63603
-0.0779621 112.444 -7.91794
19.6661 102.917 -5.70005
20.4096 79.123 3.6139
14.7036 99.165 6.3048
26.4258 142.008 -3.35509
29.0363 103.831 2.21225
-3.06631 117.537 8.91613
27.4347 131.053 -8.17663
22.9974 138.032 2.05529
-7.25321 92.2604 4.2596
24.4486 122.746 4.28899
16.5242 134.492 -7.65179
20.0695 82.401 9.33161
-2.54631 106.217 -8.20187
-16.991 122.674 10.4377
-7.82838 106.555 -7.77738
18.9392 111.034 7.02849
22.4714 112.907 -3.64762
-18.9572 112.291 -2.93873
-15.4229 120.414 -0.614258
22.9155 123.059 -4.17096
29.0993 104.381 2.29154
14.2807 152.244 0.776375
32.0958 100.974 6.23043
28.1736 116.127 3.80209
-6.55929 144.668 3.13951
-5.50253 100.466 -6.06963
14.9142 147.315 2.26068
-9.4602 132.769 -6.91111
-21.359 125.687 10.2801
23.8341 110.624 -1.79415
-8.45435 116.728 9.73801
-14.8442 116.131 -7.4888
19.2052 137.281 -7.73929
21.2368 123.691 -5.49307
-4.52716 110.935 -6.49149
16.3635 127.731 -6.14113
14.335 134.269 1.79868
19.0773 101.01 -4.88447
3.23452 93.7622 8.65699
15.6719 100.942 6.36796
-3.31461 124.864 8.51451
-0.00963676 84.4961 5.0176
6.20412 117.437 9.53841
-14.945 105.214 2.29745
-12.335 118.649 7.00503
33.127 96.7108 6.62545
-12.7787 104.844 5.22023
18.6169 104.698 7.33732
11.9643 112.475 4.82887
3.79598 135.365 5.54756
21.3337 79.4421 3.88777
28.033 138.378 -4.17904
17.1925 134.716 5.46959
21.64 144.671 2.2165
-20.9856 121.923 11.5676
21.8501 81.4166 3.13992
3.07565 110.459 8.91602
0.707414 92.0906 -3.73262
17.328 98.8141 -4.95981
27.1892 82.3887 5.18336
20.6376 135.667 5.05217
-9.97128 127.059 4.937
13.5381 90.3969 9.18608
18.4865 122.411 6.37675
3.33229 142.596 5.43977
13.8537 95.2096 7.04101
31.5167 126.096 -3.57008
19.1784 148.555 1.16786
16.4189 82.7484 -0.399937
16.8421 96.3016 8.50964
-17.0836 129.243 -1.62468
16.2747 104.37 5.64996
0.0918012 105.648 7.83867
2.17009 118.143 -7.29365
16.3228 148.041 -1.44973
-0.905782 147.89 -2.16734
-17.5652 126.744 -1.57542
10.8664 114.08 6.32735
25.6575 105.614 -0.116689
20.7404 112.185 9.03876
10.1081 132.958 -6.88613
-8.35221 121.432 9.02731
-15.1382 123.068 -5.10738
6.32135 109.102 -8.5963
36.5571 85.4784 11.3074
-7.06619 104.321 8.93512
10.721 118.969 6.66654
-8.98682 90.0853 3.13548
-18.645 111.326 -2.17994
19.7975 97.5199 11.9509
-7.24497 126.643 -5.78723
-20.5058 130.678 9.43707
10.2177 124.539 -6.11993
5.64416 102.16 8.54978
-18.1252 113.964 -3.67734
-11.7198 108.317 6.15786
-19.9335 124.168 -0.416002
22.6295 125.843 8.56377
18.0139 135.064 -7.87149
7.14112 125.758 -3.3285
27.3281 112.966 9.98334
-11.7542 129.26 -6.91596
4.99487 106.048 -8.84466
21.1483 110.684 -5.32532
0.128548 121.588 -5.0771
18.723 146.444 -3.45579
18.9233 126.01 7.80466
20.6736 130.486 0.666727
-3.10721 87.8341 4.44479
-6.44661 130.583 -5.72915
18.7529 117.356 -4.17974
15.8803 144.25 -3.12928
-19.2299 120.155 -1.4524
13.8841 79.0941 5.80374
22.3726 90.5673 11.4925
-20.1736 118.163 -0.466604
13.7979 127.484 2.94538
-17.3271 120.294 -0.625518
-16.4625 121.56 8.44475
-22.0903 118.711 11.3916
14.9726 92.7904 -4.48638
-16.2988 124.744 8.75966
2.94518 117.314 -7.42543
8.04721 96.1313 -6.4844
26.7575 101.679 12.8774
-18.6589 119.738 5.29479
12.9403 97.8813 -6.81362
17.5351 127.384 -6.95089
-13.7573 136.099 -3.44066
32.2842 84.3492 13.8192
-21.1544 126.524 0.217792
15.3881 131.126 -4.33637
16.6301 123.948 -4.65688
-4.19343 123.04 9.21595
15.1343 84.0251 7.63497
-22.2246 124.91 5.20324
10.3081 108.123 6.98476
-17.1781 109.059 0.0953854
3.81204 80.5155 4.55792
-10.1863 141.994 8.17541
13.1911 91.8734 7.5544
5.958 88.2516 -4.40644
-0.172139 132.78 5.07839
25.9637 120.211 8.7005
24.2797 121.586 4.18773
5.59067 141.317 -5.38358
1.70076 153.194 -2.73022
-19.7078 119.323 10.5069
5.06806 82.8024 6.29338
-17.6958 123.979 -2.28543
8.06686 129.718 7.68806
24.7129 90.3483 -0.34529
-15.0718 120.91 0.768698
27.9916 99.5048 0.579128
10.6415 116.643 6.66097
-9.248 102.753 7.58727
15.0304 85.9726 8.44348
-16.4499 126.422 -2.28192
16.0309 95.8926 7.99261
11.7483 118.255 4.59819
8.74417 145.678 2.20633
-10.0963 126.886 -7.73298
9.47583 141.214 -7.55198
36.3654 81.8089 11.8065
11.089 96.0358 6.10888
9.95199 113.412 -5.83148
3.25259 115.483 -7.91531
13.0475 122.615 3.04247
-12.6668 142.764 1.35046
21.3787 148.114 -0.383745
-23.212 118.08 10.1447
10.9195 118.962 6.28643
3.57318 114.245 9.79077
17.0374 109.126 5.41131
-11.1384 113.426 5.5008
4.82088 89.8275 7.70613
11.4326 88.7582 7.93047
-0.757659 99.9647 7.96352
-7.04137 137.164 4.87836
18.7188 135.173 6.18581
24.1342 117.875 1.19694
7.59077 149.415 -5.21948
15.5583 125.384 2.76988
1.26354 117.747 -7.1473
-15.2427 114.362 -7.77325
-17.8803 136.25 5.38852
-15.7377 120.176 1.63563
-0.02789 134.439 4.39352
20.673 97.7312 12.3692
27.0986 95.6045 13.0339
21.2153 123.997 -8.97981
33.8531 86.4842 13.9775
19.8279 111.101 -6.34729
0.926407 123.067 -4.69039
-16.8464 102.848 -0.625256
-20.6475 125.638 10.5742
-15.9275 121.13 0.803396
12.676 134.955 -8.35193
29.9556 128.645 -2.61938
17.9031 135.946 -7.07289
-8.84612 113.988 -7.33138
17.1417 90.5576 -2.96074
-6.55679 145.468 -4.97207
14.0109 129.553 2.13871
16.7475 101.045 -6.12925
7.13093 111.643 9.37615
-8.9693 108.435 -7.70152
11.5322 113.56 4.9683
-21.409 127.581 8.50085
15.1726 94.101 8.15244
10.2672 140.42 2.55477
15.8267 86.9926 -2.37226
-7.41307 144.502 4.05418
22.8563 137.245 -7.1884
19.5113 112.091 7.65215
-22.546 121.283 3.56377
11.4095 149.716 1.39193
-10.8481 131.821 -6.08548
-9.0215 137.143 -5.93716
23.8611 134.4 2.76611
5.6359 140.822 -5.37042
7.32175 144.531 3.9623
17.3003 93.1217 10.3188
21.7195 126.952 -1.92626
-12.9229 140.88 -2.52866
8.48713 147.106 -6.35178
19.7073 116.256 -3.74494
9.30724 145.06 -7.11618
-6.543 94.2285 5.54284
-2.28736 120.328 8.66008
1.4529 131.875 5.26952
21.3799 132.433 4.91934
4.05556 150.292 -3.99444
18.2567 89.7727 -2.24868
16.2419 138.469 2.80716
32.9891 91.7522 12.9644
2.07521 94.274 8.54723
-0.653811 124.816 -3.9612
12.2195 128.029 5.14529
0.787961 128.843 6.18628
-9.55443 140.932 -4.8556
12.4831 113.41 -6.74262
32.6448 93.9093 12.9027
-4.00599 139.901 -3.81199
-4.9495 101.169 -6.18526
6.93078 129.163 -3.38533
21.9154 90.4421 11.5349
12.0993 129.861 4.48716
20.3003 124.99 9.56653
-12.7613 134.06 -3.5989
-2.60699 90.1341 5.7913
17.0367 83.6713 8.59755
18.1003 86.5377 -1.54013
-2.32154 98.5177 8.42708
-19.089 117.596 -0.636366
5.72139 77.5133 3.40736
-10.1189 148.539 -2.70632
8.06506 135.009 -6.35691
22.1027 136.146 -7.349
-4.15589 91.3532 5.28065
26.7774 102.822 0.506044
-7.02558 139.018 4.52565
6.44081 154.857 -0.666465
12.7913 151.577 -1.19227
28.5929 128.975 -7.09672
-10.2475 131.654 -7.0949
11.4368 116.856 5.18641
-17.438 120.009 -2.99929
21.6146 136.892 3.38512
-8.54344 131.657 6.24117
15.0454 142.004 -4.63959
3.59212 119.495 8.29572
17.5102 94.6226 -4.06699
-20.2164 122.725 0.487151
1.16371 146.873 -2.81317
30.8069 94.8354 13.2695
-2.71518 134.24 4.03914
-10.254 98.6607 6.13508
-12.7478 144.99 6.6922
21.4632 104.117 11.1245
24.107 128.348 2.91784
23.1219 127.452 0.692679
29.8118 79.5642 13.4787
-0.281325 134.442 4.31705
-10.6549 115.674 -8.06171
22.4122 114.227 -3.51952
4.4931 100.678 -6.5499
28.5474 90.3859 2.037
-12.6728 141.08 -2.76119
-11.2447 96.7975 5.11663
9.45068 104.524 -8.33142
-1.42121 108.65 -7.61363
24.1282 105.403 -1.22544
-7.35835 126.338 -5.95199
8.69724 97.5539 6.9809
19.987 141.682 -5.93887
15.6954 145.438 -3.41604
15.5471 140.247 -4.13098
-15.6545 124.721 -2.38302
16.3223 107.55 -5.82411
-4.71713 126.141 7.04356
-3.79919 106.196 8.69228
18.3715 130.815 -3.4997
16.8361 83.3766 8.33039
24.4215 104.19 -1.08541
-8.13474 143.854 5.01454
31.0762 83.883 13.3736
-17.445 117.997 1.49694
14.1205 136.321 1.4182
5.17278 144.221 -5.16742
21.6164 111.589 -3.99659
-15.1763 125.521 -1.30673
-6.82436 109.668 9.25878
-3.44669 116.486 -4.9153
22.27 115.051 -3.15146
-21.1576 120.315 6.18074
17.0881 114.715 4.68968
-17.0163 115.996 2.75755
15.8761 122.574 3.19244
28.5614 112.2 8.91318
22.569 131.084 2.93247
24.8167 100.315 -2.04144
24.0634 130.31 -0.119694
-3.73058 133.152 4.0149
-10.6496 118.849 8.25754
-12.4766 146.153 2.58715
9.11429 129.218 -6.38502
6.20916 97.9477 8.34511
8.95577 89.1637 7.14099
-12.1021 127.605 8.47204
5.45523 83.0473 6.38923
-8.02628 127.224 -6.17746
23.6028 132.621 -7.554
24.8518 128.708 -8.92921
25.8835 121.688 7.02294
29.1428 92.9384 2.05965
5.63338 86.0424 6.75008
-17.1968 119.856 -3.25719
-16.0663 121.581 -5.09061
-7.50891 106.516 -7.6424
-9.61555 131.733 7.60718
27.9554 132.42 1.17783
17.3521 129.312 -6.47797
21.3434 101.627 -4.75936
-15.2561 123.841 -5.49054
-0.209588 96.7204 -4.42264
4.68039 151.63 -3.7562
-4.70354 139.711 2.77444
-7.15304 124.108 -5.71333
-16.6768 120.489 -2.15006
3.03842 115.374 -7.95269
2.48521 131.416 -2.76543
16.351 121.929 -7.35693
19.4043 129.838 -3.93557
32.3719 95.3976 12.5584
16.398 150.471 1.37655
-17.6118 112.627 0.532182
16.0415 122.84 3.29938
28.5965 130.978 -6.92478
-20.4583 119.061 4.0892
-7.97615 148.837 -3.84319
18.6168 129.052 8.12773
3.04313 120.435 -6.57624
10.3743 92.8543 -6.07538
2.61344 121.328 -6.31222
-3.17865 114.962 8.73035
9.86283 114.833 7.98473
17.3083 121.797 -4.41807
-12.7615 120.779 -7.13048
19.7813 82.163 1.41
4.69542 125.369 -4.45927
-19.3656 132.587 6.6067
4.97343 142.619 7.00777
7.30647 119.318 9.06437
22.5774 97.9166 -3.1893
9.94104 126.824 -6.47198
-6.11478 120.023 -5.13714
-7.09416 109.341 -7.83262
24.4755 82.763 11.0211
-7.11912 149.812 -3.52321
-6.68541 117.429 -6.15155
17.6357 124.854 4.37042
-6.62019 142.568 3.52752
-20.1212 120.424 12.0438
-12.0801 130.291 7.26934
-3.90918 126.091 7.10327
-16.5824 120.383 -0.761914
3.63186 89.127 8.1509
29.2873 132.025 0.682709
-7.7647 93.3949 4.48314
15.5951 124.293 -7.76144
22.8235 89.0979 11.1786
10.3646 122.892 6.64579
19.3528 112.843 -6.44939
-4.7941 105.269 -8.42112
26.0409 135.011 0.935522
28.7932 91.735 12.3752
12.5069 112.872 -6.62434
-8.26242 119.558 9.36847
28.0083 130.849 -4.13933
10.4056 121.428 6.84367
22.1027 123.27 -2.90672
-15.0134 118.863 4.75584
-15.434 103.231 1.94029
6.05211 106.231 -8.68662
-4.10736 112.784 -5.82464
-12.2983 101.293 5.32616
6.613 106.19 8.68806
-7.84546 105.972 -8.20785
-15.3023 122.726 4.98233
-17.4157 121.557 7.53814
22.0789 142.959 2.02416
-7.38024 137.568 4.98553
-6.84054 113.534 9.5466
-2.25631 86.0242 4.172
31.8946 91.0748 4.02858
14.6673 149.422 -2.64489
3.61139 94.1978 8.64867
19.6705 124.604 -4.91156
3.51183 97.9484 -5.16838
23.9546 122.976 -1.434
30.5187 103.641 4.12233
18.9854 142.557 3.93489
15.9308 88.5839 9.90664
-22.0251 118.858 5.44914
-20.0818 131.295 7.47802
4.76375 115.235 9.89468
14.8096 144.485 -4.60355
7.90755 134.596 6.48086
-2.38379 119.271 8.79054
24.9946 127.085 0.723172
33.4901 95.354 8.29062
-4.17013 114.002 -5.51779
3.78724 126.014 6.75397
17.7561 132.097 4.89165
15.6934 124.865 -7.87406
7.89597 147.135 2.58183
-8.91298 97.7856 6.49374
-6.55264 132.281 5.0185
15.8082 137.599 -7.85047
-13.3905 107.872 2.51102
-6.77196 146.99 3.30045
3.82626 117.568 -7.23302
14.0214 138.552 -8.07529
-1.34355 89.9009 6.74156
-17.5972 120.699 5.1858
-8.15233 140.544 -6.0224
-14.7965 118.554 4.92818
27.7155 136.481 -6.77889
2.85726 134.138 5.00445
11.9415 75.269 5.72012
29.9926 130.568 0.0478583
12.9317 139.195 -8.32908
26.9485 101.545 0.0432343
-17.0872 121.68 2.32053
24.2161 121.316 3.17756
24.6452 128.904 -8.16029
-22.0688 124.991 6.76571
-16.1222 121.811 7.38026
-6.53666 114.469 -6.40782
5.78088 138.195 -4.891
-2.30465 100.786 -6.52298
-12.2243 127.009 7.81578
24.362 103.826 -1.18618
29.9868 94.4582 2.50771
23.7068 127.299 0.563951
12.132 76.7248 5.52365
29.2581 109.059 4.01243
23.6553 115.362 -1.1108
8.06424 130.236 -5.28746
16.8168 81.2343 0.574532
20.165 146.06 -4.73824
4.91557 87.4649 -4.32504
19.416 124.634 -4.71795
-22.9546 118.116 9.84357
18.5516 137.161 -7.7046
3.7858 98.814 8.74771
-5.62565 97.1596 7.65046
-15.0871 120.874 -4.15845
-0.154014 114.538 -7.28022
-18.0988 130.214 -0.380051
19.9992 125.136 9.43658
25.2286 118.809 9.93483
28.9519 88.9 2.56402
-15.1972 128.244 -2.27016
-8.17988 115.706 -6.92059
-7.22322 131.271 -6.33838
-22.6135 122.924 8.86584
18.0611 150.609 -0.479264
26.7739 80.1789 7.66857
-4.63624 105.744 8.91744
0.912568 136.268 -1.94272
15.7347 122.285 -7.51008
-2.61372 137.502 -3.23928
-11.5348 142.674 -3.56276
15.9336 130.359 -2.96226
-9.77031 97.3491 5.88573
3.09647 121.321 8.20724
4.59869 89.9997 -4.23292
-11.2909 147.153 -1.85723
5.54054 102.882 8.43206
11.3645 79.0984 5.30376
-8.9692 127.977 -6.95306
-12.1159 117.11 7.48451
15.7361 136.629 -8.28826
-10.1644 145.237 6.37386
-4.83901 136.914 -4.60586
-7.18552 117.056 10.2056
-17.7257 116.388 -4.86018
-0.114876 138.243 -1.96012
3.50983 97.507 -5.07568
15.9585 100.979 -6.57775
-12.8869 110.672 -8.5545
19.6155 117.87 8.19452
0.851864 143.457 -2.35604
10.7586 91.4202 6.77728
14.2728 132.214 -8.84173
32.506 97.0177 11.3987
29.374 92.6618 2.1644
13.6952 88.0158 -3.50358
36.0873 85.793 8.90755
16.8761 120.029 4.09243
17.6735 134.828 -5.79836
11.4532 118.3 5.17612
9.20191 95.1466 -6.52314
18.5697 142.403 4.30584
-1.087 130.451 -2.66435
21.3829 147.27 0.574376
10.0581 121.822 7.3204
8.10815 116.545 8.95104
31.1959 84.9364 13.1194
26.7863 109.19 2.00347
3.68603 142.583 6.79901
27.7117 136.789 -3.52832
-22.1078 124.111 9.0768
23.9015 144.859 -1.45885
17.1142 103.901 -6.47973
10.0985 116.423 7.79977
14.7898 83.7984 7.25293
17.691 141.278 -5.66693
-0.699648 98.8365 8.131
3.65778 141.194 4.4856
22.9672 123.717 -2.87064
-5.1224 153.001 -1.94593
17.5914 82.8887 0.0413
6.38218 145.976 -5.594
-19.1026 129.114 9.38569
13.518 80.8415 -0.492359
3.07096 100.216 8.31396
16.2157 130.366 2.80883
-3.86751 96.354 -4.52679
21.2096 94.9284 12.5916
-1.2927 114.661 -6.09665
-9.31187 129.803 -8.04591
9.43252 112.141 -5.8153
18.6492 110.484 6.69851
-17.4763 114.298 -1.20084
24.054 132.928 -7.62198
17.372 87.8405 -2.05136
-17.5849 115.542 -2.8316
-17.976 135.861 4.30693
13.4156 96.1514 -5.99335
20.8507 119.578 10.1128
4.62303 88.0393 -4.33482
-12.6069 124.207 8.14349
25.2245 126.834 0.00961714
25.3101 132.398 -7.28165
8.70742 141.513 4.71355
17.6125 131.918 -3.00653
16.92 118.076 4.14963
2.91878 103.621 8.0685
1.17123 132.364 5.16858
-15.3548 123.455 -5.38722
20.4623 80.0404 3.15892
20.2303 144.015 -4.99622
-6.92689 123.961 -5.65222
-14.7896 119.048 -7.08386
24.5593 101.938 12.653
-5.1349 144.742 -4.07416
9.632 150.546 -5.29333
10.1619 106.293 -7.05797
36.6456 83.2165 12.3878
24.9227 126.446 0.426474
18.5269 99.545 -4.56195
14.3811 152.01 1.11296
-0.0168267 87.5525 6.51635
2.67332 125.711 -4.87034
20.5998 139.5 3.95599
-18.2948 136.301 8.54491
20.5429 95.4605 -3.25868
-20.7693 122.531 1.42816
-13.0813 145.227 6.46111
19.297 116.304 -5.46624
-2.04559 137.14 3.43554
-14.9557 129.209 -1.94252
20.8481 108.419 8.73773
-22.8912 122.684 4.02536
25.2717 122.337 7.33525
19.7861 103.71 9.0071
-19.48 132.761 0.887845
28.5219 101.695 12.8929
6.82374 78.76 4.19834
2.73711 129.955 6.62388
29.4714 92.7205 2.20009
-17.7688 126.961 -1.67345
17.1173 106.053 -6.38029
21.2808 115.149 9.57673
-4.43898 97.2697 -4.85495
16.5437 131.411 -2.28778
0.903307 93.42 -3.87483
7.66424 106.792 -8.62374
-18.2333 122.215 -2.04515
2.89719 96.8633 -4.83725
26.5679 92.428 0.575387
28.0413 108.246 2.63422
27.8393 84.0476 4.09926
19.8466 112.76 7.92158
28.4068 124.255 -2.75231
-19.0132 116.986 -1.03469
17.1122 130.73 3.72285
0.878334 127.52 -3.74864
24.9481 117.388 10.6189
17.2738 87.59 10.4619
-17.5235 113.955 0.725506
20.4919 123.934 -4.22598
0.494955 129.112 -3.3454
6.69582 95.3037 7.88498
28.9867 101.888 12.721
7.89699 127.541 -3.4826
-20.531 128.591 3.99307
33.5753 82.0852 8.25413
13.2489 110.229 -5.79786
15.9906 115.869 3.99201
24.8688 114.063 -1.94489
10.1608 81.6191 -2.1936
4.4564 151.394 -3.82762
23.5246 126.106 -8.04829
23.9493 83.1641 2.83131
-2.93681 94.2269 7.579
19.5659 80.4966 8.28398
23.0746 119.959 11.0331
-12.2384 139.336 8.86335
19.2937 142.509 -5.71038
-7.91231 106.849 -7.6076
30.3009 105.965 10.0024
13.2726 129.791 -8.79211
22.0942 119.553 -1.74096
-7.0856 150.83 1.71844
6.08503 137.728 5.02668
-12.5816 117.419 -7.58224
24.6461 124.329 -0.105199
11.5416 120.124 5.05326
29.2391 131.71 0.678493
-2.70117 92.8103 7.37087
16.909 98.5053 7.82824
-8.25101 136.254 -6.66693
13.6355 81.3789 -0.863441
7.97573 135.277 5.67118
24.4291 134.128 2.7101
-13.8553 107.311 2.35774
31.3249 102.705 6.33615
27.1706 129.402 1.36598
-2.04801 99.1919 -6.09127
-4.77362 126.772 -4.25096
37.3944 84.3802 11.6453
16.4941 127.728 -5.85915
18.7159 124.702 -4.13551
19.6122 129.867 0.552474
8.69214 124.415 -3.66268
20.0877 128.212 1.06922
26.9537 104.763 0.614411
-14.4003 131.148 7.88606
27.7039 117.924 5.84162
12.9898 80.4139 5.97706
24.0562 138.409 -6.40023
4.71504 111.036 -8.48832
2.62799 87.1004 7.12691
17.2168 85.2682 -1.45482
21.678 120.796 10.6121
5.33204 125.774 -3.96957
-20.1041 126.368 -1.29255
-0.267024 105.419 -8.98057
-22.3024 123.885 7.96492
16.4633 126.679 3.18251
0.133259 99.2375 -5.86541
-19.9543 119.978 9.57209
-15.7096 128.279 8.371
0.548258 128.723 6.09163
4.78884 151.151 -3.97993
8.21666 84.357 6.46549
15.3537 80.7062 0.453938
-6.91078 122.103 9.55016
14.2599 136.693 -8.99091
18.6213 141.07 -6.44932
16.5062 100.66 6.63841
-14.8533 132.575 -1.28659
1.92314 109.694 -8.21276
16.9934 86.0017 -1.71366
-17.3707 116.915 -6.35385
13.8899 143.437 -6.83973
-2.65233 91.4406 6.75997
34.4461 91.0123 9.5149
-10.9745 113.861 5.69064
28.7471 109.735 10.3972
-9.22417 121.094 9.33074
-1.87236 131.783 4.78462
3.11398 79.7178 3.84446
-1.9329 106.281 8.0078
23.9087 145.694 -2.52603
8.94385 107.359 -7.29494
15.507 132.726 -3.86635
-10.0814 143.939 -4.33248
-1.44866 94.8734 -3.94101
20.6842 126.895 -8.45209
-4.81303 132.026 4.40661
15.9054 126.493 -5.76773
5.97759 95.958 -5.79927
-15.9869 117.225 -2.38894
-15.6855 124.047 -2.20414
16.3013 132.668 -2.4798
8.8844 101.504 7.92946
2.90311 131.108 -2.79137
33.9358 88.7735 5.4489
14.301 124.099 -7.86247
-16.7923 102.739 0.265638
21.7201 100.584 12.3888
9.8581 115.95 8.01178
24.4225 119.32 0.17038
20.6272 117.692 -1.32125
27.8463 109.879 3.26373
-8.47737 144.97 -4.95379
28.928 86.5989 12.7779
9.24388 132.722 -6.16131
15.4218 141.271 -5.09815
12.0042 114.285 -6.67784
13.9194 81.9497 -1.17988
-4.62803 110.028 -6.78091
8.62654 107.327 -7.65094
11.3556 104.475 -7.61903
33.0356 97.9714 7.42655
-14.6669 125.557 -1.7902
14.4323 106.1 -5.90309
29.3295 80.9875 8.5337
21.8565 139.171 3.00577
16.231 83.1001 -0.768966
-4.84746 122.014 -4.89347
9.43914 104.047 8.3592
20.8003 100.219 11.974
18.7111 89.1636 11.4597
20.8339 124.239 -2.72292
-17.53 137.355 5.48962
-18.4126 120.581 5.90087
29.1211 131.426 -0.42974
16.048 124.558 3.14209
21.1234 140.36 3.527
11.4178 97.182 5.92866
16.7833 96.3097 8.44373
15.1289 146.094 -4.14054
-12.5877 97.8735 4.37709
-15.641 121.45 4.9433
-15.9724 120.697 -0.683887
8.41348 84.0738 -3.57758
15.8277 129.654 -3.30612
4.22508 141.272 -3.9435
-5.14928 150.809 -2.68264
2.06623 135.436 -1.975
-1.22425 82.8782 4.12782
-1.77327 113.026 -6.16553
3.93924 100.775 -6.77914
11.3191 143.029 1.40073
-6.13954 134.705 4.3633
8.58044 152.333 -3.72314
-17.7985 116.23 -5.85553
-15.769 140.588 7.99803
-9.65409 113.96 8.79056
20.6501 141.654 -6.00758
11.3838 132.816 4.16233
-5.78212 103.297 -7.91506
-14.0032 129.45 8.37699
23.6027 119.62 -0.723126
17.8588 113.685 5.36758
7.88224 97.182 -6.55193
17.263 130.094 3.87583
-10.1919 110.418 7.42944
28.1179 129.965 -7.77771
12.7115 153.365 -0.45281
24.1973 93.2221 -1.21177
-5.97077 152.91 -1.56978
28.3514 123.433 -3.50944
-2.28292 99.924 -6.29141
20.6007 132.504 5.52186
16.4218 136.417 2.97525
16.6739 134.423 -7.60927
-15.6092 125.943 -1.65787
24.0353 116.5 11.648
-15.2604 101.509 2.15916
-17.3959 130.153 8.76606
12.4705 140.39 -8.36735
10.4667 140.564 2.47008
27.8593 115.403 8.30947
19.4372 130.189 8.24767
-16.8075 119.554 1.11004
-7.95386 148.981 -3.79747
10.8231 109.667 6.25754
-18.8608 119.841 6.84279
-6.44936 95.3322 6.38282
-17.6008 119.983 3.33862
11.2411 105.81 6.24007
17.5799 106.342 6.19004
9.94642 134.968 -6.74587
-5.82804 126.883 7.13337
25.472 110.664 0.148154
-15.0009 122.761 -6.67583
24.3703 136.493 1.49717
-14.4993 136.542 9.51367
18.9325 115.231 -6.57752
19.5197 142.187 3.84377
22.2986 128.073 0.397348
-21.5985 126.256 9.42214
-16.2388 137.95 1.91261
-18.8708 132.021 -0.0642221
-13.0682 124.389 6.5783
14.9405 100.153 -6.58435
27.6531 91.2217 12.1227
23.5607 97.804 -2.66362
7.9206 92.7058 7.45422
-16.9795 122.431 7.52239
16.4323 130.839 -1.82258
-10.4955 145.997 -3.44183
33.029 84.9982 5.66023
16.0956 131.757 -6.07228
-14.2297 123.718 6.57804
22.4385 107.972 10.2532
-20.642 127.024 -0.384264
-11.8533 130.484 -5.47497
5.91697 144.994 -5.47852
-0.811241 98.9731 -5.73471
-14.4874 116.265 -7.44798
31.7764 90.6653 3.91951
25.6452 86.6361 2.18929
-13.7042 134.557 -1.60383
28.8838 114.723 6.5935
-2.30011 94.4535 -3.91681
27.6562 135.249 -4.46616
3.62098 127.292 6.74796
-16.6528 119.315 -2.17897
16.1639 85.5169 8.97799
15.6026 140.526 -3.69464
-14.4178 133.587 8.90755
17.9324 124.9 -4.97917
7.54507 155.105 1.45677
10.1136 83.8065 6.18657
3.33952 100.392 -6.73367
5.62128 142.945 6.66155
26.6018 111.093 1.27585
-8.27305 141.318 5.40703
-22.3166 120.758 6.31094
16.744 128.911 -5.99434
30.3362 101.057 11.9881
8.66292 149.791 2.10667
5.17914 117.3 9.31816
33.5075 90.8919 12.8841
12.4533 77.2527 2.28488
24.8913 124.8 0.397908
15.655 139.231 -6.5883
17.9763 119.206 5.39477
21.4662 120.882 -2.4043
18.1404 124.431 -6.51642
26.4272 128.388 1.11558
19.9179 131.026 -0.155999
-16.4219 126.373 -2.24108
21.7192 124.902 -1.46357
21.382 142.409 -5.85523
25.0889 124.35 -0.315616
14.5709 91.4178 9.41132
-15.5639 119.847 -0.362141
28.6699 95.8584 12.8825
-3.25002 107.403 -7.25293
-10.804 119.176 8.10602
28.7365 96.2943 1.87514
-18.0227 133.344 -0.0122368
-11.7427 93.3328 3.36182
-6.9031 142.501 -5.40757
26.8474 109.975 11.6945
16.6633 80.8549 0.790121
16.0256 133.927 2.54636
33.3875 94.1581 6.36878
24.3111 143.006 -4.70486
-13.1679 136.524 -1.74173
31.9654 100.645 8.83132
21.8687 79.0664 4.49217
8.54551 94.058 -6.17378
-16.161 119.999 0.562334
8.19919 141.21 -7.06709
-13.2705 109.984 2.66464
23.6134 129.211 -0.102168
25.309 116.027 11.1643
29.238 106.923 11.2275
19.4123 112.833 -6.45071
5.24498 94.4237 -5.17779
-13.4338 114.418 4.71278
18.2024 134.451 -5.9891
-1.25319 139.003 -2.17967
18.8227 126.344 7.2803
0.845052 137.444 -1.96217
1.21388 101.125 7.92897
1.96893 141.709 3.72298
-5.74639 135.313 3.83207
21.543 106.054 -5.01677
-5.19914 145.257 -4.08315
4.32465 125.374 6.91749
-2.85194 112.549 -5.86061
-0.482308 105.809 7.88899
0.0960188 103.911 -8.66489
-10.3921 116.38 8.23956
19.9343 95.4538 12.1734
-4.09411 117.918 -4.46088
3.6788 108.068 8.89457
-5.83287 110.943 8.8515
29.4142 88.8634 12.5734
-18.7307 120.565 7.1242
9.46135 122.176 8.17781
8.59044 125.966 8.26738
14.2263 116.547 -5.12391
14.7018 107.467 -5.69912
14.6976 138.358 -7.25869
27.4979 127.052 -7.8884
23.8133 95.9493 -1.84994
17.1165 142.636 -3.96606
-10.0674 120.244 -6.78889
4.38975 116.445 -7.17994
28.6519 130.895 -1.67779
9.06042 139.123 5.42869
11.0859 110.093 -5.90306
-6.45056 97.1271 7.41687
3.08252 133.774 -2.33638
13.3978 86.1144 7.63267
29.1643 131.914 0.269276
11.2761 154.108 0.352155
-22.8432 119.148 3.87459
22.7149 78.4256 9.24028
17.3623 135.226 -7.11094
16.3814 135.272 -5.30582
14.395 121.24 -7.70241
28.8726 94.346 1.94267
28.6275 125.76 -2.28066
-3.69405 145.65 -2.97436
25.1573 124.611 -0.0820379
1.01536 125.662 7.95622
-2.74372 122.497 9.15632
20.8734 149.15 -1.99862
17.3091 127.24 -3.97026
-14.992 135.831 -0.351762
21.5087 135.84 -7.41222
15.3853 132.812 -6.05128
-4.45621 85.6945 3.49514
8.2813 142.507 4.53747
-5.53408 142.816 -4.69049
31.5951 126.241 -2.26707
-5.22971 124.907 7.64333
22.9011 126.266 -8.08399
-18.4046 130.175 -0.168795
34.0461 89.6452 12.2643
-13.6261 143.86 3.99444
25.2685 127.052 2.7343
34.5381 87.8429 9.83918
28.2335 109.995 10.5626
15.2393 119.865 -7.58849
14.102 115.7 3.64681
-8.88343 100.754 7.43834
31.8465 85.2933 5.30687
24.7178 127.248 -9.31467
2.14959 90.6086 -3.82229
-11.5377 123.89 6.32518
22.0915 113.887 -3.70739
16.5039 102.142 -6.68122
29.2027 91.3144 12.6043
26.3938 126.785 -9.85684
12.7349 131.227 2.70147
14.1981 96.5668 6.75032
-4.91129 117.927 8.85284
19.3288 141.589 -6.13682
-1.80932 99.3346 8.179
3.43697 97.0436 -4.96638
-10.0009 134.938 -6.32749
20.569 134.198 5.11725
-15.5207 106.151 0.169911
-12.7958 119.072 6.37819
-1.77522 113.796 8.53066
-3.38374 108.486 8.70653
10.8109 140.351 2.50253
3.99326 95.336 -4.69856
20.5064 129.577 7.18755
-21.1897 122.01 2.03436
18.4209 127.037 -4.8025
-11.2455 139.889 8.69952
20.7604 124.812 -4.29528
-21.9312 123.159 2.69804
6.80737 134.247 -5.17885
-16.7206 119.898 4.25131
-17.4125 135.925 9.39196
-6.70486 90.6644 3.67714
32.9385 79.5984 14.2243
2.47441 99.4407 8.39345
7.85064 131.909 7.41533
-3.21857 113.012 -5.66528
22.753 128.116 0.135105
1.30203 124.822 -4.63214
36.5754 85.597 10.1748
9.6702 154.575 0.817114
32.3345 89.0599 4.27451
19.7226 146.762 1.87682
10.012 132.427 -6.77825
15.3706 96.7357 -5.12376
26.8669 119.619 7.42626
17.5313 130.034 -6.78
1.37177 136.205 -1.94583
29.3186 110.354 8.30009
6.35645 110.438 -7.73421
17.2889 93.526 -3.7079
14.5944 150.758 -0.664993
25.1433 120.338 3.41437
3.35946 120.975 8.19088
21.6684 99.7755 12.4769
17.0373 134.64 -5.48842
6.96657 144.039 -6.08155
18.1362 129.431 -4.85702
-20.2954 130.967 8.68435
-18.8776 111.096 -2.97693
16.1891 132.417 -2.50209
12.2973 129.174 4.20194
33.4749 93.9682 7.15012
0.916529 141.591 -2.30739
-5.20377 114.761 -5.68437
22.0697 108.63 -4.37514
4.89067 95.8791 -5.2487
-9.86786 118.892 8.50866
12.7463 127.792 4.11163
-7.53538 106.291 9.04177
-0.381693 121.056 -4.89804
6.76698 97.3212 7.85906
25.0454 92.8585 -0.646152
-18.3973 134.002 2.15696
27.7712 137.162 -1.30956
18.1674 123.813 5.83113
19.0419 128.092 7.44998
31.2034 91.3408 13.7021
27.4439 137.779 -2.19499
-14.1001 136.842 -0.314723
6.27791 91.2937 7.54349
-9.57619 97.5792 6.06201
4.15174 105.797 8.33621
28.8539 111.456 8.50197
16.4963 78.5341 6.94735
29.6327 88.7149 12.6451
-22.6788 118.071 9.19706
-9.33621 151.114 -0.830782
-12.9277 145.593 6.18962
-16.9814 126.706 8.50697
-7.15071 110.022 -7.9364
-3.84662 95.9746 7.86406
6.78091 141.068 6.47454
25.8399 102.289 -0.455767
12.0059 107.851 -6.04982
-12.3488 117.054 -7.61974
14.679 146.161 -4.63432
8.80407 154.454 0.193466
9.02279 98.8102 -7.21739
9.00607 101.956 -7.91892
25.7104 122.011 7.94687
18.5758 142.171 -6.03819
-2.21668 119.947 -4.30841
-12.9105 125.885 -6.66261
23.4824 126.473 0.677798
25.254 94.828 -0.638591
-16.3653 121.108 -1.98803
10.885 116.303 6.17906
18.5171 107.537 -6.21543
20.2874 140.131 4.03998
16.3081 92.8281 -3.85119
-8.47894 95.5987 5.48293
12.1627 132.571 -7.99731
-16.228 123.944 -3.27211
-14.7711 131.154 8.10216
20.5778 125.346 -2.679
-6.53003 134.578 4.69362
25.4072 134.151 2.2294
16.0244 91.7066 10.5023
35.2419 82.0197 8.64426
-4.2295 89.9024 4.56118
23.3433 93.0157 -1.71723
19.8438 125.453 -3.68982
16.8673 131.925 -7.08787
-11.594 121.691 7.82779
7.45174 86.5572 7.43028
20.0673 104.748 8.97131
20.0543 136.977 5.15349
-0.659449 104.181 -8.71989
-3.91682 121.88 -4.33157
-14.4051 123.145 6.98643
-17.2222 116.817 1.50737
-13.675 110.857 -8.54914
22.8298 134.687 2.81036
-5.02256 124.905 7.65408
-6.02879 142.944 2.93263
2.3137 125.834 -4.75112
14.2336 147.874 -3.75006
9.34464 140.771 3.39594
-19.0697 124.79 -1.74984
2.59128 113.348 9.49047
3.48051 108.585 8.9289
14.6551 133.386 1.49823
-4.73428 123.783 -4.63414
4.73656 120.09 8.07258
16.5993 139.219 4.11209
28.8998 114.549 5.6502
22.9638 127.625 0.387266
-11.4098 143.222 -3.44676
23.3106 89.9752 11.2549
16.2958 137.738 2.86852
-6.10858 148.022 -4.10374
14.0222 99.9185 -6.92376
21.4078 148.86 -2.06239
21.4206 78.4644 8.58005
25.0904 126.737 0.0304108
34.0636 86.0285 13.9303
-19.9855 121.793 -0.201344
10.8501 113.462 6.39999
23.9602 129.27 2.82691
-13.56 137.77 8.88134
15.7543 114.59 4.06987
17.651 148.818 2.38287
-2.07316 125.938 -3.26061
29.9027 90.7436 2.59012
-15.18 122.846 -2.76635
26.322 83.8457 11.8235
-0.756024 153.739 -2.17882
-3.70578 126.718 6.92982
-2.58154 142.766 2.49064
21.6123 123.515 -5.2062
-0.910836 151.379 -2.23519
-2.59221 99.2891 8.51033
-7.1026 124.33 8.48214
19.7049 118.784 8.45208
14.6249 150.032 -1.77436
2.24857 121.491 8.65183
20.7513 131.573 6.17068
15.404 79.1795 6.39572
19.2877 124.36 -3.85453
23.708 86.1782 10.9344
24.9846 122.417 -3.05989
19.106 126.174 8.44348
-16.5767 120.593 3.39992
-19.5605 120.257 12.1882
4.95526 95.5788 -5.23201
1.07718 114.547 9.51983
-12.2712 119.333 -7.52841
6.02825 137.104 -4.89752
22.6094 123.978 -9.04933
29.1719 111.288 4.88159
21.3179 112.286 9.63727
14.8162 142.445 -4.37961
23.0401 116.012 -0.677203
-16.3667 119.761 3.77196
-7.82862 121.428 -5.74334
-16.4244 139.586 3.47901
26.882 128.799 -10.7374
21.8362 78.4497 4.79452
15.2017 93.0269 8.55231
21.9403 131.313 5.38259
20.1595 94.2993 -3.20343
4.02741 143.231 -3.98692
28.0162 106.11 1.57202
-18.3261 136.428 8.14151
26.866 91.1199 11.9862
24.387 122.972 9.40923
8.3394 154.571 1.54293
5.78114 105.875 -8.5293
-0.808591 139.267 -1.99472
-11.9238 108.313 5.80035
17.8225 130.41 4.803
9.48408 140.725 2.81823
4.73435 113.228 -7.80132
5.20722 106.691 -9.04089
-10.0036 131.673 -7.33371
26.3543 113.25 0.378277
23.2736 122.338 -1.74499
-12.7727 94.4414 3.41563
21.2241 102.946 -4.97942
-14.5972 128.528 8.5407
-0.512925 146.953 -2.24437
-5.1343 106.674 9.07525
9.47962 111.567 8.15606
12.8563 141.465 1.75684
0.676721 105.616 7.86218
16.6068 113.656 4.49871
23.995 140.385 0.723785
-15.4239 134.757 -0.293573
-17.4772 115.377 1.4745
27.3422 105.661 0.945574
10.6098 134.988 4.89748
27.4175 138.555 -1.75249
27.1599 107.299 1.18691
-14.9064 129.994 -2.30708
8.77276 113.839 8.67141
-15.0523 114.834 4.0341
14.2977 130.264 -8.57375
12.6904 124.032 3.98348
28.8192 131.813 -0.750617
-7.04481 135.405 4.84105
19.396 97.8209 11.3825
7.37388 100.955 8.22172
4.85772 105.395 -8.60938
-16.0577 120.738 -1.51624
-6.35273 115.448 9.32767
-2.18985 129.694 6.21947
16.7133 130.201 -6.72139
15.9682 101.764 -6.79883
11.7042 135.848 2.34599
-3.50121 144.027 2.29895
1.00194 136.236 -1.94275
19.3713 124.973 -5.78061
-11.2079 139.599 8.6053
25.8695 87.5128 1.79978
34.3537 91.0868 10.8876
25.6417 100.4 12.9243
28.2484 131.138 -5.35995
-15.5505 120.938 0.520796
15.3774 123.401 2.95119
13.475 140.092 1.66743
-8.30853 97.6878 6.76219
-7.86567 143.036 -5.4604
28.1217 103.792 12.7174
3.08784 123.204 -5.89068
3.04418 104.649 -8.76183
9.94878 78.3225 0.678667
1.96274 108.827 8.69424
16.01 138.84 -4.17851
11.4727 113.461 -6.40697
-14.0915 112.135 -8.40976
8.59776 131.344 -5.96583
-15.3948 122.063 -0.462086
16.6846 81.1142 7.16457
14.7366 149 -2.89883
-11.02 137.468 8.04457
-1.63945 120.151 -4.42712
-17.8593 119.533 4.78348
14.0399 92.7454 7.75285
14.225 107.659 -5.6694
-1.24291 118.311 -5.25371
5.76731 109.07 -8.78369
11.3636 132.004 5.73125
2.73203 86.0881 6.92805
25.8108 113.139 11.6696
-0.929091 125.924 8.38615
10.8806 137.582 -7.86659
13.7389 133.296 1.9138
23.1464 113.031 -3.27587
5.36225 127.053 7.48984
25.308 127.766 0.248338
19.6317 132.057 -2.2129
-16.748 123.876 -1.75616
0.379515 128.553 6.05015
17.7962 95.4174 -4.22741
0.110617 117.997 -6.27829
33.8579 87.8378 13.0148
21.7389 147.864 -0.673631
23.9026 119.877 -0.539783
23.8677 95.2012 -1.6025
34.9595 87.4214 8.67511
17.6727 88.6465 -2.12175
16.2379 128.778 -5.39793
5.46495 138.428 -4.66792
15.2564 78.3098 2.19904
8.04107 129.102 -4.20586
19.6716 122.898 -7.13583
5.62132 81.2977 5.55201
18.7736 139.043 4.9848
-7.3148 127.753 5.74621
26.514 111.104 1.16096
-19.3633 132.883 0.946468
-16.1418 121.358 5.69659
13.977 83.2141 -1.97267
-0.629556 117.516 -5.88345
-16.4706 117.846 -7.04696
6.00651 141.525 -5.68595
27.613 138.662 -4.5356
17.8402 85.5999 9.81962
22.2347 147.265 -1.1337
-5.07023 99.1049 8.49651
34.447 88.4588 9.46519
-15.4751 119.732 -7.20033
10.7887 148.22 1.40516
-10.7958 143.929 7.40388
1.50994 98.6883 -5.42184
26.97 80.415 7.3463
25.168 124.78 1.11332
10.6016 80.2921 5.90972
4.03579 147.398 -4.38663
-18.9436 124.43 11.1461
-11.2788 131.35 -6.16562
11.8429 87.0803 -3.59759
-21.8096 118.351 8.2905
-12.1389 144.099 -1.39064
11.0287 118.065 5.96678
-13.2158 123.364 5.68769
22.764 115.531 -2.03377
-3.53925 130.564 -3.72587
5.2875 123.324 7.53776
5.83519 140.086 -5.35384
20.6291 85.5558 10.793
15.1646 132.252 1.8432
11.8236 133.671 3.21987
-8.41738 122.919 6.94515
28.301 116.443 6.42813
-9.68748 149.361 -2.40668
6.32464 85.4895 6.81952
-15.9172 119.059 -3.17786
30.5985 85.7941 13.0754
-16.8593 118.762 3.18459
23.6608 138.782 1.40005
12.155 99.4772 -7.45165
29.7406 107.339 10.3681
-16.627 133.17 -0.389188
10.2634 114.697 7.56484
2.1756 124.439 7.61472
-8.13097 112.757 9.49808
19.146 97.2694 11.2512
20.6789 82.912 9.97055
17.7625 129.943 4.5653
10.5512 122.421 6.43302
9.65945 94.2221 6.59533
-1.44518 119.506 -4.67007
19.0365 136.044 -7.87196
-16.6512 140.137 4.37375
5.74112 100.728 -6.38256
13.3112 107.904 4.72327
30.4991 104.318 5.22314
-10.9118 112.845 5.95639
7.64864 109.578 -7.1364
2.12598 94.9094 8.53787
19.5067 85.0807 10.1351
15.8767 118.766 -7.6363
15.0777 83.8381 -1.81146
10.7163 79.2651 5.41658
-15.0463 124.463 -5.55897
16.9664 129.15 -5.27663
7.98648 117.453 8.93101
22.8613 116.375 -0.223526
-4.49136 91.4545 5.04282
17.6422 94.0569 10.4596
17.8775 96.9467 -4.40805
13.7301 94.1957 -5.12447
-15.7591 120 -2.49453
2.7143 130.743 6.20309
16.5126 139.837 3.60742
30.7497 125.795 -4.27848
25.7347 113.488 -0.490351
11.352 138.587 -8.4593
29.7531 131.497 0.29535
26.2368 101.913 12.8092
11.077 91.1553 -5.38531
21.5543 80.5303 3.40671
10.7527 116.3 6.45338
26.4006 113.328 10.7172
27.9421 89.1649 12.3338
25.6709 111.048 0.162199
25.947 98.6703 12.2832
7.46983 84.2972 6.59818
-2.29899 112.274 8.69635
-11.6885 147.112 -0.262693
16.9689 137.084 -5.36605
-18.1477 121.92 11.0868
3.2172 97.765 8.75709
4.24147 114.85 -7.66934
32.7 86.8182 4.89324
20.0027 127.908 8.96491
15.3231 94.9329 7.93048
-11.0212 112.288 -8.50565
25.4388 88.0496 11.7946
13.7145 117.238 -5.19322
33.9244 88.616 12.3602
-11.2773 101.096 6.02276
-16.2103 115.828 -7.55812
24.1302 135.749 2.26213
12.7934 104.218 -7.23435
27.7807 94.6891 1.33496
-13.7681 105.536 3.90482
15.6411 143.407 3.03193
2.10367 127.764 -4.24358
10.8586 118.685 6.36841
26.9479 88.1521 2.0437
21.1471 133.725 4.75362
17.9311 103.671 -6.50011
28.0004 94.3751 12.9374
15.4114 144.193 2.91599
22.9721 100.956 12.6774
-10.3051 104.548 6.79747
-8.34818 114.002 -7.26932
-16.8338 122.348 -2.24808
24.9625 144.023 -3.63565
-10.1596 116.1 -7.84243
9.70494 128.763 7.12304
25.8566 94.2717 -0.232618
27.1931 115.354 9.39895
-9.22112 139.106 7.35118
18.8834 142.506 4.03451
-8.15217 132.786 -7.2507
12.8761 85.0578 7.01895
-3.53512 130.689 5.50303
13.1444 149.897 1.29307
-5.07413 144.311 2.16162
-11.8027 119.212 7.14978
-3.8789 125.468 7.47156
-3.36251 110.08 -6.43447
3.99027 111.541 9.31411
1.72054 106.98 8.27862
-17.407 116.434 -3.60887
5.9218 119.73 -5.22242
27.5825 135.058 -3.39475
20.0539 91.1305 11.9614
-20.5789 118.181 0.454911
22.2738 86.3954 10.866
-6.89727 144.897 3.38738
6.57633 122.615 8.3167
14.4917 140.013 1.40401
12.5959 85.9009 7.83763
8.38131 154.521 0.153733
-15.2652 124.976 -4.4563
33.346 88.4248 14.242
33.5257 81.6415 14.1577
26.3443 112.089 0.498126
4.61468 138.839 4.79719
-8.95211 95.0733 4.89727
9.36353 124.895 -4.50392
-9.41504 127.545 6.1168
15.206 128.96 2.20095
10.8272 74.9896 4.76641
31.777 97.1255 4.17318
18.8978 94.7996 -3.66284
-5.92334 118.859 9.44785
29.1564 99.9539 1.53124
16.2063 133.666 -7.42908
-16.3724 121.933 -1.79445
-6.59936 148.912 2.30504
-3.86097 142.044 2.701
2.43745 98.0696 8.60777
14.6573 91.4111 9.51735
8.91641 134.523 -6.35852
-14.2732 125.671 -6.12513
4.24622 117.766 -6.91299
-4.25436 97.4223 8.32975
8.63465 154.451 0.108464
25.3606 142.653 -3.65974
21.9767 112.54 10.5122
2.52334 138.332 4.26429
-19.3716 118.749 -1.41577
-15.5342 104.301 1.82697
26.5182 139.4 -0.582834
18.0581 150.524 0.448436
36.5388 85.5959 9.97025
18.814 86.2331 10.4651
-3.84639 145.907 1.90647
15.4416 76.2454 6.9657
-7.31913 112.621 9.76104
17.9592 99.8573 -4.89633
-22.7315 119.18 6.55563
0.0644684 130.214 5.25725
35.1162 82.0059 10.3497
30.5212 108.139 6.16513
15.1314 143.697 -3.92756
18.8497 81.2622 1.56855
-17.6536 138.341 6.9716
15.3997 127.99 2.44977
-3.21675 91.7639 6.48514
26.4781 119.446 4.21579
36.2854 83.1506 9.7395
-9.26014 121.463 8.90002
7.4078 102.932 8.5168
-11.6203 135.403 -4.75643
14.7642 110.582 -6.29702
22.8991 129.561 -6.9571
36.9388 83.0085 11.6684
8.45619 124.907 -3.60871
-13.4549 97.308 3.86014
10.1406 132.563 6.52843
20.0923 128.775 -7.66185
17.9966 131.373 5.99391
30.6943 88.2462 3.95739
0.809751 116.98 9.69416
5.15112 115.529 -6.28753
-7.00261 124.588 -5.80082
30.967 128.093 -1.66966
-15.3445 126.154 -1.74967
-20.5798 123.89 11.2171
33.9953 91.7315 6.31144
16.8182 133.234 -3.62869
13.3605 150.057 -3.49297
16.7276 117.468 -7.36297
1.93524 125.572 -4.80264
27.457 108.951 11.3743
26.2902 127.801 -11.113
-2.74703 111.978 8.79354
-15.9075 119.044 -3.94547
-17.5378 127.379 -2.5162
18.0987 105.622 -6.43875
12.6078 108.789 4.79915
27.6809 137.296 -1.57956
3.63149 120.676 -6.63572
15.482 134.713 -8.13104
-11.8784 107.001 6.0136
1.12671 146.751 -2.78655
21.8886 130.997 5.65772
-15.9466 120.137 3.90862
5.18714 134.241 6.30874
-14.4187 125.994 -5.37375
10.7481 91.5265 -5.69704
18.7731 119.293 -2.47945
15.5423 94.6451 -4.56867
15.6524 130.17 -5.92887
6.4069 132.067 -3.80711
25.0184 80.8252 5.47961
19.6009 110.984 7.78822
15.5937 135.982 1.85394
25.7976 86.4628 2.40093
10.2544 136.034 5.75036
-13.3772 139.101 0.0401622
1.67956 89.0524 8.03636
28.1438 130.013 -3.89848
-12.5075 144.444 2.60851
-15.9134 104.117 1.22819
27.0117 96.0175 13.0202
-5.45584 97.6541 7.94009
20.86 119.661 -2.25921
21.3491 122.638 -4.81058
-13.6055 130.269 7.93779
-3.4729 119.357 -4.08928
5.78006 107.327 8.96291
4.11715 95.4378 -4.78143
15.7415 127.831 -6.02023
-0.295353 132.121 -2.52549
25.1715 136.699 -5.76249
-11.9157 105.522 5.94732
-20.3894 128.445 3.25873
27.643 139.503 -3.40098
3.76549 110.726 -8.24485
11.8607 136.706 -8.33228
36.4807 83.2094 10.2222
-2.5858 120.041 -4.16388
-0.481166 118.815 9.42844
-5.41742 100.955 -5.96095
3.02972 102.123 -7.65295
14.0618 136.612 -9.08338
27.749 134.837 -4.51835
18.7987 127.688 6.48109
-9.09077 149.077 3.03976
-19.9116 129.214 2.22408
28.3423 98.9623 1.03358
-3.77395 91.9643 6.11328
11.1002 136.291 2.93123
-7.47773 130.174 -6.45894
16.1403 144.34 3.91317
26.6225 129.918 -10.9635
20.6738 121.495 -2.78751
34.2594 91.3551 6.98081
28.9923 124.353 -4.40457
4.35186 121.508 -6.12574
7.67093 105.668 -8.85447
-4.99083 135.195 -4.82749
21.5855 124.331 -2.32565
22.5335 127.387 6.16569
-1.22185 106.392 7.98554
-18.9084 123.365 -0.983306
14.3329 150.611 -1.22776
-15.8228 121.262 5.06393
5.36267 86.0048 6.76657
12.0721 146.819 1.31215
0.930652 129.532 6.02129
-15.3725 125.965 -0.939118
13.4343 119.618 3.29478
15.1144 149.024 -2.08381
-18.4224 132.883 -0.364751
28.3381 126.754 -6.82598
10.4165 96.1109 6.14692
31.5033 88.6682 13.5089
-11.9962 146.663 0.484325
6.81035 149.842 -4.83711
13.6123 129.371 -8.90873
-15.3973 121.492 5.14508
19.9489 130.262 -3.33412
29.6451 126.89 -5.65368
20.5711 95.4238 12.3889
8.39279 102.653 -7.89248
-16.7442 120.753 3.44859
18.1826 126.082 5.26231
24.8327 124.554 3.70478
22.8098 133.855 2.77359
6.45402 148.44 -5.23971
17.8376 124.929 -4.61732
13.2439 113.504 4.19374
0.180455 136.155 -1.92869
30.9529 80.8973 9.68039
25.3456 127.923 0.154725
0.961556 92.7568 8.59417
16.5607 133.966 -3.63919
31.6197 83.8796 13.6538
3.27191 132.226 -2.43644
23.4461 122.834 -5.41565
