ply
format ascii 1.0
comment Created by Open3D
element vertex 1937
property double x
property double y
property double z
end_header
0.554828 133.828 5.46545
-3.68677 121.837 -7.4172
-1.33684 148.467 -3.33973
-3.93579 81.4308 -11.9869
-14.9616 128.358 11.8776
11.3036 83.9133 2.55537
2.30906 127.037 -5.48824
16.5745 137.454 4.97583
-9.83307 142.847 4.25923
-9.82039 91.8981 15.4181
7.79932 115.887 -6.92375
5.35537 80.9139 10.7279
-8.03003 130.726 -4.09154
12.6309 136.442 5.86682
-0.0371376 137.412 5.41689
11.6596 118.104 -6.01394
-27.3621 92.5811 13.6058
-8.15926 131.249 -3.72762
3.97991 144.938 2.9932
-5.95458 117.162 9.46061
9.55129 123.371 -6.37825
6.16726 149.427 2.3506
11.0626 122.254 -3.89158
12.6989 92.1841 3.12971
10.891 116.535 -4.50354
7.83373 121.46 -7.45276
15.0331 146.667 4.34269
-6.48301 115.946 9.98574
0.269989 81.7244 12.7719
-21.9636 144.303 7.27057
11.0214 83.5842 8.95344
0.140025 153.559 -2.36635
-7.17874 107.637 -12.6051
-27.5323 137.719 7.34221
-5.22084 134.88 7.59981
-11.4139 153.576 0.0551437
5.08091 134.145 3.85737
-16.3309 143.153 -4.01051
10.5768 101.875 -1.82189
-14.1782 127.816 11.6785
8.71346 151.679 -2.26182
11.0262 98.9551 -0.711431
-16.5186 135.036 8.79991
-16.5977 120.01 12.5037
-24.0611 148.997 5.66137
-26.7998 100.42 12.5588
-10.4856 113.835 12.6075
10.5799 127.169 -8.3661
1.80079 77.1282 11.9948
-12.5197 97.2252 14.3605
10.1817 104.842 11.3646
5.34704 84.6146 -6.48777
-15.4236 124.266 12.202
11.7236 97.1537 -0.124929
-10.4556 112.413 -11.4634
-24.6855 108.796 14.7308
9.32839 117.665 10.9403
-1.14966 120.718 -6.80834
12.6592 133.755 -5.02046
22.7316 131.801 0.608221
-5.41104 153.713 -1.88386
10.1995 106.881 11.438
5.27027 101.443 -9.67269
3.7967 127.332 -6.93904
13.5536 142.471 -1.68855
14.623 132.631 4.40443
0.961158 140.371 4.42223
8.75531 127.571 -4.59634
12.7515 119.617 -6.93468
-18.4254 89.355 15.4183
15.9652 147.277 3.20983
-22.4562 131.691 8.93825
0.878071 148.503 -2.92282
-0.0695712 147.701 -2.87255
-3.87173 79.2573 -11.5522
4.57768 108.806 10.273
-12.0169 144.75 5.59125
5.99844 80.7639 10.504
-29.9806 89.557 13.8103
-14.0788 150.158 -2.81736
-8.87492 143.33 -4.18232
10.1657 147.858 2.81472
17.5993 130.33 4.58867
9.64432 127.705 -9.66988
-8.52296 108.53 -12.5147
10.4006 109.9 -5.07509
-5.31727 97.4718 12.624
-26.7455 110.367 13.9208
12.6887 103.844 2.14717
-10.9796 118.681 12.3608
-22.2585 143.223 7.09745
-27.0434 127.869 10.0209
-27.4235 121.231 11.3922
1.85109 84.7229 12.8986
8.87896 135.233 7.32382
-20.6909 91.2368 15.724
12.6531 114.534 3.32285
7.80736 135.983 4.85703
-0.723697 93.3796 14.588
9.32253 93.2519 -3.35255
-2.34059 75.0341 -9.91755
-3.79091 92.1174 15.0907
4.04439 120.59 6.48735
-10.0186 135.509 -2.57228
-5.67403 115.334 9.37383
-6.00232 129.608 -4.95066
21.0394 121.109 2.85243
13.8105 110.66 5.04078
12.963 138.402 6.06016
0.645235 106.599 9.83362
18.0718 128.334 -5.38914
-16.7946 132.582 -4.71494
-8.65804 117.087 11.3995
-24.4353 104.927 15.0561
-27.9604 82.6422 13.0633
-26.9934 122.719 11.846
10.7742 130.726 -8.20783
-12.1738 124.802 -5.54917
-25.8206 110.911 14.1995
12.5539 118.397 7.43622
22.3943 136.293 3.63982
-2.49385 117.943 -9.05432
-22.5679 93.0276 16.2459
-2.79594 138.1 5.57683
23.6622 120.998 1.78519
-9.3327 130.964 9.5033
-9.97277 124.399 11.17
-2.99656 106.222 -12.7176
-7.52578 116.473 -10.5331
-11.5886 98.379 13.6489
12.4817 93.6232 2.09341
-20.5774 91.0543 15.6946
10.3878 89.7767 -1.15931
4.01544 145.452 -3.41804
11.8063 103.938 9.23525
-8.13802 111.472 11.3925
9.66492 115.248 -1.40623
12.1803 99.5043 9.18385
-11.5332 146.345 2.06324
-13.4902 136.307 7.46804
18.8429 121.346 -6.87932
6.14986 84.0726 -5.60629
11.4779 98.9497 -0.0889835
-10.2164 129.209 -3.83221
-4.65588 83.1147 -12.5112
-28.4485 112.656 10.8177
6.23613 143.85 2.78142
-3.43265 109.571 -11.6291
-7.33249 109.89 10.8387
-7.43648 150.188 -5.1222
3.68989 124.219 5.55765
4.03966 118.448 7.15549
6.53006 82.0692 10.9166
14.5606 129.828 -7.0023
-0.475593 118.737 -8.9287
-15.107 109.466 13.8069
-7.58335 150.442 -5.05947
-28.8546 83.1895 13.9819
-25.5765 99.181 13.9953
8.06151 115.401 -9.41331
-5.19604 146.074 4.02499
12.9331 97.1616 3.65993
3.9693 94.54 13.2031
-17.1564 151.502 0.0287988
-3.38476 147.725 -3.80888
-0.392454 85.2913 -10.9408
0.395055 133.146 5.87537
9.24871 94.7358 11.5613
18.791 121.673 3.22829
-5.57087 139.689 5.13531
-2.55506 116.279 -9.24018
-13.501 152.384 -1.09835
-6.39436 150.192 -4.96989
12.9908 91.9667 4.6005
17.439 145.102 3.81416
-17.2827 138.953 4.97341
10.0486 89.2834 10.9626
20.0438 122.041 3.4785
-6.15732 101.569 -12.4555
-2.83625 98.2208 -13.2045
-3.76857 85.6433 -12.3091
18.5912 122.26 -6.89495
-5.17781 112.267 -11.2163
-0.788551 147.904 -3.03061
-10.1958 143.557 -4.61079
21.0691 138.198 -0.140914
-25.1992 146.926 1.41329
-13.4009 132.38 9.63442
-11.1821 122.298 11.9207
11.1817 110.398 -4.30305
-4.7199 100.58 -12.8594
-15.8358 139.79 5.45655
-14.289 118.818 12.4951
-1.73136 120.373 -7.3622
11.6675 81.5657 1.86755
-4.168 79.4856 -11.6805
0.346176 118.822 -9.13736
3.97224 82.0852 11.939
-25.7241 146.619 6.8176
12.9104 117.172 5.89573
12.1974 118.889 3.13824
11.5595 119.736 -3.00565
14.666 146.51 0.307182
-10.5333 134.761 -2.37629
-15.2308 113.01 13.8898
-1.34223 137.27 6.10379
12.0625 133.464 -7.90408
-18.206 136.703 6.27617
-20.3754 130.838 -3.0055
8.22434 120.772 10.2474
-26.8545 96.9875 11.9749
-19.0732 132.1 9.3414
-25.202 140.093 6.34096
-26.3015 91.5157 15.036
-1.87837 148.538 -3.56417
8.92544 124.771 -3.1743
3.99612 81.5475 -6.67801
-4.24773 152.771 -3.24512
16.5083 134.232 -5.20009
-4.71882 121.552 -8.20089
8.63683 152.087 -1.99402
19.883 124.396 3.32517
-18.7181 144.062 4.69694
13.7596 148.86 3.04874
11.057 82.0617 7.87919
19.4965 128.574 -4.47686
12.7157 133.409 5.23699
4.59372 114.456 8.21106
-7.03922 134.673 -1.89485
-27.5713 134.976 7.34612
8.76437 103.322 12.2235
-12.7905 80.1558 13.6822
-2.8344 108.434 -11.7352
9.61867 127.937 8.88432
6.34435 144.338 -5.59968
11.8057 118.585 -2.59217
9.46245 125.743 8.68505
5.76129 144.631 2.74969
11.4421 86.9292 8.90593
13.4289 115.98 4.85878
3.22734 121.251 -7.95481
-24.5877 125.196 12.774
-1.71651 93.3924 -12.3904
10.7892 81.9239 5.86627
3.23055 118.106 7.24131
12.4538 93.1403 2.16417
-29.1946 110.68 10.3893
7.78109 129.801 7.31323
13.034 120.85 -1.05977
12.4329 114.717 2.20495
1.04386 87.1508 -10.2613
-3.72384 102.23 11.0144
12.7556 111.062 -0.178936
12.382 112.364 2.03929
0.381821 103.714 10.7986
-15.724 121.751 12.6326
-9.3904 92.772 15.0602
-4.39524 88.5963 14.7356
0.819433 135.779 -4.33677
-11.235 142.323 -4.72553
6.82241 151.632 2.90277
3.24635 101.035 13.267
-28.5736 118.061 9.34702
12.6812 116.968 -2.62081
8.61088 131.765 8.12275
-16.2864 128.232 11.9024
-20.7867 147.103 7.09847
16.3541 120.136 -7.95908
-21.2507 80.9223 13.6976
3.25272 90.0297 -9.4983
-19.1891 97.5433 15.8446
1.26166 115.649 7.65427
3.43524 125.613 -8.20142
-15.4132 134.702 9.07359
-19.792 99.6783 16.0644
-7.41493 139.938 4.73845
-9.24779 143.274 4.04623
20.722 141.008 0.775507
7.82689 122.501 -7.15455
-10.5899 93.8383 14.388
11.2518 129.315 -4.32147
-0.824361 121.977 -6.37853
19.8007 125.043 3.27859
22.0623 124.243 -3.30874
12.2372 87.0395 3.29246
19.9292 123.469 3.45726
10.454 86.5972 10.3837
10.6017 127.696 -2.32888
1.83297 93.9073 -10.8017
-28.2861 113.883 11.7849
18.7031 118.383 2.74418
-23.8886 149.531 2.48296
-26.3556 106.909 14.0803
-18.5541 90.7821 15.4752
18.5584 143.163 4.09395
7.10655 92.6241 -6.0149
0.217185 127.33 -4.6485
4.6777 119.323 6.8346
-14.0189 132.561 9.70576
-1.76844 79.7783 -10.8589
-1.20809 107.612 9.60441
10.2891 128.288 -1.70463
15.4488 140.311 -2.07122
23.3677 124.815 1.59315
-13.0579 145.8 2.65352
-0.246548 95.5673 -12.005
-10.1561 150.401 -0.328574
-5.90181 114.407 9.58347
13.4139 119.505 -0.574056
6.76731 139.104 3.24884
8.21584 143.314 2.78537
25.255 125.18 -3.42794
6.79824 109.879 11.4665
19.5358 125.114 3.50429
8.63255 81.3086 -1.24047
4.81856 148.44 2.68952
-10.2839 110.403 12.8386
12.094 86.5973 3.15069
10.3122 81.5376 0.374095
2.93745 101.154 13.0631
-29.407 109.533 11.3127
0.481912 132.018 5.71674
4.36041 152.475 -2.97567
-21.1864 135.043 7.32772
16.5203 134.803 4.57234
4.89201 129.346 -7.27885
-4.00276 110.898 9.2541
11.7046 103.393 -0.0506852
12.6398 128.177 -6.5196
12.541 109.424 -0.300851
13.413 138.6 -2.72804
-1.94564 136.263 -2.38799
-21.3978 136.633 6.61944
5.80126 128.52 5.18216
13.4622 134.282 -4.89039
-24.6816 126.653 11.9588
3.91551 89.6206 12.833
12.3071 121.194 7.38665
-5.13067 91.548 15.1376
12.1451 146.393 -3.0267
9.81031 120.782 -5.05398
-16.7754 99.7999 15.5997
-24.972 101.654 14.5109
12.1859 124.526 5.457
-11.0132 141.161 -4.54866
9.41313 85.207 10.875
15.7396 121.266 -8.23718
-3.88113 93.8175 14.4814
-4.48272 115.788 -9.20678
11.5344 86.6598 5.95002
0.134941 100.969 12.0919
-19.42 131.317 -3.49479
-23.5674 116.653 13.9671
-9.85292 114.881 -10.8047
-5.42196 110.853 9.76647
-22.0078 134.418 7.5364
-6.68447 111.263 -11.9641
19.0848 144.762 2.36269
-19.1364 141.327 -2.13263
-9.27736 113.334 12.0665
12.8123 144.638 -2.37039
-21.1127 144.091 -1.18897
4.21859 110.037 -10.3182
7.10985 83.1239 -3.76981
11.343 90.2472 0.786229
9.81811 94.7134 11.4176
-15.1453 107.95 14.1047
-7.43755 84.7018 13.9256
3.57986 105.393 10.7988
-17.2083 137.222 6.34935
-15.2197 151.658 3.88126
-25.6095 121.035 13.1681
8.05326 92.8805 11.9537
-7.99611 147.755 -5.27486
-7.65424 116.806 -10.5857
2.2947 147.318 -2.77771
-16.4563 148.065 -1.96243
6.05789 140.424 -6.75259
-23.126 88.3125 15.3426
3.4365 119.045 6.98837
-18.9524 146.217 6.86755
1.75606 138.641 -4.28243
-10.452 82.4253 13.5268
6.79282 98.6247 12.5793
25.3408 126.408 1.09183
13.3387 136.622 -3.26382
-19.6812 151.468 1.09543
16.5781 119.51 -6.28866
6.84773 117.478 -9.67868
12.6143 100.811 4.33231
-15.7343 123.509 -4.93495
-28.6279 124.51 8.76674
14.9739 125.253 -7.3113
10.2951 124.66 0.318832
-28.924 103.619 10.8286
-9.26501 95.6835 13.659
4.16981 88.5665 12.7958
-7.92049 132.755 -2.91773
0.568301 87.5012 -10.6022
1.32494 89.1773 13.2506
-12.6807 154.136 -1.01925
9.01241 135.926 -9.05796
-1.57549 88.0606 13.8105
11.2583 91.9434 -0.133768
-0.88441 77.7364 -9.89306
7.45733 127.861 6.54554
-10.7748 114.93 12.5892
4.58436 110.653 -10.4388
-2.82491 142.782 3.86195
-5.47438 150.993 -4.7602
19.9116 127.894 -3.90482
-24.0586 106.045 15.0226
-0.324927 95.7537 14.2708
3.79747 131.279 4.44428
-24.9619 82.0542 13.3132
-0.362926 135.617 5.51124
3.59888 76.5809 -6.0309
11.8071 121.241 -6.51993
4.21098 97.9368 13.4303
-22.6821 95.3162 16.5457
17.6854 125.198 -6.59845
-3.9049 108.519 -12.2546
13.4465 112.958 6.88145
-14.944 81.8338 14.1399
11.6436 139.047 -5.54486
-6.16794 119.739 9.45495
4.30147 76.5396 -5.28237
6.44226 78.5184 10.1621
10.955 100.781 10.5707
-16.5445 144.367 3.3467
9.07323 126.829 -2.3142
10.5233 150.586 -0.472192
-19.2538 142.332 6.65789
0.509616 92.0976 14.1588
20.7763 136.772 3.98382
-18.1535 128.698 11.8497
-5.81667 107.726 -12.7698
-5.13596 137.242 -1.85599
13.2619 105.593 6.18653
-13.6004 108.903 13.6291
13.7789 149.249 2.7566
-21.3704 117.032 13.9068
-25.6709 140.191 6.18183
17.0704 135.881 4.57563
-10.5045 142.548 4.66164
7.63674 123.27 -7.80596
6.04898 79.8527 -4.89724
-3.15345 103.341 -12.9608
6.49625 125.495 6.44322
13.2545 115.719 6.46199
20.5889 127.388 2.89171
-29.0031 126.534 7.96855
-22.4812 101.271 15.5372
-15.2042 138.833 5.35088
-3.56459 126.726 -5.90615
-5.5758 152.937 -3.36712
-21.0455 150.26 0.780128
-12.253 90.5135 15.6938
8.73831 104.647 -6.69887
2.22738 86.3292 13.0516
10.3428 124.722 -5.36732
-4.8261 89.397 -12.8304
-23.9087 149.53 4.66565
-4.79119 143.517 -3.20946
-7.69305 134.405 -2.00358
8.72145 91.1389 11.8161
9.24055 104.125 -4.15696
-22.5669 94.9788 16.5027
14.5382 138.538 -2.57378
17.5026 125.454 4.11935
12.9382 134.119 -4.94305
4.85728 106.263 10.897
9.56296 76.4387 0.209729
20.744 128.429 2.96292
-9.14764 130.549 -3.66772
-9.26614 145.707 -5.08745
10.7498 112.645 -1.97509
-18.8611 138.173 -2.86905
-18.6879 94.2948 16.0651
3.802 115.501 -9.00904
3.87327 143.459 -3.89681
-3.61508 133.461 -3.12131
21.4384 120.562 2.70154
3.4252 106.342 -10.3913
9.20189 86.3117 -1.84815
10.9075 138.397 -6.27448
5.19164 105.691 -10.1298
7.2835 125.508 7.22474
-5.80333 100.091 -12.7286
20.2781 135.869 4.20678
12.5106 105.902 7.57696
6.18698 81.7428 -4.90607
13.0422 115.728 7.37751
-16.4133 152.866 2.19907
-7.38354 113.904 10.7841
-29.2572 133.919 7.67392
-27.1078 97.4427 11.723
-13.1504 99.3102 14.1566
7.58768 114.535 11.0073
-12.6584 115.388 -9.30509
-2.87474 111.453 8.90974
12.4405 109.215 8.29979
-17.1033 142.11 4.57978
14.7111 119.489 -6.11466
-13.3109 116.991 -8.45212
-11.904 132.928 -2.18465
-8.74268 90.2859 14.8596
12.3914 110.98 -1.80862
-9.52333 135.222 -2.24193
10.1518 126.104 7.38093
-3.51548 99.1621 -13.2195
14.4476 128.415 -7.15717
-9.37924 150.572 -5.06733
-28.5424 128.644 7.51647
-16.3192 102.109 15.242
-14.8209 130.132 11.3988
11.2508 90.6899 -0.00332433
-2.40792 110.384 -11.002
-23.1342 146.616 0.289794
2.61424 82.2202 12.5319
0.878012 145.806 -2.53325
11.1284 79.6753 0.935578
22.865 124.647 -3.35058
11.2728 148.273 -2.2753
-4.09801 94.9135 -13.1594
-6.56747 147.438 -4.67399
4.31772 113.027 -10.6726
-3.82677 146.804 4.43856
-10.9367 115.25 12.6347
-19.3758 139.92 -2.92466
13.5142 131.361 4.01912
-12.7712 136.949 -4.80574
10.0607 138.195 6.94001
5.30485 116.86 -9.32025
8.89161 76.8216 -0.651022
-7.75689 121.014 -9.24512
-7.6484 120.658 -9.44164
6.10281 114.039 -9.96209
10.9045 89.3448 -0.308338
1.95496 135.471 -5.29631
8.94792 75.5218 10.0348
9.91759 113.547 -2.60052
2.90354 76.1923 11.7083
-4.6471 146.121 -3.79045
-4.86429 140.789 -2.44213
-30.3309 138.981 7.30443
-3.38792 95.7683 13.6683
-8.72967 124.125 -7.48882
12.4913 94.653 1.4838
20.9215 119.253 2.93767
-17.5608 138.71 -3.74528
-16.7466 139.729 -4.14688
-25.7378 126.468 11.3225
-18.7842 131.884 9.68293
-2.85703 147.148 -3.51786
-17.117 123.246 -4.99727
10.4945 82.7267 0.998185
-7.08702 80.9718 13.1662
-24.828 120.578 13.3819
2.90004 125.207 -7.81629
12.8442 115.074 2.89253
-29.4472 106.264 11.1205
-17.0144 90.9137 15.5911
12.6711 143.835 -2.78596
-3.48296 135.856 6.86687
1.22572 145.885 3.15302
-21.3264 148.424 0.140694
10.9156 129.358 -5.71395
-6.86088 139.377 -3.22875
3.20792 101.957 12.7003
6.17346 118.521 -10.3055
-11.254 111.558 13.2026
11.2897 104.927 10.0579
-8.91595 144.802 4.6183
19.7145 139.111 -1.07242
-17.2465 126.744 11.9146
9.37236 113.941 11.3798
12.2466 112.541 2.26979
11.375 86.6293 9.03945
19.1373 126.765 -4.3493
-8.85571 116.281 11.5541
10.5903 145.866 3.45495
-7.4336 136.98 6.3096
-11.1435 105.766 13.4717
-27.6951 118.028 11.871
11.7294 112 -0.722763
5.91489 90.6301 -7.46521
8.5444 103.65 12.3166
-10.3928 136.033 -3.24873
-7.73097 99.7972 12.3824
-7.91161 84.544 13.8919
13.9337 112.497 4.37668
-0.405611 143.569 -2.27778
0.682281 102.73 11.2474
9.47743 123.211 -3.69148
1.2508 93.817 14.0114
-3.85425 96.0559 -13.2376
15.9117 136.636 -3.93572
-28.5613 140.982 5.72262
3.92828 76.0917 -5.24091
-26.4646 104.369 13.5864
-15.4307 121.807 12.6517
-9.63441 152.189 -4.33268
13.0765 110.477 1.25464
16.2929 126.503 -6.74537
10.2362 124.57 -6.33576
9.6835 151.267 1.81615
13.1919 137.657 5.95044
8.61243 141.712 -7.23002
0.414216 108.413 9.37008
-27.9959 130.567 8.14484
12.976 122.713 -2.28276
8.37579 93.7182 11.8399
2.73297 101.374 12.8284
11.377 94.2967 -0.238722
13.0793 126.613 -6.91902
6.89503 148.659 -3.91362
7.43466 115.739 -9.51765
16.5173 116.375 0.918794
-0.033517 123.182 6.64134
-27.0999 129.012 9.55428
-1.84365 138.001 -2.33143
21.6192 124.749 2.10292
-20.6502 89.4945 15.8998
-2.80587 105.308 -13.1468
8.93679 95.8253 -4.90201
13.257 133.885 -4.90308
-15.8838 140.342 5.11809
-10.1893 89.2856 14.7912
-27.4047 145.44 6.51356
-14.8711 133.437 -4.19133
7.56465 100.278 -7.33522
18.2751 127.182 -5.15177
-15.4295 129.749 -2.53925
2.9279 78.8057 -7.02857
-25.8042 120.331 13.2581
-11.768 116.704 -9.01291
13.4533 107.531 6.19843
-4.52285 114.798 -9.56105
-17.1174 134.685 8.33063
12.3895 145.383 4.73483
-3.27829 112.181 -10.2347
-11.8644 127.957 11.0372
4.31222 93.8061 -9.09472
10.8189 133.718 -8.80473
-5.72215 130.11 8.40945
12.5633 101.322 2.43099
-21.2702 108.125 14.0669
-3.89134 90.4707 14.9369
-25.4723 106.95 14.5411
-27.6468 82.9538 14.2479
12.2074 116.259 1.71738
-22.7167 119.853 13.5222
7.75708 129.898 8.07242
-0.928473 108.27 -12.1179
-29.1739 83.1931 14.0861
-5.5265 131.091 -4.28299
-15.4887 131.979 -3.28084
10.315 105.109 11.1626
-5.8188 139.92 -2.64095
-20.3738 149.136 -0.0116871
14.0362 140.391 -2.09308
12.3087 118.117 -5.96477
-1.57317 132.633 -3.66106
3.96425 125.393 -9.00226
23.1505 124.544 1.52478
-1.55056 98.0056 -12.94
7.91107 137.447 3.71178
-7.94427 105.613 11.6815
-16.4757 91.3198 15.8023
12.6689 148.316 -0.569876
12.9769 103.819 2.93453
-18.912 136.045 -2.52029
-9.90159 125.536 -6.26981
-6.04904 93.2075 14.6341
-19.2052 133.465 -2.70922
-0.158329 139.299 -2.81905
-11.1751 81.3279 13.6016
-2.32815 115.249 -9.33663
-25.4297 96.6093 13.0241
26.2569 124.655 -1.43985
-2.27515 85.5092 -11.9039
0.248791 76.2648 -8.38215
11.8694 144.968 4.70077
7.92321 93.8049 -5.18212
15.1051 125.388 3.86087
2.39627 83.7489 -8.99926
18.7379 144.961 1.62723
-27.8517 126.595 9.88382
10.1374 111.443 11.2091
11.9599 101.471 8.87367
1.08699 112.136 8.43381
-22.8059 145.656 7.26197
7.38292 86.6578 11.935
11.6447 109.695 -2.85191
0.119229 95.5789 -11.8194
-25.7846 133.098 6.10831
-8.94905 79.028 13.4365
-1.59921 146.877 3.35779
11.1731 125.726 -6.24251
9.19834 120.47 -5.22195
11.9419 118.379 4.55675
-7.89852 109.911 -12.1312
-1.55267 112.516 8.45536
-12.1878 150.553 0.690136
-17.0665 124.255 -4.59173
2.42013 131.424 -5.92609
7.22902 74.7261 -0.153717
-27.983 133.62 7.56183
-2.31449 111.735 -10.6847
12.3705 117.708 5.18939
-23.0666 86.0411 15.2406
12.7349 123.415 0.0881012
-11.9573 138.743 5.66944
18.792 144.747 1.00025
-6.03474 124.355 8.92521
-4.4218 121.957 8.14337
7.89547 120.11 -5.50452
5.24124 123.395 6.41597
-10.268 128.8 10.3842
-7.35117 97.3388 12.9107
-10.0505 129.195 -3.93751
-17.8296 114.389 13.968
2.4995 113.801 8.09172
-12.2162 148.259 -4.95065
5.74911 136.354 3.53297
-5.6783 88.4256 -12.9018
-20.7081 128.02 12.0957
-20.575 140.792 -2.49458
1.3171 114.556 7.9098
2.9784 97.879 13.4983
-12.1092 95.6588 14.2573
13.3921 114.47 6.32773
2.49709 137.798 4.12491
9.99595 148.311 -3.16681
9.00034 110.444 -7.49395
-21.7266 84.3947 15.033
13.5005 122.031 4.06765
-10.6383 89.4981 14.955
0.215029 112.665 -11.2403
1.51808 120.504 -7.81394
-22.0355 150.564 4.14299
-5.4465 80.7255 -12.3592
4.3853 90.1248 12.8092
1.66099 109.429 -10.6401
10.762 126.593 6.70033
-9.49235 130.18 -3.68334
-9.19666 140.179 4.52313
-23.5442 101.706 15.4569
-23.8347 91.7676 15.7139
-9.91789 130.502 -3.24508
-3.48449 88.1704 -12.6289
-22.9656 107.017 14.6525
-3.64497 141.996 -2.34478
-5.01588 78.9118 12.899
9.92597 79.6033 -0.330218
9.65038 96.465 -3.95126
-25.1019 102.089 14.4108
6.78944 124.038 7.70752
-20.7248 122.186 12.7511
13.8852 109.527 4.21014
-10.5383 104.444 13.0731
-2.74945 124.406 -6.28136
-4.11303 129.308 -4.55594
-2.68724 139.602 -1.96741
-10.5756 144.651 5.66702
9.129 138.761 4.96187
-17.1103 81.438 13.8993
-3.82352 112.101 -10.4684
9.9535 150.149 -1.50023
11.5882 113.957 1.86044
2.49635 103.785 -10.9144
15.3221 126.797 -7.19698
-21.1751 115.905 13.9187
-4.85065 105.928 10.4608
13.0427 118.31 -0.396679
-5.20787 94.5971 -13.2244
3.03115 125.967 -7.30415
-7.18596 104.874 -12.4138
-12.2155 108.906 13.4064
-21.2105 133.883 7.95529
-7.61079 101.534 -12.3068
-26.9344 148.158 4.19591
16.9921 128.549 4.57366
-0.510391 82.1244 12.77
10.6926 91.739 -0.954192
-4.54011 76.6472 -11.8405
-16.4058 126.132 12.0965
-20.3419 124.368 12.581
19.1922 133.853 -3.8869
-9.64357 78.057 13.497
0.371528 117.197 -9.99257
-20.7101 111.846 14.1597
-18.9651 143.806 5.48694
16.472 126.346 -6.71102
-12.585 124.887 11.4433
4.48593 81.8791 -6.29715
-6.52734 138.324 -2.48869
-18.069 103.109 15.1941
-6.61901 146.428 4.57571
-4.96478 110.838 -11.8964
-4.64888 114.416 -9.71035
10.7893 91.6298 9.69303
-20.0982 140.733 -1.89163
8.39084 117.913 10.7882
-14.9021 108.319 14.0437
-13.1098 103.153 13.8854
13.4571 119.6 -0.133305
6.25126 128.088 -9.4509
-16.2427 104.095 14.7758
-14.8181 118.704 12.5327
4.90131 77.0077 -4.93659
-3.91461 119.639 -7.66308
7.31808 137.056 3.60493
-2.43068 145.621 2.93243
-11.8473 117.894 -8.31264
-9.2172 140.262 4.472
-21.1146 113.39 14.1599
11.5437 104.472 -0.000957155
-27.234 128.933 9.3698
-24.1437 119.433 13.3343
-15.3571 137.008 -4.35072
-27.5729 126.462 10.3828
-4.80272 140.002 -2.10711
-7.73065 154.454 -0.245652
-15.0013 153.401 1.20709
-17.4508 139.301 5.04481
13.1172 117.665 -4.72404
4.26044 80.9225 11.1858
11.3387 123.137 -1.11442
12.452 137.106 -5.2511
-21.981 130.91 11.0415
-20.8606 140.846 7.1365
-20.5108 96.8699 16.1988
-2.9776 113.795 8.57429
2.21504 142.434 -3.23728
-1.3902 129.701 6.9102
-18.3337 140.047 5.91247
14.4442 117.883 0.553832
-16.6213 92.1723 16.0447
26.9416 123.809 -3.32724
-17.9999 143.717 -3.66015
-10.8967 128.853 10.4301
-10.1796 121.312 -8.04779
1.63755 125.889 -5.21044
4.48187 85.7306 -7.61456
23.1319 125.108 -3.2419
9.73657 149.132 -2.75493
21.9709 126.531 -2.36387
-15.3275 110.081 13.7024
-4.45614 86.0957 14.1833
-7.58499 117.821 -10.2615
13.371 116.53 -2.10701
6.69934 125.785 6.48983
9.61948 125.467 8.53312
-1.3086 123.952 6.97771
10.8191 117.808 10.2908
12.401 117.552 8.56195
10.1699 85.9073 -0.222696
9.70492 127.079 -5.80268
-12.7659 121.982 12.2224
-3.5095 77.3874 12.4512
2.18909 124.481 5.77462
-3.57172 152.678 -3.41833
1.99308 129.302 -5.29717
-13.5215 123.15 12.1227
10.7232 85.7954 1.06542
-2.00593 127.242 7.1624
9.89713 126.698 -6.95916
-15.2072 101.339 14.7173
5.23791 144.311 2.87246
-26.296 100.785 13.0826
-3.35497 85.5293 13.7105
-6.40913 119.658 -9.12551
2.55296 121.882 -7.10475
2.49079 131.414 -5.99114
-3.69911 124.812 -6.58056
-28.5546 89.553 14.3982
8.00814 143.547 -6.64818
6.28207 82.6771 11.2937
-10.9931 121.259 12.1397
-2.47581 119.924 -7.84997
-15.2434 97.2551 15.4815
-2.92795 92.6579 14.9549
8.56016 101.428 -4.8983
-6.63142 133.455 8.31539
9.29852 104.775 -4.62268
0.605715 106.37 -11.4202
8.72727 122.73 10.0391
13.221 134.54 -4.23405
-14.2029 112.898 13.7818
8.95285 88.8545 11.634
-22.078 150.671 3.78057
7.36677 135.549 4.20124
-23.0406 144.525 -0.338785
7.1345 108.335 11.9532
6.40825 87.2964 -5.5355
-17.093 97.5367 15.6847
17.3563 119.71 -7.57732
10.9675 83.8636 5.8117
16.2805 127.417 4.5873
-24.6703 120.905 13.3732
-0.465629 143.32 3.64185
7.44792 102.699 12.6097
10.2601 126.924 -4.87113
-2.99932 115.283 -9.12347
-2.62593 112.569 8.67874
-0.853495 114.868 -10.0101
12.0243 150.893 1.50306
6.94469 123.816 8.08883
18.3766 137.216 -3.07058
-23.8638 101.449 15.4867
12.5302 123.271 -6.23442
-10.4686 88.1272 14.4768
-0.644884 128.464 6.49081
3.67503 148.358 -2.98031
6.59422 81.2111 -4.23447
-5.53109 114.059 -10.6552
-27.8645 118.166 11.1038
-22.6287 150.433 3.3678
-17.2232 136.538 7.30322
-3.30644 143.609 -2.71877
9.35145 131.079 8.10977
6.46487 143.544 -5.84653
11.6622 103.399 9.85637
18.3587 118.819 -6.68216
10.1399 122.145 -4.77338
-27.1333 86.0798 14.2897
10.5896 104.08 10.9865
8.04906 135.576 5.90028
-18.7265 128.057 11.7863
-16.3737 131.642 -3.70999
-27.1797 117.264 12.8423
9.27131 124.441 -0.869849
13.5968 104.45 4.95452
1.75879 121.242 -6.67963
21.8332 134.297 3.67202
10.1735 127.325 -4.89601
6.09668 88.5477 -6.67112
-21.5231 132.294 9.83677
-0.598243 111.883 -11.5597
-19.6142 141.118 -1.9811
-28.0032 117.672 11.3719
-4.52592 94.6274 -13.1811
-6.01063 133.149 8.2109
-12.3214 118.95 -7.69909
1.95358 125.482 5.64214
10.6019 143.85 -5.43406
11.8912 127.601 -5.90159
15.1585 148.529 0.862616
-8.80816 126.021 -6.57343
12.4465 95.1981 7.01344
-20.0559 100.548 15.8787
-17.4231 137.959 5.52582
11.8545 87.7277 5.4275
-12.9854 142.668 4.91407
7.59425 99.4324 -7.50868
-28.4319 126.823 8.70464
-6.68812 147.019 5.1242
14.8038 129.623 -6.97526
18.4113 145.469 2.23687
-0.0732717 101.324 11.7531
-30.5059 84.8849 14.1673
-24.5045 147.716 6.32568
20.6724 139.118 -0.410074
12.8989 93.5718 4.94832
20.4639 129.38 -3.42565
-9.26184 129.821 -4.03615
-12.0692 95.776 14.2335
-5.01477 141.952 3.98713
17.8313 118.606 -6.94751
3.66491 139.778 -5.1973
12.9405 93.5091 5.95084
6.89605 85.673 11.932
8.49726 105.644 12.3625
-5.15329 79.5198 -12.0675
12.0715 148.365 3.18268
14.4783 125.415 3.72608
-24.9956 132.503 6.44399
-6.0347 142.036 -3.31461
-5.74297 144.775 -3.79625
-0.259238 107.71 9.54124
11.5233 90.8545 8.34562
9.97715 102.55 -2.47794
19.4053 130.095 4.24028
-8.08918 101.469 12.5175
6.89718 76.3203 -1.94038
-20.2749 106.375 14.4566
-17.5713 140.648 -3.53196
14.7516 119.627 -7.51944
-7.07417 154.208 -1.3474
21.6435 137.68 0.97801
13.3137 103.093 5.72479
-10.2434 130.184 9.81419
13.3702 114.882 6.13671
-20.1099 147.284 -0.413546
14.4827 137.663 5.8231
-1.54028 85.6713 13.0852
-5.92548 101.856 11.5622
-18.585 135.992 -2.72168
19.4259 133.332 -3.68973
22.4033 125.764 -2.81533
-22.3047 84.6745 15.065
-25.6372 86.8752 14.5524
-23.0467 127.824 12.4503
-0.623805 103.553 -12.712
10.0345 124.889 -1.29451
15.1991 140.741 -1.811
-1.47196 110.951 8.81487
-10.4155 150.801 -4.90945
-22.4697 138.952 -1.55766
10.4984 92.0572 10.9095
-28.7538 130.9 6.83199
10.4771 111.445 11.0631
7.10632 80.7154 10.0893
-2.70522 96.8207 -13.1357
-10.5692 150.214 -5.15983
9.04303 128.998 -10.1147
-12.6128 125.916 -4.8052
-13.6096 82.8242 13.9367
1.66317 77.7994 -7.78292
-27.4645 102.347 12.2104
-28.2716 115.111 11.9091
-7.19834 115.684 10.5735
7.98096 143.829 2.72563
-12.4806 108.721 13.4681
-0.71155 75.888 12.0594
4.22641 123.59 5.62403
-26.5169 137.092 6.69247
-9.1518 103.649 12.516
-26.0489 130.112 9.43347
-5.16098 82.7184 13.1858
12.1224 110.985 -3.20855
20.0141 130.688 -3.41534
-0.198907 105.793 10.051
-6.20258 83.5161 -12.9133
-16.7599 113.689 13.9742
-26.9491 121.083 12.2573
12.7783 90.6659 4.43356
7.40729 138.729 3.42021
-23.9786 112.086 14.437
11.3817 83.0954 8.35539
-0.0692712 77.8794 -9.27676
9.8626 112.287 11.3343
20.6786 140.844 0.563316
-14.5112 89.1948 15.4053
0.871726 150.685 -3.39307
-22.9792 129.92 10.6262
10.9265 119.222 -5.95885
10.8302 102.223 10.78
-2.35659 88.1855 -12.2774
-2.92994 102.498 10.9594
-3.52789 121.026 7.88493
5.24396 135.037 -6.55977
23.0981 131.634 0.528022
-22.4494 118.514 13.6528
21.9086 120.139 -3.791
-15.6216 149.21 3.72351
6.30022 149.185 -3.56339
-6.52643 131.71 -4.04253
-0.968862 116.018 -9.72415
6.6118 114.033 10.1523
14.8489 148.047 0.589326
-13.2027 145.599 3.62902
5.79418 112.281 9.61202
5.43702 98.9504 12.9332
-24.1656 131.713 7.00046
-9.01032 105.183 -12.426
13.3416 128.042 2.25188
-5.80634 96.2125 13.1605
-23.1212 130.362 9.98248
6.69501 149.101 -3.70264
-14.1187 137.792 6.37592
-12.1262 141 4.76951
-1.03108 120.898 -6.73126
13.8873 122.202 0.802801
8.79527 81.2494 -1.11667
3.96628 124.846 -9.37452
-18.2199 120.178 12.6377
-22.8245 108.944 14.3934
1.50582 146.392 3.04342
6.02965 150.331 -3.33782
12.2458 90.8262 2.69418
1.24487 133 5.1676
18.3272 141.203 -1.03748
11.6494 120.715 -1.23614
12.2414 92.1524 1.5688
22.3386 121.168 2.00552
-19.4628 112.425 14.1401
-2.46344 97.4605 -13.1645
8.51418 137.167 5.41721
11.9848 124.697 0.63325
-3.25397 89.4362 -12.6154
8.76348 103.49 -5.00499
-13.0796 145.634 3.58573
14.5008 122.757 2.61628
-25.2078 115.604 13.9449
3.36711 124.216 5.61677
-15.3687 109.629 13.7954
-17.8026 129.721 -2.69696
13.1593 116.178 3.82693
9.38983 113.482 -5.61424
4.02663 144.861 -3.6774
-24.1833 123.9 13.0849
13.7396 108.999 5.22214
-25.773 148.137 5.53452
-4.5928 109.902 9.56226
1.7692 79.6927 -8.45496
-4.21914 124.518 8.10759
4.74331 150.156 -2.93808
10.0042 111.23 -5.66978
5.13146 130.016 -7.581
1.19327 134.198 -4.75192
-4.46804 78.1863 12.7332
-26.6988 89.4333 14.9619
-13.1925 119.361 12.3964
1.42595 150.584 -3.1506
4.39283 145.145 -3.87129
-22.6608 88.489 15.4781
-14.0207 132.36 9.88001
-2.749 116.957 -9.08029
1.67407 93.0871 -10.725
9.75618 127.881 -0.889021
-22.7055 147.648 6.4699
27.8703 122.468 -1.2935
2.09924 76.5723 -7.33952
-7.08447 90.6197 15.1213
-0.529683 125.359 -5.30596
8.21942 111.143 -9.26383
11.9675 118.02 -1.55593
16.8229 136.495 -4.16327
5.90385 148.391 -3.52883
-10.6307 116.809 -10.0437
11.3115 92.3237 8.65844
-10.5639 150.449 -0.13547
-2.65001 89.3443 -12.5209
-11.9255 134.417 -2.95986
11.6716 129.054 -6.47926
6.71957 150.278 2.30878
-1.75238 112.608 8.4799
4.72868 137.045 -6.63607
7.23883 87.7878 12.0527
-14.5426 150.628 3.3062
-20.2112 110.292 13.9125
-15.1172 152.793 3.09847
-29.5001 89.2071 13.9278
13.115 136.258 5.81392
5.42049 144.926 -4.7715
-0.0411894 127.936 -4.49493
11.3108 97.2139 -0.782566
-5.31961 125.508 8.48948
16.5431 116.406 0.989837
8.01221 131.766 -9.33829
13.2866 122.637 1.7378
9.12856 109.882 11.919
11.806 115.233 9.24837
14.0188 126.981 2.44886
1.3485 145.581 3.26374
11.4013 123.457 -1.60873
-22.8818 86.8008 15.387
12.7399 114.599 3.57998
-4.10022 101.602 11.2054
7.80746 76.8533 10.2305
0.267844 147.486 -2.80269
-4.68779 112.981 -10.4721
-2.5893 126.455 7.43294
-8.12245 103.447 12.2852
7.34539 135.293 4.08992
-27.9377 127.744 8.74762
-21.2651 96.2229 16.4234
12.0107 96.7219 8.72594
-3.85548 128.229 -5.13644
-4.22092 93.9035 -13.0743
-4.4746 124.152 8.24113
-4.75463 86.5125 -12.7093
11.7654 111.673 -1.74458
-9.66073 95.4249 13.7811
10.1447 110.363 11.4011
18.6693 133.191 -4.49667
-23.4248 94.4672 15.8346
-25.4964 131.626 7.07594
-5.67333 85.4328 -12.6851
1.65282 145.238 -2.69084
-1.66041 110.035 9.05656
-19.0674 138.499 5.48324
2.07011 148.939 -2.86083
11.1224 104.317 10.3592
-3.52183 92.6331 15.0282
-17.1775 132.368 -4.72206
11.3863 121.675 -3.00028
6.98043 112.302 10.6399
9.09819 114.862 -8.76336
21.7913 119.417 -4.12416
-20.9847 88.7796 15.9424
14.2388 126.589 -7.2329
10.0923 131.337 -9.27282
-0.697061 117.648 -9.66162
12.4989 98.9769 5.50389
8.81703 91.9412 -3.48632
-14.6482 152.76 3.04106
-28.7746 112.988 10.0346
-22.5884 145.028 7.53846
7.89824 125.189 -9.66475
-11.7529 145.649 -4.74503
-6.18739 116.882 -9.71643
9.26545 76.5796 9.86335
7.64773 131.663 5.44611
-7.76572 107.319 11.4027
10.4449 76.858 1.28209
10.1678 146.058 3.07086
15.1394 133.264 -4.79779
-25.553 110.577 14.2687
-28.0363 136.24 7.13473
-1.06142 81.0235 -10.7195
-4.10702 133.341 7.17739
7.92222 116.161 -6.55504
10.2266 124.034 8.20338
16.4172 142.841 -1.05743
19.1693 118.949 -6.13794
-17.644 108.964 13.9814
-16.1611 151.619 -0.0613065
-29.1936 89.5612 14.1641
-8.08051 146.872 5.41544
14.0162 123.115 1.49277
3.89537 110.225 9.25399
4.69713 83.4105 -6.65325
2.96997 122.484 -7.59958
-8.11259 94.9159 13.8293
9.41182 151.776 -0.997069
-19.2186 89.4419 15.6321
11.1333 120.793 -3.27805
7.49222 82.8548 -2.90452
6.40278 138.488 -7.20133
-24.3719 90.571 15.252
-20.068 140.623 6.45332
-12.389 89.5739 15.2887
5.9739 135.548 -6.91037
-14.0995 106.36 14.3266
11.1934 119.599 -5.39114
4.76164 129.657 4.69073
-17.8675 116.552 13.4077
8.53132 151.791 1.42209
-14.1535 98.1447 15.0149
-7.05258 126.314 -6.35494
-10.9167 115.482 12.5934
6.223 108.23 11.5358
-12.856 145.551 4.1264
4.29931 129.345 -6.99879
8.86331 96.6404 11.8037
-11.2372 148.714 -5.39359
12.6239 94.5068 2.80342
2.5273 85.8539 -9.39885
-21.3731 137.556 6.42723
16.619 119.225 2.31305
12.8322 94.5778 4.44124
-4.84477 114.751 9.05465
12.2574 125.126 -4.33959
5.24465 132.142 4.2788
-10.1208 139.448 5.06051
-21.1416 90.9746 15.8797
4.50303 113.992 8.31436
12.2797 86.0401 4.61468
8.06391 93.7038 -4.97609
-17.92 146.384 -0.89034
11.3475 77.4128 2.62669
-17.6993 152.046 1.5873
6.27178 146.339 -4.7303
7.61937 120.634 -9.83042
-14.2014 121.819 12.4624
-1.85392 98.211 -13.106
2.67759 76.5428 -6.91161
7.58487 152.401 -2.57498
10.9297 126.75 -5.5401
-14.4149 145.104 -4.16666
-18.3209 137.87 5.57136
-17.0595 121.502 12.5467
10.1197 89.1983 -1.40876
12.9728 137.937 6.00027
25.7755 128.461 0.515636
13.8089 132.616 4.35043
-22.0445 139.871 7.17458
5.25347 152.119 -2.96393
-18.6855 147.128 6.30188
-9.19076 94.3771 14.0654
12.5525 94.3646 2.24812
-16.3936 121.584 12.583
2.10572 80.8963 -8.86704
-12.7099 79.2051 13.9883
25.4129 125.644 1.46817
-18.6767 129.83 11.8298
18.1375 141.395 -1.11811
5.30765 99.4804 -8.94703
7.59223 100.947 12.2375
1.70739 86.8453 13.1566
-15.9953 148.387 4.11298
-28.0318 145.911 6.50309
-18.2457 115.003 13.8893
-5.50458 150.127 -4.72085
6.09554 151.732 -3.13303
10.2369 103.991 -2.11575
21.0482 123.977 2.52615
8.63006 105.756 12.2975
-24.4443 112.388 14.3429
-0.127023 91.3147 14.2379
6.78842 75.813 -1.4356
-29.3208 126.169 7.73492
-8.26126 101.945 -12.2014
16.3086 124.073 3.65354
-6.84703 154.182 -1.22505
13.3031 121.197 -0.650009
-13.5693 140.511 -4.31383
-14.1095 107.234 14.1571
-5.87184 126.206 8.68713
-7.43754 106.609 -12.5201
-12.8577 127.21 11.4624
-0.538403 132.501 -4.2167
15.3435 142.332 -1.1905
-1.4767 82.0666 12.7794
10.2482 93.5982 -1.94024
12.1293 115.517 -3.32134
10.2295 112.662 -5.51871
11.9701 83.6903 4.22695
0.220363 143.768 3.67932
-0.612067 87.5324 -11.3378
21.4612 135.495 -1.0198
-7.54956 145.049 -4.25432
-27.908 92.6494 13.309
-21.0127 143.916 -1.28679
-19.0374 132.048 -4.18607
11.3476 106.171 9.77368
-22.7263 150.293 2.62059
-14.6979 85.4031 14.4663
-16.5935 148.863 -0.340039
-14.3989 107.606 14.123
9.45428 125.969 -5.2054
-27.4004 140.57 6.49269
4.907 113.768 8.5336
-29.53 135.935 7.87916
-15.7853 87.5705 14.6922
6.36571 137.024 3.50113
-9.25713 130.283 -3.76054
11.4181 83.1702 4.73535
-29.1562 86.6833 14.1759
8.22701 115.731 -8.87884
-4.76925 103.044 11.0979
7.23808 116.945 10.2993
-2.82947 76.3727 -10.964
-16.334 96.9868 15.7242
3.52832 119.99 6.69642
-15.541 105.541 14.592
-6.16358 90.4977 15.0835
10.5325 112.289 -4.88598
-10.213 148.898 -5.4953
1.99932 112.825 -11.3002
12.7564 125.06 1.55022
-15.8899 111.744 13.9045
8.71167 153.199 1.7362
2.6214 92.1139 -9.99647
4.55487 117.04 -8.35631
-1.80203 145.491 -2.84371
12.0119 108.281 -0.473646
12.8315 96.3677 3.09484
-15.5409 134.631 -5.07866
21.8942 130.712 2.42921
7.34736 123.258 -10.3829
11.3301 86.2164 2.09865
-11.8828 131.953 9.49487
4.02559 140.009 3.68752
17.6245 131.381 4.62994
-10.4119 94.7839 14.0663
9.10924 104.721 -5.26563
6.94467 78.3243 -3.28524
-3.23048 123.311 -6.61845
11.6692 119.499 -4.91924
-19.2758 151.639 1.30846
15.8884 146.177 3.95237
8.85566 128.27 -10.1112
20.5866 120.125 3.17881
10.4126 96.9048 10.4666
16.3689 144.706 0.270857
19.6001 129.156 -4.28102
-13.5352 132.521 9.55973
-9.13056 153.719 -1.41088
-5.97994 125.707 8.75995
10.0021 97.497 10.7399
11.5655 118.903 -6.18906
10.8503 79.253 0.735351
-13.5816 105.332 14.0562
-7.71191 117.256 10.7915
22.7124 123.526 -3.73493
-24.0053 100.359 15.5994
18.283 126.315 4.3102
-5.72425 85.4938 -12.7063
-3.84201 139.738 4.974
-19.7527 112.331 14.1503
-3.67403 147.845 -3.92609
9.39462 100.875 -3.13008
-11.4677 147.669 -5.09029
0.282451 137.924 -3.64677
2.3069 95.8659 13.5799
-23.3702 96.8079 15.9189
-7.61679 114.539 -11.0175
-0.953968 112.378 -11.2608
8.66602 134.712 -8.9719
-17.0385 136.98 5.65538
14.5789 120.386 2.13121
11.1146 79.2264 5.24476
10.6096 117.008 -5.03787
-3.21055 75.5698 -11.0028
18.5976 131.439 4.49275
11.5629 137.056 6.00573
11.8917 104.324 8.85886
-0.469376 102.235 -12.739
-4.66469 113.591 -10.1255
4.81199 143.469 -4.60483
5.33801 131.605 -7.61373
9.0899 134.585 7.67064
-10.4322 139.302 -4.29319
6.03685 116.173 9.16252
11.964 145.674 -3.48737
12.6382 99.316 2.04172
-3.62931 125.943 -6.29367
-27.3921 131.668 6.84459
-16.5154 99.1582 15.5543
-27.3295 145.009 6.34594
-6.58597 145.35 3.86894
13.2081 115.412 3.81807
8.52222 119.683 10.5309
22.2007 123.854 1.90235
11.9124 97.701 9.23423
-3.15067 104.548 -13.0694
-15.4875 134.008 9.54859
10.4185 128.837 7.25002
22.1225 120.284 -3.63242
3.94146 139.043 -6.01552
-22.9588 99.4566 16.0259
-1.14113 115.34 7.99223
-18.9715 141.336 6.66238
-13.2539 127.909 -3.44397
2.34209 117.135 7.36267
11.45 77.4184 8.95061
-28.6438 130.583 7.91325
-4.07594 77.0602 -11.6344
1.45096 153.422 -2.39483
-25.9959 112.534 14.1317
-14.0328 144.993 4.34192
-22.2256 109.68 14.1729
13.0216 119.872 2.15944
3.75855 113.766 8.24001
-9.42844 109.524 12.2861
23.562 124.251 1.54954
22.7778 126.197 -2.70702
-0.606758 86.7243 13.1604
5.52915 129.092 5.00307
-17.1385 112.605 14.0263
7.18458 90.9624 -5.71947
-21.4979 115.236 13.9114
-19.0651 102.524 15.4212
10.8429 112.014 -4.6957
-13.3646 134.841 8.29462
-9.35837 92.9251 14.9659
-0.639701 147.494 2.638
16.1238 139.104 5.60023
10.2847 128.904 -5.16284
-22.2155 119.097 13.6307
11.452 93.6615 0.0530258
15.1116 130.619 -6.61764
20.8712 139.433 3.69755
9.11532 145.47 2.67115
6.76588 117.949 9.59705
12.9514 96.6614 5.10548
1.76952 133.423 4.78603
-14.815 92.2705 15.9211
-0.0323426 109.409 9.13763
-7.59569 94.2177 14.0645
5.94369 102.128 -9.61617
-5.14543 91.0086 15.1034
6.80955 85.338 -5.01206
9.24163 99.7547 -4.02696
11.3364 89.8773 9.05206
13.7358 133.338 -4.80261
-3.0273 75.8871 -10.9704
-6.14473 139.503 5.1796
3.46905 79.1181 -6.69373
-12.5433 121.436 12.2491
-0.0218683 90.793 14.1287
-13.9338 104.356 14.1296
4.58895 106.044 -10.2103
0.811939 95.2599 -11.484
-2.27311 137.193 -2.29491
4.94642 145.9 -3.88597
-13.2178 120.251 12.2758
12.6565 117.403 -0.0397332
-10.2825 113.4 12.5704
-10.6134 130.492 -2.84429
5.89631 112.48 9.61965
12.252 128.582 -4.16689
13.609 107.372 5.76846
-4.31579 114.555 8.88294
13.9178 110.47 3.81027
-19.1308 123.918 12.6786
-11.911 108.16 13.5389
0.830969 151.057 -3.55416
-14.9914 116.704 12.8738
12.6228 91.7726 5.34469
11.4858 88.5842 6.23379
-4.92967 78.5449 -11.9838
10.758 124.926 0.597747
9.98287 78.5581 8.97523
12.6524 122.594 0.806507
11.3893 137.699 6.32195
-6.56136 129.915 8.90812
-8.89197 140.068 4.59333
-9.93525 121.303 -8.18782
-6.73098 87.9739 14.5907
-7.54371 118.548 -10.0312
7.84818 154.533 -0.0547637
5.59023 128.587 -8.30797
9.22828 123.94 -6.86878
-24.6963 117.156 13.6672
10.4789 99.039 -1.69637
9.90826 94.0325 -2.70439
13.2554 109.911 1.42214
-15.8342 152.908 2.52162
21.7831 138.134 2.61111
-18.2087 142.859 -3.72841
8.89308 127.792 -4.68232
14.8386 142.223 5.65115
12.5638 102.176 1.3104
14.9998 146.196 0.297618
8.13515 94.6428 11.7494
10.3124 128.171 -2.40696
11.5966 112.578 9.35109
-19.6498 110.958 13.9526
-0.770145 91.2228 14.3945
-11.265 124.803 -5.91327
-9.76251 114.544 -10.8333
-19.6109 146.47 -0.556197
13.4485 116.424 -1.86151
-0.912824 100.307 -12.9797
11.7285 117.935 -4.67486
8.44519 100.276 12.0744
-25.1445 108.436 14.6606
-25.3625 102.637 14.2087
11.6123 127.584 -5.13989
11.9445 124.441 -6.17333
-25.1308 100.364 14.4056
-7.39731 126.377 -6.39005
-11.6205 142.464 5.46189
12.3553 120.042 -0.0696716
-27.6566 87.617 14.2117
-4.6613 80.8435 -12.0709
-9.30741 118.974 -9.77191
-4.50867 90.3599 -12.7828
-15.5647 89.2368 15.2983
-24.4609 122.163 13.3181
9.53923 93.4521 11.4553
12.8564 91.4205 4.66812
9.55353 125.275 0.132164
-13.9658 122.374 -5.68922
-8.05814 138.37 -3.35494
12.2883 138.893 -4.16639
-4.93262 123.66 -7.49719
-16.7618 118.781 12.7089
7.14545 91.3215 12.3968
-27.8349 120.08 9.90659
12.175 92.8784 7.32625
12.1434 119.007 -0.118602
-6.15805 80.2881 -12.5966
9.81869 126.626 -9.33583
-25.6534 114.978 13.9549
-24.7513 101.243 14.7491
-3.14443 132.615 -3.41184
-1.33224 99.6307 -12.9839
-22.6848 124.212 12.6568
11.0755 75.4763 2.93733
9.45565 84.0912 10.3073
19.9046 128.697 3.78307
11.9861 74.9347 4.19092
6.70084 101.701 -9.09993
-19.0631 123.532 12.7265
15.0545 143.802 -0.204064
4.28167 108.797 -9.95991
-4.67183 86.4765 14.321
-5.41189 153.17 -2.94027
-5.63311 139.589 5.19105
13.1509 142.378 -2.25784
-1.61872 124.177 7.08668
-2.83871 101.051 11.4058
11.1417 124.418 -5.55912
-0.42713 103.382 -12.5775
20.4634 119.605 -5.25504
-21.4125 79.3748 15.2203
10.7138 125.425 -5.8718
-0.406654 125.434 6.44353
6.35838 137.277 -7.11226
-25.9731 99.8682 13.5275
4.29338 120.732 -7.86331
-8.6461 99.3203 12.6866
11.2804 112.926 0.363535
4.23791 130.543 4.58234
-16.4792 124.416 12.491
-16.7758 129.494 11.8425
-16.26 105.759 14.4705
8.75481 127.209 -4.51908
10.6398 76.7408 1.72197
1.18898 137.822 -4.25936
-19.328 142.456 -1.70364
9.63477 102.652 -2.86509
12.0251 102.607 0.326794
-12.5809 150.687 -4.09395
-2.74481 100.356 11.6557
4.73867 86.2842 -7.39948
8.02895 95.3393 -5.80624
-9.03457 121.171 11.1318
-28.1872 107.16 12.5895
-21.6452 117.65 13.8561
5.51517 115.057 8.90037
-10.6172 134.676 -2.38241
-0.704344 116.003 -9.78619
15.6457 120.046 -7.25496
-14.3195 147.298 -4.31755
-21.5031 113.933 14.0985
-26.887 105.809 13.6313
-17.8812 151.598 0.689865
-13.7156 115.651 13.0336
-24.6027 102.854 15.3
-13.8501 148.8 1.46137
10.1417 119.551 10.4207
-25.8759 117.387 13.5379
-10.5296 98.2917 13.2869
12.9216 91.9593 4.09845
10.0777 133.8 -9.28474
7.9988 115.301 -6.96308
-0.414641 96.9737 -12.1565
-15.0765 135.405 -5.05314
12.6577 89.0898 3.69834
11.9376 82.8264 3.80532
-24.214 100.349 15.4535
-28.329 117.082 11.1688
-20.4794 143.815 6.88552
11.4668 125.757 -6.35142
-12.373 146.398 1.66317
-15.5598 99.0537 15.3265
4.68366 96.9382 -8.99259
6.51277 89.0058 -5.97136
-11.1223 127.719 -4.30347
18.2822 128.338 4.31467
-1.9772 132.499 6.92608
-3.60236 134.792 7.00872
-8.41342 128.126 10.0299
9.12815 122.711 -6.386
12.9667 119.28 0.610036
11.3816 131.507 -4.89458
7.2255 154.57 -0.185739
22.5828 130.056 1.87185
-4.1916 95.6835 13.5118
7.2755 96.3929 -7.13851
9.25037 142.882 3.67342
-3.48147 104.625 -13.0859
-10.2437 141.648 3.91963
13.2299 116.146 6.3487
-2.04335 141.998 -2.24917
-18.4273 119.739 12.7368
-27.1153 123.195 9.84154
-12.1989 91.0392 15.7385
12.7194 109.368 0.116823
0.360162 136.199 -3.91483
11.5371 105.077 0.522088
17.6199 125.296 -6.58894
13.9922 146.848 4.47193
-14.1867 129.852 11.1744
0.867524 153.273 -2.43282
12.653 111.273 -0.182636
9.24636 89.0613 -2.52715
7.62676 140.776 -7.455
-1.61969 104.367 -13.0696
-13.6516 78.9695 14.0909
-15.656 126.292 12.1442
7.69027 135.729 4.82878
24.7988 122.264 -3.49094
12.579 97.2929 7.5203
-11.4468 119.163 -7.9728
-6.14961 129.371 -5.10761
-16.8431 136.251 -3.72723
-22.4645 148.968 0.628457
-1.21999 98.7507 -12.9662
20.8822 131.685 3.47087
-24.2372 123.837 13.0992
-2.34137 122.562 -6.58746
-9.65972 128.392 10.4944
-25.732 120.154 13.3354
25.56 126.213 -2.73496
-0.774528 136.664 5.77469
15.4574 142.986 5.50173
3.37313 81.8641 -7.38568
-2.05623 109.671 -11.3882
-9.02362 144.367 -4.5398
-15.0678 109.685 13.7541
-12.4532 140.86 4.94084
-2.57388 144.708 3.23995
26.3894 124.903 0.532906
10.1037 88.8024 -1.34201
12.4384 92.3549 1.97527
-5.84611 137.804 -1.64205
4.93219 145.937 -3.85499
-14.9403 147.192 1.9573
20.0296 130.676 -3.40623
-18.5631 143.021 4.7854
-16.9467 149.365 -0.288491
-0.394355 116.325 7.7043
-1.71038 96.4994 13.8454
11.6327 86.8831 5.78108
-9.03726 148.969 -5.46669
13.5814 112.991 6.19044
9.90017 78.6956 -0.158424
13.6165 112.781 6.0702
6.56976 148.394 -3.80735
4.32626 87.2214 12.8033
11.0709 116.241 -4.5755
10.8909 129.831 -7.46917
2.30334 147.382 3.95597
-1.82631 82.4595 12.7855
7.69449 126.895 8.33751
12.3681 127.383 5.52041
11.9721 88.6007 5.26219
-27.2325 99.0431 11.1557
-10.8875 149.6 0.140775
-22.3468 146.786 6.82463
-9.85625 81.0083 13.4154
-6.35233 79.9614 13.142
12.3927 119.628 3.30901
2.63737 106.816 -10.3742
-28.0184 139.601 7.03649
-9.7422 146.205 4.69448
14.4485 119.601 1.604
-24.6477 125.255 12.7044
-10.6549 97.2014 13.4901
12.1962 85.9245 3.68331
-28.0819 90.9679 14.2667
-2.10766 92.0014 14.8098
-1.13147 149.975 -3.82966
12.2487 128.752 -2.93682
-25.5318 113.942 14.0555
4.44324 144.939 -3.99056
-24.1509 83.7697 14.6057
-12.7692 124.944 -5.22835
-7.07571 110.453 -12.1396
9.60119 127.985 -5.19272
11.0465 147.515 -2.97382
-11.9209 91.156 15.7454
-18.408 142.548 -3.9122
12.8153 122.923 -2.26681
1.33431 88.1163 -10.1958
11.3646 123.522 -4.76559
10.5736 133.14 -8.98043
-14.0477 148.57 1.54622
10.0981 120.986 -4.66506
7.82512 119.916 -9.34631
11.9386 108.891 8.83192
-27.4403 100.571 11.5095
-25.6661 114.765 13.9719
-6.50721 136.845 6.26619
-18.8119 147.842 6.56683
17.8769 124.911 4.02806
16.7516 146.271 3.3849
-13.5851 148.301 -4.45447
-7.63614 136.758 -2.28955
-11.3555 146.056 2.98333
12.6002 119.023 2.26367
2.16344 79.7156 -7.98733
14.8066 130.856 4.6309
2.41994 84.4017 -9.1741
-22.1368 150.802 3.10436
-5.48747 86.3445 14.3485
6.49766 144.255 -5.73414
-3.94534 112.309 -10.4172
9.68391 126.374 0.0753289
13.5698 121.889 3.73423
-23.0657 106.998 14.6846
7.48181 123.391 9.46773
-1.92178 83.2724 12.8313
17.5157 125.661 -6.48119
22.3868 133.905 0.375853
8.24003 119.547 -7.70904
-6.42009 130.102 -4.84377
-16.3623 148.943 -0.412909
-12.4261 118.67 12.567
17.6037 141.529 -1.51657
-3.3797 132.32 -3.5992
-20.6051 145.619 -0.5813
-11.4185 82.3876 13.5442
-12.9562 83.9172 13.8891
17.0355 120.204 -7.91445
-22.6134 82.5997 13.8594
2.19292 125.718 -6.32785
6.89314 91.2602 -6.39737
11.9447 100.235 9.53218
-21.352 117.537 13.8471
12.9209 96.8661 5.57826
-9.80015 85.8905 14.3167
4.52673 136.518 3.46725
7.29352 86.128 11.9015
-27.8298 124.426 9.7801
0.0429663 137.731 5.39479
4.87163 97.7238 -8.89788
-22.5276 122.193 12.899
-8.91649 154.982 -1.15657
4.85658 109.833 9.95294
5.61992 142.263 -5.4446
-5.13322 87.1473 14.5703
10.8997 98.5357 -1.13651
3.25728 142.602 3.30806
11.2368 87.0117 1.28517
22.5959 126.604 1.64664
-16.665 135.674 -4.17294
4.78015 84.5938 -7.035
13.4471 120.528 1.738
26.4383 123.499 -3.4774
-24.437 92.5225 15.6088
13.4322 121.175 2.68093
-5.72197 118.361 -9.02722
-23.0835 149.938 5.00962
5.58941 121.398 7.50469
22.3157 131.301 2.42096
22.7127 126.687 -2.26902
0.856459 151.269 -3.6049
5.17575 114.846 -9.22257
8.80127 151.026 1.67477
7.46596 111.123 -9.71516
8.9296 88.0413 -2.76099
9.69438 82.6336 9.889
-5.61558 100.055 11.8561
-0.916301 123.348 -6.03947
22.1154 127.025 -1.93407
-2.22744 107.16 9.74553
-4.17731 140.998 -2.22136
18.798 118.394 2.76094
12.9656 120.841 4.88555
20.4941 135.888 4.0427
-18.7677 143.288 -2.8379
11.6726 124.527 -3.28265
-13.024 107.673 13.8563
-28.4611 141.272 5.50053
-13.7676 103.61 14.05
-14.4762 133.976 9.0098
22.194 128.903 2.13554
6.63519 86.4741 -5.1753
11.1965 75.5441 8.93419
-10.1815 147.323 -5.40745
-16.0849 146.76 -3.18229
-21.0697 120.171 13.1595
16.8164 119.3 -6.26735
-6.18974 139.188 5.37364
8.18459 150.939 -3.87085
-2.66736 111.117 8.9201
11.7144 104.108 0.152341
11.6398 124.911 5.81381
-3.07757 86.623 13.9387
-14.585 136.834 -4.86407
10.1743 80.4579 8.64655
4.53157 97.9159 -9.1654
-25.7623 136.343 6.78091
-27.9881 98.4412 10.713
8.4381 137.051 5.34101
-7.41043 128.758 9.3835
-7.87657 120.377 10.5235
14.0453 126.671 1.72348
-20.8145 149.261 0.171426
20.9316 121.258 -3.88126
10.7342 125.845 -6.2268
0.313293 104.591 -11.8626
12.9491 94.4937 5.28753
13.7736 110.208 5.45259
13.1079 147.768 3.51434
10.9887 77.6073 1.8072
9.07759 130.439 -10.0051
14.0891 129.265 3.25927
-19.3279 146.584 -0.596297
1.68745 141.656 3.78748
13.1178 144.821 5.27404
3.36426 138.298 -5.59443
-15.3683 101.988 14.8013
11.8119 78.8129 6.86725
12.7869 123.013 5.58777
3.60738 89.3869 -9.21835
-24.6451 149.184 4.51489
6.3371 102.344 -9.41298
-0.965932 115.97 -9.72658
6.00444 144.862 2.68305
-9.44911 133.717 -1.95415
-1.92031 88.1833 13.9809
9.62338 80.0174 8.47034
-5.67143 80.4714 -12.399
9.16901 124.099 -6.98153
-24.3804 144.4 7.21119
-19.1248 151.831 1.6663
12.535 122.217 -0.374317
-25.4546 83.9305 14.556
12.1158 122.646 -1.20706
8.04126 118.852 -7.27094
7.72323 132.91 5.5752
-15.9258 135.64 -4.44129
-16.0456 150.632 -0.311727
6.06813 124.848 -10.6328
4.38272 106.572 -10.0847
-13.8722 152.179 -0.478532
-1.39763 97.5593 13.557
-3.34528 118.306 8.00732
14.1055 121.145 2.10938
11.496 119.961 9.49833
12.6316 97.2249 1.94548
13.2137 116.779 5.99126
-17.1468 101.969 15.5227
11.2426 122.295 -6.32205
22.5999 120.799 -3.57235
23.9654 129.051 -1.08131
-18.6755 144.514 -1.41115
10.4424 134.876 -8.93997
-6.28735 111.673 -11.9198
-9.49721 110.474 12.2731
-8.23688 112.815 11.4843
8.56654 121.446 -6.27877
-6.34148 97.8627 -13.0808
-1.89052 118.928 7.71266
-25.9431 124.29 12.5007
-9.12725 151.167 -4.89281
4.23154 101.442 -10.114
9.64925 152.463 1.25858
-27.6779 147.585 4.72701
-11.5119 130.148 -2.64932
2.88446 116.426 7.56219
13.4277 121.211 2.83248
-8.9719 118.285 -10.0127
-3.60708 75.1898 -11.1572
1.00915 99.6788 -12.0878
-8.82081 144.558 4.40477
