ply
format ascii 1.0
comment Created by Open3D
element vertex 1891
property double x
property double y
property double z
end_header
-9.92481 120.008 -9.99571
8.7708 118.31 -10.9519
7.13444 112.734 -16.1061
11.1064 145.082 -3.69026
3.90168 97.8566 -15.7687
10.6427 121.76 -10.4094
-17.3505 87.105 -11.4127
-18.5936 131.581 -1.9253
-6.72018 144.37 -6.7223
-17.6734 82.0361 -13.8907
-28.1505 93.7065 -7.2651
-32.2645 87.1497 -6.46858
-0.216495 82.815 -13.1492
-29.4554 91.672 -12.5334
12.357 131.691 -8.17682
-21.8765 105.872 -13.2431
14.3184 122.086 -12.1557
-21.864 135.328 5.27945
9.32527 110.501 -13.8819
-35.7579 86.8224 -10.0205
-13.3847 89.623 -11.2509
-1.99649 82.9914 -12.8881
1.91775 144.865 3.02356
-13.6429 139.066 4.51482
-1.02821 79.0368 -11.7197
-24.9526 91.674 -5.24069
17.0572 127.559 -13.5225
-15.4021 149.808 -0.163465
8.35403 102.887 -14.3133
-15.0233 135.966 -4.24405
-31.3777 111.195 -8.40651
-18.5823 130.858 -3.38059
-24.0475 123.706 -4.85244
11.471 139.731 -3.71419
1.50951 134.986 -8.3361
-22.5739 127.515 4.77213
11.2786 124.603 -15.6822
-14.934 144.828 -4.24319
-35.2527 90.7442 -11.5461
-2.01658 143.098 1.93056
1.60301 115.785 -16.3076
-26.7637 125.662 0.85624
-14.8511 138.688 -4.99685
6.10734 134.571 -10.2729
-21.9721 118.043 -12.186
-1.29198 83.0244 -12.9474
-12.2614 149.068 2.58735
-4.06022 89.2824 -3.01648
-5.53417 125.652 4.76452
-5.09614 92.1913 -4.33867
7.253 150.077 -4.29578
-15.6035 128.785 7.22586
-2.41884 101.364 -17.3444
-7.72344 135.559 2.20655
-23.7672 113.269 -11.8166
-18.6818 82.7289 -13.6113
-19.4244 131.253 -6.98478
1.01086 97.3017 -15.9833
-1.53745 120.41 2.45675
-26.8282 87.8459 -5.36334
-22.8683 133.36 -3.51625
9.66178 138.321 -8.51653
-25.7954 134.96 -0.234453
-13.0526 134.985 -8.67624
-11.1922 113.671 -14.7118
9.70067 123.668 -7.08279
-3.619 106.711 -2.52625
1.342 95.8997 -16.0442
4.40972 128.785 -13.392
-37.0132 86.0169 -6.50482
-18.7664 87.3566 -3.18056
-24.318 90.5759 -4.35096
-11.8014 146.244 2.80375
4.86854 108.732 -16.5345
-24.28 125.546 1.31915
-7.03444 145.784 -6.65014
-27.7688 118.684 -9.78698
-26.0608 122.205 -6.18114
4.14857 134.274 -9.77404
-27.0446 96.6622 -5.18914
1.10721 79.6758 -11.9714
-18.8714 130.254 5.35881
-8.04491 150.456 -5.5787
8.74672 148.069 0.818185
-18.7114 117.328 -11.1499
-29.8602 95.3161 -8.01971
-29.5161 112.158 -6.14964
3.17747 88.3655 -14.2437
-5.83873 106.685 -16.879
-27.2365 84.1973 -7.97125
-0.783353 133.901 -7.97969
-23.7022 119.06 -11.8721
-21.8939 125.592 -5.68122
-16.2085 148.722 3.70668
-15.8942 121.822 7.73984
-32.6992 106.903 -9.60346
-0.736936 147.455 -4.49674
-1.22856 138.882 2.83605
-14.6024 106.698 -13.897
8.49816 126.652 -7.17234
-20.0161 143.713 5.90177
11.4218 133.768 -6.61595
-18.7997 121.847 7.48985
-9.46024 146.755 -7.16969
-35.9846 87.7324 -10.4854
-0.706533 136.453 -5.54154
-1.50274 117.608 0.526114
-1.97718 91.7344 -15.6082
-0.924951 146.203 -4.34549
-29.0718 113.321 -10.1499
-28.4609 134.619 2.02805
4.80172 138.406 -8.92001
3.01611 115.825 -15.6956
-11.5803 107.477 -16.2246
-25.3917 123.602 -7.00303
0.000596082 117.071 -2.37523
0.27035 91.6812 -15.2751
16.193 127.956 -12.1802
-24.2605 124.791 -1.17955
-12.6144 144.037 -6.07727
-1.86604 113.633 -1.70423
-11.9417 152.637 -1.94592
-15.5071 130.543 6.75878
-12.8121 135.126 4.4329
-19.9254 130.366 -3.37862
-20.7476 139.731 -1.50867
-3.30199 121.975 -12.8716
-18.7697 105.87 3.37843
-34.6508 88.6013 -12.7099
-28.6764 100.606 -3.78774
-13.9175 144.347 4.48328
-15.1793 144.587 5.49146
9.30079 116.683 -10.142
-29.5144 85.7695 -7.17078
-37.4966 92.6801 -10.1404
-10.2906 124.83 -5.94037
-24.6291 92.3342 -5.50576
-1.00126 112.602 -2.77651
-11.1421 152.35 -3.32568
-16.3064 132.468 -7.68036
-4.9627 86.247 -5.74114
-3.5017 106.83 -2.6575
-18.3889 114.733 -11.8731
-19.2498 94.9095 -11.0871
0.855032 126.107 -11.1309
-0.89382 123.26 2.93115
-9.5942 126.922 -5.18487
-0.595629 97.0594 -3.57825
-13.4503 111.895 -14.2123
-34.0427 86.244 -6.35763
-13.9729 115.418 -10.343
-18.3844 106.684 -11.7619
-17.1855 134.79 7.60322
-2.53159 115.749 1.27678
3.67501 115.151 -16.0262
-15.9802 87.4535 -3.16785
-18.318 139.386 -3.31384
-12.9102 124.8 8.01238
8.43876 143.575 -8.11822
-29.0406 125.741 4.05997
-30.1035 122.515 4.72377
-0.0374448 121.223 -13.9124
-21.015 144.472 0.372736
-21.4544 116.283 4.84837
-22.3605 124.772 -2.57863
1.29046 121.76 -13.8758
5.65718 146.996 2.12437
12.3063 125.928 -8.789
9.61862 149.992 1.01111
-16.665 146.052 -1.10474
-0.293398 106.156 -4.0317
-36.9619 89.154 -10.1926
-4.71008 103.848 -17.3072
-36.5553 86.6833 -6.82632
-22.6191 126.198 -0.552529
-11.4489 81.4926 -10.994
-9.77496 121.114 -9.13267
8.66617 126.961 -13.7623
-13.7576 112.127 -13.3119
-22.0291 142.287 0.396115
-11.3765 91.3826 -3.18382
4.42154 141.497 1.65201
-22.1141 92.551 -4.06395
-36.2264 89.0976 -10.1385
10.9698 141.109 -3.98476
-28.7374 96.0927 -6.70742
9.67129 127.816 -11.357
-1.48728 119.396 1.73551
10.7449 130.72 -10.2055
-8.52207 115.709 5.62569
-22.9241 102.902 -12.9402
-11.6069 132.957 5.03761
-26.5615 91.8134 -10.7882
-22.8287 110.75 -12.8652
-18.6881 91.1217 -1.52864
-38.0578 89.6737 -8.12173
3.38705 144.357 -4.16946
-13.7745 82.943 -9.19536
9.16485 142.01 -0.468312
-8.95719 137.913 -7.23175
9.06403 150.907 -4.60726
-6.4374 83.3077 -8.41202
-25.6881 125.683 1.75583
-15.2289 150.466 0.208608
-19.0085 85.3789 -4.73486
-25.3075 140.179 2.60693
-31.8747 92.7331 -7.46088
-36.2404 90.85 -7.51727
10.8497 140.955 -4.86721
4.5667 127.78 -13.7906
-35.6683 99.2735 -10.8831
-6.35192 141.971 0.526504
-1.5346 136.735 3.03914
-16.1113 109.944 4.02917
3.39208 104.198 -17.0524
-38.186 85.8592 -6.77062
-17.2881 142.216 -2.01564
-20.0141 125.335 6.87349
-17.9044 94.9913 -10.6997
-10.0446 86.1406 -5.38237
-20.8751 127.637 -7.96394
-3.57475 85.0136 -14.1448
-4.08015 111.523 -16.0793
-22.6291 129.136 -4.03512
-12.7418 144.899 4.00122
-2.47528 142.971 1.87096
-34.544 84.7973 -8.59837
-16.4483 147.918 0.831276
-28.8718 126.626 5.23536
-21.8384 115.848 3.42612
-6.63226 124.896 -9.67267
-1.12832 112.02 -2.88304
-26.891 102.941 -1.14571
-23.5098 92.4334 -11.4444
3.05096 120.642 -2.69542
-30.5803 129.511 4.24476
-22.5831 124.834 -4.4902
-9.11795 129.617 4.83265
4.60174 109.358 -16.5446
-25.7031 109.786 -13.9599
1.34769 91.9669 -15.0562
-19.9242 114.557 -11.7663
-29.0788 98.8552 -5.9183
-26.9507 109.659 -0.125995
-5.14582 137.884 2.12415
-26.4377 94.0547 -13.2766
-20.8024 125.685 -3.20289
-25.0449 102.405 -0.574329
-4.6622 87.2522 -14.4074
-1.03695 88.025 -14.2508
-18.4807 139.739 -3.18505
-29.9561 126.977 6.08941
0.513997 126.779 -10.8653
-14.5773 147.156 4.64389
-17.6732 96.3422 -10.8087
-17.9467 133.408 -3.63011
-17.0848 95.5173 -10.8641
-25.5627 136.513 0.427118
-20.5356 92.9558 -2.75911
-11.8031 151.926 -3.5504
-15.4879 144.353 -4.17593
-4.28358 91.5056 -3.43435
-7.08171 136.362 -4.80884
-29.927 103.721 -2.94654
-1.7863 94.798 -15.8211
-21.8842 117.288 -12.1917
-8.38164 113.654 4.88645
-29.9636 126.882 6.66435
13.0748 129.769 -10.2745
-19.6622 92.9979 -10.7404
1.01604 133.435 -8.72093
-16.4243 139.515 -5.17399
11.0791 136.733 -7.71942
-22.7085 96.4447 -3.01642
-32.3547 106.658 -12.2323
9.64025 126.979 -6.61647
-20.8066 128.064 5.66644
3.71718 105.353 -17.0863
-3.99177 154.582 -1.74179
-20.4093 132.133 6.61788
-13.4838 94.4615 -11.738
-21.8081 130.431 6.98247
-19.0678 116.983 -11.4663
-28.3716 110.18 -1.78473
-14.8578 98.0052 -11.0653
1.21848 125.707 -11.424
-20.998 91.5338 -2.80379
-12.5495 141.765 3.13285
-5.79864 128.763 5.11191
-2.42454 102.446 -17.5795
-2.85974 132.495 -7.58141
-19.1675 133.433 -3.55401
5.0357 98.2231 -15.6135
-30.0601 88.9453 -6.0951
-36.7806 93.4071 -11.2532
6.40789 114.171 -16.2126
-31.1532 89.685 -10.54
-6.90425 81.3788 -9.67368
-13.2141 83.0498 -8.75481
-7.86613 152.65 -3.11627
-23.4502 94.7839 -12.8293
-23.2691 129.886 7.6822
9.69874 124.87 -10.6728
-26.6828 116.522 -11.0925
-18.0977 113.651 -12.0534
-13.4203 111.642 4.37061
-14.0495 114.652 -10.6723
-21.8615 125.289 -8.59761
-13.671 86.3204 -3.74438
12.4507 122.382 -12.8781
-29.2032 109.284 -2.63438
-20.4279 84.7884 -5.81186
11.8572 121.964 -9.56708
-35.0961 100.978 -11.3597
7.49586 133.312 -1.57609
-8.6916 81.1312 -11.9785
-32.1268 108.282 -11.0448
-4.05948 150.43 -4.66597
-23.4634 124.706 -1.6467
-14.0201 99.6654 1.51215
6.20673 147.541 1.75289
-26.9693 83.404 -9.54414
-22.7968 125.85 4.69941
-7.70885 113.319 4.73209
6.67851 128.409 -1.94758
-33.7793 95.4594 -12.8188
-9.26059 149.936 0.854206
-23.776 80.4047 -10.0234
-14.738 133.744 6.87348
-7.84448 118.147 5.24789
15.6386 135.646 -9.28772
-14.6797 97.0686 -11.2553
3.10583 132.967 1.36767
-5.86379 127.709 -7.73843
-20.992 84.256 -6.93466
-2.81493 102.829 -4.00029
-4.33285 79.7872 -11.8073
-17.191 133.26 -3.61183
-27.7427 112.833 -3.69937
8.2477 129.719 -13.4427
-22.1991 124.735 -2.28904
-12.9464 148.301 -4.58538
-14.8903 141.124 -6.04506
-25.6266 132.919 -1.1039
6.63198 98.3921 -15.3989
-14.3142 95.532 -11.3691
-1.78497 85.2167 -5.31671
-31.8962 109.336 -8.82993
-27.5953 104.985 -13.5968
-5.12455 98.5355 -4.03459
9.21011 115.943 -15.0983
-5.26056 142.832 -5.4814
-14.5858 113.078 -11.5556
-29.8791 97.7694 -12.7185
-25.4581 116.682 -1.46149
-38.2767 85.7615 -7.60346
-24.9932 121.476 1.64523
-18.6902 123.606 8.09965
-12.1936 152.022 -2.81275
-19.212 145.451 5.40433
-11.9562 131.303 6.31453
-34.1465 88.8175 -9.61783
-29.935 112.037 -10.725
-31.5535 126.344 5.92782
-30.3742 106.753 -3.74578
9.32222 151.91 -2.24901
16.9762 127.545 -13.2157
-13.8544 118.004 6.62434
-29.6204 86.4331 -6.35043
-25.7529 101.364 -13.8831
-12.1245 139.471 2.40725
-4.94969 90.9424 -2.89631
-5.74126 112.477 3.49747
4.74733 104.294 -16.8954
-14.5206 139.612 -5.92543
-4.38183 117.192 -14.0001
-24.7419 125.24 1.3102
-25.9973 98.4231 -13.7642
19.1356 125.897 -16.4838
-17.6502 122.066 -9.89934
11.2312 136.916 -6.7593
9.06661 138.825 -9.7969
-21.6375 114.891 4.22591
-20.2076 125.143 7.06187
-19.8349 136.809 -3.84559
-12.0077 149.424 2.08745
-19.8768 103.732 3.11516
-29.1266 87.808 -9.41058
-24.1501 90.9585 -4.512
-10.7691 117.753 -11.9233
-16.7742 138.747 -2.66808
4.99056 149.684 -3.53812
-27.5629 96.3898 -5.70436
-12.6874 83.1377 -11.9436
-26.0536 125.654 1.78717
-22.4064 134.067 -4.22987
-8.77758 92.0428 -14.3644
-18.1203 122.649 -9.67267
-0.706822 79.462 -9.80686
-21.1599 117.745 4.77098
7.19665 133.762 -1.76625
-16.2433 104.649 -12.6298
-4.18445 126.461 -10.9287
-26.5552 113.854 -3.38245
-28.4748 99.1703 -4.9355
11.0509 124.802 -12.5726
4.89475 130.433 -1.62784
-25.6311 89.7955 -4.53511
-29.2725 89.064 -9.42892
-18.583 121.076 7.66859
-17.9452 136.38 -3.06804
-28.4199 91.7281 -12.3341
-5.14099 94.976 -4.28292
-14.5224 130.588 -7.88685
-38.1875 86.4681 -5.48017
4.87299 101.191 -15.9048
-11.1845 135.137 -7.53398
-14.4434 112.706 -11.9915
-16.7702 126.356 7.71629
2.93867 116.501 -3.12695
-15.0247 134.404 -6.84034
-14.3371 89.7213 -11.0756
10.1924 130.299 -8.15821
-30.4095 89.5939 -10.1021
1.66575 120.358 -2.37588
-9.48966 81.8767 -12.313
-36.0806 94.8901 -10.6347
-13.0956 130.581 6.85979
9.57438 130.226 -10.1298
9.20561 138.406 -10.3546
10.4092 123.11 -10.4067
-10.7337 138.395 -8.90714
-26.8186 126.103 5.11574
7.92059 105.453 -15.2898
-12.3024 134.267 4.62288
-6.82625 132.448 3.45807
-12.7355 149.867 1.99817
0.641156 96.9804 -15.9508
-30.2289 86.0848 -7.37234
-20.1757 138.707 -3.38698
-7.41359 81.3918 -9.8179
-4.19658 141.749 -4.71735
-30.5228 89.1789 -10.7767
4.80806 109.797 -16.4408
-12.7824 109.268 -15.9764
-28.4117 117.762 -9.57684
-28.6588 117.215 -4.54475
-25.1173 130.869 -2.24184
-19.7978 101.529 2.53817
-27.601 118.114 -3.08979
-23.2876 114.071 2.23606
4.48382 136.406 0.590449
-6.1266 125.046 -10.5099
-10.4277 128.516 6.98976
-27.6848 87.5393 -11.071
-2.24616 93.9274 -15.8407
-15.1141 119.504 -8.78525
-25.2883 94.5737 -13.5435
8.39589 94.6617 -13.5436
-28.6423 124.626 1.16997
-28.6315 125.495 3.6036
11.0196 125.843 -9.9266
-22.5174 125.667 -2.91439
-31.5317 107.774 -5.85209
-19.9302 123.094 7.19936
-26.4284 121.413 -8.95465
-28.1674 126.2 3.97244
-29.2729 83.7118 -9.45639
-15.2167 113.53 -11.5526
6.23643 139.887 -0.503619
-9.77297 128.436 6.83989
-19.3526 137.221 -3.09072
-26.3043 109.082 -14.0013
-15.4344 100.86 1.83684
-18.8764 142.843 6.5268
-5.35845 91.4141 -4.14457
-13.8533 107.492 3.00259
9.22946 141.848 -8.62418
-18.8386 105.2 -11.9396
-14.4891 129.333 -7.54705
-13.1667 90.4915 -2.31034
-33.7023 100.783 -8.19494
-35.957 86.0428 -8.19995
-12.4108 128.558 -6.52559
-20.2751 128.607 -8.04426
-22.4655 128.824 5.52626
-16.6888 144.175 6.12269
4.9121 117.767 -16.0993
-0.719761 121.654 1.75695
-0.601997 115.809 -15.6198
-17.0369 145.207 -1.39864
9.48238 115.174 -12.0964
-6.61278 114.641 4.82215
-31.6909 109.99 -11.2322
-22.489 125.553 -1.98336
-31.5166 99.4438 -12.8828
-32.3262 84.1869 -7.91783
-3.45771 82.5504 -8.0408
-1.21826 123.54 -11.7943
-9.12103 110.026 3.83924
-26.7008 84.2245 -7.67096
-15.0485 145.81 -2.17341
-5.30783 88.5792 -14.1746
-11.3122 137.191 3.16793
13.3223 136.716 -8.37288
3.94645 105.883 -17.0257
-4.74156 117.524 -13.9103
-2.09142 92.5073 -3.27048
-24.4118 134.894 -1.59996
-9.32232 135.692 2.24869
-16.1036 80.2983 -10.4766
-8.25919 146.078 1.24999
-27.2082 126.935 5.73669
-19.171 92.8107 -10.6615
-20.9855 88.9454 -9.45412
-24.6108 129.082 6.48635
3.03008 123.909 -13.1103
-6.41795 141.181 -5.9408
-35.4926 94.2613 -13.3916
-18.434 140.392 6.95235
5.17397 106.377 -16.6771
-3.54577 136.286 -3.87362
-35.9276 97.7637 -10.3184
-18.4965 84.1443 -11.8191
-16.1876 83.6714 -8.26981
-23.126 118.839 -12.1602
-1.12779 144.997 -4.14832
-33.8064 100.482 -7.7027
-32.6296 92.816 -13.692
-37.8574 90.1849 -7.97711
-26.0986 125.693 2.12953
-31.0334 89.329 -5.71076
-20.6774 129.072 -5.92533
-22.0827 124.522 -2.64444
-15.5562 104.969 2.13135
-12.4347 86.7176 -11.3033
0.752266 144.518 -3.57136
2.02353 91.9982 -14.8666
-26.7141 107.733 0.301422
4.64015 130.486 -1.36749
-1.90425 149.696 -4.79214
-28.9921 96.768 -12.8502
-0.276285 139.628 -4.0854
-25.3524 120.065 -1.24114
11.337 127.874 -8.20289
10.6175 124.776 -12.265
-5.6012 78.9087 -11.9937
10.1243 145.063 -6.0164
-2.32146 151.011 -4.44073
-10.0871 151.304 -4.66478
-19.7428 109.741 5.08478
-19.5947 86.3092 -3.92739
-24.9715 122.248 2.25903
-35.6387 92.2452 -11.0863
-10.7448 127.187 -5.55304
-11.5025 151.663 0.541983
-4.88438 103.552 -2.57872
-24.8403 117.232 -1.22369
-27.3055 98.8695 -3.97968
-5.80924 141.808 -5.79407
7.64307 131.063 -13.4257
18.3085 126.066 -17.2112
-25.2556 138.43 1.28287
-7.55794 116.182 5.37463
-14.7066 92.7031 -1.07503
11.3524 133.987 -5.65818
-35.0403 97.0626 -9.69162
-9.93491 99.1966 -0.453384
-0.72783 134.345 3.94103
-7.32855 126.81 -7.11772
-4.74247 128.414 5.05759
-15.4771 114.128 5.78396
-11.2912 116.144 -13.2552
-12.9709 134.87 -9.0016
-18.8586 129.88 -4.41147
9.00313 146.212 0.375723
-7.7174 141.467 0.175343
-22.3676 129.939 7.78546
5.18482 130.536 -1.88143
-0.00280076 119.228 -1.28483
-15.2949 100.924 -11.2851
-30.6731 98.5103 -6.66597
4.08954 140.431 -8.6574
-36.1696 90.4832 -7.37886
-35.028 86.7274 -8.40448
-29.9977 109.002 -3.72158
-20.2246 146.078 3.6564
-24.2546 93.4608 -5.14805
-6.33116 93.0142 -4.41483
-22.3259 131.139 -5.2038
-13.2217 89.5734 -11.2875
-17.6663 116.675 6.28319
-8.83041 153.171 -2.21426
-25.0719 122.671 -0.894224
-2.65287 104.749 -17.782
-23.4431 92.6319 -4.87337
-1.33523 124.806 3.94955
-36.4279 85.9284 -7.04866
-30.9077 88.1852 -5.70735
-2.4772 91.9096 -15.6567
-27.7509 129.862 6.58232
-17.6193 99.7949 -11.8089
-20.6711 126.413 -5.72717
-19.7098 129.606 5.20038
-23.8743 115.031 -0.056513
-26.0116 105.5 -13.61
9.52806 127.159 -10.4487
-28.688 97.7004 -13.1363
-2.64355 97.3201 -16.3755
-12.4167 121.063 -7.15153
7.73616 109.233 -15.7063
9.29234 115.937 -9.81874
-25.5192 123.68 -0.839843
-11.9158 125.502 -6.12828
-8.491 153.958 -0.496624
9.00486 154.759 1.02114
-25.6631 126.164 -1.31452
-20.7543 126.05 -4.32987
-16.7057 83.9711 -11.9907
-30.8928 113.062 -9.88633
-30.894 104.125 -13.8138
-12.5228 86.5074 -11.313
-6.10953 83.6366 -13.4756
-30.3597 108.13 -4.06221
10.945 141.759 -5.19319
-10.8512 105.51 -15.1467
-23.8051 86.373 -11.4252
-11.3123 107.943 3.46404
-17.5034 106.632 2.99794
-1.98619 132.756 4.37745
-10.563 95.226 -13.9242
14.5342 138.655 -7.73513
-9.1013 133.096 4.14124
12.2055 126.602 -14.961
-15.5348 98.4366 1.37619
10.8092 144.741 -5.52958
-22.6015 102.973 -12.8119
-12.4533 141.851 -7.29433
9.67815 129.396 -10.3555
-19.4117 80.1603 -10.1345
-10.8025 146.386 1.8022
11.3014 128.284 -10.5133
-31.485 90.0087 -11.6054
3.38835 149.787 -3.6164
-13.7504 117.076 6.24232
-11.228 99.877 -12.7504
-11.7924 113.549 -14.4946
-25.7511 124.554 0.132838
-5.72139 132.247 -4.80353
-25.2955 127.374 1.06931
9.96076 130.012 -5.47943
-14.7028 99.4995 1.56757
-1.78756 95.4554 -15.7777
-22.6534 101.707 1.03448
-20.6799 111.785 5.7514
-6.7728 89.0201 -2.83116
9.72501 128.734 -10.0308
1.77895 153.465 -3.01898
-24.6038 124.181 -1.70697
-19.0202 129.755 -2.23075
3.84098 114.069 -16.8809
-22.2089 126.925 5.27319
-21.1587 120.175 6.6136
-22.4133 118.427 1.70011
-7.74151 142.558 1.11654
-12.6829 137.096 3.697
-11.6998 83.7978 -8.72464
9.65736 128.556 -10.3817
-35.2286 99.0416 -13.0687
-6.70824 134.481 2.93792
-24.5292 132.516 5.57996
-1.17464 139.447 2.7923
-30.5761 101.433 -4.67651
3.87335 141.407 -7.12517
-5.35598 97.9999 -4.09223
-7.80525 96.8867 -3.59279
-5.41553 150.925 -4.82748
-31.1823 101.596 -4.81412
-19.8942 93.2435 -1.99004
-25.4367 100.668 -2.18271
-19.7356 106.139 -12.3597
-12.8244 134.387 5.08153
-33.5049 91.3799 -13.8527
-12.4512 105.125 2.34966
-6.10845 78.4115 -12.2539
-11.8857 119.101 6.67422
-16.7097 91.0051 -1.06126
-20.8676 94.255 -2.73308
-12.0494 123.106 -6.33225
-17.6984 82.8257 -11.7762
-1.85481 141.787 2.07775
-23.3482 126.927 -0.839137
-22.791 125.991 -3.4877
-8.13354 139.039 0.762508
-26.9294 136.761 1.84539
-15.7214 83.4229 -8.69472
-21.0652 114.621 6.40976
-15.2492 128.692 7.66601
-14.584 146.659 -1.83241
-23.9655 125.179 -3.06269
-4.42951 132.144 -6.28225
7.05951 112.127 -16.2021
-8.06996 86.1211 -6.70268
9.86614 114.776 -12.799
1.17549 131.107 3.27905
-23.074 82.6161 -9.85325
-24.3295 115.715 -11.8439
-21.558 142.563 5.32931
-1.64142 83.964 -6.92834
-13.795 145.246 4.60101
-12.1814 101.05 1.45015
-22.7917 124.551 -1.73326
-14.3131 90.4852 -1.89735
-17.3868 98.556 1.50664
0.352691 147.608 -4.25735
9.68809 143.241 -6.47748
-21.442 129.692 -4.17594
-14.1809 138.533 4.70586
-14.1597 106.315 -14.1676
-24.0349 97.226 -3.10631
2.24007 115.347 -3.27415
-21.5948 123.68 5.60608
-11.6721 131.241 6.30594
-19.8086 108.486 -11.8557
-33.433 104.392 -9.9903
-17.4735 132.871 -4.99799
1.5488 149.43 -4.19177
11.7464 134.947 -8.47616
-7.59979 140.196 0.578592
-14.7743 104.058 -12.777
7.70713 93.6251 -13.6784
-14.5014 141.445 -6.01193
-20.9495 127.354 -5.91695
-12.2465 147.073 3.1187
-16.9951 136.24 -2.42061
12.6122 125.749 -8.93416
-2.92796 123.962 -12.2309
-9.72722 103.979 1.70599
-24.8894 102.31 -13.6507
-7.14541 85.1191 -7.39527
-22.5426 134.247 6.02429
-20.9714 139.303 -1.77126
-4.72256 134.865 2.72664
-14.9229 132.737 -9.37884
-10.219 91.7239 -13.6827
-6.10577 154.485 -0.439941
-5.21347 112.495 3.05328
-30.7626 128.852 4.14655
-12.8089 122.645 6.83783
-24.8955 131.978 -2.01331
-20.4613 128.038 -3.46958
-26.0962 127.271 5.69073
-15.0697 143.128 -2.82732
3.36981 136.737 2.69969
2.03968 126.798 -12.2474
-28.1567 117.786 -10.0159
0.782497 144.126 -3.58629
-33.2553 102.016 -9.48172
-6.57763 84.3812 -7.64583
4.43675 129.17 -1.58482
-27.0494 126.163 2.67235
-21.1842 132.196 -5.25535
-30.6355 126.849 5.02562
-4.22177 100.082 -16.9742
-19.6946 138.263 -3.46236
-11.696 132.542 -6.55664
-28.8382 130.229 6.73079
-12.1863 143.356 -6.37183
5.22531 150.76 -3.40043
9.35578 118.223 -9.8057
-0.877019 119.011 0.342034
-23.8619 126.798 4.68772
0.659219 131.726 3.84345
1.982 142.385 -4.1931
9.20542 127.16 -12.1109
-1.35805 84.428 -13.3246
-10.8458 101.854 -12.7883
6.62595 155.272 0.420937
3.14473 153.417 -3.08229
-8.19023 98.2826 -15.496
-9.8189 119.789 -11.132
7.2302 105.061 -15.9002
-19.4502 95.7859 -11.4001
2.67524 124.386 -1.95189
-25.9322 122.99 -8.06551
-3.25193 107.414 -2.79917
-21.2861 130.483 -4.53057
-9.54138 140.3 1.95723
-18.2391 110.71 -14.2719
-8.87642 113.205 4.71729
-7.63947 121.253 -12.7123
-25.4726 102.299 -0.897107
-12.0016 127.163 7.13566
-1.43879 109.509 -16.9979
5.61133 129.341 -2.17126
-12.461 114.158 -12.7929
-8.40611 153.764 -0.476026
-5.46396 140.187 -5.25138
-25.1197 140.462 2.29405
0.470947 83.6196 -13.3556
-3.10928 98.9759 -16.9177
-17.288 133.232 -4.13943
-21.0412 137.312 6.73447
-6.71332 91.1166 -14.7487
9.5881 134.664 -11.6132
-19.2796 129.826 -1.84325
-17.7238 135.84 7.63678
-8.00727 125.642 6.20718
9.38235 133.525 -11.4779
-7.69051 127.023 5.36688
8.01747 100.169 -14.9741
10.8004 112.709 -12.5329
-20.9327 108.623 -12.1889
-20.4719 87.7494 -10.3292
-16.7294 131.185 6.35673
-22.5728 128.258 5.86283
8.46765 120.177 -13.8076
-35.347 89.975 -11.0772
-16.8727 133.986 -2.87822
-18.5509 133.606 6.84849
-6.08978 131.104 4.48938
-18.008 96.552 -10.8165
-8.57865 146.337 0.9975
4.62761 84.5041 -12.9779
-1.24211 109.935 -16.9892
-15.955 125.315 -6.53026
-7.78913 109.839 3.32613
-15.6237 121.848 -8.54813
-3.66537 90.1536 -15.2794
-22.0845 119.603 -11.8762
5.79123 141.197 0.139699
-24.0215 128.904 -2.76011
-3.61121 84.1846 -13.8384
-15.2936 88.2808 -10.6397
1.27268 132.81 -9.31988
2.54066 115.554 -16.0055
-18.0628 132.155 -2.84877
0.282789 153.321 -3.18354
-6.74712 104.429 -15.6051
-23.066 126.055 -0.357365
-27.6937 126.409 2.90117
-10.6985 148.239 -6.62299
-23.4598 123.521 3.58803
-12.1992 143.013 3.65957
-28.742 87.8172 -6.37127
-36.0329 93.4988 -12.0831
-21.7407 119.694 -11.8547
4.09581 142.611 2.33209
-13.9604 111.706 -13.8215
-9.21981 91.2973 -13.952
-14.4262 143.287 -5.23661
-6.02424 103.354 -16.1522
-24.0999 137.745 -1.5838
-8.97128 120.906 -10.9875
-31.274 127.312 7.24716
-8.4047 111.32 -15.9037
-18.6088 130.376 -3.67013
-25.1603 127.406 6.11957
-21.3168 100.523 0.879459
9.82029 124.935 -12.2035
-15.8584 147.86 0.578274
-19.2552 90.4148 -1.87389
1.32641 147.295 -3.83271
6.80444 133.214 -11.8065
-27.8481 125.124 1.26599
-22.652 120.016 4.23249
11.1853 123.832 -15.9701
-8.61905 101.549 -14.5391
12.7823 128.8 -10.8632
-2.78215 121.097 -13.6659
-8.66566 102.148 -14.343
-16.4198 87.4393 -10.9132
1.02303 110.95 -16.299
5.95136 102.917 -16.4258
5.07239 112.076 -16.6454
-17.929 93.7631 0.15985
-24.9722 129.875 -3.56408
-23.8034 133.649 -2.60778
-13.8456 84.0551 -6.56314
11.5285 135.854 -5.5912
-9.12789 113.682 -14.5735
-13.1823 122.779 6.99758
-30.3705 105.93 -3.49812
-4.81929 142.237 -5.07911
-20.7617 90.8378 -10.3376
-16.4996 79.9747 -10.2836
-11.0547 99.8059 -12.8215
8.89554 119.987 -11.4235
5.37196 154.257 -1.82586
-20.3462 85.9455 -4.15745
-23.481 128.201 6.48183
-31.6753 105.672 -5.76719
-16.462 114.086 5.85531
-10.4263 131.498 4.99767
3.45805 121.875 -14.0345
-21.4982 127.91 -3.81068
-18.4402 129.352 -2.57859
9.35564 99.9026 -13.8598
-29.8523 103.718 -2.86215
-26.8761 86.0082 -6.34861
-21.0901 127.745 -3.53446
-27.4015 102.48 -14.0476
-17.3645 100.596 1.81457
-15.9749 135.883 -3.30439
-18.133 142.034 6.76185
4.59899 133.724 -10.4006
-20.3583 96.4323 -0.510047
-23.2566 103.103 1.53997
-33.976 98.0818 -12.9345
-13.6458 105.973 2.40346
-5.25792 128.98 -7.16664
-5.8212 102.205 -3.01316
-22.6401 89.7481 -3.83681
9.14288 129.409 -9.39168
-13.7361 92.7334 -1.80567
11.6799 134.617 -5.78666
9.78602 131.407 -7.67993
-12.2425 109.205 3.79819
-4.4756 127.838 -9.91235
8.58197 110.291 -15.1511
-17.8528 121.337 -9.97872
-5.22663 147.048 -5.79998
13.7899 129.668 -10.2607
-6.49002 140.633 0.644041
-5.80873 91.0092 -3.95568
-5.69987 122.928 -12.7578
-19.225 92.9218 -1.24302
3.41028 129.11 -0.569331
-16.6283 93.1468 -0.215415
-31.3705 88.4756 -5.53127
-34.2258 99.8048 -13.0082
-5.65883 89.22 -14.0912
0.538441 140.785 -4.18186
-31.1114 108.871 -5.40534
-20.0876 116.901 6.65916
-13.5481 80.5383 -12.9425
-28.3276 117.572 -9.94255
-6.30114 138.348 -5.33028
-25.8378 112.086 0.56938
-25.0524 103.478 0.302024
-26.221 128.219 6.92262
-3.02209 119.261 3.89008
7.24779 146.726 0.913494
-4.39239 121.783 -12.8554
-10.2641 101.262 1.1536
-6.29513 136.681 -4.36002
9.26574 137.079 -10.6622
-31.4948 126.699 5.74773
9.18954 145.353 0.177211
-17.7012 142.528 -1.85812
-35.1202 88.0929 -10.6263
9.678 112.622 -13.8312
-20.0278 140.28 -1.78137
-8.63096 141.749 -7.96202
-26.408 97.5359 -13.8721
-18.3903 135.716 7.46891
-32.1116 107.65 -7.46082
-9.07988 79.8383 -12.3251
-7.94136 142.256 -7.61261
-17.2484 89.974 -1.53982
6.18115 111.342 -16.2035
-19.3278 130.183 -7.4632
2.93043 111.502 -3.25745
-33.8486 102.454 -10.8914
-15.9988 145.573 6.2314
18.2304 126.802 -16.5177
5.95529 130.841 -13.1321
-23.95 91.6587 -11.0343
-19.9034 103.869 3.13944
-0.605485 92.0352 -15.6009
-5.25826 112.625 3.15811
-11.0059 93.1357 -2.97616
-9.29842 82.9083 -12.8443
-19.01 87.9882 -2.87178
-28.46 118.431 -8.78089
-8.38235 153.638 -0.47842
7.80384 152.082 -4.24599
-17.8229 132.683 -2.75467
-28.2521 99.7663 -13.9
-21.9867 134.37 -4.32861
5.85385 125.644 -14.8719
-33.3314 88.5408 -6.47752
-24.8942 125.695 -0.499347
-18.6237 121.574 7.62065
-28.2725 119.038 -8.50395
-10.4405 83.5555 -12.6119
-3.44921 102.822 -17.5626
8.83321 127.63 -9.86542
-23.146 112.211 4.44732
-14.516 147.292 -2.35129
-20.7761 110.553 -12.7921
-0.522405 92.9839 -15.7442
2.56935 119.976 -14.552
-35.3588 88.4723 -10.9286
-20.8862 127.599 -3.56854
-7.32356 87.1187 -5.81398
-16.0513 138.542 7.07934
-13.0806 148.544 -4.41045
-29.3747 101.632 -3.47309
-13.5364 148.957 3.34457
-14.1662 99.4255 1.48596
-28.1456 113.182 -5.07127
-5.14927 110.73 2.09253
-24.5608 126.013 0.212531
-9.78728 148.712 1.60506
-37.1189 91.8348 -7.68319
-27.6934 96.0131 -6.09961
6.38453 145.291 1.0442
-7.63736 125.539 5.74933
-8.93079 94.0273 -14.8808
-5.00719 133.822 -4.18379
-21.6357 118.76 3.93107
0.0083073 83.6673 -13.2726
-6.24692 140.646 -5.77519
6.79673 133.343 -11.6522
-3.01331 111.723 -15.7287
-18.9997 129.869 -4.57092
6.36105 143.859 0.701213
-12.9534 91.8582 -2.4972
-22.9901 126.583 4.49878
-13.4503 150.825 -2.47438
12.6988 122.343 -12.3534
-19.1307 140.947 -2.35567
-27.4681 112.597 -2.71499
9.3336 126.741 -9.94492
-20.7957 103.38 2.85008
0.214595 127.263 3.25965
-2.09 86.7456 -14.2677
-30.2919 128.312 2.90119
-30.9821 101.29 -4.93424
-22.9776 82.3537 -10.3558
-0.0284501 144.369 2.666
-3.9562 90.286 -15.1952
-14.4213 100.047 1.63386
1.3273 112.803 -16.401
-29.1073 126.183 3.45455
9.07823 134.133 -11.947
-24.0746 110.227 -13.3672
-29.7213 127.788 1.82428
-22.1061 128.848 5.58006
10.2416 127.616 -6.63426
-22.6502 93.8035 -4.19721
5.83729 140.729 -8.51559
-7.95969 95.3731 -15.4597
8.56205 154.33 -0.0882074
-19.4052 111.341 5.65379
-11.5777 139.762 1.96206
-11.379 116.836 6.26749
4.68749 128.478 -13.6196
-5.05963 100.721 -3.59059
-22.8618 115.647 1.48702
-13.7376 128.186 6.89238
-29.4495 88.0829 -6.35649
-19.985 99.3072 -12.2272
-4.49475 117.588 4.73434
-22.2162 125.689 -2.63414
-1.33366 147.007 -4.51417
-32.7658 105.466 -8.46296
-1.87167 111.143 -2.63353
2.36382 148.76 -3.88349
-7.41975 127.534 -6.24622
11.3259 123.326 -12.361
-21.5324 144.186 0.740034
-6.98056 94.1792 -4.23118
-4.26375 108.523 -17.207
-37.3957 87.4265 -9.27237
-16.6475 134.118 -3.01505
-9.00212 118.302 5.73062
-8.44726 151.157 -5.06421
-16.6409 82.2198 -10.0471
-31.697 106.214 -5.58644
-11.0295 88.4136 -2.92886
-4.96178 83.4411 -7.63862
-27.248 135.292 1.054
-29.6219 101.399 -3.89951
-13.1954 146.289 -4.92909
-12.5074 146.755 -5.3733
-15.9135 146.867 -0.467525
-31.9036 92.9604 -13.4994
-29.3243 92.3516 -13.2097
-29.1418 93.7909 -7.70775
-6.08889 81.2553 -12.6219
-14.1106 95.5908 -11.5676
-26.8727 119.553 -2.50619
-11.2935 115.52 5.68459
-1.0389 116.038 -1.45648
-20.3788 129.916 -6.55549
-6.6119 136.291 -4.49695
2.91204 129.903 1.04698
-0.448687 78.6261 -10.247
-18.3118 132.128 -2.39674
2.40637 131.843 -11.1027
-18.7897 99.9796 1.91456
-7.75685 140.518 0.453817
-9.0525 134.668 3.12199
-33.0224 87.4483 -11.1555
-33.1212 103.374 -13.2404
3.03932 93.9017 -15.0854
-3.60585 133.281 3.6458
-16.7775 119.316 -9.63262
14.3143 126.16 -15.701
-20.5872 95.4123 -1.32537
7.04765 138.489 -0.890833
-24.4581 125.729 -1.76387
-29.7254 116.149 -7.3433
7.63654 153.333 -2.42677
-23.3294 80.7267 -10.1265
-11.314 98.4657 -12.7
-29.7722 101.897 -3.6062
-30.2381 109.639 -4.4878
1.24932 134.463 3.69045
-21.5271 125.513 -3.72744
-20.7136 128.201 -4.1215
-22.7987 134.705 -3.67045
-6.16882 108.263 -17.0613
-19.7293 127.62 -2.74559
-12.6117 147.64 -5.04798
-13.7441 131.31 -7.44865
-31.5182 110.742 -8.45946
-29.4325 117.056 -8.13314
-11.2696 137.689 2.83413
-24.7705 111.751 -13.4251
-8.05274 130.049 -4.65935
-16.5246 97.5626 -10.7375
-5.77671 123.798 4.58988
-20.2923 106.337 3.75957
-8.45858 91.9211 -14.4532
-14.9352 109.278 -15.3983
-23.6886 109.118 2.95562
-24.9411 93.4018 -5.57751
-37.7681 85.5922 -7.58699
-24.006 125.695 -2.37527
-14.3079 147.837 -3.45924
-16.5451 90.0837 -1.7571
-24.0258 94.9611 -13.2802
-15.7814 104.353 -12.8064
-8.68973 141.538 -8.024
-5.14803 132.226 3.77935
0.913617 138.813 -6.4659
5.349 129.45 -2.22734
-15.5119 90.8106 -11.3247
-21.0368 126.693 -3.10621
-15.5422 140.378 -5.71183
-21.3931 129.858 -4.20188
-24.3003 95.5972 -4.61791
-17.9499 147.314 0.51592
-31.4703 103.027 -5.14187
-2.72756 93.4949 -3.70483
-15.9372 106.863 2.71058
-8.80455 100.55 -14.6429
-14.0562 126.931 7.34466
-7.40108 99.5236 -15.8593
-25.6008 138.989 4.29564
-22.7597 124.653 3.99209
-30.5307 95.9128 -13.1436
-19.294 93.3963 -10.6613
-0.599899 121.276 1.3468
12.0276 121.249 -9.6264
-8.81816 130.013 -4.91783
-6.95877 118.505 4.93214
-20.3257 126.346 -3.75261
-31.0685 92.1581 -13.8065
-30.8173 89.1079 -11.4349
-10.0756 95.413 -2.14654
-0.364305 96.6856 -15.8769
-24.6225 110.257 -13.507
-6.65526 88.7749 -2.72663
-20.3935 120.791 -10.9903
-28.56 103.539 -2.02469
-31.8243 99.0952 -6.67595
-21.6942 88.741 -3.23367
0.694123 137.383 -7.10864
11.0514 141.673 -3.97391
-4.51448 131.94 -6.29247
-15.5471 79.7406 -10.476
-0.420099 132.849 4.42182
-27.6974 123.027 0.580157
-22.3775 122.464 -3.79205
-13.8366 113.743 5.00278
12.5887 126.664 -14.989
2.93056 135.988 -9.59651
-17.5905 131.536 6.32795
5.76696 155.171 -1.18647
-23.8214 123.095 -9.788
-6.52039 126.737 -7.95824
5.36786 116.248 -16.2937
-21.9569 132.731 7.09561
1.07461 90.5131 -14.6378
2.54238 105.051 -16.8542
-5.49546 113.873 3.91681
-26.3642 109.233 -13.9193
6.25728 88.3764 -13.705
0.483223 106.056 -17.0062
-16.2438 133.324 -6.2388
-13.6086 119.62 -8.11594
-7.25602 96.986 -3.75509
-4.37013 108.901 0.095356
1.2696 142.788 2.47069
-16.2683 123.502 -7.25038
0.67717 127.343 -11.0029
-28.5538 124.963 6.3475
-21.2595 125.884 -2.86207
-20.9399 127.741 -6.2033
-19.1779 94.3311 -0.279436
-23.4552 140.1 0.560189
-20.7401 125.795 -3.33131
2.73519 135.285 2.98878
-14.7008 86.5774 -3.576
-31.5392 84.6043 -8.06067
-23.0692 124.282 -3.68328
2.36952 134.109 2.81448
-18.5487 123.714 -8.76942
-22.3173 124.279 -5.38449
11.6388 135.397 -5.75032
-26.4656 85.8651 -6.22713
13.0071 136.874 -7.26404
-12.7289 84.0823 -11.7439
6.27071 144.676 -7.66261
-1.28612 135.767 -5.35184
-13.7996 120.583 -8.02883
3.71527 94.476 -15.0743
-22.9922 134.602 -3.41364
-11.3699 96.1216 -12.9084
-0.574925 88.5317 -14.3288
-15.2456 104.487 -13.0967
12.1682 130.574 -10.3669
-21.9233 123.246 -8.55086
-28.664 128.076 0.00382834
-18.1162 90.8591 -0.912804
-14.8029 145.702 -3.53023
-3.83216 116.1 3.3728
-2.78191 132.528 -7.63866
-29.5905 103.558 -2.6693
-22.9235 118.243 0.907683
10.0549 152.836 -0.521048
-14.3681 135.978 -5.20731
-9.34937 82.1307 -12.4468
-28.5894 110.143 -2.15201
2.66167 150.307 -3.85737
2.26071 105.633 -3.20445
-9.90574 151.787 0.2934
-17.4433 148.109 4.25804
-4.80672 112.272 2.53914
-26.5679 138.694 3.16294
-23.0976 128.2 -3.32884
-16.3856 81.2524 -10.5591
-18.738 130.216 -3.59881
-7.92873 127.566 4.92963
-19.1645 125.833 -7.94651
-34.1606 101.322 -10.7448
-21.9838 103.183 2.35451
3.23507 132.946 -10.5665
13.4156 134.966 -9.77621
11.0814 123.194 -12.2582
10.6819 144.157 -5.64562
-7.7346 82.7439 -12.9853
-5.18846 135.134 -4.05226
-18.9778 130.375 -3.10695
-11.0985 112.848 4.54298
-12.8383 82.8662 -9.14678
-18.8565 99.2846 1.78226
-6.22531 127.555 -7.52557
-14.8724 141.637 4.91384
-17.6354 140.52 -3.00372
-30.1213 114.736 -7.57174
-2.49312 112.399 -15.7844
-12.3018 97.533 -12.2825
-15.23 102.068 1.92969
-1.99275 136.566 3.06987
-25.641 86.9145 -5.0091
-8.93616 81.6906 -12.2362
-24.973 136.765 4.61281
-12.7173 113.109 -13.5428
-6.31966 101.344 -16.41
-25.9757 122.375 -2.87214
-21.4964 89.8104 -3.20085
-19.9751 135.059 6.48383
-26.6019 111.398 -13.3685
-12.2278 130.001 -6.2432
-29.2129 88.352 -9.14931
-6.70205 88.1927 -3.92057
-35.1118 100.726 -12.3529
-17.2218 131.996 -8.91746
-17.5805 97.2476 -10.8773
-22.6514 84.8876 -14.151
15.7805 125.757 -15.9846
3.00787 143.665 2.79598
-22.3128 125.467 -1.50683
-25.3043 114.902 -12.4397
-13.7399 120.431 6.56505
-27.6078 110.187 -0.605276
-31.3538 83.9844 -8.69512
-24.8347 119.431 -0.902391
4.87382 147.443 -3.9066
-11.4951 137.602 -9.27562
-2.11922 130.939 5.18216
-14.9528 118.68 6.50746
-29.981 103.984 -3.01449
0.906255 151.273 -3.67214
-13.2715 103 1.72531
10.7436 123.051 -12.0392
-26.8236 122.607 -0.269664
-20.604 93.987 -11.3834
6.79292 125.722 -14.6852
-17.4201 103.499 2.23305
-16.5185 124.908 -6.68764
11.518 122.592 -9.75629
-31.1834 104.991 -4.654
-27.3881 135.19 3.36507
-30.5861 129.139 3.85314
-12.2161 91.8056 -12.9146
-35.4568 86.4064 -9.60323
-24.7937 125.733 1.83433
-22.8315 125.778 -4.30658
3.36103 91.1333 -14.8144
-3.13883 98.274 -4.1517
13.3168 121.68 -12.0801
-23.3509 111.211 3.93279
-5.75599 133.203 -4.13825
-9.53067 84.9981 -7.51467
-32.9949 88.6888 -6.43654
-7.50019 105.307 0.921087
-31.1971 93.3577 -13.4063
-23.0082 124.214 -6.94063
-11.7474 119.258 6.68402
-22.5056 124.634 -5.4264
5.06052 140.744 0.736916
-18.1252 133.779 -3.51181
1.28614 153.021 -3.24472
-2.78444 104.844 -3.86872
-31.8353 94.1663 -8.18797
-24.8267 111.342 2.43503
-15.501 90.4821 -11.2896
12.8713 125.467 -16.0726
-21.3281 87.8527 -3.34549
-20.9315 95.6665 -1.65973
-3.20855 82.3152 -12.7545
-19.8245 116.808 6.82268
-16.1179 96.1891 0.658563
-23.3993 113.461 2.83704
-19.2102 93.3049 -10.6501
-20.4109 128.458 -2.51338
-25.4069 123.609 -0.673241
-13.8169 102.203 -11.753
-2.46249 129.836 5.1816
-10.6012 115.03 -14.0025
5.05861 98.8687 -15.5655
-21.4507 116.169 4.96189
-38.5763 88.2526 -7.99034
-28.8954 118.079 -8.34436
-11.039 125.996 -5.82377
-34.6642 100.875 -10.5476
8.70833 142.221 -0.389851
-24.1438 126.925 -1.00514
-23.3985 119.292 2.29642
0.427998 133.907 3.915
-22.1022 126.166 -3.88086
6.16652 145.079 -7.21022
-9.29151 151.799 -4.038
4.14076 129.628 -1.11743
15.2259 121.314 -13.2151
-16.7059 109.55 4.06645
-9.43443 148.028 -6.87405
-14.168 130.653 -7.4356
-24.3397 127.024 -2.04104
-25.3501 115.072 -2.29358
-37.2838 91.1443 -7.51529
1.36553 151.753 -3.55156
-5.77103 93.2335 -15.3391
-7.24526 120.883 5.11887
-15.228 147.413 -0.329445
-29.9651 126.888 3.73067
-3.01698 127.141 5.44817
-19.0166 139.729 -2.79978
1.13257 102.02 -17.1685
1.58236 108.467 -3.63905
-23.2792 89.8391 -3.94932
2.73081 143.726 2.72661
-15.4153 127.817 7.60921
-21.1585 119.98 6.07641
-3.74018 115.727 3.04392
-35.2689 87.8591 -6.53482
-0.216254 142.092 2.57722
-13.0915 145.459 -5.66536
-1.71772 142.49 -3.7628
-33.1196 98.0594 -9.2375
8.33502 123.698 -11.407
2.21782 89.6701 -14.4345
17.6958 126.209 -17.7316
-15.1459 98.502 1.38133
-26.4569 103.309 -0.717121
-34.3298 90.5517 -13.3893
-29.5305 85.8521 -7.07173
-22.9914 119.509 -11.8579
-18.0731 117.63 -10.8507
-26.7868 83.6477 -8.91631
-3.14901 129.193 -9.67372
3.23215 121.164 -2.58465
5.55862 108.432 -16.3253
-0.614799 116.753 -15.201
-9.69758 142.022 2.50094
-20.8914 130.566 6.60186
-9.67993 102.168 1.20389
7.92334 150.429 -4.67557
-37.0753 84.9522 -7.76375
11.6101 127.141 -13.9699
-30.9185 88.9679 -12.0821
-24.9651 116.672 -11.9214
-31.6665 110.774 -10.0326
-1.19402 125.348 -10.916
-3.26804 95.5077 -15.6523
-21.0881 125.603 -5.08835
-0.0562994 84.6873 -13.437
-6.96071 128.762 4.97921
5.00438 108.437 -16.526
-31.0871 89.3873 -5.69199
10.8077 122.488 -12.0545
9.03282 142.295 -8.40157
-10.6317 143.207 -7.61957
-16.7331 82.128 -12.2393
11.2759 136.483 -8.43216
-8.34501 92.7785 -4.23264
-7.5903 85.7081 -7.1545
-22.1497 138.669 -1.52476
-24.7152 87.0066 -10.397
9.08553 137.938 -10.4569
7.48357 91.4844 -13.6119
-0.588149 105.79 -4.06809
-16.4449 122.908 -7.79452
-27.6496 129.231 -1.20866
-22.562 99.8506 -12.489
7.27084 154.667 0.109657
10.0258 147.836 -5.13464
-24.3296 113.531 -11.791
-12.0052 144.952 -6.42506
-2.80982 80.8223 -12.2624
-15.8098 140.119 -5.54973
-27.4078 85.7921 -6.56206
-15.7892 106.674 2.63954
1.33534 120.153 -2.18469
-4.86298 113.476 3.15891
-25.6537 92.4501 -5.9918
-21.3864 92.0449 -11.3183
-6.94991 98.7169 -3.44403
-29.0652 122.554 3.62683
-4.8828 130.771 4.84943
-10.7051 146.223 1.73718
-18.207 111.305 -12.8944
-27.9546 120.345 -7.8833
-17.0916 84.0253 -7.71603
1.56222 128.478 -11.5268
-4.79623 88.4765 -4.46394
-15.7904 116.75 -10.5131
-9.57467 97.941 -1.82136
-30.0898 123.092 5.7321
8.71401 152.525 1.43131
-15.8049 99.9078 1.71458
-8.82446 149.002 0.840833
-4.50339 103.573 -17.4699
-22.5072 128.93 -3.62495
-20.2095 123.859 -9.13811
-23.5652 125.403 3.014
-6.6178 91.1923 -4.39659
-21.3618 82.8852 -8.9766
-22.267 122.06 -10.1164
-27.2301 106.584 -0.22651
6.16661 153.292 -3.13222
11.0888 123.432 -10.0628
-13.1249 139.797 4.37353
-20.2895 91.0274 -10.44
-11.8932 84.4696 -12.0576
-10.5391 85.8453 -6.49428
3.44596 83.8667 -13.1528
-10.9075 110.423 -15.3638
-9.61313 117.427 6.10473
-9.91127 126.289 -5.32859
8.94445 136.096 -10.727
-24.1616 127.653 6.21798
-7.95368 145.673 1.56505
-24.2079 125.896 3.86009
-22.5238 118.228 1.2663
8.80898 147.418 -6.3284
-32.8437 106.646 -11.6848
0.33853 80.7748 -12.4747
-12.8965 80.5719 -10.4495
-19.1062 141.179 6.89501
-20.1127 137.819 -3.76716
0.879989 120.408 -14.6962
-4.01424 106.788 -1.88412
-29.4184 117.145 -7.2929
-1.52402 111.65 -2.72157
-8.08575 141.014 -7.64112
-27.0264 126.594 -1.54539
7.90726 123.168 -11.466
-3.65478 117.081 -13.9712
-29.2317 102.677 -2.86098
-28.1067 130.964 1.00378
8.9983 139.381 -8.53309
-12.295 83.3221 -8.92616
9.61355 145.16 -6.37663
8.71519 123.13 -12.6704
-11.3744 116.876 -11.1165
-30.8685 129.033 4.71366
-26.1064 121.166 -1.44128
-23.0743 126.053 -4.82334
-7.156 128.167 -5.99945
10.4841 129.439 -6.34095
-21.1639 144.991 1.28297
-5.86258 105.171 0.0403078
-7.40002 136.22 -4.98838
-22.2842 143.884 3.73863
-16.7423 106.071 -12.2918
11.3914 123.039 -11.9998
4.17985 140.28 1.5498
-4.45257 90.7995 -15.2476
-27.382 130.856 -0.349894
-4.72555 112.501 2.56149
-11.8411 101.477 -12.2819
-14.9632 88.6609 -2.43805
-16.1662 150.168 1.3395
-28.5562 111.859 -11.2617
-9.62591 88.7179 -12.4434
4.92228 112.264 -16.7276
-11.3371 130.763 6.35501
-26.4336 136.43 1.04283
4.17554 152.675 -3.21277
9.45349 115.31 -11.6394
-11.6044 85.5241 -5.48133
-30.1501 108.683 -3.87522
15.3411 125.643 -16.1577
-15.1958 130.461 6.83824
-4.71814 108.693 -17.3243
-16.3233 134.443 -4.77087
-28.0598 116.914 -3.80236
5.1868 83.4127 -12.4667
-18.0642 119.504 -10.1819
-36.64 86.2268 -6.90891
-20.8136 133.103 -4.3853
9.86201 153.423 -0.40725
-30.5854 105.45 -3.67912
-19.3403 114.637 -11.8874
-4.28833 125.619 -11.4636
-18.9339 145.714 -0.37426
-12.0294 96.5895 -12.4494
-4.09765 110.055 -16.6927
-5.93373 88.7392 -3.3117
-19.0315 105.333 -12.0751
-31.0859 126.635 4.68215
-30.0285 128.702 2.37175
0.204151 128.328 3.5034
-17.7045 84.2732 -7.01854
-7.13652 92.5586 -4.35271
-5.28833 149.617 -5.6609
11.4808 113.031 -11.7162
-8.10917 115.75 -14.7264
-22.0188 124.978 -5.26238
-22.5712 124.542 -4.52883
-29.2793 89.5043 -6.14832
-21.6417 92.9036 -3.59963
-35.217 92.1496 -11.3522
-15.5049 110.369 -14.8166
-11.205 121.911 -6.95686
-8.64893 147.333 1.08971
-17.8077 121.802 8.2751
7.85653 151.574 2.00862
-12.0947 138.792 -7.75097
-13.2507 102.137 1.71724
-25.315 120.008 -1.26553
-3.19818 148.969 -5.30216
1.27765 132.878 -9.32177
-10.7829 91.5998 -13.3823
-17.5275 130.261 -7.84651
-1.89604 140.508 -3.8042
-3.99789 80.4395 -12.0807
-30.721 99.5708 -5.86401
-1.97732 105.601 -17.8024
-16.0057 139.031 -4.98336
-20.2239 140.856 -1.55769
-26.0775 112.413 -0.233067
-14.8344 132.129 6.50652
-11.6821 137.233 -9.36415
-27.795 121.506 -6.98662
-32.3336 100.689 -6.64549
-14.2731 126.03 8.31668
-8.87677 124.021 -7.46424
-21.2312 125.133 -4.42061
-13.3164 108.024 -15.2965
-10.7907 133.076 -5.96555
-29.4243 124.51 3.10423
6.44936 115.18 -16.174
-16.2922 85.6894 -4.2707
-24.12 131.184 -3.84998
-17.7434 125.542 -8.61395
-23.0089 125.712 -0.334649
-0.723943 136.369 -5.69495
-9.8851 86.2781 -3.69216
-12.989 80.5016 -12.732
-26.1827 139.155 3.1969
-29.4416 124.755 6.23686
-32.3255 107.475 -11.8479
9.98071 128.134 -7.55762
-1.88992 143.082 -3.94471
-24.2216 132.742 5.79261
-12.7917 138.539 3.24861
-10.3547 78.9681 -11.6282
-3.38393 101.924 -17.3646
-24.9324 125.624 1.11359
-27.8901 101.048 -3.09877
7.26744 136.768 -1.20212
-18.6442 109.043 4.55829
-4.03128 115.063 3.07758
-13.0056 95.9779 0.0256601
9.75471 128.794 -9.0746
-24.4479 93.3178 -5.28587
-18.3807 134.295 -3.16856
-3.81501 106.031 -17.7598
-10.6282 136.78 -8.35225
-21.2746 124.798 -5.0551
9.26647 152.559 -1.64909
-12.4081 142.22 3.23119
3.9539 118.927 -2.90418
-23.1429 125.616 3.81935
-19.242 144.298 6.02909
-16.4443 130.437 -8.00576
-29.0925 124.761 1.71803
-17.0841 141.84 6.77375
-16.2546 136.308 6.78242
-9.33873 98.8413 -1.48935
7.64145 144.665 0.212755
-26.121 112.221 0.0116188
-23.4729 124.759 -3.12419
-32.2517 95.2516 -12.861
-34.6839 89.3547 -11.3542
-32.1197 106.754 -6.74744
11.2498 143.145 -4.02899
-2.01582 106.286 -3.9167
10.1848 123.552 -14.556
7.18371 112.684 -16.0985
-24.2126 123.193 3.00722
-15.1921 86.3379 -3.59709
-26.682 87.1609 -13.5036
-0.446968 139.542 2.83483
-7.61223 87.917 -3.22855
-6.58294 97.7839 -3.87012
-17.8825 133.21 -2.94908
0.916508 131.239 -9.22932
-2.60866 139.709 -3.77056
-33.3588 84.9175 -9.45743
-19.568 90.2954 -1.96418
-17.0494 93.7977 0.35659
-5.04089 135.201 2.48237
-10.6708 128.453 6.94209
11.292 149.689 -2.47242
-29.564 132.111 3.94099
3.73347 127.411 -13.4535
-29.4744 101.119 -4.09589
-16.7109 125.872 7.83276
-19.575 147.177 3.16296
-30.4917 126.716 6.68953
-23.4863 127.359 -3.61743
-19.499 124.148 -9.39764
-28.6699 119.721 -7.25536
-19.6845 109.433 -12.8437
-0.041954 141.129 2.66114
-2.93271 116.817 -14.1846
10.6029 113.712 -12.485
-0.443751 90.3469 -15.0095
-12.857 134.868 4.6545
-17.9342 134.795 -3.22511
-20.6418 118.439 6.80044
0.287368 132.906 4.29325
-34.7767 92.2345 -13.2403
-29.8629 88.5509 -9.32521
-18.4457 120.84 -10.469
-0.349717 111.31 -3.62128
-2.10901 149.539 -4.85506
-20.6536 116.039 6.30104
3.23492 118.814 -3.01751
-23.3767 93.1124 -11.7734
-2.81209 144.659 -4.58191
-29.8723 125.214 3.37889
-24.706 123.753 -5.55672
-5.00823 138.14 -4.16163
-2.86437 117.978 -14.2459
-22.7752 123.156 -9.33344
2.08439 91.1029 -14.6056
-16.5821 114.982 -11.7839
-3.98839 99.9007 -16.9826
8.15568 122.233 -14.7962
4.41754 139.293 1.23048
-8.49537 147.416 -7.11022
-16.9438 87.1871 -11.2561
-17.0599 82.0892 -10.1451
-24.7117 97.8642 -3.07264
-1.87398 82.5573 -7.96986
-13.8178 111.541 -14.3946
-25.3249 120.048 -1.14686
-2.44499 139.424 2.70984
-23.5885 95.6881 -13.5421
-4.36892 83.8017 -7.32072
-20.2566 101.7 2.44027
-13.7854 151.345 -0.779443
-14.5956 111.681 -13.1391
-33.023 84.4315 -7.56336
-21.6714 123.887 -4.87598
-20.7006 142.669 5.74606
-25.9911 108.563 -14.2349
4.06975 127.166 -13.7552
-20.8811 95.8956 -1.39182
-23.5587 92.3193 -11.3837
-28.2281 115.255 -5.11735
-18.5778 130.211 -8.11542
9.88103 123.333 -11.8997
14.6858 127.189 -13.7276
-6.51967 125.218 -9.1902
13.7866 133.583 -9.78802
7.35166 137.229 -1.15981
-19.0869 135.364 7.22885
-15.1446 124.507 8.29673
-31.0953 98.2356 -7.10249
10.517 137.149 -8.69741
9.34434 129.128 -9.42498
-24.6711 98.8443 -2.62826
-5.61374 143.398 -5.87342
-25.6023 131.285 -1.50446
-23.8286 114.865 -11.5964
-9.34699 92.6911 -3.90988
-29.1095 124.06 2.81425
-10.3298 150.589 -5.2106
-25.545 113.773 -1.74713
8.71099 149.048 0.900742
-17.8146 110.836 5.21436
-12.9426 125.339 8.12451
8.55747 118.894 -11.9365
0.513008 114.059 -3.32029
-15.9968 96.2417 0.640405
-31.8368 88.7659 -11.1183
-15.4358 79.8241 -10.504
8.36356 154.982 1.41447
-0.963057 105.69 -17.6021
-29.4528 97.8453 -12.9096
-22.4296 113.557 -12.436
-38.7253 87.529 -8.34106
-6.87137 90.3054 -4.12592
-23.4297 124.968 -8.74563
-29.1931 108.898 -13.0469
-21.4527 131.538 6.80004
10.2992 153.548 0.932071
-0.673924 118.601 -15.0044
-1.30768 114.559 -2.00739
-0.847167 130.121 -8.7968
10.2903 123.802 -12.1133
3.80074 154.698 -1.76295
-8.50114 120.857 -12.2519
-24.8835 109.714 -13.5939
-10.2995 94.1645 -14.3614
-13.3395 95.169 -0.505972
-28.1089 129.001 -0.527304
-9.55926 136.462 1.97873
-8.46744 134.73 3.01992
-8.63911 140.613 1.65408
-20.4737 139.796 -1.58971
-20.5515 126.017 -2.90986
-38.9403 87.5102 -7.788
-21.5038 102.168 -12.0739
3.01028 125.528 -1.73805
-5.6275 126.161 -9.70694
-15.792 122.241 7.96463
-30.4449 95.0505 -13.3307
-26.4388 87.0091 -13.0272
-4.44332 93.3821 -15.4135
10.3866 137.862 -6.64932
11.5757 132.987 -9.66941
-17.081 143.446 6.69059
0.953878 134.969 -7.92992
-13.3872 150.841 1.29906
-1.76285 114.968 -15.2613
4.61386 132.04 -11.6442
-2.93897 131.642 -7.89976
-30.0059 114.999 -8.30817
-10.9654 90.3622 -12.8991
-4.6478 145.664 -5.38658
10.2764 123.619 -14.7659
12.1002 134.975 -6.18128
-12.5624 87.064 -11.2285
8.58173 118.868 -11.7936
10.9163 127.9 -11.4476
12.1181 130.763 -8.77451
1.15217 128.668 -11.0296
-30.0998 127.767 4.80958
-24.3345 85.8969 -11.7128
-7.86362 112.158 -15.8923
12.2489 132.189 -7.83151
-25.3227 124.482 -1.2361
-3.3498 122.253 4.83791
8.77931 154.316 0.0046098
-5.39416 83.6956 -7.53459
11.4102 122.705 -8.49242
10.2543 122.771 -10.4624
-28.6836 122.878 1.82939
-8.2804 102.405 0.346394
-17.029 96.7878 0.799711
2.33687 89.0404 -14.3719
-13.1461 89.2827 -11.133
-17.512 82.6694 -11.9179
-4.74512 91.0299 -15.2776
2.44188 133.432 2.28598
-27.2469 120.424 -8.89098
-6.63554 91.0565 -4.39433
12.0294 122.56 -12.4758
-20.0706 127.444 -3.10716
-31.938 90.4157 -12.2434
-7.58445 127.145 5.08843
-3.16492 104.856 -3.83744
-27.777 108.571 -0.809824
-17.3838 127.837 -6.90727
-34.7203 91.272 -13.8064
-24.0969 129.95 7.74249
-28.3807 91.8366 -12.5554
1.29343 80.0283 -12.1012
-24.2273 106.625 -13.9038
1.39418 131.078 -9.61206
-27.711 96.6682 -13.0548
-10.2582 151.16 -4.75283
8.09366 120.799 -14.9636
-4.92222 150.889 -4.63104
-10.2483 146.595 1.62037
-30.0446 129.987 6.58732
-5.01359 98.0182 -16.4975
-9.17651 140.048 2.06122
4.48295 125.404 -14.5365
-22.1221 144.032 2.058
16.534 125.816 -16.4428
-25.2733 134.63 -0.882337
-24.4563 123.438 -1.15058
1.90867 133.484 -10.1001
9.32663 125.061 -9.26677
-13.2482 131.005 6.89765
-12.7845 151.997 -1.9255
-29.7167 122.262 4.64853
-17.8195 146.905 0.0700725
-20.58 139.332 -2.12313
-14.9404 139.801 -5.66827
-4.80767 143.489 -5.15596
0.509217 110.589 -3.69139
-13.864 145.196 4.64378
-15.9423 100.007 1.72854
-8.19697 95.5778 -3.74037
-33.2513 100.776 -12.8869
-9.62813 117.583 -13.5311
10.1764 124.728 -10.6897
-5.85054 116.171 -14.684
-15.5227 150.021 2.55813
-28.1674 88.0165 -11.6644
-15.7378 103.744 -12.1897
8.17741 147.143 0.671518
-7.37333 136.615 -5.03754
-1.76134 132.463 -8.16455
8.75224 122.862 -12.6539
-14.114 87.0497 -11.7515
-18.1943 117.972 7.31978
-3.77127 138.232 2.66619
-1.76693 84.0374 -6.84459
3.81866 137.588 -9.44664
-8.17008 93.034 -4.22763
-25.3269 130.899 -2.02016
-23.8281 92.2636 -11.3039
-31.4025 111.238 -10.5469
-19.3212 130.07 -3.26361
-10.7653 88.6546 -3.1461
12.6255 122.447 -10.1722
4.52307 122.942 -2.65496
-28.6193 117.264 -4.37992
8.34333 151.043 -4.8103
-17.3187 94.5518 0.731743
6.40957 116.54 -15.9524
11.7937 134.245 -5.99644
1.41547 140.058 -4.88791
-13.0465 122.776 -6.47018
-9.33926 100.69 -14.108
-34.5931 94.5856 -8.52642
-10.7817 125.084 -5.58174
-26.7753 135.462 3.1868
-22.8159 89.7749 -9.40896
-22.657 124.871 -2.05161
-24.2411 125.093 -1.77391
-21.4002 125.357 -6.51778
-0.511821 119.64 0.0637973
-0.670861 134.695 3.79573
-33.309 85.4599 -6.77823
-26.467 83.8108 -8.41246
