ply
format ascii 1.0
comment Created by Open3D
element vertex 1576
property double x
property double y
property double z
end_header
-10.6954 108.751 14.8948
24.8952 92.4557 3.55095
14.089 97.3923 15.0696
-17.9845 106.892 6.76421
7.96042 115.767 -10.7784
23.0315 113.222 5.1298
-20.5999 98.4922 -0.893881
-10.9192 106.418 14.4405
-14.8801 119.144 0.428365
16.5917 113.983 10.71
23.2299 89.49 12.8918
-11.6978 93.7999 -11.9232
-17.6898 93.9298 -8.80774
17.2927 98.9538 -8.40361
21.6516 108.685 0.71019
13.3732 75.1392 -8.36329
-16.7229 113.106 -8.26872
-2.21704 117.759 -10.9083
-15.7607 79.2755 7.21838
19.0765 98.466 -6.15284
-5.22069 103.833 -13.8695
12.5789 112.549 -11.0069
-16.7691 97.492 8.25259
-13.3145 112.066 13.7939
-17.4871 78.0632 3.90569
24.7753 81.3758 4.40968
19.8473 84.4095 15.8326
1.13707 78.7936 16.1734
11.0498 91.8305 -11.8476
15.681 86.5609 -8.94779
-10.4186 93.5447 11.5605
20.9981 81.7177 13.8666
4.43536 79.7149 -12.8352
19.1311 87.9873 -4.84575
15.7164 90.7437 16.2618
0.279724 97.6212 -14.3452
7.43257 115.88 -10.4645
23.1185 112.447 5.32207
-4.97129 74.9051 -14.351
16.3144 105.693 -9.62264
4.91533 102.305 -13.2627
24.6967 90.098 11.33
15.7929 113.414 9.90557
14.8473 93.3702 16.2745
19.983 112.847 11.4736
15.7858 93.6551 15.8504
16.5271 111.381 -9.37486
8.95587 78.8283 -11.5775
14.6706 82.8009 -9.7137
-18.0829 117.249 -5.78788
4.44743 81.4256 -13.1053
-15.6684 119.024 0.85417
24.5411 99.912 8.55542
-14.378 93.0443 8.74518
-15.6609 107.924 11.7652
21.0235 114.072 0.641697
23.8096 86.5248 11.7071
12.338 113.762 -10.813
-18.6847 104.15 -5.59608
-20.3991 102.284 -1.1056
24.1372 87.9481 2.41847
-7.28888 105.401 -13.5334
-4.70722 92.5782 -13.6078
13.0764 78.7226 16.9783
2.09651 102.406 15.543
-20.6128 102.475 -2.15882
-15.6874 79.4453 -9.76661
23.4064 94.6038 12.045
5.01155 77.4262 16.5928
-0.295392 112.245 -12.1595
15.6939 106.824 10.3927
-16.3401 113.903 -8.238
-15.3605 115.643 3.34041
0.357641 85.207 16.7564
20.0656 80.9622 15.3435
24.1893 82.0509 3.11224
23.7903 79.0871 10.6597
21.1134 114.502 8.39824
4.51545 86.0589 17.3367
0.398306 112.842 -12.0211
-1.30586 101.907 -14.3948
-5.08927 100.152 16.2561
6.31303 77.3131 -12.2218
2.2793 96.6391 -14.0253
-3.31648 109.334 -13.3918
24.9934 97.077 8.14186
-19.8996 88.0006 0.518967
12.7127 95.946 15.024
-10.5515 89.6547 -13.0693
-1.77047 89.807 17.4148
4.10985 93.0725 15.5821
20.3182 109.82 -1.98874
22.6733 108.273 8.67097
19.8505 115.822 1.19138
4.80603 84.2394 16.7639
10.0087 80.5451 -11.4089
13.4211 103.728 11.1137
3.31035 116.588 -9.11502
-4.44235 106.792 15.6477
-19.5922 94.7654 1.27796
-10.0041 116.922 -9.54799
-18.6479 108.44 0.0406983
-8.39548 98.9897 15.0051
-1.02585 75.3515 -13.9751
23.0254 82.1079 0.581042
21.1028 92.1887 13.8567
-19.964 78.0629 -0.75741
11.9313 101.502 -11.9983
-11.1961 121.254 -9.30632
-18.649 80.245 -5.38721
-18.4836 80.1746 4.28242
13.1173 97.548 -10.8733
14.9147 103.13 11.7476
-19.2434 105.084 -4.4469
-3.40434 79.0643 15.3185
-7.98298 94.1598 15.0012
10.776 82.2261 -11.599
6.912 119.627 -8.33895
2.1673 89.1136 17.8367
-17.8171 98.7188 6.82324
23.234 108.098 6.16833
16.075 84.4981 15.9914
-14.5013 115.284 -10.265
4.92135 114.983 9.87044
-19.2112 102.85 -5.27431
-1.21299 75.0933 -14.0523
24.352 99.7099 4.46362
12.2537 95.2974 -11.3794
-16.7292 112.366 -8.96037
21.3705 88.584 14.4354
13.793 79.4873 16.9777
-17.0786 108.51 8.11271
-18.8082 114.993 -2.36973
-17.2791 113.793 -5.92851
11.1603 99.2881 -12.3658
-20.3322 96.9284 -1.20594
-1.07032 106.701 -13.7425
23.596 100.208 9.93073
10.9357 110.612 8.63775
10.6942 113.227 7.90123
15.2553 104.233 -10.2228
13.0986 98.8735 -10.9349
23.7817 83.8583 10.1166
20.0089 92.1988 -3.69428
-7.07045 98.8208 15.8576
-18.3597 107.749 0.0840416
9.07404 93.9236 -12.5864
-13.9023 85.2944 10.4312
-19.8363 93.8751 -5.9601
23.1334 112.025 3.76339
20.3287 92.2027 -3.38499
-5.58223 90.8428 16.3919
19.7899 99.4415 13.3959
-4.86039 78.7385 -14.3616
-11.4034 113.117 14.4149
-18.9146 79.8609 2.50432
-11.0918 79.0454 -13.3433
15.5975 103.565 11.9684
-18.5132 105.381 -6.06676
7.969 113.788 8.04333
-11.3857 86.9277 11.8922
-12.5918 100.065 -11.9584
3.27792 75.3846 18.0372
-20.0305 86.2715 -0.0988156
-7.02618 104.397 14.2649
-18.6217 97.6607 2.66327
1.76129 104.555 15.6461
20.7821 85.7288 14.9861
-20.5102 96.5878 -3.68763
-14.698 108.519 13.081
19.6385 107.853 12.2726
-10.6994 114.046 15.1697
-11.1729 76.8342 -13.0692
19.0527 86.5373 15.6541
-9.17763 77.1475 14.2992
24.6428 85.3517 3.6387
-19.2738 91.1177 2.07411
8.19628 108.326 -12.0788
-19.2623 84.2756 1.86341
-20.2145 99.3439 0.471937
-12.86 101.456 -11.4881
0.841983 79.7672 -13.618
6.32507 110.133 -11.5117
14.2199 108.66 -9.86102
21.2544 110.785 10.8839
-23.8234 118.323 1.34083
-0.106287 105.673 -13.9919
19.7918 109.954 -3.0957
7.81115 106.311 -12.8891
17.4275 110.451 11.4704
-16.4117 99.0913 -9.7034
-3.98906 95.4658 -14.0315
10.3849 108.416 -10.625
21.7932 115.448 2.92729
-12.1412 91.454 10.2898
22.8739 91.9921 -0.228677
-11.2734 85.9864 -13.5836
5.20431 111.406 -10.5757
24.1015 94.4126 1.41393
11.6993 77.007 -10.9496
20.0661 99.5114 -4.73243
-20.7539 84.2707 -3.14567
-14.9296 90.2343 -11.3726
-20.7852 76.5409 -2.45299
0.69549 102.543 -13.8928
-18.3618 80.6161 4.67369
21.1825 94.9404 13.3815
18.4611 104.764 -4.71082
-15.3675 116.808 2.9989
20.9036 103.393 12.3966
16.0035 95.0012 -9.00528
7.78621 111.181 -11.5934
-20.4344 81.3115 -4.81193
8.64005 77.0415 17.207
-9.75589 78.6648 -13.6874
-5.42733 105.052 14.7133
-9.10149 107.193 14.8841
25.0624 78.2869 8.83304
13.2927 84.8115 16.9369
20.7271 113.711 -0.673748
-2.6894 86.1801 16.5925
-20.4272 93.48 -4.67345
16.3683 113.873 10.5513
24.1184 81.8029 2.22459
24.8977 94.7828 6.59208
-8.33915 86.48 14.5179
15.0859 105.155 10.7445
4.65532 103.531 -13.4373
-9.35357 98.3826 -12.4891
-9.61152 89.9541 12.8033
19.2317 102.905 -3.7914
-6.11465 75.792 -14.2934
-16.1891 87.6041 7.81025
-7.95379 85.2752 14.7918
5.13291 105.283 -13.4597
-12.9935 108.315 -11.3329
-13.7782 76.7869 7.89762
-0.312534 101.382 16.4465
19.4915 95.102 -4.90088
14.6498 83.8669 -9.72724
12.2426 84.7893 17.0517
10.208 96.4109 -12.3314
-10.4512 91.4251 -12.8271
-12.7491 88.4388 9.89136
4.61597 94.9734 -14.0536
-16.9889 96.9777 7.86895
0.737532 100.646 -13.9582
-18.3634 105.391 6.55919
17.3664 102.899 -7.65528
-2.82139 106.343 -13.7713
-15.5819 115.002 -9.21618
-15.6392 89.3717 7.70431
-16.8573 79.0568 -8.60639
-1.18979 93.4966 17.4718
-16.7363 82.977 7.82455
-17.0061 84.6122 -9.82435
24.1157 83.3254 4.63898
8.84549 116.521 -10.0837
-6.812 80.5626 14.8844
-7.01739 118.731 -8.70619
19.0887 121.042 -9.70292
25.7856 83.584 7.16237
-13.3159 85.3182 11.0664
18.0397 96.42 -7.40458
-21.028 92.4535 -3.57656
-20.8907 94.7461 -3.33592
-18.3825 83.7379 -7.8495
-3.96487 89.7952 -13.7388
4.3721 108.266 -12.661
6.54816 104.873 -13.4802
23.5027 104.918 7.5272
3.08064 116.504 -9.02674
11.0028 99.5902 -12.5028
5.21895 108.897 -11.5782
1.56726 116.963 -9.37287
20.7167 84.6944 15.0785
2.0104 98.3408 -13.8653
-7.21427 113.247 15.4237
-20.0068 96.8013 -5.38353
17.0761 87.638 -7.19037
2.09603 96.49 -14.0624
-2.16089 88.2793 16.8817
20.5022 107.524 12.5811
22.1456 81.8291 0.0762341
16.8463 105.362 -8.911
16.6373 110.63 10.6076
-15.2624 92.1474 -11.21
13.834 111.869 8.5888
-20.195 83.2421 -4.80126
-12.8755 120.574 -10.0739
-11.1195 104.242 14.1395
22.2681 106.419 11.3668
22.1958 116.266 5.1606
-17.403 97.8285 -8.64481
13.4639 86.6248 -10.5376
20.605 103.029 12.4775
18.8416 78.6014 -1.09679
-19.9059 103.998 -4.0696
-7.54183 100.459 -12.9973
2.8361 110.849 12.6074
-12.5684 79.7042 12.8098
11.4004 87.5329 -11.5251
17.0446 107.505 -8.68922
-15.4679 119.587 -3.6148
-4.70556 118.28 -9.10292
24.4726 99.7191 4.98559
-21.2213 86.6369 -2.9997
-15.7965 107.116 -9.7062
-19.9694 100.817 -5.06089
20.2266 100.759 -3.24562
-2.08535 118.563 -10.4283
-4.51761 79.258 15.2887
22.1533 87.9272 -0.508889
-15.4687 83.1706 8.92176
-7.48916 106.596 14.7522
-14.8625 77.0005 6.94582
-10.2849 117.941 -9.33723
7.54068 117.838 -9.97313
23.8174 95.8765 1.01981
-7.17793 101.71 15.0336
-8.61343 91.1926 13.5718
-16.5557 77.9982 5.7608
-18.6582 76.1508 -1.45402
24.8344 97.4269 4.29443
-17.4097 99.7903 7.19077
-11.8758 104.692 -11.3909
7.77166 85.8231 -12.589
19.6628 109.324 -2.90195
-15.5463 76.2541 4.02112
-12.0705 114.094 14.0114
5.8937 92.5619 -13.6652
-9.62439 104.479 -12.2856
27.6108 77.8746 6.608
17.4685 114.479 -6.94484
15.5453 100.19 14.0043
-13.1395 92.3688 -12.3555
-18.4275 80.6133 -6.21973
-18.0595 109.327 -6.51547
14.1763 89.3873 -10.0789
4.02337 105.179 13.605
-4.85977 79.2489 15.2694
7.53843 89.2572 -12.7705
19.6759 84.7726 15.7965
16.1809 77.7425 -6.25385
-17.109 106.166 -8.53978
-15.6678 118.433 -1.833
-18.2697 79.6043 -5.91374
-0.166827 76.3879 -13.4897
-18.0416 89.7509 4.76437
-19.5266 93.5178 -0.362638
23.809 101.311 4.18348
18.6847 77.9397 -0.836705
10.2632 80.6726 -11.3644
-20.2774 74.5851 -3.81506
-11.8628 83.1404 -13.2953
-15.5969 76.553 -10.4381
-4.4489 93.8568 16.6065
-2.15249 78.3299 -13.7656
24.9434 78.995 10.104
-10.8941 105.593 14.3747
16.5145 102.896 -9.35399
5.31167 104.048 -13.6091
14.2414 112.849 8.4183
-19.0715 104.649 3.51771
24.7722 88.2613 3.00914
25.4445 85.1264 6.99215
7.61366 81.4783 16.7889
-19.3665 100.874 2.68052
-13.3516 103.63 13.4747
-4.04727 108.048 16.0554
20.0695 101.208 12.6672
15.5712 78.8044 -7.30126
19.4384 101.723 -3.95773
-7.88607 93.6708 15.0334
18.7585 91.9484 14.7393
8.50284 88.7438 -12.6511
-19.3798 95.3691 2.24603
-9.32233 85.8983 13.9307
0.946227 75.2424 -13.7909
23.4778 99.3625 10.5372
-19.5487 107.952 -2.8523
-4.19163 113.866 -11.37
18.5149 84.9097 -4.75578
-0.287554 95.1895 17.3756
20.2383 114.883 1.43169
-6.88623 87.0359 15.5334
-17.2345 101.047 6.46755
-18.15 108.139 -6.72813
11.6639 119.977 -9.19379
-17.0234 89.8241 -8.02122
-20.2504 76.1314 -2.31417
22.374 105.053 0.548629
5.37473 77.1784 16.6941
8.13501 120.709 -7.92918
-13.7613 76.3088 5.99799
17.4208 109.958 11.5368
-10.1345 86.6783 12.9776
-19.6211 109.718 -2.44151
7.30907 95.4121 -13.629
-0.196109 76.2099 16.542
17.7078 96.0489 -7.67826
-7.50498 95.1364 15.4535
-19.2854 106.71 -3.82062
23.9727 104.152 4.85378
7.87007 94.1106 -13.1478
-21.1011 115.654 2.17034
6.80739 84.5684 -12.6014
6.13779 112.899 9.22906
-2.82602 78.1627 15.2512
-19.7697 80.4858 -4.63182
-15.0107 117.308 1.93526
23.7288 95.5648 11.6264
24.8833 94.4841 3.38394
-15.2619 111.946 -10.4371
21.9999 85.6352 14.0134
17.6412 93.8783 -7.6837
-0.917529 80.9299 16.5893
-4.57815 95.1508 16.7867
-15.4303 119.361 0.531278
9.94795 91.6512 16.8917
-14.7365 79.6114 -12.1883
23.1225 112.336 5.33696
7.22047 105.23 -13.1091
23.7165 80.6489 1.64446
23.7729 91.0267 1.54716
-13.7627 91.2638 8.65103
-25.6977 119.123 0.694755
-15.0108 110.253 12.8866
19.1135 84.8225 15.8008
-17.0455 116.744 -1.71626
20.0686 90.553 -3.75771
25.3144 86.8107 6.80691
-6.03309 76.5873 -14.1521
-14.3717 101.23 12.0253
-0.698841 110.424 -12.5821
-18.621 105.311 5.17008
-19.595 85.3806 0.974625
14.6465 115.403 8.33351
-0.0290541 98.9478 -14.3678
-6.67584 76.9783 15.6913
23.1635 102.37 1.93159
22.6931 105.592 1.37197
-18.5347 106.521 3.13132
-0.212114 78.7988 -13.706
-8.75117 121.501 -8.19433
-2.52255 95.8211 17.2234
-17.4585 112.967 1.41798
17.2957 84.3161 15.9349
-7.08703 81.1746 14.822
24.3743 84.1049 9.54274
13.0391 91.8049 -10.6951
-2.21795 111.677 -12.5325
24.7554 94.0486 5.33385
-2.43076 100.575 16.825
-15.2947 116.54 1.41969
-20.4021 91.2767 -0.637771
8.51862 98.1567 12.773
-19.1878 92.1686 2.6736
-20.4927 84.6271 -4.33742
10.8872 103.644 10.8504
19.9637 114.902 0.986796
6.47423 78.0271 -12.2059
6.13753 109.159 10.3412
17.9133 107.249 -6.58897
-14.5433 111.389 6.19742
16.8265 107.259 -9.03405
25.3305 87.932 7.16725
1.50294 96.3859 16.4304
17.4344 115.83 -2.29773
-15.9016 77.4516 6.25527
12.2286 111.303 -10.849
22.2704 83.076 0.179996
19.1904 90.0199 -4.60583
-16.466 93.4111 -10.2863
13.0302 96.1461 -11.0388
-16.6026 97.8455 8.52499
15.6661 91.1271 16.2433
-19.4166 95.8175 1.14602
20.4115 78.0222 14.8262
-16.431 115.033 -6.49204
-17.9362 85.093 6.23843
-10.5368 88.3499 11.8954
-17.2724 76.6206 0.887209
-15.7441 76.9906 5.63357
-15.6245 99.4466 -10.9888
-18.155 119.026 -5.74383
-19.3578 112.92 -2.22286
10.3 81.1735 17.0275
6.22797 95.9762 14.1964
-16.666 84.6846 -10.1623
17.9548 80.0692 16.8605
-4.96499 82.4175 -14.3937
22.1892 100.882 -0.417968
5.81514 110.108 10.3339
20.8088 103.291 -1.99922
12.0982 105.629 -11.0697
9.0769 102.64 -12.8199
6.29547 101.761 -13.3023
-4.3212 112.886 15.2396
5.80417 79.2183 16.4118
24.5219 96.334 3.28403
-13.6416 104.225 -10.7688
-4.71958 112.246 15.5359
-0.0793271 89.5824 -14.1166
-5.81646 114.638 -10.3298
10.2293 76.4465 -11.5262
3.75014 109.462 12.1769
-19.0746 91.0218 2.61795
17.5736 92.5737 15.2405
25.4228 91.6105 8.21808
-11.2391 95.2549 11.839
-16.123 102.664 10.5686
16.0498 101.302 13.8056
20.8729 112.79 -2.45998
5.09883 112.294 -10.1697
-16.4035 91.1579 7.66538
-9.6155 100.491 14.6611
-2.81599 82.4849 16.4924
-2.5939 86.1862 16.6108
-1.24517 102.016 16.7746
3.6026 98.3377 15.4517
24.4268 84.8672 9.99225
-16.4403 106.178 -9.36523
19.5891 119.185 -4.95528
8.3144 83.7729 -12.1691
15.81 96.9497 15.1252
-9.42947 112.194 -10.7694
-3.90243 101.383 16.2285
18.1177 84.0373 -4.99307
17.8252 110.464 -6.25761
-9.51178 78.5665 -13.7462
7.87256 119.998 -8.67891
-7.95027 87.6607 14.9391
18.1917 82.4278 16.2759
-20.1117 103.287 -0.847296
23.2574 88.6032 0.840208
-9.46346 87.1993 13.3885
24.925 97.5962 5.21751
-16.1385 118.409 -6.73198
-18.8736 98.9519 2.34529
-3.7576 112.398 -12.4197
4.98275 77.4148 -12.4677
-19.7075 95.0305 -6.31493
-20.4693 96.454 -1.61662
-6.69954 108.338 -12.3578
15.0853 84.8264 -9.26393
-19.2656 115.444 -3.03472
-21.1661 89.3099 -3.4561
-0.247221 90.6722 -14.0532
16.3853 115.778 -7.53146
-17.4559 90.8631 5.94434
21.9138 91.3211 -1.72155
-17.322 103.217 6.73016
-17.7295 107.779 2.58009
-19.7238 77.0515 -3.49095
-13.6937 76.9327 -12.4322
13.9673 81.5184 -10.0331
-6.54735 92.4096 16.1785
24.9006 94.581 5.36824
9.94809 110.623 8.59611
8.11008 93.3822 -12.9362
22.9284 93.9569 -0.402831
-15.002 116.959 0.0324354
3.16315 111.898 -10.8251
19.3552 116.443 -0.114674
23.1057 105.605 9.886
2.18344 84.8011 16.8951
0.294432 88.9844 -14.1713
9.69107 92.9201 -12.4421
15.9338 96.2048 15.3885
-5.80573 93.7786 -13.5645
-18.8086 80.4637 3.81505
-16.2277 99.6862 -9.98249
2.5029 110.324 -12.6989
-8.84664 114.1 15.3713
-6.08589 83.884 15.5642
-12.139 81.9292 -13.176
-0.0984075 92.5772 -14.0168
5.54856 97.781 13.9874
26.1743 81.9729 6.84227
19.2327 110.555 12.1068
14.0244 92.6896 -10.1876
2.22264 111.563 -12.0294
1.59763 79.0024 -13.3885
-19.0763 111.183 -5.00809
-9.93158 87.0636 12.8978
15.8964 104.906 -9.87761
-18.8481 103.494 -5.47885
14.986 112.495 9.16252
14.5183 117.368 -7.46288
0.732998 83.7153 -13.7175
22.8016 103.734 1.59234
-13.0868 107.15 13.5149
-10.4868 100.698 -12.2295
-6.89115 84.6712 15.287
11.5804 91.1053 17.097
16.9009 82.1564 -6.33604
10.0161 103.155 -12.0591
22.5396 111.496 7.08529
20.5065 88.1112 14.947
18.957 85.3142 -3.47031
4.82802 104.407 -13.6967
19.0035 84.2072 15.8691
9.70869 103.765 -12.0746
16.1384 94.6249 -8.87776
24.7626 97.7114 7.60284
-1.49851 106.611 -13.7356
20.0621 86.0574 -2.10438
22.9139 112.675 2.54097
-13.2915 109.039 13.8931
-15.1145 97.6243 9.57609
5.15663 104.217 -13.6577
-16.9071 108.558 7.44746
-5.40972 93.3717 -13.5097
-1.50048 91.1657 17.5058
15.9064 95.4472 15.6132
2.10885 111.282 13.371
-18.9651 111.966 -3.86332
23.6913 84.8062 10.8698
-15.7369 76.6568 4.88078
-18.1526 104.808 6.36814
14.0122 89.3853 -10.1497
-17.1517 96.6555 -9.18074
-17.5153 115.901 3.10266
20.849 113.6 -0.709175
-10.1254 98.8569 13.9395
5.33084 95.2728 -13.963
-17.1655 115.036 2.25865
-18.8873 99.0267 -7.02709
-4.12124 100.495 -13.8812
23.53 108.299 5.11427
-12.8133 92.2964 9.52724
-6.07306 76.7476 15.7188
-8.49004 101.72 -12.6348
-10.1021 91.4706 -12.8457
20.8073 102.718 -2.00282
4.31398 112.592 10.8729
14.1397 86.616 -10.179
21.5493 107.278 0.986139
7.15041 92.914 -13.3124
-9.95011 115.306 -10.2852
-19.8632 89.0193 0.343234
18.6632 86.2357 -5.24382
2.79619 95.5268 -14.2455
-25.7864 119.084 0.545166
-0.514789 104.388 16.2665
16.8827 108.922 11.2124
25.4942 79.4345 4.03158
-3.86047 116.774 -10.2877
-15.4694 103.046 11.4803
4.94109 75.5265 -12.7456
-0.0690627 108.797 15.6642
16.0479 113.603 10.2619
-13.0298 89.5816 -12.8396
-13.4269 120.976 -9.59839
-8.66935 95.0764 14.4044
-18.1096 114.287 -0.103193
-1.6292 99.9641 -14.2863
24.0073 96.8729 11.3053
-14.0459 115.4 9.08505
-6.4731 106.27 -13.7145
17.1973 108.574 -8.39224
5.27094 101.6 -13.272
19.1473 84.1884 15.8687
-14.7022 102.54 12.0492
21.6064 103.154 -0.951751
-14.1244 100.699 12.0945
20.8696 117.167 1.79533
21.5056 89.5651 -2.07237
0.343871 101.858 16.0971
5.37494 91.1376 -13.5469
-16.4798 111.49 -9.25774
-12.5358 96.8611 -11.6313
-14.5312 89.8526 8.19736
-13.6411 119.773 -1.80801
18.8867 115.328 -0.18286
-15.7564 95.8481 8.41989
-3.86607 106.712 -13.8436
19.6874 118.504 -1.22507
22.5913 108.713 8.51525
24.3583 91.1033 11.7196
8.8409 119.051 -8.91025
13.8917 106.738 -10.4639
16.3327 115.83 -9.11176
-16.4632 118.857 -2.27888
23.0407 110.078 5.92498
-15.7902 86.338 8.56496
9.8845 80.063 -11.3169
22.4477 110.286 2.13718
-0.212232 90.757 -14.0492
18.4483 82.7456 16.1763
-7.34313 110.356 -11.1497
1.76271 102.416 -13.5764
23.5876 93.2909 12.1603
2.45981 90.4857 17.6197
-15.1752 93.7062 8.57563
17.0866 80.5078 -5.98132
2.24419 108.54 14.4214
4.70335 104.205 -13.6311
12.6087 116.669 -9.50401
-17.4664 112.156 -6.54078
13.8489 83.9929 -10.2788
-2.05559 78.0964 -13.7148
24.8454 93.0207 3.98169
-18.9505 77.4655 0.297444
2.61161 79.2123 -13.2689
21.6026 90.0052 14.1762
0.381687 111.306 15.258
23.4226 100.747 1.60404
-13.0132 101.967 13.4138
-5.81993 114.679 -10.308
3.6098 109.613 -12.3334
-19.753 98.3395 -5.42394
6.7029 108.108 -12.0204
-19.6072 91.8896 1.78429
21.0483 85.1552 -0.320305
22.2169 108.398 10.1361
1.6655 100.462 15.8207
8.03965 82.3399 16.9747
-15.4776 76.5003 -10.8981
7.26319 118.968 -9.16529
17.0277 112.49 -7.95681
-4.06369 97.5673 16.9494
16.9369 78.4487 17.1141
-13.9621 119.794 -9.56676
-15.1513 101.03 11.1991
22.3931 111.315 7.46557
-1.29388 113.491 15.3524
-16.0211 110.557 11.2369
-16.0564 98.7652 -10.2824
15.5687 105.342 -9.98737
26.0126 77.7147 4.65511
16.8932 91.6762 -8.30376
-0.87795 99.0053 16.7571
5.42754 115.755 9.16267
-14.1637 95.7395 9.33989
15.9189 101.513 13.5555
-5.3477 93.9012 -13.5387
-20.1201 93.6278 -2.1308
22.4382 91.1748 13.4208
22.3899 115.678 4.94539
10.2037 87.9419 17.4476
-1.74883 104.091 -14.2358
-8.12009 95.5938 -12.9584
5.58375 78.6313 16.5162
24.7546 81.068 2.84349
9.5993 82.2198 -11.9634
16.9675 111.953 -8.01891
13.169 95.5636 15.4971
6.23097 84.314 -12.7315
-19.9152 84.3002 0.887336
-4.41484 75.3881 -14.2507
13.332 106.539 10.0924
15.1678 100.135 13.9999
15.6603 116.253 -9.09206
3.10141 81.317 -13.3819
11.7326 95.3921 14.8642
2.52785 104.336 15.3335
19.4572 109.18 -3.22702
16.1421 116.045 -9.45279
12.8903 101.421 -11.1559
23.97 82.7983 2.58265
1.09777 110.154 14.9901
-6.3495 109.518 -12.0874
-15.2824 88.9459 -10.4494
13.9121 97.0868 -10.424
8.33907 101.913 -13.5206
-20.3192 77.699 -1.61203
-11.8131 110.974 14.853
24.7735 100.993 7.73644
2.8212 87.1783 17.7759
15.6095 83.936 16.0694
22.7062 89.1257 -0.206858
-3.59263 77.7091 14.9405
10.9415 86.9924 17.3929
13.7324 94.8493 -10.56
17.3685 115.664 -2.68369
-14.0026 88.1065 -12.1699
17.9219 104.488 -6.09544
18.8263 105.789 -3.94607
-15.4324 82.5212 -10.8621
23.3773 101.564 1.89961
10.8465 91.0944 -11.9934
-17.1688 76.5601 2.11781
-15.7418 109.044 -9.65976
23.0869 81.8814 10.3572
4.11366 100.699 14.4911
13.0944 97.1204 14.7742
10.3473 107.813 -10.7407
24.346 103.033 5.74178
-1.42995 92.8398 17.4413
-20.7096 80.4287 -3.12735
-5.09646 89.5941 16.3166
16.9481 90.6055 -8.57044
-11.4059 108.704 14.6231
-13.4609 115.071 12.8727
-15.8644 116.048 -1.12608
-4.03027 113.722 15.0322
11.0568 97.1818 13.6015
21.2284 89.4889 14.3946
-10.5232 86.2145 -13.793
20.7659 98.1581 -3.78468
-12.683 89.0218 9.91283
-20.2371 88.4377 -0.114955
24.6969 85.4425 5.92228
3.96584 96.8732 -13.9194
18.5143 114.872 -1.97333
-15.0953 96.7753 8.96602
-17.819 107.62 1.28773
20.6138 114.079 10.7097
-19.9813 86.0042 -5.04648
-7.86382 91.2133 14.6015
-20.5325 94.0116 -4.58309
17.4269 107.425 11.2082
9.87643 85.9058 17.3587
-8.06252 93.8768 14.8985
15.5438 117.936 -4.73474
-14.8597 102.514 11.9068
23.1673 109.393 5.93641
-20.4215 84.443 -4.40212
8.29551 106.795 9.90946
15.4548 113.25 -9.56439
-9.96147 99.9693 14.5929
0.208286 116.046 -11.1334
24.1646 96.549 2.25749
-11.8401 81.3563 -13.2994
20.2886 84.1429 15.568
18.1865 80.9146 -2.62056
22.3545 105.452 0.793855
22.8454 94.9378 12.4739
-19.0951 76.708 -4.04159
-0.898503 82.3601 16.7807
-11.6343 111.292 14.8303
-17.4148 117.54 -2.45207
8.3611 115.893 -10.6627
13.9865 115.499 7.97137
-10.7651 103.216 -11.753
24.7055 91.8608 4.3443
-18.1502 106.979 5.4103
-17.5992 117.297 4.75643
-3.94267 81.4229 15.9097
-14.7966 99.6836 11.0666
19.4043 111.608 -4.78094
-13.367 80.4849 12.001
-11.3774 78.9802 13.4649
-1.5774 100.645 -14.3257
-10.5992 112.856 15.2729
19.6754 106.027 -2.3991
-10.1646 112.462 15.5574
-17.3028 115.044 -0.778598
14.1303 85.3644 16.6995
-14.0707 108.485 13.3761
12.1922 101.798 11.667
-17.9658 101.107 -8.29805
22.6088 76.6823 2.9249
-15.2813 109.941 12.6807
-0.403793 101.435 16.4911
-3.03358 112.69 -12.4978
1.58987 113.073 -11.7658
-12.7699 85.3394 11.5188
-4.21064 113.386 15.0959
-19.2842 97.2314 -6.863
-12.2794 102.651 13.7593
-20.3318 93.3053 -4.82616
19.5465 104.598 -3.08418
-17.461 78.1397 -7.82477
24.0017 82.114 2.18866
-16.7247 114.441 1.69328
-17.8309 107.459 8.23367
-15.1832 95.4927 -11.3166
-12.3968 111.74 -10.8524
9.75721 80.7805 16.9979
0.632179 109.066 15.391
-1.79455 75.6108 -13.8333
8.38987 101.149 11.8645
-16.3241 83.5018 -10.505
24.7997 100.365 6.8158
-7.85516 77.2114 15.7274
7.62111 91.8174 -12.9723
-16.1963 93.591 7.98869
3.02465 78.4883 16.3189
-12.7123 107.883 13.8713
4.43085 108.676 11.8494
-19.4961 114.772 -2.31274
7.09513 89.842 17.3891
15.2625 88.7396 -9.58148
25.2279 89.3127 10.3472
15.7054 102.484 12.6363
-5.76185 98.8365 16.4219
9.83209 77.9716 17.0113
24.1364 102.788 5.00511
-20.5318 96.3517 -3.78664
-8.87644 87.9518 -13.4588
15.4792 90.3816 -9.47988
-19.1216 81.6407 3.22641
12.7358 77.955 -10.0436
19.224 119.504 -4.97878
23.9153 83.7496 9.68179
20.3602 86.5607 15.1938
-19.1293 77.6042 0.349767
-19.789 104.018 -0.786377
-16.3081 113.844 -8.7761
-4.14414 89.2574 16.6529
-18.4622 75.9065 -4.32708
16.7117 88.5324 -8.45588
-20.1273 88.5547 0.0319652
-5.60634 76.6858 16.4109
19.0593 89.818 -4.78425
-13.4881 118.171 0.119294
-15.6926 96.3522 -11.1088
2.3655 94.2986 -14.3703
22.1636 115.094 3.01832
-13.6973 121.013 -9.40281
-16.5718 115.307 1.51521
-7.6648 80.3124 14.3943
12.3529 111.65 -10.8862
10.1385 110.536 8.62866
8.4252 107.602 9.64488
22.8141 104.186 11.3966
-15.8854 82.5705 8.62774
17.3368 78.3738 -4.36068
-18.3434 115.784 -2.95425
9.65893 82.5679 16.9853
6.97506 92.7378 15.492
-4.47878 77.648 -14.1513
-14.1566 78.7673 8.82228
-20.0921 78.0062 -1.2159
-0.469081 114.991 -11.9305
-16.3953 118.011 3.02893
19.2973 110.031 12.2087
-19.1363 87.7667 2.01018
-6.98518 86.4259 -14.2343
23.0534 104.137 2.70664
-16.7594 103.865 8.67725
-14.0281 87.6069 -12.0266
-18.5714 77.2666 -0.904086
6.36207 91.0193 16.8842
20.2969 103.118 12.6383
-1.8069 81.8387 -14.1018
1.38307 76.3878 -13.2849
-17.9095 100.349 -8.58307
-19.3491 81.7826 -5.75084
21.1652 105.632 -0.584208
24.3551 84.3762 9.71931
-16.6594 112.757 -9.00591
6.90749 79.6532 16.5267
-15.9002 83.6713 -10.6357
22.2937 115.108 6.42292
14.8538 104.323 11.1256
7.68264 80.4758 -12.0644
22.1591 84.2786 0.481094
25.6186 89.0096 9.33237
-2.28259 78.5142 15.526
24.789 85.305 6.07317
3.01658 102.427 -13.2893
6.05787 111.747 9.68028
-4.19914 87.6162 16.2762
19.0987 110.685 -4.93103
24.581 91.2 2.60327
8.14107 103.176 -13.4604
13.5989 78.614 -9.42393
15.3625 81.1835 16.6808
21.4298 82.4249 13.0335
1.35541 111.882 -12.3279
-20.1905 117.979 1.5229
-0.162797 98.0547 -14.3977
-6.31781 99.2974 -13.3345
-8.27598 89.2206 -13.5997
-8.22423 105.092 -13.1675
-10.5722 121.603 -9.02593
13.3132 79.1965 -10.1964
14.697 84.9838 16.4055
27.1238 79.6775 7.28661
-0.929257 88.8017 17.4221
-20.1497 92.6466 -5.04258
-19.6195 92.0483 1.90589
4.26944 80.19 -12.9681
-9.96032 80.9965 -13.4487
-0.874187 119.882 -10.6211
24.8962 94.0023 4.52836
-3.31058 115.451 -11.3801
15.6163 98.61 14.8863
9.89816 99.8434 -13.0979
-19.6167 80.7197 -4.84337
12.2767 91.0968 17.0137
-19.1319 107.515 -1.00277
5.41439 105.798 11.7272
-14.9047 94.1331 8.60651
-19.2872 113.096 -2.28268
21.9488 116.887 3.34262
-7.39826 97.2689 15.4335
1.96202 106.102 -13.4643
-17.2587 84.7273 7.11844
22.7312 104.732 11.2955
9.68259 99.5913 12.1266
21.6897 79.7194 13.902
-20.1188 95.4824 -1.43128
10.3623 105.154 -11.2942
10.5713 91.0141 -12.1205
-5.40763 86.9201 16.3433
18.4561 81.2756 -2.14181
-4.97162 110.627 -12.5688
4.38584 76.42 -12.6382
22.9358 77.4431 2.64705
18.1628 92.0086 -7.03533
-4.25207 109.007 16.035
-18.0611 77.4892 -6.34199
-16.933 88.1616 -8.84895
11.884 94.2455 15.7514
-15.0096 78.5944 -11.5468
-14.4388 96.8502 9.62681
8.52627 91.4147 16.9275
-13.3738 117.952 0.366487
6.66841 102.358 12.3327
12.1396 106.193 -10.9061
-11.1979 103.896 14.065
0.508259 108.566 15.4982
25.8948 79.5764 8.40112
19.7605 110.28 -3.4012
-9.69571 90.8881 -12.9499
-9.81738 100.578 14.523
12.2061 100.291 -11.764
-2.46241 112.063 15.6375
0.364886 111.632 -12.3581
18.5224 108.049 -4.41511
-17.935 85.3856 -8.39588
1.04881 92.8093 -14.0125
4.97264 89.9635 17.1462
-14.1621 74.7537 -12.8057
7.19997 88.8927 17.251
13.7422 116.564 -9.31014
16.2147 110.169 10.2919
24.4032 96.0687 11.012
20.6404 78.4933 0.183309
-18.6363 97.156 4.03112
21.8133 95.638 -1.69532
11.0616 88.1095 17.3949
7.0546 83.7011 -12.5123
21.8044 99.8157 -1.34387
-3.50547 106.301 -13.879
5.47164 83.52 -12.9793
-16.0078 103.489 10.6479
17.0104 99.0656 14.4545
-0.736554 89.3313 -14.0426
22.0018 111.033 8.30981
-12.219 80.2519 -13.1274
-7.20664 115.527 -9.59275
24.0553 105.672 4.98708
15.3146 92.6976 -9.32574
-21.1186 88.225 -2.7176
23.9402 95.8958 1.42269
17.565 107.551 -7.82749
-2.58399 105.72 -13.923
16.3069 98.6999 14.681
14.6449 117.588 -7.13115
-15.9527 114.149 -9.37099
15.4629 96.7631 15.358
17.6264 96.8184 -7.83076
16.4821 104.754 -9.46188
-16.6182 103.158 -9.87258
-0.244285 90.3986 -14.0663
10.137 100.545 -12.9738
-2.04202 117.604 -11.1099
-18.9124 110.471 -5.18067
7.30535 100.634 -13.3961
-2.34997 80.7014 16.1223
21.9527 87.761 -0.693708
-7.86859 104.308 -13.2083
3.29846 112.825 -10.2378
-11.4195 119.64 -9.50162
3.12465 98.5687 15.7317
24.1923 79.1661 10.472
-14.69 116.54 9.30552
18.0804 86.1225 -5.83812
-6.17678 83.3618 15.4875
-2.95697 83.5353 -14.2104
21.8263 106.93 1.13595
13.531 91.1236 -10.4767
-12.8709 108.183 -11.4112
-16.8056 112.946 -8.80635
-12.9732 93.7433 9.46199
19.9867 89.1648 14.7523
-1.19214 106.511 15.4905
-15.2507 86.299 -11.33
13.2297 90.7016 16.7955
-23.7779 118.485 1.55795
-17.131 108.458 5.82855
-15.508 110.028 -10.1028
-7.09688 84.3867 -14.0555
7.40962 120.701 -7.17111
25.0392 96.8122 6.05178
-8.41241 109.534 15.2991
0.657159 121.484 -9.08619
-7.31538 81.675 -14.2217
-18.5644 89.2572 3.41233
-17.9604 95.882 5.67693
24.7652 93.542 6.07193
-17.4114 117.96 -6.62194
-21.056 88.9588 -2.80273
22.4701 108.872 8.64498
-17.3904 103.495 6.44989
-9.06995 110.489 -11.3708
14.898 109.991 9.41311
-20.825 95.7299 -2.78155
6.29132 91.9259 -13.4679
-12.0687 114.126 -10.5606
-17.7509 107.771 2.62862
16.4451 95.3167 -8.72222
-21.2935 79.522 -1.19281
-18.0644 83.7385 5.83929
-5.34137 107.246 -13.7491
0.126026 114.389 14.0907
24.642 85.87 3.93892
20.4862 82.1134 14.6245
12.2333 98.7237 13.2291
11.3945 110.816 8.6094
-5.1652 115.548 -10.0021
6.45391 78.3146 16.5657
-0.919753 100.212 16.8438
20.9884 107.412 12.2171
15.5451 112.537 9.74998
18.6168 103.862 12.8637
10.1873 82.9693 -11.8415
-13.3236 103.818 13.5592
-17.294 114.872 -0.139216
-6.40049 85.6694 15.5776
1.27229 118.495 -9.25596
-16.1636 77.8981 -9.09195
-8.71385 104.642 14.2654
10.0498 89.9507 17.344
-0.125144 114.361 14.2816
-5.07092 121.443 -8.21689
19.2972 93.9709 -4.79895
26.0617 77.7957 4.6467
-9.6568 90.028 12.7083
-3.36257 95.9343 -14.1125
-5.3922 94.5896 -13.6044
-6.51799 91.0774 16.1994
23.3563 104.097 3.52897
5.46312 82.5031 16.4567
23.6321 100.699 2.12145
-13.3759 91.6574 9.00371
-20.2955 103.094 -3.70993
5.7816 117.268 -9.69452
16.8137 95.4958 -8.41315
21.975 116.883 3.35638
23.9475 83.0314 1.37515
-0.476039 98.0186 -14.3066
24.0714 78.8336 10.5117
18.2803 98.8892 -7.34293
-1.38557 118.62 -10.7686
9.12246 97.0517 -13.0136
0.282608 77.1716 -13.1915
-10.2123 103.828 14.1678
-13.2378 97.6168 11.4025
23.7041 80.2579 1.88989
12.027 116.507 -9.32526
0.19407 77.8535 -13.4062
-15.3898 115.597 4.61154
2.46636 101.582 15.5855
-7.59179 93.4115 15.2932
1.62259 112.773 14.0147
-7.48859 83.0736 -13.9885
-11.1968 106.471 -12.1832
13.2959 104.949 10.5759
-18.5665 97.6288 3.30618
-5.06612 96.7191 -13.54
15.3278 82.1252 -8.81204
-12.1661 107.383 13.986
-19.6797 110.104 -2.7959
7.12574 86.578 16.8832
21.3957 113.85 0.962771
18.5285 115.851 -0.21248
-9.18226 86.7224 13.9519
-11.9319 104.859 14.0616
9.11529 109.883 8.79768
-18.4028 115.167 -2.45502
17.629 83.5706 15.9712
23.4367 97.1783 11.415
21.2293 91.5578 -2.57151
3.9564 90.8194 -14.0401
-17.1757 118.195 0.740461
-13.6334 118.955 -1.16866
-14.5965 98.892 10.9756
3.94561 101.141 -13.2784
-3.09828 105.604 15.9109
2.63503 77.8929 16.1768
-15.6122 109.64 4.67892
19.7107 102.403 12.6763
-20.1831 76.6691 -3.23892
-18.5769 90.2433 -6.10071
-12.5294 87.1017 10.8291
12.9842 98.6368 -11.0223
25.2279 81.4923 8.2613
-13.0301 96.5861 -11.5238
2.03335 79.2467 16.3068
7.88861 102.859 -13.5057
-19.5367 108.171 -3.23801
22.4463 108.754 8.99297
-20.2001 78.304 -0.307763
-16.6376 108.82 6.82874
-0.16904 99.1469 16.4988
22.5463 115.066 5.16618
-13.7758 82.3701 -12.4025
8.52353 119.512 -8.92909
-15.1559 75.3527 -11.5283
0.853984 77.1554 16.1889
8.64091 90.2306 17.3877
19.579 86.1233 15.6367
-6.52476 93.5107 -13.6278
-5.42861 119.11 -8.77624
20.3816 101.43 -2.60072
-22.1896 117.906 1.60437
-1.59679 78.5718 -13.8467
-16.1574 93.2849 -10.5382
18.6484 98.2804 -6.82115
-3.27125 81.1099 -14.3372
11.6015 90.6921 -11.529
-16.8779 117.59 4.00123
-3.35047 109.92 -13.1694
-3.00923 117.364 -10.658
-19.5571 86.0436 -5.59665
14.7648 90.9548 16.447
-17.1856 97.8591 8.2033
9.02767 104.636 -12.4019
2.49104 111.828 -11.521
-10.1278 83.0871 -13.5268
-5.24593 104.774 14.7462
-4.27656 110.992 16.0495
-12.0485 86.3537 11.6911
11.7028 90.3148 17.2023
19.5187 97.209 -5.57855
-18.4257 109.737 -5.80341
-10.6508 90.3089 11.4816
26.2354 79.0292 5.59686
17.8697 101.692 -6.78771
2.10805 113.856 13.2538
-9.63041 76.1897 -13.5962
-15.1615 108.809 -10.1345
21.2448 118.905 -3.84924
24.7419 94.0293 5.38146
-8.81619 94.1823 13.9782
-12.7756 75.9553 7.80441
23.4947 108.584 3.9351
25.6386 84.7237 7.26089
-18.2279 111.009 1.50928
-20.9318 90.7376 -3.87502
-2.71909 77.3961 15.1093
-6.8371 88.0597 -13.9984
17.8731 76.0109 -2.4905
-6.59406 109.38 15.2626
13.9146 111.763 8.62724
-9.99428 84.0808 -13.594
13.1089 100.224 -10.9306
22.1898 84.562 13.7434
-18.2034 78.133 -5.21057
-9.23421 98.2082 -12.4928
-13.5717 114.397 12.8085
13.864 89.6264 -10.2498
22.6277 78.3295 1.87642
-6.19711 99.2745 16.2241
20.1503 100.605 -3.50233
4.51665 95.6034 -14.0463
5.17163 92.5064 15.6756
25.3766 90.9373 7.38333
20.4673 113.154 -2.26568
-20.1133 84.2692 -5.59341
15.6525 116.019 -7.86903
-16.743 95.945 7.88561
-3.98861 76.3352 -14.0788
12.596 99.3229 -11.3954
8.97806 103.203 -12.8013
22.3434 95.5224 -0.933735
0.810195 88.6177 -14.1458
-14.4176 119.24 -8.96091
-14.7307 115.192 10.6844
16.7811 90.203 15.5959
23.588 95.7987 0.521997
15.8732 89.6447 16.0795
24.0854 98.2714 2.23444
-13.7123 88.444 9.17169
-5.66771 105.335 14.6655
-19.3984 106.969 -3.69382
24.7131 99.1714 6.04218
13.3324 118.452 -10.6107
16.8361 81.9879 16.4272
-15.4017 77.5733 6.97322
20.1566 86.3048 -2.09522
11.3592 107.882 9.55308
-16.197 111.007 4.18565
13.596 78.6181 -9.43091
9.37182 98.6729 12.4803
24.033 95.558 1.66952
17.3857 114.018 -7.28113
-15.7973 82.0435 -10.9235
-15.1449 108.119 -10.1529
-7.26518 75.2603 -14.2263
10.3225 99.797 -12.8696
19.6084 109.797 -3.36434
23.5923 102.146 3.71048
-13.6213 106.621 -11.3641
8.37351 99.3695 12.3608
24.8486 80.9836 2.99478
-11.9645 113.22 13.9622
-16.8091 104.979 8.12449
-17.2941 77.494 -7.85482
-19.7597 87.4488 0.777114
-16.4141 111.302 4.01235
1.12164 100.337 15.9004
-11.4906 111.215 -11.199
-12.2321 110.811 14.6447
5.66995 93.7113 -13.8721
-1.14688 114.127 15.1319
-17.5167 74.8472 -5.3386
-18.1135 108.023 -7.37779
-19.3098 76.445 -1.69706
-6.44455 93.3748 16.1464
-12.6045 104.443 -11.0257
7.87912 101.473 -13.54
-3.09966 107.887 -13.5117
-4.03772 113.531 -11.6895
-20.2583 89.519 -0.264493
-6.55869 101.755 15.1842
-4.02025 121.519 -8.20738
-4.12617 113.097 15.1699
24.9388 88.6018 6.75367
11.6901 80.54 17.0424
-15.5435 100.187 -11.053
-16.7967 85.8491 7.61062
22.5708 96.6992 11.9271
-16.8588 110.142 -9.01797
-4.46665 94.166 16.6522
-15.2979 98.0349 -11.2545
-12.8644 105.507 13.6894
-3.39194 83.9823 -14.2594
16.2579 77.4748 -6.03214
-4.67278 93.8145 -13.7291
1.75785 104.189 -13.5406
10.9804 93.5074 -11.8453
-21.0974 86.0388 -2.22248
-2.18531 87.8336 16.7331
24.621 101.516 8.00759
-18.2362 112.153 -5.12784
-8.11728 77.6005 14.2321
-18.6868 112.656 -3.60018
22.1769 87.0615 0.0880362
-3.80706 107.638 16.0649
24.3811 81.6801 2.9284
-14.0492 107.811 13.2161
-12.0953 90.6635 10.3789
-7.52518 92.0895 15.2915
-6.50025 95.208 16.0161
-15.2354 79.9996 8.31727
2.9845 101.15 -13.4383
16.0452 109.506 10.289
-17.8223 89.108 5.7654
-3.88357 99.4287 16.836
17.6328 88.2688 -6.49669
16.8736 106.286 -8.919
18.0979 80.0236 -2.11318
-12.2221 86.3964 11.5196
16.9476 78.2456 17.1467
-18.4059 106.692 0.54807
20.9714 115.302 2.31936
-9.34506 101.239 -12.2993
-7.89871 77.4642 14.2663
-8.53225 79.98 14.0973
15.3922 111.976 -10.0703
14.624 93.4114 16.26
-20.6388 81.2056 -3.72801
-16.8815 80.2288 6.82718
1.69201 100.581 -13.6987
-19.3113 111.166 -0.742992
13.0357 105.834 10.2973
4.52967 106.104 -13.3607
0.0705927 105.702 -13.9685
-3.85736 108.85 -13.4928
-15.328 115.686 2.82422
2.57549 112.363 -11.0513
24.4801 83.029 4.95935
24.7394 97.6675 9.59206
7.79937 89.5744 17.1892
-16.703 93.4805 6.5912
-19.2959 75.4174 -4.25499
-3.92962 107.458 16.0441
-4.72364 109.545 -12.9721
-20.6133 86.1266 -3.93288
16.0851 115.687 -7.08204
-4.82026 99.9987 16.4116
16.1482 87.1786 15.7529
14.4254 87.2682 -9.98575
-15.8427 95.4592 8.34577
24.2508 92.6503 11.5416
-15.4127 77.3072 -11.3613
-11.9552 111.901 14.3408
21.0518 89.1274 -2.48957
-16.7802 101.791 9.03307
17.7787 102.88 13.3158
-12.549 89.1509 10.0385
16.9343 95.7997 15.0615
4.06664 113.94 10.8687
18.4799 85.3443 -5.12644
-18.1291 86.4452 -7.36278
-5.74102 96.2516 -13.5085
19.905 100.823 -3.7603
15.6345 107.352 -9.86081
-14.2659 88.8487 -12.0926
-15.3396 115.969 -7.45346
-18.4345 115.807 -5.03552
21.8595 114.567 2.52539
25.4365 82.3138 5.36079
9.23194 115.968 -10.2472
6.27956 114.134 8.8368
-15.2594 78.385 -11.0003
-5.41731 74.6889 -14.4247
22.5683 109.529 8.00445
25.4272 89.9379 9.96857
19.6161 102.384 -3.33477
25.1519 86.6047 6.55665
-19.4743 110.952 -3.4663
-17.3507 98.5713 -8.73082
13.9268 116.692 -9.62172
19.307 108.946 -3.36995
-6.30515 81.9305 15.3596
12.0545 111.282 -10.8889
6.34208 76.9368 -12.2852
24.1332 102.013 8.90714
-4.2139 80.3051 15.5422
15.6655 107.136 10.3199
12.7873 83.5446 16.7808
-1.11041 85.1213 16.7731
-14.5521 113.359 7.91396
7.79139 83.1265 -12.3622
-11.4917 113.444 -10.8125
10.331 114.245 -10.7219
-11.2908 84.6341 12.9315
-18.2859 101.154 -7.70027
-9.04479 112.498 15.7467
-1.98453 77.8635 -13.663
-13.5513 85.0723 -11.725
9.19173 75.5338 -11.9034
24.4237 92.4599 11.309
12.642 76.7885 -9.75209
-6.73542 114.146 15.1156
15.8753 94.3966 15.7482
-12.363 78.2655 12.6019
17.9414 106.234 -6.85676
4.61908 109.401 -11.6781
-7.37114 82.3787 -14.1222
17.6903 80.1902 16.8451
-17.737 107.884 3.68212
16.6381 78.9162 -6.12009
14.5716 84.5932 -9.97099
-15.2531 114.864 6.48187
24.3592 99.5073 4.19651
20.0146 113.462 -2.40416
-18.6181 84.8866 -7.31324
20.0229 84.1398 15.7918
21.7701 92.0771 -1.90512
23.3727 103.067 10.4576
-19.3336 77.7003 -0.904481
-17.9137 107.065 7.95644
-14.2156 105.995 13.0864
-6.57265 84.7494 -14.2209
9.24169 110.862 8.52369
8.26688 75.3876 -12.3453
-18.9082 101.323 -6.98485
13.1329 96.2958 15.118
-15.2756 83.229 9.1409
6.61189 108.737 10.0891
-11.872 105.396 14.0567
8.56062 108.801 9.26433
24.8136 92.1879 10.7545
17.8849 104.068 12.9168
9.24013 96.4772 13.5078
-18.3875 97.9082 4.33283
14.1396 86.9393 -10.1462
8.33825 87.9961 -12.6706
3.97371 99.1778 15.1451
-15.0865 119.499 -0.178404
3.53341 83.8293 -13.2626
8.91511 77.9059 17.0042
23.1653 78.069 11.868
-16.9206 83.8159 -9.22399
22.1511 77.9886 13.0402
-2.72548 87.0422 -13.9646
12.8473 121.317 -10.7632
-19.2298 81.3998 3.14027
-19.2146 86.1697 2.13706
-19.013 95.9478 3.50032
23.8071 102.884 9.51755
-6.09808 78.0122 -14.273
21.3906 96.332 -2.48688
-15.998 109.833 11.7295
16.7058 96.7144 14.7075
22.0313 108.414 1.60958
23.1063 111.374 2.87218
20.6313 84.0423 -0.507646
-18.1016 83.4341 5.77324
20.532 110.414 -1.93293
-2.04246 87.6529 -13.8667
25.828 84.6031 9.04171
-0.851989 91.0194 -14.0065
-8.9975 116.204 -9.41653
0.570725 81.1415 16.7713
21.9343 83.0539 0.0209029
21.3981 116.55 2.95805
-11.5913 87.2074 11.5482
-12.2821 112.013 -10.8498
8.86258 111.5 -11.0751
23.1116 112.128 3.711
12.7712 100.315 12.474
22.037 110.584 8.4895
21.5084 108.137 0.668535
-11.9951 96.8629 12.3
-9.59134 79.3707 13.8457
19.6343 100.469 -4.62443
22.9171 111.224 2.62965
-8.26188 98.4807 15.0593
-14.4054 88.0107 8.77033
18.0055 92.2313 15.0918
-17.5563 108.445 1.39692
-16.2382 85.6874 8.21246
3.55523 90.9038 16.9689
16.3297 75.4404 -5.1768
18.6796 104.961 -4.17628
22.7544 113.885 5.74408
-15.2623 80.219 8.82739
-13.4817 80.1962 11.9317
20.6295 111.94 11.5431
6.06993 75.2546 17.9648
2.09701 104.503 -13.4248
0.305911 112.997 -12.039
19.7648 97.4426 13.227
10.0166 97.6509 13.1267
-16.6158 76.3799 1.27849
12.1448 88.904 17.24
2.75291 78.8176 16.3198
23.0629 106.841 8.91359
-7.84996 102.027 -12.9995
17.892 104.1 -6.17588
-3.17027 119.807 -9.21485
-3.20575 77.1141 15.527
-11.1535 102.769 -11.6375
-0.84646 97.8062 16.8426
-21.0112 84.3395 -1.67405
-2.58788 81.7625 16.3877
22.312 92.2511 13.4168
20.9151 108.49 -0.352867
-19.8903 119.446 0.73917
9.49687 106.584 -11.4264
-13.8802 95.1599 9.34147
-13.9205 117.804 -9.77077
-23.0071 118.738 1.09342
-13.9848 87.9172 9.1242
-15.6407 88.8962 -10.0522
-14.2486 103.504 12.6693
-20.6498 90.3911 -2.64702
-4.25615 87.0651 16.3272
22.6892 90.6421 -0.513018
15.7148 81.3337 -8.16516
17.3735 89.8298 -8.1655
23.144 78.4277 2.38437
22.7606 111.185 6.63689
-11.0415 76.5563 -13.158
-1.27414 101.387 -14.3895
-19.1966 108.133 -0.854336
18.39 86.6479 15.6916
-6.48364 82.8375 -14.2467
-18.779 101.195 -7.15251
-20.6505 89.5431 -1.95116
22.0729 108.491 1.65929
-17.6415 75.1926 -5.05599
16.1264 111.666 10.2372
9.35243 75.5998 -11.8229
-6.19182 80.3002 -14.3948
