ply
format ascii 1.0
comment Created by Open3D
element vertex 1915
property double x
property double y
property double z
end_header
4.29873 107.789 13.0427
-23.8643 126.314 6.01534
-12.7363 130.116 13.1913
-29.1267 127.127 -1.82837
-10.8269 97.7887 18.3309
-3.22024 130.874 12.1584
-0.498636 130.606 -2.37949
-19.8346 122.757 -0.407523
-16.1689 88.6618 4.16126
-15.1921 80.269 17.6697
-24.6776 131.147 5.71394
2.4186 106.934 12.4708
-24.1151 99.1707 14.5957
-21.9765 115.223 13.1786
-11.3309 132.961 -2.80707
1.35763 76.0789 0.438313
4.75151 79.9675 21.8184
-19.0426 127.583 0.655473
-20.9577 127.84 10.0152
1.47719 107.482 -6.29924
-9.78443 128.794 -2.84413
-23.0353 95.1945 16.3406
-2.58904 111.837 -4.09523
-20.0734 109.992 19.1434
-10.1417 102.323 -0.184436
-8.86527 110.982 -1.10322
-11.2752 88.9551 19.2461
5.40054 126.369 -3.2601
-16.9532 129.405 12.6349
-13.4458 104.084 -0.268647
-23.5683 128.281 -4.76704
-15.4291 86.8224 4.32282
-23.7001 110.282 4.38759
-13.5679 84.1995 19.5097
2.9761 128.923 -3.36237
-20.6392 96.9974 1.88629
1.68692 152.314 -2.70593
-3.36146 123.984 13.6036
-21.8039 117.626 9.89959
-2.07896 137.808 8.88625
-23.8986 102.442 3.82615
1.68872 81.192 20.8961
-19.7509 121.412 -0.985239
-2.19049 120.068 -3.08239
-7.56792 131.512 -2.38705
-22.9812 134.456 -1.63598
-20.3088 113.129 18.3633
-1.94962 88.7845 17.9569
-12.8462 83.7337 4.94825
-11.7606 134.59 -3.23791
-0.211072 79.2714 20.0402
-10.9601 89.5378 17.7841
-19.3357 100.084 18.9727
-0.172982 141.259 7.2044
-4.41973 103.992 13.4191
-14.9979 137.17 -1.51563
-0.464014 81.0264 -0.170343
1.17533 142.2 6.02073
-12.9754 138.741 6.44452
-8.15268 95.9229 16.1804
-26.1185 125.947 4.44569
-4.55512 141.795 -2.37506
-18.2815 132.33 8.54157
-20.7997 83.8091 6.9699
-22.3265 109.817 6.41395
4.2217 140.778 -4.72943
-19.0687 126.95 -0.90097
-23.0421 110.14 1.32884
-3.45766 100.749 14.0755
0.299122 96.6502 -2.0004
-14.9491 83.4673 19.667
-23.8826 103.395 9.45543
0.141547 121.505 -4.8298
-12.2414 91.3593 20.2835
-7.13563 92.8244 1.47031
-23.5641 112.268 2.53703
-11.7521 77.1705 5.73546
-18.7587 130.883 -3.0061
-2.66988 130.862 11.8184
-12.862 81.2227 15.5147
6.10177 89.6092 21.3858
-11.3852 115.983 17.309
-20.6494 119.031 13.391
-17.7657 88.8419 4.65341
-24.3033 103.065 6.95281
-21.2144 78.9698 9.54176
2.64791 97.8035 -3.76976
-26.4279 120.689 3.74367
-30.0763 124.511 2.70183
-20.2593 125.249 7.59961
-10.0473 93.7574 2.07105
-26.1865 134.008 0.361823
-9.96523 118.684 16.7333
0.181175 151.658 -2.49195
-19.4956 126.606 0.392484
-20.622 105.315 1.56063
-14.4695 107.824 -0.546629
-27.3777 83.7171 14.2144
-2.57133 99.65 -2.21713
7.46457 79.6511 -3.35012
-22.851 107.192 12.5835
-2.14771 130.608 11.4302
-23.0655 125.583 8.93752
-3.06964 136.564 -0.709876
-7.9943 137.117 7.48473
-4.6602 83.5167 14.4522
-0.618628 146.025 -1.55611
-13.8161 130.417 12.5429
-8.66563 136.58 10.9215
-27.7634 79.5455 18.7885
-24.8652 124.919 -4.59365
-12.4005 139.267 -2.70073
-13.7624 133.995 10.9354
6.02893 106.428 14.9722
-22.756 118.794 8.95379
-22.9077 103.344 11.0261
-20.6725 124.692 8.59772
-15.4929 148.246 0.549686
-20.5185 100.023 17.177
-22.3604 109.621 14.8545
-19.6488 103.542 0.537771
5.65218 104.035 17.5351
-18.4531 146.779 2.81875
-21.8437 121.941 1.69343
-8.96265 86.0844 2.26227
-21.7945 112.497 9.8657
-15.5212 132.332 10.9362
-4.35829 76.0229 3.54972
-10.9026 122.511 15.4097
0.920099 97.6017 18.3187
-25.8891 123.306 -3.11108
-26.4978 124.377 6.952
-20.146 77.025 9.87234
-3.26603 148.948 -1.66607
-20.1278 129.247 -4.65952
-16.5804 141.419 6.778
-21.9887 127.462 -3.49578
-20.8691 91.8016 18.8009
-4.08741 145.279 -1.95138
-18.2125 145.949 0.28105
4.57344 97.7113 21.021
-17.4432 84.4537 5.71468
3.30559 135.827 -4.50545
-20.0669 109.025 -0.336043
-20.5603 121.508 1.21153
-5.71041 142.162 -3.34176
-3.54796 113.421 14.5083
-7.89759 108.936 17.0985
-7.31402 128.062 13.1078
6.66743 124.616 -4.00444
-9.91865 108.472 -1.32762
-16.3098 104.845 -0.410454
-6.52518 141.621 -3.60388
-10.9688 141.666 5.54029
-2.59717 90.1489 17.961
-11.2393 98.408 0.395922
-10.1059 147.407 3.50211
-15.3328 123.376 15.6337
-12.2378 143.289 4.52479
2.53321 129.264 -3.58567
6.53396 120.159 9.1828
-20.8731 124.161 2.80891
-10.7926 121.911 15.7078
-10.1767 84.8356 17.7883
-18.353 130.877 9.13151
-1.11406 84.4765 0.00690996
5.99268 138.298 -5.28945
1.05288 98.1572 -2.62935
-2.56746 115.275 13.4737
-24.4989 128.386 -4.23891
-27.1485 87.7306 16.3043
-17.5564 128.654 13.932
7.9388 85.8077 -4.65929
-11.0915 91.4121 19.147
1.68412 97.8941 20.0115
1.10799 97.4115 -2.5647
-2.81341 84.4962 0.875104
-11.4617 101.609 20.314
-20.3757 122.814 0.571206
-20.7483 118.525 13.5876
-23.3347 130.967 -2.72117
3.39196 105.891 13.5216
3.57291 81.4286 21.4347
-15.1541 131.697 10.7999
1.09258 145.633 -2.59863
0.0902757 100.846 14.0321
7.72166 93.2844 -5.72451
4.46469 138.667 4.97789
0.199808 111.503 10.517
-13.5799 141.715 5.17721
-22.9135 85.5217 7.21883
-19.2378 128.563 -2.98503
-2.20573 113.359 -4.53464
-4.8568 104.075 13.7903
3.52703 74.5778 -0.644045
-7.75782 139.521 6.91479
-16.8143 133.208 -1.17111
-11.8759 105.368 -1.44445
-13.9878 105.184 -0.869624
-18.6562 109.842 19.6211
-7.68975 107.749 -1.08778
-17.3434 126.771 10.2634
-1.86699 90.3423 18.8287
0.576222 125.912 -4.35637
-1.17659 115.713 -4.95422
-23.739 132.751 -1.84492
-21.0882 121.529 13.3042
4.36154 117.688 -5.44361
2.31354 102.432 14.7188
-19.3893 128.025 -0.473002
-21.6244 123.67 -0.569872
3.38665 132.728 -4.11211
-21.004 125.475 7.88354
-8.03553 104.835 18.1857
-6.08306 113.861 -0.378491
-4.42976 94.1897 15.9151
-9.19862 133.8 -4.55167
-16.8088 88.6889 21.9486
-1.77887 120.331 -3.54611
-7.09135 105.012 17.1291
2.00699 100.662 -3.84948
-21.9164 114.921 15.9331
-9.48117 146.238 -4.2058
1.14557 91.4243 19.8776
-16.987 137.746 -1.11425
-5.39336 89.3575 16.4069
-2.70896 107.513 -4.40854
-11.2511 81.2227 5.09927
-14.2581 145.088 0.858964
-2.261 89.3491 17.8248
-19.7598 141.373 -0.461237
-23.3722 102.73 11.9277
-21.8661 112.232 17.3341
-23.6508 132.56 -1.99207
-14.9221 142.088 0.844902
-2.56599 148.592 -1.57624
-26.5632 91.3767 15.1583
-14.7385 132.337 -0.941892
-2.1767 120.397 13.2563
-6.391 120.447 15.7237
-20.3879 128.816 9.56148
-2.18433 80.2363 18.127
-21.9628 139.379 5.98785
2.55865 114.123 -5.20973
4.43128 94.956 -4.82008
-5.04031 115.673 15.707
-26.145 122.825 -4.49466
3.87347 89.4795 -3.85272
-23.3133 86.3886 6.95569
-19.9254 96.6072 1.75163
-27.4833 132.442 0.127256
-9.70064 84.5481 16.9029
-1.15684 103.332 -4.739
6.05605 109.199 -5.92823
-9.32286 149.806 2.85304
-18.0313 138.131 7.58775
-8.624 89.9836 18.5747
-19.2062 144.443 5.33071
-8.44686 75.0358 5.31475
-19.8105 96.7593 16.9662
-11.6622 75.9297 5.6817
-2.9593 80.7375 0.972519
-24.4189 138.353 0.493339
-2.83804 141.374 7.8415
-25.5113 78.4098 13.6349
-2.87551 135.58 9.86263
-7.76969 103.72 16.9099
-16.3373 90.3918 3.10402
3.60307 98.1652 20.8147
-26.7205 124.042 5.13737
5.28596 133.617 5.55631
6.44415 113.459 -5.55016
-14.2008 139.565 -0.979284
-17.9267 92.8174 20.4416
-22.29 125.379 2.74468
-4.17782 139.927 5.1468
-7.28068 93.4177 1.38452
-15.9886 128.704 11.0725
5.54416 135.628 -4.41084
-22.7732 112.323 13.757
-22.4324 106.717 1.5009
-9.22156 129.7 14.0285
-17.8273 106.221 20.6989
-7.07123 123.548 14.1883
2.35397 98.8183 20.031
2.65302 113.075 -5.22513
-12.4093 149.438 -0.493584
-25.361 126.429 4.78644
-0.803799 96.2167 16.9594
-4.93052 81.6444 2.09722
-10.8648 137.337 7.42313
-22.9488 123.643 6.66781
-20.0492 107.773 0.469849
-22.5764 137.704 -0.0592447
-1.35499 119.576 11.9513
-5.4919 93.2023 17.1157
5.79767 117.443 9.79693
-15.5264 81.9597 5.67734
-23.7028 125.534 8.31681
-23.9741 91.3981 17.7248
-17.8697 137.232 7.86672
-26.8217 90.4404 16.1195
-9.07584 137.026 -3.56602
-14.9367 104.539 20.0695
-22.1402 96.3239 16.3094
-20.2527 98.4865 16.7558
-23.971 103.922 4.28615
-20.7636 102.466 18.6524
-14.8968 80.1252 17.3488
-8.72552 92.7879 16.7196
-18.3907 143.64 -0.342759
0.680356 141.762 4.3674
-19.1028 105.885 -0.206308
-6.97653 112.531 16.9881
-1.1774 87.5962 0.00986587
-23.2206 138.134 5.67133
-8.14784 85.1548 15.2739
-29.0156 122.237 1.49389
-23.599 123.951 4.0315
-17.0443 119.189 -2.22602
-23.0357 98.6247 7.79125
6.61867 118.682 -5.0617
-21.8645 141.264 4.81475
-8.57833 111.237 -0.964908
4.90028 80.4612 -2.7075
-15.9262 92.4222 22.7454
-21.052 80.3527 22.4012
-4.89014 113.005 15.6496
-12.7865 132.623 12.4895
-8.68696 118.973 16.4537
-15.7081 76.7388 7.35469
-24.793 87.1048 20.7268
-2.89827 137.956 9.36658
-9.06703 152.991 -0.49097
6.21513 109.188 13.7081
-15.6854 121.471 16.3953
2.05814 82.1919 20.8319
-23.6221 84.1098 23.0584
-5.12067 148.179 -2.94283
-12.3215 146.039 4.15653
-15.6375 148.742 3.49688
-5.80563 107.202 -2.25239
-6.07291 89.387 15.6258
-24.3823 128.148 -4.74335
-15.143 131.588 11.6918
-23.0466 107.243 12.3098
-20.4682 97.0751 16.2602
-22.1986 111.966 11.1613
-12.8127 133.519 12.3853
-20.4137 92.3962 18.4339
-24.7595 94.5615 15.2165
-5.94633 91.3042 1.50522
-16.3172 90.8875 22.0488
0.690407 102.917 -4.52425
-9.35648 105.082 18.599
-21.3919 133.569 -3.29845
-22.2896 103.807 17.2701
-8.84089 98.902 16.8023
-8.21097 97.1612 1.11859
-15.2803 87.9175 20.8732
-6.67107 153.799 -0.543982
-7.47869 129.751 -1.65733
0.558769 131.762 -2.75806
-14.2158 139.748 -1.30172
-21.259 83.0598 21.4794
-14.5143 125.781 14.9173
-19.859 122.793 -0.385286
-5.43448 139.119 6.01978
-9.38574 95.2313 1.73984
-14.077 80.4509 5.70419
-24.3833 123.04 -5.45301
-24.7443 81.665 22.1593
-28.3904 81.3841 18.2199
3.32566 99.3819 -4.70017
-6.75755 114.49 16.8554
3.85742 122.252 -4.17204
-23.2891 118.899 4.15187
-11.5079 137.02 -3.41254
-1.51907 129.6 11.0648
-25.5366 121.358 -0.60786
-3.99947 118.177 14.8747
-17.9207 100.978 20.601
-15.3631 109.982 -1.68645
5.87157 119.334 -4.36866
1.7224 126.957 8.8393
-1.72247 109.968 -4.27193
6.67313 104.081 -6.56177
-11.6358 131.203 13.9727
-9.60035 84.818 17.1359
-4.74271 112.491 -1.36507
-14.7082 97.7083 22.6486
-3.59301 140.554 7.21225
-12.314 132.294 -2.41639
-20.781 124.153 -0.949337
-11.3267 138.496 5.74538
-18.1932 142.951 6.78512
-25.4731 135.644 3.53536
-13.0488 100.983 20.99
-1.79522 91.2344 -0.660736
-24.1256 98.3677 4.59925
-18.1204 103.39 -0.278131
4.84378 117.428 -5.37705
-27.2766 124.912 6.72249
-21.6536 124.68 -3.16951
-8.2931 143.161 -3.86794
-6.33581 106.791 16.8117
3.9569 92.414 -4.09224
-17.1868 97.3169 20.8468
-6.8928 120.696 0.124728
-9.25385 147.245 3.44844
-8.02202 76.8239 4.8591
-19.2019 125.551 0.243722
-11.4409 97.479 0.822902
-19.0315 105.894 -0.2118
-24.2361 95.7808 10.7461
1.59424 144.969 5.02594
7.47352 87.6515 -4.63474
-14.9302 87.9343 3.90572
5.95744 137.724 -5.16374
-17.4054 130.593 -0.540928
-12.4955 81.5692 5.14215
-13.3917 115.411 -1.31962
-0.351659 123.965 -3.68186
-10.6226 85.5484 18.3053
-1.78616 150.079 -1.50327
-22.5706 124.317 0.723183
-8.51476 97.6197 16.6264
-20.5864 144.229 4.13794
-8.41352 129.195 13.5598
-26.7453 122.621 -3.80101
-6.89661 127.396 0.112823
-24.0997 89.9866 19.3253
-5.26667 109.943 16.1601
-23.5886 98.4902 6.55611
-2.88273 132.942 11.2161
-9.73677 102.354 19.1317
-13.4347 112.991 -1.8323
-5.80039 123.149 14.4171
-18.6197 94.6816 1.88324
-23.5007 123.757 3.9459
-13.6762 95.9769 21.8641
-28.1019 129.106 -0.382122
-17.5837 104.713 20.8727
-17.9762 124.199 -1.63291
-3.11074 103.517 -4.29663
-3.66591 125.887 13.4498
-7.5013 121.476 15.5871
-22.7822 122.77 4.22563
-27.6484 80.042 21.2535
-23.59 94.8536 5.53966
-23.3702 118.676 7.32916
-2.71586 96.4747 15.2684
2.5235 145.602 -3.55585
-7.54991 83.2535 3.24892
-27.6642 127.922 -3.04305
-26.8797 88.6292 13.6069
-2.1716 141.081 5.03981
-21.2749 117.098 16.8299
-5.12433 89.5749 16.4897
-3.41324 95.81 -0.0135386
-25.1282 94.0803 8.66589
0.0296967 126.437 -3.48013
-13.5047 105.896 -1.12186
5.53191 122.547 7.96728
-10.5248 80.1181 5.1282
-13.6655 140.357 -2.15933
-19.4088 127.086 10.8582
-21.8086 84.5667 7.07092
-22.8031 122.999 4.5508
-15.7295 149.068 2.96075
-19.1178 124.129 15.9766
6.86935 90.7518 -5.06025
-15.7417 129.722 12.5697
-23.9063 125.4 4.8762
-24.0824 99.9991 7.15715
-20.9105 125.046 -1.92414
-20.3978 121.716 -0.632687
-24.2629 90.8623 7.03154
-6.15524 78.5948 2.83791
4.57852 113.529 10.7528
1.00586 112.932 -5.75107
-12.9783 141.383 -2.37962
-16.9711 113.923 -2.486
-5.77386 85.7748 13.4707
-25.9088 128.385 6.41022
-10.5302 114.23 17.6527
-13.5649 99.6879 21.1791
-17.5979 112.964 -2.41206
5.65872 114.072 11.1363
-15.1054 99.4267 0.732876
-2.16945 141.168 4.98434
-11.4198 79.9724 5.44705
2.21181 115.949 -4.91025
-21.9639 78.5352 10.0646
-10.2307 127.49 14.8607
-26.8085 130.622 -0.392434
-15.1366 117.333 -1.59648
-20.8921 128.273 9.86111
-23.416 81.9257 22.5764
-28.2126 126.883 -3.63809
1.7465 122.212 -5.22677
-23.5907 114.416 6.44833
-10.5267 144.102 4.29644
-30.1167 123.6 3.78931
-10.109 132.255 12.834
-21.0871 117.298 11.2391
-27.1416 127.91 5.56033
-20.7436 106.705 18.9943
-7.73527 117.641 16.4204
2.07379 119.137 -5.21544
-16.1735 126.021 15.5454
-23.426 124.977 2.35355
-17.6679 91.6474 21.7248
-18.0103 118.661 17.7112
-3.78994 94.4854 0.184952
-0.533677 143.934 -1.35004
-6.84285 117.798 0.0617631
-16.7404 134.586 0.571968
-6.82166 87.4078 2.13174
-0.146012 95.5898 19.7684
-25.6781 122.358 -2.97457
-24.8742 94.4598 8.60174
-4.06989 107.718 14.8058
-5.42718 93.183 16.7749
1.18047 141.42 6.6395
-12.4823 86.675 20.4474
-4.35348 91.1174 16.8256
-11.4246 75.9791 5.46238
-11.4575 90.3934 19.0112
-0.932249 97.5276 15.6028
-10.3704 88.2893 16.9177
-17.4426 128.709 -0.855239
-0.608476 112.982 10.7686
-17.498 97.0367 20.1657
-16.3171 129.555 -1.39156
1.61312 141.355 6.55995
0.532897 91.2937 19.8669
1.0785 125.66 9.55328
-11.1553 119.503 -0.526028
-10.4049 126.665 15.0742
1.89872 83.4005 -1.21961
6.69247 118.973 -4.87744
-3.23508 140.411 8.36993
-25.5073 125.233 7.07761
-18.1195 108.746 -1.43814
-7.639 93.8762 1.46557
-11.4923 129.654 14.4699
-1.70424 132.662 10.5979
-15.0256 76.1767 8.12207
-18.4313 137.371 -1.00665
1.46441 120.083 8.75998
-20.4904 123.154 1.74322
-21.1774 130.619 -3.25047
-25.9019 132.15 3.48166
-17.5427 129.412 9.08333
-6.68418 84.1585 13.0081
-5.74184 138.355 8.68531
-12.1778 110.414 18.6177
-0.0400005 94.7092 20.6383
-15.377 97.565 1.47894
-18.907 89.0537 22.3695
-2.90222 140.421 -0.916037
-0.811418 142.502 -1.02604
-1.87438 100.885 13.8573
-8.39138 152.336 1.62451
-15.7483 114.094 18.591
-10.1323 125.478 14.8586
-14.4363 143.813 5.23507
-23.8232 96.9942 12.9903
-19.5002 107.464 19.7375
-20.232 125.904 9.21488
-19.1177 141.819 -0.270655
-7.65771 93.5963 1.48973
5.89756 138.77 4.35904
-16.0681 142.474 6.05236
-24.8456 92.1913 10.0494
6.54537 121.904 8.61097
-0.733042 80.3574 18.9531
2.71497 110.816 10.9796
2.54036 125.777 -4.17306
1.82194 110.198 10.8607
-22.1931 124.871 -2.19097
-5.96928 132.482 12.3209
-23.9798 114.544 4.71744
5.65295 143.501 3.59426
-19.0571 128.283 0.0192758
-9.06239 79.9471 4.5472
5.50139 98.3155 -5.88255
1.8926 124.019 8.46909
-16.3831 144.006 6.15795
-6.77535 106.482 -1.96768
6.59732 105.509 17.5868
-4.96447 139.731 8.29812
-15.8583 128.85 -1.93872
-0.607781 121.015 -4.46348
-22.0942 97.0609 16.0119
-8.48516 143.906 4.86458
-7.59725 141.391 -4.05203
-20.0768 125.095 13.6611
-20.6482 118.331 -1.33752
-8.69083 88.4773 15.7673
-24.6768 100.158 12.901
-7.46969 83.4895 3.09043
-22.1665 118.255 2.43966
-26.9277 125.294 -3.72728
1.42456 119.722 8.82953
-0.256042 118.442 -5.12678
-8.01001 90.9577 1.84915
-4.01538 103.655 -4.14238
-14.1453 118.964 17.0777
-20.8869 135.027 -2.91122
-22.9339 106.546 16.67
-9.59728 120 -0.120972
-3.35239 132.564 11.5583
7.20128 120.327 -3.99101
-15.1186 78.4565 6.57151
-16.0302 105.633 -0.277334
-6.58344 116.429 16.3518
1.65035 138.673 7.56506
-1.49444 142.566 6.69368
-18.5359 140.41 0.152102
-15.1569 97.027 1.36697
-24.9085 122.21 5.09766
5.46636 82.4669 21.4126
-23.4105 126.217 3.6867
-7.98452 132.445 -3.12627
-20.0383 90.791 21.3891
-10.5369 114.03 17.7359
-23.5734 99.5167 3.40444
-26.2728 90.3394 13.3124
-20.55 76.2353 11.671
-9.07988 152.216 -1.06766
-1.8486 102.545 13.6747
6.10971 113.715 -5.34872
-16.9747 139.33 -0.0690475
-23.5072 128.02 8.96319
-10.9519 151.861 -0.00168989
-21.1339 124.737 10.6875
-15.112 136.351 -0.74331
-9.70526 95.0578 17.4005
-12.9037 126.31 -2.33854
-14.3225 89.3642 2.98162
-13.2174 90.1567 21.1824
-24.154 91.9081 17.0165
4.17814 141.303 -4.63583
2.347 137.853 -3.68956
2.62566 137.485 -4.064
-19.0111 119.184 17.5926
-27.6766 79.5884 20.44
-18.6086 129.251 -0.322849
8.34259 75.4151 -2.81357
-13.6397 75.892 7.34535
1.77387 120.834 -5.29574
-23.8834 116.121 4.7767
-6.39624 80.6411 12.3503
-15.7932 121.87 -2.51641
-22.3046 118.403 1.41624
-17.1305 102.177 -0.184491
0.868259 120.925 9.09166
-26.3258 122.929 -2.64803
-24.7192 98.6811 10.6539
-14.3928 118.186 -1.71423
-4.0327 96.3524 0.173942
-4.40738 98.7654 -0.881137
-20.5336 133.274 7.66172
-9.47309 114.017 -0.742703
-16.9295 141.179 7.0781
3.34496 109.387 11.8585
-9.53771 91.6109 18.8706
-11.0416 102.079 20.0199
-8.90317 151.134 2.33785
-26.4803 91.5673 15.0063
-12.2968 112.612 -1.29268
-4.36241 139.27 -1.4348
3.73492 115.293 9.67184
-23.5193 124.447 7.88497
-20.4412 121.47 0.997069
-9.27615 133.75 -4.48614
0.067622 139.314 7.72192
-0.155636 124.315 -3.94289
-15.2979 105.086 19.9527
-0.971531 99.0201 -2.25732
5.56457 90.7465 -4.83826
-27.1318 82.2072 14.1287
-7.21198 144.772 4.08438
-13.9423 101.986 0.0183909
-1.52828 79.577 0.408647
-24.0687 98.193 8.91998
4.80925 86.0515 -3.76815
-26.2665 124.737 -2.55626
-9.71017 119.292 -0.165539
6.91712 110.92 -6.25337
-12.8581 110.16 -1.89191
-8.91536 89.5208 18.052
-21.9526 85.7825 6.64119
-1.92072 137.05 -0.335913
-20.272 106.98 19.4509
-16.0221 127.735 15.1524
-10.8633 109.733 18.4523
-19.2828 83.8245 21.2077
-21.4859 80.6061 22.6434
-21.7349 127.029 9.7246
-3.95667 137.963 9.9714
-0.944057 94.2102 20.4302
-21.6353 124.994 -3.91754
-2.63146 114.08 -4.073
2.68121 84.5685 -1.94345
-14.1933 117.584 17.6738
-7.92476 81.6564 3.75836
-23.3673 120.987 4.70032
7.19386 81.5091 -3.65932
-11.4199 127.771 15.1722
0.33276 76.8235 0.691525
-24.3962 89.43 6.56577
-25.9634 86.8006 10.8207
-14.9127 100.751 21.1897
-2.81579 103.091 -4.33205
1.00399 114.907 9.74499
-2.02441 133.655 10.5845
-23.7584 119.076 6.31243
-22.8875 99.1416 2.65078
-15.9526 128.107 11.3088
-15.0842 82.9991 19.3459
4.89742 75.6971 -1.60559
-9.02788 144.886 3.99449
-18.3496 98.8165 1.79599
-5.58539 129.545 0.163739
-23.7596 97.1041 13.3446
-15.4395 115.954 18.296
-5.09853 82.4463 2.27622
4.40139 130.718 -3.66958
-15.1848 75.7996 9.04583
-20.3251 92.0466 3.88014
-22.1543 131.278 -2.89222
-2.61831 103.102 -4.32329
0.860753 93.5423 20.54
-5.73937 98.75 -0.469627
-13.3945 150.549 0.468335
3.95297 153.778 -2.27165
-24.0614 125.026 4.9764
-26.9107 90.1183 16.0825
-11.8699 87.127 19.9059
-14.2218 93.3443 22.8781
-21.6964 112.17 17.5029
-15.1005 134.007 8.0263
-14.2742 149.017 3.49637
-24.8095 90.2417 7.58607
7.16925 77.3914 -2.83443
-0.62058 140.852 5.88971
-13.4304 107.945 18.8216
1.31184 99.4576 16.384
-23.1159 119.959 6.69002
-26.4728 78.0249 14.4667
-24.268 126.963 -4.56227
2.63482 111.338 -5.31594
-24.7122 126.458 8.06797
-20.0116 112.501 -1.69375
-22.3392 117.853 2.06416
-23.9052 139.274 3.73146
0.33584 99.482 15.2867
0.170144 121.667 10.3034
-23.6683 138.872 0.351111
3.51698 115.02 -5.06974
-13.2816 132.836 11.7291
-13.5941 140.774 -2.12977
-16.4912 123.847 15.8754
-19.6859 104.403 0.259804
2.10533 85.2271 -1.68785
-17.9522 128.865 -2.45747
-17.9356 122.484 16.5508
-3.43853 93.998 19.2077
-5.53897 115.809 16.1451
-27.8072 78.4937 16.4036
-22.5218 109.906 14.6618
-14.7136 88.4782 3.69749
-8.09987 136.893 10.7736
-22.2298 114.281 15.7036
-12.7765 129.21 13.8784
-8.65917 81.545 12.543
-21.4475 114.174 10.1689
1.32485 103.366 13.393
0.794796 130.614 -3.54269
2.14168 98.7145 19.7923
-3.82086 76.4897 2.93047
-18.8554 121.438 -1.84471
-17.1708 125.172 -1.58169
-6.33118 100.852 -0.960045
-13.3573 77.3705 5.92093
-27.9163 124.318 6.43763
-19.421 82.7969 20.7379
-17.8952 132.554 -2.26221
5.89896 139.304 4.39132
-0.916237 123.53 -2.74398
-13.7497 83.5241 19.0644
-0.0527721 95.8687 19.6856
6.83029 134.994 -4.67676
-25.5889 93.0357 15.5424
0.185902 110.219 10.8458
-20.2712 87.7955 5.86662
-25.3141 93.9192 12.6073
-12.4561 128.627 14.4948
2.24889 103.289 14.1065
-0.349117 131.669 9.69162
-15.7936 109.122 -0.942541
1.20523 120.53 8.8917
-23.0962 123.58 0.446011
6.6842 99.1126 -6.4427
-6.71931 141.067 -3.58656
-22.8716 101.234 1.84588
-22.1328 109.883 15.4963
-17.7559 96.3823 18.9998
-24.1809 105.535 7.60201
-25.5321 91.4744 12.4882
-18.1667 88.3659 22.2446
-16.5126 132.854 8.57137
-12.4621 142.195 -2.75229
-20.4897 123.592 0.463681
-21.8806 119.015 2.18745
-9.02548 135.497 -4.07811
4.21717 96.8426 -4.70202
-23.1446 130.592 7.99135
-17.4241 114.991 18.6896
0.0301403 126.125 10.71
-25.7525 126.717 7.77195
-18.8178 127.631 -0.929101
-0.420499 116.924 10.2754
-4.54492 111.161 -2.04609
0.384457 143.365 -1.90239
2.75658 133.394 7.70145
6.02671 118.774 -4.84822
-18.4474 127.877 -0.585022
-3.93662 87.3081 1.36354
-25.7505 122.021 -3.37709
-24.2841 126.167 8.1139
3.26456 132.798 7.43648
-18.5384 83.0394 6.90926
-2.17694 76.6433 2.14187
-18.2205 86.7911 21.349
-22.7364 124.551 -1.74141
-19.388 80.6731 7.71898
-22.1393 98.1658 15.3871
-19.4201 124.324 -0.15563
-0.297234 140.932 -1.10297
-25.4554 88.2612 9.88032
-20.0337 128.382 -4.39583
3.4242 110.151 11.5811
-23.3356 123.214 -3.59913
-19.8648 127.043 9.82219
2.21297 115.387 9.52865
-8.43775 124.474 14.516
-17.8732 134.711 -1.84302
-21.2739 127.815 -4.30118
-13.1603 128.001 -3.85359
-5.4179 95.3315 0.708026
-21.3609 117.162 -1.09552
3.51788 79.755 21.5336
-20.2848 87.8201 22.0385
-19.1159 102.147 1.34796
-16.0421 106.122 19.8344
-13.8031 117.187 17.7382
4.47883 141.457 4.50057
-15.8436 133.71 0.0204137
1.98111 116.027 -4.98843
-16.7663 136.608 -0.148579
4.23132 80.9514 21.661
-11.114 91.746 19.3278
-19.8267 123.49 0.10067
-6.64249 123.722 0.318423
3.10791 144.273 -3.93499
-22.2139 122.777 9.30248
-17.4082 105.119 0.0781991
3.15724 92.4771 -3.62694
-19.8015 124.873 -0.69042
-24.8413 125.464 3.04394
-1.9011 77.0032 1.89329
5.20768 139.268 -5.17424
-12.6434 122.143 -1.50761
0.192516 104.344 -5.29686
-21.4055 104.589 18.3339
-22.0274 115.54 -0.674436
5.02036 115.208 10.3321
-19.273 128.676 -1.99737
-20.2284 122.164 2.68055
-0.874888 133.33 9.74019
-20.843 93.1861 17.7506
-3.44128 140.613 4.66381
-14.1889 105.608 19.4543
3.75497 100.438 -5.26706
-1.48481 140.921 6.36731
-2.85928 115.628 13.7956
-15.7902 90.312 2.83017
-21.2648 126.017 9.32419
-27.1551 87.6024 13.942
-28.3303 127.924 4.58053
-0.442475 135.003 -0.779209
-25.3806 86.8438 9.38412
-11.8249 103.641 -0.283032
-4.13504 84.2272 14.629
-24.1961 125.92 7.16546
-21.2154 118.969 -0.149072
-4.29341 75.8313 3.63133
-29.7717 127.04 0.376765
-19.0107 143.003 6.5108
-5.33134 103.512 14.1266
5.58726 102.574 19.576
-9.97865 99.0208 17.7108
-5.56691 122.652 14.6054
-24.262 102.203 14.7641
3.48521 101.93 -5.32973
-1.17268 92.6538 -0.89944
-12.2097 93.0607 21.3843
-18.5923 119.395 17.5939
-21.8077 122.705 12.1606
-20.6198 118.068 -1.63561
4.25452 87.9796 20.1199
-23.7276 126.827 3.3022
-8.44177 112.801 17.5156
-11.3968 135.034 8.99971
-6.47555 82.4042 12.4714
-6.68401 77.7507 3.64499
-11.2854 129.46 14.6606
-23.0733 120.627 7.87115
1.47307 116.031 9.38422
-16.6328 77.1492 7.41821
-15.7004 147.221 0.117357
-23.8182 103.302 14.7014
1.17333 122.542 9.02652
-21.6192 133.094 7.05838
4.11106 135.398 6.16473
-8.82943 86.3169 16.0544
-9.42658 78.3924 4.77986
-1.83984 141.143 5.17693
-16.4899 104.82 -0.349259
-9.41587 122.209 -0.115044
1.78582 141.676 4.22359
5.80269 112.8 -5.38147
-16.4635 147.297 4.6021
-22.5267 113.066 15.3539
-29.0819 124.589 5.3712
-25.6021 122.366 5.18605
-21.9657 111.079 17.338
-23.9108 115.233 4.88309
2.71569 124.799 7.64091
-8.54517 114.51 17.205
-20.9493 118.578 -0.940057
2.53106 133.389 -4.36109
-23.9432 125.962 4.458
-3.15375 137.44 -1.07383
-7.55468 150.056 -3.11332
-8.76682 112.797 -0.802828
-23.3577 107.193 2.97168
0.660813 101.505 13.9675
-22.3619 132.989 6.80695
-27.2777 127.555 -4.02935
-10.5689 135.98 10.3326
1.24334 110.301 10.8277
-23.1785 117.167 3.36897
-7.10167 153.223 -0.862081
0.620359 140.785 7.24039
-19.9999 122.397 0.600426
-19.7748 81.8266 20.1762
-9.38823 119.883 -0.106951
-27.2196 121.812 0.258375
-2.68842 118.425 13.6945
-15.1467 149.51 2.47675
-9.56654 120.892 16.07
-18.51 77.5772 8.16771
-3.1927 81.01 16.8511
1.55531 100.147 15.9278
-9.71099 103.415 19.1798
-25.3528 80.6417 11.6471
4.01806 118.345 -5.39022
-10.8278 144.856 -3.32305
-20.6442 91.6136 19.4376
-8.45106 79.2544 4.08308
-1.77747 151.618 -1.53687
-20.7359 119.044 16.2268
-26.5696 135.402 2.19426
4.30064 93.9695 19.9768
-19.0396 139.217 -0.0606335
-19.0818 121.935 -0.578667
-22.2002 122.684 0.0611072
6.16096 94.125 20.3022
-1.39651 89.178 18.61
-28.7826 128.965 3.23511
-7.69337 126.516 13.7605
-9.07274 147.69 3.36453
-5.99596 92.5135 17.0479
-3.77061 87.0262 15.727
-18.4124 93.2853 19.1812
0.97542 119.305 -5.27679
-17.9134 77.7118 7.87803
-9.19725 88.2094 2.13749
-9.90052 84.7412 2.96793
2.38608 140.55 6.69471
-6.01228 111.813 16.5668
-22.5912 116.128 2.11939
-10.5927 150.397 2.60848
-23.477 103.999 14.3699
-25.4216 94.0593 13.9246
1.72112 100.439 15.8447
6.99503 99.0287 -6.49468
-21.2883 119.434 1.27733
-20.9328 119.241 14.3665
-11.8446 148.098 3.72212
0.861842 80.8342 -0.444539
6.14168 102.877 19.6433
-4.75545 122.493 0.0904601
-20.6706 118.529 -1.11836
-0.190124 123.838 -4.03176
3.62891 119.801 -5.01419
-23.8791 126.952 8.50424
-5.08158 134.899 -0.857619
-16.8594 97.6661 21.4049
-0.777633 112.874 -5.33825
-25.0711 129.126 -2.71317
-22.7541 125.138 3.02502
-17.3744 106.174 20.4736
-27.1549 127.758 -3.88776
-18.1341 137.702 -0.730771
-2.10069 122.858 -1.76173
-26.5754 130.805 -0.550857
3.95958 104.132 14.8361
-18.2733 93.0533 19.5576
1.31911 133.046 -2.72335
-13.7597 149.652 3.19462
-11.2992 136.117 -3.36332
-15.8208 91.8916 2.11921
-2.00678 97.8731 14.9354
-4.41929 112.871 -1.48739
-20.703 119.191 13.601
-18.4069 124.038 -1.83602
-20.6575 125.092 12.2326
-8.60666 84.3292 14.7906
-23.5976 112.551 2.61329
-0.647908 120.926 11.424
-9.40718 93.4051 17.1849
1.70021 120.577 -5.29981
0.752676 135.279 -1.85305
-19.6994 84.361 21.5156
2.27668 124.497 -4.4923
-17.5926 135.863 -0.899375
-1.50366 152.725 -1.73377
-15.4718 119.495 17.132
-20.6032 139.957 -0.683632
0.756017 136.81 8.41704
-2.56146 128.981 -0.193237
-11.0193 150.986 -1.49977
-19.5913 127.272 10.1395
-7.27606 119.26 0.0452268
-11.6757 134.99 8.78249
-21.3272 124.201 10.4521
-17.2238 113.403 19.07
-17.8166 124.372 -1.43149
7.96238 88.1983 -4.83217
-16.8605 145.013 -0.116099
-23.309 123.292 -3.91186
-24.0223 98.6803 6.08063
-16.7832 103.296 20.9518
-2.98874 83.4268 15.4817
3.80301 102.38 16.8602
-9.66984 104.475 -2.3018
-14.1631 138.764 -2.13471
-21.1244 133.638 -3.43391
-21.8463 112.617 -0.447778
-14.217 111.257 19.1156
-24.9323 91.2964 8.3455
3.27846 153.264 -2.55018
-15.7338 130.522 11.6326
3.64444 114.335 -4.91468
4.13247 83.2497 21.544
-6.12849 114.829 16.5786
-23.3223 135.244 -1.3494
-8.34828 127.678 -0.731874
4.69313 96.2156 -5.0203
0.114012 92.0893 20.0241
-17.6071 134.648 -1.2094
1.45448 89.0039 -2.17296
-21.244 115.962 17.3416
-24.6114 127.346 4.34349
-19.2658 126.707 13.2063
2.26278 115.532 9.48995
4.41982 88.9002 -4.07299
-18.234 76.4875 9.57441
-10.3619 148.413 -3.31373
-26.6185 90.121 16.7246
-21.329 122.249 13.5259
-26.7535 124.302 -5.30112
-22.0806 123.918 -1.34896
2.16296 123.14 -4.92152
-21.348 126.71 9.61973
-24.0559 123.935 6.07141
3.244 117.891 -5.58727
-0.611746 86.9572 -0.280372
-24.254 100.932 7.41254
-10.011 107.336 18.3716
3.13607 113.728 9.98433
-14.0671 141.923 -1.51892
5.17397 110.504 -5.47228
-24.6201 138.786 1.66181
-16.9887 129.833 12.6969
-21.0962 137.329 7.17901
-25.2022 82.2549 21.6135
1.73816 143.205 5.66329
0.994795 144.566 5.06151
5.16466 127.173 6.37711
-7.15383 132.565 12.5859
-5.4257 147.506 -3.27976
-27.7946 78.1214 15.9411
-8.37253 113.855 17.3789
6.84952 127.92 -4.72175
2.77894 146.297 -3.66672
-18.2407 113.6 -2.34277
-4.61268 83.1198 2.1399
4.2528 99.7905 -5.49477
-18.1376 109.749 19.7728
-26.4816 129.285 5.04327
-14.6367 79.9111 16.9491
-13.4318 138.292 6.51786
-6.4134 135.39 11.2489
-17.3027 131.756 -0.144867
4.79191 101.304 -6.13254
-14.8613 132.532 10.508
4.04216 126.231 6.64827
6.52069 106.595 15.3025
-1.36492 93.5779 20.0981
-7.91288 116.252 -0.131652
2.89653 136.495 6.70837
-23.77 113.221 5.5923
-0.29557 93.766 -1.36771
4.54055 80.9936 21.742
-7.5652 149.062 -3.65898
-12.2046 133.748 12.555
-5.48917 127.425 0.447615
-17.0039 94.2018 20.1847
-9.36811 108.833 -1.44679
-0.987784 141.968 6.96049
-1.80212 130.734 -0.658495
-24.8991 91.4471 9.21659
-22.8304 123.7 4.96273
-16.6508 127.367 10.4714
0.0932831 73.8696 1.59971
-1.41301 90.6806 19.2362
-20.5776 122.975 0.993401
-17.9424 128.49 -1.83782
-24.6852 88.2675 7.40011
-21.7035 105.36 18.0566
-19.1853 82.3028 20.2659
-8.19694 94.6597 16.1159
-18.012 126.743 12.6952
4.04592 83.2068 21.5698
-7.07645 88.2083 2.00758
-14.7378 115.394 18.2196
-15.3267 109.403 19.2146
-20.5088 96.0355 16.4179
-2.43224 125.977 -0.757891
5.80104 97.7318 20.8851
-10.4588 98.1728 18.0502
4.16866 86.5517 -3.58494
-25.5683 91.5285 16.8454
-22.753 105.504 11.6872
-22.0736 110.539 16.1838
3.4236 126.025 7.05809
-18.4426 93.7736 19.0127
-7.0546 85.7226 14.1414
-14.8608 147.777 4.41354
-20.0123 122.737 2.2807
-8.3609 110.846 -0.97336
-0.209172 153.393 -2.31884
-22.872 124.973 7.68214
-19.745 102.738 1.38565
-23.2724 82.3198 9.09784
-23.8914 111.753 4.39995
-17.1287 130.73 9.33304
-23.1543 95.9511 3.41361
-12.6004 134.947 8.29422
2.55189 142.964 -3.5225
-20.6709 116.7 -1.95065
3.18683 142.059 -3.97649
-15.9716 134.96 0.580956
-20.3308 91.0434 20.8061
-21.3194 117.188 14.9068
-27.9818 84.9968 18.5427
-2.55581 142.291 -0.955336
-26.6429 81.51 12.6515
-9.12265 88.6218 2.12452
-13.013 148.517 3.83197
2.30115 125.581 8.11136
-1.63206 123.002 -2.18576
-29.4374 128.593 0.502462
-22.112 113.774 -0.346476
-23.2962 105.286 1.99954
-14.8118 90.3019 2.37079
-14.0885 139.92 5.77078
-19.0161 124.301 0.503176
0.730615 124.737 -4.55867
-23.3513 105.143 13.9877
-0.120085 123.564 -4.28875
-21.6355 124.792 8.02705
-6.01761 142.754 4.42377
-13.6861 92.8317 21.7033
-11.8055 118.498 16.9072
6.50408 93.9076 20.397
-28.2138 125.705 5.27962
-28.2683 83.1109 18.5528
-17.0659 109.536 19.7903
2.61596 104.71 -6.10219
-3.81707 142.757 -1.64112
3.37284 106.254 13.324
-22.2215 123.69 5.32893
-20.6069 110.54 18.6718
-20.2986 101.267 1.31482
-12.7276 90.4636 2.12438
4.13426 126.121 6.69419
-3.58231 141.497 -1.36827
-3.80026 98.367 -0.721799
-24.214 78.9557 12.1108
-13.7366 107.291 19.0175
-4.28208 147.636 -2.15987
-3.23198 94.1917 19.0617
-9.65926 141.543 5.87079
-17.9803 90.772 21.8909
4.94399 80.7871 -2.81856
2.27807 144.744 3.86627
-13.5462 82.0378 17.3461
-25.3857 123.686 -2.86648
-3.8427 122.793 14.2606
-21.2294 117.223 12.8181
0.429175 124.815 10.3563
1.19849 129.492 9.36069
-13.3365 127.891 -3.33157
-10.9734 137.99 6.27943
-4.29908 126.028 0.357405
7.35489 81.1951 -3.7021
-16.381 128.549 15.123
-16.3872 148.519 1.82404
-7.62676 101.673 16.0942
-22.8616 123.654 7.63095
-3.01812 105.121 -4.11744
-17.4668 142.705 -0.239793
-16.8031 124.087 -2.86691
-16.1758 125.981 -2.35063
-3.73691 116.688 -1.40942
-1.75272 79.9793 18.602
-24.1232 122.565 -2.73387
-18.6101 89.2092 22.4688
-20.9328 119.354 15.8006
-9.73748 84.5885 17.0185
4.23834 145.733 -4.36295
-7.24204 83.3433 12.998
-27.9336 80.9017 20.0205
-4.2825 139.943 8.57226
7.15135 80.9745 -3.62788
-22.4733 117.553 8.53154
-0.811881 112.129 10.9715
-21.922 111.676 9.05317
-0.530371 153.548 -2.19452
3.89295 142.671 -4.44143
-22.1549 108.784 16.9858
-0.870887 127.6 -2.03566
2.04602 79.1124 21.1426
-28.511 128.61 3.95639
2.65281 87.3313 18.2233
-6.03778 86.6047 13.6498
-21.3298 116.943 12.5747
3.64784 140.36 5.30551
0.692743 119.991 -5.3223
7.31214 114.823 -5.8143
-5.42936 83.8071 2.25118
-7.96807 84.138 2.7711
-15.13 126.937 -2.57994
-23.002 102.66 11.374
-16.2086 133.763 0.477623
-17.2246 126.259 -2.06213
-15.8538 129.296 11.4158
6.82135 123.552 -3.98033
-12.0001 83.2436 4.71788
-2.06611 118.441 -3.66558
-19.4737 128.115 -1.20272
5.26199 135.693 5.63279
-7.34786 92.8871 16.3317
-28.5797 127.809 -0.968777
-23.6316 104.732 10.3964
-4.01972 132.601 11.9269
0.372725 116.612 9.61157
-15.6527 138.257 7.21674
-18.7067 123.34 -1.78728
-19.6747 128.676 -0.919873
-2.98913 140.994 6.86062
-14.1405 119.854 -2.0047
0.345688 148.26 -2.45394
-14.2954 129.38 13.9147
5.38514 149.347 -3.81805
-22.8036 124.237 8.85213
-9.41188 113.339 17.7733
-3.91989 104.56 -4.21205
-22.8818 110.669 10.1701
-22.6728 106.741 13.0842
-15.6611 103.49 -0.430513
-19.4859 132.181 -3.1827
-23.0172 125.795 8.25547
5.68211 125.866 -3.28981
-11.7775 126.388 -2.28188
-22.5435 123.978 3.23083
-4.6246 82.132 14.9122
-28.5157 130.328 0.305783
-19.2136 134.827 -3.53391
-12.4211 113.091 18.3364
-28.0126 125.391 -2.2032
-23.1 104.248 12.9366
-3.69595 134.427 10.8244
-10.5502 95.1153 1.89366
-4.35155 120.932 14.9813
-21.2291 117.005 17.0018
5.98377 154.118 -1.49147
-13.6032 91.3647 2.20274
-12.4303 76.6479 5.69957
-9.42325 136.239 11.0568
4.10916 149.573 -3.55661
-12.7261 95.5426 21.1527
-4.32191 89.8504 0.938748
-9.1337 144.531 4.2785
-27.924 121.134 2.10831
5.82789 95.0925 20.3717
-21.9266 122.658 3.97011
-19.9727 117.691 -2.42529
1.46472 122.79 8.7612
-20.5709 89.701 22.1723
-17.946 87.6682 4.97516
-26.9567 134.603 1.5931
-3.38497 116.391 -2.22809
-15.8401 129.21 11.7333
-18.1745 93.6865 2.0975
-18.7284 125.791 0.207875
-22.7687 107.434 15.619
-11.3579 151.438 -0.813966
-27.4938 122.578 4.6371
-2.47022 107.394 12.1652
-8.90748 91.1732 1.92425
-23.3315 121.225 3.95099
1.31787 83.6486 18.4018
-25.693 132.091 3.7486
-13.3704 112.408 -1.83354
-23.8036 125.784 4.42194
-22.4345 123.616 3.17294
-0.337767 110.602 10.8383
-23.069 119.991 8.0976
-17.5322 95.6345 1.86772
2.65882 97.1213 20.6795
-21.5242 111.175 -0.550112
-12.8165 140.36 -2.31942
-4.0434 141.101 -1.78979
-11.6775 86.111 19.4076
-14.3304 133.231 -0.909304
-19.6766 145.62 2.83952
-23.7375 109.908 3.64994
-0.29494 96.1104 -1.62352
-22.5824 124.875 7.47365
-15.5803 101.338 0.249208
-15.9816 116.265 18.3707
-21.4036 124.529 2.12382
-20.9315 117.848 11.9362
-21.9576 110.891 17.4195
-27.2281 86.7912 16.0164
-7.83229 111.842 17.3877
-1.56008 140.525 8.08887
-25.0835 83.3213 10.148
-20.4503 123.109 0.80414
1.85069 110.893 -5.6776
-12.9852 132.227 12.2752
-6.8529 134.368 11.6921
-16.706 109.078 -1.09034
-10.0056 131.321 -4.52681
-7.02415 89.4326 15.3513
-3.23474 93.5546 -0.130085
-10.8701 121.65 15.8886
-2.10243 106.334 -4.28765
-15.1447 83.0709 5.40562
-28.069 121.319 2.10851
-19.866 88.4903 5.46856
-18.8927 126.237 0.581796
-1.18006 123.698 -2.48309
-23.3392 108.282 3.77556
-21.9938 104.921 1.68179
-12.0558 130.762 -3.79261
3.14755 101.986 -5.07938
1.79145 126.724 -4.1786
-2.28291 138.276 8.97707
-21.9158 96.3199 2.54474
1.34354 135.837 -2.32814
-7.18085 89.3492 15.344
-24.9279 122.437 -4.93421
-0.34577 153.5 -2.26863
-19.3885 92.6063 2.94914
-24.5967 100.339 12.6277
-6.20083 97.7747 0.329648
-10.866 134.805 11.8013
-11.1591 143.554 4.50138
-12.9159 122.862 15.4802
-23.8354 123.245 -2.03698
-12.9376 88.8367 2.53789
0.96023 83.9362 -0.94048
-5.68373 153.636 -1.10874
-20.1582 93.3318 18.2709
-18.0139 136.458 8.08367
4.59637 119.591 -4.51942
-17.4498 112.439 19.2856
-9.15835 93.5452 16.9675
-7.54669 144.81 4.21088
-8.4839 87.1735 2.26588
-29.078 127.885 3.48143
-9.61787 79.9782 4.76591
-12.7446 141.268 -2.46959
-12.1709 137.057 6.85714
4.61452 139.545 4.8601
-17.8128 113.664 -2.41742
-22.0276 108.968 17.7883
-3.53279 75.4482 3.14498
2.56795 123.224 -4.71756
-2.77152 118.043 -2.53981
-16.3234 103.395 -0.499582
-18.7382 95.9683 1.86336
3.58172 93.6445 20.111
-18.8518 128.315 8.9759
-10.3911 93.8288 2.14037
-23.9168 105.201 7.0167
-1.61614 104.588 -4.73157
-6.91139 85.2204 13.3779
-22.7445 107.221 16.315
6.92347 90.9417 -5.12637
-10.7938 106.894 -0.841939
-5.18961 106.713 -3.2809
3.70788 93.0635 19.8695
7.35661 107.003 -6.41155
-16.133 114.375 -2.10646
1.66556 126.43 8.85467
-20.0318 125.437 13.7324
-21.3474 124.707 -3.59254
-20.5254 124.177 1.84704
7.24561 116.705 -5.80453
-8.37159 99.1326 16.3756
0.259437 109.725 -5.48571
-6.45094 115.532 -0.121609
8.38846 88.0971 -4.99015
-25.258 128.404 7.30795
-8.80127 117.831 -0.422038
-15.3836 77.5621 6.76852
-12.041 88.1289 20.3138
-23.0614 96.8601 6.82536
-13.1769 127.661 15.3525
2.84806 96.3225 20.9408
3.80971 86.6929 -3.40252
-18.0265 136.388 -2.15968
1.36598 135.4 -2.34571
-21.8923 125.938 8.41968
3.66524 77.3425 -1.22587
-7.99478 148.337 -3.82996
-21.4857 116.203 11.7392
-0.713117 114.478 -5.13719
-27.3187 86.0928 18.6139
-8.22874 107.995 17.4513
-16.4276 113.665 -2.2919
-18.4296 138.107 7.4649
4.34478 89.187 19.9507
-2.44049 127.249 12.2771
-19.2537 127.186 -1.24294
-0.773287 112.864 -5.34283
4.07958 94.3483 -4.51753
-10.4473 105.367 -1.44461
-3.76071 120.91 14.4998
-7.94721 108.632 17.0807
-7.70707 122.096 15.22
-19.1386 137.592 7.39923
-2.03774 111.36 -4.24237
-0.543467 144.564 -1.47549
3.9337 129.118 6.70292
-22.466 122.302 9.34808
-8.58109 133.921 -4.0803
-17.6787 128.488 -0.877108
4.01876 98.178 20.7843
-23.258 130.814 7.77592
-14.3132 112.763 18.4717
5.23567 81.2189 21.7529
4.01118 145.839 4.17348
-18.674 127.941 -0.00821955
-15.1614 108.056 -0.357137
-19.2156 129.999 0.413189
-5.18534 116.234 -0.495784
-27.0274 124.52 5.08496
-12.9592 145.352 -1.11484
-21.751 142.119 0.539951
-25.3889 122.753 -1.17349
-2.95017 117.827 13.9178
-23.4833 119.031 7.21464
-6.31441 81.8234 12.5429
-19.6372 134.058 8.182
-16.4034 133.004 8.49788
-4.12332 124.471 0.0508352
-13.4268 126.544 15.0193
-12.2229 113.619 -1.14885
-0.538915 151.82 -2.15876
-3.56373 92.1062 18.1977
6.71173 84.0957 21.0825
-16.9677 127.527 -1.6091
-4.97132 88.4869 16.0393
-4.39767 117.807 15.217
-23.4957 103.641 15.9165
-18.8635 108.541 19.7732
-17.7731 92.0704 2.6115
-19.1338 108.589 -0.648098
-11.8664 96.6869 1.14994
1.37534 100.061 15.7619
2.27835 138.352 -3.55612
-23.364 126.055 8.71865
-14.3718 129.463 -2.31828
-24.0227 95.2486 7.85614
-21.6162 125.421 7.77241
-1.9367 137.334 8.82908
-5.33301 138.732 7.83486
-14.2506 90.2655 22.2203
1.85462 127.174 -4.19128
7.20746 114.271 -5.73321
-8.05727 112.041 -0.675053
-20.9515 142.13 -0.0511015
-21.6096 104.582 18.1365
-2.57759 141.139 4.78491
-23.788 98.3462 3.72001
-23.2863 122.061 4.62757
-10.516 88.9058 16.9744
6.28295 122.55 8.22812
-10.0644 83.5788 3.51589
-17.8737 90.2459 22.5933
-5.65228 122.28 0.178512
4.19428 123.474 -3.75864
-22.3171 107.276 1.1634
-26.0879 123.66 -1.57828
-5.30116 129.008 12.9461
-22.9231 109.69 13.5094
-2.63517 109.193 12.5655
-22.3025 122.363 2.85239
-21.2498 118.272 10.9338
-15.2951 101.124 21.2009
3.29596 79.4111 -1.48892
-16.9631 105.75 20.3775
-22.582 108.314 13.1643
-17.2185 118.527 17.8018
4.19894 96.1299 20.5999
-25.4916 130.737 -1.26514
-28.5941 128.338 4.08807
-18.3301 90.3986 4.34077
-18.3168 95.8717 1.90423
-13.997 82.6024 18.4221
-24.3027 104.685 8.64887
-19.7138 109.854 -1.2829
-26.2641 125.956 -4.85647
-7.63537 153.485 1.10018
-20.6899 122.227 3.16721
-19.3994 120.012 0.371077
-14.9505 131.887 11.5872
-23.8791 107.097 10.7182
4.84388 103.962 16.0737
-15.0584 88.283 3.86917
-23.9167 125.966 4.4185
-12.4203 88.8817 21.0483
-17.4543 109.381 -1.3654
-23.2262 134.442 5.39085
-27.7366 79.5095 18.9045
6.01879 149.58 -3.80411
-20.1649 108.09 0.330241
2.12396 145.74 -3.35388
-1.80506 126.527 12.0979
-15.0317 95.6388 22.6214
-14.1772 140.094 -1.68741
-11.2588 95.2746 1.87915
-15.2712 87.4531 20.7943
-23.2953 119.544 7.28879
-23.1746 92.0081 17.1584
5.35511 109.906 12.7979
-22.0997 109.084 16.5487
-3.42622 139.908 5.1286
-6.49856 137.644 -3.4761
-19.2421 130.536 -4.36505
-15.0295 131.529 -1.46685
-4.29667 110.359 -2.73041
-22.9663 113.725 7.82005
-10.6588 84.1956 17.4693
-23.6398 126.933 3.55318
-5.96065 141.601 -3.33739
-6.62806 120.968 15.6026
-11.4526 144.586 -3.00513
-21.8954 116.281 -0.411806
-3.1918 103.915 13.0458
-4.43577 75.2424 4.06855
-21.869 118.842 1.34149
-20.9863 120.497 15.3164
0.332242 97.2254 17.5274
-4.45688 129.212 0.340614
0.0583256 127.713 10.5037
-13.3311 149.896 0.518506
-3.85785 139.595 5.26978
6.54699 95.7569 20.7893
-2.12273 148.627 -1.50948
0.768551 96.1393 19.9744
-21.2813 112.875 -0.9366
3.3156 84.3382 20.6449
-0.00090374 77.7428 0.34845
6.51685 122.201 8.4743
5.31877 76.1149 -1.94873
-18.5632 127.062 11.5761
-27.3469 127.538 -3.97034
-23.6827 125.45 8.29443
-5.59015 109.454 16.3625
-22.4162 105.921 1.84121
-23.4465 127.658 8.91945
-2.36259 130.242 -0.0230626
-14.2725 90.6991 2.22358
-2.21778 81.3071 17.4873
0.761277 100.097 15.1151
-15.7738 76.8171 7.23232
-5.14121 141.609 -2.91725
-24.7594 99.8274 12.8036
4.75459 123.405 7.55043
-4.13622 81.4074 15.9309
-6.61266 133.641 -2.32293
-7.23239 130.587 12.6648
-9.77964 101.118 19.0319
-9.91751 83.279 3.6042
-10.535 98.6588 0.415983
7.32904 86.1863 -4.50391
-23.6272 107.462 7.58224
-6.84917 146.442 -3.92395
8.02051 82.2525 -3.90351
6.63695 133.352 -4.89581
-23.1515 101.145 10.6101
-24.0385 95.5897 12.7166
-4.2153 142.809 -2.00301
-4.03652 124.095 14.1235
-18.5702 120.527 17.0829
-12.2516 96.0357 1.48388
-14.9461 109.753 -1.53526
-12.5188 120.99 -1.3628
-13.6683 102.827 0.0826112
-25.1567 127.329 8.01075
-22.3264 87.6083 22.3162
-6.33642 90.4994 16.1899
-13.354 112.441 -1.82367
-19.2221 127.525 -1.0645
-25.3977 132.296 -1.13583
-26.0911 130.914 3.94757
-22.0808 92.779 17.0322
-13.0206 128.88 -3.51771
-17.644 96.2063 19.1032
-10.2725 87.865 16.8906
5.56954 103.304 19.0407
4.3836 141.595 -4.7636
-26.7226 124.476 -1.9045
-5.95737 100.175 14.5675
-1.19942 132.334 -0.777262
0.770756 107.613 11.5821
-5.81155 98.0141 14.7912
3.18503 85.6888 19.1634
-23.8878 127.57 4.42668
-6.30357 114.395 -0.258899
-13.9579 127.403 -3.76159
-13.0905 134.891 7.81489
-3.05497 147.19 -1.56015
-19.6299 121.83 1.19646
8.0316 76.1966 -2.82664
-11.5434 100.517 20.5092
5.31317 152.989 -2.70832
-16.0857 129.73 -1.62384
-12.9048 136.188 7.52989
-17.9441 130.255 -2.14889
5.99309 116.088 10.4763
-17.394 142.875 6.49613
-20.733 122.906 2.06001
0.968947 142.397 5.47695
1.05816 104.314 -5.34901
-20.5878 134.709 7.43458
-15.1081 109.345 -1.14884
-10.675 118.399 -0.535557
-23.6456 104.93 4.31654
-23.8574 135.034 -0.462452
-5.63753 137.887 6.82296
-19.5747 100.312 18.8583
-18.7552 101.669 1.31058
-14.5834 137.004 6.72191
-4.12677 109.093 14.9056
-3.73542 83.6398 14.9171
-2.61699 89.2452 17.5662
-21.8919 115.275 12.8628
-16.3823 146.646 5.24059
-8.95368 89.5415 18.0539
-12.3763 114.442 17.8472
-4.17838 111.021 -2.79292
-5.22333 138.42 10.3008
2.51693 123.244 -4.74117
-12.7881 148.626 0.168525
-18.5086 138.23 -0.370736
-20.4057 88.4415 5.69003
-12.9368 87.7665 3.14176
-3.4489 107.588 13.8699
1.51664 142.899 5.72336
-12.8792 134.631 9.74341
-7.18894 88.4021 1.98622
-1.76448 147.577 -1.38928
-19.1162 98.588 1.76899
-16.2977 129.772 12.6261
-1.67984 94.894 17.4689
-1.11187 128.815 -1.66286
4.69129 152.257 -3.02887
-24.7904 137.022 4.17229
-11.2165 134.136 12.4279
-14.5335 138.643 0.334031
-21.4343 101.888 1.71858
-0.873465 143.999 -1.25688
-21.6017 89.6183 21.5268
-5.08917 87.0473 1.63221
-5.801 75.4294 4.53495
-19.2076 83.2096 21.0407
1.55538 105.385 -5.89752
4.76459 103.503 16.6058
-16.6307 110.354 19.67
-22.9264 125.11 2.22099
-20.3601 135.716 7.97908
-25.6339 85.8625 9.61426
-6.6869 144.347 -4.1437
-14.2001 82.815 5.51025
-23.3823 111.534 1.85347
0.275263 101.104 -3.70974
6.05891 110.34 13.091
-0.213468 120.988 -4.79179
-19.0002 130.345 0.535337
4.23903 126.336 6.62267
-12.0694 121.178 16.2973
-8.76573 121.533 0.0228648
-5.48149 88.3852 15.2737
-14.9966 97.3132 22.4759
-10.7081 136.117 10.745
-23.4144 124.324 -0.526831
-14.4299 123.445 -2.84585
-21.9622 114.49 -0.613664
-20.223 130.141 8.53859
3.65133 149.977 -3.41536
-22.6047 130.271 8.65139
-4.77511 145.421 -2.50493
-6.07249 145.333 -3.72863
-9.92233 141.852 -3.2147
-17.0522 147.352 1.37799
-14.7187 148.505 0.662699
-14.3718 147.783 4.35119
-12.4482 135.029 10.7309
-17.5522 82.6976 20.1683
-20.9305 121.408 0.0280746
-17.6586 128.43 -0.421194
-3.71641 145.357 -1.7259
-10.2748 82.1169 14.4022
1.34734 141.738 4.43644
-2.73588 112.736 13.3805
-18.7553 122.111 -0.990873
-7.02813 76.6778 4.5054
5.20521 119.224 -4.43619
1.17206 101.75 -4.1231
-2.77935 94.2252 19.185
-21.0257 120.781 13.1143
6.20765 105.86 -6.16093
-19.7926 143.026 5.99618
-19.9474 120.916 0.434941
-2.26155 116.062 12.973
-0.739588 119.889 -4.43943
0.299942 141.79 4.35711
-4.17694 114.915 -1.23179
-24.8055 138.526 2.51231
-23.6885 81.8416 22.4436
-3.81434 117.306 -1.26909
-4.50216 125.099 0.27899
3.17703 147.25 -3.69721
-1.11801 101.689 13.6188
-22.6786 111.206 10.9799
-29.6772 125.997 4.07518
-20.5848 95.489 16.6281
-22.7813 123.711 -2.65913
-0.634091 141.378 6.01079
-13.5042 136.416 7.50549
-20.355 126.802 9.26052
-6.30659 92.0525 17.8961
6.48914 93.8502 20.3884
-2.44335 118.053 13.4584
-6.72776 123.431 14.2428
-12.4484 83.2964 17.8595
-11.1062 87.2242 2.8182
2.45572 111.779 -5.25769
0.736833 119.864 9.31972
4.21236 126.597 6.52713
-25.0933 127.984 -4.84421
-6.84752 128.465 -0.345822
-11.8455 88.5268 20.1722
2.96638 140.944 6.05943
-13.8212 133.191 -1.19016
-16.3638 98.8965 22.168
-12.9842 129.179 -3.3203
0.0272562 117.927 -5.26709
-22.3478 108.103 17.202
-9.27809 97.9104 17.2014
-12.2157 109.897 18.5753
-9.27244 142.854 5.33317
-16.546 104.834 20.5343
-0.587819 130.009 -2.43867
-20.1815 113.915 -1.87714
-6.57044 99.9759 -0.474687
-11.3869 119.486 -0.614763
-13.7939 75.7567 7.72597
-23.1641 111.335 13.3183
-23.336 88.6259 21.3198
-10.9695 101.129 20.0276
-9.00625 104.779 18.68
-13.272 76.3971 6.22858
-14.4526 112.288 18.7324
-16.788 96.7778 21.2484
-1.40631 118.989 -4.25066
-20.3836 91.7691 19.3657
0.388056 83.5327 -0.672023
1.81561 146.928 -3.20596
6.37878 126.625 -4.02697
-17.6319 94.4823 19.2077
-12.7969 144.728 4.59181
-1.23443 110.23 -4.35719
-20.6268 119.244 -0.381997
-4.45504 135.887 -1.00791
-27.4295 128.858 4.47083
-28.5082 122.235 1.06612
-4.96675 111.583 -1.46334
-21.1015 133.766 -3.45447
-23.514 105.279 15.7693
-23.5276 123.549 6.45445
-8.4748 124.014 -0.0136781
-28.3413 127.434 4.98492
-26.322 133.857 0.348965
0.773025 124.327 9.89539
-20.3997 86.6047 6.1925
4.13795 125.229 6.97431
-17.7355 126.657 12.9023
-26.9247 85.7124 12.8019
-9.75016 92.9439 2.01655
1.07774 73.7297 1.04472
-16.6316 145.858 5.84066
-29.7231 124.619 4.96797
-13.4954 137.317 -2.3395
-20.7653 88.8078 5.74079
-14.0732 90.4538 22.4139
-29.033 123.352 0.631402
-1.19437 89.0457 18.7659
-20.8533 122.669 2.44149
-22.6054 137.945 0.18337
-3.62254 84.2803 14.8909
-22.6585 114.377 0.162152
-7.98827 139.37 6.80012
-5.62761 88.5298 15.2473
-20.2807 125.252 13.2741
-14.7467 86.8762 4.08464
-6.78921 125.221 13.7413
-17.8188 78.155 7.75178
-1.86926 117.167 12.4015
1.93716 95.2719 20.8326
-3.25705 127.102 12.808
-15.2062 136.746 -1.84919
-7.86225 151.407 -1.9764
-5.9111 145.335 -3.57993
-21.6688 95.7804 16.226
-1.89113 92.8956 19.6926
-22.1932 142 1.68218
-28.4411 81.6889 17.6043
-25.1958 94.0612 9.08723
-22.1707 123.98 5.57315
4.86639 129.433 -3.63574
-9.84211 140.083 5.63599
-10.6329 100.366 19.8034
-0.328248 95.2263 19.6659
-18.9669 107.635 19.8908
-23.1432 100.485 2.39882
2.55848 120.26 -5.28989
-6.53089 81.9085 2.94867
-23.0883 100.33 9.76009
-18.0847 102.373 21.0251
-6.10446 103.716 -3.2136
-19.823 126.4 9.96471
-14.9411 85.6476 4.51353
-4.03722 96.1207 15.2402
-6.49058 105.47 -2.85393
-20.777 90.1412 21.6068
-13.142 134.927 8.27949
6.19948 134.017 -4.88719
-2.4671 86.7246 0.781633
4.85404 131.519 5.7849
-10.8393 86.8989 2.83587
-22.8769 84.8307 7.73726
-23.2413 107.017 5.28183
-17.5039 127.887 -1.29314
-16.0302 117.183 18.2157
-18.3989 110.801 -2.01308
-12.2682 147.353 -1.27763
-28.3493 122.151 3.37442
-24.5999 136.255 0.506733
-9.27138 78.9955 4.56647
-23.9534 116.165 3.87467
-12.5158 122.642 -1.43007
0.0229018 81.5432 18.6846
-18.0966 94.9742 1.91768
1.65779 117.012 9.19932
1.6664 144.66 4.43807
2.76143 114.605 9.75882
-21.112 126.21 10.2267
0.402142 131.537 -2.74877
-0.533402 127.169 11.0604
-21.8066 114.225 11.9072
