ply
format ascii 1.0
comment Created by Open3D
element vertex 1912
property double x
property double y
property double z
end_header
20.6169 130.354 -4.75754
11.488 136.996 5.38751
11.6584 129.692 -5.94951
24.8911 130.065 -5.47328
21.6651 112.748 2.71285
1.36307 115.538 -4.68495
3.96361 144.243 5.69361
16.6022 140.155 -4.16785
0.774553 126.213 -1.91667
6.76958 112.221 -3.30969
13.5242 128.612 -0.0380759
-12.8838 140.82 -0.566576
1.10725 141.296 -1.10465
20.9224 130.145 -4.64974
-14.3071 124.654 -4.36759
-21.1729 127.813 8.03611
20.7325 111.259 2.21815
-20.7259 120.331 7.83862
14.6937 125.871 9.21159
7.6477 109.772 10.7144
-6.17822 123.557 -2.75266
-16.9393 120.065 3.74667
-12.7018 125.395 8.31126
22.1583 135.37 4.25522
-10.0643 136.516 -4.21418
-15.2554 120.605 6.65575
-10.5631 146.098 7.28841
4.18512 133.518 -1.26567
8.81366 143.309 6.49333
6.09861 121.437 -1.87632
-18.7836 121.668 10.6566
4.14319 151.387 -3.41136
-6.92287 153.653 -0.845105
12.7912 125.94 4.56193
23.966 117.05 10.301
-23.5301 119.258 7.43091
4.26814 138.161 -2.08595
-19.8925 129.2 2.34405
5.96305 123.453 -1.53575
-10.6977 126.388 7.01303
-14.8383 124.347 -3.86248
2.73423 141.431 4.6577
-12.0967 126.697 9.9287
-9.65224 128.046 7.50815
-12.7834 144.134 8.71866
-16.0969 120.866 -4.22308
-16.0819 122.287 9.60081
-5.52437 118.156 10.9488
0.600895 121.655 10.6704
10.1445 120.938 8.83123
-14.5815 106.597 -4.46664
-15.1093 126.919 10.9565
20.9059 111.793 2.17125
14.7574 131.052 -4.48636
-17.6035 135.119 3.05894
-15.3481 142.846 7.46208
-8.82022 113.311 -3.92115
-3.75753 104.05 -5.05098
-19.5397 121.62 0.877227
8.15624 127.991 -2.5396
-20.6576 117.297 3.51458
-13.5671 137.22 -1.85775
-4.32738 128.74 -1.55619
-8.50975 118.644 -2.87991
4.81131 123.174 8.62067
-19.281 134.938 8.48232
-0.334704 112.587 -4.63939
-11.8026 121.182 -4.75088
23.6763 141.732 -1.87697
-22.0457 117.088 12.3801
21.1028 123.914 4.48417
15.0945 113.948 -3.58855
-6.55422 153.509 -1.08537
24.4443 141.558 -0.915625
-15.6658 121.012 4.72583
-2.10342 129.222 8.30656
23.4093 110.592 16.0142
-17.7254 121.105 9.95098
-5.87363 134.937 -4.05491
-13.311 130.055 -2.75315
-7.81385 151.936 0.154474
-13.4645 111.618 -5.42259
13.3805 132.46 -3.67008
-16.1795 117.762 5.17736
9.68186 118.956 -3.48382
-6.34358 135.157 -4.76601
17.2786 112.943 14.6842
-3.72298 142.077 -2.27763
18.4943 123.681 0.814818
-22.619 122.268 12.4956
16.0311 145.592 -0.659592
16.1407 125.129 7.06439
23.1467 138.674 2.8096
12.5055 129.85 4.28261
-13.362 111.228 5.7005
16.9284 107.23 8.86252
12.8787 140.664 -6.5826
-3.55871 138.985 3.90272
-15.5516 110.499 -5.17021
17.5322 113.488 9.04571
11.1472 135.828 6.37501
17.7474 117.575 2.50931
-17.18 119.735 -0.786438
-14.0499 140.632 2.59331
-16.7957 107.163 -3.20383
12.8566 127.145 -2.73125
17.0599 124.618 -0.249581
5.75289 102.556 -3.67903
-16.7048 116.77 -4.57581
11.021 115.9 6.74922
-2.89694 117.68 10.6497
15.3851 138.28 3.75471
18.2839 127.146 9.35418
-17.486 132.435 11.0183
3.65876 104.259 -4.69776
16.6708 123.164 -4.2027
-11.2203 128.932 8.7881
16.8143 105.938 -1.72934
-15.4598 128.021 -0.208108
18.0499 123.263 -2.01921
-2.64556 103.678 -4.7535
3.12596 126.702 -2.26124
-9.56933 143.531 8.97646
13.8511 135.076 6.74266
11.3668 150.344 1.06367
-12.2829 134.373 10.2368
9.00268 147.827 3.24786
10.8117 134.554 5.5684
15.1948 129.858 -1.96276
-4.4159 128.18 -1.53762
16.0479 127.099 7.56618
-16.6167 121.516 0.477369
14.6468 111.832 -3.54791
-13.4977 145.193 6.08831
20.1164 127.27 -4.92895
-9.38222 125.563 -4.30585
-7.77776 125.888 7.45415
17.0624 116.42 10.9285
-0.151791 133.861 6.14675
-9.81453 143.267 -3.83257
2.0362 108.727 -4.64451
20.2264 130.05 5.53743
-23.3447 120.412 5.29837
-4.63038 118.717 10.594
5.78094 145.532 -4.45382
-5.54036 128.439 -2.41975
21.1313 124.807 4.94047
20.638 113.597 16.1734
14.5906 118.473 4.50124
-5.22554 120.015 -1.51141
23.243 130.341 -4.4125
-20.6742 119.859 7.07377
15.8632 128.485 -1.41622
-3.54178 135.88 -1.76512
12.7598 129.795 -1.89153
11.8841 114.559 5.7247
-12.599 122.944 -4.59193
-21.9397 119.875 8.56502
0.0781702 119.513 10.972
17.5542 129.836 2.56182
24.1498 127.466 3.30485
14.7227 133.326 1.97897
-16.2226 130.151 -0.286069
18.5443 106.956 -1.1088
-17.0239 119.967 3.95744
-7.30259 120.945 -2.68587
7.25057 145.288 6.81442
-6.46184 110.881 -3.42331
-9.50046 148.375 4.3711
20.047 132.556 5.27678
0.295575 152.362 -2.46119
-11.9078 112.377 7.48673
-16.728 139.433 9.4134
-16.4436 120.95 1.62732
6.0756 144.985 6.58079
14.3193 135.093 6.23723
15.4417 130.085 9.04249
21.8679 125.126 6.99311
7.58614 121.845 9.7576
-3.54719 131.263 6.57737
16.7348 118.036 8.93728
4.36304 144.542 6.09474
14.4965 125.392 -2.01377
-12.4426 111.54 6.54624
1.69538 125.516 9.35473
21.3441 125.21 4.48263
3.32474 118.69 -4.10745
-5.599 153.569 -1.26505
-14.6929 113.666 5.31064
-16.279 123.012 11.3763
5.97945 121.641 -1.94744
1.28851 120.725 10.5231
1.41743 114.257 -4.89636
-15.2898 121.722 -0.13429
9.76058 152.357 -1.72111
18.3398 122.752 1.37675
-7.37497 107.995 -4.00758
-5.5616 142.825 4.01744
7.29293 125.873 8.89975
-4.70273 150.077 -2.54587
16.9184 122.438 -2.43126
13.9009 140.196 1.76436
20.9751 117.531 7.88849
11.0085 112.152 7.19533
-18.7605 128.771 0.201888
-12.8121 105.511 -4.35093
23.0916 143.505 -2.02436
9.37056 124.739 -3.69842
17.2054 131.375 2.72184
-19.0515 132.013 1.81495
-16.3646 137.707 3.51597
3.59919 141.238 4.95371
-22.5635 124.712 4.66391
-0.365351 137.88 -0.41391
4.95741 111.32 -4.42088
-9.71808 145.225 -3.81953
-18.0639 121.992 9.6734
-7.58469 119.975 -2.52407
20.8551 111.1 17.09
16.0883 129.373 3.69746
23.9749 133.328 -3.97036
17.0573 125.806 3.16175
19.9539 116.138 15.2372
24.0779 124.894 0.857362
15.4834 120.624 4.44086
-7.36268 137.333 6.64897
6.69657 132.733 -3.50433
-18.589 135.135 10.8673
7.20867 118.639 -2.87968
17.5486 113.776 9.00302
21.6541 122.961 -8.13229
17.3659 146.744 -1.12818
13.9074 142.537 -3.9889
-10.5962 139.127 9.41389
22.1508 131.3 -4.91805
-13.3097 127.43 -3.90998
-21.8746 120.34 3.19077
-15.9486 124.285 9.94104
4.25439 122.381 8.72698
18.7254 143.948 -3.36336
13.8286 112.222 -3.91654
7.06633 148.442 -4.77048
-4.36754 126.505 -1.19397
23.9901 137.73 -2.22722
3.7467 111.714 -5.38788
16.3947 128.986 5.25852
9.99924 112.35 9.21726
1.37849 107.995 -4.89761
17.5415 130.685 -1.98001
12.3004 127.515 5.99586
-19.1103 120.58 7.93623
17.9508 129.821 -4.18098
17.9245 141.451 5.61267
16.1859 136.868 -2.69308
9.6902 127.319 -4.8874
4.66544 151.923 -3.3397
-16.5649 120.778 2.28811
15.7196 126.012 -2.18746
-10.537 112.216 -4.68091
21.6179 115.828 5.80807
21.6131 146.654 -1.596
-3.8571 140.741 4.1392
-10.2647 122.376 10.3731
19.0369 105.181 -0.542523
-9.0749 147.644 5.38185
-0.744553 120.171 -2.45646
22.7957 128.626 -6.20124
14.4547 126.482 -1.69946
11.1364 136.421 6.69508
-15.0026 123.43 11.1898
21.2761 126.165 7.70153
13.9986 124.153 3.49715
-12.9232 113.973 6.78716
18.7642 148.464 -1.75394
10.005 112.764 9.1808
5.76453 143.113 5.93791
15.7674 144.841 -0.764366
-3.56408 115.638 -1.82583
21.5465 111.018 4.11475
18.5414 139.003 -4.7913
-19.5909 132.913 8.59248
-13.4777 112.38 -5.40364
6.2145 138.552 -4.28924
24.5036 126.18 2.08874
0.277014 125.295 10.281
-21.3402 117.519 12.0408
-17.1508 126.626 0.598074
-15.6063 127.17 1.2598
23.6883 122.421 1.59096
17.1531 119.077 2.08014
22.3206 112.288 4.46607
3.74392 140.848 -2.3119
-19.8733 124.998 0.573174
15.6046 137.783 3.31765
-13.5414 123.522 7.34253
15.4662 114.546 -3.36323
7.00464 113.389 10.9913
15.0084 137.913 6.82604
19.399 144.074 4.26796
15.4554 135.508 2.7281
13.5253 133.079 -1.56506
1.4979 135.293 5.84277
1.16364 136.944 5.12052
-17.0402 127.107 10.989
-6.99129 142.655 5.69225
-15.1224 129.131 1.49278
-5.37555 122.582 -2.08532
-19.52 121.414 7.77032
-16.2954 126.938 10.6766
23.8979 111.262 9.8653
23.7609 123.368 2.7007
-8.5063 122.25 -2.89766
11.0132 141.869 4.85415
-3.88098 110.972 10.9883
16.9518 132.834 -2.93621
-4.79605 136.842 -2.93837
15.7658 136.905 2.56699
10.326 117.123 8.79514
14.2289 141.449 -4.71575
4.05214 134.697 6.50051
7.30062 123.656 -1.206
-15.7664 117.932 5.49119
-8.06164 123.402 9.0951
14.0002 132.309 2.23331
1.27158 139.908 -0.942921
-4.25396 110.785 11.016
15.8232 124.577 -4.83731
6.83496 108.126 -4.65603
19.8407 103.46 1.41895
23.2743 133.211 4.26894
14.3706 134.113 2.06723
-5.90114 107.001 -3.54838
14.7385 124.776 -4.78141
-22.5234 119.895 8.15815
3.66549 136.488 -1.1338
20.8538 121.447 0.548459
-14.21 134.66 10.5132
1.40482 122.674 10.476
22.3744 131.264 -4.82207
-18.2426 121.117 9.03651
5.45246 142.969 -4.30438
3.42231 154.563 -1.70423
19.9059 114.389 16.0154
-16.4311 113.566 -4.67741
-11.7133 118.291 10.2815
15.1977 131.389 2.94497
-12.9231 110.495 5.86262
14.6679 146.063 3.61695
15.8338 134.944 -5.68857
-17.8199 121.754 10.8796
18.3501 117.559 3.27569
-11.1798 122.978 -3.529
-11.1562 124.771 8.35829
-9.34273 113.448 11.2304
-2.84707 135.479 5.49722
15.7643 122.292 4.32743
17.8677 130.27 -1.07809
19.8918 115.846 15.4234
-11.2873 125.107 -4.32824
-5.4164 124.584 -1.86077
20.7018 119.053 13.3015
11.255 136.493 -6.60955
12.2859 118.133 -2.67395
24.7026 112.097 13.3808
22.468 109.565 17.5035
22.5283 144.776 -0.237837
-19.4973 124.589 0.649166
-12.8502 118.042 -4.85248
11.2778 111.196 6.44346
-15.2989 121.985 8.17034
-6.95441 114.765 11.9553
-7.03303 151.482 2.41238
21.605 144.232 2.84935
-17.3073 119.619 5.53334
15.394 142.133 -2.32305
11.0558 122.766 6.52259
9.45719 119.575 9.59606
-20.7615 125.912 12.9154
11.3978 141.566 5.36049
13.994 151.466 1.43129
11.3448 120.893 -2.81187
-5.62558 118.672 11.1056
-20.6329 130.806 8.52209
-15.8609 121.626 5.91688
11.7127 113.48 5.96519
14.6349 132.6 6.87612
17.8664 112.748 10.6772
-6.71013 149.58 -3.31942
-0.311349 147.218 -1.63893
-16.0838 126.425 0.642364
-20.1552 118.844 5.97571
13.1991 133.276 -6.73155
1.08965 138.914 4.71381
21.6092 114.558 14.9406
-1.60993 116.747 -2.54733
-17.1284 135.994 4.19377
-21.4508 118.264 12.7948
19.9236 122.532 -0.833067
-18.7645 109.276 1.41977
-3.72431 113.71 -2.17727
11.4434 148.355 -4.44889
-2.90599 123.582 -0.805532
17.3159 115.638 12.7357
20.439 137.967 -4.93903
4.76615 124.716 -1.86463
7.39712 112.52 10.8444
9.30452 115.807 -3.90743
24.8295 127.996 -2.4019
22.385 144.454 0.972635
-12.6629 119.938 8.64784
12.3785 121.125 -4.24888
-10.3586 115.743 -4.50523
12.2577 145.716 -5.58625
2.71837 114.532 11.1408
10.351 142.134 2.96501
-15.8312 121.409 7.58392
-13.4976 116.97 7.60565
12.9119 123.222 3.77757
-14.1128 108.114 -4.29535
21.3311 129.09 -4.27834
-15.4652 128.014 0.964085
11.1889 121.145 6.51984
22.5414 131.927 4.85465
-20.8964 130.445 11.1044
-20.2215 120.327 12.0302
11.0764 118.373 -3.0013
-18.4042 125.337 12.8937
-14.8081 122.702 -4.72283
10.9362 142.779 -6.50574
11.7929 104.457 -3.45443
-21.8719 117.288 12.4407
17.8266 122.768 0.818979
-17.2654 133.711 11.3305
14.2124 130.792 0.899227
-2.44665 131.696 6.17945
-6.78529 151.958 1.54344
5.29422 114.221 11.243
-10.441 123.773 -3.92143
20.7775 144.71 -3.03443
10.0824 149.978 1.20859
14.7203 138.503 5.58064
-15.5161 123.68 10.1119
-15.8672 141.49 5.0082
18.0179 122.947 13.4872
23.0779 118.664 10.9227
-17.7136 119.632 7.14377
25.7217 130.485 3.0332
-8.36512 140.486 7.35212
-14.9279 122.96 0.0462767
11.6856 143.56 -5.9615
14.3369 128.687 -3.31446
-11.5208 116.006 -4.81929
11.2517 120.947 6.40172
16.0833 113.954 6.11181
10.5269 119.875 8.21269
13.0437 151.142 -0.56438
-3.16508 146.565 -1.82664
18.1803 113.075 16.7096
-16.4479 118.084 0.84891
-20.7389 120.064 9.25505
-16.1663 141.013 8.2645
-2.65547 114.029 10.3486
23.471 109.704 16.777
11.8125 122.038 -4.8965
18.8294 145.13 -2.71434
-8.22682 144.182 6.88365
24.8256 139.507 -1.12953
-15.4647 126.186 -0.090264
9.12169 153.318 -1.51269
2.22208 136.181 5.57538
17.9923 113.001 11.7604
-13.4095 123.788 9.77887
19.2129 123.362 2.00383
11.8111 132.788 5.18278
-1.36308 115.8 -3.13094
10.0708 104.269 -4.37739
22.7568 125.753 -7.53166
-15.1719 120.595 6.94292
21.3467 117.951 8.24501
16.0837 141.611 6.10075
-13.5253 123.607 8.36406
5.63265 110.518 10.8885
3.73091 125.604 7.89317
-19.0072 108.335 -2.40032
18.8406 125.197 1.10246
17.6081 106.33 -1.37448
12.5634 143.064 1.62306
21.1449 117.552 8.24411
16.2964 136.239 -3.41897
-10.8533 129.402 8.60556
19.4941 117.77 5.30213
-18.9585 134.317 5.1386
18.4385 110.371 16.1574
-17.7736 121.566 7.45501
12.2702 115.807 -3.17164
5.53384 112.112 11.1222
6.82226 138.769 5.91394
18.3265 117.643 2.747
23.1107 121.62 0.874267
16.1232 118.582 5.31013
17.9346 126.333 3.8756
11.1572 128.602 -5.27795
12.5561 144.343 1.32153
5.61516 126.543 8.45124
-13.4598 145.287 7.35323
-12.376 121.688 8.94311
-20.9321 119.277 9.80548
21.8455 145.419 0.713815
-13.6032 120.245 7.54825
-8.09712 141.362 -4.87365
-23.4677 120.636 5.52026
25.0062 127.767 -3.48166
-14.8512 132.798 0.758487
-22.4782 120.774 9.89529
2.80878 140.484 -1.71001
23.5094 123.344 -0.194347
13.7299 128.479 0.386921
-8.14906 139.756 7.08578
-19.979 119.96 1.05429
-1.81594 130.359 -0.337098
-5.95276 128.837 7.44342
-6.75074 115.151 -2.48601
-11.4211 135.094 -3.52274
-15.5322 127.73 -0.044493
0.771723 140.781 4.42584
24.6303 129.636 -5.10113
21.3313 124.808 4.32113
24.4899 126.865 -1.8601
16.4245 136.2 -5.75437
22.634 144.332 -2.07204
8.23539 121.147 -1.42892
-7.84536 122.287 10.7419
12.6457 134.633 -6.75755
-19.3946 110.32 -0.918001
12.6158 130.51 -6.6544
-18.1828 136.744 10.1325
15.6185 116.632 -2.8604
-18.1045 130.289 1.34774
9.36819 148.447 1.61302
-9.75965 149.98 -0.420495
-7.45016 128.284 7.46652
-0.712792 119.673 -2.59266
11.965 134.316 4.05273
-14.18 106.301 -4.16447
-7.09752 125.536 8.70568
24.3383 130.704 5.60744
6.65941 111.037 -3.4297
-20.313 120.591 11.2399
8.30355 141.44 6.46492
12.7807 148.82 -3.36932
-7.64613 133.096 -4.99327
20.4726 122.325 12.0778
20.0749 123.325 -6.84037
-7.32793 135.869 7.30788
2.43023 105.381 -5.18769
16.4461 123.408 7.32366
18.6712 113.999 16.8362
-16.1289 121.302 5.5518
3.00292 141.473 -1.97448
15.3883 124.52 -4.21122
-22.0759 126.665 8.94101
22.1889 115.759 6.22659
-7.6322 142.521 -4.75928
-15.3802 107.005 -4.9114
-10.2769 149.6 -0.985476
-22.0049 119.925 8.94524
20.6243 125.91 8.34733
18.6087 116.838 3.36821
-14.468 123.765 7.96709
19.5781 122.539 9.8465
17.1988 110.489 8.66871
-9.04055 113.398 -3.94649
15.226 142.254 5.06577
8.45293 146.016 -5.74497
10.4354 126.282 -5.102
4.90278 137.367 -2.47663
0.16786 123.731 10.4298
9.45444 147.214 -5.67844
24.2765 129.763 -0.528008
-2.99954 130.809 -0.863025
16.6392 126.232 5.39455
-16.7661 122.689 10.0378
20.6999 124.242 8.26524
-13.1207 120.954 -4.56757
22.8162 114.568 4.59279
-21.9859 119.271 10.046
12.96 106.534 6.23008
-11.5326 114.597 7.77621
15.4224 129.518 1.47459
21.9489 128.686 4.86623
3.71036 113.545 -4.68429
-9.46275 111.536 10.5493
17.6049 112.701 13.4629
23.2908 132.338 5.5398
15.1155 133.165 -5.05623
-9.62025 108.274 -3.94246
0.843661 126.822 -1.80321
-8.419 122.651 10.1247
24.6154 114.768 10.1368
11.0422 116.697 6.60856
21.3413 125.259 4.44287
15.3207 140.719 5.97963
-21.1737 126.332 2.26391
15.6621 131.269 9.12617
0.418092 114.976 -4.46108
-21.5229 129.094 10.9836
-14.248 122.249 7.08484
25.1677 127.585 1.13546
-14.217 135.89 -1.66361
18.0489 143.548 -3.46712
1.57778 139.056 4.73963
19.5852 146.047 3.34195
18.0257 128.321 3.50431
-7.7353 132.104 7.38619
-20.8501 119.783 9.44367
14.2693 132.509 7.10235
20.5848 123.912 8.27075
1.2954 114.43 -4.83024
11.2483 127.225 -5.48287
16.0096 128.679 -2.23534
2.91143 109.683 -4.9643
6.9686 114.788 10.9451
-20.4193 130.357 6.27898
-13.9962 128.74 10.821
11.6697 119.237 -2.95374
-3.40666 127.893 8.20536
-5.8589 138.392 5.53372
1.709 124.278 -2.56532
24.2414 127.673 5.16738
-5.7291 138.142 -3.97513
-6.31196 152.106 2.03411
-2.14964 139.162 4.39637
-2.22993 111.296 10.2658
-19.563 122.247 1.34694
4.61216 109.871 -5.45119
-5.46109 145.768 -3.55742
9.71381 131.505 -4.84598
24.2918 125.912 -7.67312
-17.5641 121.729 9.49805
19.404 130.63 5.77376
6.4818 137.257 -4.34071
-2.48609 147.392 -1.67849
10.8307 110.577 7.27069
16.0324 114.157 -3.12521
-23.2108 123.583 5.83067
-4.90551 111.581 -2.55079
25.4346 109.476 12.4738
17.3964 132.026 0.232664
13.0139 112.458 5.47928
3.1131 127.868 -1.82923
17.5855 125.122 2.60893
3.63205 147.488 -3.29259
-4.61455 129.988 -1.97176
7.46459 155.127 1.49028
6.45581 122.008 -1.58123
12.4578 113.327 5.65387
-22.863 121.553 9.97137
-15.9264 118.59 -1.56833
11.3265 131.554 -5.79242
22.4182 138.971 -3.50683
-14.9139 135.183 11.1498
17.7077 122.369 0.423348
11.8959 143.683 -5.83279
-17.779 120.06 -0.426692
-23.0857 120.843 12.7654
-10.1596 112.146 -4.44572
23.4462 140.318 2.26815
-23.2393 125.06 6.66235
-21.0159 119.523 8.76507
24.0203 123.825 -0.290003
-17.3152 119.723 -0.738193
16.6099 131.333 -5.02953
11.0187 141.85 2.8997
-17.2417 134.348 1.65693
14.1187 126.372 -5.95199
20.8243 132.842 5.50148
19.9442 110.672 1.14501
-19.1166 107.678 -2.32647
-21.0656 121.392 2.46917
17.7995 113.495 12.3216
20.0244 141.233 -3.85601
16.369 130.859 -0.537936
18.1009 127.289 0.0342202
-20.7118 130.066 7.06465
1.25883 107.567 -4.9131
24.2491 141.493 -1.17839
25.4766 126.088 2.00048
4.39487 136.261 -1.65058
22.0891 126.03 6.63632
23.033 116.58 12.8149
-20.3985 118.187 2.01353
-2.31819 143.224 -1.40719
20.8931 129.781 -4.5161
17.7692 107.975 -1.46808
-15.5204 139.096 10.6763
14.5064 126.354 -1.44612
-3.37846 135.732 -1.55975
0.329826 132.727 -0.39261
17.6191 117.008 2.67297
-16.6082 117.235 1.74548
15.4057 136.46 2.37501
20.2749 128.289 3.9414
-8.99767 148.813 -2.87831
24.9932 133.433 1.15383
24.3343 127.053 4.65407
22.1792 130.143 4.48827
-3.08567 114.867 10.2843
2.60454 109.857 -4.87062
-5.09733 128.993 8.04179
15.9107 132.08 5.96848
-9.52993 123.349 -3.42722
12.3533 109.545 -3.00768
-14.5043 128.06 10.9941
-1.95677 116.279 10.6007
16.1666 149.046 -0.952542
21.1587 129.732 3.25934
-7.1991 138.548 6.41869
9.75362 143.657 6.23665
6.30054 127.224 8.89288
1.42572 122.238 -2.99522
21.2769 111.238 16.8776
-9.20189 148.292 4.46515
-19.0101 114.389 -1.47902
1.59492 132.347 6.54862
-11.5209 136.628 -3.51107
-20.1395 118.234 1.66022
-10.1821 127.278 8.16323
16.1532 128.25 8.94797
-2.31257 129.414 -0.412744
15.2284 108.228 6.58627
17.133 130.903 3.94067
-18.9344 108.681 -2.48206
15.5459 142.429 5.62839
24.8359 130.169 -6.85277
-8.18173 111.294 -4.16641
16.9774 130.789 3.711
14.9574 139.077 4.60656
-15.1584 126.084 -0.885497
20.917 134.871 5.83148
18.2669 109.858 13.869
-17.8963 124.68 0.356124
7.71447 120.055 -1.75086
2.10029 144.545 4.74391
-0.0424391 148.08 -1.84987
-2.86312 137.519 -1.68765
7.68116 103.235 -4.92212
23.9563 126.322 -8.18992
14.4107 124.846 -2.37957
-14.6826 123.265 10.1339
-5.9225 134.344 6.87888
-13.35 132.029 -0.823911
16.5441 119.541 9.04382
-12.1907 115.82 8.89928
19.8341 110.196 17.54
-11.8328 147.583 3.53194
11.399 133.425 4.6859
-10.6064 149.343 0.128593
-17.4009 120.85 5.34328
-4.82654 144.093 -3.0824
-0.0218779 128.802 -1.04621
-15.6375 120.632 0.993738
9.35284 125.16 9.31274
25.0077 124.596 -8.11911
21.6256 120.261 4.43173
13.3859 132.147 -3.54282
-15.5032 130.504 0.496037
9.45397 110.953 -4.25347
-23.9919 121.543 6.65024
10.9871 152.575 -0.659321
-14.8638 131.825 -0.163897
-8.57328 124.645 7.71033
5.17813 109.735 10.7803
16.2768 146.486 -0.566833
6.91007 108.574 -4.34109
-19.3886 122.214 1.13367
14.5815 125.218 3.40502
-15.5775 116.627 6.61137
-7.49404 151.102 2.58259
20.2205 137.799 -5.02172
14.8962 123.46 11.3332
24.4196 114.22 9.99579
-17.9541 110.512 -3.85269
17.14 134.551 -5.85674
-12.9337 124.841 8.52222
14.7092 148.997 -0.830147
-2.82653 145.132 -1.61345
23.3755 105.221 7.26628
8.58317 110.391 10.3181
4.31355 103.724 -4.15843
9.86481 151.507 -2.80831
19.4987 124.371 -6.40408
21.6988 124.797 5.29503
-7.43477 153.003 0.428666
-1.2652 112.182 10.1031
-16.2465 120.444 2.69624
17.6936 128.783 4.19166
-20.9224 118.726 2.31654
2.88256 110.712 10.4864
-13.4075 126.16 11.3619
-13.3485 145.281 6.05555
-0.877376 120.08 10.5516
-17.7019 123.271 0.0149183
3.38324 117.624 -4.26747
10.949 127.595 7.58064
10.4952 135.412 7.26554
3.43795 111.247 -5.24663
18.1698 128.086 3.28312
8.27159 124.916 9.21742
7.96422 137.609 -5.4194
13.273 114.395 5.20623
16.2761 111.519 6.84492
7.07749 134.061 -4.23
24.8437 127.687 0.553174
20.6354 116.331 14.4479
2.98263 111.702 10.4907
23.5363 142.959 -0.0685223
17.9612 135.286 -5.68701
10.4112 116.026 8.64076
21.0291 116.466 6.76389
5.06981 109.872 -5.06433
-13.3156 137.46 -2.46971
-16.4147 119.393 2.43135
17.897 125.976 11.7099
9.37151 128.255 -4.61666
-3.50479 149.443 -1.95663
3.43854 152.919 -2.90897
-9.79682 150.098 -1.75139
-6.72554 133.966 7.09576
15.8169 127.05 2.91356
-18.0812 114.472 3.27809
-4.97698 125.812 -1.41799
15.4542 150.055 -0.646128
12.5592 123.413 -5.48495
5.05673 127.383 -1.10946
-8.66076 135.012 8.91795
11.0369 137.343 3.66259
-5.64772 138 -3.81643
20.6377 147.9 -0.793
-0.791629 103.893 -5.22267
-13.6302 137.945 10.3978
-7.31331 140.333 6.40513
4.13474 130.785 8.06448
-20.8508 128.123 5.13661
15.4212 135.104 5.06511
16.1176 118.194 12.4197
17.5491 124 13.0899
6.86383 108.459 -4.444
7.11326 136.142 -4.65616
-14.0263 125.492 -4.00338
16.477 135.173 7.06963
2.04372 119.802 10.2531
20.1414 130.072 4.40114
23.6347 116.87 12.3975
16.5746 127.865 4.03593
18.3143 123.184 -1.03807
17.9407 113.733 10.7216
-8.16601 132.669 -5.3884
13.0195 136.389 2.1284
10.7569 134.984 6.55851
20.7887 137.413 4.88484
17.8907 107.952 -1.43725
23.9892 132.877 -4.22207
-6.90367 154.629 0.252222
22.6994 116.001 13.359
14.2257 128.045 1.38091
16.9981 129.411 -1.39951
17.1098 119.325 7.77782
-14.6085 131.956 9.82299
-4.567 121.053 -1.44429
17.0937 123.916 -0.4869
-8.06197 137 8.55713
17.1302 130.979 3.52357
11.7458 135.436 -6.59504
-12.6149 132.608 9.28301
18.4526 127.1 4.54235
-6.3528 153.558 -1.07346
25.6939 135.308 -0.647782
-5.04303 132.754 -2.23166
25.4668 131.858 1.51285
-7.09432 139.573 -4.85628
-3.8934 104.187 -5.15067
-14.4549 135.861 1.12865
9.04887 139.785 6.41247
-4.89907 141.553 3.84761
24.9122 128.199 -7.13401
14.1361 149.271 -2.1813
-3.66012 114.388 -2.05868
5.95646 131.681 -1.65968
4.70473 142.574 -3.55969
0.58095 123.996 10.5212
-7.5104 114.022 11.8442
16.4619 126.94 9.98141
17.3282 116.28 9.42877
24.493 139.456 0.921203
-14.6503 128.189 10.9164
-1.15984 113.924 10.1174
-20.8887 128.326 6.11323
-12.9019 125.56 10.4567
9.29802 112.964 9.7646
-17.1325 120.223 3.669
24.2339 105.175 8.40158
-0.736818 153.809 -2.13094
-9.9332 130.863 -5.95553
-6.43236 127.926 -2.71217
18.4515 144.848 -2.79386
5.59222 127.638 8.60735
-5.46762 144.219 3.92289
-6.58778 107.878 -3.83299
-15.3897 129.057 1.17209
-9 130.582 -5.90695
-18.4084 119.288 1.51046
18.8849 113.994 16.918
20.0788 131.895 -5.14687
-11.5129 124.748 8.1608
21.9103 122.759 4.75514
-17.6355 130.528 10.4609
3.41438 141.035 -2.15895
-13.8081 143.816 4.59123
-9.70456 127.762 -5.36145
16.8394 140.949 6.10516
-4.01737 149.341 -2.17063
19.1921 118.111 3.87967
-12.1632 118.408 -4.81785
12.5131 129.431 -6.4773
-8.03531 134.117 8.15884
-15.4278 119.48 -4.49364
-22.3396 119.79 7.91275
-12.9928 120.887 -4.57315
-14.7642 109.473 -4.85508
25.7091 132.264 2.01143
10.7043 140.032 -6.78683
20.8632 136.114 4.98966
-9.17215 138.501 9.09554
-5.78496 108.647 -3.38534
-23.5841 122.035 6.06219
25.2388 126.008 -7.79267
13.6734 102.439 -2.77959
-18.1644 128.262 11.0111
3.85624 128.876 -1.3003
-8.33381 119.768 -2.81019
-5.1138 117.779 10.5694
11.83 132.598 5.79156
25.5337 135.445 -0.235484
7.17937 116.416 10.7585
9.82266 111.652 9.44486
16.2278 143.862 -1.67713
-18.0273 119.408 1.23913
-19.0531 123.54 1.30217
-12.4314 134.206 -2.15764
-22.4804 125.888 6.448
-4.09336 131.27 6.45765
15.0974 135.898 -6.31376
11.0311 148.761 -4.57633
2.87992 144.426 5.145
-17.4364 115.61 4.32904
5.96148 138.234 -3.9017
11.4793 125.687 6.81634
-8.20226 128.915 7.37954
-10.2418 116.508 -4.56003
1.43101 113.797 10.678
25.5138 109.57 12.8094
9.6246 153.552 -0.976853
-13.9922 114.359 -5.05158
-7.24134 140.218 -4.83596
-15.4295 130.445 0.959109
0.930646 114.114 -4.75884
22.7916 136.202 3.72006
9.10052 141.897 6.1588
9.2643 151.461 -3.55403
-2.46134 117.453 -1.83499
16.1911 132.643 -0.343447
-8.85103 131.155 -5.92454
15.3974 121.006 12.3647
14.7106 131.329 2.43296
13.5529 110.427 -3.17483
18.8249 128.183 6.79031
19.351 126.359 4.40429
22.3963 117.579 12.9009
-12.5736 141.464 1.564
10.3283 148.092 1.2723
-13.2896 136.719 0.456581
19.0826 128.498 6.85234
-13.4224 140.374 10.2698
21.8183 120.894 -2.18512
14.0013 135.823 -7.07066
11.7757 133.149 4.21034
-17.3271 106.959 -2.90262
-22.2794 119.072 7.04795
-13.2622 144.252 4.56815
16.8431 128.047 4.40614
17.2628 115.757 12.6822
15.9596 128.764 -0.84038
11.1014 124.663 7.11825
24.3811 138.758 -1.4739
22.6081 135.003 -3.3116
7.25007 109.488 10.8657
26.0958 132.294 -3.30639
-13.5249 126.122 11.4159
18.0797 109.781 -1.44352
19.8729 121.931 9.39929
-13.6432 129.307 -3.15572
-17.2057 121.403 5.36806
9.16315 110.452 10.0601
-0.100584 104.039 -5.06272
-21.2056 129.205 8.76838
-14.0407 121.418 7.23324
-15.8888 137.051 1.75883
20.2631 125.38 4.92847
16.0088 131.389 8.74132
13.0679 148.138 0.912186
-11.9869 128.98 -3.90493
-6.6355 143.582 5.13075
8.96644 110.607 -4.04905
-16.1567 121.335 1.04148
7.97078 143.043 -5.6428
2.78698 139.083 5.15633
-8.47053 131.924 8.10411
-16.8629 120.084 5.02982
12.3435 114.792 5.45311
-12.9698 138.93 -0.630681
-15.519 121.134 2.87854
21.9298 111.65 16.5309
-3.90581 132.496 5.93158
-10.607 149.161 3.56942
-1.36039 114.013 10.1299
7.67444 155.08 1.43375
-12.1273 140.68 -2.08378
-13.9298 125.311 -3.96807
10.1111 111.31 9.08423
9.19071 108.142 10.0431
8.83521 116.586 10.0244
14.2855 135.947 6.94387
18.2903 128.219 2.36085
22.3191 124.032 5.39332
-12.7974 120.222 8.32884
-11.7866 110.411 8.04285
-19.8821 130.686 11.5477
16.9646 131.613 -5.20593
-2.91799 125.432 -0.641576
1.62535 132.703 6.49081
-11.0662 143.512 9.18484
21.7546 128.874 3.13285
16.8499 128.114 4.43885
21.2012 146.911 -0.0433385
-10.8207 146.725 -2.01487
17.3023 129.927 4.35405
-17.9885 137.636 9.56971
14.8497 106.626 6.72951
11.0156 119.201 -3.1102
13.971 142.166 -5.39865
6.34524 151.922 -3.51322
9.1129 154.852 1.32607
-3.04853 133.073 5.57109
17.1228 111.15 -2.33237
17.7993 128.772 5.17116
-6.12936 146.096 -4.06448
1.44242 120.069 -3.63999
1.03299 132.164 6.58132
2.27486 126.766 8.01662
26.1281 127.601 2.79318
0.616225 114.801 -4.55223
8.96002 147.643 -5.58769
-8.4048 130.279 -5.11131
-17.341 121.437 8.15192
15.8672 135.124 -3.61228
4.47204 127.424 -1.41678
18.7637 128.369 -4.53238
15.0546 138.063 -2.44654
11.5222 137.196 6.36718
22.3427 137.998 3.3321
15.3426 144.988 3.85725
11.2422 135.747 5.18046
15.4838 110.618 6.21721
-10.3497 143.322 -3.36057
4.85248 126.071 -1.52219
-11.047 116.755 -4.84753
8.07463 109.467 10.5778
3.73352 111.248 -5.34657
14.421 144.286 -4.29071
20.9332 124.454 4.69434
21.8484 130.046 -4.58041
11.9879 107.975 6.3262
-3.49227 133.539 5.51166
-10.2411 112.922 9.88637
16.7712 128.837 4.33138
24.8297 121.06 -0.478886
-8.0004 150.839 2.05089
5.28843 139.297 -3.49384
10.5013 113.917 8.54227
-7.45154 137.01 -5.27043
-16.6384 119.922 2.83823
20.7675 123.477 3.90878
21.0101 110.476 3.44825
9.86989 138.33 6.56485
0.386454 129.708 -1.17498
24.9979 112.979 11.8992
-20.5586 118.099 10.5044
-14.0326 115.89 7.1433
23.6426 124.594 3.68199
20.2916 121.662 -0.616482
15.7014 121.162 -1.00041
-18.8173 109.098 -2.66225
11.4069 146.977 -5.65728
16.6234 130.499 3.34081
-14.3337 111.707 -5.42781
12.4334 131.622 4.04429
-14.935 130.529 -0.0674799
-13.9445 107.871 -4.16851
-14.3623 126.917 -3.12714
24.5184 126.184 2.12871
6.03146 143.364 6.03242
-17.2673 135.357 2.47306
17.3926 123.943 -1.77735
24.376 131.101 -5.27014
6.25522 115.396 -3.34662
-7.76541 115.733 -3.09887
-16.7204 122.836 -0.390202
19.4655 126.714 5.25463
-21.3125 129.003 9.31051
20.3065 133.096 5.74539
-6.66755 123.974 10.626
0.813094 132.808 -0.397918
6.78987 134.275 7.72112
14.5785 143.342 2.78474
-11.8205 119.788 -4.78217
1.2902 110.573 -4.53601
-0.140246 143.664 -1.15836
21.2683 104.066 4.61937
-19.7474 118.58 2.44746
-6.06435 134.902 6.65333
14.5563 136.015 6.9956
23.8191 123.898 2.99366
13.2546 128.866 -0.573499
9.39017 116.297 -3.98525
17.538 125.358 3.21194
17.5814 136.978 6.4166
8.87384 118.798 -3.23232
17.3578 113.8 13.7592
14.0349 118.538 4.4406
24.1604 131.49 4.95522
25.3597 110.433 12.2788
21.9452 130.568 4.1635
17.346 134.528 -5.80656
-18.2419 132.265 1.02366
-15.9886 121.723 -1.49928
-15.3295 121.259 7.6226
23.4471 106.732 7.3431
17.3644 115.329 13.0126
-17.1236 124.643 12.2285
-20.063 120.71 10.0731
-16.6522 119.845 -2.96766
17.4866 111.988 15.8468
21.2883 111.666 16.8191
21.632 129.445 -4.36518
16.4324 125.222 -5.47332
-14.5169 132.576 -0.0390591
10.6081 114.166 -4.41983
-1.19232 123.374 -1.4235
-20.6997 117.158 3.75162
-15.0356 138.039 1.86507
-5.43694 125.368 9.78905
13.9551 117.966 -3.10505
-7.91001 114.668 11.7335
14.4649 125.566 -3.87096
-11.7048 111.799 8.07578
-10.7843 132.858 9.91003
25.8834 138.509 -1.09361
-14.096 136.185 -1.83918
22.8177 117.381 12.7314
16.1101 137.556 -4.14683
15.5915 120.083 11.1959
25.0648 138.426 0.722843
-20.127 126.498 0.669221
16.9004 121.746 7.61636
-9.85496 110.021 -4.67322
12.7237 124.558 4.23273
22.3391 122.711 2.58161
7.87029 143.416 -5.59113
-2.90881 145.913 -1.66624
-14.2018 134.354 -0.602935
22.216 127.1 4.90079
-0.411521 131.459 6.53657
15.448 114.272 5.6113
-6.45431 133.308 -4.12853
15.9942 111.391 6.54922
12.429 127.24 5.74522
23.4429 121.948 1.08023
-21.0778 117.865 5.01774
20.6151 145.132 3.30812
17.4076 114.498 16.1361
-14.1816 125.387 10.701
3.03794 124.367 -2.8625
-16.1996 120.949 -0.129876
-5.33314 132.459 -2.36871
19.3465 120.426 1.90747
-9.12086 126.982 -4.27705
-15.8484 110.496 4.61688
13.0528 146.486 -4.50289
16.0041 121.098 4.82148
-4.77582 128.999 7.97352
-5.77639 124.068 11.0699
-14.5997 112.11 -5.36218
-2.04056 106.435 -5.19134
25.8828 130.868 -4.57979
-14.5398 117.049 7.32859
-7.73034 136.345 8.2533
-9.46152 140.347 9.05192
18.525 118.597 14.5959
-18.1459 132.507 11.0694
7.74317 152.752 -2.87375
0.417225 109.943 9.95278
13.9316 132.857 -6.54866
12.9869 110.438 -3.2062
15.9714 125.181 -1.76599
-17.1993 117.985 2.39974
13.2378 130.246 -0.738312
18.3119 126.813 10.0191
14.9295 115.691 5.15577
-12.2568 113.276 -5.25848
-2.53312 140.762 4.28782
15.434 146.75 -1.03235
-15.2004 127.791 10.8393
15.4048 129.567 0.912633
20.1234 118.458 3.8134
7.27283 154.062 -1.32467
23.9129 127.736 -7.02578
-13.304 123.961 9.30946
-4.9411 131.872 -2.13731
-22.8897 125.783 7.59489
11.2054 111.97 6.62529
-14.2251 133.012 9.83348
23.3342 138.177 2.8667
-13.2215 123.838 8.39347
10.3653 139 -6.69427
10.9168 124.661 -5.21242
5.71155 127.423 -1.01424
19.6553 130.418 6.99422
25.0066 107.836 11.6861
-6.37346 135.689 -4.82546
21.0259 116.383 6.57658
18.0351 122.945 1.1667
-8.0318 125.428 7.49527
23.3381 126.523 -7.7707
-9.49535 134.509 -5.26803
6.44123 146.465 -4.77767
-18.1076 119.563 -0.203246
17.071 130.588 2.53885
19.6487 128.406 4.09834
6.56208 139.222 5.75774
-0.628914 140.765 4.43963
13.2721 108.421 -2.48431
11.5114 120.171 -2.93066
15.8369 131.404 -0.598284
19.3597 123.381 12.9753
20.8344 120.797 12.7632
12.8504 123.524 3.91196
-14.4526 124.005 -4.47101
-5.64935 149.501 -3.2387
15.8212 119.305 -2.20953
-9.82027 134.544 -5.01393
18.8101 123.543 1.34371
17.1824 126.961 -1.19307
-17.998 121.265 9.37925
-4.27924 134.105 5.51666
-18.883 130.22 1.50175
11.2665 143.054 -6.27886
23.2496 108.319 7.4139
15.0199 143.089 -1.82573
-5.64116 132.459 -2.56009
4.47234 120.954 -3.07739
7.91475 152.376 -3.31566
-15.0504 122.516 0.0616831
16.1151 127.228 7.42043
25.2449 132.312 1.21144
11.236 143.166 2.00893
8.01114 122.619 -1.36121
-7.95894 151.478 0.174074
-20.058 118.003 3.35439
7.75324 107.851 -3.97512
-12.55 121.567 8.76837
-20.3774 130.675 6.94917
-15.3425 122.967 9.18021
19.5626 115.136 15.9514
17.4707 131.05 -2.56963
8.5212 144.222 -5.90484
-15.4127 125.332 -2.24672
16.033 140.082 -3.42489
13.544 141.026 -6.3165
16.213 134.773 -4.3307
-5.98238 151.541 2.51537
14.9002 128.382 -5.02626
20.8745 111.749 17.0003
-12.3673 129.333 10.1993
19.386 134.363 -5.11705
10.1728 152.717 -1.00598
-14.5381 127.753 -1.02767
-15.0141 123.104 9.78449
7.09552 140.341 -5.3536
15.3777 126.147 0.275312
-10.9952 142.023 9.7524
10.3435 153.544 0.833934
25.1613 112.061 12.3823
21.6139 145.728 0.937012
-20.853 118.951 9.89078
24.0786 113.003 13.801
-11.9199 144.599 1.48761
-6.95902 151.443 2.84506
-14.5489 121.699 -4.49423
10.6324 122.488 7.47714
-9.49542 142.286 8.89923
9.20075 135.88 6.66755
12.4427 131.718 3.90862
14.4931 119.047 -4.27571
-14.0885 108.921 -4.43102
14.1663 113.28 5.26411
2.41669 116.226 -4.69807
-15.9858 111.51 -4.97665
6.06859 142.467 -4.62483
10.3787 141.043 4.34577
-15.5823 122.82 8.8667
15.3165 138.011 3.84336
3.22887 140.564 -1.96406
17.4487 113.413 8.75814
-20.129 132.039 9.00922
22.5943 118.955 11.928
-1.13891 122.176 10.1819
22.8194 124.575 4.18377
11.06 140.842 -6.85917
10.303 145.207 1.84389
-19.0384 131.812 11.0323
-19.1278 133.793 10.2385
-4.07681 127.434 8.50222
-21.9868 124.605 3.9654
-21.0822 119.38 8.72958
10.4701 143.111 2.27089
4.41038 110.671 -5.2826
2.1815 135.37 5.90277
-1.47821 135.478 5.26349
12.0291 125.607 -5.74703
9.35732 153.008 1.24097
-12.7696 143.678 3.35718
-8.69911 125.18 7.30209
-4.92653 125.879 -1.39973
19.9543 142.66 -3.2863
6.00981 126.983 -1.03608
14.84 131.792 2.50558
21.3981 128.203 4.10546
15.594 118.771 -2.60824
-0.387561 147.899 -1.71975
-18.4712 116.346 -2.50053
1.25865 124.814 9.89608
24.2345 110.954 10.4923
-3.50681 132.034 5.99026
12.7576 140.844 2.76773
-5.12582 118.292 -1.41691
-19.6926 131.774 5.59301
-8.92891 149.367 -2.60944
-6.80266 132.29 7.16105
-10.8478 140.143 9.6571
-9.0107 131.193 -6.12482
15.7869 129.499 7.53168
24.3121 126.301 2.70476
15.5201 128.537 3.10295
16.7023 126.548 10.8117
-21.0576 129.232 7.76871
11.211 139.689 3.61408
18.6656 130.056 0.0634807
18.4812 126.208 11.2304
16.8973 122.311 13.5704
20.4805 121.978 -1.81688
3.73665 130.514 8.06346
9.01074 132.841 -4.40873
-1.18473 144.784 -1.31705
-15.4252 127.747 10.7786
17.5302 131.454 -5.16058
0.303433 147.27 -1.81953
-7.93084 106.333 -3.72403
11.3404 143.769 4.96522
19.5611 146.866 2.70613
-7.90533 105.084 -4.38179
-20.9946 127.495 1.7352
-21.4716 126.155 12.4732
-10.1516 149.802 0.804443
-8.66493 115.091 -3.48763
0.177946 129.366 7.09615
25.3982 108.944 12.7732
-7.75931 143.733 6.32779
18.3489 109.262 13.0029
17.2077 136.819 -5.41938
24.3723 114.564 9.70246
-13.6171 142.701 9.59951
25.8141 130.395 -3.98657
-10.1026 139.847 -3.81746
1.07821 114.042 -4.81798
2.33781 131.348 7.17567
-13.3784 119.279 8.41215
-15.5693 122.66 0.0341949
-8.49517 114.181 11.5286
0.0682587 139.776 4.56263
9.90357 150.596 1.27387
14.0941 123.923 -5.32372
24.2121 114.601 9.24202
-6.2121 127.208 -2.37733
-16.2941 132.971 11.0008
-6.83262 135.088 7.80491
22.0173 119.771 12.2655
21.8693 128.225 -4.8762
-6.70754 129.101 7.10759
9.88146 130.922 7.53199
22.4748 138.544 3.09539
-17.4801 117.563 -2.88431
10.4859 115.286 8.47745
20.7494 116.767 14.0389
15.5288 115.014 5.56248
11.9146 117.123 -2.75206
15.1839 133.452 6.3967
22.3894 124.803 4.36358
3.10181 114.546 -5.01597
23.1885 111.636 7.47137
22.9736 126.14 -8.16907
24.5406 127.729 3.86743
14.8606 126.284 -0.0693881
12.8475 113.998 5.42651
-6.36188 120.234 -2.06622
6.12508 153.526 -2.1669
-21.9324 127.089 11.272
14.3614 121.381 4.05746
9.91249 118.671 9.39469
-18.5173 135.927 7.72358
17.0221 116.933 6.79278
15.1244 121.911 11.803
-0.481009 121.589 10.4365
-8.90105 111.964 11.4218
-2.18499 131.91 -0.450429
0.335163 105.357 -4.78375
13.6586 126.056 -2.34067
14.8013 116.249 4.98009
15.4837 120.152 12.4211
-20.2035 122.029 1.78036
18.1924 118.685 2.3168
-15.5074 130.67 10.0651
20.0742 122.161 1.49809
-16.0142 141.762 5.49174
-9.82808 147.455 6.07591
23.0024 133.187 5.24844
13.2188 132.607 -3.04757
25.2592 131.05 -5.93857
21.3375 134.764 -4.75945
13.933 134.306 7.1996
11.8754 125.094 5.83113
-17.0955 118.824 5.09272
4.04844 118.328 -3.13431
-1.91559 113.304 -3.11615
21.3574 127.075 7.37967
25.1725 125.142 2.05304
-13.3045 140.205 10.2565
-7.62789 118.197 -2.76968
-15.9851 125.028 -0.513146
-5.32921 127.036 8.85386
0.284972 120.477 -3.21263
14.2682 136.843 2.05767
-12.8426 109.661 -4.89624
15.4156 131.3 -4.92182
-3.38987 137.641 -2.11855
-12.7657 135.825 10.7426
17.9215 119.541 14.5398
17.4382 133.576 6.98059
-5.80379 148.704 -3.44607
16.5851 150.654 0.189127
-0.9151 119.91 -2.37252
-16.8154 123.22 9.68437
-9.22728 147.223 6.09649
17.8827 146.321 3.71274
-18.0699 131.327 1.27731
13.7058 128.107 -1.81164
-15.0703 112.571 4.96307
-17.46 137.916 5.94587
-2.14134 131.208 -0.317654
-15.9025 122.712 -2.74931
17.0703 131.499 0.563101
23.0047 109.499 17.4663
-12.5526 125.125 10.3137
23.3489 109.851 16.9686
-8.77943 129.386 8.03942
-8.18582 122.568 10.3037
-9.132 133.242 9.11818
9.4561 108.33 9.70968
11.1709 137.082 3.90483
13.2238 128.475 -6.61089
-10.9732 133.426 9.94978
7.47854 118.218 10.5184
-2.47425 153.178 -1.67843
4.68243 115.122 -3.325
-20.3495 127.443 1.01875
13.2139 138.922 2.05701
-12.541 140.848 1.46365
24.5459 139.551 0.655224
17.9244 123.686 -0.866803
-14.3748 123.62 -4.78139
16.7597 121.14 6.16157
-19.8519 130.918 3.6937
8.84649 142.889 -6.07088
-14.6329 123.463 9.11974
-15.331 125.739 1.1739
-4.50801 133.559 -2.02509
15.7507 121.877 9.17186
16.6275 126.865 10.0878
23.5338 134.86 -2.90541
-17.0717 120.216 6.89218
19.128 119.445 13.9849
11.7697 121.894 -4.47833
6.94836 145.677 -5.08296
-2.2841 130.495 7.90877
-2.55054 139.32 4.18844
14.2525 145.076 3.75041
18.5541 112.416 16.9373
-13.839 110.217 -5.06469
12.0203 110.245 6.13369
12.8247 122.375 3.88387
24.1715 129.337 -5.46454
11.8576 110.365 -3.24418
24.7557 127.012 2.78675
3.65898 113.014 -4.96492
-0.464552 140.954 4.39495
14.7166 128.213 2.74591
15.2381 136.99 -5.74469
-18.4516 131.874 1.43489
15.7657 124.849 -2.94893
12.2107 130.01 5.44014
21.7366 105.75 5.5221
19.5906 115.114 -0.491763
-10.7779 116.984 10.067
-16.7307 119.57 2.86088
6.58278 143.134 -4.91696
15.9384 134.387 -4.02822
-7.41102 126.315 7.58592
0.541431 123.286 10.469
-15.4572 122.134 2.19291
-20.3322 128.468 3.31019
-12.3064 119.429 -4.88053
17.1439 124.305 -1.21924
12.1264 146.121 1.1728
-8.76821 144.886 -4.20788
-12.2835 146.019 7.20684
-10.376 126.224 7.01755
16.8414 142.002 -2.55274
12.1859 127.049 6.09628
21.2132 122.532 -0.440955
-15.6295 120.681 0.220746
19.5848 125.572 9.36806
-15.4338 142.754 6.63832
19.1092 121.312 1.27681
-3.73585 122.214 10.5005
-13.6745 122.991 7.47108
-9.38331 128.898 -5.70597
12.7756 142.151 -5.94576
-5.5502 147.047 3.8057
18.9154 135.426 -5.37371
-3.0136 115.732 10.4495
16.7005 129.246 -1.64294
20.4949 132.658 5.37976
14.2146 109.73 -2.81887
24.4844 131.305 -5.37973
16.8485 133.925 -4.02099
-13.121 118.796 8.976
-4.73543 140.427 -3.07713
24.9737 126.062 -7.87669
21.6408 132.216 -4.81001
2.86182 125.03 8.53084
-5.77706 145.408 -3.77473
-19.7061 132.184 5.85417
3.5854 126.492 -2.12937
17.1728 112.728 8.13095
13.794 131.755 2.35844
-17.9777 116.014 3.59464
-9.81358 116.2 10.183
9.86771 147.775 -5.6011
12.1996 106.406 6.32153
-5.78302 128.884 -2.70422
18.4362 110.493 17.4657
21.2072 111.069 3.15955
-10.7171 139.386 -3.44148
7.58688 152.774 -2.87865
18.6602 137.6 5.88792
1.5414 148.728 -2.45906
26.0303 132.166 -3.8315
16.3754 124.4 -2.60943
-22.0674 119.462 10.3055
22.0748 126.899 5.1087
-9.5382 134.605 9.08391
10.3132 118.114 8.73542
17.9474 113.535 -2.26458
3.34206 149.683 -3.23861
9.76748 114.485 9.44259
5.9779 114.235 -3.06571
16.3059 135.826 -3.56187
3.37121 145.461 -2.94285
-5.26212 106.459 -3.64251
-11.9892 115.753 -4.77244
21.188 112.972 1.87628
3.56005 150.439 -3.30796
8.47362 125.392 -1.90141
16.9037 140.483 6.04625
-7.46385 146.926 5.40992
-3.49067 105.412 -4.7817
25.3121 108.515 12.6989
-11.1931 145.98 7.33113
-7.24831 115.645 12.0106
23.6766 125.237 -7.75541
17.415 125.042 -0.513927
9.66804 132.173 -4.86385
-0.500702 127.951 8.69801
10.6971 133.44 -5.30088
21.3548 123.227 3.30642
16.2617 143.869 -1.73761
16.1747 118.327 5.35823
3.91012 119.875 9.64844
-7.77642 147.349 -3.84101
-3.77242 109.774 -3.00352
6.6165 118.535 10.6851
-23.4056 122.445 8.2085
25.5338 131.061 -5.26317
-19.0928 134.256 10.55
20.948 130.056 3.45488
-22.936 124.034 11.7643
12.1147 123.424 5.02609
-2.14991 151.358 -1.63333
5.32786 151.307 -3.57645
-15.4484 120.662 1.93747
17.7743 113.273 12.6135
-18.7485 110.511 -2.83701
-3.18101 148.683 -1.91139
23.1686 139.059 2.70765
-11.9 145.118 1.6735
26.0124 135.779 -0.717626
17.4826 112.594 13.888
-5.34674 103.832 -4.57726
10.6154 120.546 7.91058
14.9782 113.743 -3.65968
-22.2959 119.566 8.05177
-7.8712 135.714 8.75178
23.4451 133.122 3.97459
21.1335 128.422 3.7687
24.3176 125.023 0.896324
-16.5519 120.423 1.46445
-20.7699 125.513 2.21035
-9.56487 115.503 -4.05134
-1.03009 150.938 -1.81002
15.0982 117.628 -4.64501
-6.51049 110.904 -3.44707
1.84902 143.423 -1.56975
17.2183 132.301 -3.62287
24.1776 113.288 9.93565
-7.76486 116.435 11.929
15.8819 133.569 5.1063
14.3507 131.307 0.260883
-18.7627 110.217 -2.7691
-17.804 119.107 1.66088
11.228 132.319 -5.6041
12.2524 137.347 -7.41432
-21.5784 127.99 10.5157
24.3 126.996 -7.58221
23.4763 109.616 16.8588
0.825883 107.558 -4.98953
5.38497 124.468 -1.62856
17.0412 123.561 -2.33271
3.27607 122.01 9.48944
-8.60386 141.083 -4.52774
-7.33674 151.402 1.72278
-12.3855 112.5 6.32712
12.1555 114.774 -3.70499
0.212519 144.021 4.3074
0.773177 133.11 6.42054
8.94747 136.737 -5.35379
24.3362 134.498 -3.0081
20.1776 130.081 5.47987
5.12439 119.114 10.0415
10.1137 102.489 -4.35152
11.7841 119.566 -2.9629
-2.05343 125.157 10.0531
12.5587 106.852 -2.55788
11.8692 126.595 6.51797
5.52987 132.963 -1.75623
-4.41042 129.763 -1.77803
14.618 125.523 3.39741
22.9576 135.912 3.75379
9.85457 150.814 1.24941
-6.56313 142.115 5.33064
16.9323 126.569 -1.30514
2.97684 124.752 -2.81646
-5.62868 123.947 11.1787
-21.5015 119.615 13.5454
19.5398 114.065 -0.712729
25.0519 128.342 -2.9215
14.4133 113.873 -3.36363
-15.9653 124.91 -0.226186
1.41225 126.629 -2.00642
-16.0447 115.393 5.86244
-18.0502 120.192 8.4549
-19.1318 121.673 0.518098
18.2167 110.519 11.6966
8.45015 154.087 -0.789855
-14.2586 127.402 -2.4048
-16.2112 122.306 3.01413
12.6283 152.566 0.561341
24.121 129.446 -0.358278
-18.1704 132.348 0.860522
-2.96238 110.244 -3.24839
16.2444 146.073 3.99988
18.8315 108.064 -1.18705
8.07975 110.373 -3.71428
12.8348 107.858 -2.49107
-16.6162 120.307 5.47023
14.2021 144.745 1.50157
16.5599 107.243 8.26194
-3.12303 129.45 -0.757346
-8.22277 141.698 6.99378
11.1322 142.776 2.18421
15.0221 133.052 8.1546
-12.657 143.46 9.3382
23.2075 126.588 -7.53153
16.7052 126 2.69828
-7.11289 142.693 5.80677
-11.4554 116.451 -4.76907
15.302 150.771 1.92458
18.8539 140.253 5.62168
9.10946 128.492 -4.47972
-2.28389 116.115 -2.09336
-4.94223 133.345 5.66341
8.48307 137.641 6.44873
4.75328 148.898 -3.84874
-3.93801 132.514 5.80461
-12.3916 143.873 3.18382
-10.0145 146.558 6.91006
-16.9387 139.97 8.031
-15.4731 123.247 -2.93655
-20.3656 129.454 4.8225
0.00509018 105.608 -4.86938
6.36421 107.478 -5.17936
-18.4917 128.38 11.2738
13.8995 128.019 3.19363
-16.4666 120.552 0.323125
-9.29699 141.314 8.3431
14.8279 140.469 -4.99402
21.4395 121.516 -1.91237
19.5677 147.387 2.0948
-8.27172 131.249 -5.27473
15.3798 127.635 -2.62254
-4.38871 148.12 -2.54031
-21.2509 128.894 8.98657
6.84276 140.171 5.88265
24.1352 133.605 -3.85107
17.9207 123.352 13.3182
-10.0494 125.815 7.17592
20.3703 139.926 4.76909
17.5525 128.832 4.81342
15.604 142.772 5.35929
10.5486 134.751 7.03881
-19.6929 132.744 8.66144
1.83067 106.445 -4.84553
15.07 118.436 4.64331
12.7646 130.207 -2.29037
-20.8222 119.102 12.9163
-12.6165 146.683 5.78802
8.06308 129.403 9.03761
22.3529 119.635 11.2503
7.21273 122.775 -1.3721
-12.1059 138.572 9.73973
0.827958 112.617 10.1683
-1.98543 144.524 -1.32043
-10.2351 127.531 8.47675
-13.3945 143.485 9.01927
-16.7085 138.773 4.55113
16.2823 123.81 4.93063
-4.82567 128.65 -1.92506
-19.0043 119.042 3.00629
5.50023 137.692 6.0329
1.7347 113.122 -5.0434
12.7088 111.758 5.67076
22.563 119.958 9.77935
14.9397 148.207 -1.07539
-18.0835 135.539 5.48913
-6.49813 126.691 8.59764
-11.4244 117.331 10.0651
9.55117 143.514 6.46435
17.0383 119.616 7.17692
21.1812 129.75 3.66202
-8.35555 117.896 11.6155
-7.09597 132.529 -4.43325
-12.132 129.444 -3.2684
-17.1304 119.702 4.4235
17.935 108.379 -1.40841
15.0257 140.251 -4.72881
-11.6115 130.817 -4.03668
20.8467 146.351 -2.29495
-13.4222 128.289 10.8666
0.911087 117.521 11.2351
16.852 106.598 -1.74689
-17.5117 119.713 2.85868
-16.7728 120.362 2.33483
25.0451 128.951 -6.84582
-12.2415 133.142 -2.16814
-8.81444 140.504 8.10346
20.9661 146.806 1.22192
15.1051 106.612 6.87221
3.9726 124.774 -2.2781
18.9031 123.978 0.450951
20.2725 123.798 3.76275
13.2447 119.174 -2.5568
20.2046 115.277 1.54766
-18.7625 113.601 2.15965
19.6919 129.693 -4.62196
-0.727732 115.999 -3.69981
15.343 123.105 -1.77343
-5.0775 127.173 8.75425
25.7854 133.786 -3.82185
-16.4522 114.144 4.44262
19.1504 117.352 5.07172
-0.697518 116.402 10.7554
16.189 109.157 7.32674
20.7867 130.787 3.82074
-22.336 121.983 13.2292
-19.0978 135.393 7.68066
3.67342 117.34 -3.93212
20.2626 124.544 8.97914
-5.35662 153.335 -1.57271
14.392 151.632 1.72992
-14.2852 128.236 -1.59856
11.4121 142.142 5.36843
10.2428 128.936 8.045
-6.51084 146.076 4.448
6.29194 111.834 -3.47293
-17.7359 114.75 0.975902
7.66459 136.104 6.65454
16.3411 120.433 -0.89983
-18.0115 125.754 12.2729
16.0136 118.181 5.30149
13.91 122.267 3.92698
-4.04202 124.544 10.9584
8.50196 124.147 -1.286
-5.20514 133.831 -2.66603
19.9373 130.64 -5.00267
-3.12105 125.033 -0.68722
5.07763 117.387 10.7624
14.1469 116.035 -2.32126
20.8614 145.778 -2.49957
10.838 118.406 7.37134
-9.02943 104.529 -4.49553
-8.73777 105.075 -4.93327
10.2212 143.692 2.46629
14.976 124.547 -3.4084
13.2648 116.965 4.74708
24.288 138.479 -1.69061
-15.0037 124.128 -2.36134
13.8715 138.256 -5.58907
6.02121 129.048 -1.03033
24.4568 126.784 -7.48781
-14.1777 139.956 2.48593
-20.1237 124.298 2.24163
-17.3861 111.19 -4.37609
12.8733 148.098 -3.49106
0.455053 104.766 -4.79716
-15.2975 114.256 -5.07975
-19.189 118.801 3.16182
-22.0514 126.565 11.9811
-23.5197 122.596 10.7512
-1.66999 109.502 -4.33594
-10.8484 148.211 -1.49013
6.86981 132.789 -3.76856
16.051 130.055 6.52891
3.38034 150.676 -3.2015
10.65 143.38 3.22679
-10.2433 123.461 -3.66428
19.4245 103.215 0.537378
-23.7095 124.255 8.74733
10.9408 103.742 -4.26622
-3.88676 116.75 10.5565
-2.48738 129.179 8.00258
13.99 142.138 -2.98858
14.7739 130.56 -4.8773
23.2016 107.053 7.06793
2.61637 116.266 11.3236
12.8322 138.324 2.2231
15.1288 123.656 -2.66185
-8.45292 127.083 -3.93929
11.0138 135.833 -6.21169
-15.7643 125.343 0.345931
24.462 134.55 3.13499
9.95281 133.944 -4.95421
-13.2257 125.054 10.095
17.6511 149.845 1.51723
-21.186 128.195 8.35481
-0.863591 134.037 5.90417
14.5434 133.771 -3.08095
16.7868 147.327 -0.842529
19.3443 126.988 4.5008
5.0502 153.796 -2.00785
15.3798 147.246 3.60744
22.1536 112.46 3.93807
-16.543 120.511 2.2139
19.7288 125.725 -5.60108
-11.5447 126.598 7.22419
-17.9575 114.536 1.48486
21.2945 122.634 2.67055
22.2155 119.284 12.5184
4.80068 112.207 -4.16553
-18.8112 107.025 -2.36015
18.0616 118.522 2.34088
1.40153 108.786 -4.78442
-5.3203 122.453 11.2813
-17.1378 118.056 0.862176
-1.63864 108.892 -4.38614
