ply
format ascii 1.0
comment Created by Open3D
element vertex 1924
property double x
property double y
property double z
end_header
-13.0817 141.54 0.0712712
-0.900592 93.463 5.75546
2.34144 90.3841 5.82262
1.11012 142.996 -0.557697
-19.0733 121.094 -2.33933
1.09 92.1129 3.52769
-15.1419 136.325 8.03623
7.8564 138.237 1.78642
1.29979 142.682 5.82637
5.16912 96.6215 3.88133
-17.6805 142.209 5.49437
7.89492 105.417 1.81963
4.54333 123.618 0.347042
-15.7527 131.239 5.73287
-7.63527 131.817 -7.13776
-2.84773 83.5725 -2.99511
-16.2162 140.46 0.465789
-8.87366 127.617 -6.76646
-7.29097 150.447 1.99841
-16.4317 93.5859 4.42428
-14.7919 130.998 -1.04493
11.0104 125.1 4.72222
-15.0541 144.236 6.43688
11.0702 142.994 -4.73199
-23.6394 123.135 0.252136
8.21781 103.046 7.37457
-18.7858 92.687 0.312927
-13.8935 81.4456 4.63819
2.27749 99.8252 2.47548
-6.88864 130.721 4.91282
-4.22485 89.8968 -5.77682
5.06161 149.48 -3.62157
6.63611 149.163 -4.01659
-15.0633 100.902 7.25561
-21.4417 133.251 3.37231
-15.6354 120.559 6.12275
-15.9153 127.871 -2.17762
-17.8833 87.3982 -6.12804
-1.41428 82.6183 -4.36015
-16.6415 118.715 5.97475
1.39217 150.046 -1.94677
-11.4418 94.5267 6.86173
-18.1443 120.043 -3.75584
9.9992 126.554 7.48551
-9.23747 94.9905 -9.36136
-2.34851 93.0971 6.79514
-18.5587 114.201 -5.96634
-18.4935 100.329 1.60434
1.87428 103.878 6.65162
-3.03397 126.225 8.34016
-11.5568 119.763 9.88096
9.21778 135.122 -4.49436
7.2311 96.5269 -6.69111
4.39267 86.7203 2.60033
-3.2414 126.11 -1.78707
-15.0685 125.668 6.28766
9.43674 153.06 -0.535807
6.38656 114.256 1.69578
-10.6825 102.365 10.3493
1.9734 90.5602 2.15839
9.10519 120.055 1.98907
-18.0998 119.948 -4.08484
-1.25957 114.657 9.32585
-3.65403 112.445 8.33765
-3.60321 119.832 9.4968
-3.99938 85.3071 -4.10708
7.27496 144.796 1.40123
-14.0078 74.9917 -2.56334
-19.368 120.052 -1.24336
-7.38222 100.11 -9.5958
-19.4349 120.764 -1.77649
1.57424 112.922 8.82788
-0.172613 138.353 7.6584
-20.0079 122.282 -2.34222
-0.231472 153.375 -2.2535
9.09711 105.72 9.88291
-11.3434 130.903 6.62796
7.47251 130.666 3.88105
4.60899 97.2237 1.28743
-11.0466 131.048 6.31113
8.37771 102.612 2.36922
-18.8526 101.656 -5.70536
-8.61916 141.7 3.4589
-1.11056 79.9682 3.68674
0.487887 90.9473 2.60011
-14.0533 127.554 -4.69219
-14.7757 81.8484 -6.99177
2.33078 86.5944 2.19149
-7.91563 93.6065 -8.8208
7.54465 81.5226 7.62466
4.68415 114.245 3.07577
-4.72532 76.0401 2.93606
-6.45731 127.422 -4.58038
-15.4527 128.082 -2.66131
-22.2202 131.271 3.17004
-16.9173 136.974 -0.29525
8.86347 110.256 12.4288
12.2747 140.47 6.88176
3.19014 103.24 6.26818
11.1721 140.089 -5.85238
-8.49018 151.96 -1.05682
7.79422 152.891 -1.93085
5.97436 106.986 1.51716
-18.3846 92.0594 -2.86854
2.32813 86.629 2.05737
-17.563 93.2963 -7.2301
-9.99883 134.467 -6.37775
13.5905 149.324 2.88134
-2.80371 117.829 9.25484
5.40377 102.507 -5.24987
-4.67555 136.966 4.14715
-16.2921 93.2325 -8.17528
-18.2894 140.062 6.95554
-22.6757 117.555 0.474632
-0.344331 112.988 8.77968
5.55849 106.233 1.48315
-8.06764 121.837 -6.00692
-1.69242 80.7271 5.22033
-8.67806 132.669 -8.31213
1.20999 80.5421 -3.68495
-16.1229 122.757 -3.37396
3.18564 121.751 8.7857
9.1313 126.532 9.42572
-19.3024 119.647 4.63444
-1.38237 94.2934 8.32408
-2.62014 149.885 -1.70584
-14.0828 130.224 -3.92277
-1.93437 77.6616 1.68167
7.53066 97.7724 -3.9072
-12.8518 140.073 -2.36615
0.870925 82.6695 0.265936
6.01345 97.5995 -5.73313
-16.8918 133.648 -1.82808
2.09762 102.897 -7.85439
7.6069 99.7227 2.40838
8.56928 105.268 -5.73931
-21.9078 133.017 6.44702
-7.65976 141.697 2.61022
0.926113 133.528 8.72649
-18.4907 107.096 -5.53876
-18.9423 129.422 5.05649
-18.7799 99.4858 0.724621
-2.32534 84.0322 -2.74322
-16.2371 131.693 -3.32632
6.0962 113.412 -1.38184
2.0334 88.3879 2.68164
-13.3737 95.1546 -8.72716
-16.5182 109.147 1.16613
-3.23027 96.8422 -8.36863
11.0153 84.3247 11.4996
0.881046 105.663 7.30784
6.85809 100.496 2.24952
-14.0885 75.0209 -1.96724
3.28409 114.96 -5.59117
4.43922 122.433 7.56046
7.25503 149.971 -3.95297
-5.69574 138.801 -5.78152
7.58258 123.603 -0.17709
-18.2879 114.375 -3.2923
10.9615 141.02 -5.46098
-17.6871 104.455 -6.60315
-13.3802 125.514 -6.7624
-12.5473 145.214 -1.26597
0.17063 121.439 7.99132
3.13744 79.4786 -2.97906
-13.3047 114.019 9.59376
-3.97041 119.333 -3.60414
9.67883 116.039 8.17621
-17.9309 105.054 -2.2574
7.30207 121.593 1.49491
0.0377354 99.2537 -7.38399
-15.899 82.4371 3.6978
-18.2437 83.6394 -5.06805
2.58261 132.061 0.663829
-21.9233 117.717 -0.0895767
-5.67589 129.563 6.77999
5.30997 89.2628 -5.01287
-2.04588 78.8219 3.25761
6.98291 122.311 0.342685
-12.6726 144.096 0.515483
10.929 130.23 9.39866
9.89222 119.38 2.71851
-17.5957 91.8625 -7.01542
9.5113 88.912 10.2875
-19.5166 122.04 -2.76264
8.31892 105.927 -5.52707
-7.08181 138.984 -6.42601
-12.7394 139.782 -3.51361
-8.66486 122.208 9.48481
-2.6422 133.032 5.85865
1.59118 130.751 8.948
10.149 125.754 7.25018
-18.1385 78.2395 1.06228
2.35889 101.476 3.1042
10.4673 114.821 -1.2942
-14.7651 75.8651 4.17965
-19.0997 137.535 1.91454
-1.86179 130.221 -1.19398
9.10337 133.596 -4.23715
-1.47447 82.6912 -4.21695
4.95405 126.561 0.709094
10.3196 115.406 4.41891
4.78019 130.539 6.58375
4.71394 119.315 5.73087
-18.0991 119.617 3.81444
12.2649 135.062 8.56039
-13.512 129.57 5.78151
-19.1613 119.642 0.0266902
-13.2438 82.2141 -6.63079
-18.0562 109.121 -6.5781
-19.1835 110.493 -3.23381
-3.26474 103.042 -9.62292
7.14731 87.698 7.3864
-9.46536 149.899 -2.61775
2.64155 125.912 9.10746
8.85104 109.335 -1.2708
12.3205 122.208 12.151
-12.2914 115.453 -8.8116
-7.97213 121.547 -6.0346
-13.1612 102.703 -10.3107
-5.25345 137.276 3.88789
-9.25348 126.243 -7.09822
7.28141 99.7632 -4.85861
-8.74257 106.105 -10.1936
-0.24509 89.6596 3.82579
-1.02649 95.6285 8.67767
-17.7498 123.212 4.51935
-18.354 104.616 -4.96745
-16.1205 120.753 -5.54412
-6.54325 137.99 3.19152
-20.8513 124.29 7.45301
-19.6075 120.749 2.61837
-3.26358 142.531 7.67014
-2.22647 93.7062 8.08109
2.8747 121.337 -2.39024
-15.6667 122.792 -5.84961
-7.98968 141.223 2.87612
-15.96 109.971 -8.80694
1.82574 112.248 8.77488
-1.25698 139.35 -0.821277
8.88509 153.476 1.26776
-18.6494 121.837 2.7383
-18.0635 116.651 -2.42507
-22.7222 127.609 6.89921
2.45603 127.81 9.11797
-9.06166 127.118 -6.95426
2.81426 84.4598 -2.84113
4.72084 116.765 4.04198
4.25926 83.9343 1.05024
-1.55118 79.3973 3.60546
-3.68523 103.775 -9.20959
-19.2392 112.97 0.214868
-16.7728 122.158 -1.59699
-4.7867 139.413 4.55016
7.38342 146.5 -4.8583
-25.0156 125.136 5.6457
-12.9991 122.097 -7.85949
-6.32458 80.4029 -5.3873
7.72302 108.985 1.65964
-4.76299 101.022 -9.0213
-4.7078 120.667 9.14828
-14.307 132.568 -1.7951
11.771 143.562 -0.784425
0.132989 81.8823 -0.300837
-8.44697 145.732 -5.2002
-13.7502 77.089 -1.88532
-20.2366 134.528 1.28413
-21.1364 129.61 0.208214
-16.9281 134.574 7.87241
-6.67746 144.856 2.32556
-18.3658 96.6138 2.76256
-20.081 120.312 0.984384
1.40673 130.077 9.05447
1.69962 87.6024 2.04903
-12.9117 103.438 -10.1617
-7.88788 138.734 3.08875
-0.877715 87.6767 -3.01299
10.0751 130.978 -4.50005
0.52363 96.3474 -4.39629
1.52002 99.5345 -6.11903
-2.16902 107.842 -7.57603
-24.5385 122.745 2.15566
10.2102 128.066 9.8906
-17.1158 84.6237 3.30357
-18.7247 124.438 5.38574
1.02292 89.099 5.07578
3.79008 123.778 7.99804
-16.5277 88.5766 4.03282
-12.7532 130.106 6.03819
4.48264 123.269 0.299087
-21.3497 134.077 1.83128
-11.2944 114.07 -9.44959
3.76915 101.62 -5.30628
-2.42128 97.8277 9.34203
-0.422823 97.0899 8.41939
-25.7282 120.891 4.54795
-18.9317 124.783 -1.95199
-22.5609 120.263 7.13506
7.0391 93.412 9.85619
12.0141 139.246 4.59525
8.05991 117.639 -0.705046
-20.6729 121.077 -0.0974035
8.41579 102.685 12.0474
-13.7536 113.332 -9.41845
-5.89767 125.211 8.38673
-15.916 86.7384 -6.18154
-17.8749 120.955 -2.0442
-15.8812 120.942 -4.21901
-1.72406 145.182 -1.521
4.0796 99.1172 -4.6995
-0.137012 99.1292 -7.45293
-23.2274 118.57 6.01726
-17.4164 142.591 3.2179
-4.67064 82.6982 7.6701
12.4979 135.425 8.58022
4.87212 128.139 0.866296
6.24559 139.121 -4.3157
-17.5134 123.202 -1.13944
6.34643 108.324 -7.05843
4.01714 140.147 -1.41745
-7.38689 101.09 9.55736
-6.01946 85.9286 7.29288
-6.3643 131.62 4.55299
3.15762 121.114 -2.06115
-16.5124 83.5553 3.50102
-16.2667 117.753 6.44848
-17.6605 105.762 -1.86169
-18.4292 116.597 -3.478
8.80386 104.449 -5.8153
1.4106 136.01 8.21377
9.39887 138.526 -5.46022
-16.7854 121.324 -1.28737
-0.442474 98.8679 -7.53051
0.625995 82.4534 3.2489
-5.92803 109.03 8.36649
-9.48682 84.9002 6.47813
-11.7287 81.2412 -4.13555
-16.4914 84.2753 3.91382
5.97198 135.489 5.36971
-14.4281 76.5723 -2.26304
-2.26062 127.99 7.15416
2.83017 101.929 2.65324
0.593038 98.6526 -6.02866
-1.25419 127.376 7.02824
-2.01943 96.0941 -6.9279
4.47928 92.8965 -5.87828
-7.74478 151.766 -1.73979
-18.8178 120.345 3.04134
-17.7985 104.822 -6.53089
-5.08871 107.204 -7.86203
-7.29333 125.864 7.27384
-15.3939 86.5586 -6.45399
-18.0257 118.318 4.17225
5.24441 95.9334 3.56765
-0.59487 93.6955 5.58432
-15.3519 120.872 6.52534
4.31533 103.883 -6.0989
2.6571 91.478 2.38695
-1.39785 91.5279 4.90201
-22.3073 116.72 5.07178
-1.29448 141.153 6.83741
-13.0911 108.682 9.71741
-11.25 136.451 7.05737
5.16997 128.795 0.552188
-12.6986 77.703 3.63881
-15.5976 107.575 6.74193
4.94076 120.339 4.61843
-11.412 105.16 10.3489
7.30765 124.062 -0.0174435
-17.459 119.996 -4.75642
-14.7371 138.195 -0.812301
-8.58044 88.5481 6.17905
10.5527 82.0251 10.6127
8.62133 103.293 4.11
1.14372 92.2549 4.72161
-21.045 135.184 2.93832
-3.86562 120.668 -3.20751
-16.932 136.101 -0.8854
1.35444 93.7943 -4.53174
1.29072 115.971 9.36567
-18.7238 105.835 -5.21195
-10.9006 138.768 -5.08614
-19.3246 134.621 7.61143
8.18457 141.778 1.10094
-18.6644 124.742 5.99218
-1.1518 81.3716 -4.41898
0.958488 99.3157 4.56563
-12.7838 94.1063 6.51357
5.25563 108.083 -7.64649
3.65503 99.6695 -4.52977
-3.04083 111.123 8.21282
-3.25072 79.7339 5.82217
6.19831 153.999 -1.49603
-10.9016 124.658 6.56024
-12.3855 106.216 9.89711
-6.12611 141.462 -5.37905
11.9833 139.327 5.15076
-16.2063 131.557 -3.27865
-13.5195 134.181 -2.89488
12.1032 140.46 -2.05899
-10.9346 95.3193 7.6171
-17.6805 122.15 4.29716
6.13961 135.499 5.0909
12.929 145.26 -0.0448158
9.71786 147.523 -4.90001
-21.4744 135.19 6.7218
-18.5636 121.868 5.54627
2.47168 92.3334 6.78471
-17.4827 91.3879 2.8656
-8.89488 151.884 -0.842329
-16.2949 122.773 -2.51669
12.9084 103.286 14.1175
-13.4576 136.856 7.38235
-0.789789 102.718 7.78112
1.21494 99.0528 -5.7961
-12.9344 110.604 10.2248
8.01342 145.822 -5.18083
-14.5142 126.216 -2.52121
-19.2297 80.7811 -0.835011
-3.7869 151.382 -2.11246
9.66114 97.6493 12.5772
9.55389 114.564 12.6328
8.06107 125.37 1.59533
1.33149 89.3475 0.568641
-8.69774 135.396 4.19659
-17.5978 138.82 0.793356
-14.7687 146.538 4.05309
1.05875 86.2651 5.80495
-24.5443 118.011 3.82601
5.25775 111.511 -6.20583
-13.8467 142.326 0.47406
11.4525 137.251 7.53
7.09262 148.893 -4.17462
-14.5143 90.4746 5.48194
-16.7973 119.3 -3.12634
-18.1402 87.9772 1.61442
8.47764 138.46 -5.01402
6.43562 115.86 -0.177576
8.15256 118.329 -1.1758
4.57021 86.7023 2.43739
8.38965 104.896 -6.8661
-19.3796 130.492 -2.4441
2.789 122.914 8.8625
3.97192 103.763 5.19583
8.29799 122.499 -0.64909
-21.5637 132.008 5.9648
-5.59182 131.648 -4.20304
10.6816 123.361 11.5505
-2.12591 88.4582 8.15117
-15.5335 130.996 5.80439
-18.9714 89.9912 -5.03411
-6.84993 151.847 -2.4562
-1.84555 83.3983 -3.07636
-1.31877 109.168 -7.16148
-0.432606 96.5044 -4.82396
-21.0462 124.37 -0.769571
-0.684552 80.5627 1.51054
-12.0812 117.461 10.2252
-19.2452 122.705 5.14829
11.7433 95.4574 13.663
-15.36 109.786 4.13736
-7.44501 101.806 9.54064
-11.368 79.032 -2.10157
1.26108 128.751 8.70555
11.9653 92.9256 13.7989
9.25775 100.639 12.5375
-12.2047 75.6832 4.07408
-12.4323 95.3509 6.61053
-18.5001 85.8916 0.601066
13.7082 141.14 5.99221
-16.2851 99.2652 -8.68233
-8.6812 133.161 -8.06358
2.6323 89.0945 3.63951
2.19478 90.5902 2.61954
9.74922 106.368 8.43646
-18.7466 82.1816 -3.52248
8.46194 138.022 1.34364
-12.7332 129.227 5.9964
-6.62896 136.839 3.48853
-17.1394 86.5622 -5.96166
-17.7742 89.6523 2.71749
2.95017 132.982 0.597103
-3.37768 136.467 -2.635
-14.3155 125.072 4.84893
2.57655 151.951 -2.50512
6.25727 112.625 1.68805
-18.6745 87.0844 -5.91411
10.5452 139.663 2.5194
-15.3884 117.21 -8.16327
-0.845926 81.572 -0.363137
1.78099 93.5808 2.48536
-7.63612 79.7459 6.48242
9.47742 79.9479 7.68044
-2.21583 91.2315 6.35833
-12.0172 131.83 -4.19712
3.75149 117.276 -2.26779
9.51022 129.114 -4.39066
2.27126 107.189 -7.67599
7.44721 130.38 3.59826
-16.974 124.005 6.28037
-14.0238 131.304 -2.69989
-13.8855 77.4299 3.64631
-8.77993 113.584 -8.99545
-19.2935 86.3271 -4.34504
-15.6199 97.1023 6.13788
-15.3813 139.384 0.11241
12.8134 125.931 8.83526
-16.1229 121.298 -4.93959
-12.7368 146.722 -0.168351
2.30825 110.413 -6.83342
-11.5155 92.5142 6.63225
-16.4423 121.241 -0.903763
-17.7921 98.398 -7.34311
-16.6779 93.81 -7.95399
8.44749 131.985 -3.38763
6.4767 101.84 10.5446
-24.7034 118.949 6.79078
0.201997 134.757 7.67834
-9.69229 84.1692 -7.18817
-13.2367 125.778 -6.80234
-16.4545 124.198 -3.20938
-10.3395 115.045 9.56337
-18.3563 92.6658 -3.40537
-17.8797 121.809 4.2977
1.29561 125.448 -1.47279
-1.72833 133.358 -1.37482
-15.9716 123.152 -1.81863
-10.7831 81.0238 -5.4416
-13.7103 109.262 9.44752
13.4005 110.489 13.2813
-15.6988 81.9813 4.1082
-11.1328 92.1639 -9.32975
0.526041 83.5619 -0.428362
-1.90852 107.696 -7.78028
-18.4438 78.9512 -0.919524
-17.5165 139.695 7.35507
-4.69286 127.392 -3.13241
-0.441833 100.516 -8.6791
-17.9546 78.2501 -2.38825
-18.8301 128.761 -3.56129
9.40742 120.383 8.74158
-2.24365 93.7092 8.16539
-6.22354 90.0187 8.32349
-11.022 114.072 9.98939
-19.1234 109.991 -2.86127
-11.4407 124.675 5.48766
10.9493 142.478 3.97246
8.57825 118.38 1.82376
7.36521 132.177 3.44838
-5.02762 114.404 -5.96751
-18.853 92.9259 -0.112162
-17.5057 109.502 -7.41796
6.31922 111.148 1.51659
-19.0658 138.118 2.27055
-21.7583 131.763 5.81005
12.0159 98.9455 13.6286
9.38738 147 1.53528
-14.5178 79.3195 -5.62647
-14.1172 102.635 -10.015
-2.4 95.0605 -7.12736
-15.8968 143.675 2.45122
5.03922 124.682 6.41961
5.37119 112.702 -2.68785
-15.197 128.652 -2.76501
10.7397 142.501 -5.05356
-15.9103 79.8029 -3.07226
4.93916 92.8895 -6.16855
8.12586 120.799 1.44665
-6.75615 86.7616 -6.67711
11.2601 99.7684 13.8798
-14.228 92.7134 -8.41261
5.47393 140.209 4.03663
9.02401 112.79 9.67959
-12.3765 80.0444 -4.06754
-18.5101 98.9303 -4.95435
-1.12805 134.943 6.37736
-10.4597 133.918 -5.8111
-11.1422 121.608 -8.10007
-15.0713 126.105 -2.12729
-18.2084 83.8781 -5.61781
-9.56222 146.022 -4.84502
-3.6976 132.425 5.77693
-16.2575 80.0434 -3.06878
-23.4281 126.258 2.11513
-13.1635 141.363 -2.79961
-4.28985 85.9611 -5.13112
5.64402 95.8573 -6.17106
-9.38042 129.383 -8.47118
-17.2333 102.89 -7.55462
-14.3998 107.537 8.3292
-19.008 120.9 2.34064
-15.1484 81.0767 -6.22141
-18.0145 119.964 -2.30404
4.61805 112.858 2.69365
-17.9397 129.861 6.02258
9.39363 128.119 -4.21807
5.42097 98.7532 9.60701
2.65497 91.2263 2.8611
-14.4876 93.6125 5.77561
4.31675 113.292 -5.66318
-11.5897 148.449 -1.38242
4.16835 86.8838 2.21625
-13.9106 78.9867 3.84605
-11.6528 102.514 10.1116
3.84172 84.9101 -2.97389
9.23866 136.542 -4.86147
-15.0751 110.828 -9.28353
-5.58994 119.618 9.06726
-16.0069 95.0391 5.10889
11.3508 100.712 14.013
-6.84669 132.638 4.15818
-3.53775 125.476 -1.94006
-21.4545 118.92 5.09222
9.02335 106.685 3.30665
-15.6524 83.9148 4.23471
-6.54144 84.4967 -4.91024
-10.2537 138.727 4.91528
-14.582 77.7023 -2.01324
8.21285 96.2803 -3.15333
11.0963 82.567 10.897
-17.7625 121.419 4.18473
-12.2342 145.124 5.87394
-17.3967 84.8737 2.87377
-19.3287 137.122 7.33106
-11.5315 127.995 -8.25874
-18.5262 105.761 -5.95074
1.91164 92.1415 1.62174
-17.0894 135.719 -1.45625
-25.521 123.306 5.5378
-3.36792 119.862 -3.22517
1.59441 103.257 6.9994
0.0652886 102.445 -8.54266
-11.7331 92.1935 -9.18046
-3.65829 96.089 9.38825
4.31715 93.3398 0.991294
9.70518 106.186 9.26048
-16.9768 109.45 1.03687
-23.6831 117.59 3.63078
-3.86857 100.837 -9.06763
-5.12588 103.102 -9.7912
8.85829 115.524 11.3742
-10.9163 115.541 10.0329
3.73682 78.5127 -4.03734
-9.79546 101.06 -10.0731
-8.27781 120.188 9.20797
-8.44652 89.2727 -9.11137
6.22892 101.504 -6.35232
9.33549 126.264 1.41201
-4.01732 102.266 8.02898
-18.0323 120.746 4.20848
9.32159 153.229 -0.578721
-13.7477 122.365 8.26842
-12.4245 80.8842 -6.5779
10.9017 91.9871 13.3345
3.09198 92.6902 2.20559
-14.7992 96.551 6.27831
9.95166 90.5101 11.3424
-18.2249 82.9177 -4.32113
-17.5907 95.0352 3.80923
-18.7273 123.095 3.51093
-4.44361 116.849 9.65103
6.95239 142.341 1.96471
-13.8749 139.896 7.84474
-19.1158 126.331 -3.35736
-4.33366 90.0565 9.99298
-13.5108 143.845 1.36695
-11.5438 131.046 -5.50442
6.00278 79.9635 -4.00868
-17.0285 143.509 4.49275
-19.0634 119.142 3.14506
-14.5211 75.1922 0.378553
-1.96713 93.662 7.29923
-8.17413 138.076 3.67049
-5.86622 116.326 9.24544
-15.9063 77.3854 -3.09119
-19.3656 84.8587 -3.97907
-14.8708 137.311 -1.37168
11.9877 148.653 -1.71385
5.37583 95.7407 3.37105
-5.05711 140.331 -4.84932
-11.2736 149.439 -1.11006
-18.43 88.0941 -0.96389
5.47412 127.673 6.64895
-9.57233 149.712 -2.76186
-17.3061 125.204 6.6364
5.53036 122.218 3.60709
-22.8837 131.824 4.97916
-11.4205 86.5436 5.76911
-18.6545 118.302 -1.51934
-1.2826 126.773 -0.912612
9.05305 115.444 -0.089368
-3.59985 124.479 9.40967
12.3605 151.708 0.32145
8.85165 140.307 -5.38462
3.96058 110.777 4.72161
3.00978 87.3333 2.08421
12.0926 149.926 0.196412
4.16106 129.252 0.98323
-0.47173 117.196 -5.07479
-18.352 123.315 2.85597
-15.8139 116.154 6.42718
10.3955 120.787 6.62145
-17.9233 142.346 4.75309
4.08968 96.3964 1.35916
4.35197 85.0862 -2.37269
-3.0682 78.7125 4.64702
-10.4662 95.6711 8.32824
4.2545 119.767 -1.09953
8.95386 137.634 -4.98
-18.1119 120.408 1.11437
-8.23648 133.863 4.83497
5.48665 84.6083 5.09722
-10.4552 100.22 -10.1735
-1.5747 122.353 8.67812
5.84968 104.927 -5.99782
-18.5381 99.1183 -4.66128
10.455 137.967 2.03923
0.486639 107.401 -8.1689
-1.67966 93.8203 7.24364
-5.17401 129.391 6.99993
-9.70512 78.0807 5.8581
-16.4448 80.1345 -4.3504
6.24346 109.353 1.45462
1.12134 92.0009 2.39595
-12.8058 146.246 0.0993127
-11.3235 142.202 5.80643
-11.6269 98.7849 -9.76604
-4.7573 118.869 9.37019
-14.3671 141.934 7.57739
-18.6134 111.972 -5.76863
-11.251 137.893 -5.21079
1.07722 149.24 -1.66958
9.649 106.156 5.75489
-19.3482 120.841 1.1502
4.07018 102.284 1.79173
8.69778 97.6873 -1.71125
-8.85525 97.8087 10.5812
-18.9416 98.5522 0.323854
6.41227 138.074 -4.40621
5.07857 85.7535 2.25491
4.49697 116.206 5.07238
-20.2947 128.805 -0.869724
9.05433 112.192 9.45725
-16.8768 76.785 3.2202
-13.9727 79.8956 -6.96019
-16.1194 105.044 -8.13937
-15.1162 112.62 4.28136
6.24102 126.746 0.592531
7.13879 88.7242 7.539
1.86839 119.825 -4.04183
-18.1706 124.221 4.1172
5.25508 111.08 2.00367
6.96059 81.9772 -3.29509
-9.4576 78.3826 5.94973
2.39793 89.8695 2.78014
-16.8569 76.8631 3.18767
-17.1959 79.7943 2.8612
-13.8531 132.026 -2.33002
12.9749 99.9968 13.6435
3.21239 96.376 6.08172
-17.5585 82.1017 1.46473
6.6566 84.1742 -2.48358
-4.32184 142.361 4.51904
-12.7012 126.527 -7.23952
8.94759 94.8458 11.8518
-11.4471 147.194 -2.44626
-15.9105 119.721 -7.62423
4.87743 80.0702 -2.61386
2.23902 89.8492 1.45189
10.7657 116.576 13.1007
-19.5281 82.6216 -2.62344
11.2167 150.028 -0.521505
8.40194 102.622 2.92753
2.46339 118.011 -3.68425
0.868792 97.1573 -4.53528
3.12733 96.505 -4.34965
10.629 122.449 12.0747
-15.5209 128.522 -1.44026
-23.8542 127.984 6.39789
-3.60669 143.378 6.2706
2.66494 93.7345 2.29299
8.95331 112.43 10.7302
10.8256 136.076 2.3476
-6.60449 85.8805 -6.05644
-17.9891 123.218 4.68509
1.56502 95.8277 2.27722
3.59528 97.6411 7.57157
-3.51438 85.3203 -3.52961
-2.89268 92.8892 -6.36386
-0.488756 131.827 -0.888025
13.9302 145.12 5.42814
-2.57875 145.46 -1.81856
9.82467 141.995 -5.93254
-15.0125 126.91 -1.48041
-13.7805 101.913 8.49608
-13.868 122.823 7.57542
-11.3191 128.19 -8.47208
-6.2759 124.791 8.85178
7.14522 154.427 -0.621898
7.31192 98.3978 -4.31588
-17.8175 119.086 3.00532
2.24748 114.789 8.96132
7.01971 82.5604 -3.28738
-7.68038 135.584 3.9213
-15.1904 126.797 -3.20906
7.26184 148.286 1.32382
-5.27322 130.454 5.90225
-19.2379 119.149 5.42223
-4.16652 78.865 -4.74023
5.04704 100.148 -5.15439
-19.3232 83.828 -4.34965
-12.6385 140.36 -1.35258
-15.8101 113.138 3.12372
-15.6952 103.871 6.18118
-5.312 77.4041 4.54898
-10.426 83.4453 -7.92448
-16.1223 115.982 -8.37742
9.86471 118.217 2.89483
-18.3905 103.35 -0.950527
-14.7113 102.589 -9.76251
3.39188 84.8764 2.98854
-7.82863 137.59 -6.5193
5.49361 106.034 1.46339
-19.1241 117.997 0.550561
-5.65264 134.583 -5.5478
-16.7125 109.485 1.28965
3.30879 117.908 -2.59338
-6.52281 122.407 -5.38332
6.49359 127.354 3.85809
-10.1698 125.709 6.24072
-2.40353 81.1759 -4.87982
-18.006 105.467 -3.52293
9.9733 121.249 -3.357
-13.9252 105.15 8.45179
-10.4913 99.8414 -10.2327
12.1534 99.1554 13.5947
-8.92718 128.073 6.47326
0.582369 96.0309 3.45845
-6.65557 129.35 -5.36286
0.0875016 85.1538 0.180237
-7.13861 101.028 -9.29128
0.51543 86.4637 -3.51539
-19.2107 119.51 1.60165
-20.1023 121.061 1.99389
-16.4764 98.6049 5.32321
2.84847 95.7177 5.43944
7.17962 144.025 -4.72871
-13.5803 137.282 -3.30444
12.3629 104.47 14.0907
0.697324 114.595 -6.27852
11.138 109.67 13.7457
-12.3083 89.3858 -8.03004
-11.3952 138.118 -5.0218
-7.17237 87.2322 -7.32742
-13.2276 100.668 8.69207
-6.29352 119.061 9.04585
-5.33164 115.066 -6.27276
5.37552 109.042 1.78626
6.69009 142.77 2.26279
-13.0235 146.762 0.53234
-20.612 126.047 6.67238
1.44043 114.814 9.35289
3.66231 95.5345 -4.95375
1.88167 130.231 8.91581
8.09721 102.549 -6.85928
-18.0596 105.013 -6.36383
-5.12054 76.4762 3.86158
9.49477 124.062 1.88818
-25.5965 121.464 4.37261
-13.0959 127.389 4.38737
-19.3933 83.1219 -4.08376
-8.08626 133.123 4.07141
-18.0737 78.1281 2.09138
-18.1449 112.038 1.21356
10.1969 117.34 7.26021
10.4174 93.9785 12.5797
-10.969 74.9602 3.76063
7.23752 92.3277 9.35785
-22.9815 131.359 4.53493
-15.932 139.436 7.94706
-18.8222 91.9137 0.522141
6.83253 129.326 4.81325
2.81992 152.861 -2.72042
-11.6475 117.423 -8.50571
1.87535 136.515 0.365579
-16.8711 121.166 0.592902
1.14016 92.4411 1.19452
-8.88216 104.616 -9.81592
-7.2321 125.768 -6.22288
4.53393 114.146 -2.86842
0.553435 83.8746 1.11388
-1.81037 77.3187 1.20727
2.79687 107.848 7.47842
-5.02963 89.1196 8.75964
-15.869 110.321 2.41594
-12.0066 147.811 -0.954634
-13.6067 97.0116 -8.91675
-18.3694 92.6024 2.3315
-12.1311 142.885 -2.39909
-16.2136 121.484 5.61416
-15.6857 138.443 -0.461499
-13.0853 109.792 -9.86987
-17.077 81.1619 -3.71096
7.9266 91.7917 9.90536
-5.98372 145.134 -4.91228
-9.41412 126.73 7.32991
5.50365 133.068 -2.33172
-17.1315 134.253 -1.60549
9.23766 81.8529 10.123
-18.0109 82.5928 -4.10154
-8.99893 124.179 -6.51218
8.07315 134.989 2.45928
-19.8833 120.434 3.15058
-7.31134 118.052 -7.52397
-0.976506 112.185 -6.57658
10.3322 145.287 3.97042
1.85127 93.027 3.9869
10.69 131.316 1.71187
-15.2386 93.7101 -8.39872
-14.1918 104.199 8.02006
-17.0084 88.5148 3.60563
-17.6228 120.486 -1.07034
-2.38729 135.666 -1.36157
11.0966 130.532 4.00339
3.89668 128.56 0.630228
-16.4027 130.934 6.06384
-17.6443 107.61 -7.08819
10.5857 149.648 -3.05752
9.3002 95.6697 11.8056
-22.6729 127.96 6.90684
-8.39246 129.213 5.34021
8.13633 97.8921 11.7132
8.87562 116.388 11.1446
9.97505 109.167 6.28795
-3.00079 141.382 5.88888
4.42699 116.128 5.51871
-7.52397 131.413 -6.89103
9.16669 85.1455 10.1897
-0.744695 139.129 7.56788
-7.5413 133.926 -7.18499
-9.18282 116.591 -8.55933
-17.292 107.249 -7.20847
13.8241 135.943 7.56683
1.11167 134.973 0.424051
-20.0089 125.951 -2.3153
-1.302 132.757 -1.20363
-21.6346 128.452 0.77132
-17.7457 93.4081 2.89763
-14.9611 105.037 7.05578
-10.0433 105.56 10.4164
-18.986 135.917 1.0208
-24.1899 122.457 6.60055
0.68382 142.568 -0.623052
9.52326 127.463 -4.30577
-3.95254 88.9529 9.85732
-14.9207 114.362 -8.84704
-22.2441 119.438 5.62084
-0.902943 139.289 7.57333
-16.4679 128.099 -4.14253
-16.5666 128.267 -4.24319
-22.5535 116.999 5.42641
6.24931 138.36 -4.20887
9.62973 110.052 8.72834
13.7716 122.518 11.0111
9.83918 150.5 2.13795
-17.9956 136.512 8.001
12.5013 123.635 10.9141
-12.6123 126.587 4.4763
-1.54995 104.464 7.47816
-0.0429709 141.872 -0.73275
-8.69402 116.205 8.92037
8.74047 125.441 -3.50532
-18.6393 87.585 -1.23059
10.3585 95.0278 12.4113
-17.0411 124.829 4.49313
6.61718 151.451 -3.43209
8.91201 125.175 9.63433
2.64019 143.096 -1.10401
8.95591 111.462 2.11572
10.6477 150.069 -2.32784
9.779 118.404 8.20981
-12.7594 105.857 9.69584
-6.171 152.773 -1.74016
-4.20698 144.109 4.68804
2.21181 135.675 7.80369
-3.70309 98.6836 9.16943
-11.8796 131.788 -4.34772
1.36838 84.6621 4.52719
-15.2071 138.28 7.89245
10.5333 118.511 5.4154
10.4076 150.991 2.16583
-0.915701 90.2766 4.0553
-16.3468 119.596 -6.76939
-0.323208 97.1979 8.17776
-12.2571 125.45 -7.4485
-8.56271 94.2691 8.68483
6.90822 144.564 -4.61983
-13.6396 92.1683 -8.49217
-4.6455 120.413 -4.27825
12.0252 124.78 9.54857
-3.00193 94.8495 9.42788
-1.33606 135.752 -0.918105
-14.1867 132.59 -1.89953
-18.5116 114.876 -6.01938
-5.78194 118.957 -6.40137
7.94499 106.138 -6.23362
-18.7161 101.573 0.501064
-23.9563 120.555 1.28283
-12.3468 130.727 -4.77678
8.08313 91.4173 9.75383
-11.6245 135.739 -4.52065
-6.21133 102.102 -9.25946
-0.354993 137.756 -0.298917
-1.58092 124.868 -1.70935
-18.9643 121.507 3.52925
10.3789 108.869 14.1182
-1.10016 121.839 8.55349
-11.7303 129.034 -7.75684
-17.4328 102.479 3.63012
8.25049 148.599 -4.58217
-20.3719 128.213 -1.40197
11.5579 86.8907 12.5084
-8.05089 105.355 9.68438
-21.0066 128.13 -0.249365
-16.6203 136.876 8.16969
5.01283 104.008 -5.9021
-16.8204 122.326 -1.5873
8.06966 102.948 7.70762
10.0539 134.877 1.86757
-3.34246 131.365 5.82792
-19.5346 82.4512 -3.33533
-18.8348 102.63 -4.81763
-9.14478 120.82 -6.78082
-2.61319 104.82 8.00931
5.56855 79.3482 -4.05165
-1.71231 131.372 -1.25601
10.9534 141.614 3.63694
12.0627 134.486 8.55548
1.9192 114.193 9.14214
-16.9482 78.5311 -3.46168
-10.7027 123.963 8.43417
-3.95687 119.768 -3.51736
-0.908632 133.973 -0.814564
-10.9178 145.413 4.83971
-18.4219 118.675 4.29696
-6.38641 126.092 -4.84248
7.82616 88.6909 -4.49226
-10.9656 125.365 5.30814
-16.918 123.433 -3.60449
-7.2126 136.509 3.36009
10.2677 115.704 6.89076
-17.7915 83.7222 1.80249
-11.928 109.141 -10.0293
-10.5313 92.2773 -9.40266
-1.98123 77.6235 0.476464
-5.69371 87.9159 -7.47611
2.74317 106.519 7.12572
-6.43726 152.952 -1.45098
0.982795 98.3233 4.17673
2.74161 123.298 -1.72465
-9.25486 115.777 8.95045
9.04188 97.4839 -1.23695
-14.9218 79.0508 -5.40789
2.02514 145.343 -1.15414
9.46907 125.039 10.6717
8.77024 117.491 -1.41063
-16.1536 118.846 -3.79834
10.9695 134.275 3.83099
6.19498 83.4416 2.96615
-18.6063 122.636 2.82479
-0.298549 118.163 8.63704
-11.7584 108.917 10.4183
-8.90315 98.3674 10.8431
9.91142 117.945 2.94412
9.66982 113.086 3.2047
-11.488 113.3 -9.61383
8.57721 147.55 1.03852
4.65255 144.094 3.93972
3.75736 139.25 4.78086
-2.49918 88.0283 -4.1391
-6.13646 124.799 8.8063
3.34894 119.695 8.5951
0.943545 153.676 -2.09757
-18.9127 121.775 6.76361
1.52122 119.334 8.42765
8.39323 85.5769 8.38926
-0.535871 94.5668 7.11086
-5.5489 102.127 8.47188
-19.6099 120.268 5.57398
-4.69024 144.162 -4.06137
-14.4805 124.976 -6.43285
-7.80503 122.395 9.202
0.0440046 89.2501 -3.28361
5.22064 103.502 -5.50012
5.94405 136.902 -3.7507
-2.36415 150.449 -1.62456
10.1549 124.049 10.9242
-7.90175 130.594 5.26414
-5.73216 104.626 -9.49899
-7.03791 146.868 -4.81168
4.84149 119.029 3.92191
10.2995 116.194 6.95485
9.96947 110.242 7.6512
-24.0401 119.432 1.52742
-11.5607 87.8238 5.61468
10.4733 117.853 4.12137
-7.84078 115.473 -8.16921
-5.08103 140.218 -4.87844
-3.90238 114.671 -5.00313
-20.0653 134.23 0.772464
10.2199 115.741 3.83824
-17.847 119.955 -4.55679
-9.28393 126.393 -7.15858
-8.78696 148.116 2.81317
11.3456 148.202 -2.33207
-3.71436 139.141 -3.16284
-0.123489 86.5782 6.39261
-18.3692 100.529 1.96035
1.98043 90.7203 2.97924
-11.0686 83.7751 -7.95326
-18.6562 102.868 -0.448619
3.21825 115.396 -5.43901
7.32869 136.575 2.61709
5.15501 116.802 -0.930799
-14.4081 106.445 -9.80619
-17.3202 126.711 -2.67298
-18.0167 96.5031 -6.8774
-17.4084 136.793 0.242476
-17.2408 127.431 -3.32275
-19.0249 99.6312 -1.74712
-14.0584 137.601 7.65616
-15.8296 78.0634 2.84482
-18.2843 119.042 3.21354
0.856426 128.676 -0.042069
-17.5438 106.234 -2.51444
10.6121 105.557 13.6487
-2.00754 130.757 -1.29907
-6.35736 108.793 -8.1417
-2.08682 122.816 8.86986
-14.8909 79.1075 -6.1674
8.91638 151.153 1.73619
-14.0208 114.124 6.75316
-18.8038 92.4861 -1.25416
-5.99854 138.188 -6.29378
11.7319 137.514 8.06692
-15.8458 115.053 5.33221
-19.0496 99.5593 -0.95471
-15.5022 76.9474 -2.60228
9.23492 107.2 13.7163
-18.0938 115.005 -2.80634
12.1363 143.582 5.92281
-22.1603 127.27 1.52171
-18.3824 99.367 -6.03571
-10.76 81.6825 5.68862
4.24859 79.4029 -2.97095
-17.6918 118.705 -1.00574
8.98667 120.024 9.53947
7.72094 98.0524 11.5359
-14.791 108.435 8.0045
-17.8968 131.345 -2.43743
7.33245 103.049 1.90567
-22.8887 123.632 6.89934
-21.3012 133.406 1.43322
-18.9525 128.284 5.33974
-8.18711 77.4188 5.8306
-25.1287 122.447 5.85564
8.98439 98.4005 12.7367
-17.0142 121.118 -0.707573
-11.1304 83.533 -7.93775
-12.1515 105.133 -9.90276
5.27809 88.7915 -4.77573
-7.40653 86.9367 -7.15259
-13.981 86.0126 4.6171
0.329913 115.051 9.49829
-15.8396 108.744 6.05123
7.82446 108.896 -2.41672
-2.57929 146.278 -1.85507
-6.32797 117.151 9.37668
2.6987 123.581 -1.75122
13.6775 150.438 1.82711
0.596865 130.702 8.2205
-18.1135 140.571 2.10274
-7.8397 88.4057 6.71574
-8.11644 138.056 3.6091
-15.0502 121.153 -7.59387
-14.6666 138.154 7.8593
4.07595 100.048 -4.72501
-0.0398043 96.1976 -4.54974
-6.78953 84.9215 6.93428
0.000173981 152.721 -2.2813
8.07817 104.473 12.4487
11.4207 90.0512 13.3048
-6.15217 132.589 -5.09178
-13.0132 139.418 7.57833
-17.9815 116.338 -5.97269
-6.84953 74.8237 4.46036
-10.3024 107.397 -10.2589
-11.8813 127.974 -7.32463
9.5336 133.108 1.99884
-18.0904 119.056 3.13748
2.79116 99.6687 2.33026
6.68675 135.736 3.85699
4.63561 86.5947 2.4345
-18.7087 121.014 0.072062
-2.65 139.355 -1.95226
6.11221 100.945 2.40421
-13.0146 127.614 5.05145
-8.02683 91.8375 -9.30945
-4.97982 83.8765 -3.32361
-13.915 106.173 8.64351
-18.2573 107.04 -2.66965
-8.25683 84.8305 -5.75612
9.24361 86.8487 9.57382
-0.433745 95.5171 7.2893
-7.29467 101.111 9.47351
-16.707 133.732 -1.65225
5.76514 97.1331 3.48784
-3.02797 77.5544 2.39334
2.15809 84.7118 0.147884
12.7725 148.502 3.4961
-2.14411 151.552 -1.5766
-12.2676 80.0949 5.01566
-1.36492 106.425 8.37533
-18.6769 95.1387 -0.330522
-15.4233 145.48 4.17792
3.24845 89.4869 2.91414
-6.97781 84.1346 -4.57798
-16.1198 77.7735 2.91847
-5.5805 134.857 -5.59581
5.74336 135.362 5.50195
-19.0291 122.385 3.70516
-0.126089 89.5701 6.0343
6.77017 142.76 -4.39926
-14.9053 99.3081 7.14205
4.1341 114.721 -3.03395
-6.33111 130.107 -5.32895
-4.44382 127.582 8.07986
9.44345 109.657 -0.671671
-16.7358 95.8317 -8.00825
-12.387 95.7665 6.92407
1.11581 96.1713 2.88921
-1.36246 79.3798 3.33712
-16.5247 122.573 -2.84202
-11.125 133.197 6.39987
1.23209 78.9806 -4.19425
-16.8961 122.566 -0.121766
-5.19124 84.8986 -4.15378
5.55315 114.354 1.99439
7.23599 95.4808 -5.2219
4.87172 146.169 -3.26795
-6.8988 131.417 4.75009
12.0488 93.8604 13.6896
-17.2075 99.7479 -8.05984
11.3927 129.226 9.49306
9.08783 81.8506 9.85874
8.0039 138.232 -4.84201
10.137 122.851 7.11704
4.30261 135.329 -0.821459
-17.8951 141.715 3.20947
-19.885 119.49 1.72761
9.64608 113.355 8.21695
-14.4958 131.03 6.00163
-16.5627 118.332 -3.49076
-13.3926 130.563 6.03806
3.08401 117.71 8.9974
-2.9807 123.767 -1.9271
-12.9561 103.823 9.47918
-18.6012 88.7279 -1.09179
6.04487 109.922 1.57601
7.84611 138.34 -4.83801
-6.08542 90.8898 -8.72065
3.78671 84.5818 3.18363
3.22678 124.508 -0.821775
5.44635 138.734 -3.32783
-4.15236 140.246 -3.64248
-5.90328 114.34 8.56756
3.51245 132.497 0.583605
-18.2067 120.079 0.0773486
-2.06364 110.194 -6.59335
-13.0239 128.291 -6.0371
-14.2865 116.221 7.47641
-3.76131 84.4155 7.70634
1.3066 84.6741 3.21736
-17.9041 116.97 -0.827988
6.68388 82.4926 3.52041
2.22384 89.2224 2.98557
4.57646 137.142 5.29591
3.8116 128.822 0.571091
-18.4639 130.811 5.18922
9.88977 110.501 8.08508
7.43092 101.777 6.7703
4.79276 136.57 5.42628
4.1221 113.888 5.1537
-18.5933 100.97 -6.40042
-18.1315 122.52 -2.74458
-11.402 92.0964 6.4358
6.68919 99.4671 3.75929
1.4479 96.0297 2.49113
9.78543 119.7 12.1042
-1.70235 127.679 7.09719
-6.5366 132.269 -5.79976
-14.3941 109.203 -9.61525
-0.32763 130.441 -0.788748
-17.0456 126.316 7.57331
-15.2118 121.521 -7.49673
-16.5238 75.3415 -0.725636
13.0755 150.758 1.70836
0.0322003 133.813 -0.145722
-14.1053 132.472 -1.93648
-5.40718 106.799 -8.15751
5.59915 81.9209 -2.4076
12.2347 148.359 -1.62813
-1.50943 89.0966 -3.61337
-7.4334 111.31 9.08915
4.41138 109.517 2.96619
-19.2581 85.1827 -4.74286
5.86506 96.7774 3.25666
9.35132 105.313 4.86807
-1.20752 131.707 6.65468
-10.3901 146.614 4.34005
-18.3669 88.6007 -0.396749
2.00209 89.0812 5.03438
-17.139 79.0226 -3.31913
-9.21502 120.013 9.57403
-0.290635 92.4451 3.59438
-24.5052 118.764 6.97364
-24.0399 117.952 1.76683
-9.45848 121.453 -6.64341
7.14023 94.4356 10.7831
-13.602 107.624 -9.90781
-7.72965 81.26 -4.06709
-14.2639 82.9384 4.81024
-17.4625 90.7793 2.96472
-16.9287 111.559 -7.89298
-3.34593 97.9316 -8.82506
8.64912 124.655 1.31704
-11.9806 112.913 10.4053
9.25025 104.555 5.53737
3.07611 101.869 2.38635
-6.90646 74.3125 3.60998
-14.4494 110.233 -9.58642
-17.7533 121.524 -0.102564
-25.0694 119.475 3.13852
-5.04001 106.325 -8.20795
-19.4497 87.6729 -3.65729
-5.07085 131.243 4.98096
-12.8262 145.171 6.19865
-5.11393 116.87 -5.2952
-11.9198 140.401 -3.81215
-1.23099 137.889 -0.682961
7.51648 84.2906 -2.81506
-18.667 94.2968 -1.24533
-12.3069 121.015 9.41127
2.77066 131.968 8.16417
-6.87908 152.629 -1.51767
1.82327 96.2873 -4.2184
10.7896 105.385 13.7264
-8.94694 114.423 -8.90506
-18.5619 123.683 4.15278
-13.663 114.949 -8.98193
5.51094 104.51 -5.97437
-14.5545 111.42 7.46148
-3.75045 93.6842 10.1242
0.199283 140.792 6.08933
-11.9791 148.765 -0.0364191
-0.634528 141.171 -0.81243
-19.7092 119.351 4.10768
-10.0729 119.737 -8.07078
11.5437 145.736 4.73763
-7.85312 98.7783 10.3078
-15.7505 143.005 6.96837
-14.8685 76.102 4.09469
10.3934 133.554 -4.57192
4.97528 112.013 -5.63853
-8.94978 151.81 -0.868674
-18.1877 86.1197 1.63162
-0.80962 142.484 6.46106
-10.4882 121.202 -7.74829
10.5484 123.34 5.93116
13.6712 114.579 13.2839
-15.1849 128.515 -1.78294
-21.9151 125.858 7.18163
-10.1876 129.58 -8.42705
-3.09218 121.038 -2.72804
5.32602 83.3378 5.21839
-3.92359 147.752 -2.78364
1.80015 122.648 -3.07299
-2.94466 105.188 -8.88429
-10.8035 119.244 -8.2609
-16.1874 74.882 3.14767
-24.4718 118.032 6.63707
7.70341 143.814 -5.00061
-11.8192 149.355 2.50799
-12.0648 104.493 9.99902
0.76414 139.822 6.27393
-19.0993 114.25 -1.1718
-23.6657 124.857 0.74169
3.61352 96.5774 1.48366
-17.5447 119.199 -2.47047
-18.8831 82.6019 -0.308662
10.481 120.526 4.13417
-13.2566 81.2278 -6.50568
-15.9171 100.473 6.27002
-14.9805 119.532 -7.89947
-18.01 125.549 7.04822
-14.7708 129.472 -2.502
-13.0524 109.778 9.93537
-6.05517 104.637 8.37429
3.34497 132.432 0.614231
-0.113064 99.7385 -8.02487
-6.6102 95.6167 10.2288
-17.9614 116.027 -1.99545
-16.2781 128.649 -4.01405
-13.6356 128.311 -5.76034
-7.37073 120.123 -6.33595
-12.6252 144.356 -0.0438568
-18.9741 110.771 -5.12699
-4.91812 96.1362 -8.40329
-21.2383 127.242 -0.189541
10.6705 130.659 2.32037
-18.2727 104.148 -4.42577
3.5288 93.0896 2.92423
9.25759 109.609 3.17203
-0.976619 80.2766 1.47566
7.56199 130.697 3.51871
-8.05136 131.152 -7.37487
5.84064 139.912 4.06452
5.26108 96.8394 1.61773
-13.4778 139.472 7.70001
8.0268 104.507 12.3404
-19.5616 137.928 3.48352
2.2332 83.1733 0.918503
-16.4078 107.302 3.73485
-14.7352 103.732 7.41447
1.76644 98.7019 -4.70244
-1.55006 91.3447 -4.23284
2.92166 123.361 8.67357
-8.15561 82.4267 -4.12737
4.75787 118.077 4.35883
-13.4394 105.911 9.26844
10.7969 131.605 4.41106
-2.57938 80.8421 -4.85028
6.73198 86.1561 1.45712
-24.2884 123.935 1.50204
-4.28736 122.269 -4.18542
6.61072 105.261 1.45263
0.757065 82.667 3.30691
-7.31033 85.5132 -6.00273
-18.4102 78.9769 -1.26325
-2.15638 114.039 9.02713
9.69106 130.666 6.67069
5.76548 133.819 5.62196
-5.10731 98.9205 -9.31204
1.52681 125.001 -1.77517
9.61507 120.177 8.37695
8.04882 131.708 2.76181
4.3719 87.4552 -3.38596
9.86634 120.977 7.8598
-15.4103 123.511 -2.37827
1.43759 82.4938 -4.0505
-19.7925 119.214 3.13302
-9.62201 113.172 -9.40009
-16.1276 122.902 -2.18749
10.1253 120.765 7.26797
2.80075 154.239 -1.83036
-2.13651 106.791 -8.20045
-1.47674 132.455 6.31737
-11.9142 109.191 -10.0314
7.09888 85.2935 -1.90416
-18.6823 93.6231 1.31645
-11.6439 82.5843 5.33425
-19.1634 80.1813 -0.650002
-23.4641 126.673 2.96879
-8.89525 100.484 -10.0018
8.31222 85.3971 -2.01304
-11.2925 122.2 9.11522
-9.34238 119.456 9.46247
-19.1051 86.1375 -1.62866
-3.89196 143.058 -3.25026
-18.5573 120.332 4.28612
6.83831 80.3992 6.13267
-0.374866 94.1974 6.15407
6.65014 128.635 4.60733
-6.97914 109.573 8.81291
-4.53288 116.929 -4.7432
5.29647 135.155 -2.26763
-17.7865 101.829 3.01005
-15.5525 115.009 -8.52504
-8.27174 83.8897 -4.66215
11.3389 92.0578 13.5286
-0.501101 121.699 -3.036
-18.7849 118.342 3.47904
-16.1874 133.981 7.68959
-25.485 123.133 4.98941
-7.49924 93.9275 9.98973
9.25553 130.055 8.24765
-11.6806 78.1557 4.70937
-0.733602 80.2462 3.48045
1.4685 106.762 -7.88484
-2.7576 142.138 7.47241
-10.6754 134.831 -5.90634
3.37295 135.934 6.47737
6.56987 88.4585 -4.60429
7.9537 132.19 2.52667
1.09759 89.7199 2.54206
-18.313 119.882 -3.99953
7.0528 95.6898 -5.90794
8.60436 109.715 11.319
5.57705 98.217 9.47606
4.37587 95.2677 -5.531
-17.8677 122.05 4.41486
10.7834 132.306 8.69615
-9.99275 124.522 8.83655
-17.0894 120.84 1.35795
3.37716 97.0436 7.09345
-9.27468 81.3222 -6.37936
3.16832 125.643 8.69503
-16.9244 110.818 2.05891
9.6752 139.738 1.55642
-16.1136 104.784 -8.24
0.0325333 122.694 -2.23742
2.95871 86.5201 -0.252285
7.05747 95.7716 -6.46358
7.57595 93.6635 -6.53995
2.77799 90.9966 1.84027
-0.542342 127.181 -0.617802
5.05261 130.326 6.30039
-0.904955 143.768 -1.06675
4.38058 92.769 -5.81678
-10.7598 84.3511 6.00664
10.8014 129.854 2.63218
-2.16461 90.8891 -4.54848
-2.23021 94.4691 -6.65095
-10.2123 81.7033 -6.14173
-5.84671 142.562 3.47416
7.87008 111.032 -1.24409
-21.6888 123.863 -0.2925
-22.5541 123.911 -0.0185768
-9.39156 92.8136 7.02408
-9.92408 142.832 -4.96984
-8.07936 121.241 9.20259
-8.63453 78.8216 6.12748
-20.4991 125.688 -1.83433
-7.49926 127.356 6.73889
-18.4287 139.36 1.80541
-8.18664 103.04 10.1206
-19.5387 118.844 3.96691
-19.0624 91.4914 -0.774245
-1.6651 151.338 -1.50952
-16.4041 117.027 5.53842
3.94191 119.863 7.79865
2.96586 141.24 4.39348
-18.6462 109.228 -5.62952
-5.56774 104.083 8.22632
-7.33189 145.501 -5.25152
-2.83362 91.6125 8.78251
6.81721 89.4637 -5.0383
-8.31495 139.924 3.21492
-18.1261 79.4463 1.87596
-4.57581 83.1363 7.72581
14.1934 146.123 4.8999
5.82527 90.3685 -5.52899
-15.3056 141.248 7.64131
3.73133 103.984 -6.70741
-10.0936 114.654 -9.30432
-23.4227 130.859 4.9029
-11.6506 127.944 -8.18423
-4.01909 90.9066 10.5363
-15.7048 119.646 6.58915
-16.2731 107.973 0.270864
-18.349 120.704 5.19752
-0.929078 120.619 8.63322
8.14299 129.551 1.97885
-10.4816 125.193 6.92969
4.30522 108.462 3.44339
-14.055 126.357 -5.94935
-19.577 135.919 7.61369
-9.34377 96.6194 -9.98625
-8.05875 149.824 2.33486
-3.40676 152.958 -1.84146
-19.3413 121.584 1.98277
-18.6971 84.2127 -5.59117
4.71844 83.6163 4.31366
10.0204 111.486 4.82664
5.58148 84.5443 1.72668
4.50888 98.0109 8.6424
-18.9733 108.966 -3.64996
-9.38047 116.492 8.93443
-18.9617 79.9339 -0.0101196
-16.4773 107.335 3.21546
8.26661 154.457 1.1632
10.3399 99.9859 13.7719
-14.9111 75.2889 -1.88287
-19.3586 122.942 3.63435
-1.77335 144.367 -1.44816
9.46557 106.976 4.47056
5.36229 96.157 1.67561
1.43047 125.267 8.41567
-12.9533 94.7849 6.36042
-16.0018 80.5052 3.75452
9.72817 145.744 1.88916
-6.75868 92.0567 9.598
9.351 119.954 11.7937
-17.7734 119.987 3.94498
-21.047 132.308 1.62053
8.64322 105.416 2.59783
6.85048 135.924 -3.99493
-15.3022 129.06 -1.5746
2.3727 119.571 -3.86357
-20.7654 117.832 -0.425599
-18.516 120.854 2.07309
9.9282 121.091 7.72904
-14.881 91.2379 -8.23289
-5.73137 79.8829 6.8563
-14.4247 100.621 7.79276
-2.19206 124.987 8.55319
-8.17699 96.1003 -9.44082
-18.6127 95.6426 1.25932
-16.7605 121.395 -0.7741
5.6932 126.196 5.1453
-13.0902 83.9991 5.10255
9.30054 131.735 1.60153
-17.8107 115.358 -6.89494
-7.91362 86.5103 -7.57136
-14.8526 101.522 7.47143
6.3611 82.4868 3.54017
2.6269 137.694 6.36143
12.852 118.036 13.1905
10.1508 128.215 1.81233
-24.6497 116.516 5.96075
-5.62435 145.213 3.01249
-10.5996 81.0966 -6.50476
-15.2032 125.156 5.07352
-4.28399 76.8496 1.79878
12.9079 114.039 13.4581
1.23366 148.285 -1.49988
9.24269 137.469 1.29524
-18.0278 120.625 5.63953
-10.4577 98.1923 -10.203
-13.6552 144.883 6.37411
5.48126 120.314 0.399454
2.68841 84.6657 0.668561
-8.63816 114.379 -8.77841
-18.3591 84.6334 0.910015
2.18349 110.344 8.41314
-0.847142 117.197 8.98404
12.0575 148.133 -1.94925
5.19507 107.901 -7.70649
-6.38083 138.51 3.20085
5.10766 132.503 6.52251
-17.6949 107.833 -1.43497
-15.2114 79.399 3.67649
-9.27593 80.3712 -4.9761
-19.1494 121.42 6.68537
9.61214 121.061 -1.31268
8.88251 111.75 10.0181
2.91924 100.863 -5.57227
11.8969 151.834 0.266733
-15.7893 108.621 5.41311
2.49354 100.903 -6.05615
-2.69155 154.139 -1.7937
4.3108 79.9734 -2.76784
-8.53789 80.2276 -5.52768
5.56173 115.668 -0.576145
0.570461 122.762 7.60483
-18.3601 124.08 4.07582
-14.4278 126.16 5.39618
6.38312 91.7801 7.52415
-9.55127 126.27 7.53194
4.31227 129.875 0.783553
-4.38913 104.507 8.0494
-2.39648 127.973 7.10487
-0.0626494 131.006 -0.770624
6.27409 108.449 -7.01646
-12.476 103.656 -10.2144
-11.6089 143.037 -3.5042
10.0499 148.309 2.94866
7.27127 98.9197 2.7618
-3.07704 108.863 8.24098
-15.4996 129.286 -3.33882
9.63577 106.496 8.97368
9.43111 99.0979 -1.77138
0.0224034 97.7793 7.19283
-5.06722 129.969 -3.6108
-9.07973 97.365 -10.0333
-5.36018 143.185 -4.74132
-1.41853 133.607 -1.19767
-18.4215 114.106 1.74971
3.25405 115.857 8.49734
-9.11008 127.528 -7.07263
-7.38855 121.969 -5.72876
-17.7194 77.4083 -0.621122
7.5968 106.876 -5.74411
11.5946 141.428 4.61618
-18.3297 121.354 -1.27498
-10.7535 103.536 10.4038
-11.8956 126.938 4.94045
-2.28155 80.6797 5.78066
-16.5045 82.3319 -6.24427
-15.3962 123.336 -2.1786
3.08889 83.2657 1.12603
-6.58684 89.7473 7.74666
-1.41356 120.867 8.81614
-5.66986 101.886 8.54493
2.47288 82.9364 0.956267
-11.1061 137.732 -5.39334
4.47556 137.799 -1.62402
-7.12237 92.6749 9.65339
-4.72386 98.8953 9.22036
-5.98647 118.995 9.04879
-4.90822 132.867 4.80193
-4.12282 90.576 -6.03974
-1.27617 132.902 6.38202
9.41632 117.294 -1.61835
8.30947 90.0571 8.91425
-0.498383 127.196 7.25394
6.97961 82.4009 -3.27741
5.1322 124.764 6.13418
-4.27051 92.1949 10.4621
4.59858 114.867 3.66195
2.40005 90.2792 -5.19843
4.15838 97.0527 4.90512
4.51318 144.725 4.85575
-2.33714 91.3524 7.83712
-9.6292 123.603 9.63244
-1.64867 137.422 6.52947
-17.099 122.74 4.34208
-13.1385 96.046 6.78513
-12.9572 99.6119 -9.86421
-21.6922 119.903 0.0393668
3.35622 84.2392 -3.25433
-4.35512 151.788 -2.23911
-17.1849 118.338 -2.00018
-12.1195 118.273 9.86322
-14.6369 143.828 1.99332
-13.6042 85.315 -7.2096
-8.27498 120.018 -6.68256
9.2583 105.534 -2.97121
-17.8308 100.03 3.57904
-3.17778 80.1716 6.11535
-4.15047 145.641 -3.33305
5.07785 102.714 -5.03378
-2.06314 134.498 -1.36134
9.37913 121.68 2.21613
-18.6855 92.6143 -5.78294
-17.0106 121.87 4.87603
-18.3191 119.179 2.84747
-20.2737 117.287 3.35103
-7.72487 136.912 3.72818
-13.8988 113.976 9.24143
6.06496 113.209 1.84593
-11.4937 104.149 10.2733
-7.93667 131.279 -7.29167
-6.03988 110.675 -7.25208
-12.6827 127.79 -7.88911
-10.2711 83.1085 -6.02122
2.32972 138.573 -0.18396
-19.8439 126.796 -3.20678
5.19931 138.495 4.66745
-16.9387 126.386 -2.56324
1.88375 108.576 -7.56566
-20.0022 128.668 -1.71232
9.22985 111.659 12.969
-18.3707 130.891 5.19735
-0.0820496 127.959 -0.373192
-19.5139 139.296 5.13216
11.0102 127.405 4.678
6.47825 86.8233 5.55111
10.4288 110.485 -0.0171582
-18.9044 108.981 -5.07878
2.77319 95.6193 1.71082
-15.207 121.922 -7.37043
-6.4651 81.8226 -3.81102
-4.69561 99.9948 -8.99273
-7.59762 74.4241 3.75234
9.06127 96.8817 11.5888
8.45545 123.996 -2.64164
-21.0113 131.072 0.853345
-10.3763 113.147 9.45754
-9.0459 148.587 -3.85129
-6.79637 83.9122 -4.23028
-8.18673 89.5552 -9.19974
-19.3278 88.523 -2.84583
-8.55582 111.25 -8.94293
2.46489 88.4192 4.85791
6.69984 101.049 -6.97033
5.0164 83.855 -1.82585
-15.1286 126.853 5.96065
10.9463 140.35 3.17208
-15.1196 100.222 7.20358
-19.4575 123.261 4.55972
-2.34365 117.19 9.31668
-18.7327 121.413 3.58094
-0.286715 83.0276 -4.23575
-8.10084 149.383 2.41361
-7.2877 124.822 -5.94875
3.11503 85.5079 0.538224
4.70979 146.014 -3.14529
12.7627 148.295 3.6263
-0.968101 108.769 -7.54131
-0.705586 120.415 8.5455
-15.7121 117.176 -8.19303
-10.1741 124.677 8.65675
8.86506 108.42 10.4967
-0.211566 126.9 -0.663308
11.0093 82.2368 10.7747
-2.74983 95.0319 -7.1983
4.89674 127.111 0.642955
-20.106 117.533 3.81847
2.66439 117.741 -3.40296
-3.79401 117.351 -4.22248
-14.6854 94.0367 5.63971
-16.5308 102.536 5.49041
10.8692 142.892 4.01308
9.99274 129.42 1.46952
7.93615 101.111 2.36355
0.216342 133.603 7.83424
4.14256 90.6377 -5.80487
-12.5815 144.322 6.61796
5.55057 109.622 1.77536
-11.2081 118.886 10.3422
5.61501 110.885 -6.25007
-14.2202 129.279 -3.94965
4.72554 84.4271 4.73384
6.09375 90.6475 6.44718
3.68375 130.351 0.727578
-12.1055 144.542 6.19964
9.88984 98.2 13.2225
-3.41503 99.0672 -8.78523
9.51541 104.509 13.6531
-19.0553 98.7808 -2.6897
9.93186 127.036 7.35592
-12.6086 145.081 -1.13423
5.81243 133.675 5.43274
-18.3122 120.003 -4.28735
-9.05545 115.937 8.89767
-7.13617 116.995 -7.6278
4.23002 154.699 -1.67494
-14.6994 79.4786 4.04373
-1.05805 90.9405 4.30193
-15.4617 82.3796 4.26771
-0.956962 95.1636 8.4194
-18.1368 104.414 0.0776353
-0.818446 130.885 -0.984842
-11.5517 111.633 -9.90906
5.72263 107.61 -7.42257
-18.7633 105.021 -5.38984
-2.44919 123.148 9.03539
-9.86643 149.566 -2.76836
11.2458 97.2928 13.6937
-11.3757 91.9643 6.37349
-4.11332 128.858 6.72009
-12.1154 103.997 -10.2106
-23.5777 130.813 6.25344
-16.3088 81.5297 3.49837
-3.20932 118.312 9.3934
-1.75503 137.277 -0.949751
-16.6758 121.1 4.81547
-10.3653 139.222 4.96359
2.6185 90.2158 -5.27949
-15.1758 123.13 -5.00298
-15.2455 81.7524 4.43144
-16.3597 83.9048 4.00158
-0.0793797 109.274 -7.57385
-19.0153 119.632 0.681327
10.4457 152.779 0.206655
1.19529 133.341 0.538963
4.83196 90.3956 6.31773
-12.6135 120.931 -7.80126
-11.8066 121.716 -8.05511
2.50897 90.3894 5.99633
-8.45665 143.01 3.04115
-0.193128 132.553 7.34388
-8.1481 94.1095 -8.85093
-14.7851 142.613 0.839454
12.0967 131.643 -0.0576377
-25.3357 118.038 4.80151
6.98952 153.544 -1.72389
-11.8238 78.5536 4.94675
-12.5669 90.0777 5.29171
4.40659 144.083 4.28335
-24.978 119.538 6.42026
-16.7818 123.091 4.31376
-18.5536 139 7.20972
3.36072 94.4134 4.60615
-11.6271 117.871 -8.52242
-16.9832 103.966 4.59504
-6.76711 85.9692 -6.14777
-22.5632 120.765 0.218623
-9.84485 83.9984 -7.57054
-10.8306 135.745 6.70914
-17.6575 113.417 -7.13597
-8.97017 140.917 -5.55604
1.76506 131.063 0.38118
9.52628 110.137 -0.432121
2.44635 93.7255 6.84078
11.2944 136.662 7.99873
-11.3615 78.2201 4.99482
9.77661 148.344 -4.88636
-5.85307 125.032 -4.82615
-18.7753 140.363 3.20492
-1.84893 134.128 5.7822
-6.68326 83.4419 7.22774
-1.55979 122.885 8.51226
-16.1278 116.783 6.25558
-8.53413 81.8418 6.41228
-3.0612 86.2767 8.52417
4.2178 101.582 -4.93533
-8.51826 89.6446 6.526
5.10718 114.792 2.40518
-1.31295 79.0677 2.74643
9.91128 92.9447 12.3992
13.9549 136.303 7.37895
-17.1927 120.534 -1.10536
-2.34878 104.079 7.68627
0.480861 120.692 7.98441
-1.17184 80.3627 1.35535
-19.475 120.567 1.81718
9.20655 119.634 11.6468
10.686 143.086 -5.09748
-15.4186 137.591 -1.07337
-18.942 135.529 0.827196
-19.0552 98.0865 -1.14476
12.9136 105.727 13.8943
