ply
format ascii 1.0
comment Created by Open3D
element vertex 1947
property double x
property double y
property double z
end_header
11.155 83.8381 19.0842
-11.2361 91.9536 -12.8942
22.8547 99.906 5.88772
9.19381 99.9143 14.4714
9.31925 88.0152 -12.3329
11.3051 104.991 -11.1821
24.5391 139.299 -0.407735
-16.9318 85.5104 8.2737
13.7192 118.833 -6.46469
-20.5563 84.2625 -0.458018
-0.379428 106.605 -13.6788
8.01878 122.742 -7.26929
7.77434 136.692 3.9969
-3.15058 114.195 16.4913
14.9365 120.947 10.0824
-15.9027 81.3725 -9.94951
5.22468 122.699 -5.25719
-6.76671 130.272 11.0427
-3.36644 110.839 -12.4607
-15.1929 80.6272 -10.9879
-16.123 115.816 5.01996
3.69758 120.147 -6.29538
21.1907 79.7827 0.457455
18.3642 106.873 -2.69897
26.6224 123.749 -9.31788
18.6584 123.908 -1.80927
-4.41704 103.497 -14.0126
18.1438 100.937 -6.03801
-3.9905 121.239 14.2308
-13.0921 90.6466 -12.7607
15.3182 98.8279 16.2718
-0.593745 134.816 8.12354
-17.4767 82.2757 -7.2081
25.4685 128.211 -6.99406
19.2381 121.786 5.28032
-14.8946 120.522 4.45389
15.7941 84.4943 -8.46258
22.094 136.241 3.0795
-0.853751 124.698 13.4655
5.64084 114.007 10.7846
-19.5023 94.3361 0.295219
-7.68098 78.1193 -14.9605
3.01789 112.756 12.7337
3.03341 77.1693 20.0071
18.9003 119.506 0.85974
30.232 127.584 -3.83288
-17.1782 78.3921 7.02341
-0.172448 81.2383 19.2784
18.3104 76.463 -0.767132
6.37262 121.452 8.11995
22.3002 107.939 4.70671
-21.8491 120.807 5.66646
22.4861 135.35 3.0891
19.6829 124.482 2.09237
-8.08568 92.0086 17.5535
-14.5071 124.496 8.0845
3.27146 76.0557 -14.6565
18.0536 121.381 -1.45886
16.7345 123.174 -3.3457
10.3842 122.414 -9.74193
-15.9807 118.128 10.1402
-14.191 76.2089 9.50309
-9.42476 88.0707 16.4113
15.1047 112.823 -9.57013
29.1368 125.212 -2.76633
0.15645 125.255 12.9589
16.947 76.7263 17.6057
28.2184 128.163 -1.98395
2.01606 101.519 -13.6117
-20.6246 89.5484 -2.56065
19.9293 101.516 -1.53996
1.25434 98.9759 -14.3022
21.8556 102.819 3.33418
-14.6572 85.5719 11.4359
-4.52711 120.733 14.4055
-19.5265 94.2917 0.551668
-5.44852 112.866 -10.2308
19.9698 118.614 4.24927
-19.4507 114.667 2.06118
-14.3564 86.3793 11.2669
5.4781 105.127 14.0824
16.5343 115.881 -1.63835
18.7342 97.53 -6.21177
-18.3096 99.7771 5.06858
-1.71277 92.5182 19.8039
-19.4325 94.2024 -0.490705
10.7698 103.409 -11.8814
22.8774 96.5599 3.14882
-4.82468 105.013 17.1107
16.9163 102.801 -7.70737
-11.7488 123.288 12.9569
-2.58452 76.6612 19.1558
10.2115 82.0807 19.4409
-20.5095 91.9434 -4.55015
19.49 123.237 1.66996
4.24902 81.4494 -14.0291
6.06911 80.9872 20.0046
9.55402 114.982 9.09272
23.3409 97.7395 5.60484
-7.34885 110.733 -10.2018
14.9722 83.7546 -9.42896
-14.8258 113.015 5.98298
-15.0698 82.673 -11.0471
24.259 81.8723 7.74432
-16.3087 115.947 6.83139
25.2492 129.856 -5.83773
18.2729 102.423 -4.06151
-20.1775 112.683 -1.47473
-15.693 112.499 4.49747
-14.1284 77.9274 12.9011
19.1502 122.426 6.74007
23.1621 90.3 5.20282
30.8272 126.872 -5.66026
17.1949 123.096 -0.57923
14.1512 117.191 -6.78976
10.5723 95.0214 -11.8026
23.5487 94.4117 4.67671
2.4572 101.609 -13.5176
-15.5842 91.6732 -11.063
5.03245 98.6628 15.8706
-7.83087 95.7627 17.3614
22.0862 78.9537 2.30068
-16.9669 102.724 10.2428
-7.38602 79.5785 -15.2875
8.79256 85.8727 19.6236
-6.88257 105.07 -13.4559
-4.7676 76.9233 18.8947
16.5262 89.9158 16.1142
5.52293 123.159 -5.10965
1.14988 114.607 -9.59573
19.6074 115.157 2.5217
12.6402 124.265 -7.29033
11.1299 120.451 -9.32443
20.1656 132.019 3.74966
-12.0659 83.4911 14.4384
-20.0662 123.469 6.86992
20.8875 82.4846 12.1819
-8.67483 86.4538 17.0328
2.89814 85.1972 19.7494
18.8118 111.967 -4.36549
29.1913 129.992 -5.64188
-19.4105 95.9835 1.84223
27.2869 122.685 -2.44424
15.8566 100.774 15.7972
16.2684 122.242 -4.19264
-7.11194 76.9348 -14.8902
-7.91612 90.7779 17.6552
-18.6153 104.605 6.05079
5.90775 114.86 10.3377
2.32101 100.478 17.4546
16.125 114.986 -8.59541
-20.9948 87.0225 -2.85582
-8.41719 119.551 14.9446
21.1131 125.01 2.141
-18.6279 86.8298 -6.10621
2.46115 107.078 -13.2977
5.29866 118.89 -7.52704
-20.9642 94.2154 -3.59377
22.3566 97.7722 11.5097
8.80378 91.243 -12.5614
-10.4585 86.1078 15.5642
-4.10746 90.5451 -14.0647
-8.819 114.505 15.562
23.2792 93.7721 5.42391
15.0727 81.2217 17.921
14.3072 118.025 -5.56783
15.8542 137.563 5.93585
4.22874 93.6616 -14.7899
-14.8298 74.6077 -12.1705
-1.04706 132.446 10.9458
3.16474 97.8812 16.9502
25.1695 122.983 -1.06217
0.357325 112.001 15.3888
4.16573 133.427 9.07503
-11.5044 106.896 15.0603
7.43064 89.2303 19.3748
19.531 123.126 2.15799
25.3055 124.997 -1.20425
6.58801 122.72 7.75138
-16.0033 117.698 -0.320814
7.55293 120.724 -6.66274
3.74856 105.446 15.3292
1.91381 118.077 -7.4851
0.0280082 79.0763 18.8571
17.786 120.797 11.2276
14.805 83.3832 -9.79808
12.2802 119.292 -10.6853
19.8726 119.751 0.0586405
17.609 140.202 5.58074
-10.9615 95.7507 -11.8674
17.036 124.6 10.169
8.68495 87.3049 -12.4978
14.9937 118.345 10.1581
-1.95712 100.799 -14.3815
13.9098 117.228 -9.24215
14.651 128.684 -3.7854
28.1301 126.297 -8.81767
-20.4184 96.0346 -5.02424
-19.2303 107.483 -5.00464
23.7533 78.2554 9.06498
-16.8648 93.1842 -9.82897
-19.6143 76.7331 -1.13247
19.0449 109.537 -2.32901
-7.93193 131.845 9.49497
24.8474 130.086 -0.413552
20.3997 114.735 2.98107
-2.89731 77.7754 -15.2782
-13.3719 95.4157 10.7877
13.5996 139.727 5.40566
18.0287 118.086 -1.86282
7.54856 124.587 6.73612
22.5476 99.5828 2.95799
5.56578 77.8159 20.369
2.831 133.833 9.68874
22.3623 125.927 2.02336
3.56739 95.0946 -14.7245
6.31819 118.646 -8.3615
12.7442 101.463 -11.2261
-8.37409 88.9135 17.4495
-6.12219 84.0443 -15.0944
9.98249 115.184 -9.78324
17.1494 111.579 -6.30226
-18.5117 86.8146 4.43603
24.2493 134.976 1.86063
18.8764 126.663 1.51475
21.948 92.1743 0.496767
14.0755 97.8888 16.9182
17.2016 114.311 12.5118
21.3579 104.712 1.83444
6.17702 121.859 8.15239
6.93985 97.4464 -13.8868
15.5129 125.715 -2.00604
8.44657 128.798 5.47054
0.604888 114.715 -10.0411
-17.4549 96.1655 7.68569
-17.786 77.1701 4.61375
22.8811 95.8701 11.1146
19.1999 114.734 12.0556
0.689379 78.1389 19.0702
-19.3887 81.9845 3.07835
6.55439 128.774 6.28468
15.7568 132.753 6.97548
18.8654 113.073 -4.2547
19.7237 125.253 2.59999
20.4654 118.658 -1.1136
-12.9177 83.684 13.8403
-18.4118 125.678 7.35209
-17.9483 98.7009 7.53048
-3.97252 105.589 17.5066
-7.01752 123.209 14.1503
19.703 122.881 1.11754
-8.85645 89.6449 -13.7669
16.6435 93.9195 -8.42547
25.5981 133.36 -0.391428
2.37615 89.7086 -14.9165
18.6367 76.8665 -0.710372
3.00875 90.6965 19.5851
-2.78285 74.9185 -15.979
-6.70233 103.704 -13.4818
-19.4172 76.0172 -0.788739
-20.0453 108.729 -4.15781
21.2771 78.8357 1.05371
-6.55308 110.051 -11.0552
21.3912 103.817 1.73107
-6.83369 106.411 15.9654
20.3169 87.0955 -1.41166
-14.7067 119.493 6.26787
-7.24228 120.701 14.7209
11.7669 95.7653 17.7829
8.21167 80.9682 -12.8714
8.35039 95.1657 -13.1374
-20.4088 122.413 6.60313
-4.64078 122.791 13.7198
6.20983 86.3561 19.4979
4.54368 125.074 -4.58418
-20.4599 100.649 -4.85689
3.71617 134.955 8.35537
-20.0799 92.4639 -5.35184
7.99158 125.328 6.36701
-12.96 109.274 14.645
1.60218 112.716 -11.2048
18.4135 85.5425 -4.37117
-9.49982 76.7726 -14.1186
24.2455 84.0597 8.32073
23.3339 92.5191 9.63046
18.0571 120.346 -4.95055
15.1258 124.504 -6.44304
23.5353 77.4281 8.77628
-9.71684 88.0383 -13.8722
-6.17307 123.315 14.0075
15.0961 138.045 6.40843
18.7258 85.1158 -3.07139
16.9259 90.4258 15.9196
14.1439 100.098 -9.98359
3.31084 99.5049 -13.763
-17.5573 86.8461 7.41175
11.9928 115.317 8.84293
-16.9217 91.4463 -9.35664
-18.9159 78.6896 2.21174
8.75612 76.9721 -13.1397
-0.156339 80.8873 -15.2253
19.4453 124.203 4.21502
-19.0176 106.472 -0.453415
15.9146 109.333 -9.19811
26.4937 133.591 -1.20381
-6.81387 77.4272 16.7646
13.2973 123.754 -9.53
23.0121 99.1053 5.20218
-18.6186 108.158 4.94716
-4.25326 116.268 15.4364
-16.151 118.704 4.79832
0.321881 105.009 -13.642
-18.2579 110.386 2.34936
9.3001 99.4318 14.7821
13.632 82.1583 -10.9273
-19.9637 98.9734 -5.51241
11.1865 91.5918 18.7638
10.0888 99.6435 14.7382
-20.4302 101.83 1.12988
20.3474 95.1682 13.4659
-18.6565 87.8676 -6.03786
14.717 124.286 9.45311
-18.305 88.0314 4.2489
-19.5948 93.037 0.727978
19.7052 87.6465 -2.5749
11.1149 100.739 -12.5424
23.9853 87.3713 8.36164
-0.304717 132.132 11.3794
-5.37946 88.4664 -14.4542
-17.8604 108.823 7.00096
1.50483 128.274 11.5339
19.3913 118.697 -4.45865
-5.52967 77.9237 16.9655
-4.13174 123 13.6836
2.83666 91.8491 -14.8719
15.1491 116.315 -4.53043
17.5375 87.2188 16.1886
-6.8048 118.327 14.9978
-16.4484 93.6056 7.95027
27.902 135.147 -1.69746
-14.9516 76.2439 -12.2051
25.8137 122.733 -1.83063
6.611 78.0801 -13.4935
-8.97771 88.225 -13.8428
2.00531 121.687 -6.46841
-18.3269 99.7492 4.35548
5.90793 88.1794 19.4052
14.3244 89.1632 17.2166
16.0729 93.2507 -8.72904
1.98405 111.979 13.7374
-1.27419 125.508 13.3029
23.1931 89.2292 2.80971
17.8227 124.956 -0.288617
-2.70148 93.5355 -14.4082
10.9908 108.162 -10.2976
21.3492 120.829 -10.5358
26.2119 135.078 0.293551
-0.193059 129.588 12.3342
30.8858 126.848 -5.61747
25.7704 138.82 1.02527
-15.9584 116.272 8.1358
-17.8285 92.1114 -8.43076
-4.23641 80.1305 -15.5623
2.90971 77.3822 -14.4965
-17.8744 92.0684 4.73478
-17.7954 82.5178 -7.09882
21.1069 98.4674 12.7429
-15.0666 121.523 11.0736
16.9645 89.5027 -8.78497
-13.6143 101.885 14.083
4.37819 96.4603 -14.3691
15.0846 111.547 -9.62532
6.18632 109.798 11.8599
18.3515 108.84 -3.2451
27.1222 125.012 -2.5345
8.23796 98.0736 15.4563
-15.6438 119.179 2.72808
15.4902 99.3945 -9.13609
-10.8735 90.4891 13.597
-10.6283 89.0381 -13.6012
10.2307 94.3822 -12.0087
-12.6251 105.961 -11.2152
-18.7893 96.3303 4.38468
20.0825 123.16 1.82872
-4.64574 95.3906 -14.0049
22.7637 99.159 3.59588
-5.08784 91.2695 -14.0294
-6.4386 102.315 -13.5358
-16.2844 85.2573 -10.2365
-8.48861 92.5715 -13.3192
5.01236 120.289 9.11572
21.1663 121.338 1.43912
14.5967 89.6635 17.061
-13.0758 99.6131 -11.7292
7.24025 123.109 7.2921
-1.57509 124.406 13.4813
-1.51735 111.446 16.7919
-7.28983 107.475 -12.3031
8.91296 113.131 -11.3175
1.66768 76.0436 20.6066
-14.3392 96.5461 -11.3057
-20.9563 96.1141 -2.42236
-18.6489 76.8476 2.03262
18.2054 92.9497 -6.45862
28.2026 126.863 -8.6332
-1.9557 99.762 18.4267
-15.3656 120.54 1.81042
5.51317 106.499 -12.5778
16.2718 120.736 -4.30644
8.11641 84.8962 -12.532
21.0876 133.621 3.34548
20.1124 81.0567 13.0551
12.0467 132.498 4.71031
-16.4606 118.812 0.459123
23.4909 88.6825 7.45653
12.795 79.568 19.0892
18.424 94.2704 14.982
26.8787 126.293 -8.6192
3.32537 117.924 11.2283
4.25416 137.925 6.36317
-16.0526 99.3549 10.3866
-3.32739 79.3303 18.0235
21.8922 81.6805 0.462905
19.2828 86.0707 15.1369
5.43217 114.31 -9.34754
20.0481 98.2022 -3.54031
20.4481 113.294 9.85613
-11.7613 103.323 14.4849
21.2287 104.696 1.25046
-18.8714 75.5603 -4.04402
-16.6081 86.9142 -9.65822
15.199 79.8497 18.2058
-2.26866 113.218 -11.5145
0.398642 134.532 7.75575
-12.2002 83.6433 -13.424
8.85352 132.607 4.40066
3.01171 92.4619 18.5672
-15.1581 118.14 6.08505
14.7418 116.032 10.6067
-16.1149 118.052 2.25174
-18.0809 91.1717 -7.25766
-10.4967 115.444 15.3772
-20.7892 101.615 -2.08557
2.9603 123.281 10.254
18.2009 123.749 0.510686
-20.7013 101.011 -3.48544
-17.9344 102.026 5.45485
10.9668 98.1965 16.0679
-9.83295 123.792 13.2154
-11.1547 129.514 8.42862
14.8903 86.1904 -10.1712
-20.072 108.296 -1.68144
17.6201 79.8873 -3.66722
8.67697 76.7521 20.3882
28.8293 125.3 -2.27907
7.02971 122.616 -5.39377
22.8517 82.377 3.86159
18.4427 119.54 -1.71514
-20.0111 86.1693 -4.36593
23.2801 87.6142 5.3755
-4.89461 103.809 -13.9173
-10.0185 83.0584 -14.0731
-17.2483 89.2668 7.11158
-17.241 85.7429 7.86916
17.7577 133.062 5.30985
24.9521 139.293 0.304038
9.13126 98.2851 -13.3389
20.8454 132.022 3.41542
14.6613 105.174 12.7535
19.5085 134.74 3.57796
-15.7761 81.9703 10.7439
15.2466 104.426 -10.1197
20.6256 121.038 1.52232
-10.0545 83.8796 -14.0113
3.33075 81.3425 19.5593
23.2873 87.2872 6.56802
-12.373 90.582 11.6843
-15.5142 108.25 -9.77205
-9.8906 108.134 15.5591
7.94078 96.7499 -13.7996
-7.12265 113.494 16.0459
25.6337 126.55 -8.41288
-15.1861 118.84 0.0660312
-3.89794 98.4102 -13.5559
11.0799 80.0824 19.4095
14.1967 109.369 -9.49014
24.1969 136.277 1.94022
8.94636 91.532 19.2617
2.46133 134.94 7.77301
0.971912 97.9378 18.1481
-15.4109 100.439 11.5543
17.3239 129.473 2.01385
18.1381 114.868 -0.0564138
6.91446 79.348 20.0423
16.293 99.5478 15.9317
-17.4717 126.307 7.46071
17.699 83.7605 -5.49155
21.8141 105.407 3.39347
-19.3487 119.106 5.44152
-17.8848 81.3568 -6.85619
-18.6136 92.8863 3.33458
15.8716 121.82 11.1148
-16.2904 118.351 3.33033
-12.062 104.224 -10.9342
11.5602 102.149 13.5921
6.04205 92.6577 18.6957
-20.0938 102.922 -4.87358
9.28447 96.5206 16.8554
18.7849 123.307 8.87312
-7.01911 98.401 -12.8298
21.9538 111.272 5.29591
16.3713 130.299 -2.80575
8.44225 82.2087 19.8203
20.4452 119.38 -0.106019
14.0054 77.0529 18.8432
-16.4563 75.9867 5.63961
-15.8448 98.0257 -10.8451
7.35095 111.492 10.8564
6.60886 125.416 6.99557
-0.385725 129.694 12.3293
6.34819 125.6 -4.65951
-5.68402 96.15 18.3551
29.4614 131.523 -3.89684
-18.9001 105.446 6.4073
17.7129 81.297 -5.05269
-15.6723 118.136 1.51622
13.2158 100.949 -10.7464
23.0625 93.9745 8.50754
16.0393 87.1423 -9.06637
1.6813 91.6586 19.3481
16.0316 116.078 -8.16551
3.98349 90.8919 -14.5632
-24.0454 118.051 3.47669
12.3773 113.843 -10.5981
10.1906 79.7905 -12.2987
2.97803 133.922 9.59168
-5.53285 130.305 10.5135
12.0832 84.8921 -11.3502
-16.4246 122.734 8.61772
-8.18298 116.582 15.0328
10.6894 99.2022 -12.6304
-17.8216 85.7304 -7.84726
22.6859 87.0012 11.5608
20.4762 113.667 1.48488
-20.264 103.271 2.00465
14.4682 95.7017 17.083
-15.5134 94.7219 8.82449
19.9264 113.088 -1.0252
-1.09352 89.4863 -14.6607
-19.9128 113.833 -2.44635
18.7157 103.322 13.9842
-16.73 110.268 12.0838
8.04257 79.336 -12.9063
10.4175 86.8431 19.4398
-9.72231 96.0226 15.8172
-3.12554 109.537 17.154
-18.8765 78.4005 2.17822
-0.418376 87.3919 19.7798
-14.8021 74.639 -12.2051
-20.4401 81.2699 -1.31184
14.6325 84.5138 -10.1952
9.19739 105.945 11.9967
25.0234 135.128 -2.61971
-18.1937 109.028 8.4953
9.78309 99.6722 -13.3436
2.00427 135.863 7.19134
19.0159 77.6918 14.8107
12.2523 122.093 7.07039
13.5447 123.549 -8.71876
-10.5525 81.1686 -13.9135
-17.8156 105.853 -8.29333
-16.6434 95.62 -10.3046
-15.4636 114.209 5.30751
14.0483 90.8403 17.3753
-21.0086 91.3972 -3.65431
21.2189 104.165 12.4255
-18.7777 82.0373 -6.02199
11.18 103.734 12.7315
-3.46952 102.796 18.216
19.8673 86.6361 -1.8613
-11.0609 117.662 14.7024
21.3637 82.8823 0.0351149
8.73488 86.4524 -12.4225
-20.0911 104.401 -4.45929
5.32531 114.352 10.7744
7.16985 105.338 13.0902
17.6447 126.319 -4.96761
27.3423 133.157 -1.71129
3.23922 116.898 -8.29819
4.58013 107.348 -12.5347
8.84411 113.902 -11.1793
1.16263 123.623 12.1314
3.9071 84.2288 19.4678
-10.5091 81.7561 15.2723
10.1019 119.247 7.92695
-18.3962 114.774 -0.657908
20.6332 143.846 3.83681
14.1906 89.9498 -10.2732
1.18776 84.9506 -14.6859
17.4222 108.802 -5.13283
21.7976 83.3677 11.0266
23.7573 138.914 2.28498
14.669 84.9628 -10.2186
1.539 127.288 11.4595
-8.09539 124.392 13.6004
-12.8477 116.246 14.2859
17.4396 90.6456 -8.10267
7.68036 85.1136 19.8345
-11.7078 97.3218 13.3605
-13.7275 87.4419 -12.1397
6.28665 84.4241 19.8231
16.3959 102.579 15.1782
-16.3657 83.6305 9.21452
-19.9904 112.609 -0.986686
-9.92016 106.565 -12.1907
10.5388 82.7655 19.2681
-7.60241 100.442 17.2465
-9.76064 90.8015 14.9377
22.1959 102.775 10.5236
5.83804 119.993 -6.17108
-21.4563 121.952 6.17641
-14.1159 111.961 13.8985
4.68456 138.426 6.3107
-3.05296 92.2177 -14.5231
15.6901 86.337 -9.22028
-7.54373 100.047 -12.8429
-2.54157 128.886 12.6326
-0.374676 98.7413 -14.5771
-15.1735 121.227 1.92031
18.9491 126.443 3.32646
-16.4481 106.484 11.1884
25.6793 134.881 -2.28047
20.3243 112.345 10.4754
-9.94717 111.298 15.9048
-9.94769 79.6102 -14.2699
-6.84871 84.9802 -14.8898
-17.2881 95.9156 -9.41026
-18.5643 114.902 -1.59238
-12.594 128.258 7.22504
6.25008 129.911 6.79201
22.9672 98.2124 8.13568
26.4593 129.1 -2.23622
-17.3961 77.9051 6.49119
26.7301 136.007 0.361621
-16.4883 119.228 0.829397
9.50329 119.168 -8.24103
-19.9195 89.2428 -0.1539
19.1048 79.3467 14.6731
26.6487 132.479 -1.46407
-19.7126 120.402 5.91991
-13.4416 92.1633 10.1833
19.5207 100.575 13.6907
-20.8611 103.43 -2.07248
-5.91169 127.928 13.3393
-19.6786 105.652 1.29668
-14.8073 101.403 -11.1043
-20.2055 107.79 -3.39973
11.1205 83.2824 -12.0142
-11.2137 106.428 -11.9225
18.3486 114.593 12.4447
-1.42486 109.436 -12.5266
8.20255 98.786 15.081
24.514 78.1795 5.00994
-17.8119 84.9692 -8.29731
-17.4843 105.602 8.52934
-19.8411 94.0483 -1.72086
12.0972 98.4775 -11.7479
-15.7531 120.754 10.0992
11.7242 92.5307 -11.2355
23.5064 86.133 6.74503
3.76132 78.9781 -14.2237
-16.6116 106.508 -9.22266
-19.9762 113.457 -2.4443
-19.3447 81.5966 -5.3991
-0.860383 81.5789 19.2066
-6.87384 103.599 -13.4402
18.2861 123.1 9.84696
-13.4353 88.106 -12.4242
5.53838 83.7443 -13.4595
20.5354 111.434 9.72525
6.50872 131.662 7.05845
7.0297 114.777 -10.2448
3.229 118.861 -7.17618
2.80342 93.7502 17.8954
-13.4144 124.999 11.8497
-19.9675 83.8656 0.932956
23.1359 93.9031 7.0074
-5.43177 91.6676 18.6134
19.9055 81.5957 -1.53069
-4.13451 132.324 9.33914
-6.03772 86.4965 -14.8402
18.9751 95.2439 14.3798
5.8373 126.169 7.33121
5.25334 135.836 7.73201
-17.8839 91.416 -7.76891
7.14521 127.15 6.41117
5.78253 79.8346 -13.664
-17.8206 75.057 0.661864
17.3831 124.486 9.38318
-16.4357 87.4669 8.59172
-12.4852 125.965 8.17955
9.77647 91.3604 19.1804
-18.6752 107.96 6.47023
-19.8717 105.118 1.97308
29.6833 129.816 -2.97559
17.6437 79.4321 -3.07
-13.615 82.1147 13.8957
-19.2744 109.49 -5.29622
-2.62072 82.9385 18.5522
13.9197 80.5605 -10.7726
6.61596 111.868 -11.289
9.48313 76.4385 -12.9486
4.59495 112.952 -9.42813
-19.8608 77.7127 -0.837847
16.9974 130.131 2.68043
17.8269 95.7958 -7.57993
-10.5983 127.235 12.2005
-0.0612767 106.516 17.0998
18.3112 131.097 3.18193
-2.66274 106.761 -13.3609
19.7387 105.579 13.7114
-14.5054 88.1528 9.91385
-19.1349 86.0745 1.99233
-20.5339 83.1977 -0.636314
15.049 108.118 -9.67263
17.1142 122.508 -5.20556
-16.401 74.6188 -9.58001
25.0704 129.625 -5.9997
17.6263 136.474 5.01463
-10.3761 108.22 15.5097
14.942 91.534 16.9775
15.643 76.157 18.1244
18.8013 119.684 -6.46158
16.7397 107.801 -8.42982
18.5364 113.133 -4.58948
21.001 96.1085 -1.44226
15.9782 78.9387 18.0553
22.6041 100.509 5.67893
4.04191 80.4339 19.4543
21.5412 120.893 0.757696
-18.8824 84.9781 3.22353
11.4285 90.0417 -11.8082
19.2771 111.564 -3.3322
18.0762 123.854 9.3857
5.22387 128.772 8.366
-3.2718 115.449 16.1362
8.36259 135.365 4.3253
24.2794 134.778 1.8276
-15.8654 103.659 11.9429
4.95488 134.994 8.19869
15.339 139.413 6.52982
-3.42011 132.178 10.2616
20.6657 136.248 3.42102
23.0179 84.4561 5.41197
23.5596 96.0709 6.5026
-13.6401 123.965 11.9622
-19.6715 124.662 6.91846
-16.8241 90.9091 -9.13892
-17.401 78.3524 -7.00767
9.66478 103.434 -12.1894
-17.3323 93.2567 5.49107
14.5268 125.962 -1.24467
18.5903 121.922 0.697665
2.80152 115.815 12.4915
-16.3447 118.559 10.1529
-19.3765 87.422 1.08643
5.99486 89.9018 -13.2907
3.76128 100.28 -13.5403
-8.4644 100.984 -12.3368
-4.15956 103.302 17.582
-17.8585 84.303 -8.28753
-20.7402 85.3966 -2.95395
17.5126 114.084 -4.39088
11.4878 78.1345 -12.2524
-2.88733 120.795 14.4968
-20.0492 87.1825 -3.96727
16.1396 102.408 15.3437
17.1755 127.009 -4.45235
16.497 85.014 -7.65328
-19.9699 75.2058 -1.91069
-12.6086 114.874 14.5728
19.8542 77.8307 13.6795
-18.5301 97.1736 5.63709
-23.1023 122.261 5.3584
15.5441 124.256 -5.29182
19.866 92.2649 14.3125
-7.5821 77.2803 16.4642
17.2493 127.237 5.54982
-16.8285 98.2564 -9.29874
22.6655 102.707 7.1488
-12.604 96.8067 -11.5469
16.3435 115.113 12.0768
-14.9984 79.3384 -11.2432
16.4646 123.16 -3.88632
25.7509 131.159 -0.899468
23.4899 140.697 2.58071
28.4417 124.092 -1.71658
-16.3878 119.699 9.80575
-17.4331 115.566 -1.87742
10.3058 100.723 14.1107
-17.678 120.644 5.14585
-14.9378 121.843 5.09943
-15.7516 83.1484 10.1203
-3.74248 98.9361 18.8898
16.5071 99.9948 -8.62661
16.5884 111.981 -7.38816
12.096 76.1447 19.8535
10.7654 126.42 5.81225
-1.51054 125.738 13.2506
18.8223 122.288 -1.54872
23.0085 88.0924 2.68625
-16.9666 116.483 1.21502
8.89479 114.027 9.55864
21.2747 85.5336 12.9102
3.22778 115.113 12.0758
-13.5479 78.3465 -12.7085
2.49658 122.482 10.8555
-17.2666 80.0188 7.46069
16.6005 126.842 7.36621
-20.3808 116.455 3.472
-3.72511 112.18 16.9549
-6.13555 104.972 -13.6268
-18.4999 107.993 -7.2599
18.0459 127.567 1.70902
14.5109 111.668 10.8305
-7.06871 88.9014 17.8525
15.7164 77.5409 18.1431
-19.125 80.988 3.83707
-4.4789 107.091 -13.5988
18.7663 127.308 1.90661
-17.1878 93.8115 5.95537
5.57182 113.712 10.9034
-11.5767 105.222 14.8436
-15.8475 90.8442 -10.6166
19.2329 97.2624 13.6861
-19.2535 106.601 4.50854
6.57186 107.64 12.6295
16.2259 130.218 -3.7455
11.8155 89.5655 18.5001
-8.34532 113.705 15.9249
-2.25379 115.775 15.7745
-17.1836 100.701 -9.51895
18.8794 117.947 0.253803
19.4909 95.9789 13.7457
-17.6899 95.4539 5.93653
16.1041 129.161 -4.28165
-15.4694 118.671 7.06871
16.0975 128.641 -5.58158
-5.3091 78.6864 -15.6393
12.2184 76.3229 19.7685
-11.476 88.7605 -13.6149
-14.2839 100.401 -11.3853
-3.70744 132.313 9.7825
4.54522 136.388 7.43093
18.9871 84.8721 -2.55955
14.5781 85.7507 -10.5401
16.0782 79.5827 17.9475
22.0406 84.2045 0.915288
-12.4596 104.68 -10.8224
-18.4747 92.3183 3.54795
3.46167 97.0383 -14.3212
12.5084 92.2378 18.1575
1.30889 80.5823 -14.9031
-16.2927 110.864 12.5549
13.4705 93.2306 17.7166
13.9313 131.902 8.57472
18.9099 81.9772 14.7612
-17.2945 113.595 1.25643
23.5983 90.0807 9.63125
-18.3868 115.835 4.05768
15.7862 82.0531 -7.83011
13.6292 117.286 -9.70607
23.4841 92.4424 3.69456
-19.5907 94.0722 1.21435
4.31899 122.207 -5.52807
4.35876 80.2732 19.5296
-8.25612 94.4571 17.2922
1.7041 78.017 19.3767
2.83234 91.6499 19.0791
6.2177 137.643 5.35939
-1.14241 110.875 -11.9016
-15.762 81.3715 11.1003
-14.2497 124.029 9.50145
18.7808 110.01 -3.32012
-19.3803 95.4135 -7.01687
21.4695 108.231 9.41033
-10.4862 94.5444 13.892
-15.131 109.392 13.4235
-12.445 97.5666 13.1978
16.7368 126.354 0.341167
6.89374 76.6504 20.6419
0.385066 78.3035 18.9296
-19.7209 88.2209 0.379728
-13.1212 85.1334 13.524
3.58153 78.4305 19.7362
1.05329 80.1045 -14.9825
20.5478 87.5003 14.0068
-15.3306 89.6484 8.47166
19.3904 77.4226 -0.231206
14.5618 92.9172 17.1772
-14.8997 93.0186 9.16099
16.4149 117.5 -3.00924
14.5116 112.192 -10.0189
5.71105 120.264 8.73305
-14.9539 112.916 5.35192
-13.2348 89.5171 10.836
-15.9278 116.214 0.403709
-4.46822 85.6571 18.6233
-2.71771 105.727 17.7802
-20.1945 107.882 -3.64156
24.6499 140.545 1.45484
17.5043 81.0499 -5.33746
5.93377 124.493 7.54716
-9.18396 117.587 14.8233
20.599 118.213 5.72038
-14.3395 78.2485 12.2538
-10.369 100.432 -12.1246
-1.72206 85.018 19.0613
6.25162 132.565 6.96303
-20.7968 99.2855 -1.41358
3.51771 120.974 10.0424
-17.9674 89.0397 5.20621
10.2277 83.219 -12.3994
-13.4025 80.0271 -13.0222
3.45378 101.87 -13.2945
7.8291 121.799 7.63388
-14.0774 120.342 3.46572
10.1774 88.6595 -12.1061
8.58356 81.2989 -12.7978
-15.9103 81.0848 -9.4699
26.7049 126.875 -8.44369
-3.75674 110.348 17.2221
-2.63742 110.479 17.1041
-23.2232 119.534 4.55227
-13.4204 122.226 12.4252
23.4211 85.4554 3.28387
-21.383 115.824 1.9423
-13.3739 79.3112 14.5428
26.2473 129.398 -1.94649
-3.82549 93.0952 18.9515
-17.0427 100.329 9.55929
23.172 89.9674 5.29332
-20.8219 101.658 -3.31057
-19.0915 96.6391 3.21716
-20.3161 79.7724 -2.59271
19.1967 104.113 13.9618
-18.3677 108.423 4.61361
22.7768 88.7046 11.5471
-9.51297 107.719 15.5222
19.0416 141.088 4.95759
19.1998 130.982 3.25269
3.69902 120.214 -6.27641
23.651 82.0002 8.68449
17.873 82.096 -4.99627
27.4231 123.842 -2.31243
-15.4576 77.8404 -10.367
2.21573 95.1899 17.862
22.3196 103.634 9.96674
3.28423 116.15 11.7767
21.3821 110.168 7.98871
-18.4981 74.6743 -4.2234
-15.5226 109.097 13.1188
11.3022 78.4346 -12.2533
-20.8827 97.8165 -1.30109
20.6422 114.84 3.19763
11.3037 104.538 12.4741
16.679 76.3419 -5.52629
21.6735 90.7111 -0.347281
0.636707 136.556 6.83873
13.2349 80.9543 18.6642
23.4001 123.192 0.407812
-0.00556528 94.9849 18.9153
-15.7511 75.3625 4.97061
20.6472 118.122 6.81373
18.7931 128.75 1.98344
14.9833 78.658 -8.84614
-12.8578 88.3043 11.7077
1.54599 103.128 -13.4644
16.0446 86.3165 16.8067
-16.4409 110.642 4.48505
-3.86784 102.528 -14.16
19.7838 88.301 -2.85475
10.637 109.014 10.8416
-5.41908 93.3076 -13.7027
-18.2125 75.857 -4.30146
12.6177 123.471 7.00876
-10.0976 107.425 -11.41
13.5553 124.963 7.11741
16.2233 124.215 -1.04194
0.356782 78.3911 18.8665
22.0984 92.6835 0.726106
19.2867 122.096 7.73022
17.69 121.949 -2.2574
-20.1829 75.5671 -3.08194
8.07943 81.9346 19.8741
14.7397 97.9158 16.4535
19.1647 102.175 -2.48196
-4.36159 77.1041 -15.6978
13.4756 125.81 -7.50486
9.39321 110.991 10.3622
-8.31169 100.263 17.0317
-20.0004 92.498 -1.63772
-18.6216 99.696 -7.76755
22.0846 104.796 8.58792
-3.47323 111.606 -12.1561
-21.3307 118.732 4.82069
23.3914 92.2967 10.3003
10.8086 112.129 -11.0021
4.23787 80.7255 -14.0382
10.399 113.128 -11.2262
12.4926 127.652 5.85477
17.3593 127.978 6.09464
5.64625 81.0232 19.8575
11.1625 103.99 -11.506
5.40412 117.251 -9.01847
14.9736 116.78 -4.37519
26.6245 128.567 -7.20374
-16.8657 113.938 2.33468
-6.09204 87.0559 18.1778
-15.5125 113.106 10.5532
17.0568 85.0599 16.6006
-1.96594 89.3836 -14.4566
5.63142 114.931 -9.35714
9.0239 99.3689 -13.6002
22.6193 121.292 -0.0253047
7.91824 78.6349 20.0297
-4.2698 104.709 -13.9629
18.5313 95.6824 -6.0439
23.799 83.3982 9.24335
23.7614 84.5556 9.89322
0.859208 96.4694 -14.7201
16.5523 99.9388 -8.60386
13.1092 101.751 14.3608
-15.9004 77.5681 -9.42821
-10.3243 80.739 -13.9212
18.041 124.554 -2.36541
22.3535 90.2311 1.35329
12.9891 98.767 -10.9229
2.36216 113.265 -9.59938
22.5109 132.925 -5.99167
28.0499 126.674 -2.0573
-8.67205 88.9011 17.1628
21.9159 112.86 5.58797
5.54448 129.088 8.10045
-19.9519 98.8736 0.838594
0.046597 78.0005 -15.1096
-14.2984 88.9826 -12.0293
9.293 90.4817 19.3264
7.43767 95.0992 17.3335
23.1994 93.3359 8.44113
-19.9354 96.9847 -5.97317
1.6826 82.7309 -14.8286
-21.2463 123.325 6.50577
13.466 128.708 -4.24529
18.9523 115.871 1.61329
-14.5552 104.042 -10.3685
1.82997 113.21 13.5212
-11.1847 95.663 -11.8226
-19.1713 105.888 5.82395
-3.69545 97.7263 18.9356
2.0942 95.1886 17.9218
1.28525 124.031 11.9071
8.45936 90.0064 19.4086
24.0435 86.8287 8.58342
-16.5989 112.157 9.72526
19.8452 107.143 0.463012
-3.56405 121.03 14.3689
20.8023 108.435 2.08039
28.8848 130.904 -3.0859
-15.3845 113.754 10.3074
21.2198 125.973 -10.5565
-1.41517 104.123 -14.0576
19.2063 101.697 -2.63147
24.8125 78.4988 6.26514
17.5338 141.365 5.57664
17.1314 97.5692 -8.19898
-15.9268 117.203 11.6142
-0.694059 120.886 14.2875
-7.843 93.724 17.5298
12.421 139.782 3.73501
-9.3202 103.403 -12.2372
24.296 132.586 1.36728
16.6019 76.8044 -5.89621
19.8421 125.652 2.58065
23.2148 86.5772 3.18439
-6.30265 102.402 -13.579
8.65824 113.285 9.80972
-16.031 75.5271 -10.372
-6.86401 78.8649 16.9629
3.6641 83.5201 19.506
6.10297 121.106 8.31987
-9.48412 99.2337 16.2002
15.8186 90.1588 -9.54041
-0.929564 129.385 12.5282
13.209 77.7926 -10.6435
2.74189 95.4581 -14.8156
-9.98884 79.2607 16.1157
23.0656 99.2851 7.51813
14.3748 90.6956 -10.173
19.5923 125.385 1.29346
-19.9941 100.428 -5.69042
13.1077 96.5833 -10.9491
-11.0157 93.229 12.868
17.471 89.8913 15.6454
14.3813 127.166 -0.611938
6.81243 101.913 14.6037
19.6472 113.447 11.6627
-15.5659 88.4291 -10.3905
-14.9699 125.102 6.02314
-18.0018 108.627 4.23919
9.70706 107.197 11.4583
20.5798 99.027 -2.25156
13.9822 126.191 -4.16184
-7.09849 93.8734 17.7419
-14.4485 121.874 12.4383
16.823 103.366 -8.15039
-15.5846 94.1793 -11.1456
0.484473 134.473 8.14018
-13.4174 125.047 7.3148
-1.77831 93.5117 -14.4495
-19.6197 80.5296 1.71143
17.4135 129.907 4.0368
30.1052 128.028 -4.57879
-9.80055 96.6742 -12.1115
5.20414 79.3763 -13.8111
-6.45958 94.7526 17.9911
2.99343 95.5157 17.317
4.04314 125.138 9.37854
-6.40092 101.905 17.3036
0.519306 85.4527 19.7485
3.41114 109.284 13.7529
22.0133 103.527 4.42656
0.171968 77.8764 19.2063
-7.26282 110.099 16.2377
14.2234 111.651 -9.92252
23.21 93.7043 7.58272
0.206287 111.196 -11.8925
22.7084 129.675 2.35941
1.5184 86.9803 -15.0063
13.6258 110.867 10.5781
18.7873 118.049 0.738825
-7.96869 119.671 14.9641
23.565 81.4491 5.32709
16.961 109.917 -6.46626
-13.2661 106.283 14.2374
14.5467 110.305 -9.37719
29.6319 130.098 -3.30861
-9.33795 94.682 -12.4983
4.1724 109.401 13.2234
7.72354 90.6481 -12.7241
17.0826 123.087 -7.43631
17.4233 125.361 -9.69828
-14.761 113.64 4.9588
-19.6228 110.195 -4.9977
27.2672 135.015 -1.83338
-1.8053 134.876 8.46653
9.95303 113.469 -11.1651
-18.3413 121.358 6.06204
-17.008 89.9948 7.42369
18.7544 96.8126 13.9187
-19.6798 104.039 0.674429
17.3829 136.359 5.05027
15.7542 141.852 5.96279
-1.9043 135.324 8.14324
-19.5099 93.4436 0.220258
10.6729 119.166 7.86671
-6.51948 86.3024 18.0373
-1.1116 99.0707 18.2405
-15.1192 99.8465 11.6988
-16.0998 75.4558 -10.1854
10.046 112.906 9.67424
23.7195 80.4109 3.07609
7.62975 137.26 3.98189
-15.4025 80.3294 -10.3673
8.02773 99.2636 -13.5967
3.22661 96.3498 -14.5371
-15.5541 92.9047 -11.0875
-16.3128 120.259 9.52231
-20.5487 102.018 0.620935
19.3101 98.9909 14.2577
22.729 142.879 1.98642
22.5209 91.9459 2.03149
15.0626 125.255 -6.28128
10.65 104.436 -11.4664
-4.44029 80.815 -15.6551
-4.7792 111.094 17.1661
18.6065 123.441 -0.923062
-2.67542 97.9814 18.8864
22.016 104.838 7.83238
15.4788 101.913 15.3402
-13.5472 89.6455 -12.6951
1.83707 91.2885 -14.9165
8.32668 82.0731 -12.9307
6.33478 112.986 10.893
-14.4282 86.2901 -11.6485
-3.27892 87.4199 18.8912
17.0386 126.228 -9.22943
-20.598 101.031 0.0363693
-20.8522 88.3485 -2.6756
-8.85542 130.365 9.20404
14.7025 95.382 -9.7861
21.9703 142.465 3.33044
-17.7241 101.717 -9.1058
15.8639 128.982 9.35719
-20.1813 80.4703 0.515665
-5.00922 104.12 16.7997
-14.9218 89.7265 8.87566
-19.2772 85.8614 -5.65483
-12.7045 103.629 -10.8636
-14.9044 75.8088 7.71818
20.8516 124.163 1.94189
10.415 99.5698 14.8815
-17.9883 75.9908 0.8471
-16.2807 82.2171 9.86287
21.2634 112.933 7.34449
-13.1256 127.273 6.07207
-17.5409 121.788 6.24065
5.22589 112.652 -9.74801
15.8118 129.849 -3.27741
7.52278 92.1718 -12.9496
18.2751 127.526 4.05985
26.0613 128.41 -2.07617
5.38053 124.984 7.96843
9.2929 122.179 -7.62294
-14.2325 111.59 13.9681
1.65316 90.9908 -14.9332
-2.33599 95.8883 19.344
20.0491 108.627 0.346467
24.5934 79.7787 7.12031
19.2803 113.031 -3.54909
0.820347 85.5099 -14.9418
-16.3926 109.541 12.4714
14.1913 125.19 7.86222
16.1927 85.8951 16.7922
27.3762 133.543 -3.80216
-4.08968 87.0023 -14.8207
23.2431 87.1801 5.28829
15.6652 109.674 -9.17427
-3.34543 126.863 12.8389
23.0089 99.6222 6.12971
-13.2519 103.902 14.1846
-20.7923 99.0856 -0.689165
3.69203 116.641 -8.60808
-18.8389 78.5349 2.32197
1.5887 93.7189 18.1833
-19.0259 109.006 -5.51288
-15.1033 115.546 7.43823
-16.1854 115.244 4.97623
-18.064 106.613 -7.99698
10.3697 132.473 4.10025
26.9222 127.203 -8.21035
20.2606 103.816 -0.865671
29.2761 129.873 -5.90025
10.8179 112.213 9.79379
16.9122 122.729 -1.1044
2.41728 128.795 10.6664
3.89673 116.881 10.7282
-1.0084 120.969 14.2786
-19.8067 88.2785 -4.50162
-17.3279 114.94 2.73053
8.70908 103.953 -12.8675
18.8812 120.756 -7.19453
16.8711 141.843 5.71316
-12.3672 111.51 15.3339
-9.75285 114.149 15.6619
23.0548 83.1766 5.35098
-16.4773 81.314 9.86523
-17.8268 108.834 7.36462
2.18099 129.732 11.0201
-20.3218 89.3721 -1.38682
21.5697 129.482 -8.46124
-9.98653 85.2419 -14.2699
-0.741484 114.244 -11.4506
22.13 78.0275 2.87608
20.8459 129.796 3.50194
5.24684 95.3726 16.7858
-13.2999 89.7878 10.7111
-4.15353 111.696 -11.8651
21.6101 98.5562 -0.285693
16.1043 107.382 12.4334
-9.35633 95.8415 -12.283
-14.5555 116.047 0.47555
18.6281 102.159 -3.4665
14.9224 122.977 10.2667
2.31858 77.4361 19.6998
1.45805 132.422 10.9682
-17.1608 84.2507 8.05616
1.42413 111.751 -11.8186
-17.0601 84.364 -9.16238
0.794076 118.892 13.4847
-19.475 97.8263 -6.7577
-16.6243 102.041 10.5777
1.10351 91.6429 -14.733
18.1655 91.9694 -6.63608
-18.836 125.956 7.14982
-15.0709 86.2325 -11.348
22.7894 90.225 2.12136
-16.8131 108.374 11.2931
20.273 87.7325 14.2523
-18.5311 120.848 5.66833
8.38747 126.878 5.9307
-16.737 88.7317 7.58521
-5.7309 93.3001 18.3381
25.313 78.7393 7.89886
-20.2242 89.0281 -4.32729
10.7351 82.5433 19.2451
-15.0694 118.562 4.41172
7.93559 105.55 -13.06
-15.1536 79.9844 11.3384
16.4271 116.074 -1.4589
10.5402 114.767 9.09973
-15.8983 122.09 6.35039
-10.5003 92.8147 13.6941
-16.1366 75.9169 -8.90457
18.0445 133.63 3.98169
-14.5842 82.2864 -11.5954
17.1735 108.405 -6.17169
21.4394 77.2929 2.43685
16.0094 123.747 -4.78837
6.76521 135.78 4.76173
11.9311 79.0122 19.325
23.614 122.805 -0.0833895
3.93964 76.3772 -14.4621
-16.5358 109.065 12.2322
9.57035 120.86 7.56673
22.6364 81.2617 1.25268
-21.2886 116.024 2.26687
12.3943 122.533 -9.51721
-20.483 76.0412 -2.53991
2.67996 94.5706 -14.8888
-15.4127 115.895 8.12976
-19.4536 86.1647 -5.32481
4.70016 91.3274 19.3459
6.29693 131.222 7.23822
-13.2976 88.4497 11.1153
-13.4379 77.6289 11.8154
14.2564 89.1459 -10.2664
-4.3204 77.4233 17.999
-17.2625 76.5961 5.09092
23.6444 82.6913 5.86176
15.5436 75.4883 -7.50312
10.1541 83.3981 -12.3866
-17.9618 87.5712 -7.38699
23.954 83.1603 8.9988
3.95807 123.494 9.34091
-17.6753 85.0187 7.2259
23.5038 80.812 8.98494
-12.2461 78.9904 15.2882
-15.498 94.694 -11.2785
18.8306 130.883 3.11872
17.7647 120.711 -3.11651
20.6904 86.6818 13.8126
9.88346 108.133 11.1574
-15.0456 91.6548 -11.57
-20.4914 98.8142 -0.0837485
16.0429 88.9981 16.4581
-18.4227 84.5384 5.55604
17.9976 105.774 -3.96768
17.7586 128.742 2.26268
14.8541 91.632 -9.70558
-8.9596 109.544 15.8319
5.82305 103.72 14.6629
-7.01717 95.0395 -13.5295
19.5408 114.135 11.7365
14.5213 122.646 8.85891
-3.63925 99.5847 -13.7953
0.511898 120.683 13.5776
4.50367 106.126 -13.2112
-15.5663 111.18 5.65032
27.5553 129.563 -2.56345
-13.6219 88.7791 10.53
-5.63564 129.012 12.0611
-13.8032 76.5254 10.1305
17.7484 104.965 -4.54502
0.723562 94.8617 18.5821
-11.9856 79.7 15.2791
20.5568 121.622 -10.8522
-5.21597 90.7028 -14.2493
-19.9888 110.301 -4.05466
-16.0509 121.972 9.70524
11.4092 116.435 8.55153
-9.45825 94.0897 -12.5729
13.9556 127.367 -1.84809
20.1163 104.891 13.4475
16.8791 134.343 6.20613
24.8248 81.6643 6.9286
7.99934 95.2445 17.4079
-9.15202 99.074 -12.2962
13.9093 104.797 12.6599
-3.01864 102.278 -14.2637
16.6962 130.175 6.9381
21.1125 102.457 12.5627
-7.05719 105.088 -13.4152
6.03597 98.0686 15.7519
17.4482 92.1684 -7.80498
-17.4698 101.795 -9.63957
19.956 119.105 -4.82452
-20.468 111.2 -2.21598
-15.4918 116.264 5.6737
7.51692 83.0361 -13.0594
5.70362 122.243 -5.45249
12.2191 96.6189 -11.4684
-16.4656 107.394 -9.05529
-17.1365 82.6694 8.64956
17.6322 90.5568 -7.38734
3.82579 98.6305 -13.8508
15.9212 83.9794 17.0787
2.27023 118.065 12.6559
7.41109 82.7867 19.9106
-17.001 74.6552 -5.98005
-20.0402 117.781 4.66751
8.52764 98.6106 -13.7363
22.2555 104.067 9.18745
-17.607 80.8639 -7.69646
14.5884 120.531 9.24572
7.38396 80.9524 -13.1391
28.919 131.909 -4.40831
3.30784 83.1737 -14.2571
14.9468 112.382 11.3033
6.7266 134.445 5.61466
13.9936 115.258 9.66043
21.6469 110.693 6.95751
-10.6148 125.106 13.0697
23.1493 133.727 -5.22393
-20.937 93.6369 -3.76911
-14.1557 96.7831 10.6786
21.8886 90.5442 0.185966
24.9112 135.049 0.883467
-9.1751 105.886 15.1946
16.8572 127.203 6.13204
23.9714 135.839 2.15708
11.6497 102.325 -12.201
-17.1631 96.8502 -9.22776
7.93774 76.6118 -13.5094
15.8435 111.103 -9.33353
1.78997 106.04 -13.2352
10.2415 110.483 10.4103
-15.9609 76.1526 -9.7969
-16.6056 124.448 6.2098
15.8844 141.446 6.1074
-16.1123 116.947 10.6821
-16.3109 91.737 8.27808
-20.3273 110.438 -1.88229
13.6132 120.615 -9.18062
0.00784889 78.7123 -15.1667
19.1717 121.589 5.41948
16.4236 104.003 -9.08047
-4.33601 77.8314 -15.5703
-16.402 75.7447 4.76153
-17.9029 98.2773 -8.38717
15.1544 114.665 -9.15639
-19.3197 95.8092 2.61918
23.1549 93.6405 5.95143
-16.5237 88.2528 -9.33309
-20.1841 82.6348 1.20302
14.1594 119.02 -4.61966
8.73089 90.9517 19.3192
1.71867 90.1138 -14.9405
-10.2518 84.8849 15.9117
14.9449 79.0235 18.4607
-9.28721 99.4578 16.4238
-20.7649 85.5425 -3.01019
2.28061 123.431 10.9114
-6.26683 116.4 15.0855
-18.2189 91.382 -7.21509
20.6395 109.072 1.22711
21.8253 105.188 10.603
4.1519 104.596 -13.5831
-2.67961 104.255 -14.2402
-19.4267 105.224 4.66756
6.42814 82.5227 -13.4665
-9.04655 78.3357 -14.5468
17.3245 120.99 -7.23187
0.375639 83.2559 -15.0982
-7.99563 99.5432 17.2021
15.2606 113.84 11.5441
17.0309 139.489 5.77234
16.6753 126.898 -5.42418
-14.5694 85.0235 11.8973
20.2927 111.995 10.6594
14.2086 137.111 7.72368
18.8497 117.548 -0.25005
8.74561 100.493 14.2262
19.5792 98.9028 -4.40293
16.3338 123.123 -3.79611
-6.18302 90.9685 -14.222
21.7053 112.595 2.33417
-19.8065 75.0058 -1.59728
-15.3288 79.4464 9.6406
17.6503 125.514 -4.63818
28.0361 132.295 -4.93846
0.0476509 125.738 12.9535
16.774 127.731 -3.72305
-19.9352 78.1016 0.0920753
20.3818 86.464 14.0973
1.0879 118.71 13.2549
-6.79133 109.299 16.4209
12.6508 120.943 7.46881
-17.118 117.203 2.68316
18.2023 87.8702 15.831
21.8734 106.255 3.24657
13.8167 112.035 -10.1766
-12.853 100.787 -11.5566
6.51437 126.409 6.81599
17.8234 107.231 12.9045
6.95528 110.51 -11.7234
17.8996 84.2282 -5.46487
9.45788 96.9265 16.571
14.3252 127.826 9.25826
18.239 129.599 2.44634
13.8606 102.243 -10.5112
10.9183 106.865 -10.6908
-12.1845 95.9413 -11.5769
12.533 103.673 13.0787
19.4103 119.593 5.167
13.1899 106.264 -10.6853
-19.2047 83.4467 2.7258
-11.1841 100.371 15.2106
-19.1406 96.6542 2.73474
-5.27214 93.0951 18.5476
17.9473 121.069 -1.05264
8.53212 117.548 -8.82535
1.09902 95.9405 18.4201
23.4855 96.7225 5.30868
-14.3859 118.265 1.80192
-6.52894 109.628 -11.2657
-15.8914 75.5601 5.43016
-9.97971 97.451 15.5173
-5.79831 85.0437 18.1306
-4.23886 77.2869 18.2382
14.9184 119.836 9.92591
15.5653 126.325 0.144847
16.5357 114.174 -7.95621
-9.74143 85.0651 -14.2969
15.78 136.828 5.86308
6.36886 105.471 -13.1574
-19.8613 80.434 1.15165
23.8475 135.235 -4.28239
24.7847 141.169 0.911484
18.7009 93.3506 -5.0357
18.914 119.574 0.973542
-9.896 94.1464 15.2377
-17.4706 103.657 8.70281
-4.64102 88.8028 18.6182
5.78305 117.215 9.5658
-15.8861 123.826 4.55226
7.09816 113.968 10.2984
21.5209 109.11 3.44645
15.1667 116.607 -3.49671
0.387573 120.251 13.9076
23.2048 133.823 2.57426
9.83834 131.807 4.26719
11.5306 77.0551 -12.2347
17.884 109.333 -4.63777
17.2572 125.65 -0.116213
21.855 83.513 10.9652
18.7705 94.7262 14.7174
22.6873 102.496 7.4538
13.1868 92.7644 -10.51
16.5348 79.8973 -7.2488
-4.71675 109.995 -12.2133
-18.1743 89.792 4.04711
20.4961 114.067 8.77785
21.7858 102.825 3.06207
13.2868 133.414 7.74564
-2.10443 105.639 17.7197
-15.7118 125.179 6.29575
17.7013 121.064 -0.806853
19.8997 105.255 13.5914
-9.11928 94.9799 16.365
16.8094 122.827 -1.91239
-15.7493 100.922 11.3044
7.69759 103.797 13.6471
6.36483 102.91 -13.3957
19.0783 122.694 8.83707
-15.825 113.042 11.9444
4.18839 117.385 -8.62257
2.09279 116.827 -7.95715
16.7068 82.9796 -6.6541
-14.4391 91.0046 -12.1789
-15.0647 121.212 11.0335
23.1331 98.6046 5.18589
-13.0989 96.7406 -11.4924
16.084 116.019 -7.96519
-12.0942 82.409 -13.4686
13.8118 116.044 9.33883
-17.0768 77.1786 6.25338
21.63 110.341 6.9205
20.2073 111.522 11.2852
-15.2972 101.694 -10.8345
17.7887 130.708 5.52708
12.6276 129.78 5.48953
18.7929 118.37 0.789116
22.4562 127.931 -9.07472
-20.0752 80.221 0.578519
5.82785 110.482 11.8144
6.7979 123.065 7.51924
-8.35448 120.988 14.5604
18.5956 85.6554 -3.75418
1.29385 93.1786 18.5502
4.89402 84.953 -13.5823
9.19587 109.301 10.9304
18.1456 82.7771 -3.05981
16.0878 115.168 -5.98444
20.1323 107.315 1.15453
17.5212 120.707 -2.48118
1.13422 79.3845 -14.9351
-19.6829 104.203 0.858632
-5.46851 81.8667 17.6863
1.13605 97.9235 -14.532
20.8525 97.3319 12.442
-11.3723 83.2539 14.8785
6.2488 113.798 10.6561
19.3822 92.4316 -3.91095
-1.20333 78.2292 18.4976
8.14171 75.6271 -13.8086
12.4932 76.1225 19.7547
22.0771 85.7173 11.4861
21.2925 105.713 11.816
13.0875 85.904 18.1026
5.45062 80.7698 19.8373
-5.2972 125.848 13.2283
22.56 106.208 5.00986
5.36516 134.611 7.23006
-23.8374 119.234 4.15586
-17.8726 85.7291 7.0157
-13.1861 105.9 14.3198
11.263 102.286 -12.3244
21.5177 103.011 1.99648
-16.0024 115.525 3.60159
-20.7125 78.0806 -1.59532
29.1092 130.969 -5.06201
-15.6497 113.344 9.62547
20.6647 125.297 -10.663
9.17315 99.4437 14.7623
19.8886 120.741 8.51655
23.1004 90.2209 5.61634
20.4699 90.8091 13.9806
2.43554 136.933 6.54732
-12.4016 92.2799 11.4705
22.0278 104.943 8.19596
13.7275 113.126 -10.1441
7.79902 82.2978 -13.0918
8.44595 97.4537 -13.6398
3.27309 97.938 16.8883
-1.22367 101.164 -14.4703
-0.0187751 99.1735 -14.5988
-4.94991 108.937 17.209
-12.7423 86.2692 13.4469
-15.6655 114.881 3.48352
11.1905 127.353 5.57458
-10.2675 105.392 -11.9859
-11.4502 78.6768 16.2174
18.7211 83.4706 15.6688
-20.3632 89.4756 -1.61711
20.4245 112.254 9.97608
-18.8176 80.3698 -4.9334
-16.2 116.368 -1.38374
9.44578 88.6478 19.4171
-18.4348 96.5907 5.43075
-0.969283 114.024 15.7789
19.502 95.2894 14.0005
3.90292 110.736 12.7908
-19.5422 105.207 3.97803
-15.1825 114.208 6.07836
28.3557 125.132 -9.04732
24.7061 120.811 -1.901
15.5295 83.2291 17.3349
4.78083 96.7545 16.5632
17.6824 126.831 4.84333
22.1137 98.755 1.01055
19.6187 118.665 -4.23385
16.9702 87.6332 -7.58243
-2.23013 84.7612 -15.319
-11.1177 126.921 11.486
-3.13741 85.8482 18.9626
-6.64319 103.714 16.3898
22.8884 100.173 6.36689
19.6391 121.68 8.3734
15.5156 127.827 -2.16346
7.68922 126.9 6.22599
-8.63531 106.68 15.4327
22.5514 94.2457 11.671
-15.8281 125.54 5.29993
21.2076 109.084 9.48517
24.7201 131.488 -5.17099
2.64212 104.337 16.3606
26.4623 127.573 -2.30468
17.4494 120.535 -3.87939
-5.52379 89.508 -14.4969
4.89041 91.6717 19.2048
-15.6647 122.408 5.19268
-2.01746 132.509 10.6434
-15.4794 96.8146 -11.1839
4.04453 134.791 8.67067
-16.0086 110.794 6.50353
29.2426 125.502 -9.20037
14.6675 125.964 -0.446681
19.1119 101.94 13.6537
-9.13857 99.2182 16.5057
13.9971 101.157 -10.1815
-16.2047 86.1872 9.33236
14.3561 125.153 8.17372
-15.2876 80.8243 -10.7497
-17.7773 92.7593 -8.70151
20.149 135.225 3.44918
25.9284 137.075 -1.40899
5.37582 112.909 11.2525
22.1684 99.7389 1.78148
-12.4154 79.2006 -13.2204
14.1801 136.006 7.77085
16.6537 108.967 12.8573
-19.7719 104.084 3.71765
20.4703 97.4303 12.6912
-13.0528 80.3991 -13.1733
-19.7301 93.0043 -0.894289
12.9229 113.356 -10.4946
24.4535 79.2833 6.40247
-19.3207 96.0574 2.4877
-1.74189 105.557 -13.9452
-15.9451 118.065 9.27671
-4.88506 111.242 17.1485
19.1666 120.02 0.531091
16.8829 93.264 15.8781
22.518 88.6324 1.6501
15.1834 124.683 -5.26995
12.5527 96.356 17.5751
-6.09906 132.407 8.93452
15.529 136.047 7.33074
19.5961 82.5995 -1.56495
16.5525 127.334 6.83496
22.4869 100.2 3.49275
9.84759 121.463 -8.43566
-19.828 83.2884 -4.6235
16.7743 114.679 -3.59846
-16.0006 116.633 3.3233
20.8864 110.752 0.852039
19.6585 91.1922 14.544
22.2567 122.018 0.438891
22.3768 128.974 -8.23668
17.6558 112.425 -5.67715
3.58681 94.1189 17.6594
16.3033 123.32 10.7923
13.4023 88.6204 -10.6502
6.99356 124.28 7.0902
17.6536 86.6281 16.2192
8.03591 78.044 -13.1169
-9.79464 85.0911 16.222
2.77459 107.53 14.9213
18.5924 120.781 -9.74916
-2.99802 103.795 18.0494
12.3164 114.586 9.09454
17.581 100.013 -7.93633
-10.2656 110.36 15.7825
15.4398 113.937 -8.82475
-13.9169 80.8265 13.8006
18.1183 79.4379 15.9149
25.3784 132.84 -3.47496
-10.8607 105.821 14.9857
2.32309 83.3896 19.7838
-0.956831 111.776 -11.5995
4.98923 86.6755 19.5069
0.833428 124.659 12.3193
15.3121 116.73 11.1421
3.32963 115.785 11.8389
20.1513 135.422 3.5087
21.9879 98.8808 0.762192
6.28065 114.611 -9.76014
8.99599 96.7726 -13.1115
-13.1324 81.0478 -13.0559
19.4183 90.3071 14.7665
23.4715 92.6745 3.78311
6.98086 118.135 -9.16982
-1.72252 76.4323 19.6344
15.8218 123.35 10.749
10.2592 129.138 5.08059
0.062862 134.642 7.42077
-8.27607 95.2114 17.2182
15.0257 116.745 -4.89721
-0.250056 97.8227 -14.7398
-11.2519 129.182 7.87936
2.63992 109.944 13.9727
-19.3792 112.646 -3.54189
18.0459 121.502 -1.92567
-9.61898 77.2503 15.7043
22.8672 82.5753 1.71256
14.4058 84.2989 -10.5628
11.8968 113.96 -10.4514
24.7302 129.405 -6.34803
12.0758 89.7185 -11.4255
23.3299 89.9932 3.07076
20.2618 108.284 12.8475
-14.1086 89.8477 9.66724
9.70327 98.3251 -12.9312
26.6137 125.592 -2.52151
-5.62272 90.3185 18.4811
19.3353 107.972 -0.5455
14.7857 117.53 10.1032
-20.1017 84.1292 -3.8926
3.4143 124.712 9.86877
5.33459 106.566 13.5648
-4.85638 112.311 -10.7795
-3.11131 106.508 17.4347
29.2759 127.119 -2.39642
12.0313 136.799 3.73468
-19.5786 111.821 -4.23609
7.38182 75.3931 -14.0822
-1.13825 85.5219 19.3225
-7.28328 108.365 15.9535
30.8499 127.037 -4.82326
8.24548 122.77 7.21044
-20.7091 100.402 -1.10821
16.7965 78.1079 -6.17927
4.63862 106.57 -12.8687
-11.588 83.5475 14.8201
-17.4185 110.463 9.61942
-19.6458 108.888 -4.69927
-11.6995 104.992 -11.2963
22.2627 104.137 9.42558
-19.0164 82.7788 3.49078
-15.3887 116.727 12.2366
-17.9387 89.9176 4.55765
-6.36408 89.7083 18.1018
-16.4943 102.91 -9.90195
4.01786 124.343 9.3473
-18.4786 81.7007 -5.99688
-20.7122 119.84 5.80667
21.2961 96.7459 -0.994153
6.5685 101.924 14.7525
-16.1402 116.838 1.67813
16.7841 140.601 5.81665
-12.5144 105.14 14.5441
16.4091 118.173 11.9894
-10.2599 99.3729 -12.2077
2.81232 80.7559 -14.4414
-6.754 107.876 -12.1129
4.26216 111.788 -9.87196
13.4864 110.449 -9.7691
-14.6613 76.3289 9.0036
-15.7828 92.203 8.72928
-20.4393 83.0865 0.359833
-5.52963 90.9609 -14.2172
-3.67445 122.34 13.8245
-0.649416 83.8534 19.0911
-14.1395 100.409 -11.4292
-5.3322 104.661 16.624
-11.5149 121.645 13.4398
-5.0346 80.6014 17.5038
8.96015 93.2102 18.4796
-20.6794 77.4964 -2.02184
5.97832 137.381 6.27137
24.9955 79.2419 7.57781
-17.583 115.41 -1.55394
22.5947 127.326 2.05406
9.63384 102.053 -12.9846
19.0346 118.618 10.9216
-10.9985 80.9413 15.3659
8.03282 128.144 5.81406
18.9245 83.5347 15.4516
21.1378 134.381 3.31744
23.0849 90.7437 11.1711
14.4335 125.488 -4.59456
0.627383 94.2784 18.6319
15.3102 128.301 9.83763
18.0689 115.893 0.431602
3.01786 102.642 -13.2269
2.86548 112.46 -9.77192
-20.9331 97.6644 -2.18803
22.2813 77.679 3.12636
-1.66222 87.0619 19.3536
14.6815 119.306 9.59891
16.6301 119.361 11.697
-7.78512 97.9865 -12.5596
-10.2581 126.382 12.7792
-1.33444 93.5297 -14.4564
23.9894 79.3948 4.73563
12.7092 77.6479 -11.0732
12.2015 108.335 11.0948
13.9004 136.793 7.47569
8.5254 91.5219 -12.5811
17.4137 122.22 -3.04662
14.3589 126.096 -5.72137
-14.6664 87.5673 -11.7558
-16.2144 122.785 6.80862
-4.36601 91.484 -13.9862
-11.2183 77.9588 -13.555
14.1722 76.4162 18.7997
5.17802 125.818 -4.43323
22.0453 105.462 9.51278
3.70015 107.55 14.1897
-0.475224 84.1495 19.2061
-9.17511 97.9054 -12.2656
18.1387 127.499 1.54691
24.6891 137.572 -1.56359
3.00494 117.192 11.8297
13.5595 128.516 -3.90035
20.968 142.937 4.04267
5.34081 82.3715 -13.7414
14.9832 116.255 -9.6
-6.0357 99.4003 -13.2695
10.5006 126.703 5.75489
22.2169 77.1835 11.3538
14.1824 128.049 7.41367
19.3354 125.89 3.56726
7.54662 93.6671 -13.1691
-11.5169 86.3352 14.6402
13.338 88.3219 -10.7362
-15.8359 118.291 7.33979
-14.2501 112.015 13.8506
-18.5659 81.7173 4.87433
2.94797 77.765 19.6946
12.9318 96.6476 -11.0612
20.1673 93.8889 13.8892
22.613 95.7805 1.66126
-0.26804 86.7588 19.7257
-15.8352 114.044 10.8038
21.9579 111.727 3.55324
-14.8241 124.33 8.38805
3.99642 87.3762 -14.0524
8.71505 135.472 4.01816
18.396 128.844 1.60693
27.2625 129.949 -6.45505
-19.0154 107.26 4.18424
-20.0548 106.361 -3.60099
-14.4991 89.2035 9.4948
14.1671 94.3293 -10.043
-18.7568 102.832 -6.85888
-17.3701 90.9255 6.28346
15.4957 140.848 6.41773
-15.2154 120.248 2.42467
15.5901 90.8477 -9.53307
18.3363 135.418 4.14102
-19.7646 80.3931 1.3242
-19.2472 104.626 -5.29242
-13.1705 86.0717 13.0244
4.56307 89.0002 -13.8285
11.4671 119.77 -8.98699
17.6013 108.104 -4.59104
-8.68835 104.959 -12.7283
9.68293 113.756 9.46291
-15.767 116.068 6.21654
7.8705 124.937 -6.40479
-5.34417 129.361 11.7274
28.4456 131.837 -5.42741
2.32239 76.0812 20.6614
17.3584 77.0591 -3.76503
15.9265 113.994 -8.55517
