ply
format ascii 1.0
comment Created by Open3D
element vertex 1945
property double x
property double y
property double z
end_header
5.07106 141.265 3.95575
-10.2671 104.303 -2.7281
0.603388 117.046 15.0139
7.31557 127.303 9.77056
10.8215 109.559 15.3215
-4.13644 141.04 -1.28407
-17.977 102.297 8.8018
4.57268 152.959 -1.47442
17.0404 135.91 8.17266
-22.6965 122.657 3.93471
7.18621 117.716 15.9508
-18.0332 88.0463 8.07185
-5.38865 147.244 -2.90997
-17.0457 142.348 10.2565
8.70063 97.7331 12.3316
13.7378 117.476 12.8795
-12.0627 121.457 -1.97335
1.92496 133.116 0.591197
-18.3114 107.495 9.16561
-1.38786 117.422 -2.82054
14.0785 149.195 3.73416
-10.5887 83.4352 8.63681
-23.8677 134.118 8.80889
-12.3021 147.334 -1.37348
15.936 112.721 14.0067
-3.55391 145.205 -1.38549
-21.547 85.6319 6.17462
-18.9735 121.629 3.7617
-4.91829 113.513 14.7134
-10.9632 94.6806 11.97
-12.726 132.751 11.5692
-20.5967 128.542 12.7172
3.7667 142.308 4.52518
-1.62204 120.518 -1.91033
8.79597 99.8588 23.8098
-19.0755 121.749 8.09935
-17.5695 111.873 -3.23113
8.55637 99.2584 23.8677
15.9883 133.043 9.79512
-3.06919 114.32 -2.62266
-16.8844 84.6 2.37268
-12.823 140.199 -2.58331
-10.7096 141.592 -3.6648
-11.1995 128.127 -3.87364
13.7581 124.326 4.25327
-20.567 96.7122 -0.91941
0.510309 129.863 11.6068
5.80412 122.925 0.925271
6.14015 110.815 11.6729
20.9006 135.336 0.698105
-5.23936 122.186 14.4318
16.8414 101.772 17.0136
-17.1615 85.7879 1.65486
7.29835 135.928 8.32133
11.28 110.472 10.1848
-21.4267 129.887 12.216
-12.2454 97.5828 -0.608222
11.9013 122.768 0.275909
-2.45323 96.7059 15.126
14.5453 99.8048 24.515
-7.70272 121.072 -0.657737
-0.508002 110.716 -2.7614
8.70995 106.944 9.40008
-25.7188 120.549 12.9347
-5.30503 89.0201 3.48315
14.9809 126.251 8.69948
8.58714 143.074 -4.84918
-13.7481 105.284 13.4186
-13.5501 89.2224 8.95709
-10.8259 149.773 3.02556
8.78802 154.387 0.2989
17.9239 125.931 10.6501
10.641 95.8567 3.76912
-22.7485 101.844 3.12161
12.7838 140.763 4.0634
10.6746 130.061 9.93903
9.55444 104.63 10.4818
-7.33281 111.112 -0.943207
-13.291 88.0148 0.172691
14.5901 135.446 -1.74452
8.46867 119.057 -0.416919
6.54641 144.567 4.14572
-22.7505 121.571 8.76924
9.66071 132.75 4.88196
-15.3893 108.427 12.7827
-5.01011 90.1982 13.4105
4.55534 148.551 -2.5274
-20.1556 118.692 0.938615
-16.8103 121.854 -2.83336
7.39913 137.43 7.50914
-12.2721 148.892 0.387768
-3.35948 106.197 14.113
-16.5376 81.0563 3.52781
9.21651 108.872 17.1163
15.2726 126.327 -0.167591
-18.1691 84.9523 1.14294
-11.5663 136.598 -3.81569
3.26895 149.164 -2.21192
11.6553 115.61 0.974418
0.185119 107.415 -2.70625
1.08238 131.345 1.05637
8.85896 119.678 16.3348
7.78316 141.812 5.99959
-0.941184 106.434 14.6228
-24.4344 123.42 3.52753
-9.2378 100.515 0.147579
-3.26606 112.722 14.5814
-6.57681 91.8899 13.348
-11.8254 135.556 -3.94742
-17.8417 123.53 2.72474
-17.2242 90.9357 8.67731
2.14269 111.111 14.6906
15.8848 101.058 10.087
3.66109 131.205 11.4374
16.7375 127.183 10.3388
-4.8182 90.9963 3.47121
-9.74165 123.91 15.2218
-6.77113 128.945 12.6056
-10.8213 118.55 15.6647
11.0739 147.576 1.63504
-2.88414 145.493 4.79961
-7.54912 135.451 9.64832
8.02938 123.254 -2.46337
11.9371 101.911 2.70365
7.5436 121.673 9.07646
20.0067 139.365 -0.0517364
-19.2549 116.894 -2.7469
9.10046 130.308 7.50413
18.3282 143.987 0.409368
10.0748 135.977 6.48821
-14.709 92.1955 0.112063
-12.9406 86.9609 1.50876
1.81524 139.563 -0.335734
-3.16606 109.865 -2.87321
-4.63201 143.508 -1.90802
22.0689 138.952 3.75638
-18.3192 122.74 1.91777
-24.4389 134.033 10.4116
5.41627 145.284 -3.13416
-20.7914 109.973 5.43101
-26.4155 124.232 9.83109
-22.7228 129.2 12.9983
-23.2173 128.979 1.60409
-11.4966 144.81 9.61234
6.14181 111.984 12.2102
-8.63672 147.722 -3.95292
-21.5434 81.4472 1.66861
-11.9493 121.395 14.3614
10.2371 130.978 2.32528
7.0302 124.654 10.4593
-11.8465 96.363 0.577482
-16.4235 127.398 -2.13154
-20.3011 93.489 -0.0424761
-20.8308 81.5711 0.30831
-10.1165 134.846 -5.31467
-19.3907 103.918 8.47042
0.208487 105.297 14.4533
-20.1685 98.5045 6.1893
-19.9517 96.1927 -0.857243
-10.7057 90.9883 0.995256
-14.161 111.963 13.2559
-16.4349 124.583 11.016
17.0698 120.698 0.37658
-10.6173 150.025 2.23893
-13.6717 102.884 -1.60186
17.3855 133.596 -1.48985
9.17494 105.543 10.0245
20.4976 142.948 1.2651
10.0179 136.306 3.6602
1.61453 111.998 14.8089
-15.1528 85.4014 2.85198
-19.242 122.648 7.32168
-19.799 114.966 6.95501
-25.1685 121.547 6.65571
-4.50975 144.25 -1.93579
11.794 112.948 10.5403
-17.9149 137.217 11.4466
8.73981 105.419 9.93944
-21.5844 123.401 10.3715
13.3654 102.977 3.76559
-1.59621 121.704 14.209
7.88971 115.797 16.3103
-10.7488 124.051 -2.31615
-19.427 121.225 3.39567
15.172 98.2454 8.63938
1.59682 106.426 14.1
-13.9162 125.97 -3.21075
-18.1662 121.684 4.89033
3.18185 141.296 -1.56025
-4.44133 100.313 14.9928
-7.76377 123.017 -1.31203
-3.6287 148.977 -2.06637
9.20814 111.268 16.6746
-11.3852 148.557 -2.13538
15.528 113.292 16.3858
19.6564 140.178 0.101912
13.583 126.075 8.38751
-14.9687 140.97 10.7221
13.9264 146.992 0.305109
-17.2016 119.63 -2.65358
-20.7405 133.673 1.42134
20.0265 128.427 1.33645
-14.7737 79.8001 3.1937
-21.2534 78.5371 -1.04558
6.15822 141.799 5.76487
10.963 146.983 -3.09075
-9.13666 118.291 15.0586
-25.1814 122.517 13.1995
7.82368 146.226 -4.21216
-4.1388 136.571 -0.552779
2.21925 148.36 -1.97451
13.721 123.408 5.7887
-0.859916 110.955 14.8005
-6.28569 106.399 -2.4081
-9.38108 100.754 15.0303
7.4351 130.32 9.61773
-19.0121 115.492 7.44063
-9.15319 103.977 -2.48546
15.216 107.667 11.8477
-18.7181 119.122 1.6867
2.65756 110.932 -2.06712
-6.37996 114.152 15.1537
8.7208 120.533 16.152
12.6116 123.356 5.4008
3.5744 135.866 -0.769346
-22.9016 79.7338 -0.295847
8.93096 102.752 15.792
-25.4382 130.201 12.0328
-10.5711 112.975 -2.40477
8.13916 126.855 11.1693
-13.1223 120.832 -2.9361
-15.6559 101.026 11.5357
-16.9069 133.196 1.63705
9.66793 149.537 -3.10947
10.1827 124.075 9.32304
16.6496 127.34 8.39502
15.2382 113.379 4.60811
-19.7465 123.309 6.98771
9.75651 113.241 8.04707
11.4716 113.073 9.21479
-22.7056 82.0708 1.0146
-19.8438 112.713 -2.33662
6.72255 120.368 0.472382
-21.7705 80.5325 0.357987
17.2316 141.184 7.11996
-12.8966 110.278 14.8447
-6.93066 137.546 -3.32484
22.1042 131.813 4.39926
-13.0277 148.336 2.26077
-16.5329 144.377 3.93056
-2.6451 136.795 0.549413
-21.637 131.803 1.55673
14.6555 110.748 19.7397
-4.83929 89.9882 3.40764
7.1621 107.396 9.88466
-12.9187 143.747 -1.44397
-0.266164 101.985 -1.39289
-22.4652 87.9031 2.52961
3.99991 104.374 -2.5659
11.6486 123.259 14.964
1.39117 109.237 -3.05934
15.0243 109.245 3.62664
-16.6894 100.449 10.0459
13.0587 100.078 5.44592
12.5762 129.831 5.94683
5.71458 94.192 17.6915
4.12142 126.16 12.2574
9.21052 122.98 10.1414
13.2188 128.939 7.58767
13.5645 111.02 1.87322
-11.1056 84.0144 2.10794
16.7377 121.295 5.70329
11.5649 112.07 10.079
5.85375 97.4867 16.0224
-8.24079 150.193 -3.37276
-1.66707 91.3995 2.70162
-7.80108 141.53 7.44415
10.4819 126.296 0.878433
-17.2284 100.106 -2.06037
-14.6585 136.43 -1.38232
-15.1582 125.062 -3.54656
12.1531 129.61 10.1112
9.57768 136.096 7.31749
-14.8923 144.882 3.29836
14.3369 104.058 22.9013
-10.4091 89.8602 10.0718
18.5711 143.846 0.294995
15.6128 100.958 8.27416
-18.4281 122.061 -0.225501
-0.585841 90.5829 2.78522
-4.68351 147.389 -2.28391
-9.76291 112.046 -2.13523
-25.4478 125.664 5.31219
11.1688 144.214 -4.07607
5.45779 102.372 10.8666
13.8142 134.791 9.53706
12.4913 129.786 -0.130747
-22.2271 137.987 8.43612
-23.7841 121.673 5.49866
6.6337 144.815 -3.67012
-3.90999 116.251 -1.41188
-13.2458 144.184 -0.8132
-0.138252 145.032 -0.862266
-17.2433 85.2209 8.06635
-19.019 123.509 1.16617
-20.6274 106.821 0.0166454
12.4851 130.326 7.12076
-7.52311 144.078 6.62136
-12.6434 83.1031 2.81334
20.1379 142.827 0.848459
6.12119 93.6094 10.6403
-1.88785 153.664 -2.04269
3.55194 106.375 13.9672
12.5275 122.484 3.73599
16.5382 100.259 17.6956
-16.5787 90.5599 8.87693
4.8013 95.6399 0.0403806
-15.5299 125.986 -3.58787
-1.01997 92.7897 2.53173
15.5642 116.386 13.1701
-18.2923 124.568 10.7716
-23.0434 95.6275 0.665927
14.1805 130.054 4.03338
-14.9372 112.01 12.3741
1.62662 139.715 -0.299498
10.9443 103.643 12.0803
-19.4463 92.1354 0.274017
-3.59859 138.038 -0.459335
7.62443 100.359 -0.788474
10.4682 127.276 10.0746
-4.64413 110.521 14.3896
-20.4037 116.185 3.92324
-5.36828 92.0571 3.3534
9.87217 100.397 24.4569
-7.83859 117.935 -0.30446
-12.6484 146.411 8.89921
-8.16433 122.903 -1.51235
-8.32567 134.422 -4.25521
-16.4685 133.723 1.23635
-2.30049 126.628 13.7289
20.9725 129.233 6.24455
9.49855 100.232 24.1404
-17.8396 132.295 0.894573
-10.4199 120.708 15.7173
-17.1594 130.556 0.562848
-23.0381 82.2304 1.68594
-13.9298 135.267 -1.78996
-2.6632 89.6917 3.34055
20.0813 138.743 -0.0432502
-20.9053 113.446 5.90833
-20.038 104.862 7.49797
-17.5065 137.241 11.5208
7.71107 124.599 -2.23433
11.8684 117.594 2.18829
4.6756 105.104 13.7663
5.15802 91.2025 1.3161
15.0514 105.697 5.04456
2.686 101.917 -0.936844
-23.2363 135.283 9.37475
15.608 120.117 8.48183
-20.0099 113.649 -2.1668
1.02892 114.076 -2.75259
6.62901 103.869 19.8839
-13.5052 125.977 11.1948
9.13331 132.438 7.56622
12.5842 132.576 -3.68897
-18.1706 111.762 8.00538
2.92184 100.563 13.0889
-21.7144 79.076 -0.481602
-13.9647 147.059 4.29424
8.79334 106.485 22.7407
3.59658 142.668 -2.37502
4.20063 116.605 -2.04368
-16.5151 83.74 7.63791
9.84531 114.604 15.0298
-18.3949 123.76 -0.526469
-20.6683 106.563 0.114757
-13.0335 141.772 10.8511
5.7194 117.509 12.5704
-16.2556 132.338 12.073
-15.4177 133.867 -0.184993
2.96889 91.7642 10.6288
-26.1596 122.875 9.14275
21.2 126.609 5.68845
11.3304 110.889 10.1232
-13.5 81.0052 6.19432
11.212 105.683 1.64252
-14.6398 116.017 11.3625
-14.4474 138.839 11.4102
5.3818 111.857 13.1302
4.51856 94.2038 15.1526
-16.6901 132.211 1.70129
19.8321 128.882 10.4211
-5.81225 100.996 -0.708092
16.219 115.341 11.5758
-18.8647 141.344 10.2969
-21.6519 115.022 0.426167
-0.584872 133.305 9.79553
-9.92325 127.606 -2.72778
15.5808 106.061 12.588
1.98916 93.3546 12.1623
6.74823 106.1 18.7751
-18.8312 97.8475 -1.06408
9.93862 128.528 5.92158
17.8338 136.025 7.86411
15.0046 104.808 11.1686
9.71364 116.896 13.3355
-2.6494 150.243 -2.04157
5.38775 131.921 10.7546
-16.7105 112.828 -3.40308
11.8505 123.599 9.14058
-1.13561 129.153 11.5017
-4.42097 128.601 13.2329
-14.2866 94.114 0.00015606
-17.5047 144.429 5.38638
-7.36149 126.361 -0.793143
-16.3679 140.888 10.6599
3.08238 89.9101 1.77278
-7.48164 102.342 15.213
-14.8976 138.943 -0.517585
-3.70564 101.866 -1.74009
9.24004 131.945 9.14657
-20.6162 83.9249 0.950939
-22.48 103.045 3.64137
10.2262 103.889 11.7638
3.72139 100.858 12.7737
12.1008 125.099 -1.79089
10.1271 127.915 4.93996
-9.01057 116.286 -1.01238
-3.03258 134.725 9.16691
-21.6251 111.442 0.00903353
-16.5044 119.493 11.0041
-16.9007 137.635 11.5815
6.04985 100.216 16.4363
-4.67488 149.327 -2.41554
-13.2589 130.796 -4.41572
-18.3326 123.17 4.30704
-27.964 124.347 12.5279
-16.825 96.8483 10.2972
9.663 126.047 6.22229
9.06167 142.723 -4.8795
10.238 102.558 24.8947
-11.8732 145.163 9.83181
-17.7778 84.5741 7.63467
14.1585 126.309 4.27626
-11.9632 96.012 11.7866
-7.36529 119.452 14.9757
-15.8156 106.5 11.7519
-15.2933 126.752 -3.0176
-16.8042 126.503 11.0731
7.26502 137.938 -4.25498
-14.7307 94.8045 10.2322
4.91498 115.461 13.3878
-22.5177 106.847 1.27724
-1.36776 128.338 11.6979
-18.0668 90.3795 8.35546
-21.1818 93.1237 5.72993
-7.54196 138.294 -4.36331
-16.0676 124.197 11.6011
11.3964 113.16 20.5626
10.1707 126.305 9.1131
6.43321 103.068 19.9993
8.26219 124.316 8.10884
10.1148 108.601 9.47996
-17.2141 130.007 1.44902
19.8434 138.666 -0.284817
-19.6597 122.249 3.27328
9.23842 98.7411 25.4582
-17.8574 123.429 1.70976
7.97862 129.751 9.47702
-15.259 113.581 11.082
3.05755 98.3041 11.8964
-8.28434 88.3523 2.33644
11.4577 124.411 5.84233
-18.5028 92.3353 8.30503
19.9331 128.446 1.28455
-2.54118 116.523 -2.44577
-22.2928 82.4438 2.70404
13.4491 128.182 5.36646
-25.4778 120.296 12.877
-6.74951 91.641 2.99984
-2.81763 124.014 14.3782
-7.39422 132.286 -2.11009
4.93928 129.255 11.6566
19.1656 126.51 8.94741
3.07968 141.165 3.39885
-11.8939 86.2381 9.03729
9.00921 103.763 10.8673
2.92956 128.27 1.16335
-8.9608 97.9621 1.1383
-21.6965 92.7501 1.30352
-13.7678 147.008 7.98386
4.89988 99.5999 11.3038
10.3744 123.247 -0.359151
9.37911 99.5171 13.8225
-23.6783 122.742 7.24337
6.64222 119.145 -0.648559
13.3799 127.471 8.47821
10.4505 137.491 7.69708
-16.8941 95.613 9.56139
-19.7245 122.774 7.95658
-18.9534 85.6821 7.23914
-19.4354 88.0515 1.69379
13.0026 121.074 15.4142
-2.00865 149.687 -1.92506
8.11927 131.499 -3.06522
-19.6845 132.074 1.33963
10.2278 111.632 20.9721
6.34426 113.185 -1.52555
13.5155 115.841 2.56317
11.9026 115.081 9.72542
12.7428 122.238 11.801
11.302 110.762 13.1113
22.7064 128.642 3.41181
-9.02549 93.9149 1.75264
3.94945 121.413 0.037169
-17.643 98.8676 -1.30443
-7.00063 151.882 2.56192
-20.9332 103.614 5.65377
-20.5325 121.064 0.712826
11.7216 118.581 4.662
7.74605 145.359 3.93637
-18.9637 124.81 11.7544
-15.223 145.826 4.40688
8.77502 112.397 -1.77807
-17.7189 123.07 -1.12804
21.2662 127.683 0.0444079
-11.58 142.368 -3.27229
0.23246 139.05 5.18145
14.0441 117.906 17.2542
-18.1637 83.1245 7.07492
-18.3639 130.494 0.609931
9.92291 103.268 0.692539
-10.2689 86.4093 1.03482
-19.9788 120.039 5.84519
-5.24402 139.637 6.72615
11.9674 118.376 2.81677
10.6271 109.031 16.0563
15.4058 111.631 13.4666
-10.0701 92.093 10.9277
7.77188 121.35 0.392389
-13.2908 115.56 13.9685
-8.13567 145.406 -4.33026
14.5056 123.905 7.33562
5.44676 115.211 12.9196
6.22448 97.3559 -0.426182
-12.7573 135.947 11.714
-20.8505 98.0756 -0.837618
-12.2948 82.3038 2.69276
-12.4012 112.702 15.4016
22.9713 132.348 2.33834
10.8561 102.791 25.8742
-6.32566 116.164 15.1718
-27.6199 123.719 12.5149
-7.17609 94.4608 14.451
11.8108 142.583 6.53916
13.0241 125.492 11.9657
5.41236 97.2564 10.3412
-1.26689 131.885 10.8633
9.44493 117.89 17.6183
12.0836 127.94 7.80896
-5.89792 123.757 0.130303
8.02806 126.094 -2.87009
15.481 99.8892 23.1608
15.3781 147.624 0.906655
-10.2379 84.4619 2.39163
6.14057 108.611 11.4471
2.58941 148.742 -2.18056
21.3661 141.628 2.00941
-18.8058 122.619 8.75851
-18.3688 143.597 7.52049
-13.4439 87.0773 9.00236
-8.89681 90.5356 10.9038
-14.2793 86.1078 1.88875
16.9584 130.029 8.4863
21.3044 133.804 1.67549
3.36333 137.878 5.66086
9.27297 131.502 7.22333
13.4621 139.903 -0.0250862
-7.50878 92.0254 12.5916
-18.2697 108.972 7.51917
12.4991 129.779 2.40957
8.33203 114.826 -1.66699
-1.86833 142.197 -0.327091
13.0415 141.53 7.43541
5.21556 98.1097 18.7128
8.5761 137.739 4.64162
-17.4832 127.073 0.600822
7.51843 95.377 13.8655
-20.9633 78.9361 2.6723
-23.1469 132.244 11.5328
12.096 133.511 3.90737
-16.5283 84.7195 2.54551
-22.9284 100.164 1.43559
-4.23939 120.499 -0.0812269
-13.98 117.287 12.569
-17.1633 111.751 -3.38561
-19.5473 122.693 7.30835
12.4229 130.428 -0.847064
-21.7684 84.8116 1.88021
-16.754 97.0516 -0.804639
-24.3687 121.882 10.1952
-6.94023 110.203 -1.11189
13.1175 135.015 9.28198
2.58597 93.0799 1.08545
-1.85312 119.813 -2.0642
7.28013 106.185 10.0845
-16.7646 132.226 0.754395
-4.62633 138.016 7.86488
9.85283 99.4707 26.432
-12.7579 143.272 -2.36316
-15.8729 90.8672 -0.432409
6.95944 125.274 -1.87127
-15.2446 101.361 12.2366
9.61949 128.036 9.23715
4.09245 101.116 -1.04126
14.12 112.384 19.5423
-13.08 146.452 -0.165045
15.5221 111.48 8.91731
20.8151 138.148 0.722926
-15.1033 129.627 -2.40321
-17.0856 125.358 -1.87159
14.8447 120.927 10.5219
-19.8666 139.742 5.45444
20.5753 131.495 2.06719
-8.31635 124.088 -1.82313
-7.83414 121.866 -1.04241
3.62625 113.258 14.338
-14.9719 137.922 -0.529327
17.0449 147.888 0.762061
-16.9073 96.1305 9.88358
5.08672 98.4925 16.7453
-27.2012 123.231 14.5982
2.9215 146.79 -2.24905
7.18428 104.387 16.9358
21.4369 125.263 5.09732
-7.0797 153.875 0.704407
7.21843 130.938 -2.34769
-17.3746 144.753 7.67618
17.1834 133.009 -1.34757
14.5617 147.388 1.20768
-2.73888 86.9424 3.38932
-8.66944 148.096 6.26835
-13.8305 97.0996 -1.05459
-22.3732 136.079 7.19352
-20.9284 134.145 1.38598
15.1001 102.113 6.68348
-8.64581 136.817 9.67077
5.60516 138.61 -3.88167
3.93681 139.282 5.13497
8.49203 137.903 6.82203
-20.2771 93.3113 6.95386
-2.65033 90.1104 3.16447
9.05575 100.506 14.9183
4.07424 92.5545 10.3715
10.5029 131.641 4.31828
-21.0036 122.588 7.7952
6.0631 95.713 10.372
-12.6639 133.5 -2.78622
4.96358 116.442 13.2484
22.011 132.336 2.15777
6.26006 112.153 11.9316
-24.2772 122.321 3.62244
-16.4046 132.395 0.630089
-21.834 112.301 3.5805
-21.0394 111.063 -1.12881
-1.75128 96.151 15.175
7.99254 147.53 2.45661
-19.5315 104.45 8.21368
-21.8665 80.066 0.998999
6.85064 96.2729 18.9891
1.91972 129.162 11.642
8.18303 96.958 11.6616
11.8034 130.704 1.92811
-19.6443 139.502 10.9416
-10.5096 150.425 -0.45332
-2.15749 89.2645 13.4377
-4.64792 106.081 14.2827
-18.3224 122.521 -2.28281
-13.0508 104.52 -1.87612
-19.4375 141.17 5.50056
-6.81027 101.35 -0.559218
-18.6812 91.9546 8.09345
-1.23843 113.944 -3.07296
16.2791 127.642 0.82122
-16.9028 80.3004 5.64166
12.8972 122.329 4.024
11.8164 105.609 1.90605
21.9802 141.454 2.97806
-27.121 126.814 7.99993
-18.2318 82.322 3.25789
22.1835 130.006 0.895319
10.4584 147.277 -3.56007
-7.62038 138.331 -4.48333
-16.7264 118.161 9.8006
-8.20109 122.155 -1.31443
-7.21155 135.587 -3.48488
11.8866 139.335 -4.44425
9.54977 112.334 15.995
2.20604 110.473 -2.67193
-18.3863 115.567 8.03198
17.5635 139.616 -0.893342
-12.8007 82.9151 2.82776
-6.92242 91.549 12.7216
-17.9417 142.247 9.93983
12.5586 133.737 -4.70527
1.86772 129.108 0.721068
14.2372 138.673 -0.604182
-13.8044 88.5662 0.158641
10.73 134.028 4.49644
15.2506 115.11 4.05756
13.0237 125.75 9.10469
-7.03404 104.218 14.9043
14.0935 127.613 -0.194632
11.4111 110.16 22.3795
7.74706 147.574 2.82615
-9.50641 98.7819 14.4236
9.61907 107.503 23.383
11.4627 129.38 4.39355
14.5897 122.113 8.48664
-24.5862 122.728 9.00263
-14.1361 112.243 -3.40014
-21.502 95.5184 -0.207363
8.07677 110.299 19.5561
21.6544 132.314 5.17373
-22.2296 122.118 10.408
7.26252 118.774 14.8286
-24.4339 133.976 10.8512
-24.1592 122.044 7.05257
10.8678 131.905 8.00973
-11.3818 87.7196 9.35063
11.2702 126.762 12.507
7.28402 112.311 19.9535
7.48373 125.584 10.0586
9.36709 113.882 7.91558
-4.41853 146.552 4.69084
-23.4905 96.0757 3.04661
10.7826 129.158 5.70755
11.5419 119.355 4.27327
-6.52031 145.647 5.49778
12.2415 140.696 -4.08471
14.2667 124.689 5.18308
19.5892 145.221 3.38741
-10.5486 83.8845 9.07623
-19.6135 110.959 -2.43395
8.03409 108.193 9.4229
-1.79212 105.567 14.4085
7.24516 120.261 -0.0571554
2.86143 91.2967 10.705
-6.73824 118.797 0.122425
15.4524 148.854 4.3575
-17.1968 132.644 12.0817
4.23916 139.04 5.45732
8.49489 126.198 8.506
-8.39673 134.588 10.7522
-15.0336 105.317 -2.83256
-3.17865 138.506 7.3474
-7.54365 140.283 -4.13401
-17.0716 125.645 -1.83815
2.42219 98.3412 12.5638
9.98401 148.518 1.50137
21.2443 126.329 8.99934
-2.60476 135.824 7.95902
7.78858 146.587 2.9863
10.6853 115.287 0.995637
16.5251 126.936 7.9708
13.0109 120.984 11.231
2.18598 122.01 -1.69116
9.53036 113.536 7.87111
8.93991 112.277 20.6115
15.1134 111.162 5.30502
-20.5805 89.216 2.69781
21.4876 128.584 5.36076
-4.58248 116.599 -0.657046
12.4814 141.346 2.66391
-2.89576 105.186 -2.75598
13.281 111.124 1.55537
3.99402 96.9778 -0.144984
13.0515 142.704 -3.42765
7.33454 109.035 18.9724
-20.1036 118.398 7.24459
15.2073 108.206 4.51681
-12.6372 119.179 14.5623
-17.7702 96.9056 9.56734
-9.68589 148.351 -3.55477
-13.5209 141.965 10.7895
-13.3947 103.621 13.8406
13.1786 123.7 12.0227
-14.6898 84.5888 8.16579
-6.09725 135.347 -2.15272
8.25344 142.755 3.70406
-7.63706 94.1221 14.0709
-17.3717 126.836 0.00808743
1.6542 98.3524 13.6251
7.86636 105.945 17.4728
-19.584 126.32 12.4171
4.2605 99.0446 -0.55086
11.4502 129.766 9.99671
6.95302 104.923 19.5043
16.7682 124.168 1.1293
-21.9695 94.0186 3.39699
5.48281 101.304 10.9053
-23.315 80.235 2.52589
-14.8674 147.488 6.06572
-14.6555 90.1257 9.17303
14.5466 132.032 9.41924
-3.35699 95.2875 15.1761
-23.6025 84.9916 3.37443
9.00796 98.8439 14.0785
-19.3928 95.307 8.036
-16.1372 92.6341 8.82529
13.5401 150.184 1.125
15.2969 108.651 12.1252
-17.9819 121.697 2.6583
-21.5268 121.823 9.87301
7.99294 104.76 21.8908
12.0415 122.918 2.47399
1.01374 93.3899 1.61576
8.86525 129.92 8.2739
14.6228 134.356 -1.75079
9.58991 131.317 -3.46608
-9.96065 83.963 3.06786
-14.7113 123.91 12.6797
-20.8676 112.491 -1.11572
-6.59948 136.187 9.30376
13.6164 128.025 -0.0901579
6.12552 111.295 11.9395
10.7466 132.133 1.90371
-16.7921 133.8 1.72657
-11.9845 90.5394 0.342662
-20.0429 79.9591 4.05387
13.2036 137.707 -2.75988
12.3634 131.008 6.26898
-2.00782 105.344 14.3458
14.0794 133.086 -2.43003
-17.9369 137.019 1.3178
9.55386 134.697 5.55101
-6.66552 133.885 10.1181
6.70701 100.164 -1.12551
0.910237 109.984 -3.01284
3.87472 109.832 -1.45895
-10.2329 142.071 -4.06164
14.6105 115.952 7.62971
4.75821 92.5489 10.5412
-12.55 119.735 -2.77765
-18.8432 122.919 6.97215
-16.7054 144.087 9.6272
21.7059 141.649 3.43587
17.0183 148.305 3.15069
-26.6244 123.93 6.94686
10.3083 127.064 -3.45515
-19.0387 122.186 0.623746
-17.1361 92.9536 -0.914607
-4.61881 137.612 8.19112
-19.4042 123.059 4.42089
-2.71034 134.331 9.58586
-3.1245 118.169 15.4368
-23.026 84.0932 4.11275
-3.5014 115.536 -2.03108
6.14115 93.6729 10.6312
-15.2442 108.182 12.7974
-9.86288 125.655 14.3609
16.1655 130.767 8.6035
-3.77519 142.335 6.29272
-1.54348 141.591 -0.190359
-22.761 99.0792 3.4596
15.8554 125.072 8.84064
9.4433 98.8164 13.1779
12.6558 135.796 -4.2735
4.5668 114.429 13.6706
-6.62686 110.354 14.7724
-14.6771 102.225 12.7712
-18.4634 121.519 -2.21084
15.6602 128.63 0.0576323
3.32861 104.28 -2.31053
-13.8504 105.846 13.2795
14.9315 104.574 7.92625
13.8881 120.23 3.46642
8.99848 137.581 4.36303
5.70295 153.363 -1.50316
-4.82253 115.008 -0.804823
-15.8217 127.848 -2.64284
11.9723 123.391 3.27147
-0.913729 120.937 13.9684
11.9105 131.485 -4.67404
-5.65273 120.034 14.9635
13.3363 99.6181 5.90968
-23.1556 133.519 6.71364
16.8177 101.667 16.3576
15.1994 104.325 21.5504
-7.44803 111.347 -0.976375
-9.261 108.94 15.2917
15.2768 109.749 5.58629
13.4297 126.548 6.78987
7.42081 116.493 16.4656
15.1414 111.239 15.5214
-2.81958 131.434 10.6438
10.5461 125.592 13.7987
-4.20969 146.682 -1.89513
14.1568 102.869 4.56688
-19.839 97.27 -1.04736
1.12644 119.73 -2.52266
0.271014 107.002 -2.75423
-23.6859 87.3329 3.22807
9.28145 144.616 -4.60768
15.7152 101.333 8.89992
-8.22131 129.365 12.7145
9.37115 128.199 -3.24972
8.11634 100.39 15.6215
7.76602 129.021 9.53187
3.77121 101.327 -1.01928
0.762817 93.6036 1.62604
-22.6362 121.216 2.34174
8.62662 137.284 6.60373
-21.2073 87.3574 6.36571
-17.4894 124.07 -0.935212
-1.42791 131.036 0.0519878
9.14235 136.404 -4.55504
-17.1837 96.7757 -0.794895
18.1086 125.815 1.16385
-4.59973 132.188 10.6837
12.9693 127.161 2.81088
19.9079 129.495 0.81357
-0.48508 91.9618 2.57832
-25.6381 129.325 8.83379
-1.1978 120.3 -2.05688
-3.37652 104.103 -2.92776
-14.8348 135.41 12.0942
-7.14583 126.755 -0.790179
-17.439 92.9852 -0.830395
17.7124 122.623 5.67977
1.44745 90.6932 12.1639
-25.609 121.626 4.10114
20.0694 123.137 7.17277
-7.3797 153.485 0.393128
-10.3071 101.077 -0.236753
-5.78355 129.891 12.1172
-15.7401 82.9734 2.32579
11.3016 107.686 12.2219
11.5462 98.6992 3.75446
-18.5965 122.932 1.29224
10.2848 113.448 8.25741
0.236724 123.357 12.8553
13.2522 106.083 23.5508
9.07944 94.246 2.70058
9.03775 119.113 16.6337
-5.47053 116.852 -0.270508
-6.90248 116.174 15.1243
8.00887 124.373 8.63386
-23.236 88.2965 3.87047
20.3139 133.038 0.865018
-19.355 126.437 12.9766
-3.68259 137.891 -0.552986
11.8875 121.743 2.17739
-6.4998 123.356 -0.161493
-18.707 141.363 4.32444
-12.2152 89.9036 -0.0331499
-3.4877 92.5787 2.74511
1.31343 92.5873 1.84649
16.7123 133.682 -1.96725
14.1692 123.562 6.90478
-18.3129 124.524 9.68386
13.5287 141.532 0.235068
-4.85855 135.679 8.59297
-20.1364 121.94 1.46242
7.17198 92.8787 1.715
9.05273 125.435 7.08709
-6.40317 134.498 -2.20139
6.05945 135.387 -3.34212
1.45767 90.5975 12.603
-21.4823 121.635 1.02776
-6.13046 85.4481 3.8223
-17.2733 115.973 9.51337
-3.17975 142.504 5.86175
4.39899 94.546 0.382527
-11.3776 120.363 14.8839
-17.5571 118.34 9.55188
-10.6415 110.526 -2.67234
-6.10615 109.697 -1.48077
-6.20974 140.744 6.74913
3.50442 138.396 5.09993
-15.2758 137.973 -1.29559
18.0508 124.764 0.723104
14.7687 106.127 4.08808
-19.8989 121.382 4.09096
15.3158 111.953 18.9797
6.4873 105.975 18.1869
15.4827 111.519 10.1873
7.00243 135.254 -3.4121
-13.7032 106.173 -2.85529
-7.09329 96.564 1.99782
-17.1675 125.978 11.751
-10.409 107.11 -2.0608
-4.74282 148.15 -2.37363
10.4909 106.45 10.4397
-11.3953 99.212 -0.760294
-6.65174 109.929 14.7181
-20.6233 102.199 7.12694
12.8991 135.314 -4.34293
11.4908 137.891 -4.22888
-8.6611 122.239 -1.57438
10.3258 97.2168 26.1721
-4.19699 116.057 14.8649
-9.70349 126.798 -2.66145
2.47344 131.993 10.9726
10.1301 120.128 1.27223
15.9762 108.777 16.6882
8.20082 144.52 3.22892
14.8153 107.017 10.8907
-12.0824 131.738 11.7464
-24.3319 132.419 7.90898
-2.09214 127.95 12.6535
5.62492 96.1324 15.9651
-4.81786 115.732 14.8665
-16.5453 94.392 9.14517
-21.8338 132.194 2.04988
-27.2839 127.241 11.3559
-13.9969 133.642 -1.45337
-9.66602 151.059 -1.95926
12.2046 128.86 8.1487
-14.6526 131.025 -1.89584
17.0639 139.173 -1.39291
1.57899 123.853 -1.11019
14.3633 129.764 -0.997832
0.456251 103.432 -1.96809
-22.2264 108.132 2.70546
14.3929 127.121 10.4757
9.43843 109.789 8.80315
6.02082 101.752 10.848
7.40709 146.471 3.92508
-5.67866 126.214 14.2465
13.7253 147.308 -0.152986
-15.2347 116.348 11.0253
-18.1859 97.5879 9.31656
-13.7347 85.6839 8.87079
-22.7936 124.339 11.4685
13.5008 125.551 9.09257
-22.8673 102.999 1.05428
-9.58566 134.275 -4.91847
11.9583 98.9986 4.31679
7.63775 145.292 4.58007
-3.44811 145.631 -1.44052
8.20874 146.065 -4.34452
-7.839 151.988 -2.61782
8.71391 126.129 9.36684
-19.5051 127.818 2.10164
2.26635 98.5222 12.8869
-13.3604 111.386 -3.06311
-16.2696 128.527 13.4968
-6.72127 140.702 6.83849
-18.1385 116.012 -2.91605
-2.37969 125.775 14.0454
-12.383 148.186 -0.442329
-1.85023 109.489 -2.83947
4.3416 150.931 -1.99897
-4.79069 131.951 11.5119
-13.6073 105.994 13.5409
10.7765 104.932 13.6982
6.75778 121.2 10.9354
7.71262 96.0531 14.2214
9.89098 121.749 -2.52011
4.53722 119.617 -0.122691
-13.7653 145.298 9.65555
7.02276 106.451 17.9493
-20.9092 137.985 6.32077
-18.6646 97.7881 8.5767
11.3003 125.938 6.72853
-20.4676 120.892 4.245
-18.7686 106.028 8.99881
-14.0233 90.2272 9.21725
-0.318985 144.004 4.64289
-20.4535 94.3783 -0.356577
3.89423 143.074 -2.85793
-3.10271 119.703 -1.15462
-17.0037 92.2713 -0.689383
-13.9241 123.925 13.2186
-20.5195 103.36 7.25867
12.2007 123.937 8.83603
15.2536 108.532 4.7206
-11.0365 147.438 7.44633
-12.0304 90.5908 0.342632
-22.377 128.475 13.313
-0.886709 119.13 14.5645
-19.0017 102.132 8.18337
-13.997 135.381 12.0428
0.913397 98.3641 0.534219
-22.9702 86.7406 2.74502
4.83173 93.9782 0.549218
7.94808 94.7373 1.38053
-22.2199 82.03 1.32249
-14.1928 115.344 11.6586
21.974 135.725 5.43504
-15.3152 86.6587 0.897011
-18.7256 99.5899 7.43475
-21.9606 86.1699 1.29162
-15.7303 98.9266 -1.39744
13.2746 106.551 23.4337
-22.8563 79.5712 -0.508249
-1.2646 134.642 9.01374
-5.16559 131.187 -0.318972
-4.49018 126.134 0.478335
-23.8711 131.918 11.9623
2.40212 105.186 -2.54094
-7.76961 140.142 7.99797
10.9858 117.412 7.65189
-20.4539 105.326 0.338804
14.7939 118.388 11.3398
-8.15247 111.532 15.3353
-9.20217 100.876 15.0745
-14.6697 96.4356 -1.13241
-6.70028 128.694 -1.13433
6.44337 121.463 0.302743
-19.7711 82.1465 1.36807
-9.46286 139.525 9.23869
-10.9461 112.99 -2.45268
-22.1151 103.277 4.01689
5.30346 96.9262 17.1538
11.1679 107.899 1.87696
-0.179402 131.174 0.614068
-17.6038 123.231 9.41173
-21.6307 134.879 11.074
-22.7887 132.483 11.322
8.25485 105.829 21.3553
6.16837 149.831 -2.85954
-24.1448 130.88 6.68868
-14.7274 114.291 11.5829
-12.973 102.25 13.8514
6.81945 121.824 -0.228949
14.1576 130.026 8.614
1.19868 98.086 14.09
21.9357 128.286 4.5583
10.1879 136.244 -5.18773
-19.0705 123.771 9.79903
-25.644 126.978 4.87212
20.0653 123.349 6.50469
9.37033 125.476 -3.33439
8.85405 120.328 6.94546
-14.6234 125.129 -3.25752
21.472 121.92 6.26391
-11.126 146.464 -3.16032
7.34791 134.105 -3.11632
-19.4022 122.186 7.6852
16.2625 140.367 -1.28704
13.3525 116.424 0.326163
-6.78057 112.764 15.1178
-4.45403 131.11 12.142
-15.1857 146.043 8.52696
10.919 150.034 -1.25205
-4.61281 140.208 -1.56948
21.1364 136.527 1.59104
-17.6184 128.838 13.7187
11.4272 133.457 3.74867
-20.0806 134.668 11.4828
15.5658 126.153 8.39943
7.0224 115.893 9.6793
-22.5178 136.595 9.34561
7.71867 110.934 -1.25404
-8.33685 152.011 -1.70267
-15.6902 129.931 12.1845
15.9054 127.91 0.685436
10.6307 131.892 2.25811
5.82643 142.28 3.77683
8.68119 110.648 18.8157
-6.01254 110.022 -1.45435
13.1695 116.195 0.885484
6.86825 123.961 10.4645
-2.05891 144.767 4.90471
19.7206 128.268 1.34181
8.91244 118.469 12.7119
3.10933 109.59 -2.22452
12.4734 121.929 2.37025
-9.53248 104.049 -2.55297
-21.1486 139.738 9.30003
-8.6826 87.8425 10.5176
-0.26201 136.604 7.1374
13.3676 128.04 4.72286
-23.1284 80.4543 3.13455
-27.8658 122.621 13.8173
-8.24278 128.845 12.8421
1.91383 123.851 -0.844326
10.7791 111.268 15.0148
-3.19863 110.843 -2.79308
21.5989 136.561 5.46122
12.2601 130.003 -2.66421
-9.64126 139.047 -4.72471
-9.62845 98.1294 0.638659
15.1474 102.323 7.98162
-16.3177 83.7289 2.41562
22.3005 136.636 3.54133
18.4119 135.421 -1.44085
9.92149 131.116 5.12845
6.62059 97.3517 15.7092
12.4305 125.847 7.99365
-8.81823 134.863 -4.68387
20.3617 139.419 0.380007
-16.6962 88.0888 8.45756
-13.0285 142.946 10.6677
-19.4645 99.4835 7.09016
-6.72557 139.704 7.35394
-12.7139 148.425 1.43598
23.4073 124.975 2.39107
2.49147 136.165 8.28399
-18.8767 118.812 3.75343
-14.3339 128.29 -4.88701
-4.40971 125.732 14.432
0.286961 124.183 12.715
-19.1508 90.1689 2.14761
16.3356 128.505 9.31519
-12.8538 88.4942 -0.0946023
12.8461 129.071 4.88425
13.6239 116.123 1.97589
15.9028 115.821 16.0829
9.47309 120.123 6.65148
-5.44552 148.544 -2.98517
-18.2787 121.709 -0.476936
-10.055 134.891 10.6906
-22.2939 135.23 10.895
12.4685 128.306 -0.758039
-10.759 110.985 15.4747
-18.2102 123.594 -1.74406
5.80899 98.5806 16.4454
-13.7057 128.489 -5.13351
-5.31213 102.85 -1.85908
7.24479 101.044 20.3681
-7.25194 150.28 3.50765
-11.8709 110.221 -2.8615
21.1316 124.149 6.2301
9.22242 128.148 9.61247
15.5423 111.802 13.9266
11.762 123.407 2.6972
-21.4373 81.3617 1.58805
13.0842 120.728 15.6209
8.12245 144.578 3.50742
-21.4151 129.964 0.545376
-7.48105 153.248 -1.39916
-15.2266 137.312 -0.824608
-15.8615 127.551 13.0521
-6.16362 140.831 6.74551
-1.37285 134.111 1.17626
-18.8053 81.2829 1.29792
-8.7218 99.3949 0.713181
-2.36106 91.3127 14.7734
14.7375 106.467 21.0732
-7.54348 118.403 -0.141697
11.844 133.237 8.8539
12.1309 127.714 9.91281
10.2705 96.1969 3.31644
-4.17571 112.995 -1.88629
6.26656 92.8061 10.8531
13.3861 132.815 -0.791357
-23.5235 80.137 0.210367
-26.786 127.4 7.87991
-16.5554 124.796 10.3913
3.70364 128.295 1.11142
-22.2728 90.7189 1.77688
-2.81502 140.737 -0.532135
15.1527 123.282 -0.858057
21.8339 124.62 -0.898623
-20.5224 139.517 10.1986
-15.4803 98.8877 11.8074
5.18707 116.651 -1.70621
14.9582 137.402 -1.66577
-15.168 109.585 12.7851
7.97022 151.934 -2.51748
16.7067 127.897 7.48976
2.81294 91.8711 10.7504
19.3932 120.452 5.15896
-16.0072 82.5377 7.14018
-2.21886 100.194 -0.653141
-0.520884 131.36 0.525069
-4.4956 122.106 14.5394
14.6362 112.527 2.17798
5.94266 122.936 0.966628
12.1918 132.723 6.32743
5.67504 102.521 17.6976
22.9277 122.015 2.44977
6.85574 104.149 19.9514
-15.3721 138.276 11.829
2.8429 130.478 11.7655
3.98521 116.334 13.9555
11.2598 105.764 1.67269
-6.29343 136.649 9.08181
-10.5917 145.428 -3.85269
3.84788 99.7865 12.301
15.1639 110.819 14.8651
15.5783 131.774 9.11227
-8.2243 101.623 -0.567954
14.2345 97.9625 6.95111
-13.0448 109.031 -2.39191
-7.67164 126.447 14.0929
-27.3095 123.088 12.9613
-7.48408 119.619 14.9754
21.3474 121.957 6.6511
7.56138 123.618 13.6753
-18.6047 122.651 8.94894
10.8874 137.4 3.11926
-8.73259 131.994 -3.54841
-18.9729 122.238 3.93811
7.58989 114.509 8.7151
13.0654 141.29 -0.0823222
-23.6466 80.3312 1.13237
7.63707 93.6326 1.78339
11.6637 106.433 23.5452
10.2931 131.82 4.46588
16.3922 122.969 0.273476
-12.2765 109.64 -2.66045
-19.7745 81.6537 1.51419
-4.89416 96.1092 2.24972
-6.66608 136.735 -2.88165
-19.5086 117.875 3.82205
-19.8864 117.95 3.37851
0.605308 112.517 -3.27091
5.54828 133.505 -2.58886
-4.91874 123.582 14.4481
-17.332 100.321 9.43269
21.8772 123.477 -0.112182
3.67033 138.028 -1.44598
-1.41594 148.481 -1.55387
0.471208 129.502 0.24412
-14.7033 120.31 13.0209
7.58791 137.215 -4.04335
-6.77777 88.4712 3.28662
-19.1115 118.497 4.36502
13.2231 122.179 -1.12612
6.46184 99.0264 10.3538
-28.5894 123.271 12.3521
-4.04854 104.231 14.2493
12.3214 151.57 2.30566
14.3674 142.213 7.19364
-20.1662 118.385 6.29341
-24.0561 123.177 8.24904
13.3605 119.415 5.13099
8.66913 146.544 2.24276
-8.05037 146.52 6.17905
-13.0884 93.689 10.2047
4.02776 125.103 12.5141
17.4837 146.302 4.71131
6.6998 147.232 -3.43234
-21.3185 92.8932 5.1975
12.2393 119.365 16.7417
22.1222 122.838 0.851065
-11.0934 83.553 2.27548
-3.08864 138.729 -0.111461
-0.105728 144.273 -0.668811
4.69298 102.475 -1.84701
11.5961 125.912 6.90155
12.2702 125.962 -2.55831
4.47123 94.8447 10.3141
-11.0301 135.04 -4.6875
-2.19898 116.657 -2.63634
-13.2708 146.055 1.75564
-17.3343 125.291 11.3636
-0.945541 90.5884 2.90191
-8.35781 97.048 14.2667
4.16499 125.807 12.2942
16.2735 133.452 9.84368
9.65258 103.789 24.4829
-10.3079 143.282 8.71942
8.66461 104.864 -0.141839
13.5581 142.693 6.79276
11.7928 121.116 2.81561
-8.30912 93.7772 13.4223
-22.3636 99.0305 0.155748
10.677 122.468 -2.32567
-19.8585 121.541 5.67346
8.44434 105.288 22.7104
-4.98186 98.0823 15.0969
-20.7997 123.534 8.37959
-9.1039 125.631 -2.27015
12.7161 141.533 -1.25674
20.9696 136.355 0.768228
-24.5026 127.565 3.37182
11.2591 109.672 13.5128
12.0913 126.322 12.1461
15.8271 119.876 9.33014
2.69706 97.8293 -0.00215611
-6.91777 133.628 10.5428
-16.1816 132.968 0.733181
-15.6023 90.8157 9.19863
-20.5713 124.941 11.3898
-19.835 106.062 -1.45838
-14.1672 97.4879 11.5109
-14.6488 129.555 -2.52229
-25.0297 122.454 10.0322
-14.5866 128.107 11.6276
4.18714 99.765 12.1438
14.1016 142.739 0.716599
-5.4144 92.4317 3.25162
-7.58649 114.491 15.1776
-8.13416 151.741 -2.72119
5.22871 92.6989 0.952937
3.61026 125.06 12.676
-3.41029 123.515 14.4529
-16.4291 88.6269 0.977417
21.6128 140.908 2.25697
-9.21449 118.766 15.1023
-13.9873 147.492 7.12248
8.4421 127.496 10.173
-18.918 111.972 -2.72912
10.1209 142.534 -4.52873
19.2121 125.24 7.78254
8.12555 118.948 -0.597834
-16.1004 130.098 -1.49663
-15.6635 89.3426 1.00102
12.0875 129.136 -3.26988
-12.9988 116.43 -3.18215
12.9676 117.567 8.08277
-1.96901 119.591 14.7752
-11.0052 129.138 -4.36509
9.55841 128.983 -0.070488
-9.84958 129.088 11.8976
-15.6961 102.067 11.6098
11.2672 137.335 3.1295
6.47809 105.133 -1.38838
12.9447 121.276 3.37629
-17.7851 127.523 2.45394
18.9212 131.263 9.43106
20.5755 123.249 0.160136
16.1507 128.948 9.22079
12.0463 136.889 -4.17372
-7.49167 113.483 -0.754688
7.38195 124.714 12.8622
-1.76597 139.656 6.11952
-12.623 81.7556 7.16083
-20.9393 134.229 1.36961
11.651 138.32 -4.10377
12.6444 121.493 2.98119
14.9194 119.571 14.5742
-12.2432 126.879 10.7004
-15.634 81.6911 6.71373
-19.6275 120.569 1.21324
7.37374 123.474 12.4641
15.7316 101.836 22.1283
6.20652 103.907 11.9385
16.6176 101.572 19.5854
-17.8356 126.279 1.29526
7.77263 107.176 20.3772
-2.41753 144.084 5.03572
-10.2468 112.921 -2.35112
-1.15998 136.895 0.755498
21.7347 136.169 5.47633
-17.3448 118.797 9.74239
-8.32491 88.0645 2.39265
12.9881 116.885 8.04944
12.6136 141.292 -1.87121
-22.2728 137.276 6.81749
-21.6691 120.779 6.75178
12.4088 125.968 7.82997
-9.57898 140.318 -4.65856
-16.8836 105.295 -1.97244
9.39449 134.231 7.86086
-13.6857 119.234 -3.24515
-14.6734 139.159 11.4589
-1.64041 91.1521 14.3372
-21.9701 79.5983 1.01117
8.69604 104.191 16.3222
-0.454345 146.05 -0.88086
-18.0545 105.243 10.0774
6.25387 136.267 -3.56706
-22.9379 123.388 1.73139
-15.6403 80.1136 3.3279
-25.0421 122.544 12.4777
-17.4202 82.1633 6.7395
7.76225 130.153 -2.7158
-21.8653 112.622 0.74203
8.94669 117.266 7.39468
-1.29421 124.378 13.7636
-4.5623 125.57 14.5547
-17.8084 125.739 -0.498491
-9.47107 123.843 -1.9467
-13.5027 140.828 -1.99748
21.0586 130.737 1.57668
-19.2629 121.504 7.49199
8.22434 139.523 6.43698
-17.3419 144.611 5.16457
-9.38207 108.807 -2.1666
10.4044 107.023 23.4841
-19.4325 78.5374 2.89044
-9.53736 139.42 -4.73324
-21.8197 88.797 2.40752
-24.076 120.253 10.0435
12.7322 121.385 12.0841
4.87308 93.2325 13.916
15.4179 109.141 13.0866
-9.45118 100.532 0.0656198
18.6829 121.956 6.52608
-16.555 143.578 3.31565
7.36271 118.313 9.01478
-14.9716 115.573 10.5482
-12.1425 119.604 14.6892
10.0665 120.304 1.22
-21.8373 129.813 0.716679
-18.4435 142.943 5.12061
-17.287 139.808 2.17096
14.2511 120.24 4.03481
12.3974 125.206 12.1872
-19.7613 83.4091 1.96598
-22.2826 83.9345 3.51364
15.3149 115.063 5.99976
8.08258 139.141 7.20652
-20.0489 123.37 8.04929
-24.3572 131.12 7.30475
13.6948 125.678 11.7636
8.07528 142.828 -4.60271
12.19 117.452 9.85718
-21.8958 83.9274 3.08478
-7.29301 149.205 5.31372
8.8467 137.424 4.47716
12.9273 138.499 -0.540681
14.8985 106.306 20.1374
6.21496 134.917 9.435
19.0146 127.637 11.0674
-10.841 141.116 -3.69618
-25.5793 130.387 10.0946
-21.3699 138.59 10.3322
13.3648 138.058 8.16024
7.24768 128.386 9.43473
-24.392 119.961 12.5292
6.49236 106.321 18.2124
11.2042 128.525 -1.32252
-17.3926 124.271 9.88808
-11.5472 139.329 -3.95582
11.1124 116.859 7.91818
0.0277714 116.416 15.094
-12.3724 127.442 -4.65366
-14.039 131.074 -2.06954
12.2721 129.91 3.83741
-14.2454 89.2675 0.284141
-22.7176 84.7522 5.29031
-16.1508 113.331 -3.45507
10.1376 126.634 12.0501
6.94222 111.76 9.8115
6.39329 103.544 -1.96972
-22.336 85.2395 1.85035
-12.8823 146.21 -0.861446
-10.6578 115.202 15.518
-13.8977 124.229 12.8061
20.0689 143.518 4.0335
8.50881 149.907 -3.7448
-17.1001 85.7516 2.71217
6.29448 103.226 17.3285
-17.8511 98.3255 9.63352
15.0019 112.152 4.72739
-8.41301 91.6876 11.6849
-22.739 99.2474 3.30777
21.0807 143.534 2.84416
14.9031 104.066 4.97589
-21.8768 124.496 11.5535
-1.55177 121.797 -1.45794
-21.9329 114.205 2.81427
22.8087 137.506 4.35007
-10.816 127.017 11.3052
-18.0109 95.4998 8.68836
-1.70905 132.569 10.396
15.0513 104.144 10.6914
-15.2498 136.714 12.0029
-18.2304 123.405 3.49199
15.585 125.309 8.88211
5.63093 128.518 -0.972923
-4.82039 144.67 5.50496
4.68561 134.554 9.73415
-18.9112 121.63 5.47575
-7.06867 98.4569 15.3032
7.61854 94.3539 1.35277
-18.218 129.036 13.6429
-5.39275 88.6627 3.59508
12.3364 122.833 2.51403
-3.64325 114.645 -2.06959
9.69153 130.231 5.71447
13.9402 119.734 11.0435
-13.705 101.329 13.2796
13.0005 124.861 2.39598
-12.2848 121.465 14.1615
-22.2186 83.0408 3.54976
-0.292521 101.979 14.6899
-1.43194 127.46 -0.340396
10.8602 123.691 0.28609
-5.97389 113.274 14.96
7.07886 148.53 -3.38306
21.9127 129.71 1.08524
-5.31203 96.5213 15.1094
15.4119 109.245 18.8396
19.0902 145.892 0.907458
-15.2553 105.123 11.9246
-6.85001 84.8128 3.77006
-12.0777 107.051 -2.27457
-22.5306 96.2199 3.64856
20.4178 138.291 6.70589
-26.4768 123.707 14.9045
-22.2399 105.479 1.37165
10.9702 108.728 14.7188
-8.58737 113.377 -1.37634
8.25482 99.2579 -0.0347565
15.8455 120.718 9.41072
-5.35239 120.533 14.8471
1.63141 121.535 13.1344
13.4086 125.926 7.78408
19.6926 134.41 8.13777
13.6706 134.313 -0.0201248
5.44617 121.564 12.4884
9.85412 131.829 7.75882
8.35229 136.97 7.91896
-13.121 84.4223 2.63966
-7.64343 153 -0.0190215
0.160978 101.392 -0.955935
8.00211 127.624 9.45914
-20.352 99.413 -1.04834
-19.2023 108.07 6.51509
-8.10845 85.3106 10.5757
11.7202 100.963 26.5172
-13.5329 103.376 13.7228
-12.6355 127.236 10.5692
13.5704 105.108 3.20068
22.9224 121.157 2.94753
5.92614 105.077 -1.5006
21.0992 128.589 5.87502
-3.60175 153.426 -2.06163
-0.997156 132.269 10.6883
-19.6824 88.6901 1.88772
7.09318 109.863 20.665
-13.6772 122.145 13.3873
1.20594 118.164 -2.3758
-11.5228 127.183 -3.72453
-10.141 91.5751 10.5693
11.9143 129.428 3.1406
-16.2614 82.0144 6.82608
-22.2423 80.2376 3.48552
3.96993 102.106 13.2766
-17.8067 128.363 1.11905
-10.5547 123.654 14.8238
13.7506 136.121 -1.09063
-3.71505 135.065 8.76869
-18.0565 128.07 1.93064
0.344339 139.777 4.50493
-7.32993 120.123 14.9506
8.55006 141.869 -4.79194
-5.74999 113.642 14.9636
7.33202 143.428 -4.17765
-3.82066 119.579 -0.600792
-2.03222 118.26 -2.24551
14.629 120.518 4.66489
16.5451 113.822 9.4444
-11.7918 107.718 15.0625
12.1523 124.35 -2.53674
-12.0867 115.498 -2.60362
-18.2001 143.908 6.94678
-2.83535 119.524 15.1755
10.0527 129.623 -4.10287
10.8215 120.391 10.9524
12.5699 136.211 -3.69518
-19.8375 126.312 1.33286
2.62928 93.133 11.4636
11.4968 115.849 8.45246
5.97108 126.489 -0.0647458
10.8844 151.834 1.84313
-18.1927 123.205 4.14727
11.5264 116.012 0.849589
-2.93822 89.8985 14.2955
-3.0604 93.3148 14.7801
-12.8492 94.5243 0.69778
13.0215 104.166 24.3676
-0.586229 96.9041 14.9592
-13.2345 117.766 13.5611
-5.43745 94.7104 15.3942
-21.1429 93.3794 5.7814
16.7326 114.384 8.99208
6.11448 139.93 6.46326
8.84915 117.674 13.523
9.91835 111.939 15.8596
6.95173 140.956 6.20417
8.16965 113.024 -1.9629
14.8902 133.048 -2.83426
-22.3511 137.81 9.20915
14.4244 139.305 -0.248611
11.2897 112.672 12.6327
5.39005 98.3101 16.513
2.7242 100.997 13.5636
-15.9476 79.2665 2.902
10.8152 114.466 8.32172
14.7209 98.1393 7.67182
-7.31763 149.943 4.06877
-15.4015 112.826 11.0206
6.53811 138.797 7.09942
-19.3072 122.093 1.89906
-0.773793 114.361 14.9011
-19.2703 120.831 1.11676
0.940452 107.15 -2.93011
0.338316 119.79 13.9317
-6.56905 145.366 -3.67368
4.63337 144.764 -2.98857
-18.2196 122.119 3.62144
13.9802 125.76 3.53612
19.0901 138.787 6.73155
-20.4005 118.445 0.262389
15.9727 127.258 8.79919
9.28912 142.065 -4.99827
-13.5115 119.429 14.0548
-26.3648 123.353 7.00202
-27.2221 123.596 11.9956
8.34161 106.159 9.57691
16.3476 128.671 9.26793
-23.0011 127.504 1.67302
4.86677 138.322 -3.10101
1.40813 141.035 -0.442621
15.0961 118.981 15.0805
15.9918 100.905 10.9849
2.18814 105.585 -2.75128
14.3048 108.598 3.36353
10.8632 110.333 0.155985
-11.2097 109.54 -2.42171
-4.00598 107.543 14.2848
15.6034 132.363 9.55555
-18.2247 138.248 2.46635
0.0963456 111.154 14.8189
11.5681 120.937 -1.41235
7.68747 140.528 4.92336
-3.31012 138.093 -0.142423
-18.7055 119.207 0.085327
11.9203 113.281 -0.184383
-7.1996 85.1303 10.7755
3.68132 130.593 0.719882
-15.9369 104.333 11.0963
11.0879 103.183 25.6026
11.4599 140.394 7.10735
19.042 146.535 2.98528
-9.87096 127.655 12.5095
10.8409 124.63 8.89718
-12.6459 101.676 -1.0968
10.56 120.365 1.26725
4.21277 147.345 -2.70374
9.51585 120.962 -2.19502
-23.293 133.921 7.4322
6.0961 135.011 -3.26253
12.2053 117.452 9.55727
-4.8685 144.877 5.40376
21.4302 130.217 7.64752
-21.6699 123.245 10.8998
-26.37 122.601 11.7195
-14.7132 127.843 11.7084
8.2017 139.99 4.7642
-4.50057 117.451 -0.635503
-9.97642 110.216 -2.40124
12.2092 106.602 23.4801
-22.2368 137.873 8.32811
11.4908 145.725 -3.26319
10.3482 104.582 14.6402
11.2689 112.587 12.6671
3.30663 94.0456 0.614215
10.076 142.319 -4.61352
12.1294 115.193 0.707921
-14.7066 111.887 12.6763
3.74973 93.9116 0.575831
-20.0434 106.112 -0.6997
0.246928 108.895 -2.78088
7.07979 94.9278 14.4778
16.8336 100.525 18.7845
-19.2569 109.762 -2.65649
-7.23197 93.1793 13.904
-4.13581 98.6583 15.197
-6.99758 88.395 11.5224
-8.21675 127.358 13.0269
12.2432 124.044 -2.11458
9.97202 134.333 7.82816
8.02944 134.163 7.30093
-9.40158 137.96 9.47777
16.3806 114.449 7.74263
11.1981 132.624 1.20216
-20.4125 92.2332 0.734306
3.01041 138.772 4.79056
8.21199 119.582 12.7108
-21.4138 125.024 13.0554
20.4392 127.531 10.232
-1.08244 128.64 -0.315771
11.3764 96.663 4.29668
-3.89521 112.155 14.5702
9.57891 103.873 11.2538
9.7344 125.35 -0.55756
-2.00147 117.101 15.25
-2.6043 107.13 14.3341
-8.84653 149.858 2.79616
12.8824 137.092 4.69514
-7.75177 91.9292 12.2611
-18.5266 127.209 12.4524
-26.1103 123.135 7.48281
-22.6253 121.859 9.0858
-16.0614 133.055 0.663593
21.3125 134.696 1.25364
10.5956 124.1 14.7929
-23.3304 98.0408 2.01881
12.5587 151.601 2.13749
21.9028 140.345 2.83626
-16.2092 100.113 -2.03002
12.2187 137.539 -3.43206
3.24075 106.093 13.9332
-11.4865 121.262 -1.92312
-19.1114 120.818 1.34824
8.08271 118.466 7.70098
6.58867 139.303 6.97942
-12.7587 139.397 -2.93089
20.858 127.273 -0.0293243
13.851 123.369 8.0946
-9.18705 84.0934 3.33552
12.4925 122.001 2.25751
-18.0156 122.058 8.96132
7.98622 111.754 20.4502
-7.39654 94.2159 14.2402
-15.2325 118.318 -3.30415
20.4964 122.868 7.32092
1.33257 152.401 -1.45165
-23.2042 88.1495 4.1273
9.87063 153.474 0.964375
-8.1953 106.584 -1.88278
-2.6213 137.278 0.476559
12.4138 128.298 8.41192
17.8554 122.45 5.93384
-10.3573 147.661 7.18905
-19.2901 99.6231 7.19917
4.3976 130.841 -0.540009
14.1626 130.955 8.97954
-16.0192 146.353 6.52552
9.10773 100.205 23.8915
20.5543 134.502 7.73844
-27.5661 125.443 11.9718
-19.9452 118.009 7.52995
-9.02739 97.7017 1.19957
16.6431 136.65 -2.03713
-2.29146 124.248 14.3812
-2.48782 107.295 -2.97425
14.4421 134.931 9.36152
-21.6837 85.5007 0.663637
-0.190306 147.807 -1.06957
-19.4076 101.92 7.84882
-20.0355 105.398 -0.99466
13.1085 133.817 -0.573214
7.27474 112.873 9.06367
12.1826 120.513 9.3239
11.3246 125.525 5.89706
-20.9477 122.549 0.394167
-23.4156 128.636 1.70668
-3.69619 147.431 -1.91061
9.96026 109.482 0.229257
-1.11318 134.396 9.14642
-18.4305 85.0437 2.51593
-18.2517 86.1979 7.71937
-23.2001 81.8758 1.49815
14.7323 108.185 10.6501
-19.8994 122.802 8.41079
7.23232 96.6423 0.2263
16.1951 121.027 6.57941
9.3293 133.154 8.22688
-19.9421 81.6862 1.34271
14.0295 136.423 -1.40033
15.4984 111.727 12.2931
2.14718 132.208 0.540646
-14.0646 143.677 0.256777
-11.1673 149.687 3.29531
21.7151 123.957 5.19077
3.90692 139.549 5.07951
21.0708 144.171 2.44187
-5.02186 92.2072 14.7999
-13.8119 132.655 -1.57536
-19.2748 111.342 -2.61955
-11.72 100.627 14.1808
-22.7893 133.076 5.2873
12.8471 127.858 1.2191
-12.9697 90.0914 -0.309811
21.7587 130.369 5.03379
-22.4697 107.148 2.40583
0.350988 148.8 -1.02623
-21.5138 137.729 6.61317
-12.1842 139.076 11.1707
-3.95041 118.011 15.2779
-8.42013 103.881 15.2198
-6.06339 138.394 7.597
2.18457 146.945 -1.6448
-20.4779 136.049 2.66068
-14.8791 117.452 -3.218
-21.4157 83.225 5.97846
8.5155 97.8749 0.604254
6.57794 133.625 -2.83274
-4.6217 106.808 -3.04368
-22.4732 87.4215 4.93944
-2.67374 91.2279 2.75136
-23.4374 80.7069 -0.293841
10.8264 116.9 17.7406
9.97408 121.125 10.7738
-5.95444 154.514 -0.488467
12.9992 125.009 2.33127
7.7559 142.445 6.11094
11.8482 116.02 11.839
-20.796 98.6342 5.89753
-20.6251 85.8233 6.67173
-19.4125 121.905 6.00086
7.91311 108.568 21.4215
16.4844 126.163 9.23082
5.08699 116.059 13.1715
-14.1837 135.849 11.8872
-16.0389 126.855 11.7826
18.4882 134.543 -1.29023
15.0803 110.124 13.4937
11.9175 146.029 -2.39782
0.0991146 136.217 0.93984
-22.4265 91.1231 4.45182
17.0606 132.387 -1.13974
-22.2039 90.7619 1.79747
-16.4702 117.292 10.2922
-1.84635 128.969 11.5449
-20.6914 123.554 12.0468
7.44297 111.889 -1.964
-7.53288 137.271 8.70202
2.99921 92.6096 10.893
-20.6468 122.584 8.6944
21.0157 141.279 1.37021
-0.265979 128.325 -0.572689
8.08381 114.937 19.4431
7.83844 107.086 17.58
8.9242 145.836 2.38598
10.905 100.322 2.04261
15.4309 123.173 -0.588759
13.4803 116.372 0.206567
7.71737 94.4888 12.1234
21.5087 136.863 2.95745
6.6166 118.904 11.433
7.57645 92.5877 2.25544
-20.8998 115.749 1.51734
11.5917 134.922 8.7365
11.4108 124.499 -0.990542
-16.7846 136.542 11.3625
-15.9085 107.137 -1.66174
-19.6837 126.196 12.7124
-14.2867 119.685 -3.40412
-22.4499 137.455 9.73269
14.2828 131.661 -2.34717
-12.1575 129.655 10.7546
10.353 122.035 -2.22818
-18.8828 140.304 10.9078
15.9384 121.114 4.74455
23.1737 130.693 1.55923
10.033 111.606 15.9239
-27.0793 127.423 10.0088
22.7083 133.087 4.54733
-5.51703 86.1559 11.8399
12.6365 120.872 3.96848
-24.1205 123.163 2.88308
2.72674 116.194 -1.47468
