ply
format ascii 1.0
comment Created by Open3D
element vertex 1840
property double x
property double y
property double z
end_header
-1.07033 127.473 4.1688
-10.3917 97.4834 5.88745
-4.46592 105.13 2.53109
-17.635 125.041 9.1835
-26.6015 88.669 -0.000470412
-27.478 128.071 -4.48517
-16.4663 88.0479 2.55604
-27.6439 133.632 -1.75045
-26.4364 128.073 5.78925
0.696766 148.998 -1.72533
-5.59229 132.569 5.06745
-2.22222 122.692 2.89739
-30.0149 87.1166 -1.53609
-13.6167 97.0635 -1.07842
-23.562 143.038 0.304508
-9.90273 142.815 -5.59785
-13.2907 99.033 -12.2093
-16.8972 90.2013 3.70324
-27.0011 125.856 0.492425
-30.4208 104.429 -5.66034
-3.52592 112.053 -9.83981
-10.9837 100.427 -2.90265
-10.8227 107.719 -12.0983
-12.2869 85.6175 3.84273
-1.90827 144.461 3.69924
-15.3352 122.475 -6.40481
-25.981 128.172 5.37388
-30.062 84.7678 -9.11824
-32.036 97.8309 -8.04571
-14.4699 103.139 4.81367
-32.1677 82.8928 -3.31975
-15.7568 87.0874 -5.61282
-13.2809 125.343 8.67909
-31.7455 86.3071 -2.87126
-28.4505 110.514 -5.53052
-24.0134 125.347 -5.47549
-25.021 137.135 -2.61293
-14.6363 87.8371 -1.25686
-24.3014 131.953 6.3736
-11.359 116.248 -7.25629
-21.2231 131.452 -2.50245
-5.05849 99.8644 -11.3605
-4.9886 107.343 -2.22136
-31.79 97.6225 -7.10066
-24.0507 98.5428 -12.7834
-24.8212 129.916 5.76874
-12.9341 130.761 5.96567
-4.35299 136.046 4.46573
-23.8717 132.688 -4.38943
-10.882 117.845 -6.72115
-29.2469 86.8543 -9.90428
-31.2299 100.734 -8.44899
-15.7861 106.595 5.78499
-21.2742 86.0521 -9.76037
-6.49407 108.365 9.85396
-11.2524 85.384 -1.77642
-5.54638 126.861 5.98509
-27.0769 113.704 -9.06958
-26.5906 89.1351 -0.304804
-16.2635 140.837 -4.28495
-12.0324 87.6948 2.43595
-10.8243 100.214 -3.38473
-14.5048 108.462 -10.8524
-12.5588 100.23 2.7706
-7.88719 129.343 5.32797
-9.95177 90.869 -11.2175
-17.9867 128.701 -7.72516
-8.79562 143.372 -5.78255
-6.31474 146.944 -5.16634
-33.6983 85.9884 -5.46377
-32.0172 93.4969 -5.10777
-14.2495 142.538 -4.84657
-5.41561 104.267 2.57656
-20.6889 135.614 -5.17109
-1.14101 141.441 -2.1369
-20.3486 82.3298 0.122625
-10.5878 119.701 7.51701
-8.73074 145.339 3.87105
-5.02739 111.486 2.41844
-25.1025 112.571 0.160751
-32.1424 89.241 -10.314
-11.2796 152.212 0.361742
-18.9395 108.859 -12.0791
-29.019 127.99 -3.06869
-8.6255 101.477 10.1956
-16.2585 85.5734 -4.38337
-34.0027 87.7993 -5.16435
-11.5406 85.2665 -8.9723
-9.91517 142.856 -5.59978
-24.166 108.279 -11.4198
-9.26417 111.946 -10.4572
-13.6481 104.935 4.56267
0.467569 139.598 3.60076
-22.6524 82.4213 0.218859
-18.1958 126.592 -7.76987
-15.8954 80.9869 -9.55349
-16.1965 140.481 -4.50467
-27.5586 129.951 4.14245
-14.3752 144.349 -4.64182
-10.1921 111.927 6.20783
-20.1868 138.225 -4.88509
-29.8248 97.5594 -10.6771
-19.4436 126.512 6.46869
-32.824 88.884 -8.47339
-13.9275 131.27 -8.58709
-9.20629 107.896 4.56356
-25.2604 139.62 3.67994
-6.14354 85.9184 -9.21641
-26.4802 104.195 2.69204
2.90726 147.79 -2.24989
-9.4823 98.3595 -3.34502
-5.40646 103.04 -11.5512
-11.548 119.808 7.99677
-13.0614 93.7979 -4.63784
-1.41093 120.511 -6.89879
-4.97372 90.1094 -11.0503
-16.4951 78.8667 -9.58372
-21.7368 95.5707 1.8126
-9.45789 95.9004 3.25138
-26.9044 126.773 5.68701
-20.5585 128.337 -5.89367
-3.18169 116.304 -8.37971
-19.4089 82.8829 -2.60833
-23.4051 126.687 -4.18304
-29.97 98.2843 -10.5943
-15.3817 89.549 -5.03527
-6.01011 80.3756 -9.76635
-9.89103 97.5057 -3.67167
-17.9366 103.643 7.30565
-28.8813 135.214 0.744325
-18.6611 84.6495 -6.66882
-22.3964 143.227 4.3767
3.54833 150.924 -1.90764
-27.296 123.803 1.855
-8.7971 92.2142 -0.784865
-24.1524 127.275 -3.10755
-26.6717 125.659 0.501703
-1.48432 137.394 3.76264
-25.9371 125.87 0.332246
-7.83293 103.595 10.4342
-11.0677 132.795 -6.45743
-14.3495 96.2612 1.56756
-20.6636 112.785 -11.3257
-5.06752 125.423 -4.95158
-25.9575 127.841 5.22652
-7.17887 99.4406 -11.1593
-23.9963 125.702 -2.78891
-10.5094 142.125 4.11077
-22.049 87.2892 -10.6665
-23.4365 100.117 3.63453
-6.68589 127.751 -3.80285
-24.7658 96.9885 1.35852
-14.1612 150.722 -0.716978
-28.5204 127.893 -3.60843
-9.56496 95.983 4.30121
-14.5411 88.1866 1.78572
-12.6697 89.5662 -2.0598
-23.7958 124.511 4.42602
-11.9946 86.0753 -9.60911
-20.6119 77.6123 -10.9741
-9.54316 145.09 3.72711
-25.8039 101.712 -11.4215
-0.435034 144.843 3.62452
-27.1664 114.211 -8.8523
-9.38517 94.7553 0.770298
-19.6136 91.5303 -12.2591
-25.5453 110.66 3.38323
-27.6637 106.021 1.01231
-16.2095 81.3126 -9.66608
-26.9796 92.1413 -11.0329
-15.7699 138.317 4.27672
-17.3485 89.3298 -6.99222
-12.4624 92.2566 -3.31811
-7.77633 105.187 4.2432
-16.0625 148.766 4.22717
-12.9734 129.887 6.3333
-12.3657 83.7877 4.88067
-27.8085 101.928 1.50376
-25.9495 89.6741 -0.604933
-26.3001 129.625 -5.28315
-16.1552 129.751 7.52753
-14.8728 93.1172 5.39795
-5.66871 101.696 -1.03229
-18.1338 110.29 -11.0808
-6.77353 101.221 -11.5666
-27.5134 118.482 -6.20946
-24.7448 139.986 -0.466299
-2.79453 119.81 0.337756
-18.982 107.36 7.80419
-1.88568 134.686 5.08066
-12.1726 86.0095 2.13224
-13.8823 83.6598 -8.99565
-24.7926 139.849 4.08477
-8.93422 131.374 -4.30291
-26.3105 128.269 5.72386
-10.33 95.5595 9.15874
-19.3801 145.324 5.63477
-21.883 127.979 4.25266
-0.890783 138.176 3.70739
0.128065 134.219 -3.11514
-22.4036 80.3914 -9.44336
-8.44893 123.649 -4.74208
-10.2683 97.4404 5.17011
-3.48203 129.88 6.14188
-16.5187 128.945 7.69455
-22.4217 127.777 -4.13818
-19.7758 132.954 -1.81542
-10.5697 136.44 -7.65174
-9.692 100.283 -3.16755
-11.2945 94.6249 -4.81408
-20.8157 97.6973 -12.4065
-16.9041 130.812 -8.56089
-14.9164 147.145 -2.27076
-14.6007 94.6329 -1.02622
-11.1962 125.01 7.96496
-18.7074 108.411 -12.0569
-8.55258 141.531 4.64551
-33.3443 88.979 -4.68767
-18.0135 125.696 -7.93807
-26.3371 83.8437 -8.9754
-0.238602 127.043 1.51695
-23.9569 134.794 3.16063
-17.7784 82.0023 -5.137
-13.0076 86.95 -10.1022
-25.9571 120.996 -3.02131
-7.33122 153.756 -0.804957
-25.0455 124.94 3.51
-29.6977 83.9589 -10.1155
-12.9742 97.2006 0.255606
-15.5084 114.171 7.36435
-10.4321 89.7908 3.23387
-5.12108 90.4222 -11.16
-24.9471 90.9666 -0.972773
-30.6873 100.065 -5.2791
-26.8739 125.058 4.57615
-25.3519 112.893 -10.0374
-18.0331 89.482 -10.8287
-28.049 132.712 2.14818
-2.13883 122.321 1.13161
-27.3083 99.2913 1.06036
-2.42074 104.136 -11.3428
-26.2458 124.084 1.58521
-19.2589 91.6985 1.43906
-7.54216 128.711 -3.48778
-10.2641 91.2639 -2.62614
-23.8187 127.067 -2.60501
-15.7446 148.443 -0.721495
-28.2665 123.265 0.860913
-23.724 127.381 -2.98108
-9.9083 106.455 3.9265
-26.9729 133.192 -2.2099
-28.8846 84.4655 -9.39729
-9.76513 94.3258 8.42676
-1.48356 144.698 -2.06015
-26.2263 97.0636 0.420828
-26.8069 124.85 -0.626499
-8.65113 87.0985 -10.1637
-29.5518 105.352 -2.00504
-21.5975 119.634 -9.43036
-22.5371 108.367 -11.812
-1.77373 129.942 5.54961
-11.5241 96.7066 -2.53269
-28.2987 81.9344 -7.92242
-18.1794 123.237 -8.46024
-12.3255 86.0539 1.02543
-5.39841 110.38 2.94392
-7.64002 102.053 -12.0785
-21.3867 110.534 7.66134
-8.61661 109.836 -11.2161
-18.5883 135.73 -1.48416
-4.34711 115.931 8.52848
-19.3491 129.127 4.77308
-23.8467 113.558 3.07191
-28.4775 115.107 -6.56909
-26.8611 102.373 2.18243
-14.9054 132.701 -8.10894
-33.1333 91.2989 -8.40095
-25.75 121.291 -7.30741
-26.2824 112.881 -1.81262
-25.1299 115.352 -10.1531
-13.0257 141.561 -5.43382
-26.9352 91.5445 -2.19739
-23.4095 94.987 0.704016
-25.6584 130.166 -3.41153
-19.0602 104.181 -12.5074
-15.8017 141.079 4.5897
-17.7759 111.067 -10.5972
-3.51974 135.742 4.69761
-17.9536 147.277 0.195639
-9.62649 101.375 -2.81516
-33.6311 88.1923 -6.22804
-11.1739 101.88 1.76829
-25.9553 99.8356 -11.3874
-29.4974 108.932 -6.76382
-14.1338 95.2503 -11.1263
-14.8982 127.847 7.24072
-7.27593 88.9635 -10.7583
-13.5456 145.579 -4.66687
-13.1361 112.94 -8.59542
-0.337891 117.827 -7.47865
-1.93419 126.733 -5.21624
-24.5402 129.881 6.3262
-27.9529 99.1578 -11.144
-13.0754 88.2033 -9.33621
-0.328639 131.021 -3.61323
-15.4562 117.825 7.55581
-24.9277 122.768 -4.02507
-11.9805 97.8278 -4.30548
-3.14815 134.452 4.86503
-13.9626 90.9554 1.91697
-9.77816 96.5303 4.6099
-26.5934 139.103 0.892314
-23.4855 126.711 -2.6147
-12.5124 85.1025 -9.16568
-6.54723 106.845 5.31691
-13.0275 93.59 -4.38423
-18.8042 92.7448 -12.3823
-1.33842 136.147 4.26268
-34.0081 92.0567 -6.83336
-18.4053 91.5697 2.35614
-14.1682 119.196 -7.26127
-12.8375 150.373 -2.89664
-26.0575 124.074 -0.868245
-27.2154 119.6 -3.03346
-17.9026 105.911 -12.4677
-24.9538 122.657 -2.96919
-14.1233 87.8647 -9.70962
-21.4261 119.873 7.46455
-11.2912 90.3975 8.17122
-28.5782 127.538 -2.43049
-9.50995 117.221 -7.46457
-9.02013 122.266 6.96917
-10.6893 129.286 6.70379
-0.69655 126.77 -4.80544
-33.7595 88.8433 -6.83971
-13.3459 133.006 -8.88926
-26.0253 123.75 -0.762163
-13.9637 98.3715 -11.8412
-2.54425 141.087 3.84082
-23.6285 109.523 5.62255
-1.72145 127.787 5.3576
-6.71861 97.8794 -11.4669
-18.0894 99.6146 -12.9957
-23.9282 108.541 -11.3384
-29.3428 98.6891 -0.666202
0.043572 133.987 -3.13698
-16.1021 133.342 5.95165
-16.9483 78.1267 -10.3345
-23.6106 137.226 -4.40269
-15.1286 109.495 6.20915
-6.17412 128.552 5.52908
-12.1023 114.763 6.61815
-5.56679 85.9381 -9.06226
-22.5432 126.828 -5.91388
-32.0694 83.8832 -3.27998
-21.9812 129.301 -2.71895
-15.0281 137.19 -5.10132
-9.16873 88.9843 -1.98205
-7.72041 144.27 5.67592
-27.7804 124.112 -1.01574
-14.2345 120.024 -7.08886
-30.2434 126.532 -1.21127
-11.6698 136.349 -8.26799
-24.6665 138.039 3.57591
-24.6078 122.654 -5.15423
-22.6571 89.8226 0.933419
-10.4314 147.535 -5.78073
-14.8662 130.427 -8.6904
-21.0524 97.0533 -12.3836
-13.7727 100.92 5.27329
-11.875 143.006 3.37261
-26.6929 123.144 0.417444
-17.5613 108.065 7.67268
-22.2226 95.7752 -12.7617
-22.5458 87.5387 -10.6503
-28.6266 123.571 0.484324
1.22165 134.209 -3.57832
-2.61041 134.453 -2.42999
-23.5877 134.475 -4.79648
-14.2132 96.2226 3.37015
-10.5972 108.749 -11.6665
-4.82986 108.016 -2.16111
-10.1626 86.782 -10.0509
-23.1091 125.544 -3.45807
-11.7126 119.76 8.04473
-27.5113 118.565 -6.45595
-30.0709 100.295 -10.1951
-9.70002 131.049 -4.83445
-7.5679 123.693 -4.96108
-14.3109 89.6624 -8.28738
-11.7347 86.4855 -0.496305
-15.2177 150.756 0.989772
-1.00752 131.477 -3.19618
-15.7829 91.9089 -10.9652
-17.1487 148.834 1.12041
-7.49721 103.309 11.0241
-7.9396 130.573 5.66257
-19.2344 130.317 -6.28696
-5.58024 90.5102 -11.2207
-14.334 92.3937 5.23866
-4.41829 105.996 -1.8579
-5.23944 143.791 5.18824
-11.3282 128.268 7.43673
-3.52614 121.155 5.21516
-14.3888 135.686 4.42205
-19.4999 138.109 -3.74602
-13.2694 91.9235 -4.8761
-31.2223 98.2069 -9.67002
-1.72973 136.54 -2.36889
-26.8425 125.817 1.03248
-5.14064 113.297 9.54666
-9.83343 85.6574 -6.51008
-26.2257 121.535 -4.14849
-21.7657 83.1819 0.625181
-23.8519 127.503 -1.99011
-20.1292 147.256 3.05616
-26.1562 95.8498 -0.168052
-17.3015 97.2808 6.4913
-16.6668 88.7336 -10.3782
-29.8235 84.6271 -9.54521
-27.0909 105.111 2.09157
-17.0766 85.9023 -5.69651
-6.27526 112.351 -10.112
-13.4559 150.425 2.37154
3.01111 149.768 -1.99316
-24.8627 124.957 -5.39578
-6.42603 105.713 -12.0445
-22.0475 110.481 -11.0519
-18.1534 137.966 6.36351
-15.3952 128.666 7.10076
-16.4169 100.097 5.88571
-7.46497 104.412 10.4762
-8.52826 103.801 -12.4299
-16.7121 88.8826 -10.4028
-17.6617 141.871 6.17176
-11.9713 98.6509 1.24449
-5.16118 151.582 -3.2082
-13.5846 93.4456 -10.7087
-24.0114 128.065 -3.61261
-12.877 82.4474 4.18988
-21.0556 146.068 3.67336
-28.5646 110.338 -5.78113
-23.4401 132.538 -5.3521
-13.6588 93.4344 -4.33858
-29.284 82.4344 -9.38809
-22.2052 123.695 6.42982
-29.7702 98.0438 -10.7167
-20.5924 121.47 8.10937
-29.0065 94.1518 -9.95148
-27.3546 126.047 4.16658
-20.2762 116.852 8.57663
-9.68158 93.3079 3.49023
-24.9726 124.555 -2.24595
-10.9505 140.807 3.04477
-11.3267 93.6145 -11.474
-8.21439 100.146 9.89499
-13.4059 96.8962 0.239234
-6.02301 106.821 0.661233
-20.0162 116.361 8.76639
-9.75361 96.9121 3.01386
-25.2043 141.255 1.07449
-20.0612 118.927 -9.44199
-30.619 84.8324 -7.77919
-20.5314 123.291 7.7937
-12.3154 92.3074 -2.45965
-17.3509 122.959 -7.92287
-21.1337 124.481 7.54218
-6.59067 140.496 2.54778
-11.5386 99.5084 4.33362
-16.9801 138.278 6.34188
-12.8885 84.0371 -8.80901
-32.1649 81.1789 -4.06034
-3.19385 136.542 -2.3565
3.74923 143.045 -3.26927
-10.9716 102.852 4.36891
-26.0707 127.71 3.72594
-28.0794 106.667 -9.37579
-17.9753 82.3989 -4.26043
-10.2901 102.604 4.65094
-19.1316 92.8435 1.67475
-18.6745 83.9131 -6.30327
-26.7929 105.61 -10.5505
-22.4424 79.0154 -11.1633
-10.312 89.8714 -11.0928
-21.8075 127.922 4.71327
-9.0882 151.332 -3.31318
-17.4482 83.1336 -0.333862
-15.7303 118.673 -8.08338
-30.4081 99.5543 -2.38037
-10.187 99.4064 7.41218
-26.3694 125.093 3.89207
-19.7673 131.362 -3.3233
-29.9443 88.3208 -1.49363
-9.69753 104.732 5.40298
-16.4769 107.802 -11.7782
-26.1396 84.4809 0.59128
-31.7331 84.4912 -9.6454
-1.8041 145.532 -2.2338
-7.42069 112.265 -10.1582
-18.2909 149.273 2.38766
-18.0358 133.552 -4.29384
-21.0782 116.021 8.23593
-29.6463 101.101 -1.06433
-17.1577 118.062 7.7498
-12.961 88.866 -8.05125
-13.1459 85.7306 -9.62471
-5.42963 121.502 -7.19559
-1.37602 120.009 -6.94204
-13.2742 97.0783 -2.36398
-27.0335 110.335 -0.325348
-25.4195 129.805 -3.82959
-15.0713 96.1634 5.94863
-19.0264 101.848 -13.2481
-10.7499 83.2987 8.14976
-9.96893 138.548 2.18394
-29.2407 102.009 -0.338212
-12.8014 97.2212 -2.70347
-8.59267 88.1539 -2.96934
-16.4432 122.157 8.7059
-9.78962 90.6917 -11.1981
-4.09491 104.156 -0.525963
-19.4665 92.9304 -12.5408
-26.8681 125.723 0.916416
-20.1009 125.898 -8.1777
-20.6172 122.183 7.84455
-27.3348 94.7737 -11.4518
-27.5234 99.1584 0.794178
-29.976 105.857 -9.00224
-12.4501 119.474 -6.1885
-7.97609 107.284 -11.5105
-10.3552 147.902 2.92965
-21.8308 81.7161 -9.4751
-12.9068 83.9541 2.06124
-24.5703 120.312 -9.22603
-20.5051 82.3207 0.132576
-3.6149 118.851 4.02473
-13.7295 89.0824 2.25664
-10.2634 88.9964 -4.69726
-20.4608 120.03 8.70094
-25.4383 125.568 -0.829763
-12.4751 93.7008 -1.65756
-8.31978 117.533 -8.06037
-25.7328 131.015 4.58757
-16.8801 106.367 6.40086
-29.0297 107.87 -5.04097
0.293826 130.764 -3.70931
-12.0634 98.2661 1.39234
-19.6908 81.3776 -9.87269
-13.0854 89.0751 -2.05917
-5.62322 105.577 3.8934
-24.54 128.399 4.26983
-13.6737 93.4789 3.33099
-17.1852 86.9153 -9.87378
-19.8158 147.835 2.37445
-16.6177 123.675 -7.03728
-7.05963 87.7651 -10.3289
-11.829 87.5712 0.947463
-18.2659 82.5563 -2.74013
0.0798318 131.986 4.09062
-8.39628 101.731 10.6067
-3.65253 130.466 6.07383
-27.2075 107.665 -9.68745
-9.38619 81.3701 -8.88415
-14.8987 146.252 5.18516
-9.95649 127.562 -4.37878
-10.3028 135.175 3.50717
-15.642 92.2399 3.73564
-18.8238 80.7425 -9.7994
-5.44603 115.483 5.71225
-2.04583 131.165 5.81634
-30.1779 128.333 3.2425
-16.9263 140.468 -2.40469
0.852381 137.97 3.7449
-21.8172 135.033 -5.53334
-16.0703 78.6194 -10.0437
-24.5801 124.755 -1.03412
-18.1001 135.829 -2.75315
-20.5033 121.758 8.05014
-9.69595 77.7133 -9.51329
-11.6968 110.099 6.28178
-15.3656 140.231 -5.67595
-15.7018 84.5651 -8.96466
-21.9831 81.4976 -9.45711
-4.81328 113.253 -0.377381
-10.3365 100.728 -3.15126
-26.8558 137.18 0.0172091
-5.86578 107.61 -11.3141
-23.1118 127.143 -5.85367
-9.09526 93.2117 10.9373
-17.8944 139.165 6.26784
-25.5245 126.317 2.69044
-14.2854 92.0308 4.36267
-18.7921 146.337 -0.717572
-15.608 87.0467 -2.98154
-7.88028 140.169 -6.44914
-27.6196 96.9689 -0.645777
-5.61372 130.592 5.99613
-11.5373 116.187 7.18122
-14.9331 105.088 -12.8281
-25.7271 125.899 -3.27527
-15.2604 92.467 4.35887
-4.80419 131.894 -3.05918
-2.96155 150.222 -2.89073
-16.4717 145.414 -1.48616
-13.0875 89.2207 -8.45462
-23.6998 128.648 6.61653
-13.4014 90.6423 -0.370484
-9.13937 94.8016 -11.5592
-12.6209 95.4414 0.881388
-18.4803 116.268 -9.90528
-15.1858 86.0633 0.236445
-13.6338 123.597 -5.57059
-13.161 135.87 3.40884
-26.1729 84.2845 0.0334485
-32.4712 87.4546 -8.86922
-9.31773 94.9897 3.01194
-12.189 87.2932 3.2177
-11.8704 79.1562 -9.25746
-27.1436 113.007 -2.61185
-21.55 121.761 -8.60079
-29.7947 123.935 5.06918
-10.2399 119.612 7.34166
-15.1237 141.15 4.56744
-8.10935 141.524 4.51134
-28.9408 131.016 -0.888509
-6.39536 144.89 -5.35154
-23.8929 127.795 -5.02233
-0.945195 127.924 -4.6557
-29.471 89.7424 -1.48489
-17.2369 106.194 6.88645
-21.1533 83.017 -8.9648
-10.6218 98.5735 3.69028
-32.0901 84.7268 -3.21492
-8.66507 79.1754 -9.35776
-13.4644 117.524 -7.14647
-2.30325 112.805 -8.36925
-3.33117 150.461 -2.97007
-21.4521 108.021 7.33493
-28.4555 98.9496 -11.023
-2.0012 120.847 -0.437693
-17.7914 115.001 -9.41663
-15.9729 133.478 -5.25301
-0.578533 144.945 4.53931
-24.9951 124.427 0.947582
-21.3623 81.8074 -9.52585
-30.2807 102.072 -3.45404
-8.44594 88.6799 -2.71516
-13.5075 92.8838 1.68338
-13.9935 106.084 4.97224
-7.5094 138.558 -5.42796
-14.1498 134.515 -6.51963
-30.274 81.0144 -3.7616
-21.0104 129.946 -2.58098
-16.272 101.199 -13.1961
-8.21782 98.4323 11.345
-22.6842 104.177 5.91053
-1.58858 113.418 -7.92225
-5.0255 140.713 3.19527
-24.0173 126.307 -3.56134
-26.3249 87.8541 -11.7407
-7.00168 154.088 -0.485369
-4.97236 112.633 -0.149722
-20.7546 117.674 8.25039
-23.1045 127.588 -3.43905
-11.3711 94.6616 -4.72149
-30.1717 94.7663 -9.85596
-13.6969 138.222 -6.46413
-20.7657 100.702 5.91188
-11.5507 92.3813 -11.5261
-11.1583 89.5223 -11.0229
-9.69846 102.135 7.89876
-21.7702 96.0197 2.1485
-8.55851 106.297 -11.8857
-17.0567 134.187 -4.23137
-15.955 85.5757 1.46622
-16.1266 106.109 -12.3928
-28.0615 115.218 -7.13654
-7.77648 115.354 -9.5524
-2.78258 136.123 -2.36556
-23.3042 143.647 2.61055
-29.4832 102.709 -10.2585
-17.9227 87.5718 2.97459
-10.0783 108.778 5.50949
-19.041 103.91 7.5021
-29.2898 102.039 -10.448
-3.56294 90.724 -10.6274
-1.13706 118.412 -7.0238
-6.9041 141.774 3.50605
-25.3533 87.275 -10.3426
-14.1514 150.393 2.28227
-2.17572 122.983 3.00869
-16.1224 116.693 -8.60232
-25.39 127.98 4.09183
-9.78821 126.282 -4.25522
-29.6658 82.2446 -1.59442
-25.618 133.543 -3.44796
-32.3008 87.2769 -10.226
-13.604 104.618 -12.9558
-6.08684 108.442 7.02218
-12.1075 95.8018 -11.2713
-7.21617 120.495 -6.91589
-1.62383 118.224 -1.41228
-26.947 124.413 4.08695
-29.3583 128.184 -3.33989
-4.86492 149.475 -3.73418
-27.3871 90.4826 -11.6371
-26.6321 82.821 -10.739
-20.3204 126.724 -8.25175
-21.1575 90.3988 1.03579
-24.5435 88.2534 1.03755
-24.2497 135.842 3.26799
-10.531 96.7636 8.09946
-1.8193 130.298 5.59265
-28.29 125.81 3.41224
-15.865 135.812 5.12359
-26.5498 95.2625 -0.714526
-20.2849 146.895 1.06214
-15.3398 105.923 -12.291
-22.3464 84.4597 0.699737
-25.0811 125.102 1.72585
-29.988 86.751 -1.51639
-17.913 124.669 9.21481
-26.7332 91.7267 -2.07397
-10.0979 97.5761 -3.74184
-29.4383 124.571 5.16228
-17.6284 145.431 6.03173
-26.5111 95.4054 -0.647485
-5.57524 102.784 -0.874399
-2.06306 112.574 -8.30314
-23.8813 137.965 -3.11622
-28.9755 107.69 -2.95647
-25.9775 106.256 3.28923
-0.315334 142.454 -2.01917
-26.466 136.287 -1.24913
-13.603 121.689 7.82112
-26.9278 86.1406 -10.3674
1.90109 152.668 -1.57064
-21.0932 128.989 4.33124
-3.2135 145.112 -2.84219
-23.411 129.608 -5.75387
-13.4915 148.34 -3.74218
-22.7293 113.249 6.63717
-25.9454 125.627 -0.192165
-26.0826 124.109 -2.25319
-12.7846 127.405 7.66784
-3.61832 118.22 3.70029
-5.30697 125.275 6.21465
-10.1174 90.7856 -11.2054
-8.57759 90.6764 -2.52856
-27.1916 106.585 1.52854
0.552694 137.034 -2.94725
-23.1445 96.908 -12.8317
-26.04 107.795 -11.1998
-26.9597 110.713 -0.971017
-19.4124 82.8406 -1.13833
-30.109 105.534 -5.07921
-2.81001 135.682 4.77243
-12.6955 93.9045 -3.45229
-2.93232 119.993 0.817744
-10.433 119.278 -6.20778
-13.8099 92.8704 -10.5074
-7.07437 77.8713 -9.39755
-18.4622 83.1988 -9.25027
-8.71868 92.7804 -11.5075
-7.68241 141.997 -5.93173
-25.2725 86.6605 -9.80949
-8.05279 102.447 1.59299
-21.6714 132.534 -6.6914
-12.3936 99.7749 1.30277
-12.6816 134.745 -8.35665
-8.9366 100.045 7.95173
-3.31486 119.392 3.85076
-15.7521 90.5206 -4.84804
-2.49537 138.842 -2.22565
-25.1552 127.602 4.92514
-4.5615 130.707 -3.44674
-12.025 152.145 -0.785106
-10.4122 93.2626 -0.232957
-4.73942 140.61 -3.55313
-3.54471 132.878 5.25964
-7.47042 111.943 5.85567
-29.7278 82.3228 -6.24413
-25.6238 132.414 -3.18203
-20.3164 144.589 5.4768
-23.3384 80.5038 -10.0756
-13.2972 96.9266 -2.82641
-31.7022 81.2171 -2.23282
-11.6593 88.1695 2.68881
-22.2691 127.997 -5.66967
-22.0086 117.051 5.24385
-34.3062 90.5075 -7.84715
-21.7021 117.956 6.80488
-11.1812 115.666 -7.73975
-25.0483 108.212 3.8174
-16.2795 138.836 -3.01861
-32.8324 81.4408 -4.55841
-28.1077 87.5618 -10.9473
-5.12265 113.148 3.8738
-3.18265 134.599 4.8111
-11.5542 100.074 1.30344
-11.0096 133.27 4.16938
-9.87607 141.123 4.04987
2.52412 146.158 3.8147
-33.8292 88.5813 -6.45161
-26.8177 123.947 1.89765
-6.0702 110.856 8.26495
-7.88226 121.066 -6.17554
-12.1933 98.1228 0.196395
-16.7005 78.4157 -10.0671
-33.8178 89.213 -5.67348
-26.1161 139.757 1.34788
-15.9731 137.684 5.13719
-23.816 117.368 2.04523
-9.29108 90.6002 0.693325
-22.1512 87.6612 1.71395
-28.8064 109.322 -6.24552
-13.8455 106.563 5.14092
-23.8463 97.4833 -12.7705
-15.5983 142.192 -3.6353
-2.78083 141.777 -2.22324
-28.7491 104.178 -10.3615
-17.8734 110.056 8.09489
-11.1329 101.123 4.50402
-11.9199 98.8576 -12.0891
-15.1287 112.091 -9.62598
-27.7413 83.3724 -11.7925
-18.8702 104.903 7.52244
-14.3364 81.604 -9.81568
-17.2278 130.171 -7.27614
-10.4756 87.3655 -1.07209
-21.0496 112.399 -11.3358
-18.8605 146.853 -0.233005
-1.28709 126.256 3.2765
-28.1904 133.777 1.70043
-28.9373 105.908 -9.40328
-9.15404 90.8859 -3.24154
-19.6966 144.865 5.71424
-18.2381 124.389 -8.21805
-12.0962 87.5474 5.74441
-13.4456 101.788 -13.1633
-4.35752 145.652 -3.69625
-33.0847 93.8318 -8.76165
-26.7175 89.169 -11.818
-15.5746 90.839 -8.10515
-4.35798 107.132 -11.5303
-26.1232 126.327 -3.71923
-4.96001 125.958 6.38116
-16.1354 85.2405 -5.09746
-27.1918 120.092 0.218561
-25.0028 130.03 -5.33996
-6.35754 128.228 5.46685
-10.5413 117.853 7.69096
-20.3454 116.936 8.52679
-5.7432 107.286 -2.32925
-30.5249 85.1889 -10.7167
-19.3947 121.041 8.91739
-27.1586 125.656 3.36494
-11.9454 97.3106 -3.2145
2.53694 139.896 -3.35433
-6.06335 149.598 -4.49199
-25.354 122.158 -6.86871
-30.276 96.1283 -10.3793
-25.7723 136.625 -1.59975
2.68179 151.175 -1.60301
-30.2435 81.7914 -3.31672
-21.8729 129.162 -4.47404
-19.6052 130.345 5.22034
-26.593 130.357 -4.67764
-12.0415 152.014 -1.0539
-29.7384 131.337 1.77122
-22.4182 99.9553 4.24172
-26.3368 128.333 6.38743
-8.99223 140.428 3.81042
-13.1159 130.435 -6.83293
-17.7307 134.991 -2.66263
-25.8203 109.944 3.30812
-18.2527 135.873 -2.8515
-18.3234 140.442 -3.30608
-30.7762 89.5893 -2.27655
-18.0428 87.7721 3.0027
-34.2661 90.6396 -7.7101
-30.0379 89.2621 -1.63719
-9.01564 86.0329 -3.95494
-21.7882 85.8728 -9.73291
-23.4966 118.823 4.04033
-5.20058 111.463 1.26646
-10.153 96.0656 -11.5644
-30.0244 87.5739 -10.8318
-0.738423 123.496 -0.103199
-19.0132 145.239 5.926
-5.04475 110.791 -10.4103
-11.365 84.6876 7.98061
-13.6229 111.402 6.39327
-11.5459 90.1779 7.02723
-15.8875 144.665 -3.14681
-14.3324 141.965 -4.77004
-24.0995 116.803 -10.1895
-27.3828 99.7257 -11.2271
-14.7337 94.1852 -0.858609
-1.61595 118.91 -6.96397
-27.6792 109.398 -0.662575
-26.899 129.83 4.59854
-4.03894 124.984 6.07421
-32.7327 95.6006 -4.98249
-10.7488 101.328 4.10006
-24.8303 122.774 -4.08705
-13.7122 90.2156 -8.07911
-12.1488 135.978 -8.18723
-22.7865 126.003 -2.63536
-2.5823 143.788 5.02728
-9.13588 142.435 -5.64479
-12.981 131.308 -7.37891
1.82722 142.434 3.42878
-9.62356 144.94 -5.8268
-24.8293 109.513 4.28556
-29.6429 81.157 -5.46531
-12.5304 110.664 6.35892
-19.8654 128.817 -6.703
-23.5553 119.533 -9.65125
-10.5121 96.084 8.40502
-9.6743 93.1664 3.22152
-7.02156 78.3832 -10.6517
-23.8627 132.006 -4.57529
-25.2257 123.487 -2.94144
-18.2432 130.099 -7.47181
-5.1929 110.801 2.53408
-20.4249 144.045 5.69593
-25.7766 83.4758 -1.29629
-15.1292 92.6361 -5.76542
-25.9366 101.911 3.09982
-15.8692 126.829 -7.09843
-23.5303 114.641 3.24398
-27.3367 89.3205 -0.456482
0.840216 138.951 3.66009
-21.8971 120.33 7.01703
-30.3254 128.944 2.30013
-17.1664 129.316 5.90498
-10.9017 94.4596 0.739414
-14.4888 118.239 7.70806
-14.2379 104.798 4.78076
-9.52225 93.0188 2.15868
-17.7857 143.916 -1.81104
-0.0858775 133.236 -3.24295
-11.915 93.6889 -2.89554
-12.2232 141.526 2.6012
-11.1683 117.234 7.52897
-11.3064 102.214 -12.899
-4.68853 150.478 -3.46443
-10.9925 103.155 3.28851
-9.02352 112.359 6.21792
-9.82716 98.5779 -3.41966
-26.0488 111.296 0.759585
-11.8882 89.6875 -5.00563
-31.0802 98.0322 -9.79078
-12.6063 126.734 -6.13781
-10.8379 79.6517 -8.84212
-15.5817 86.6384 -5.33795
-20.4086 96.7529 2.95691
-19.6534 107.895 7.92396
-22.8824 126.097 -3.5903
-32.0486 89.9835 -3.33013
-15.9471 90.713 -4.9868
-28.4103 115.339 -3.76882
-20.421 124.61 8.131
-21.5182 111.445 7.72844
-22.1202 82.1952 -3.8616
-25.5017 94.8188 -12.2831
-9.97544 149.834 3.23158
-26.4575 124.949 1.67313
-13.9657 88.1029 -9.8179
-23.896 83.1109 -0.275486
-11.3957 99.5781 4.25082
-12.6358 88.3976 -7.08192
-25.5782 92.6741 -11.6814
-12.7107 96.8116 -3.7453
-20.7584 142.764 -2.01689
-0.26063 134.644 -2.78476
-17.7637 78.7243 -9.59599
-16.1128 127.79 7.71575
-12.3106 78.6627 -9.1602
-1.29244 140.241 3.72622
-13.8778 105.139 4.69455
-30.3788 100.449 -3.5937
-12.8338 93.1779 -3.68771
-12.1832 86.9813 1.22501
-12.9452 88.8678 -0.443407
-28.2451 94.5149 -10.6713
-13.2307 148.303 3.87615
-22.3427 119.715 -9.59016
0.26372 131.362 -3.69166
-27.0896 112.443 -8.95457
-22.5771 121.881 -8.76173
-12.5703 107.536 -11.7512
-15.1986 92.9662 5.02024
-10.9291 151.161 -3.44499
-30.4692 124.411 1.98905
-24.0656 132.646 5.89504
-13.9211 112.017 6.55262
-25.6051 127.924 4.04269
-6.78588 78.0272 -9.33928
-27.328 102.104 1.85162
-21.7992 131.388 -4.70193
-23.9171 84.1302 0.522808
-7.33642 108.102 8.18762
-8.71188 104.007 2.114
-4.64593 121.383 -7.36139
-12.0261 113.181 6.37898
0.830557 122.927 -5.12973
-24.4435 139.341 -1.42063
0.102602 127.355 -4.28134
-18.2121 99.2771 7.17993
-12.1916 107.483 -11.9428
-2.42936 114.257 -1.79435
-23.3217 82.2644 -1.47406
4.98043 149.575 -2.74135
-32.7938 96.4416 -6.89437
-4.93478 113.86 4.00246
-14.935 87.4861 -4.45825
-6.41362 130.585 -3.10598
-19.9985 133.249 5.48819
-23.5151 125.594 -3.23224
-28.3626 108.535 -1.58168
-14.5909 112.445 -9.28527
-21.4592 128.482 4.2565
-25.3943 127.94 5.14708
-3.68285 119.831 -8.06774
-10.0907 89.2288 1.0195
-16.879 138.668 6.21892
-29.9789 89.9059 -10.1173
-1.34726 126.836 3.90304
-16.3351 85.6447 -1.23014
-23.2976 124.961 -6.23122
-13.1094 93.7979 -0.495301
-7.75184 130.241 5.60786
-22.444 105.915 -12.2314
-14.9585 134.39 -5.50327
-4.32704 147.577 -3.62845
-6.66626 99.005 -11.2668
-22.0443 144.909 3.66596
-4.90105 134.997 4.10016
-21.4507 82.058 -9.38842
-30.8276 87.4596 -2.22186
-19.0399 137.666 -2.99907
-8.92397 103.509 3.89634
-7.14037 98.3517 -11.2968
-0.974565 123.192 0.00655424
-11.2552 99.1819 4.97568
-19.5932 131.509 -2.90683
-5.79652 135.871 3.41509
-19.9181 113.515 8.18334
-27.3421 137.458 1.71396
-27.9286 123.235 2.41593
-22.7241 130.431 6.58978
-18.5506 100.284 -13.1361
-21.006 132.478 -1.87759
-17.5635 83.5995 0.92983
-16.1373 98.4558 5.77518
-22.5145 142.748 -0.663082
-12.5498 128.858 -6.08469
-9.96951 97.0524 8.51821
-19.8652 113.596 8.15812
-9.94746 88.706 9.39041
-30.5 104.114 -4.83375
-13.3514 96.3973 -11.1908
-23.0925 124.263 -7.7357
-18.7512 86.1777 -9.49113
-29.1553 81.6287 -2.12481
-13.2271 97.1863 -2.69096
-23.5494 113.441 4.71333
-29.2798 81.9292 -7.71551
-13.1131 127.749 -6.49689
-9.58426 103.412 -0.534656
-6.43157 122.876 5.77886
-32.5773 85.449 -6.36055
-6.16663 144.319 -5.37973
-23.2507 125.725 -3.57658
-17.766 145.999 6.00255
-21.035 130.248 -3.24154
-23.5888 102.826 4.97216
-12.9803 84.0015 -0.846339
-3.58018 104.617 -0.798895
-18.9879 135.279 -3.76326
-26.5154 125.622 4.83003
-23.5626 139.141 5.17152
-18.087 82.4789 0.407547
-25.2797 125.209 -2.67062
-22.6208 93.9824 -12.9173
-26.4428 107.049 2.71035
-30.0425 123.576 4.6062
-25.5298 140.359 2.51822
-6.3153 105.84 -2.16534
-4.87086 129.438 -3.63322
-9.16871 137.762 -7.00627
-28.805 111.678 -5.45628
-4.56893 115.951 4.04975
-1.81083 131.728 -3.16127
-10.5172 95.5471 8.1379
-24.033 117.339 -10.0632
-11.1893 120.071 -5.64502
-23.5199 110.609 5.98782
-29.5561 98.9585 -10.7032
-31.9512 83.7134 -3.18153
-5.81836 109.26 -10.7678
-18.8101 97.2894 4.71055
-17.3008 93.648 -12.1478
-13.0152 93.3025 -0.37167
-23.5207 113.912 4.11062
-33.2052 91.5504 -5.30752
-4.29919 114.666 -9.65909
0.080627 140.113 3.52786
-25.017 126.437 3.77994
-24.0296 123.785 -4.48371
-9.48585 140.99 -6.34387
-10.2842 97.9918 3.78453
0.0114601 133.767 4.90436
1.06972 142.401 3.43969
-27.6301 130.593 -3.73813
-17.2493 98.2863 -12.7218
-20.1386 121.84 8.19966
-12.1569 131.581 6.17926
-14.6576 131.932 -8.60878
-6.4549 141.787 -5.6458
-7.17068 87.4577 -10.2174
-19.2568 122.31 8.71471
-34.0404 86.9254 -5.89487
-8.96306 99.5637 -11.7792
-17.7923 131.998 -6.06214
-16.8194 131.193 -8.90826
-11.5025 99.533 -12.3079
-15.4482 149.72 -0.926601
0.792791 151.565 -1.65811
-10.4247 91.655 9.02076
-10.7143 109.176 -11.3994
-25.8732 107.012 -11.208
-23.3208 114.186 4.78105
0.119095 139.591 -2.56133
-5.09219 105.004 3.05491
-23.9961 128.644 6.0363
-12.6918 123.892 -5.38429
-27.3113 124.823 -0.668697
-6.71781 85.7219 -9.12244
-30.1412 81.2301 -3.76103
-27.5111 125.762 2.88125
-16.6999 136.535 5.58998
-12.3245 90.3879 -2.40821
-19.6481 126.236 6.76061
-12.2805 85.6708 3.5381
-22.0211 115.473 6.21902
-11.7559 96.0141 -11.3135
-29.6734 123.873 4.31123
-24.1831 132.317 -4.26011
-30.3764 104.025 -7.17068
-9.03063 102.986 8.13887
-15.2924 144.129 -4.29683
-9.51356 88.3697 9.54946
-9.90258 99.7224 7.24842
-18.2759 144.738 5.96695
-12.1415 86.7789 1.68996
-14.6184 144.094 4.65055
-16.8641 95.5592 6.11877
-15.656 89.9782 -5.03127
-5.45255 122.255 6.23828
-9.02834 88.0709 -4.29509
-24.9019 128.651 -4.0726
-16.9983 140.788 5.4661
-13.7698 150.899 1.63422
-5.05428 126.197 6.30602
-30.1817 127.893 -1.74653
-12.8936 118.592 7.84855
-33.7822 84.6517 -6.14911
-18.7189 112.88 -10.3419
-23.4969 109.144 -11.163
-18.83 89.4342 2.27259
-5.26688 151.841 -3.1553
-29.7226 87.2785 -10.156
-0.688917 138.545 -2.37502
-27.9396 81.83 -7.76197
-25.4339 86.6369 -9.77223
-27.0238 123.075 -0.833337
-24.5069 83.5327 -1.07331
-6.42951 109.133 3.99673
-4.91459 104.769 2.74091
-33.3442 83.7931 -4.77127
-5.67754 107.609 5.57518
-14.4939 121.05 -6.54734
-18.4063 87.2179 -7.28778
-7.10111 108.017 6.55317
-32.8822 85.4167 -3.7206
-15.5221 133.469 -6.67157
-10.5215 101.009 -12.5895
-11.687 99.6573 -12.3767
-16.7754 115.179 -9.14774
-15.6787 139.73 4.38767
-12.3118 91.6321 -3.18235
-6.71669 105.206 4.09998
0.76863 138.818 3.67155
-4.44002 119.263 -8.40099
-15.2515 145.659 -1.40952
-18.3417 138.256 6.22463
-4.84478 119.626 -8.19696
-14.6093 146.697 -3.57252
-21.1141 130.282 -4.08288
-11.7641 134.798 3.41186
-26.1965 125.828 -2.99508
-31.6784 95.2579 -9.52545
-3.9016 128.447 6.44146
0.760216 126.417 -4.38715
-29.0725 123.646 4.01455
-10.948 107.3 4.92724
-9.15203 87.7828 -4.41531
-6.82519 110.279 9.54356
-7.86269 106.814 8.12988
-22.9007 89.2674 -11.3686
-27.0418 118.763 -5.44272
-13.4998 149.058 -3.27405
-3.74946 141.849 3.11518
-28.9727 104.744 -0.631526
-7.16761 103.88 -12.1147
-24.5819 98.2107 1.80276
-5.47662 118.084 6.54784
-10.545 87.6597 8.65535
-28.42 115.509 -4.66997
-31.5467 97.2376 -9.48868
-27.4573 117.221 -7.27458
-10.3015 113.471 -9.31562
-26.6328 130.852 -3.88496
-17.3301 129.101 5.73381
-11.5425 132.149 5.51317
-28.429 109.727 -5.94895
-22.2766 129.969 6.50984
-21.5181 117.312 -10.4243
-5.49462 114.069 5.15103
-28.5369 135.253 0.986008
-3.11576 140.637 3.80129
-29.375 81.1097 -5.54236
-1.96823 153.659 -2.19004
-14.9167 92.4375 -5.28346
-24.6539 93.0902 -0.622183
-12.1948 84.2938 -8.8692
-30.469 102.745 -3.74015
-18.8849 101.152 -13.3685
-12.6998 107.282 -11.9226
-13.1745 104.431 -12.8975
-11.3546 90.7428 -4.67129
-0.430421 144.45 -2.04918
-28.2168 98.5487 -11.0725
-13.096 95.5816 0.03721
-7.32803 79.4753 -9.59404
-20.8793 129.617 -5.21627
-7.71005 100.862 -0.0510585
-16.3075 138.688 4.75589
-14.6039 87.0334 0.0644038
-23.3921 96.2697 -12.8066
-9.39448 101.778 1.29179
-6.85603 80.581 -9.58047
-19.5914 94.9611 2.09129
-22.1548 131.214 -2.32565
-15.3181 138.149 3.99851
-17.6668 132.273 -5.94395
-6.43096 103.079 -0.919522
-18.6301 145.463 -1.37671
-26.1712 97.284 -11.8242
-13.9466 90.2229 1.42907
-25.358 106.209 -11.4182
-9.9079 104.128 5.46524
-25.1225 98.0906 -12.2926
-14.516 93.2075 5.16801
-23.58 107.157 5.47095
-3.20311 135.003 -2.40538
-8.01325 107.043 5.86801
-12.2791 105.609 4.68657
-24.6876 112.242 1.93382
-25.6173 138.768 -0.989024
-9.67157 116.916 -7.58331
-26.4046 135.624 2.17284
-3.32542 126.113 -5.04346
-25.1519 124.556 -1.76274
-24.1048 128.305 5.82645
-15.4395 128.801 -7.9614
-16.6732 87.187 -6.08394
-30.3247 124.039 3.77335
-26.0555 139.21 -0.0766731
-16.0622 111.752 7.18343
-28.7759 128.529 4.5942
-5.96474 108.587 -0.0751765
-26.1239 122.858 1.90214
0.107116 128.672 -3.89842
-14.5926 89.8472 -10.3213
-26.7713 132.085 2.77776
-4.69705 133.102 -2.68902
-23.3714 101.141 4.49698
-13.5294 126.563 -6.20319
-18.0219 104.591 7.58386
-10.0928 102.997 6.34768
-26.797 127.102 -3.50712
-10.6565 133.216 -6.15602
-30.2517 87.5806 -10.9369
-28.4129 108.694 -4.72699
-33.1008 95.4773 -5.48976
-18.691 130.913 5.54474
-25.7618 127.534 4.49686
-14.7371 136.126 4.70032
-3.30782 117.415 -0.44289
-24.7896 110.178 4.48114
-25.1029 130.977 6.87339
-0.850243 131.292 -3.31029
-16.5779 121.881 8.63214
-25.7136 91.8797 -11.4215
-26.7558 125.497 5.01634
-19.3852 130.368 -5.89776
-18.8492 98.4968 5.45804
-25.6311 140.62 0.759756
-3.53783 140.997 3.53207
-27.1293 87.1608 -11.1359
-8.9184 119.789 -6.45417
-23.8319 131.828 6.69014
-14.717 88.7191 2.11745
-13.2443 149.985 -2.83644
-17.7417 86.4368 -6.03086
-21.6022 86.1212 -9.9148
-9.36683 94.9358 5.03833
-8.53891 104.095 7.52005
-9.92913 93.323 7.29677
-10.9576 135.291 -7.39718
-20.8136 81.3845 -1.03393
-9.20257 106.805 3.71018
-6.35799 96.3383 -11.8478
-9.17585 79.5852 -9.17179
-9.35928 87.9561 -10.5742
-12.7064 147.915 3.54633
-11.769 98.4959 2.66437
-31.1954 87.0853 -10.4912
-3.45127 118.928 3.75303
-24.3027 123.397 -4.11554
-29.5171 84.7485 -9.43173
-12.324 86.4645 0.683677
-32.7721 96.2669 -8.09667
-31.1771 84.0665 -6.99799
-19.5593 112.384 -10.8785
-25.8161 82.6364 -10.9788
-25.6165 123.987 0.98069
-25.6121 92.2492 -11.5093
-20.3333 95.1736 1.9517
-22.1106 129.897 -3.82922
-23.7477 130.721 -5.0822
-7.87062 101.235 -11.9899
-22.6191 126.654 -5.86265
-16.8845 139.197 -4.21144
-10.9751 87.9253 8.43919
-19.6697 131.565 -3.85677
-29.2737 108.268 -5.8812
-12.239 82.7926 6.31744
-26.4518 100.023 1.90145
-18.2212 87.5767 -6.9222
-27.0176 84.74 -8.93146
-23.8949 133.651 -4.45079
-12.1347 85.3782 -1.02577
-14.7387 89.8801 3.93787
-20.8465 103.298 6.92395
-18.6729 103.547 7.52704
-24.1596 86.1758 -9.83613
-19.8752 118.567 8.95056
-9.78796 138.05 2.02236
-19.1708 130.003 -7.19537
-13.7563 93.3534 -4.32122
-31.2332 98.2215 -5.99461
-17.5274 111.25 -10.4694
-3.76226 151.307 -2.98319
4.01149 143.198 -3.36324
-11.9735 93.3668 -3.54325
-17.5228 82.6483 -5.06209
-3.82377 106.468 -11.4225
1.16053 146.128 3.8006
-32.5459 81.9326 -4.22527
-14.4687 87.5946 -9.52251
-27.4093 116.107 -7.76128
-4.03503 104.906 -11.2131
-10.4487 102.046 4.53016
-1.24119 127.738 4.91644
-23.463 139.935 -1.13131
-19.4365 93.6725 1.65167
-9.26549 123.685 -4.6631
-23.3259 126.641 -3.08742
-14.2978 126.888 8.52689
-29.4442 105.135 -1.70382
-20.4466 132.597 -4.4449
-33.183 90.2628 -8.90754
-9.07696 142.761 4.36671
-20.9036 99.8622 5.26416
-4.00309 122.847 -6.57284
-26.3114 82.7463 -10.8398
-16.3561 140.934 -3.86999
-1.40759 150.2 -2.395
-25.0041 128.93 -4.82416
-3.68679 110.404 -2.10439
-8.04333 87.8546 -10.4252
-26.6406 128.864 -4.00122
-6.54999 104.881 3.79008
-2.27127 115.19 -1.59015
-5.19279 111.649 0.666906
-13.9418 151.326 0.696558
-19.3832 84.5401 -8.8655
-28.726 98.4571 -0.522349
-11.8973 99.1945 0.304417
-23.5694 127.189 -2.81427
-12.7017 94.8341 -2.11237
-26.7345 104.905 2.54234
4.2305 146.213 -3.07148
-33.7452 85.4102 -5.83818
-11.0072 99.4201 -3.65136
-22.8828 79.0871 -11.7547
-11.0719 149.712 -4.46476
-13.8702 141.694 3.61245
-19.8787 83.0752 -1.36043
-27.7588 102.115 -11.0021
-28.6665 125.241 4.12364
-14.7912 88.6624 2.10301
-25.0554 117.755 -9.61935
-18.1821 148.977 2.02322
-9.06389 149.061 -5.23692
-8.60828 117.866 7.1092
-23.2023 103.659 -12.6473
-8.22899 98.5757 11.2204
-7.82619 106.309 8.90657
-7.6257 106.68 3.10395
-18.1015 140.229 -3.34117
-31.0292 89.0617 -10.4371
1.49768 151.078 -1.64423
-25.7311 121.465 -2.46847
-21.1822 94.313 1.14687
-23.0585 126.428 -3.32693
-18.4488 97.5513 5.357
-15.5111 145.111 -1.2751
-7.29363 130.269 -3.34521
-27.6053 86.187 0.442978
-27.2674 119.913 -0.000515346
1.37584 144.286 -2.24063
-4.68027 146.467 -3.9921
-16.8739 121.959 8.75744
-13.9788 93.9318 -5.64648
-12.0778 91.3509 -2.52078
-23.2965 101.739 4.8017
-4.92712 128.642 6.01645
-16.6261 135.317 5.47171
-21.0694 137.17 -5.6651
-10.4877 89.7545 4.0042
-24.2867 113.665 1.6566
-4.72702 139.652 -3.30928
-3.6792 142.174 2.99846
-19.8052 81.8203 -2.4379
-12.1269 90.1657 -10.8446
-11.5092 83.956 7.75834
-12.796 100.203 5.57815
-15.0554 125.642 8.86001
-3.49709 118.323 0.731803
-14.0633 93.6532 1.8407
-8.87251 143.934 4.03448
-29.8853 104.782 -9.51993
-18.6458 82.6289 -3.70098
-7.20403 108.699 -11.1129
-20.0812 132.473 5.71524
-7.96815 93.1684 -11.6446
-10.8262 100.95 1.04777
-29.4985 103.498 -1.18571
-4.61714 126.513 -4.53485
-31.278 96.804 -3.04032
-20.8534 124.618 7.80173
-25.978 82.125 -11.1642
-7.99838 94.9242 -11.7386
-8.47188 142.006 -5.84934
-30.3345 81.0046 -3.69046
-24.0735 113.748 -10.9028
-29.8491 86.6024 -9.80415
-9.14726 116.143 7.12881
-9.8839 86.0316 9.06921
-21.1361 91.9518 -12.7915
-11.5991 89.9994 -11.0929
-7.761 82.1461 -9.16735
-28.8799 93.0534 -2.76317
-29.1898 107.394 -2.5422
-14.5075 136.888 4.27434
-6.43943 115.112 6.28221
-25.8001 84.1522 0.237309
-9.76463 91.1934 -11.2589
-5.15253 100.278 -11.249
-30.1434 85.0712 -10.9017
-28.6747 109.096 -5.89742
-17.8881 127.007 7.56508
-8.90122 107.4 -11.6594
-8.51065 103.143 2.33492
-28.5426 127.502 -2.38737
2.23419 143.255 3.55177
-1.55984 129.176 5.34144
-14.9964 87.572 -4.61153
-14.3425 91.6126 4.50543
-9.29469 94.7979 3.43798
-0.816785 139.759 3.65605
-28.1851 98.5693 -11.0803
-20.3059 88.594 2.30483
-6.00357 106.743 -11.6749
-26.2961 123.624 -1.17895
-13.5059 93.3283 -3.96517
-12.8176 137.248 -7.15168
-26.1108 91.1415 -1.58565
-14.1587 142.656 4.54817
-1.5088 131.926 -3.05812
-27.7639 90.3006 -1.15374
-19.4309 104.623 7.47819
-21.141 91.3034 0.652716
-33.6635 90.5317 -6.53292
-13.7979 92.6508 -10.4963
-21.1394 83.1144 0.593968
-8.3358 103.697 2.70494
-16.5601 100.513 5.89186
-17.3507 100.997 -13.2734
-25.7507 127.424 4.13927
-15.8368 87.798 2.15871
-10.6962 91.7278 7.15196
-21.2942 139.962 -2.31443
-2.2975 136.876 -2.33709
-10.0289 113.715 -9.3244
-24.9777 127.979 5.27052
-29.7774 124.523 4.7131
-20.201 140.385 6.03118
-5.58526 126.155 6.05205
-19.3274 138.754 5.96184
-2.17285 120.232 -0.62951
-14.2774 98.6558 5.67147
-28.5914 124.27 0.895576
-11.5668 88.588 -5.44546
-32.2774 96.5766 -5.69793
-26.0798 125.912 -1.15556
-17.0049 109.56 -10.999
-17.7288 138.99 -2.24728
-12.9921 97.941 -11.5752
-3.60854 136.267 4.48031
-15.5009 131.753 5.63648
-26.4319 100.146 1.98871
-1.34272 150.583 -2.35563
-32.5596 89.6224 -9.90342
-10.4585 135.717 3.04367
-11.4641 86.7398 7.91962
-9.92308 92.5317 4.10767
-30.3381 106.014 -7.36581
-1.28728 119.527 -6.94084
-29.138 110.717 -7.53701
-24.5965 126.012 -0.55965
-16.1054 139.455 -2.80566
1.5829 152.103 -1.59717
-16.5082 124.172 -6.72261
-9.70226 150.662 3.1529
-10.8871 120.821 7.76065
-10.5175 90.0688 -4.45669
-30.2878 130.872 0.454127
-16.426 106.447 6.04519
-30.228 124.279 4.50813
-0.411005 126.509 1.35665
-28.4688 115.28 -6.27296
-17.5939 97.1019 6.68534
-3.31212 132.974 -2.74952
-16.1907 148.906 4.06675
-10.8339 88.5268 0.251244
-6.42072 146.445 -5.2594
-19.1742 139.342 -3.67792
-16.5944 85.5333 -1.3246
-30.7565 126.904 0.946216
-0.631036 130.787 4.37978
-7.44263 126.257 5.30175
-26.5501 119.923 1.41792
-33.7376 85.7782 -5.65237
-25.0939 122.114 -7.17359
-16.4072 119.218 -8.39377
-7.45617 137.661 2.34191
-28.3083 86.8512 -10.007
-18.1698 138.103 6.3167
-22.5154 127.642 -4.48576
-5.89381 130.512 -3.17816
-8.43425 105.046 -0.45121
-1.46429 128.617 -4.32749
-32.2437 83.5431 -6.6381
-14.004 89.3019 -3.98415
-11.3471 115.178 -7.87496
-30.2969 85.1102 -9.35436
-14.5984 129.973 -8.14401
-21.268 124.918 7.4334
-13.4076 90.0778 -7.53133
-9.75905 92.4547 5.77288
-9.21976 85.2443 -6.22247
-15.5627 86.2155 -0.94051
-22.5531 97.0743 2.33763
-23.301 93.8277 -12.8507
-8.19897 109.119 4.9822
-4.08635 116.347 -8.97283
-32.5488 82.6669 -3.79721
-32.9653 92.3863 -4.88594
-21.7153 138.149 -3.79534
-18.0849 119.49 8.63263
-1.5871 143.211 -2.15046
-8.99308 141.057 4.19736
-17.1271 85.1933 -1.33373
-22.5585 135.954 -5.67934
-23.8512 127.214 -2.15717
-10.8361 100.674 -2.86606
-22.3195 88.2939 1.73454
-27.2929 82.8706 -2.42504
-23.3517 84.3299 -9.02713
-4.13128 116.453 8.21423
-2.00593 110.231 -9.10308
-26.2876 124.482 2.35773
-18.9008 130.115 5.45096
-26.5894 99.7607 1.67948
-7.12399 99.7672 -1.27797
-0.483863 135.866 4.18049
-23.1707 127.785 -3.98026
-7.81356 124.478 6.21478
-22.2501 89.0424 -11.202
-22.8261 125.673 -5.55864
-29.0674 104.052 -0.555071
-9.08846 153.478 -0.458297
-24.8903 136.137 3.25209
-9.08664 134.588 -5.31465
-24.3788 127.861 -5.18474
-23.0181 127.515 -5.77632
-11.1574 87.4761 -0.439328
-26.8786 125.725 0.943263
-24.1017 93.5625 -12.6651
-8.6534 86.9788 -4.13478
-16.2448 141.538 4.64807
-25.0966 109.202 3.93984
-26.5936 127.829 -4.19379
-2.24349 131.01 -3.4687
-0.189936 121.431 -6.08146
-23.9492 127.651 -5.04441
-5.63228 114.513 5.64875
-1.90688 125.94 4.81336
-11.8399 95.1547 -11.4178
-28.9645 105.717 -0.961781
-3.22793 112.865 -1.82492
-24.6937 125.063 -1.88372
-22.8132 134.677 4.42531
-8.18921 120.608 6.43463
-0.16521 123.115 -5.50977
-10.1004 107.532 -11.9781
-25.0227 140.988 0.062216
-25.2307 123.47 -3.01057
-24.9287 126.273 4.20862
-26.236 102.729 2.78482
-6.93117 143.024 5.01845
-9.68688 127.193 -4.2051
-31.256 98.8177 -6.11023
-22.7209 138.426 5.2981
-27.3791 110.432 -2.39113
-14.8019 94.5467 4.36004
-23.5605 89.106 -11.5174
-14.35 89.4871 3.20911
-28.9938 123.412 1.6695
-24.0596 88.7569 -11.3637
-28.2983 109.541 -4.63592
-5.14834 116.778 5.81789
-23.9632 129.901 -4.49997
-24.6987 130.656 -6.29363
-15.4361 121.841 -6.6053
-7.22945 130.164 -3.30604
-23.6661 126.209 -1.49153
-10.7703 104.102 3.60528
-4.88576 112.745 2.6042
-9.91226 125.091 -4.33932
-4.60744 112.239 6.75981
-17.9608 135.439 -2.11865
-25.8863 125.462 0.226227
-27.5204 81.8969 -11.5974
-26.0027 134.309 -2.88143
-30.9658 98.7709 -3.0279
-21.2097 111.53 7.89602
-18.9801 134.887 -4.19132
-30.4158 86.3949 -9.67003
-5.19729 108.972 -1.83133
-33.4988 87.1828 -4.4681
-28.4846 90.3431 -11.0619
-17.2873 120.455 -8.59358
-31.6129 93.8096 -5.02794
-19.2756 129.708 -7.27889
-11.2908 85.8775 -1.31734
-24.6674 125.411 4.07948
-10.2528 101.193 5.46534
-12.8562 139.266 -6.43584
-4.56338 120.172 6.42094
-2.51159 128.183 -4.50608
-32.407 81.2279 -2.33285
-5.69511 112.447 8.96302
-32.106 97.8108 -8.16005
-12.2703 99.1673 0.102908
-29.7777 127.704 4.00518
-1.47733 142.648 -2.13795
-31.6144 99.8471 -6.86531
-5.59381 104.378 -11.6916
-20.3188 123.932 -8.07457
-15.4411 118.283 -7.9688
-26.3128 137.095 -0.745675
-27.611 84.8484 -9.09292
-14.0227 140.857 -5.4932
-6.70804 105.072 -1.16557
-19.6416 136.218 6.53573
-19.1592 122.125 -8.98659
-15.4502 103.146 5.19442
-25.0876 122.12 -7.16484
-7.35824 105.214 9.57806
-2.58006 126.554 -5.10832
-14.8737 127.411 7.92148
-32.5641 88.3613 -7.80035
-13.6321 90.869 0.968105
-16.6995 138.858 -2.80612
-25.1797 102.074 3.61152
-15.6847 101.621 5.34478
-25.8099 82.6242 -10.4529
-13.2439 87.4949 -9.57379
-31.7631 82.1615 -4.6579
-13.0486 138.707 2.66918
-19.3411 96.0945 3.37082
-5.67575 112.59 8.94252
-24.6531 120.059 -9.25581
-20.1945 131.438 -5.33622
-22.9143 126.6 -4.04519
1.3702 133.884 -3.65866
-11.6561 98.5085 3.34962
-14.5094 128.818 -7.32938
-5.09796 119.132 -8.48285
-5.66711 139.369 3.43352
-21.3434 127.271 -5.66219
-10.7609 141.515 3.75232
-28.8189 82.8316 -8.71024
-12.5333 121.587 7.77837
-19.6064 91.8622 1.30983
2.90882 147.682 -2.27194
-25.8114 97.175 0.832392
-28.356 130.81 -1.63289
-10.9326 84.3841 -8.93917
-9.42015 108.177 4.8237
-16.8438 93.1761 3.45084
-23.6861 88.1037 1.18377
-10.8387 94.4041 0.68777
-4.3941 122.402 -6.78056
-29.7702 88.1224 -1.32636
-10.03 80.8087 -8.76702
-17.5411 102.12 6.63477
-11.0284 115.533 -7.89371
-12.9357 151.018 -1.90785
-9.39704 84.4497 -8.55986
-28.6939 86.3225 -9.5798
-24.7585 128.304 4.38478
-3.11921 111.109 -9.74733
-8.61725 81.6886 -9.06589
-14.3919 95.6314 3.99089
-8.86332 108.899 5.17994
-28.1898 124.009 1.48128
-8.64117 152.763 -1.57828
-12.1163 98.2501 4.38017
-31.1488 82.339 -5.08104
-30.5989 100.023 -4.19909
-14.5372 138.298 3.60442
-25.7232 83.5727 -8.76095
-12.0285 87.1797 2.13657
-25.0532 125.161 -1.59265
-16.5657 84.8852 -3.75392
-33.212 84.3062 -4.62982
-20.3204 85.0083 -9.05531
-7.36882 139.486 -5.522
-22.7479 141.924 -0.749459
-10.3124 89.7195 2.7162
-11.2531 89.7849 5.487
-32.982 96.0867 -7.19007
-10.5704 88.8161 1.51026
-22.3012 126.264 -7.2038
-6.67074 129.067 5.54932
-14.3347 127.051 -6.82353
-7.99002 104.621 -1.41846
-14.9317 88.5263 -9.99257
-25.5531 126.827 4.2342
-13.9635 94.0011 -0.927709
-26.2682 85.9706 0.527587
-19.7376 103.313 7.28746
-4.30275 115.243 -9.47831
-21.825 84.8549 -9.01301
-16.5863 88.0286 -9.77591
-18.6636 134.216 -2.64339
-22.6296 126.99 -3.70457
-23.295 128.172 5.62944
-11.3418 112.669 6.29374
-20.6471 131.329 -2.60307
-20.9173 126.618 -8.09913
-21.6169 104.078 6.5958
-11.337 100.351 4.53903
-7.72737 146.404 -5.74507
-9.52816 103.204 6.95381
-23.9206 137.772 3.56564
-28.729 84.2302 -9.31116
1.57428 145.476 3.66167
-15.0036 92.8781 -5.18878
-23.869 125.764 -3.25868
-20.7555 132.123 5.44313
-25.6163 128.048 4.70207
2.26886 139.129 -3.38642
-7.32237 150.964 -4.26049
-11.3027 83.4702 7.8364
-21.0919 108.093 -12.1034
-16.0287 114.792 7.76586
-31.6042 91.158 -3.28206
-7.1683 142.126 -5.91051
-19.1584 88.851 -11.1157
-10.2883 117.33 7.52214
-13.4803 105.779 4.83204
-8.43227 129.43 -3.83742
-7.28717 108.441 8.99401
-1.60161 140.087 3.73
-6.39595 110.676 -10.3816
-6.38608 108.525 7.34446
-33.0972 88.7508 -7.50603
-13.9434 90.5887 -6.31326
-9.96296 145.663 -5.79754
-8.76574 88.3183 -2.35053
-23.3704 138.378 4.97125
-25.1221 96.2807 0.900488
-12.0018 132.597 5.87771
-0.433756 127.163 2.21263
-19.7514 132.097 -3.54088
-2.75878 122.384 4.71529
1.56855 133.446 -3.76642
-24.7048 87.885 -10.7649
-1.818 139.788 3.72914
-19.0426 86.2175 2.25545
-0.811452 122.75 -0.631502
-14.9324 146.565 -1.93221
0.245635 116.363 -8.00175
-10.1779 83.8672 -8.61043
-12.5334 89.8785 -2.15241
-21.1983 144.726 -0.666166
-1.87308 127.274 -4.95551
-2.91353 108.357 -10.7435
-23.4224 116.229 -10.5077
-25.5612 109.714 3.53802
