ply
format ascii 1.0
comment Created by Open3D
element vertex 1830
property double x
property double y
property double z
end_header
-16.7198 144.507 0.0170869
-12.7307 118.619 14.6193
-17.4886 135.758 8.76374
-12.671 118.288 14.8201
-9.89574 111.754 15.3362
13.8624 85.1456 -4.84157
-14.1602 142.908 -3.0798
9.74946 103.757 -12.9689
-6.72107 133.051 -7.97354
8.95633 105.698 -13.0228
4.7749 115.098 -13.4139
-2.57234 95.2193 16.4272
2.96244 84.3879 15.6108
-6.05732 102.732 16.3681
10.7742 101.477 -12.6759
-12.552 118.767 14.6006
12.6026 93.3685 -9.09253
-13.1743 120.771 14.0847
13.1912 89.4031 -6.75729
-18.5693 139.724 7.94031
-14.1041 143.146 -2.90118
-14.8754 142.481 -0.913478
13.327 88.4687 -6.05429
0.359158 89.0819 16.7312
1.13632 123.937 -13.8641
-4.09234 129.388 -8.98027
3.16612 119.99 -14.0742
12.6245 94.4426 -9.55497
-5.92314 103.234 16.2815
-19.1512 143.415 6.44167
8.52482 107.765 -13.1179
-1.7281 94.6973 16.2441
3.22669 84.3643 16.107
3.16331 85.0161 15.7288
4.4416 117.287 -13.6219
15.1563 79.7247 -1.17302
3.24103 85.408 15.3958
9.50349 105.455 -12.5936
10.5565 103.351 -12.7082
-15.4206 143.725 -0.0350918
14.5058 84.8954 -4.21424
-5.52918 103.157 16.3215
-6.98591 107.144 15.5926
-10.0926 138.35 -5.02315
-13.7611 127.023 11.0449
-11.6043 140.559 -4.08803
-8.82422 111.67 15.3153
-9.32959 138.188 -5.96322
15.3548 82.3843 -3.27528
-18.5767 141.872 7.58114
0.654072 125.999 -13.3422
-1.27604 128.876 -12.2905
0.862269 91.4989 15.2544
7.83912 110.937 -13.5217
1.24954 89.3083 16.4489
-1.22942 128.965 -12.3169
12.8938 95.4703 -9.47273
12.6158 96.7423 -9.9571
11.6905 100.637 -11.5487
-12.734 128.819 8.53053
5.25813 116.511 -13.314
13.465 92.7152 -8.02962
1.57545 88.0551 17.2187
3.38381 86.4403 15.3833
-4.63948 131.829 -8.30939
-11.4112 118.071 15.3624
-16.3434 146.602 0.266267
-2.22692 95.8849 17.6158
15.1366 78.5341 1.10845
-13.5759 125.367 13.2194
-2.6639 129.694 -9.91229
-4.6346 102.48 16.4797
15.3126 80.0303 -0.30532
1.60921 88.5088 17.1172
14.6172 86.7248 -4.57403
5.76544 115.932 -13.2353
-6.7853 136.471 -7.95815
7.96694 111.677 -13.416
0.481211 127.574 -13.3062
-3.7979 101.028 16.7247
-3.52089 131.076 -8.94964
3.43612 122.488 -14.1437
-12.5183 129.01 8.94075
-13.3039 125.534 13.2642
-17.0076 147.044 1.89244
2.19149 125.472 -14.1857
-6.03169 135.272 -7.66111
-1.26062 130.174 -11.8313
-7.72705 111.56 15.3638
11.685 102.466 -11.7298
-16.9618 147.072 2.13324
9.36804 108.141 -12.1919
8.53266 110.668 -12.789
-12.625 131.823 7.36813
14.1243 92.4199 -7.42428
-17.5661 146.413 3.98581
-14.3687 146.021 -1.32684
0.927772 92.5 16.2154
0.829061 92.7741 16.2949
-13.6552 145.817 -2.2449
-4.47688 104.42 16.0981
1.82416 90.7019 16.3659
6.01933 117.213 -13.375
-1.45943 130.665 -11.2105
-3.99227 103.232 16.432
-14.4926 135.559 8.11981
-17.6376 143.159 7.39081
-14.5967 135.833 8.12263
11.7815 103.114 -11.6216
-14.6831 136.046 8.12449
-7.26978 138.424 -7.09305
-12.7123 129.161 10.4277
-7.39201 111.858 15.4298
15.6116 84.9842 -3.18733
-12.7238 129.339 10.3269
-3.44838 132.615 -9.01109
-6.78248 138.119 -7.61541
-13.0252 145.752 -2.80624
-10.8974 142.581 -3.93822
15.4919 80.1813 1.21438
1.55271 91.6581 16.5373
-15.7665 147.914 0.336757
-5.23551 134.852 -7.482
-17.6769 144.718 6.55265
-4.51118 105.655 15.7782
-14.0635 146.925 -1.68575
12.4661 100.456 -10.1605
1.38272 92.1615 16.6536
-9.71528 140.942 -4.35341
2.16896 126.638 -13.5962
-12.5067 133.097 7.26429
6.52128 116.906 -13.1659
-13.641 146.634 -2.00776
-11.215 122.419 13.9958
-2.04318 98.2565 17.8648
-0.488217 94.8632 17.9945
-0.53347 94.9247 18.0897
-7.45258 112.833 15.5824
3.05699 88.3613 17.4127
15.8397 84.1068 -1.88353
9.89165 108.643 -11.8047
13.6448 96.8078 -8.58495
-17.3193 144.419 6.89491
-12.1554 128.209 11.3474
15.6226 86.3465 -3.23688
-3.63718 133.478 -8.1644
-3.29131 103.478 16.4118
-10.3382 143.41 -4.39561
-12.0771 129.832 10.1591
-4.56195 134.698 -7.34027
-16.9312 146.478 4.9773
-8.37748 114.936 16.1455
-6.16322 111.087 15.4838
14.0725 96.1061 -8.12811
-8.16772 114.75 16.0912
-11.9862 133.632 7.10017
8.89208 112.562 -12.577
13.4601 98.1774 -8.64349
1.84648 92.258 17.1057
-15.5788 148.169 1.39915
6.74574 118.293 -13.4702
-12.0129 134.873 6.20959
-1.77798 99.9378 17.248
5.02761 84.6524 17.9105
-9.6342 118.413 15.8242
-1.17559 132.526 -11.1297
-1.31883 98.0004 18.1059
-8.05202 114.759 16.1121
10.0855 109.179 -11.6462
-16.4138 147.443 3.72591
0.406764 94.2984 18.2155
2.01268 92.2046 17.1633
-4.93402 109.235 15.3433
-9.36617 116.78 16.966
15.2962 88.9538 -3.78047
-6.26512 138.975 -7.1019
16.1149 81.9203 0.754876
16.0167 85.5306 -2.02959
-1.342 133.02 -10.7622
-16.5933 146.64 5.16146
6.34776 119.88 -13.4286
-11.4153 128.49 11.1886
-10.7552 124.018 13.8002
-2.59914 103.483 16.458
-4.08772 108.043 15.5247
-15.778 141.738 8.19711
-13.4922 137.084 8.05312
15.074 92.7664 -5.8474
-6.92267 139.554 -5.73269
-16.048 142.577 8.07214
-11.2976 134.554 6.30946
2.51506 128.113 -12.9814
7.57374 117.762 -13.2359
-0.219236 132.548 -11.6478
3.86007 125.636 -13.1324
-12.2839 136.066 7.02027
11.3904 107.529 -11.3992
16.4117 83.9733 -0.537724
14.9948 93.6401 -6.08164
-16.511 146.116 6.27487
-12.7256 137.33 6.89819
-10.9862 132.787 7.65408
-2.00762 134.005 -9.42368
-8.88303 117.564 16.8077
16.6105 82.6759 0.492305
-15.6583 142.664 7.91795
-14.1416 138.978 8.30684
0.422174 95.644 18.6688
-0.561156 98.4867 18.0618
-5.83486 139.53 -6.88694
-15.5184 148.212 3.16336
-5.16489 138.644 -7.33436
9.25338 114.761 -13.0957
-11.6386 147.55 -3.20322
-8.28017 141.811 -4.30297
1.02798 131.083 -11.9384
-10.4413 146.846 -4.53847
0.550191 95.7036 18.7348
15.779 80.8413 4.08536
-9.20719 144.743 -4.80455
15.9836 81.8709 2.94127
-0.998208 133.83 -10.2528
7.27116 119.758 -13.244
-14.6917 148.845 1.66109
-3.25495 107.582 15.8217
-11.4093 147.836 -3.33642
-13.8341 140.354 7.35509
-15.727 143.942 7.83348
-10.5133 135.447 5.6412
9.79705 114.134 -12.7253
-14.9321 142.52 7.73894
-4.85675 111.326 15.9584
-12.876 139.969 6.31589
-15.136 143.201 7.66269
-0.631677 101.108 17.026
-0.672982 101.357 16.9223
-14.3664 149.066 1.52077
-10.3191 147.547 -4.4154
0.816653 96.0859 18.9635
6.53188 121.749 -12.5561
-8.54244 144.834 -4.91753
13.339 105.21 -10.775
6.02595 86.4417 18.1946
16.0077 81.9769 4.09365
14.8137 97.9007 -7.02631
5.1887 124.614 -12.1508
-10.4955 148.391 -4.02573
-0.041605 133.95 -10.5728
16.1859 90.3949 -3.06589
-9.75615 134.725 6.17245
10.92 111.861 -11.6353
2.60326 93.4804 18.6713
-8.23939 144.78 -4.95969
-13.4155 149.803 0.251056
-15.3391 147.044 6.02288
-8.6047 122.182 14.8327
4.72275 126.065 -12.2719
-14.6673 143.824 7.55811
-10.8923 149.002 -3.49655
5.52926 124.078 -11.943
-9.80967 133.869 7.34281
17.1152 84.6413 0.562244
16.7239 88.5879 -2.01441
-11.8502 140.258 5.84365
15.6219 80.8649 6.53253
1.76848 132.396 -11.908
14.0246 103.517 -9.60681
1.71027 95.8694 18.8626
-5.13467 140.502 -6.26706
15.6666 80.9621 6.54683
-10.2879 127.984 13.5557
-4.04353 139.286 -7.08259
-1.88786 135.769 -7.98673
16.4713 90.5056 -2.74149
-9.74287 132.623 8.89217
15.9132 93.2411 -3.96819
3.5104 92.7505 18.6552
6.07952 86.5644 19.2719
-11.4745 139.973 5.87943
-11.1947 139.111 6.16936
3.13637 129.717 -11.5763
-14.861 145.753 7.17607
-13.2903 142.342 7.25066
6.02176 123.678 -11.6191
-8.32116 123.276 14.3951
-3.87513 139.383 -7.07095
-10.1325 129.448 12.4764
-13.5171 149.738 1.58458
1.79403 97.2218 18.2491
1.27881 133.721 -11.4149
-14.5298 148.566 4.47043
-4.10358 110.916 17.4341
15.6027 80.6973 7.53625
2.75468 94.0412 19.4071
-14.3723 146.547 6.05469
6.20389 86.8778 19.4052
-12.914 150.313 0.417825
-0.692128 135.384 -8.86289
-8.45373 124.744 13.9681
-13.984 146.216 5.97256
-13.6485 144.57 6.8277
-12.4958 150.622 -0.278685
-3.00093 138.237 -6.85495
-9.47061 136.122 6.53261
0.87601 101.189 17.3526
17.209 88.8464 -1.3923
-9.42176 127.287 14.0254
6.04075 88.2987 19.0759
-10.5191 139.303 5.94411
16.7221 91.2591 -2.43895
-10.9014 140.79 5.4774
3.35308 130.767 -11.5904
4.53378 128.409 -11.6949
3.42516 93.5474 19.5517
-2.18013 136.862 -6.72311
-11.828 150.73 -1.07257
11.5819 113.487 -11.6559
6.31936 89.2742 18.0951
2.88744 96.0989 18.5271
-5.84574 142.497 -4.69299
6.64705 86.4022 20.0749
3.62332 93.6269 19.4821
-13.4636 146.69 5.55383
17.4603 85.4495 1.64805
-7.63904 123.63 14.5315
11.9614 112.744 -11.3116
7.53997 85.1376 19.7614
-6.78179 118.973 17.0279
-9.18463 128.796 13.134
-0.222277 135.833 -8.75408
3.69052 130.603 -11.343
-6.09173 143.477 -4.62205
-11.6623 150.959 -0.868092
-6.76021 119.502 16.7999
1.16948 101.798 17.5655
-8.19189 133.656 7.62549
-0.858901 106.517 17.2936
3.65687 95.1757 18.7727
-11.1254 142.557 5.49826
-6.98436 121.18 16.0637
-11.5789 143.109 5.95881
-7.38097 124.11 14.4518
15.4718 101.874 -7.66306
-8.03941 133.443 7.98841
4.36798 92.9985 19.7284
-8.89535 132.999 9.93755
-10.0999 150.62 -2.68901
15.1898 103.516 -8.38542
-8.46127 135.85 6.81193
16.1071 81.2661 8.70404
-13.281 147.901 5.46293
-7.87203 133.334 8.02712
17.5922 84.3752 3.62661
-5.55974 143.398 -4.45022
-8.9191 149.802 -3.79544
-9.09961 137.747 6.64092
-4.61604 114.221 18.4142
-11.0966 143.549 5.45334
17.3946 84.1756 4.31705
17.6829 85.9923 2.28778
15.1603 104.296 -8.53411
-1.83141 138.019 -6.24193
2.87841 98.6116 18.3943
0.383528 136.27 -8.72264
-8.89952 150.037 -3.59476
16.6477 96.0364 -3.912
16.0349 99.6763 -5.82726
-5.40776 117.105 17.9692
5.01533 92.6184 19.8723
-2.71526 110.821 18.4698
-7.09629 147.676 -4.59006
5.52673 91.5355 19.9812
-6.47634 122.44 15.5324
-5.16633 116.446 18.3117
16.9272 94.4642 -2.74921
-10.3706 142.56 5.84565
3.49337 133.33 -11.189
4.14237 96.1691 18.8896
-6.93714 147.781 -4.55446
5.79829 91.3354 20.0149
7.42382 89.7172 18.4677
-8.06814 132.59 10.2255
12.0386 115.188 -11.1031
-8.23731 128.952 13.6375
10.1444 119.212 -11.0611
18.0498 87.3319 1.59715
-4.36311 115.057 18.45
-12.4718 148.739 4.70938
1.90967 102.12 18.0997
5.79827 128.117 -10.6601
9.08507 85.237 19.4456
-8.17918 128.25 14.2537
-9.38476 140.826 5.93029
-2.41814 110.858 18.6515
-7.53319 134.164 8.25141
3.68963 97.7429 18.7538
4.46699 95.7944 19.035
2.63787 100.492 18.3695
-7.52255 132.493 9.72419
17.7975 91.5371 -1.17234
-12.2334 149.14 4.2696
18.2366 88.2482 0.832272
-7.95658 131.663 11.33
13.3257 112.053 -10.2019
5.86101 91.8033 20.147
-11.7492 146.941 5.47223
16.2702 101.163 -6.21566
4.71376 131.555 -11.0252
-5.03357 119.656 16.45
3.86231 98.0096 18.8321
5.37318 130.234 -10.9041
13.0523 114.02 -10.9769
-5.65483 146.025 -4.32399
18.3411 88.6272 0.891722
-10.6687 151.981 -0.340096
18.3272 88.1002 1.41981
10.4561 119.582 -10.8742
10.2284 120.318 -11.0749
15.669 103.943 -7.01794
-6.56858 125.311 14.8554
18.2159 87.4888 2.23654
18.2987 89.3033 0.591921
15.2819 105.719 -7.74083
-4.77433 119.626 16.4822
-1.08698 108.245 19.4569
1.78087 137.012 -9.71232
-7.78922 129.622 13.6179
-9.914 142.991 6.21168
8.57846 87.6359 19.5823
-4.62628 144.389 -4.34628
6.85963 127.765 -10.9395
-7.0006 126.575 14.8618
-8.8958 141.073 6.15924
2.86309 136.614 -11.1217
13.4544 113.581 -10.7212
17.6218 94.0834 -1.8178
1.29966 137.245 -8.80906
6.18756 92.9328 19.7004
14.7467 109.242 -9.29021
-6.65674 148.923 -4.19265
-11.3131 150.774 2.59179
17.1234 83.1409 8.46851
9.24698 85.7205 20.4269
9.70218 85.3007 19.9917
-6.31456 130.065 11.1056
13.3025 114.208 -10.6921
-2.67038 142.502 -5.81822
8.67976 124.72 -11.1856
2.14925 137.429 -10.1112
0.173954 138.348 -7.30692
-7.12133 136.307 7.49819
18.5535 89.1635 1.13804
-2.76608 112.523 19.6905
9.29718 85.7666 20.5599
-5.09653 122.348 15.6573
-7.00688 149.895 -3.93452
15.2923 105.95 -6.8976
11.4397 118.349 -10.4019
0.812526 138.132 -7.9553
17.5568 96.5509 -2.99855
-11.038 150.656 2.82185
-3.87562 118.226 17.2244
7.10605 90.8117 20.5841
7.62084 127.657 -11.1925
-5.36859 123.43 15.6151
9.85169 85.8049 19.9811
6.22802 93.9617 19.63
7.33144 90.6876 20.4084
-2.4547 112.307 19.8032
0.0248744 138.861 -6.91099
17.7931 95.1737 -2.03264
-6.22501 132.033 10.0328
9.29057 85.9975 20.9335
-5.29555 147.143 -4.13491
-2.93359 115.184 18.4784
2.08064 103.93 19.0056
9.03569 88.5836 19.4683
17.5095 84.5531 7.69673
17.442 84.1934 8.16864
7.70321 128.103 -11.2416
16.5245 80.9496 12.5495
-3.94305 144.911 -4.48239
18.0651 85.4315 6.06705
-6.72695 136.169 7.89272
5.97654 131.813 -11.1307
8.36881 127.242 -11.5724
16.9799 82.2621 10.7714
6.51434 131.103 -11.4363
-6.04865 132.314 10.0416
8.65778 86.9789 21.8377
-1.31855 141.153 -5.73716
-10.5245 150.37 3.00666
2.3136 103.779 19.1691
-4.05577 145.331 -4.2327
-6.41749 128.801 13.8761
-0.0270374 107.62 20.2193
15.4603 105.92 -6.05811
9.14687 126.554 -11.9635
-7.89328 151.629 -2.34551
-10.0807 151.553 1.87467
-3.6546 120.206 16.7343
8.46092 128.107 -11.49
-5.9796 128.838 13.7477
-8.78295 142.995 6.89289
15.8097 105.13 -5.29175
-7.93497 151.883 -2.02374
-10.0039 149.577 3.61733
-4.91434 129.585 11.2911
2.08342 104.652 19.7185
-7.31767 140.526 6.46741
4.41787 136.403 -11.0619
2.01821 138.859 -8.79214
8.17349 129.219 -11.705
19.0052 91.1891 0.931397
7.26997 131.516 -11.8724
-7.37997 140.256 7.02323
17.7298 99.5827 -3.71234
3.33471 138.657 -10.6794
3.02165 103.218 19.6431
-5.00372 124.405 16.2706
11.1639 122.259 -10.8183
8.35328 90.4756 20.9087
16.5913 103.189 -4.47663
15.3548 111.051 -8.80308
4.42124 137.203 -11.1775
-8.47261 152.618 -1.01913
-6.38649 137.473 7.97204
-5.34866 128.581 13.6263
-1.69791 112.477 20.6176
-4.46246 129.173 11.5865
16.471 103.518 -4.34862
13.6041 116.472 -10.0734
-4.56184 128.28 12.5883
11.4865 121.905 -10.7801
-8.17024 145.35 4.73892
-5.64785 135.899 8.21199
6.6219 133.739 -11.8164
16.2596 104.203 -4.25244
19.0545 89.1172 3.41779
17.2608 83.5556 11.2996
11.0232 124.288 -11.7018
-5.73105 136.566 7.98158
2.93773 103.859 19.9209
-2.56515 118.488 17.5553
18.8953 88.4996 4.31511
-9.50116 151.501 2.28759
4.54733 99.636 20.6825
19.0766 89.1041 3.5842
-9.31415 151.037 2.51177
17.7482 85.5896 9.05506
-5.04505 126.292 15.7271
10.6515 86.4762 21.1108
-6.53644 142.767 4.67784
-6.61563 143.327 4.42482
-6.58986 143.291 4.41424
-6.53116 142.754 4.81649
-6.9814 139.509 8.35375
15.8057 111.176 -8.64916
18.6695 96.0795 -1.08093
-2.33839 118.254 17.9161
-3.97065 122.815 17.0177
15.6524 112.043 -9.04148
-4.46812 124.837 16.2412
15.8158 106.635 -4.78407
-7.88351 146.571 4.12526
2.54467 104.543 20.7312
13.4146 118.013 -9.86318
15.6395 108.428 -5.76373
-4.08095 126.61 14.2959
0.769788 141.106 -6.53988
14.5005 115.252 -9.36445
18.9077 95.4163 -0.558927
10.7013 126.787 -12.193
15.5992 109.984 -6.85172
-5.05818 132.408 11.3435
-8.16352 148.288 3.58872
-5.03233 136.053 8.25638
-8.69188 149.96 3.14278
18.8555 87.7626 6.03176
-6.8237 142.765 5.86138
8.78615 130.987 -12.1245
11.7282 124.549 -11.9846
12.8581 121.319 -11.2819
11.2754 125.617 -12.0356
-7.04918 145.485 4.16514
7.44386 94.3183 21.1821
-4.44348 131.162 11.5671
15.7002 110.578 -7.17068
9.55515 129.774 -12.2509
16.8731 102.974 -2.85881
-6.70449 140.797 7.68467
17.4301 84.0403 12.1216
19.0522 95.4999 -0.377387
15.7983 108.269 -5.20399
18.2791 87.0863 8.12878
-3.97413 130.553 11.5322
-2.87054 146.849 -4.07972
-5.63912 142.447 4.58363
2.12659 140.843 -7.9592
-6.67681 141.223 7.57561
-3.26678 128.511 12.1458
18.1144 86.84 8.87627
16.4387 81.6424 16.246
-4.71933 150.143 -3.2943
9.49134 90.3092 21.5379
-5.36036 141.053 5.57954
17.2249 102.335 -2.31259
13.9596 120.249 -11.4691
19.5888 90.7678 3.24682
-1.88883 145.99 -4.63931
15.2384 114.603 -8.94343
10.3632 84.7798 24.8193
19.2662 95.5408 -0.0728208
-2.32197 146.695 -4.25984
15.7949 109.824 -5.73911
-4.61563 135.071 9.64535
3.80609 103.185 21.3552
10.7161 128.622 -12.3401
-2.83391 121.754 17.6756
-2.73428 126.191 13.8074
15.0626 116.123 -9.53096
6.99513 135.468 -11.28
0.868136 109.585 21.4199
18.2033 87.2551 9.189
2.36133 105.353 22.3868
18.1543 87.1538 9.40994
-1.25109 115.978 19.9666
16.4716 81.7258 17.0321
18.1176 100.864 -1.93044
19.5528 94.8216 0.597139
10.7989 84.8786 24.6566
18.6787 99.6855 -1.83583
2.78016 104.779 22.3716
-4.3744 134.803 10.0682
14.871 118.381 -10.5837
16.5135 81.8136 17.1735
-3.5037 148.948 -3.29205
14.1477 119.728 -10.3092
15.8022 111.62 -6.43652
-3.00843 148.317 -3.52903
-1.33675 117.256 19.6199
0.653694 142.954 -5.47962
19.2589 89.6565 6.03676
19.6651 92.4789 2.94961
7.98963 134.539 -11.4318
2.16796 141.984 -7.16371
11.7215 85.3667 23.2861
16.3579 81.6055 18.161
10.7117 129.712 -12.0887
19.8141 91.4812 3.70534
2.11112 142.072 -7.05516
2.80343 105.099 22.7931
19.7084 92.5841 3.08685
17.7954 85.0219 12.9197
18.1215 86.9717 10.7005
16.8438 105.5 -2.50124
14.0987 121.345 -10.7806
8.58758 93.8305 22.2444
-1.55768 119.464 18.8971
-1.77672 127.723 12.3679
-0.411824 145.248 -4.76317
14.2312 120.167 -9.85821
16.0369 111.156 -5.52245
10.8727 84.4529 26.1613
6.01315 99.6921 22.0794
19.7453 96.0426 0.602828
-1.53667 120.169 18.4971
16.8508 105.965 -2.47557
-4.90943 152.476 -2.5174
-3.76793 135.348 9.83098
8.84563 133.904 -11.5223
4.16186 102.994 22.8002
17.9642 101.506 -0.5834
14.0217 122.332 -10.9814
-1.81883 121.277 18.3003
1.75182 142.932 -6.17429
19.8412 93.0094 3.35301
12.6251 126.449 -11.742
-3.30316 134.14 10.3453
-0.429377 116.818 19.7942
14.5381 119.431 -9.0662
18.3054 87.3185 11.178
19.9089 90.9109 5.30239
15.9056 116.883 -9.29678
5.71564 101.313 22.0135
13.3765 125.466 -11.8179
3.72121 104.284 23.2438
11.7241 129.451 -12.1467
19.9393 96.2658 1.00252
11.785 84.9854 25.0718
16.585 108.418 -3.16696
-2.96617 133.48 10.9061
14.5336 119.561 -8.67924
10.1892 91.944 22.2821
4.46611 141.948 -9.38473
-3.88381 142.01 5.52083
2.01299 143.361 -6.14779
9.85606 132.946 -11.4333
5.67764 101.464 22.4583
2.83256 142.895 -7.20973
9.58591 133.55 -11.4046
-5.0342 153.507 -1.91359
4.89496 141.787 -9.80559
20.0614 96.2618 1.2959
20.1375 94.3054 2.80233
5.46497 141.435 -10.4383
14.4024 120.251 -8.6537
17.1856 83.9313 16.8715
6.38305 140.446 -11.1332
9.3843 93.6242 22.7939
-2.09022 149.538 -3.57664
0.935212 113.812 21.0052
6.41211 140.45 -11.142
-2.70798 134.716 10.0647
19.5179 99.0433 0.367033
-1.08885 148.247 -3.99551
19.8502 90.5829 6.93721
-2.63457 132.828 11.8151
11.2978 130.975 -11.528
11.8018 130.295 -11.8397
11.0804 131.305 -11.3777
5.57035 101.617 23.4222
2.25022 108.56 23.569
-0.135772 147.086 -4.47531
-0.456103 127.563 12.5375
18.032 102.567 0.452787
18.2187 86.8408 13.3459
9.64585 134.485 -11.238
14.553 121.536 -8.94071
-0.0546921 126.147 13.3435
16.4956 115.064 -6.96828
14.2084 125.062 -11.2018
8.55278 136.629 -10.7797
4.37647 109.019 19.9248
16.4581 116.004 -7.53156
4.27282 108.405 20.6864
9.25197 135.644 -11.0674
-2.58613 136.922 9.07087
19.7458 90.1852 8.32608
16.5153 115.162 -6.83612
8.52656 136.915 -10.7445
0.374535 124.238 14.4909
0.877614 146.325 -4.90277
7.03028 140.873 -11.2788
1.44951 112.792 22.279
-0.855808 129.269 12.6325
16.9126 83.1028 19.6056
11.9472 84.3706 27.4547
9.63797 93.649 23.8304
0.444262 125.038 14.0459
7.3355 99.2751 23.3776
12.0796 84.3125 27.5665
2.5084 144.561 -5.82452
17.6968 85.4578 16.6026
3.44651 143.835 -6.86538
6.13065 142.226 -10.3058
5.81816 106.276 20.4329
17.2983 83.9873 18.5933
18.2617 86.9217 14.4159
15.0516 119.393 -7.04421
9.46477 135.982 -10.96
-2.00734 136.204 9.51109
8.90767 94.9082 24.6457
0.851756 123.94 14.7277
19.5559 89.922 9.84797
0.508075 126.928 12.8894
12.9248 88.1028 23.2583
5.65696 142.794 -9.61438
15.9859 116.603 -6.12281
0.82902 118.016 19.8163
14.7994 122.057 -8.55372
4.77948 107.071 22.0046
6.18725 107.061 19.526
0.560559 121.334 17.6659
-1.68189 133.323 11.6219
20.0769 90.926 8.35793
-1.28506 131.5 12.5594
2.60665 110.98 22.8301
4.87559 143.379 -8.32747
6.2074 104.638 21.8104
6.37365 107.682 18.996
-1.18632 131.529 12.5372
17.9411 106.017 -0.274448
15.0023 120.355 -7.01444
8.63667 102.27 19.5663
9.92096 93.5488 24.5851
8.06202 97.7157 24.484
9.03991 95.1163 24.9206
20.0766 90.9243 8.73805
-1.3216 132.192 12.4284
5.22822 110.442 18.9856
-1.38466 151.371 -3.49156
2.60172 111.892 22.5392
7.01149 105.745 19.819
1.05107 123.398 15.6879
13.1386 86.2325 25.2535
6.50473 142.685 -10.2297
15.0098 123.738 -9.54888
5.93726 143.141 -9.5605
9.09834 102.334 19.0546
10.3823 135.051 -10.6598
9.07711 95.2882 25.0604
3.4941 109.43 23.1885
10.9938 99.1024 18.4809
19.4549 100.724 2.0147
7.75123 141.084 -10.8424
5.13517 110.627 19.4002
-1.11015 134.547 10.5243
2.12042 113.001 22.8855
10.3487 93.2926 24.7282
5.88182 105.028 22.8808
12.0679 91.194 23.5076
6.53444 109.979 17.6689
20.4978 92.5162 7.34077
2.0842 114.573 21.8011
9.75452 99.3925 20.8815
7.39325 107.084 18.6571
9.80503 99.2171 20.948
7.38678 107.293 18.5273
19.641 90.2354 10.9614
18.3422 105.122 0.895004
15.1051 123.081 -8.37036
20.0841 90.7924 9.81696
20.3114 97.9497 3.4166
15.4765 118.385 -5.05837
13.5871 96.563 16.6706
7.31336 108.925 17.5544
-0.946818 151.745 -3.58638
5.50355 111.516 18.6322
10.7692 100.891 18.1246
14.0496 96.3479 16.075
7.54093 102.717 22.3781
-1.5012 152.472 -3.17485
7.83728 102.288 22.2209
1.52898 119.502 19.0866
-0.933907 135.655 9.97087
1.73591 147.88 -5.03122
16.0645 116.437 -4.25613
6.71917 110.676 17.3216
4.91395 107.711 23.0482
14.7584 126.791 -10.5636
6.69214 103.952 23.0583
9.47444 137.983 -10.3811
17.7161 112.718 -3.91813
7.98733 141.883 -10.9642
20.1238 98.3939 3.83789
7.20801 110.076 17.154
15.275 120.426 -5.954
8.87663 96.6837 25.4859
0.0208786 131.165 12.4077
1.93448 122.973 15.8619
10.7654 93.0445 25.1755
18.0747 85.1854 18.7306
-0.193515 131.805 12.3168
17.8982 110.303 -1.98373
8.26466 101.855 22.3491
17.7968 82.9645 21.1465
7.61742 109.557 17.0614
8.96084 104.687 18.7442
1.54791 122.554 17.0319
6.53447 102.802 24.6841
10.0511 137.089 -10.3365
3.47894 112.447 22.1242
8.20407 141.716 -10.8516
8.72887 106.777 17.5325
18.4803 105.263 1.35499
12.4923 96.6905 19.2826
14.7141 128.352 -11.2444
20.3337 97.5818 4.553
14.5687 96.6631 15.6624
13.6504 87.8617 24.7317
2.30025 122.95 15.6196
20.5384 92.029 8.95012
13.654 88.1251 24.5624
-1.05941 152.595 -3.17882
11.8704 97.0142 20.3529
17.8435 83.4082 21.1115
13.7136 130.996 -11.4064
7.04496 111.261 17.0912
18.547 103.918 2.70732
13.2596 98.2746 16.9408
14.8174 124.774 -8.07342
14.8569 127.139 -10.0993
18.7396 86.2108 17.3272
15.4035 95.8247 15.2876
5.90686 144.198 -8.29535
15.0383 125.527 -8.88586
19.0662 86.9005 16.3249
10.0887 104.678 17.5288
16.1373 96.7202 13.4692
11.7001 97.0648 21.1314
18.1745 111.968 -2.79562
7.80112 110.966 16.6425
7.71228 100.579 25.5271
15.7131 117.901 -3.28213
8.34552 110.245 16.3315
6.92037 144.104 -9.50235
3.94184 115.362 19.9459
10.5031 105.497 16.5309
18.3008 107.508 0.92731
13.8107 84.1599 28.5925
16.8422 96.9326 12.4754
4.17852 113.876 21.0104
18.1032 108.876 0.329574
20.8012 92.5682 9.18829
2.17079 149.292 -5.01972
8.03053 102.858 23.4562
13.8019 89.1028 24.7124
5.00907 145.635 -6.97222
4.39349 146.346 -6.44538
4.42553 113.721 20.9446
15.0396 123.328 -6.07927
11.8252 96.8318 21.9082
17.5042 96.6386 11.9138
12.8379 95.9323 20.8582
14.1561 94.945 19.3382
16.0669 97.5741 13.7178
14.9056 127.897 -9.63474
7.81811 143.708 -10.2156
17.3267 96.9473 12.0091
-1.26334 143.812 5.99627
17.8449 114.426 -3.53705
9.17931 141.112 -10.394
6.02731 112.851 18.9747
8.22091 102.197 24.0006
14.0186 94.9615 19.7041
8.55585 102.167 23.4452
18.3585 107.859 1.15183
4.28294 146.8 -6.31252
10.1382 95.7269 26.1028
11.9349 102.713 17.0585
8.81084 101.798 23.4808
21.5322 95.3184 6.16234
18.7122 106.253 2.09966
13.8 99.5588 16.5729
3.94639 118.279 18.5365
14.9413 126.492 -8.00567
11.4212 105.106 16.2359
3.39956 122.209 16.2638
5.04887 114.216 20.0219
9.91831 139.937 -10.2488
4.18497 117.45 18.9014
9.396 141.313 -10.4287
14.3489 88.288 25.2462
16.6809 98.4196 12.5823
18.5564 110.592 -0.959082
4.77587 115.436 19.6617
21.284 94.4235 7.81256
8.202 143.77 -10.1744
18.4619 83.1892 22.3342
21.6044 95.1182 6.76208
0.578469 135.656 10.3996
18.5853 96.6905 10.9021
11.497 97.026 23.3716
8.61548 143.407 -10.3718
10.4262 107.755 16.3019
4.92892 146.823 -6.59193
3.9546 148.09 -5.88509
18.7849 104.559 4.1562
14.6052 94.2667 20.2932
11.5874 93.2019 26.6079
17.237 98.8104 11.8904
9.87499 100.146 23.953
11.9471 105.825 15.4816
16.2125 99.0177 13.5701
9.31472 111.335 15.5979
17.8288 122.569 -9.0465
18.7209 110.404 -0.408825
18.0196 98.7887 10.7335
19.2395 101.652 6.16379
10.4898 108.343 16.2166
3.79411 148.72 -5.67613
8.87749 112.328 15.8303
9.7975 98.3102 26.0005
12.8903 95.6126 22.7544
9.72256 110.794 15.6899
2.56162 130.008 12.4274
2.79144 129.411 12.5831
21.2068 93.6906 9.64728
18.1086 99.426 10.3999
17.084 115.913 -1.59701
15.5138 127.974 -8.78561
14.4449 89.0177 25.8407
5.38477 117.171 18.539
15.7269 130.02 -10.7295
19.8689 98.6582 8.18013
21.473 96.5722 7.10275
19.0055 110.898 -0.485279
19.3687 97.8413 9.83642
14.6715 100.914 15.6778
18.008 124.378 -9.96716
12.6579 92.0383 26.7434
5.05138 120.636 16.3834
5.30257 147.45 -6.56009
14.7266 132.064 -10.5127
16.1883 93.4275 19.3546
18.2583 114.336 -1.8763
15.7392 93.4719 20.1877
16.3758 121.863 -4.63305
13.3883 105.156 14.7651
17.5633 115.272 -1.19169
14.342 89.6012 26.203
12.5481 95.9547 24.0896
1.3073 136.112 10.5613
19.3132 102.417 6.62081
11.045 96.4777 26.4168
18.5433 83.6659 23.7619
1.15887 137.41 9.8
12.5247 96.0215 24.2474
19.3825 101.961 7.0338
17.387 125.134 -8.82466
19.2256 86.7942 20.1506
18.282 83.4778 24.6708
19.0016 108.057 2.77895
13.0738 91.6858 27.1233
18.8304 113.571 -1.53458
-0.457247 143.708 7.80708
20.1545 90.0046 15.9805
8.28151 114.743 16.4769
11.1495 96.8781 26.3636
16.2123 100.112 14.6106
10.3197 112.363 15.0085
18.4357 83.9416 24.3746
16.3412 92.7369 20.7584
8.72691 145.14 -9.56437
16.4849 92.7007 20.5515
13.9776 90.4892 26.9056
6.67645 115.452 19.032
2.44024 152.013 -4.03357
11.6945 108.856 15.62
19.1935 109.362 1.78614
3.00872 131.332 12.3194
9.10823 114.278 15.7206
14.3362 133.784 -9.96011
18.9062 113.526 -1.13947
3.86653 128.866 12.9076
16.0496 101.211 14.3256
20.5439 92.183 13.8579
18.5548 92.8309 16.9363
3.90142 150.581 -5.23499
4.85565 125.355 14.2317
15.9865 84.4124 28.6673
6.20315 115.859 19.8074
19.0164 100.504 9.76768
13.2167 106.995 14.7056
20.1515 101.244 7.12738
15.3395 87.5821 27.2566
7.84452 115.834 17.0128
3.24069 131.223 12.3508
2.80946 132.465 12.1162
20.1936 93.5243 13.7027
1.73689 153.097 -3.18895
17.2589 126.074 -8.28645
14.85 104.333 14.2736
17.2106 84.2942 26.8723
17.4659 126.297 -8.82093
17.0715 92.1848 20.5164
15.1496 93.268 23.0551
16.3419 129.603 -9.54435
-0.0829872 144.873 7.12349
18.8068 92.3687 17.3945
11.9508 109.269 15.5102
14.0797 90.5843 27.3977
18.0679 91.9939 19.1669
11.2792 111.981 14.5829
3.43263 151.633 -4.62288
12.8111 138.073 -10.0042
17.2883 126.686 -8.44076
18.0193 91.7851 19.5356
18.9463 86.0793 22.6663
19.112 86.5998 21.9373
12.1284 96.832 25.8579
8.48615 115.83 16.4606
5.38668 123.838 15.3029
4.63281 127.788 13.3527
18.5225 92.0564 18.5111
11.7824 110.251 15.3526
16.5488 129.118 -8.96968
2.06836 153.129 -3.17322
13.3661 93.0283 27.0527
19.5094 89.6822 18.8884
0.399321 143.68 7.79793
15.8126 92.603 23.0762
19.0323 89.2507 20.1883
2.14147 137.189 10.1976
1.33337 153.857 -2.33353
2.1182 136.971 10.4338
20.3535 101.253 7.78824
1.74968 139.174 9.26955
16.8811 127.779 -8.24541
17.6755 127.079 -9.06566
20.1457 90.7907 16.9638
15.1172 89.1126 27.3987
14.7844 93.7654 24.0988
16.718 126.168 -6.49606
9.98675 144.626 -9.9091
19.6738 110.034 1.8331
2.2297 137.26 10.2123
0.896901 142.878 7.91856
19.3804 112.569 0.355612
19.5103 111.951 0.682681
14.1713 94.6734 24.7334
0.154083 144.995 7.62819
18.814 86.7944 23.0821
18.5094 91.3323 19.8283
16.5724 92.0702 22.7092
2.69394 134.431 12.0287
19.6772 107.485 4.26598
11.9441 141.798 -10.6495
17.2828 84.9037 27.5549
20.0952 101.721 8.48788
19.7017 111.088 1.34831
19.0269 126.647 -10.491
13.0823 95.924 25.994
14.6372 134.807 -9.28924
13.2709 95.5848 26.062
17.2786 126.114 -6.71007
3.8208 131.845 12.6001
19.244 101.852 10.2278
18.0364 85.8218 25.8583
10.3303 144.83 -9.85055
14.5918 91.4957 27.277
12.7474 140.411 -10.4299
14.0688 94.4294 25.831
16.2118 129.495 -7.3545
2.07611 140.838 8.44962
17.6127 85.938 26.7137
16.3789 129.668 -7.76262
13.9156 93.5994 26.9109
18.4477 87.079 24.3092
10.4941 144.868 -9.84918
19.3806 90.5664 19.8175
18.2384 115.415 1.02659
2.52898 135.771 12.0777
14.6595 107.07 14.4644
15.8699 129.25 -6.29069
14.7503 93.8741 25.3977
8.74378 117.368 16.4385
17.8461 125.383 -6.57305
4.67672 130.014 13.1622
17.3568 126.159 -6.20935
12.7996 110.626 15.0012
19.4535 112.833 1.30716
9.1975 146.835 -8.86675
8.76148 147.062 -8.22286
15.8859 105.289 14.0843
15.4123 89.7544 27.9825
8.80875 147.12 -8.212
15.6638 89.6434 27.8107
20.2092 102.886 8.5896
6.36498 150.023 -6.17202
6.25115 123.053 16.7285
20.5741 125.362 -10.8334
15.0088 92.3717 26.9193
7.13814 119.012 18.6823
14.4871 137.21 -9.69953
17.7776 87.9242 25.8187
17.3721 91.4426 23.5966
20.239 102.21 9.44192
15.3968 92.5178 26.2424
16.5056 131.267 -8.24421
18.1389 103.316 12.2843
2.11597 142.626 7.99129
18.7704 90.2055 22.1767
2.93935 138.749 9.79246
14.7401 136.569 -9.47904
11.0585 144.832 -9.74134
17.8951 118.394 0.23177
9.37634 147.196 -8.66775
20.2181 102.24 9.67225
16.0982 90.1854 27.1912
8.52013 118.748 16.7896
18.2085 89.8688 23.7413
6.28081 124.404 16.122
15.3065 107.316 14.3653
9.63399 147.059 -8.82104
19.0075 103.446 11.0254
7.64582 118.408 18.8209
1.30845 146.504 6.60621
17.5163 129.774 -8.32444
20.971 125.587 -10.9531
16.1271 90.8599 26.8689
17.8156 89.6812 24.9247
20.359 106.089 6.61701
19.7778 103.931 9.52162
17.6243 89.3777 25.6487
16.8603 105.422 13.6389
18.0642 103.881 12.8027
8.3509 119.24 17.3065
17.4593 131.458 -9.17946
19.7435 103.203 10.4558
17.2995 126.86 -5.00966
5.6692 129.507 13.6032
7.51284 149.706 -6.61685
14.2223 110.242 14.4871
5.39593 151.947 -4.69039
17.7841 127.392 -6.22959
18.977 129.584 -10.1823
18.5868 123.438 -4.31235
15.8045 132.882 -7.11559
18.5345 123.689 -4.27452
14.3599 139.587 -10.1014
20.0623 107.287 6.80076
19.5903 106.856 8.05625
19.4378 106.489 8.66037
21.7735 124.239 -10.4097
16.154 107.107 14.0264
19.999 110.574 4.24176
17.9377 130.206 -8.4828
8.72329 148.347 -7.17457
17.8677 126.977 -5.57284
7.68951 119.371 19.0372
19.7416 113.508 2.52287
16.6672 132.253 -7.69088
18.4877 117.022 1.87085
21.4703 125.954 -10.9576
1.85678 145.802 7.48836
11.2978 117.48 14.3624
16.5405 128.458 -4.22141
4.63118 133.208 13.1215
3.4728 137.692 11.4537
17.4529 105.962 13.0608
5.43344 130.997 13.5782
20.1533 109.133 5.62412
3.87928 153.763 -2.68836
6.94884 150.853 -5.73697
17.8702 131.217 -8.78531
9.44756 119.556 16.0948
15.6237 130.954 -4.47252
13.2126 142.771 -10.0261
19.3446 107.47 8.66739
17.5727 125.727 -3.46497
11.8465 117.264 13.9104
3.82548 136.336 12.2692
18.5281 104.966 12.2988
17.571 124.566 -2.4104
19.4157 107.664 8.47187
21.8667 125.474 -10.8287
20.1313 109.057 6.10141
17.5652 130.25 -7.02106
18.291 105.792 12.2558
13.6509 142.135 -9.92069
11.0893 146.46 -8.89243
17.0504 107.807 12.8744
18.1531 106.277 12.1937
20.0213 109.787 5.90843
11.2766 118.348 14.4444
17.0087 107.918 12.9518
19.1224 124.738 -4.90716
11.9499 145.13 -9.1793
19.429 106.102 10.2413
15.8958 131.538 -4.73874
15.6315 131.322 -4.04151
17.5248 127.162 -3.92715
19.0689 115.528 3.13318
17.6763 132.563 -8.6557
13.4879 143.077 -9.93015
19.3818 108.277 8.79727
16.3229 134.766 -7.899
19.9483 110.971 5.77223
9.1503 149.299 -7.02421
19.2848 106.428 10.8194
4.3044 154.11 -2.34529
8.99677 149.674 -6.90382
16.7092 132.273 -6.08992
19.992 110.669 6.18109
3.32239 144.745 7.50691
3.28335 145.129 7.30624
17.4695 134.879 -9.26138
20.1367 113.682 3.7603
20.0328 112.407 5.03663
16.8301 135.45 -8.5427
4.53891 137.011 12.1566
19.1841 117.376 2.43636
18.0958 133.493 -9.11047
19.2913 117.061 2.64467
18.1395 108.951 11.5263
19.4071 109.758 8.5982
18.8616 108.781 10.4939
9.32499 149.885 -6.91433
18.6701 120.716 0.918064
7.99195 123.795 17.4803
18.951 108.936 10.3494
12.6581 145.325 -8.86951
16.3117 135.908 -7.48513
17.4768 131.535 -5.88339
17.4507 131.283 -5.56293
17.9095 109.272 12.0919
14.6457 142.209 -9.63244
7.25631 129.22 14.5149
18.7285 121.093 0.851608
21.0967 122.425 -4.46144
15.8484 112.303 13.4767
18.7439 122.746 -0.454999
15.9885 111.749 13.7198
7.16935 130.225 14.0125
22.3775 127.141 -10.6013
18.174 124.603 -0.929135
18.7303 131.023 -7.28463
15.8784 112.581 13.3302
13.4834 117.905 13.2171
16.5383 129.643 -2.0678
18.0118 135.313 -9.29999
7.11154 131.13 13.7767
14.9837 116.847 11.7152
19.0234 127.983 -4.85563
17.0705 110.463 13.3753
17.3523 110.074 13.2392
21.6406 128.816 -10.1321
20.2148 114.276 4.71371
17.9082 131.692 -5.68597
3.62124 146.589 7.40351
20.1689 115.171 4.18359
19.4259 112.221 8.00518
20.2125 114.75 4.54218
7.49893 130.595 14.0573
17.7442 110.257 12.8184
17.2106 136.689 -8.38734
7.23572 131.744 13.6408
20.2291 114.523 4.84869
17.7958 135.529 -8.36064
18.2549 111.632 10.8863
19.7644 117.062 3.63941
4.91335 140.597 10.4747
18.3945 124.805 -0.388922
4.81489 155.132 -1.51327
15.9403 115.478 11.8786
9.04413 123.797 17.4427
7.98814 127.605 16.1462
19.9451 124.17 -2.31296
20.0535 132.957 -9.86737
19.4279 134.187 -9.76944
17.9883 133.141 -6.28341
17.4509 134.046 -6.07635
6.11034 135.246 13.2607
5.91682 136.322 12.7161
8.71917 125.585 16.783
17.3939 128.138 -0.840688
17.5495 128.768 -1.60348
12.0193 121.749 14.2214
19.1684 123.241 0.215139
18.9815 112.738 9.36459
18.8276 128.856 -3.79426
18.9342 135.087 -9.2061
18.6016 129.108 -3.56361
20.8187 123.326 -2.67824
8.44677 126.894 16.4674
22.1664 122.604 -4.45936
7.84273 131.025 14.1377
18.984 134.153 -8.41309
18.1157 112.653 11.1979
18.7867 129.19 -3.8702
18.371 126.73 -1.05635
16.9665 137.568 -7.60542
20.1805 115.714 4.98715
17.9439 112.478 11.7206
12.0969 148.757 -8.15264
18.5943 126.119 -0.784845
20.127 116.187 4.8098
17.2344 129.539 -1.20849
9.85203 123.195 17.4207
17.091 131.24 -2.20424
19.9612 124.653 -1.78726
17.6146 128.99 -1.22678
16.4792 116.35 11.4194
6.11949 137.418 12.3228
6.15293 137.303 12.3766
11.739 122.808 14.5501
17.4837 132.767 -4.07533
19.9 125.3 -2.12996
16.4488 116.863 11.2013
16.603 141.144 -9.43043
16.5292 141.272 -9.39343
18.2134 136.846 -8.688
18.7814 113.208 10.1373
12.7311 121.925 13.6955
19.3445 113.356 9.08106
16.684 131.076 -0.949018
19.9556 114.619 7.00718
16.246 117.836 10.9895
17.5784 131.911 -3.19687
14.856 144.113 -8.55974
18.0843 113.044 11.7466
17.0715 115.192 11.7643
18.8569 125.419 -0.00900545
18.6145 113.309 10.5989
17.585 132.072 -3.27227
17.5961 132.164 -3.36843
18.5496 122.064 3.54694
18.5485 122.275 3.42875
8.91824 152.462 -4.65842
21.6071 123.379 -2.93527
19.7893 118.378 4.52571
18.4972 126.218 0.271018
19.1686 124.463 0.56296
19.7706 118.064 4.91758
18.2644 137.545 -8.71923
17.351 138.988 -8.26361
17.6045 137.373 -7.32097
12.9584 122.431 13.5671
16.6426 140.621 -8.26446
21.8634 123.523 -3.25035
16.0887 142.518 -8.82141
19.6767 114.572 8.23245
9.48532 126.408 16.5935
5.47407 145.331 7.90838
10.9603 124.126 15.9584
19.5726 115.211 8.02709
19.1885 125.227 0.382332
7.93137 133.611 13.5466
19.5233 114.055 9.2276
17.6521 138.51 -7.85581
16.2913 141.899 -8.24216
17.6868 138.478 -7.86427
14.0076 121.522 12.961
6.26672 141.399 10.1642
20.4278 134.31 -9.2108
5.73069 148.186 5.44995
11.474 124.252 15.3255
13.3213 148.342 -8.12512
18.4182 136.408 -7.22128
6.35961 141.41 10.173
17.5072 116.547 11.1066
18.459 128.638 -0.667805
15.631 119.564 12.1136
18.4933 127.375 0.453244
18.2207 133.228 -3.93346
15.6511 119.601 12.0973
19.525 117.886 6.62114
14.2046 147.047 -8.31537
18.7093 123.385 3.47557
19.3404 116.262 8.4106
16.2711 142.707 -8.18415
8.72614 132.044 14.2818
6.27011 144.065 8.66809
24.2665 125.91 -8.28248
17.8791 130.739 -0.886022
24.1431 128.188 -9.90576
11.2957 124.953 15.9995
19.606 119.65 5.64861
6.39763 155.053 -0.369031
6.22923 145.603 7.90409
11.5059 150.303 -5.43475
7.0284 139.948 11.2989
14.6476 146.741 -8.02238
20.314 125.867 -0.619605
15.9281 120.277 11.9187
11.2105 125.218 16.2791
13.2646 148.502 -6.85665
9.519 152.64 -3.56543
14.472 122.441 12.9277
19.5928 118.379 7.22199
21.6078 125.096 -1.91347
8.62098 134.531 13.6678
9.45909 131.05 15.1207
19.1916 124.719 3.02839
11.9997 125.47 15.3465
24.8723 126.526 -8.56813
15.1856 145.905 -7.4737
16.0184 121.109 11.9973
19.7842 127.494 -0.0950208
19.3556 116.307 10.1997
18.6175 138.899 -7.41869
9.57129 131.734 14.8152
19.3657 125.545 2.54256
7.96863 154.15 -1.06024
9.60125 131.884 14.7401
19.1761 122.968 5.0982
6.94934 145.295 8.25036
11.2245 127.174 15.8891
19.3027 124.508 3.69389
20.5026 127.042 -0.493774
20.0229 126.636 0.759925
24.883 128.318 -9.32439
19.4357 125.145 3.18243
22.5348 125.601 -2.64361
16.9914 121.372 10.8305
20.0096 126.98 0.725381
18.8183 139.285 -7.39751
8.09504 140.815 10.6831
19.3148 117.213 10.5525
15.6675 145.593 -6.72786
7.32682 146.149 7.82635
19.5521 125.11 3.6137
10.5345 131.547 14.3607
19.4754 123.964 4.82906
11.1619 129.334 15.262
19.1544 122.141 7.01718
21.2056 135.386 -7.73003
9.67118 134.55 13.6161
23.4475 130.798 -7.87313
16.1229 144.631 -6.30845
8.87155 139.289 11.1833
10.8612 152.096 -2.91215
19.6622 124.936 4.16257
8.07735 143.976 8.97829
17.7431 121.984 10.1764
17.8024 121.981 10.1204
11.4779 131.601 13.4987
10.9211 132.607 13.7241
8.82273 140.509 10.8693
8.48336 154.401 -0.166691
16.0907 123.228 12.4945
8.03691 145.138 8.54118
8.68346 141.839 10.1812
14.0735 148.832 -5.31568
9.9886 137.849 11.2428
10.3918 134.668 13.2152
22.7125 133.752 -8.02222
8.7898 141.729 10.2372
22.0827 125.952 -0.304567
22.1166 135.076 -7.99519
19.769 121.137 7.95999
23.816 130.794 -7.37304
19.9176 120.42 8.33299
8.53323 143.766 9.15584
8.19894 145.281 8.49623
20.2023 127.418 2.0373
8.74137 154.409 -0.0447842
9.86629 139.467 10.5095
23.0569 132.545 -7.26515
24.6974 129.902 -7.97742
11.0172 135.013 12.3986
20.489 127.858 1.50834
12.1911 130.726 14.0673
23.1413 133.001 -7.41081
13.2729 150.534 -4.45278
17.5086 142.55 -5.32827
11.084 135.681 11.9609
15.2822 147.865 -5.76225
25.2838 126.917 -5.98853
9.04335 143.386 9.40889
19.4641 123.056 7.9069
8.72068 154.678 0.684323
13.0698 128.478 14.9631
19.4253 121.587 9.45197
23.3127 133.792 -7.71143
11.2744 137.425 10.7908
25.9987 128.495 -7.97053
19.9535 120.946 9.24713
11.4632 152.322 -1.87257
15.9218 125.276 12.8699
12.5832 151.34 -3.0105
19.7465 125.158 6.14625
12.6686 131.33 13.7466
10.3771 141.359 9.53612
11.177 139.328 9.81413
23.8488 131.961 -6.6749
9.36012 145.444 8.00429
18.0669 123.619 10.7512
11.9175 136.344 11.1432
23.153 127.042 -1.14894
9.88128 142.906 9.32426
12.0087 136.021 11.2978
19.4391 122.526 9.36565
14.3726 128.673 13.318
8.67345 148.756 6.66695
12.2602 135.43 11.442
21.8304 137.867 -7.6221
12.0209 137.223 10.5161
11.9872 137.577 10.3041
23.1416 135.334 -7.72748
23.4356 127.181 -1.39916
8.55497 154.881 2.03383
19.7966 127.097 5.32515
13.0816 132.797 12.5682
8.23081 152.312 4.92033
19.2692 127.555 6.03106
19.2375 123.764 9.30991
16.3228 147.709 -5.5435
19.1664 123.851 9.49014
10.7614 153.176 -0.0582108
13.2946 130.773 14.2239
8.80082 150.251 5.93263
17.9749 126.68 9.35476
8.55463 154.787 2.70631
18.6674 128.287 6.87401
18.4542 127.515 7.97907
11.1479 143.081 8.02742
18.4517 126.042 9.27635
18.052 125.835 10.2403
19.8003 125.442 7.50284
22.3162 128.152 0.731026
19.8281 131.059 2.77036
18.5697 142.875 -4.78
18.3396 128.747 7.54284
9.26314 149.953 6.00793
19.8495 125.216 7.87872
22.1907 138.183 -7.15039
18.8641 132.244 3.8755
11.3738 143.974 7.44597
10.7518 153.384 0.677752
9.10179 154.427 2.78072
12.4259 140.127 8.8335
18.4306 128.898 7.53459
26.3923 126.989 -5.09915
17.8757 144.309 -4.37514
9.94534 153.622 2.03612
19.045 124.622 10.1193
16.5053 127.135 12.5596
9.38884 151.327 5.02823
8.98522 153.239 4.16426
8.93983 154.412 3.32575
9.85083 153.331 2.6369
16.3402 148.107 -4.55905
9.19553 153.543 3.75281
14.0322 134.121 11.4845
26.134 129.782 -6.48362
12.2263 142.713 7.68465
10.0452 152.439 3.55965
21.5469 139.737 -6.25265
10.1611 152.186 3.70353
26.9523 126.857 -5.03056
11.7621 145.678 6.38355
27.4271 128.181 -6.95284
19.6262 130.259 5.29171
16.7363 127.913 12.4596
24.4046 128.512 -1.76254
17.4609 126.73 12.2542
27.0921 127.708 -5.74605
20.2977 132.151 2.95867
17.8262 127.129 11.7061
18.3281 128.137 9.98344
20.8833 140.854 -5.23092
11.5769 148.39 5.15496
11.1724 152.544 2.53045
22.5857 138.874 -6.39371
27.2933 128.99 -6.50139
18.7346 129.438 8.4683
14.4832 135.905 10.6796
26.0348 130.521 -5.44583
16.0763 148.46 -2.46638
18.7335 129.302 8.89831
13.515 141.375 8.24281
18.7875 129.461 8.81688
13.0586 143.505 7.357
14.7524 150.848 -1.75865
15.3291 132.207 12.8566
19.4108 131.531 6.13356
12.5663 151.786 1.40698
27.4838 129.032 -6.12695
15.7296 131.122 13.1534
14.8861 150.662 -1.65405
18.1189 128.734 11.1433
19.9564 142.775 -3.89502
15.4285 149.893 -1.75995
13.1367 151.558 0.975822
16.8125 148.058 -2.60152
25.2777 127.972 -0.822202
14.6883 138.035 9.69361
15.6764 132.197 12.8399
19.5447 130.652 7.25725
20.0505 142.882 -3.78792
21.484 141.028 -4.57399
19.4942 131.464 7.05764
25.6896 129.148 -1.93537
20.4455 133.171 4.09992
13.4803 145.127 6.54443
16.7479 130.657 12.865
21.8288 140.767 -4.65457
14.5303 140.659 8.57855
17.2715 130.461 12.2713
18.216 132.358 8.9923
21.167 141.608 -4.01637
25.7395 129.271 -1.84236
25.3782 134.145 -5.21595
13.6022 145.396 6.41779
18.5719 131.361 9.32522
15.5834 135.959 10.8604
18.7529 130.91 9.42986
22.0688 132.061 2.5536
12.975 149.781 4.01284
15.7527 135.549 11.1191
18.436 130.822 10.3012
14.9602 139.915 8.89323
15.1768 139.063 9.25898
15.9953 134.599 11.5694
23.7043 138.441 -5.42708
17.4416 131.296 11.86
28.4113 128.768 -5.60355
25.1043 128.268 0.744621
22.0064 140.949 -4.29137
28.3972 128.874 -5.57385
14.0783 145.973 6.18156
14.577 143.344 7.57468
13.9491 147.613 5.20593
22.7344 140.517 -4.52335
23.5352 131.055 1.99946
23.9384 138.723 -5.12624
25.6212 134.398 -4.49552
14.7057 143.216 7.63954
19.7021 134.043 6.42311
17.2115 133.402 11.7089
25.78 128.479 0.533345
14.0404 151.19 2.50011
23.1485 140.364 -4.61424
26.6571 129.632 -1.61213
26.048 133.862 -4.06582
22.7904 132.837 2.62709
15.4172 141.678 8.43723
16.8832 135.238 11.3403
19.9533 146.087 -3.22553
18.3406 134.545 9.4663
14.8814 145.966 6.24083
22.0472 133.762 4.12672
14.9965 147.256 5.48386
19.528 147.165 -2.51698
16.6971 138.61 9.85694
27.6565 132.012 -4.00471
26.093 130.346 0.243182
28.9661 128.125 -2.99608
19.2133 137.461 6.68913
26.1517 131.036 -0.282551
22.0056 142.777 -2.70903
19.9273 135.573 7.07263
25.4686 130.215 1.66412
19.2445 136.638 7.41823
19.2453 136.607 7.56389
27.9763 131.916 -4.02633
27.1316 128.984 -0.0206272
21.7012 134.945 4.7295
16.3111 141.984 8.48315
19.55 137.441 6.50105
17.681 138.544 9.01866
17.7677 137.827 9.48156
22.6967 134.215 3.86775
20.3074 146.695 -2.27267
20.4778 146.441 -2.35414
28.2912 131.817 -4.05249
15.8132 146.804 5.81158
18.3472 139.6 7.37214
26.2066 131.519 0.105572
21.3395 135.984 5.16488
16.9861 140.473 9.1892
16.2974 150.226 2.24568
16.574 144.906 6.23637
25.0545 131.554 2.2688
25.4989 137.064 -3.13601
18.4029 140.212 7.16786
17.2907 149.715 1.2691
28.3775 128.719 -0.941818
23.0771 134.549 3.67263
18.6356 147.385 0.960149
25.2787 138.675 -3.56319
19.7854 147.383 -0.883759
20.8139 137.452 5.62435
22.6667 135.09 4.31698
17.2859 144.878 6.04526
17.8445 149.381 1.47853
17.6516 144.091 6.55381
23.8464 141.789 -2.59281
20.2438 138.76 6.48184
26.9356 135.159 -2.46232
26.5078 135.71 -2.1464
25.3964 139.285 -3.12131
23.4525 135.16 3.8194
26.2252 136.281 -2.04952
20.0134 139.053 6.79851
18.3448 142.684 6.8036
23.637 135.204 3.61883
17.307 146.321 5.72384
19.9167 146.755 0.805898
19.475 140.664 6.77245
22.2175 145.087 -1.76039
17.0281 149.138 4.15227
17.9826 149.153 2.48888
28.2558 131.985 -1.43638
18.7664 142.77 6.50206
27.5099 132.59 -0.529189
18.6532 148.823 1.743
28.1919 133.965 -2.72877
25.6102 134.286 1.66018
27.5873 131.862 0.208968
19.5269 141.756 6.37576
18.0612 148.957 3.05862
28.9503 132.93 -2.96996
27.1385 132.421 0.78455
22.7561 136.94 4.84499
22.447 137.568 5.06577
30.4801 128.07 -1.29814
19.8196 146.874 2.17626
28.3427 132.556 -0.975958
18.2383 147.187 5.13719
31.0223 128.634 -2.07585
25.3848 137.634 0.5252
27.8522 134.69 -1.41592
27.5399 134.983 -1.06353
22.5133 145.778 -1.06216
24.4158 136.691 3.23148
30.3472 129.924 -1.70034
25.1563 141.612 -2.19387
18.9394 148.09 3.49967
26.5257 136.62 -0.353638
25.0063 138.376 1.00733
22.9159 145.453 -1.02842
19.3683 145.352 5.47705
23.8238 137.289 4.41192
29.1231 132.505 -1.00605
22.9666 145.456 -0.768838
24.312 138.789 2.42458
25.2838 141.068 -1.06577
30.7261 130.153 -1.61589
28.0346 135.026 -0.840697
23.0667 138.638 5.05359
25.2866 141.713 -1.1048
22.7358 139.704 5.22339
21.0163 146.292 2.82319
20.1094 147.226 3.9931
27.6158 136.674 -0.497669
27.3278 137.9 -0.884306
24.5432 140.454 2.09333
22.4224 145.245 1.91472
21.7832 142.132 5.97399
21.4197 146.451 3.28381
24.5867 141.18 2.22138
27.2661 138.015 0.0883311
23.5715 140.27 4.97888
28.6874 136.255 -0.766174
24.9861 143.806 -0.320559
25.2399 143.418 -0.43671
23.3474 144.761 2.34326
22.2122 143.356 5.58857
26.4948 140.006 1.0013
26.5191 139.508 1.45784
24.8931 142.016 2.48415
26.1172 140.408 1.65854
26.5865 140.049 1.43592
22.7571 144.878 4.54581
26.1829 141.554 1.61018
25.0372 142.56 2.85667
