ply
format ascii 1.0
comment Created by Open3D
element vertex 1917
property double x
property double y
property double z
end_header
2.17664 124.57 13.3945
16.9381 109.636 -2.53901
7.88818 90.5797 -13.0607
-8.56107 86.2965 -10.3546
-20.0278 89.8831 -3.75234
-18.1187 108.848 9.15937
-9.83796 86.2346 -10.0013
-3.55077 85.0414 -13.0795
-7.41754 84.5564 -12.1447
7.06928 124.993 11.7571
13.6665 98.5749 -9.58567
-17.7054 112.487 11.4088
-16.3992 114.635 12.4701
9.15864 91.5901 -13.095
-18.1345 109.676 9.48637
13.9417 100.265 -8.56454
17.7643 111.134 -2.11379
3.20091 88.5176 -13.2342
-1.60737 86.088 -13.3171
-3.53163 124.471 14.9153
-11.612 119.642 14.2434
-17.2385 87.7792 -6.66798
-11.5625 85.6189 -10.2698
-16.9748 87.8829 -6.74099
-19.3329 100.833 3.35338
-3.29559 85.7912 -13.1024
-14.5012 88.1302 -7.51396
-10.8721 88.3375 -8.64269
7.06544 90.797 -13.1957
-11.5636 86.3558 -9.84498
17.3421 115.353 0.79241
-16.3481 89.2013 -6.15271
2.48624 88.3691 -13.3837
-6.10023 84.188 -13.3723
-14.2268 118.132 13.8298
10.8722 126.874 11.245
0.403494 124.394 13.1444
-17.1671 114.213 11.987
-10.8871 87.906 -9.11908
-18.7569 104.11 5.25556
-8.72648 122.308 14.7887
-18.3245 108.682 8.35793
-10.2 88.8299 -8.75995
-8.64665 122.408 14.7854
-3.03157 124.45 14.2584
-17.3582 114.001 11.7532
-13.0606 89.7551 -7.20575
15.8363 105.431 -6.14771
-1.58258 124.111 13.3637
-9.62844 87.99 -9.74381
13.3391 98.7199 -10.1349
16.2878 106.926 -5.32819
17.5232 118.506 2.47125
-14.2814 88.5205 -7.87191
15.8455 105.617 -6.25027
-19.7537 94.9456 -1.43949
13.2308 98.8518 -10.2576
17.4627 127.225 8.53891
-12.4567 120.167 13.9876
12.6483 127.725 10.5235
6.722 91.5755 -13.4144
15.9294 129.045 10.2165
-19.4703 99.8129 1.56442
-19.1573 100.971 2.2698
-9.75049 122.618 14.4945
-12.395 120.563 13.9247
-11.6143 121.079 13.9802
-19.5712 99.3725 1.16872
-18.67 109.223 7.89741
17.0768 115.217 -0.380938
-19.0804 101.612 2.52391
-19.5785 95.3452 -1.80713
-14.3182 89.1856 -8.08325
-7.47538 86.6533 -12.3138
17.9011 126.69 7.4793
-0.15263 125.103 12.6498
-18.0009 114.038 10.9818
-17.8666 114.356 11.1495
19.3927 125.581 6.08328
-17.6313 114.948 11.4441
16.5826 115.606 -0.125105
-5.53647 125.731 14.8676
17.1705 129.261 9.41128
-15.8072 116.662 11.9664
-14.5939 89.2417 -8.15997
-0.446992 88.3083 -13.8225
-2.85962 87.3395 -13.6757
5.98076 91.9074 -13.5376
-9.34596 88.9872 -10.3217
-13.4849 90.2945 -7.95942
-9.1806 88.5319 -10.7464
15.894 129.651 9.93375
16.1307 116.198 0.140104
17.8961 114.362 -1.80368
17.3175 119.954 2.33443
18.0828 126.829 6.96671
12.7057 99.4715 -10.8534
17.2888 119.051 1.53482
9.55511 127.543 10.3497
13.6809 128.635 9.66801
17.3191 130.181 9.49531
15.8241 106.007 -7.3565
-19.4991 100.975 1.45199
-9.04988 123.951 14.2444
15.488 104.587 -8.32482
-10.4434 89.9166 -9.78031
20.0796 123.863 3.83463
16.2427 109.189 -5.36323
-14.0581 90.3466 -8.26129
8.53871 93.9323 -13.6416
8.77683 94.1093 -13.6062
-19.7958 95.563 -2.52547
16.1175 116.206 -0.40124
-19.1999 109.821 7.38381
-19.6846 96.8215 -1.79888
-17.1628 92.2391 -5.98115
-14.4885 90.0681 -8.48167
11.3504 128.533 10.0126
-15.7855 118.752 12.5238
17.3177 129.905 8.88263
-19.9035 95.5835 -2.68323
1.74389 90.2154 -14.1924
-19.0783 111.752 8.5676
-20.0432 95.0921 -3.07912
10.8558 128.506 10.0418
19.2265 122.692 2.92024
10.8885 97.2259 -12.4397
-17.7825 114.624 10.1318
10.3768 96.6158 -12.7348
10.317 128.347 10.0646
-13.1585 121.197 13.1781
18.3383 127.009 6.26622
-20.0396 96.515 -2.20609
20.2415 123.722 3.14153
-12.9351 121.519 13.2291
-2.78292 125.734 12.66
-2.98968 125.713 12.7085
17.2648 128.869 7.80725
-20.0085 96.9403 -2.04704
16.4974 110.602 -5.09978
12.3185 128.944 9.49772
12.7123 101.179 -10.5776
-19.7966 105.14 3.64917
-14.7744 91.0803 -8.27857
15.5135 117.036 -0.317453
15.4818 105.098 -8.93201
6.89579 129.116 11.2508
5.69836 129.393 11.8315
-17.6603 93.0808 -6.05291
17.2759 112.311 -4.56275
-9.32453 88.3986 -12.3913
16.2874 108.937 -6.66141
16.4056 130.881 9.05136
-5.94097 126.466 13.6812
12.3938 129.255 9.21501
-3.23177 126.126 12.4488
12.7317 129.371 9.13114
19.9915 124.451 3.02163
-20.146 97.9861 -1.87618
-4.5867 88.6433 -14.0788
-10.2214 88.9674 -11.8713
-19.4955 92.7471 -5.90719
10.3206 98.042 -12.6253
17.9469 120.653 0.922264
-4.03105 88.9885 -14.1963
0.125899 90.6137 -14.6038
-2.25402 89.4958 -14.5877
-20.4189 103.188 1.611
14.9728 130.703 8.91488
1.70711 91.8546 -14.3355
-18.3771 93.4088 -6.18645
15.1602 105.251 -9.48821
11.0693 129.46 9.29351
2.6107 129.143 12.0384
3.18548 129.524 12.1066
8.33709 95.8579 -13.8802
-18.2601 113.652 8.21063
-10.8382 89.8931 -11.4743
-20.7637 101.367 0.225696
18.1046 130.506 7.46764
-18.8976 111.522 6.83646
-16.2675 119.906 11.9074
-20.7231 97.7823 -2.43353
14.85 130.826 8.73462
-18.5862 111.953 6.92619
-9.03308 89.0871 -12.8586
8.32468 96.2255 -13.8975
-7.98733 127.458 14.2669
-18.2345 113.26 7.65473
-6.33594 127.097 13.4009
11.6511 130.03 9.06341
11.411 100.126 -12.357
6.15802 95.0271 -14.1739
-20.7977 98.7048 -2.06305
4.50184 93.8673 -14.4524
19.109 121.546 0.252951
-6.72992 88.5619 -14.3846
1.4175 92.5147 -14.4494
-21.1086 96.8426 -3.44795
19.8052 122.27 0.399433
-18.2904 112.199 6.56696
18.3176 127.625 4.69805
20.8339 124.523 1.58224
-18.0976 112.965 6.94833
-16.2183 93.8614 -7.44627
-14.2676 93.0494 -8.74904
15.1022 106.144 -9.68744
9.25451 98.6395 -13.1747
16.2073 110.991 -6.83438
-19.7793 109.481 4.70322
9.4737 99.2116 -12.9998
-21.3772 99.0696 -2.29772
-6.5073 89.4058 -14.4854
-8.31093 89.6329 -13.7175
17.791 120.462 -0.806655
16.1713 132.267 8.19631
9.7767 131.115 9.58027
-17.8707 113.002 6.28766
-15.7349 122.069 11.9779
-15.1009 93.1327 -9.02418
-15.0375 93.1288 -9.07929
2.89443 94.0498 -14.7368
10.5661 131.262 9.28397
12.5325 103.689 -11.2112
15.8989 132.262 8.11587
12.8897 131.149 8.32996
-2.01539 91.3354 -15.026
18.5007 130.319 5.73894
-17.8391 94.2585 -7.3689
-3.90276 127.583 11.5733
6.87164 131.8 10.765
18.287 121.021 -1.01166
15.4898 116.533 -3.25118
14.0823 106.022 -10.3577
-6.90948 128.219 12.9193
-18.2986 94.3396 -7.42054
-12.3494 90.7559 -12.0985
8.13077 98.2037 -14.0201
15.9015 115.827 -4.1179
20.2047 126.676 2.14705
13.9664 106.305 -10.3387
3.0514 131.268 11.3926
-1.31234 128.775 11.0938
-7.79707 90.0153 -14.4815
17.3989 131.406 6.3731
-20.3754 95.8749 -5.85917
2.63335 130.958 11.2342
-16.673 117.295 8.19064
-19.904 95.3032 -6.60668
8.42347 99.2558 -13.735
-17.8088 112.194 4.75965
-20.8546 106.017 1.37839
-17.6407 119.531 9.95018
-17.3308 118.134 8.82952
-10.2364 127.845 13.2845
14.4732 107.931 -9.71208
13.5424 106.224 -10.6268
20.224 127.263 2.10332
15.0304 118.009 -2.75968
25.7977 126.402 -0.522915
-1.63686 129.211 11.1195
-12.2873 126.053 12.537
-12.2796 126.085 12.5393
-21.2078 104.341 0.0538805
-9.64725 91.0204 -13.5942
11.9652 103.841 -11.9929
-17.0726 116.08 6.98869
8.00059 132.439 9.84364
-17.7393 112.218 4.34148
-14.7463 92.6196 -10.8392
-12.6569 92.2095 -11.8741
-19.2578 95.3289 -7.32558
20.2764 124.787 -0.142359
9.84479 132.571 9.10266
3.88576 132.626 11.2301
18.2627 121.09 -2.12445
-10.3498 91.9276 -13.045
-19.4959 95.617 -7.1792
-17.1229 114.566 5.58602
0.378503 94.4842 -15.0085
11.9279 104.567 -11.8473
25.5268 126.58 -0.860595
-8.18667 91.5072 -14.2045
-1.34017 129.807 10.8859
-3.01262 129.349 11.1436
15.2839 118.347 -3.20618
15.1118 118.228 -3.26399
-18.6694 111.074 3.48151
0.535952 94.7476 -15.0018
-4.6364 128.61 11.089
18.9716 122.582 -1.54995
-19.7914 109.53 2.70646
0.195591 94.5489 -15.0951
-7.5622 91.612 -14.4778
19.638 124.186 -0.659709
5.20437 98.3718 -14.1183
-19.359 95.7688 -7.35919
-21.3114 103.296 -1.30656
4.14295 97.6004 -14.3722
5.14953 133.641 11.1437
20.3663 128.227 1.86143
-5.41719 92.0541 -15.0549
16.4203 133.812 7.23255
-13.5624 92.7789 -11.6881
21.6616 123.722 -1.89648
-4.46454 92.5272 -15.1232
11.7823 105.489 -11.5619
21.2744 127.345 0.788334
28.5198 128.25 -1.12307
28.1353 127.74 -1.3779
5.95488 133.88 10.8238
-12.5354 93.2201 -11.9003
-8.41463 92.3233 -13.9964
-20.2638 108.229 1.5889
-2.5104 130.222 11.1292
17.2933 132.35 5.68927
9.84821 102.249 -13.3055
-19.67 109.645 2.3857
-19.633 97.1873 -6.582
26.4685 126.78 -1.56459
5.2655 133.926 11.0243
19.8939 126.651 0.618431
12.9267 107.707 -10.56
3.2095 96.9284 -14.8857
-20.7091 107.254 0.939713
15.5246 134.367 7.64853
19.5609 127.612 1.37563
-19.4297 98.2692 -5.98296
-7.12318 92.4189 -14.5167
-16.8022 115.206 5.24791
-21.2731 103.119 -1.86649
-2.79691 130.188 11.0386
19.8555 125.457 -0.374074
26.2739 128.241 -0.643471
3.51948 133.281 10.9764
26.9863 128.418 -0.780619
15.1268 110.842 -9.25326
-16.4232 118.068 7.01511
13.8224 133.898 7.72848
-1.0976 94.2183 -15.5139
20.3697 123.785 -1.84867
-19.3586 99.2277 -5.52818
2.99975 97.0165 -14.9971
14.696 110.533 -9.43491
16.0594 111.951 -8.90502
15.4563 134.49 7.46052
-19.3159 98.3046 -6.31386
-16.6083 115.885 5.33741
26.9169 128.053 -1.25136
27.8995 129.187 -0.798822
4.36556 98.9199 -14.2573
6.0842 134.43 10.611
15.0882 111.157 -9.30396
-7.29036 129.55 11.7761
-15.3796 125.815 11.9276
16.0371 112.069 -8.99707
24.0482 127.089 -1.0554
-11.6092 128.722 12.6377
15.9677 112.826 -8.48297
-16.6208 123.48 10.603
18.7534 127.515 1.02864
12.2414 107.437 -11.0983
-1.99485 94.0312 -15.716
12.1918 133.278 7.45999
-20.2042 107.991 0.608271
22.2329 128.492 0.391706
20.4105 122.57 -3.23001
-13.0232 94.0683 -11.942
16.5038 115.24 -7.13801
11.9395 133.44 7.52059
21.2315 124.353 -2.27729
-7.70701 93.8632 -14.0212
27.0442 129.617 -0.582099
-12.5092 128.518 12.5228
-9.60466 94.2622 -13.1204
17.7451 129.708 2.69767
23.893 129.782 0.574155
2.09698 97.0895 -15.2472
1.91941 132.448 10.1971
-6.51849 129.206 10.8302
-17.9432 111.599 2.18046
1.7349 97.0495 -15.2182
-19.5051 109.343 1.07484
12.2127 133.518 7.27449
28.073 129.863 -0.9327
22.8824 129.434 0.572223
17.7638 132.16 4.31217
17.6418 130.956 3.48105
24.2397 127.241 -1.53028
-19.6298 100.48 -5.31706
20.4833 123.57 -2.85199
13.1385 109.915 -10.0899
15.0949 116.964 -5.7704
-18.3491 111.027 1.7192
-0.0183927 96.0834 -15.4613
18.5182 129.162 1.76629
14.7191 111.531 -9.56172
-12.059 95.1424 -11.9148
9.27917 103.716 -13.2849
13.881 135.247 7.7288
-16.6212 123.673 10.1332
-2.29373 94.8293 -15.6221
20.533 122.57 -3.73643
-17.4894 122.048 9.11228
26.3453 128.835 -1.44006
14.8163 117.857 -5.27799
9.29044 104.332 -13.0473
20.5015 124.325 -2.6528
-16.824 114.824 3.64622
-17.2748 119.762 7.3384
17.4813 133.419 4.90654
-17.8532 113.244 2.84687
17.5018 133.375 4.8557
18.7289 127.517 0.191591
-20.9416 105.283 -1.81897
-3.5949 94.7398 -15.5137
10.9317 107.145 -11.7298
15.1752 112.181 -9.60776
11.962 109.158 -10.6715
28.6143 129.574 -1.87527
-20.1969 106.721 -1.11443
-2.28708 131.733 10.5142
15.8893 112.916 -9.40218
-18.613 96.5995 -8.98582
10.3492 134.455 8.00595
-2.17982 131.759 10.4739
14.3153 111.679 -9.77288
24.5356 128.886 -1.03123
24.4853 127.321 -2.16575
18.2605 129.672 1.67967
-11.6345 96.1813 -11.8585
18.6198 129.242 1.23059
23.5021 130.201 0.174507
19.9622 127.628 -0.440471
16.4165 115.376 -7.99526
15.2755 116.761 -6.61917
-9.37639 95.8857 -12.9362
3.66344 100.339 -14.3372
14.467 111.944 -9.81259
-6.43468 129.864 10.4054
19.8563 123.776 -3.23691
-20.7798 102.542 -4.19155
-16.552 116.515 4.35051
5.23906 101.406 -14.1796
20.3826 125.462 -2.24001
18.319 126.723 -0.618114
4.55804 101.158 -14.1475
-20.3747 107.832 -0.588668
24.3948 127.493 -2.22228
10.4642 134.661 7.77932
8.3819 103.518 -13.8506
-21.2403 103.416 -3.51362
14.7814 118.467 -5.39216
19.6887 127.94 -0.31689
21.7851 129.653 0.166038
-12.1093 96.3742 -11.8152
-21.212 103.343 -3.62716
-17.1853 122.84 8.92695
24.3726 129.023 -1.26972
-17.3601 118.492 5.83012
20.9579 123.159 -4.30491
18.9122 128.987 0.59789
26.4741 129.212 -1.90942
18.545 129.889 1.36028
18.1017 126.345 -1.05214
-21.393 104.1 -3.13544
-16.704 124.187 9.6092
-8.28222 96.0901 -13.582
9.19707 105.751 -12.8164
15.6528 113.644 -9.42394
-17.308 122.77 8.62406
-16.7772 115.521 3.22564
-9.4352 131.063 11.8003
25.1696 128.898 -1.93117
4.56544 101.766 -14.1819
0.510074 97.7428 -15.6659
-17.6142 98.6832 -8.61674
20.9984 129.87 0.175099
-21.4133 103.902 -3.55616
-16.0674 126.194 10.5396
-20.9806 103.088 -4.32761
-17.7477 118.45 5.5572
-16.4349 125.82 10.3576
20.628 131.389 1.28437
-17.7777 99.7321 -7.94337
4.63434 101.985 -14.2202
-16.7756 125.372 10.0886
18.377 125.219 -2.39265
19.9041 130.932 1.17005
26.5135 129.65 -2.11635
22.8979 126.945 -2.79781
11.576 110.042 -10.9613
19.8926 129.834 0.27191
14.6741 119.796 -5.10745
-16.7851 115.746 3.0141
19.6377 124.279 -3.67431
19.3789 128.311 -0.707716
20.8696 131.924 1.33811
18.3104 130.458 1.17063
-16.8149 124.231 9.05131
12.7343 111.477 -10.5363
25.9387 129.887 -1.98118
25.4173 130.116 -1.6602
15.9524 116.956 -7.78259
-4.83311 132.059 10.363
-17.703 119.929 6.17666
19.6683 122.208 -5.34108
24.1779 126.916 -3.55318
2.2142 134.555 9.64618
-10.4426 130.706 11.3061
9.70277 108.152 -12.0048
8.62457 105.877 -13.2685
24.1167 125.132 -4.9218
-13.2607 129.174 11.1228
-2.55665 96.8275 -15.8758
1.38675 99.2868 -15.5356
15.0752 120.895 -4.84404
-16.8058 125.215 9.4687
-14.9864 96.6738 -11.7112
21.352 126.39 -3.1781
-14.0782 97.202 -11.6807
-6.93507 131.222 10.1942
26.8923 130.78 -2.10085
-16.8441 101.119 -8.03017
-1.06213 133.666 9.7746
-16.8204 125.144 9.17554
20.4112 123.846 -4.88076
15.2808 115.306 -9.20998
21.6423 131.738 0.317846
-19.3077 111.28 0.0271377
-8.42765 130.727 10.1226
-18.7532 114.032 1.72091
27.1352 130.553 -2.56626
-13.1981 97.7672 -11.94
17.8478 134.161 3.26764
-16.3147 97.9291 -10.7332
-18.1064 101.879 -7.27188
27.7313 130.856 -2.60928
-8.25214 130.872 10.041
23.4015 124.029 -6.05344
-1.88747 133.699 9.7808
5.95599 137.438 9.68731
-20.8121 103.566 -5.21698
22.7077 127.647 -3.25038
-10.7412 98.4269 -12.4777
18.4554 133.315 2.26438
-5.58955 98.1741 -14.5106
17.6789 125.306 -3.24927
19.4272 133.88 2.27587
-5.69082 98.3657 -14.389
16.0339 116.612 -8.95791
25.1203 129.59 -2.85049
19.4645 124.175 -4.74883
24.0799 125.295 -5.57893
22.0501 133.344 0.910963
-7.27378 131.921 10.1771
18.7634 128.938 -1.13944
-16.7193 120.645 5.3841
27.6411 131.844 -2.20761
25.4193 131.845 -1.464
-15.3374 97.7654 -11.5992
5.16761 103.856 -14.4506
19.4513 134.212 2.31804
-13.0034 129.418 10.2882
16.079 122.123 -5.30292
6.70293 104.979 -14.3519
14.6089 121.521 -5.30867
15.8473 116.393 -9.44194
-15.4543 97.9714 -11.6789
-10.2682 131.955 10.868
27.2912 131.774 -2.47723
18.5017 122.73 -5.89894
-15.0757 126.682 8.75176
-15.5079 98.162 -11.5759
18.0471 121.501 -6.62986
-15.2902 98.7578 -11.2432
-17.0894 116.251 1.94253
24.2397 129.457 -3.16514
14.5264 120.054 -6.50346
14.5531 119.211 -7.12402
-14.8853 99.6555 -10.8172
-13.3794 129.368 9.98345
-12.6774 129.643 9.90656
15.0056 121.9 -5.40977
4.64274 104.176 -14.5056
24.06 133.005 -0.651165
20.7726 123.083 -6.62589
27.0725 131.928 -2.49514
-15.8698 101.287 -9.41252
22.929 134.793 0.920742
18.8351 122.568 -6.43673
10.0627 110.763 -11.8397
17.513 121.121 -7.03413
-18.3789 103.154 -7.32005
-16.334 126.243 8.52595
24.5172 127.638 -4.84668
-17.1537 124.835 7.74764
14.4455 120.593 -6.4494
18.4229 128.355 -2.27795
7.21588 138.047 8.60271
11.6337 112.313 -11.4799
-20.9746 107.136 -3.73031
16.5972 128.069 -1.9365
14.5504 121.367 -6.08873
-16.5951 123.171 6.11488
-15.7774 126.546 8.24303
-15.4603 128.53 9.54582
24.1776 131.49 -2.27536
-16.0927 101.8 -9.46823
-6.25391 100.01 -14.2359
17.6809 125.162 -4.59692
26.7313 132.713 -2.38763
-16.4955 120.871 4.30406
-20.4075 110.928 -1.46146
23.7951 127.745 -4.97297
-8.69044 100.083 -13.4133
-1.8064 99.7696 -16.065
-16.9767 124.602 7.09444
-12.6728 99.0858 -12.7556
7.7501 107.588 -13.8462
-19.2255 105.366 -5.974
-20.4571 111.073 -1.44298
1.69031 136.136 8.74649
-16.0343 122.403 5.10232
6.24029 106.116 -14.4917
18.2538 129.053 -2.2712
6.77188 106.816 -14.2164
16.9366 124.687 -4.96645
-7.45521 132.764 9.41343
8.75632 137.682 7.21253
26.843 132.849 -2.70158
17.1876 136.29 3.13697
13.1954 115.87 -10.147
18.7906 135.894 2.25128
8.14552 108.936 -13.3623
15.2159 117.088 -10.0219
3.72337 105.007 -14.6618
16.1487 135.957 3.1897
14.4718 120.782 -7.11927
16.2538 125.404 -4.48955
-16.5911 126.102 7.55522
-16.564 124.58 6.42786
1.29688 136.3 8.54941
-13.9763 130.799 9.95184
17.3412 122.981 -6.7158
18.2052 135.998 2.2917
13.9241 116.588 -10.1403
-13.7962 100.319 -12.0919
13.8429 138.232 5.40313
10.0189 112.076 -12.0587
23.0341 130.462 -3.48628
11.7377 138.365 6.15366
15.9858 126.001 -4.22378
-18.3628 115.789 0.521588
17.1585 122.933 -6.87093
11.3459 138.133 6.07016
17.651 130.726 -1.48631
14.1297 119.972 -7.99019
-20.2431 107.057 -5.17762
-15.9835 123.714 5.27778
4.87379 106.101 -14.765
16.4684 120.048 -8.85094
22.6875 137.872 1.70825
25.7043 134.588 -1.72051
17.488 130.155 -2.01841
-21.054 107.987 -4.39254
13.3248 116.943 -10.1139
25.6311 132.798 -3.06568
17.163 137.686 3.40785
13.1854 139.419 6.04971
26.13 132.351 -3.58955
12.0018 114.205 -11.6537
22.4891 127.266 -5.97064
14.2284 138.646 5.09934
9.37877 138.512 6.70408
16.6664 123.113 -6.93873
-9.10247 101.29 -13.543
-16.4696 121.196 3.33136
1.29719 103.401 -15.7116
14.6809 121.62 -7.35143
-1.73283 135.387 8.29727
18.5706 129.401 -3.18244
24.073 136.495 -0.0593441
-13.1076 128.842 7.50004
1.19764 136.907 8.23935
-6.34929 101.611 -14.465
-17.1637 119.721 2.34252
15.4595 127.361 -3.65096
-7.12403 101.624 -14.1918
15.6564 137.483 3.5333
25.9674 132.496 -3.68639
-16.769 120.261 2.55004
12.2544 116.476 -10.387
8.93175 139.112 6.94612
-6.10083 101.834 -14.5731
23.0591 130.976 -3.91844
8.66884 111.68 -12.7433
18.9524 139.415 3.54293
9.84446 138.865 6.33344
22.7417 136.161 -0.161519
9.70554 112.85 -12.3437
3.18401 139.318 8.91193
15.0349 137.689 3.57081
4.20976 106.897 -14.8125
22.0275 139.273 2.15344
24.8884 132.872 -3.49121
23.0109 131.085 -4.12397
-13.0476 101.436 -12.7616
-4.29942 135.066 8.30698
4.05167 106.928 -14.8424
-19.7204 115.304 -0.470645
5.79771 109.013 -13.9873
-19.7438 115.315 -0.492948
-2.09635 135.762 7.96401
-14.5839 130.152 8.28465
11.6217 116.787 -10.5376
18.0188 131.439 -2.27396
16.1974 129.781 -2.8644
-19.0324 108.105 -6.05505
23.1631 134.985 -1.61133
-16.8634 119.363 1.239
24.2337 134.724 -2.23015
13.9414 118.304 -10.4278
21.5949 124.791 -8.46794
15.4798 138.643 3.60274
23.2765 135.608 -1.32184
-18.5082 106.63 -7.45572
24.3238 134.498 -2.51698
19.1725 140.322 3.45041
9.26975 139.86 6.60214
24.3578 134.603 -2.48606
7.09944 140.404 7.73996
-9.35983 102.591 -13.6424
-20.7577 109.425 -4.74428
10.9814 139.159 5.43819
17.4332 139.268 3.20518
21.4453 127.903 -6.40145
0.560901 137.452 7.79169
-6.93945 135.021 8.65004
11.0654 114.766 -12.2511
2.01734 106.866 -14.8057
15.6431 124.005 -7.31334
-20.5136 114.926 -1.11223
22.9883 136.129 -1.19821
5.07229 109.273 -14.1796
-14.1406 127.836 5.87476
24.665 135.767 -2.08585
14.6101 123.129 -7.62715
18.1724 127.181 -5.9801
-16.7581 119.639 0.870572
-17.3638 121.13 2.12748
24.8184 135.99 -2.05094
-18.5052 107.399 -7.34697
-17.7038 120.258 1.60381
-11.3511 133.297 8.69942
-20.1657 109.065 -5.60443
-17.1612 121.994 2.62107
24.5927 137.776 -0.748193
0.869558 105.028 -15.9164
-17.1179 119.733 0.968252
24.609 139.921 0.766734
19.1303 141.086 3.48912
-12.1952 103.521 -12.4669
16.2923 130.261 -3.30138
13.3012 140.635 5.17398
-2.62486 137.1 8.23893
-9.85358 133.72 8.30716
-13.6638 132.115 8.46984
20.8968 124.646 -9.05524
-18.2919 121.072 2.16357
15.8163 122.272 -8.98751
-20.8595 110.52 -4.52968
9.07255 140.623 6.54344
11.4309 118.176 -10.4184
-17.1282 119.604 0.639044
-15.1956 125.441 4.14094
-15.074 122.176 1.7187
-8.5389 103.537 -13.9785
19.8755 141.697 3.4026
6.22797 141.393 7.98265
-16.7589 105.308 -9.86171
-13.1502 103.94 -12.1158
-4.66189 103.984 -15.0812
22.8642 131.591 -4.9467
8.19108 112.962 -13.1702
22.9663 133.225 -3.84517
-17.8713 119.541 0.601265
-15.5 126.449 4.711
-17.0484 123.267 2.96515
16.4726 130.52 -3.62709
-17.0466 123.435 3.07456
-18.725 109.164 -6.58395
-14.7775 131.531 8.08121
20.9557 142.925 3.66502
-13.2975 105.148 -11.4258
-10.1472 133.985 8.166
0.649668 105.637 -16.0382
8.68624 141.354 6.7693
14.0721 120.856 -9.86091
-18.4329 108.012 -7.64785
18.9778 122.978 -10.0783
15.8722 130.212 -3.81844
-8.87407 134.36 7.86541
16.5373 130.613 -3.77128
-12.859 104.741 -12.0068
-16.4191 125.079 3.84388
1.39341 107.424 -15.1009
15.2808 129.668 -4.02359
-16.1173 122.166 1.62643
-15.3737 121.233 0.689868
-12.9717 105.231 -11.6454
-20.9395 110.977 -4.73235
-21.1252 120.844 2.38904
-19.5654 121.544 2.34117
-6.69765 104.491 -14.4402
14.82 127.106 -5.80246
8.23608 141.891 7.12577
-3.21087 137.844 8.24383
-18.4035 120.028 0.786398
-17.8792 107.591 -8.36009
-17.8254 119.321 0.026704
-3.22541 138.007 8.28127
15.2951 129.957 -4.05722
-23.3672 120.039 2.38483
24.2698 138.019 -1.48205
-19.4529 109.862 -6.33141
-22.5899 120.907 2.68523
19.7449 143.646 4.09889
-17.638 119.83 0.128577
-20.6198 120.658 1.76644
-15.6643 106.519 -10.149
-16.9724 119.778 -0.191716
-12.9428 105.866 -11.6027
-17.7814 125.342 4.06979
-1.19387 105.4 -16.0877
18.5972 122.632 -10.6839
23.3684 134.866 -3.58795
20.7511 128.037 -7.58097
-15.4284 132.032 8.01353
-22.9376 119.706 1.79809
-14.4842 132.422 7.94216
11.5225 119.344 -10.6115
-13.9991 128.401 4.86011
-20.7663 121.217 2.07467
-15.5971 121.615 0.521799
-19.286 124.786 4.07926
16.3834 126.463 -7.29895
-18.6901 125.207 4.11446
-21.5113 119.639 1.10266
14.5477 128.22 -5.46505
-15.7851 121.318 0.239281
-22.0502 122.408 3.19254
-18.9085 110.105 -6.75828
10.3087 118.215 -11.232
-15.6621 122.558 1.00432
0.327899 139.4 7.46852
-24.5488 119.433 1.8757
-16.6088 121.603 0.627535
-2.91801 105.507 -15.7498
1.12866 108.142 -15.2853
13.8744 119.682 -11.4959
-3.7658 138.4 8.09823
-7.0701 105.146 -14.667
-16.9594 120.555 -0.158372
16.2252 122.917 -10.1433
15.0322 123.796 -9.115
22.9702 142.887 1.79697
14.7192 141.419 3.62498
-16.7799 120.962 -0.00323416
-10.1277 104.967 -13.8461
-12.1441 133.762 7.51225
-24.1884 120.396 2.14763
14.5923 128.006 -6.0486
-15.2928 108.706 -9.39418
-9.67589 134.636 7.24501
7.61845 142.869 7.07004
24.0677 138.314 -1.98853
-15.7239 121.852 0.17675
-14.9833 108.072 -9.97996
-16.485 122.198 0.681762
-17.6517 121.188 0.358854
18.5108 123.554 -10.6711
11.0335 120.068 -10.544
24.4791 137.544 -2.73362
-11.2602 106.088 -12.7468
19.3398 124.631 -10.2059
-23.2496 122.183 3.00264
-19.9699 125.583 4.2873
9.52653 141.658 5.43352
-20.1668 110.934 -6.19377
-2.17359 139.633 8.07008
24.4781 141.25 -0.152131
-0.927021 139.833 7.75419
-16.5382 121.616 0.163719
4.26259 112.397 -13.7748
-18.7808 126.971 4.76153
16.5163 142.205 3.26503
-20.7785 116.293 -2.221
6.31727 113.743 -13.6311
-1.74365 106.383 -16.1036
14.9349 124.476 -8.98615
7.6267 114.405 -13.6692
-11.637 134.723 7.69171
-24.7571 120.231 1.87392
-5.04325 137.591 7.36468
18.4518 123.952 -10.6972
2.3238 141.449 7.53435
-2.655 139.849 8.12237
-9.61472 135.101 7.13019
-17.9022 109.812 -8.11726
3.13488 111.353 -14.4139
0.056207 107.098 -16.3924
-20.8168 125.876 4.41787
17.3089 130.433 -5.73194
19.752 129.908 -6.96923
-8.14886 106.089 -14.2577
-23.8963 121.777 2.54561
-15.222 109.34 -9.44812
3.00963 142.048 7.62078
-8.98897 106.164 -13.9542
-20.6427 126.124 4.47371
-6.13705 136.938 7.13083
-2.33174 106.72 -15.9196
-17.8352 109.825 -8.24454
-7.04373 105.96 -14.8202
16.1304 123.827 -10.189
13.611 141.92 3.68643
0.429863 108.083 -15.9846
-10.2257 106.144 -13.6286
-8.97313 106.415 -13.8896
11.1731 120.927 -10.5607
4.48721 113.51 -13.5863
-21.4931 114.349 -3.85245
14.8225 125.783 -8.44948
19.0882 132.65 -5.0295
2.29006 110.954 -14.6987
11.0943 121.039 -10.5762
13.5625 120.728 -11.6872
6.64473 143.374 6.99934
17.1427 144.159 3.86566
-6.57359 137.24 7.23108
19.8349 126.85 -9.5228
19.6433 129.759 -7.37496
-13.0283 134.067 7.20392
17.6606 132.493 -4.7287
14.6897 126.516 -7.98257
-24.4418 119.733 0.906996
20.027 128.229 -8.65071
-16.0924 133.386 7.75754
-13.8833 108.592 -10.8457
-1.38066 140.666 7.74752
-20.8948 114.043 -4.51313
-17.6457 128.913 5.01574
-16.727 121.135 -0.917303
1.47005 110.715 -14.8084
-24.5636 119.774 0.818384
3.90802 113.47 -13.7397
14.7381 130.698 -5.19149
-10.2166 134.829 6.54082
18.5658 124.788 -10.8163
-16.7562 120.823 -1.25787
22.2431 144.071 1.697
-24.5568 121.978 2.29349
-16.3704 122.842 -0.0155623
16.2321 127.46 -8.17419
3.63975 113.414 -13.8349
17.6466 145.23 4.0803
0.607748 109.375 -15.6768
19.5711 127.184 -9.56572
-9.67678 107.687 -13.2813
15.4505 127.441 -7.94604
3.85772 143.232 7.46293
-8.66908 136.45 6.99015
-0.278544 141.074 7.35374
-25.2474 120.772 1.55438
-21.849 126.084 4.14856
-21.755 126.238 4.19981
17.6712 123.704 -11.4947
-18.0735 118.156 -2.91408
-23.2905 120.646 0.682382
8.4736 143.551 5.94502
24.1722 142.237 -0.571484
-16.3125 110.041 -9.4719
-16.0113 131.078 5.48972
14.925 126.574 -8.64886
17.3052 128.655 -7.99901
24.139 137.632 -3.97458
18.4476 128.205 -8.74831
23.9567 143.042 -0.0347339
18.4961 130.971 -6.81814
15.7725 124.887 -10.2354
8.31997 116.954 -13.3466
-3.63758 140.633 7.81859
16.4939 125.907 -9.83936
15.2539 127.07 -8.58651
-0.739615 141.537 7.41316
-8.58597 108.919 -13.256
13.3137 121.844 -11.6971
-1.45592 108.574 -16.0297
14.6593 127.772 -7.91684
-16.3748 121.59 -1.44043
23.5985 143.93 0.535736
17.7942 133.008 -5.28093
15.5603 145.464 4.41617
17.8947 146.255 4.15189
-11.3451 109.39 -12.0357
14.502 130.725 -5.81852
-25.6337 120.782 1.14491
-7.64788 108.812 -13.8129
18.1514 125.186 -11.1636
-13.2893 110.578 -10.6401
15.3852 131.647 -5.60238
-1.75096 141.764 7.66996
17.4697 129.72 -7.76273
18.4047 131.269 -6.98752
-17.2772 123.446 -0.0727868
17.3774 125.144 -11.0528
17.652 124.984 -11.2763
18.324 131.163 -7.08954
16.8798 128.62 -8.41482
0.35468 110.136 -15.8741
-19.526 114.455 -5.8139
-15.9147 122.209 -1.52095
-18.6713 120.162 -2.09347
16.7603 127.371 -9.42826
14.8512 126.61 -9.30346
14.227 144.453 3.71565
-23.772 120.846 0.0690853
15.29 126.336 -9.75936
10.1971 143.614 4.40363
18.5357 131.834 -7.01686
16.7488 128.994 -8.47185
-12.1765 135.132 6.08218
-6.74574 109.669 -14.1183
-26.4844 120.051 0.24942
-1.49549 142.302 7.42543
-14.6304 135.007 6.77494
17.3992 130.03 -8.07464
-1.54676 109.58 -16.1235
16.6263 133.522 -5.33369
0.477499 111.143 -15.7339
-7.90984 110.448 -13.3149
13.7912 123.48 -11.6224
21.2219 133.824 -6.8184
16.3014 131.346 -6.89274
-16.8954 135.246 7.56599
-24.5768 120.985 0.00595408
-17.1791 133.482 6.37541
4.73807 116.719 -13.3745
-12.2432 135.433 6.02606
3.96613 116.191 -13.5277
13.1757 144.686 3.68712
-13.2807 111.947 -10.5185
7.41425 118.244 -13.3038
-19.9972 130.15 4.87848
9.80945 144.289 4.53867
16.499 133.2 -5.78325
13.8035 124.462 -11.1171
2.45918 114.568 -14.2388
15.9621 128.898 -8.70134
18.1187 130.978 -7.96794
17.0787 131.321 -7.36572
-10.6178 136.077 5.77736
18.1479 131.671 -7.51157
5.84501 145.345 6.5843
-11.7635 135.445 5.6572
-17.299 134.044 6.5737
-4.93752 109.417 -15.4609
-17.4186 121.178 -2.63863
-18.25 123.416 -0.73922
3.34749 115.868 -13.764
14.1472 129.095 -8.08559
16.5966 132.688 -6.39739
22.1888 135.803 -6.14363
-10.8743 111.83 -11.7265
1.63748 113.741 -14.7589
15.3166 127.786 -9.52804
-16.0143 135.306 6.88547
-19.0638 120.765 -2.49043
16.5792 132.567 -6.55686
-18.4018 122.119 -1.7559
16.5788 147.421 4.10261
13.8074 125.084 -10.971
11.3265 123.103 -11.5391
-26.2301 121.883 0.793231
-26.198 122.049 0.870619
10.2798 144.536 4.17991
-10.6753 136.689 5.91712
-18.7816 120.385 -2.93949
-22.4392 127.638 3.51365
15.1452 147.287 4.36142
18.5654 132.497 -7.46432
-11.6215 112.365 -11.3026
14.7198 128.437 -9.06349
-13.4263 135.68 6.03387
-13.4269 112.514 -10.619
-10.9979 135.771 5.22464
14.5194 131.908 -6.52829
-9.02838 139.023 6.83033
-10.3672 112.037 -12.0789
21.0618 146.209 1.3792
14.5697 127.389 -9.93631
-27.5926 120.852 0.203606
16.2308 133.964 -5.81372
-15.2949 112.473 -10.1928
-11.5827 136.117 5.47019
-16.9088 123.473 -1.73826
-18.9257 122.992 -1.38848
-16.8533 123.97 -1.43106
-5.17951 111.585 -14.4411
-15.5434 112.589 -10.1056
-9.50087 138.689 6.48308
-23.3359 126.882 2.87158
23.241 139.932 -4.14488
-20.0678 116.293 -5.91242
-15.9032 122.828 -2.70921
-26.4502 121.275 -0.116057
1.62898 144.424 6.56405
17.6147 131.845 -8.101
18.1205 134.429 -6.43824
-12.2148 113.27 -10.9601
-20.849 131.224 4.91505
-9.7312 139.019 6.59835
-19.0205 121.014 -3.07093
19.6838 132.816 -8.2217
-11.0726 113.099 -11.5608
-16.5185 122.621 -2.80954
-4.3694 111.665 -14.9715
-18.7826 121.39 -2.91986
-19.1869 116.127 -6.56019
-1.29864 143.227 6.58474
-16.6798 122.584 -2.84045
-18.2517 132.903 5.08074
8.07959 121.006 -12.7542
6.6258 118.945 -13.7327
21.0074 146.702 1.12496
14.0838 126.256 -11.1222
-20.3844 117.31 -5.42192
-17.9127 115.728 -7.43181
-15.0345 136.432 6.41912
22.2283 137.215 -6.14214
-13.7839 136.826 6.2329
-22.4047 128.758 3.47044
1.80649 144.905 6.51801
20.0051 133.619 -8.01888
-10.6109 138.673 6.34251
-10.4235 113.382 -11.8958
-8.62599 112.488 -13.2037
-18.8618 124.21 -1.19633
-25.6176 125.309 1.96234
-19.089 119.987 -4.17202
14.7213 133.401 -6.45166
17.8995 134.851 -6.57089
2.91716 117.169 -13.9969
8.2525 146.244 4.99238
-18.3624 121.791 -3.23269
-2.72411 111.391 -16.2517
-27.554 121.66 -0.222042
-18.858 120.386 -4.19907
-6.65911 112.721 -14
5.75981 118.87 -13.9552
-21.3844 118.806 -4.46106
-11.7319 114.117 -11.2263
-12.7297 136.334 5.04431
-18.9087 123.064 -2.34869
3.81859 118.269 -13.8018
14.9962 129.492 -9.69565
-17.2105 123.179 -2.94386
-18.0366 136.669 6.90898
16.0952 130.244 -9.72418
3.17277 118.256 -13.7895
3.50445 118.426 -13.8107
-3.74702 112.915 -15.2395
-28.789 121.224 -0.497375
-18.9553 123.678 -2.21178
-23.3432 128.314 2.65305
19.7832 134.745 -7.91021
21.7008 138.177 -6.12205
-18.54 124.562 -1.74609
-25.656 126.163 1.89221
-17.5305 123.133 -3.14485
-18.3638 122.391 -3.3917
-28.1817 121.454 -0.614129
-13.998 137.399 5.81458
-1.03805 112.601 -16.5558
8.07837 147.122 5.01576
14.6189 130.946 -8.91512
14.7802 148.362 3.52951
7.63667 124.31 -11.2457
-18.8535 124.09 -2.09331
-19.5571 122.395 -3.10122
-12.4587 114.841 -11.0727
21.7888 143.186 -2.78522
12.2843 148.535 4.39731
-11.1099 114.746 -11.6396
-27.7981 121.603 -0.856001
6.90401 147.608 5.58723
14.8056 130.997 -9.12545
17.0907 148.195 2.40591
-10.5926 114.631 -12.0028
-1.60551 112.857 -16.4388
-22.6728 130.089 3.28754
-19.0171 124.452 -2.06606
-2.23668 113.47 -15.9116
7.35712 124.486 -11.3785
-5.36507 142.048 5.7054
21.7495 143.74 -2.64739
19.7448 135.28 -8.02224
9.05173 147.326 4.37217
-9.73687 140.145 5.82363
-15.476 114.694 -10.4342
11.9128 125.637 -12.2209
-27.5758 124.309 0.693745
-3.57965 142.924 5.61424
-20.2876 117.975 -6.43057
-2.56032 114.226 -15.3724
15.8171 131.284 -9.60209
-19.2223 123.358 -2.98013
-17.0198 117.419 -8.02237
-19.0289 123.96 -2.66077
16.1381 133.724 -8.06971
7.01676 124.82 -11.2554
14.735 148.656 3.13904
-16.8488 123.326 -3.96699
18.1253 135.252 -7.71176
16.771 132.633 -9.16648
-12.0474 115.675 -11.2065
5.2798 120.934 -13.5561
-28.8466 119.439 -2.63266
-12.8415 137.834 4.93299
18.6937 135.384 -7.94845
1.37389 145.426 5.34012
5.4035 121.923 -12.9624
-0.996092 113.864 -16.5121
-16.1384 118.239 -8.1152
1.77985 145.602 5.22823
14.6487 133.878 -7.72829
-11.9722 116.007 -11.2484
-17.5338 121.654 -5.24761
-18.5403 117.749 -7.70682
15.4446 148.735 2.54534
-11.8496 138.598 4.83464
-18.1941 123.735 -3.61819
7.03341 148.495 5.26895
14.2076 132.396 -8.83017
-18.6578 122.969 -4.03926
4.21094 119.968 -14.2519
15.1288 134.988 -7.34964
-10.0582 115.447 -12.5242
1.57869 145.579 4.96379
20.237 137.031 -7.74176
17.8456 136.143 -7.59477
-20.648 120.597 -5.21478
20.3451 147.291 -0.48139
-16.761 122.426 -5.29322
-28.9903 122.733 -0.783323
-15.222 115.923 -10.5231
-17.2866 123.176 -4.59923
4.90577 148.458 5.73744
10.0746 149.13 4.39804
-1.77981 115.608 -15.505
-21.3624 134.987 5.29865
-29.3643 121.931 -1.26944
20.4987 147.157 -0.700215
9.9175 149.083 4.38815
13.9695 132.514 -8.95121
-19.143 121.934 -4.92333
-15.1786 117.964 -9.17879
-19.7692 137.204 6.24488
-23.1306 119.063 -5.60133
20.0631 147.531 -0.362797
-26.4861 119.347 -4.23304
-1.98968 116.441 -14.9575
-22.1855 120.432 -4.9906
-18.7258 137.693 6.15107
3.53306 120.271 -14.1975
-18.2984 124.79 -3.29353
9.01874 125.852 -12.1494
9.54786 149.129 4.37689
-0.341094 144.839 4.75532
-11.2361 116.487 -11.7925
14.9819 134.857 -7.84583
7.04323 126.266 -11.2288
-28.5485 123.931 -0.387969
-17.7864 120.707 -6.51688
-18.0762 124.909 -3.41334
-26.9707 119.531 -4.15053
2.90123 146.479 4.63489
-5.99269 115.735 -14.3141
-12.3273 139.166 4.73709
-14.956 118.183 -9.43582
-10.9767 116.56 -12.0059
-19.446 137.683 6.13298
-13.9165 139.091 5.1504
-18.3126 123.351 -4.60916
17.4666 136.384 -7.84623
-28.6832 123.853 -0.616882
13.7588 129.614 -11.4233
-15.4728 139.376 5.83032
2.1793 119.651 -14.5505
-6.25378 115.935 -14.2557
-27.2605 126.484 0.707012
-6.24488 115.958 -14.2539
0.379509 117.243 -15.6694
-23.597 130.295 2.13147
-18.1304 124.047 -4.28833
-29.5467 120.387 -2.90209
12.8654 128.8 -11.7926
-17.7852 138.939 6.26426
-18.7865 122.947 -4.86771
-16.472 119.628 -8.06565
19.8795 137.898 -7.76213
-3.89006 117.665 -14.0219
16.8223 148.932 1.13966
-25.0301 119.044 -5.62688
10.7963 127.129 -12.4324
-17.8008 125.654 -3.4437
19.553 137.567 -8.07893
-17.6797 125.091 -3.94598
-9.49779 141.721 5.0924
18.9625 137.451 -7.99231
20.3019 144.135 -3.67187
-13.9199 139.656 5.11919
-1.24195 117.779 -15.0818
20.2356 141.816 -5.38187
-5.01747 118.316 -13.3714
19.865 140.562 -6.16402
-9.29063 142.428 5.41347
17.8425 136.865 -8.1386
9.49255 150.203 4.33177
16.375 149.154 1.14228
17.8421 136.923 -8.15823
-17.3899 122.655 -6.01823
-23.4446 131.316 2.32978
-5.01709 119.269 -12.8169
13.9043 131.208 -10.9067
5.71908 126.56 -11.3663
-22.8945 133.282 3.52709
-7.32947 141.877 4.21448
19.8081 140.788 -6.14648
13.2619 130.091 -11.533
-18.9246 119.535 -7.79673
-17.8423 139.505 6.16088
-21.7869 136.57 5.43336
-11.9696 117.842 -11.4757
-20.4427 121.577 -5.82269
-18.227 126.002 -3.42888
14.6628 134.566 -8.91837
4.5316 123.924 -13.0048
-1.70165 144.052 3.63598
-3.75443 119.504 -13.3131
-28.6017 124.788 -0.785748
-19.1647 138.827 5.95501
-23.3689 131.908 2.45656
17.5128 137.58 -7.86074
-20.4163 138.19 5.91693
-4.58605 120.773 -12.1797
-4.68097 120.753 -12.1655
-21.9849 135.978 4.83546
-22.9504 133.881 3.66868
-14.2449 118.788 -10.2377
14.2813 133.44 -9.77396
18.2727 148.784 -0.168711
-21.9138 136.584 5.19489
-9.39656 143.135 5.48899
-14.755 119.6 -9.5823
-18.1082 121.37 -7.13805
15.3937 135.957 -8.45388
13.5481 132.077 -10.6101
-15.304 139.983 5.18096
-1.1099 118.873 -14.9772
-2.53357 143.795 3.4012
-7.11957 142.085 3.75436
20.0374 142.708 -5.3741
-23.0144 121.647 -5.36657
13.092 150.369 2.54284
-18.2939 127.34 -2.97259
-4.37209 143.349 3.61392
-6.27214 142.513 3.6079
18.0511 137.461 -8.59767
14.8871 135.621 -8.82499
8.35542 128.376 -11.7384
-29.0447 124.351 -1.48316
-18.0138 122.236 -6.90741
-18.2487 126.181 -3.9959
14.1558 134.923 -9.12038
0.266711 118.975 -15.6917
-3.65625 120.895 -12.9475
-17.9813 122.342 -6.87115
-4.78714 122.094 -11.7001
19.477 147.096 -2.30904
-18.0026 122.29 -6.94042
18.9285 139.466 -7.6079
-24.9745 130.41 1.32845
-6.40212 120.791 -12.1422
-6.26535 122.78 -10.799
-18.2772 127.746 -3.01687
5.79886 128.684 -10.8197
-26.8118 128.537 0.542575
-29.8715 121.451 -3.47042
-27.9863 120.829 -4.59095
-27.1013 128.188 0.367838
-7.6442 119.234 -12.9425
1.97989 121.611 -14.6327
-8.18416 118.799 -13.103
5.81689 128.817 -10.8677
-12.9361 118.908 -11.397
-7.00308 121.555 -11.6079
-18.3542 120.732 -8.24819
-8.45886 120.3 -12.0405
-23.8621 132.146 1.88208
18.5437 139.604 -7.69617
-18.0598 124.753 -5.51326
-9.26657 120.688 -11.5342
-21.7849 122.233 -6.04199
13.6665 134.397 -9.78958
-28.4002 126.17 -0.90882
-17.9709 121.054 -8.26056
-18.2344 126.894 -3.98592
-28.8555 125.258 -1.42796
-17.7934 121.172 -8.27726
17.8859 139.211 -7.89543
19.7903 143.84 -5.24777
11.3647 130.824 -11.6562
-2.33325 120.801 -14.0345
-13.9409 141.082 4.59988
-9.19093 121.448 -11.183
-6.30032 124.212 -10.2163
-11.8614 142.917 5.16085
2.03895 122.138 -14.6651
-9.88497 121.573 -10.9083
5.19998 129.158 -10.7715
-9.70458 119.467 -12.5054
-17.9175 125.343 -5.40709
-18.3594 128.325 -3.13031
-16.7694 142.204 6.22466
-29.1762 122.805 -3.353
10.9064 130.795 -11.7225
19.0376 146.828 -3.0819
-18.0411 125.452 -5.38732
-29.1217 124.532 -2.20604
-10.0445 119.949 -12.2145
-18.4796 141.033 5.88264
-10.0864 120.423 -11.8743
-28.2982 121.792 -4.50088
-3.70032 123.868 -11.6778
8.12252 152.2 4.49306
-4.07812 143.627 2.61231
-19.8483 123.073 -6.61379
6.31142 129.449 -11.258
-22.5291 137.211 4.46009
-15.166 121.487 -9.428
16.7374 137.407 -9.24853
-10.4286 120.717 -11.6833
8.58 152.283 4.26599
-7.94391 123.984 -10.2603
-11.1224 144.312 5.44791
-14.7425 141.804 4.91596
9.93349 129.678 -12.4733
-7.67325 124.486 -10.0291
-11.992 143.412 5.03867
-18.5315 127.304 -4.23778
-8.74539 123.705 -10.2992
-22.6284 137.574 4.52674
-28.6487 125.898 -1.74261
-24.615 132.105 1.29222
2.90966 123.777 -14.396
-2.06026 122.458 -13.6007
-24.1629 132.888 1.65171
18.8568 146.462 -3.73809
11.4015 151.669 2.619
-27.4175 128.796 -0.149944
-18.5415 127.369 -4.3096
15.0529 137.634 -8.7658
-2.53159 124.692 -11.9188
-23.977 122.712 -5.83246
-18.492 128.546 -3.5923
3.60907 125.907 -13.2889
-24.2284 133.127 1.6699
-11.7431 120.475 -11.8187
4.46182 128.756 -11.601
0.228511 122.227 -14.8271
-20.91 139.771 5.20151
-18.822 129.483 -2.94837
10.6628 132.241 -11.3418
-11.9813 143.992 5.04832
-11.9548 144.057 5.07301
-10.1515 124.674 -9.4869
-19.3539 124.756 -6.19299
-23.2844 136.196 3.39992
4.23157 128.112 -12.0936
15.7632 138.877 -8.42686
-0.690106 122.613 -14.3167
-1.75034 123.601 -13.2665
-19.7824 123.931 -6.72548
-19.4571 141.085 5.47572
-18.0923 126.006 -5.83196
-25.9743 131.454 0.837113
-9.74709 125.147 -9.40085
-8.33737 125.659 -9.53444
15.5406 138.805 -8.50444
-8.98312 125.571 -9.41006
1.16677 123.618 -14.3989
16.9635 138.995 -8.93238
-8.96353 125.742 -9.33156
16.8506 149.321 -1.51771
-20.188 124.746 -6.13639
-17.7044 124.266 -7.36691
1.22457 124.136 -14.1416
-12.7653 121.433 -11.17
11.6395 151.852 2.03887
17.2298 148.181 -2.59579
-23.5644 136.31 3.22275
8.63475 130.408 -12.3784
-17.5748 129.025 -4.1693
11.2108 134.481 -10.4066
-12.1855 124.187 -9.57618
9.19344 153.18 3.68647
-28.1827 126.949 -2.00263
-23.0379 138.122 4.19544
-17.6301 123.929 -7.91375
-18.5881 142.52 5.767
-11.6715 125.126 -9.16016
-18.3862 128.125 -4.67316
3.19262 126.29 -13.5893
11.9424 135.92 -9.76135
-20.3485 124.305 -6.76527
-26.5762 130.805 0.0905076
-14.1799 143.524 4.85721
-26.0116 132.007 0.740518
-28.1545 125.609 -3.10711
16.32 149.66 -1.51302
16.6665 148.865 -2.22337
-21.4439 123.635 -6.96549
3.49211 129.447 -11.5812
-18.7851 128.414 -4.48808
-25.7852 122.974 -5.98063
4.59778 130.845 -11.0443
-7.04552 126.353 -10.1817
3.34323 128.719 -12.1407
3.65587 129.899 -11.4088
-18.995 128.234 -4.63763
7.29975 130.995 -11.9972
-13.8976 123.018 -10.2968
-14.5901 143.957 4.9786
-15.9297 144.062 5.51961
16.6663 139.672 -9.10558
-25.2329 133.189 0.954361
9.78919 132.826 -11.655
-11.9857 126.109 -8.82399
-12.2395 145.558 5.21111
-3.97362 126.228 -11.5989
3.57014 130.137 -11.5055
16.8169 144.223 -6.07618
2.59461 127.011 -13.4605
-25.7315 123.499 -6.04805
16.1812 145.561 -4.96124
-16.0069 127.968 -6.29942
2.17832 126.171 -13.9935
14.4057 150.989 -0.496671
-13.2295 125.999 -8.74769
-13.7112 123.912 -10.0989
1.98326 126.054 -14.101
16.9523 140.106 -9.31693
-17.9781 130.434 -3.98333
-16.7193 127.105 -6.83478
-17.8238 130.223 -4.27115
-19.4201 142.774 5.29332
-17.1032 126.395 -7.29758
-22.8855 124.19 -6.84783
-19.3746 127.427 -5.80038
-21.3973 124.492 -7.2287
-21.9549 124.383 -7.12024
5.66768 132.304 -11.1624
-16.9945 126.351 -7.48083
-16.7431 133.064 -2.79346
-27.6431 127.334 -3.1313
15.267 150.016 -1.94234
-6.85445 127.047 -10.6699
-15.4167 125.345 -8.92724
-26.9089 125.575 -4.74169
6.32087 132.327 -11.602
-26.102 124.894 -5.59411
-19.6742 143.09 5.13266
12.3403 152.344 0.492295
16.0751 146.878 -4.75227
-14.7794 125.229 -9.45465
15.0303 138.919 -10.1482
7.60046 132.515 -12.1329
-19.1602 143.778 5.35928
-17.277 129.978 -5.21364
14.9739 139.731 -9.56133
14.975 139.623 -9.64007
-24.2217 124.676 -6.59834
16.4838 140.634 -9.49683
-3.38405 128.678 -11.0966
-22.5435 140.12 3.80307
-13.553 145.068 4.16373
-23.641 124.863 -6.80997
-17.4823 128.307 -6.51442
-26.2334 125.849 -5.22709
-7.25468 127.747 -10.5501
0.983661 127.241 -13.8319
-20.8374 142.254 4.62578
-13.5959 145.19 4.18547
-4.72093 129.687 -10.1289
-8.02499 128.48 -9.83514
3.85305 131.854 -11.6027
-6.5748 128.239 -10.5371
-24.0395 125.192 -6.58721
-11.9146 146.751 4.62549
-17.4724 133.325 -3.09422
14.5496 139.355 -10.0593
9.71135 135.564 -11.0792
-17.5205 133.311 -3.14666
16.0376 143.909 -7.36906
8.80167 134.398 -11.6524
14.6096 140.552 -9.3478
-15.0143 127.703 -8.1609
-24.0675 125.552 -6.52351
-17.2428 130.286 -5.52849
-8.02523 128.993 -9.70457
-16.9531 133.171 -3.63204
-24.4906 137.212 1.90461
-6.64992 128.572 -10.5925
10.0839 137.048 -10.4175
-13.1624 146.537 4.56157
8.02233 134.108 -11.8293
-24.1823 125.87 -6.42883
-17.4752 131.511 -4.74838
-23.6544 138.989 2.74629
15.0744 146.854 -5.24442
10.9231 153.334 0.83399
-1.86756 128.439 -12.5569
16.2033 144.289 -7.53966
-1.9652 128.726 -12.3434
0.852733 128.813 -13.2811
1.02931 128.997 -13.2326
-13.7599 146.225 4.32868
-26.3983 132.194 -1.33986
-7.77968 129.661 -9.77565
-14.7099 129.212 -7.67658
-21.4834 126.153 -7.50876
12.6139 138.855 -10.4108
-25.5045 127.428 -5.20687
-26.6213 128.962 -3.74208
12.2668 138.912 -10.2794
-26.2201 128.336 -4.42252
-24.2953 127.251 -5.99054
-17.556 146.088 5.15978
-11.7667 129.904 -8.49788
-0.494082 128.892 -13.1947
5.98887 133.924 -11.8627
-23.8937 138.839 2.15304
-18.2535 129.854 -6.28418
-22.7956 126.784 -6.90481
-11.2706 130.2 -8.54677
-25.7047 130.05 -3.57621
-5.91211 129.923 -10.638
-22.8743 140.697 3.0582
-17.5756 130.806 -5.909
-3.98386 131.888 -9.91624
-10.9732 130.333 -8.57504
-14.607 146.082 4.00993
-16.3123 132.053 -5.51025
8.0976 136.438 -11.0217
-26.1307 131.74 -2.39296
-14.0388 130.917 -7.24119
-23.4544 127.257 -6.56418
2.33357 132.21 -12.087
-17.7019 130.805 -6.05149
10.3225 153.601 0.416
-15.0749 134.948 -4.08595
-24.6372 137.471 1.06657
-17.9504 131.221 -5.78905
-16.6719 135.056 -3.59628
-7.34555 130.491 -10.2155
-24.6918 135.351 -0.638703
0.312495 131.111 -12.5622
13.381 141.107 -9.99468
7.74145 155.068 1.99825
-15.1683 132.986 -5.80148
-13.807 133.694 -5.83103
8.48102 137.818 -10.7454
-3.06399 135.51 -8.3939
-20.2955 128.693 -7.26221
-24.9172 131.134 -3.90538
-17.13 134.827 -3.99606
-15.7794 131.702 -6.7162
12.4815 151.631 -2.36217
-23.9403 139.102 1.41865
-3.18309 134.245 -9.37508
-1.86149 136.699 -8.12278
-14.2672 130.5 -8.22849
13.7429 148.617 -5.08384
-16.9501 147.178 4.67817
0.0128039 135.004 -10.0544
-14.8031 147.159 3.86407
-14.2433 129.938 -8.70537
4.79704 135.603 -11.3496
4.78238 135.611 -11.342
-20.2696 129 -7.35278
-1.93889 132.775 -11.0964
14.0571 142.675 -9.62458
-17.2426 135.137 -4.04084
-1.45839 134.868 -9.8049
1.40193 136.721 -9.51383
9.70468 153.787 -0.18421
-21.6055 143.148 3.18473
15.0149 143.882 -9.17701
-18.6597 130.662 -6.85974
-22.4705 130.725 -5.47495
4.32304 136.011 -11.131
-24.3567 137.813 0.223945
-24.0898 134.981 -1.90958
-14.6577 130.138 -8.72658
-24.754 132.817 -3.28423
0.407703 132.368 -12.4716
-0.748764 132.098 -12.2732
-15.8125 147.284 3.8973
12.2625 141.004 -10.5045
-20.176 144.882 3.66805
-0.0710858 132.978 -12.0031
-0.315868 133.64 -11.4456
-18.8159 146.211 4.07864
14.788 145.935 -7.96531
-21.6459 129.666 -6.83552
-1.22749 133.152 -11.5378
-21.5424 129.62 -6.98825
0.804129 140.352 -7.17787
4.60522 136.515 -11.2727
-21.4883 129.694 -6.99227
-2.17877 139.46 -6.80123
3.87226 136.452 -11.1371
5.81172 136.482 -11.8039
-22.9345 141.583 1.96839
7.58192 154.855 0.760281
-24.0569 132.91 -3.94852
12.3973 141.846 -10.3606
-1.31442 141.097 -6.10324
7.0863 155.175 0.999999
-22.9293 141.334 1.61858
-10.8103 131.97 -9.41217
-24.0953 138.525 -0.0336208
-15.4715 148.091 3.78937
-20.5519 144.911 3.27426
-23.2597 140.396 0.979918
-15.7863 148.029 3.76806
-0.976915 142.19 -5.63687
13.1632 143.105 -9.96387
13.0844 143.095 -9.9914
-15.0718 136.949 -4.50606
-10.8592 132.115 -9.48022
5.58127 137.027 -11.755
-22.9908 132.07 -5.27891
1.94519 139.816 -8.49333
6.42638 138.264 -11.2019
-16.5923 138.115 -3.22993
-23.808 139.182 0.0483998
-21.6162 143.764 2.56674
-13.6786 135.638 -6.08779
12.74 150.882 -4.4808
13.1677 144.726 -9.0756
4.60527 137.338 -11.3837
-3.29908 138.659 -7.67096
8.4451 140.532 -10.4715
14.2368 146.225 -8.42906
-8.18993 132.434 -10.4606
-22.5919 132.317 -5.50051
8.16438 140.445 -10.6416
-10.6591 132.695 -9.58415
-14.9327 137.423 -4.69507
-15.3082 148.845 3.63559
1.946 143.585 -6.24036
-18.3158 135.773 -4.7258
1.63623 144.141 -5.76853
11.701 151.673 -3.918
-16.8454 139.058 -2.94323
5.33854 137.72 -11.7151
-21.7469 132.546 -5.92028
2.50998 136.972 -11.3231
-1.4185 143.135 -5.53432
10.3415 152.438 -3.00652
2.49046 137.845 -10.7311
2.46342 141.311 -8.3003
-22.1249 143.015 1.57311
6.70827 154.949 -0.0511719
-4.76095 137.746 -8.37181
10.9683 152.046 -3.65658
-9.69233 150.819 2.71513
11.7071 151.337 -4.55844
-8.60955 133.122 -10.507
3.9533 138.013 -11.4243
-16.1151 137.916 -4.43491
-15.5691 139.899 -3.25677
0.110265 145.291 -4.92309
-0.0604612 145.24 -4.90203
3.03755 138.532 -10.8121
-22.0552 133.098 -5.89912
-11.294 132.959 -9.78553
-18.817 136.201 -4.82724
4.16269 144.571 -6.94117
-14.2026 137.25 -5.78446
11.0816 151.851 -4.27354
-18.1503 137.552 -4.32698
-8.14547 134.935 -9.72947
11.3683 143.892 -10.1672
-2.30334 143.197 -5.87763
3.66912 140.899 -9.65879
6.22955 155.252 -0.271363
-22.8594 139.736 -1.18236
-18.8971 135.847 -5.38906
5.40828 144.567 -7.70104
-15.7916 138.014 -5.04539
-7.17786 140.818 -6.18072
6.37657 154.041 -1.55913
-7.62775 139.909 -6.81143
2.23632 146.57 -5.50442
-7.39729 139.899 -6.90969
-4.66796 141.026 -7.06261
-16.3977 141.528 -2.58866
-20.5682 133.967 -6.56019
-3.4733 142.623 -6.38955
2.84306 146.577 -5.80141
6.67168 146.216 -7.43445
9.53 152.506 -3.93528
5.19784 141.696 -10.2133
-21.6823 143.708 0.685588
5.16609 142.157 -9.87663
-9.92115 134.352 -10.1781
-6.9721 137.128 -9.23436
-17.3993 139.171 -4.19282
11.0351 150.341 -6.18372
-10.7647 151.273 2.13412
3.74177 146.74 -6.24154
-22.3582 138.959 -2.64858
9.05454 143.903 -10.1746
-10.6725 138.52 -7.10508
-9.64031 139.178 -7.0127
10.4141 145.27 -9.7123
-4.14491 144.756 -4.9775
8.12806 142.35 -11.0318
-1.72791 146.869 -4.33759
-17.6862 148.006 2.06069
-5.88045 139.439 -8.25321
-3.33868 145.217 -5.02961
-18.1043 138.425 -4.72795
-8.43898 139.386 -7.44342
8.01458 142.767 -10.8108
-2.79563 145.249 -5.22826
-5.98433 139.898 -7.9546
-20.1919 146.014 1.43124
-19.1205 146.945 1.7125
-13.6011 137.028 -7.36815
8.33938 148.021 -7.22531
-22.6952 136.431 -4.63381
10.7499 150.677 -6.17198
5.59265 154.663 -1.50248
4.77782 147.142 -6.64314
8.55227 148.339 -7.17428
-19.8326 138.787 -4.10819
7.6206 145.158 -9.20338
7.79977 143.763 -10.278
7.99761 144.304 -9.96438
8.95247 145.341 -9.56606
10.0859 151.787 -5.34262
9.93401 146.424 -9.15539
-20.9389 145.117 0.741553
-7.04009 138.67 -8.7887
8.70218 146.842 -8.45963
-19.4453 138.074 -4.86188
-19.9638 138.321 -4.53737
9.01516 145.794 -9.3672
-2.25998 148.122 -3.73006
-22.2042 137.937 -4.0362
6.24462 148.018 -6.83892
-14.7624 139.209 -5.78115
2.4136 148.298 -5.31307
-15.3621 142.323 -3.36848
-3.42133 147.914 -3.57513
8.08307 152.864 -4.11198
-22.1903 136.097 -5.52316
7.67265 152.829 -4.0376
-15.7092 142.823 -3.00477
0.266781 148.597 -4.5151
-11.5559 136.75 -8.87036
-19.5199 139.629 -4.02445
-10.4632 141.655 -5.75643
-20.7246 136.489 -5.88905
-21.6368 136.624 -5.50482
-8.27793 143.1 -5.60512
9.38413 151.992 -5.49299
-10.0275 136.83 -9.57817
9.08831 152.201 -5.28915
-15.4718 139.645 -5.70275
-15.7131 143.639 -2.74988
-21.4552 137.61 -5.07335
-10.0785 137.176 -9.38858
8.59097 152.445 -5.04151
-10.2653 137.054 -9.46093
2.34051 149.288 -5.15822
3.99059 149.372 -5.6811
4.45907 149.366 -5.85147
-12.0434 142.076 -5.2844
9.252 151.914 -5.77628
-20.243 140.227 -3.80774
8.39058 150.892 -6.24122
-13.1649 139.09 -7.13332
-21.8114 142.262 -1.81988
-18.5664 147.503 0.801
-22.042 138.627 -4.35476
-6.60555 144.705 -5.48716
-12.9746 151.117 1.24353
-9.23326 143.347 -5.66599
-13.7666 140.315 -6.2568
-6.63155 144.952 -5.454
5.49406 151.983 -4.68934
