ply
format ascii 1.0
comment Created by Open3D
element vertex 1695
property double x
property double y
property double z
end_header
22.3035 83.339 2.56528
7.00686 107.176 20.1351
8.21288 107.126 -13.8654
6.89066 107.332 20.1841
-8.93565 134.678 -9.39843
10.3773 103.518 -13.0246
-6.68032 129.754 12.8201
7.33411 108.497 -14.2052
-11.2568 138.224 -6.10783
-10.0879 136.415 -8.82499
-2.90657 124.828 -11.27
2.14539 116.719 -14.767
9.80149 104.138 -13.0827
-3.19671 123.707 14.0262
-7.88833 132.635 -9.3779
-9.84372 135.785 -9.13764
-10.467 136.011 4.31075
3.41895 114.489 -14.1574
20.7145 85.5534 0.588547
14.8347 94.2128 16.3806
18.6728 89.0561 -3.41827
16.7256 92.333 -6.47979
-9.07469 134.372 -9.4571
21.9746 83.2906 1.80735
15.8064 93.7729 -7.86937
18.7373 88.732 -3.24264
-6.4804 128.754 13.1142
-14.4593 142.007 7.2007
-2.39447 123.45 -12.1358
-11.6338 138.091 -6.14819
4.16436 112.865 -14.1416
-3.12992 123.101 14.1741
-13.9935 141.756 -4.11946
-13.8272 141.376 -4.16737
14.7859 93.6404 16.4518
19.6795 86.6226 -1.14043
20.2014 85.7203 -0.207423
21.7431 83.1094 1.37555
13.435 95.6619 17.2012
-0.807181 118.794 16.9261
18.6596 88.3169 -3.37683
16.1719 91.3237 14.8685
19.9433 86.006 -0.726875
-15.2617 143.291 -3.30323
6.65515 106.364 20.4116
2.62331 114.843 -14.5479
-5.28339 127.43 -10.1745
0.351254 116.576 18.2622
-7.51979 130.874 -10.0316
3.02347 111.918 20.2482
-4.54766 124.541 14.1646
-9.03736 132.066 8.93357
-7.20957 130.122 -9.75914
2.81892 112.165 20.0521
-16.1004 143.574 7.37434
-9.10413 132.136 8.73799
-10.7531 135.768 -8.92502
4.66463 110.976 -14.4159
-0.446298 117.442 17.9401
18.4128 88.0363 -3.94546
-9.52045 132.85 5.13452
-1.61801 121.082 -13.8559
15.1199 93.5857 -8.73154
-17.0878 145.022 6.43231
-12.0102 137.445 -6.48597
12.6225 96.0732 17.7705
16.7803 90.6622 -6.13064
-2.65346 122.451 -12.3497
-0.597172 119.214 -15.1856
11.9265 98.6793 -11.9754
-13.669 139.819 -5.22497
-11.6264 135.921 5.07973
2.3513 112.314 19.9697
21.1665 82.7869 0.126448
17.9083 87.3168 12.5822
15.6596 92.139 -8.55888
2.30844 114.14 -14.7545
-2.40524 121.644 -12.8513
21.4193 81.8396 7.18803
-17.839 145.664 4.75206
2.46296 113.767 -14.6652
-1.22162 119.717 -14.5048
-15.5951 142.325 -3.65791
11.8606 98.2057 -11.9435
-6.40609 126.394 14.1927
-11.5929 136.064 -8.15485
-10.6448 134.562 -9.37596
19.0281 85.983 -2.57504
-1.70421 118.488 17.5261
-4.77267 123.597 14.4758
-17.5344 144.771 6.28767
-12.6339 136.838 5.61271
6.80187 104.408 20.3248
22.6639 79.4683 4.90559
5.90417 105.764 20.8608
10.9518 99.3981 -12.5347
18.1721 87.219 -4.52265
1.62455 112.704 19.8574
-2.81503 120.092 16.6038
0.131297 117.106 -15.8388
-9.61765 132.552 -9.30047
-10.6634 133.432 4.83007
-11.8421 136.052 -7.94459
-9.57893 131.296 10.4695
3.25621 111.855 -14.6846
14.6366 93.0374 -9.20797
15.1791 92.1325 -8.93852
1.75684 112.294 20.0716
-15.2933 141.216 -2.32517
-0.100248 115.221 18.888
4.40767 109.79 -14.8103
-10.219 132.212 8.20501
-0.0742339 117.057 -15.9238
-14.1946 138.657 7.44249
-3.72597 122.685 -11.3281
16.1891 90.0762 -7.65727
14.7944 90.9623 16.4591
-10.7113 133.001 5.03305
15.9032 90.3613 -8.27811
0.685631 113.481 19.7388
7.71883 103.977 -14.5836
-14.8788 140.089 -4.64948
-18.0293 144.927 0.273836
15.3633 89.8371 15.7507
-15.4897 141.029 -4.04871
16.2625 88.4305 14.3086
21.4805 80.6037 2.06186
-15.4467 140.901 -4.1278
-9.49869 131.477 -8.91332
-10.2846 131.919 5.7874
10.7884 96.9331 19.2076
18.1408 85.3373 11.8986
16.2904 88.2046 14.2314
9.88937 98.2819 19.8068
21.6891 80.0488 3.09614
-6.16136 126.004 -10.2839
-9.4877 130.116 12.3055
-13.8468 138.184 -5.54721
-13.7692 137.239 7.24395
-9.37994 130.951 -8.71742
11.2927 95.8303 18.8284
13.703 93.5174 -10.1617
9.67465 100.201 -13.1979
-13.7286 136.967 7.20868
-17.4977 143.48 -0.40823
-18.9756 145.674 2.35312
6.028 106.016 -14.9344
16.5028 87.3245 13.7924
-16.0431 140.997 -1.52736
-2.79163 120.099 -12.985
15.6274 89.9175 -8.38705
20.6037 81.4147 -0.852176
-15.8337 140.624 -1.96504
-15.775 140.572 -3.89694
-17.5703 143.263 -0.421282
-10.6665 131.679 5.96588
20.2405 81.3222 8.76867
16.4237 87.1949 13.8748
-18.6746 144.659 5.20359
6.41739 103.02 20.95
15.039 89.2746 16.0667
-0.108688 113.618 19.6374
21.525 79.3671 3.08556
-10.5667 132.114 -8.66138
-13.6449 136.22 7.13561
-18.7769 144.667 5.05584
-14.1792 137.752 -4.97296
9.13065 100.373 -13.4753
21.2149 79.5875 7.29234
-18.2875 143.759 6.61316
1.20845 111.177 20.7477
17.2981 86.4421 -5.88563
13.4441 91.3684 17.6667
-13.663 135.953 6.95476
-8.52353 127.225 13.7928
6.46581 104.45 -14.7481
-7.5492 126.879 -9.17053
0.591987 111.983 20.4819
-4.0182 119.651 16.9885
-14.3418 137.577 -4.67608
19.2751 82.8549 -2.93551
-15.5441 139.467 -4.59772
-5.8451 123.869 -9.71268
-10.9903 131.251 6.8351
4.14784 105.843 21.5379
5.05101 106.435 -15.1325
2.61114 108.311 21.42
-19.0323 144.545 1.25675
-7.67772 126.674 -8.90908
-8.31546 126.378 14.1902
5.35437 103.766 21.4396
12.0728 92.9636 18.6741
21.3345 78.7875 2.79371
-15.9978 139.732 -3.15573
13.031 93.0071 -10.6154
17.0452 84.9633 13.1908
7.25568 100.381 21.0751
2.7329 107.702 21.4418
-10.962 130.636 8.42294
13.6322 90.1614 17.6361
20.7945 79.4626 0.19652
-8.53342 127.552 -8.35026
14.1896 90.6596 -9.67085
19.9076 80.9477 -2.22893
-6.81043 124.704 -9.19791
16.2578 85.8437 13.9345
-19.4985 144.478 1.7357
17.1787 85.3414 -5.7269
-19.2255 144.043 0.949628
-17.8884 141.467 7.69374
18.2156 83.5502 -4.84084
-12.4693 132.733 5.5277
-19.6419 144.375 1.79571
-19.6551 144.215 4.41952
14.131 88.5744 17.0442
16.2127 86.5473 -7.19545
21.0006 78.2113 1.67087
11.3757 94.5703 -11.9285
4.69155 103.536 21.5884
16.2282 86.416 -7.13753
14.5057 89.3163 -9.44244
2.06636 109.787 -15.2885
-1.55307 113.716 19.1336
17.4983 84.1481 -5.39367
-11.5876 130.712 5.86709
11.9374 91.7395 18.9036
-8.61321 126.606 -8.33648
-19.3894 143.52 0.684549
5.90884 101.278 21.2129
-9.48318 127.849 -7.95635
14.8915 88.317 -8.95499
-11.5771 130.253 8.93391
-4.03449 117.445 17.7306
0.123435 112.552 -16.1595
3.73786 106.592 -15.3226
-11.7179 130.271 9.52424
9.52767 95.0924 20.3324
-17.9794 140.911 -0.862938
-11.2195 130.194 -7.89759
11.0211 94.3271 -12.268
-19.0708 142.094 6.98622
-12.7844 132.733 -8.44913
12.7573 91.3892 -10.899
8.52788 98.3503 -14.019
-15.9252 136.822 7.3442
13.6723 89.708 -9.99721
20.5386 77.9806 0.267929
-1.29363 114.328 -16.1483
-9.71794 126.291 14.158
10.9339 94.2466 -12.3526
-11.5328 129.39 10.9939
5.6374 100.927 21.2457
-15.5633 136.737 -3.70573
-17.0919 138.532 8.06815
4.62031 102.483 21.5683
15.4301 85.2846 15.0096
14.7015 87.7059 -9.16726
4.30186 104.909 -15.1415
10.9653 92.1327 19.6112
-5.03304 118.202 17.2631
-14.9352 135.483 -4.40728
-6.07122 121.426 -10.8163
14.313 88.249 -9.6463
-19.0322 141.863 -0.404807
18.7267 80.707 -3.98633
-1.49294 114.175 -15.9697
-1.41847 111.913 19.9594
-9.78612 125.803 14.3358
-20.3344 143.458 3.98036
5.16878 101.077 21.34
13.0289 90.0954 -10.4613
9.00235 94.8676 20.777
1.62731 106.832 20.8122
-16.3901 136.822 7.54608
-6.64761 120.462 16.5077
-11.643 129.9 -7.6027
12.7681 90.4242 -10.7536
-11.8733 129.188 11.1991
-20.3807 143.443 2.1264
-11.3681 128.192 12.8562
17.8807 81.6796 -5.04101
12.7774 90.2712 -10.7234
16.2745 84.334 -6.49061
17.3437 82.5312 -5.85626
19.4792 78.1608 10.1982
18.9622 78.9153 11.5352
-14.084 133.461 -4.76017
18.6501 80.2538 -4.16094
-13.8182 133.052 -5.75331
15.8885 84.8974 -7.09441
-13.7002 132.837 -7.08408
1.67421 108.343 -15.4668
11.5421 90.3605 19.3441
-3.77674 115.303 18.0475
-1.40958 111.331 20.0771
-2.69011 115.333 -14.634
-4.50467 118.15 -12.7272
0.833485 109.639 -15.9577
-7.31589 122.523 -10.0509
17.6952 81.64 -5.22075
19.6173 78.3215 -1.86311
-15.6674 135.592 -3.33448
5.00038 100.64 21.3854
-19.6702 141.87 0.0514443
-11.7374 129.296 -7.49644
19.2377 77.9551 10.8812
-20.2716 142.631 1.07497
-20.3643 142.514 5.63239
-2.95658 113.499 18.8044
0.843338 109.28 -15.9928
3.05315 105.629 -15.2919
-7.26253 122.082 -10.2752
-0.853488 109.962 20.0774
8.79817 94.2349 21.0526
-4.04171 117.028 -13.7706
19.9271 77.3273 -0.666538
17.6511 81.2287 -5.1744
3.94477 101.877 21.635
-11.0687 127.885 -7.59704
6.80664 97.1675 21.6306
-17.2937 137.585 -1.60691
-7.26163 120.164 16.6368
-5.12046 116.598 17.5845
-14.4643 132.438 5.30452
-2.21917 111.747 19.7252
4.97106 101.966 -14.7837
13.9574 85.542 17.0954
-5.537 118.832 -12.2606
-16.9462 136.806 -3.3609
-8.09579 122.796 -9.84467
15.1363 83.6565 15.1531
-9.45832 124.866 -8.47456
-4.09326 116.42 -14.1036
16.5467 82.4485 -6.52962
16.5887 82.3149 -6.50182
-19.0413 139.356 7.78994
-20.8247 142.431 4.45693
16.018 81.9871 14.2875
12.4959 89.0918 -10.8783
-15.7432 133.875 7.41781
8.19888 96.2131 -14.1414
-16.0242 134.318 7.58488
15.3525 84.208 -7.60235
-15.3291 133.203 6.86688
14.0379 84.9477 16.9507
-18.5734 138.392 7.9959
-15.6644 134.285 -3.17218
-20.1071 140.892 6.84284
-5.1099 117.622 -12.9572
-17.9884 137.235 8.17022
13.6547 86.7987 -10.161
-7.81599 120.108 16.5348
-7.88513 120.192 16.5104
14.4671 83.9008 16.1942
-5.1695 117.394 -13.1164
1.56897 104.516 21.2652
-16.4296 135.083 -2.92776
-0.98695 110.782 -16.6887
-17.4673 136.134 8.1325
17.4873 80.1022 -5.55462
15.0494 84.1869 -8.01642
5.33238 100.321 -14.6435
-17.0358 135.951 -2.57157
-18.3138 137.979 -1.95652
-13.1069 128.926 8.44576
9.69214 91.2222 20.7058
-5.91212 118.35 -12.4135
2.08604 105.481 -15.5294
3.54794 100.862 21.7481
-1.06965 110.502 -16.6834
-16.6998 135.019 -2.14731
16.3788 80.2776 14.0595
-20.326 140.64 -0.0380452
18.6325 77.4087 -2.43789
11.3279 89.7631 -12.0208
-6.71689 117.403 16.8954
1.8269 105.326 -15.745
7.49526 93.9892 21.7212
4.20214 99.3305 21.6955
16.6376 79.5735 13.6952
4.61817 100.647 -14.8544
15.055 81.9153 15.6735
12.2961 86.0752 19.007
17.4027 78.0896 13.5331
-3.19382 113.127 -15.23
-0.0962934 108.164 -16.7614
-2.26971 109.65 19.454
0.869152 104.445 20.8278
17.1399 78.4093 13.5864
-12.8146 127.109 12.3783
10.4764 88.815 20.2556
0.498983 107.046 -16.5115
6.73164 94.737 21.8082
-5.90012 115.456 17.4313
-12.9392 127.168 12.3193
-16.8406 133.726 7.89636
-17.3605 135.111 -1.98042
-2.11451 109.122 19.6209
-4.2865 114.535 -14.1993
8.88742 93.0998 -13.7227
11.5448 86.8589 19.5504
4.12723 100.827 -14.9891
8.04511 94.3995 -14.1875
-9.54675 121.246 15.7907
12.7344 84.9058 18.5405
-16.9625 133.682 7.97725
-3.13942 112.555 -15.5475
-1.50797 109.705 -16.714
15.7285 81.1566 -7.09069
-17.4006 134.639 -1.80564
-9.11359 121.586 -9.95102
-19.6216 138.157 -1.34447
-14.1945 129.609 -8.05915
-3.088 110.05 18.992
-19.6354 137.992 -1.49389
7.32712 94.9272 -14.3979
-13.8103 127.996 6.75387
11.4231 87.9878 -11.7566
-14.6008 129.891 -6.08698
4.96956 98.5594 -14.8555
15.5258 80.992 -7.24758
16.7139 79.0052 -6.4033
0.416936 103.893 20.6135
13.5981 82.6678 17.4962
-14.1013 129 -6.97735
-9.79865 122.124 -9.42949
-15.0105 130.361 -5.89021
-19.4314 136.75 8.01953
-0.0327627 104.583 19.9589
5.93519 94.7732 21.9979
-10.5165 123.204 -8.8421
0.126759 104.289 20.2073
-15.7179 130.842 5.43341
-15.5137 130.475 5.02741
-17.3344 133.746 -1.84773
-8.69016 118.666 16.4954
8.98031 91.631 -13.4881
-0.152532 106.56 -16.7455
17.1968 77.6359 -3.43575
-21.8052 140.618 1.83904
-14.1548 127.867 7.10881
-14.2767 128.047 7.3836
-17.6646 134.081 -2.84242
4.32989 99.0553 -15.0612
-6.75119 116.836 -13.0217
8.30016 90.4069 21.7066
-16.9666 132.76 -2.75249
-4.35754 111.053 18.6903
-1.98525 109.187 -16.7255
10.9046 87.9942 -12.1845
-16.5795 132.117 -3.73105
-10.8004 122.994 -8.85769
16.3952 78.6455 -6.62259
-21.8275 140.251 1.08734
-9.34712 119.15 15.9609
-22.0127 140.386 3.15777
-14.691 129.033 -7.06454
-15.835 130.156 5.04173
1.39506 103.32 -16.3973
-22.2204 140.435 4.46844
-6.58345 116.025 -13.4642
13.1604 82.1794 18.1576
-3.73499 109.51 18.5229
-21.9306 139.737 6.20864
-14.3497 127.139 11.3804
-11.6033 122.484 14.4091
-17.4692 132.909 -2.63643
3.3187 99.8757 -15.5623
-14.7221 128.618 -6.39518
7.82888 92.4044 -14.1545
-5.52011 114.049 -13.9376
-18.885 135.098 -2.50711
-19.3354 135.234 7.70648
-17.1751 132.234 -1.40858
-13.4707 126.527 -7.04445
1.49429 102.754 -16.3873
-1.35421 107.395 -16.7764
-14.4433 127.938 -5.59412
0.585527 104.132 -16.6182
1.99773 99.7038 20.9874
5.27157 94.2417 21.9604
-15.859 130.092 -5.96979
-10.4923 120.065 15.1897
-16.4842 130.333 5.56013
-15.6728 129.057 4.15645
2.16997 99.13 21.025
9.87244 86.615 20.7608
-8.35455 116.447 16.486
11.0798 86.4568 -12.0716
1.62523 102.032 -16.3278
-16.7578 131.106 -3.8285
-9.80563 118.69 15.9399
-18.4388 133.771 -3.41692
-16.2347 130.261 -4.86368
6.87016 91.1987 22.1137
15.1411 78.0337 16.2741
-11.8197 121.885 14.4353
8.5311 90.3404 -13.5498
12.5354 83.6884 -10.9175
9.77516 88.2627 -12.9877
-22.2415 139.339 1.56635
-19.6882 135.364 -2.25399
14.1666 80.7409 -8.40879
12.7309 83.1556 -10.7312
-21.1734 137.132 7.72146
-4.3009 109.083 18.2387
-4.21857 108.92 18.2679
-20.6621 136.742 -1.98097
-19.1654 133.781 7.34571
-6.52522 112.638 18.1132
12.7697 82.9196 -10.6783
5.01021 93.6407 21.9706
-17.6796 131.818 -2.76536
-17.3028 131.177 -3.06664
-0.761701 102.969 19.9674
-14.8745 127.265 -5.22802
-14.2017 126.245 -7.29448
-3.17597 106.854 19.1486
2.80529 96.9471 21.5727
-15.0905 126.795 7.34917
-20.2736 135.109 7.26179
-19.2654 134.057 -3.49794
-3.69186 109.432 -16.4554
-21.2517 136.547 7.72551
-6.20157 111.532 17.8873
7.87672 88.4251 21.9537
-16.2334 129.063 -5.42411
-15.8091 127.826 3.87006
6.1625 93.1899 -14.8309
-21.2883 136.986 -1.33426
-15.1066 126.536 5.37819
-15.0367 126.338 6.44266
13.8336 78.7868 17.3153
-15.0604 126.287 6.74637
11.5947 84.0235 -11.6305
13.4321 79.2523 17.5713
-2.18143 106.402 -16.8001
2.6748 96.3614 21.5304
10.1745 84.2071 20.649
-22.7628 138.656 2.79991
-21.279 135.97 7.40522
-17.704 130.665 -2.43463
10.7063 84.9911 -12.3205
7.48941 88.1673 22.0509
-9.73053 118.039 -12.1102
-5.0168 110.507 -15.2289
9.58788 84.6813 20.9498
-5.58172 109.423 17.6177
3.56691 94.3313 21.7485
-3.29722 105.633 18.8423
-12.7288 121.207 14.0343
-9.68036 117.71 -12.2351
-15.5915 125.943 11.3346
-10.8431 119.439 -11.2251
9.91437 83.8857 20.8403
2.95716 95.0817 21.5924
6.92846 90.6522 -14.42
-0.0502089 100.022 20.419
11.3482 81.5293 19.7919
-15.7484 126.351 4.94879
-18.1615 130.57 -1.42205
-13.1526 121.561 13.6527
-11.4696 120.125 -10.813
-5.32095 108.424 17.6905
-10.7428 118.664 -11.5459
14.1889 77.9924 -8.15136
10.3856 82.54 20.6437
-6.06062 111.166 -14.1028
-8.09702 114.409 -12.9906
-8.73482 115.318 -12.9628
-3.16354 104.489 18.7257
12.9837 79.8752 -9.84686
-8.90515 115.534 -12.9647
-5.69954 110.284 -14.7905
-13.919 123.268 -8.90269
8.87129 84.5642 21.3718
-4.61928 106.603 18.7144
14.0791 77.618 -8.13176
5.38806 92.0938 -14.9585
8.01014 87.7656 -13.7492
13.747 78.1325 -8.49595
-16.3244 126.208 4.74075
-4.64326 106.433 18.7652
-2.09964 104.21 -16.8211
-15.4191 124.206 11.9186
11.8627 81.1952 -11.2527
-7.26839 112.335 -13.3938
-19.9541 132.248 -2.87284
-11.6494 117.719 15.4159
-0.0875048 98.662 20.1605
-7.73823 112.943 -13.2416
13.7927 77.6825 -8.34828
-18.4397 129.064 6.90689
2.03873 97.0975 -16.0205
-17.8782 128.247 5.04157
-13.1698 120.103 13.9071
3.8487 91.8483 21.4391
-16.4194 125.468 8.2096
-13.5733 120.533 13.5392
14.1228 76.6965 -7.86424
-16.0553 125.644 -7.17714
-17.8475 128.179 -2.88771
-5.84571 107.491 17.4284
-17.7948 128.065 -4.15817
-0.584532 98.7128 20.0652
7.18426 85.9793 22.1367
-23.8234 137.209 5.72318
-23.4639 136.814 1.62057
13.559 77.2659 -8.53571
-16.7464 125.588 7.13267
-16.5594 125.904 -4.30557
7.75601 84.9396 21.995
-5.7036 107.012 17.6384
-16.849 125.608 7.01782
-21.0541 132.967 -2.78147
-14.7981 121.956 12.4293
-20.7 131.831 7.13965
2.56287 93.267 21.2968
6.98928 88.0551 -14.0829
-18.2455 128.414 -3.37164
-15.391 122.857 11.9554
-3.91315 103.789 18.6765
8.21559 83.907 21.788
-1.61764 99.9618 20.0274
9.54421 83.6628 -12.7684
11.2588 80.7896 -11.6994
-18.6842 128.938 -3.97855
-23.647 136.655 1.79489
-18.9734 128.723 7.63874
-11.1407 115.531 15.8533
-5.59301 108.297 -15.9408
-6.81529 108.425 16.8169
1.90715 96.0338 -15.8041
-17.1158 125.402 10.9398
-18.3644 128.175 -2.67306
6.10834 87.0212 22.3016
-15.8917 123.188 11.8972
-2.88466 103.665 -16.8179
-1.81891 99.8164 19.9743
-19.1167 129.252 -4.12656
-7.77478 111.31 -13.3982
0.530701 95.9325 20.2213
-24.0798 136.676 6.14986
-5.80938 108.233 -15.7932
-12.869 117.984 14.5927
7.93467 83.7597 21.9037
1.5699 96.1952 -15.8245
-17.9651 127.194 -4.04894
4.51052 91.3053 -15.062
-23.5775 136.021 0.657652
-12.079 116.504 15.4241
1.1354 94.755 20.6542
-16.5512 124.817 -4.27934
-15.4862 123.24 -7.35261
-2.7617 103.102 -16.8196
-16.6461 124.937 -4.33487
-17.0689 125.627 -4.56811
6.99946 85.0368 22.2124
-6.50208 107.22 17.0806
-18.3626 127.545 -2.83218
-4.10321 103.179 18.6404
-20.8049 130.926 7.35172
-5.88077 107.984 -15.859
-13.5806 120.161 -10.1552
-1.86251 101.509 -16.8185
-13.0623 119.32 -10.7911
-15.0451 122.297 -7.95844
1.50687 95.8231 -15.7462
-1.23476 98.2328 19.8069
-20.1676 129.637 7.79811
0.575375 97.2736 -16.3637
-19.9412 129.914 -4.52531
11.3306 79.5317 -11.5674
-23.4732 135.392 -0.247881
2.92651 93.3166 -15.3296
-15.1872 122.298 -7.77453
-19.3263 128.135 7.4945
-16.8965 124.868 -5.11758
-18.3866 127.184 -3.68348
7.04538 86.4493 -13.6782
5.29913 89.2805 -14.7174
-12.3775 116.25 15.2803
-3.9332 102.252 18.5892
-7.18942 107.618 16.5609
8.49591 81.7877 21.6959
9.58187 81.8698 -12.3082
-15.7661 121.641 12.1285
-14.8075 121.257 -8.78711
-11.9247 115.224 15.2919
-17.9608 125.371 8.25228
-1.67205 100.288 -16.7332
-17.7584 124.736 10.6052
-3.08051 100.412 18.7761
-17.7681 124.71 10.5811
-21.0574 130.224 7.41636
-21.849 131.486 6.96655
9.55079 81.5757 -12.2442
8.85752 82.6159 -12.7031
-17.2287 124.596 -6.37558
-21.7345 131.694 -3.07536
-16.6627 122.611 11.9095
-21.57 130.826 7.12625
-13.1732 118.12 -11.0377
-18.4349 126.177 -2.84269
-18.2156 125.731 -2.47285
-22.8161 133.078 -1.78397
1.64869 94.1079 -15.4657
-4.31945 103.851 -16.7066
-23.0799 133.437 -1.45348
-17.2796 123.275 11.4653
-18.4799 125.516 5.86536
-19.0131 126.363 5.92724
-18.4505 125.324 7.83791
-10.4128 111.792 16.0186
10.8191 78.8709 -11.667
-3.41653 100.286 18.5379
-18.3907 125.383 3.98585
-11.4256 113.43 15.3407
-23.9216 134.43 2.05617
-0.0475547 94.6626 19.9408
9.10713 81.5378 -12.359
7.7728 83.7364 -13.2608
-9.0943 111.104 -13.189
-23.3112 132.933 6.56166
7.45063 82.1024 22.1029
8.76647 79.9484 21.7145
-20.3105 128.525 -2.84228
-23.3575 133.323 -0.530361
-9.93826 112.163 -12.604
-17.3389 123.736 -4.85547
-6.23821 104.335 18.3332
-18.7603 125.431 4.36199
-18.544 125.09 4.16031
-18.8703 125.554 4.76378
-18.9183 126.022 -3.30002
-18.055 124.063 5.39427
-18.4642 124.811 3.46785
-15.2053 118.973 13.0455
-18.5657 124.596 9.16399
-24.7671 134.815 4.9271
1.1758 91.8098 20.5532
-18.8349 125.031 5.33114
-17.8962 123.409 4.76476
-18.5198 124.81 -2.51578
-17.6904 123.023 4.55365
6.8951 84.0875 -13.5174
-8.47984 107.367 15.703
-17.6708 123.468 -5.46898
-18.3467 124.367 -3.03514
-19.2855 125.895 -3.2455
-17.9621 123.281 4.71856
-6.34392 105.561 -16.0445
-16.2557 121.161 -7.48994
-17.5179 123.109 -6.5525
-25.1192 134.715 5.70713
-17.345 122.58 -2.9881
-22.6943 131.182 -2.00956
1.66122 92.3526 -15.1327
5.11745 84.6337 22.3294
-24.7325 134.112 3.91955
-3.11086 98.1096 19.7906
-2.84731 99.7005 -16.5999
-17.886 122.932 4.25004
1.4932 92.5518 -15.1929
-17.9902 123.474 -2.66663
-8.32052 108.367 -13.9602
-18.4189 123.716 3.653
-19.4426 125.76 -3.333
-1.9511 98.0827 -16.6792
-19.0025 124.971 -2.53354
-17.7093 122.481 4.01125
-24.5335 133.601 2.99145
-18.3232 123.308 6.26682
-0.919632 96.3292 -16.4803
-10.9257 110.763 15.5069
-22.005 129.196 7.22644
-12.9642 114.085 14.79
-22.2284 130.159 -3.69048
-22.1614 130.045 -3.74601
-17.5809 122.133 4.3567
-17.1974 121.504 3.47643
-17.8773 122.911 -2.70081
-24.1472 132.819 1.46679
-18.6793 123.613 7.29374
-17.7788 122.854 -5.37976
-15.0678 118.615 -8.51133
2.8733 87.8127 21.2276
4.52551 84.9961 22.1965
2.36819 90.5575 -14.7496
-15.7665 119.608 -7.77611
-19.2333 124.38 7.45339
7.34753 80.3824 22.2333
-18.8919 123.994 3.86253
-9.44522 108.011 15.2495
-0.599273 95.3355 -16.1996
-17.4562 122.072 -5.19842
-17.7577 122.549 -5.02569
-17.7057 121.861 4.17043
-17.6689 121.716 5.52192
-18.8835 124.173 -3.48817
-17.6921 122.168 -2.28789
-17.6996 122.388 -6.16855
5.7686 84.712 -13.8652
-8.93974 106.931 15.4379
-15.0032 116.853 13.8428
-21.2895 128.001 -3.98703
-16.9014 120.525 1.929
-16.9036 120.518 1.91491
-1.29821 94.1918 19.2202
-18.1638 122.873 -3.93688
-25.4621 134.173 5.51494
6.36582 83.5194 -13.6438
-5.04396 100.233 18.3004
-3.69767 99.9821 -16.443
-10.9494 109.945 15.1568
7.66452 81.2823 -12.7318
-22.8929 130.276 -2.08359
-18.0096 122.249 -0.689679
-19.6641 125.111 -3.90046
-2.75723 98.3571 -16.7197
-17.8997 121.354 11.141
-17.0801 120.569 1.24183
-18.5988 123.265 -2.94207
-19.5096 124.312 4.7248
-14.5472 115.688 14.1292
-18.448 122.98 -3.01758
-23.8398 131.568 -0.43004
-14.7508 115.966 13.8433
-18.925 123.251 4.52341
-14.8716 117.438 -9.22719
-17.7556 121.689 -1.75614
0.159124 91.3266 20.2171
-17.535 121.487 -5.40067
-17.8322 121.449 3.16239
-17.2832 120.716 0.0809265
-24.1534 131.476 6.0152
-21.878 127.68 7.52784
-5.75585 100.852 18.3946
-19.2028 123.85 -2.40143
1.88954 90.2643 -14.8124
-7.5399 105.607 -15.4685
-17.0467 120.084 1.39172
-18.5209 122.678 -2.97204
0.924904 91.7744 -15.2124
1.07922 89.4994 20.2209
-21.8375 127.387 7.56887
-3.82793 99.4869 -16.4382
-19.7039 124.023 4.84032
9.91658 76.8502 -11.5094
4.40371 83.8882 22.3033
-17.5551 120.604 2.58228
-17.8898 121.084 3.57265
-17.6689 120.753 3.04676
-17.4903 120.667 -0.651819
-17.803 121.511 -6.89573
-20.5076 125.626 -2.38534
-23.0186 129.116 6.79932
4.48655 85.611 -14.2079
-20.6448 125.701 -2.51229
-11.94 112.084 -11.7396
-16.5528 118.161 12.5697
4.48904 83.4147 22.4217
-17.9013 121.384 -6.9257
-21.479 126.367 7.65126
-18.3574 121.864 -2.63851
-25.8845 133.607 5.84981
-13.497 112.996 14.5113
-15.0813 116.909 -9.40557
-17.3969 120.186 -1.09799
-3.54002 96.5037 19.323
-14.5935 114.735 14.2044
-18.5154 121.319 10.171
-20.016 124.511 -3.85251
-11.5816 109.771 14.7877
-18.991 122.857 -4.11014
-19.6545 123.719 -0.843772
-2.02816 95.983 -16.5914
-19.4487 123.479 -2.72408
-17.2589 119.662 1.74425
-15.0767 115.452 13.422
-3.24103 95.914 19.0685
-13.4663 114.21 -11.3865
-17.8969 120.649 1.94253
-20.6196 125.321 -2.59268
-23.1586 129.437 -2.69191
-18.6157 121.781 0.202914
-18.0712 120.779 1.80878
-17.3223 119.489 1.61274
-23.071 129.089 -3.37402
-18.1931 120.922 0.872335
-9.35236 107.331 -13.6783
-11.7002 111.031 -12.0295
-18.0281 120.265 5.71018
-18.3525 120.962 1.60481
-17.3523 119.351 1.2597
3.0917 84.9976 21.7783
-19.5078 123.022 -2.25448
-10.6557 107.676 14.5961
-23.7161 129.756 -1.10441
6.43591 79.4137 22.4029
-17.9983 120.41 -1.7536
-18.9042 121.914 -3.31077
-25.3295 131.798 6.07533
-18.0606 120.396 -1.64978
-0.0581954 89.9299 19.9851
-9.78417 107.585 -13.3541
-9.03464 104.697 16.3887
-19.3789 122.431 -0.477212
-11.0791 108.092 14.398
0.0545276 91.6814 -15.3823
-17.4414 119.26 -0.789712
-18.3269 120.249 6.17432
-2.5992 93.9391 18.7539
-15.3863 116.27 -9.51028
-23.4066 128.909 -2.89932
2.25959 87.8856 -14.4636
-2.31023 93.4251 18.8205
-17.4756 119.154 -1.21901
2.45655 87.5326 -14.4048
7.77247 78.7539 -12.4608
-4.1981 96.3722 19.3498
-18.4131 119.899 10.9256
-19.1021 121.413 3.7665
-18.2949 120.44 -2.43317
-18.0091 119.344 8.46272
-1.11211 93.2574 -15.9432
-4.24219 96.3519 19.3519
-20.0142 123.148 -2.15704
-19.2713 121.783 -0.412835
-19.8573 122.469 3.91912
-19.5542 122.26 -1.32301
-24.5694 129.901 6.06255
-9.5883 105.019 15.8602
-21.1026 124.281 5.57106
-19.5079 122.015 -0.620365
-19.4311 121.895 -1.38091
-17.9999 119.034 8.17565
-14.1369 112.405 14.2174
8.59841 76.9705 -12.1339
-21.2454 124.861 -2.52112
-18.0615 119.849 -5.48887
-19.2774 121.074 7.36472
-18.8159 120.223 8.44904
-18.4951 119.597 9.48714
-19.3199 121.031 7.39802
-18.5212 119.684 8.17946
3.39015 83.321 22.1197
-18.4884 120.226 -2.83224
-19.1049 120.508 9.30135
-15.368 115.539 -10.311
-20.8157 123.855 -1.8969
-16.113 115.39 12.497
-24.4514 129.641 -0.420351
-12.7791 109.829 14.1968
-5.56402 97.7993 17.8891
-18.4836 119.171 10.6145
-25.7462 131.204 6.22287
-15.935 116.089 -8.50029
2.3636 86.667 -14.157
-18.3741 119.092 7.94254
-15.4755 114.049 13.4298
-3.61749 96.47 -16.7695
-18.6826 119.411 9.89372
-22.254 125.811 -3.33798
-18.9015 119.974 3.60472
-16.6708 116.984 -7.84924
-25.2044 130.348 0.757544
-13.3384 110.261 14.0489
-14.6902 112.434 13.9979
-6.4264 100.717 -16.4036
5.50727 81.1415 -13.386
-16.1905 116.032 -7.95096
-18.504 119.695 -6.39382
-19.1895 120.045 7.0176
-11.1548 106.537 14.2785
-7.82715 100.855 18.1346
-21.1516 123.661 -2.93995
-24.9516 129.651 0.201952
-18.5366 118.642 10.3746
-7.49019 102.165 -16.0003
-22.9703 126.546 -3.32815
-18.3751 118.562 5.0754
-19.859 121.284 -1.31469
-15.286 114.311 -10.6189
-6.40761 98.2689 17.9553
-22.2532 125.139 -2.88491
-4.93915 97.7865 -16.626
-18.151 117.697 10.5344
-6.01636 99.4812 -16.1866
-0.980518 89.2852 19.7298
-26.3193 131.334 2.80715
-14.201 111.035 13.8608
-1.25657 89.6313 19.6652
0.940018 85.9997 20.331
-19.0269 119.138 6.62366
-18.1818 117.62 9.10863
-18.5016 118.362 4.69905
-6.72803 100.426 -16.3242
-17.9327 117.164 8.91587
-7.44735 99.6147 18.0992
-3.94309 93.9036 18.3601
-19.046 119.596 -3.04109
-1.77664 90.2486 19.4551
-23.7073 127.109 -2.99908
-20.6747 122.108 -2.15732
-6.91217 98.6111 18.004
-18.1933 117.329 10.2659
3.21347 83.8942 -14.2046
2.62338 84.8353 -14.0732
-10.567 106.174 -13.2865
-17.8136 116.791 5.18643
-18.961 119.272 -6.19679
-18.9928 119.292 -6.10079
-12.0534 108.376 -12.3923
-17.9139 116.489 11.01
-19.0605 118.769 2.4962
-17.6119 116.072 8.0617
-18.2879 117.077 9.45786
-20.7736 121.687 -0.821183
-26.9979 131.512 3.90796
-18.5002 118.077 -2.55509
-19.277 119.434 -5.34642
-22.9221 125.112 -3.11786
-18.9172 118.001 6.27246
-0.675361 89.4778 -14.889
-4.06243 93.0467 18.2751
3.64319 80.2808 22.6967
-17.5383 115.433 9.07025
-9.52192 103.75 -14.7867
2.02851 82.9559 21.2447
4.80342 78.3571 22.762
-19.4375 119.176 -3.55813
-18.4368 116.964 5.18881
5.95987 78.2937 -12.9569
-1.20865 89.8702 -15.0797
-17.5985 115.068 9.10028
-21.0738 120.961 3.94239
-16.4687 114.243 -9.63498
-19.6677 119.167 -5.42402
4.83403 79.8289 -13.3452
-18.1985 115.844 11.1149
-6.99923 99.1651 -16.0598
-18.1206 115.675 11.0759
-17.6388 114.805 12.0591
-13.4804 107.949 13.3328
-9.89576 101.904 16.4714
-21.039 120.938 -0.413204
-19.5751 118.27 3.7124
-11.1725 105.554 -13.1722
4.45504 80.1828 -13.4786
-19.6835 118.482 1.96098
-6.95295 98.8092 -16.0089
-12.0302 106.791 -12.5863
-20.9023 120.498 -0.473541
-19.602 118.594 -4.82313
-25.7199 127.849 6.98236
-19.6175 118.119 3.75603
0.652436 84.2604 20.3078
-19.7245 118.779 -5.58582
-23.3042 124.437 -2.92457
-19.4436 117.976 -0.23109
-7.86272 98.0548 17.7852
-17.216 113.515 12.5042
-15.1064 111.341 -10.5632
-17.8557 114.809 6.08145
-11.9366 104.685 14.7867
-5.99758 94.6873 18.9683
-23.9052 124.882 -2.50935
-3.26051 92.1126 -16.0098
-17.2698 114.315 -7.48243
-19.5646 117.65 -0.560582
-22.2055 121.904 -0.144347
-19.6998 118.111 -5.17712
-26.216 128.251 0.79879
-2.82117 89.2446 18.8694
4.77881 78.6817 -13.2101
-8.25788 99.9644 -15.9524
-0.273554 86.8261 -14.2442
-0.387581 87.0066 -14.2785
-13.4841 106.565 13.4963
-19.7142 117.303 2.01329
-19.0651 116.205 1.71544
-19.9311 118.073 -6.63084
-19.8298 117.527 0.165171
-10.5883 103.196 -14.3863
-19.5169 117.024 -2.96976
-21.1345 119.446 0.1155
-14.491 109.263 -10.7348
-3.98178 92.4505 -16.0236
-9.50841 99.6528 15.5214
-10.069 100.563 15.2816
-13.2751 105.839 13.8896
-19.8541 117.289 -0.967231
-17.9401 114.463 -7.31798
-18.3627 114.075 11.2227
-14.0614 108.356 -11.4147
-11.7547 103.098 15.1261
-19.1109 115.803 1.44006
-19.822 117.087 -1.29305
-17.3509 113.381 -8.55644
-24.1476 124.033 -2.02623
-3.3043 89.0329 18.6169
2.23066 79.7485 22.5137
-13.7804 106.213 13.5496
-22.4424 121.002 0.40111
-10.5582 100.868 14.8333
-20.1145 117.172 0.398068
-18.0372 113.062 11.433
-17.3222 111.814 12.3123
-19.079 115.273 1.17843
-1.0877 84.9882 19.9098
-3.18362 88.4252 18.7031
-21.5929 119.094 4.475
-16.009 109.59 12.17
-7.03404 94.5969 18.5622
-26.7037 127.519 0.773239
-0.729399 84.202 20.0483
-18.2688 114.168 -6.91009
-22.9602 121.322 0.605679
-20.1786 117.074 -5.14822
-23.4964 121.755 5.95705
-16.2013 109.498 12.1022
-9.77013 100.575 -15.3729
-16.4411 111.061 -10.0384
2.17842 80.9443 -14.0836
-9.39541 99.8103 -15.5872
-19.8553 116.097 -3.6974
-26.6525 126.89 0.411237
-22.2037 119.567 0.861362
-12.7992 105.045 -12.6304
-1.2391 86.2905 -14.1973
-16.5536 110.905 -9.99993
-14.2325 105.806 13.5735
-27.5624 127.806 7.14077
-20.4861 116.665 -1.33134
-20.3184 116.283 0.37346
-3.8922 88.4764 18.4902
-13.6033 105.951 -12.0997
-9.71331 99.7511 -15.4867
-27.7353 127.685 7.12102
-16.4672 110.346 -10.0738
-18.3815 112.258 11.0715
-20.4325 116.438 -5.10149
-1.33916 84.0291 19.988
-8.64713 96.0248 17.3357
-19.2553 114.026 1.83397
-5.76939 91.1304 17.5944
-1.88289 84.6701 19.8436
-18.2727 111.719 11.2448
-25.9458 124.826 -0.372468
-24.445 122.311 0.992508
0.513787 82.5428 -14.0188
-14.7699 107.124 -11.3936
-4.52429 90.7199 -15.7881
-10.4227 100.208 -15.1908
-18.3819 112.663 -7.68173
-24.865 122.315 7.35411
-10.1656 99.7137 -15.2323
-18.5791 112.913 -7.17935
-18.2645 111.7 4.76311
-1.20701 85.0468 -14.1357
-14.6369 105.299 13.3662
3.57754 77.2052 -13.5999
-24.0268 120.952 5.27478
-22.5954 118.814 -0.00339451
-27.4435 126.266 7.45331
-28.2098 127.749 3.12591
-8.45579 96.7181 -15.9923
-12.9874 102.354 13.4708
-10.3001 99.4702 -15.11
-0.94799 82.2688 20.1292
-10.3152 97.716 15.4971
0.930029 79.0483 22.2361
-28.5282 127.648 6.06502
-7.22555 94.2589 -16.6832
0.754239 79.091 22.1068
-14.5319 105.798 -11.8278
-8.8944 94.8864 17.8761
-16.2024 107.05 12.5182
-18.102 111.328 -9.05335
-28.1177 126.9 2.36883
-22.7092 118.181 0.758698
-15.9423 107.761 -9.82552
-9.90621 96.4444 17.0081
-19.7549 113.676 -5.81222
-1.89826 83.2066 19.7571
-23.2284 118.65 4.82993
-5.112 90.3362 -15.9346
-3.35178 85.4591 19.2249
-15.2642 105.079 12.6501
-18.4048 110.262 10.7844
-24.1555 120.125 1.23872
-16.8518 107.525 12.1543
-13.8829 103.991 -12.7044
-25.0038 121.256 1.31369
-2.27621 85.1822 -14.1912
-10.2121 96.3362 16.5586
2.79781 76.8629 -13.9932
-18.4852 111.083 -8.28946
-7.87478 92.3209 18.2656
-3.67009 87.2947 -14.4906
-6.35874 91.7549 -16.461
-6.47033 91.8748 -16.479
-6.81334 92.4215 -16.5266
-15.7693 105.321 12.2947
-4.26837 88.1658 -14.9359
-26.269 122.596 7.79124
-27.6601 125.211 1.3676
-18.6844 110.575 2.21356
-28.7792 126.793 3.7507
-8.85651 93.5552 18.0901
-8.44459 94.8136 -16.4799
-12.4678 99.6886 12.1443
-15.7032 106.224 -10.9519
-28.2982 125.902 2.05913
-16.7704 107.834 -9.65499
-18.0835 108.785 10.3194
-19.6252 111.816 0.81352
-18.1213 109.855 -7.91963
-16.1782 106.814 -10.0621
-27.5177 124.178 7.81879
-15.7513 106.09 -10.9896
-13.8931 101.746 12.2073
-14.6443 104.298 -12.1708
-24.1129 118.846 2.26975
-25.5014 120.744 6.06955
-27.0551 123.464 1.9989
-2.61457 82.7807 19.4149
-20.4197 112.73 0.0629209
-14.3071 103.485 -12.7057
-19.3047 110.491 6.49311
-19.3135 110.38 8.14839
-26.1272 121.461 6.88772
-16.5941 106.888 -9.57765
-19.2024 110.304 4.75257
-19.24 110.232 4.33182
-15.0014 104.261 -12.0611
-15.239 103.312 11.5766
-23.3387 117.092 0.290865
-18.8214 109.298 8.28523
-20.6358 112.688 -0.458607
-12.2162 99.7653 -14.3164
-6.19483 88.1153 17.4413
-25.3582 120.032 1.93922
-16.9874 105.796 11.4711
-15.6426 104.897 -11.4656
-12.2064 97.9899 12.0392
-25.6744 120.119 6.07211
0.692986 78.4214 -14.0894
-19.7265 111.145 -6.87809
-29.2689 126.008 4.33312
-19.2671 109.829 2.06216
-15.4191 103.014 11.2879
1.90599 76.2884 -14.4205
-19.2753 109.398 7.47614
-29.2676 125.786 4.16351
-3.45771 84.8769 -14.2118
-6.65272 88.2844 17.2207
-4.30247 84.328 19.268
-7.33941 91.2514 -16.3732
-8.24333 92.6838 -16.5144
-9.48873 92.7508 17.9448
-10.2089 95.7686 -15.0874
-12.6686 99.6464 -14.1067
-20.9377 112.357 -1.70335
-29.527 125.83 6.21562
-11.3906 95.937 13.6398
-3.84868 85.175 -14.2156
-18.4359 107.652 7.00905
-17.7514 106.301 11.0146
-11.4775 97.5086 -14.1809
-27.821 123.098 2.52312
-18.4247 108.365 -6.97644
-19.2077 109.196 0.017772
-8.70456 91.1319 17.8288
-10.2451 95.4154 -15.1729
-10.6426 94.2476 16.4081
-16.6365 105.486 -10.4529
-9.12939 93.6056 -16.3753
-26.8509 121.322 2.26296
-4.18363 83.5559 19.1789
-14.4191 101.908 -12.403
-1.55407 79.1356 20.5504
-16.1119 103.099 10.6321
-28.7911 124.114 2.93887
-2.38289 80.1389 19.8283
-19.5029 108.952 0.87819
-2.27143 81.8233 -14.899
-20.9357 111.577 -5.14261
-1.10503 79.8976 -14.6573
-18.8379 107.496 6.21308
-16.4602 104.573 -10.9274
-19.5272 108.88 0.935658
-28.1744 122.507 7.8559
-20.859 111.162 -2.16901
-13.927 99.1735 10.7943
-14.8194 100.623 10.755
-9.66951 93.7571 -16.1641
-4.76716 85.6118 -14.2226
-15.6069 103.019 -11.4824
-16.8195 103.76 10.3185
-19.6225 108.904 -1.76977
-20.1178 109.626 -1.82502
-21.4085 111.838 -4.00058
-27.9458 122.05 2.99466
-13.3083 99.2228 -13.7535
-24.8071 116.796 3.39731
-18.3947 106.033 9.10333
-18.3978 106.167 6.66002
-19.978 109.198 -1.99549
-18.9781 107.078 5.78984
-27.4988 120.946 3.46677
-29.0383 123.437 3.49447
-18.2734 105.54 10.0752
-28.3237 121.93 7.48502
-26.0726 118.361 5.83873
-11.5224 95.8612 -14.2527
-29.6476 124.22 3.86624
-5.93343 84.8452 18.5616
-29.9465 124.5 5.7289
-27.5823 120.514 7.26079
-19.6223 108.072 -2.35943
-2.82741 81.5011 -14.9538
-3.83703 83.0897 -14.8815
-8.63013 89.0451 16.9651
-18.8937 106.256 5.18764
-19.0094 107.015 -6.03897
-9.77531 92.5256 -16.3051
-15.2144 99.8628 9.74114
-7.71957 89.1176 -15.7595
-3.43452 82.1217 -15.1357
-15.4651 100.204 9.72303
-29.1817 122.661 4.05531
-18.3691 105.677 -7.7508
-15.3885 99.8644 9.55417
-16.4828 101.598 9.55669
-28.4891 121.17 6.97475
-6.15077 84.234 18.4959
-19.2941 106.569 -1.6976
-18.2778 105.275 -8.64689
-19.3668 106.222 4.49047
-28.6386 121.146 5.97322
-28.4315 120.652 6.71816
-19.3924 106.399 -2.31906
-19.7187 106.536 3.8844
-17.5356 102.563 9.18492
-12.9992 96.4306 -13.4827
-19.5057 106.212 -0.812748
-13.0748 95.0039 10.9489
-29.4376 121.691 7.73947
-7.54163 85.593 17.5172
-9.45125 88.7261 16.8387
-19.7812 106.164 2.96979
-14.7479 98.8665 -12.6194
-17.3627 101.863 8.96465
-11.5852 91.9929 16.6281
-26.3765 116.627 4.43667
-10.1042 89.4404 17.1503
-9.65472 88.6397 16.8037
-19.7949 106.309 -5.35613
-11.965 94.075 -14.6313
-10.3542 91.472 -16.1669
-19.8892 105.977 0.20044
-15.9796 100.149 -10.3551
-7.30692 84.4564 18.0729
-13.4904 96.2327 -13.3531
-18.2461 102.852 5.48267
-19.74 105.338 2.96286
-30.9752 123.28 7.06554
-17.772 102.699 -8.61159
-14.3575 96.1293 9.64846
-13.1423 93.9641 11.4167
-19.9309 105.644 -2.97476
-19.9122 105.608 -2.92326
-9.30149 89.0886 -15.9197
-29.613 120.743 6.74395
-19.742 104.952 -0.0291486
-19.9783 105.451 -2.95019
-18.6841 102.652 8.47074
-30.6633 122.165 7.21706
-18.4962 102.41 6.85077
-31.1009 122.888 6.52716
-4.88596 79.541 20.432
-19.6607 104.759 -1.88821
-1.55178 76.1013 -15.4035
-7.18528 85.1321 -14.3362
-14.2927 95.2765 9.63825
-18.4767 102.231 6.65096
-4.88675 79.3214 20.9283
-18.7083 102.448 7.77659
-5.97199 81.0269 18.7038
-14.4368 95.1922 9.40946
-12.0562 90.922 16.4668
-5.68256 80.4117 18.8405
-18.7641 103.019 -7.16488
-11.5492 89.9262 17.0368
-7.51934 85.1082 -14.3683
-13.5788 93.5014 10.9582
-20.2414 105.193 -4.72493
-19.9873 104.408 1.53119
-17.0876 100.31 -9.38978
-13.5409 93.2061 11.3682
-10.7972 88.3921 16.6754
-12.2128 90.6567 16.4192
-18.1407 101.04 2.73805
-13.4887 94.4125 -13.8701
-12.5099 92.8549 -14.7165
-18.687 101.704 5.33627
-31.3579 122.07 7.2568
-14.8315 95.0963 8.79994
-31.0876 121.423 7.67049
-18.2841 100.613 7.88458
-13.7667 92.9723 11.3014
-12.7342 91.0295 15.8738
-11.0701 90.1036 -15.8388
-20.0631 103.784 0.54309
-15.7834 97.4226 -11.3259
-10.5571 89.1745 -16.2493
-15.2929 95.4157 8.46597
-6.02799 79.7206 19.8489
-12.4233 90.2136 16.4031
-18.9167 102.074 -7.52889
-12.666 90.5271 16.1695
-8.25252 83.1746 17.8223
-11.2261 87.9581 16.5592
-12.8475 91.9835 -14.5353
-13.6995 91.7364 12.8884
-15.9545 95.4858 8.42052
-11.524 87.7647 16.5154
-19.0504 100.595 5.19774
-4.85693 78.6578 -15.7174
-18.8248 100.331 1.04308
-14.7862 94.4876 -12.6949
-10.5882 85.981 16.0649
-19.3152 101.267 -6.34157
-16.31 95.5345 8.39398
-19.92 102.104 -4.60149
-20.0796 102.325 -5.38935
-7.82983 82.9607 -15.1366
-18.99 100.545 -6.37816
-4.89945 78.0363 -15.8811
-7.48819 80.2561 19.0024
-18.7165 99.9039 -6.43359
-10.9438 87.769 -15.9846
-14.0551 91.1756 13.2359
-7.64313 80.2455 19.0397
-10.0433 84.2424 16.7251
-9.72652 85.4808 -14.9769
-7.83212 82.3412 -15.4222
-5.54023 78.4813 -15.8333
-13.9091 90.3619 14.387
-14.3773 92.5821 -13.0556
-18.0648 98.2946 -8.30857
-14.6282 91.5136 12.1999
-9.326 82.4857 17.4521
-18.436 98.5114 -7.03426
-19.2243 99.1301 4.55152
-7.20602 80.7325 -15.8974
-19.2439 99.0786 4.01194
-9.87709 84.9293 -14.8455
-6.87374 80.0931 -15.8936
-16.3899 95.1643 -10.742
-16.188 94.7681 -10.9138
-19.4068 99.6767 -5.34981
-15.3006 91.9744 10.7832
-18.3546 97.1707 5.36593
-19.086 98.684 -1.48826
-19.2623 98.6777 3.53156
-18.9388 97.9637 4.976
-17.977 96.9485 -8.41251
-19.0929 98.5606 -5.52627
-18.7409 98.0052 -5.9047
-11.1544 84.4449 16.121
-12.862 88.9061 -14.165
-8.48779 81.7074 -15.3542
-16.677 94.6715 -10.0857
-14.0304 90.4857 -12.6878
-13.1443 87.3539 16.064
-13.3887 89.2767 -13.9726
-19.9228 99.3069 -3.7172
-19.2657 98.1438 -2.02684
-6.81389 78.6833 -16.0325
-17.9232 96.2273 -8.39389
-14.644 91.0873 -11.9884
-8.50684 81.2556 -15.5143
-17.3431 95.1832 -9.16845
-19.148 97.3051 3.01729
-10.7748 82.8832 16.8993
-15.9135 91.5054 10.4232
-14.9362 89.6794 14.2976
-18.3173 96.0576 -1.82889
-6.65577 77.9034 -16.1525
-19.0655 96.8754 3.128
-11.9509 86.2785 -15.047
-17.5438 94.0175 6.22153
-18.1582 95.0581 4.45253
-9.66248 80.4879 18.064
-19.0166 96.8964 -5.10274
-16.2426 91.4655 9.73663
-11.8711 85.7718 -15.3549
-18.5411 95.48 3.99544
-17.6461 93.9508 4.84623
-16.2298 92.4163 -9.31532
-12.0428 85.791 -15.0222
-18.3909 95.3569 -2.25844
-17.8754 94.0858 4.51505
-14.8553 90.0378 -10.7312
-14.2152 88.8695 -12.4734
-15.9457 91.3915 -8.52933
-11.3127 82.2815 16.7541
-7.71954 78.2608 -16.2662
-9.15597 80.5302 -15.2601
-19.1924 96.1071 -3.04326
-18.7757 95.528 -6.11181
-14.5425 88.6534 -11.9698
-18.7513 95.0438 -6.27849
-18.6913 94.9097 -6.34077
-14.59 88.5502 -11.9312
-11.9496 84.4377 -15.2459
-18.3929 94.0486 -1.5891
-14.3534 86.4885 15.294
-17.8313 93.3564 -7.31192
-12.8169 85.4375 -13.8883
-18.6735 94.1035 -0.373132
-16.7637 90.3537 10.9698
-17.7508 92.3717 3.14503
-12.1121 82.4609 16.2866
-19.1248 95.0065 -5.04488
-18.7684 94.0116 -0.113868
-7.61047 76.7175 -16.3942
-17.8086 92.0773 3.58101
-17.4925 92.0535 -6.63139
-16.0236 89.6981 -8.48806
-17.5155 91.5816 0.863731
-18.2795 93.1643 -6.18442
-17.2052 91.3207 -6.61608
-11.936 83.2119 -14.9705
-12.6407 82.5516 16.0105
-17.0638 89.9822 11.0102
-16.1856 88.3136 13.8586
-18.9111 93.5019 -4.02871
-16.5783 89.6454 -6.48759
-14.5384 86.6073 -12.4926
-12.6433 83.6521 -14.7546
-18.0426 91.306 2.8869
-17.7954 91.3986 -6.08069
-11.8006 80.1341 18.9041
-15.4973 87.7096 -10.5771
-8.77888 77.0481 -16.3293
-12.3931 82.8289 -14.8244
-17.8429 90.6031 2.17908
-18.5035 91.9104 -2.34739
-15.6169 87.5739 -10.1383
-13.4324 84.1772 -13.27
-15.7893 87.578 -8.88139
-17.1224 88.7705 1.1647
-17.1003 88.0481 12.9577
-18.4696 90.5891 6.89756
-18.6539 91.3244 -1.76541
-17.618 89.5008 0.396676
-9.88012 77.7254 -15.968
-13.7963 83.8774 -12.6198
-12.598 80.1114 18.7069
-18.6148 90.5375 6.80778
-17.7536 88.7679 11.1509
-18.6661 90.4626 5.64864
-17.1877 87.5542 13.2858
-17.6617 88.996 0.27656
-18.8371 90.5407 6.00561
-17.386 88.2305 3.95206
-13.8363 83.3962 -13.3423
-11.0723 78.9219 -14.9001
-13.3049 80.7926 16.0548
-15.5063 85.8259 -10.7812
-18.3659 90.1104 -4.57021
-18.5239 89.5476 8.46738
-15.9366 86.2227 -8.93551
-12.8885 81.5409 -14.5254
-18.4599 89.2441 8.69188
-18.6421 90.0888 -1.20199
-14.3593 83.5326 -9.44072
-14.6011 83.9419 -9.79038
-18.6342 89.984 -2.91702
-16.9493 86.8689 3.60878
-18.3725 88.8516 9.12357
-16.9035 86.8103 2.5454
-14.6976 83.8247 -8.46259
-18.6537 89.8449 -3.41001
-17.8922 88.1114 5.10294
-13.5144 80.2597 17.5195
-18.5855 89.4637 -1.41469
-18.5878 89.4544 -1.51453
-18.2678 88.2469 8.89511
-17.7151 87.5062 5.16881
-16.9144 86.1565 4.5204
-18.1497 87.7113 9.44648
-18.1188 87.5721 9.42044
-18.2192 87.7486 7.97448
-17.0843 86.6323 -5.49587
-18.251 87.8157 6.4954
-18.2096 87.6687 7.90255
-13.9327 81.7226 -11.0842
-17.4568 86.7356 0.185899
-14.5266 82.4238 -8.66071
-17.5676 86.2281 10.7556
-14.0253 81.8284 -13.8287
-17.0457 86.2365 -5.67425
-15.0034 83.198 -11.6392
-14.4673 82.3315 -12.3212
-14.8721 82.5753 -6.10999
-10.748 76.3615 -15.0644
-17.5858 86.2072 6.1211
-13.8925 80.9013 -6.35925
-10.851 76.2707 -14.9636
-14.3254 81.3109 -5.27142
-14.527 80.3828 16.8896
-14.1496 81.0675 -7.65797
-14.6857 80.5075 17.4319
-17.3942 85.4736 6.55614
-16.4224 84.3663 -3.02137
-18.1077 87.0098 -2.85645
-17.4257 85.6525 -1.92536
-16.0498 83.6558 -6.35355
-17.6576 85.2584 11.2217
-16.1312 83.5349 -3.24634
-16.759 84.4302 -1.258
-16.1212 83.4732 -3.62889
-16.1282 83.5079 -4.10483
-15.6497 81.6544 15.0161
-13.6423 79.6684 -9.03688
-15.3006 80.9925 15.2212
-14.4035 81.101 -13.0969
-12.5773 78.1762 -14.3402
-13.7751 79.8038 -9.93032
-15.6492 81.2219 17.3873
-14.2019 80.6138 -13.8366
-16.0595 83.0306 -3.80587
-12.6957 78.1344 -14.2894
-15.9629 82.8795 -5.26508
-13.7069 78.97 -3.35501
-14.2763 80.4591 -13.4238
-15.9599 82.2378 3.54327
-14.2523 80.4131 -13.7883
-16.015 81.5263 17.0304
-13.3736 78.3182 -3.51206
-17.1752 83.8131 7.79547
-13.6075 78.2224 -0.83574
-13.5747 78.1412 -0.89443
-14.5926 79.9209 -3.65607
-16.4663 82.3887 6.44246
-13.1907 77.5725 -3.40736
-13.2201 77.2614 1.20776
-15.7759 81.0746 3.37726
-15.6984 81.2595 -2.48149
-13.6912 78.4167 -13.5376
-14.4525 79.3297 -11.9517
-15.8463 80.6265 3.81128
-15.9737 80.9987 0.588587
-13.4875 77.0516 -4.27431
-17.1303 81.559 15.3346
-13.6073 76.9297 -4.66838
-14.6234 78.0224 2.97312
-17.086 81.3258 14.7004
-15.5636 79.5692 0.503684
-15.3885 79.2161 0.858381
-17.7726 82.499 11.1609
-13.9995 77.7256 -13.7108
-15.7681 79.5594 1.27336
-14.762 77.5877 6.23369
-14.4265 77.86 -11.7801
-14.0686 77.0194 -7.51446
-16.3833 80.039 5.27454
-13.9661 76.7612 -6.30898
-14.0784 76.9788 -7.69437
-13.9696 76.8946 -9.49455
-17.4448 81.4175 9.97371
-14.2835 77.5032 -13.5446
-14.0053 76.6386 -9.64998
-18.3704 82.1918 12.0626
-17.3657 80.732 8.15843
-15.5915 77.9442 6.46815
-17.7962 80.96 14.5894
-16.141 78.8096 4.61347
-13.7696 75.8249 -13.9977
-17.617 80.6879 9.46544
-18.2384 81.4614 11.9655
-17.246 79.7947 11.982
-18.2195 81.3163 11.6998
-17.4953 80.1475 11.5652
-18.2081 81.217 12.5414
-16.2568 78.1264 9.74682
-16.4912 78.3127 8.57681
-17.0173 78.8261 10.9513
-17.1655 79.0564 8.14872
-17.7047 79.7477 9.11166
