ply
format ascii 1.0
comment Created by Open3D
element vertex 1586
property double x
property double y
property double z
end_header
15.5618 133.82 -8.63716
17.938 134.152 -6.09424
-22.0639 90.8754 12.8015
19.6762 130.708 1.80188
-18.9605 95.7971 8.80777
18.6887 126.795 6.96947
-16.1294 93.3139 16.5694
-20.668 98.3899 2.44648
-5.99443 118.565 -11.4573
-15.9281 93.4299 16.6885
14.9323 119.902 13.4252
-22.7541 89.8572 13.7209
20.141 131.191 1.78416
-21.7482 95.4351 5.9841
17.7269 134.327 -6.40562
-17.3977 97.263 8.65344
-12.8877 99.0691 11.5484
10.3295 113.411 18.1802
22.8902 133.904 1.01823
23.8678 135.992 -1.05399
18.6338 127.787 5.5749
19.0599 129.429 3.47248
-22.3741 90.7324 13.0463
3.36003 106.065 21.3581
-21.2705 93.0283 10.8201
-17.654 97.3835 8.40281
4.39863 127.833 -12.6249
-21.1121 96.0247 6.28529
17.2667 134.457 -6.74324
4.27129 127.832 -12.7145
-17.7291 106.534 -6.41591
-16.0131 98.2017 9.41352
-19.0461 100.675 1.49258
22.2409 138.581 -6.89514
16.2803 134.983 -8.65672
17.635 136.307 -9.05786
-20.0866 96.5852 6.95157
-1.84346 122.875 -12.2973
14.7777 120.208 13.6637
-19.3621 95.835 9.2982
-16.1915 108.854 -7.76685
-8.96787 97.7495 19.679
4.11204 128.027 -12.7411
-12.4464 95.6219 18.7007
-15.046 110.312 -8.56278
19.0573 130.834 2.05641
2.98141 106.369 21.1817
8.50268 112.167 18.9035
-8.48701 98.1306 19.8464
-19.3055 100.964 1.29264
3.14993 106.651 21.089
19.8479 131.534 2.11624
16.0504 122.032 12.6951
21.5345 132.68 2.45476
18.2736 136.406 -7.79143
-11.3788 99.2117 14.6345
-19.9883 96.9845 7.16617
17.5545 135.885 -7.73072
10.2145 114.222 18.1041
18.7588 128.565 5.7928
24.8775 138.973 -3.25029
-20.0049 97.8521 5.8035
-22.8021 91.0384 13.2947
-12.1248 96.0286 19.01
-10.7903 100.493 13.4677
-25.0949 89.0778 13.6482
0.411326 104.717 21.1036
-20.5915 101.841 -1.29866
11.7014 116.296 16.8651
16.5224 123.105 11.9985
-19.2514 98.068 6.63511
-4.52503 120.365 -10.6739
-20.5701 96.0481 8.24786
11.227 133.156 -11.1202
-12.6289 113.858 -10.4535
15.5662 133.67 -6.32395
-10.2696 98.9493 16.8917
-10.4577 99.0162 16.5636
21.8799 133.329 2.45634
17.4343 136.36 -8.21672
-0.845058 124.569 -12.5956
-17.996 96.6948 10.7085
5.89975 109.768 20.2807
-8.82359 99.7698 17.5932
-22.1486 92.2205 12.7044
-20.343 91.6845 15.9129
5.87215 129.11 -11.2026
-8.37618 100.41 17.1714
-7.68082 101.282 16.6795
-14.4611 98.4816 12.5383
16.3185 123.014 12.3503
-8.9191 100.147 17.0494
-19.1332 96.9388 9.10846
-13.9801 100.227 10.4349
6.95998 111.167 19.6629
0.0727094 125.698 -12.8901
-16.5091 99.3003 8.75329
-11.1719 98.8856 16.3588
-12.061 101.061 11.7154
24.7417 139.28 -3.01782
0.180305 105.275 20.6779
-14.2922 100.229 10.2374
-0.179962 105.042 20.6324
-0.3353 104.937 20.6085
-6.34069 101.28 18.8498
-20.1426 100.39 2.49977
15.8893 122.524 12.974
-1.70516 123.798 -11.7774
15.071 135.465 -9.08137
-2.17566 123.237 -11.4099
-3.71014 102.221 20.8499
-18.0326 106.68 -4.89643
-11.3668 98.6708 16.7869
-9.07892 117.721 -11.2504
-15.03 98.3394 12.6446
-2.39323 103.266 20.9422
-17.3295 99.2264 8.28238
-21.0146 96.4908 7.99933
-6.74624 100.909 19.2322
7.35667 111.963 19.4581
-12.634 96.1633 19.4069
-17.681 108.181 -6.58643
-1.87304 104.83 19.2978
-7.30936 102.348 16.329
-5.74767 101.426 19.8712
-5.6197 101.587 19.81
22.9335 139.887 -5.7034
-11.72 115.538 -10.7545
-2.16112 104.383 19.7622
-17.8064 107.792 -5.94367
-7.92154 99.3952 20.5176
-13.1005 98.3343 15.5916
19.7958 132.229 2.84804
3.58339 108.341 20.8811
18.812 131.494 2.83192
-3.85551 121.373 -9.94247
-10.0243 102.076 13.5326
18.3461 137.786 -8.00327
22.8782 139.947 -5.66512
23.788 140.198 -4.85529
1.85136 128.066 -13.3935
-5.92967 103.88 16.0211
-18.2479 96.862 11.6329
-11.1005 98.8996 17.5676
15.9334 135.842 -7.67503
-5.11615 120.736 -10.226
-3.3057 104.23 19.0048
17.4621 137.209 -7.89961
17.819 127.846 7.82891
-6.94679 100.669 20.145
-3.17563 105.098 17.8084
-11.0516 97.4766 20.0581
-19.3034 99.0349 6.87156
17.7493 138.38 -9.37298
-2.02418 123.846 -11.1885
-25.3901 89.3122 14.9076
-14.8492 112.418 -9.05079
-7.12502 100.191 20.8477
19.7044 132.414 3.07299
18.8238 131.108 4.10644
-3.68996 105.501 16.7759
-6.18645 100.906 21.0461
21.1496 139.621 -6.70805
-17.6167 96.912 12.8275
-9.10224 99.2322 20.1171
-6.78652 100.588 20.9184
-20.1958 101.993 1.44878
-13.0518 98.3001 16.6954
-7.30265 100.299 20.8735
23.1661 137.742 -0.733404
-10.425 98.186 20.346
-26.6842 88.335 15.4056
16.114 136.95 -8.53159
-1.4838 106.688 18.0497
21.2131 139.807 -6.49099
-22.9125 92.8694 13.0567
6.16107 131.026 -11.5453
-4.6564 105.489 16.1303
-20.8088 99.5609 4.95267
-9.67919 98.8141 20.5454
22.4074 140.247 -5.51417
-22.4029 94.4379 11.258
-14.1505 98.1179 15.9305
19.9819 133.15 2.95681
16.4133 137.173 -8.1838
-10.7656 98.2608 20.1577
-16.3246 100.639 9.12008
18.9826 132.003 3.61694
2.83338 128.952 -12.2571
-20.5689 102.163 1.17121
-10.5636 98.3886 20.2382
-17.4528 100.22 8.39782
-23.9312 90.8497 15.3225
24.4917 138.569 0.104618
-7.36208 103.743 15.7239
-12.9858 102.18 11.034
24.5787 139.882 -1.87141
2.7196 128.978 -12.2918
-18.9885 98.8103 8.83432
-20.5183 100.984 3.32499
-12.0859 97.5182 19.8797
-12.8369 102.306 11.1388
8.75196 133.613 -11.984
-3.86425 106.046 16.6526
17.0296 137.476 -7.52051
-15.2944 95.5403 19.0638
18.7232 139.25 -8.2153
-21.0164 100.334 3.8802
17.2949 138.269 -8.44453
-20.2317 103.268 0.138627
-6.70157 104.577 15.5203
-20.1075 103.489 0.0529893
24.4222 140.966 -3.44724
-8.38142 119.321 -10.5334
15.7426 138.188 -10.1206
17.2853 138.478 -8.59444
-10.5673 117.623 -10.5544
-12.9599 102.435 11.1075
-2.2753 106.945 17.5567
-15.343 101.255 10.004
-13.9398 98.1622 16.8725
24.1035 138.692 -0.0343141
3.87252 129.703 -11.4503
23.3437 138.245 -0.187866
6.62415 112.884 19.5811
-20.5247 100.079 5.39369
-1.95261 124.977 -11.1823
13.6802 121.69 14.3991
-14.9189 113.327 -8.87062
-13.7976 114.628 -9.53104
-10.9156 117.466 -10.4159
-17.1679 110.482 -7.08804
15.6636 124.266 12.8744
-3.87234 122.453 -9.35514
-10.1613 118.161 -10.463
-7.25543 104.596 15.3973
-13.5239 102.447 10.8716
9.64953 116.795 17.6626
-15.388 113.114 -8.65321
-2.56672 124.274 -10.2699
-1.07412 107.971 18.2294
-16.3741 101.391 9.25357
6.86677 113.652 19.2924
20.2952 140.279 -6.74659
-20.3416 105.303 -2.22681
17.5377 139.031 -8.1409
15.0455 123.953 13.2275
-19.8459 104.051 0.607109
24.7752 140.644 -1.37668
-9.45947 119.011 -10.3321
-26.2395 90.147 15.0415
22.6421 136.834 2.16231
18.6798 131.589 5.59681
19.6257 140.306 -7.37069
-19.7582 104.874 -0.484177
-16.8801 101.368 8.94702
18.4017 129.996 7.86291
19.5383 140.304 -7.45838
-19.6624 104.439 0.418859
-20.0212 99.3984 8.21706
-2.12638 125.823 -11.6793
25.0303 140.327 -0.232998
-19.8672 93.8552 17.5131
-17.3563 95.4203 18.2749
-15.407 101.885 10.2631
21.5126 140.801 -5.45243
-17.7603 95.2548 18.2126
15.5248 139.098 -10.1534
-16.4833 101.752 9.36389
21.7231 136.011 2.88683
-4.97595 106.793 16.0465
23.5119 139.143 0.129567
19.0825 133.609 3.46016
-22.3004 92.4105 17.1593
9.19994 135.027 -11.5697
18.478 130.976 7.02405
-5.84553 121.733 -9.25034
19.6815 134.519 2.92035
-5.20959 122.149 -9.04327
-13.096 103.464 11.2886
23.6733 141.833 -3.73683
-2.53424 125.567 -11.0097
-15.9403 97.9234 16.7167
-3.19589 107.759 17.15
-17.4287 111.157 -6.75058
-26.1726 90.507 15.6659
-5.88136 106.618 15.664
-3.1418 107.862 17.1974
16.8315 139.821 -9.05754
1.74179 109.881 20.3955
17.2527 128.223 10.5456
-15.9673 97.1817 18.2396
14.4954 124.481 13.1131
15.9335 138.621 -8.04745
-15.801 97.5749 17.8838
-8.06962 105.978 14.2096
-17.4792 111.398 -6.76084
-12.8977 116.862 -9.65603
-16.7864 96.5908 18.3523
-5.11813 107.194 16.1817
-22.2816 96.6667 11.2347
13.5759 138.344 -10.3647
-20.2381 106.211 -1.65886
17.1606 139.637 -7.80033
-22.8318 92.7103 17.0593
-9.00862 105.654 13.82
-19.7824 103.567 3.32419
-20.2138 106.761 -2.40053
22.3913 137.321 2.84301
6.6143 115.359 18.2594
8.93806 118.242 16.5639
-20.0436 104.646 1.30937
-18.4531 96.99 15.8449
-17.9445 97.2703 16.057
-20.063 104.62 1.36954
-21.4312 93.8794 17.1021
-18.2189 97.1193 16.0137
-5.00469 122.787 -8.70378
-18.4579 109.772 -4.80983
-9.01903 105.924 13.6845
-20.8165 100.863 6.77221
-11.3517 104.828 12.5585
15.6206 126.456 12.1925
-22.0579 93.6377 17.0337
13.8407 124.407 13.3072
24.1522 140.465 0.475611
22.9035 142.228 -4.00717
-1.19773 109.209 18.7255
17.9316 131.526 7.06879
14.7216 125.609 12.6359
-8.38942 106.643 13.7375
18.9474 141.221 -7.25796
11.944 137.192 -9.71819
-18.7883 109.674 -4.5638
-0.17475 129.368 -12.5945
5.26739 114.112 19.29
2.67719 111.013 21.0031
22.0057 141.944 -4.42808
-21.6103 94.2225 17.079
5.43011 133.279 -11.6307
13.913 124.849 13.0925
-21.1725 101.218 6.29743
0.386001 110.025 19.789
-18.9081 104.147 4.46845
-26.3265 91.7305 15.1377
21.1747 141.866 -5.19092
-3.9555 124.572 -9.45969
8.43196 118.631 16.2151
-20.632 100.76 7.8282
-24.0797 94.4655 13.6364
-8.79167 106.643 13.6018
13.0774 138.872 -10.6316
-5.27307 123.032 -8.49997
10.3331 120.815 15.264
-26.402 91.7576 15.2024
-4.06675 124.569 -9.36553
12.8133 123.932 13.5232
3.67198 132.188 -11.7004
-19.5612 106.713 -0.178106
2.33378 111.024 21.096
-3.04783 126.615 -11.2386
-25.2726 93.3069 14.344
10.7065 121.693 14.5608
-16.1537 103.025 10.3472
9.6968 136.59 -10.9523
-20.0553 95.7742 17.1567
3.74382 132.319 -11.6482
-21.0615 100.803 7.66666
-20.7265 101.095 7.63365
-10.7433 119.53 -9.46283
-24.7412 93.1143 15.5372
-18.5837 110.634 -5.05034
7.77826 118.657 15.9536
2.20922 111.117 21.068
-19.3759 106.85 0.164006
21.2021 142.148 -4.88195
20.2772 142.206 -6.15556
-19.5581 107.522 -1.06973
22.1268 138.208 2.79219
-16.7653 113.774 -7.59769
-18.6191 110.756 -5.07297
6.57833 117.437 16.6085
19.3526 141.926 -6.78495
-19.4633 107.294 -0.434846
-23.3321 94.4405 15.5279
-13.3316 117.412 -8.90488
4.32091 114.224 19.1342
11.8373 137.934 -9.68204
20.549 142.433 -5.73349
17.9434 141.31 -7.26715
-19.2439 107.205 0.312083
-10.8977 119.737 -9.29692
-2.36359 127.86 -11.49
3.98078 114.137 19.1498
-6.90006 122.381 -8.32268
-1.11846 110.116 19.1701
-19.7467 108.309 -1.9265
17.6393 132.757 6.52092
22.2688 139.014 2.31315
9.89888 122.051 14.0064
-10.4818 106.544 13.0333
18.7319 135.709 3.25208
9.52486 121.804 14.0634
4.31211 115.011 18.4102
12.0729 138.816 -10.2916
10.1427 122.574 13.7389
-15.8972 103.768 10.7901
24.3045 141.247 1.65053
17.2429 141.06 -7.14972
24.1725 143.256 -1.75124
23.9895 140.923 1.83866
-10.2048 120.568 -9.1244
7.17042 119.376 15.2539
15.8316 141.431 -9.47767
24.338 141.506 1.51683
10.7687 123.495 13.3709
-18.1966 103.007 9.42671
-19.6043 105.354 3.81351
0.518073 130.847 -11.7318
16.6952 130.307 10.0636
8.05934 120.833 14.3973
1.54666 131.716 -11.724
2.21775 132.437 -11.9163
10.696 138.016 -10.0139
10.2755 137.851 -10.2794
18.5962 136.067 3.44658
-18.73 105.352 5.29586
19.546 142.825 -6.32573
2.67227 132.786 -11.7398
13.9685 127.684 11.284
-10.1746 107.425 13.1228
-14.303 105.348 11.2203
-10.4025 107.369 13.0468
-7.16963 108.379 15.6181
-20.2309 105.797 2.96929
11.1136 124.925 12.3483
22.2954 143.404 -3.27365
17.3859 133.302 6.90853
-20.2849 109.572 -2.99916
0.657895 131.649 -11.8143
-4.66627 109.48 17.4289
14.6304 128.943 10.6581
13.8185 140.946 -9.94008
-10.8687 107.377 12.9115
-4.97328 125.766 -9.32612
-18.7472 105.787 5.57937
1.92731 113.574 19.6012
16.235 141.441 -7.30096
-18.9248 109.51 -0.652463
20.4954 143.553 -5.20091
12.4141 127.146 11.1442
22.4504 140.501 2.35511
0.122559 131.495 -11.7962
20.8292 139.019 2.84361
24.0854 143.965 -0.997785
-10.4586 121.257 -8.58465
14.7971 129.701 10.2856
-5.6525 124.565 -7.74585
5.42665 119.373 15.0444
8.86491 123.818 12.2991
17.7926 136.196 3.7057
1.31158 132.721 -11.8727
-0.423716 131.291 -11.6821
13.7689 141.408 -9.77799
15.8907 141.998 -7.87239
-2.56858 129.382 -11.1313
8.52358 123.954 12.2399
-19.7289 108.398 1.12604
-17.601 104.51 10.2116
6.72455 121.811 13.5027
-3.93881 110.511 18.1651
-13.5729 106.707 11.9359
-5.29598 125.991 -8.703
13.8835 141.757 -9.62149
17.3708 134.945 5.99908
17.5341 135.247 5.73011
0.311027 132.36 -11.6933
3.54562 117.524 16.6863
-19.7519 112.16 -4.63936
-12.2363 107.582 12.5511
-8.32098 109.145 15.0628
15.3738 143.007 -9.46366
-8.11161 109.259 15.3373
9.08131 125.376 11.3287
12.034 128.544 10.1383
6.22618 121.927 13.4267
-20.2388 110.759 -2.53376
4.22884 135.59 -11.3463
-18.1173 114.164 -5.19216
-12.0033 108.09 12.6396
-7.0669 109.576 16.5954
-2.67865 130.143 -11.2228
-15.6966 106.198 11.0309
-19.2624 113.375 -5.25784
-18.7 104.595 9.8847
-6.99473 124.361 -7.19025
-8.75604 122.908 -6.90504
21.7737 144.724 -3.02311
16.4937 134.185 7.37328
10.1915 127.436 10.2345
11.8598 129.402 9.19211
13.2506 142.224 -9.86434
-5.5844 125.775 -7.33
16.3945 142.933 -6.89065
-12.934 107.843 12.4178
-10.2573 109.195 13.6782
11.2559 128.784 9.5947
-18.948 110.31 0.817323
5.33248 121.716 13.6929
6.76242 138.145 -11.1954
7.6423 138.703 -10.9061
-4.55012 111.123 18.3106
16.3802 134.142 7.85928
-19.2279 104.746 9.78479
16.4534 134.737 7.08921
3.38913 135.766 -11.4267
10.2907 128.356 9.57446
-0.487862 113.076 20.5502
-2.97702 129.96 -10.1627
16.8986 136.697 4.52337
17.9828 137.788 4.15925
-16.8128 106.21 10.6946
-20.1387 107.575 4.27037
4.18873 120.336 14.9
-18.964 106.413 7.69283
16.2651 134.19 8.02455
16.1698 143.375 -7.01802
-2.77752 112.009 19.6362
10.0423 128.446 9.42785
-20.5761 104.413 9.06868
-10.2163 109.572 14.062
-16.3626 116.728 -5.51997
23.5319 144.572 0.686986
7.0557 124.539 12.0611
-6.54215 110.556 17.3044
19.5662 145.063 -5.06196
0.766709 133.875 -11.0276
0.677546 115.268 19.1732
18.6886 138.849 4.03207
20.2055 140.3 3.69146
-19.6706 105.771 8.55525
15.1174 133.511 8.30983
-1.9391 112.803 20.1556
6.37804 124.269 12.2417
15.8872 134.166 8.4428
-18.7952 107.18 7.68204
-18.246 106.042 10.2481
-19.3447 110.153 2.1629
-5.34074 111.431 18.2171
-20.5037 112.803 -3.53986
-3.0834 130.768 -10.3107
-11.0869 109.743 13.7523
-15.6696 118.085 -5.7385
15.4682 144.511 -8.50488
-19.7148 106.045 8.81738
-5.3955 128.518 -9.25529
22.2894 145.826 -1.6692
18.9534 139.752 3.92688
-18.0711 115.572 -4.48075
18.5057 144.888 -4.9381
-4.36186 129.498 -9.38988
-16.1844 117.804 -5.6034
-19.2931 106.74 8.43798
15.4389 134.336 8.42423
-18.0168 111.956 1.80229
8.62109 140.656 -10.5485
22.8624 144.688 1.29458
23.3117 145.789 0.158321
12.4089 143.427 -10.0643
-0.259665 115.234 19.5948
13.6085 144.152 -9.39368
-6.33993 127.224 -7.50248
-15.4429 118.871 -5.63209
1.84757 135.779 -10.8365
-8.11228 124.994 -6.0232
-10.9977 123.295 -6.93716
10.7964 131.233 8.27101
-2.83505 113.305 19.9208
-18.9438 108.567 6.88631
20.6038 146.065 -3.06183
18.9821 145.79 -4.6993
-18.5354 112.248 1.52322
-15.425 119.091 -5.57335
6.38431 139.922 -11.3455
13.5114 144.347 -9.26225
-12.8434 121.807 -6.50625
8.42561 128.742 9.68261
-4.14229 130.323 -9.09964
-19.6992 114.536 -3.44165
8.36405 141.312 -10.7903
22.0561 143.548 3.28739
-1.16279 114.934 20.0603
-18.3366 116.397 -4.43012
-12.644 122.197 -6.5089
-4.51055 112.845 19.2542
-9.10002 111.16 16.1238
-15.424 119.631 -5.44129
-6.73268 112.125 18.013
-6.11236 129.119 -8.76179
20.8862 146.676 -2.38221
-7.97281 111.724 17.3012
12.3838 134.217 7.05279
2.38091 121.176 15.474
-5.74183 130.004 -9.36828
-19.7446 107.107 9.86994
2.46807 121.499 15.1449
-16.6458 119.079 -5.56742
-19.3216 115.77 -3.61282
-17.4476 112.742 3.75365
22.1094 145.279 1.82018
-18.2936 117.359 -4.8066
-19.5474 106.975 10.5435
-0.691649 134.595 -10.0457
-12.1883 110.705 14.0657
22.1966 145.96 1.03667
13.7413 135.202 7.69145
1.06303 135.992 -9.8212
2.87155 122.847 13.9493
2.03541 137.092 -10.2983
17.6603 145.926 -4.49738
0.239986 118.574 17.6028
2.53138 137.745 -10.6192
-15.2383 109.499 12.4554
-20.4758 113.474 -0.749313
-13.8468 121.259 -4.84333
-11.0652 124.385 -5.97905
-19.2558 108.192 9.87249
16.9876 140.568 3.95597
3.41082 123.864 13.7216
-5.93631 113.341 18.8392
-6.72583 113.031 18.3962
-9.18257 125.62 -5.26717
10.9576 133.829 7.40575
-19.4064 109.947 7.15027
-17.475 108.576 12.0088
-18.9321 109.269 9.02933
-19.4845 111.252 5.16728
6.78893 128.87 10.5241
-20.2325 116.001 -3.17243
21.7728 147.112 0.384249
-18.8408 108.125 11.473
-9.84793 125.435 -5.01004
2.49111 138.335 -10.0718
18.6378 147.235 -3.59333
-17.441 113.29 5.14701
16.7467 141.121 4.02305
18.5669 147.263 -3.59544
10.8008 134.426 7.30378
-18.7913 118.277 -4.58013
-3.45334 115.648 19.5763
20.3421 143.861 4.37713
-4.58144 132.063 -8.55613
-7.20018 128.787 -6.55738
-0.830935 118.868 17.8445
3.93518 125.357 13.4277
14.7703 138.699 5.77001
-19.3971 111.782 5.53661
7.67339 130.558 9.95044
-20.1678 114.296 0.553032
1.01108 121.612 15.9841
-20.3707 114.517 -0.0378649
-13.9434 122.713 -5.08885
20.552 144.537 3.91654
20.2399 147.686 -1.56937
-19.6157 116.773 -2.57491
-19.6172 111.439 6.17502
20.2936 147.739 -1.40913
0.17954 136.504 -9.06547
0.566355 121.273 16.2811
10.8642 135.13 7.06101
14.2715 146.854 -7.63602
21.173 146.17 2.39561
14.3383 146.804 -7.43822
-15.4267 122.028 -5.48866
-17.0061 114.24 5.16173
4.98107 127.607 11.8039
-2.66549 116.93 19.4157
14.9769 146.429 -5.85313
8.77231 132.808 8.38777
11.3304 136.015 6.55189
7.28543 143.305 -10.3968
-16.9256 120.606 -4.60426
-17.1001 114.275 5.55208
-18.8292 117.251 -1.51977
-18.4452 118.701 -3.34231
1.63964 138.185 -8.91025
-18.2631 110.487 10.5617
-18.2777 114.771 3.56565
-10.1901 126.129 -4.48986
21.0254 147.687 0.812895
2.41653 139.261 -9.41378
-18.5884 110.962 9.62138
-18.6231 118.154 -2.11116
-17.5121 109.969 12.6751
-19.5784 111.921 6.85447
-18.5493 115.059 3.12035
-17.1252 115.068 4.96884
-16.6758 120.497 -3.29394
-18.3968 110.987 10.0186
-19.5831 111.459 7.9021
-14.2937 111.942 13.9499
0.559914 137.662 -8.73017
1.61315 138.519 -8.73759
20.5217 146.717 2.33097
-14.8987 111.845 13.4344
-15.4336 121.629 -3.15441
-7.94411 129.354 -6.05
-18.1779 118.073 -0.844791
20.4072 146.627 2.50255
16.4718 147.635 -4.18839
-3.67235 134.077 -8.09694
-19.3901 112.167 7.33444
-17.4436 118.882 -0.996336
-17.2903 118.597 -0.325825
-7.93557 131.189 -8.71324
-15.0974 121.997 -2.95561
3.58466 126.908 13.2832
0.340776 123.205 15.2566
17.0233 148.026 -3.46282
-6.13127 132.467 -7.96848
-17.8901 118.25 0.0289051
20.0141 146.455 3.03107
-15.675 121.866 -2.97799
-15.3632 121.771 -2.34274
-2.58262 119.186 18.3699
-17.907 119.085 -1.19434
-0.100336 137.702 -8.48911
-12.9726 125.204 -4.70798
-15.194 122.502 -3.13451
19.8884 146.517 3.0512
-12.2966 125.905 -4.90215
-16.2551 120.267 -0.62538
-19.0127 116.73 1.59739
7.7006 132.899 9.86317
15.0114 142.271 4.11593
10.3862 137.21 6.46795
-11.9736 126.25 -4.50032
13.7628 147.683 -6.1865
-18.247 110.942 12.4025
-17.9922 119.489 -1.12776
-14.9224 122.608 -2.11816
-17.1318 117.059 4.09971
-20.5205 117.066 -0.270429
19.6087 148.317 0.631041
-15.171 112.592 13.9863
-4.09935 134.522 -7.41916
-19.4195 117.072 1.24949
-12.94 113.546 15.4603
18.7898 145.657 4.16559
-7.10462 116.531 18.2827
-14.923 122.759 -1.94924
-0.889873 123.096 15.6766
8.88417 135.336 8.37268
3.44504 128.138 13.1544
17.8099 148.812 -1.96735
8.2163 134.414 9.14451
-18.5149 113.637 8.50774
-19.1391 113.062 8.69492
-17.6932 120.159 -0.938735
-1.76391 122.079 16.5628
16.1736 148.493 -3.29824
6.65913 132.037 11.2283
-14.7146 122.391 -0.632586
-19.0627 118.172 0.639197
-15.714 121.479 -0.398469
1.86611 140.21 -8.19241
-17.5658 112.082 12.5626
11.5349 139.475 5.60525
3.73426 128.94 12.7153
-19.8258 117.515 1.00887
-5.07182 118.184 18.9662
-5.08958 134.496 -7.61196
-2.75639 120.839 17.6679
-6.8137 117.19 18.3921
-15.4029 122.885 -1.96987
-19.0483 112.611 10.0772
4.45658 142.983 -8.83733
-1.0196 137.927 -7.62832
13.5145 141.376 5.53682
12.4462 148.661 -7.66523
-17.687 119.386 1.14225
1.92329 140.693 -8.09214
-16.9349 117.721 5.18099
-16.2607 121.023 0.703885
14.5026 143.254 4.21415
10.0492 147.595 -8.58053
-16.6194 121.574 -0.547023
-17.6646 112.578 12.7667
-19.2566 118.278 1.51073
8.37239 135.456 9.28593
-0.803294 138.407 -7.28245
-16.3335 121.133 0.839184
-0.135269 138.993 -7.32869
-16.8342 121.797 -0.858756
-15.9317 121.239 1.22256
-16.3507 123.417 -2.80848
-17.4432 120.164 1.08538
-16.2933 121.888 -0.196058
6.40018 144.923 -8.39262
-18.877 118.657 1.78745
-17.5599 121.778 -1.57169
-19.0739 113.644 9.78186
-15.7214 124.155 -2.93951
6.48633 145.086 -8.3181
-7.9671 133.592 -8.23819
17.7111 149.575 -1.11995
-10.823 129.98 -5.96219
-19.0219 118.212 2.71234
12.9505 142.117 5.06068
-16.9971 117.878 5.90474
-16.3893 119.916 3.37391
-3.99614 120.887 17.821
-17.2352 121.311 0.0729797
17.6909 149.695 -0.990237
4.9943 144.017 -8.12707
-13.9646 126.249 -3.65021
-9.33031 132.186 -7.28634
-0.313789 139.176 -6.99743
2.27834 141.81 -7.85242
-11.7461 129.063 -5.08139
-10.2705 131.343 -6.87374
8.55693 147.07 -8.17313
6.81341 133.833 11.1665
-6.27426 118.895 18.6324
-16.7392 122.785 -1.21159
-16.9738 122.082 -0.324873
-17.3602 123.011 -2.33013
9.99459 148.184 -8.02004
-3.81335 136.812 -7.28745
12.5955 148.872 -5.70288
-12.114 128.85 -4.95881
-18.1337 120.971 0.19131
14.7825 144.554 4.27334
-17.1116 121.162 1.24627
-17.99 122.136 -1.2868
15.0555 149.752 -3.58397
-17.3929 122.92 -1.76354
-0.390293 139.488 -6.7719
14.0659 149.654 -4.63441
11.2254 149.299 -7.70698
-18.972 119.054 2.58601
-17.4258 119.962 3.12381
1.83286 141.761 -7.43133
-11.9748 128.564 -3.74778
-17.7987 122.359 -1.15461
-5.92158 135.873 -7.79274
-17.5343 122.981 -1.66068
-17.7841 122.923 -1.81889
-17.636 113.656 13.4861
12.4554 143.102 4.39524
-16.938 123.825 -2.12683
-18.6848 122.647 -2.44619
17.6789 147.477 4.10143
-17.973 123.108 -2.20939
3.22593 143.309 -7.66857
-16.0842 114.346 14.5948
-19.1106 119.095 2.96774
-12.0966 128.521 -3.30518
-15.675 124.938 -2.02171
-13.6479 126.412 -1.79268
10.8133 141.545 5.14777
10.0098 140.199 6.30597
14.1278 144.684 4.34121
-17.7814 122.877 -1.31249
-5.31293 136.685 -7.68257
-18.7013 121.685 -0.502004
-17.3445 123.308 -1.37757
0.725878 141.083 -6.95272
-4.08097 123.142 16.1478
-6.42781 136.067 -7.93126
-18.4955 122.951 -2.13205
-18.1647 121.873 0.0572537
1.1398 141.527 -7.03304
10.4031 141.122 5.58951
13.6993 144.489 4.36785
3.47025 143.712 -7.48226
5.43951 133.464 11.7627
17.6413 148.354 3.291
-19.2784 120.573 0.909905
-18.6493 121.677 -0.0753372
-16.6462 122.598 1.0439
-0.881509 126.615 14.8571
-17.205 122.938 -0.132728
11.5841 149.685 -6.51104
-17.1837 124.287 -2.19897
10.5445 149.509 -7.4193
-17.6018 123.699 -1.66441
-13.3647 127.926 -3.00024
-13.026 128.282 -3.08851
-18.2036 123.598 -2.12085
-17.9265 123.232 -1.1446
-16.6238 121.592 3.23227
-17.4183 121.322 2.6528
-15.356 125.702 -1.80782
-17.0697 121.305 3.17575
-17.3942 121.54 2.41748
-15.3227 115.534 14.8887
-17.5174 123.793 -1.38926
-18.3477 123.369 -1.75926
-18.4125 122.254 -0.0254707
-17.6337 123.798 -1.50913
3.03402 131.579 12.5057
-7.72966 135.816 -8.21722
3.8603 144.355 -7.13345
-16.8775 124.593 -1.66029
-1.92129 139.461 -6.48736
-18.1665 123.088 -0.722395
-16.7773 115.131 14.0618
-16.8063 121.78 3.21531
-16.4053 119.014 8.24702
-16.9929 124.856 -2.01142
-17.6941 124.296 -1.99767
-16.6997 119.143 7.729
-17.2127 125.109 -2.63171
-17.1682 123.745 -0.346983
-16.7211 117.747 10.0376
-8.58268 135.455 -8.29077
-13.6539 127.716 -2.17655
-16.2834 121.699 4.29835
-7.35019 120.312 18.0943
7.52786 137.112 9.9734
-17.4498 123.719 -0.43138
-18.9567 122.227 0.0600183
-12.9332 128.459 -2.26287
-16.8792 121.926 3.32315
-16.5591 121.778 4.00209
-13.6483 127.795 -1.99997
12.6049 144.62 4.48816
-17.1217 125.375 -2.51385
-21.4274 119.905 0.852143
-15.4143 122.548 4.34866
-18.088 123.436 -0.545344
-15.3194 116.692 14.0237
-12.1972 117.699 16.4575
-13.9717 128.158 -2.84045
-17.0064 121.611 3.95212
-19.5581 123.254 -2.00297
-2.78435 125.946 15.2719
-18.2537 124.349 -2.09613
16.5771 148.08 4.24547
-17.4879 115.416 13.5243
-13.425 128.916 -3.21373
6.88073 147.39 -7.08285
-13.7808 128.462 -2.90694
-11.5822 132.552 -6.67294
-0.160217 141.415 -6.35811
-17.6655 124.299 -1.05328
-16.6797 118.549 9.65185
-15.5678 122.623 4.5152
-19.5476 123.786 -2.51484
-17.8477 122.851 1.21952
-0.590275 141.115 -6.18347
-12.7134 117.726 16.2993
-18.0794 123.68 -0.310152
-12.3696 129.94 -3.1225
-1.178 140.664 -6.09692
8.5633 148.937 -6.90477
-20.3873 123.406 -2.67778
-18.6068 121.286 3.10184
-6.45431 122.15 17.3887
-12.0989 118.164 16.6086
16.4021 149.273 2.77272
-15.9945 122.356 4.79649
-4.00058 125.067 15.8714
-1.43534 127.631 15.051
-10.3683 134.572 -7.78621
-18.4418 121.669 2.81163
-1.77758 127.416 15.0819
-14.1907 117.232 15.6584
1.40858 143.041 -6.21773
9.83342 142.391 5.78102
-17.239 119.515 8.11292
-17.332 119.526 7.98708
-18.2181 121.664 3.42321
-17.802 125.509 -2.28108
-15.5836 117.608 13.4681
-20.4071 122.65 -0.928638
-12.3241 131.46 -4.79828
-1.08496 141.136 -6.01557
-19.2848 124.204 -1.92724
-17.4693 125.541 -1.73148
-23.4458 119.46 0.612723
14.8984 147.401 4.5993
8.13127 149.007 -6.72319
-5.27237 138.82 -7.40212
-5.11529 124.459 16.2518
-16.739 122.282 4.86258
-17.3498 116.631 13.3815
-12.0709 131.125 -3.30188
-16.884 117.123 13.3302
11.6105 145.113 4.62533
-15.8428 118.226 13.1278
-16.9459 122.277 5.13178
-24.2279 119.088 1.01665
-11.6056 133.344 -5.84966
-16.9582 119.662 9.57883
-17.682 122.473 4.14148
-17.721 117.632 12.028
-20.0983 124.491 -2.16284
0.635351 130.782 14.3736
-16.3691 122.871 5.34146
-9.3696 121.278 17.0004
3.24262 134.138 12.358
6.01966 147.973 -6.58593
7.11425 138.902 9.63118
-18.6174 121.747 4.38039
13.728 151.358 -1.95531
-1.21918 141.987 -5.91443
13.8019 151.334 -1.67845
13.9354 147.632 4.5617
-18.8549 125.662 -1.97664
-19.5848 122.444 2.36966
4.92259 147.402 -6.63472
-1.44878 141.944 -5.94532
-17.8156 118.849 10.5989
5.42295 136.445 11.9379
-16.6846 127.527 -1.97955
-14.1486 119.152 15.125
-20.7297 121.27 3.23519
-14.444 119 15.0777
-17.5727 119.527 10.1898
-23.1247 121.205 0.291045
-20.249 120.997 4.41586
1.68398 132.91 13.3974
14.7263 150.976 0.886147
-19.3567 122.066 4.05002
7.60875 140.992 8.04277
-23.1325 118.65 4.75358
-23.8285 120.392 1.07836
-20.7151 125.32 -2.9165
-23.1833 118.687 4.72525
-17.6323 119.73 10.2232
-16.0954 128.454 -1.91145
-16.4907 122.685 6.97757
-3.36504 141.492 -6.66979
-2.95853 128.286 15.3691
6.21576 138.176 11.1382
0.589513 131.794 14.3348
-17.2321 123.708 4.51057
-18.8683 122.669 4.11221
-21.5256 119.742 5.5564
-18.8298 122.724 4.18566
-20.4196 120.253 6.16431
-22.4633 122.07 0.615653
5.63372 148.567 -6.25282
-0.000898393 143.86 -5.80919
-21.763 119.882 5.18905
-9.8406 136.882 -7.09049
-24.3793 119.529 2.44868
6.04886 138.18 11.3743
12.8557 147.704 4.66953
-4.58578 127.045 15.8384
-19.8504 122.585 3.40257
-19.8199 122.717 3.29421
-19.3216 123.303 3.02639
-9.77575 122.435 16.7749
-4.08065 141.191 -6.42317
-15.4096 129.144 -1.42405
-20.9528 120.102 6.15227
-16.4509 124.439 4.90842
-20.2151 122.07 4.04944
-17.2028 127.505 -0.914089
-22.069 124.599 -2.46175
-13.1241 121.106 14.782
-18.0191 121.003 8.67411
-17.9037 119.566 11.165
10.9267 151.951 -4.35209
-19.9932 122.459 3.78727
-17.8112 124.108 3.98865
11.3403 151.967 -3.7555
-9.18641 122.996 16.972
-17.1365 128.132 -1.55835
-16.8375 127.819 -0.627833
5.08577 137.352 12.1861
-3.32881 142.134 -6.45935
12.5438 151.851 -1.77456
-16.8119 128.512 -1.64313
8.29241 143.048 7.12998
-16.1524 124.283 6.14814
-4.58844 141.065 -6.25446
-23.4467 119.059 5.25517
-11.6338 122.142 15.6087
-5.6339 140.43 -6.43405
-8.00447 124.45 16.6689
-24.7351 119.537 3.1153
-3.26393 142.376 -6.36424
-20.0789 122.436 4.42272
-17.6284 120.794 10.2696
-19.2235 127.425 -2.58593
-9.50244 137.605 -6.60532
-22.671 123.46 -0.551022
-13.7937 121.492 14.1387
-20.1318 122.145 4.91147
-19.2287 123.55 3.81107
13.8197 151.046 1.69807
-14.8415 130.516 -1.85659
-17.4359 127.588 -0.360512
-2.0962 143.17 -5.93789
-6.24949 140.063 -6.22748
-18.4724 122.746 6.25437
-17.5661 120.047 11.8425
-25.2854 119.537 2.71164
-1.7647 143.462 -5.88103
-18.0587 123.92 4.93521
-1.50668 130.885 15.0383
-16.0306 129.641 -1.64715
-19.9263 127.594 -3.33056
6.71413 150.224 -5.74169
-22.2238 123.192 0.984973
11.376 152.199 -2.86035
-20.696 126.941 -3.0487
-18.5229 123.549 5.38308
-4.20002 128.588 15.6976
-10.4828 123.306 16.2427
-21.2478 121.425 5.41879
-18.03 129.417 -3.42926
-20.9504 121.169 6.26398
2.70026 147.252 -5.6395
-6.04566 140.525 -5.9674
-3.01087 134.828 7.26875
6.44019 150.304 -5.70053
-19.7585 123.076 4.83787
-16.2743 129.506 -1.11058
2.47416 147.102 -5.53648
-22.6279 123.29 0.858325
-22.9842 123.443 0.163526
-22.6973 124.99 -1.93033
10.6692 152.33 -3.38457
-8.66719 124.737 16.6324
-20.879 121.583 6.03925
-16.9384 128.752 -0.437031
-5.20638 128.044 15.8765
3.61501 137.004 12.6804
-3.82733 129.584 15.1989
-19.653 128.584 -3.57592
9.61274 146.416 5.18458
-1.78441 137.008 5.81377
-0.850216 134.391 11.3189
-3.17475 135.967 5.75547
1.90611 136.183 11.966
-18.5432 123.097 6.91848
8.30598 151.888 -5.31855
-3.63161 133.947 8.50308
-3.28935 133.486 9.70342
-21.8265 120.574 6.80945
-3.24399 130.275 15.0052
10.1002 152.417 -3.82929
-16.684 126.042 4.57186
-1.0764 136.836 7.1937
-18.1717 120.935 11.0683
-7.49091 132.573 5.96751
-18.4057 124.899 4.4166
-8.07916 125.953 16.0813
-7.65913 132.602 5.93634
-10.8081 137.25 -5.5899
12.9974 150.829 3.02359
-25.3894 119.537 4.4715
-21.5146 121.819 5.76213
5.06547 139.235 11.7142
-16.2109 127.034 4.149
-16.2527 126.482 5.07899
-11.2506 124.075 15.4685
-8.35029 139.239 -5.45335
0.388476 135.269 12.295
-21.478 121.855 5.95479
-6.09053 132.477 8.58624
-20.8729 121.18 7.92265
9.40432 152.589 -4.14887
3.84237 149.185 -5.72042
-20.2914 121.868 7.64712
-12.0222 128.559 7.42903
-15.4539 127.419 4.95913
-17.5175 125.458 5.52945
-1.4418 138.033 5.80128
-5.29057 133.265 8.60025
-4.16058 130.408 14.7321
-8.10577 132.192 6.76708
-23.8238 124.178 -0.419449
-17.3035 125.708 5.60984
8.70358 146.365 5.60962
-20.2813 122.126 7.69175
-25.9325 121.358 1.64989
-23.8576 124.55 -0.855666
-15.8881 126.963 5.53115
1.38504 136.067 13.0107
-26.1294 119.822 4.07076
-16.8067 129.68 0.0955908
-22.3922 126.861 -2.48349
-13.6824 123.828 13.7829
4.74562 140.232 10.8978
-6.39602 128.841 15.1813
-20.7083 128.874 -3.32345
-14.4077 126.667 8.4368
-20.3838 122.603 7.36811
1.13082 135.968 13.422
-15.8933 127.258 5.69212
-4.71417 133.106 10.6087
-18.5515 123.072 9.11075
-8.74616 131.514 8.02037
-19.6673 123.521 7.00457
1.83569 148.052 -5.16604
-11.9799 130.32 5.89009
-13.3796 135.119 -3.72217
10.1006 152.92 -2.34292
-23.2179 126.102 -1.65703
-10.2059 138.52 -5.07092
-0.572758 135.042 13.0462
2.51412 139.247 10.1821
-15.619 128.233 4.73541
-25.5612 120.277 4.87959
-12.2682 128.846 8.09693
-2.24204 134.187 12.3446
-14.8792 128.767 4.86767
-3.10482 132.099 14.6422
5.46762 141.117 11.0206
-9.10333 126.584 15.9154
-12.4173 130.152 5.94077
-24.2029 124.859 -0.64728
-1.16706 139.137 5.86191
-2.03483 133.38 14.121
-23.5765 125.816 -1.32182
-4.20527 133.501 11.1991
-23.3761 126.16 -1.54492
-19.7999 130.193 -3.47288
6.71866 144.421 7.624
2.24812 148.766 -5.22492
-16.6254 126.287 7.04408
-18.376 123.608 9.17557
-17.4448 124.862 8.37546
-12.3277 137.264 -5.14583
-8.3986 127.651 15.6223
-7.51539 132.775 8.45924
0.757602 138.437 9.98992
-6.91897 132.389 9.95122
-5.468 130.854 14.3334
-17.7526 123.878 9.84436
-14.4881 124.524 13.0237
-24.0194 125.597 -0.934288
-10.7281 130.208 8.74189
5.05133 151.365 -5.22777
-24.5329 124.778 -0.019046
-14.6542 124.659 12.9579
-8.78795 133.538 6.1074
4.88468 141.871 10.2211
-2.53505 133.998 13.5203
-4.1993 137.427 5.87884
-16.9959 124.255 10.8571
-11.992 126.491 13.6898
7.05495 152.611 -4.26678
-8.26327 134.33 5.74499
-4.32302 133.116 12.8199
-22.9089 121.535 7.72851
-7.08918 132.119 11.0067
-19.6724 124.509 7.1621
-23.6321 121.497 6.97118
2.6037 149.744 -5.16272
-4.36146 132.708 13.6117
3.18127 141.301 9.39753
11.103 150.573 4.52164
11.3305 151.46 3.47449
-7.19479 132.132 11.0637
-8.26575 132.562 8.99083
11.4553 152.2 2.46946
-20.6748 124.335 6.42444
-7.47891 132.457 10.2505
-24.808 124.819 0.402149
-9.19089 133.669 6.21198
-26.1569 122.929 1.81426
3.0102 143.54 5.9081
8.86755 153.476 -2.53137
11.1949 151.911 3.14077
-3.1218 139.16 5.44246
-8.44313 132.215 9.9576
11.0569 152.834 1.61039
-14.2788 129.847 6.37954
-14.4231 127.819 9.50607
-22.6701 127.783 -1.07534
-10.208 127.906 14.8422
-20.1693 124.965 6.806
-18.0948 125.44 8.71125
-3.98878 138.348 5.94317
-9.37985 128.566 14.9279
-7.28738 142.394 -4.84629
-6.38865 131.887 13.4375
-11.0087 127.801 14.1745
10.9059 151.742 3.49912
-6.40123 136.348 6.24003
7.97285 147.966 5.94366
0.503327 139.998 9.36897
-15.9279 124.898 12.7819
-17.0806 132.024 -0.291465
-21.7277 123.518 7.58343
-13.9405 126.504 12.8995
-21.041 124.666 6.73659
-1.43523 147.135 -4.55288
-8.56749 129.789 14.5234
-26.0466 122.001 4.66931
-21.5697 123.968 7.24543
-23.2522 127.373 -0.456634
-20.7332 125.184 6.40542
-25.2442 125.312 0.374225
2.24494 150.344 -4.89622
-2.25884 141.241 4.11861
-3.4034 139.414 5.63432
6.92943 153.011 -3.1593
10.6621 151.952 3.49907
-7.16482 143.036 -4.98983
-17.2492 126.799 8.50058
-8.91893 134.811 6.27581
-11.1975 128.291 13.9826
-13.0885 138.458 -4.99934
-17.8237 126.549 8.2892
-9.64974 140.943 -4.599
-15.4001 126.996 10.6979
3.94502 143.451 8.90231
-1.38714 141.66 4.94645
-11.9441 139.376 -4.92092
-11.7385 128.199 13.5853
10.6534 152.385 3.13535
-2.88282 146.463 -4.68504
-11.2071 132.913 6.69642
-7.74015 135.988 6.1722
-2.44729 141.757 3.62383
-16.6821 125.651 11.6024
-25.6407 122.573 5.0632
-16.3334 133.671 -0.998429
-15.0993 126.326 12.6188
-9.13244 131.274 12.4061
1.81374 141.784 9.47043
-15.5364 129.401 7.3113
-2.82198 141.737 3.65192
3.54805 145.319 6.08998
-15.5604 127.138 11.0837
2.77896 144.016 7.27601
10.1737 152.186 3.66002
-16.5819 133.89 -1.0219
-18.0066 133.631 -2.38445
-16.186 126.148 12.174
-2.91504 142.106 3.33659
-11.469 133.363 6.57895
-14.6973 128.177 10.8674
-26.5538 123.583 3.14038
-5.17697 139.273 5.20638
-18.4605 126.926 8.19187
-14.5545 136.543 -2.43116
-4.49992 139.748 5.42717
-12.7764 128.854 12.5519
-23.6563 123.675 7.1433
8.80464 150.534 5.33402
-25.1416 123.547 5.51487
2.87079 143.563 9.16567
-14.0982 137.984 -3.64317
-15.0095 136.529 -2.37071
-14.2978 128.644 11.4134
-0.0350853 142.308 7.60681
9.89561 153.034 2.99827
0.873864 143.327 7.16407
-0.583276 142.734 6.25135
2.81222 143.668 9.16133
4.58297 145.261 8.88176
-5.43611 145.497 -4.41378
-12.6857 129.801 11.9103
9.58359 154.38 0.806333
-9.43596 135.532 6.98095
0.814908 143.431 7.36115
-2.63433 147.709 -4.05569
-12.6674 132.599 7.63031
9.75048 153.253 2.93029
-22.6361 129.275 0.233064
9.75093 154.395 1.13979
-0.0514051 142.819 7.35133
-0.49425 143.56 5.59719
3.80047 145.834 7.43839
-5.03532 146.038 -4.23261
-16.2133 134.895 -0.462688
-4.25221 146.582 -4.05302
-21.2763 126.659 6.48197
-2.50882 147.999 -4.02021
6.47555 148.721 6.48524
5.72559 153.57 -2.31938
-11.4982 141.042 -4.09687
4.98266 147.02 7.58829
-20.0156 127.701 6.83916
0.356486 142.876 8.42253
-1.36872 149.258 -4.0202
0.287529 143.134 8.20471
-18.764 128.281 7.82019
-0.728034 143.729 5.96632
-20.2549 133.362 -2.20338
-11.9229 134.094 7.45105
-20.6477 133.137 -2.23363
-14.6668 131.033 8.93962
-10.0766 136.13 6.63662
-0.948129 144.06 5.52423
-4.90168 141.015 5.3899
-26.1551 125.643 3.25295
-10.0642 143.233 -4.55411
-21.8219 131.125 0.0567116
-25.8292 126.386 2.75584
-8.08798 145.277 -5.07392
7.94967 151.83 5.08466
-6.17035 140.532 5.39572
0.418284 151.627 -4.04944
7.46872 154.668 0.185071
4.69365 148.22 7.22557
-16.6209 136.107 -0.545369
8.74546 154.851 1.94548
-11.2711 142.752 -4.0568
-25.5741 126.16 4.56927
-23.7352 126.11 7.042
-2.4611 149.636 -3.65797
-13.3515 133.503 8.7683
-18.0762 135.743 -0.733896
1.42106 152.814 -3.348
-7.44385 146.794 -4.88367
-25.6004 127.09 3.84987
-24.7414 126.416 6.10488
-20.2253 135.092 -2.08912
-13.9829 140.828 -3.26401
-11.2028 136.133 8.01465
-21.7579 133.06 -0.427764
-24.1617 129.238 2.7054
-21.6567 129.001 6.37411
-25.3538 127.595 3.96537
-21.5279 133.755 -1.12483
-24.2193 129.235 2.78125
-15.5336 132.676 8.45853
-12.9783 134.748 8.4706
-16.8063 131.909 8.19456
-25.2362 127.993 3.72457
-23.4301 130.239 2.39967
-4.98097 143.704 4.41084
-21.6543 132.919 0.803486
-21.9509 133.608 -0.589691
-10.5668 138.308 6.65758
-12.9885 142.931 -3.82218
-6.48947 142.29 5.66649
-11.9826 136.16 8.58192
-21.6737 134.269 -0.682176
-12.469 143.816 -3.90051
-2.75012 151.229 -3.17013
-8.02861 147.954 -4.59175
0.672506 153.667 -2.61967
-24.3175 128.57 6.18786
-19.6634 131.529 7.43665
-16.2052 133.885 8.54272
-4.80503 150.305 -3.38607
-11.1514 145.917 -4.278
-2.24445 152.231 -3.01389
-9.71686 140.971 5.87138
-11.6569 137.715 8.68311
-2.15466 152.51 -2.95167
-21.8704 134.98 0.211569
-6.99727 143.587 5.43987
-11.622 138.311 8.18321
-15.2816 134.78 9.24504
-21.9709 133.18 3.22887
-22.085 133.906 1.92825
-24.2881 130.083 5.52394
-13.2912 144.101 -2.94474
-22.3206 131.183 6.55165
-11.838 138.246 8.65536
-23.5748 130.213 6.69412
-8.65998 148.848 -4.29626
-19.262 133.019 7.81539
-7.0288 144.336 5.21414
-3.38761 152.257 -2.82802
-7.4 149.842 -3.96435
-7.15421 144.467 5.17176
-7.16309 144.477 5.16863
-8.91666 143.096 5.27109
-17.9049 134.417 8.09013
-5.08355 151.414 -3.01816
-11.1216 147.144 -3.84973
-17.5097 134.649 8.34765
-6.60163 145.553 4.76748
-14.9253 142.824 -1.43076
-4.441 152.065 -2.69876
-13.7333 144.498 -2.27112
-5.78957 151.416 -3.21425
-12.2437 146.307 -3.19624
-5.78285 151.532 -3.16981
-20.1374 133.556 7.84975
-9.11334 143.896 5.34299
-20.5118 137.65 0.893827
-10.8721 141.565 6.97298
-11.6908 147.233 -3.23243
-15.1339 143.662 -1.75661
-22.6001 133.191 5.69133
-22.061 135.748 2.54085
-14.7267 137.724 8.80414
-15.798 142.208 0.163881
-6.89463 147.34 3.38794
-14.7155 144.351 -1.72902
-3.41872 153.741 -2.22654
-23.1688 132.712 6.54574
-14.5374 138.472 8.58961
-10.4347 143.352 6.08388
-3.6231 153.899 -2.12944
-3.93884 153.832 -2.12876
-9.26177 144.999 5.39221
-22.137 135.036 5.01598
-16.8098 136.797 9.10848
-12.2018 141.367 7.93244
-7.74339 151.598 -2.95178
-4.03374 154.014 -2.03088
-16.0262 137.817 8.94442
-22.1972 135.688 4.52416
-15.9267 143.402 0.226293
-11.4522 142.623 7.29944
-21.5954 134.562 7.57824
-21.1258 138.267 2.19785
-17.4395 137.031 8.98322
-13.979 140.044 8.58059
-14.9501 139.495 8.49829
-15.0147 144.848 -0.162819
-14.7238 145.295 -0.252817
-9.47398 151.015 -2.71669
-10.6497 144.96 5.74259
-20.8272 138.353 3.41115
-7.72608 149.126 2.94848
-12.7659 142.088 7.91436
-22.0058 136.703 4.84766
-14.6977 145.634 -0.19004
-21.6076 137.479 4.29236
-21.8459 135.608 7.09514
-20.8127 136.143 7.61866
-22.0662 136.473 5.4754
-14.779 145.693 0.00659448
-21.1641 136.081 7.42756
-21.9156 137.089 4.82236
-16.4901 144.327 0.420329
-11.8684 143.887 7.31307
-21.7354 137.254 5.57459
-20.6161 139.822 2.86534
-21.6134 138.005 4.57445
-8.09169 152.502 -1.55448
-18.6729 138.047 8.36956
-16.0386 144.953 0.545063
-20.677 140.231 2.35537
-11.7741 150.137 -2.13213
-19.6281 137.893 7.86048
-21.4038 138.247 5.0608
-21.4528 137.573 6.1161
-14.376 147.536 -0.736573
-20.5202 140.741 2.4401
-14.8636 141.576 8.52982
-18.2282 139.233 8.13298
-11.397 150.669 -1.55297
-20.3688 140.972 3.06635
-7.1768 153.712 -0.639706
-17.6108 144.398 1.23546
-16.9092 140.561 8.42352
-8.12071 153.138 -0.71699
-8.55373 151.336 1.6773
-20.7789 139.582 5.08203
-9.7818 149.871 2.90318
-15.0304 147.485 0.136564
-9.30279 151.091 1.89469
-8.36117 152.768 0.404101
-11.5557 147.175 5.52142
-10.2595 152.057 -0.737073
-10.0863 149.981 2.91159
-9.64478 150.736 2.29055
-9.01404 153.007 -0.318697
-12.7479 150.018 0.0296576
-10.3629 150.294 2.67004
-10.7521 150.434 1.9803
-16.9872 141.876 7.90883
-13.8365 148.521 1.23921
-11.9593 149.369 2.35074
-12.9736 146.063 6.53193
-18.7202 141.502 6.91988
-19.0112 143.54 3.32284
-13.1543 148.559 3.10882
-12.9936 148.619 3.25213
-18.888 143.559 3.89673
-18.7889 143.813 3.78147
-14.307 147.926 2.92893
-15.5257 145.981 4.80293
-15.32 145.737 5.51142
-16.4191 146.004 3.68781
-18.5103 143.702 4.96241
-17.5736 145.623 3.09842
-16.8996 144.479 6.05403
-17.2896 145.015 4.80054
