ply
format ascii 1.0
comment Created by Open3D
element vertex 1946
property double x
property double y
property double z
end_header
-17.7051 109.022 -9.25676
-14.7828 100.001 9.97277
5.42656 128.07 11.0751
-17.8736 100.363 2.84642
-8.08063 104.858 16.6802
10.268 147.893 -7.99484
8.89287 146.294 -8.54164
11.5478 140.083 6.05155
-14.7936 114.173 -11.1024
2.41202 137.867 -9.90414
14.2769 150.83 -4.09754
-5.75158 107.129 18.001
-18.8612 100.34 0.393693
-1.43268 112.006 19.6531
5.68291 128.005 11.0764
-18.2389 99.1279 3.3324
-10.2324 120.271 -10.916
-18.2634 98.2516 4.52946
11.1926 138.977 6.43244
2.17005 120.915 13.9807
15.9173 146.645 4.92238
-4.21834 108.377 18.816
-17.9968 107.938 -9.33516
13.2704 142.508 5.24247
-14.9179 99.4364 9.30489
-18.2727 107.014 -8.80787
-16.1972 98.7826 7.57342
8.27292 145.021 -9.11406
8.63195 133.138 9.01048
-8.58099 102.918 17.1199
-17.9971 99.4566 2.46196
9.24822 134.039 8.71696
-5.08801 106.749 18.617
6.26268 128.188 10.9423
-1.37698 111.023 20.0875
-18.3627 105.783 -7.86352
-18.3059 106.306 -8.54362
5.80763 127.078 11.3699
-18.2336 98.641 2.75891
-13.9165 99.2848 10.6517
-2.28475 109.643 19.6467
1.00319 115.256 18.2726
12.1449 139.291 6.36148
4.80348 140.189 -10.2915
-7.50106 103.501 17.7051
5.90805 126.948 11.3884
-8.91228 120.848 -10.6441
1.02812 115.256 18.2596
6.19929 141.937 -10.0258
3.50754 122.364 12.9805
10.6083 136.194 7.49719
-19.9666 101.896 -6.19011
15.5822 150.333 -2.8387
-0.339135 111.886 20.1666
17.1163 149.782 0.888957
-5.27385 125.858 -10.871
1.54262 116.279 17.3832
6.36052 141.938 -10.1428
-2.68746 129.991 -11.5758
14.9262 150.047 -4.18985
2.8093 120.078 14.3662
1.21331 115.161 18.2172
10.8076 146.993 -8.4226
2.2346 136.293 -10.7238
-19.7559 99.3681 -2.63349
8.57996 131.677 9.24002
17.6433 148.398 3.65023
-7.57534 122.05 -10.5053
-10.8942 100.031 14.7139
-15.3849 110.946 -10.7471
2.37485 118.385 15.45
-5.07896 125.692 -10.8588
15.0842 143.838 4.69073
-15.888 109.988 -10.4665
1.31077 114.837 18.3447
7.2946 128.823 10.3705
-11.3469 99.9214 13.5992
-17.7628 97.0352 4.42006
12.6052 148.481 -7.48661
-17.1578 96.3302 6.67943
3.72675 121.339 13.55
8.84687 131.549 9.25948
-7.37902 121.934 -10.5894
13.358 139.54 6.94101
16.4143 145.351 4.80272
0.973273 113.195 19.5496
14.2984 141.83 5.45143
14.1409 141.026 6.13855
11.4594 147.091 -8.42221
17.8174 148.917 2.12654
-19.6923 98.6639 -2.69671
3.99145 121.348 13.5494
9.98916 145.431 -9.23235
12.7339 148.237 -7.64374
-17.3717 96.5263 5.1527
-17.2686 96.3843 5.54575
16.8601 145.566 4.84239
17.7049 149.513 0.814885
2.02876 115.815 17.3926
-7.05574 121.939 -10.5981
2.18757 116.271 17.0071
-2.26605 129.702 -11.9976
14.7364 142.436 4.783
4.34979 121.744 13.3475
-15.2408 97.3665 8.03946
-10.3635 99.242 15.4198
-16.2498 96.3458 7.33057
-19.827 99.8519 -5.28122
-19.78 99.692 -4.95565
4.61908 122.036 13.2
-1.61677 108.529 19.8632
5.52014 139.643 -10.8008
-19.4121 98.3799 -2.57457
-12.0395 98.8013 12.2087
-16.8397 95.616 6.67154
9.80644 144.713 -9.55124
14.1511 139.634 6.86482
-17.8485 96.2443 3.5302
-13.9648 97.549 9.66115
4.46977 120.952 13.8653
-1.42599 130.036 -11.8909
3.73359 119.165 14.7831
12.8291 136.937 7.71144
-3.20718 127.294 -11.7418
7.29284 141.668 -10.8528
4.38259 137.642 -11.057
-9.02522 119.021 -11.8237
-16.4198 95.2671 7.44414
-15.3358 109.052 -10.4759
6.37953 124.868 11.7327
10.9694 133.852 8.13884
-3.60441 126.546 -11.6284
-1.87869 107.635 19.6515
14.6295 140.265 6.36399
18.2184 146.797 4.29575
18.4435 147.683 3.39853
11.6966 135.274 7.43639
13.6154 137.624 7.76442
-6.30437 101.907 18.3599
-8.46748 99.6789 17.0998
-19.5727 99.2189 -5.4536
-12.8038 97.6272 11.0029
3.26488 116.979 16.2414
-16.1112 95.1761 7.63746
-7.12722 120.907 -11.2719
0.749613 132.277 -11.4673
-17.7382 104.616 -9.67604
-9.70179 98.5111 16.0227
-13.3043 97.2204 10.3565
-3.4479 126.237 -11.6147
-18.0744 97.6719 -0.417896
-4.70476 103.699 18.641
1.68151 111.371 20.6844
-16.6188 95.0251 6.34848
-19.4437 99.1836 -5.67077
-10.0131 97.8146 16.0313
-15.1444 95.953 8.00014
-14.0179 96.4942 9.39337
-0.988108 107.944 19.7641
2.43667 113.505 18.7681
-16.4325 94.7108 6.82118
4.11582 118.123 15.4435
5.80018 121.754 13.6283
-16.4782 94.7522 6.56074
-3.08255 126.457 -11.9714
9.85697 130.184 9.53136
5.01238 137.455 -11.2377
-0.729792 129.724 -11.9176
2.46792 113.111 19.0524
-18.2472 96.7503 -0.274501
11.4308 145.17 -9.16766
4.43805 118.691 14.9839
-14.2701 96.1067 8.95802
3.5379 135.153 -11.0019
-18.2528 95.8714 0.949324
-3.54852 125.062 -11.0938
6.95621 124.04 12.3376
9.10437 128.71 9.95008
-16.4585 94.6547 6.35051
-2.7 105.525 19.1037
-11.9004 97.2099 12.0485
1.60179 132.512 -11.4879
-8.91175 97.9678 17.0879
-18.1092 102.526 -8.80773
4.38068 117.675 15.9076
5.15924 137.349 -11.3026
17.7558 149.159 -2.30839
13.1148 146.591 -8.27541
-10.6855 97.0379 14.5179
16.3343 148.376 -4.20017
-4.82033 102.557 18.6095
11.1642 132.241 8.5102
2.92782 113.365 18.9235
6.25747 138.609 -11.0765
10.8718 131.513 8.93159
-16.232 94.0918 7.07197
3.40677 114.501 18.1914
-11.6952 113.611 -12.0698
-7.42334 99.1038 18.0714
16.248 148.202 -4.35686
-5.46339 101.528 18.5445
7.11686 139.665 -11.0151
-10.7209 115.19 -12.6022
13.1631 135.32 7.78817
3.11134 133.828 -11.0341
6.11834 120.711 14.4428
4.94945 136.541 -11.1911
-16.3496 94.1745 6.18165
-3.51271 103.851 18.7808
-2.73063 104.843 18.9358
19.3349 148.728 0.72757
7.34743 123.272 12.8328
4.67576 116.83 16.5636
8.47676 140.623 -10.3305
-17.0981 104.075 -10.2867
5.16397 118.112 15.6627
10.4186 143.22 -10.131
-0.0809056 107.734 19.8522
-13.9362 109.334 -11.4748
-6.96806 119.58 -12.0178
12.1614 144.645 -8.9394
-15.9754 105.966 -11.1024
-13.703 95.1519 9.45393
6.78024 138.293 -10.9274
5.47774 136.753 -11.4361
-13.1535 110.324 -11.6866
-14.9511 107.455 -11.248
18.2493 148.758 -2.37646
11.3838 131.103 9.10837
-8.50741 117.581 -12.7062
-9.81082 115.833 -12.8769
-18.311 94.9492 -0.106318
-16.6154 92.5607 6.92352
10.2321 128.922 9.67289
13.2546 145.614 -8.45288
14.9344 137.485 6.93399
-13.3792 109.841 -11.7649
7.07792 121.28 14.2248
-18.0109 96.3762 -1.84471
15.0687 137.767 6.63645
-4.89828 101.122 18.5648
-4.15465 122.431 -11.1218
19.4981 148.986 -0.598148
10.6862 129.435 9.57158
-18.071 95.7208 -1.23907
-10.2508 114.678 -12.6569
-4.36593 101.673 18.6534
16.5934 140.789 5.06959
14.8463 136.501 7.64856
2.12355 131.285 -11.2972
11.1428 143.225 -10.0152
-9.75589 95.3912 16.3457
-18.1779 93.7887 1.07597
-1.63256 104.967 19.2703
-12.8854 110.145 -11.8464
-3.40753 123.254 -11.295
-2.38485 124.851 -11.5887
20.1511 147.759 1.8657
14.8426 135.524 8.64791
-18.1565 94.7915 -0.706893
-0.162084 106.401 19.8821
-4.62458 100.904 18.5644
-1.35201 105.015 19.3659
-18.7369 95.7175 -3.3582
-17.5045 101.685 -9.53487
-8.4361 96.2415 17.225
-1.38088 104.832 19.3569
-16.8088 92.1831 5.59678
18.0434 148.147 -3.52644
14.5738 134.909 8.55545
5.49315 116.048 17.181
-18.1848 93.4735 0.697176
4.8144 113.566 19.2998
4.01773 111.525 20.5848
13.3464 133.47 7.92028
9.68065 125.433 11.8985
-14.7342 93.1151 8.19174
-0.232319 128.219 -12.9634
15.2702 135.949 8.0011
18.1533 142.436 4.52059
12.0822 130.551 9.20435
-17.973 94.9329 -1.45874
6.56686 117.804 16.3142
-17.8387 93.2086 1.28262
9.11472 139.376 -10.0021
20.6017 148.3 0.918485
-16.8456 91.1448 6.34182
0.676028 128.956 -12.4286
-12.2089 94.3878 11.2349
-6.92661 97.3741 17.8918
5.54456 114.807 18.296
-16.7857 92.3593 4.48113
-16.9097 102.341 -10.392
-3.02682 102.2 18.7861
1.43947 129.476 -11.933
-9.56069 94.1338 16.7882
12.8957 131.744 8.6334
20.7571 148.263 0.871556
9.69641 140.008 -10.2156
17.8934 147.644 -4.28241
16.5162 139.211 5.11821
-18.8997 96.2452 -5.98327
18.9852 142.941 4.70752
2.38021 129.933 -11.12
7.40978 136.882 -10.8272
-6.92936 117.666 -12.7175
5.17614 112.712 19.8193
20.5438 145.601 3.7547
-18.7178 96.6673 -6.66073
-17.9848 99.2454 -8.91007
-10.0505 93.8429 15.556
-5.21166 98.8563 18.3005
20.822 146.272 3.25756
-18.1984 93.4337 -1.00661
5.83661 135.006 -11.6892
2.82724 130.339 -11.2702
-12.0186 93.4482 11.6925
13.5386 132.193 8.34483
5.69854 113.489 19.3104
-17.1979 90.7762 4.72648
6.28609 115.148 18.1071
15.2537 134.181 8.89231
-11.6368 93.3791 12.4139
-10.4524 112.012 -12.4819
-9.89284 93.2925 15.9611
-4.47638 120.008 -11.92
21.208 147.134 1.96167
-16.9851 91.599 3.455
-12.7053 92.6136 10.9067
-14.8773 91.4866 7.95831
-18.3119 92.8423 -1.25112
-11.3576 110.318 -12.3695
10.789 124.613 12.9608
12.7999 129.652 9.69823
-9.57747 112.986 -12.6952
-17.8642 92.4306 0.0248217
-15.4491 88.3588 10.9722
-11.7045 92.0407 13.3952
-11.6368 91.7642 13.9112
19.1914 142.024 4.72357
10.8736 124.383 13.1662
12.8284 128.638 10.9271
-14.8158 88.8765 11.3133
-13.0487 91.6238 10.963
12.9101 128.644 10.9584
-12.8757 91.6748 11.2
5.97769 134.301 -11.8167
14.4302 144.264 -8.74829
8.49699 118.626 16.3237
-13.9649 106.067 -12.2306
-14.4766 89.1398 11.3883
5.7321 133.603 -11.5356
13.1991 142.853 -9.52471
-11.6933 91.1263 14.1542
-14.3123 89.9734 10.3617
-12.1789 108.53 -12.4967
-16.1313 88.0831 9.17634
4.8796 131.718 -10.9448
16.7612 136.577 6.75306
8.97278 118.945 16.2879
14.2229 131.562 8.78373
-13.4522 90.3806 11.2383
-3.48068 99.6122 18.5501
-13.499 90.1294 11.4784
-0.0941369 103.21 20.3085
-12.1136 108.468 -12.5189
-13.0141 89.8548 12.7339
21.0725 147.934 -1.10179
-13.3094 88.7693 13.6833
0.309802 126.642 -13.3081
-17.2743 90.2079 3.2467
16.8479 137.483 5.31659
-13.0236 89.0978 13.6531
-13.0087 89.112 13.6553
9.52174 137.725 -10.4589
13.7611 129.691 10.1447
-6.2218 95.8192 17.9757
-18.9007 93.3559 -4.96726
-12.8132 89.2875 13.6987
-11.9748 90.3786 13.818
-3.86027 98.7109 18.5506
-15.1997 86.7675 12.3414
-9.27683 112.489 -12.9403
14.0411 130.582 9.28616
-6.2632 116.852 -13.1483
1.18066 103.909 21.1777
-0.815739 101.811 20.0791
17.4474 138.3 4.80515
-17.2609 88.3344 5.41887
0.681991 103.35 20.9202
1.13785 103.791 21.1739
8.54478 136.284 -10.9197
-17.3323 89.9088 2.895
-3.62437 98.5457 18.7856
-15.1269 86.1802 12.8085
-10.8047 109.704 -12.6378
3.80672 107.095 21.6069
0.1372 102.407 20.7118
-5.2341 96.3975 18.2822
-12.6446 106.905 -12.6292
4.95525 130.626 -10.6341
-5.69528 117.152 -13.1705
-5.84487 95.4562 18.2697
15.3296 132.173 8.71273
17.5667 137.967 4.88903
10.6142 120.573 15.798
0.853155 103.031 21.0297
-2.97927 120.445 -12.5099
-17.9205 96.9328 -9.31117
-15.8707 86.7275 9.83144
-11.0973 89.2311 16.1212
11.1332 121.825 14.7785
-9.44639 90.652 17.4038
-16.4933 87.3568 7.49038
-3.04765 120.234 -12.5535
14.425 128.927 11.1636
-2.57261 98.9885 19.4745
-7.33158 114.653 -13.4635
-13.1973 87.1425 14.5454
2.34276 104.283 21.8295
1.77341 127.359 -13.2091
20.9263 147.291 -2.38253
22.0828 145.929 2.02692
-16.7433 87.3517 6.62368
-1.57775 122.589 -13.2883
13.7412 141.771 -9.37511
-15.5604 84.8723 12.6546
-17.001 98.304 -10.0405
-7.40763 114.278 -13.3861
-6.33169 94.0568 18.4268
-18.2376 95.3572 -8.41018
-17.4853 91.1269 -0.665125
17.3837 137.125 4.77498
22.1671 145.346 2.71774
4.52046 129.341 -10.7977
-18.7811 92.3635 -5.45297
-6.22384 93.8888 18.4774
-2.18184 121.109 -12.9557
5.04756 108.246 20.9598
19.8989 140.621 4.57087
1.44667 102.848 21.3024
-5.74375 94.3183 18.6897
4.48035 129.146 -10.9671
11.7745 121.811 14.9725
-17.1579 89.3602 1.96545
21.4423 147.138 -1.98294
14.7285 142.422 -9.18566
-16.023 86.5714 8.1828
-15.7435 85.7896 9.88939
-15.5846 83.9971 12.7986
13.3683 124.533 13.5567
-0.0183932 100.574 20.6629
-14.9109 101.844 -12.3178
-0.0318705 123.898 -13.5534
-17.8142 95.5659 -9.24173
-13.5752 85.5464 14.2607
-13.5363 104.206 -13.01
5.1565 107.536 21.0771
21.9903 146.95 -1.46356
9.20351 115.141 18.3698
17.2837 133.594 8.15765
14.4579 126.498 12.6195
16.3226 142.64 -7.15063
21.8125 143.099 3.61332
16.3277 142.521 -7.09979
-6.09271 92.9882 18.5466
-7.75458 112.443 -13.4125
-9.22674 89.3243 17.2607
-15.7864 84.6317 10.4193
-2.46755 97.2075 19.7585
16.8805 142.718 -6.49759
9.59682 115.52 18.1003
12.7561 139.603 -10.5851
0.833915 124.61 -13.5465
-0.143686 99.8308 20.6776
-16.2462 82.5145 12.3624
12.8583 122.445 14.6966
14.4254 141.025 -9.28622
-6.9071 113.463 -13.5102
-17.853 94.6963 -8.93071
-17.2027 96.4945 -10.2552
16.09 142.842 -8.5783
13.1788 139.94 -10.4428
1.04723 101.207 20.8943
-15.9542 85.8054 7.81526
-10.1537 87.9835 16.6978
18.0295 136.288 4.82152
-6.83404 91.5304 18.3184
16.197 129.224 11.2268
5.92946 108.199 20.5405
1.4685 125.234 -13.8467
13.6362 140.113 -10.2561
-15.7715 85.0164 8.96111
-13.9297 102.867 -13.3423
22.9387 145.434 1.34581
7.47234 110.982 19.4623
8.81403 134.11 -11.6242
-16.1557 97.981 -10.9184
22.8252 144.242 2.77022
6.83927 131.321 -11.7552
16.2272 142.473 -8.47075
-18.2764 90.16 -4.00626
17.5111 132.976 8.02225
13.5354 123.026 14.2691
-12.7591 85.1493 14.7302
1.3727 124.774 -13.7756
-16.7134 86.3921 4.5981
16.0363 142.328 -8.87712
22.9409 144.318 2.619
-0.0170344 99.2229 20.6483
-16.0263 85.6278 6.9376
-5.78895 114.468 -13.9682
17.6852 132.177 9.12824
14.1042 139.951 -9.94222
22.5126 142.883 3.32741
-6.75316 112.626 -13.5341
10.0987 134.918 -10.9935
-5.75244 92.0762 18.5757
-15.3372 99.1798 -11.8758
15.1099 140.71 -9.18892
16.2776 141.444 -7.86784
19.5838 137.798 4.3731
14.0638 123.215 14.133
17.5225 130.658 10.4584
-9.00797 109.036 -13.3328
21.7867 141.68 3.18999
-7.60034 111.092 -13.5133
17.7518 131.877 8.95094
20.5961 145.293 -4.89097
9.75846 113.936 18.3586
-16.1152 80.6017 13.1033
3.04971 101.755 22.1659
-6.5854 112.284 -13.5992
6.85349 108.491 19.9859
-18.1385 88.5059 -3.06128
6.63664 107.973 20.1916
-14.4765 100.539 -13.1157
-13.107 83.4802 14.5625
7.14411 130.343 -11.7949
20.153 138.123 3.96431
21.5701 145.151 -3.38717
15.2215 124.799 13.0892
-7.38255 110.756 -13.6036
15.9438 140.933 -9.17105
-5.27241 91.7434 18.4532
-17.6631 91.5421 -7.27704
21.3734 140.02 3.20457
-17.8719 87.7529 -2.42727
14.1873 139.033 -10.5229
-10.4122 105.925 -13.508
-15.3552 80.1105 13.8985
-17.4358 91.8127 -7.61747
-15.9196 84.1034 6.79034
12.9709 136.522 -9.60268
2.20753 99.842 21.5927
0.405579 122.09 -14.7513
23.6277 143.648 2.20187
-11.3231 84.7063 15.3583
0.0571976 121.51 -14.8515
-5.84826 90.6521 17.9599
-12.1533 103.258 -13.6702
8.7053 131.871 -12.1129
7.21813 129.374 -11.5857
9.88574 112.58 18.5517
23.7265 145.549 -0.848953
13.1748 119.566 15.136
18.1133 131.375 8.16031
6.67915 128.054 -10.8769
-0.160725 97.1254 20.1081
18.9232 142.691 -6.76673
10.1933 113.096 18.3043
-9.69806 86.153 16.1581
-15.7493 82.0726 9.41446
6.53249 127.633 -10.7976
6.95463 128.476 -11.1593
18.1322 131.752 7.3445
-14.7189 98.8571 -13.2025
-7.60508 88.2944 17.1218
-17.0741 92.8446 -9.36346
-17.7712 89.6015 -6.08385
6.03462 105.13 20.8989
5.64987 104.198 21.3586
17.2162 127.266 11.7299
-15.0732 79.5888 13.9697
-10.0908 85.3586 15.88
-8.99706 107.219 -13.8859
10.4585 113.067 18.1756
16.7559 140.537 -8.89128
8.07655 130.416 -12.2177
-4.52429 91.5622 18.3297
21.5561 143.991 -3.9795
-16.7261 86.5805 0.0852301
-16.9766 93.0441 -9.91569
15.9646 124.318 13.0936
1.35953 98.0929 20.9203
-18.1255 87.3926 -4.17059
-14.4887 80.0344 14.1864
21.7629 139.082 3.46566
-16.2027 80.4401 9.92841
-15.7926 82.1733 8.20821
-16.8811 91.9828 -8.54891
16.6412 140.335 -9.31844
17.4046 127.83 10.5466
22.7001 140.673 2.79281
-14.1694 79.9982 14.5751
17.4625 129.069 8.78452
15.1539 138.83 -10.3496
5.59801 103.37 21.5943
11.6019 114.856 17.2512
-14.0588 80.0165 14.6433
-17.4494 86.3943 -1.78445
-1.02133 118.608 -14.6835
24.1876 143.382 1.6801
10.8697 133.133 -11.1773
17.2283 126.513 11.7963
20.9924 137.417 3.68733
-15.1407 80.1008 12.0926
-16.7778 91.9518 -8.69024
-15.769 95.9043 -12.3749
13.0712 135.389 -9.94292
-15.4595 96.6093 -12.7986
-9.59895 105.756 -13.9544
9.39662 110.394 18.909
7.94294 129.352 -11.8837
-15.638 96.1421 -12.5534
23.5188 141.524 2.7304
-5.1938 112.09 -14.3133
5.20638 125.443 -12.2383
-13.3365 100.212 -14.2314
24.0859 142.315 2.24565
-17.2189 89.6215 -6.91014
-13.3578 80.2381 14.7555
-10.4914 83.7572 15.5232
1.04873 96.5261 20.8368
-1.81068 93.4341 19.3783
17.6298 126.592 11.354
-1.11569 94.1088 19.7353
-2.94375 114.761 -14.5176
-14.1697 98.1905 -13.7287
11.3464 113.088 17.6936
0.767844 120.353 -15.1592
23.5124 140.667 2.6029
7.00231 126.434 -11.0757
-17.0872 85.3366 -1.24426
-16.8645 85.2873 -0.734627
-16.6158 85.1833 -0.0867647
-0.832732 93.9849 19.9141
-4.11714 112.86 -14.6291
21.1495 136.252 3.81246
-7.95375 85.8031 16.8209
18.3589 140.097 -7.70732
7.0508 126.307 -11.1432
8.16929 106.996 19.3963
13.8838 118.669 14.2446
14.9523 136.484 -9.60762
-15.8436 83.7853 3.18897
0.823501 95.4515 20.926
24.9153 143.705 0.57358
-10.005 104.12 -14.4516
3.94857 98.5406 22.7887
8.437 107.318 19.1941
-10.3371 82.8705 15.7578
16.1854 122.806 12.6995
23.2051 139.711 2.54955
-6.90201 108.479 -14.6316
11.2776 132.051 -11.1702
-15.7093 82.175 5.44419
17.7336 126.575 10.2785
6.19068 124.921 -11.4298
16.4421 138.465 -9.87955
-10.8669 82.0303 15.6614
1.4099 95.6943 21.2848
15.6644 137.552 -10.2149
12.0171 113.596 17.2314
6.6291 125.15 -10.973
9.88825 130.563 -12.1136
1.45711 120.623 -15.2319
14.7622 119.891 13.607
13.614 117.417 14.8217
16.8364 138.749 -9.70751
12.8078 115.113 16.4689
1.95933 120.995 -14.8519
16.6017 138.436 -9.80835
-16.4326 90.4269 -8.57567
-11.3627 81.1427 15.5985
16.9821 137.384 -7.56283
-7.12166 107.857 -14.8175
17.0588 137.585 -7.82888
3.49799 97.2455 22.6836
-4.06456 112.073 -14.8645
4.18228 97.9826 22.8186
-17.2528 84.8584 -2.77279
1.04898 94.5803 21.2035
16.4394 122.71 12.165
21.7771 136.076 3.72392
-15.7433 81.2476 5.52751
17.973 128.524 6.74559
7.88053 126.639 -11.6332
-11.569 80.3292 15.5081
6.63325 102.458 21.124
17.6333 138.691 -9.10016
-15.6339 82.3299 3.89696
17.0872 138.209 -9.64475
-8.92309 83.1972 16.5189
8.23072 126.984 -11.7611
4.98512 99.0393 22.3602
-11.3908 101.164 -15.0529
10.2259 130.098 -12.2585
-4.04118 111.658 -15.0839
13.3582 133.242 -10.3525
-14.5672 78.7488 11.0676
-0.914023 91.813 20.2943
-15.6118 82.1322 3.75385
16.922 136.583 -7.99182
-16.0626 79.6417 6.42035
-17.4023 85.3835 -4.83853
-15.9304 82.3918 2.58635
8.46882 127.07 -11.8462
2.6635 120.545 -14.4431
16.6249 135.524 -7.23728
-15.5886 81.9529 3.80641
25.2076 142.011 1.05452
22.3102 141.953 -4.9437
17.42 123.787 11.2901
9.48869 128.504 -12.1982
3.64668 96.2379 22.7524
14.5429 117.741 13.9103
20.2801 132.616 4.11686
1.89983 94.1406 21.9679
-17.0817 86.5799 -6.63552
6.96119 124.048 -11.2723
-0.694871 116.453 -16.1856
1.06423 118.399 -15.3671
-2.47981 89.4361 19.5565
-4.956 109.831 -15.5183
-10.0817 80.7888 16.2484
2.22905 94.297 22.1261
3.54133 120.998 -14.4077
22.614 135.876 3.59923
6.64457 123.317 -11.5174
-15.5842 91.1918 -10.9314
4.27735 96.3783 22.8456
19.3884 131.246 3.25225
-16.9749 86.3386 -6.992
23.9938 138.244 2.42872
23.548 142.28 -4.4175
23.3701 142.096 -4.59198
16.7607 135.217 -8.36438
7.73784 124.48 -11.5334
16.0857 134.534 -8.86244
11.3796 109.934 17.2411
10.0165 107.186 18.4072
2.96865 119.409 -14.2131
18.5979 125.278 9.7293
24.9333 140.476 0.694921
-15.3501 91.4023 -11.721
-17.1256 85.1184 -6.2348
-15.6073 90.0625 -10.3972
-15.3208 91.2898 -11.6562
24.374 138.537 2.05011
16.2516 132.588 -6.26415
1.31173 91.8865 22.1013
19.9664 129.288 6.17627
-16.6917 83.2 -2.98037
14.5487 132.665 -10.2381
-16.818 83.778 -4.23655
24.5163 138.654 1.76519
18.8237 127.659 5.95357
-16.8344 83.8629 -4.46364
-15.8264 81.0352 1.73498
5.47929 121.859 -13.6097
-15.5416 80.2354 3.39342
19.8387 131.075 2.84424
-16.0419 88.7735 -10.2261
18.9096 124.921 9.63688
7.04229 122.741 -11.9651
-10.5131 100.137 -15.5596
-7.1265 105.209 -15.9342
-8.59113 79.2576 18.9922
4.18585 120.417 -14.5782
-16.8774 84.3057 -5.7512
21.0957 139.846 -7.76482
-15.8992 80.8813 1.24295
-0.463958 114.854 -16.2639
19.7394 130.439 3.10014
19.443 128.668 4.9904
5.81596 121.721 -13.3527
-15.0497 91.23 -12.3569
-15.4758 77.6279 6.53073
18.645 124.035 9.85047
16.3263 131.544 -6.15652
17.0202 134.269 -8.77458
-14.5609 92.5505 -13.688
1.71307 116.586 -14.9014
18.9506 128.001 4.31393
3.08148 92.7686 22.7055
-9.52326 101.087 -15.8079
-8.1467 79.452 18.6895
-16.7757 85.2301 -7.83135
11.8323 109.159 16.8209
18.2232 135.004 -7.68964
-16.0466 87.6483 -9.96017
20.4232 138.608 -8.37454
16.1222 118.152 12.5742
25.135 139.284 0.463595
8.52728 102.674 19.2887
-13.8485 77.5651 9.26999
7.04396 98.9424 21.6056
19.8663 129.316 3.91201
18.2571 134.225 -6.73551
-12.3288 95.7745 -14.3723
-1.4819 87.3458 20.5374
-13.8476 77.4804 8.99767
17.6096 128.77 -0.383039
23.1657 134.027 3.47778
20.6856 131.065 2.56003
4.34426 93.6677 23.1556
3.89567 93.051 22.9855
20.2159 129.945 3.0674
-4.12992 84.1223 19.2404
-14.0805 92.7592 -14.2709
20.3795 129.888 3.33527
18.568 135.893 -9.28707
-15.967 87.1868 -10.1415
-7.19787 79.2731 19.6807
21.146 138.957 -8.4838
-0.510217 113.528 -16.5046
-6.40641 81.5654 17.9633
18.0182 129.158 -0.687216
-6.14582 105.334 -16.3221
15.8564 116.139 13.6287
20.4845 129.836 3.22073
16.5763 132.351 -8.65598
13.2147 129.737 -11.8602
16.577 132.306 -8.65108
26.3529 140.051 0.32249
19.5598 124.835 8.4004
-15.8094 79.3899 0.976323
-10.2435 98.4765 -15.3762
12.9697 129.286 -11.9973
-6.02338 105.179 -16.3998
18.6568 130.395 -1.76726
18.3306 129.416 -1.02393
25.2847 140.892 -3.30294
8.55016 122.862 -11.9176
3.45308 91.8959 22.6906
20.5222 128.866 4.15469
-6.70718 104.033 -16.3939
15.3147 131.336 -10.3597
25.0717 138 0.177571
7.57554 98.514 21.3261
-16.368 81.7988 -4.23278
7.65175 121.902 -12.7629
-16.1619 86.0723 -10.0732
19.3245 124.281 8.03716
-2.70982 84.4144 20.3605
17.5655 129.968 -3.98805
9.16 123.082 -11.634
22.2438 131.753 2.99053
-15.6344 87.7742 -11.7816
2.47967 115.484 -14.5142
-0.0456914 87.1859 21.5599
20.1297 128.034 3.8877
18.9402 123.437 8.02055
-11.9177 94.9212 -14.7289
20.9305 129.776 2.87012
18.8252 131.328 -3.85819
22.9346 139.393 -7.11695
6.78757 120.718 -13.5607
-16.0648 79.8365 -1.45518
19.1454 122.571 9.33157
16.2465 115.47 13.6573
-16.3597 81.9601 -5.45356
24.3045 134.526 2.54509
-16.2183 85.5055 -10.3812
18.2923 129.535 -2.74795
25.4226 140.27 -3.57215
19.561 132.337 -4.22725
23.6372 139.714 -6.57165
8.44487 122.083 -12.5435
18.6479 123.636 6.37793
-16.335 83.8367 -8.44375
25.2839 137.464 -0.00704428
19.2768 131.33 -3.57934
-6.05149 78.8605 20.3028
17.1802 129.165 -4.93763
21.0962 129.726 2.37273
18.9554 128.2 0.0948961
18.6729 134.339 -9.4846
18.3216 128.702 -1.98048
-14.9534 88.4898 -12.631
23.4643 139.404 -6.90876
8.88135 122.242 -12.2542
19.5219 129.825 -1.13002
25.0191 140.102 -4.7123
-5.70524 80.3102 18.6194
17.3403 131.493 -8.17542
-16.1127 85.6395 -10.9538
19.0303 124.322 5.83537
11.5486 126.161 -12.4882
-14.6456 89.0336 -12.8773
19.2512 128.593 -0.0133929
-5.76087 80.1888 18.5909
19.2171 128.526 0.00785672
5.16338 118.11 -14.1591
25.6765 139.52 -2.66427
-5.42937 80.4609 18.8048
19.5919 130.685 -2.54891
-0.624009 85.2769 21.6038
-3.43339 82.1493 20.2674
18.1926 121.94 7.14185
-15.8193 86.2221 -11.7045
18.527 120.07 10.4935
-15.9733 85.7562 -11.3501
19.2412 129.824 -2.29857
19.5325 122.467 9.06356
-15.8848 79.5406 -2.10653
10.0481 102.468 18.5052
0.575602 112.395 -15.826
23.1691 131.946 2.73393
19.7525 126.863 3.03519
18.1371 128.752 -3.12513
20.2903 127.379 3.31668
10.5464 123.549 -11.4397
3.30657 89.9205 22.6586
13.1321 127.611 -11.993
17.3884 131.412 -8.72727
-0.0819323 111.743 -16.4358
-2.38764 108.706 -16.8165
23.6785 132.791 2.36394
9.5607 101.423 18.7854
-16.0718 82.5885 -7.22666
14.7037 128.165 -9.66809
-15.8374 79.2774 -1.91826
-15.1167 77.0099 2.89261
16.7889 130.039 -8.08497
24.6708 134.312 2.11951
-15.4952 77.6951 1.09055
19.7163 128.631 0.0549034
6.42918 119.287 -14.0311
17.285 131.432 -9.16108
19.2939 125.301 4.00986
17.458 117.258 11.9258
-11.2276 94.6633 -14.9989
20.4136 128.942 0.908353
19.904 126.883 2.84182
22.6646 131.049 2.4977
-15.4722 77.7487 0.849408
25.9445 139.103 -2.46353
14.804 128.421 -10.1032
8.20208 121.008 -13.0586
14.0281 109.835 15.4503
18.2282 126.901 -0.789816
21.008 128.75 2.30616
-3.95012 81.1202 19.8922
17.8907 128.639 -4.05125
21.1528 128.104 3.54264
16.9615 129.234 -6.87292
21.3072 128.265 3.60241
18.9933 121.847 8.16055
19.5646 128.807 -0.835796
-15.2164 77.2441 1.97817
12.0845 125.964 -12.4026
16.7254 114.819 13.603
13.3455 108.373 15.9749
17.2409 121.406 4.99692
-15.6145 78.7185 -1.25582
-4.01625 105.839 -16.788
18.1042 132.504 -9.61435
19.0191 133.337 -8.97601
2.29153 113.346 -14.6624
13.1296 126.929 -11.9077
18.1432 131.915 -8.75139
20.5039 128.838 0.683262
10.3711 122.304 -10.936
18.4304 121.247 7.39199
4.7371 91.1031 22.9127
8.88115 121.143 -12.412
17.7686 131.23 -8.65571
18.1905 131.855 -8.72145
-5.99763 102.779 -16.695
-8.88334 98.2777 -16.141
21.3283 136.35 -8.7693
9.56982 121.67 -11.847
-14.4706 88.4933 -13.5267
17.194 128.444 -6.06621
20.9155 135.428 -8.5304
-15.4241 78.2697 -0.78039
11.317 103.721 17.7839
1.63431 86.627 22.573
8.59751 120.734 -12.8272
-15.6295 84.5791 -10.55
4.42614 90.3379 22.9089
19.0685 130.33 -5.07887
14.3868 127.415 -10.6049
18.4017 126.477 -0.874474
19.8374 128.444 -0.776493
6.21269 92.7047 23.0121
17.5392 122.139 3.54678
16.8599 121.028 3.75226
-15.5714 84.5472 -10.608
6.69065 118.589 -13.9632
-3.34248 106.218 -16.8269
19.6739 131.295 -5.50667
20.6516 127.408 2.1619
19.5144 126.852 0.579103
-14.4974 88.0743 -13.7282
-4.56152 78.2172 21.4265
11.4285 124.015 -12.3768
25.7884 136.369 -0.500631
14.008 126.975 -11.3736
18.718 120.684 7.65786
19.0564 128.491 -3.06859
15.1889 126.187 -7.83165
20.1442 126.604 1.86233
-15.1506 77.6214 -0.166559
-15.2898 78.2721 -1.458
-15.7058 79.9755 -4.82303
-14.0936 88.6603 -14.268
22.9412 137.145 -7.89735
10.112 100.764 18.5197
10.4259 101.372 18.2817
10.2452 121.307 -11.3101
9.09134 97.9462 20.4337
16.6989 113.009 14.2393
25.6436 135.611 -0.167958
23.9022 137.624 -6.75584
-2.73468 80.4673 21.2665
14.9574 125.095 -7.14334
10.7366 121.619 -10.9267
20.8173 133.943 -7.95527
19.7969 129.736 -3.93299
5.48635 90.8316 23.1164
-14.9539 86.6249 -13.4968
18.5781 125.646 -0.569966
-1.08731 82.203 21.9231
10.0787 100.22 18.8644
-4.59252 103.679 -16.8556
10.0048 99.9637 19.0656
9.27203 98.0415 20.3031
20.4191 127.244 0.753495
7.10472 118.111 -13.7243
20.5621 127.055 1.28
18.7789 129.357 -5.84361
18.2829 116.521 11.7969
18.8205 130.73 -7.93343
19.538 119.602 9.83472
14.3286 126.298 -10.8648
-12.5775 91.0481 -15.4854
20.5221 131.721 -5.91217
16.6343 120.58 2.22337
-1.94837 107.075 -16.8835
17.1736 121.16 2.44021
24.2752 131.55 2.06391
5.56895 90.3827 23.2295
10.8147 121.131 -10.8584
4.40962 88.3493 23.6771
14.6283 122.925 -5.61009
27.0434 138.357 -2.52542
23.0105 136.06 -7.59318
16.6991 120.593 1.81201
21.232 127.017 1.81765
17.9087 127.598 -5.99298
25.7655 137.234 -3.69664
17.9637 128.62 -7.4844
18.9101 131.812 -10.2884
-10.5396 93.5854 -15.8884
20.6741 132.959 -8.32995
24.0269 130.608 2.09677
17.827 118.93 6.22412
17.7315 118.935 6.00062
23.6361 136.107 -6.90844
19.7978 132.988 -10.3858
21.5389 133.862 -8.12633
27.1975 137.935 -2.27146
16.6063 119.14 3.11621
17.9133 114.202 13.0437
19.1909 127.423 -3.66072
2.33763 85.0558 23.1252
11.4838 121.22 -10.715
-14.0971 86.9778 -14.0927
26.8559 137.513 -2.56637
21.8471 132.785 -6.18351
18.3565 127.339 -5.53443
19.4158 117.778 10.6519
5.27238 88.6636 23.7217
-14.5606 85.8439 -13.5964
17.1308 124.02 -3.28205
1.9986 84.5044 22.9287
4.7148 113.554 -13.9676
-1.22851 107.015 -16.8531
3.78554 86.387 23.8119
6.65665 90.8833 23.2183
18.597 128.196 -6.46438
-15.0789 81.3059 -8.1794
14.5612 124.101 -8.91193
18.3237 121.978 2.05001
13.856 121.529 -6.81275
9.89387 97.6312 19.8635
-12.3839 90.1479 -15.7289
-2.07151 105.683 -16.9293
22.1257 132.986 -6.35281
12.574 123.241 -12.1145
1.13068 109.311 -15.6517
22.261 134.91 -9.13711
20.8528 133.624 -10.2047
-2.07515 105.498 -16.9312
19.9393 131.552 -9.13091
17.9185 125.418 -4.37457
21.4924 133.976 -9.46261
16.0247 122.701 -4.4877
18.7647 115.279 12.0356
23.1572 134.752 -7.34815
9.29062 96.0416 20.3401
0.182439 81.2182 22.9991
22.7569 132.668 -5.20766
-14.0161 76.2201 0.588333
22.5779 135.128 -9.23152
-14.7685 83.1765 -11.2071
12.2476 121.659 -11.1339
18.3794 125.427 -3.86142
12.4149 102.511 17.2205
7.92625 117.177 -13.6338
2.62654 110.56 -15.0351
4.07063 112.134 -14.3449
18.6889 125.13 -2.84005
2.42351 84.0401 23.271
19.4555 123.614 0.9088
21.6261 134.018 -9.79838
9.88988 118.67 -11.8895
-14.1833 76.5876 -0.639559
-1.87157 105.27 -16.9135
-13.7882 75.8579 1.24624
18.2941 126.511 -5.90549
10.7635 119.116 -10.8327
20.7806 126.801 -1.17322
19.3115 125.873 -2.89659
-14.7589 80.6027 -7.82066
13.7262 104.682 16.419
16.6479 117.57 3.57245
18.773 127.038 -5.86513
5.02202 87.1482 23.7969
22.1727 126.436 2.08426
8.53541 117.734 -13.6909
18.0343 112.781 13.3968
19.448 126.774 -4.16829
-1.8341 78.2161 22.4223
-14.5007 77.3178 -2.72983
-14.4643 77.2427 -2.54731
27.3837 136.917 -2.50745
2.3422 83.4224 23.4304
27.7214 136.684 -1.5488
21.5136 126.848 -0.193612
18.9204 122.695 0.447504
19.2344 127.234 -5.57458
19.518 123.928 -0.147341
1.56113 82.3251 23.2078
18.8537 122.588 0.375762
16.1882 121.525 -3.6569
-3.4321 102.585 -16.9651
18.842 126.525 -5.49493
15.845 117.608 1.29046
10.0384 118.3 -11.8634
-1.4563 105.288 -16.8673
4.26584 111.692 -14.4134
16.667 121.79 -3.29792
3.86248 84.7065 24.1928
4.37183 85.5007 24.0892
19.4362 126.989 -5.27773
17.9943 121.946 -0.921304
9.77736 95.8655 19.9895
5.2044 112.578 -14.0304
22.15 132.103 -7.215
26.5305 132.366 1.53299
19.3106 126.273 -4.68375
5.43267 87.0655 23.6859
-0.209025 79.3386 23.2091
18.6622 113.805 12.1741
3.75235 84.2762 24.2528
16.2781 116.771 2.82785
16.0058 120.029 -2.5135
15.1129 107.272 14.2874
-8.92712 94.1467 -16.7474
5.51611 112.874 -14.0285
18.2685 112.396 13.2038
-14.8917 81.1065 -10.432
3.98455 84.3412 24.2628
10.8384 97.5922 19.167
26.6095 132.75 0.634812
4.89151 111.806 -14.1991
18.8204 114.022 11.6478
-13.861 76.3444 -1.54458
-14.5117 80.1136 -8.6961
-14.8009 80.5384 -9.95503
8.61464 92.6562 21.1729
13.7469 121.281 -10.052
8.84553 116.768 -13.6954
14.5566 104.869 15.6374
11.8389 119.029 -10.7875
25.5308 128.877 3.16342
13.7371 120.825 -9.73172
-2.45058 102.603 -16.9184
18.0803 115.957 6.40697
18.0094 115.956 6.25542
24.3949 133.112 -5.56649
18.8519 127.494 -8.92825
-14.448 81.7792 -11.5918
14.1905 103.704 16.0716
2.97632 108.998 -15.1491
21.3394 126.112 -1.87005
22.046 131.215 -7.90176
26.9664 134.254 -2.1013
4.49145 84.2077 24.1883
26.6801 132.207 0.259208
13.7175 120.176 -9.21178
-13.4938 84.75 -14.227
2.5181 81.3631 24.1501
26.6758 135.017 -4.04802
25.3855 133.14 -4.00558
18.2896 112.589 11.2432
22.9717 130.817 -5.68067
7.96483 90.1797 22.4334
13.9248 119.234 -7.70949
8.95765 116.215 -13.7314
21.913 131.458 -8.98586
26.4796 130.287 2.15005
19.3915 114.474 10.475
25.0135 133.266 -5.33295
-9.19769 92.2835 -16.8536
-5.47781 97.5489 -16.8157
6.69227 87.517 23.2621
22.5548 132.081 -8.83809
-14.3992 81.0655 -11.3593
22.2201 130.984 -7.95621
10.7783 116.99 -11.3738
20.6164 126.061 -4.13812
-2.26887 102.073 -16.8784
19.525 114.719 10.1322
-12.1229 86.9329 -15.3079
-0.079016 105.078 -16.7197
19.5958 114.894 9.96296
13.9169 119.244 -8.33182
-1.13003 103.597 -16.8667
-14.4299 78.312 -7.72965
27.923 135.657 -3.2675
19.2276 127.474 -9.47908
-14.1996 77.8155 -6.6157
21.9278 131.035 -9.1128
7.39971 88.4466 22.8633
22.6834 131.625 -8.43863
-13.8632 75.8234 -3.10782
18.5996 115.351 6.5287
22.0282 129.746 -7.46637
-13.3235 84.4029 -14.9851
26.5977 130.122 1.40676
27.4119 135.008 -4.08144
14.2563 102.701 15.7222
18.5395 112.562 10.1751
2.80356 107.407 -15.1968
4.73443 83.1814 24.2902
20.5703 125.942 -5.29175
10.9188 95.4204 19.1673
14.5314 102.992 15.5679
-0.246675 103.97 -16.7614
-11.9507 86.4724 -15.6344
-14.8758 81.1078 -13.9362
13.8813 120.607 -11.7109
8.42012 114.222 -13.7883
-14.0335 75.7564 -4.42447
21.0625 125.763 -4.45482
-8.4611 91.9897 -16.8289
-2.1356 100.989 -16.8082
14.8972 103.307 15.3512
9.05991 91.1216 20.9834
14.1712 119.186 -9.42773
27.457 132.816 -1.62569
-14.7683 77.2601 -8.51864
14.479 116.876 -5.4195
12.2386 117.128 -10.5404
-10.6242 88.6619 -16.66
10.9728 94.9926 19.1736
5.53407 83.9095 23.9276
-15.0023 77.5884 -9.78185
19.6283 126.395 -9.02875
-14.7254 79.6063 -12.3567
20.0141 126.85 -9.07531
15.7607 104.706 14.3071
-8.91941 90.6843 -16.7664
20.4588 125.844 -6.87521
15.8863 104.927 14.142
-8.55488 91.1856 -16.8179
14.0023 119.47 -11.2031
18.7593 114.719 5.63909
-13.3804 83.3697 -15.6306
1.13104 104.584 -16.3903
27.0857 128.438 2.87245
-14.426 76.1754 -7.34794
-14.8921 80.0016 -13.9597
-14.7171 76.4037 -8.37157
21.9434 128.419 -8.05607
25.9549 132.057 -5.00472
3.86755 80.1015 24.8648
-10.4272 88.1014 -16.7318
16.4673 115.375 -0.494955
23.1125 125.079 -1.31973
28.2537 134.23 -4.00917
25.311 125.897 2.03085
19.1912 113.103 7.89272
-2.96467 98.2093 -16.6651
-11.1552 86.4063 -16.5549
18.5646 109.613 11.4822
12.1519 115.774 -11.1641
27.5537 128.98 1.63402
-7.33995 91.5285 -16.5974
16.4035 104.49 13.9309
-14.8603 77.3578 -11.6672
4.22705 106.976 -15.1829
27.517 129.77 0.022682
-14.9923 76.5839 -10.926
27.5799 128.9 1.33986
-15.0686 76.1128 -10.5229
9.23377 112.314 -12.7601
-14.2534 80.5198 -15.5144
23.0907 124.838 -2.47212
18.1039 114.634 2.04328
15.6589 102.392 14.8467
22.9985 128.188 -7.59866
23.7028 128.126 -6.07958
23.1303 128.284 -7.55573
23.9363 128.727 -6.59818
10.3005 91.2667 19.7525
23.511 127.935 -6.35826
25.3952 129.128 -4.19585
8.78115 111.456 -13.133
9.83166 89.9084 20.5441
21.1499 127.328 -10.6207
15.0647 100.77 15.5084
-15.1102 76.5958 -12.2443
19.0652 110.983 8.80076
-12.7377 82.3108 -15.6889
7.2099 84.2682 22.9939
-5.12044 93.1799 -15.8888
25.2004 124.995 0.876461
17.3443 114.625 -0.404357
-11.0878 84.7769 -16.1552
23.0382 126.755 -6.3456
13.4188 115.833 -10.4818
14.0376 116.52 -10.2373
6.77863 108.941 -14.3308
12.3237 94.6132 18.2087
-11.2981 84.2766 -16.0214
27.9683 127.462 2.62096
19.5053 112.779 6.37532
23.3402 124.63 -2.97218
22.8074 128.011 -9.118
-13.3806 80.6512 -15.4037
4.86214 106.429 -15.119
-6.20327 91.4559 -16.3404
-13.4654 80.1932 -15.1391
19.5067 112.666 6.20122
15.7268 101.339 14.8657
15.8511 116.788 -7.51605
16.2752 102.45 14.3179
-3.72281 94.7898 -16.2586
-13.7153 79.5577 -14.8799
11.0343 91.5907 19.1869
29.1438 133.21 -3.94157
24.1966 128.951 -8.14086
-14.571 77.8367 -14.387
14.5813 99.0328 15.4526
28.478 127.95 2.03516
19.2457 111.112 7.37565
15.8957 116.248 -7.16706
-1.9861 97.1287 -16.6381
22.5126 126.794 -8.94451
27.3936 130.66 -4.49401
13.5586 115.079 -10.6336
24.0515 128.911 -9.00943
5.01048 105.881 -15.0981
10.7623 90.473 19.4331
18.9232 107.774 11.0317
-3.93233 93.5859 -15.9593
19.5857 110 9.11475
10.9639 112.136 -12.0247
8.91668 109.835 -12.9761
5.69526 106.565 -14.9196
23.517 127.999 -9.18887
21.4683 124.408 -8.33411
-9.30265 85.0359 -15.0092
21.9604 124.223 -7.07441
19.4691 110.171 8.2857
28.9459 132.698 -4.9023
0.980442 100.609 -16.399
-5.61392 90.9544 -16.0738
27.1173 129.256 -3.8167
27.1457 129.288 -3.81307
28.7089 130.114 -1.81545
18.5446 112.15 3.22986
-2.32342 95.7531 -16.398
4.40804 104.359 -14.9609
11.7416 91.8376 18.6566
15.8966 100.464 14.7027
-8.50951 85.7859 -14.8501
19.47 111.37 6.07496
9.25829 109.43 -12.6466
28.9641 132.184 -4.78966
24.387 123.388 -1.48546
7.24347 81.9346 23.3359
8.2924 84.2735 21.998
17.9149 104.3 12.7727
12.0956 112.609 -11.5764
-6.05066 89.387 -15.5581
19.5596 111.411 5.61176
29.3172 132.256 -4.53858
17.7849 113.839 -1.70659
-10.8527 81.8628 -14.7243
17.0625 102.233 13.6838
-13.488 77.6812 -14.2469
12.574 112.822 -11.3483
27.7168 126.12 0.770773
18.8038 105.913 11.6791
28.0605 126.183 1.33636
12.6953 112.857 -11.2821
7.66653 107.771 -14.3476
26.554 127.311 -3.53544
23.533 123.024 -3.58338
22.9982 123.348 -5.18096
-6.27452 88.5424 -15.4155
0.856992 99.4359 -16.4735
2.75659 101.595 -15.6775
2.40179 101.264 -15.9968
9.32532 85.7629 21.1588
16.2599 100.241 14.2964
22.8978 123.652 -6.12162
-8.1552 85.0108 -14.4885
12.7009 112.446 -11.1008
11.2539 110.683 -11.5429
-9.09665 83.6698 -14.5172
27.3487 125.693 -0.0599137
14.8371 114.318 -9.6276
-13.3896 78.0824 -15.5577
8.17748 83.044 22.2158
29.0326 129.236 -1.88703
24.142 124.103 -4.60204
1.54226 99.8034 -16.2978
9.20866 108.337 -12.8334
-11.2681 80.2316 -14.4782
12.6427 111.9 -10.9041
14.9267 96.886 15.8092
17.5161 112.839 -2.15808
-5.19068 89.3433 -15.2451
28.6761 127.848 -1.08041
17.5589 112.096 -1.25176
11.7682 90.1875 18.7185
8.81077 83.9944 21.5885
3.05137 101.072 -15.5324
12.7596 111.601 -10.6976
-4.39794 90.1489 -15.1738
29.6585 126.755 2.32618
-10.7754 80.4644 -14.4466
-3.62497 91.1152 -15.168
24.2071 123.449 -4.42498
3.74782 101.414 -14.9227
-4.18189 90.199 -15.0828
24.0951 125.048 -7.06791
15.6105 114.181 -8.9558
-0.0292185 96.8587 -16.2917
27.6987 124.799 0.663717
23.7956 125.287 -8.21353
9.43591 107.806 -12.6458
17.963 102.519 12.8818
18.2944 110.069 2.46218
2.11633 99.6935 -16.1671
18.3987 109.817 2.90978
15.5441 97.4639 14.9853
24.8999 123.383 -3.43587
28.2524 128.625 -4.16672
23.5559 124.4 -7.86581
12.7128 110.689 -10.4926
16.21 112.124 -5.28851
17.1645 111.165 -1.89721
6.5821 104.749 -14.715
24.6898 127.345 -10.0143
8.59279 82.6003 21.8481
29.7571 126.594 1.63835
13.751 111.731 -10.0893
11.3861 88.4052 19.113
-6.08629 86.6065 -14.8252
23.1591 123.237 -7.40555
24.2539 123.127 -4.96113
19.309 104.966 11.2298
10.8472 86.9612 19.8154
16.936 111.086 -2.80155
27.4685 127.95 -5.5102
-9.05303 82.1691 -14.8342
1.1479 97.6982 -16.3149
-6.45729 85.5532 -14.471
-0.401804 95.0387 -15.7813
26.8734 123.934 -1.11924
15.8458 113.462 -8.85019
17.6349 100.96 13.154
19.7209 109.324 5.24646
24.0282 123.185 -6.0812
16.2483 111.239 -4.94999
19.6817 107.292 7.95789
25.7055 123.27 -2.88303
15.7351 111.2 -6.11967
16.915 109.322 -0.981896
16.199 110.969 -4.96018
8.11847 80.612 22.5271
15.6659 113.217 -9.46959
11.0113 86.642 19.6896
11.2856 87.2349 19.3814
29.9588 129.796 -4.05713
16.4222 110.445 -4.02557
18.9846 108.688 3.68708
28.6172 128.298 -4.92884
-4.67129 87.1285 -14.4941
4.18634 99.9715 -14.8333
16.1076 109.58 -4.08156
13.7289 110.127 -9.86848
6.74396 103.365 -14.7083
11.6902 87.3922 18.9694
19.9036 107.012 7.38065
15.8968 111.374 -7.38628
18.8972 102.635 11.649
11.8988 87.7516 18.7183
13.5174 109.67 -10.019
17.9595 107.933 1.74293
17.2922 108.022 0.0408322
-11.8549 77.1737 -15.7794
1.31672 95.8148 -15.6092
13.009 89.5516 17.8657
17.2635 107.807 -0.0568339
29.6421 128.088 -4.22719
13.5267 109.066 -10.072
18.3375 100.824 11.929
19.5421 107.788 4.22445
13.0735 108.489 -10.3586
13.9973 91.1464 16.9198
16.2075 95.6614 14.9078
4.61568 99.3531 -14.7453
29.1676 127.661 -4.92593
10.615 106.125 -12.1591
-2.39203 89.2563 -14.6819
16.0414 111.433 -8.81505
-9.31619 79.5291 -15.0912
12.6405 107.934 -10.8224
16.5712 107.311 -1.8225
1.10793 94.4608 -15.3207
29.0249 126.777 -4.41123
0.835063 93.9256 -15.232
18.2411 107.261 1.60473
16.5127 107.21 -1.98553
28.4223 125.825 -4.46369
19.9858 104.255 9.4235
16.234 108.452 -4.57484
17.5053 106.965 0.131568
14.6817 91.7482 16.2882
7.85623 103.042 -14.6087
9.67934 104.454 -13.0949
15.6699 110.203 -8.99714
12.8947 87.8302 17.9157
15.4792 109.96 -9.10737
16.3717 107.979 -4.34801
-4.32981 85.1058 -14.1798
13.3193 88.526 17.6028
16.5873 106.534 -2.05619
19.9298 105.709 6.13413
-5.68894 83.4329 -14.7853
19.2166 106.6 3.3116
11.2472 105.617 -11.9211
16.747 95.4341 14.3995
12.4714 106.856 -11.2947
2.90797 96.0844 -15.8043
13.5616 88.5952 17.407
-8.57887 79.351 -15.319
15.4517 92.3243 15.6302
10.4068 81.9177 20.2629
16.1155 93.5426 15.0538
10.0024 104.023 -13.0759
9.90421 80.7719 20.6982
9.93538 80.8214 20.6853
-9.39063 77.7369 -15.1943
18.0657 106.23 0.439204
1.8618 93.7272 -15.2148
-2.87905 86.2553 -14.1809
12.9182 86.7181 18.0139
-6.35976 81.6422 -15.2367
18.877 99.1395 11.8175
18.1952 97.4387 12.7815
19.0392 105.921 2.10174
2.24938 93.6791 -15.2527
17.1689 95.0966 13.8278
11.5193 83.3677 19.1888
14.4364 107.309 -9.76864
9.83106 80.0134 20.4623
17.153 94.9002 13.8309
20.3568 103.951 7.23888
4.84747 96.9017 -14.8805
17.315 105.551 -1.51566
18.4986 105.726 0.667549
-1.84242 86.8195 -14.2421
1.25985 91.7059 -14.9689
15.6184 108.1 -9.17701
19.891 103.745 6.03657
20.4477 103.013 8.15054
12.5872 84.8958 18.2382
9.37899 78.6979 20.5318
-6.4778 80.5784 -15.3598
-0.941592 87.7451 -14.3653
18.6504 105.28 0.80292
11.8374 83.1561 18.8586
19.5017 99.4569 10.9203
-9.07754 76.6457 -15.4513
19.1381 105.063 1.80784
16.6659 104.588 -2.80695
14.8923 106.711 -9.63526
19.6274 103.405 4.78026
13.5831 86.1774 17.2921
5.36155 96.2614 -14.8151
-1.94325 85.3093 -14.1395
-6.36413 79.8494 -15.4139
12.5451 104.064 -11.5325
19.6151 98.736 10.8541
7.73828 98.9739 -14.3491
10.8416 102.44 -12.9725
-0.181559 87.6658 -14.3739
18.2112 104.268 -0.422816
15.1445 106.105 -9.59434
14.5871 87.656 16.1671
20.1165 100.023 9.55827
15.1686 105.966 -9.55355
0.584603 88.4366 -14.5036
3.50586 93.1461 -15.3478
3.09467 92.43 -15.1938
14.513 105.203 -10.0527
13.1754 84.3747 17.5918
17.5093 103.654 -1.58718
16.6115 91.607 14.0739
-1.62848 84.7903 -14.0931
11.5482 80.9009 19.0144
0.497578 87.8949 -14.4153
15.7128 104.182 -6.4767
15.7607 103.994 -6.15054
18.6039 95.4936 12.1728
-1.90862 84.0537 -14.0194
11.1183 79.9649 19.0677
16.6411 103.389 -3.80188
-2.56976 83.1474 -14.3862
16.3361 103.386 -4.64475
-4.78639 80.3925 -15.1768
1.80247 89.3821 -14.6333
16.8187 91.3823 13.7885
11.1314 101.33 -12.7707
14.1128 85.2941 16.5974
14.5199 103.723 -9.71421
18.7061 94.8545 12.0058
18.6087 102.823 0.0933204
10.764 100.385 -12.7363
15.4156 104.14 -8.52652
18.0681 102.638 -0.898024
-2.22765 82.8951 -14.4057
11.8703 80.4971 18.5286
18.1162 93.428 12.573
10.7939 100.163 -12.6871
18.8542 102.617 0.527313
14.3673 85.427 16.3035
-3.5254 81.0175 -14.719
13.8217 102.1 -9.41792
7.55269 96.4568 -14.2778
4.62789 92.9059 -15.1964
2.44583 89.3872 -14.6635
13.3363 83.1563 17.1901
8.89525 97.786 -13.778
20.4859 101.067 5.37613
20.3374 98.4994 8.76959
19.3446 95.4915 10.892
3.80601 90.8674 -15.028
18.9991 94.3027 11.6731
13.5514 82.8262 16.9339
12.4621 100.536 -11.2889
13.6508 82.9524 16.8106
14.9048 102.104 -8.66311
8.12768 96.185 -14.1835
9.04695 97.0907 -13.6977
15.9002 87.5519 14.5284
-0.464009 83.6318 -13.9218
17.5374 90.9 13.0404
17.5921 102.029 -3.22607
-5.16176 77.7917 -15.3749
12.3522 99.9935 -11.4554
20.2994 101.084 3.44064
12.7945 100.115 -10.9339
18.1306 91.5633 12.614
14.2136 83.4841 16.1534
15.2574 101.558 -8.17426
-3.12383 79.7273 -14.6681
15.2535 85.5308 15.1805
8.60618 96.0114 -14.0849
16.6914 88.5548 13.7136
17.1184 89.4328 13.3193
4.25566 90.2603 -14.9219
18.1337 101.534 -2.4494
17.4857 101.823 -4.29684
18.8015 101.246 -0.88167
20.7464 97.726 8.25455
7.2266 93.9011 -14.535
-1.47861 81.424 -14.5213
-1.12976 81.7382 -14.3969
13.014 99.3619 -10.6816
11.8116 98.4898 -11.9382
16.0674 86.4504 14.2124
15.6819 85.5828 14.6147
0.64002 83.6697 -14.0286
13.0928 99.0957 -10.6111
18.9843 92.2109 11.632
20.4275 100.389 2.57027
0.871848 83.769 -14.0621
-2.66013 79.0549 -14.5763
15.0053 99.2861 -7.43472
20.2821 95.5092 8.96005
-1.2515 80.7836 -14.4924
6.48947 91.8889 -14.5811
15.4071 99.4464 -7.03286
3.05443 86.5886 -14.2778
4.01765 88.2329 -14.7176
9.56584 95.1248 -13.2508
14.7448 98.6364 -7.59015
15.9175 99.4983 -6.40406
8.33636 93.9548 -14.132
0.503633 82.5534 -13.8799
13.5945 98.4549 -10.0858
20.3998 99.975 1.86686
18.183 100.659 -3.84715
20.12 94.2323 9.52708
14.0715 98.2878 -9.08873
11.9344 97.0021 -11.7367
17.5506 88.233 12.8065
14.676 98.0164 -7.78
10.6196 95.2763 -12.3264
13.0022 78.4522 16.9914
15.371 98.1776 -7.0676
12.9249 78.136 16.9799
18.3515 88.9298 12.1085
17.3275 99.1748 -5.06165
13.0068 96.927 -10.8139
13.8979 79.4505 16.5953
16.2189 97.9295 -6.27904
19.4429 90.8575 10.7534
21.477 97.0608 5.90164
17.1063 98.4515 -5.33347
13.5973 78.4214 16.6527
17.5853 98.7559 -4.85039
21.359 97.2556 5.20109
3.76487 85.2512 -14.1629
4.8153 86.9067 -14.4114
8.46511 91.6377 -13.8168
12.6795 95.7844 -11.1369
1.0907 80.9769 -13.8476
20.7756 94.083 7.92803
13.1926 95.9272 -10.7329
19.4323 90.0487 10.8304
20.3344 92.1359 9.52016
19.2917 98.0555 -1.70304
20.9464 97.5755 2.35347
12.991 95.1796 -10.7636
16.2197 96.6204 -6.2811
15.5139 81.2769 14.6362
14.5717 79.0661 15.8141
11.3778 93.2385 -11.7943
5.34256 86.2787 -14.2247
15.3357 95.7714 -7.33889
6.91793 88.3795 -14.161
19.4349 97.4911 -1.35424
19.8556 90.0432 10.1898
15.2499 95.5664 -7.69663
12.0019 93.1848 -11.2136
11.7894 92.957 -11.4237
6.54898 87.0786 -14.0063
16.6823 83.0294 13.0682
17.041 95.5954 -4.83024
15.6379 80.4319 14.4198
15.3207 79.7258 14.7784
5.68392 85.5113 -14.0122
21.5876 94.8422 5.50225
1.09852 78.776 -13.8334
17.1132 95.2374 -4.73456
15.8818 80.5875 14.0993
5.12289 84.4962 -14.1741
20.1699 89.5389 9.76363
21.6329 94.4395 5.24854
16.5776 94.7188 -5.99364
20.3578 95.6707 0.355987
18.7138 85.7572 11.3996
18.2604 95.3022 -3.57423
-0.609718 76.2408 -15.1848
19.6094 95.5193 -1.39248
15.3043 78.396 14.6347
16.7867 81.7125 12.7931
19.3916 95.423 -1.9353
20.1065 88.4389 9.77599
15.9417 94.1446 -7.5619
3.93226 81.4152 -14.0956
5.36913 83.3548 -14.0427
16.6013 80.8341 13.0528
15.6631 78.7327 14.1311
21.1944 94.0318 3.21991
19.6611 86.8787 10.4848
1.22191 77.1974 -13.9117
-0.0703396 76.0546 -15.037
16.6172 93.7485 -6.55219
11.2875 89.5612 -11.8274
7.20431 84.8029 -13.4537
11.7827 89.8682 -11.4186
21.915 93.3201 4.65992
20.0867 87.2747 9.67336
5.97301 83.1523 -13.8451
13.0233 90.7568 -10.3294
12.9481 90.6907 -10.395
2.25527 77.6096 -13.8209
15.0755 92.5397 -8.9164
21.229 93.0786 3.12744
18.0225 93.155 -3.69452
17.977 92.9652 -3.79531
4.67528 80.8836 -13.9238
18.4213 83.3406 11.1639
17.5468 81.2055 12.2028
13.2244 90.2332 -10.1318
5.97829 82.2506 -13.7641
19.6158 93.6157 -1.92853
17.3332 92.3637 -5.00473
4.92531 80.6635 -13.8638
5.54241 81.2895 -13.7781
20.4108 86.8737 9.05722
11.8779 88.4987 -11.1484
21.5381 90.1958 6.35723
21.9462 92.1633 4.29274
16.8952 92.0112 -6.18382
21.4007 89.0922 6.96486
3.9233 78.023 -13.7478
8.82843 84.4563 -12.9281
4.51503 78.8487 -13.7418
3.08028 76.4367 -13.7634
17.9584 79.5354 12.09
17.3034 90.5301 -5.43637
20.4978 85.2029 8.96843
12.4456 87.1716 -10.8361
3.7651 76.6698 -13.6956
15.7842 90.174 -8.41549
9.1126 83.5073 -12.8163
18.1297 79.3893 12.0026
11.8081 86.1316 -11.2893
7.34261 80.6881 -12.9853
19.1124 90.5659 -3.145
10.2018 84.1032 -12.5019
12.2586 85.8853 -10.9633
4.65919 76.5054 -13.568
21.0476 89.3614 1.40867
15.2422 87.8833 -8.64495
17.3782 88.8727 -5.66568
16.5959 88.4567 -6.71028
12.8655 85.6105 -10.5277
18.7945 79.2058 11.2237
8.77109 80.9649 -12.3434
21.2085 85.1784 7.45892
5.53082 77.0603 -13.4454
5.195 76.5009 -13.4798
21.7737 86.2632 6.57056
15.2792 87.344 -8.59536
19.6605 88.9103 -1.78603
16.2306 87.8382 -7.47538
19.75 88.8122 -1.59785
12.1163 84.184 -10.9766
19.3916 80.0391 10.2346
9.18161 80.5942 -12.1475
20.9018 87.9734 0.955293
20.3371 88.0097 -0.34672
20.9559 87.8798 1.11828
11.593 83.0099 -11.3147
18.9097 87.9018 -3.38206
14.9594 85.3119 -8.15479
11.5423 82.4678 -11.2975
21.1944 82.9825 8.02692
19.6041 87.4006 -1.79355
21.1706 87.1731 1.71077
16.3278 86.3026 -7.14327
8.34225 78.5733 -12.5335
22.2917 86.0983 5.55034
15.9 85.6172 -7.30353
21.5444 83.6364 7.33109
21.457 83.2297 7.55535
18.7395 87.0458 -3.77202
9.29036 79.2109 -12.1055
20.2502 86.3011 -0.559623
19.706 86.2815 -1.77176
14.6133 83.603 -8.55003
17.6339 85.9188 -5.6463
16.1715 84.4352 -6.55747
16.8203 84.7876 -6.00364
7.53996 76.0521 -12.9564
18.6424 85.8867 -4.20966
20.5935 80.1666 8.22303
22.1951 86.1684 2.71778
19.0418 85.6708 -3.32286
8.05965 76.3715 -12.6781
16.1571 83.465 -6.52426
19.9024 77.8157 9.50891
16.1037 83.3652 -6.56627
10.7766 78.9781 -11.4248
13.3546 81.2337 -9.41694
14.3674 81.5422 -7.8118
13.2868 81.02 -9.36383
21.0027 80.2514 7.548
12.0963 79.6918 -10.3886
22.537 83.8665 5.09528
13.5756 80.0752 -8.161
10.8605 78.2898 -11.2508
16.9611 83.3155 -6.12207
12.7961 79.1485 -8.87174
15.2491 81.4222 -7.15534
22.0018 81.9032 6.11966
20.6986 78.4575 7.99802
11.8941 78.1681 -10.0993
15.2622 80.9354 -7.17756
21.1385 79.407 7.29403
16.2155 81.7809 -6.64669
22.6932 82.8105 5.29283
11.3866 77.5582 -10.6509
19.827 83.8187 -2.44107
16.2046 81.4883 -6.66354
10.9136 76.3214 -10.5232
19.1003 83.2894 -3.75652
22.4637 81.7006 5.50395
11.3853 76.5979 -10.3117
22.1546 80.4909 6.15272
11.8291 76.78 -10.085
18.4576 82.6682 -4.86415
21.8438 83.3041 1.1967
12.1012 76.635 -9.79676
21.5037 82.6432 0.870463
17.5075 81.1466 -5.37673
12.4329 76.5294 -9.24552
15.8775 79.7395 -6.86922
17.8994 81.3111 -5.02661
21.9435 82.2882 1.93965
