ply
format ascii 1.0
comment Created by Open3D
element vertex 1922
property double x
property double y
property double z
end_header
-4.67285 129.247 -12.6657
16.6347 122.929 7.92429
13.913 142.288 7.98851
19.4123 109.168 8.75869
16.6691 129.86 9.00947
21.2615 83.3947 6.93733
-2.67191 95.2689 -15.4662
-5.08226 128.057 -13.1433
20.6485 90.2488 7.35166
-3.71661 135.14 -10.6853
0.223889 82.546 -14.3119
16.3139 128.163 8.53086
-2.12069 92.5706 -15.1813
-0.418364 150.123 -5.09019
20.8181 79.2893 6.09804
18.6642 115.834 9.2172
11.8523 143.65 6.42707
16.3741 138.39 10.2467
-5.45017 103.124 -16.8686
17.9744 120.925 9.34595
20.264 101.362 8.83095
-4.23546 134.048 -11.1062
-4.9483 116.515 -14.3285
0.0103622 79.7275 -14.6275
-5.77809 106.179 -16.6242
-5.10417 101.111 -16.6451
18.2897 119.792 9.67477
17.334 124.922 9.4534
1.74767 154.119 -2.00355
16.7234 126.406 9.09829
15.7885 139.514 10.0801
11.4553 144.163 6.39727
9.44473 149.13 5.10976
20.3505 91.5664 7.79019
20.7797 87.079 7.57666
19.3179 109.337 9.34698
-4.67078 133.051 -11.3828
18.3114 120.439 9.98791
16.7709 130.013 9.82749
19.1627 114.609 10.0215
-5.84303 103.173 -16.8409
-5.72766 109.592 -15.7675
18.0861 121.488 10.0074
-5.65393 126.134 -13.2413
-2.21025 91.3089 -14.7953
0.617166 153.367 -2.95871
-3.34157 93.6213 -15.5145
-5.57501 111.366 -15.1974
-4.86755 132.29 -11.4339
-4.87188 131.495 -11.5503
17.7577 124.232 10.2344
18.9777 111.025 9.57827
12.6485 142.015 7.67907
19.2768 108.822 9.56823
-5.91679 120.789 -14.0649
-0.738714 78.1558 -14.9822
20.2658 97.672 9.10845
-5.81939 128.384 -12.6792
-5.73483 117.418 -14.1766
8.18323 151.684 4.83151
-5.87251 111.516 -15.0799
10.1784 145.409 6.07868
-6.48029 126.847 -13.4138
20.1729 94.4407 8.7907
17.0567 130.798 10.9136
10.7673 143.962 6.52053
-6.4867 127.126 -13.3202
20.0939 95.2924 8.89935
19.3732 106.798 9.84521
-5.35086 131.598 -11.4576
-4.35362 94.7186 -15.7007
19.9469 81.1263 6.85834
-3.31646 146.09 -7.18479
-6.66966 107.132 -16.1056
18.9319 110.703 10.2804
-4.74529 137.886 -9.65302
19.7439 101.262 9.77674
20.2401 86.8926 8.20211
-6.17726 124.882 -12.9378
-6.39501 128.917 -12.5592
8.60442 148.486 5.40739
-3.28186 146.715 -6.80828
-1.52014 150.855 -4.38506
-6.40521 109.882 -15.2344
18.4257 112.204 10.1703
19.4068 106.397 10.3736
18.5751 118.159 11.2391
-6.70707 119.82 -14.0225
-6.7832 120.234 -14.0301
18.0365 123.009 11.4521
19.8364 95.1766 9.25612
-3.25861 90.3902 -14.7333
-6.95983 120.951 -14.045
-3.98057 92.2702 -15.1676
19.49 105.171 10.3806
11.7064 141.134 7.79008
-6.95316 128.522 -12.829
16.4024 135.113 11.6973
-5.56281 138.004 -10.0439
20.2927 83.6108 8.19142
-1.99647 78.2428 -15.031
19.5309 100.735 9.99088
18.9262 110.031 10.7877
7.88128 148.932 5.2885
-4.79315 93.4893 -15.5083
-2.84304 77.0065 -15.9228
16.877 127.477 11.2803
19.9585 87.5422 8.62836
-7.22998 105.091 -16.2042
20.0199 85.9477 8.56618
-7.22904 130.54 -12.4521
17.1569 127.031 11.6999
-3.22872 88.0439 -14.4699
-6.07131 94.4856 -16.394
-3.90073 90.3098 -14.7965
-6.77674 97.6946 -16.6219
-3.50228 76.6489 -16.3576
7.25375 150.39 5.20239
-7.45636 116.374 -14.5519
-6.73667 99.0553 -16.3212
19.9132 89.198 9.15005
-5.20596 92.8411 -15.6611
17.1871 127.198 11.9111
-7.09185 109.715 -15.0552
11.8479 140.082 8.46004
16.9084 128.552 11.9514
-2.84612 78.8704 -15.1443
13.2446 138.445 9.73355
-3.19731 86.9911 -14.285
-7.88488 128.766 -12.9147
-4.61349 145.379 -7.20608
-5.97019 141.78 -9.08431
8.78429 145.446 6.36764
-5.54858 142.457 -8.49907
-7.31066 132.066 -11.7467
-6.61819 93.4592 -16.5996
-4.26743 89.7329 -14.7655
17.6052 122.657 12.0843
-7.79046 117.231 -14.304
-7.46159 113.132 -14.5477
17.0113 128.695 12.4005
-7.04625 138.728 -10.3687
18.6371 107.775 11.1353
-3.48131 78.9831 -15.3407
18.7826 107.028 11.18
7.38654 148.162 5.65189
-7.93734 117.404 -14.2421
-6.20279 141.851 -8.95213
17.0423 130.088 12.7999
17.0805 129.016 12.685
17.4795 123.926 12.3742
-7.63541 132.312 -11.7065
-6.87056 140.821 -9.65899
-7.03658 134.353 -10.6746
-7.73686 132.573 -11.5742
18.3593 108.365 11.2618
11.576 138.621 8.82535
-8.15943 100.465 -16.562
-8.29965 131.925 -12.099
-7.38454 134.172 -10.812
16.5303 131.336 12.9291
-7.563 94.0669 -16.7441
-8.199 131.11 -12.0227
14.2326 135.704 11.3432
-8.51477 121.325 -13.6707
11.6248 138.103 9.08408
-8.33145 98.6049 -16.7517
-8.63133 119.433 -13.9844
19.3135 96.8128 10.9843
-8.05316 108.349 -14.9515
-8.73812 120.183 -13.8987
-4.67832 82.3957 -15.26
18.0536 111.926 11.9517
18.8269 79.5521 8.10711
18.7242 100.355 11.0278
6.4377 148.444 5.59763
-3.35045 151.588 -3.75544
18.3006 110.824 12.2361
7.06889 146.647 6.16535
9.6908 139.998 7.88249
-6.08058 143.677 -7.49706
18.7554 78.1562 8.08191
14.5958 134.967 12.1145
-6.82 142.054 -8.46654
-8.68885 98.6178 -16.6208
-2.33325 154.232 -2.08294
-8.9281 137.698 -11.1013
-8.64819 98.0519 -16.5447
19.148 94.377 10.9758
12.8593 135.522 10.6059
5.79466 149.288 5.47807
-8.85 101.362 -16.2045
-9.17873 119.748 -13.8713
-8.68754 103.732 -15.6857
16.9325 124.309 13.144
-9.1728 133.025 -11.9236
18.6784 81.6725 8.77153
-8.31671 92.7861 -16.812
16.0793 131.545 13.4551
19.2181 86.5666 10.145
-8.8799 103.291 -15.7491
18.0301 112.001 12.7381
-5.11604 149.365 -5.18289
-5.02248 84.3964 -14.4827
-9.17113 100.721 -16.3054
18.1406 106.251 12.0885
-6.33239 144.289 -7.0769
-8.76309 106.525 -14.9828
12.9414 134.935 11.0664
18.9797 85.0116 10.0237
-4.34948 151.431 -3.78667
6.62764 145.754 6.49188
-9.68247 134.964 -11.5136
-5.90524 86.5135 -14.7098
-6.33812 146.202 -6.49061
18.9888 90.9134 11.1676
-6.33009 148.443 -6.0345
-9.88721 119.564 -13.7746
-9.75154 113.206 -14.5282
6.08263 146.12 6.21432
19.0474 88.5093 10.99
-10.2373 115.719 -14.6166
8.26021 142.336 7.91548
18.2955 100.331 11.9764
18.911 91.861 11.3734
18.3152 103.124 12.4409
-9.40599 98.1227 -16.2483
-6.4436 81.0348 -15.6609
16.8791 120.523 13.6318
16.008 127.767 13.808
18.2644 79.0797 9.07001
-9.95988 100.016 -16.3716
-9.93752 111.67 -14.6608
-9.44306 105.011 -15.085
-10.2719 135.9 -11.4419
18.6409 94.8294 11.8182
-9.95325 122.755 -12.9827
-9.44369 105.489 -14.9476
17.7418 106.011 12.5618
17.1359 117.864 13.6668
-7.13562 146.775 -6.61392
-10.2851 121.005 -13.4903
18.7647 91.6223 11.5971
-10.4081 135.826 -11.4359
-6.8929 86.7053 -14.9955
-10.7439 115.898 -14.6481
17.7185 111.847 13.518
18.0048 104.259 12.7261
-10.2241 111.866 -14.5962
-9.76496 130.368 -11.4399
-10.3923 133.308 -11.6421
-9.4085 90.3006 -16.8518
13.2942 133.307 12.3219
14.321 132.497 13.241
11.4678 134.56 10.6923
-10.6293 126.708 -12.7001
-9.80375 104.92 -15.0183
-10.7139 118.257 -13.9509
5.93423 145.226 6.74774
18.399 95.7678 12.1927
14.9119 130.813 13.8305
18.4865 93.3613 12.0216
-7.96632 87.6117 -15.4907
-5.28323 152.224 -3.41734
-6.64705 150.482 -5.02752
-6.8929 83.9957 -14.8941
-5.09025 152.498 -3.1417
-10.9501 117.955 -14.0408
-10.9744 114.813 -14.5159
-10.4644 102.103 -15.8033
18.5064 90.8218 11.7974
-10.71 137.127 -10.9282
-11.1584 117.283 -14.2395
-10.6984 112.463 -14.4643
18.1626 85.014 10.6863
11.4661 133.688 11.0022
10.6993 134.958 10.446
-10.0852 91.3696 -16.8046
17.4014 110.845 13.7745
10.4161 135.346 10.2759
-8.85079 141.021 -8.32488
13.5891 132.198 13.0451
5.75303 144.843 7.00476
-8.45861 145.597 -7.21971
18.1681 96.9157 12.6376
17.593 104.212 13.1617
-10.8353 101.931 -15.8013
17.7312 78.3387 9.64681
-8.73896 142.545 -7.75836
12.3837 132.444 12.1392
-10.5977 130.834 -11.2415
-8.05603 148.813 -6.06914
-8.48286 147.254 -6.70613
-10.794 109.428 -14.4783
17.0741 109.65 13.7318
-10.7132 128.504 -11.5706
-10.8572 109.046 -14.5278
6.73534 141.801 8.0142
-8.94251 142.735 -7.66852
3.95111 145.713 5.77567
-11.6888 118.14 -13.9848
18.1509 88.4088 11.8429
-8.92134 144.513 -7.34784
16.773 108.491 13.383
17.6793 101.386 13.2831
6.40776 142.143 7.80982
-11.8846 115.661 -14.4709
-11.5313 119.996 -13.4503
11.965 132.245 12.0305
18.1902 91.4616 12.4127
2.37137 145.031 4.21338
-10.8611 129.397 -11.3773
17.6451 100.703 13.2534
-9.16251 87.4871 -15.6997
-6.58587 152.382 -3.69381
-8.65377 148.369 -6.30602
-10.4434 87.9408 -16.8178
17.5764 100.897 13.3356
-5.29085 153.499 -2.11175
-8.02277 149.917 -5.37572
-11.5424 100.932 -15.9826
17.7341 86.1285 11.4232
-5.26835 153.629 -1.98091
-9.50563 141.665 -7.97979
-7.75761 76.994 -15.5576
-11.8565 113.804 -14.3321
-11.7314 122.825 -12.8811
-12.1044 114.722 -14.3925
17.4648 100.821 13.4338
-11.0259 90.1579 -16.8429
17.4895 84.5557 11.1228
-9.65406 141.06 -8.08347
17.3874 101.786 13.5868
-11.973 126.204 -12.4601
-11.1295 98.3627 -15.6259
-6.70242 152.574 -3.31602
-6.52753 152.725 -3.04971
-11.3062 128.451 -11.3633
-9.06391 86.1606 -15.2162
-10.7741 87.0768 -16.7611
11.3313 131.719 12.0069
-12.4403 124.22 -13.041
-8.79829 85.6339 -14.9405
-9.38531 147.614 -6.55101
-8.6717 79.6177 -15.6519
-8.46776 85.1305 -14.6367
-11.5851 106.84 -14.5465
-11.3155 89.5117 -16.7699
12.9297 130.824 13.6825
-6.8193 152.697 -3.00318
-11.6128 104.35 -14.7776
-11.788 107.193 -14.5409
-12.0838 101.266 -15.6917
-6.81041 152.737 -2.91726
7.85127 137.971 9.74985
-12.8867 118.148 -14.0166
-12.4396 136.041 -10.9648
-8.99958 84.891 -14.8423
4.76206 143.486 7.53416
-12.8991 123.226 -13.1166
-8.96917 78.7543 -15.5709
10.4048 132.327 11.7366
-12.9528 133.295 -11.6772
-10.0118 144.294 -7.11536
-12.8763 120.725 -13.3775
-8.51563 76.5463 -15.3676
17.1677 85.0041 11.7823
-9.95964 147.695 -6.50467
-12.9902 114.756 -14.3214
16.195 108.958 14.2908
-12.9109 120.939 -13.3408
16.2664 112.668 14.9119
-9.31849 79.7983 -15.5925
-11.9077 98.3356 -15.4806
0.369709 144.145 3.56029
15.8111 114.766 14.9696
9.59208 133.489 11.4043
-13.0842 114.108 -14.2773
10.3839 131.587 11.9348
10.8044 130.991 12.277
-12.487 100.129 -15.6805
17.3665 92.8378 13.4002
15.7901 114.724 15.0016
3.30212 143.872 6.62179
11.5084 130.796 13.0131
-8.80152 150.938 -4.54729
-0.055793 144.338 3.32855
17.0004 84.5718 11.9282
17.224 96.3665 13.8659
-12.9698 131.37 -11.5281
-11.7715 138.468 -9.27385
-12.0489 105.694 -14.2731
-11.128 84.9785 -16.3267
-11.7725 94.9198 -15.5161
-11.989 92.4673 -16.077
-12.4538 107.24 -14.398
15.9499 109.671 14.6607
16.0384 111.576 15.0608
7.93618 137.207 10.5956
16.3683 98.9037 13.6671
-10.4641 147.21 -6.41237
-13.7465 119.887 -13.6335
16.9948 96.7343 14.0409
16.9761 96.7056 14.0758
3.92499 143.258 7.67101
16.7008 80.6831 11.5173
-12.3312 92.1781 -16.1017
3.38264 143.162 7.13621
5.64171 140.295 9.00093
-0.558845 144.012 3.32046
16.8811 86.7121 12.6284
16.6391 80.1923 11.4519
-13.0164 135.351 -10.4352
-10.6332 145.547 -6.5263
-6.13983 154.226 -0.733005
-12.1535 138.423 -9.0481
-12.8311 102.895 -14.8685
6.25683 139.009 9.70016
16.6265 81.5215 11.8521
-13.2948 109.023 -14.2987
16.9316 90.7734 13.5589
-7.41658 153.1 -1.89436
-14.2607 118.701 -13.7695
16.914 92.9113 13.9557
-12.7437 92.0424 -16.0677
3.74553 142.67 7.90266
9.67718 130.729 12.1663
-13.184 107.33 -14.2803
15.5766 112.616 15.5105
14.1688 121.779 15.4226
2.48346 142.666 6.65528
-10.3159 79.0389 -15.4148
5.36055 140.134 9.24485
13.7495 123.92 15.3662
6.55251 138.008 10.1536
-12.8905 91.7179 -16.1382
-11.1118 143.315 -6.87634
-13.4602 101.146 -15.3176
-13.9727 124.423 -12.4473
15.9915 103.491 14.8037
-12.1073 86.9815 -15.8722
-11.111 146.557 -6.24115
-11.2645 143.424 -6.77378
-6.64954 154.192 -0.530633
-11.5481 142.64 -7.09837
-11.3539 143.283 -6.76391
-12.3068 138.984 -8.3413
1.60617 142.674 6.22987
-12.2583 85.5966 -15.9961
-14.5925 116.419 -13.8298
15.461 105.012 14.8481
10.398 129.437 13.2746
14.5896 118.249 15.8894
9.99677 129.783 12.9386
8.7385 131.79 11.9679
5.86575 138.483 10.0477
15.2309 106.038 14.8264
-13.4947 128.54 -10.7829
-14.1989 112.277 -13.8413
14.7915 116.267 16.0119
-13.9776 110.321 -13.8665
-14.7191 118.565 -13.394
13.1492 123.55 15.4584
-14.6772 119.598 -13.1441
16.3987 88.9336 13.7813
-1.63584 143.314 3.4926
-12.3027 83.1365 -15.9109
16.1909 96.7037 14.8156
-13.5257 95.1998 -15.3694
-11.158 78.584 -15.3763
9.12079 130.011 12.5391
6.61907 136.13 10.9413
16.1146 83.5412 12.9171
-14.8515 122.806 -12.628
11.9156 127.575 15.0914
8.85404 130.135 12.383
16.2351 92.2819 14.4868
-14.2589 102.563 -14.7893
14.9274 111.713 15.9972
14.484 116.061 16.2368
16.1649 92.2027 14.5299
7.69069 133.017 11.9249
15.4368 102.155 15.2933
14.5516 109.444 15.4763
-14.4448 108.331 -13.9397
14.8005 110.975 15.9539
0.476959 142.107 6.01837
-14.5887 107.564 -14.0391
4.83989 138.947 10.1952
-1.90714 141.868 3.81645
15.233 98.1225 14.8416
13.7009 117.993 16.2458
-15.399 121.978 -12.4893
-13.8188 138.077 -8.55645
-15.2736 130.453 -11.1211
-11.684 79.846 -14.7542
15.8239 92.6444 14.9287
-14.1654 137.107 -8.85997
-14.4486 134.41 -9.5285
1.28939 141.178 7.34643
-11.762 80.0369 -14.6634
-14.7727 106.578 -13.8466
3.34011 140.532 9.38077
-14.1384 90.2874 -15.5018
-12.6612 143.981 -6.21664
-12.0215 79.4223 -14.8795
-15.1806 112.261 -13.2955
-14.9838 107.671 -13.7594
2.40931 140.627 8.6123
14.2698 110.764 16.2627
14.9369 98.0024 15.1442
-13.6567 140.706 -7.5189
-10.3534 151.953 -2.54436
-13.3611 81.4059 -15.7576
-14.3446 91.1501 -15.2867
-12.7081 80.4391 -15.149
-15.4513 118.166 -12.4479
15.5871 95.0559 15.5336
-7.41978 154.096 0.877827
-13.5062 81.3183 -15.7519
5.40965 135.906 11.2423
-14.6872 94.0823 -15.0606
-12.6584 77.5176 -15.3974
15.5087 88.7745 14.656
4.24308 138.534 10.5156
-12.4641 147.73 -4.9045
-12.6189 78.8643 -15.02
-15.9789 116.211 -12.9782
-15.3854 101.627 -14.4795
14.6099 99.2601 15.4794
-15.3191 110.259 -13.1093
14.0223 111.55 16.6982
-15.434 102.72 -14.1667
15.2965 87.5341 14.683
15.2905 86.722 14.5799
13.7739 110.65 16.5976
-12.2209 149.095 -4.06623
8.7352 127.999 14.0533
14.5564 100.304 15.9295
7.74913 128.955 13.2207
13.6642 113.375 16.9726
4.01622 137.87 10.7952
-13.7111 85.3103 -14.6837
-14.9457 92.728 -14.8491
-14.2018 82.4254 -15.5804
-1.98214 140.561 5.18356
-16.2585 125.461 -11.3818
15.1595 87.4194 14.8175
0.775021 140.123 7.93902
-13.3382 78.4539 -15.1006
15.0119 90.7925 15.333
-1.78216 140.336 5.60238
14.1872 101.423 16.0914
15.0356 94.9683 16.0211
15.0115 85.3486 14.6077
2.84439 139.097 10.1552
-4.02188 140.987 3.56672
-13.9302 143.269 -6.08093
4.09517 136.706 11.1642
-16.0875 117.22 -12.0032
10.4032 124.604 15.7973
-14.2598 85.9096 -14.6806
11.5248 120.57 16.3556
-13.6546 145.471 -5.41377
-5.87199 143.999 2.23089
14.8615 84.5636 14.5606
-15.7445 100.315 -14.0213
-9.42086 152.941 0.00358672
5.70491 132.413 12.3391
-4.44832 141.32 3.40675
7.12061 128.759 13.2753
-15.5231 130.838 -9.09723
5.89941 129.47 12.394
13.7487 105.069 16.7844
-15.8067 108.727 -12.5053
14.6344 96.2871 16.4162
-15.7088 128.35 -9.54006
-15.8484 99.4189 -13.7759
9.06845 126.479 15.2853
-14.9898 86.3978 -14.758
-13.6959 146.192 -4.79942
10.9301 120.599 16.4186
-0.108361 139.442 8.0114
-15.9678 108.502 -12.4292
13.9839 97.6827 16.2259
-15.5951 93.292 -14.2276
13.5099 101.98 16.4065
-0.473239 139.447 7.73893
-15.367 133.721 -8.06519
-7.30324 144.241 1.69276
4.95685 131.721 12.255
4.41373 134.438 12.111
-16.5906 119.675 -11.1079
4.26648 134.657 12.1153
-14.0494 77.6764 -14.6065
-16.748 121.563 -10.9697
3.11603 136.989 11.3266
14.1843 82.7933 14.8226
12.6086 110.358 17.2878
-15.5571 135.792 -7.42903
-14.0622 146.136 -4.37217
-16.6669 109.296 -12.2737
11.9337 114.754 17.3856
-14.0098 146.768 -4.07777
-14.1416 146.091 -4.29618
5.06355 128.808 12.6061
14.0024 83.5026 15.0954
3.89374 132.711 12.0237
4.66214 129.627 12.358
-17.2428 124.165 -10.5144
2.7672 136.748 11.5161
-16.5729 128.219 -9.20221
-14.5399 80.7546 -14.0101
12.8282 106.518 17.3328
-16.1128 93.744 -13.681
-16.4479 96.8946 -13.4923
-12.5713 151.047 -1.69694
-16.7925 130.965 -8.84112
-1.03053 138.553 8.18322
-17.017 102.357 -13.1783
-16.6798 127.667 -9.17105
-16.7721 131.635 -8.68227
13.0838 103.597 17.389
-16.6706 127.756 -9.12757
-13.2078 150.322 -2.3376
5.25448 127.773 13.0888
13.9657 89.6634 16.4821
-2.22696 138.341 7.19526
-16.6439 100.661 -12.7817
-16.0069 138.736 -6.5763
-17.6216 123.881 -10.3011
13.6582 82.9291 15.3496
8.1024 124.768 15.8019
13.8337 90.2091 16.5932
11.1762 114.98 17.4969
13.8448 85.7346 15.9924
2.99383 133.079 11.9211
-1.02296 137.938 8.65567
-17.8179 124.302 -10.2337
-17.4469 114.51 -11.242
-17.4862 104.153 -12.6233
-16.3816 133.965 -7.15585
-0.672557 137.491 9.22721
8.97572 121.125 16.6178
9.00178 120.847 16.6183
-17.0791 132.923 -7.94409
12.224 106.451 17.8079
-17.4884 105.789 -12.2513
9.74835 118.54 17.0909
13.4159 91.6641 16.911
-16.4437 136.517 -6.72611
-16.7443 99.0598 -12.4135
-17.3522 128.41 -8.74269
-17.9756 112.961 -11.5854
-8.90016 145.188 2.26368
-2.10116 137.639 8.07523
12.3367 103.865 17.8059
-15.8899 85.1679 -13.3688
-11.2379 152.014 1.00403
-16.8989 96.9993 -12.6573
-8.06802 143.289 2.96581
-17.9846 120.041 -10.3817
-17.0187 133.618 -7.3746
-15.9571 143.784 -4.8308
3.99817 127.948 13.0142
-17.6117 126.657 -8.90839
13.2581 90.9044 17.0807
-9.29426 146.165 2.34569
-18.553 122.418 -10.4183
8.53669 121.416 16.7964
-18.0641 118.682 -10.4051
-15.8715 78.0362 -13.9999
-10.389 152.005 2.23901
-17.0033 95.0495 -12.6415
-18.2031 110.011 -11.6832
-15.6187 78.9407 -13.5462
-14.5883 148.293 -2.41899
-11.2994 151.951 1.47899
13.1366 90.1852 17.2066
-8.78888 144.028 2.88284
-16.8036 137.404 -6.15545
-18.3009 126.092 -9.28529
9.17312 118.008 17.2745
-17.7747 132.606 -7.76662
-9.55588 149.482 2.98422
5.80743 124.85 14.96
-10.2761 151.194 2.54463
-14.7265 148.397 -2.23904
-18.0055 116.844 -10.0786
2.58685 129.574 12.5609
-18.6381 124.204 -9.62514
-16.994 136.551 -6.14411
-17.0435 134.809 -6.41692
-6.19612 140.664 5.40751
-15.9669 143.729 -4.00422
-9.78054 145.531 2.51248
13.0008 88.5895 17.2765
-9.80736 145.605 2.53715
4.89811 125.316 14.447
-18.8323 119.872 -10.2444
-15.357 79.4388 -12.5766
11.9023 98.8152 17.7412
-4.60144 138.382 6.81534
5.95801 123.955 15.4451
-16.6443 87.7145 -12.5907
-15.6156 84.6686 -11.9721
-17.4141 98.6549 -11.7368
-5.99193 139.232 5.67531
-17.5207 137.894 -6.07259
-16.4419 85.3906 -12.5786
-19.1758 121.359 -10.1313
-16.8955 139.828 -5.14292
-16.9327 140.246 -5.0908
-15.4913 79.2829 -12.4406
-16.8606 86.9024 -12.7136
-18.722 123.952 -9.22908
-17.4912 97.3157 -11.7985
-17.3477 135.039 -6.1766
-16.2769 90.3299 -11.5512
-17.8337 125.551 -8.02255
-14.698 149.433 -1.39685
12.406 95.3665 18.131
11.2287 99.9104 17.6112
-18.0833 114.863 -9.76515
0.913838 133.265 12.0912
-17.9232 103.436 -11.221
-18.3951 105.259 -11.4098
2.84557 127.324 13.2274
-18.0183 124.54 -8.14047
-16.1642 143.882 -3.45296
-18.5424 108.297 -10.9548
-12.302 151.394 1.60943
-1.07639 136.165 10.7563
-15.3271 147.4 -1.97044
-16.7523 91.9966 -11.3817
10.776 108.065 18.7263
-15.8068 82.505 -11.7677
-17.7353 96.7674 -11.6478
10.5538 109.661 18.7743
8.35132 117.131 17.6375
-12.5889 151.24 1.48927
-15.7984 84.222 -11.4278
-18.0675 138.05 -5.91275
12.0133 96.4132 18.4212
5.82422 122.714 15.9848
-17.8503 96.3641 -11.6008
-7.45027 141.716 5.47185
-18.3988 124.422 -8.03426
-18.8544 123.475 -8.62854
-16.5146 142.187 -3.52512
-16.4669 81.3999 -12.2584
-16.2445 145.013 -2.79704
-19.0481 121.779 -8.9653
-7.03659 140.532 5.86938
-16.1979 145.185 -2.68748
-3.8562 137.583 8.66953
-18.882 123.296 -8.52743
-7.65719 141.479 5.46276
-11.5189 150.605 2.96027
-10.7521 148.819 3.50911
10.6334 100.823 18.1524
-17.1103 140.408 -4.089
11.6886 97.0746 18.7076
-11.697 150.664 2.95796
7.27426 119.524 17.6088
11.9066 92.7302 18.4236
-7.16419 139.737 6.03779
-17.3235 85.9163 -11.9582
2.72561 125.138 13.968
-14.5021 149.88 0.179238
-8.95164 141.459 4.57594
7.31003 118.878 17.7331
5.9235 121.518 16.7176
-16.7501 142.759 -3.07701
-18.2046 123.445 -7.32456
-18.1327 122.7 -7.34825
-17.9424 94.9797 -11.1628
11.4822 96.8605 18.8607
-18.8296 132.894 -6.49691
-12.3653 151.189 2.69258
-16.3616 78.1115 -11.828
10.112 104.074 18.6391
-12.6671 151.039 2.50636
-1.07857 135.409 11.9517
-4.1738 137.006 9.07896
0.159042 131.632 12.6916
-16.6419 80.7035 -11.5784
-17.0819 80.698 -12.0206
1.04063 127.983 13.1355
4.96024 121.807 16.1973
0.484093 129.716 12.8679
-16.6472 82.6767 -11.2147
-18.807 124.48 -7.30453
11.4542 89.8428 18.2822
-17.113 89.8115 -10.517
-17.8378 93.2972 -10.7346
0.519039 129.239 12.9943
-14.481 150.04 0.883781
1.38376 126.656 13.5135
-18.7316 102.319 -10.3014
11.5737 83.4847 17.5778
-19.6361 130.672 -7.02905
11.3167 89.718 18.3164
-18.7912 102.502 -10.2078
-19.1465 112.995 -9.02516
9.7118 107.03 19.268
-18.6083 120.375 -7.36032
-9.66563 141.335 4.74877
-19.4082 132.996 -6.27116
-17.2776 86.3043 -10.8118
11.4754 84.448 17.9531
10.1646 99.8881 18.8866
-16.2064 80.6563 -10.4599
-18.8027 136.087 -5.0295
-8.35163 140.217 6.11547
11.4708 81.4208 17.6169
-18.7442 135.493 -4.99129
-20.0024 133.804 -6.48739
-16.8279 82.2882 -10.7363
-1.68447 134.944 12.1679
-18.7453 105.367 -9.3081
-18.7553 135.363 -4.96147
-11.4949 145.126 3.83395
-18.7492 105.273 -9.24976
-2.98959 135.684 11.0968
-19.4021 128.776 -6.43528
-15.4281 149.269 0.559522
10.8508 89.5408 18.4913
-16.4769 81.6517 -10.1795
8.30147 111.893 19.1994
-17.3931 144.266 -2.03323
3.77821 121.562 16.1006
-16.8812 78.9125 -10.8916
-17.6213 143.107 -2.35055
-18.6826 137.247 -4.23184
-18.8274 98.654 -9.92535
-19.5889 129.481 -6.22403
-16.2397 80.0604 -9.99399
-18.9825 133.618 -5.00486
-6.4359 137.43 8.22615
-11.8505 147.444 4.22934
-18.9732 129.032 -5.58237
-18.7613 96.3473 -10.0727
-17.8391 142.766 -2.39724
-19.7773 126.41 -6.68193
-17.4024 123.149 -4.74457
-18.3915 125.989 -5.30982
-19.5153 133.44 -5.2677
-19.2661 131.601 -5.27158
-6.10963 137.036 8.81222
5.81603 118.989 18.2406
10.8325 87.1039 18.7033
-17.3295 90.1415 -9.25009
-19.6999 128.902 -6.01014
-20.5421 133.811 -6.14094
-19.377 109.675 -8.41984
-19.2832 136.771 -4.38476
-18.1622 121.84 -5.41081
8.66568 108.106 19.6744
-19.4578 131.758 -5.25214
-20.3671 117.312 -8.25868
-1.14476 131.313 13.1658
-19.8858 111.439 -8.61247
-19.4544 119.999 -6.92768
-18.3365 124.865 -5.07272
10.3597 91.4217 19.0522
-19.6675 127.675 -5.99331
10.8035 83.4565 18.3533
-19.4752 129.333 -5.55037
2.69242 121.752 15.7195
-12.2292 147.278 4.36019
-10.4082 142.255 5.49352
-18.2591 124.675 -4.95038
-2.22703 133.97 12.5871
-18.6463 94.192 -9.7326
-1.68034 132.54 12.943
4.09474 119.881 16.9539
7.64983 112.277 19.5289
9.20589 100.926 19.5424
-17.4782 123.216 -4.14563
-6.80717 137.188 8.65198
-20.571 117.596 -8.05455
-19.6728 132.56 -4.9795
-18.4076 123.178 -5.03335
-19.8057 129.441 -5.52701
-17.5898 146.898 -0.761644
-19.3756 102.596 -8.96092
-14.8058 150.172 2.55154
-17.0009 123.181 -3.56734
-19.4632 129.708 -5.10682
-5.84449 134.965 9.44846
-19.5752 131.71 -4.85591
-6.5726 136.373 8.94883
-11.1613 140.118 4.9027
-19.0412 126.613 -5.00102
-18.6734 123.088 -5.10439
-19.7269 127.655 -5.50271
-9.00515 138.81 6.97887
9.92486 91.835 19.314
-6.04902 134.852 9.42192
9.63292 99.1877 20.1286
-7.82583 137.69 8.08569
-19.2787 105.052 -8.13409
7.94915 105.214 19.4001
-19.1704 98.9173 -8.81906
-21.7039 130.989 -6.71265
-19.1873 122.631 -5.3755
-19.2107 126.965 -4.75499
-2.8584 133.415 12.7349
-20.2499 111.885 -7.90339
-19.0029 141.869 -2.30091
-17.5794 123.037 -3.57708
0.121734 123.764 14.4116
-17.5637 122.648 -3.57928
-20.03 128.047 -5.28303
-14.2181 149.729 3.74361
-19.8499 138.39 -3.54937
5.58868 117.334 19.0715
9.06955 100.393 20.1337
-18.1579 121.014 -4.34414
-18.7 125.608 -4.1993
10.2448 84.1596 19.0093
-18.1528 146.807 -0.577555
7.58411 107.461 19.6994
-20.0421 127.618 -5.25577
-18.2713 124.157 -3.91563
-19.2565 97.9452 -8.6956
0.15645 123.531 14.5927
8.28557 102.127 19.727
6.65101 113.148 19.6898
-19.5545 107.879 -7.49742
-11.5429 141.766 5.49716
9.90197 89.2969 19.5765
-17.8412 83.5756 -9.20238
-19.8041 108.681 -7.49567
-17.7576 119.154 -3.88095
9.42193 95.9181 20.283
-18.7878 124.713 -3.98545
4.5438 117.834 18.56
-17.4542 119.584 -3.32587
-18.3069 85.6068 -9.07816
-9.46888 137.389 7.33712
-18.4157 122.718 -3.79305
-18.1805 84.6273 -9.03431
-19.4031 99.4029 -8.12858
-18.1834 84.6291 -9.02552
-20.0767 139.736 -2.95904
-11.7569 142.94 5.89948
-18.0169 78.8014 -9.68176
-10.2368 136.164 6.49065
5.53786 115.559 19.4678
-19.9611 108.698 -7.2466
-20.5986 127.849 -5.07508
-22.1311 130.653 -6.21503
10.1643 81.3653 19.2414
-3.42464 132.686 12.993
-8.14479 136.181 8.81588
-16.1659 78.4285 -7.60848
-18.1212 87.3302 -8.27004
9.88745 83.7472 19.472
-19.7188 100.932 -7.88613
-17.5186 78.9773 -8.82198
-10.8975 138.132 6.42004
-18.867 124.297 -3.61344
-17.2257 78.759 -8.53578
-18.1753 122.772 -3.12576
-0.803308 123.468 14.5407
-18.3824 121.573 -3.46805
-18.4562 118.175 -4.01435
-15.2323 149.536 3.79702
6.96328 106.076 19.9266
-19.2435 124.758 -3.77482
-1.82466 126.172 14.0191
-10.9042 136.483 6.35087
-19.5693 99.2265 -7.71212
-9.95928 135.616 7.29125
-19.5885 144.305 -1.14636
-18.1469 79.2665 -9.07853
-3.98305 132.602 12.9836
8.97945 92.2245 20.2575
-11.1935 136.477 6.3222
-10.4906 135.414 6.88497
-20.1081 109.319 -6.56242
-12.4889 144.094 6.16177
-19.3692 121.394 -4.05717
-19.3023 119.588 -4.19942
-12.3618 139.287 5.6569
-17.81 78.9011 -8.52107
-1.75831 124.884 14.3314
-8.8992 135.093 8.61432
-21.0996 137.877 -3.28656
8.18855 100.549 20.8798
-20.0159 124.528 -4.10488
-19.5194 122.402 -3.86691
-3.4031 130.525 13.5738
-11.409 136.074 6.31804
-23.0771 131.351 -6.0944
-12.1763 136.886 5.71896
-23.1176 131.731 -6.03076
-19.7291 99.2633 -7.29919
-17.3645 82.1235 -7.37825
5.25617 113.753 20.0274
-20.3918 110.126 -6.36702
-20.5174 140.929 -2.01419
-18.9259 90.5466 -7.59879
-20.104 108.016 -6.25994
-18.6526 86.0572 -7.93291
6.09859 108.782 20.3594
4.72224 114.993 19.8869
-20.1166 108.63 -6.08217
-22.6251 132.898 -5.10077
8.04434 100.167 21.122
7.87669 100.826 21.0626
-11.8947 136.328 6.28267
-22.0204 128.883 -4.98843
-18.1155 147.978 1.7973
-16.8409 80.3944 -6.6903
-17.0987 82.5851 -6.59628
-13.1 141.195 5.92297
-23.0525 130.013 -5.73504
-17.9146 85.097 -7.04591
-21.2807 115.362 -6.05516
-19.3461 146.846 0.466497
9.26177 84.1988 20.273
6.62452 104.284 20.5424
-7.32077 133.099 10.652
-18.341 121.226 -2.1633
-16.3847 82.5185 -5.78793
-2.02959 123.323 14.6126
-2.25022 124.128 14.5269
1.92577 118.348 17.9091
-20.1089 104.863 -6.2707
-9.0955 133.543 8.99438
-11.8772 135.707 6.52522
-20.5375 142.822 -1.13556
-19.1097 117.745 -3.32049
-10.8145 134.435 7.47087
-19.5881 94.9369 -7.09061
-20.9075 140.829 -1.77607
-15.2316 80.4598 -4.76763
-19.2347 117.467 -3.4509
-20.5264 143.07 -1.04225
-20.2992 144.677 -0.538742
-18.2409 78.7634 -7.90331
-19.5868 107.156 -5.12916
-20.5935 143.268 -0.919322
2.38845 117.435 18.538
-21.0091 111.866 -5.79414
-18.273 147.975 2.19202
-20.4688 123.82 -3.50752
-10.8204 134.326 7.79352
-1.01044 121.714 15.8945
-19.515 117.21 -3.30485
8.48743 91.8435 21.2853
8.05733 93.8893 21.1706
-19.3779 122.772 -2.32181
-20.9051 142.709 -0.949283
-19.3978 117.58 -3.05209
-18.741 88.1874 -6.6391
-19.7148 97.4597 -6.23688
-18.7873 122.974 -1.56049
-19.7349 122.776 -2.53871
-15.707 80.8954 -4.51756
-18.3561 147.954 2.53497
-21.0649 112.934 -5.26126
-16.7068 82.7555 -5.20621
-12.1834 134.899 6.9519
-20.0152 99.6971 -5.98096
-19.602 117.343 -3.00505
-19.762 146.966 1.27156
-19.0927 94.0177 -5.69478
-19.3172 122.36 -1.7666
7.43707 98.7551 21.8349
-14.2626 77.8933 -3.052
-23.0014 137.517 -3.23987
-19.8973 98.2329 -5.75996
-19.705 108.767 -4.03615
7.88095 93.6356 21.6115
-13.9598 143.786 6.84364
7.84977 93.7361 21.6172
-21.0233 120.274 -3.66049
-5.56505 130.036 13.3528
-17.7547 84.9183 -5.47075
-23.7501 132.797 -4.58564
5.45164 106.26 21.0529
8.54753 85.6273 21.2267
-19.7253 101.387 -5.00053
4.78599 108.719 20.7976
-10.0097 133.414 9.45327
-0.359958 119.679 17.21
-22.1057 138.975 -1.90071
-18.0716 121.843 -0.269985
-6.13709 131.278 13.1539
-19.953 99.4491 -5.3872
-24.0438 132.149 -4.73362
-13.1551 135.142 6.69043
4.22281 110.684 20.7342
-20.6285 112.313 -4.07667
-1.76505 121.178 16.2717
4.57522 108.243 20.8049
-18.96 118.211 -1.46235
7.1442 98.3763 22.0253
-19.8851 98.6444 -5.19589
-17.7117 121.32 0.288903
-5.20509 127.892 13.8682
-19.2906 96.3751 -4.88728
-3.38988 122.427 14.9279
-13.7498 135.696 6.39877
-4.38292 125.583 14.3953
-16.6816 77.9116 -4.83803
5.30435 105.586 21.361
-20.3367 111.141 -3.66744
-18.7181 92.2778 -4.7415
-20.7824 123.295 -2.32432
4.37555 108.933 20.9893
-19.2818 97.1418 -4.57213
-22.0822 124.02 -3.47438
8.33927 84.8405 21.5682
-19.2675 97.3211 -4.47933
-18.1718 95.7016 -3.60789
-14.7648 77.2591 -2.83725
-18.9435 109.339 -2.39096
-17.4359 78.2581 -5.36623
-13.4473 134.754 6.8865
-19.7498 101.009 -4.34535
-21.0603 122.429 -2.52108
-17.3443 83.7523 -4.34453
-20.3015 111.641 -3.24994
-21.4089 144.621 0.416905
-19.15 108.031 -2.59248
-18.7244 90.5492 -4.68535
-20.62 146.062 1.44363
-13.8792 137.361 7.00004
-22.0876 142.251 -0.551909
-19.5377 122.367 -0.843945
-18.4401 109.63 -1.5634
7.28557 94.4161 22.2008
-19.1112 108.284 -2.42054
-14.8766 78.4639 -2.35699
5.37416 104.187 21.7975
-19.1586 108.167 -2.37553
-6.85449 130.128 13.2503
5.77 101.781 21.8968
-15.9117 80.1311 -3.10978
1.62481 115.534 19.7225
-4.33235 123.03 14.8125
8.24782 82.7628 21.6818
8.09998 87.1769 22.175
-19.3286 115.277 -1.42159
-17.9814 84.9249 -4.44551
-18.2939 96.8925 -3.02228
-18.9226 87.1648 -5.03928
-20.4633 113.512 -2.76447
-23.2549 126.274 -3.72949
-15.5657 79.1692 -2.73612
-5.89078 127.308 13.9947
-18.7138 92.0596 -4.02807
4.04083 107.969 21.2642
-22.4887 123.805 -3.20361
-17.473 83.7815 -3.91213
-6.81873 129.155 13.4142
-19.1889 98.7597 -3.46021
-18.1749 122.696 1.0304
-23.8914 134.199 -3.06168
-22.5591 141.56 -0.644814
-19.7605 101.182 -3.66111
7.29715 93.6242 22.5782
6.92062 95.1661 22.4227
-5.43335 125.594 14.3613
-18.8224 89.5653 -4.3483
8.02584 85.0282 22.0871
-19.0058 122.696 0.288585
-19.1804 105.577 -2.34879
-18.9165 118.224 -0.245675
7.89651 87.814 22.4263
-22.494 142.343 -0.3056
-9.40683 131.785 11.3711
6.55372 96.2993 22.3645
-12.4438 132.068 8.38749
3.38291 109.728 21.1703
-18.8836 122.562 0.58001
-21.0196 123.609 -1.40083
-23.574 125.015 -3.77293
6.69182 95.6331 22.553
-19.0666 123.15 0.546396
-19.768 113.679 -1.51443
-21.8945 124.21 -2.13209
-6.05524 126.673 14.2078
-15.3271 78.767 -2.07579
-18.6743 114.636 -0.262684
3.21065 110.335 21.266
-20.1448 113.361 -1.83394
-24.4273 135.539 -2.92537
-18.5719 89.0242 -3.71397
-18.5854 92.1297 -3.27125
-18.0316 85.0206 -3.7216
-19.6156 111.65 -1.44287
5.58842 100.095 22.3335
-10.7582 132.443 10.5362
-17.4499 115.756 1.37153
1.03103 114.392 19.8229
7.74226 85.533 22.4749
7.22789 92.1758 22.9316
-18.4415 89.1834 -3.38737
-18.6033 117.136 0.494041
-18.9094 122.373 0.951275
-18.0953 91.0525 -2.75046
-19.4453 106.365 -1.89707
-18.0569 91.6866 -2.57551
-18.8796 99.3912 -2.27385
-24.3323 134.686 -2.65532
-18.7562 122.067 1.16109
-19.721 112.31 -1.22292
5.077 101.471 22.2423
-17.8001 85.3361 -3.16162
-18.1111 111.109 0.273845
-19.1998 108.231 -1.20475
-18.1752 99.0268 -1.45518
-5.49984 123.095 14.843
-20.2119 120.935 -0.303743
-18.3206 93.4823 -2.31805
-17.2668 115.401 1.95497
7.49582 86.2282 22.7265
-21.6957 123.415 -1.32383
-17.9059 88.5024 -2.54132
-18.9301 111.82 -0.199331
-18.2006 146.965 5.64429
-15.7303 130.797 5.8006
-19.4491 101.991 -2.08395
-17.3338 91.1992 -1.50219
-18.4481 123.608 2.06755
-15.1897 138.344 7.5063
6.59449 94.3165 23.1162
-7.10141 126.876 14.0508
7.3461 88.2271 23.0668
-18.4118 109.931 0.219507
-18.915 113.254 0.21099
3.54478 106.936 21.9678
-24.4156 125.541 -3.54274
3.95862 105.324 22.1711
-15.2573 80.133 -0.843206
-16.7396 82.6913 -1.95663
-18.8602 109.189 -0.246103
-15.3393 133.615 6.84815
-1.64475 117.825 18.4287
-15.5133 133.843 6.76086
-19.8784 146.44 4.18692
-16.1409 129.528 5.52467
-15.4442 133.595 6.8186
-18.0697 112.341 1.10371
-18.5149 119.459 1.69347
-16.0877 130.107 5.7015
-15.4617 129.868 6.31121
4.71503 100.913 22.5222
4.65269 101.156 22.525
-18.2084 112.866 1.19024
-13.2282 130.625 8.79019
-17.9528 98.6349 -0.581816
0.529538 111.512 19.9405
0.542988 111.465 19.9706
-18.6342 119.416 1.77783
-14.5926 128.255 7.13757
-19.1908 100.606 -1.48053
-14.7933 78.6534 -0.206002
4.34866 102.429 22.5623
4.20044 103.176 22.5601
-23.603 123.657 -2.49905
-1.39394 116.185 18.832
-15.795 139.363 7.66435
-13.3247 130.369 8.87083
-17.1464 84.9474 -1.53635
-17.2564 91.8556 -0.611426
5.24676 98.3223 23.0284
-17.0068 89.7984 -0.648033
-21.5606 145.143 2.79113
-17.1654 86.1843 -1.2632
-17.9843 110.626 1.45807
-21.2309 145.412 3.21855
-19.6484 106.048 -0.873942
-19.504 122.451 1.6577
-24.7804 135.311 -1.79606
-17.1573 87.6516 -0.964159
-17.0727 91.7296 -0.287218
-15.8146 138.344 7.72661
-25.1619 132.414 -2.55333
-9.84917 130.492 12.6258
-16.4409 141.949 7.65264
-17.0868 88.4119 -0.712341
-2.50857 117.793 18.2706
-14.5419 77.9569 0.381452
-19.1666 123.458 2.30098
-16.9587 114.085 3.18846
-7.26917 124.85 14.5411
-18.498 124.15 3.11345
-22.122 144.29 2.38055
-23.031 142.23 1.20937
-19.0378 125.394 2.80725
-1.47126 115.492 19.0983
-17.0497 126.971 5.11916
-18.4049 120.065 2.76647
-10.8817 130.702 11.9101
-18.1541 123.636 3.55142
-18.3738 101.392 0.140821
-16.7742 89.8175 0.10929
-16.9423 130.712 5.87058
-17.9096 119.226 3.25726
-20.9341 145.446 4.00418
-25.4268 125.542 -3.40413
-19.0384 125.206 3.033
4.50851 99.1946 23.0313
-19.076 102.628 -0.252839
-26.0319 127.191 -3.6946
-20.9145 121.363 0.641451
-17.6698 144.189 7.21981
-17.8398 94.0464 -0.191716
-0.268513 111.153 20.0534
-3.57528 118.645 17.8041
5.49355 94.0536 23.4053
-0.928567 113.17 19.7557
-18.7774 109.514 1.22122
-17.9506 127.536 4.66365
-15.284 127.339 7.33609
-17.8761 118.433 3.4388
-12.1882 130.347 10.9321
-17.1333 142.018 7.64605
-16.8457 92.3213 0.765454
3.22579 103.363 22.6175
5.42056 90.6531 23.015
-18.6115 144.934 6.64176
-16.5791 89.8901 0.735952
6.69399 83.0482 23.2462
-18.4704 102.854 0.81529
6.69235 82.2059 23.217
-25.3342 133.418 -1.68446
-0.414708 110.652 20.1953
-22.5892 124.114 -0.192886
-13.4603 128.845 9.70931
-17.5476 94.2463 0.580803
-24.7779 138.375 -0.319049
6.61486 82.7638 23.3099
-24.8813 135.206 -0.879492
-10.1133 129.402 13.2023
-16.461 91.0086 1.30072
5.25174 90.262 23.0995
2.30442 101.07 21.6939
6.56365 81.1946 23.1299
-15.0444 81.4236 1.36258
-23.4946 141.56 1.54651
4.88574 94.6402 23.4131
-25.169 124.128 -2.62286
-20.3743 145.445 5.31995
-3.07716 115.171 18.4299
2.21005 98.5238 21.3592
2.26684 98.3035 21.3872
2.27704 98.4156 21.414
3.09606 99.1489 22.3785
1.55552 104.153 21.5888
6.34427 83.473 23.4394
-17.8844 122.723 4.67711
-18.029 141.039 7.19897
4.76244 90.379 22.8706
1.7689 103.466 21.7448
-18.6137 125.813 4.41859
-0.818029 110.791 20.202
-14.0198 77.3932 2.07496
-18.9441 144.38 6.81348
3.15531 98.3427 22.4565
-17.9656 103.153 1.84623
-7.15315 121.472 15.4627
-17.3805 130.569 6.47361
5.65198 89.2569 23.7368
-23.3922 119.228 -1.22495
-25.447 124.119 -2.54807
4.28258 95.7207 23.3466
-16.2379 84.0879 0.965699
-2.23413 113.759 19.389
6.30868 79.8255 23.103
-16.6098 93.8657 2.01135
3.96563 96.4406 23.1522
-16.2315 92.5652 2.22128
-17.1498 95.0946 1.66267
2.87279 97.5349 22.2386
1.14639 102.52 21.2348
-26.5519 130.72 -2.61246
-19.4072 125.891 3.94532
-15.8912 92.9053 2.7506
-24.7129 123.479 -1.72537
-13.2309 128.764 10.6361
-24.6528 138.898 0.630389
1.23507 98.3696 20.8887
1.97816 96.2309 21.3331
-15.7084 94.1618 3.22005
1.6739 96.2534 21.0786
-19.0596 143.187 6.9632
-14.0991 128.44 9.84989
0.780358 101.209 20.9306
-5.51047 118.881 17.1553
0.818089 97.6439 20.4748
-21.0701 121.398 1.84502
5.87948 84.0636 23.6349
-26.9046 130.197 -2.76001
-12.0102 76.3234 4.49138
-0.965974 104.708 19.7526
-7.6273 121.572 15.5087
0.341924 96.5894 19.9571
-13.3506 77.0914 3.3334
-4.73894 116.882 17.7882
-14.4423 128.366 9.67337
-16.3573 86.648 1.71576
-1.18574 103.985 19.5353
-17.5649 97.5364 2.07951
3.5083 95.1083 23.0132
-8.77424 123.66 14.758
-0.606232 102.507 19.9403
0.661452 96.0218 20.282
-10.5268 127.466 13.5433
-18.939 125.374 4.76466
-13.3894 77.156 3.39152
-8.50488 123.115 14.9863
-18.5079 131.389 6.09452
5.82222 80.9136 23.3517
2.35452 94.9272 21.8853
-16.3516 96.2419 3.24077
-27.1351 130.015 -2.72601
-24.6062 123.093 -1.15499
-5.97985 118.321 16.9639
-1.5236 110.453 20.3609
-19.3366 125.154 4.52094
-15.7821 95.2655 3.78534
-18.6461 109.677 3.00196
-1.52511 105.756 19.7123
3.35327 92.0573 22.6532
-10.3623 126.086 13.7428
-17.3628 114.096 4.94902
-27.4755 129.402 -3.03504
3.08754 94.2381 22.7382
-18.327 129.006 6.19283
-10.8613 126.542 13.3763
0.239218 100.295 20.7828
-20.89 144.086 5.83994
-0.0151795 95.6454 19.931
-18.4909 136.65 7.23029
-17.1224 117.345 5.88258
-19.34 140.937 7.08988
-11.7037 127.961 12.9225
-12.5411 128.509 12.1605
-14.6294 79.708 3.00155
-0.0476154 99.3206 20.5574
-0.306602 97.869 20.0903
-9.26792 123.755 14.7941
-2.17922 104.257 19.1286
0.194513 95.3144 20.2523
-18.7257 129.489 6.11155
-25.5328 137.431 0.400503
-1.72609 107.282 20.0951
-17.2265 103.186 3.86642
-13.7407 90.9002 5.63903
-17.6432 117.676 5.5845
-13.4917 95.1801 6.53931
-14.1666 90.4374 5.19891
-18.2134 123.233 5.88766
-18.8499 105.882 2.74723
-13.5464 94.623 6.4746
-18.9487 133.497 6.65886
1.11621 94.386 21.2478
-17.1862 103.093 4.05008
3.12398 87.5346 22.2923
-17.8065 111.029 4.5839
-1.62435 109.044 20.6335
2.80601 87.7645 22.0356
-12.2434 93.0779 7.6266
-14.4431 81.1018 3.69448
-2.17086 100.37 18.8645
-13.3335 128.693 11.7276
-2.74644 110.412 19.7647
-18.9573 126.538 5.75289
-14.4133 79.0744 3.48149
3.60309 87.5648 22.9093
-13.3425 90.5574 6.26179
-17.4096 98.815 3.36535
-14.109 95.678 6.24304
-1.58722 99.9192 19.5223
-23.874 123.221 0.412431
-13.354 90.3485 6.29478
-19.5048 130.513 5.90447
-15.9448 86.2874 3.11769
-2.09577 108.703 20.338
-16.2238 96.6377 4.3433
-24.5459 118.601 -0.864104
-9.49579 123.232 14.9987
2.49852 91.1177 22.4655
-17.3246 104.347 4.39723
-17.3859 100.69 3.83398
-18.5885 118.143 5.15679
-14.8566 96.9583 5.8643
-21.0847 143.037 6.25425
-14.2399 89.6807 5.44228
-28.1997 128.672 -2.99438
-17.2786 98.6601 3.68413
-8.48723 121.166 15.8203
-1.02941 91.078 19.0237
-18.3926 122.23 6.01382
4.13442 87.2674 23.6871
-17.1282 101.45 4.29187
-10.8371 94.6031 9.66266
-24.8154 118.464 -0.984327
-10.6595 95.6319 10.0038
4.802 81.316 23.5437
-17.5027 114.065 5.7786
-22.1039 121.927 2.32508
-0.77451 93.1184 19.6794
-16.1551 96.7043 4.68219
-14.6969 98.3326 6.39098
-11.7849 91.6872 8.38876
-21.7212 123.343 2.95689
-11.7841 91.6038 8.39133
-1.70301 95.5547 19.1473
-16.9645 102.042 4.68962
-15.618 96.4134 5.24374
-8.39093 119.055 15.8145
-3.3277 105.309 18.9458
-19.7397 133.458 6.48859
-19.6073 133.016 6.5608
2.06161 91.3496 22.4554
-3.52618 102.662 18.4593
-0.41832 93.4311 20.2626
4.57468 85.4372 24.1671
-28.0958 126.837 -2.77502
-24.7269 123.054 0.0833528
-11.9489 90.0924 8.21879
-3.7065 103.196 18.4307
-19.7183 137.849 7.31136
-10.7518 123.672 14.3117
-7.00173 107.124 15.7058
-15.9789 126.552 9.46278
4.40369 82.3056 23.6276
-0.185991 93.5376 20.6227
-6.80791 107.153 15.9136
1.97978 87.632 21.9587
-3.47998 99.287 18.1379
-5.4259 107.14 17.3168
2.00198 90.0407 22.3384
-3.32889 106.627 19.3621
-25.5034 136.461 1.30951
-12.9727 124.445 12.2374
-15.4389 87.4446 4.41132
-6.80626 108.091 16.116
-3.57004 99.3972 18.1237
-1.48978 87.3069 18.4783
-19.8884 138.429 7.33872
-1.54905 89.5099 18.7751
-9.07493 119.869 15.5746
-20.0987 125.667 5.29974
-5.62328 110.799 17.7765
-16.9357 116.151 7.14681
-4.7478 111.46 18.7675
-5.98468 110.55 17.4044
-7.82603 107.179 15.061
1.62341 90.5093 22.1958
-13.8452 78.4889 4.86548
-10.0377 96.1736 11.2723
-10.2349 96.8707 11.1806
4.22119 82.543 23.6999
-21.1921 124.311 4.10305
-17.0485 116.846 7.23086
-7.3032 108.782 15.9068
-14.993 86.5266 4.92882
-3.61921 97.8574 18.0545
4.54217 80.6419 23.8181
-13.7953 78.8217 5.05934
-0.755497 89.0112 19.737
-8.3671 107.993 14.8065
-9.82888 119.481 14.9981
-18.4557 118.978 6.22862
-20.4901 133.805 6.33004
-4.292 104.3 18.4125
-5.53729 111.5 18.2048
-6.03225 105.623 16.8891
-2.64795 85.7197 17.4252
-1.97525 88.7872 18.5535
-14.6425 83.1559 4.96541
-14.65 87.3652 5.58347
-13.4322 80.8192 5.86615
-12.0648 98.2484 9.78725
-17.4972 106.586 5.51985
-2.39519 92.3187 18.697
-2.35244 87.0142 17.9943
-1.53561 86.093 18.6861
-17.4579 125.315 8.3295
-18.4786 107.86 4.79229
-9.60735 93.2017 11.6286
-14.5696 127.094 11.5392
-7.36893 114.614 17.0123
-24.5924 119.596 0.384954
-2.89094 91.0354 18.2128
-8.15632 109.891 15.6355
-7.04028 105.186 16.0859
-25.763 118.4 -0.892159
-3.70988 85.4572 16.5948
-16.9057 101.849 5.66499
-2.78718 83.8307 17.3031
-0.537916 89.0261 20.3322
-9.75823 96.1602 12.0667
-13.9179 87.6296 6.65598
-11.2627 99.2905 11.0304
-23.9232 141.756 4.40073
-6.82656 113.811 17.6099
-12.5108 122.798 13.1839
-6.78237 111.43 17.321
-8.85662 109.477 14.958
-6.73972 111.713 17.4869
-14.1723 84.2163 6.02113
-4.87309 97.2932 17.2977
-9.40401 94.1509 12.2858
-4.21167 84.1634 16.0806
-20.4701 129.795 6.28244
-11.229 121.872 14.4634
-4.31623 84.5242 16.0734
-26.0354 135.544 1.54186
-3.5174 81.7545 16.494
-20.9685 133.338 6.36827
-28.7278 129.061 -2.05799
-4.61171 86.19 16.0866
-18.2877 110.402 5.7918
-13.9389 83.9535 6.37782
-16.8855 101.723 5.9821
-4.51484 84.0891 15.9122
-14.0946 86.8763 6.6704
-7.78442 111.452 16.5976
-13.7493 84.3332 6.66527
-7.76771 111.493 16.6297
-3.314 89.0635 17.8874
-13.4598 87.1188 7.3704
-14.1304 99.9795 8.55937
-10.2068 104.979 13.2626
-6.81701 104.35 16.6047
-13.6108 99.8206 9.09871
-4.74959 86.5014 16.1174
-20.4555 128.608 6.40378
-21.4665 138.682 6.8535
-18.0192 111.158 6.35224
-16.2478 100.9 6.67073
-18.594 124.983 7.83317
-11.3385 78.9594 8.49909
-4.84428 95.6973 17.4759
-12.4346 121.845 13.6102
-16.0285 101.11 7.00568
-23.1719 122.782 2.93629
-17.0022 103.602 6.40211
-6.52234 79.5293 13.4959
-6.49006 79.498 13.5325
-13.6989 85.7266 7.16099
-28.6935 125.689 -2.18458
-7.02018 79.0561 12.9543
-6.40648 79.3772 13.6257
-13.7152 83.5874 6.86503
-7.07011 80.7055 13.1575
-26.6385 123.304 -0.399303
-9.70806 98.4171 13.0878
-14.9041 100.675 8.1725
-8.62184 114.3 16.4878
-14.5183 122.111 11.6709
-5.1562 82.5174 15.3898
1.34627 84.3947 22.227
-5.9411 102.829 17.5509
-21.8209 134.266 6.08018
-21.269 132.803 6.44102
-6.99089 103.576 16.6187
3.90417 81.951 24.484
-9.00884 104.145 14.6752
-13.5068 100.128 9.57612
-1.06324 85.3586 20.001
-6.15402 81.882 14.3921
-15.8975 101.645 7.42568
-9.66031 98.8149 13.3179
-4.3724 87.8122 17.062
-9.99514 115.717 15.4264
-25.7949 119.102 0.00920029
-18.0267 108.611 6.33384
-6.48474 83.6685 14.3735
-18.8196 122.914 7.61852
-18.7659 123.13 7.70412
-12.9197 87.0492 8.38347
2.78817 81.7207 23.4659
-5.94195 86.3015 15.3274
-7.81628 84.1712 13.1416
-6.35379 102.824 17.3311
-8.13251 112.799 16.9851
-25.6803 139.327 3.13277
-5.98713 82.2795 14.7491
-11.5668 88.4064 10.0083
-14.1826 120.795 12.0599
-18.5016 122.74 7.98582
-12.1214 120.478 14.099
-4.87758 94.8956 17.7083
-5.87121 85.046 15.2917
-10.0349 111.458 14.9149
-10.1978 111.258 14.7283
-12.4417 87.5691 9.03945
-4.23998 89.4383 17.6079
-17.4868 124.899 9.37441
-9.54004 111.998 15.5281
-2.18762 80.139 18.3421
-16.3917 102.448 7.26653
-22.8052 140.354 6.28572
-7.52858 99.4534 15.7898
-13.3009 80.8656 7.29504
-8.32128 113.146 17.002
-8.79546 91.747 13.4364
-11.0866 101.278 12.5088
-9.88004 112.212 15.3198
-10.2779 88.8918 11.5517
-11.0829 88.5008 10.6831
-5.70361 87.6345 16.0041
-6.25388 87.3774 15.4174
1.73324 82.084 22.7115
-15.9119 124.06 10.9833
-20.9702 128.843 6.57421
-12.0637 107.166 12.429
-7.61212 98.491 15.6771
-7.58207 100.011 15.941
-10.9194 111.636 14.2917
-12.6223 120.617 13.876
-23.0388 136.477 5.66798
1.5605 82.1805 22.6325
-4.72557 89.1278 17.2995
-17.7888 118.628 8.39243
-14.7572 101.553 8.98204
-23.4201 140.589 5.89353
-22.2788 138.553 6.76539
-14.3734 119.917 12.0455
-14.6095 120.179 11.8478
-15.8557 102.439 8.03328
-4.70549 90.614 17.6015
-13.488 82.1166 7.53687
-7.29537 96.0121 15.8239
-29.5627 128.307 -1.96621
-11.4324 101.55 12.4814
-22.876 135.26 5.81482
-11.7133 103.145 12.4402
-7.62785 101.396 16.3634
-14.081 119.492 12.4717
-15.6629 122.414 11.3072
-11.7371 110.667 13.5801
-5.03432 92.2012 17.674
2.96464 81.0011 24.1265
-7.39044 86.2521 14.4411
-10.714 115.131 15.2825
-0.256654 85.4989 21.5598
-9.37627 80.6845 11.6653
-12.0557 109.932 13.2046
-5.52174 92.8604 17.329
-12.7238 119.181 13.8767
-15.696 122.078 11.304
-17.8348 112.369 7.7436
-9.44349 101.965 14.7254
-13.6499 101.653 10.4716
-28.3598 124.109 -1.10107
-16.5755 104.231 7.92376
-17.812 112.455 7.9029
-15.9901 122.85 11.2461
-16.6262 105.791 8.1387
-16.5742 104.716 8.0539
-18.4607 120.562 8.45928
-26.6244 135.618 2.40582
-6.54331 93.4618 16.571
3.17654 82.272 24.7604
-0.481492 84.7132 21.4278
-14.1863 119.012 12.5749
-28.0711 123.494 -0.778812
-8.20429 80.059 12.9959
-13.1551 108.713 12.1499
-5.88774 91.5459 17.0009
-16.1307 122.888 11.2358
-10.1547 83.8973 11.6255
-7.4381 87.599 14.9041
-6.34271 79.3259 14.8165
-16.51 104.882 8.27376
-13.2975 106.759 11.7979
-13.054 83.5578 8.68914
-12.9481 84.8154 8.99629
-12.1474 116.326 14.3784
-13.9201 102.418 10.5946
-8.54858 90.7839 14.3344
3.70909 80.6381 25.2397
-11.036 114.542 15.2795
-17.1611 123.796 10.4506
-27.9889 133.488 0.937464
-8.53117 79.5429 12.8027
-11.9104 115.573 14.6095
-12.712 84.9727 9.41425
-10.2767 83.4981 11.672
-13.0836 81.6605 8.58677
-13.9481 103.011 10.8219
-10.0263 87.0141 12.4768
-15.1038 104.21 9.8557
-11.4586 113.439 14.8698
-9.00329 80.6553 12.6835
-8.11424 87.38 14.5679
-16.8591 116.506 9.96987
-10.2003 86.3981 12.3374
-23.7742 134.313 5.57453
-17.284 109.279 8.50296
0.200586 80.482 21.996
-12.6737 80.0225 8.94258
-13.8272 104.694 11.3804
-4.49066 79.4262 17.171
-14.9308 108.646 10.8667
-7.83277 89.724 15.3018
-16.2237 105.807 9.16611
-26.8472 119.16 0.383259
-16.936 121.568 10.7346
-13.6369 117.767 13.5486
-8.73849 80.3703 13.0869
-14.0683 105.314 11.3389
-27.728 123.215 0.152264
-12.4325 79.9053 9.3262
-8.53069 80.9215 13.4108
-11.9224 114.424 14.8383
-9.53467 80.6084 12.3727
-17.6063 109.959 8.50485
-16.2109 116.936 10.9312
-15.6725 116.626 11.4922
-12.2597 83.317 10.1318
-6.06081 79.1976 15.8071
-9.25762 79.9521 12.6931
-17.6987 112.639 8.91162
-13.6761 111.42 12.8219
-14.6167 110.429 11.7339
-9.60834 79.8193 12.4328
-15.8467 118.399 11.7278
-14.6261 115.74 12.6117
-30.12 126.25 -1.49703
-11.595 83.6861 11.0425
-11.9402 82.8336 10.5807
-17.2837 118.211 10.3189
-15.9939 107.828 10.1581
-16.3147 118.548 11.4007
-24.5782 137.411 5.79403
-16.8018 120.182 11.1817
-17.0166 119.734 10.906
-16.2573 108.853 10.1057
-26.6254 123.182 1.74256
-1.43398 78.9612 20.8012
-15.9025 117.954 11.871
-16.826 109.135 9.75357
-0.378196 78.8541 22.0127
-13.6132 114.156 13.7988
-17.513 112.342 9.65277
-16.1441 113.543 11.2676
-15.7943 112.583 11.5367
-28.1087 134.358 2.29241
-16.1324 113.067 11.314
-16.1339 112.01 11.1975
-29.6132 124.011 -0.645156
-26.005 135.056 4.60991
-15.9794 112.101 11.4046
-23.5461 127.085 5.94356
-24.1665 124.789 5.23294
-28.5813 123.136 0.575414
-25.0101 123.793 4.29773
-26.7344 135.671 4.3063
-30.8344 127.498 -0.879551
-30.8471 126.309 -0.890941
-25.8793 131.108 4.88836
-30.8319 128.99 -0.392332
-25.1911 129.953 5.45543
-30.955 125.955 -0.912113
-27.3484 135.385 4.13639
-26.5584 131.663 4.4075
-28.186 135.188 3.55812
-27.6946 135.853 4.15685
-26.5298 123.215 3.55787
-27.5993 120.155 2.05282
-28.4015 134.939 3.38549
-25.3788 128.77 5.58708
-27.9536 119.507 1.68623
-31.4095 127.916 -0.361588
-30.0643 131.095 1.47326
-25.2487 125.661 5.70143
-25.3544 126.16 5.79669
-27.7894 132.655 4.41707
-29.1056 133.248 3.23464
-28.5027 119.858 1.914
-26.6688 129.079 5.12049
-30.8106 130.328 1.24632
-26.9754 129.352 4.98055
-29.4111 122.961 1.5988
-31.8748 126.282 -0.38086
-31.0609 123.69 0.0667368
-29.0692 120.268 2.02713
-27.393 123.875 4.35502
-32.321 125.568 -0.308997
-32.0291 124.494 -0.0898641
-32.5523 125.768 -0.116166
-29.5432 132.378 3.95375
-30.1354 120.209 1.76687
-28.6349 130.925 4.96759
-32.013 123.561 0.665618
-32.5316 124.317 0.317684
-31.366 130.174 2.42556
-28.5256 124.262 4.66937
-32.6026 127.784 1.27467
-28.3358 124.946 5.23445
-31.6277 122.852 1.74777
-32.9049 123.933 0.82121
-30.5512 122.616 3.08937
-31.7565 121.038 1.8004
-31.9294 129.3 2.94049
-30.1219 128.638 4.94572
-31.5611 128.975 3.663
-30.6299 128.801 4.77713
-30.2304 126.345 5.16532
-30.5306 125.668 5.10847
-32.1819 127.876 3.87682
-34.7724 125.097 1.58015
-32.9669 122.819 3.17531
-33.8157 125.582 3.58549
-34.424 124.71 3.19667
-34.6378 124.449 3.03525
-33.6738 124.451 4.53192
-36.5784 123.378 3.24931
