ply
format ascii 1.0
comment Created by Open3D
element vertex 1926
property double x
property double y
property double z
end_header
15.8348 120.146 12.5954
-10.7653 150.082 3.30027
3.37366 114.486 -13.7492
1.0295 116.567 -15.1627
8.29394 107.62 -13.3632
-3.92395 126.684 -11.6987
18.5069 105.211 0.52904
2.65348 115.093 -14.0436
3.01902 135.935 10.0294
15.9365 103.732 -5.26126
16.0442 102.987 -5.89549
7.64437 107.895 -13.9608
-6.29702 132.074 -9.20444
15.9601 101.984 -6.76863
17.1382 104.341 -2.20384
-12.9797 145.857 -4.31316
0.307398 116.642 -15.6114
-9.27769 135.344 -10.0696
-9.92423 138.586 -7.4689
16.6783 117.272 11.728
-10.1768 137.744 -8.77393
-13.0404 151.063 1.5828
5.72004 110.322 -13.8427
-5.80319 129.921 -10.4467
-0.338919 117.107 -15.9804
16.6437 101.176 -6.22539
16.4309 103.967 -3.4262
-9.90717 136.419 -9.60284
-4.77793 128.359 -10.3133
18.179 104.286 -0.128272
-11.7047 142.828 -5.16777
9.24072 105.853 -12.7986
11.1315 103.24 -12.673
5.99776 131.908 11.3246
17.1369 102.416 -3.72074
0.187089 116.201 -15.6764
-13.79 150.7 0.498783
13.9629 102.05 -9.17137
-10.2038 138.569 -7.20626
11.7242 102.6 -12.0803
-2.90519 123.338 -12.4531
18.5805 110.853 8.3829
0.54323 115.632 -15.4697
-8.54502 133.36 -10.2477
8.09081 106.311 -13.666
-11.4072 141.356 -5.82105
12.8066 123.511 13.5342
9.16049 126.491 10.9863
13.7665 122.395 13.9174
15.5017 100.73 -7.55961
12.2726 102.22 -11.0505
-12.9466 150.539 2.47755
20.0897 106.754 6.80021
3.40313 112.206 -14.0762
9.54871 104.292 -12.9794
7.04582 129.246 11.0426
7.23759 128.944 11.0352
2.00505 113.693 -14.4436
17.4467 99.9656 -4.83488
-7.32136 130.826 -10.2288
6.91377 106.743 -14.2489
9.91505 103.393 -13.1446
-2.5054 140.521 8.49878
-5.34798 127.778 -10.4445
18.3118 112.596 10.8662
18.3842 111.914 10.2285
18.9152 104.529 2.9156
-13.5705 144.154 -5.05522
-7.90648 143.32 3.20037
-14.1707 150.42 1.10198
15.5584 100.167 -7.16716
19.1331 100.243 -1.275
6.29094 107.118 -14.2894
17.8759 101.918 -1.32117
-13.987 150.468 1.67418
-13.0462 150.167 2.86928
4.82274 109.091 -14.3471
18.3904 101.312 -1.09859
9.60435 102.96 -13.4705
-2.02727 118.801 -14.4378
-6.06607 128.188 -10.3484
4.5516 132.322 11.5175
17.8978 102.075 -0.870821
16.5214 115.809 12.3929
-8.82127 132.363 -10.0543
6.93473 128.629 11.3301
-5.5773 126.653 -11.155
0.017135 136.365 8.86747
10.0639 124.919 12.3228
6.95583 105.6 -14.3823
18.7206 98.9836 -2.70274
6.375 129.28 11.4339
17.677 98.7285 -4.60419
19.3303 100.618 0.231288
-12.0934 149.142 3.97785
-12.5554 141.374 -5.49828
-14.1125 144.835 -4.12849
-11.4685 148.24 4.05521
12.2499 100.29 -11.4356
4.41898 108.786 -14.5651
19.5193 101.879 2.27543
19.8802 100.733 1.6643
5.69327 106.758 -14.5171
8.10174 103.616 -14.1454
5.85888 106.485 -14.547
5.83092 106.479 -14.5549
20.1111 104.56 6.48071
19.3907 98.5688 -1.2306
19.86 101.268 2.59281
15.0395 99.4384 -7.23719
10.6602 123.877 13.1906
4.11219 131.955 11.6973
-11.5778 147.911 4.27607
-7.24017 142.054 4.78098
2.55829 133.37 10.9225
12.3991 122.273 14.3982
-16.0883 148.953 -1.74854
18.6826 97.8471 -2.83189
-8.79389 143.322 3.80081
19.3998 104.063 5.37799
0.561114 135.162 9.85668
3.65498 108.836 -14.7431
2.34767 110.714 -14.711
15.8692 98.786 -6.20619
13.241 98.9603 -10.2127
19.875 101.946 3.92748
-11.4907 135.794 -8.76495
-14.2963 149.927 2.74181
19.0744 107.055 8.65145
15.0167 116.804 13.0455
-12.8158 148.917 4.09037
-14.9725 144.585 -4.19854
17.5803 97.4415 -4.45987
-9.95924 144.662 4.06242
19.9197 104.974 7.88221
3.79154 131.708 11.8251
0.576198 134.645 9.98351
17.9444 112.365 13.1114
9.90718 100.67 -13.0705
-12.2608 137.399 -7.65379
-12.2988 137.348 -7.72066
18.6357 96.9887 -2.96269
15.9168 97.7709 -6.34211
1.68315 110.789 -14.761
13.7113 98.0875 -9.49621
-0.440917 135.355 9.56599
-14.0468 141.828 -5.16693
-9.40182 131.499 -9.23986
5.80496 104.797 -14.5895
7.49934 125.614 11.5926
13.6149 97.7412 -9.79941
19.0094 107.018 9.45999
18.5945 108.137 10.1036
-7.28862 127.329 -10.1867
4.39367 106.267 -14.9403
12.0089 98.0157 -11.8544
19.2267 96.707 -1.60706
-15.0879 143.794 -4.22714
1.46261 132.918 10.4092
-13.3242 139.046 -6.58307
-13.3132 138.905 -6.69581
-13.9756 140.695 -5.75016
-6.58657 141.296 6.91093
7.31976 125.474 11.6588
8.06704 124.655 11.9946
4.08614 130.514 12.1349
18.6385 96.0245 -3.00249
-3.4849 118.095 -14.0332
15.2138 115.392 13.3027
9.40683 123.504 13.0357
14.3901 116.836 13.6997
-7.96831 142.06 5.86621
3.42768 107.135 -14.9143
19.1046 106.474 9.76094
0.93222 110.364 -15.3094
11.3323 121.882 14.5156
14.1692 117.341 14.0059
13.1559 96.9393 -10.5241
21.0137 98.3153 3.87436
-16.5045 149.083 0.18194
20.1817 100.317 4.79028
4.66589 129.285 12.2385
-11.9127 134.979 -8.22369
0.849844 110.214 -15.3907
5.45615 104.241 -14.6392
-7.12255 126.454 -10.0008
19.8273 96.1493 -0.39906
18.1719 95.7885 -3.44313
17.8524 109.401 11.3852
21.1102 98.1236 3.98264
7.46291 124.826 11.9407
13.0809 96.6387 -10.6589
17.8085 109.104 11.0507
0.447085 133.422 10.2999
3.70996 106.31 -14.913
4.04203 105.835 -14.8823
-5.6917 123.68 -10.5765
8.61282 123.698 12.6666
-15.1336 143.557 -3.44588
14.4431 96.751 -8.10387
4.94658 104.553 -14.6871
-6.42319 124.75 -10.333
-6.44461 124.767 -10.332
16.4161 96.1236 -5.43623
13.6428 96.0319 -10.0271
-14.4275 148.767 3.83696
12.4253 120.069 15.1457
-14.6191 140.192 -6.02465
5.77476 127.014 12.2911
-16.4959 149.254 1.2219
-15.1072 142.045 -4.60783
9.43765 99.0748 -13.1371
-1.30964 134.88 9.73672
15.0507 114.767 13.6281
-15.042 143.037 -3.30971
-13.5584 138.015 -6.50718
21.3139 98.143 5.20146
20.0305 94.9345 -0.444993
5.796 126.721 12.2749
20.6707 95.2324 0.995389
-9.56234 130.213 -8.59108
6.42952 125.44 11.9929
-17.2638 148.41 -0.565068
14.7515 95.7416 -7.92517
2.71454 106.893 -14.881
-17.2864 146.655 -2.55969
7.04058 124.655 12.1284
-4.40444 117.844 -14.0317
-5.83264 140.003 8.6214
14.0972 95.3613 -9.27856
14.9588 95.3254 -7.77586
-2.06543 112.131 -16.3956
18.2778 94.5389 -3.18579
-0.409563 109.668 -16.4303
12.2101 95.7866 -11.5734
-13.5241 136.867 -7.04922
18.1387 94.528 -3.33201
8.55863 123.031 13.255
-2.65072 135.348 8.96323
15.9822 94.9909 -6.23237
-1.74177 111.438 -16.3961
-16.6022 149.108 1.93203
-9.66657 129.826 -8.50679
18.1534 94.3506 -3.29125
19.927 93.7421 -1.0406
10.1793 97.2444 -12.8612
15.061 94.3998 -8.08522
20.0499 93.6721 -0.785382
-3.18166 135.562 8.70971
-15.0412 141.94 -3.28047
-15.2976 140.513 -5.24151
21.602 95.6849 4.21321
19.181 105.135 10.9278
16.1814 94.0309 -6.42864
6.098 101.435 -14.4233
15.8044 93.9211 -7.11768
-7.09098 124.385 -9.9423
3.05835 105.423 -14.7896
-9.63376 129.23 -8.52624
20.3588 101.976 9.43423
16.2911 112.095 14.2447
0.10426 108.295 -16.2653
12.6945 118.125 15.2201
-1.11588 109.992 -16.3011
-13.9021 137.93 -5.58603
-15.1768 141.543 -3.56316
18.7104 105.921 11.2956
-13.8396 137.3 -6.14756
17.1392 94.0319 -4.5173
1.01218 131.143 11.1051
-13.8365 137.068 -6.29991
21.7114 95.6165 4.77619
19.0645 93.0935 -2.33242
-6.54889 121.934 -11.3483
-15.8446 148.54 3.62608
17.2264 93.6523 -4.46328
-2.24495 134.457 9.89177
-6.53405 121.311 -11.8123
-13.6362 146.217 4.71802
1.36932 130.511 11.3729
-10.8521 130.57 -8.36923
-10.9251 130.616 -8.41692
20.7945 94.092 1.95223
-3.76714 113.77 -15.6956
-2.66668 111.618 -16.2858
14.5021 113.961 14.218
-6.16968 119.761 -12.7697
-5.56491 117.828 -13.9559
-2.23746 110.851 -16.3165
2.03483 105.953 -14.7903
12.7473 117.088 15.1728
-10.6279 129.848 -8.351
9.47368 96.3861 -13.4133
17.1756 93.0697 -4.65426
-13.0649 145.029 4.81284
4.11154 127.333 12.7516
20.5977 92.8112 0.698206
2.55698 105.084 -14.7271
21.836 94.5894 4.778
-18.4361 147.516 -0.948758
-12.6148 144.33 4.91339
-7.56287 140.037 8.28916
-15.5693 140.733 -3.84801
12.2181 117.925 15.547
1.91446 129.597 12.0232
-4.14262 113.736 -15.6197
0.0580989 106.974 -16.3811
-15.6134 140.081 -4.5309
-18.5987 147.389 -1.12096
3.17141 104.026 -14.5959
-13.9712 145.385 4.21394
-15.3216 138.777 -5.39595
9.08485 96.2265 -13.6215
14.1199 92.2328 -9.87205
19.2687 91.4075 -2.37265
-17.7959 148.057 1.28357
11.3313 94.1815 -12.0938
17.8186 92.3164 -3.66719
19.4609 102.328 10.2678
-15.0689 138.347 -5.18151
17.4432 107.166 12.4862
7.69898 122.352 13.7907
19.3329 91.3249 -2.25617
17.0619 108.179 13.0988
19.4048 102.26 10.2979
-2.6968 134.035 10.2509
6.24211 123.388 12.7801
-7.642 121.796 -11.5008
21.7833 93.4157 4.30064
12.5539 92.9258 -11.1802
20.7796 92.4065 1.5935
-13.5547 144.452 4.51535
16.9896 92.0406 -4.93565
-7.93465 139.552 8.14903
15.7907 111.289 14.8484
-6.77611 118.624 -13.4631
-13.2671 134.215 -6.42671
-10.8549 140.885 5.02208
-7.42388 138.692 8.11942
5.87399 99.6535 -14.1912
17.9079 91.6307 -3.6994
-4.09963 112.554 -15.6843
-11.5609 142.055 5.43208
16.1972 110.254 14.6592
-12.8405 143.318 4.84123
-13.6069 133.049 -7.77478
4.55467 125.099 12.7831
20.0668 90.5176 -0.93633
-13.4829 133.671 -6.76834
-16.6685 141.879 -2.64445
-14.5762 136.917 -4.78375
19.2361 90.1622 -2.46688
16.8118 91.1466 -5.2842
-9.33211 125.122 -9.42789
3.55953 102.114 -14.4157
-17.0916 148.059 3.8156
-8.78602 123.502 -10.344
-2.11312 108.904 -15.944
1.67489 128.642 12.4414
-10.4659 140.114 5.68387
-13.0013 130.835 -8.83473
-7.11165 117.816 -13.872
-12.9051 130.74 -8.71508
19.9119 99.935 9.86525
9.14382 120.584 15.6629
-17.3675 142.304 -2.82816
12.9432 91.3944 -10.9491
18.2996 104.285 12.2616
4.99219 99.8229 -14.273
19.0341 101.485 10.405
-15.5358 138.188 -4.27634
-13.6631 134.749 -5.10147
-9.17259 123.853 -10.0415
1.83396 103.294 -15.3301
-8.68474 122.364 -10.9223
-17.9639 147.774 2.63239
-13.8404 143.707 4.79864
13.4116 90.8619 -10.3304
16.8246 90.3341 -5.30004
20.0749 89.5518 -0.901556
9.79479 119.515 16.1532
16.6869 107.49 13.82
19.6487 89.3222 -1.77669
13.5543 113.035 15.035
21.2088 90.5574 2.20458
-9.37522 138.973 7.17038
1.44694 102.967 -15.6706
13.4603 90.4845 -10.1791
11.4482 91.3602 -12.4058
-18.9924 147.118 0.988787
5.36446 98.3872 -14.2448
-6.95344 136.178 8.34228
16.2811 108.103 14.5499
-19.8284 146.48 -0.767145
21.1359 89.8172 1.91738
-8.7052 120.471 -11.9644
-4.22541 110.61 -15.7928
19.7278 88.5439 -1.61811
-16.8099 146.848 4.76252
15.5901 89.2869 -7.42581
-17.9771 140.737 -3.93683
-13.3588 130.173 -8.29626
0.415797 103.411 -16.0471
13.6101 112.367 15.4683
-8.86503 120.183 -12.1534
19.8208 88.3527 -1.42497
-13.7675 132.539 -6.12767
7.88788 120.57 15.536
10.8922 117.12 16.5653
-6.37261 135.533 9.32345
-13.0238 129.799 -7.89043
12.0107 114.686 15.78
-13.8934 132.876 -5.6985
-13.7805 132.268 -6.19463
-19.6568 143.39 -3.1227
9.63207 92.1595 -13.2579
-4.03053 133.272 10.8547
17.3049 88.0382 -5.45222
20.5909 95.8362 8.66735
17.9098 87.5968 -4.93375
-20.2449 145.438 -1.62025
18.1899 101.677 11.5304
17.0546 87.8642 -5.81173
15.307 88.3231 -8.11403
0.464774 127.796 12.3944
13.1946 112.35 15.6663
15.0667 88.0791 -8.60103
12.1111 113.939 15.7446
-20.3459 145.259 -1.56719
21.8729 90.4259 5.18036
8.99715 119.053 16.5436
14.6275 109.747 15.2018
-17.7169 138.926 -4.37382
4.97483 97.3353 -14.3811
-5.70599 112.132 -14.9733
-11.0233 124.995 -9.09212
21.6621 90.7916 5.42909
14.9499 87.5983 -8.99542
-2.22057 130.633 11.593
-20.3561 144.253 -2.45944
13.5672 87.9941 -10.5884
2.41649 125.447 13.5129
6.57302 94.7633 -14.2737
14.5453 87.369 -9.66687
3.80494 123.285 13.338
-15.6703 144.274 5.43082
-15.8161 144.459 5.4332
-7.29181 135.465 9.13954
16.49 86.9267 -6.90738
-0.514963 128.132 11.9418
5.23833 96.4361 -14.3855
11.0288 115.614 16.5863
-10.6057 123.192 -9.95472
-20.4711 145.456 -0.882306
7.91778 93.0121 -13.8674
8.30544 92.5272 -13.7043
19.5838 97.7995 10.5178
16.211 106.07 14.4039
15.4259 86.8935 -8.39068
8.64908 92.0297 -13.5403
4.6076 122.032 13.7651
-14.8648 142.448 5.17541
-11.2702 124.38 -9.32431
21.4355 87.7725 2.54084
14.0004 110.226 15.7608
-0.506545 102.745 -16.1644
-18.4208 139.098 -4.26398
14.5481 86.6574 -9.73595
20.8588 92.0131 6.55069
-7.09776 134.994 9.59955
-10.5515 121.592 -10.9
21.5812 87.1467 2.45201
-7.48934 114.134 -14.2833
-13.5707 140.338 5.40683
4.1488 122.244 13.8539
-14.5518 141.194 5.0092
-7.458 113.805 -14.2958
9.07685 90.8923 -13.2643
-15.12 142.214 5.28525
21.3543 86.6334 1.8876
-20.5759 142.666 -3.00738
-10.9124 121.915 -10.6678
9.03778 90.8362 -13.2686
9.90669 116.75 17.3548
20.9831 86.3844 1.24311
21.9755 85.8103 2.38047
22.2526 86.0923 3.15174
-15.1309 131.255 -6.61271
-17.4459 137.4 -3.44497
-17.3972 137.309 -3.40279
11.1676 113.849 16.5351
2.99502 97.4734 -15.0966
1.58394 124.968 13.5621
-0.922994 102.083 -16.2383
-15.6225 132.213 -6.14293
3.11785 122.807 13.657
15.9032 104.772 14.1019
0.582497 125.806 13.0147
-11.2045 120.605 -11.9166
-13.0671 138.646 5.38339
-8.81462 115.669 -13.5773
3.06985 122.757 13.6808
4.81526 120.953 14.4914
-9.85691 117.615 -13.0259
20.3637 92.9787 8.26851
17.3583 84.835 -5.72439
19.4691 96.5215 10.8556
0.353538 125.893 12.9421
-4.42919 131.163 11.1492
-3.8508 130.568 11.4175
-6.33603 133.343 10.5579
-2.21767 103.67 -16.1105
-20.0132 145.893 2.5517
12.4909 111.364 16.3999
16.6434 84.7416 -6.77209
-16.8522 135.777 -3.64784
13.7915 85.3829 -10.6705
6.14697 119.902 15.7925
-15.2678 130.45 -7.01135
-15.3479 129.957 -7.66946
-16.8542 135.66 -3.694
13.5791 85.5132 -10.7734
15.4388 105.265 14.4718
20.1026 84.8655 -0.919176
8.92979 90.0654 -13.1444
-6.03273 133.001 10.9287
-7.26774 134.01 10.0859
-15.6137 131.12 -6.68563
-11.7279 121.321 -11.375
11.614 87.2504 -11.8316
18.7715 83.9995 -3.87325
19.1974 84.2341 -2.90154
15.556 104.759 14.3185
-19.0999 136.778 -5.83289
20.2306 93.2437 8.94944
-17.1158 134.444 -5.22676
-16.4729 135.776 -2.68418
-4.17821 130.467 11.3343
-15.8857 132.256 -5.60158
0.821388 125.067 13.4059
5.82755 93.2528 -14.2637
15.7626 103.87 13.8457
1.02168 98.8309 -15.7228
-1.26734 101.671 -16.2144
-19.8302 139.112 -4.05752
21.7131 83.9166 1.24767
1.40348 124.275 13.7901
-20.2029 139.602 -3.95216
18.7297 82.5075 -5.07545
-13.5592 125.823 -8.63999
-19.7347 138.555 -4.26722
-13.2775 138.006 5.58367
-1.05453 126.546 12.5094
-12.5011 137.253 6.00715
17.1982 100.232 12.5126
-12.5328 137.183 5.99437
15.2108 104.655 14.3844
9.24399 116.199 17.758
11.338 86.8661 -11.8359
18.6127 97.2051 11.6049
0.703902 98.6844 -15.7384
11.4172 112.192 16.8339
2.02051 123.124 13.9876
16.98 100.781 13.123
-17.9665 144.293 5.45691
-5.55643 131.392 11.0687
-10.0477 135.042 7.90216
6.08189 119.287 16.3511
-20.4071 145.361 2.76317
-15.9966 141.612 5.70196
-13.9909 126.008 -8.56743
-15.3932 129.689 -6.67283
4.73764 120.01 15.164
-9.78511 134.643 8.16656
-3.20541 103.771 -15.8985
-16.1943 141.767 5.82418
-3.11324 128.346 11.937
-12.101 135.922 5.91224
7.59506 117.715 17.4456
-16.8016 133.27 -4.54048
20.0109 92.1332 8.87723
-20.7203 139.424 -3.84904
-16.107 131.348 -5.36322
17.519 81.3096 -7.14875
-12.6217 136.602 6.21144
-20.2845 137.331 -5.37754
-3.81063 104.451 -15.6269
-14.297 125.334 -9.0561
5.12313 92.7001 -14.2308
-0.605467 125.242 13.1179
-20.5022 137.761 -5.02531
1.63551 96.7689 -15.2484
-16.15 131.218 -5.30413
-16.3035 132.077 -4.57468
19.9191 91.9055 9.01428
-20.4748 144.892 3.19389
4.38912 93.2892 -14.5405
8.95911 88.326 -12.6948
-15.9293 140.553 5.74915
-19.9869 135.695 -6.27457
19.1602 80.7301 -4.65191
-20.7425 144.889 2.8665
16.3425 101.167 13.8477
9.79234 113.964 17.6381
3.01467 121.45 15.091
22.3201 84.4712 4.84259
19.5328 80.4712 -4.15131
-20.6718 137.264 -5.39002
20.3193 90.3009 8.23026
2.58884 95.1861 -15.0173
-16.6747 132.676 -4.051
-16.0127 140.494 5.88207
21.3679 87.2489 6.58146
14.0596 82.9585 -10.0861
20.0318 80.414 -3.23707
-12.798 135.971 6.07968
21.4158 81.5959 0.406167
-4.7227 105.487 -15.0856
7.80401 116.761 17.9243
5.35465 118.882 16.3434
16.8757 80.8181 -7.79156
5.48617 91.7335 -13.9319
22.1636 83.2897 3.6085
21.2412 81.1026 -0.25664
-16.7375 141.421 6.10515
22.2487 83.7422 4.42123
-21.4731 144.062 1.42103
-18.9788 133.842 -6.02154
11.8606 110.068 17.2351
-16.5202 132.05 -4.01962
21.7363 81.8617 1.59972
5.15161 118.814 16.2975
21.3591 81.1465 0.19075
16.3869 100.212 13.6538
17.3867 97.5037 12.2546
-5.11036 129.317 11.6205
-16.815 133.671 -2.4126
-1.61494 125.587 13.1765
-11.6894 135.115 7.56892
16.7246 80.382 -7.92208
15.9035 81.2328 -8.26287
-13.0451 136.068 6.51081
-21.7466 139.42 -3.79093
-2.87069 126.808 12.6247
-15.5596 128.405 -6.14322
21.7558 81.5995 1.71703
-19.6617 144.078 4.88247
-17.7792 132.716 -4.73965
-13.7606 137.031 6.64893
20.7529 79.8559 -1.70633
-18.816 143.426 5.70182
22.3474 82.9758 4.49937
-17.2561 133.476 -2.76253
-15.5516 127.829 -6.32769
-19.5379 133.415 -6.42504
-17.5715 131.321 -5.51752
-11.0094 115.772 -12.3317
-15.953 139.566 6.47299
-16.0841 128.328 -6.3281
-16.2496 128.596 -6.29165
-16.9857 131.593 -4.08625
10.1794 85.5029 -11.847
-12.1829 135.232 7.85925
1.18754 95.5933 -15.0504
-15.3248 138.373 6.36824
19.4506 79.1965 -3.83072
20.6806 87.5585 7.58419
17.8547 79.0161 -6.57607
22.0898 84.1822 6.1108
-13.433 119.975 -11.1789
18.8694 93.7271 11.6644
12.4331 106.833 15.9929
6.20191 89.5153 -13.3942
-16.6019 128.569 -6.40789
21.3875 85.4999 6.72467
19.3511 92.087 10.9079
16.9818 78.9814 -7.68042
16.13 98.8447 13.3134
-16.3909 131.266 -2.86372
19.2446 78.6481 -4.26183
-3.79485 101.668 -15.6511
-6.40635 129.565 11.5278
-18.0527 141.734 6.44042
-18.1497 141.82 6.38261
8.19452 114.713 18.5991
-21.2611 143.496 3.24828
13.8162 103.491 15.1285
-21.8749 139.298 -2.42511
16.2581 79.1189 -8.30272
-20.1542 143.237 4.83813
-16.9611 130.339 -4.48376
-2.35506 98.9054 -16.1427
-9.72915 111.959 -13.4083
-14.3008 121.51 -10.0544
6.88846 116.191 18.3517
9.98802 84.9363 -11.77
-20.8677 134.206 -6.33465
6.56224 88.5663 -13.1348
11.4808 108.505 17.349
-13.6952 119.751 -10.8013
11.0576 109.479 17.7897
-21.2679 143.218 3.4798
-13.7091 119.225 -11.0852
20.5353 86.5903 7.83418
21.6861 84.0152 6.82695
-2.76186 98.9558 -15.9807
8.32378 113.763 18.6865
1.28331 121.623 16.1988
-22.0527 142.903 2.31346
18.7163 77.613 -5.0109
-21.9861 136.239 -5.01611
7.34554 87.1659 -12.6288
-16.8475 129.727 -3.88693
-13.657 118.625 -11.1853
0.014175 122.657 15.5333
3.25696 91.2534 -14.4841
16.0511 78.2029 -8.39764
19.8331 88.4737 9.36854
-9.63509 110.599 -13.4891
10.9779 108.733 17.8465
12.736 104.457 15.9801
-2.35587 97.74 -16.0374
-4.63229 126.889 13.121
-17.4192 128.346 -5.92261
-6.41676 128.562 12.175
-13.7926 118.425 -11.1653
-9.35468 131.569 10.8483
16.4181 96.2886 12.9399
-6.02022 128.168 12.4344
-16.1841 138.166 7.26691
12.4022 81.3985 -10.1375
0.988759 93.628 -14.8578
-6.90798 105.089 -14.7331
-3.7725 99.9501 -15.4024
19.3587 78.1191 -2.44263
20.7465 85.057 7.61788
5.14795 116.838 18.1059
-10.5759 133.223 11.0769
18.3028 92.8742 12.5844
9.17249 111.342 18.605
-8.14491 130.512 12.1566
19.7813 78.2867 -1.29649
10.0994 109.643 18.3004
7.99138 113.179 18.865
-17.1302 127.224 -5.88619
-9.44942 109.253 -13.5963
-10.464 132.932 11.4048
-0.443326 94.6119 -15.4467
-9.29341 108.801 -13.7791
19.2525 77.6885 -2.41387
12.7291 103.431 15.9894
-18.2917 129.619 -4.81147
-1.14102 95.1596 -15.7344
19.5415 77.8885 -1.60999
-1.91508 96.1278 -15.8718
-17.7574 128.254 -5.37843
-15.9114 136.565 6.96975
0.577454 93.3404 -14.9304
-4.70331 126.246 13.5921
-17.2545 129.088 -3.53523
14.7521 78.2965 -8.75727
-8.46063 106.654 -14.4747
14.199 100.614 15.4681
8.25474 84.8234 -11.9276
14.9383 78.0394 -8.71751
17.4106 93.7938 13.0978
12.9578 102.306 15.4842
-18.2902 127.872 -6.37322
-4.30534 125.727 13.9075
4.51227 88.7006 -13.4092
-9.16197 131.032 12.0613
-17.3908 126.944 -5.84945
14.4943 99.7128 15.2174
5.291 115.974 18.644
15.7429 77.2445 -7.97213
-22.754 137.21 -2.90694
-8.17938 130.227 12.9012
3.61097 117.298 17.5052
5.75035 87.1884 -12.8525
-3.33267 124.741 14.6787
3.43291 89.5345 -13.9441
-18.3302 130.046 -3.63439
20.7027 84.2721 8.1531
2.08291 119.011 17.0892
10.6842 106.715 17.2447
-18.2674 129.624 -3.87747
-9.94629 109.115 -13.3475
22.1286 81.208 7.34911
-14.3894 117.664 -10.8298
21.5246 80.8517 5.98157
-14.1675 134.174 8.14471
19.4005 87.7586 10.3398
5.80871 115.028 19.0969
-3.16376 96.9292 -15.7887
-14.1761 116.953 -10.9483
21.6843 81.9184 7.79022
0.264374 92.4493 -14.9501
-15.7426 121.583 -8.06171
0.875779 120.217 17.3515
0.650993 120.468 17.2763
-10.4423 109.51 -13.0194
20.9672 80.6086 5.39156
-7.18646 103.656 -14.3146
-11.2913 111.299 -12.3382
9.89372 82.3501 -10.5476
-16.8936 125.595 -5.18116
-2.11325 94.9513 -15.6696
3.96261 88.1436 -13.4468
-15.7615 121.268 -8.12308
1.08194 119.708 17.4329
19.7168 85.5557 9.24312
3.87456 88.1312 -13.4719
-15.0246 134.383 7.96365
14.6848 97.663 14.8159
-22.2195 133.302 -4.87954
21.1486 79.6192 5.19534
2.07348 117.999 17.4693
11.2283 104.17 16.7765
-5.15166 99.6656 -14.7043
-20.4386 139.85 5.75199
14.3341 98.1216 15.1869
20.2917 83.9421 8.93791
-11.8711 131.587 10.4461
-17.4048 123.456 -7.66298
-8.16031 129.159 13.8078
-23.3876 136.723 -2.34917
21.7968 80.3151 7.50644
13.9429 76.827 -9.13845
-10.0953 131.104 12.9879
-16.3766 135.247 7.4974
-16.5934 123.683 -5.83766
-18.5846 129.544 -2.44581
9.48346 107.783 18.6068
-17.0464 126.08 -3.81368
-16.7224 121.983 -7.89321
14.0975 98.2488 15.389
-18.0298 127.639 -3.58454
-23.4601 136.742 -2.13296
19.2402 86.0021 10.0137
9.38268 107.985 18.7903
17.0772 92.3164 13.6575
-18.8713 129.597 -2.67298
-18.385 137.39 6.9366
-17.425 122.913 -7.71966
-9.62537 105.919 -14.1699
-15.0102 117.192 -10.1378
-18.7284 137.487 6.68512
14.1646 97.6239 15.1762
-6.03254 126.335 14.8013
7.94068 82.9713 -11.3302
-19.5356 138.225 6.30182
-10.9261 108.489 -13.1267
-22.1714 139.99 4.10235
-7.71604 102.888 -14.1051
-17.1392 124.317 -5.22367
-22.9162 134.336 -3.30483
-21.3848 129.59 -6.09376
-18.9762 137.371 6.60002
7.30662 110.77 19.2789
-17.8367 125.41 -4.99599
-23.507 136.187 -2.05507
5.62468 113.485 19.6403
-5.14119 98.2947 -14.8882
14.892 95.3639 14.3206
-18.0526 127.961 -2.39677
-11.8079 130.642 10.8005
4.14494 86.6519 -12.836
-15.0188 130.26 5.27817
-7.63525 127.911 14.6263
-21.5611 129.691 -5.84541
13.9773 97.1223 15.1772
-22.1333 130.843 -5.41973
15.0984 94.6875 14.2608
12.3469 100.29 16.1448
3.53307 115.382 18.8511
9.71051 80.6384 -10.2242
20.2686 82.8639 9.41979
-17.9107 124.76 -5.31318
-20.6418 126.876 -7.35139
-17.5482 123.83 -5.75347
-16.5091 123.098 -4.80156
4.35335 114.606 19.4733
-17.7572 126.631 -2.81741
-22.0496 139.368 4.57846
-17.5675 124.506 -4.82974
-17.5025 121.696 -7.87646
-11.8199 130.424 11.3124
-16.17 119.816 -7.6719
-21.8159 129.763 -5.59315
-17.5503 123.563 -5.6146
-17.6861 126.166 -2.90362
-16.3033 133.961 8.14533
20.6183 81.8693 9.40357
-17.6015 123.345 -5.8869
5.68083 84.1684 -12.2032
2.60351 87.472 -13.4227
-14.9488 129.084 4.95532
18.7924 85.6997 10.854
-17.2821 135 7.84724
-9.22259 129.057 14.2295
-17.488 135.053 7.60398
9.01631 106.354 18.2913
-6.23859 99.3624 -14.244
-16.5954 120.108 -7.66572
-15.0643 131.048 7.14774
-23.5324 138.959 2.36223
-15.4042 116.055 -10.2154
-19.65 125.463 -6.48672
-1.65715 91.8215 -15.1593
14.7085 94.6415 14.5935
3.55478 114.789 19.2355
5.1512 84.4623 -12.2865
5.96387 111.74 19.7388
-16.092 119.028 -7.72085
-12.2564 130.209 11.0957
-21.1537 126.749 -7.20942
18.9978 84.6855 10.6108
10.6216 102.469 17.055
12.5906 98.8288 16.1679
-16.6332 123.211 -3.69641
-0.0796295 118.911 18.3613
-24.158 137.214 -0.0659361
-23.7145 138.51 2.16131
-21.88 127.762 -6.92706
-9.51573 103.658 -14.0001
-17.3114 133.17 6.61631
16.2415 91.6273 14.3242
9.13713 80.1479 -10.0784
-16.8574 123.522 -3.37617
-16.1019 132.724 8.23404
-16.8007 131.47 5.73495
5.69165 83.2482 -11.9667
-17.4424 122.342 -5.44816
-21.8194 138.23 5.34996
-22.0421 127.778 -6.75119
16.2796 91.3021 14.347
12.2362 98.883 16.3411
-23.0917 138.624 3.82283
-17.9217 125.403 -2.60234
-17.9289 123.81 -4.40538
-15.2586 131.572 8.66979
-14.7897 127.95 5.38671
-17.6677 123.777 -3.95314
-4.55918 94.8912 -15.182
-4.23735 94.3611 -15.2513
-18.0692 125.321 -2.78643
-10.1517 103.92 -13.9693
-17.9811 125.299 -2.58085
1.06633 116.93 18.8913
-23.652 131.922 -4.31198
-23.7995 133.406 -2.86435
-18.5797 133.628 5.87716
-14.3306 130.85 9.64516
-20.1458 124.397 -6.99336
17.6767 88.2109 13.6305
-13.3366 110.858 -11.0513
6.23731 110.069 19.8229
-10.1507 128.598 14.1093
-15.2674 130.636 8.11412
-15.1081 126.814 4.08922
-22.6982 129.497 -5.18565
-17.8354 125.265 -2.03723
1.07823 87.7677 -13.5615
-20.2689 136.45 6.62074
10.4163 101.662 17.2579
7.2755 81.3887 -10.6298
-4.75643 123.057 16.7723
-10.3578 103.81 -13.9125
-19.7072 135.058 6.19003
-19.9219 135.036 5.82857
-2.57211 91.3171 -15.2034
10.2403 77.8036 -9.627
-14.8953 126.172 4.05621
-17.5645 121.149 -5.91398
-14.9576 127.138 5.08547
-16.1647 122.961 -1.56471
-6.74704 124.965 15.9972
-4.156 122.244 17.1424
1.72301 86.8962 -13.0917
-17.9724 123.764 -3.519
19.5771 82.2238 10.6198
-17.9526 123.849 -3.37511
8.75015 79.6358 -9.82385
-24.2875 135.44 -0.534253
-9.73591 102.664 -13.8166
-13.9998 129.308 9.26233
-16.0359 116.732 -8.1548
-17.3571 124.767 -1.19145
-22.9344 129.357 -5.04868
-11.4098 105.611 -13.0673
-21.963 137.332 5.58498
-14.3796 130.083 9.77146
-2.00454 90.3233 -14.8775
-22.5887 137.298 4.63548
17.1124 88.7804 14.4356
-20.9409 136.22 6.16934
-14.2591 129.469 9.45367
-21.1278 136.198 5.90349
-17.824 124.439 -1.97052
-4.07351 92.7834 -15.2896
-17.8167 123.707 -2.64813
-15.9325 122.575 -0.837175
-23.0623 128.831 -5.322
-2.11934 119.55 18.189
15.5947 91.0465 14.8354
-14.9788 125.392 3.92451
5.84574 109.757 20.1089
-16.2018 116.03 -8.50906
-22.3764 126.165 -7.03117
7.61729 106.446 19.4453
0.234322 87.5617 -13.7252
-5.81013 95.319 -14.7269
-5.19012 94.2526 -14.8476
-14.5244 130.153 10.4577
-5.76061 123.116 16.7566
18.3041 84.3105 12.1122
-15.079 125.067 3.85388
-18.8769 132.255 5.82464
0.284422 116.642 19.3383
-12.9611 107.937 -11.9057
-14.6772 123.853 3.36169
-22.0213 136.375 5.56017
9.46938 102.011 18.0265
-23.1346 136.037 3.50343
1.87728 114.454 19.7817
-21.9825 136.269 5.67292
6.04878 81.021 -11.0303
2.5437 84.8113 -12.4451
9.49958 77.4786 -9.33591
1.05251 86.3334 -13.0454
-18.2248 122.214 -3.86529
-14.2882 110.763 -10.3464
9.98449 100.681 17.6642
0.0405797 116.401 19.2414
-17.39 121.443 -3.33582
13.6875 93.5303 15.642
-17.4768 120.677 -4.33408
-16.4453 115.656 -8.26532
2.74159 84.3418 -12.3728
-21.9598 124.511 -7.19975
-5.06702 121.882 17.2335
-18.5614 130.873 5.52043
-16.9673 117 -7.44891
-14.9404 123.997 3.73614
-17.5226 121.717 -3.00985
-21.3323 123.82 -6.80066
0.316335 116.015 19.6088
9.18618 77.5597 -9.28267
-24.7163 132.468 -2.37529
6.91281 106.746 19.9681
-23.9038 129.277 -4.56352
-23.2611 135.427 3.46211
-22.757 125.411 -6.98144
-17.4157 122.128 -2.0077
17.3827 86.1352 13.9161
-18.6027 124.325 -1.4284
-17.4322 123.896 0.000674428
-15.1295 124.296 4.22847
-10.7318 101.969 -13.762
-14.6553 127.5 8.61916
-15.3678 130.14 10.4889
-17.463 122.867 -1.04517
-18.4138 129.855 5.28816
-15.1146 123.635 3.64218
-14.8179 123.713 4.22397
-17.6196 121.626 -2.6448
-22.9178 135.049 3.89832
-16.9766 122.746 -0.297354
3.04491 112.537 20.6896
12.7206 94.6003 16.2317
-18.0662 123.039 -1.66439
-16.1562 125.789 4.52981
6.86323 79.5213 -10.1906
-16.6728 114.762 -8.66411
-16.2293 121.743 -0.0782142
-16.6858 115.696 -7.55413
-18.4372 123.35 -1.71607
-15.5688 121.765 1.25493
-15.7174 125.325 5.06147
-16.9442 120.326 -2.52352
6.43004 107.068 20.4767
-17.6955 117.165 -7.23747
-16.4881 126.271 5.0278
-8.59503 98.4905 -13.3685
-16.9215 122.014 -0.347971
-16.3041 126.049 5.22166
-19.477 131.419 6.16111
-21.854 134.24 5.48183
-6.13369 93.8194 -14.4838
14.0877 91.6698 15.9791
18.9151 79.9767 10.6575
9.97526 99.4687 18.1048
-15.0282 122.319 3.38425
-16.5636 125.93 4.97993
-16.1666 125.173 4.7856
-25.2087 132.554 -1.45013
-17.6721 116.628 -7.14184
-15.8169 122.106 2.03884
-15.2001 122.11 3.14867
-16.6119 122.711 1.53783
-0.771718 115.438 19.0691
-6.52661 93.9776 -14.381
-17.733 120.38 -2.83524
-25.2403 134.207 0.592332
-15.8059 129.221 10.307
-3.61721 118.708 18.2895
8.451 76.9631 -9.04674
-5.10259 91.0166 -15.1372
-22.7084 123.792 -6.72899
-9.18853 98.6175 -13.12
-16.346 124.817 4.89684
-8.60089 97.4345 -13.3304
-15.5007 121.199 2.23225
-12.0211 125.993 13.3587
-14.8638 109.535 -9.72075
-18.483 117.161 -6.95632
-19.4932 118.894 -6.54958
16.2305 86.825 15.298
-16.5656 124.707 4.82458
4.30085 109.031 21.1039
-17.4585 120.396 -1.35901
-19.69 119.42 -6.05518
11.4778 95.1922 17.2428
-1.401 115.1 18.9411
10.3835 97.364 18.1571
-5.852 119.915 17.2903
-16.8906 120.404 -0.0376741
-22.8139 132.503 4.10248
-3.50553 117.375 18.4003
-19.8901 120.652 -4.38454
16.8141 84.2171 14.1866
6.07579 105.569 20.8169
-14.4656 127.853 12.5981
6.14585 105.36 20.7505
-19.0865 119.753 -3.87003
-25.3392 127.912 -4.78246
-25.3019 132.569 0.566495
-23.4391 131.749 2.67071
-14.3983 106.56 -10.9586
-15.1808 128.212 12.1457
7.14331 77.2394 -9.01528
0.0541414 113.401 20.2044
-9.93805 123.234 15.1723
8.60602 100.34 19.5263
-16.8254 120.341 0.829981
-19.3814 118.816 -5.02406
-9.00189 96.7066 -13.064
-14.8746 127.831 12.4761
-15.4983 127.023 10.589
16.641 83.9954 14.2957
-16.3781 126.564 8.70998
-24.444 131.621 1.33363
1.19021 82.8832 -11.9353
6.76942 77.1747 -9.10241
-16.0067 120.331 2.56108
-11.5594 124.131 14.066
-17.3155 120.469 0.66398
-2.96601 87.0759 -13.6431
-17.1936 120.33 0.7306
-25.5187 127.309 -4.87449
-16.6295 124.85 6.77198
-3.35368 87.4419 -13.7308
9.54306 98.1527 19.2376
-2.97749 115.467 18.4486
-20.9113 129.335 4.98606
-25.7574 132.152 0.31961
-4.93914 117.687 17.7978
9.31967 98.4969 19.3435
-16.2792 119.911 1.96526
1.03209 82.6499 -11.8414
-22.5995 130.84 4.08088
-16.8684 126.184 8.19516
-8.58003 121.006 15.9208
-17.9415 114.525 -6.45975
-14.8929 127.121 12.7187
4.38901 107.178 21.5395
-0.0091168 112.454 20.4233
-3.24773 86.8632 -13.5147
-16.5791 120.614 2.90636
8.38879 99.6891 19.8803
-16.4079 120.276 2.99915
1.40522 81.6796 -11.5265
-15.9272 126.278 10.6118
-25.7962 130.909 -0.0845698
2.73503 108.948 21.5157
-16.4465 126.227 9.89552
-26.2429 129.454 -2.31939
3.296 79.5306 -10.6016
-3.05811 114.544 18.5163
-25.2487 130.828 0.932746
-17.9971 119.356 -0.207793
-1.70525 113.252 19.3393
-22.8442 121.656 -5.43103
14.5333 87.9019 17.1859
8.12055 99.6978 20.1053
-17.576 120.419 1.79505
-17.9272 123.092 4.33386
-6.22147 89.4884 -14.4915
-13.9664 125.1 13.0569
4.64822 105.9 21.6568
-3.53879 114.789 18.4063
-4.30766 115.768 18.271
-11.7895 123.069 14.3743
-25.9177 130.543 -0.0537545
-17.0028 109.598 -9.07392
-22.3812 120.784 -5.14562
-17.8243 111.222 -8.49715
-20.9716 127.951 5.34165
-20.2799 127.138 5.56759
13.2959 89.4548 17.6233
8.31906 98.8416 20.1765
-17.6288 119.29 1.16775
5.32442 76.8126 -9.40193
-22.595 120.632 -5.31213
-22.8888 129.254 3.92211
-16.937 123.576 7.1982
1.42793 109.337 20.9501
-4.42678 115.307 18.1991
2.09001 108.677 21.3214
-19.9416 117.362 -4.59701
-2.07793 84.2062 -12.9267
-19.5731 116.03 -5.43855
-17.5223 110.118 -8.63814
-18.1783 118.658 -0.0716426
14.8497 85.4589 16.1553
-17.8938 121.288 3.39693
-26.5047 129.433 -1.36863
-16.6917 125.975 10.7444
-13.1153 99.8003 -12.854
-26.2832 126.65 -3.97481
9.73941 95.8051 19.7256
-11.0964 121.711 15.1133
12.5314 90.3551 18.1447
-5.09229 115.607 18.0244
-18.663 112.464 -7.48448
16.8387 79.1126 12.6185
-9.94477 120.388 15.7269
-9.5068 93.9936 -13.2419
-22.9648 128.419 3.75581
-23.2459 128.407 3.30499
-17.2613 120.096 3.70575
-26.3192 126.144 -4.16411
-17.9917 120.137 2.57979
-17.1588 125.16 9.59955
-16.6552 120.211 4.8568
-10.1049 120.336 15.6454
-21.2663 119.282 -3.53448
-3.42034 113.357 18.738
13.0879 88.9897 18.0876
16.8491 78.2269 12.1393
5.60761 102.788 21.6202
0.986113 108.771 20.8813
-15.9628 105.711 -10.0336
-4.83209 86.0986 -14.0099
-7.63703 89.7645 -14.3476
-9.30817 92.9001 -13.5052
-18.7505 121.419 3.32754
2.1858 79.079 -10.3706
-7.83275 89.9646 -14.3585
-21.8061 127.234 4.93276
-9.13844 92.4572 -13.6305
14.2787 85.9054 16.9769
-16.8941 121.474 6.46578
-7.68324 117.56 17.0481
-17.6002 119.191 2.87962
-9.54336 93.0501 -13.3537
16.37 78.9144 12.8101
15.9083 80.8157 14.2141
-17.9678 110.387 -7.38648
-19.1752 121.644 3.36896
13.3997 87.9367 18.2883
-6.22886 115.668 17.6946
-16.4672 106.413 -9.26268
-3.96142 84.7133 -13.3924
-15.9303 104.959 -10.0145
-11.5452 96.9042 -11.9541
-4.96958 85.5516 -14.0173
-6.68462 116.066 17.583
-22.4039 118.594 -5.02656
-9.37993 92.2486 -13.5341
-19.7307 115.035 -4.66564
-4.85282 85.3495 -13.9317
-25.789 122.435 -6.10802
-16.3509 125.174 12.2836
12.9703 88.4633 18.5126
-19.1335 119.273 1.1885
-26.8422 128.353 -0.961594
13.1237 88.0603 18.549
5.29363 102.243 21.8283
-17.4058 119.193 4.12252
-3.73719 84.1968 -13.0732
4.32157 103.696 21.9626
-10.86 119.607 15.3709
-15.9512 104.448 -9.9316
-17.2894 107.826 -8.28324
16.1016 78.3058 12.6556
-1.36741 109.97 20.026
8.62688 96.2076 20.7787
-14.2386 122.364 13.2168
-26.8855 126.637 -2.43371
-17.4513 118.956 4.2757
-19.8342 116.718 -2.01613
-7.48836 88.3127 -13.9544
-0.297309 108.488 20.4173
-11.9773 96.6883 -11.7807
13.8706 85.289 17.3097
-4.98446 84.755 -13.8415
-17.2242 120.42 6.44928
10.0744 93.3 20.2366
-26.6997 124.653 -4.09792
15.8646 78.3848 12.8481
-23.5574 126.543 3.14253
-26.7896 128.078 -0.332442
-17.7173 116.578 1.5288
-19.6853 112.549 -6.14356
-13.6551 98.4644 -12.2027
-3.53393 83.2844 -12.8309
9.14028 94.7791 20.6663
-22.4825 125.873 4.46576
-7.06725 87.3112 -13.8949
-3.35263 82.9222 -12.798
-5.69172 85.453 -13.7343
-17.5925 117.675 3.25534
-26.044 121.733 -5.87038
-16.8851 123.659 11.2248
-14.7258 101.128 -10.6202
-1.54116 81.0049 -11.8642
-26.5597 123.093 -5.0547
-18.8567 116.665 0.211872
2.00348 77.8823 -9.60311
14.1917 83.4115 16.4646
-11.5811 95.3564 -11.85
-6.81995 114.845 17.8461
-17.2079 118.465 5.09736
-4.23293 83.6403 -13.0369
12.5149 88.1689 19.2129
-20.2471 119.956 1.87914
1.49033 78.1545 -9.84088
-20.8104 122.222 3.59776
-20.4271 119.503 1.1731
-0.543943 79.9129 -11.1238
-18.392 109.728 -6.40834
-2.78383 81.9023 -12.4046
-4.79739 83.917 -13.3951
0.948763 78.523 -10.1458
-8.1229 116.112 17.4593
14.1315 82.9637 16.2656
-18.7077 110.192 -6.31042
-6.62373 114.265 17.9605
-3.67544 111.258 19.3798
-20.1828 113.961 -4.28851
-14.3153 98.5498 -12.1098
13.9486 83.1732 16.4864
-23.4382 125.57 3.58564
-5.96217 85.3607 -13.3232
-27.0835 125.385 -2.45973
-4.60027 111.893 18.898
-18.2139 121.558 7.78736
-16.299 116.814 5.65642
-15.317 101.395 -9.78103
-6.10693 84.8817 -13.4182
13.1013 84.9751 17.8833
10.7342 90.6225 20.4238
10.3723 91.2663 20.5628
-27.1206 123.948 -3.42382
-23.9307 125.272 3.28607
-1.03563 107.357 20.2583
-7.03638 113.976 18.0013
-18.185 107.506 -7.34955
8.59354 94.363 21.289
0.904502 105.403 21.3134
-27.0056 122.78 -4.35915
2.02203 104.203 21.8143
-14.8336 99.0699 -11.2529
-17.3514 122.325 10.8752
-7.94437 87.6552 -12.8419
-9.11747 89.3588 -12.7885
-18.0029 121.45 8.9408
-0.536593 106.569 20.5947
8.08985 94.9047 21.5423
-14.9812 99.9137 -10.2018
-12.6777 119.062 15.0912
-16.6153 117.094 6.50559
-12.7788 119.14 15.0515
-6.93332 86.5848 -12.0943
-25.6557 126.116 2.03952
-17.4514 122.099 10.8676
-7.18458 86.767 -12.2222
-17.7906 118.408 6.21853
-22.0704 122.863 4.31696
-17.4942 118.819 7.19284
-5.54276 83.4533 -13.1702
13.2033 83.1514 16.9831
-12.6947 94.8785 -11.8042
-16.3231 102.339 -9.0319
-13.8709 96.401 -11.6089
1.43689 103.814 21.6396
-1.68998 79.6506 -10.5987
12.3427 85.4409 18.7039
8.92052 92.5769 21.2003
-14.2264 96.8144 -11.545
-19.3909 114.897 0.436106
-22.6985 123.224 4.48
-26.917 120.461 -5.4684
-23.2463 123.636 4.07733
-19.6 109.857 -5.4893
-25.8593 125.507 2.00604
-15.5512 100.621 -9.19575
-22.446 122.275 4.06779
-26.2129 119.769 -4.78052
-19.1828 108.956 -5.52434
-20.7615 114.359 -1.88234
-27.4139 125.029 -0.559079
-21.7458 120.295 3.32026
-22.3116 120.742 2.9128
7.08251 95.3697 22.0743
3.99238 100.013 22.3069
-20.6006 111.602 -4.37886
-20.122 110.195 -5.15498
-9.73511 115.082 17.1858
-17.9954 120.987 10.4846
-8.7546 88.6683 -10.8286
-22.4519 119.827 2.11137
-18.9472 114.08 1.41256
-6.92691 84.2506 -12.4992
-16.9846 115.651 6.61068
-17.5884 120.689 11.3478
-23.0036 121.641 3.67531
-26.9743 119.496 -5.12172
-10.0061 90.2936 -10.448
-11.4323 115.982 16.2299
-18.6471 107.027 -5.53006
-17.5005 103.714 -7.32611
7.88097 92.9018 21.6859
-20.8226 112.713 -2.49076
-20.295 113.788 -0.42413
-3.57415 80.3739 -10.8958
-16.4698 119.899 12.7132
-7.75132 86.9575 -10.2041
12.5826 80.9182 16.0297
-10.6908 89.7548 -11.7524
-2.98996 106.387 19.4528
-2.97634 106.362 19.4588
-22.4748 120.435 3.7706
-14.6582 95.6057 -11.4887
12.5893 80.584 15.7963
-27.6447 123.679 -0.797747
-10.2482 90.5761 -9.78572
10.6863 87.4411 20.6934
-9.20103 113.299 17.6447
-24.2076 122.185 3.43676
-7.37464 84.7982 -11.2822
-27.4817 124.275 0.561641
-16.604 119.469 12.8431
-16.0922 98.2539 -10.1613
-9.51969 90.0384 -8.66589
-1.7416 104.584 20.3183
-7.30928 83.9214 -11.9407
-17.5385 119.37 11.3678
-15.9378 118.832 13.4015
-11.7258 90.8774 -11.216
-26.9795 123.846 1.16411
-7.16204 110.807 18.6211
-2.30345 78.701 -9.62901
-24.9153 122.667 3.23241
4.91135 96.8173 22.5257
-23.6085 120.533 3.10816
5.13382 96.356 22.5393
-11.4347 114.883 16.5573
-18.8504 112.731 2.16897
10.8172 85.5466 19.6856
-14.3716 94.3752 -11.1848
4.68339 96.7946 22.4915
-18.6552 105.392 -5.66572
-13.9044 93.3052 -11.4942
-18.2146 111.701 2.27512
-18.9698 112.159 1.5689
-25.8991 122.806 2.33529
-20.6904 110.694 -2.81043
-17.6379 118.552 10.9894
-24.0957 121.011 3.33705
-6.68506 82.2658 -11.9207
-25.9338 120.584 0.0645717
-27.9029 120.31 -3.40539
-18.6747 110.585 0.658548
-16.9069 100.644 -7.6479
-3.52272 79.1406 -10.1243
-14.3586 93.7982 -11.0778
8.72522 89.9078 22.0546
-12.3965 115.109 16.199
-11.24 91.6993 -8.24051
-17.113 101.122 -7.10926
-19.595 110.664 -0.368314
10.461 85.2458 19.7733
-20.6195 110.22 -2.44185
-10.8012 113.118 16.8016
11.8322 79.0726 15.2094
-11.5558 113.694 16.2641
4.09484 96.5662 22.4004
4.5351 95.968 22.4783
4.38424 96.0944 22.4533
-9.84031 88.9531 -8.60104
-18.181 111.115 2.85747
-19.2511 109.575 -0.538561
-10.7694 112.817 16.8655
-18.5875 110.264 1.34322
-15.9791 95.7254 -10.7217
-27.5602 119.472 -2.76249
-0.0933159 101.292 21.3409
2.64997 97.9621 22.1073
-28.1818 121.447 -1.37472
5.11107 94.6697 22.5039
10.8589 81.8024 17.4545
-15.4254 116.018 13.3638
-18.8925 104.04 -5.70784
-16.4502 116.702 12.5401
-7.83737 83.302 -11.0792
2.24984 98.1328 21.9655
-4.33731 104.997 19.0528
-18.9334 103.996 -5.68794
10.8764 81.3064 17.1449
-28.2489 121.63 -0.852749
-18.7287 110.42 2.0488
4.07633 95.6057 22.4184
-28.251 121.036 -1.34476
1.31031 98.9208 21.7329
10.5865 81.664 17.5032
-24.886 119.278 2.35104
-11.4418 112.449 16.5026
10.7858 80.6514 16.8002
-19.4542 108.913 -0.284221
-5.8222 79.949 -10.7156
-17.8777 101.154 -6.30024
-19.4931 108.433 -0.709824
10.1978 82.9878 18.7955
-9.46127 86.0725 -9.5903
-5.39231 79.3259 -10.4835
-5.44156 79.3633 -10.4753
8.41973 88.5356 22.3636
8.09987 89.046 22.4637
-10.7064 89.8728 -7.08315
-10.344 110.509 16.7447
-28.3009 120.61 -0.986597
9.62419 84.6022 20.0189
6.39094 91.6629 22.7664
6.11941 92.0422 22.8027
-6.84609 80.8627 -10.7071
1.62686 97.4987 21.7594
-10.3558 88.0863 -8.22105
-19.927 104.72 -4.96987
5.87829 92.2648 22.8694
-6.30595 80.1801 -10.4264
-15.6067 114.874 13.8289
-18.1404 112.201 6.72241
1.16991 97.4315 21.4893
-11.771 90.6563 -7.09865
-19.2312 109.63 2.20472
3.88489 94.2471 22.414
-0.0274196 98.3013 20.643
-10.429 87.383 -8.27404
-26.3243 119.792 2.43241
9.62587 82.6997 19.0162
-13.8507 92.2919 -8.14167
8.1905 87.6774 22.4323
7.63636 88.623 22.6002
4.4897 92.9776 22.4012
-9.57647 84.6613 -9.70664
-10.162 87.9114 -6.97397
-9.34646 84.3384 -9.6364
-12.0471 111.239 16.3268
-27.3359 120.092 1.50609
-17.8523 97.0219 -9.05988
9.96673 81.5629 18.6546
-10.8909 89.1948 -6.55805
9.95967 81.5629 18.7036
-8.61702 82.8152 -9.97755
-19.2512 102.065 -5.46759
-20.6565 106.429 -2.80454
-2.92102 101.346 20.278
-18.3141 99.4415 -6.799
-7.81588 81.3169 -10.1145
0.625957 96.4996 20.8025
-20.3046 103.966 -4.71761
0.459089 96.5181 20.677
-8.78327 106.878 17.5515
3.89408 92.2046 21.7084
-15.1917 113.312 14.6405
2.03143 94.3173 21.2538
-17.9223 114.879 12.0505
-18.5616 112.252 8.05932
6.0691 89.8701 22.8646
-19.4915 110.154 4.35033
3.90507 91.6649 21.4858
-13.9608 90.8796 -8.26128
6.04272 89.6891 22.8452
-9.8092 107.236 16.9808
3.79403 91.4819 21.3442
-12.4661 89.7382 -6.89954
-11.5577 88.6754 -6.45913
-19.2184 101.026 -4.95218
9.81575 79.4969 17.9261
-20.5416 103.586 -4.17509
-18.2521 114.256 11.6091
-11.5226 108.147 15.7155
7.90282 86.2151 22.6281
-20.7708 105.479 -2.1623
-18.6534 98.2814 -6.74424
-18.791 112.38 8.93153
-16.4808 113.242 13.6842
-7.71408 104.566 18.1432
-14.6349 111.559 14.82
-19.1076 110.988 6.96104
-8.40149 81.5591 -8.79166
-20.2036 107.468 1.37772
-13.4723 89.5111 -7.82867
-11.8256 88.3815 -6.41976
-20.2719 106.952 0.835386
-18.8329 112.688 9.62867
-6.73182 102.895 18.3095
-8.26506 81.1378 -8.4883
-18.7784 98.6307 -5.81492
-12.8509 89.0553 -6.91801
-20.0831 105.801 0.235574
-8.55424 81.5738 -8.3074
-10.1029 105.981 16.8698
-9.0284 82.3023 -8.02034
-10.9069 84.2707 -8.79886
-18.0325 112.943 11.9166
6.42241 87.2214 22.6369
9.23983 81.1768 20.4712
6.97591 86.3265 22.6142
-20.3224 101.688 -4.35559
7.42954 84.8753 21.7855
0.402867 93.0734 19.654
-7.20744 79.4328 -7.95597
-17.6394 112.561 12.4283
-7.06895 79.2085 -7.88749
8.56679 80.4772 18.9143
4.18403 88.9948 21.4403
-20.0692 108.06 3.59477
-19.7092 109.294 5.61614
-7.847 103.222 18.0156
-6.8629 101.979 18.3123
-11.6468 106.24 15.5261
-0.914197 94.152 19.3683
-19.2006 99.0784 -4.7181
-3.68789 98.3986 19.7608
5.30708 87.6808 22.3684
-16.389 110.852 13.2946
-19.7691 109.135 5.95665
-19.8764 108.414 5.12931
-19.9725 108.18 4.78302
-14.6302 109.236 14.6475
-19.7167 109.817 7.07892
-15.6911 109.857 13.7199
-11.9382 87.1153 -5.68895
-18.3055 111.637 11.5839
6.44113 84.5756 21.2806
-10.7273 84.128 -7.05612
-16.1477 110.043 13.3629
3.57314 88.1619 20.7167
-18.8529 95.8151 -6.98818
-18.2222 111.526 11.7748
-20.7819 103.438 -1.47435
-17.161 110.771 12.6531
-4.39152 98.4269 19.4816
-15.3666 91.051 -6.61118
-18.6036 108.645 7.94965
-18.3331 111.03 11.2338
-18.8894 95.7307 -6.84977
-11.5287 105.225 15.8026
-10.8186 84.7436 -5.94194
-18.2523 109.227 9.61231
-18.7221 107.506 6.91879
-19.0145 107.673 6.67199
3.02828 87.6883 20.0454
-16.7402 109.869 12.9615
-18.1141 110.555 11.5985
-19.2787 107.349 6.14098
-18.7478 106.628 6.19096
-19.269 106.784 5.55663
-20.1868 106.41 3.80223
-4.73879 97.9814 19.4438
5.66646 84.8879 21.6717
-2.37139 94.4746 19.4283
-9.95242 80.8232 -8.1112
-18.1304 108.841 10.1686
-1.68633 93.209 19.2554
-19.7521 106.019 4.46981
-20.4601 105.493 2.83908
-4.69445 97.458 19.5138
-11.485 82.6452 -8.14684
-19.4632 95.9516 -6.0889
-10.9754 103.874 16.5921
-14.4011 87.6317 -7.20278
5.42919 84.0177 20.8896
-20.405 105.466 3.18804
-1.84512 92.9478 19.2235
-20.6906 101.656 -1.51036
-18.7052 105.916 6.5039
-0.531234 90.6624 18.8582
-17.3076 93.0042 -5.57775
-20.6699 103.534 0.869927
-12.529 104.636 15.3967
-10.958 83.9068 -5.37678
-17.2317 108.952 12.6772
-19.3923 104.087 3.70328
5.83753 81.7548 19.4916
6.84987 81.9948 21.4243
-18.5381 107.359 8.8812
-15.7485 107.82 13.9339
-3.64662 95.2758 19.5012
-15.1278 107.072 14.1778
5.03373 83.7821 20.7068
-17.8933 93.339 -5.68064
-14.4819 87.6849 -6.50525
0.638106 88.258 18.8086
-13.0559 104.653 15.0974
-18.5731 103.592 5.04458
-20.3911 102.482 0.929476
-6.45083 98.3423 19.0068
-20.6422 99.4546 -2.72359
-1.08495 90.4201 18.8456
-18.5112 103.793 5.64914
-19.7465 96.7841 -4.2251
-17.0701 108.131 12.9038
-17.1137 108.102 12.8749
-17.7486 108.396 12.2349
-15.4979 89.1957 -5.60361
-17.5683 92.3904 -5.28111
-20.2899 102.292 1.49016
5.26637 81.0567 19.331
-18.0525 107.396 11.2026
-4.91705 95.7133 19.3813
5.02871 81.8113 19.8932
-20.7826 99.8939 -1.57931
-10.7059 101.883 17.0337
-18.5802 103.839 6.55135
-1.72092 90.3843 18.8642
-14.5425 87.3283 -5.33257
-15.0617 87.564 -5.90671
-19.8886 98.3554 -1.43552
-3.93145 93.7231 19.2958
-7.32644 97.9351 18.6978
-16.7326 106.255 12.946
3.28793 84.1058 20.5717
-19.0398 99.6832 1.9637
-10.5103 100.705 16.9792
4.02073 83.3046 20.9792
0.158697 86.291 18.173
0.366047 86.0445 18.2919
-13.7839 84.9984 -5.70818
-19.7673 94.4838 -4.69374
-18.6752 105.141 9.13386
2.92625 83.5215 19.9676
-19.8812 96.5336 -2.29734
-18.7441 95.8466 -1.19543
-11.4026 101.037 16.5744
-2.59176 90.391 18.9019
-19.4111 95.7507 -2.25669
-20.037 94.8899 -4.23528
-11.874 80.5931 -6.91539
1.82967 83.6862 18.802
4.11674 80.0538 18.4655
4.14785 80.1784 18.7529
-18.9545 94.8852 -1.98134
-19.1128 101.9 5.656
-14.9094 86.1851 -5.13467
-19.1342 96.7463 -0.070922
0.557502 84.5976 18.1873
-16.4731 88.2185 -5.30599
-18.2217 104.603 10.4394
-18.71 104.172 9.17818
-14.8524 85.733 -5.30265
-18.5032 104.348 9.83963
-14.8758 85.5464 -5.3603
-19.2425 100.005 3.94144
-16.5167 103.949 12.8655
-18.9754 95.1023 -0.960354
-8.6072 97.0502 18.1466
-19.3904 98.9709 2.8959
-5.99877 93.8637 18.9802
-10.1448 98.1676 17.1359
-8.89356 96.9885 17.9662
-15.1704 86.3233 -3.99878
-14.9696 85.6926 -4.31847
0.683026 82.8842 17.9416
-17.1424 103.297 12.103
-19.2225 95.6212 0.129051
-1.73368 86.3333 18.0342
-18.1687 90.5318 -3.86413
-19.4945 99.5592 4.43388
-12.325 99.3531 15.8283
-19.5398 96.5233 1.07872
1.67957 81.6826 18.8074
-17.0812 87.8407 -4.67703
-18.5104 102.084 9.27955
-2.59526 87.2333 18.3915
-18.9268 92.3812 -2.23322
-15.4287 86.7866 -2.8443
-10.2363 96.9904 17.1711
-9.66471 96.4717 17.5346
-16.8807 102.119 12.2023
-2.32953 86.3568 18.1742
-19.5831 96.2854 1.64887
3.30783 79.2044 19.546
-4.71215 89.9519 18.9288
-15.1236 84.4451 -4.01183
-16.7711 101.037 12.0274
-16.5741 100.991 12.3334
-17.3172 100.045 10.098
-17.3308 100.641 10.8674
2.40238 79.9259 19.5604
-12.994 98.4546 15.4956
-17.7225 88.4391 -3.43156
-15.6424 85.0329 -3.87408
-15.5199 84.7356 -4.00493
-4.32978 88.722 18.7087
-19.2507 90.7353 -3.194
-19.4913 96.7217 3.21693
-16.7444 98.3958 9.65363
-6.48938 91.5246 18.5534
-6.88298 91.9782 18.4797
-19.2998 92.9248 -0.573922
-17.7586 88.0196 -3.54067
0.175272 80.9469 17.8035
-8.93372 94.1533 17.9112
-15.3676 83.569 -4.42656
-16.3478 97.6232 9.82897
-16.2555 99.7411 12.372
2.39549 78.9838 19.3058
-16.4248 85.096 -4.28234
-19.5514 95.6424 2.52967
-15.2725 83.7198 -3.90841
-18.677 98.6221 7.34553
-16.3473 97.9128 10.34
-11.9024 96.8247 16.385
-16.5998 99.1264 11.4936
-13.3896 97.9055 15.3681
-18.3416 96.833 6.14856
-16.0406 98.0102 11.2511
-3.33476 86.0445 18.4081
-18.4251 92.2668 0.944954
-11.7179 96.3765 16.4989
-15.3297 96.8685 11.2593
-17.4522 97.5015 8.59609
-11.7624 96.3017 16.4824
-16.8879 97.0719 9.08118
-15.2109 96.9188 11.6375
-3.90453 86.7432 18.531
-18.5153 91.7496 0.544617
-3.91729 86.6736 18.5159
-16.7463 86.8647 -1.97906
-14.9269 96.8077 12.2583
-14.8202 83.0367 -2.99948
-15.4323 85.5687 -1.13733
-19.5341 94.7997 2.60145
-14.8153 96.9766 12.9019
-9.83532 93.9355 17.5691
-4.00556 86.252 18.4081
-14.6793 83.1356 -2.27681
-9.58396 93.5223 17.7053
-14.7066 83.0631 -2.31845
-14.7655 97.3086 13.6259
-15.8552 84.9551 -2.03822
-19.4031 94.7781 3.26319
-14.835 97.4415 13.6744
-3.68248 85.4023 18.2639
-14.6745 95.236 11.509
-2.40051 82.816 17.6509
-18.8515 95.3231 5.06409
-17.0362 86.7627 -1.55835
-14.4416 94.7792 11.6765
-17.6843 90.5939 1.84163
-19.2638 94.5559 3.77191
-14.4155 94.3803 11.5142
-16.6929 84.0344 -3.68876
-14.0251 95.5898 13.6668
-17.7796 90.6735 2.13046
-17.8387 89.1936 0.427905
-17.5585 87.0904 -1.46455
-11.6366 94.2922 16.2546
0.529644 79.565 19.4879
-17.1114 89.4907 2.13355
-17.5192 87.1975 -1.06207
-17.8019 87.8505 -0.610105
-16.4864 83.7436 -3.08557
-15.0263 82.0809 -2.55827
-3.7432 84.0175 17.9776
-6.98392 88.8897 18.2695
-14.7302 93.6631 11.2692
-16.8164 86.4237 -0.19112
-16.8708 89.2938 3.05519
-17.0724 87.9592 1.44997
-13.8952 94.4514 13.9227
-16.344 85.8886 0.39985
-16.3276 82.8989 -2.92484
-14.5969 93.4437 11.7689
-13.6963 93.1679 13.0901
-5.65879 85.9096 18.0122
-14.2495 93.1603 12.2695
-13.3637 81.0257 0.278542
-3.14069 81.4994 17.5099
-16.3847 87.97 3.38296
-16.1319 92.8011 9.34799
-15.8888 87.1975 3.45663
-16.038 82.4896 -1.89182
-13.3705 92.1736 13.449
-15.0078 84.8482 2.69306
-14.437 81.1132 -0.460804
-17.1446 92.8816 8.46185
-17.5566 90.0702 4.66521
-14.9931 86.1924 4.54156
-13.2893 92.3027 14.1997
-18.5413 91.7476 5.16105
-14.787 85.8003 4.64465
-4.11906 81.7079 17.4317
-18.5875 91.8884 5.43496
-7.33023 85.9278 17.139
-8.86687 88.3254 17.409
-13.5244 83.0827 3.97119
-15.6786 82.9794 0.371962
-7.85138 86.5478 17.1503
-13.2364 81.957 3.34366
-16.7951 91.6736 8.72186
-16.7103 91.7037 8.89356
