ply
format ascii 1.0
comment Created by Open3D
element vertex 1742
property double x
property double y
property double z
end_header
-6.17552 124.035 -9.07567
13.5049 81.3523 23.1295
-17.75 132.242 -3.07829
13.788 83.125 20.1965
13.9681 83.2139 19.8209
8.94541 110.144 -12
20.5741 89.8847 -0.148604
7.90178 112.081 -13.0775
-17.3098 123.037 10.056
13.2347 82.056 22.8338
14.3974 102.301 -8.77703
-20.4908 128.397 7.13905
1.73235 96.097 20.1294
21.1022 88.7136 0.838372
17.243 96.6834 -4.82284
18.4214 94.1484 -2.90763
-20.5898 128.707 6.9737
4.02288 116.481 -13.3535
-6.37872 124.553 -9.03278
-24.008 136.482 0.907289
16.7525 83.9697 14.7632
1.50174 120.375 -15.0663
-24.5099 135.878 2.6977
10.7414 83.5921 24.8187
-3.34383 122.96 -11.159
13.3648 83.4961 20.944
-17.0782 126.577 4.94142
16.9956 97.6358 -5.50079
12.5733 81.9813 24.4765
20.1297 82.1285 12.5923
12.5775 106.122 -10.8881
-9.01463 126.875 -7.79405
-9.32972 111.033 16.0202
-5.99362 124.945 -9.6433
-8.58035 110.23 16.1249
-22.986 136.988 -0.794583
-5.64416 106.628 16.905
16.0281 84.3351 16.0483
12.8667 83.8056 21.8387
13.5152 83.9917 20.6083
1.59519 120.777 -14.9335
-4.14922 123.676 -10.2444
-24.0055 133.766 5.86441
5.30107 115.66 -13.1101
15.6808 84.4466 16.6761
-20.7071 129.585 6.92196
-5.79558 125.354 -10.0374
-2.14624 102.462 17.9983
-14.0828 130.922 -5.25544
-19.9149 128.589 7.29924
-10.5034 112.814 15.8958
-5.04525 106.19 17.1722
-15.7325 120.281 13.094
0.155834 99.168 19.4823
20.6654 84.144 9.66302
-6.40534 108.075 16.615
3.13399 118.604 -13.7212
-24.6083 134.727 5.75549
16.3798 84.7277 15.5645
22.1035 86.9215 3.47603
22.1292 84.5178 6.97636
-14.1155 131.128 -5.1522
20.0647 92.2548 -1.13401
-24.8432 135.113 5.71731
-9.3025 127.819 -7.72221
22.119 87.2038 3.15611
-17.1828 125.329 8.23322
1.41444 97.4052 20.3998
22.2015 84.7271 6.69435
12.9899 84.5152 21.3545
22.1205 86.0323 4.9455
2.35418 96.1596 20.8372
-3.28352 123.7 -10.8713
22.0934 86.3348 4.65864
22.0918 86.3501 4.64061
-6.44206 126.282 -9.69171
15.5811 101.728 -7.74767
8.38928 112.717 -12.6832
-16.3923 127.331 4.43023
5.61306 91.9486 22.3026
-17.415 127.45 5.90831
20.2928 85.0065 9.70015
-8.21032 110.656 16.4085
14.7819 84.9646 18.4396
-6.09887 126.496 -10.1581
-24.0128 134.428 6.10123
14.0071 84.8632 20.0214
12.545 84.7275 22.5159
20.1215 84.6643 10.8451
22.1453 87.9117 2.93484
-21.9404 131.95 6.81226
-19.3611 128.659 7.66231
-20.4438 130.121 7.22061
-16.337 122.853 11.5847
2.94161 119.787 -13.9194
-11.8062 115.055 16.0123
18.4148 96.4202 -3.60754
-3.36717 124.206 -10.5854
-11.3208 131.216 -8.42928
5.75387 116.333 -13.0703
8.20494 89.3095 22.9114
17.5381 85.4073 14.1373
-7.18179 127.656 -9.52706
-24.9766 136.123 5.80794
-24.5961 137.039 3.92203
-2.12518 123.944 -11.7875
12.8653 85.3123 21.747
16.9512 99.5373 -5.41222
-14.7071 132.318 -4.36758
-24.7612 135.977 5.92738
18.3993 86.322 11.8788
19.5575 87.505 8.46561
21.2847 87.5299 5.75445
19.3965 86.8458 9.71698
-18.6825 129.359 6.52382
4.38192 94.3879 22.1251
21.0145 87.8687 5.84326
12.5574 85.6938 22.2184
-15.5618 132.856 -3.34811
8.49446 89.2969 23.4142
12.3239 85.8639 22.5364
1.16621 99.0663 20.4797
-1.81912 124.237 -11.9236
0.734928 99.6353 20.3394
-11.2107 115.154 16.1051
-12.7638 133.088 -7.86222
15.5914 86.0003 17.3536
14.9102 104.869 -9.3398
20.3508 93.4399 -0.970429
20.0584 87.8481 7.72936
-11.6242 132.644 -8.7078
2.97405 120.909 -14.0668
-6.86624 110.154 17.1537
15.6646 103.515 -8.1388
-11.772 132.989 -8.77435
15.9465 102.963 -7.59476
3.98569 120.073 -14.1563
-12.9809 118.059 15.2288
-15.457 127.886 4.62154
-18.4909 129.724 6.6476
-19.2809 136.39 -1.93244
11.0968 86.1179 24.7783
18.4081 86.3686 13.0248
17.8643 86.3695 13.9347
-11.1319 132.353 -8.57102
8.78642 114.316 -13.0182
-18.8443 129.519 7.63497
12.1606 85.9395 23.6187
-17.1765 133.805 -1.14847
12.2757 85.5513 24.0277
6.18247 117.328 -13.2351
-21.5053 132.944 6.89253
-17.2063 134.736 -2.4398
-24.0195 138.039 3.31573
8.54198 114.812 -13.1603
-9.2825 113.467 16.5801
-21.6239 138.143 -0.513353
16.5772 101.804 -6.4868
-11.2164 115.743 16.2827
-9.33746 113.559 16.579
15.3895 104.432 -8.45276
-9.11272 113.307 16.64
0.48837 100.804 20.1381
0.608335 100.61 20.2631
13.1118 108.135 -10.2738
17.0914 100.827 -5.66895
-19.28 130.13 7.85241
-24.122 138.088 3.68498
7.4378 90.8907 24.0716
-6.04658 109.7 17.5018
-9.60424 130.781 -7.92172
-17.0767 134.116 -1.13761
10.1309 112.631 -11.8724
20.4748 94.0324 -0.594633
-15.4046 128.461 4.65816
-15.2277 133.559 -3.08297
12.0392 85.4757 25.2861
17.7929 99.8547 -4.80884
-22.5732 138.78 0.808688
11.3487 86.2964 25.2733
-19.3307 130.567 7.90323
-18.7197 136.557 -1.85971
2.09281 123.21 -14.6197
18.8132 97.9211 -3.33089
10.9362 111.743 -11.401
-10.8178 132.834 -8.55041
15.4263 105.2 -8.65048
-5.44141 127.937 -9.61561
20.0289 95.3289 -1.24705
-11.9934 117.437 16.0743
4.90479 119.984 -13.9274
-16.2445 125.061 11.551
-24.2516 137.466 5.7694
8.31597 115.945 -13.2602
-13.2562 120.291 14.0053
-4.88731 108.845 17.8824
16.918 102.043 -6.0311
-15.5167 125.507 9.96055
14.4295 86.9109 20.1853
13.6841 86.9084 21.351
-15.2297 123.358 12.7493
-16.2959 134.576 -2.08759
-15.1195 128.485 5.05987
0.657365 124.336 -13.3937
21.4089 90.2443 4.48982
3.21644 122.136 -14.0834
-16.1325 125.111 11.6928
17.7096 87.4529 14.4355
20.3041 95.0761 -0.770838
21.942 91.1425 2.5197
12.1647 110.199 -10.3018
-6.42855 129.571 -9.78345
6.58051 118.28 -13.3927
-16.0501 134.824 -2.47545
-22.1568 135.069 6.72763
18.7015 98.7944 -3.45045
1.76636 124.098 -14.2873
17.9266 100.532 -4.75366
-18.8546 137.522 -1.91362
4.35669 96.2673 22.6828
-14.8667 123.344 12.7939
10.0707 114.174 -12.5066
3.02354 122.833 -14.2613
14.7269 107.253 -9.47795
-15.5869 125.579 10.7813
-16.9163 135.93 -2.31635
-9.86164 132.815 -8.70438
6.72309 118.546 -13.4269
-17.6822 130.92 6.36753
-19.4998 138.14 -1.33481
-14.5014 134.495 -3.7393
5.87389 94.2178 23.8444
-12.4872 134.186 -6.39245
5.22117 95.2412 23.4014
19.812 89.3985 9.28579
19.5113 89.07 10.2494
-0.354481 103.538 19.9212
15.548 105.063 -7.01404
-23.5495 139.064 3.81646
-17.2806 130.849 6.1583
-0.588951 103.863 19.8926
6.83725 118.644 -13.4198
-12.7069 134.233 -5.86948
20.3257 95.7318 -0.627691
-14.0841 134.593 -4.20539
-6.42634 130.31 -9.78316
-23.8775 138.494 5.36316
9.81055 89.3927 25.2103
-12.1272 134.384 -6.7985
-12.4409 120.143 14.6555
-14.7014 123.839 12.7477
-10.0877 116.167 16.9067
-14.3994 128.105 6.07305
-18.1349 131.132 7.43902
-11.6639 118.732 15.652
15.4262 105.523 -7.06762
21.1103 93.439 1.92721
-1.5506 105.324 19.7517
-5.66665 129.76 -9.80452
8.98647 90.7778 24.8755
9.69927 115.608 -12.7404
-7.36049 131.43 -9.3842
-13.7906 135.306 -5.00477
2.38094 124.604 -14.3898
-15.6231 130.249 5.37629
1.09482 101.981 21.0955
-18.5342 138.288 -1.77726
12.33 111.592 -10.5247
-11.4821 119.101 15.5211
1.98363 124.923 -13.9993
-11.3494 118.825 15.761
8.44395 117.617 -13.1876
-20.7855 134.851 6.96325
15.5038 107.053 -8.60131
8.03884 118.072 -13.1883
-14.5868 129.111 5.81154
18.9808 99.4749 -2.80263
-2.02584 106.506 19.5608
14.9142 88.6609 19.4666
-14.1324 127.284 7.8749
15.5579 88.5936 18.6155
-23.4615 138.507 5.96519
15.4333 106.566 -7.51975
0.249942 126.522 -13.2418
5.29745 96.0295 23.7992
14.0573 90.0715 18.9588
-9.51492 134.288 -9.39664
22.0105 91.7878 4.07928
-21.9825 139.899 1.76973
-4.96655 110.6 18.4453
17.6882 88.9337 15.0813
15.5394 107.591 -9.0268
8.41688 92.1517 24.8219
16.4272 104.419 -5.51128
-9.99362 134.88 -9.07125
11.9785 113.148 -11.2749
11.9291 89.2378 24.0017
-10.9193 135.548 -8.59006
-5.41152 111.307 18.5232
15.0041 90.375 17.6196
-18.1296 132.227 7.61753
21.6989 92.6678 3.92266
-20.5112 140.063 -0.103966
9.18374 117.173 -12.6475
7.02324 94.3286 24.3865
-0.438174 104.872 20.5163
-17.8824 138.489 -1.77464
17.4234 102.658 -3.97891
7.59513 93.642 24.6488
9.29433 91.7251 24.8437
12.3459 90.7189 21.5861
6.74465 120.273 -13.1191
-2.18154 128.669 -11.5354
10.6736 90.5185 24.7269
16.8565 89.7495 16.277
13.3954 92.0855 18.2405
15.4844 107.585 -7.81101
19.6021 90.1648 11.5278
-10.3445 118.526 16.4747
-23.1657 139.833 5.09302
-8.80905 134.357 -9.15826
-8.13262 133.56 -9.00197
18.2801 89.7592 14.3481
20.8293 91.1551 8.38832
11.5453 93.2865 19.7895
11.7683 91.0695 22.7738
-12.7404 136.81 -6.35953
-15.9439 138.549 -3.91894
-17.9224 132.887 7.52229
-5.26744 111.789 18.918
-0.0163567 104.911 20.8784
20.6767 91.0887 9.00673
21.4428 92.1895 6.23432
8.9149 93.0003 24.5557
7.60138 119.936 -13.033
4.63203 98.3432 23.538
15.7913 106.214 -5.39495
19.1939 100.329 -2.02311
14.1693 93.1184 16.489
13.8202 93.5186 16.4785
16.8429 91.0326 15.4359
-4.9909 130.722 -8.97791
-8.47847 116.209 17.8589
19.5721 90.6339 11.8611
16.5734 91.2408 15.6465
18.9181 90.4592 13.1632
-15.0103 131.43 5.75325
19.4219 100.02 -1.52286
-22.5461 138.908 6.68509
-8.7139 135.028 -9.13969
-6.82273 114.113 18.7458
10.9939 92.3684 23.0295
-14.421 137.808 -4.22087
-2.10328 129.619 -11.326
-7.59408 133.649 -8.69663
7.7417 94.8949 24.4712
-10.1307 119.607 15.9312
-9.8777 119.116 16.4141
14.5168 110.682 -9.14836
-12.0734 137.037 -6.52907
10.8179 115.979 -11.1643
1.06866 104.032 21.645
-4.09672 130.391 -9.05656
13.7817 94.7531 15.578
-9.65173 118.733 16.8116
9.96174 94.7891 21.5589
-14.6371 138.577 -4.57518
-9.60026 136.076 -8.72166
16.3225 92.5142 15.1388
-16.5243 132.974 6.72824
-6.51816 132.734 -8.43823
-8.70428 117.325 17.7026
-14.1831 127.13 11.8133
-8.23893 134.917 -8.90197
-4.51908 130.971 -8.87342
20.2758 98.4683 0.544733
-0.715185 129.707 -12.7272
3.10241 101.357 23.0874
-21.3745 137.82 7.60149
12.5853 114.647 -11.1491
8.96928 119.176 -12.1656
-0.176119 106.19 21.2286
14.2888 111.82 -9.53537
-3.45431 110.878 19.5035
-15.889 132.964 6.4191
-21.4974 142.186 1.60522
-13.7636 128.779 9.3366
12.5119 96.5161 15.9512
9.81761 96.7418 19.9445
15.6087 109.409 -7.65571
-15.487 138.813 -2.50429
15.2346 110.71 -8.86607
-10.8618 122.456 14.5195
10.0422 97.0553 19.3894
-13.2007 126.528 12.3085
-7.75275 135.037 -8.66848
21.0743 97.115 2.26943
-12.3844 138.114 -5.94301
-11.358 137.44 -6.47314
-21.8816 141.188 4.40577
-18.886 141.246 -0.310112
-14.1597 139.516 -5.05829
-5.60448 113.904 19.3583
-10.2984 121.766 15.2483
-19.6564 141.955 0.100414
-15.5905 139.085 -1.97251
-7.46175 116.783 18.3088
-6.94178 134.293 -8.26361
-9.22854 119.994 16.4
20.9826 97.2557 2.83102
18.8689 101.316 0.250652
-9.66728 121.049 15.7351
-19.0058 141.843 -0.286099
21.1308 96.5563 3.92739
19.5833 93.1737 11.3651
15.5931 109.436 -6.34729
21.2995 96.2301 4.22263
18.0386 103.006 -0.670262
20.9544 96.928 3.8109
-8.45523 136.585 -8.76753
-17.765 140.97 -0.67224
20.8608 97.4416 3.36866
15.1937 111.982 -9.20787
12.4808 115.822 -10.628
10.0255 118.83 -11.2249
10.2901 118.467 -11.077
12.8922 97.5011 15.7783
14.3059 113.647 -10.1474
-20.9728 143.161 1.3711
20.2418 93.557 10.2405
19.1041 101.221 0.734333
2.61824 127.982 -12.9814
-20.0029 142.784 0.455149
-17.9236 135.43 8.05145
-14.2807 133.024 5.96432
-11.7213 125.651 12.866
6.54698 123.006 -11.6078
21.5042 94.4915 7.08758
20.884 93.7779 9.14958
-7.15654 135.401 -8.44391
-12.6246 130.94 6.69277
-19.3426 142.578 0.031217
-3.96917 132.615 -9.22303
-3.3904 111.915 20.3616
-7.65906 136.261 -8.70736
-2.68509 132.063 -10.2269
9.09406 120.666 -11.7722
7.94824 99.8519 20.7432
-10.3393 123.796 13.9923
7.80501 98.4401 23.0848
9.13106 99.4532 19.5359
-20.9069 139.503 7.36118
19.8156 95.0343 9.4487
15.504 112.255 -9.1848
19.7799 100.568 1.37577
-5.44184 133.667 -7.96974
-12.8638 130.556 8.20928
7.74342 100.335 20.648
-4.24821 132.978 -8.70737
-21.4952 142.193 4.60244
20.4795 98.3915 3.72983
-13.4752 132.676 6.13599
15.5365 112.436 -9.23929
-1.24338 131.795 -11.5577
16.3026 96.985 12.3662
0.260835 130.772 -12.3259
18.3123 103.069 0.426696
7.62098 100.722 20.5579
9.56009 100.456 17.9351
16.1372 108.705 -4.40293
19.8464 100.611 1.75645
15.7379 110.984 -7.10772
15.4316 112.985 -9.51345
-7.22832 118.644 17.4558
21.3256 94.8111 8.15503
10.9442 99.7125 17.1134
11.1064 99.5848 17.0655
18.3887 102.881 0.896159
-0.0906339 131.509 -12.4628
21.3025 94.8472 8.20253
7.69069 122.777 -11.7149
8.50444 100.623 19.6401
7.62002 101.057 20.3943
-3.42038 132.997 -9.42414
21.802 95.7402 6.18268
21.3814 94.9216 8.04354
8.83132 121.821 -11.9984
-4.98585 115.039 19.5231
20.8763 97.5924 5.00028
0.601288 107.267 22.3517
-7.69908 119.753 16.899
8.39164 100.968 19.5109
6.90705 123.45 -11.2641
18.4589 96.3656 10.6386
-8.33923 120.922 16.2848
11.4279 118.238 -10.3757
-2.83039 133.053 -9.89755
-12.4968 140.123 -5.13607
6.76924 101.65 21.5011
9.60467 121.117 -11.4769
8.77229 101.746 18.3437
11.501 99.9717 16.7878
8.54936 101.914 18.5567
-0.177429 132.022 -12.1607
9.37097 101.46 17.9956
-20.759 140.864 6.9322
19.891 96.2708 9.28251
0.09655 108.786 21.771
21.5774 95.985 7.17071
7.59109 102.32 19.6656
-8.61101 122.175 15.6858
6.71887 102.657 20.5853
-5.01605 116.018 19.2227
19.4707 101.625 2.36839
6.45291 101.596 22.7136
-12.152 131.531 7.63165
18.049 97.2389 11.12
-9.10529 123.515 14.7268
12.3105 99.6941 16.4947
21.3742 96.1298 7.63835
-12.1245 132.312 6.57644
5.49365 103.391 21.7174
-14.7572 142.122 -3.72091
-1.68371 111.343 21.2465
-11.9629 132.178 6.63295
-2.6589 112.849 20.6977
7.25753 103.15 19.687
9.8062 121.606 -11.377
-17.155 142.789 -0.564337
15.7536 111.797 -6.13367
4.81495 103.665 22.9937
20.785 96.827 8.20745
-4.66883 116.297 19.2725
-9.36695 124.968 13.8448
-15.2544 142.73 -3.08956
15.8122 112.798 -7.39052
-12.0583 132.888 6.48351
-8.08549 138.366 -7.72115
2.53619 129.832 -11.6831
2.55818 129.856 -11.6842
-20.4548 141.664 6.78165
-3.67529 114.959 19.9777
-12.7556 141.061 -4.30172
15.2188 98.671 14.5679
-10.2728 126.601 13.2106
14.3887 116.15 -9.79945
-11.4549 128.535 12.2436
-17.8421 138.354 7.78021
16.0868 99.0509 12.8165
12.0527 119.331 -10.7167
-4.76455 135.121 -7.71485
9.11914 102.744 18.3384
12.5467 118.996 -10.8961
12.0474 101.179 16.2357
-11.086 140.335 -5.36202
0.00372937 110.336 21.56
0.558586 109.242 22.3281
5.08436 127.519 -11.5905
-5.87705 119.315 17.5711
20.8064 99.0266 5.89599
-18.9809 144.736 0.615677
15.281 99.0748 14.5883
-7.67171 122.864 15.4634
18.5009 98.4783 10.617
-15.1543 142.836 -2.25966
14.0511 99.8649 15.5358
-19.8881 141.515 7.22536
11.0845 102.063 17.0823
-9.56694 139.288 -5.55501
4.10958 105.231 23.3009
-4.69178 117.684 18.6952
1.50387 108.142 23.1173
17.4404 107.502 -0.737185
-3.85397 134.79 -7.64213
-5.71129 119.717 17.4417
6.02767 104.943 20.9207
13.9907 117.467 -9.90286
15.4508 99.3774 14.5181
-1.19078 133.919 -10.4052
0.824641 109.323 22.6689
1.48721 108.355 23.1079
-10.3027 127.711 13.0904
-13.2778 142.7 -4.33283
20.054 99.3247 7.65928
19.443 102.212 4.37787
3.5881 106.152 23.3266
1.12883 132.878 -12.1699
-11.6313 134.092 5.91581
-18.6675 145.128 0.629068
2.69503 107.39 22.9182
9.46756 123.312 -11.0147
20.2473 99.4231 7.46997
6.85145 105.063 20.0396
8.65856 124.192 -10.9299
16.1951 114.604 -8.30954
5.9602 105.884 20.519
-10.7533 133.214 6.31468
-8.29018 139.305 -6.36227
-14.5141 143.771 -3.10635
-10.3501 129.295 11.7317
14.3054 100.747 15.3695
-2.02192 134.718 -9.21296
18.5778 104.807 2.7511
3.6991 106.935 22.8321
19.2597 102.445 5.22299
-10.5957 130.922 9.84593
-3.97435 117.747 18.978
-8.28815 125.507 14.294
6.76746 105.588 20.1745
-16.078 143.914 -0.609786
16.8972 100.235 12.4088
16.245 114.497 -7.49979
14.626 100.856 15.1082
0.834671 133.563 -11.5604
9.0605 124.643 -11.118
-10.4459 132.468 7.74034
-19.5226 145.894 2.13908
-19.2618 142.069 7.43438
-7.35661 139.225 -6.89105
3.87521 108.262 21.2016
-4.76036 119.698 17.827
-1.58787 134.786 -9.31887
14.7716 118.292 -10.4389
13.5183 102.269 15.1076
-4.40344 136.6 -7.50336
3.99846 130.136 -11.0699
-3.36495 135.528 -7.43493
-5.3053 120.869 17.1746
-8.99331 127.309 13.454
-9.84816 129.177 12.0436
-12.1016 142.664 -4.27731
-0.493001 112.892 21.4873
14.7166 118.64 -10.6511
16.6279 113.024 -5.32254
6.31899 107.257 19.2718
-13.3159 143.838 -3.99656
-10.281 132.963 7.36682
-15.6277 144.343 -1.04805
-1.7713 135.083 -8.98011
10.423 104.509 17.0561
10.0559 124.051 -11.1052
7.16446 106.629 19.0762
-5.88729 122.214 16.5582
-10.3606 133.641 6.77616
15.0499 101.481 14.6141
18.9559 103.944 4.92144
-9.38376 140.724 -5.05094
-11.0562 135.86 4.79285
-10.2425 134.5 5.59782
20.2769 100.511 8.13613
19.3207 102.602 6.5738
17.9082 101.2 10.8411
15.9445 116.833 -9.08186
-15.6304 144.587 -0.729655
9.15275 105.721 17.9261
-3.87823 136.666 -7.29866
12.04 103.621 16.5931
-12.1035 143.668 -4.6651
3.3157 132.113 -11.5844
-11.9224 136.367 5.91404
-4.16392 119.904 18.0787
19.19 103.325 6.19655
-10.5776 141.976 -4.34435
-11.2032 142.721 -4.4094
9.30024 106.112 17.5885
12.5368 103.565 16.3387
10.1766 125.224 -11.8255
16.0017 101.547 13.9649
18.2035 107.421 1.92824
9.02472 106.407 17.7385
18.6375 105.979 3.52695
-3.15833 118.525 19.0032
2.99105 110.495 21.2916
-10.7693 142.551 -4.46434
-9.90524 133.796 7.10464
1.55701 134.323 -11.4926
17.9716 108.182 1.48361
14.9817 118.521 -9.02576
19.6779 102.408 7.40433
1.28157 134.435 -11.0403
13.6282 121.907 -11.8017
-0.0426411 113.921 21.2417
-3.06967 136.322 -7.0045
2.55212 110.945 21.6304
-1.23905 135.637 -8.79595
-15.324 145.29 -1.01377
5.50621 109.035 19.9409
-9.42682 130.705 11.4003
17.5036 101.456 12.5529
14.6387 118.498 -8.0533
14.0563 120.766 -10.4772
16.2697 102.014 13.6951
15.327 102.796 14.0429
5.87337 108.961 19.8102
12.7608 123.209 -11.8854
8.53876 127.485 -11.604
17.6565 112.111 -3.15098
-15.5045 145.39 -0.502075
-13.4111 139.02 5.65562
0.240911 113.844 21.4663
17.2784 101.473 13.1573
15.4829 102.981 13.9353
-17.1527 141.885 7.58184
-14.3045 139.218 7.11717
-9.21705 134.627 5.9954
-3.58864 137.716 -7.30222
15.2295 116.832 -5.83837
19.3842 101.67 10.0331
17.9394 111.645 -2.32259
18.0877 102.128 11.4999
15.7466 116.132 -5.4562
14.8975 118.136 -6.94881
13.7213 122.886 -12.0133
-7.62868 140.979 -5.34978
18.3638 107.994 2.81947
19.4473 104.539 6.24777
-12.5565 145.448 -4.02783
-8.478 133.49 7.23392
-13.7452 145.776 -2.59575
-8.02161 129.452 12.5232
20.0956 102.711 8.11531
6.96184 129.969 -11.5364
18.3092 108.625 2.21716
-9.01861 131.739 10.8053
-17.0757 147.455 0.326724
9.09694 108.425 17.0643
16.3703 115.423 -4.53697
-7.32948 130.612 10.0336
14.1211 121.456 -9.8676
19.6215 102.104 10.0664
5.15512 131.618 -10.8302
1.09458 113.479 22.224
18.3222 110.643 -0.41844
-9.88225 136.348 5.66219
19.9128 103.944 6.99138
18.0852 102.572 12.0202
8.71585 128.617 -11.6979
3.31284 134.018 -11.2348
-14.4264 140.568 6.7832
20.2487 102.252 9.20812
-7.68827 130.175 11.6369
-1.87947 119.17 18.8025
7.19083 130.376 -11.704
-11.9422 145.599 -4.30952
18.7034 108.275 3.09774
18.0716 112.941 -2.78441
3.56062 133.955 -11.1199
7.9964 109.341 18.209
18.4355 111.556 -1.24855
11.0413 107.358 16.4526
1.05677 135.789 -9.83971
6.10742 131.418 -11.2525
-15.8459 141.783 7.75888
-2.41923 120.821 17.8914
-17.8041 144.689 6.75896
14.8722 104.915 14.4861
-4.8979 126.028 14.2124
-1.9892 120.345 18.0502
-4.82347 125.975 14.247
-5.61881 127.652 13.0227
-3.00373 121.932 17.4143
-7.50917 141.891 -4.86043
14.2847 121.804 -9.20475
-6.92829 131.095 10.1629
-6.96698 131.527 9.68104
8.67492 109.833 17.2745
-17.6362 147.164 3.3366
1.5115 114.443 21.699
18.8535 109.027 2.67257
10.7695 127.718 -12.243
14.4962 120.529 -7.43686
13.9791 105.962 14.8387
19.2296 107.466 4.48165
16.3487 104.225 13.7431
-6.19067 130.391 10.3318
9.4031 109.393 17.0626
-11.5339 146.205 -4.5104
1.30246 136.265 -9.86413
0.705364 116.374 20.4062
-1.93368 121.006 17.7286
-7.70965 142.575 -4.97648
-0.348585 137.032 -8.22293
19.9046 103.318 9.8921
3.07467 112.857 22.0759
0.227789 117.284 20.019
5.60823 132.836 -11.2014
-14.4804 147.537 -1.48968
-16.9262 144.111 7.40681
4.46854 112.003 21.3641
-14.279 141.641 6.97358
19.718 104.014 9.48255
14.4888 105.98 14.7391
15.7147 116.764 -3.02517
1.41182 115.544 21.0775
19.9946 105.502 6.93297
-3.65357 124.98 15.101
-7.13752 142.318 -4.9859
5.61566 133.358 -11.3889
12.1141 107.933 15.92
-15.8088 143.376 7.35504
14.843 120.24 -6.25985
14.7305 118.962 -4.17332
9.10614 130.389 -12.1927
16.1813 116.201 -2.3101
6.31466 133.003 -11.6739
-14.9071 142.695 7.20168
19.9213 106.779 5.88671
19.5873 104.424 9.94112
16.2266 116.193 -2.14382
-2.20036 122.878 16.8145
-17.4284 146.214 6.19878
3.23298 113.997 21.451
19.9767 106.862 5.92694
16.7661 105.025 13.7452
2.05977 115.988 20.5623
-9.58642 139.168 4.57533
-2.43732 124.5 15.0682
14.6501 122.17 -8.03751
4.71012 134.92 -11.3129
-2.30215 123.905 15.8237
-16.989 147.315 4.31666
19.4326 105.682 8.9046
-2.77579 126.242 13.2296
0.789692 118.099 19.7108
18.2145 104.455 12.7102
3.61224 136.117 -11.1597
-13.0446 142.129 5.96679
-0.800515 121.476 17.378
-14.4634 148.631 -1.27703
-5.40913 141.832 -5.35739
12.5299 108.439 15.8956
-16.7935 147.553 4.0348
-3.49006 128.253 11.7475
-2.90343 140.177 -6.70714
10.7136 129.473 -12.1411
-1.75823 123.468 16.1551
-9.3111 138.198 6.26388
-1.78864 124.588 14.59
19.4419 105.69 9.37253
18.8751 112.567 0.197932
1.83173 117.162 20.0432
9.43827 111.32 16.8002
5.59421 134.748 -11.6667
11.1604 129.265 -12.1824
14.583 122.373 -7.27733
7.13952 111.937 19.6894
-0.903606 138.499 -6.86936
-1.43632 124.34 14.8214
9.64423 111.469 16.5919
-2.08346 126.363 13.0346
8.14855 111.63 18.8099
-7.1719 135.146 8.10192
15.7675 117.38 -1.38225
16.788 105.918 13.9553
13.6426 108.273 15.4082
18.1666 114.18 -0.303614
5.10302 113.311 21.3384
14.2734 122 -5.69161
14.5637 123.322 -8.00216
-9.9268 147.361 -5.19243
-7.18414 136.263 7.10007
-0.248205 122.247 16.956
18.4483 113.916 0.126466
-12.0784 148.317 -2.92556
-11.1228 141.73 5.31233
-16.1949 146.27 6.56018
-9.47433 147.186 -5.19213
1.87743 137.847 -9.11838
-14.081 143.872 6.8771
7.5385 112.516 19.4405
7.65569 133.613 -11.7635
19.9145 108.892 5.67979
-13.0443 143.463 6.12642
2.80848 117.876 19.1398
11.2934 111.344 15.6236
14.5848 108.253 15.1144
-14.6483 149.066 0.558929
-16.2523 147.289 5.78266
-2.23492 128.315 11.9446
8.91249 132.633 -11.759
-7.13169 137.154 6.57126
-10.6706 141.655 5.46256
8.92183 112.327 18.1399
19.9264 108.714 6.32398
14.2379 126.804 -11.3875
0.34151 138.821 -7.43249
19.4045 106.371 10.6907
3.19157 138.238 -10.9144
-7.08258 145.191 -5.09307
8.57594 133.14 -11.7242
2.04527 119.769 18.1577
14.8958 124.938 -9.42986
-15.7018 148.653 3.3069
-5.36304 133.003 10.2526
8.45149 133.358 -11.707
-1.17132 127.165 12.5042
4.51532 137.318 -11.2728
9.57007 112.562 17.3855
14.4885 122.9 -5.42675
19.18 106.877 10.9484
0.771015 123.171 15.6547
0.789338 123.135 15.6941
-3.30622 130.544 11.1735
0.382748 124.478 14.359
13.4973 128.159 -11.4413
3.25774 138.572 -10.7679
-14.386 145.397 6.68961
1.68073 121.187 17.3324
19.3918 111.582 3.90305
19.3441 112.505 2.62003
3.491 118.623 18.3095
-5.01017 133.179 10.1274
-14.4379 145.711 6.61166
-1.45351 140.578 -6.01977
-15.3918 148.908 3.43483
14.2036 125.095 -7.49508
17.0428 124.462 -10.8445
15.6297 121.323 -4.01703
9.51628 113.014 17.7366
12.9895 129.227 -11.5303
5.24943 137.426 -11.5328
-15.2909 148.988 3.43872
1.43353 123.019 15.6396
3.40403 138.834 -10.6898
1.48087 122.822 15.8769
-13.197 145.519 5.38814
-14.1381 146.162 5.91426
19.6891 110.585 5.61707
1.15032 139.347 -7.8541
-0.0657577 126.395 13.162
7.80322 113.878 19.4071
18.8017 113.941 2.20264
-12.2025 149.941 -2.50786
10.6774 112.959 16.3425
19.2192 108.417 9.77224
18.2947 123.816 -11.4379
-15.2936 148.3 5.09139
10.334 113.255 16.7849
19.1932 108.733 9.71258
16.3316 119.23 -1.27191
-3.40122 143.292 -5.89275
-15.1382 147.907 5.64187
7.59928 135.284 -11.1507
18.0946 115.116 2.20409
-13.3062 150.114 -0.359111
4.77606 138.528 -11.3874
-7.92955 147.645 -4.99202
19.4346 109.84 8.08065
2.86382 121.743 16.4501
13.7347 111.254 15.1336
18.4229 108.873 11.3505
1.1002 125.54 13.8026
16.5332 118.89 -0.299257
18.1509 123.533 -9.64676
-10.64 149.902 -3.54865
14.1549 128.981 -11.3596
5.13525 138.618 -11.4662
19.6727 111.407 5.96995
19.6628 111.604 5.71647
9.70234 133.798 -11.2462
19.235 109.605 9.65171
17.1566 124.432 -8.91529
0.256607 140.746 -6.55416
-0.795742 141.355 -5.77886
-1.53784 142.114 -5.71511
16.1157 125.779 -9.00941
-9.05385 142.137 6.13039
3.96057 121.319 16.5143
14.6299 128.32 -10.3501
15.5339 122.926 -3.80645
2.69301 123.735 15.0169
14.5885 127.162 -8.42918
-11.1776 150.634 -2.84451
-1.96877 130.859 11.9446
5.12496 119.143 18.1657
-2.60187 131.813 11.5932
-3.4185 133.83 9.92117
-3.42902 133.965 9.74307
-2.54688 143.549 -5.68488
16.1688 110.141 14.3542
-13.7431 149.827 2.52517
16.9371 109.611 13.962
-9.05593 142.372 6.23386
17.309 124.339 -8.19817
3.6594 122.718 15.5279
-7.58995 141.099 6.08971
10.8608 133.077 -10.8314
16.7293 125.442 -8.66103
14.7493 128.695 -10.3536
-9.77325 143.477 6.17647
-7.46415 141.558 5.40865
-5.43788 137.671 7.98384
0.441473 128.51 12.3364
5.50007 139.248 -11.3184
-9.59427 150.098 -3.77166
-4.852 145.455 -4.307
4.0625 122.225 16.0814
-4.15869 136.301 8.24545
13.9649 113.286 13.9433
4.35857 140.252 -10.5395
-6.45718 140.365 6.22013
6.84659 117.07 19.7963
17.8779 117.31 2.28551
17.0667 124.994 -7.75339
-9.17537 143.794 5.55838
17.9214 125.766 -10.0498
16.7223 127.896 -11.3062
-3.9508 136.567 8.15006
12.4332 115.038 14.3925
19.7557 113.628 5.06904
15.0755 129.367 -10.7936
11.0623 115.241 16.2757
1.03924 128.445 12.511
-6.21639 147.854 -4.71736
3.83744 123.764 15.1703
17.1441 119.953 0.0988339
8.89144 116.278 18.3603
-8.18018 143.889 4.30815
-4.99793 146.386 -4.24693
10.0412 134.913 -10.7751
-12.8937 150.311 2.31659
-6.18769 139.489 7.81586
17.029 126.032 -8.49701
18.5762 111.449 10.5843
15.4969 128.331 -9.39384
16.0471 127.773 -9.37607
12.4093 115.383 14.5331
-3.13538 135.794 8.74735
15.9 127.7 -8.93407
-7.69263 143.056 5.2298
15.9873 126.683 -7.50905
18.7533 126.532 -11.5404
11.358 133.594 -10.4096
19.7427 114.086 5.27544
2.39067 141.412 -7.92498
18.16 111.127 12.129
19.775 123.938 -9.23688
17.4052 111.026 13.4779
18.532 116.882 3.11111
6.67517 139.176 -11.2205
-7.68019 144.111 3.88493
3.01928 141.306 -8.63675
9.6731 135.766 -10.7629
18.9567 123.325 -6.90069
-12.7053 148.628 5.17225
-2.9503 136.028 8.6
-7.04502 141.838 6.49418
-8.52109 150.379 -3.72453
18.9849 126.678 -11.5895
-6.757 141.874 6.14911
11.7123 116.164 15.3534
-2.02234 134.642 9.57459
18.2579 123.583 -5.71516
1.71494 141.916 -6.90781
-0.938112 143.682 -5.25318
-12.1871 150.868 1.73067
16.2594 112.636 13.7554
13.8218 115.677 13.1005
16.3182 112.657 13.7383
19.9568 123.535 -7.90681
14.0198 115.557 13.1077
16.2642 126.21 -6.05755
-11.7721 151.258 0.744709
17.5484 124.935 -6.12532
15.5897 125.283 -3.57653
1.37237 129.579 12.2499
0.171013 131.143 11.8557
12.188 116.7 14.4544
-5.62826 148.355 -4.34228
17.5825 125.574 -6.93173
16.8412 126.648 -7.35572
13.9897 131.877 -10.5678
-5.40688 141.036 6.18663
-5.49238 139.965 7.90099
-2.99153 137.068 8.2997
19.7849 114.42 6.19864
-8.26034 145.617 3.96486
9.95196 117.318 17.3344
-12.126 149.969 3.79526
18.7401 127.911 -11.7652
19.8183 113.968 7.08656
6.9038 119.483 19.1567
2.0275 142.349 -6.88301
5.10112 141.392 -10.2389
15.1516 114.88 13.1439
16.3549 127.582 -7.27943
6.96993 119.575 19.1531
-4.87424 139.322 8.55781
16.6306 113.306 13.3972
4.75681 124.267 15.7652
9.60294 136.975 -10.4565
2.0144 129.438 12.4629
-5.27104 148.527 -4.14449
6.05563 121.709 17.72
18.5271 123.43 -4.19778
-1.68456 145.408 -5.01738
-4.21918 142.86 2.68789
18.9083 123.349 -4.55877
15.7173 125.243 -2.37109
-4.43363 147.665 -3.94633
1.79245 142.826 -6.42747
-9.65787 147.411 4.69047
20.0355 127.22 -11.7945
-1.87888 136.211 9.17251
13.2303 117.05 13.8687
16.013 124.354 -1.11281
-3.78586 142.664 2.79713
-0.95558 133.946 11.4423
10.9365 135.825 -9.839
9.90656 118.573 17.1792
15.9667 130.669 -9.9901
16.1161 128.215 -6.46574
13.9905 132.86 -9.98852
20.348 127.359 -11.7446
-4.06514 142.244 4.44149
-10.3603 148.987 4.33114
9.93359 118.883 17.085
18.9091 113.811 10.5936
-1.59047 136.494 9.19135
16.2519 128.025 -6.05777
7.40124 120.478 18.9368
16.2223 128.103 -5.96191
16.8819 123.327 0.0436307
-9.62083 148.686 4.01213
-4.28501 140.551 7.68866
20.3665 122.922 -4.69026
-10.6725 150.212 3.48318
17.045 126.685 -5.00213
2.60571 130.146 12.4362
-10.7619 150.638 3.11842
20.4495 122.898 -4.61845
1.13561 144.007 -5.53778
15.9862 125.021 -0.65819
16.9138 127.203 -5.26867
0.581221 144.597 -5.30273
17.1966 127.052 -5.25801
18.2246 119.601 4.11734
6.24175 123.411 17.2175
19.7559 123.396 -3.72734
-10.5571 151.199 2.61168
-2.81462 138.966 8.64484
19.1803 114.493 10.4354
7.55638 141.303 -10.929
-10.2838 152.097 1.06743
0.156243 145.24 -5.07701
16.88 115.787 12.2389
19.3033 115.193 9.34598
16.5507 124.372 0.168022
19.4417 123.552 -3.12617
10.4185 137.667 -9.82205
10.8482 119.476 16.3132
14.0495 117.997 13.5146
-10.4913 151.753 2.07599
18.9737 117.991 5.93254
14.7213 132.997 -9.5039
-2.16424 147.306 -4.24421
20.7743 122.859 -3.90194
-5.64211 150.632 -3.64073
18.0771 125.931 -4.21126
13.5757 118.487 13.7761
12.5025 119.292 14.2705
16.8759 130.044 -8.33171
18.977 116.978 7.67972
18.9677 117.921 6.33832
13.9741 118.274 13.6096
18.7892 114.58 11.5905
18.6161 124.285 -2.25856
17.3418 131.05 -10.1733
16.8509 130.583 -8.6733
16.8711 116.65 11.8099
15.3269 131.17 -7.07787
6.25634 124.584 16.7459
2.47573 144.058 -6.03287
17.3853 122.272 2.83676
5.84742 142.919 -9.58615
14.9976 130.793 -5.96763
16.8645 126.146 -1.97537
4.1481 143.412 -7.5801
19.8177 123.575 -2.74416
15.8684 131.844 -8.72353
21.1667 127.5 -10.5416
16.1956 125.297 0.456473
11.1531 120.13 15.9635
5.45592 126.847 15.004
18.1699 115.54 11.8626
14.3568 134.019 -9.32742
19.0461 118.041 6.9136
19.0608 130.087 -10.8333
7.064 123.549 17.5124
-8.16228 152.563 -1.40062
5.32246 143.284 -8.72223
16.1815 125.41 0.713816
-6.21993 151.862 -3.29081
-0.112679 136.935 9.1892
0.413784 135.506 10.5113
6.80472 124.346 17.0591
19.2445 116.229 9.69452
-3.26697 142.481 6.10433
8.38095 121.932 18.2315
16.1235 128.742 -3.83325
4.25306 129.71 13.3107
17.8422 128.188 -5.5929
4.95569 143.555 -8.08819
10.7127 120.904 16.2938
5.57913 143.423 -8.81065
-3.19432 142.495 6.30922
7.3492 142.884 -10.6315
15.3975 118.62 12.6427
16.2129 128.733 -3.4704
15.4096 130.233 -4.39976
20.9633 123.687 -3.3235
-2.56894 143.139 4.72527
15.4753 118.71 12.6006
17.7852 126.77 -2.84338
-6.55347 152.375 -2.63092
-4.96643 151.08 -3.19099
-8.90087 153.275 -0.208009
16.842 125.301 1.01981
18.6087 130.87 -9.8934
-1.59538 148.322 -4.05763
15.0408 133.893 -8.68358
15.1518 131.222 -4.90438
3.64969 131.388 12.7675
17.7069 130.566 -7.86942
7.2633 124.632 17.1588
15.1057 133.86 -8.62076
14.8225 134.303 -8.75082
15.8726 131.973 -6.80031
17.245 123.37 3.80458
14.9842 119.559 12.9803
16.7594 127.078 -0.826015
16.9734 131.126 -7.09097
17.5692 122.201 5.18594
-2.64955 142.744 6.43276
-0.175893 147.645 -4.61473
16.6968 126.005 0.967584
13.1693 121.069 13.7725
17.6991 127.31 -2.43669
15.3422 133.832 -8.34691
19.0842 119.848 6.43311
2.08863 145.988 -5.52559
20.8216 124.216 -2.61433
17.7834 129.147 -5.13076
17.131 127.958 -2.31849
15.9702 132.011 -6.44461
15.6606 130.467 -3.5552
-4.71128 151.658 -2.89121
16.4005 132.783 -7.88963
10.8385 140.575 -10.5339
7.0575 126.244 16.4969
11.9249 122.365 14.6311
17.4953 131.993 -8.03464
-0.66855 148.688 -4.31734
-1.42101 141.884 6.9184
17.5669 130.276 -5.53047
16.9321 131.638 -6.51363
9.37822 142.609 -10.7393
9.75663 123.339 17.0475
16.7725 132.701 -7.63051
18.8088 126.164 -1.14998
18.9759 125.6 -0.574666
18.6581 120.97 6.88062
18.798 125.728 -0.309981
16.118 127.975 0.599991
17.8366 127.516 -1.24615
16.2984 132.486 -6.13841
-2.04694 150.223 -3.67962
21.4618 124.651 -2.63119
17.5994 130.508 -5.11975
18.0629 131.738 -7.61809
1.44191 147.624 -5.10509
2.13947 135.64 11.4846
16.0549 133.734 -7.3534
14.4751 136.621 -9.08497
18.3604 133.083 -9.89096
9.52226 124.056 17.2068
17.6781 131.283 -6.06708
15.7555 131.035 -2.69634
7.21934 144.532 -9.26298
16.3117 129.798 -1.6863
8.89769 125.017 16.9126
13.2882 138.868 -10.309
15.7649 131.035 -2.63258
1.92384 136.202 11.339
18.6158 121.465 7.10664
11.3586 141.312 -10.6609
22.6803 129.443 -10.79
19.1117 126.107 -0.270347
15.9236 130.665 -1.94306
19.5222 119.853 8.37993
-5.5544 153.357 -1.84988
18.5903 130.948 -6.4452
6.60679 129.564 14.2795
-1.17574 143.38 6.29879
17.642 132.863 -7.51896
11.9038 141.094 -10.5745
17.7227 131.324 -5.17128
14.6849 137.604 -9.66309
18.3879 122.553 6.75998
14.5879 138.035 -9.87097
18.0118 133.445 -8.23569
18.4447 126.885 0.805133
24.5804 126.943 -8.83074
4.21157 133.746 12.8746
19.0517 131.19 -6.45984
15.7617 130.507 -0.195139
16.8348 132.492 -4.76491
17.6551 134.217 -8.5805
21.749 124.934 -1.28093
18.9619 131.447 -6.52288
18.9117 120.258 10.0394
12.9513 140.191 -10.0015
17.2621 128.325 0.772
18.5414 120.701 10.0708
0.0478151 142.479 6.84094
17.6217 134.491 -8.71476
17.607 131.481 -4.22003
11.8684 141.816 -10.49
16.3553 135.063 -7.51259
18.1138 125.722 3.53513
3.45695 135.418 12.1792
6.8189 130.705 13.8853
18.2554 125.58 3.78112
14.8294 138.815 -10.173
8.5137 127.704 16.1174
18.7705 133.42 -8.23894
15.2482 138.343 -9.98312
6.43287 131.8 13.4093
16.1517 136.167 -8.15292
18.5346 127.099 1.494
24.6852 126.239 -6.78598
5.75726 132.758 13.1362
6.60618 131.691 13.4638
0.399872 142.825 6.74409
17.3777 128.638 1.25576
2.78401 137.726 10.6067
14.2579 123.738 13.3495
24.9608 127.259 -8.46952
21.5736 131.037 -8.74524
17.6756 131.678 -3.60825
2.68569 138.747 9.34672
24.7862 126.765 -7.34658
22.3806 130.226 -8.66422
21.6606 125.251 -0.151072
5.12738 147.076 -6.50529
23.8597 128.638 -8.51622
7.45262 130.54 14.2922
17.4086 129.677 0.260267
13.927 139.964 -9.44712
17.3686 136.084 -9.04026
21.3571 131.424 -8.38762
16.7523 136.083 -8.03983
6.31631 132.721 13.1741
-1.96813 152.58 -3.13829
10.9685 143.689 -10.1814
2.16601 149.514 -5.04924
2.98745 138.028 10.5858
18.849 123.774 6.891
17.271 129.381 1.21017
22.7149 125.082 -0.892434
23.8748 123.443 -0.232658
20.2588 132.499 -7.82127
0.0222852 145.001 5.32769
14.841 139.448 -9.55467
14.4993 139.735 -9.38203
6.1678 146.953 -6.8386
17.7465 132.016 -2.85854
11.2397 143.83 -10.0987
5.77069 133.805 13.1814
-0.702103 152.097 -3.65085
17.258 132.124 -2.20403
17.1671 123.072 11.2949
16.1124 137.306 -7.94062
18.9323 124.653 6.32596
17.8955 134.366 -6.30025
11.1432 126.536 15.7542
3.98228 136.887 11.7039
6.04484 147.257 -6.74507
19.1478 133.047 -6.12293
10.0458 145.121 -9.65145
18.9843 126.082 4.54093
19.7808 132.19 -5.67645
8.25636 130.44 14.8817
22.8591 129.99 -7.14908
17.1285 136.326 -7.55
19.0192 126.848 3.50033
13.158 126.006 13.9291
9.28171 128.968 15.6481
18.1139 128.714 2.46525
14.2343 140.782 -9.23324
1.30131 151.225 -4.46467
3.01625 149.93 -5.21357
17.5133 137.285 -9.12247
22.0527 126.066 0.43778
25.5443 127.704 -7.3609
0.972427 151.578 -4.23989
-2.56358 153.968 -2.23004
16.5167 123.814 12.507
7.87454 131.933 14.0461
20.8077 127.285 0.763628
18.1764 123.579 10.346
25.4961 127.821 -7.26225
21.9821 130.994 -6.39346
19.1878 126.917 3.99287
10.5998 128.086 15.6696
17.4328 129.958 2.54993
2.15957 151.082 -4.73657
12.7806 126.921 14.3258
7.82827 132.727 13.5638
22.6854 130.416 -6.09596
17.7731 137.101 -8.18269
18.4426 123.902 10.2108
17.8396 123.953 11.1785
21.1729 133.724 -8.38822
17.5219 137.12 -7.69366
18.6196 128.298 3.64659
18.1696 128.382 4.24047
16.3025 138.535 -7.76819
18.5568 127.307 5.25409
5.95352 135.488 12.8987
16.6399 138.003 -7.13551
10.6292 129.456 15.0769
10.193 130.024 14.9599
17.1362 124.516 12.2823
13.942 142.74 -9.56073
17.2085 138.402 -8.23039
3.71693 141.268 8.57587
9.78919 146.821 -8.85503
6.08232 149.101 -6.38964
17.0521 138.971 -8.49675
24.3288 125.662 -0.147692
0.00791498 153.311 -2.93753
2.53816 144.246 6.4716
18.5763 136.574 -7.1699
3.11418 143.433 6.82228
17.9027 126.903 8.15861
24.2256 125.764 0.0903664
2.9097 143.972 6.59702
20.259 128.395 2.54397
17.4366 126.555 9.68237
13.7227 127.956 13.4706
16.4306 139.27 -7.38746
15.8283 140.974 -8.89102
15.8463 140.129 -7.61262
25.2014 125.284 -0.279308
20.5868 135.305 -7.77224
24.9072 126.033 -0.829634
2.90389 144.388 6.45809
2.2688 145.43 6.02935
25.5015 127.587 -3.84407
9.77428 132.061 14.0708
2.15735 152.264 -3.79428
18.2327 129.378 5.00289
15.4591 141.863 -8.9889
6.46722 149.617 -6.38293
25.0251 124.73 1.35825
16.2057 126.352 12.8683
22.6677 127.169 1.72481
17.8747 129.13 6.32525
5.48147 150.553 -5.71107
17.5841 126.332 11.1094
3.8875 151.643 -4.75698
21.2719 135.48 -7.92551
15.9653 141.351 -8.12624
23.0855 132.512 -6.04139
17.685 126.082 11.9575
5.03057 141.238 9.4319
9.16006 148.298 -7.30549
12.322 130.333 14.2465
25.6784 129.038 -4.60698
5.81458 139.442 11.016
21.119 129.091 2.47014
25.6007 126.951 -1.31512
23.8181 131.069 -4.36097
16.0432 127.82 12.5823
25.7348 127.849 -2.5428
22.3278 128.102 2.53132
23.4915 132.168 -5.15514
15.8521 142.052 -7.74417
13.9 129.8 13.3575
25.8953 126.694 -0.744775
8.16774 136.314 12.7847
17.0963 132.304 4.79379
23.4049 132.755 -5.68806
5.58631 141.313 9.51732
18.1885 129.975 6.59104
14.272 129.731 13.1308
9.08176 135.692 12.4813
5.28884 151.691 -5.09622
14.2807 129.803 13.1343
3.9647 145.114 6.66425
23.1674 133.604 -6.29138
18.0081 129.956 7.14507
15.6566 141.981 -6.80788
3.65672 152.731 -3.65266
9.71877 135.362 12.4791
25.6186 130.575 -5.02071
17.8285 132.76 3.95739
23.8667 128.963 0.264608
11.3004 134.556 11.7201
9.17695 136.482 12.2239
24.3049 131.38 -3.74185
15.6442 142.518 -6.60426
16.6341 141.008 -5.89681
15.1115 143.861 -7.6587
23.7074 128.095 2.20913
17.266 140.65 -6.19105
25.2965 127.267 1.01401
17.9429 130.425 8.04351
17.7415 129.357 9.94414
17.0462 128.529 12.3675
11.0888 135.466 11.4937
6.65041 151.578 -5.24637
26.7222 128.271 -2.07595
20.42 138.54 -7.33701
4.25199 152.962 -3.38412
4.30659 146.448 6.21374
16.149 142.033 -5.657
17.162 128.825 12.2188
25.0488 131.319 -3.67982
9.03801 138.451 10.818
25.486 128.228 0.316379
24.399 128.213 2.09284
17.2398 141.189 -5.80783
17.6099 131.517 7.93941
25.6399 127.859 0.925848
16.3476 142.04 -5.41404
24.5695 129.414 0.384582
27.0018 128.68 -2.25622
17.4967 129.819 10.9493
25.6242 128.303 0.529389
9.19658 150.604 -6.6739
6.04107 144.053 8.01025
22.7849 129.861 2.89225
23.3863 134.876 -5.41031
25.267 131.486 -3.26959
17.6943 130.762 9.74651
24.3989 129.856 0.668124
24.6548 128.616 2.20378
25.29 131.557 -3.09097
14.4147 146.514 -8.16753
19.9635 132.631 3.67627
21.0216 132.156 2.72874
5.67716 152.693 -3.52179
9.03044 151.146 -6.24112
17.0789 132.142 9.22182
11.9311 149.068 -7.58144
14.8727 132.25 12.7279
17.1326 130.849 11.3702
26.0116 130.12 -1.33441
15.5713 144.346 -5.96203
17.2654 131.033 11.0749
16.4934 130.943 12.4513
16.8111 131.041 11.8684
5.77541 147.21 5.26944
24.307 133.364 -3.17807
17.9422 134.422 5.28462
24.9427 132.507 -2.74637
25.5835 130.61 -0.911424
6.04517 146.026 7.00316
27.3724 130.348 -2.88292
13.7067 148.104 -7.67291
24.2585 131.35 0.653905
17.8666 134.177 6.5638
13.2466 136.849 9.89125
10.5624 140.085 9.41103
21.7289 138.84 -6.08336
17.2049 132.793 9.87796
23.4119 131.004 2.90977
24.5635 131.69 0.132123
22.0407 138.607 -6.04756
8.22103 152.418 -4.83173
3.70664 154.931 -1.47144
15.5048 145.684 -6.13138
25.9911 132.304 -2.68729
9.89626 141.238 9.3755
24.5026 132.157 0.0574825
18.0917 142.186 -4.69774
16.6265 143.871 -4.89412
25.635 130.318 1.03847
21.6574 139.124 -5.67575
27.5773 130.424 -2.06332
11.6141 150.026 -6.02318
12.1411 139.154 9.21808
11.3351 140.241 8.89605
6.25792 148.452 4.80944
25.3339 130.766 1.21955
20.5799 140.127 -5.11096
17.3091 134.145 8.89676
8.17524 143.94 8.72009
21.372 139.537 -5.29429
25.4974 131.622 -0.0591371
16.5112 133.28 11.6982
16.9583 133.353 10.9219
25.1606 131.918 0.301086
10.8926 141.613 8.30716
12.8453 149.144 -5.78378
4.41529 155.229 -1.32691
12.7939 139.711 8.48451
16.8197 134.902 9.66964
17.9435 136.426 5.72823
23.5605 137.474 -4.48662
7.352 153.253 -2.40429
15.3164 136.208 10.3729
17.5386 136.518 6.49865
17.6686 135.443 7.90712
10.9381 151.386 -5.06407
24.4471 132.563 1.64868
18.5704 136.567 4.92986
23.0429 133.668 2.25177
18.8074 136.394 4.87855
11.0158 142.744 7.70876
16.973 135.453 9.41914
17.557 136.605 6.92333
23.7674 137.653 -4.21084
12.3122 150.359 -5.06159
13.3777 140.873 7.25426
17.0591 137.269 7.11687
11.1099 143.518 7.18866
17.6132 136.064 8.18778
22.4472 134.426 3.23288
14.876 147.94 -4.66707
18.4948 137.272 5.52125
8.42343 153.352 -2.43043
17.3425 137.048 7.68708
23.9667 133.804 2.1498
26.65 133.882 -2.10815
21.4262 135.035 4.3354
14.1903 140.702 7.4058
14.8743 139.508 8.25411
16.2758 136.612 10.419
9.45759 146.114 7.28478
16.5509 138.328 7.84576
15.9797 137.367 10.1872
24.5322 136.862 -2.16734
16.1369 147.742 -4.9737
7.26033 150.127 5.41448
11.1304 151.929 -3.11398
13.4491 143.271 6.03174
8.64572 148.106 6.53899
14.9847 148.46 -3.80944
20.6385 141.95 -2.97072
11.7534 145.614 5.48747
17.8973 138.368 6.75005
11.2826 151.957 -2.76422
24.415 138.288 -2.86073
26.1359 134.961 -0.611803
21.196 141.689 -2.81785
12.5713 151.215 -3.3931
23.8794 135.827 1.81199
15.7271 148.131 -3.4316
15.0712 148.709 -3.15577
25.1563 136.923 -1.35539
20.803 137.287 4.99332
12.0911 151.659 -2.52957
23.853 136.832 1.029
18.9642 138.649 6.00174
13.2775 145.401 4.9192
12.8396 145.92 4.86273
22.6313 140.979 -2.72417
20.0867 143.679 -2.71389
19.1651 138.868 5.90354
8.42026 154.384 -0.119924
18.853 145.714 -3.57295
10.9912 148.202 5.04177
10.0331 148.902 5.68614
8.38248 150.945 5.38616
17.2344 147.87 -3.76547
15.1207 143.103 6.70326
26.3251 135.742 0.286731
13.4123 146.375 4.77599
10.3266 149.673 4.90727
15.9083 141.585 8.15145
14.2967 145.516 4.89646
20.5709 138.723 5.28082
26.5158 135.884 0.284277
26.2198 136.138 0.416245
26.4308 136.032 0.284857
24.5245 139.048 -1.1438
19.0457 139.713 6.53469
10.1854 150.439 4.65526
21.5559 138.1 5.23074
14.6028 145.735 4.94262
25.1954 136.933 1.41994
25.4799 137.173 0.926259
9.43226 151.631 4.69852
16.2201 144.274 5.04487
16.9211 142.422 6.77138
16.8203 142.627 6.9146
25.7137 138.129 0.117624
19.2651 146.649 -2.15075
12.295 152.159 0.637574
10.8392 153.12 1.61877
25.3895 138.537 0.432539
22.7458 142.637 -1.33903
17.7971 146.808 0.256279
11.7825 151.117 3.31148
17.9038 146.851 0.0777989
13.6836 148.298 4.53735
10.8111 152.096 3.47102
18.773 147.178 -1.65048
23.0742 142.462 -1.1837
20.4236 140.576 5.85048
13.5053 149.384 3.95349
19.7758 141.655 5.76278
14.7344 150.921 0.0183799
23.1398 139.553 3.751
12.4556 151.546 2.95308
12.8853 151.095 2.97842
23.5679 140.373 2.45769
19.2081 143.248 5.27099
18.8368 145.915 1.96526
15.9173 146.965 5.05839
21.4264 145.478 -1.31689
14.4477 151.044 1.69289
24.7368 140.536 1.28618
21.03 141.366 6.01969
14.7705 149.879 3.24052
14.8099 150.063 3.07179
20.6796 142.378 5.67627
24.198 142.775 -0.268504
23.0741 144.185 -0.374234
24.3704 142.727 0.0324908
23.5709 143.693 -0.140929
16.5119 149.867 1.77347
21.1267 142.295 5.80379
21.0423 145.947 0.560356
20.4651 145.678 1.85782
22.6496 144.69 0.478711
21.2613 144.611 2.8982
21.7372 144.653 2.20424
23.9008 141.555 3.60992
24.1317 141.735 3.22056
22.6512 143.854 2.85597
19.7893 145.314 5.2824
23.0625 144.647 1.25569
24.3368 142.584 2.51901
19.4894 146.103 4.93546
22.2133 143.695 4.28361
22.8495 142.929 4.75177
23.7066 144.309 1.49569
23.8793 143.163 2.94953
