ply
format ascii 1.0
comment Created by Open3D
element vertex 1850
property double x
property double y
property double z
end_header
-13.6054 131.692 5.99845
-26.5141 122.055 0.99602
-18.7999 112.354 -8.06622
20.3217 138.991 5.10937
-21.9419 121.598 -0.213048
-33.3432 126.636 5.94066
-33.3294 126.44 5.78663
-26.3323 121.932 0.943214
11.7285 140.562 8.14118
24.8053 123.566 -7.6331
-15.7943 128.197 3.90885
13.2814 117.083 -10.4266
-23.1386 129.676 6.50794
-20.2216 116.981 -3.89041
-19.9904 122.351 0.268446
-10.6363 108.274 -12.5249
-11.1228 108.357 -12.363
-20.3437 130.907 7.07734
-21.6943 115.354 -4.78886
15.9111 124.256 -5.13005
-0.563742 105.511 -16.5344
-18.9098 121.005 -0.859435
1.2306 106.357 -16.2068
19.5597 130.249 -1.12857
-19.2682 113.73 -6.41914
14.0784 120.562 -7.55392
-2.33298 136.34 8.00856
20.812 138.016 4.81542
-16.1454 128.227 4.38438
17.47 130.073 -0.715273
27.2469 135.188 1.37309
-2.2358 104.825 -16.5557
-16.793 129.55 5.58507
-10.306 107.772 -12.6634
17.5536 138.941 6.2468
-18.3728 121.185 -0.608442
4.33376 107.391 -15.761
8.88596 139.95 8.76374
18.7813 138.861 6.03104
-18.6264 121.083 -0.540693
-15.4587 109.79 -9.93832
-20.5345 114.525 -5.20394
29.1626 129.649 -3.05374
25.8863 125.485 -5.66253
-27.7162 128.829 7.4268
1.17252 105.691 -16.2536
-8.5446 106.239 -13.898
-4.74732 134.414 7.36618
-4.73502 104.238 -16.1726
-14.9889 109.427 -10.0714
-29.457 127.963 7.21607
24.5646 137.113 3.84453
31.0854 131.693 -1.6487
-17.5087 109.427 -9.52785
-19.1239 130.154 6.97772
-18.7226 121.194 -0.070181
-6.69966 104.536 -15.3964
-20.0344 120.814 -0.089565
-18.4458 123.895 2.05499
-14.9904 128.133 4.69266
30.5825 133.321 -0.103539
0.985906 138.357 9.59673
-9.52565 106.452 -13.252
13.3452 114.803 -11.1231
-24.9385 128.164 6.76663
-9.76503 132.129 6.93394
-22.8541 128.757 6.86232
19.82 130.016 -0.438893
-18.3419 124.541 2.75432
30.5974 133.243 0.0453655
23.9058 126.296 -4.06644
-18.6618 128.961 6.33335
-0.624807 137.201 9.25158
16.7341 138.688 7.04062
27.4909 123.634 -6.7636
-4.43924 103.454 -16.2874
26.5393 123.71 -6.51467
20.2846 137.311 5.33605
24.0587 126.281 -3.98342
-21.0354 116.288 -2.98057
-22.0373 115.592 -3.31889
14.6324 122.245 -5.27043
-18.2818 126.533 4.49206
13.8693 115.469 -10.3906
15.1636 116.482 -9.85084
15.6546 123.192 -4.7012
-17.9245 109.517 -8.80283
11.0586 138.727 8.35387
14.7521 116.159 -9.96329
2.04184 105.283 -15.9455
11.3612 138.645 8.299
-17.1929 108.748 -9.46207
26.6426 124.044 -6.05668
-10.2226 131.198 6.71232
15.4917 139.222 7.97484
-21.515 120.922 0.916045
26.5152 124.601 -5.54799
15.0788 116.239 -9.80516
16.1645 123.38 -4.4437
-21.9258 128.689 7.12432
-19.9827 128.998 7.03742
20.6167 128.645 -1.14667
-18.4791 125.261 3.87999
-18.972 129.038 6.93382
-19.3047 125.607 4.33998
-8.20828 104.167 -14.5242
18.6894 125.933 -2.7597
-18.3606 121.336 0.883536
-17.4379 127.161 5.26114
-15.6791 108.305 -9.79581
-19.7267 121.538 1.33767
-20.2738 111.125 -6.65498
17.7617 125.357 -2.9546
-18.6234 126.07 4.72834
-4.62133 134.263 8.40025
-23.7484 127.665 7.00725
-22.833 120.521 1.27871
7.85569 139.135 9.82591
20.7744 136.363 5.15339
24.3957 126.417 -3.30237
-21.2186 112.911 -4.9552
-31.0226 125.99 7.16813
-6.22578 133.797 8.4512
-10.4893 105.181 -13.0485
-1.2476 102.883 -16.637
15.0586 139.145 8.48511
-18.1312 120.38 0.320804
-18.6727 125.701 4.5814
11.8315 112.377 -11.7403
11.5958 112.2 -11.8296
-18.6566 125.822 4.69608
26.6962 125.657 -4.26338
-15.7091 107.513 -10.1574
18.0473 129.019 0.120435
-30.9444 125.693 7.08262
8.26225 138.737 9.6408
-21.3577 112.147 -5.32165
-21.6461 128.206 7.28302
-20.9315 125.631 5.13468
-17.3184 126.322 4.98204
-17.5977 126.054 4.82826
25.1188 134.431 3.0458
21.6067 135.995 4.96305
14.3005 114.846 -10.1122
-18.4205 124.425 3.76637
-19.9298 128.26 7.06575
15.7169 138.427 8.12334
-23.2919 118.889 0.482174
-2.81771 134.784 8.9323
6.16733 139.395 10.7949
-7.3176 133.027 8.48963
-28.4329 126.524 7.53163
-20.6341 126.891 6.30446
7.65552 106.995 -14.7266
-31.2438 124.675 6.67871
8.99783 138.14 9.36043
-22.3969 120.782 1.94704
-10.1396 131.343 7.80925
22.8659 135.544 4.65854
-21.429 126.597 6.35288
24.4066 134.629 3.70096
-23.4617 118.791 0.672545
-22.0202 112.71 -4.35321
14.7833 118.625 -6.90767
24.4995 134.432 3.55857
27.0495 134.097 2.82942
-18.5571 121.746 2.09535
1.65694 103.37 -16.1776
14.4217 120.774 -5.0653
-7.46661 132.847 8.62096
18.396 126.956 -1.01466
14.7381 119.625 -6.02294
13.1991 112.821 -11.0185
10.5989 137.711 8.92093
-14.9868 105.14 -11.4998
-22.9625 120.425 1.98343
-12.2746 129.6 7.06419
-13.7264 104.889 -11.9371
9.7151 110.201 -12.3402
14.6142 138.777 9.0119
-18.7957 125.49 5.15201
9.89191 137.73 9.12396
2.54459 103.93 -15.8217
-22.757 123.119 4.10089
28.2526 132.887 1.82356
32.5438 132.875 1.07458
-18.9775 125.447 5.335
-16.7096 107.186 -9.347
14.5641 113.853 -10.2212
-16.4837 126.49 5.71198
-18.9276 123.725 4.04864
-20.3052 118.009 -0.114085
13.1341 138.033 9.04696
28.2463 125.583 -3.56684
-32.2251 122.673 5.94958
-7.57429 132.626 8.92416
-5.31119 133.962 9.5367
14.8449 114.174 -9.82699
6.92804 105.432 -15.0822
-31.7305 122.918 6.10177
-22.219 122.376 3.8385
12.1093 111.593 -11.2514
-18.6739 122.638 3.40995
-18.9415 124.004 4.54391
18.3757 126.685 -0.631559
-11.7923 130.131 7.94818
15.9773 115.619 -8.78162
-23.4535 124.008 5.47913
20.5004 129.838 1.47379
17.2146 137.426 8.0357
11.2684 137.124 8.96604
29.5415 132.472 1.78025
-7.67526 132.566 9.12603
21.929 134.564 4.92262
25.9985 133.447 3.26036
-20.7637 110.034 -5.89892
27.9842 125.15 -3.57526
25.6088 124.804 -3.35044
26.0542 133.368 3.29952
-18.7223 108.934 -7.01235
-17.2627 105.997 -9.5758
14.6027 138.008 9.22083
-23.4795 125.254 6.70145
-13.3467 102.651 -12.8995
-11.8202 129.98 8.20254
-24.4485 119.584 2.58167
9.51694 108.541 -12.6437
31.249 132.432 1.76651
-18.359 106.702 -8.64417
22.463 128.311 0.317099
-18.0795 121.967 3.27643
-7.50518 100.454 -15.5383
-28.0234 124.852 7.50912
-26.2031 124.464 6.86501
6.55698 137.935 11.0165
-17.8604 106.258 -8.94165
22.4711 133.291 4.3094
-11.5776 101.395 -13.9092
-21.9499 121.539 3.85651
16.6129 137.208 8.57145
-22.1148 120.652 3.20038
32.1575 129.283 -0.636788
8.65782 106.48 -13.8387
-18.6287 107.1 -8.03804
-29.7188 123.259 6.75631
29.7598 132.091 2.07146
-18.2008 123.878 5.03903
2.94518 102.443 -15.804
21.0893 133.174 4.64591
15.3791 113.398 -9.67208
-8.5854 132.372 9.80937
10.972 136.571 9.28121
25.7386 125.343 -2.32708
-6.62165 133 9.958
-18.3463 121.672 3.41709
-24.9981 119.254 2.84475
24.0622 127.043 -0.572917
-20.654 109.186 -5.78803
-14.4168 102.743 -12.0224
33.3985 131.667 1.23549
-19.0628 125.316 6.5041
21.1057 129.485 1.96589
-13.6234 101.527 -13.0705
-21.6392 113.581 -2.09881
-8.65892 100.26 -15.0219
-27.447 122.861 6.32251
15.8567 114.166 -8.87763
14.8296 120.152 -3.99804
16.588 121.936 -2.93672
-29.12 120.992 5.24476
24.4627 131.624 3.1122
14.7486 118.933 -4.86273
-22.7293 121.388 4.3696
26.4346 125.177 -2.24309
12.2617 136.222 9.1461
-14.5865 102.627 -11.8393
33.5472 130.777 0.766895
-3.26449 100.047 -16.0354
-21.0214 120.88 3.70473
-17.6944 105.009 -9.29674
-27.043 122.416 6.11514
-13.9246 126.948 7.11931
31.8 131.577 1.83579
-27.9325 122.656 6.51216
-20.2345 118.643 1.88328
-11.081 130.315 9.21834
-15.3221 102.983 -11.2824
-26.2677 121.981 5.72292
-29.4956 121.118 5.67899
14.8919 118.309 -5.15135
5.34853 137.274 11.5168
-29.3882 121.194 5.75283
11.6605 136.049 9.35943
-10.4426 99.9828 -14.4655
-27.5037 122.311 6.30236
8.98613 136.677 10.4469
-21.5706 113.066 -2.02318
14.5918 119.21 -4.25136
22.9787 127.749 0.797733
11.8003 109.804 -11.0024
21.3413 128.917 2.05686
-24.3299 120.268 4.22113
28.1084 131.34 2.66712
30.7733 131.289 2.11123
7.13847 137.122 11.2758
-5.83919 133.387 10.8907
-18.6487 105.642 -8.2595
-29.4584 121.409 6.17404
-14.0108 127.1 7.6152
-27.7182 118.698 3.741
-21.5727 112.439 -2.32806
-28.3579 122.255 6.66058
9.70208 107.017 -12.6395
8.26205 104.043 -14.6764
-18.8861 107.636 -6.55747
-29.4505 121.495 6.32295
-28.847 122.393 6.93891
33.2474 130.126 0.878134
-12.5776 100.125 -13.6052
32.5357 128.797 0.0142953
14.8686 118.089 -4.89049
28.3567 126.508 -0.940127
-6.87754 99.1798 -15.4012
-28.1629 121.922 6.55096
11.1338 108.565 -11.5166
-11.1696 130.577 10.0157
21.4533 129.208 2.62487
6.45366 102.597 -15.1979
-24.8561 120.584 4.94035
15.8667 112.676 -9.13683
-21.4824 113.62 -1.11703
29.888 125.864 -1.51219
-18.8283 106.601 -7.04322
-20.2833 118.026 2.15816
-0.825283 135.344 11.895
26.1058 125.97 -0.665314
-28.1017 121.574 6.49703
-20.0617 116.79 1.22555
7.99907 136.426 11.1044
9.69976 106.162 -12.8343
12.9762 110.311 -10.2291
29.1751 130.674 2.50703
29.8185 130.518 2.26336
33.3979 131.377 2.24895
-26.7641 118.512 3.93579
-17.9024 123.383 6.03236
-20.0347 119.006 3.04718
29.9218 130.457 2.27063
12.1142 109.24 -10.7822
-18.8549 106.372 -6.96674
6.89644 136.205 11.3009
15.4608 136.563 9.91516
-26.2113 120.224 5.31602
-6.52715 98.3939 -15.4963
-2.05565 98.6353 -16.1699
-4.74746 97.9951 -16.1317
-20.2669 107.683 -5.5422
-14.3298 128.184 9.3355
-21.4214 112.742 -1.3293
-21.4633 111.745 -2.09291
24.5504 127.493 1.23428
-3.75706 97.9532 -16.2689
29.1405 130.535 2.75425
-14.8262 100.834 -11.8567
19.4672 133.39 6.8733
30.5348 130.275 2.29053
3.03175 136.623 12.6036
6.26321 101.732 -15.234
-3.83814 133.885 11.8512
-6.19251 97.9272 -15.7497
2.19347 136.297 12.5602
19.7267 131.934 5.7416
32.19 130.654 2.31706
9.7144 105.354 -13.006
12.0552 134.964 9.65923
18.2997 123.191 -0.737171
-17.1002 125.689 8.11266
18.1017 134.871 8.42136
30.4217 126.216 -0.670688
10.8841 106.727 -12.0679
24.5725 127.537 1.51811
-1.70323 98.0943 -16.311
-0.580576 98.1284 -16.4871
28.1491 130.858 3.47244
-2.15147 134.575 12.2881
-15.2702 127.24 9.12884
-20.0142 115.168 0.645533
11.1549 106.759 -11.9499
-15.5808 101.623 -10.7445
-12.7653 128.614 9.81275
-8.09519 97.2691 -15.5411
-8.75932 97.6633 -15.1017
-21.2957 109.385 -3.5003
33.1332 129.594 1.67718
-6.84515 96.9052 -16.0278
19.7901 130.6 5.08882
-11.6453 98.6855 -13.6619
-21.4016 110.6 -2.43071
-17.0917 102.782 -9.36409
0.34572 98.0034 -16.4725
-19.7921 118.034 3.11429
1.66456 135.43 12.536
28.1092 126.503 0.510155
-12.2917 129.303 10.5688
-1.16683 97.3593 -16.512
16.2019 114.049 -6.84659
32.0806 130.277 2.73116
14.08 109.809 -9.69363
15.5202 119.033 -2.76706
-21.3267 111.047 -1.80252
33.391 130.044 2.36292
14.9904 117.545 -3.80136
26.4874 126.641 1.07304
10.9063 105.793 -12.1393
29.4298 126.635 0.545837
3.90566 99.4749 -15.6655
-19.5494 115.469 1.39873
32.9344 128.783 1.56897
-7.01105 96.1996 -16.0749
33.4081 130.049 2.47481
30.3911 126.423 0.242846
17.7571 134.641 9.12803
-0.3139 97.2263 -16.5472
-21.2994 110.212 -2.32407
-4.28351 133.529 12.5595
29.7693 129.869 3.18165
-0.229207 134.974 13.025
14.9848 110.227 -9.24368
-19.4595 117.43 3.13146
16.0332 111.034 -8.70966
-19.2426 115.73 1.84175
6.45446 100.254 -15.2021
34.1193 130.428 2.98333
15.1961 117.224 -3.55302
13.6046 108.535 -10.0161
-10.8058 97.5159 -13.8571
30.684 129.244 2.83652
-9.2664 96.7838 -14.6845
-13.48 128.427 10.8553
-12.625 129.114 11.2312
26.5645 127.302 2.19634
-5.08998 132.735 12.6205
-20.9937 110.531 -1.59155
14.1442 134.319 10.1322
25.9594 129.389 3.98509
11.2277 104.849 -12.2472
32.1449 126.91 0.935115
2.9915 134.361 12.4437
-6.93578 95.1531 -16.1211
16.1332 113.373 -6.32209
18.8601 122.862 0.565733
3.56844 134.294 12.4744
8.99248 101.549 -14.0804
18.8401 132.341 8.09983
-18.4191 124.585 9.30928
19.6652 127.637 4.31248
12.0593 133.321 10.3008
-19.2792 103.217 -7.0119
31.2933 126.993 1.69486
-16.5847 100.679 -9.5026
20.1503 129.318 5.68986
10.0751 133.363 10.8519
16.1666 113.149 -6.09825
29.4273 127.002 2.20486
5.20446 134.086 12.4581
13.6268 106.978 -10.3189
-16.2593 100.14 -9.82879
17.8241 121.243 0.011449
4.54058 97.8891 -15.6152
19.4901 129.058 5.88969
-18.7622 120.009 6.32157
16.6148 113.68 -5.43554
-19.1595 121.21 7.41568
7.52447 133.377 11.7474
-20.2979 111.242 -0.0944911
15.3554 117.18 -2.38424
19.8953 129.538 6.37893
27.9022 127.435 3.18805
6.5989 133.501 12.1026
-10.0637 95.062 -14.6314
-19.2858 117.697 4.83212
-12.5943 96.4888 -13.0031
-16.8277 100.132 -9.31573
18.7773 122.525 1.22319
-9.90982 94.7449 -14.8466
-12.5574 128.842 12.2942
-8.81489 94.0295 -15.6012
20.0923 129.983 6.86771
16.6087 115.233 -3.96286
-19.8162 113.908 2.11614
-12.1897 128.896 12.3293
-11.3237 95.9158 -13.5757
-19.2182 114.646 2.64423
19.2725 123.582 2.14324
-5.79158 131.736 13.474
16.0335 111.46 -6.59567
0.24572 95.0474 -16.3066
-19.1179 119.683 6.71334
-20.1119 109.668 -0.883885
-20.0693 109.902 -0.700609
32.084 128.666 3.79473
-5.19413 94.1655 -15.8609
12.671 132.82 10.8256
-4.67978 94.2393 -15.9005
-21.2047 105.674 -3.75056
8.45755 99.4435 -14.3621
-2.05704 94.3153 -16.3109
29.7528 128.146 3.90802
10.5671 101.388 -13.1738
-13.7129 95.7096 -12.858
15.5318 133.533 10.973
-13.3926 95.5909 -12.9754
-9.06719 130.288 13.2803
-19.2656 101.624 -7.10013
34.1155 128.704 3.64241
-14.3643 127.298 12.0167
-20.147 108.745 -1.30527
14.0501 132.864 10.8566
15.9605 133.652 11.1006
-5.78926 93.7374 -15.7998
15.9939 111.604 -6.05543
6.70273 97.833 -14.9869
-19.2884 119.22 6.77225
16.5187 133.609 11.061
-5.17642 131.561 13.694
-17.8318 123.71 10.0416
18.4945 128.82 6.98019
-11.3778 94.7607 -13.7689
-17.9128 116.193 4.233
-9.2196 130.066 13.3762
19.1722 129.939 7.79711
17.3143 113.654 -4.51973
32.2011 127.992 3.80378
-19.4519 119.199 7.00661
-20.6225 102.293 -5.92904
17.6399 133.058 10.6495
-18.5014 117.527 5.58038
0.122745 94.2562 -16.2058
16.6517 115.34 -2.9637
12.9081 104.069 -11.0236
-17.0051 125.342 11.4367
-18.5337 117.771 5.85327
7.19001 132.299 12.1872
-20.3718 107.966 -1.39964
-18.2245 117.412 5.56161
0.900516 131.835 13.1038
15.3107 106.794 -9.21437
-20.394 108.075 -1.25695
14.0814 105.085 -10.2983
-16.0461 96.2372 -11.3306
-7.08276 130.473 13.6509
7.45354 97.7053 -14.7409
2.95103 95.1078 -15.8851
-8.85544 130.015 13.6937
-19.2325 121.182 8.86634
-16.5735 96.8309 -10.6526
-21.2104 103.346 -4.6354
-17.5119 124.075 10.8478
-18.9625 120.815 8.60427
-6.75112 130.29 13.6619
4.28362 95.5942 -15.5507
-18.8197 120.053 8.03937
8.82137 131.523 11.6056
2.21689 94.5514 -15.9598
-15.9293 95.7934 -11.4537
3.25807 131.191 12.5129
9.27135 99.119 -13.6494
13.2209 103.951 -10.603
18.4213 122.597 2.94211
15.0453 132.509 11.3523
-3.01362 92.7693 -16.0913
-20.3873 106.943 -1.57423
9.85642 99.5016 -13.2554
11.74 101.393 -12.1417
-16.9384 96.8562 -10.0823
-17.8473 116.64 5.55031
18.1756 128.498 7.78722
-14.1501 126.36 12.4585
9.46433 99.0049 -13.4791
-20.2749 106.545 -1.76803
17.7088 121.168 2.2692
16.4473 111.338 -5.1354
-18.7657 120.585 8.95656
-1.05048 131.211 13.8531
18.4287 126.098 6.17766
9.29252 98.4376 -13.6275
-18.1761 122.013 10.1562
16.06 108.18 -7.30764
-11.6264 92.2027 -14.3749
15.9217 132.449 11.6701
-20.3395 101.067 -5.73352
-20.535 108.252 -0.0766798
-12.2022 127.337 13.2233
16.2909 132.518 11.733
-3.12328 130.747 14.143
0.0587004 92.9288 -15.9713
-4.4888 130.142 13.9986
15.9189 107.459 -7.66994
10.9469 99.7612 -12.7012
-5.05195 91.9391 -15.6298
0.211822 130.516 13.4603
16.142 116.431 -0.631638
1.12031 93.0613 -15.9153
0.0352755 130.518 13.5312
-15.2894 93.9939 -11.9561
-20.0662 100.634 -5.83003
11.9572 101.113 -11.6869
-15.284 125.119 12.359
18.3248 130.937 10.3752
-20.3335 106.143 -1.43156
-18.3471 120.053 9.07372
-1.19245 92.2877 -15.9196
4.43695 130.069 12.4894
17.4236 121.42 3.24325
-17.9815 121.915 10.535
-11.7955 91.3364 -14.5277
-20.7809 101.959 -4.46964
15.3746 105.384 -8.8274
8.09239 130.084 11.8833
13.2102 103.023 -10.2118
3.89652 93.8564 -15.5499
-15.5277 93.8541 -11.7541
-4.51753 129.633 14.0354
-21.2794 103.884 -2.77542
-20.284 100.499 -5.57102
-0.908294 92.1478 -15.856
10.3769 130.526 11.8967
5.5452 94.6339 -15.1093
18.0092 130.063 10.1973
17.9308 129.606 9.86382
14.6752 131.374 11.9465
-2.58513 130.04 14.2752
17.9068 129.183 9.61401
18.3627 124.967 6.24864
17.8825 122.597 4.5149
-20.7971 101.979 -3.98765
18.1788 131.103 11.1491
3.87813 129.604 12.7718
-4.18169 91.4587 -15.3967
-18.119 119.1 8.92896
16.0715 131.675 12.1048
-9.25539 127.987 14.2411
11.3614 130.535 12.225
-20.2015 109.264 1.80196
18.1065 130.786 11.3007
0.865613 91.8061 -15.748
-18.1863 95.8573 -8.87168
6.89891 94.6585 -14.6826
15.2352 104.133 -8.89632
16.2084 107.848 -6.15708
-14.2074 91.461 -13.0094
4.92602 93.3059 -15.2006
-21.181 103.022 -2.53032
17.9075 126.857 8.56741
8.98266 95.8444 -13.8529
17.0538 119.088 2.74911
18.459 125.425 7.45127
-19.3705 110.812 3.50607
17.8495 112.302 -2.57391
7.68881 94.6294 -14.3781
-13.2001 90.0591 -13.8533
-18.7266 112.011 4.37085
18.1219 124.415 6.89642
-1.10837 128.855 14.1124
17.4414 111.506 -3.03969
11.4678 98.2795 -12.171
16.084 107.121 -6.13273
17.688 114.779 -0.458791
-20.6676 105.102 -0.513158
4.42717 92.3925 -15.3138
-18.7939 95.8396 -8.09104
12.7186 130.454 12.8034
-10.2603 88.6257 -15.3609
18.1333 126.353 8.6336
-13.3267 124.041 12.9614
17.7267 127.676 9.81727
-7.69891 89.4459 -15.0193
17.7508 114.85 -0.150148
12.3327 99.644 -10.9486
12.9974 101.26 -9.76283
-13.8084 123.45 12.8046
4.53638 91.9436 -15.2588
-21.1076 103.742 -0.976506
-18.839 111.672 4.77539
-18.0171 115.756 7.82062
-19.0104 95.4917 -7.79237
-1.81563 89.8752 -15.4984
-20.5597 98.7333 -4.91889
-10.5431 87.8922 -15.2961
16.6408 109.865 -3.33942
-21.0947 99.6851 -3.90819
-20.7755 106.966 1.72538
-16.3938 121.624 12.3217
10.1931 129.069 12.9631
-4.66578 127.402 14.5978
5.095 127.895 13.0994
-18.7205 113.88 6.91119
8.52774 128.688 13.1776
-20.2651 98.0296 -5.12224
-10.9628 124.982 14.1383
18.4142 112.995 -0.865971
-20.9462 98.7259 -4.29933
15.688 105.658 -6.02683
-14.108 89.102 -13.1205
-21.125 99.3361 -3.7523
16.6676 116.312 2.17634
0.494892 127.58 14.1247
6.04473 91.9508 -14.7558
17.1519 119.895 4.8951
18.4816 114.287 0.284154
-18.2655 118.108 10.428
-6.36815 88.779 -14.7543
17.4189 110.78 -2.11067
-16.7777 120.656 12.2671
-16.6859 92.2933 -9.8843
17.33 129.395 12.4551
-18.3545 114.679 7.93066
4.30561 90.5991 -15.2388
-9.59962 87.7461 -14.7495
15.4406 102.854 -7.77515
-18.1998 117.707 10.3817
17.5312 129.183 12.3844
11.2472 128.968 13.4574
12.2601 97.24 -11.4654
-7.43488 88.2963 -14.5544
7.9292 92.5504 -14.1188
-20.1435 96.4523 -5.57723
-21.0865 104.789 1.12715
-7.90593 125.749 14.9342
12.8342 98.859 -10.0667
4.13339 126.966 13.5667
17.0919 110.042 -2.14495
6.7873 91.6329 -14.4684
16.8781 116.922 3.3204
-15.0044 89.8443 -11.5275
6.66377 127.607 13.7267
17.0411 109.898 -2.11016
5.64921 90.7366 -14.8117
-1.87353 126.336 14.4404
-17.974 93.0836 -8.36766
0.858545 88.7863 -15.3769
-4.70098 125.897 14.6986
4.04495 89.7944 -15.1703
-3.3061 88.2881 -14.9015
-14.9119 89.261 -11.8533
-20.7528 105.979 2.34276
-3.21968 88.2305 -14.9055
-19.2338 112.18 6.9875
14.7905 101.332 -8.07557
-20.8433 105.41 2.11526
-15.5892 90.4527 -10.5699
17.1721 116.015 3.0073
5.20771 126.778 13.8111
16.9979 117.484 4.2606
-0.901706 87.9921 -15.2555
-1.06742 126.05 14.4815
18.6718 112.679 0.253784
-16.3967 91.2393 -9.61608
12.8119 97.6298 -10.3086
-21.2139 97.9574 -3.40114
-6.58123 87.6055 -14.3122
14.2353 128.776 13.7736
-7.28576 124.848 14.9699
15.7476 104.332 -5.48681
-19.575 110.487 6.23521
-21.2322 99.0923 -2.31562
2.68246 88.4056 -15.2939
16.3348 106.894 -3.44487
7.17097 90.6786 -14.2733
-19.4783 111.338 7.10375
-12.3358 122.179 14.2782
13.3994 98.7405 -9.02666
8.42415 127.321 14.2571
-9.16231 86.4577 -14.199
-1.4856 125.23 14.5668
17.5382 116.017 3.67396
18.7449 122.645 8.6257
-16.6947 118.648 12.4149
4.79777 88.8949 -14.94
-12.6136 85.3494 -14.288
1.09484 125.503 14.3891
-16.2438 89.8992 -9.9518
-0.78175 87.1065 -15.129
16.7409 127.297 12.8381
15.5322 101.032 -7.42156
13.7536 99.3793 -8.36078
15.929 104.177 -5.00219
16.7802 108.404 -1.86179
14.7514 127.997 13.8428
13.0503 96.8648 -10.0664
11.5846 94.2035 -11.6252
10.6759 127.348 14.462
11.29 127.508 14.4721
-0.520626 86.6253 -15.0551
-20.8352 101.372 0.444509
-10.6294 84.9315 -14.3471
9.85505 127.056 14.5966
-13.4789 85.7492 -13.072
-17.4948 91.3449 -7.90079
-13.2972 84.5819 -13.9899
4.09492 125.484 14.5594
-11.8994 84.2085 -14.4845
-9.79422 85.3167 -14.0008
-2.03307 124.239 14.9068
16.8336 107.755 -1.58267
-7.98966 123.358 15.4782
-5.6493 123.639 15.2475
-3.81563 123.897 15.1234
-7.3329 123.322 15.3668
-20.3537 99.1412 -0.949489
-12.7198 83.9001 -14.3058
-0.226947 86.0905 -14.9575
-20.3795 99.7161 -0.363964
17.7812 118.402 6.80007
18.7158 120.608 8.38476
14.7186 99.4376 -7.34331
-10.825 84.0807 -14.3194
18.102 119.051 7.42172
-20.2261 99.3531 -0.475427
13.3655 95.5742 -9.94197
-10.0837 84.54 -13.9683
6.94603 88.6067 -14.1124
18.2697 116.332 5.35008
4.3362 125.119 14.977
18.6373 111.122 1.27226
-12.5737 83.4063 -14.2729
-14.8684 118.392 13.5449
18.342 110.58 0.979603
11.5089 92.3829 -11.8683
15.584 125.953 13.5421
-8.22485 85.1376 -13.6488
16.7005 101.843 -5.43437
-3.14016 123.409 15.2717
-20.5064 94.2604 -4.04286
1.41576 124.171 15.0509
-10.9476 121.384 15.3059
8.41604 125.936 15.118
8.17945 125.828 15.1465
-19.4297 105.675 4.80798
-3.27357 85.0831 -14.3995
-19.8755 98.727 -0.500749
-11.1817 83.2589 -14.2356
11.0912 126.45 15.1459
14.056 97.45 -8.05107
16.5821 103.187 -4.06366
-19.223 109.51 7.88577
8.57075 89.1572 -13.3573
-9.57095 121.991 15.8431
-8.92233 122.278 15.9608
5.0533 86.4721 -14.6275
-15.0528 84.6754 -12.1019
-15.8476 115.852 12.3971
-20.0313 96.1286 -2.16031
-17.4251 88.6061 -8.45977
-20.3442 94.0333 -3.65184
1.09124 85.274 -14.651
16.8026 102.903 -3.94158
-13.6581 82.44 -13.9726
5.33424 124.896 15.4629
17.2461 106.262 -1.38492
-18.3579 112.947 10.7888
18.9691 112.181 2.95812
18.2957 118.398 7.94691
-19.5757 102.809 3.20271
13.8801 95.6793 -8.87558
8.00241 88.1372 -13.5945
-12.4582 82.2457 -14.1956
-14.7232 83.606 -12.6741
18.0897 117.743 7.60366
-12.43 119.121 14.6374
-19.8152 98.3301 -0.0825386
-6.12969 122.13 15.8258
-19.1762 105.357 5.29482
10.2271 89.7642 -12.5967
1.05522 84.8657 -14.6266
15.6881 124.876 13.8161
-15.1837 83.7931 -12.1455
-13.9506 81.9301 -13.8378
-1.93021 122.8 15.7306
14.1123 125.234 14.5197
-19.1706 105.153 5.40135
-19.7736 95.5063 -1.99235
17.0142 102.854 -3.41579
-15.2798 82.4727 -13.0252
-19.9369 97.8844 -0.0835545
-17.2122 87.3922 -8.79218
14.1012 95.0686 -8.8727
-12.1989 118.863 14.8415
-5.6728 121.927 15.9839
4.49663 85.2425 -14.5981
-13.7889 117.762 14.3442
17.3444 123.029 12.4256
-18.1049 112.33 11.0122
-1.67247 83.7565 -14.487
-19.1105 102.782 3.76299
5.86677 86.0574 -14.1401
17.4203 101.567 -4.282
16.9964 103.173 -2.93004
-19.9253 96.3295 -1.06631
-19.1798 102.002 3.23901
11.5748 90.1742 -11.9336
-20.4349 92.4628 -3.90117
-4.9934 82.7032 -14.4735
-1.26054 122.668 16.005
18.15 116.851 7.70097
-9.05633 121.064 16.2982
2.84165 84.3405 -14.6751
11.8584 90.5893 -11.5553
18.6749 118.209 8.67406
-10.6723 82.5577 -13.3822
-16.3386 84.9492 -10.4088
4.14958 84.6997 -14.5602
19.199 119.204 9.48094
-0.034193 83.4864 -14.5985
18.8546 121.194 11.1614
-20.2075 93.2657 -3.01592
-9.11136 120.703 16.2387
-20.3045 92.5154 -3.53706
15.2893 124.1 14.1912
-18.5848 89.363 -6.27671
18.0635 108.725 1.7747
14.5282 94.6615 -8.41577
-20.5099 91.4625 -4.07794
-11.5144 81.634 -13.4776
-12.9441 117.567 14.8554
-20.154 96.4895 -0.174328
14.6462 95.4443 -7.69401
15.6826 123.543 14.0738
-19.4337 100.768 3.15434
-20.3521 91.8569 -3.59455
-17.9085 111.349 11.1619
-18.9584 105.195 6.61484
17.5226 102.28 -2.7331
-15.0071 114.721 13.3239
14.8556 123.653 14.5095
-9.93096 119.201 15.8848
-19.4224 100.942 3.48956
-7.2244 120.916 16.7344
-14.5314 79.831 -13.8988
19.2833 119.182 10.2286
-18.1067 108.837 9.49496
-19.6259 100.101 2.99681
-20.0103 94.6187 -1.15785
4.01064 83.2999 -14.6327
7.56203 85.8373 -13.3417
-18.085 108.462 9.31824
0.809425 82.1644 -14.8814
19.9074 112.178 4.84517
9.38351 124.015 16.148
18.8223 120.203 11.3489
15.0424 95.941 -6.81448
-3.81708 81.3628 -14.4809
17.3253 99.3503 -4.55526
19.199 110.724 3.9946
-18.8831 88.5778 -5.86569
-18.3205 87.2033 -7.02282
7.18689 85.3151 -13.4479
12.5227 90.0893 -10.7509
17.9131 103.693 -1.18165
-10.4536 81.4181 -13.0011
-18.2597 107.454 8.88952
18.5766 107.682 2.06269
-20.2885 89.3894 -4.61618
1.06634 81.5132 -14.9142
9.27324 123.547 16.3135
-18.6945 87.2457 -6.53113
18.6781 107.464 2.00253
18.8448 119.342 11.2562
15.0946 93.7522 -7.98276
-20.0399 98.7084 2.74707
8.9883 123.462 16.4246
19.8378 113.157 6.28486
-17.6642 110.116 11.2298
-19.6695 88.6473 -5.01423
0.291971 80.8964 -14.9412
17.9251 102.757 -1.30818
18.0601 103.124 -1.03186
-20.4712 92.9256 -1.4634
-20.4082 95.4307 0.497665
11.0954 122.972 15.9056
-8.41379 80.3463 -13.5454
-18.899 86.9179 -6.36242
3.46517 81.8207 -14.6176
-20.4814 91.9485 -1.98875
-10.951 80.557 -12.7074
-19.9593 99.3177 3.69576
-19.3605 87.8513 -5.35887
-0.777066 80.2325 -14.9178
-20.4366 95.1979 0.612315
19.1561 106.104 1.43138
-18.2067 84.7939 -7.91292
14.672 122.126 14.8787
-16.3404 110.952 12.2239
2.2847 81.0451 -14.7324
-20.0813 98.8731 3.53951
19.2892 109.786 4.43213
-20.1801 98.4743 3.31105
-18.578 85.2569 -7.29185
-9.76503 117.737 16.3525
19.638 111.818 6.04362
15.4968 94.933 -6.31685
15.0157 121.786 14.737
3.70308 122.062 17.2612
-20.6221 89.0824 -3.62774
11.8482 122.18 15.8755
2.83839 80.7709 -14.6468
-0.127861 121.095 17.4111
-19.3966 101.075 5.59306
15.7358 95.3025 -5.74883
2.23595 121.584 17.4285
9.72228 85.0929 -12.4998
-7.97004 79.6284 -13.3044
-20.0409 87.8982 -4.42369
11.9408 86.8303 -11.4812
-12.5543 114.447 14.8514
17.2511 97.2772 -4.21762
19.3135 116.457 10.3539
-16.8375 82.4957 -9.09665
1.73461 79.8352 -14.766
3.8413 80.9932 -14.2302
8.21799 121.935 17.0012
1.79963 121.16 17.6517
-12.5875 113.796 14.7492
17.553 119.173 13.0887
-20.5382 90.3234 -1.91601
-12.9731 113.346 14.5889
18.7168 117.938 12.0088
-18.6835 102.893 7.58732
15.3605 120.41 14.6718
-14.2126 76.522 -13.7824
-18.5929 83.9943 -7.08508
-19.8875 86.3253 -4.95286
16.2007 94.9514 -5.22763
-12.8806 113.05 14.5673
2.82609 79.7671 -14.4596
19.5087 115.527 10.2006
19.2226 112.181 7.66111
4.95447 121.258 17.5262
-4.71197 119.188 17.8293
18.6396 117.556 12.008
-19.0348 84.5236 -6.39517
10.1957 121.104 16.5256
-7.06197 78.7841 -13.1345
4.85212 121.05 17.5582
-17.9643 105.417 9.83038
-15.0775 109.61 12.5547
19.9662 108.994 5.28137
-19.8143 97.0681 3.77941
7.82022 121.237 17.2758
19.0251 99.305 -1.93881
15.2482 90.3401 -8.18669
13.9158 120.321 15.5239
18.094 117.383 12.4619
-19.4873 97.5401 4.31024
-11.6559 113.238 15.0433
9.20012 83.125 -12.5072
-7.22537 78.3884 -12.9126
-9.35409 78.3948 -12.4826
-18.9395 83.707 -6.41874
-16.0802 80.0195 -9.85322
-19.2958 84.731 -5.52997
-4.53955 77.8668 -13.7483
6.63121 81.53 -13.0624
-20.5587 88.3356 -2.41566
-7.35405 78.2806 -12.8315
14.3592 88.6323 -8.97101
-11.8777 112.665 14.9017
18.9048 116.163 11.7045
-20.5609 87.2599 -3.15277
-5.03011 117.894 17.7669
-4.43999 77.6474 -13.753
2.77963 78.7593 -14.2619
-12.2933 112.084 14.7456
-13.3235 111.139 14.2401
14.3315 119.563 15.4641
4.09292 79.513 -13.7905
10.1196 83.1436 -12.1233
-11.3644 112.702 15.138
12.4291 85.1301 -10.9932
-13.9923 109.716 13.3455
11.4524 120.045 16.4721
-11.9278 112.194 14.9085
19.1385 110.895 7.86305
-17.4298 81.2981 -8.10535
11.4641 119.961 16.487
-19.3672 84.5268 -5.11018
-19.9894 91.98 0.828147
-17.1026 104.803 10.2749
-10.9198 112.973 15.4477
-5.12743 117.429 17.8123
-20.5008 87.5976 -2.46149
-13.5416 110.127 13.7933
-11.2568 77.4077 -12.1574
-19.1487 97.4954 5.1397
19.6285 100.264 -0.217494
4.86882 79.5417 -13.5061
9.55975 82.4824 -12.1203
15.378 89.5372 -7.74587
-9.45413 77.6756 -12.1459
-18.2007 82.445 -6.6582
-12.5832 76.3534 -12.4885
-16.6506 79.9811 -8.86053
19.7698 99.7031 -0.504402
-20.1093 94.0861 2.89439
7.42805 81.1346 -12.5595
18.4563 96.7647 -2.48844
12.1192 119.365 16.3999
5.69396 119.78 17.9797
-16.3192 77.0227 -11.0614
-20.0887 90.2685 0.0531604
-20.0989 93.8447 2.85832
-19.7051 95.117 3.77604
-1.87746 76.4231 -14.2559
19.8246 101.435 1.08215
-13.2505 109.411 13.7573
-20.0368 90.3356 0.222281
-4.92297 76.8325 -13.1951
3.94112 78.3742 -13.7168
-16.7122 78.7498 -9.351
-19.2695 83.5947 -5.04373
-18.9345 97.651 5.89738
17.2927 94.5465 -3.56685
-17.7868 101.082 8.37258
19.5693 109.949 8.06177
19.4239 110.126 8.23189
19.4514 110.086 8.24589
-17.7556 100.544 8.10609
-18.1466 98.9559 6.94418
10.9968 118.937 16.8601
8.2291 81.0463 -12.1644
4.21228 78.1843 -13.6012
19.921 108.813 7.24144
8.84593 81.3193 -12.001
16.7449 116.203 13.7513
-11.8393 110.71 15.0392
15.3681 88.6089 -7.50576
15.832 117.139 14.7043
-4.63995 116.489 18.1959
-10.2877 112.212 15.9791
9.47387 118.829 17.2969
18.6899 96.4232 -1.95339
17.8349 114.999 12.7771
-16.8913 79.3062 -8.28656
17.4381 94.1465 -3.38312
-4.69429 116.144 18.2054
-5.26608 76.2562 -12.7996
-16.4604 102.412 9.79376
13.9344 117.88 15.9563
-0.306939 118.007 18.9142
-13.3956 107.259 13.0783
13.6006 84.436 -9.99138
-18.6092 97.4036 6.41414
-19.9759 89.7082 0.807068
-1.69695 117.168 18.6894
-16.9617 99.8984 8.20406
13.1627 83.5883 -10.3247
3.65798 76.7799 -13.7726
16.994 92.4081 -4.10425
11.6191 117.926 16.8989
8.9873 118.111 17.5938
3.6211 76.5468 -13.7912
-20.4305 86.1951 -1.49669
-11.4009 108.782 14.3755
-10.2538 110.935 15.8548
-18.9491 81.505 -5.37243
19.7259 103.165 4.01192
-10.8566 109.612 15.0187
-19.5881 83.14 -3.89097
-18.8158 94.3937 4.74562
-10.5163 109.824 15.2784
-18.2243 96.8157 6.6447
-14.649 105.119 12.4392
-20.3736 86.3184 -1.10597
-9.46159 111.6 16.5014
13.7275 83.6025 -9.8488
-17.2433 79.3408 -7.09235
20.2622 98.5669 0.644411
-18.1847 80.5577 -5.88191
19.6482 97.117 -0.313464
-20.1578 87.8559 0.304402
8.08908 117.518 18.0035
-18.5139 80.6362 -5.56949
-15.9917 99.9504 9.01376
-16.1188 98.7929 8.18416
-19.8163 90.6166 2.53823
10.1358 79.9928 -11.5763
-12.4571 106.452 13.4898
-19.9222 83.7032 -2.80498
18.0417 113.464 13.1024
20.0697 106.334 7.16704
-17.5603 78.3127 -7.33017
-17.4507 76.9294 -8.42966
-16.386 97.6642 7.58102
-14.0778 104.825 12.7274
-12.936 105.954 13.3916
14.3107 116.009 15.9707
-14.1745 104.344 12.442
-10.8151 107.519 14.3026
-9.66093 109.05 15.3235
9.86449 116.831 17.5924
18.1796 112.03 12.2811
-5.19168 113.871 18.3056
-18.9911 80.473 -5.06795
5.47079 76.5073 -12.9132
-9.72337 108.611 15.1266
-20.434 85.308 -0.933113
-15.3091 100.602 10.0181
-8.88574 109.915 16.0736
17.0298 89.5873 -4.75893
15.4728 85.9442 -7.29461
19.027 109.829 10.6835
20.088 105.776 7.32361
10.5149 116.426 17.5116
-19.6444 81.3573 -3.95549
5.33859 76.0926 -12.9228
18.6647 93.3074 -2.07381
-9.84653 107.92 14.8983
1.11738 116.476 19.4582
-13.8328 103.633 12.3764
10.2102 78.9117 -11.5377
5.65454 76.2218 -12.7384
-3.32743 114.276 18.7294
20.023 105.627 7.50388
19.4107 107.864 9.37242
10.8422 116.152 17.5095
-7.00749 111.799 17.7254
-19.9735 87.7723 1.55377
13.0741 115.512 16.7661
19.2356 93.7075 -1.44821
4.86435 116.653 19.26
-17.9574 93.8927 5.96408
7.94168 77.513 -11.848
19.3535 93.8797 -1.26156
18.6146 109.214 10.8724
2.71677 116.258 19.5035
18.0792 91.0796 -3.09324
-19.7726 81.4661 -3.20633
-14.4007 100.093 10.5264
-14.1185 101.014 11.2031
16.1533 86.0255 -6.37238
-17.2563 94.9014 7.08365
-6.05307 112.032 18.2726
-7.95897 109.179 16.4204
0.635513 115.399 19.6919
8.76503 115.537 18.2552
-18.6861 78.7135 -4.95558
-19.8337 80.9341 -2.99692
20.2439 103.94 7.22825
-20.1649 85.5597 0.842638
15.599 84.6257 -6.82022
-18.5495 78.3928 -4.99633
16.407 112.131 14.5313
-12.3888 103.063 13.0721
20.9728 97.0172 1.85946
20.073 94.2132 -0.139605
8.29413 76.5017 -11.661
5.49359 115.659 19.4541
-9.05552 106.463 15.1302
-5.51517 111.474 18.3777
20.1518 103.467 7.15515
13.3292 80.2193 -9.5868
16.1467 112.027 14.7047
19.9473 104.341 7.9828
17.6695 87.9922 -4.31176
-13.864 98.2938 9.91227
19.3642 92.1144 -1.34795
-7.53528 108.131 16.4144
-7.64878 107.891 16.261
15.8014 84.5365 -6.51489
-12.0434 103.062 13.3753
-5.25074 111.186 18.4448
-20.0779 85.4348 1.26611
-5.12183 111.31 18.5658
12.4336 78.9031 -10.1271
-19.9385 80.3189 -2.63391
-5.01971 111.215 18.5972
19.7185 92.509 -0.77581
8.61933 114.544 18.6053
-19.6984 87.1273 2.834
4.07336 114.856 19.8569
-18.0742 92.1563 6.46857
18.1259 88.6559 -3.28293
21.1582 96.9024 2.57174
20.4655 101.12 6.0052
13.8518 80.3564 -8.80273
17.3006 109.223 13.084
-5.57327 109.639 17.9314
20.1378 102.868 7.66328
-18.374 76.5762 -5.29844
19.256 90.8005 -1.51372
-11.8271 101.215 12.6714
-13.054 98.4732 10.7901
-19.2822 89.0665 4.66892
13.7814 112.685 16.6713
-18.7355 77.142 -4.72024
17.4954 86.1599 -4.72154
16.2288 110.856 14.8039
-4.60111 110.587 18.6699
-7.16185 107.08 16.452
19.2949 106.495 10.8513
-18.8122 77.1463 -4.6105
-15.2451 93.8124 7.71865
-18.7779 76.9828 -4.70264
15.7766 83.1137 -6.6437
20.1861 102.876 7.93575
-8.75489 105.287 15.4579
-19.7716 85.665 2.34546
18.1092 107.103 11.7244
-7.03706 106.951 16.5343
18.3153 88.3194 -2.8607
12.705 77.8157 -9.93579
13.8241 112.15 16.6649
18.8148 89.402 -1.99864
15.283 110.928 15.491
-7.4595 106.205 16.2645
13.9301 79.679 -8.60374
10.0677 113.477 18.5384
-18.9666 76.6125 -4.53446
-12.0152 98.7311 11.3925
12.1599 76.5179 -10.6463
17.7373 107.011 12.1027
13.2105 112.228 17.083
16.0557 82.6621 -6.54058
-13.9125 94.7383 8.73236
-8.73004 104.782 15.5656
5.2269 113.878 20.0039
9.93986 113.284 18.6234
16.4436 107.969 13.3447
4.16497 113.373 20.0109
-12.9703 96.1226 9.90463
-9.73396 103.64 15.1555
-18.4746 90.0113 6.22659
18.3574 106.224 11.8222
-12.8474 95.9273 9.90978
-2.31811 111.631 20.1473
0.390369 112.133 20.0136
7.68544 113.193 19.44
-19.7286 84.5654 2.45173
3.8116 112.891 20.0178
13.0405 111.393 17.0586
20.2236 102.595 8.84225
15.3757 108.628 14.4961
13.1764 111.18 16.9479
0.745008 111.989 20.0112
18.6601 87.8825 -2.11239
5.54078 112.919 20.1049
-19.0439 87.2619 4.90216
17.0541 83.0331 -5.41465
6.48109 112.889 19.9823
-3.67771 109.192 19.0798
17.4413 83.9345 -4.72059
18.3719 86.8803 -2.57952
-3.79335 108.981 19.0197
-19.0011 87.2288 5.01575
5.95186 112.757 20.0845
-7.7569 104.327 16.3104
15.7654 106.744 13.6384
-10.9976 98.0948 12.1612
17.8603 84.6374 -3.95343
20.1836 102.284 9.37421
21.3276 98.5531 6.29936
21.1485 98.9045 6.63889
13.8482 76.6687 -9.24928
-1.37622 110.728 20.3199
-20.2466 79.2722 -0.520962
-4.94642 107.106 18.3058
19.74 102.921 10.2352
20.4034 90.5794 0.492659
-8.1519 103.42 16.1479
17.561 105.497 12.7658
13.132 109.033 16.3888
13.7659 108.548 15.9263
-4.13227 107.849 18.9003
7.68693 111.924 19.8187
-14.1528 91.5201 8.43701
21.4705 94.3822 3.74047
-18.6882 86.6383 5.53008
-13.4183 92.3329 8.95935
19.5052 102.186 10.3933
21.7361 95.8116 4.99047
-9.14329 101.029 15.1257
5.83719 111.423 20.3251
-16.5785 89.5353 7.64558
21.5144 97.2875 6.31477
13.805 107.808 16.0605
-18.4403 86.4778 5.72004
15.5833 77.9163 -7.52004
20.3651 89.3847 0.521439
19.8652 100.231 9.1018
15.0847 106.121 14.636
6.54734 111.287 20.3379
14.7623 106.491 15.0086
4.82771 111.082 20.5426
13.8636 107.511 16.0755
2.65231 110.931 20.9898
-1.45073 109.436 20.6276
-18.1891 85.9537 5.78409
-19.4262 80.4931 1.80329
-10.9887 94.7422 11.2937
21.7167 93.7067 4.11518
-18.1913 85.7906 5.72996
21.4922 96.6857 6.54176
-3.21971 107.115 19.521
-2.61103 107.656 19.8768
-0.269528 109.522 20.877
-15.5288 89.4244 8.22548
-12.0821 92.3575 9.94413
-6.91011 102.915 17.183
4.18737 110.506 20.9622
0.640401 109.659 21.0403
7.67131 110.134 20.1309
19.6954 99.1045 9.30921
0.00732895 109.111 21.043
15.6602 76.8667 -7.16656
21.5569 95.4501 6.19052
1.73317 109.796 21.2769
3.0017 110.172 21.3327
18.676 83.5113 -2.50725
-12.7413 91.048 9.5187
-5.96459 102.928 17.6604
-19.9531 78.0708 1.00078
-2.82405 105.557 19.167
-0.150209 108.265 20.8067
-20.0348 75.3203 -1.02208
-11.616 91.8348 10.3085
-20.0426 78.3787 1.45549
17.6764 102.897 13.2409
3.32955 109.563 21.2998
8.12717 108.879 19.8987
22.1299 92.6855 4.53868
-15.6918 88.4274 8.59236
-17.3976 84.9997 6.31638
18.8199 82.7953 -2.44398
12.225 106.809 17.5868
-2.90171 104.665 18.9351
20.7392 97.1927 8.50405
-0.335544 107.387 20.5719
3.28411 109.253 21.3949
16.4145 103.209 14.159
6.68473 108.514 20.2009
-9.47023 96.381 13.9461
-7.22715 100.296 16.5693
-0.600758 106.773 20.3575
20.8403 88.2426 1.73749
19.6788 85.0391 -0.533458
10.0934 107.825 19.1514
17.6926 102.224 13.3438
20.6087 87.5032 1.36212
-4.03867 103.058 18.3711
-19.1612 79.4867 2.99184
21.0204 95.3103 7.57231
20.6535 87.3237 1.49497
-9.99691 93.4765 12.312
15.0647 103.46 15.2799
-16.4159 86.0267 7.85425
-19.8111 77.1372 1.57863
17.8279 78.7298 -4.47287
15.3324 103.06 15.0182
21.4625 92.7839 5.81667
19.5858 98.2198 10.4739
-17.9878 82.2157 5.45397
19.7877 82.8568 -1.38881
7.34679 106.87 19.7794
20.0168 97.474 10.027
-19.7074 77.9223 2.52105
-14.6703 88.182 9.54924
21.1796 88.0972 2.51733
-0.27699 105.135 20.0897
-10.0773 92.7686 12.3542
9.19653 106.467 19.2939
-16.1229 85.5566 7.99891
15.8949 102.095 14.6876
-16.6995 84.8203 7.56726
20.8363 94.7106 8.07487
-6.69301 98.933 16.7529
19.0273 80.684 -2.39561
20.3451 83.7386 -0.263907
-10.3848 91.9913 12.1774
1.39267 106.332 21.1279
-18.2396 81.1394 5.29707
-14.6734 87.8 9.81649
18.2276 99.6503 12.6912
7.61952 105.776 19.6307
20.507 83.7627 -0.0411248
14.7411 102.315 15.5706
12.4534 104.498 17.7203
19.2232 80.7885 -2.0962
8.08202 105.411 19.4246
-11.0356 90.0325 11.1688
19.7425 96.0843 9.95736
-18.2643 80.7451 5.52037
-8.49692 95.2786 15.0132
-2.52138 101.264 18.5226
-19.0589 78.5308 4.02109
20.985 84.5684 0.94835
-2.07925 101.519 18.675
18.8377 78.6937 -3.20802
-6.97588 96.8596 16.0196
21.1109 91.8194 6.63341
18.4129 98.4615 12.4188
-18.7017 79.5247 4.97403
-8.00641 95.5994 15.4463
11.1645 104.001 18.2818
20.9901 83.5223 0.482801
-4.84556 98.7964 17.4594
20.8514 92.2212 7.36496
-3.1489 99.9945 18.1486
-17.5194 81.6835 6.69243
0.761347 104.449 20.9554
3.88417 106.309 21.8701
-9.94924 91.1983 12.7972
22.1527 89.6282 5.32706
19.8783 80.6364 -1.19974
18.6449 97.3422 12.0989
13.7135 101.65 16.4415
20.5943 81.8916 -0.0284936
20.0452 79.1367 -2.05634
20.544 81.739 -0.0932814
-12.4581 87.9634 11.2152
7.58217 103.898 19.7547
22.2528 86.1857 3.08155
-16.1745 83.334 8.3521
-9.76716 90.8078 13.0068
10.9913 102.645 18.2093
-12.6658 87.2783 10.864
-8.44862 93.03 14.5379
22.3051 88.6164 5.17349
-15.0902 84.5097 9.39921
-8.14534 93.508 15.1579
20.0506 93.5874 9.73564
-8.27611 93.065 14.8573
17.2673 97.5538 13.4349
20.3366 78.0359 -2.33022
1.14162 103.593 21.4431
-11.5436 88.0132 11.8577
22.674 87.0247 4.44368
-16.7049 81.052 7.45555
7.29794 103.244 20.123
-12.7638 86.1768 10.7335
19.1685 94.6808 11.149
5.90382 104.249 21.2213
20.7982 80.5988 -0.0400278
-7.41126 93.8865 15.8429
-9.59806 89.8067 13.0859
-9.14373 90.8374 13.8428
22.3059 84.1943 2.56733
1.1121 102.689 21.1669
-2.90673 98.4418 18.6479
17.5175 96.8264 13.4251
9.05646 101.812 18.9726
-3.12328 98.1317 18.5
8.54436 102.119 19.3518
18.8998 94.5829 11.547
18.8315 94.5761 11.6239
-6.43052 94.4295 16.6168
-17.4796 76.6407 4.90577
10.1825 100.621 18.2578
-3.56924 97.1905 18.2692
-2.55156 98.3915 19.022
10.3738 100.426 18.1315
12.1979 99.3195 16.9302
15.1403 97.6476 15.1155
3.97822 103.956 22.2658
2.0984 102.934 21.8383
-6.75448 93.5079 16.2832
-3.59143 96.8792 18.3202
7.43811 102.319 20.4218
18.0392 94.8718 12.559
-10.9224 86.9718 12.0886
19.9733 91.5656 9.75069
-3.33948 96.9997 18.5474
5.57792 103.195 21.6696
-14.5717 83.5812 10.3414
1.64358 101.122 20.9292
4.59688 103.345 22.0925
16.4865 96.5346 14.4797
21.6387 79.6396 0.369165
21.2043 88.0724 7.06554
-3.59361 96.412 18.4163
17.5531 94.9464 13.1743
16.755 96.0759 14.217
-10.8319 85.3702 11.2479
0.0440956 99.8913 20.5815
-4.12792 95.545 18.0514
21.0295 88.1111 7.35494
16.7087 95.8644 14.2584
22.4852 84.4056 4.21836
20.0419 90.6384 9.63779
-6.48451 92.6322 16.3622
22.4177 82.2023 2.60688
-5.51513 93.8419 17.1559
-9.82922 87.0414 12.6984
-1.53385 97.5894 19.3502
-15.9754 80.1596 8.61056
15.1676 96.7142 15.587
18.9848 91.9275 11.1424
3.2575 102.383 22.4013
20.4299 88.9341 8.61543
0.081666 97.9082 19.6152
-0.199793 97.5451 19.3873
-5.96577 92.601 16.6886
8.00416 100.999 20.5248
-1.25938 96.6912 18.9805
-4.82228 94.0142 17.6599
-7.07347 90.796 15.6352
-0.741171 96.5404 18.8854
18.3398 92.6423 12.139
-6.90615 90.9315 15.7852
-15.2017 81.1583 9.77459
15.3721 96.1858 15.5799
0.562697 97.7256 19.7401
8.08986 100.658 20.5626
21.1447 86.8167 7.25021
22.2948 79.8484 1.62547
-8.43369 88.5794 14.4448
-5.17449 92.8743 17.2322
20.9515 86.9564 7.57382
10.7917 98.6656 18.815
-7.97459 87.639 14.0761
18.6376 90.5708 11.1857
20.3128 87.6919 8.64823
12.4928 97.4897 17.8396
22.5276 80.1513 2.35957
-11.0608 83.1811 11.3831
-3.74589 93.0588 17.6867
-6.59232 87.5306 13.9947
18.2931 90.8195 11.7165
-1.18732 94.6056 18.4833
16.9348 92.8347 13.6329
-6.56465 86.9499 13.6857
-3.72749 92.4097 17.4112
3.4085 100.787 22.5894
-9.61817 83.5957 11.7545
13.9845 95.7324 16.6686
-14.5346 78.9019 9.09621
22.8776 82.4761 4.69299
-5.76425 87.2883 14.0816
21.9713 84.2907 6.50161
21.0898 85.1757 7.40882
22.2581 83.6471 6.01294
8.54142 98.9088 20.6291
-14.1142 79.2624 9.72076
15.8095 93.3221 14.8768
6.94549 99.5566 21.5295
-0.493485 94.7331 19.222
2.39026 97.8648 21.135
-1.77924 91.861 17.2829
-14.1707 80.3825 10.7723
-4.51308 87.4861 14.5332
22.748 79.8936 3.3163
15.6252 92.8544 14.8961
-2.56304 90.7901 16.8502
7.57865 98.9502 21.2459
22.032 83.4016 6.29819
8.59272 98.3568 20.6093
22.3276 78.4277 2.38854
20.7008 85.2959 8.07156
-6.96804 84.1392 12.6688
-5.26348 86.3161 14.0491
22.6869 79.4766 3.29041
-8.36258 82.976 12.1485
11.3673 96.1766 18.6573
-2.71227 90.0385 16.6222
20.7128 84.9392 8.12125
-13.4808 80.5229 11.3636
4.39428 99.2058 22.5429
0.289824 94.7339 19.8551
-12.6643 80.5602 11.4306
9.44202 97.1044 20.0803
9.038 97.3289 20.3413
-3.26661 88.37 15.8202
-8.84539 82.1946 12.1289
-5.00325 85.3335 13.8548
-2.87361 88.5135 16.0967
3.53743 98.5509 22.6907
14.1067 93.3255 16.56
8.76151 97.0522 20.5149
19.5202 86.4579 10.1804
3.36583 98.2969 22.5987
11.007 95.5221 18.9677
22.6737 79.1254 3.9346
-2.35959 88.7283 16.3254
1.07765 94.7108 20.3787
12.4978 94.4422 17.9765
17.9448 88.0681 11.9433
12.8126 94.1889 17.7465
-10.1211 80.8308 11.8046
8.47928 96.7861 20.6525
18.0961 87.8639 11.8161
14.6035 91.6186 15.481
-8.58856 81.6898 12.2694
20.859 83.7656 8.19343
21.3073 82.2953 6.9592
22.8702 80.0554 4.91063
8.00101 96.8012 20.9013
-2.42718 86.1048 14.5979
-1.61351 88.0631 16.0314
6.7464 97.304 21.6173
14.4971 91.4219 15.5223
-1.6238 87.8377 15.8852
2.21227 95.4871 21.1328
7.69404 96.6958 21.0435
14.4989 91.3222 15.5254
-11.6103 79.795 11.6295
-3.43484 83.9351 13.3467
-9.71183 81.0372 12.3306
-10.1236 80.4721 11.9918
18.2096 87.1435 11.694
20.5569 83.9482 8.74697
7.91685 96.3119 20.8644
10.1567 95.1624 19.544
0.343252 93.5487 20.2246
6.11531 97.4045 22.1094
-1.10797 87.7291 16.0616
-9.78846 80.1735 11.9316
-10.4558 79.6662 11.761
20.0743 83.7871 9.2384
-8.14649 80.5006 12.3378
18.9947 85.0045 10.5867
12.2705 92.8792 18.1195
-8.38849 79.8426 11.9953
14.4052 90.4519 15.8422
-8.66594 79.6007 11.8869
-3.31233 82.2622 13.0493
-5.42887 81.2128 12.6677
-0.458244 89.9144 18.549
13.5949 90.8089 16.6579
20.708 79.5292 6.51336
10.4349 93.2288 19.2107
7.44883 94.8252 21.1133
-3.76478 80.9812 12.5879
-1.69364 84.1494 14.6718
-5.44654 80.3444 12.4665
18.9744 83.3136 10.0998
3.47934 95.3451 22.5383
1.41545 92.8834 21.0527
16.1263 86.6584 13.5378
6.90264 94.7863 21.8346
-1.83756 82.8741 14.3249
15.9068 86.623 13.7952
16.7248 85.5836 12.8527
-0.360196 88.9309 18.89
8.44738 93.0944 20.4897
18.4992 83.0499 10.7037
5.20932 95.0997 22.7545
2.14164 92.6529 21.5052
1.45188 91.812 21.0063
-2.8363 80.9487 13.4051
-2.47651 80.6444 13.2481
1.7144 91.7534 21.1313
1.54545 91.3359 20.9446
19.8158 79.8963 8.53853
11.075 90.71 18.6988
10.4479 90.6886 18.9388
8.23267 92.6571 20.9918
-2.53511 80.2403 13.5167
17.9182 82.7447 11.5049
18.7293 81.7338 10.6448
19.4274 79.0603 8.50569
10.7605 89.9309 18.7134
-5.14152 80.441 14.4423
18.8882 81.2678 10.4917
8.34972 92.0917 20.9935
3.46739 91.4387 21.4376
17.9812 82.2441 11.52
13.7601 87.8431 16.7693
12.707 88.7978 17.748
4.03925 91.7234 21.7469
4.42573 92.4263 22.2466
0.280545 88.3611 19.8906
4.26102 91.6932 21.812
-1.44668 83.118 16.3363
12.3685 88.4445 17.8917
-1.58397 80.3247 14.4224
11.2044 88.6205 18.4537
3.47889 89.7264 20.9028
2.23328 88.3404 20.1065
-0.546999 86.0232 18.9633
15.123 84.9209 15.1034
-1.39044 82.5282 16.5032
18.296 80.8291 11.4049
-1.30144 81.6003 15.9205
2.11742 86.9053 19.5136
4.77314 90.5176 21.8688
14.9305 84.5077 15.2321
9.3722 89.6451 20.5286
15.1825 83.8331 14.8729
18.2064 80.0608 11.4764
16.1213 82.4193 13.8223
-1.33782 82.7713 17.5283
3.9078 88.3447 21.1739
-0.668622 83.3168 18.3156
17.4895 80.2493 12.4732
0.887417 84.4433 18.9931
5.67105 90.2276 22.5756
6.13798 90.7079 22.8858
15.8723 81.5792 14.1811
13.1359 83.9322 16.9766
4.722 88.2365 22.0501
17.1908 79.3656 12.7222
1.24636 81.0583 17.2343
-1.55758 79.4699 16.6613
-0.962878 79.5106 16.8844
17.2652 78.2226 12.4069
10.8047 85.6003 19.4448
14.3859 81.5614 15.7493
9.10382 87.2699 21.3474
2.42118 81.3166 18.0861
5.08272 86.8942 22.0889
12.8967 82.4154 17.1232
14.8612 80.5415 15.3531
14.4314 80.9229 15.7648
8.98779 86.4001 21.4228
9.19801 85.9467 21.0713
6.24399 87.1806 22.6203
5.02522 85.6441 21.6761
5.819 86.6264 22.4825
7.92146 86.9114 22.4617
10.0776 84.2829 20.1853
16.0289 78.0419 14.2429
4.62978 83.5911 20.8067
3.46454 81.1622 19.316
15.7496 77.9813 14.4902
13.9335 79.643 16.1852
13.4149 80.1664 16.6974
3.65181 81.4643 19.613
5.29276 84.5071 21.7064
7.74917 86.2969 22.7105
13.8224 79.4912 16.2828
3.44774 80.7722 19.5013
11.0547 82.5046 19.6053
11.4889 81.9962 19.2285
5.86233 83.8536 22.0723
9.67324 83.3146 21.3782
4.29686 80.6023 20.3186
12.9333 78.8419 17.2635
11.0146 81.6504 20.1704
9.74802 82.8903 21.4915
11.3455 81.1766 19.8644
10.6546 81.8493 20.6454
7.55964 83.436 22.5518
10.5358 81.7369 20.8819
8.69993 83.0703 22.4287
5.55864 80.4728 21.0355
5.45068 79.706 20.7783
6.28334 80.2543 21.6615
10.4006 80.1736 21.3725
10.587 79.6666 21.0461
8.07656 80.5473 22.7405
6.71651 78.6904 21.9388
