ply
format ascii 1.0
comment Created by Open3D
element vertex 1640
property double x
property double y
property double z
end_header
-16.2713 131.885 -6.2354
13.3658 93.3708 15.3885
-16.9601 126.072 3.15805
-8.91118 112.539 13.4882
13.4988 93.3999 15.2626
20.8485 93.3965 6.72287
-23.4645 132.899 0.848453
19.3742 92.479 9.80909
12.0424 112.436 -10.6593
-22.4574 134.262 -2.24918
20.5955 93.2643 7.30253
-10.0563 128.668 -8.53108
21.6036 95.6774 2.67601
-12.0335 130.625 -9.02155
-18.2212 131.025 -2.39316
-17.3818 124.263 6.484
-12.4217 131.563 -9.77403
-0.61468 102.585 18.6558
-3.12222 125.381 -11.568
-23.1508 129.676 5.5399
-8.8695 112.787 13.5259
16.4488 103.85 -2.86079
17.4375 102.502 -2.03474
-3.54534 125.813 -11.5086
15.2523 107.79 -7.11076
7.28451 118.405 -13.2341
10.984 94.1676 17.7441
16.9459 92.6456 13.0603
-23.3584 134.543 -0.99273
17.9016 92.3903 12.3555
5.4317 120.272 -13.6784
3.79846 97.2726 21.716
-14.1422 132.186 -8.16323
-20.2919 134.16 -3.86495
-18.1602 131.485 -2.42676
6.67499 94.8549 21.9879
-0.0884833 102.451 18.8345
-23.4319 133.834 0.386951
11.4155 94.5479 16.9986
0.343441 102.048 19.0009
10.373 115.389 -12.085
9.50723 94.137 19.862
10.8558 94.3977 17.9132
13.3417 94.1954 15.3412
15.3749 108.559 -7.91323
-14.191 119.693 10.2989
16.1504 93.33 13.3859
5.32488 95.8859 22.2804
18.3671 101.544 -1.07785
-16.1209 132.329 -5.7121
17.084 103.212 -1.97052
-16.504 132.3 -5.19626
15.4065 108.787 -8.1031
5.75254 120.274 -13.52
-16.8501 125.2 5.65765
19.3459 93.112 10.2286
12.1976 113.458 -11.0278
-19.6635 127.496 5.63423
-17.1692 124.923 6.49358
-17.545 132.179 -3.61094
1.45306 124.217 -14.0906
15.843 105.945 -4.21211
8.82976 117.551 -12.9312
-12.4758 132.346 -9.65638
19.7236 100.13 -0.236626
10.4077 94.6954 18.5431
-15.947 125.723 4.15232
-1.7302 125.501 -12.0507
20.5206 98.6787 1.13601
22.0066 95.1329 4.58781
3.26291 98.4899 21.573
21.8634 94.8594 5.25953
-25.4959 132.107 6.20404
-21.595 135.195 -2.81202
-14.1854 132.313 -7.22681
21.8125 95.5544 4.38724
14.6367 94.5017 14.2909
12.7382 113.221 -10.6693
20.4851 98.9521 1.08904
19.2723 93.4772 10.4808
-13.3798 119.436 10.7895
17.3236 93.5549 12.7396
-10.5369 130.521 -8.61842
-19.3587 127.791 5.66158
-18.7598 127.219 5.80604
-23.4784 133.976 1.4868
-17.7321 132.595 -3.14813
-18.0116 127.073 5.24873
-15.2401 126.203 3.29801
15.3069 108.191 -5.93594
7.85448 119.207 -13.2756
-7.61456 129.231 -9.80097
10.0794 116.505 -11.8607
-18.7365 127.577 5.64842
-18.6764 127.541 5.6513
20.4886 94.4819 8.20155
13.8836 95.1652 14.9017
-9.7753 115.013 13.5674
-22.7255 130.771 5.73807
20.1442 99.9909 0.653372
4.79828 97.6589 22.0126
16.1151 106.175 -3.51814
-12.5535 118.713 11.6258
-1.21808 126.149 -12.3802
7.32355 96.0646 21.4756
0.597523 102.691 19.6636
-23.3755 135.377 0.00636137
-5.41298 127.972 -10.106
15.2752 109.391 -7.145
-18.3536 127.656 5.42944
4.41576 122.549 -13.6393
7.98991 119.385 -13.1579
4.36675 122.616 -13.6244
0.78574 125.472 -13.6081
-7.43068 112.443 14.962
-15.0487 122.062 9.83675
-23.6017 134.486 1.74983
21.7578 95.9312 5.07897
-12.4145 133.392 -9.63024
9.52495 117.652 -12.2081
10.3551 96.0057 18.3541
13.7515 112.628 -9.78099
-16.9627 127.858 3.82688
1.28429 101.86 20.4361
1.31696 125.402 -13.8292
4.08055 123.146 -13.7325
-18.8794 128.782 4.82584
21.0375 95.2649 7.24657
-7.07081 112.317 15.1607
15.2812 109.834 -7.21953
-19.0656 134.628 -3.27495
21.7011 95.7241 5.89539
16.9234 94.8519 12.7768
-14.2344 126.574 2.90668
14.3707 95.7292 14.4965
-5.64726 128.695 -10.1618
-11.07 116.889 13.3476
6.88382 120.739 -13.1353
-17.3403 128.07 4.39522
0.52377 126.125 -13.5078
-5.36907 110.747 15.7461
20.3626 95.1732 8.46507
-10.824 132.358 -9.28369
-14.2832 127.189 2.28678
-22.5018 131.272 5.93304
-17.5336 128.719 3.87165
-18.2563 128.605 4.89346
13.7162 96.1135 15.032
6.63625 97.0769 21.89
-10.8466 116.867 13.5155
-5.0778 128.409 -9.97726
7.94798 120.092 -13.014
9.36593 118.373 -12.1532
4.59386 98.8564 21.8099
-3.57555 128.084 -11.1594
21.2609 95.833 6.93322
6.84333 97.1615 21.7828
-15.5491 125.276 6.95614
-8.5234 131.199 -9.83961
15.2455 110.168 -6.86282
12.8671 114.829 -10.8209
16.701 95.6314 12.7929
7.32098 120.926 -12.9646
18.4666 95.0674 11.7012
17.0604 105.552 -1.8782
12.618 115.342 -10.9314
18.6471 95.1385 11.5157
-15.1446 123.45 9.68361
-22.8483 136.492 -0.282466
-2.41317 108.77 16.3029
-6.61391 112.618 15.6304
-9.1075 115.774 13.9825
-15.1083 125.286 7.14951
-5.01318 111.035 16.146
-19.2651 129.973 5.20761
-17.19 134.077 -3.03884
-14.2312 128.189 2.16836
20.3659 100.209 2.65354
17.5969 105.098 -1.23545
-14.0149 133.467 -5.71079
16.743 106.433 -2.16564
3.58465 124.8 -13.5648
-23.6093 135.937 1.92316
-1.05166 128.169 -13.023
15.5364 110.974 -7.3052
6.35936 98.2765 21.8577
17.8736 104.721 -0.896382
-16.8139 133.917 -2.92534
-1.93174 128.465 -12.2659
-15.4561 133.699 -4.13797
-14.3765 133.653 -5.26715
-11.0167 134.14 -9.86532
-5.78075 112.145 16.0724
-4.78919 129.187 -9.81368
1.83266 126.561 -13.6612
-18.9349 135.449 -2.39561
-14.6459 123.797 9.68251
-10.0842 117.256 13.8952
11.4702 97.92 16.944
10.4576 98.2647 17.6717
-5.68059 112.21 16.1789
-9.98245 117.17 13.985
-11.7074 134.781 -9.53916
3.8286 100.837 21.8132
9.0973 119.854 -11.8979
15.3282 111.198 -6.40145
-9.19455 116.626 14.2691
-17.2259 134.875 -2.9235
-23.6368 136.201 2.66007
-23.0586 136.711 1.38153
16.3555 108.285 -3.12693
-13.374 134.279 -6.27159
-4.5936 129.629 -9.70838
-12.4414 122.045 10.4863
-13.204 123.037 9.96661
11.3808 98.5526 17.0031
-24.1802 134.673 5.8654
-17.1409 134.757 -2.41132
-4.04618 111.04 16.877
-11.5321 120.614 11.7353
8.07116 99.0985 20.2666
-10.6103 134.717 -9.78343
-1.49307 129.285 -12.4758
0.6731 105.126 20.1616
-8.36635 116.162 14.6345
-6.00308 113.376 16.0142
-22.5877 137.371 0.440712
0.143634 106.286 19.2513
4.41525 101.097 21.8566
-15.0903 130.294 2.08981
-20.3129 131.677 6.17845
9.67321 99.0788 18.7782
-8.37838 116.332 14.6953
8.37686 121.61 -12.4744
-19.5376 131.214 6.04876
15.583 112.169 -7.02462
-3.11276 110.607 17.0456
14.8322 97.8749 14.7359
-23.9678 135.147 5.69695
-5.20025 112.636 16.6263
-22.1622 137.529 0.168167
16.6624 97.8463 12.7533
18.6602 103.65 2.00151
-12.8431 135.298 -7.36881
-7.45312 132.433 -9.44285
-22.2549 137.637 0.277711
-12.4035 135.255 -7.72008
-21.8838 137.506 0.0630911
20.4603 99.9375 5.45513
-14.4919 126.772 7.19741
19.1215 97.3215 11.0046
-15.4629 135.441 -4.20334
-16.6544 135.375 -2.58936
6.5595 100.456 21.2606
-6.81912 132.128 -9.17083
1.24252 128.43 -13.1569
6.60379 100.587 21.1925
-8.87748 134.207 -9.70969
-9.72086 119.097 13.2664
9.1408 121.265 -11.8385
16.7499 98.3152 12.7281
-14.3697 127.349 6.73325
20.1159 97.824 9.56054
14.1896 115.684 -9.50331
-19.7512 132.493 5.7065
8.76777 121.957 -12.1402
9.88373 100.244 18.2168
-24.0083 135.669 6.18192
18.2593 98.0607 11.8184
20.9182 99.7463 6.33227
15.4437 114.366 -8.56655
-13.7707 136.5 -6.76656
-6.48982 115.372 15.5241
16.4138 110.372 -3.80143
-12.6145 124.135 9.98779
14.6328 115.618 -9.22656
-5.07234 131.359 -9.17169
-2.12767 130.456 -11.279
-14.3531 127.325 7.54401
-4.87235 113.68 16.3848
15.6395 113.444 -7.12503
-7.41525 116.701 14.9867
-12.292 136.429 -8.01314
0.183542 108.201 18.5611
-15.7918 136.497 -4.01905
-12.7278 136.582 -7.6837
17.6645 107.287 -0.429417
-9.34622 135.345 -9.78892
9.69412 121.294 -11.4683
20.1505 99.1404 8.60681
-15.7819 131.801 2.96625
-14.0893 130.615 2.7384
18.9797 104.519 2.32043
-2.41467 130.655 -10.8078
-2.78004 130.746 -10.498
-15.4256 131.767 2.83939
19.9445 98.5471 10.0909
-5.39964 131.997 -9.05425
-20.5997 133.615 6.30977
16.7178 99.2649 12.8696
-6.35319 132.598 -8.75989
-13.989 136.907 -6.14182
-0.489842 109.606 17.8948
-16.7135 136.513 -2.35313
14.584 116.502 -9.6559
-13.2128 125.577 9.50636
-12.9933 129.088 4.2195
-7.5156 117.664 14.4865
-21.5057 133.85 7.24922
-14.5963 136.789 -4.9864
0.773559 107.752 19.4078
-19.2213 138.144 -1.52588
-19.2594 138.187 -1.46626
18.9991 104.188 3.54383
19.0814 104.963 2.33433
0.790453 129.91 -12.6319
7.17818 101.977 20.6147
15.1981 115.894 -8.97079
-18.458 137.965 -1.91191
-12.7568 128.648 5.05354
-14.6003 131.83 2.57266
-4.56589 114.377 16.2981
-13.8003 126.834 8.91988
20.8598 100.334 7.14362
-12.3032 136.926 -7.49801
-2.30622 111.324 18.1342
-3.54015 131.675 -10.0185
-16.8912 136.989 -2.17674
-18.2881 137.94 -1.89527
1.55612 106.53 20.7255
-2.90809 112.265 17.7308
18.7713 99.4338 11.199
-18.0917 133.47 4.64684
19.1768 99.3733 10.8871
14.2398 100.018 15.7572
2.86268 128.478 -12.3866
-12.2221 137.074 -7.31774
5.63292 103.006 21.513
17.4298 109.046 -0.94291
-9.70305 136.517 -9.23558
3.97051 104.332 21.7089
1.33494 129.908 -12.3993
6.34544 125.083 -11.1397
6.32998 102.935 21.1494
16.3893 112.789 -4.88104
4.73177 127.141 -12.0744
20.5694 101.265 7.15808
-19.0987 134.047 5.70152
-19.8923 134.438 6.06884
18.2142 107.745 0.620535
16.0129 114.955 -7.2889
16.8895 111.99 -3.96766
-12.5432 129.343 5.07096
-11.944 125.644 9.80923
-1.64373 131.896 -11.2483
-11.4172 125.081 10.1126
19.8423 102.386 6.75326
-2.13419 132.068 -10.8033
-19.3271 134.258 6.0293
8.62932 102.901 19.2506
-10.9559 137.336 -7.98904
-12.6707 128.958 6.25859
-12.1388 137.465 -6.7368
18.4082 107.717 1.08776
2.7802 129.177 -11.9007
16.0303 115.798 -7.78302
-10.5617 137.424 -8.28917
14.9393 118.38 -10.2343
8.96613 103.116 18.9614
-5.41427 117.221 15.201
-19.8837 139.426 -0.22886
-6.37893 118.577 14.4353
16.0768 115.334 -6.93232
-6.43971 134.505 -8.53827
-10.3581 137.536 -8.33233
20.0859 102.49 7.31062
17.787 109.697 -0.466927
10.4776 122.555 -10.6435
8.31617 124.743 -11.3092
10.4172 122.641 -10.6534
13.4068 101.955 16.0033
-6.59927 119.199 14.2027
20.6609 101.186 8.68753
-22.7717 137.629 6.21212
-10.3132 137.611 -8.25862
-10.1298 137.576 -8.40922
-12.0416 130.094 4.73453
13.3494 102.055 16.0128
0.553219 110.143 19.1595
-7.29666 120.131 13.7779
-3.84573 133.27 -9.35703
9.33797 103.489 18.663
-10.1856 137.677 -8.29229
-2.24442 113.474 17.7107
-7.70606 120.704 13.5779
4.07683 105.788 21.6024
12.9176 102.337 16.3483
10.7195 122.839 -10.8711
-1.37215 112.674 17.9961
-15.9626 138.969 -3.26253
17.6068 110.874 -1.41097
-5.7131 134.294 -8.31808
17.0679 113.228 -4.14266
-8.97391 122.311 12.9883
19.9402 103.726 6.39989
7.8332 104.03 20.0523
-2.37492 113.938 17.618
-0.632919 132.722 -11.6568
2.00651 130.718 -11.7666
9.72682 123.966 -10.9238
-6.21509 119.407 14.2883
8.98537 124.841 -11.2976
-5.86026 119.007 14.512
9.85455 103.879 18.2364
17.3816 112.841 -3.55925
18.5197 108.529 1.43431
-13.4769 139.207 -5.93899
-6.08996 119.377 14.3428
20.7134 101.628 8.97259
-14.6252 139.656 -5.15194
18.5295 108.593 1.46417
-6.92499 136.034 -8.80709
-21.2433 139.481 2.88791
-7.82368 121.559 13.3503
17.9767 110.404 -0.419548
-9.94959 124.933 10.959
-21.7308 139.154 4.0027
-1.50596 113.496 17.8506
5.53187 127.798 -11.1289
-11.9066 130.291 5.5422
18.029 101.806 12.1507
-5.82655 135.042 -8.3719
-3.21311 133.632 -9.34753
-20.308 135.919 7.26192
-19.1066 135.289 6.77983
-18.4856 135.041 6.45339
16.9923 101.822 13.5001
11.5975 123.314 -11.4951
-17.4847 134.588 6.05124
11.222 123.752 -11.5348
12.8294 122.524 -11.5687
-4.69002 118.197 15.1732
20.2076 101.983 9.81845
19.6496 102.101 10.3583
16.1456 115.842 -5.52288
17.9656 111.59 -1.03307
-7.25728 121.919 13.3678
7.2041 105.821 19.9754
-10.7654 126.825 10.3448
10.1923 125.411 -11.9864
-16.418 134.54 5.70868
2.61846 131.349 -11.802
14.4321 119.44 -8.19294
6.31979 106.129 20.6301
-8.95732 138.198 -8.24137
-8.38053 123.278 12.8351
4.03236 107.452 21.4418
-1.98789 133.883 -9.99589
6.1728 127.984 -10.8345
8.57689 126.78 -11.8578
4.98541 106.893 21.2841
-16.1033 139.591 -1.72959
9.58873 105.143 18.5008
7.93911 105.808 19.4799
-11.0932 128.768 8.3127
19.523 102.67 10.654
15.8414 116.153 -4.56802
-14.6349 134.147 4.75501
-9.22631 125.195 11.5383
18.5018 110.701 0.366302
-11.014 131.007 5.27275
12.516 104.289 16.8125
-5.8631 136.335 -8.41784
7.72108 127.538 -11.4146
15.0449 118.123 -6.23031
-18.5906 135.866 7.11251
2.01664 132.5 -11.9579
9.73666 105.6 18.2936
-21.0027 140.832 2.8182
16.8713 103.056 13.71
-18.742 136.004 7.25436
1.11496 111.252 20.176
-10.6247 129.172 7.79952
5.68405 107.15 20.9322
19.9913 107.057 4.51775
-10.7427 132.029 3.988
14.9401 118.765 -6.59998
-0.212417 113.729 18.4364
-10.6832 128.535 9.0927
9.98617 105.89 18.0409
12.1139 124.901 -12.0513
4.4248 108.141 21.3126
-21.1312 139.959 4.7688
7.75926 128.039 -11.419
-9.8641 126.919 10.7465
15.7045 116.727 -4.13728
-0.80098 115.051 17.697
9.66254 106.336 18.2029
13.0279 124.407 -12.0017
-3.94807 118.912 15.807
13.4727 124.106 -12.0025
-21.1987 138.686 7.14969
9.82757 127.213 -12.2633
-10.2651 130.961 5.67281
-11.4407 133.468 3.42743
12.0092 105.532 16.8302
2.81889 109.807 21.321
-1.24167 115.735 17.4256
6.95959 128.966 -11.3699
2.37206 132.947 -11.7503
-21.4031 139.225 6.80297
14.5314 120.117 -7.2047
-6.91701 123.177 13.3584
12.1985 105.588 16.7199
-20.8589 140.542 4.36982
20.4008 105.349 7.60024
12.1416 105.704 16.725
-21.4782 139.524 6.64346
0.737812 133.958 -11.0988
-13.2922 140.711 -4.59228
-10.1847 131.44 5.28893
11.8827 125.832 -12.1758
20.4328 105.902 6.87611
5.59809 130.257 -11.1316
19.3493 110.114 2.18681
-7.88591 124.715 12.6744
15.9191 116.77 -3.34764
-6.49311 123.048 13.6366
-19.7382 137.599 7.88597
1.25442 134.031 -11.3314
-0.845867 134.61 -9.71951
2.48118 110.849 21.0228
12.5937 125.523 -12.0928
-17.8131 141.743 -0.299288
-10.6106 139.844 -5.83916
3.06801 110.317 21.2811
13.9788 105.417 15.7178
14.2439 105.389 15.5337
-9.57396 128.886 9.11219
-13.0778 141.006 -4.44427
-2.30413 135.225 -8.54529
-18.5532 142.351 0.0563175
16.7498 115.881 -2.49123
5.22984 109.457 20.2986
-1.31806 116.81 17.2269
-9.62998 127.989 10.6942
-11.9236 140.754 -5.19604
10.827 127.557 -12.436
-7.71368 139.154 -7.62006
14.4243 123.294 -10.3058
8.55494 107.648 19.3492
-11.6377 135.156 2.92722
18.5865 113.742 -1.0417
-16.1351 136.513 6.25933
2.0113 134.393 -11.7546
6.73415 130.585 -11.693
14.4693 121.659 -7.68749
20.0136 106.312 8.19232
-1.00385 116.884 17.3423
17.2459 115.539 -1.92878
19.3147 111.41 1.70522
-20.5577 139.41 7.45569
13.3064 125.774 -12.0395
15.1947 119.347 -4.78541
-2.60483 119.374 15.9817
18.1615 104.892 12.8894
-3.54606 120.436 15.6218
6.63975 109.612 19.6366
-2.08385 118.925 16.3261
-4.7733 122.307 14.6111
8.15807 130.375 -12.1452
20.3398 107.802 6.56392
14.4696 106.415 15.4295
18.5098 105.278 12.4638
-20.0838 143.262 2.17397
0.375081 115.987 18.1062
-20.1168 139.656 7.52953
-20.1752 142.118 4.07574
-17.1873 137.508 7.36521
-9.31554 131.095 7.55159
19.6794 105.58 11.0024
20.3954 108.821 5.57432
19.4505 111.807 2.41578
-20.2425 141.604 5.26255
-10.0473 135.577 2.21557
-3.06982 136.634 -7.33145
8.43721 109.268 19.1395
-1.47616 119.129 16.3426
-13.5931 136.272 5.55982
19.3535 112.735 1.51016
-12.6608 136.23 4.69183
19.0834 113.501 0.844453
19.7121 107.012 9.60053
11.4933 128.728 -12.4238
-14.4962 143.416 -3.40795
19.6994 107.833 8.5808
-2.89186 121.313 15.2774
-7.97263 130.433 7.96187
14.3167 125.858 -11.3039
-8.08047 130.59 7.93924
-19.9645 142.777 4.06956
-10.3987 136.405 2.28272
19.4903 112.674 2.13072
2.98422 113.791 19.7378
-20.0508 142.134 5.30965
-19.9439 140.814 7.17557
-7.62496 131.121 6.97068
12.415 128.288 -12.2229
15.1214 107.288 15.2037
-0.24758 118.147 17.2993
-7.04628 127.702 11.3208
-0.888504 119.595 16.099
1.89781 115.844 18.3518
10.5246 129.953 -12.2043
17.445 116.226 -0.240298
20.2035 109.567 6.36048
-17.5779 144.105 0.157678
-4.75819 126.644 10.6494
-9.99938 136.224 2.86032
-2.54934 121.944 15.0053
-17.1012 143.938 -0.021311
20.1729 109.368 6.92668
1.16005 116.981 18.0045
-4.70184 124.854 13.3782
-6.01372 127.609 10.9041
10.5839 130.153 -12.1025
-4.31176 125.556 11.9407
14.1997 126.968 -11.6489
12.8623 128.402 -12.1247
20.1652 110.338 5.7407
-4.27183 126.73 10.3681
-5.60638 128.97 8.69851
-1.92652 121.705 15.0209
14.0173 127.355 -11.7164
19.4106 107.389 11.0761
12.933 128.585 -12.1088
19.097 114.259 1.58518
3.68137 114.598 19.0759
-19.8922 142.253 6.2749
9.11157 110.788 18.3062
-10.949 142.673 -4.66741
-19.8368 142.576 5.91213
19.2762 107.7 11.1834
5.36175 134.549 -11.609
-8.5457 141.398 -5.334
3.64724 115.222 18.5765
-6.66444 131.448 7.03795
-6.06567 140.675 -6.97062
12.1791 129.67 -12.1821
0.383115 136.738 -8.69029
10.0986 110.759 17.8303
14.4775 127.531 -11.613
-3.47276 139.052 -7.48127
-2.19914 124.591 12.1176
1.84984 136.847 -10.4108
-2.60708 138.016 -6.90802
16.345 118.968 -1.23125
16.7838 107.888 14.3921
-13.6967 144.271 -3.05287
11.3851 110.294 17.3071
-13.2601 144.45 -3.70156
-10.0955 137.392 2.9322
0.501663 136.968 -8.64338
-12.0085 138.351 3.9121
-16.4877 139.471 7.50793
12.7565 109.715 16.7961
3.21836 136.506 -11.0129
9.33195 111.896 17.6954
-9.94149 137.339 3.12353
-3.20236 139.131 -7.29912
-17.5585 145.139 0.696745
-1.4668 122.674 14.6736
-0.289918 121.446 15.1072
13.454 129.065 -11.961
-16.4695 139.639 7.53324
-6.16689 131.059 8.06194
18.3613 116.005 1.42346
17.3952 117.269 0.790941
14.9286 126.532 -9.81356
-12.4724 138.809 4.2395
-1.03671 123.863 12.7055
-19.3181 143.74 5.06957
-11.6844 144.403 -4.68221
-18.3864 141.409 7.53097
18.7767 108.906 11.5936
-19.2304 143.497 5.51624
14.9226 126.59 -9.63067
19.4956 114.544 2.59583
5.67548 135.404 -11.6655
14.7163 125.734 -8.01386
-8.32661 142.191 -5.13235
-11.366 138.507 3.78505
4.01082 116.849 17.4082
3.32214 118.001 16.562
15.2622 109.391 15.2288
-9.54665 137.311 3.49812
-6.88306 133.627 5.81854
3.76806 117.752 16.5623
-6.01079 131.571 7.89512
15.5574 123.334 -5.17408
19.6111 110.724 8.50827
13.7256 110.217 16.1183
-11.4734 144.651 -4.65775
-5.95399 131.611 7.93572
4.46322 116.286 18.1314
15.9844 122.85 -4.77394
10.9818 131.55 -11.4728
14.2077 110.262 15.7962
-9.39222 138.084 2.79426
0.232867 122.455 14.3894
17.7425 117.294 1.5689
-7.47284 142.161 -5.24366
4.9254 115.722 18.8332
15.3949 125.2 -7.09812
-13.3286 139.061 6.19691
-18.7336 144.965 3.94803
-11.302 144.996 -4.73312
-2.63123 139.561 -6.88453
16.0548 123.157 -4.73782
4.51022 117.762 16.7627
3.65409 137.605 -11.0797
18.868 122.783 -7.21142
-7.98977 136.636 3.90126
-1.87797 139.035 -6.55141
17.2149 123.903 -6.73008
15.5423 126.04 -7.87145
-3.728 130.131 8.63204
4.68283 118.104 16.3667
16.2215 110.014 14.7389
14.1532 111.02 15.7759
20.0503 111.744 7.8767
-16.0935 145.781 0.435885
-10.0635 144.86 -5.22025
-4.24539 141.369 -6.88298
8.10134 134.639 -11.4588
16.9918 121.325 -2.29621
8.03216 134.757 -11.4084
16.1109 123.616 -4.59084
18.2643 109.856 12.9906
-7.67705 136.807 3.99185
2.74859 120.632 15.4237
3.03559 120.291 15.588
19.3854 122.905 -7.19964
-10.7509 139.604 3.62971
17.1825 124.685 -7.14031
16.9306 121.722 -2.50833
18.546 117.007 2.52453
3.17876 138.378 -10.6749
19.561 111.028 10.0579
18.1703 117.808 1.89498
2.5931 122.316 13.4818
15.2622 127.047 -8.13361
3.60418 120.181 15.5322
10.6637 132.964 -11.2439
16.8681 122.187 -2.75309
17.6311 124.701 -7.26745
20.2944 113.105 6.52548
18.0094 123.72 -6.26144
-0.0944368 138.94 -7.23204
0.618324 138.747 -7.77531
20.1362 114.622 4.72677
-5.53707 133.214 7.58942
15.8633 111.082 14.9073
3.53077 121.983 13.5414
9.03112 134.751 -11.4142
-0.591145 127.924 9.72189
17.3963 125.253 -7.29764
-3.17609 130.601 8.87206
-4.33424 142.084 -6.48484
20.3365 113.509 6.38244
-4.32831 131.715 8.75052
18.7414 117.53 2.55755
16.0942 126.55 -7.47697
-5.85462 142.614 -5.30267
-9.08959 139.607 2.8467
8.06373 114.888 18.9471
-3.77443 131.311 8.83263
-1.62159 140.011 -6.3281
3.06665 138.987 -10.2825
-3.73085 131.317 8.84606
6.07659 117.017 18.2449
15.48 127.911 -8.52885
-14.4806 146.664 -0.939253
3.11566 123.203 12.766
4.54239 120.583 14.9455
-8.18509 137.924 4.60871
5.03212 120.102 15.2256
18.4217 110.916 13.0395
17.0281 125.33 -6.29282
20.354 113.851 6.5592
8.20674 115.173 18.8331
-3.56802 131.419 8.91012
-6.24659 136.567 4.53914
15.4581 129.367 -10.2436
17.669 126.015 -7.7583
16.9464 123.593 -3.36689
18.9432 117.83 2.70026
14.8974 130.667 -11.226
12.6471 114.526 14.9057
-8.21111 145.208 -5.45228
-3.58575 131.625 8.94243
-8.12415 138.706 3.92494
17.7345 121.42 -0.951717
19.7531 124.017 -6.99882
17.1926 122.864 -2.31427
-3.89847 132.069 8.91961
14.3382 131.312 -11.2013
6.34078 118.265 17.1283
-1.00031 140.343 -6.38101
8.01511 115.732 18.9493
13.829 114.133 14.5284
16.487 126.704 -6.842
20.3414 123.375 -6.42724
10.6799 134.243 -10.8686
-8.02441 138.378 4.88721
11.1238 115.223 16.3437
1.93701 126.444 10.7255
-0.641415 129.169 9.84579
17.3987 127.117 -8.1522
11.6581 115.194 15.9412
18.1103 111.849 13.3199
10.1218 115.506 17.3316
5.49786 121.357 14.2281
20.1535 115.832 5.21938
2.19489 139.75 -8.67396
16.3923 127.036 -6.65424
4.94803 122.382 13.5243
-9.75469 147.027 -5.21525
-4.60894 143.297 -5.74799
20.1043 116.208 4.96783
5.86494 138.696 -11.1728
6.52284 119.716 15.7333
18.4439 112.305 12.6748
4.11475 124.013 12.3327
1.89407 139.847 -8.08777
19.3068 123.89 -5.13162
2.04045 126.936 10.5362
18.1158 124.871 -5.1113
-10.9608 141.883 3.99969
-15.7629 143.439 7.37138
2.85037 126.075 11.0626
16.8394 127.057 -6.63655
20.9163 123.089 -5.39818
12.1475 115.647 15.6636
-16.7286 146.034 5.14139
14.0183 132.442 -10.8157
19.4488 124.453 -5.45362
15.3726 114.488 13.8132
-16.3954 146.89 3.67973
-4.05108 143.644 -5.96023
12.7207 133.363 -10.5025
15.4109 131.379 -10.7469
2.0015 127.737 10.1908
6.27644 121.322 14.583
-16.6126 145.66 5.86387
-2.81341 133.439 7.63506
3.19673 140.375 -9.39796
10.5049 135.337 -10.5616
9.29023 116.539 18.2259
1.40641 128.643 9.80181
17.0281 126.817 -5.66015
17.2072 128.576 -8.37938
1.69687 140.441 -7.5326
12.2521 133.979 -10.413
17.0594 126.828 -5.59303
-16.4059 146.405 4.89041
15.2556 115.045 13.6757
19.297 118.775 3.56428
-6.8141 145.631 -5.09973
-8.7479 147.223 -5.15396
13.0965 116.021 14.8279
-7.3219 138.737 5.54334
-15.7678 147.404 2.7692
4.2669 140.348 -10.2522
-8.68824 147.285 -5.14247
2.06328 140.57 -7.88185
9.35061 116.929 18.1461
20.2104 125.461 -6.9085
-3.78686 135.391 6.58623
16.8082 129.661 -9.02508
18.6552 127.772 -8.41971
16.569 114.436 13.4199
19.0529 119.408 3.30143
16.7023 126.761 -4.53011
17.1956 126.805 -5.11477
-7.47981 146.614 -5.2103
-12.3282 142.927 5.87316
5.64511 123.614 13.0584
17.1834 125.096 -2.51802
-2.14636 132.782 8.85016
8.4389 117.642 18.5636
11.585 134.933 -10.2234
16.8049 126.696 -4.28996
-3.08742 135.118 6.66482
15.52 131.957 -10.392
17.4896 128.273 -7.21798
-7.34992 146.869 -5.16665
19.9706 124.511 -4.41854
1.72465 129.406 9.71217
8.22094 118.634 17.8403
22.034 124.91 -7.33651
18.9649 114.242 11.7871
17.2296 114.807 12.9854
19.1159 114.338 11.4817
-15.8121 146.589 5.22137
19.6748 118.567 4.78401
-1.80758 132.652 9.34179
18.5452 122.066 1.07531
-7.27123 139.952 5.11769
-5.40529 145.177 -4.62804
9.51956 137.334 -10.5634
13.6921 116.745 14.5533
-9.67141 148.601 -4.59766
19.1352 119.672 3.98464
19.6764 117.799 6.1298
17.5631 127.223 -5.11512
17.3435 125.301 -2.04983
19.6706 117.011 7.31662
6.25809 123.625 13.3564
-5.73388 140.115 3.42405
-15.4939 145.731 6.68526
-0.692554 132.049 9.3765
-8.50448 148.1 -4.88537
19.733 116.041 8.9175
6.00658 140.617 -10.8629
19.8328 125.857 -5.47363
17.2584 125.899 -2.49528
17.1047 130.931 -9.63455
16.9082 130.621 -8.91644
-5.87306 139.11 5.28003
8.01475 138.751 -10.3586
17.7355 130.008 -8.93243
17.352 129.987 -8.45217
-14.1654 148.654 1.09448
-6.38712 139.73 5.14801
20.5405 124.447 -3.92416
-5.98573 138.912 5.97642
7.37239 122.163 14.8101
-6.64573 147.036 -5.02857
19.6273 128.342 -8.3804
-5.63865 140.568 3.23946
-6.01771 140.183 4.25216
23.0993 123.351 -5.10986
-15.1694 145.952 6.60667
-1.39222 134.719 6.93558
20.3311 124.928 -4.08907
-1.42847 143.455 -5.71934
-11.0486 144.13 4.50529
12.1626 117.625 16.214
-7.5974 141.361 4.76743
6.74673 123.875 13.5616
-12.2389 144.8 5.22575
-0.44736 142.999 -5.77584
-12.217 149.892 -2.07235
-9.9387 149.404 -3.9633
-1.00951 133.228 9.19269
17.2872 127.231 -3.35439
-6.17696 147.027 -4.84529
17.1421 131.601 -9.53678
-4.21895 137.781 6.38202
-9.9342 149.446 -3.93767
15.208 130.249 -5.24223
8.38678 120.986 16.178
-3.08419 137.121 6.05822
16.477 117.208 12.3001
20.534 124.842 -3.52581
-1.90811 144.314 -5.66918
17.4487 116.544 12.2213
5.79926 126.126 11.8722
-5.13726 146.11 -4.46441
-7.53935 142.676 3.33429
-3.83372 145.538 -5.14155
14.9932 133.657 -9.747
19.694 125.421 -3.19811
18.3117 122.134 3.22516
17.583 131.309 -9.20288
-3.39004 145.502 -5.407
16.9335 131.975 -9.34931
-13.319 145.296 6.50518
18.8217 123.772 0.43556
-12.6229 145.668 5.18733
17.3648 130.578 -7.71575
17.224 131.427 -8.76129
-5.49184 141.417 3.15981
-0.678085 134.984 6.96881
-7.13605 148.293 -4.78058
18.8592 123.448 1.15582
16.9828 117.629 11.9243
10.4616 119.18 17.3681
17.7314 131.427 -8.89434
17.1437 127.802 -2.89696
6.53859 125.677 12.5644
17.0548 131.619 -8.26205
16.8087 131.318 -7.50672
15.5372 132.156 -7.24466
1.61357 142.649 -6.29644
14.8085 134.371 -9.59757
21.2531 124.72 -3.02152
-8.3821 142.923 5.04941
18.4398 127.896 -4.24552
-4.62625 138.972 6.56994
-2.13377 136.924 6.66233
18.2361 125.296 -0.118646
-13.4797 146.649 5.77229
-9.4429 143.853 5.15485
-5.41845 142.459 2.52908
18.5806 130.993 -8.65734
16.6449 131.124 -6.54585
18.112 131.082 -8.14744
18.528 121.836 4.86447
17.9555 131.782 -8.94035
10.5306 119.754 17.2436
-11.2246 150.663 -2.39742
8.6201 140.09 -10.1051
14.1297 118.537 14.8475
21.4143 124.846 -2.81041
0.678927 133.149 9.28612
0.284391 143.776 -5.67572
-1.18858 144.889 -5.56522
17.5942 131.049 -7.24014
16.2537 133.131 -8.64938
17.5685 118.323 11.3962
18.0787 131.866 -8.87895
20.8309 125.564 -2.82115
-9.99688 144.643 5.30422
18.6084 127.217 -2.6106
17.9818 132.005 -8.81906
-12.9584 149.824 1.29035
16.8188 132.924 -8.73277
-4.2164 139.337 6.42491
0.936773 133.27 9.26974
7.3525 142.033 -10.9474
20.551 125.519 -2.25965
18.7752 123.497 2.76143
21.5033 125.059 -2.4457
19.758 117.788 10.1876
14.498 118.938 14.6425
20.4874 125.979 -2.56785
-3.60978 142.579 1.33562
7.17855 142.292 -10.8007
24.4781 123.702 -3.82302
-3.87284 142.113 2.41758
-8.68789 150.251 -3.81634
21.284 125.975 -3.21873
18.013 126.209 0.268679
19.7984 119.914 7.35132
3.52372 131.141 9.99499
19.7233 126.726 -2.43639
-13.6088 148.656 4.4534
-11.6186 146.636 5.1055
-0.134531 144.867 -5.61621
21.3219 125.23 -2.00247
-9.87876 145.239 5.2016
13.9674 119.313 15.1767
21.4057 126.487 -3.91394
-10.5037 145.97 4.9171
18.8388 124.933 1.41557
-13.2256 147.979 5.20308
1.56381 143.742 -5.81099
18.3415 132.279 -8.52557
-3.3288 139.136 6.74892
17.902 128.524 -2.50614
-4.94445 147.975 -4.21
15.097 135.459 -9.32204
3.4453 143.128 -6.8773
18.8666 125.864 0.300128
4.00786 130.985 10.2244
18.3838 119.078 10.8284
-13.3339 149.005 4.21343
18.9997 131.825 -8.40499
16.2264 134.068 -8.42662
19.1236 121.533 6.4795
-12.405 150.186 1.49024
17.2098 133.554 -8.77655
12.0847 138.921 -10.5353
12.8105 138.212 -10.3457
-10.58 151.175 -1.98335
4.83438 142.994 -7.95689
7.7221 126.202 13.1327
21.3828 126.28 -2.85049
-13.04 149.149 3.98835
18.2052 129.805 -4.19322
24.8646 124.84 -4.70342
12.9733 138.416 -10.5821
-2.63365 146.953 -4.8009
3.79155 131.639 10.087
21.1025 129.402 -6.78298
24.2259 126.285 -5.86074
13.2222 138.176 -10.3457
18.2149 129.824 -3.98211
17.9656 131.772 -6.51959
18.0439 133.208 -8.66384
18.832 125.166 2.1485
16.9069 129.614 -2.0773
23.688 127.018 -6.16851
11.1606 140.005 -10.4844
15.7775 131.761 -3.81629
18.5359 132.524 -8.12677
-1.744 138.334 7.03188
9.62893 141.257 -10.4496
-12.3106 149.876 2.54563
18.7235 123.352 5.02613
-2.97707 147.274 -4.5143
13.2772 138.468 -10.6008
5.70125 143.189 -8.64023
16.7921 129.766 -2.01632
20.7265 126.138 -1.25389
7.21895 127.907 11.914
16.573 120.004 12.5958
18.5127 126.661 0.658599
8.2935 142.628 -10.6504
-11.9247 150.519 1.41194
18.9327 122.921 5.70576
4.59655 131.103 10.488
17.539 132.984 -7.29698
12.7722 120.771 16.0271
-2.41192 147.176 -4.69731
10.0782 141.284 -10.5854
16.9483 135.17 -9.63858
7.79845 127.045 12.8398
0.764429 145.412 -5.59878
4.39824 143.542 -7.06516
13.8774 120.528 15.4002
16.6265 130.476 -2.23441
15.8962 120.219 13.6292
15.9476 120.235 13.5857
9.57747 124.706 14.5001
-11.1701 147.855 4.97346
18.3612 120.314 10.7006
-11.7105 150.479 1.93858
-5.27342 149.402 -3.96134
18.9216 123.68 5.30768
1.55044 135.814 7.91917
-2.20105 142.794 2.15671
-2.11824 140.005 6.16732
-11.1469 148.342 4.56479
5.45423 131.006 10.4974
22.8754 128.597 -6.2665
3.8677 132.637 10.013
-2.19972 140.291 5.93812
3.29863 133.397 9.60314
12.9785 121.347 15.8989
16.4837 131.197 -2.48984
-9.29054 147.196 4.29421
17.3425 128.581 0.456224
6.022 130.741 10.516
-2.52122 142.956 2.72173
16.6451 132.861 -4.82022
18.6544 133.82 -8.52475
-8.39026 151.428 -2.6274
13.0665 139.549 -10.2956
2.35468 134.747 9.20676
-11.0505 151.47 0.492189
-9.60456 147.944 3.95462
17.0772 135.041 -8.31032
-9.6626 148.061 3.90832
17.5973 135.812 -9.99521
-9.05707 147.882 3.57504
-2.42793 147.976 -4.26623
16.503 131.992 -3.01165
23.092 128.823 -6.06704
9.3705 126.215 13.8249
14.4371 121.316 15.0711
24.2392 127.649 -5.54468
-7.1 151.389 -3.607
16.2912 130.48 -0.351012
19.1069 123.102 7.13659
2.88285 145.076 -5.91705
17.319 129.077 0.562442
16.2856 130.791 -0.686731
22.0389 127.105 -1.98633
1.77604 145.806 -5.55743
20.6754 127.106 -0.343036
19.0458 125.535 3.8641
7.44378 144.004 -9.49158
4.21794 144.544 -6.51924
20.8494 127.015 -0.354475
22.1522 126.494 -1.08751
19.3211 122.656 7.82925
8.07111 128.973 11.731
14.9641 121.389 14.7462
22.0171 126.441 -0.802781
16.9937 134.498 -6.66243
10.5929 142.329 -10.5958
-0.610963 139.83 6.0848
-0.941885 140.274 5.86431
-10.2487 152.19 -0.567352
2.7436 135.115 9.23703
18.5713 121.631 10.4442
-1.6901 148.067 -4.42184
2.2895 135.862 8.71833
16.9377 133.547 -4.8598
4.84941 132.792 10.4014
15.8942 138.258 -10.3806
21.5568 126.945 -0.449586
-8.66614 148.635 3.17808
7.99422 129.874 11.1959
19.2369 125.105 5.11656
17.1645 130.313 -0.0352666
-2.1066 142.216 5.10635
20.6252 127.674 -0.190365
18.9731 132.808 -5.7279
3.67159 134.418 9.76247
17.6224 134.707 -6.81575
21.755 127.239 -0.753913
20.0413 127.861 0.338658
4.60714 133.421 10.2587
15.5559 121.873 14.3351
8.42439 129.597 11.4641
16.9476 122.042 12.5437
17.0964 133.533 -4.29638
18.4509 133.205 -5.29504
23.8014 129.012 -5.39979
25.4772 126.422 -3.53774
2.56419 137.325 7.28198
2.67983 136.302 8.65042
13.8138 140.021 -9.71115
14.2064 139.763 -9.71528
10.5939 125.876 14.7014
24.4883 126.18 -1.89166
5.25628 145.014 -6.82638
-1.8845 148.979 -4.13088
15.6463 122.316 14.2968
6.61077 144.751 -7.7929
20.8899 127.936 0.0729065
-1.70148 142.708 5.04183
-1.50416 143.249 4.09846
17.9207 136.127 -8.14336
19.8159 122.37 9.71638
-1.27068 148.99 -4.32146
19.2444 127.765 2.70022
-9.64588 151.825 1.31993
7.80218 131.562 10.5596
5.0818 145.54 -6.58941
4.80507 145.675 -6.42823
22.1063 128.701 -1.80497
14.3731 140.098 -9.37934
18.0223 130.801 -0.0850264
2.24965 147.102 -5.39002
19.13 128.869 1.54657
-1.26022 142.799 5.04743
2.03599 139.532 5.96694
3.12183 136.814 8.72392
2.17586 139.504 5.94616
17.042 137.186 -7.85685
12.9541 141.902 -9.92873
-4.38397 151.072 -3.06862
19.2535 129.084 1.56841
24.4206 127.214 -1.70602
22.9766 130.182 -4.32874
-5.6932 152.207 -2.98364
19.3656 125.265 7.08982
19.1929 129.173 1.63226
1.22422 148.237 -5.15232
3.28852 137.933 7.67204
22.4179 127.784 0.199804
19.4142 128.269 3.02155
18.4685 130.355 1.21113
19.0019 129.937 1.33569
18.7055 129.981 1.63522
19.3812 128.686 2.75258
17.3665 123.606 12.494
19.4067 125.713 7.16394
22.6971 127.942 0.120617
5.84879 146.161 -6.5326
18.5656 137.463 -8.62629
16.9786 123.796 13.1975
22.815 129.179 -1.36637
15.3358 140.491 -9.09998
5.1727 146.714 -6.26793
14.3474 125.254 14.4912
4.70334 136.743 9.02334
26.1669 127.321 -2.2053
20.5862 128.994 1.89078
19.888 124.494 9.30928
-6.99852 153.245 -1.22605
24.5946 129.573 -3.481
19.4217 129.745 2.49773
9.16072 132.47 10.4813
-5.11842 152.879 -2.55203
19.5541 127.627 5.61431
24.2738 128.556 -1.21646
22.3163 128.828 0.757999
-3.15262 151.825 -3.00955
19.852 125.286 8.8879
18.0791 138.358 -8.01875
17.5581 138.46 -7.46594
19.4922 126.813 7.28962
4.18911 138.294 8.42722
1.07754 142.907 5.40569
19.4928 125.655 9.15777
12.9603 127.138 14.6805
3.55928 148.538 -5.49161
3.94314 139.305 7.54333
17.0197 139.941 -8.54954
0.384608 144.557 4.14447
25.1726 129.459 -2.72209
19.0983 128.338 6.13383
24.1914 128.224 0.427626
1.17339 144.963 2.88229
0.857763 144.012 4.6819
3.72147 140.662 6.26452
-0.836436 151.275 -3.72021
3.79576 148.816 -5.50822
7.36548 146.87 -6.71566
17.0368 139.994 -7.95246
4.93703 138.613 8.31893
11.7992 129.475 13.7844
23.2302 128.932 1.27318
16.6719 140.729 -8.19534
4.60512 139.584 7.74496
23.4706 131.701 -2.73484
11.7165 130.016 13.4002
16.1451 141.529 -8.4328
18.3112 127.956 8.88548
9.12153 134.472 10.1671
-2.91458 152.948 -2.67016
24.3539 129.24 0.110116
4.8609 139.63 7.69537
18.1538 126.87 10.963
25.0014 129.818 -1.22266
18.1129 127.095 10.7611
7.06331 147.824 -6.53339
18.6808 131.472 3.78229
21.0843 136.43 -6.12924
1.71798 145.502 3.21323
25.5097 128.383 0.555714
0.924443 151.379 -4.17466
18.0878 127.168 11.0831
17.2138 140.137 -6.58256
1.71136 151.109 -4.47307
25.0347 128.892 0.719006
25.54 129.217 -0.304784
13.2212 129.195 14.1592
6.75065 148.507 -6.38022
24.23 130.826 -0.85984
25.5228 130.09 -1.26284
11.7297 131.677 12.4901
24.9856 129.125 0.792618
13.4572 129.355 14.0244
11.8593 131.585 12.6649
4.09286 142.867 5.30665
12.3696 130.526 13.7338
8.27115 136.451 9.93502
11.013 133.607 11.0566
21.8084 130.409 3.14855
2.4116 144.883 4.73971
17.9964 132.702 4.38866
17.9961 132.76 4.30929
24.0403 132.348 -2.12308
8.11188 137.816 8.74616
25.7826 130.735 -1.47301
23.4112 129.661 2.93339
25.2568 130.071 0.257068
4.8242 142.65 5.78668
17.9242 128.23 11.5291
25.5419 130.22 -0.156294
12.7436 146.089 -8.27276
5.82807 150.065 -5.7886
25.9784 131.138 -1.60344
23.9892 130.597 1.6021
24.4418 131.764 -0.587562
25.4734 130.169 0.632461
21.9542 131.342 3.04645
18.4574 129.485 9.85843
13.4775 130.841 13.703
16.4962 128.824 13.1404
23.8182 134.337 -3.3809
14.7956 144.281 -7.32794
14.0964 130.466 13.5902
25.7076 129.741 1.21684
17.7963 128.365 12.4368
12.1539 132.978 12.3373
19.8738 132.843 3.60491
18.1602 129.006 11.2833
24.8328 129.8 2.491
16.7678 129.006 13.0665
0.163731 153.318 -2.93295
26.1669 130.339 0.358572
19.7833 139.592 -5.67189
7.73707 149.711 -6.2807
23.343 135.846 -4.14094
0.850375 153.205 -3.11398
25.8196 131.01 0.200989
11.1538 148.247 -7.76443
24.0721 130.394 3.34856
12.7009 133.03 12.7592
3.25503 152.149 -4.04781
19.0156 131.167 8.15752
19.1983 133.598 4.44025
16.9231 142.626 -5.79374
21.5005 138.847 -5.46592
24.0489 135.292 -3.20534
11.9301 148.15 -7.80151
17.4751 142.205 -5.48007
4.61139 145.225 5.15445
24.8183 130.49 3.08692
18.1186 130.171 11.3707
10.1044 149.116 -6.79722
4.5059 152.049 -4.52141
9.47248 139.633 7.80854
20.7354 133.259 3.98527
25.9335 130.003 2.67896
24.1637 135.398 -3.08904
10.5185 149.068 -6.97541
18.7826 131.651 8.88724
16.2172 130.662 13.3332
12.5359 134.669 11.8285
9.12352 149.909 -6.36528
19.5584 140.489 -4.70513
3.32817 152.726 -3.61225
24.6453 131.624 2.34001
17.329 130.434 12.6443
10.4315 139.027 8.23502
24.9929 131.444 2.41851
26.0786 130.95 1.88461
26.0884 131.537 1.03782
25.4824 130.549 3.21438
25.5032 131.43 2.03073
26.468 131.175 1.29778
7.24612 143.096 6.32937
6.14118 144.489 5.68838
4.92401 145.924 5.07104
25.7171 131.103 2.56316
1.55248 153.837 -2.37295
22.9701 138.439 -4.57427
13.4692 134.441 12.3548
25.6777 131.912 1.8665
21.8443 133.528 3.98353
23.8473 137.207 -3.61176
10.8615 139.361 8.411
22.2896 133.56 3.58643
25.8143 131.343 2.73828
24.5005 134.7 -0.58999
4.95863 152.493 -3.67343
10.9028 139.503 8.38173
26.5704 131.755 1.43156
4.74096 152.658 -3.54337
5.9235 145.677 5.39424
6.75759 152.011 -4.69483
18.8472 134.88 6.16757
25.8248 132.402 1.6875
24.9932 132.848 2.08489
26.071 131.663 2.62752
4.04046 153.223 -3.0894
24.5203 135.148 -0.529952
7.35276 151.851 -4.74693
5.9611 146.062 5.32006
20.1345 141.123 -3.90694
16.8284 132.743 12.52
26.0933 132.127 2.70601
14.335 147.606 -6.10104
25.1424 134.806 0.0148541
20.8859 140.802 -3.67342
11.9723 138.902 9.53279
24.5226 137.51 -2.86224
26.9376 132.235 2.01246
17.8179 133.261 11.1814
22.8091 134.525 3.64839
9.44121 142.51 7.58991
25.374 133.258 2.5179
27.0917 132.581 1.61603
27.0996 132.452 1.81173
7.25402 152.358 -4.05
8.67864 143.638 7.01573
26.4171 132.237 2.98343
17.4586 133.508 11.7547
24.7354 133.223 3.76826
25.0549 134.557 1.64451
27.4566 131.75 2.94602
25.4026 135.449 0.0889559
24.917 135.738 0.275448
12.0541 149.81 -5.12785
8.09088 145.151 6.32879
24.8993 135.96 0.26107
6.12231 152.971 -2.59943
3.73814 154.55 -1.90549
26.8673 131.586 4.60015
16.3241 134.569 12.5513
12.4105 139.904 9.3617
18.5285 135.476 8.75155
26.4426 132.76 3.49254
14.9326 147.629 -4.63246
25.4304 133.672 3.50056
19.2803 136.538 6.58036
27.0323 131.859 4.61514
25.8162 134.961 1.59479
17.2123 134.869 11.7466
4.44319 154.578 -2.05255
11.508 150.831 -4.62857
7.0377 152.765 -2.2286
25.1655 136.782 0.0618884
25.5059 137.383 -1.11207
12.2981 150.415 -4.49791
26.3132 135.25 1.28483
11.4185 142.886 7.55307
17.3904 145.882 -3.53929
20.9878 142.346 -2.49332
18.0616 145.396 -3.48835
27.6498 133.258 3.04631
8.6551 152.623 -2.99906
24.7725 136.745 1.34703
27.6373 132.876 3.66367
27.1039 135.188 1.00665
21.9647 141.626 -2.29129
11.8083 143.021 7.53889
28.5532 133.685 1.68643
25.3653 135.259 3.15218
10.9682 151.671 -3.90296
12.3801 142.386 8.06668
13.6083 140.286 9.84664
14.8845 148.472 -3.51311
17.3377 146.489 -3.40183
11.2498 144.084 7.20579
5.01899 155.221 -1.48845
19.8216 144.711 -3.26505
17.0703 147.21 -3.42634
19.8178 144.875 -3.20018
27.2808 135.59 1.70476
12.9111 150.869 -3.71554
24.7423 140.207 -1.87831
13.6232 141.467 9.37356
26.0286 137.865 0.227681
14.0364 140.904 9.80763
15.1532 139.324 10.8555
13.1389 142.582 8.50304
24.7334 137.298 2.84813
6.1958 154.861 -1.06497
18.7046 146.329 -3.04944
26.5636 136.779 1.75662
14.8787 149.273 -2.82156
11.6877 151.618 -2.40114
12.3312 144.519 7.392
10.2209 152.278 -1.14517
20.6171 144.805 -2.25082
21.5194 138.299 6.23965
13.5969 143.143 8.45202
20.0566 139.175 6.73718
19.8368 145.797 -2.55068
23.9 139.198 2.55603
12.0237 151.637 -1.59138
23.3764 138.381 4.5463
25.2673 140.618 -0.895633
15.64 148.801 -1.49468
9.29225 149.124 5.54343
23.1084 137.841 5.96639
23.857 139.303 3.13061
26.5417 137.992 1.99265
17.9181 140.549 8.47964
26.9848 138.238 1.38082
26.4625 138.994 0.982173
12.7276 151.504 -1.16679
11.3436 147.656 6.10839
16.5158 140.507 10.5764
23.1467 142.977 -0.732844
12.095 151.651 -0.472749
26.3482 139.262 1.19592
14.4902 143.651 8.64183
8.07346 151.464 4.7965
21.8942 144.504 -0.954905
21.2607 140 6.48215
18.3829 141.154 8.1845
16.2408 141.47 10.3204
23.0649 138.992 6.18103
19.2654 140.894 7.8861
24.9756 141.994 -0.333541
25.2066 141.896 -0.310458
13.7206 145.972 7.27966
18.751 147.237 -0.198162
17.2816 141.981 9.37818
15.162 144.261 8.56032
15.884 143.204 9.44125
19.1943 147.188 0.13485
16.8726 142.416 9.97316
8.23542 154.986 1.79188
11.9919 149.363 5.65227
25.1983 142.574 0.465126
16.6561 143.293 9.4698
22.9955 140.316 6.43499
13.942 151.35 1.11824
15.5187 145.343 8.08765
14.4975 146.905 7.01687
18.6161 147.204 1.86096
13.5491 148.405 6.04024
22.5726 141.018 6.48841
11.7389 151.45 4.23323
24.6362 143.706 0.548656
18.203 148.258 1.50664
20.1496 142.637 7.43497
19.6001 143.111 7.4611
12.013 151.961 3.61689
25.033 143.482 0.872331
16.4699 145.396 8.05768
12.5153 151.796 3.52544
13.9582 149.609 5.41556
23.6107 141.491 6.04399
17.1644 145.254 8.10283
19.967 143.654 7.2102
25.5526 142.523 2.46985
24.9397 142.359 3.43277
20.7535 146.637 2.12978
24.2819 142.006 4.82306
14.9185 151.222 2.34161
14.1258 150.621 4.16265
14.7329 149.203 5.5665
14.4955 150.128 4.69514
21.3039 142.987 7.16495
23.2668 141.948 6.45919
20.0843 144.086 7.12456
15.1245 150.063 4.42706
24.015 142.201 5.68915
15.551 149.639 4.95031
24.247 145.013 1.63451
19.1668 145.191 7.41618
21.133 143.926 7.0072
22.7918 146.019 2.10882
17.2826 147.174 7.16017
21.7129 145.911 3.85282
24.7374 143.001 4.56913
18.9452 148.944 2.68796
16.2499 149.108 5.66021
24.7416 143.176 4.45317
17.2497 149.984 3.42873
24.1556 145.225 2.39969
17.5765 147.456 6.97622
17.0763 148.147 6.61647
22.4167 143.725 6.86384
24.0805 143.346 5.56153
17.8326 147.753 6.49108
23.2533 143.723 6.3057
17.4143 149.771 4.37472
19.9973 145.803 7.16685
22.5118 144.068 6.76859
18.4285 147.925 5.92476
23.1538 144.935 4.93179
20.7032 147.6 3.94803
23.5376 144.024 6.05021
19.7041 147.482 5.59785
20.6318 146.206 6.75457
20.6508 146.228 6.72085
