ply
format ascii 1.0
comment Created by Open3D
element vertex 1940
property double x
property double y
property double z
end_header
-4.71347 104.161 -15.6695
-10.7183 118.907 15.3997
12.4435 96.5336 23.3241
3.10024 106.531 23.6372
-15.8097 120.37 0.622761
-16.6555 122.849 6.45986
-24.3981 130.668 4.9933
14.8089 94.0137 22.9999
-16.9089 121.711 0.981205
-25.6539 132.044 4.9839
-10.2132 112.22 -7.97869
-17.1967 123.875 7.80153
-22.607 129.216 6.30079
2.51245 107.249 23.457
11.2055 97.9527 22.9125
-16.7179 121.771 1.54176
-16.2207 120.52 -1.15901
-15.5326 120.786 2.52117
-12.3394 114.623 -7.88339
2.69789 107.189 23.5994
16.3643 92.5824 22.7458
-15.6453 120.4 0.197207
-0.269181 109.566 20.4109
11.3647 98.3889 24.6146
-16.4325 121.696 1.86977
7.29035 92.3069 -14.1331
16.5027 85.8927 -1.76894
-15.383 123.665 13.1081
10.6612 99.3045 25.0077
0.0723882 109.391 20.7886
-15.8724 122.357 6.03101
-17.4078 124.248 6.99303
-4.53743 113.776 18.608
-11.6215 120.219 14.6356
13.6442 95.3762 21.6325
18.3122 86.0189 5.14611
-0.277752 99.9122 -16.367
-16.7568 123.37 5.93252
-15.4966 120.001 -1.67753
-20.6896 127.969 7.4394
12.4788 96.7298 21.6993
-5.55847 114.837 17.873
-15.1334 120.273 0.390229
13.8491 87.5721 -7.16538
7.45519 92.4995 -14.1188
-2.29725 112.021 19.9611
12.0459 97.2325 21.3013
-15.3117 120.55 0.323948
-22.4237 127.862 -0.625349
-16.6162 124.041 8.02185
-16.7371 121.948 -0.311787
-14.3912 118.301 -4.66837
-3.31648 113.12 19.5611
-19.9448 125.036 -1.6148
19.0188 89.772 20.5567
19.337 87.9271 14.9427
-16.8264 124.396 8.09293
-5.76491 106.563 -14.8833
13.0663 96.2288 20.7853
-25.0039 131.523 1.87258
-17.2551 122.591 -0.850163
12.5228 96.7941 20.4015
-7.26876 109.402 -10.7208
-12.9518 122.121 14.1319
14.3508 94.9039 20.3385
13.3362 95.9908 20.3559
-18.3044 123.766 -0.9069
-16.2156 122.095 1.09347
-5.50934 115.307 17.9628
-14.5925 123.773 13.5855
-17.0564 124.854 7.83115
8.40502 92.1033 -13.8494
-2.60993 112.918 20.1151
-10.806 114.017 -8.13587
-7.48996 117.41 17.4937
19.4703 88.6676 16.6701
9.97366 100.537 23.3247
-16.9497 124.376 5.90235
11.8713 97.4898 19.2344
17.6267 91.8926 21.0473
-16.341 121.916 -1.02792
-13.8755 123.361 14.0021
17.7008 91.8502 20.9959
1.38785 109.379 21.9394
-7.08447 117.207 17.6704
-15.0198 124.403 13.1928
6.24818 94.5205 -14.3804
18.6168 86.832 5.54027
-16.1498 124.763 9.67737
0.288526 100.41 -16.1861
14.1002 88.4181 -6.52861
9.68355 100.443 20.6151
-23.9589 130.43 -0.325981
7.14012 93.7912 -14.2323
18.7393 91.0085 21.0393
19.5531 89.1126 17.1263
-3.6903 114.196 18.7137
-0.41302 111.412 21.1753
15.2102 87.7956 -5.16468
17.7769 91.9705 20.4368
-15.567 121.615 -0.577676
-1.42338 112.416 20.8431
16.8715 92.9931 20.6104
13.9563 88.7367 -6.78281
6.92484 104.677 24.7398
16.6119 93.3685 20.51
-15.6775 122.33 1.10937
-17.0524 125.137 6.07846
-21.897 128.386 -0.917021
13.3852 96.2827 18.5025
7.46119 104.083 24.077
-22.8068 131.298 6.12258
-15.6459 120.884 -4.41733
18.8188 87.3444 6.48698
-15.6794 122.195 0.170915
6.82561 104.432 22.6325
-24.3985 131.837 1.59207
18.754 87.7686 7.50337
-7.88368 111.296 -9.8625
12.0039 90.1275 -10.3454
-16.3089 122.564 -1.28049
-3.18548 114.167 18.9538
-13.0017 117.802 -6.17445
2.30435 99.1709 -15.3108
-9.60301 113.585 -8.59943
13.0619 96.7706 18.0647
-21.5858 128.312 -1.21962
19.6261 89.9238 18.0447
-14.6254 121.007 -1.24826
-5.23599 107.368 -15.0946
11.1499 99.0691 18.4559
-7.44346 111.084 -10.1294
-19.8622 129.084 7.91403
3.1851 108.957 23.7721
-4.22458 106.192 -15.7149
11.2699 98.9785 18.4328
5.93806 105.559 21.8605
-1.64856 103.268 -16.5917
0.723574 111.184 21.9825
-12.846 123.424 14.0374
19.8258 89.3937 15.8601
-7.88248 118.952 16.5829
-9.51388 113.878 -8.74176
5.33305 96.6592 -14.372
2.94814 109.457 23.8063
-19.0961 125.961 -1.76023
-5.97514 117.321 17.6819
-13.8928 121.108 0.595848
9.22707 101.625 19.0041
-14.0019 121.239 0.50719
-5.4951 116.952 17.9809
-11.7777 122.62 14.2173
-17.5031 124.613 -0.923357
3.42855 98.8069 -14.7203
12.8651 90.4639 -8.72585
-14.965 121.593 -2.54061
-15.6681 123.016 -0.0501434
-10.4947 121.516 14.7081
-14.5812 121.979 0.34552
17.1153 87.8019 -2.01786
7.08096 95.1874 -14.2181
18.477 87.8963 3.49673
12.0586 98.6661 18.1613
7.71828 94.5792 -14.1466
-18.3806 125.807 -0.796784
16.0902 94.3937 17.9567
-15.2621 122.186 -2.15135
-15.354 123.13 0.96652
-3.28166 115.107 18.5795
-17.3358 124.783 -0.837058
6.15262 105.631 20.3884
-9.15987 113.873 -9.26495
-1.6301 113.906 20.4516
3.48623 109.307 23.4365
16.3837 94.2346 17.9552
-4.38166 116.337 18.401
-8.08319 112.594 -10.1015
15.1754 95.2963 17.0897
18.082 87.8248 0.693873
17.0834 88.0868 -2.41217
18.491 88.1104 3.05691
-15.8184 125.562 7.26943
-15.665 123.414 -0.195831
-8.32991 113.021 -9.97596
-12.2173 117.747 -7.72858
4.10382 98.7067 -14.4973
6.34979 105.656 20.0913
-13.8474 120.249 -5.19171
-15.8115 125.643 6.819
-15.6236 123.611 -0.186586
4.63451 108.242 22.3748
5.32796 107.071 20.5052
7.17171 95.8041 -14.1909
-7.31333 119.451 16.6544
-10.8248 122.575 14.3732
19.3327 89.1759 8.72583
-14.6803 122.184 -2.53451
-15.6383 125.718 6.81478
2.017 111.317 22.6726
-15.7626 123.478 -2.16067
11.7209 92.0544 -10.946
-15.2617 123.019 -2.10965
-1.79618 114.713 19.8209
3.91205 99.505 -14.5117
-20.8739 131.663 7.43647
-13.7557 120.731 -5.21316
-20.1583 128.344 -2.15554
-17.492 126.095 -0.170159
-8.72665 121.075 15.6343
11.764 99.9637 17.745
19.4455 89.3437 8.47349
20.1362 90.8619 16.8213
18.3908 88.5462 1.25185
-22.9219 131.857 -0.408663
3.24426 110.011 21.3219
-15.5459 123.499 -2.61613
3.43693 109.767 20.9887
-18.7626 129.939 8.55254
9.69376 102.477 18.3619
-2.20144 115.324 19.317
2.38381 111.639 23.4804
-10.9159 117.186 -8.37992
16.4206 89.4787 -3.92745
-18.1654 126.978 -0.646468
16.1374 89.7199 -4.18411
13.0518 91.7536 -8.92002
-5.64823 110.792 -11.8418
-6.82466 119.733 16.7629
18.4495 88.8043 1.09866
-15.5647 124.595 0.267915
-13.4614 125.908 13.3448
-14.1492 125.636 9.60061
16.2005 89.8205 -4.12965
-18.2309 129.473 7.77346
6.64056 97.2221 -14.3293
12.2987 99.8129 17.5313
-15.565 123.968 -2.49288
-4.67527 109.087 -15.1962
2.4827 111.859 23.1998
-5.16617 110.113 -13.4971
-5.91507 111.507 -11.358
-19.1872 127.983 -2.35294
12.2051 100.13 17.4262
-4.13548 108.548 -15.5885
-5.37324 118.621 16.9522
-3.04109 116.494 18.2025
3.60286 110.087 20.5198
18.098 89.0825 -0.57793
13.2661 92.0387 -8.79762
17.4265 89.3063 -2.67683
3.79291 109.941 20.2768
20.283 91.3035 15.8637
-6.12232 119.492 16.7455
-19.0539 128.056 -2.38189
-23.9706 135.492 5.90782
-18.4538 130.387 8.48231
-16.3703 125.865 -0.303151
-20.8688 130.442 -1.0179
13.4525 92.0672 -8.65216
-6.91475 120.379 16.4542
-11.1349 124.254 14.0386
-3.1573 116.905 18.1037
3.17817 111.105 21.4705
-15.1975 126.486 6.29065
-14.1988 126.751 10.932
-24.5121 136.134 5.09498
3.18438 101.489 -14.7997
-22.6136 132.789 -0.0394069
-8.2638 114.867 -10.4051
2.77772 101.944 -15.0645
15.713 96.2356 14.5198
-14.1625 126.942 10.9089
20.2213 90.864 12.0149
15.4179 96.7667 14.8887
-15.318 125.394 0.319483
-7.92964 114.643 -10.5789
-20.556 132.84 7.37325
-11.6327 119.27 -7.99627
-7.29515 113.947 -10.8092
4.3029 109.958 19.8812
12.7377 93.1431 -9.49323
-14.2708 123.802 -2.02411
6.09555 98.9193 -14.4703
10.3152 103.11 17.7041
-10.3146 124.016 14.1208
16.3138 95.9627 14.6067
-2.85608 107.996 -16.2048
-19.4294 129.311 -2.32225
-15.2279 124.739 -2.87906
4.54126 109.85 19.4158
-14.108 127.332 10.9719
-8.16326 115.247 -10.6426
9.82356 95.5301 -13.1682
-14.6226 124.446 -1.96334
-21.6714 132.172 -1.40401
13.3137 93.134 -8.90696
15.5609 91.6148 -5.9272
-15.403 127.439 5.37035
-21.5712 132.155 -1.4142
20.1236 90.7803 8.70744
16.9652 90.8831 -3.51472
1.67892 103.867 -15.5968
10.1625 95.6047 -12.9805
-19.6237 130.041 -2.16567
-2.39589 117.387 18.4073
-0.448391 115.818 20.2026
2.18467 103.496 -15.2631
-22.1745 135.232 6.69024
20.0284 90.6481 6.9778
-0.699185 106.29 -16.5015
-16.6066 127.791 0.684223
-16.6823 129.496 6.64491
-13.7873 127.487 10.4043
-23.4282 135.268 1.38321
-15.9769 127.21 0.745072
15.782 91.9602 -5.35995
-6.86681 121.683 15.9403
15.6613 92.0146 -5.82959
-14.9947 127.619 5.82791
13.231 100.669 16.6606
14.8687 98.76 15.8457
-11.0058 125.675 13.9402
3.93478 111.882 21.3022
19.0319 90.6041 1.59746
-0.218641 106.171 -16.474
19.2431 90.7213 2.60943
-20.7599 132.019 -1.49717
-15.1326 125.741 -2.96113
-13.9537 127.396 7.5142
-13.3814 126.994 8.23966
-8.43809 116.77 -10.3323
0.132464 115.925 20.239
18.065 95.2682 13.9974
19.0525 90.8378 1.36606
-15.8971 127.626 0.524445
-17.5212 128.539 -2.51996
-15.1762 128.278 5.7149
13.2233 94.2264 -9.28308
-4.28898 111.645 -13.4479
-0.537686 116.644 19.8618
-14.7382 128.032 6.30757
-8.76788 123.939 14.4554
10.8567 96.0814 -12.356
16.544 96.9365 13.082
3.2334 113.54 22.2374
18.5158 95.0953 13.743
-14.7741 128.282 6.08512
-7.14988 122.755 15.4827
-14.5996 125.379 -4.0888
-20.6419 134.796 7.1075
5.09954 101.774 -14.6038
-13.422 127.535 8.18288
-6.41925 122.186 15.8028
1.42208 115.225 20.7111
19.4196 91.3917 2.89531
-3.91547 111.615 -13.8564
-13.1091 127.39 8.56382
14.5986 93.7322 -7.82854
-2.63799 109.725 -16.201
-17.1998 128.807 -2.56931
18.6429 91.4388 -0.641261
-2.45976 109.58 -16.2669
16.3325 97.6725 13.3645
-2.88977 110.149 -16.0652
14.0818 94.2532 -8.43813
5.33151 110.694 18.2409
-16.0513 128.329 -0.698826
-3.37293 119.761 17.235
-14.4069 125.757 -4.04381
15.4984 93.4705 -6.41125
16.0157 93.1974 -5.46797
-1.45696 118.361 19.3101
-0.882122 108.187 -16.4921
5.61209 101.855 -14.6485
4.05925 113.314 21.6964
-21.5448 134.135 -1.71942
-17.0057 131.87 7.70889
-5.95446 114.797 -12.5163
-14.4741 126.257 -3.49083
19.5525 92.0156 3.0898
15.7241 93.6136 -6.05131
-13.1542 124.16 -6.1728
-7.26639 123.651 15.0718
-4.56045 113.314 -12.7325
-13.3038 128.701 10.0538
15.7992 99.2854 15.0704
6.39475 101.323 -14.6574
-0.297018 117.688 19.7783
0.521863 107.178 -16.171
-18.7784 134.002 7.58574
-8.12398 117.855 -10.5306
12.577 96.0013 -10.3732
20.4668 92.2718 6.71458
-15.1646 127.496 -2.58504
-5.43897 122.187 15.9297
-21.4621 136.871 7.38546
-13.234 128.893 10.0118
5.37781 111.866 19.7121
-16.6301 131.954 7.48216
19.5089 92.3785 2.36541
8.33237 108.189 17.104
16.77 93.6328 -3.83347
-9.13543 119.71 -8.85227
-13.5271 128.958 8.22925
-0.672888 108.699 -16.5181
-4.03289 121.295 17.0827
16.2787 98.8402 13.4938
20.0595 92.3588 4.26763
17.3211 97.4646 12.2851
19.7146 92.5277 3.32261
-12.8807 128.586 8.91432
-2.03627 110.365 -16.2688
16.6059 98.5513 12.9959
-1.8383 119.629 18.7677
-20.2519 133.518 -2.07051
11.4682 104.874 16.1989
-2.93059 120.502 17.6083
14.7826 101.241 15.5293
19.552 92.6708 2.32403
-12.8494 128.745 8.87801
12.7846 103.615 16.0954
17.4942 93.646 -2.81827
19.4359 92.6279 0.862556
-3.33855 121.221 17.5114
2.58482 106.246 -14.9757
14.3283 101.96 15.2969
-13.6881 126.207 -4.94869
7.54105 101.205 -14.3998
-8.77829 126.263 14.2358
21.0877 93.6535 10.469
-22.7025 138.667 5.42432
-11.8055 128.67 10.9117
16.1866 94.7271 -5.20343
6.55877 102.399 -14.6035
16.9444 94.3498 -3.71636
-4.06843 114.029 -13.2655
-22.1113 136.962 0.979276
5.63772 112.348 18.5458
-12.1207 124.391 -6.61269
-4.82972 122.974 16.667
11.6333 97.9583 -11.6442
-22.1257 138.599 6.56709
-12.5177 129.405 10.1766
20.9349 94.2487 10.9554
-19.9231 136.662 7.7262
-19.045 135.806 7.9584
-4.46347 122.853 17.007
11.3617 105.774 15.7409
-15.6873 130.227 0.0421954
20.8793 93.5784 7.52187
20.9906 93.727 8.42688
-18.6216 132.895 -1.96339
16.5604 94.9968 -4.43427
-11.7362 129.051 10.6543
-22.4001 138.098 2.2556
13.8727 96.8118 -8.63644
-22.8068 139.193 4.45796
-21.8803 137.408 1.34786
20.8677 93.3219 5.57956
16.5551 100.231 14.1958
14.8464 96.2233 -7.57196
-4.89811 115.661 -13.0518
6.48918 111.941 17.4571
-3.83616 114.535 -13.5721
-11.7454 129.386 10.4082
21.1207 94.0155 8.18835
-3.72342 122.787 17.2562
-8.06083 126.686 14.5247
-4.57438 123.615 16.7791
12.0953 105.611 15.4151
-6.89223 118.841 -10.374
-15.5823 131.049 0.80946
-15.1804 130.18 -0.904789
15.2199 96.3587 -7.08691
16.3709 95.7175 -4.95493
5.83864 113.592 20.0202
-15.9348 130.939 -1.24486
-14.6277 131.719 6.59229
11.6252 99.0329 -11.657
19.6504 93.848 0.642021
0.247916 109.887 -16.1263
-4.07283 123.388 16.9542
-13.066 127.375 -3.63154
15.7476 96.169 -6.29797
-10.1528 128.805 13.0702
5.95265 113.368 18.7859
-15.0214 130.371 -0.732082
-13.4011 127.738 -4.25975
-4.53963 123.997 16.6128
-2.01902 112.674 -15.8501
1.07488 109.533 -15.4004
16.0398 96.2793 -5.79324
-12.6122 127.206 -3.72094
-3.38174 123.055 17.1557
-13.7746 128.257 -4.44762
-13.6293 128.166 -4.38596
0.00979041 110.589 -16.3007
-15.5464 131.21 -0.963588
-12.9872 130.78 7.50501
-3.26974 123.157 17.117
5.6233 105.205 -14.7729
-3.15099 114.593 -14.4108
-3.77848 115.43 -13.781
-17.8487 136.266 8.30931
18.5206 95.0301 -1.90469
11.8909 106.707 15.2885
-12.7242 130.725 7.71849
-1.02069 111.925 -16.5177
-15.5022 133.812 7.70464
-17.1696 135.704 8.15374
21.3303 94.543 6.55786
12.8621 99.1526 -9.6673
0.233839 110.804 -16.0935
-0.249471 120.549 18.0826
-4.36356 116.494 -13.2101
-9.55655 129.081 12.9763
6.24611 104.938 -14.633
15.2675 97.4767 -6.94472
-19.7207 138.505 7.79443
-15.2784 131.681 -0.114982
-11.7189 130.522 9.53752
12.8619 99.4499 -9.67007
-8.79105 123.146 -7.1123
17.0868 101.369 13.7457
2.95183 117.963 19.7967
3.66539 107.852 -14.9901
-14.095 129.66 -3.80728
21.5113 95.2317 8.29886
19.3201 95.1902 -0.505536
7.48892 103.982 -14.4744
-13.3021 128.515 -5.25544
12.102 100.15 -10.781
-8.15097 128.366 14.3863
6.98751 113.163 17.1798
1.357 110.445 -15.1133
-16.799 133.286 -1.89845
6.49875 105.223 -14.5925
13.3475 105.885 14.5938
-13.0122 128.755 -4.36572
21.5032 95.0599 6.17255
-16.6022 133.256 -1.81413
14.9131 98.494 -7.14722
5.38169 115.766 19.523
-15.507 132.779 0.465389
20.4205 95.1658 1.99698
-13.2772 132.347 7.10735
16.8381 97.2497 -5.01107
-16.0406 135.563 7.84401
-2.21121 114.657 -15.48
14.927 104.553 14.2673
2.33587 119.248 19.2769
-8.67908 129.378 13.455
17.2261 97.1698 -4.39391
16.8495 97.3933 -5.0664
-12.3929 128.265 -5.4567
-15.3152 132.901 0.275498
15.143 98.8 -6.8801
-11.5737 131.349 8.97263
15.8522 98.2573 -6.22685
12.5961 107.415 14.8639
6.32184 115.195 19.0589
-15.176 132.828 -0.0539282
2.30257 110.377 -14.8973
19.0977 99.1678 9.45429
6.54681 114.675 17.5869
7.86919 104.727 -14.2559
19.0871 99.2832 9.35105
18.4295 96.8689 -2.40483
11.7731 101.511 -11.3981
10.5962 102.528 -12.7341
7.21651 105.671 -14.4649
-12.4982 129.18 -4.71049
12.2575 101.403 -10.6011
6.80704 114.711 17.4072
10.2495 110.552 15.4553
17.7444 101.969 12.9962
4.92466 108.107 -14.7433
5.42579 116.64 18.8267
12.7964 107.753 14.7789
-12.3259 128.825 -5.81998
-19.8686 138.381 -0.0774805
19.0511 99.764 9.43801
8.60672 104.662 -13.604
1.99854 120.273 18.429
-13.2988 133.447 6.80564
8.87188 104.74 -13.3549
5.84129 107.7 -14.5402
17.0565 103.36 13.3105
-8.82754 125.45 -6.66385
-12.5399 130.125 -3.95878
9.506 112.004 15.3604
-0.743023 123.296 16.9842
16.458 104.189 13.5833
4.86408 117.644 17.9342
-19.2605 138.293 -0.248305
-1.95412 124.364 16.0292
19.8533 97.1573 0.648147
15.6034 105.289 14.1376
15.8717 104.977 13.9675
6.652 116.239 19.1247
-17.3514 136.292 -0.890025
19.691 99.6361 8.49928
-12.3956 133.22 7.06153
10.3002 103.911 -12.6152
-13.8549 134.617 6.24461
-21.1148 142.112 5.3939
-0.269014 123.151 16.9307
-9.38655 126.497 -6.58175
-1.43878 124.146 15.9476
20.5107 97.3773 2.75329
12.5265 109.135 14.9487
-13.9967 132.689 -1.88412
8.13317 114.181 16.3856
11.8215 102.857 -11.4353
0.140834 122.901 17.1238
6.90411 115.822 17.4148
21.3067 97.5427 6.10787
-9.74857 131.476 10.0179
-16.8694 138.474 7.92912
19.6796 97.6902 0.110521
12.9839 102.163 -9.75178
-1.27533 115.583 -15.9953
-0.82249 115.107 -16.3841
4.14375 118.981 17.4584
19.8311 97.8611 0.614213
-2.75625 125.521 14.3921
6.7847 116.66 18.7466
11.1224 111.078 14.9013
3.71554 119.63 17.5389
-5.54461 128.385 13.5482
-20.0577 140.23 0.385944
-3.64566 119.819 -10.9584
-11.0986 129.204 -5.63746
-12.4782 131.021 -4.3617
-16.0293 135.872 -0.369629
-15.3014 135.126 -0.282558
11.593 103.532 -11.9431
-12.7349 134.227 6.42676
-4.8559 121.749 -9.1377
-6.52295 123.899 -7.77242
-20.3452 140.812 0.566709
-5.19819 128.206 13.2288
3.63189 120.009 17.3758
18.5849 98.8531 -2.48568
0.0998787 123.502 15.9953
13.6133 102.371 -9.39652
18.9976 98.8079 -1.56015
-8.43192 126.481 -6.64137
-8.33097 131.318 11.4571
-7.59184 125.584 -6.96022
20.7803 99.0532 5.88296
6.59717 117.65 19.1721
1.03303 122.871 16.5562
-5.31352 128.619 12.8566
3.4405 112.033 -14.3716
-8.93647 132.078 11.2567
-16.7023 137.124 -0.662445
-0.869533 116.196 -16.172
-12.6451 131.455 -5.82978
0.911405 123.09 16.2206
20.2897 99.7988 5.67575
7.46724 116.469 17.0444
-12.5948 132.31 -3.06563
7.1888 116.837 17.258
-4.75951 128.237 12.474
-10.6373 129.528 -6.01412
6.22626 118.333 18.4388
17.994 104.454 12.8903
2.15554 122.301 16.8678
7.14481 108.691 -14.1127
-1.41239 117.741 -14.2381
-9.39718 132.807 10.0102
16.0122 101.419 -6.81561
8.41706 107.708 -13.391
-14.3462 137.546 7.89815
-18.5868 141.896 7.38247
-3.28604 120.816 -10.7876
-4.20933 122.237 -9.3188
-17.3624 140.808 7.91862
4.27483 120.209 16.4702
-17.8552 141.355 7.69128
15.1188 102.183 -8.19106
0.380961 115.882 -15.5381
-6.92671 130.766 11.0372
-13.9631 137.38 7.84892
9.86916 114.078 14.9907
12.2769 111.426 14.5768
18.8568 100.231 -1.27349
9.01325 115.242 15.7889
-8.80705 132.637 10.0256
-0.239375 124.796 14.334
-20.5147 142.862 1.68674
19.7125 101.057 4.53404
13.6173 103.637 -9.9321
-12.7426 136.134 7.06141
-15.3942 136.546 -2.03698
-20.4959 143.418 3.41305
-10.3831 133.725 7.08209
-9.4499 129.196 -6.20302
19.468 102.101 6.66821
11.8904 112.163 14.2218
17.9024 105.427 12.7858
17.9191 101.113 -3.21907
-10.1312 133.566 6.89053
-20.1084 143.58 4.77743
-13.9305 137.849 7.52724
8.41024 116.645 16.3719
-10.5714 130.618 -7.15055
3.98771 121.456 16.0078
16.3096 102.421 -6.30295
15.293 102.989 -8.42764
-6.49336 126.271 -7.7657
-7.03084 131.645 10.0331
-12.0563 132.566 -6.33116
12.8618 111.746 14.2594
14.3578 103.804 -9.49106
8.45008 109.069 -13.2589
19.5057 102.702 6.44373
12.9329 111.787 14.2138
-9.51376 133.667 7.14865
4.89086 112.814 -13.8606
12.2176 112.542 13.9208
1.42019 116.208 -14.9667
-20.2087 143.851 2.62253
-5.09263 124.759 -9.04187
-6.90161 127.046 -7.66777
-13.2685 137.603 6.47457
-19.3932 142.495 0.510351
-11.6134 132.238 -7.08298
-19.5701 142.727 0.581847
15.0798 103.535 -8.86435
17.3284 106.973 12.6871
-6.94479 127.192 -7.70605
-7.66782 132.496 9.1605
-18.9456 142.066 0.328948
-0.407855 118.211 -15.418
13.8838 111.084 14.3152
19.4119 102.311 3.27636
-8.2347 132.992 8.54943
7.05727 110.733 -14.0537
10.439 107.872 -11.709
14.167 104.444 -9.83033
13.0771 112.041 14.0121
16.6892 108.11 13.1939
-20.052 144.046 2.12876
-18.8163 143.919 6.23495
6.76028 111.418 -13.9925
19.6342 104.333 10.2468
-13.2736 138.11 6.21685
7.81613 118.725 17.0182
2.84825 115.595 -14.1983
-5.00611 130.879 11.67
-14.1422 137.089 -1.3143
17.3665 107.464 12.4553
-9.9803 131.138 -7.14467
0.472784 117.868 -15.6195
-11.6778 136.512 5.86568
9.32857 109.484 -12.24
-15.6723 141.355 7.83414
-13.9554 136.741 -2.60375
19.7811 104.206 9.11745
16.3803 104.079 -4.75532
-1.48253 127.697 12.7065
18.8588 103.6 3.12522
3.98751 114.782 -13.8378
17.3397 103.844 -1.99427
10.5796 115.44 14.5151
12.6878 113.045 13.5285
4.82576 122.005 15.8476
-11.6024 133.885 -4.86664
14.2659 111.569 13.9211
-11.3592 132.922 -7.59458
-9.91161 131.487 -7.24387
-14.1904 137.611 -1.43612
-13.322 136.237 -3.32682
-9.00949 134.297 6.34305
-9.34174 134.575 6.02529
7.96133 119.291 17.241
20.0876 104.031 8.0028
17.2058 108.333 12.5777
10.4159 116.109 14.6912
15.3995 105.001 -7.01486
-5.72761 132.284 11.2697
2.24562 124.726 14.3333
11.6545 107.906 -11.2347
8.80737 110.564 -12.7283
16.2902 109.766 13.7229
3.98915 123.119 14.9473
12.7913 113.431 13.379
7.16519 120.702 18.2725
4.41286 122.765 15.0459
-9.20672 134.909 6.48523
7.69875 111.605 -13.9271
3.70122 115.865 -13.8508
-11.2446 133.438 -7.47696
-15.4408 139.853 -0.298426
18.9643 104.326 2.85844
-10.5917 136.484 5.80988
20.1106 104.608 7.78809
0.765226 118.909 -15.5664
5.80688 122.389 16.9605
17.111 109.396 13.0103
18.2762 104.607 -0.440224
14.2178 106.374 -9.88651
-3.33604 130.883 12.0553
8.98033 118.996 16.0323
1.1389 118.848 -15.3992
12.8673 114.117 13.1409
-10.9318 133.724 -7.7204
-6.61014 129.188 -7.93355
-15.3906 140.589 -0.184458
0.315346 127.573 13.0172
-19.3152 145.451 2.0898
11.9811 108.901 -10.7602
12.7981 108.089 -10.6076
17.258 105.678 -2.14051
19.9461 105.594 8.04093
5.19175 123.335 15.8858
19.6129 106.102 8.43045
-2.86681 124.917 -10.2216
-10.2278 137.127 6.06028
20.2822 105.097 6.9102
19.3803 106.902 9.70189
-8.03855 135.346 7.37923
-6.39323 134.262 9.78914
10.0956 110.996 -11.9619
-5.07617 133.328 10.9962
-9.14613 132.589 -7.80464
-15.2363 143.09 7.24742
10.1665 111.069 -11.9421
14.8776 106.853 -9.31861
6.38712 123.04 17.2913
5.6627 123.623 16.4483
9.16414 112.164 -12.5085
-11.9138 139.387 5.70535
2.65748 118.673 -14.3437
-1.60654 124.005 -11.3762
-10.2153 134.041 -7.94812
-3.4382 132.334 12.3337
15.3921 107.186 -7.08604
-15.3854 141.584 -0.389927
-2.17496 131.105 12.5647
-14.0676 139.393 -3.54255
8.12232 113.242 -13.4631
15.3854 107.163 -7.52086
-9.59995 133.446 -8.20937
-6.81967 130.38 -8.73279
13.4638 114.725 12.8239
-2.34767 131.403 12.5044
16.5317 107.138 -3.48317
-0.856778 130.012 13.0295
-10.891 135.361 -6.73086
-8.33855 132.264 -8.46871
5.32718 124.314 15.7115
-12.9514 138.257 -4.50646
16.2256 107.483 -4.15587
19.2959 107.909 9.50152
8.1895 113.538 -13.3877
4.98458 116.906 -13.5956
-5.0963 128.859 -9.09247
-18.5019 146.114 2.19824
19.2413 108.239 9.85166
13.5412 115.053 12.7003
15.9688 107.778 -4.89742
19.57 106.24 3.26689
-2.91528 132.528 12.4938
-6.75096 135.503 8.43369
10.9676 111.399 -11.6096
-1.08641 124.016 -12.1581
17.9584 110.434 12.1559
15.4673 108.111 -6.51111
20.4428 106.371 6.4971
11.3679 117.977 13.9322
17.9014 107.107 -0.780084
9.0748 121.038 16.1438
-8.82933 133.389 -8.46805
-14.0991 140.411 -3.10626
-14.071 140.384 -3.12167
-11.1032 136.579 -5.71198
-4.51738 134.008 10.5695
-7.58938 136.381 7.19493
-8.78875 137.702 7.20351
-1.00164 130.992 12.8695
-15.6028 144.927 7.14205
5.46288 124.959 15.54
2.96876 119.646 -14.1626
15.4804 108.445 -6.61457
-15.2591 144.806 7.34326
-7.51651 136.593 7.12142
0.573266 122.176 -14.7233
-17.6706 145.582 0.334723
-9.5412 134.753 -8.04454
4.63914 118.154 -14.0084
13.9675 115.43 12.4094
-0.61803 124.16 -12.6578
19.6198 106.947 2.9437
15.6158 108.776 -6.19151
-15.4729 145.251 7.01426
-6.18567 135.776 8.28046
18.1406 110.957 11.459
20.4914 107.104 6.26809
16.6593 108.595 -3.35036
-14.3903 144.267 7.01715
-14.5757 142.234 -1.42965
1.92477 121.148 -14.8923
6.8263 124.575 17.0469
3.09945 120.108 -14.2508
-17.2718 145.539 0.0477581
-2.21169 132.96 12.4328
-12.3209 141.886 5.72008
19.2358 107.594 2.3435
-16.5493 146.4 5.75504
-17.7443 146.613 1.75251
8.95671 114.336 -13.2979
-16.3632 146.324 5.93318
0.43552 123.232 -13.9397
4.06476 126.934 13.9765
-14.5047 144.734 6.97791
-10.3137 136.745 -6.28683
18.21 111.305 11.0371
-9.98737 139.554 5.0974
-6.462 136.684 7.85061
5.62628 125.883 15.2435
3.53196 120.151 -14.3396
3.85771 127.386 13.8186
18.3067 108.417 0.148739
-7.77637 138.014 7.51283
18.7176 110.697 10.1957
19.28 109.852 9.17344
3.21342 120.559 -14.3342
18.4164 111.179 10.6071
19.7082 109.249 8.41277
17.7672 112.227 11.8453
15.1549 109.419 -9.02105
-14.6751 142.859 -2.61003
10.543 120.898 14.9515
-11.6134 139.076 -4.73923
-3.80819 129.74 -8.75213
-3.17869 129.087 -9.06959
11.1506 113.148 -11.9508
-5.98353 132.45 -7.67858
14.2929 116.318 11.8915
18.4818 111.49 10.249
-11.5028 139.211 -4.7163
14.7946 115.883 11.9829
0.23494 124.614 -12.8842
20.5226 108.023 5.25301
-14.8225 143.449 -2.14689
16.4207 114.308 12.3641
11.734 119.687 13.7743
11.2103 113.326 -11.9446
-6.72304 133.459 -7.70211
12.8084 118.436 13.1687
-12.4617 140.789 -3.29916
-14.1975 142.709 -3.01453
12.7057 112.185 -10.6817
13.6667 111.448 -9.72958
-16.8685 147.275 3.19057
-6.32034 137.499 8.33547
-5.87036 137.078 8.50159
19.4499 108.754 2.59401
-17.0853 147.045 0.675496
-1.139 133.391 12.6024
14.7926 110.72 -9.02807
-11.3121 142.179 5.17362
17.2448 109.835 -2.80572
-7.00684 134.217 -7.76647
1.53468 130.73 12.7137
-8.26165 139.313 5.97023
-0.984906 126.765 -12.1871
9.04982 115.838 -13.371
14.3442 111.396 -9.37517
20.0723 109.685 6.60089
18.6925 109.524 0.401111
-11.2767 139.978 -4.3222
-11.8539 143.243 5.3844
5.29329 119.907 -14.0993
11.5876 120.857 14.0219
10.6208 114.909 -12.406
-16.489 147.585 2.23502
18.2353 109.986 -1.00052
-9.26051 137.73 -6.06412
11.2276 121.632 14.4065
13.3568 112.776 -10.4869
15.8436 110.922 -7.72267
-12.0735 143.963 5.18826
3.63624 122.118 -14.228
-14.3436 146.459 5.50933
8.30768 125.595 16.9333
4.15359 129.098 13.5949
3.52852 129.729 13.2097
10.1171 123.698 16.1466
-1.71528 128.848 -11.3207
5.88952 127.845 14.8429
11.2239 115.065 -11.7415
1.11152 132.306 12.5029
19.08 110.098 0.642358
16.9391 115.352 11.7168
4.84983 128.756 13.9505
-13.1304 143.138 -3.40295
3.38614 130.126 13.0951
18.3316 113.851 11.0983
0.945353 125.629 -13.6029
19.5499 111.794 7.88025
-8.94472 138.35 -5.52995
-12.8342 142.961 -3.76568
-6.77137 139.784 8.21231
20.089 110.097 3.53075
-0.0722529 127.106 -13.0563
15.9046 116.76 11.2853
4.28056 129.72 13.6711
15.882 111.881 -7.02362
-15.7797 147.22 -0.341856
5.07771 129.006 14.0124
-9.60209 139.612 -4.56656
10.4192 123.931 15.875
10.3981 116.561 -11.6184
7.55015 119.072 -13.5887
18.8371 113.481 9.83766
19.8846 111.72 7.37049
-2.65495 136.168 9.54415
-7.85411 140.693 5.79719
11.3524 115.89 -10.8547
4.52422 122.334 -14.0234
5.47567 129.019 14.2464
10.0407 124.908 16.8638
-8.40766 138.275 -6.18155
-12.9043 146.093 5.11032
10.68 123.928 15.5066
3.91384 123.116 -14.2271
-3.02651 136.818 9.19268
19.7331 110.839 1.98306
-5.0849 139.119 9.25483
0.840789 133.744 12.4767
-6.30605 139.861 6.93258
19.8102 111.407 3.79267
7.42537 119.971 -13.3663
12.6165 115.164 -10.8344
4.87187 122.75 -13.2083
-11.6236 145.256 5.51094
20.1588 112.04 6.92212
4.1887 130.751 13.5912
13.562 114.411 -10.3574
6.68586 128.564 15.1816
18.537 111.518 -1.76322
-6.83201 140.723 6.91471
5.72189 122.163 -12.7695
10.7584 124.603 15.8218
-1.10255 129.659 -12.0691
-2.93534 137.394 9.25358
5.3402 122.831 -12.5219
-15.1969 148.627 2.42023
-15.0726 148.697 3.127
8.33616 119.587 -13.031
-13.7496 145.906 -2.09273
18.9282 111.682 -0.846446
18.0748 112.045 -2.86024
-7.30868 137.784 -7.23647
11.8373 123.274 14.0895
2.59512 132.666 12.5204
3.51973 131.868 13.1437
10.0518 118.324 -11.583
10.1984 118.468 -11.333
0.693895 134.953 12.4764
-15.1132 148.281 -0.437692
19.7242 113.745 8.04729
-10.7334 142.808 -4.00587
16.795 113.391 -5.20022
8.45777 128.059 16.5178
4.13309 131.849 13.5667
-2.43924 137.749 9.62617
-12.2587 144.561 -3.70353
7.86532 128.655 16.2333
13.4305 121.882 12.9071
18.7658 112.387 -1.42911
-0.120349 129.354 -12.7102
8.35851 128.238 16.4951
7.12504 121.743 -12.7933
-6.05088 140.68 5.75385
19.5304 114.413 8.70466
0.0195976 135.643 10.8417
-0.876625 130.463 -12.1064
17.5949 117.1 10.8084
-14.8022 148.84 1.12651
8.63408 120.419 -12.5485
-1.41511 137.158 10.1295
20.0633 112.994 4.51617
14.2786 121.402 12.7352
13.2695 116.353 -10.0363
0.972413 135.411 12.2612
-12.2657 145.189 -3.53861
6.56323 123.049 -11.8172
8.02274 121.259 -12.8057
10.8817 126.042 16.1177
19.8108 112.872 2.11475
19.2829 115.277 8.83215
14.0207 115.901 -9.69209
4.1891 132.613 13.6243
-5.34834 140.757 6.3178
-9.10383 144.405 5.02023
-12.5899 145.955 -2.9486
20.1125 114.046 6.95674
20.0432 113.315 3.70131
16.0998 114.34 -8.44482
12.9427 117.351 -9.97829
11.1703 119.126 -10.3765
-5.69971 141.04 4.68215
-9.9031 145.61 5.11574
8.66686 121.258 -12.3728
19.1343 113.974 1.71881
14.705 115.749 -9.42039
-4.9011 140.987 7.13336
-8.88473 144.54 4.6337
-13.9605 149.423 2.67887
19.3205 114.071 2.17157
9.41426 120.85 -11.7443
3.11835 127.082 -13.4117
20.2084 114.405 6.24613
-14.0863 149.463 1.56512
16.3625 119.834 11.0004
19.9491 113.988 3.30612
17.5686 115.078 -2.04972
17.1002 115.732 -1.56557
11.95 125.662 14.8411
18.3292 117.744 10.4582
12.1455 118.61 -10.697
17.5694 118.56 10.2424
6.97776 130.941 14.593
-2.58693 135.425 -7.17627
-0.783046 132.382 -11.42
15.8407 116.669 -4.4787
17.568 118.784 10.1819
17.2555 116.186 -0.713099
-5.71302 141.835 4.21971
-9.73868 143.816 -4.53796
16.2599 115.309 -8.22442
-1.22207 133.262 -10.6337
0.492041 131.056 -12.1474
15.9737 115.629 -8.71707
4.59951 133.788 13.7378
-10.3575 147.279 4.82226
15.7972 121.495 11.8141
-4.08962 137.453 -7.19338
13.6448 117.981 -9.8529
9.32113 122.04 -11.7858
5.00506 133.567 13.8587
8.23615 123.374 -11.4652
-4.49391 141.545 5.73341
-13.543 149.227 -1.36681
8.59187 123.046 -11.6921
12.282 126.371 14.8665
-1.38635 139.409 9.49949
17.9928 116.761 1.51828
-0.72778 133.294 -10.8598
19.2359 116 3.27767
-1.20066 134.21 -9.61376
15.1256 117.634 -7.60528
15.3177 122.939 12.7567
8.01909 124.278 -11.2183
19.9561 116.152 5.42802
-13.2593 150.114 0.705873
4.7654 134.64 13.6808
0.335376 138.316 9.88187
-9.66139 145.001 -4.68487
20.0362 116.044 4.36159
15.8578 122.549 11.9469
-1.6823 135.856 -7.79943
-3.67873 138.172 -7.1469
-3.42556 141.922 7.35037
15.6525 118.795 -3.60223
0.668961 132.358 -12.1714
-12.1742 150.064 3.03593
2.83847 130.203 -11.7902
-11.8659 149.862 3.29534
5.67548 127.386 -11.2774
20.0507 116.507 4.81955
0.285156 133.036 -11.5749
-2.23424 137.151 -6.35027
-1.74339 140.714 8.52828
-3.51631 138.398 -7.06894
19.3608 118.086 7.22182
8.54766 131.743 15.1987
17.7088 118.068 0.355387
15.2367 118.009 -9.8833
15.129 118.077 -10.1671
-1.84028 137.019 -6.53851
4.0038 129.686 -11.1927
-12.4359 150.464 1.35397
-11.726 150.232 3.00262
-12.581 149.985 -1.41469
7.83204 132.696 14.4886
14.8123 118.783 -9.78561
-0.830582 135.728 -8.4679
19.4635 118.941 8.93351
14.657 118.9 -10.1482
19.5515 117.272 2.95304
-9.87634 148.652 3.75562
7.36347 126.337 -11.4106
-4.0029 139.754 -6.70897
19.4656 118.542 6.70679
19.8091 117.51 4.11776
14.8702 119.62 -7.58283
18.7451 118.066 1.81568
10.2784 130.76 15.4204
-1.57856 137.46 -6.44639
0.304071 134.483 -10.1371
10.6675 130.509 15.3374
1.58457 132.77 -12.011
15.3248 120.259 -4.79376
19.5989 118.035 3.68215
15.5962 119.63 -6.25469
1.14687 139.169 9.52161
15.8195 124.613 12.7699
3.07183 137.887 11.9483
12.2632 129.129 15.1732
-10.351 147.871 -4.164
8.93078 125.414 -11.7938
15.587 125.01 12.8668
8.05115 126.37 -11.7603
17.4442 119.264 -1.23971
0.153743 135.478 -9.06929
19.5589 119.987 9.55519
15.3162 125.392 12.9093
9.26991 132.418 15.1438
12.2626 129.296 15.1116
-8.33548 145.796 -4.85994
14.2749 126.721 13.0062
0.0141612 136.111 -8.59452
5.58452 136.135 13.344
0.241992 135.819 -8.88446
-9.87372 147.727 -4.45343
16.0292 120.499 -3.93914
15.6103 120.818 -4.40152
7.38116 134.552 14.0292
17.0977 119.818 -2.5282
19.6482 119.162 5.0189
-2.51017 142.959 5.98174
19.6467 119.706 6.68181
-0.492933 137.286 -7.54769
-0.497926 137.301 -7.53066
12.1227 122.894 -11.5183
19.3774 119.659 4.98021
-0.229086 136.931 -7.97167
15.3924 120.922 -6.1876
-10.4508 150.633 2.50581
2.72228 138.814 10.4026
18.536 119.571 0.947674
19.3926 120.01 5.72196
9.12443 126.089 -12.1742
3.0664 138.864 10.8247
2.19354 139.44 9.47868
-9.93867 150.447 2.55692
19.0596 121.608 9.44138
18.3751 119.724 -0.360094
19.1907 120.639 6.1981
5.7836 130.169 -11.2179
18.3555 120.551 2.299
19.661 120.848 8.44024
-0.709265 138.411 -6.42825
4.15624 131.983 -11.4172
19.6211 120.809 7.74271
-11.3882 151.384 -0.630782
14.6852 121.567 -9.07747
-11.1275 150.817 -1.92103
-6.74423 145.438 -4.68003
18.34 121.087 3.48943
19.6689 121.053 8.49032
15.4191 121.38 -7.19407
18.5321 120.246 0.791829
-1.8579 143.412 6.6608
19.3922 121.098 7.26702
0.0674936 137.523 -7.72034
2.61582 139.59 9.88217
17.7658 123.88 10.7814
13.6632 129.125 14.1333
17.6147 124.396 11.5
16.7645 121.254 -3.78746
0.807692 141.418 8.26118
9.54431 133.874 14.5575
-2.3038 143.564 3.86401
19.3786 121.756 8.03181
0.465415 137.621 -7.86645
-10.9471 151.649 -0.739021
7.62215 135.957 13.8082
1.8272 135.49 -10.7725
2.55732 140.192 9.50605
5.12905 138.226 12.2903
9.97464 126.512 -12.4062
10.325 133.4 14.5314
4.84805 132.311 -11.0806
18.4986 120.751 -0.408458
-7.08065 146.791 -4.67967
-9.71165 149.917 -3.43268
13.7954 122.771 -11.9467
14.1429 129.302 13.6845
14.8619 128.462 13.0318
6.71108 130.61 -11.6716
-1.71451 143.982 4.75979
7.50722 129.772 -11.7862
17.1114 122.175 -2.45488
5.64532 132.05 -11.0373
-10.5931 152.117 -0.392167
1.72447 136.561 -10.0466
11.9315 125.277 -11.9864
14.8361 123.529 -7.11834
0.170333 139.167 -6.72976
10.1667 127.14 -12.4163
16.2431 122.79 -4.91223
10.6341 133.886 14.1615
2.50886 135.697 -11.5995
9.81967 127.83 -12.2037
17.703 125.674 10.8005
-0.757255 144.177 6.89924
-1.34755 144.334 4.97323
13.4799 131.262 14.355
0.450458 139.355 -6.85429
18.8065 124.414 9.8308
-2.44176 142.818 -5.53754
-0.215637 143.872 7.12317
5.54679 132.858 -11.2472
3.49569 140.822 9.99249
18.2713 122.312 -0.686938
-6.12099 147.146 -4.50704
-5.87746 146.945 -4.38467
16.6215 127.704 12.539
5.42518 139.385 11.7858
10.2929 127.87 -12.3889
17.7249 123.014 -1.23626
-0.555436 144.563 6.78106
-4.66673 146.245 -3.77454
-9.03566 152.164 0.936705
6.74383 132.062 -11.7519
11.8461 133.573 13.6311
13.751 131.698 14.0152
19.3421 124.074 7.55268
4.54152 134.776 -11.2877
17.5208 127.083 10.9538
3.93131 135.516 -11.2036
13.0791 125.655 -11.8704
19.0189 123.104 1.66251
-3.10282 144.839 -4.70855
-0.758838 142.289 -5.2097
-1.89973 143.513 -5.2105
-1.81435 143.445 -5.20439
2.41312 137.665 -10.4795
-5.86459 148.137 -4.19449
3.50483 141.821 9.19668
18.2655 123.522 -0.759562
19.2397 124.161 5.20005
18.664 124.138 2.51103
-7.66947 150.391 -3.54165
2.1123 138.627 -8.98724
-7.3061 149.988 -3.85306
19.476 124.914 7.90941
17.0263 128.769 12.5923
-2.27942 144.526 -4.98257
16.7044 124.612 -4.39456
18.4456 121.875 -7.84158
17.8905 126.939 8.72718
18.9296 123.872 1.40321
-3.03462 145.56 -4.41297
17.1994 128.719 12.5145
13.1631 133.214 13.3024
11.5645 128.035 -12.2557
12.9312 133.506 13.2476
5.52387 140.814 10.913
15.3492 124.78 -10.0518
8.77828 137.902 12.8431
-8.81191 152.909 -0.608274
19.3427 125.488 8.09825
0.665145 141.409 -6.34496
8.4492 131.623 -12.1846
13.8984 132.722 13.33
18.9305 123.907 0.148252
14.9854 125.808 -8.36251
-8.75999 153.233 0.0506188
18.0211 122.78 -7.81515
19.2592 124.856 4.56699
19.1023 125.931 7.90883
1.38379 140.643 -7.23724
14.6042 125.679 -11.1194
18.2602 122.959 -7.24252
18.8434 124.512 0.631174
17.8545 123.415 -7.51751
17.7858 127.927 8.76211
19.453 122.254 -6.1545
19.4606 122.963 -3.83439
19.0323 123.862 -2.2519
9.69404 137.659 12.2829
9.03586 138.342 12.2203
11.2859 129.496 -12.3227
15.1087 126.192 -10.1693
19.3658 123.863 -2.16454
15.7214 126.141 -8.14547
18.1809 124.284 -6.19095
10.5145 130.931 -11.7743
19.9143 121.992 -8.1738
17.1323 125.938 -4.50002
17.9749 126.314 0.156463
20.5141 122.525 -4.06309
-7.64159 153.711 0.648024
-6.46733 151.428 -3.29915
-7.68688 153.46 -0.564733
5.08163 137.032 -11.4635
-6.72947 151.964 -2.65672
-3.9245 148.872 -3.11878
18.1312 128.934 9.43457
4.73744 143.106 9.25241
18.1415 126.014 -1.71965
11.4064 130.438 -11.9362
14.7058 127.251 -10.8333
9.59535 138.718 11.4365
19.0308 126.257 2.20439
4.3434 143.6 8.76989
12.0423 136.399 12.2719
18.2254 129.184 9.56245
8.21619 140.416 11.2556
17.8559 126.321 -3.34188
21.1329 122.706 -3.98822
18.5836 128.145 6.1574
17.0672 127.838 -0.967051
5.20889 143.143 9.24009
18.2694 124.828 -7.71893
10.3162 138.44 11.5689
17.9419 127.367 0.334779
9.81889 138.967 11.2801
18.4542 125.115 -6.26429
19.8755 124.708 -2.32113
11.4138 131.179 -11.6296
18.2057 125.683 -5.41353
-6.45955 152.821 -1.74883
13.0133 129.521 -11.8755
17.8206 130.685 11.3212
10.9804 131.838 -11.3111
19.5943 125.128 -2.45963
17.9273 126.588 -3.81331
1.38652 143.645 -5.59337
18.3309 126.705 -2.27979
16.4937 128.401 -3.20702
5.15786 143.694 8.94131
16.8061 127.356 -6.08012
9.50303 139.746 11.0272
20.9377 124.24 -2.0063
18.2723 129.729 7.89317
-1.45521 147.498 -3.84144
3.75445 140.27 -10.2523
16.7304 127.217 -7.9119
16.532 132.94 12.5292
17.4721 126.219 -8.897
9.33511 134.124 -11.5662
5.61504 138.12 -11.3852
8.13845 135.517 -11.206
20.4766 122.929 -9.52593
18.6063 127.243 -1.17682
15.6722 129.483 -4.75195
16.5821 127.502 -8.62445
20.727 122.897 -9.45026
17.7439 128.306 -1.16507
1.6882 144.18 -5.60502
19.4332 126.815 -0.350709
11.1405 132.707 -11.1262
20.6624 125.58 -0.220813
17.1231 132.623 12.0173
16.3625 127.909 -8.65078
20.8136 125.54 0.00578936
15.4767 129.977 -4.52326
16.896 129.377 -1.2278
19.3784 127.528 1.52358
10.3089 133.705 -11.3761
18.3735 127.167 -3.9727
3.41737 141.7 -8.87872
2.47829 143.321 -6.75845
20.9463 125.569 -0.103314
20.3661 123.619 -9.87291
8.57255 141.629 10.5936
21.1415 125.541 0.0719933
11.9401 138.372 11.5249
13.365 136.911 11.6904
-3.87639 151.431 -2.70148
9.38261 141.052 10.5709
16.104 129.121 -7.40406
21.1983 125.768 0.137843
11.8939 138.639 11.3631
18.9052 130.003 6.73424
21.5137 122.953 -9.24501
0.657494 146.325 -4.7835
16.1901 129.155 -7.56577
5.12495 139.935 -11.0463
19.0009 125.414 -10.439
19.7708 127.809 1.22317
10.3578 134.544 -11.0657
15.9486 129.705 -7.09208
19.1143 129.823 5.4781
15.7812 130.067 -6.85216
21.2157 125.851 -1.38247
17.469 129.438 -2.88994
17.0408 128.304 -8.80217
18.6069 129.447 1.33125
15.148 135.998 11.7999
18.7944 129.45 1.73207
14.6047 130.426 -11.3892
-0.809776 148.747 -3.98454
10.682 140.454 10.4017
22.3329 124.427 -3.54892
18.0613 130.341 1.3605
19.0137 129.445 1.77633
18.0978 130.248 1.14361
6.76154 144.325 8.77614
18.9053 129.848 2.65329
18.0906 129.898 -0.479762
6.4262 139.335 -11.4544
18.2028 129.917 -0.216532
6.25536 139.554 -11.4418
21.8964 125.822 -1.09154
19.0415 131.055 7.07982
22.0219 125.16 -3.12635
4.34062 146.654 7.03686
11.8699 139.684 10.7438
20.6613 127.618 0.371476
22.3982 124.886 -3.49519
9.76414 141.934 10.0773
18.7451 130.93 4.24795
16.7554 135.08 11.8393
11.1889 135.001 -10.4128
18.4252 131.207 3.78173
-3.26243 152.411 -2.79321
14.8615 137.078 11.4179
16.4774 129.705 -9.65227
9.69682 136.614 -10.8507
19.0086 130.761 4.02401
3.97344 147.325 6.2915
17.3853 131.205 -0.995584
18.4948 129.034 -4.75037
19.514 126.433 -10.6377
18.914 130.893 3.37175
19.4967 130.255 3.16843
18.8856 130.94 3.25777
16.0112 131.289 -6.83164
15.6852 132.071 -5.28355
17.8435 129.255 -7.58064
16.4599 135.927 11.6932
20.3182 125.791 -10.8145
16.1153 131.993 -4.32629
-2.96715 152.593 -2.85641
22.3954 125.848 -2.5352
14.105 132.409 -10.7937
8.71421 138.179 -10.6381
0.27245 148.79 -4.457
-3.28125 153.148 -2.54337
9.13132 137.824 -10.7063
18.093 128.639 -9.65736
-2.68892 152.446 -2.93708
9.43411 137.663 -10.6947
14.8545 137.821 11.118
21.7919 124.767 -10.2903
4.80252 143.143 -8.86897
17.4709 130.905 -4.70034
5.51264 146.772 7.1757
23.2431 125.163 -3.4056
12.6131 140.124 10.3539
15.3988 137.412 11.2223
15.0902 131.907 -10.6171
22.1459 126.958 -1.36323
16.2471 131.7 -7.29361
14.6473 138.314 10.9064
22.7836 126.33 -1.73158
-2.74221 153.121 -2.66058
4.57317 144.028 -7.71833
5.26411 142.828 -9.58766
17.3702 129.999 -9.76856
7.10838 140.519 -11.3741
17.6194 130.067 -9.09253
22.665 127.205 0.0135323
6.61914 146.279 7.66406
5.71692 142.484 -10.0812
9.19189 144.014 9.1427
6.20849 146.719 7.33203
11.6967 141.565 9.55097
17.5822 130.916 -6.98718
7.48419 140.519 -11.1369
8.6837 144.625 8.76524
14.9242 132.955 -10.1387
16.6556 131.899 -7.3299
16.5422 131.791 -8.17938
-0.124186 150.539 -4.07163
13.8736 139.819 10.2564
16.7175 131.705 -8.80723
-1.90336 153.041 -2.77143
7.61791 140.764 -11.0639
16.8494 131.507 -9.16512
22.6515 125.669 -8.22709
11.0164 137.573 -9.93868
16.9308 131.929 -7.87629
11.0534 142.764 9.06755
7.63947 146.081 7.9639
16.7591 132.349 -7.67018
17.9156 131.108 -7.84637
23.1961 127.636 0.0135898
22.7543 128.625 1.75374
17.9266 131.609 -6.16962
14.0135 140.127 10.0309
21.9613 126.104 -11.0076
13.1069 141.09 9.75317
16.9176 132.05 -8.98231
17.8672 130.847 -9.7787
17.2366 137.042 10.7106
4.6076 145.727 -6.99616
22.5462 129.351 2.48002
17.0378 132.514 -7.65987
2.59434 148.423 -5.39187
3.65981 147.103 -6.18175
2.97628 148.038 -5.57056
17.509 133.238 -4.02561
23.1467 128.97 2.25299
8.41274 146.097 7.91416
24.4879 127.151 0.656064
12.9535 136.606 -9.69007
14.8351 134.719 -9.40417
17.5293 133.026 -5.56636
18.8836 130.41 -10.1293
22.8738 126.129 -10.4361
19.2863 134.644 7.05537
24.3109 127.778 0.997612
21.3834 127.817 -10.5926
22.4131 126.715 -10.72
18.7699 131.782 -6.31185
15.5413 134.5 -8.92271
15.2714 134.831 -9.00709
18.0215 131.975 -8.81516
8.56745 141.457 -10.7856
17.5267 132.812 -8.04232
18.4654 132.885 -4.80756
23.8098 128.34 -0.708486
17.1654 133.214 -8.74176
2.91006 149.231 -5.43503
6.70773 144.274 -9.35225
7.31163 143.424 -10.4168
1.1181 151.763 -4.13072
19.4108 130.964 -9.63031
10.5342 140.132 -10.5437
17.4698 133.32 -8.66131
11.1761 144.576 8.0623
24.4671 127.977 -1.47278
-0.414778 154.137 -2.2231
2.5436 150.266 -5.08377
22.8811 127.347 -10.419
21.7283 128.631 -10.2008
20.8064 133.503 4.24214
24.5996 127.95 -1.52953
22.1361 131.584 2.28861
18.7154 131.949 -9.85908
17.2142 138.898 10.0407
9.10893 146.825 7.43573
18.0298 133.874 -5.97406
7.04764 148.894 6.43887
8.72634 142.429 -11.0231
10.8956 145.273 7.82206
8.76132 147.445 7.12044
24.1031 128.997 -1.46349
18.1608 133.339 -8.74988
6.66818 145.755 -7.85728
24.6198 126.493 -8.83622
24.5438 128.959 -0.00279665
19.1555 132.994 -6.20735
24.9886 128.295 -0.801403
17.2327 134.722 -7.55156
0.558782 153.81 -2.4742
14.7337 142.024 9.33527
19.3501 136.627 7.20667
17.636 134.126 -8.91405
16.428 135.305 -9.37088
25.1144 128.392 -0.993256
24.3588 126.755 -10.0582
16.3803 140.556 9.7877
3.1724 150.534 -5.23578
6.028 147.016 -7.16673
20.6821 134.9 5.20508
17.2405 139.626 9.19744
8.50101 143.647 -10.3979
25.9534 126.374 -6.61372
5.24791 148.307 -6.56727
19.3004 137.058 6.88422
14.6429 142.713 8.85956
17.0276 135.522 -8.49626
6.52388 150.401 5.37422
14.9129 137.378 -10.0436
18.9766 133.48 -8.65293
18.5884 134.164 -7.7038
25.4062 128.743 -1.0667
1.33866 154.001 -2.1737
11.814 145.482 7.3619
15.2669 137.157 -10.046
6.86579 150.342 5.56816
18.9543 133.681 -9.03458
24.8853 129.43 -1.52481
24.4829 127.648 -9.75807
19.0114 133.986 -8.16492
20.2039 136.537 5.90001
17.4024 140.264 8.54183
25.9568 127.419 -6.1464
7.13355 147.083 -7.43864
25.6664 129.49 -0.0375674
24.5564 131.354 2.38042
26.7135 126.444 -7.48972
18.1099 135.329 -8.45846
15.4506 142.873 8.64496
17.5908 136.034 -8.63662
12.0358 146.119 6.93696
24.6149 131.593 2.38685
14.3102 144.025 7.86363
25.9901 127.143 -8.9932
22.52 134.253 3.69914
9.68026 148.584 6.28161
9.05687 145.006 -9.81074
8.75184 149.617 6.08325
21.3708 132.331 -8.57593
11.6711 142.023 -10.713
16.997 136.597 -9.99933
8.1489 150.22 5.76945
8.0913 150.274 5.7307
18.0104 136.091 -7.96938
16.5763 137.64 -7.93653
25.3425 130.482 -0.0560856
12.6099 141.159 -10.5553
18.0487 136.12 -7.88595
13.3141 145.249 7.25081
25.6431 129.945 -1.21723
17.4166 136.806 -8.18506
9.35643 144.952 -9.84769
17.3538 137 -8.02373
26.5433 129.47 0.119012
9.23297 149.398 6.05726
23.1377 133.755 2.45037
25.13 128.611 -8.90071
12.5905 146.176 6.82481
15.329 138.625 -10.554
23.7946 130.382 -7.92219
24.1122 129.97 -8.47975
15.9139 138.205 -10.3318
28.2402 126.604 -5.12367
16.8475 142.488 8.82112
24.7607 129.441 -8.65895
24.1922 130.334 -7.67594
4.33841 152.385 -4.2313
14.2941 140.447 -9.66744
27.5873 128.556 -1.68031
18.5039 136.113 -9.45478
17.1583 138.071 -7.70157
26.8935 128.204 -6.27312
9.91596 145.29 -9.73564
17.5554 137.184 -9.98773
25.1386 132.245 1.30381
7.97654 151.45 5.13713
24.533 133.125 2.009
21.6926 137.035 5.34897
25.1166 131.974 -0.196594
27.1636 127.876 -7.72272
8.82199 150.882 5.40161
23.553 134.552 2.63744
10.3212 145.243 -9.77498
22.9826 135.638 4.31694
25.2049 132.389 0.909518
24.9718 130.933 -5.73892
26.9342 128.426 -7.69231
21.4864 137.753 5.51173
15.3138 140.288 -9.36298
26.8857 130.58 -0.294608
28.3189 128.336 -3.25413
6.15106 151.29 -5.51845
8.83278 147.835 -7.84286
27.5526 130.045 -0.373446
8.53683 151.721 5.07852
27.0195 130.428 -1.384
5.11458 153.313 -2.86513
22.503 133.596 -8.07051
27.2337 130.356 -1.70916
17.1134 139.298 -8.37331
4.26325 154.668 -1.85767
17.88 138.472 -8.69947
17.8367 138.566 -8.85906
10.516 150.129 5.15995
19.8989 140.831 7.0616
29.8047 127.755 -2.77488
21.1067 139.47 5.85991
26.173 132.474 -0.24062
7.76866 150.306 -6.51412
25.9474 131.718 -4.19098
12.8717 144.262 -9.40555
28.6601 129.418 -2.66541
11.0568 146.375 -9.01914
14.4834 142.59 -9.60708
14.5584 142.549 -9.58582
16.6421 140.762 -8.24884
23.4745 133.828 -7.4467
18.8359 142.673 7.08567
17.7495 140.269 -6.58779
20.935 140.403 6.28222
26.5364 132.849 -0.0715553
27.6885 131.598 -0.335842
22.841 134.73 -7.93822
23.0198 138.021 5.00315
6.66784 153.213 -2.86887
8.79289 149.951 -6.91074
22.4266 135.363 -7.72668
16.7721 145.291 6.81689
24.8447 135.629 2.1834
16.249 141.883 -8.89098
28.2964 131.31 -0.846878
28.911 130.335 -2.22421
8.65248 150.677 -6.59422
21.7752 140.089 5.67621
16.0103 142.252 -9.09746
29.5408 129.881 -1.9308
15.3999 142.91 -9.15267
16.231 142.185 -8.69809
14.895 143.583 -9.03576
29.0781 130.503 -1.88066
11.5376 150.712 3.93865
28.8321 130.949 -1.65061
22.4273 139.65 5.4298
26.7862 132.856 -2.79701
19.3821 143.237 6.63145
26.0943 134.342 -0.110247
10.5753 148.631 -8.11013
7.54075 153.343 -2.69195
6.77525 155.137 0.413828
26.3652 133.629 -2.76097
20.1988 142.633 6.425
14.0346 145.066 -8.94623
23.8174 135.586 -6.11822
14.1785 148.731 4.7885
26.2733 133.995 -2.45584
25.5033 134.507 -4.1779
21.6305 137.728 -7.61357
7.7756 155.109 1.65039
8.01886 154.201 -0.985158
7.96342 154.971 1.23394
26.623 134.284 -2.33769
13.3912 150.006 3.76631
18.8655 144.979 6.47064
20.3874 139.909 -6.6586
29.1427 132.064 -1.84734
11.6849 148.886 -8.14607
9.49078 152.025 -5.19956
27.2975 134.483 -0.457414
21.5598 142.397 6.19843
26.9024 134.539 -2.25584
17.145 144.12 -5.20689
19.1626 142.273 -4.58858
12.6395 148.252 -8.18923
22.0747 142.081 5.84723
10.6108 151.028 -6.00636
27.7426 134.301 -0.792925
28.7234 133.32 -0.751679
17.5364 147.047 5.86009
12.3704 149.138 -6.70786
24.3246 138.655 1.32455
15.9234 145.588 -6.09046
18.2158 143.653 -4.3074
13.8294 147.266 -8.27471
29.5253 132.662 -1.00782
20.438 141.352 -4.62675
13.7555 147.476 -8.23862
17.2463 144.771 -4.58814
26.0742 136.858 0.132645
22.2209 142.506 5.90596
29.2991 133.061 -1.54497
29.198 133.548 -0.251929
27.555 135.226 -0.96878
24.3407 139.457 1.80426
20.4892 144.771 6.04232
21.7889 140.649 -4.56801
14.115 148.039 -7.37876
10.9827 152.872 -1.86616
27.6923 135.637 -0.463235
15.4026 146.977 -6.86618
16.3077 149.057 4.25614
26.9916 136.657 -0.0900897
25.0344 139.287 1.48625
19.3059 146.449 5.48647
13.0696 150.314 -4.884
26.1798 137.352 -1.55383
16.4678 146.714 -5.07148
22.2781 140.868 -4.00799
17.1739 146.329 -4.187
21.2906 142.248 -3.28781
13.3347 150.275 -4.84768
17.779 148.192 4.84842
26.6475 137.393 -1.03313
24.5557 138.915 -4.19235
19.7918 144.238 -3.85508
14.8432 149.579 -3.5074
24.4336 141.166 2.37644
15.4493 150.531 1.82665
16.1727 148.088 -4.4631
19.5238 147.078 4.8553
21.3356 143.331 -2.54853
15.0119 150.245 -2.11689
15.7747 149.69 -1.66908
17.9555 148.847 3.57188
14.711 151.078 -0.950315
16.9503 147.807 -4.50828
26.5102 138.682 -1.19406
14.6933 151.058 -1.70532
27.0408 138.528 0.09881
24.998 139.803 -3.36411
25.5142 140.044 -0.436467
17.1653 148.69 -1.22634
26.9372 138.846 0.389184
23.3383 142.188 -2.12077
26.5521 139.261 -0.487074
26.1133 140.007 0.534341
23.4245 142.163 -2.09681
20.675 146.8 4.16644
26.5404 139.685 0.59822
22.2967 144.834 2.99887
22.7865 144.667 3.97149
25.2759 140.627 -1.34731
22.5861 145.047 4.4981
25.5464 141.321 1.88583
18.5764 147.272 -3.50513
22.1901 145.514 4.13201
20.6374 145.358 -2.73463
25.2674 141.355 0.00670855
23.6492 144.282 4.36853
24.9278 141.144 -2.4971
19.1768 147.618 -2.01264
22.9594 144.873 2.32472
25.2291 141.743 -0.424599
20.2943 147.107 -0.090101
24.9567 143.04 2.92964
23.182 143.791 -1.51201
25.7784 142.437 1.66134
21.2345 146.638 -0.80481
21.8519 146.358 -0.452613
25.3163 143.011 -0.211625
22.9569 145.744 0.609624
24.8358 143.9 -0.166684
25.0685 143.919 0.536277
24.3471 144.949 0.575082
