ply
format ascii 1.0
comment Created by Open3D
element vertex 1767
property double x
property double y
property double z
end_header
-4.71559 93.4194 14.4909
-12.715 133.533 3.24454
8.72275 106.392 -12.5132
-1.78876 86.8796 14.0705
-5.60244 135.789 -8.34955
-11.4121 113.898 12.7381
-13.3743 135.024 3.50512
-11.9989 130.007 4.39408
-4.45867 133.677 -8.74418
-17.0036 137.915 7.22658
-7.60298 139.393 -7.36214
-11.917 130.197 4.2529
-7.20808 104.736 11.9936
-1.88173 131.495 -11.1427
-12.6841 133.974 3.25523
-12.6774 128.784 6.22843
-3.0985 89.8538 14.5944
13.3492 90.8467 -10.0383
-12.4651 119.136 11.5315
-8.8752 140.39 -5.88185
-15.8658 137.165 6.25144
-12.9224 146.251 -3.1974
6.1532 115.175 -13.2458
-3.8019 133.563 -9.16217
12.5752 94.3379 -10.6217
-10.3556 112.747 12.3949
-17.4913 146.05 3.74792
-16.8667 146.702 2.55845
-15.7624 137.452 6.34336
-3.81864 133.761 -8.98125
-15.0189 147.37 -0.33582
-11.5178 130.64 4.13985
10.9629 101.925 -12.2981
-18.1089 141.893 7.36823
-4.22508 93.4107 14.86
-5.18815 96.1976 14.6784
-14.2412 147.359 -1.33449
-5.03265 135.803 -8.0915
-11.1094 114.392 13.1212
8.81251 107.939 -12.2602
6.54784 115.482 -13.2485
6.35084 115.871 -13.1543
-2.88003 90.5622 14.9265
8.59936 108.943 -12.3917
-12.3875 128.177 7.31775
-4.16733 93.8823 14.9734
-12.2627 122.547 10.4147
-5.53177 138.236 -8.32384
3.44707 124.781 -13.7277
-4.90601 96.1006 14.9448
-11.9773 119.755 11.7342
7.38373 114.43 -13.5444
-11.4918 133.502 3.28431
12.6054 96.9415 -10.9737
-5.41057 99.6296 13.8598
-2.64327 90.502 15.0979
-17.7332 143.088 7.06316
-11.4123 131.404 4.56001
-11.316 133.041 3.51289
-4.74676 136.241 -7.92089
14.456 89.7861 -9.38491
-17.7493 143.775 6.86442
-0.231251 86.0398 14.4528
-16.4429 139.893 7.40859
14.0741 92.0145 -9.73873
16.8396 79.0693 -6.34668
13.112 96.0476 -10.5977
3.02838 126.724 -13.4183
-2.26903 133.905 -9.78108
6.5598 117.062 -13.0364
0.0383911 132.282 -12.1938
12.0829 99.8238 -11.2038
17.2691 77.382 -5.92032
-3.09701 92.3429 15.3318
-16.5861 146.65 3.94782
1.03951 130.24 -12.3814
16.3017 81.1093 -6.52259
-10.25 146.772 -5.26531
9.11493 108.826 -11.825
17.0708 78.6945 -6.18876
-10.7064 115.389 13.4489
-5.2359 100.853 13.8095
-11.913 124.665 9.97527
11.1795 103.947 -11.933
-0.069122 86.6759 14.484
-14.9663 148.096 1.09538
11.8534 101.359 -11.3017
-10.5025 147.459 -4.98763
-13.0422 148.567 -1.90206
15.7319 84.3561 -7.19598
-1.70053 89.9363 15.121
-11.091 130.184 5.80652
-11.5095 128.455 7.44581
-10.7294 147.628 -4.65992
-6.27475 140.481 -7.04162
-7.84487 141.689 -5.38191
15.6243 86.6834 -8.17282
7.16527 117.149 -13.095
-9.0683 145.259 -5.44098
-14.0638 148.856 -0.190447
-10.5811 147.884 -4.72582
-10.577 115.985 13.5989
5.90196 120.991 -13.3263
-11.0683 128.791 7.07132
-13.1806 149.287 -1.55656
-11.8609 148.541 -2.99884
-10.8756 117.651 13.2733
-15.2815 147.755 2.54559
7.00745 118.929 -13.486
-0.746454 89.3501 14.8394
-8.75485 145.252 -5.48397
-5.07175 102.748 13.5689
7.11593 118.842 -13.426
-6.87386 108.205 13.1819
-9.90268 115.164 13.6432
-12.7669 137.412 5.08842
-1.91679 91.3933 15.6063
-8.22704 144.371 -5.50767
9.77802 108.615 -11.3484
-8.67107 111.711 13.9089
3.59871 127.125 -12.8559
-13.5057 137.852 6.06036
10.5463 106.935 -11.3484
-7.00496 108.609 13.4269
14.5277 93.207 -9.25515
-8.55463 111.671 13.9685
0.812422 86.9313 14.4465
3.28328 127.897 -12.6525
-16.0406 141.932 7.60789
14.1187 95.1426 -9.6407
-5.93455 141.117 -6.58909
9.68691 109.595 -11.3547
9.84238 109.076 -11.2794
-1.74678 91.6662 15.6706
-10.8773 123.389 10.9716
-13.1681 138.178 5.84749
16.3537 85.3871 -7.08229
-13.0082 139.168 5.06196
-16.4092 145.276 6.57092
14.3728 94.593 -9.39163
-15.9647 142.81 7.3928
-3.49839 96.2997 15.8388
12.6925 100.38 -10.1677
-11.8936 138.664 3.89643
3.52655 127.944 -12.5187
-4.35263 139.756 -7.7513
-10.3743 137.614 2.33669
-5.68722 141.199 -6.57627
-15.4079 141.514 7.47788
-10.6789 121.026 12.3283
3.27313 82.595 13.95
-12.5689 149.893 -1.42048
0.359878 88.7919 14.6959
-7.24435 143.478 -5.50096
-4.30411 139.868 -7.71193
-9.3332 135.021 2.42953
-11.0734 126.035 10.1388
1.09617 87.3451 14.5578
-7.03023 143.15 -5.48128
5.4129 123.059 -12.165
-14.6897 140.679 7.18178
-12.6695 139.855 4.74839
-3.62523 138.331 -7.60891
-6.66405 142.271 -5.40409
-4.47522 101.85 14.7224
-8.70321 114.204 13.8287
-12.5976 139.998 4.74479
-3.72035 97.7813 15.9986
2.15474 131.902 -11.9503
-4.65873 140.951 -7.14303
13.3211 98.9794 -9.38033
3.84967 128.166 -12.2253
-13.5301 139.967 6.47875
-9.89182 117.621 13.9701
1.28832 87.3864 14.9542
4.28363 79.3965 15.1539
3.02398 79.8466 16.8115
-11.0092 138.725 3.64766
17.1838 84.0989 -6.25104
-1.18705 135.599 -8.79969
-8.91107 148.509 -4.84096
16.1011 90.69 -8.25269
-9.81204 137.684 2.73225
-14.2081 141.623 6.98831
0.204411 90.3706 15.2836
-15.2289 146.628 5.64154
4.0377 128.36 -12.0079
7.17739 121.694 -12.7565
0.894689 88.5808 15.4388
2.01297 133.393 -11.8685
13.3032 100.152 -9.26706
-12.1154 150.466 -0.902312
-9.66842 149.716 -3.96203
-15.1101 144.371 7.09557
-8.24392 114.16 14.3708
0.74025 89.403 15.4607
2.5142 132.599 -11.8517
-3.97895 101.587 15.47
18.789 79.9371 -5.41303
-2.9647 97.4968 16.4198
-10.3599 139.072 3.4084
12.6524 105.303 -10.8391
5.40292 125.561 -11.8147
3.21105 81.15 16.8647
-8.53921 148.827 -4.72193
-11.4383 150.816 -1.57967
-14.9292 144.869 6.98331
10.8677 109.711 -10.6007
-12.0147 150.663 -0.581142
-13.6737 148.959 2.82723
-12.5532 141.204 5.63682
12.0827 107.022 -10.7691
-9.74526 122.415 12.4041
4.72035 127.827 -11.8358
10.9725 109.721 -10.5476
-11.0647 141.343 3.59882
10.8685 110.715 -10.8641
-9.71057 123.821 11.7691
-7.29829 147.256 -5.17297
3.44617 131.118 -11.6421
17.5956 85.2753 -6.06507
-8.4124 115.759 14.5463
-11.395 150.963 -1.25846
-9.5757 129.322 8.51066
10.5213 114.346 -12.3142
3.11341 85.3184 15.1822
6.04326 124.544 -11.56
19.2015 77.9438 -4.06577
-4.40871 106.574 14.145
18.5019 82.9951 -5.84342
1.77378 135.152 -11.236
16.6825 90.7074 -7.57192
-12.9594 149.438 2.22961
-11.2162 151.116 -1.25872
9.7088 116.793 -12.1709
-6.31668 145.271 -4.97659
-1.48114 95.2455 16.6927
3.049 79.7989 18.9264
3.76904 82.389 16.4208
-13.8729 143.747 7.18668
14.4833 97.6855 -7.84655
0.824305 91.0226 15.9764
8.99153 119.289 -12.1606
-9.74461 128.276 10.126
4.29287 82.566 15.8431
-8.23418 116.307 14.8784
-8.58662 136.601 3.7723
-6.23534 110.835 15.1338
3.00767 133.681 -11.4226
-13.9762 145.223 6.91173
-9.55587 128.357 10.184
-8.67875 139.372 2.61699
11.192 113.389 -11.5363
3.23603 133.471 -11.3725
-13.1097 143.644 6.73745
16.8938 91.5744 -7.29527
5.52526 127.549 -11.2798
13.6291 104.911 -10.1515
17.7359 87.9886 -6.44109
-11.6881 143.214 4.96199
-1.36722 96.106 16.87
17.1861 89.2284 -6.28783
-13.7373 147.045 5.90966
-9.554 151.146 -2.50616
-13.465 145.038 6.72947
-0.0108888 93.6035 16.5365
-6.95408 112.99 15.605
-4.05571 143.321 -6.02265
11.285 114.647 -11.9841
14.1496 100.223 -7.86817
-8.19544 136.891 3.91986
11.6104 111.762 -10.6573
-10.5874 151.722 -1.06297
8.77729 121.677 -12.1211
-8.89955 123.638 12.6449
2.20534 87.9704 16.8991
0.960045 92.0272 16.4031
-7.65988 116.64 15.0356
20.2598 78.3086 -3.841
-4.50758 108.748 15.0125
-6.56614 148.51 -4.72795
7.4569 123.873 -11.1024
14.063 104.798 -9.80602
16.4659 93.9469 -7.07328
18.7941 85.4124 -5.53756
14.4855 100.306 -7.71045
17.2477 90.6015 -6.18875
1.13052 92.1573 16.5229
-1.72327 98.1801 17.2717
-7.38174 116 15.3364
18.6589 86.3849 -5.78332
-3.77975 107.551 14.9248
-0.79682 96.3735 17.0175
-8.37548 140.128 3.0322
-10.4203 143.389 4.17261
3.90214 133.672 -11.1332
-2.08734 141.075 -6.48749
-7.27749 116.404 15.2579
-2.80994 102.621 16.6412
-9.42615 141.246 4.18871
7.80351 123.917 -11.0672
5.60631 129.455 -11.018
15.0662 98.3831 -7.03955
-5.89942 147.874 -4.67176
-8.04752 122.027 13.3002
-7.54478 150.883 -3.91261
-12.1195 149.474 3.60296
9.70395 119.905 -11.3512
-6.08673 148.567 -4.56388
-0.109881 95.6926 17.06
-6.96103 131.393 6.62454
12.213 112.06 -10.351
4.37385 84.0646 17.2154
-8.2449 138.262 4.65856
2.75432 137.57 -11.0152
14.8732 101.75 -8.03298
-2.5931 143.055 -6.11148
0.153439 95.6214 17.0974
-6.83322 117.414 14.8916
7.96194 126.227 -11.7551
0.415483 95.296 17.0976
15.0317 101.287 -7.72639
7.20542 127.477 -11.2498
-8.25596 126.644 11.882
21.0035 79.6375 -3.93617
-5.83812 112.947 16.3196
-7.86904 129.758 9.66651
6.09181 130.921 -11.3762
7.92623 126.806 -11.6617
21.0234 80.0877 -4.01644
3.50996 83.8903 19.4533
-6.81005 129.758 8.26953
-8.16691 127.994 11.2792
13.0467 109.996 -9.42535
4.33304 79.4802 20.8276
-2.63715 106.117 15.7876
-2.96093 107.259 15.6212
-9.90687 152.465 -0.0597461
-6.04408 115.155 15.693
4.51948 84.7923 17.6684
-8.04644 126.561 12.1115
8.37334 126.487 -11.8679
1.76098 92.7329 17.172
20.9349 80.8643 -4.03721
21.1738 80.0557 -3.88073
2.26963 91.047 17.5096
4.14547 82.8955 19.4447
-10.9913 146.84 5.0832
8.9347 125.189 -11.5739
2.7029 89.6155 17.9579
13.9588 108.408 -9.27387
-3.99194 146.264 -4.69481
3.99543 83.5595 19.6602
21.4468 79.4212 -3.49036
4.42624 85.4803 17.9905
7.24423 130.582 -11.9313
0.37384 139.642 -7.06868
2.05694 138.715 -9.00037
19.4129 86.9079 -4.66382
-3.01545 108.506 15.8114
-4.00062 146.583 -4.55339
18.3408 90.3545 -4.98475
6.45606 132.576 -11.7783
-0.0991586 98.0547 17.6759
15.3818 103.395 -7.94046
13.194 113.437 -10.4927
15.2911 105.023 -8.70482
8.74909 127.321 -11.8901
-8.8486 144.758 3.89039
1.0047 95.8954 17.4942
-6.76851 151.953 -3.25004
-8.5525 143.978 4.01509
-8.96941 143.888 4.76669
4.02663 85.5019 19.2239
-5.68848 117.961 14.9207
1.28035 95.2943 17.7248
14.2764 108.948 -9.08926
3.99443 86.0678 19.1048
14.7402 107.699 -8.99814
16.8294 96.4145 -5.47017
19.5785 87.2274 -4.20279
14.709 108.018 -8.99429
20.7768 83.1936 -3.60967
13.7936 110.647 -9.03095
19.3887 88.5359 -4.50875
14.515 108.859 -9.01557
3.61546 139.22 -10.4483
-7.46778 144.625 2.70671
-5.74405 128.611 9.39207
-6.05141 128.464 9.95108
17.5405 94.4497 -5.01258
12.3284 116.995 -10.2992
15.8436 102.191 -6.94179
-9.73512 147.26 4.67683
16.1604 100.249 -6.26072
15.2556 105.268 -7.79688
-7.70678 145.662 2.67516
-6.55032 123.709 13.6003
4.25209 87.387 18.6249
-5.63143 134.997 5.83874
-5.0667 116.803 15.4484
21.7026 79.7977 -2.50615
-9.257 147.206 4.19488
7.10334 133.638 -11.9515
16.2516 100.25 -6.1269
-4.38933 112.394 17.1312
-6.42039 144.077 1.9465
-6.68733 126.222 12.6242
-5.54398 142.422 1.70571
14.7781 109.042 -8.89602
16.2993 100.275 -6.05889
17.3599 95.502 -4.8318
5.50792 137.493 -11.5596
21.9544 79.172 -2.18535
-8.87264 152.065 1.14596
-6.98506 139.895 5.40074
2.52011 140.327 -8.74497
-8.06209 147.404 2.73533
0.189968 99.4985 18.1779
19.245 90.1798 -4.35349
4.24917 87.4277 19.1923
-2.76358 146.973 -4.68248
-6.58445 141.466 4.06933
-5.63808 140.216 3.42969
-5.95573 127.184 11.3789
10.1837 127.516 -12.4211
9.92306 128.023 -12.2904
16.4289 100.753 -6.15751
-4.74112 128.79 8.78639
-6.15238 142.171 3.19263
14.9958 109.163 -8.8013
2.30324 93.1102 18.9909
4.23737 87.3965 19.4459
11.4077 121.559 -10.6256
-3.87415 111.747 17.376
-4.66338 116.738 15.6836
17.5931 95.2939 -4.53628
11.2751 124.688 -12.0748
-5.49829 132.301 8.16999
3.61913 89.9313 19.1278
3.10804 140.592 -9.17025
22.0691 79.145 -1.63635
4.29292 85.7366 20.6322
-8.32912 153.072 0.528499
-4.80534 126.895 10.4488
-4.07977 113.966 16.8852
0.887689 142.015 -6.32393
-5.70213 141.457 3.64914
-4.33374 128.823 8.93604
5.77563 81.7895 21.1141
-5.66429 125.787 12.6767
-5.49423 122.296 14.4312
15.2374 109.634 -8.63717
15.5008 104.381 -5.96246
14.7552 110.93 -8.58992
-4.9616 133.7 7.26235
-6.12338 139.127 5.86299
16.7621 101.319 -5.95281
-5.08694 131.832 8.56591
12.9737 118.488 -10.2098
-5.27531 140.387 4.01773
5.12082 139.893 -10.895
-0.99105 105.605 17.7696
15.252 106.26 -6.35797
-4.77372 125.94 11.7138
4.85228 85.4845 20.8418
22.2072 78.2636 -0.404592
0.748708 142.766 -5.96781
-3.5789 113.043 17.4119
-4.27869 117.944 15.6974
-4.70419 134.799 6.70969
-5.36575 124.804 13.4238
0.549424 100.489 18.7194
17.3762 98.9437 -4.97838
4.34917 140.852 -9.9352
-7.89273 151.461 2.00061
-4.00661 116.466 16.4224
-1.12053 146.511 -4.98816
15.7142 104.001 -5.25223
13.1949 121.129 -11.3613
-4.94623 125.393 12.8388
-7.80201 151.957 1.80791
6.0216 83.9937 20.5998
6.24892 138.917 -11.2083
7.92615 134.959 -11.3933
15.1768 111.518 -8.51944
0.930376 99.52 19.2274
15.1499 107.877 -6.34475
12.3582 125.186 -12.0901
15.6728 104.669 -5.10724
-1.15154 147.139 -4.71589
-4.93877 140.434 4.71352
14.357 116.077 -9.53562
-4.08884 119.137 15.7669
13.8418 117.83 -9.66018
-0.595709 146.595 -5.01616
-4.43922 141.25 3.74473
-2.27823 149.319 -4.02092
1.15497 99.318 19.6733
6.57911 139.44 -11.2635
4.93837 87.1752 21.1574
22.3102 78.581 0.665407
-3.20174 126.609 10.4908
15.9158 104.084 -4.5577
20.131 90.6791 -3.0314
15.8756 104.429 -4.54442
6.9923 138.402 -10.9145
2.45462 95.5539 20.3052
8.88647 134.663 -11.5249
-2.92417 128.863 9.1031
-3.90619 125.035 12.7376
14.2844 117.634 -9.64299
20.9651 86.8126 -1.73312
15.4766 106.98 -5.25543
-3.04954 126.04 10.984
12.5517 126.667 -12.2084
10.7205 130.76 -11.8625
17.2738 101.907 -4.90908
8.97166 78.9916 20.3877
14.299 118.07 -9.79428
7.6809 136.903 -10.8744
0.467578 102.794 19.4723
4.5152 142.063 -8.91559
-4.77069 138.988 6.46036
-3.79777 132.15 8.99016
10.4591 131.694 -11.5801
5.96196 141.502 -10.6007
13.8847 122.444 -11.2566
-2.97392 130.129 9.01881
-3.51772 119.529 15.9474
2.46294 96.3007 20.545
17.9903 100.296 -4.35368
14.9127 118.287 -10.1444
5.40602 142.02 -9.7068
4.96582 142.238 -9.17138
15.1403 115.962 -8.98488
-0.657014 109.563 17.822
-4.50099 153.959 -1.99643
21.4334 85.4868 -0.682844
-3.31963 120.01 15.7926
-3.30747 124.498 13.2401
11.8549 130.117 -12.1461
-1.71043 111.828 18.1976
22.0454 83.2507 -0.181444
1.10785 145.924 -5.42518
4.70046 142.449 -8.62412
5.01772 90.9913 20.4479
7.88184 81.7161 21.5849
3.2895 94.3337 21.1083
10.5245 132.619 -11.4184
18.3276 99.6233 -3.90854
21.1954 87.4081 -1.09147
-3.48918 137.662 6.26196
15.3095 111.316 -6.1334
-1.11192 149.928 -4.15964
14.0297 122.183 -10.3977
21.7018 85.0145 -0.302636
2.04555 144.867 -5.72395
22.1363 83.3647 0.151545
7.57779 83.2079 21.5912
12.3591 129.944 -12.1606
-2.27741 116.156 17.1707
12.1766 130.281 -12.0844
0.035952 108.024 18.4588
18.4896 99.5564 -3.62111
6.715 85.4979 21.7226
22.197 82.3771 0.874649
-3.21264 141.964 3.92414
15.5597 109.582 -4.9478
-0.311423 149.387 -4.52321
18.6538 99.1922 -3.42412
16.9227 103.065 -3.09113
20.9562 89.9078 -1.43957
10.2775 80.5294 19.6174
-2.63595 120.402 15.6606
15.3691 117.94 -9.27215
-2.81619 142.272 3.40634
-2.67635 152.794 -2.82656
-2.89008 122.652 14.7933
7.79089 139.843 -10.6794
-2.63417 142.416 3.12544
-2.01823 116.346 17.1824
8.83334 81.4565 21.3065
17.6684 101.871 -3.31388
3.42149 143.917 -6.54613
19.5188 96.1206 -2.68995
10.5345 133.847 -11.1617
15.2787 118.051 -9.01625
15.5025 110.991 -5.27093
-2.37615 119.143 16.2259
3.96679 93.6624 21.5754
5.42715 89.1014 22.0554
7.99451 82.8317 21.9111
11.574 131.834 -11.3638
17.8218 101.731 -3.17265
13.4486 128.318 -12.0057
-2.39057 136.619 6.42939
14.1735 78.0757 15.7668
12.9531 78.6797 17.2636
-2.66233 132.267 9.39386
14.1933 122.099 -9.41267
9.3524 82.1656 20.6109
21.9088 85.4497 0.373708
2.47037 99.1773 21.0099
-1.42917 115.221 17.5868
3.63566 95.4133 21.5704
5.85942 88.6442 22.2064
-1.37391 128.564 9.93843
16.1704 107.017 -3.36601
22.3254 84.1938 0.717909
14.1932 79.4852 15.3475
8.24078 83.3259 21.8595
7.8807 141.119 -10.6216
14.3429 125.796 -11.2398
-0.727446 126.818 10.2346
14.2276 121.231 -8.44712
-1.11269 124.448 12.1658
-2.12038 121.993 15.0738
14.31 122.395 -9.07882
14.1209 127.487 -11.7171
9.85399 83.1647 19.9792
14.2501 121.171 -8.22935
14.2663 121.378 -8.27587
-2.51035 142.428 4.25752
-1.6364 133.913 7.86823
8.48334 139.724 -10.2366
15.8788 111.791 -5.03233
14.2885 121.696 -8.36824
22.5876 80.923 2.93164
20.8954 92.4336 -1.18733
22.4088 84.646 1.10859
-2.50567 140.893 5.33945
-2.7878 139.333 6.7097
14.6316 123.654 -9.72764
15.9256 78.2712 14.4062
15.9902 80.262 13.1901
16.0107 80.2348 13.1761
0.863344 108.395 19.2429
16.1467 80.2337 13.0383
5.74496 90.9128 22.1405
15.7305 114.13 -5.76576
8.73601 85.1605 21.1516
10.1298 84.0613 19.7487
0.914014 108.345 19.3415
15.9961 80.9624 13.0066
16.9985 78.7537 12.8067
19.7422 97.0627 -1.67995
6.37181 143.739 -8.86204
22.3366 85.3637 1.28919
20.4863 94.7312 -1.35754
-1.50864 153.254 -2.64981
3.15905 99.1082 21.5722
-0.640148 115.411 17.8053
8.49279 141.802 -10.6898
5.23269 144.076 -7.21692
21.3277 91.0472 -0.366557
22.3852 80.5129 4.13098
21.2669 91.5618 -0.523866
20.4774 94.8954 -1.25607
3.57639 146.314 -5.94506
-0.317602 113.895 18.3704
9.80844 85.0581 20.1066
8.80493 85.7971 21.1636
10.7762 135.747 -10.3324
1.83545 103.904 21.0221
-0.845882 142.74 2.79979
0.25011 125.929 10.8702
0.0690003 124.848 11.7915
3.78979 146.426 -6.00402
21.9485 78.7403 6.26795
12.7844 132.342 -11.044
16.9508 81.9658 11.7536
9.66755 138.685 -10.1009
15.0195 118.066 -6.10967
-1.792 142.925 4.25038
12.5329 83.3065 17.4948
-0.913975 119.103 16.6514
17.9025 102.092 -1.09032
1.26912 150.571 -4.53119
16.0407 115.478 -6.00293
3.93867 97.7376 21.8993
8.17515 86.916 21.916
-1.15837 136.426 7.2046
6.57289 144.173 -8.53458
6.89704 89.5824 22.301
-1.11615 133.574 8.85576
15.4768 117.122 -5.96608
-0.791927 134.374 7.96077
21.9133 78.5772 6.73254
-1.08803 133.586 8.86415
0.363335 127.776 10.0913
17.4277 82.3261 11.1932
15.7512 82.8631 13.3545
19.1555 100.538 -1.74979
0.790185 110.317 19.5251
21.8215 88.9461 0.999612
6.673 144.269 -8.5265
14.8136 129.15 -11.7519
14.7817 128.873 -11.5371
0.517387 126.84 10.5172
19.5875 99.1945 -1.52084
15.0134 119.243 -6.27205
13.9551 131.075 -11.4982
0.0231544 123.414 13.3113
-0.779286 142.918 3.30366
5.87227 92.5659 22.4632
15.8806 116.417 -5.78203
18.3547 82.181 10.2317
19.71 98.8819 -1.31985
-1.58119 142.558 4.82346
0.233859 112.222 19.5758
-1.28466 140.511 5.63375
17.2919 83.5044 11.1568
0.00400833 142.933 2.38913
14.9083 120.061 -6.29577
17.2583 83.5523 11.2293
-0.417039 119.3 16.614
0.233581 113.078 19.2572
10.2241 138.547 -9.91669
5.85429 93.2134 22.4919
0.831809 124.914 11.7057
3.5887 100.351 21.8311
-1.32485 143.236 4.43751
22.5632 86.2489 2.15993
7.01284 144.585 -8.52645
-0.141736 121.216 15.4004
8.40659 143.665 -9.98366
-0.408948 132.165 9.52524
4.60785 97.5053 22.0847
22.5452 82.6447 4.38272
15.3087 117.17 -4.79361
21.9564 79.4973 7.08219
17.6316 84.0931 10.8117
21.1984 93.8728 -0.00372395
14.8278 128.426 -10.4895
15.6691 116.256 -4.72563
9.51688 142.191 -10.5873
14.501 123.989 -7.44266
14.5967 122.886 -6.93094
0.38795 130.109 9.72545
19.078 83.4167 9.14586
18.0689 102.619 -0.370442
19.1454 83.4267 9.06566
20.8412 78.5045 9.41855
14.6918 124.97 -8.21811
19.4429 82.9506 8.94046
12.7497 133.934 -10.4604
21.3425 79.1065 8.41011
3.4869 101.322 21.8258
20.0768 81.6793 8.8134
8.9221 88.2129 21.4044
10.4835 86.9587 19.8662
0.0943008 135.595 7.1839
0.0378497 119.683 16.4253
16.9282 108.477 -1.83534
16.9624 108.393 -1.77409
21.9858 89.5531 1.72991
-0.58306 140.441 5.63926
17.9598 84.7231 10.4625
14.7791 121.778 -6.12561
20.8599 81.3683 8.17822
14.7935 84.7355 15.1325
8.36381 89.7449 21.7045
21.7577 80.1013 7.65295
0.419475 131.216 9.5849
17.9843 84.898 10.49
22.4981 83.0507 5.03448
20.4863 82.7913 8.12967
6.38343 145.295 -7.0672
0.284262 119.217 16.8383
19.9218 84.3082 8.12902
-0.294851 140.651 5.44855
0.113916 132.533 9.50986
1.44062 123.905 12.5791
7.31521 92.1387 22.2002
15.2784 85.0713 14.6158
13.4333 133.53 -10.4654
8.78537 144.2 -9.75267
22.273 81.9607 6.21375
21.2256 94.7331 0.427261
0.6541 114.821 19.0429
22.1429 81.2215 6.88339
0.447223 117.325 17.9722
12.7583 86.5404 17.6061
16.4433 115.186 -4.19751
17.1082 112.678 -3.73121
19.2365 85.4774 8.77155
20.3349 85.1245 7.37189
21.7433 82.3046 6.94253
21.1008 83.2982 7.31667
0.498448 118.751 17.146
2.05377 109.007 20.5225
15.3843 117.768 -3.98701
13.6594 86.2022 16.646
22.488 84.4139 4.77544
0.738098 115.771 18.6666
-0.593056 143.28 4.85357
5.8809 146.642 -6.54084
18.8674 85.7388 9.37411
4.01523 102.079 21.8403
14.9938 125.454 -7.58048
2.01132 125.234 11.57
22.5312 87.408 3.25507
21.0336 95.7501 0.707247
8.39744 92.2353 21.2645
-0.326116 142.857 5.03082
0.612431 132.688 9.49454
0.827574 117.496 17.9151
4.15837 102.301 21.7854
8.88368 91.9099 20.8304
2.01586 124.252 12.3596
1.85628 122.883 13.4029
4.90481 100.285 21.9014
16.055 85.9495 13.8485
0.426068 137.879 7.0256
5.4566 148.157 -6.17847
0.752084 135.256 8.15265
10.4933 90.9654 19.3285
8.34602 145.569 -8.83424
11.5748 90.5797 17.9904
10.3793 91.1905 19.4095
0.407565 138.546 6.88111
1.2446 116.503 18.3094
20.0526 100.039 0.243985
10.5605 91.4591 19.0811
12.4188 136.952 -9.70088
13.206 89.4308 16.4252
18.2025 105.643 -0.181414
7.3992 145.93 -7.45851
2.71805 107.647 21.4355
1.37542 131.839 9.54586
17.3362 110.626 -1.65157
10.7742 142.721 -10.4429
21.0323 86.5513 6.77988
14.7315 87.3759 15.5468
11.1935 92.1163 18.018
12.5067 139.194 -10.898
0.726463 140.136 5.80497
11.0587 92.2334 18.1593
2.36034 122.741 13.4148
14.0345 88.3888 16.0435
1.68373 115.354 18.6825
11.7771 92.0936 17.3377
15.4848 127.307 -8.25634
1.74402 115.684 18.5471
20.8056 87.0134 7.11482
12.6688 138.248 -10.3526
12.2284 91.8777 16.9013
11.7038 92.7557 17.1905
13.3666 135.849 -9.94861
6.14236 98.8851 21.8242
19.8365 87.5591 8.28958
8.94648 94.7219 20.189
17.0949 87.0153 12.6953
22.3194 87.085 5.01439
7.58259 146.351 -7.17085
22.3762 89.0265 4.05826
7.14329 97.4995 21.499
11.0582 142.989 -10.2752
13.027 92.1158 16.0368
14.1522 90.5772 15.2859
14.927 133.027 -10.1452
1.41486 133.432 9.437
16.2364 87.824 13.9123
22.414 88.9632 4.31637
8.73256 96.2463 20.2027
19.1782 87.7391 9.80551
3.19383 108.416 21.3615
16.0957 128.839 -9.2147
22.1753 88.27 5.17446
14.2082 91.2909 15.1075
5.30417 102.677 21.6202
7.29201 147.107 -6.74051
22.2633 90.2593 3.99412
16.7137 88 13.4203
2.46863 117.554 17.344
17.2021 115.135 -2.82177
8.89692 96.4862 20.045
13.362 93.0308 15.504
15.7024 120.41 -3.60361
12.7061 94.0129 15.9214
19.6329 101.432 1.55243
6.73326 100.067 21.2325
7.37799 99.0011 20.9056
7.61795 146.872 -6.80997
14.6703 91.4832 14.6414
8.12841 98.0328 20.469
14.0134 92.6493 14.9922
15.9383 131.775 -10.2389
5.34628 103.406 21.5714
12.8296 94.5099 15.7273
2.27951 132.216 9.55371
13.1007 94.1821 15.5399
19.1469 88.2354 10.1266
2.83922 117.448 17.285
16.4709 130.07 -9.90285
9.79246 96.4668 19.15
3.72791 152.37 -4.02456
10.9418 96.9841 17.19
16.9103 88.569 13.2803
2.84037 121.328 15.1253
14.8028 91.9987 14.4599
15.4042 90.9528 14.1962
18.7122 103.866 1.96437
11.7451 142.82 -10.1734
11.9797 142.406 -10.2735
2.7251 114.173 19.4632
21.1312 97.5999 2.10081
5.7769 150.423 -5.69032
20.2699 100.459 1.77817
13.1519 94.7336 15.4823
20.9673 98.2374 2.09968
5.49776 104.143 21.3844
2.21156 133.388 9.43663
8.2215 99.6727 20.0147
3.652 126.782 11.1638
9.81999 97.8171 18.7633
8.24923 99.6828 19.9927
3.19647 115.419 18.3945
18.0403 108.882 0.480749
14.6765 93.2753 14.3722
7.95725 100.495 20.0838
8.39107 99.769 19.875
17.2681 123.784 -6.88231
19.22 89.2312 10.1482
14.13 136.706 -9.57193
14.5914 93.8681 14.366
14.1769 137.35 -9.93881
14.0692 94.6904 14.7798
12.6653 96.246 16.004
14.0417 139.209 -10.6383
10.1945 99.2149 17.9341
21.6737 95.7961 3.10074
15.5572 133.363 -9.44325
9.47317 99.4858 18.8973
6.18303 104.451 20.9673
4.91167 152.022 -4.37149
4.44912 108.71 21.1532
8.99779 100.506 19.2325
17.3461 125.18 -7.10421
13.9969 139.447 -10.3567
2.9484 153.886 -2.43629
13.9893 139.48 -10.3093
20.1163 91.9064 8.01212
16.4425 122.728 -4.25619
4.44113 110.027 20.61
16.8731 91.3044 13.1931
5.79183 106.129 20.9401
1.97131 144.731 4.40021
16.4435 119.877 -2.46695
9.92462 100.879 17.9721
17.0858 125.355 -6.51367
18.3215 109.23 0.935541
9.31664 101.507 18.5485
3.15896 132.334 9.8925
6.20102 151.068 -5.28731
19.3136 91.3792 9.79687
7.30237 149.836 -6.1132
21.9635 93.2563 4.8881
7.7329 103.027 20.1335
4.45949 123.028 13.4646
3.9388 120.436 15.7396
10.9171 99.9812 17.2919
17.0582 91.7409 13.0437
4.5555 125.209 12.1536
21.8966 95.2083 3.97969
15.7508 128.466 -6.0923
18.2961 111.735 -0.222662
15.6652 128.256 -5.84313
16.6556 127.992 -7.14001
4.54751 125.035 12.2864
1.89619 143.632 5.51901
20.9264 93.283 6.58924
20.56 98.9721 3.86612
21.5149 93.6404 5.52976
6.82447 105.26 20.3802
19.0832 104.869 2.68071
7.91456 103.243 19.9617
11.0151 100.078 17.2426
17.8092 123.758 -6.26258
15.4469 128.661 -5.54577
6.99272 150.404 -5.62905
18.5357 91.2778 11.4341
16.4155 128.532 -6.8142
9.41718 102.409 18.4581
15.4839 128.642 -5.45746
3.37339 132.701 9.9757
16.4679 93.7236 13.1876
18.387 112.166 -0.175038
21.4811 96.2391 4.47161
7.03874 105.82 20.133
15.8783 132.97 -8.36074
20.0346 101.919 3.40118
5.65524 108.952 20.4494
16.4032 118.291 -0.634716
19.1362 106.619 2.06272
2.77723 136.601 8.84102
20.0946 100.312 4.30835
10.7431 101.383 17.4218
4.32224 116.562 18.1236
19.0982 104.716 3.31266
17.6111 92.29 12.6271
15.1991 131.185 -6.14422
17.6831 92.2067 12.5803
18.0386 127.507 -8.17271
15.4515 133.734 -7.92237
8.88454 148.305 -6.65932
10.6723 101.709 17.4557
5.51825 110.375 20.0494
16.7968 122.952 -3.66486
16.3293 132.44 -8.38013
21.5356 96.224 4.77192
20.4408 93.4836 8.00889
16.4687 118.461 -0.476358
15.6961 132.204 -7.20138
4.86087 120.74 15.2494
4.89197 118.74 16.3589
16.6234 124.977 -4.36204
20.0736 100.313 4.74563
19.0843 104.454 3.88162
9.82215 103.175 18.1981
17.3638 93.4514 12.7443
19.2937 124.333 -7.76805
15.2445 130.646 -5.44682
4.23177 130.809 10.5789
16.7496 132.559 -8.73813
5.22264 122.702 13.8664
17.5878 131.659 -9.35307
4.75682 112.468 20.4381
5.8309 152.152 -3.87674
17.0627 120.28 -2.03655
13.2331 143.023 -9.43301
17.6225 93.6017 12.5522
16.9428 122.281 -2.86821
20.0043 101.394 4.62987
4.09775 131.806 10.5008
18.8441 109.152 1.91928
6.10766 152.136 -4.06054
17.6581 93.9411 12.4769
17.3155 132.292 -8.98302
5.32881 126.801 11.7223
18.9004 108.633 2.27846
18.7466 111.964 0.596462
16.2476 137.559 -10.4071
3.38575 135.2 9.81043
3.35367 136.023 9.45809
15.8978 128.419 -4.47639
17.1484 131.982 -8.33282
15.9215 134.666 -8.03806
19.2379 104.523 4.41008
19.5313 94.1578 9.95513
14.9437 139.797 -9.47955
3.67754 141.349 6.13591
20.5948 99.5058 5.40626
16.8461 125.154 -3.76574
17.3528 120.575 -1.8365
19.8624 122.44 -6.57162
17.2553 132.054 -8.22716
14.2718 98.5675 15.3685
18.9142 111.913 0.923909
16.1238 138.641 -10.3057
18.7219 123.878 -5.63706
4.22203 154.57 -2.00394
18.6816 123.949 -5.60933
17.2647 126.775 -5.13721
5.69515 119.487 15.9984
15.4073 130.659 -4.58701
21.0144 95.4951 7.40333
5.04474 130.182 10.9004
17.5315 130.134 -7.31774
17.1884 135.605 -9.95095
14.6875 140.823 -9.26034
20.1735 95.3828 8.8131
19.4215 123.68 -6.29877
5.13494 130.17 10.9004
21.0912 98.5318 5.72793
19.4569 105.899 3.94121
17.3711 133.616 -8.89186
21.5858 96.9133 6.00688
18.36 95.014 11.8619
18.8667 124.373 -5.64971
17.0141 97.3651 12.5582
18.8183 124.46 -5.57523
14.6431 141.641 -9.2766
5.64649 129.365 10.9826
20.462 95.9893 8.44973
10.5401 105.327 17.6911
15.6057 98.4284 14.2379
18.9517 124.071 -5.36073
17.3578 122.934 -2.3139
20.9264 96.267 7.76659
5.18176 153.79 -2.16545
3.89411 137.945 8.81508
4.43833 133.793 10.4124
6.43345 152.517 -3.22667
21.3684 98.0719 6.13729
9.70769 149.848 -6.48152
14.6179 142.021 -9.15332
20.1303 122.537 -6.04869
17.2267 126.56 -4.05338
4.22788 141.139 6.62755
4.60226 133.448 10.5005
6.29064 112.933 19.8206
19.2368 111.532 1.72145
20.5688 124.341 -7.57147
17.1333 98.1167 12.5332
18.1247 96.7807 11.9093
18.5358 115.149 0.782431
5.27574 153.955 -2.02299
20.6374 124.182 -7.3941
20.8426 99.866 6.25096
19.4948 96.1781 10.3747
18.0663 133.658 -9.00951
17.4606 123.095 -2.05652
20.5379 124.861 -7.5505
17.5104 118.62 0.526733
17.3121 126.199 -3.48977
16.639 134.077 -7.00062
8.34361 110.147 18.9798
6.70312 152.621 -2.97225
17.2869 133.247 -7.31235
20.1506 127.404 -8.05362
9.10775 108.37 19.0616
17.3377 126.998 -3.62739
4.65811 142.532 6.0661
9.71229 107.756 18.6289
7.75704 152.44 -4.10559
20.5878 97.6717 8.52361
19.5325 130.06 -8.49935
5.7509 132.129 10.5728
17.6564 122.412 -1.27933
19.4455 124.692 -5.135
13.0332 103.357 16.534
12.1158 105.181 16.9102
11.5458 149.123 -7.36888
6.60448 125.522 13.4168
6.6262 152.999 -2.33322
20.986 125.185 -7.39946
18.0733 119.976 -0.126276
7.41486 113.416 19.2369
19.4016 125.491 -5.2271
16.8678 132.13 -5.29988
20.8804 100.258 7.11308
14.3027 102.589 15.5211
18.7099 135.09 -9.51101
20.5521 125.495 -6.7021
16.58 140.396 -9.35138
15.6638 100.829 14.7095
17.8688 135.481 -8.37692
19.9268 106.55 5.2014
6.07024 132.612 10.6001
17.8718 130.298 -5.33351
16.9784 132.398 -5.2092
5.12366 139.355 8.15689
16.1673 141.089 -8.99808
5.26342 141.339 6.86695
20.7663 100.556 7.56794
14.9063 101.885 15.3939
21.5528 123.728 -6.83509
17.9068 135.024 -7.82059
18.4086 134.781 -8.33069
14.2892 144.669 -7.87143
19.8861 99.0292 10.1719
5.05775 146.281 4.78174
17.6577 132.359 -5.62743
7.13107 124.64 14.2639
20.0093 126.063 -5.38048
13.7764 104.715 16.0226
18.3329 121.252 -0.125482
20.3436 128.952 -7.41854
7.96703 114.455 19.0598
19.5949 113.618 2.53279
21.7832 123.764 -6.48357
20.3709 103.687 7.10797
19.2858 133.361 -8.26308
19.8242 125.049 -4.2442
19.2462 114.866 2.45258
18.0707 126.685 -2.59734
7.30001 127.387 12.7713
17.7571 125.407 -1.37691
5.84798 139.426 8.03604
11.2748 150.01 -5.97316
7.05633 132.045 10.5046
5.4263 144.998 5.51025
17.8411 125.274 -1.17308
20.5992 101.012 8.72366
17.3539 134.17 -5.49911
7.41431 119.688 17.3594
13.3662 106.755 16.0751
10.0056 113.739 17.0568
6.21795 136.643 9.47166
19.7561 113.603 2.88959
6.17198 139.778 7.76573
18.823 126.71 -3.24494
10.5225 151.303 -5.19102
20.3407 100.746 9.43804
19.5956 126.924 -4.46597
20.4438 102.2 8.50484
5.82361 144.296 5.79002
6.58094 154.484 -1.13769
19.0057 101.832 10.8831
10.9585 111.141 17.3687
16.802 132.128 -3.21111
16.3815 130.666 -1.75014
7.49258 131.835 10.6003
17.6262 132.958 -4.84715
17.1632 130.19 -2.56919
19.0182 134.436 -7.70794
18.4516 132.566 -5.79292
17.7152 130.726 -3.65025
19.9793 132.753 -8.11421
18.421 127.465 -2.76226
18.7919 133.777 -6.92443
7.69712 123.181 15.3944
17.7505 137.467 -7.47298
21.1311 128.238 -7.12665
18.6331 128.975 -3.88997
16.5415 131.445 -2.17971
6.23332 155.067 -0.613941
16.4435 132.56 -2.60987
18.4826 121.197 0.933906
19.4924 127.071 -3.8528
18.4264 121.019 1.21576
20.4847 106.673 6.46047
14.5058 106.233 15.4761
12.2148 149.208 -5.80218
8.68991 152.692 -2.62433
17.4452 102.833 13.2337
16.7162 133.137 -3.06553
18.1976 138.352 -8.19573
20.419 125.287 -3.94855
13.9731 147.438 -7.21125
20.573 107.748 5.91989
16.7561 103.583 13.919
11.007 113.472 16.7071
17.4109 128.267 -1.14043
18.4087 138.077 -8.21934
8.05069 125.725 14.0247
16.3818 131.46 -1.43285
19.9813 112.839 4.00943
19.0232 117.368 2.88927
19.1028 116.469 3.37505
21.756 127.754 -6.96131
8.14574 121.886 16.3646
19.9602 114.149 3.54552
10.1835 115.111 17.3125
8.72075 152.777 -2.13773
18.5398 124.622 -0.297444
16.8413 131.113 -1.52227
18.2169 126.099 -0.643281
17.4008 103.782 13.4084
21.2752 129.198 -6.75674
20.1652 111.892 4.87408
20.1881 109.799 6.1347
11.938 112.77 16.5144
13.1739 109.349 16.6677
17.9984 126.868 -0.378622
19.2649 103.475 11.1844
17.142 130.4 -1.10237
16.7735 141.54 -6.88762
18.7645 103.806 11.8541
21.8771 128.329 -6.73967
15.8967 143.65 -6.70087
13.4716 109.447 16.4928
10.0741 115.97 17.7517
17.0612 140.69 -6.62358
17.1847 132.294 -1.97399
7.13656 143.212 6.48943
20.4171 126.101 -3.09455
20.0987 126.309 -2.73804
20.0047 104.239 10.1415
16.5591 105.607 14.4033
7.35903 142.598 6.69893
12.4736 114.501 15.3246
19.6963 107.205 8.9595
15.4757 144.757 -6.36539
22.5608 123.257 -4.34972
19.8449 105.343 9.9311
13.6703 148.066 -5.41737
6.51591 147.361 5.4615
17.319 105.463 13.7377
21.2052 130.988 -6.51338
7.72552 136.879 9.84319
23.3126 124.808 -6.01187
19.0362 124.336 0.545849
21.7151 129.628 -6.40177
13.1364 112.745 15.8476
9.08067 130.389 11.7171
9.11658 125.798 14.3247
9.04645 121.529 16.9353
17.8148 105.701 13.2854
6.92179 146.791 5.67377
20.5604 126.536 -2.65667
20.2538 112.661 5.79426
18.3395 105.69 12.676
13.6267 112.877 15.5067
8.05975 136.649 10.0741
18.6004 126.488 0.502761
17.4883 129.416 0.468936
16.6055 143.178 -6.11563
7.19001 146.284 5.9361
13.5585 114.629 14.7851
18.617 122.61 2.88341
9.38012 121.451 17.0697
21.6324 127.389 -4.24378
15.0101 109.894 15.4974
21.3464 127.43 -3.82789
13.9801 112.894 15.3248
9.66613 124.211 15.2195
15.9324 144.9 -5.69431
8.1622 142.189 7.26672
21.3091 133.324 -6.81443
13.8716 115.41 14.3457
20.8517 134.253 -6.63473
18.3933 107.35 12.4169
19.2995 128.058 -0.777591
19.3429 107.009 11.2582
9.63437 129.76 12.4277
14.0095 148.38 -4.65143
20.225 114.727 5.64931
19.3755 138.286 -6.58587
23.7396 126.185 -5.95194
19.3835 107.716 11.0261
21.9747 130.39 -5.74866
18.4922 121.706 4.33633
14.446 114.445 14.4467
18.5426 108.088 12.0999
17.9812 130.941 -0.155506
17.9656 108.233 12.9115
14.3556 115.146 14.2407
23.6628 126.723 -6.01954
9.11443 135.785 10.124
11.2578 118.134 17.1375
18.2166 140.355 -5.77198
7.55123 155.086 1.40511
9.95408 121.627 17.108
15.6968 146.447 -5.52287
16.4318 144.398 -5.39947
19.8215 117.764 4.99499
19.8667 117.405 5.14215
19.8745 127.813 -0.831504
9.91567 129.682 12.6779
9.97609 130.038 12.3971
19.7503 118.15 5.01268
22.1183 125.521 -2.67912
15.2988 112.431 14.8679
9.46591 137.71 8.91078
20.2173 114.988 6.21879
19.8822 137.568 -6.22298
21.0023 126.529 -1.47664
22.002 132.492 -6.269
9.19958 140.695 7.77834
16.0703 110.797 14.933
19.7971 138.634 -6.47589
14.2512 116.683 14.2455
22.2237 128.032 -3.92551
21.1702 126.432 -1.44497
18.3361 131.012 0.109157
8.33281 154.871 1.0886
23.849 123.857 -3.80887
7.53584 150.492 4.82939
8.23438 146.651 6.09046
12.1958 118.447 16.493
15.7936 112.821 14.4697
18.2544 141.162 -5.36746
24.2655 126.184 -5.56225
10.0062 137.364 8.9277
15.7207 113.463 14.2727
18.7803 109.796 11.9121
9.53603 153.689 0.274402
15.607 114.099 14.0949
21.1678 127.084 -1.4254
9.66996 140.281 7.85333
20.0982 115.052 7.11768
16.196 112.034 14.5771
19.7799 111.987 9.40738
22.0374 131.417 -5.02934
19.5819 118.753 5.8294
10.8408 124.06 15.6731
11.903 151.668 -1.65728
19.7864 116.65 6.90963
15.9191 114.438 13.8514
22.0769 131.526 -4.87643
16.848 144.656 -4.73655
19.6962 112.522 9.53266
17.0959 144.334 -4.87564
19.4038 112.462 10.0431
19.7865 112.623 9.39683
18.8547 140.566 -5.2599
19.5726 112.567 9.76712
10.5923 135.134 10.0257
10.8726 125.312 15.2876
11.1456 152.228 -0.543757
17.1342 111.37 14.1528
18.8799 112.268 11.1383
23.0166 130.109 -5.13024
11.7934 120.708 16.6904
10.9919 122.685 16.7367
10.6607 135.524 9.91682
18.6747 110.784 12.4502
17.2265 144.411 -4.67173
19.7492 128.463 0.790381
11.4828 121.928 16.6537
8.02601 151.47 4.8063
19.5646 117.9 7.22623
16.3471 116.044 13.0452
10.998 126.029 15.161
9.88448 141.635 7.8612
21.0695 127.362 -0.22495
23.8385 125.098 -2.94777
12.5771 120.342 16.2703
20.8528 127.651 -0.00563622
16.9069 113.969 13.6288
17.9319 143.682 -4.85737
10.9224 135.008 10.4158
22.3645 134.227 -5.87797
19.9653 114.838 8.7955
12.5997 151.54 -1.33437
19.1558 113.527 10.8811
22.1402 128.785 -2.22401
19.0677 123.673 5.43495
11.7428 123.893 16.0642
16.4909 147.214 -4.25083
9.9615 144.675 6.84143
18.5715 113.168 12.3453
21.9425 136.907 -6.20041
19.8741 129.121 1.3685
9.12373 149.113 5.65935
19.1382 123.737 5.56113
19.4636 127.111 3.19043
19.4656 130.02 1.57326
10.578 142.005 7.73104
8.50189 152.715 4.64108
16.39 147.561 -3.94311
15.7018 147.986 -3.091
17.8218 115.068 12.7172
25.2389 126.624 -4.72982
19.6119 117.413 8.84381
17.8144 115.58 12.5351
8.68269 154.639 3.5546
24.493 126.289 -3.32467
14.3533 150.648 -2.44416
17.5465 117.382 11.9578
8.67114 153.647 4.17098
19.832 115.037 10.0491
19.5832 127.555 3.28142
19.3474 125.189 5.00323
18.0672 115.578 12.4002
16.229 147.877 -3.14343
18.3062 116.058 12.1035
18.3876 144.098 -4.08041
17.9354 118.286 11.3942
17.0895 119.464 11.9703
18.0918 117.521 11.6437
9.53234 150.395 5.34488
17.0618 119.548 12.0151
20.6241 139.989 -4.91705
19.3192 142.227 -4.23806
24.598 129.23 -4.4526
10.2346 148.242 5.74659
24.261 129.607 -4.07869
12.165 127.04 15.1145
22.4301 137.199 -5.70349
23.4286 129.716 -2.82583
11.5513 140.69 8.28389
12.8224 124.054 15.9701
10.2286 148.756 5.65319
19.7007 127.064 4.23222
12.8731 125.317 15.4339
12.1207 129.118 14.5284
12.2201 128.542 14.8039
11.4131 143.861 7.20985
11.7223 152.753 1.66304
23.5663 133.738 -4.61727
19.8895 128.589 3.73077
13.2875 125.952 14.9345
19.4586 125.072 6.48124
12.5164 128.338 14.7727
15.8303 121.172 14.0358
10.9931 152.716 3.03164
13.1336 151.468 0.631871
23.8429 129.633 -2.50656
14.3935 122.92 15.2259
24.004 130.313 -3.04469
25.6146 127.413 -3.7358
24.7903 126.719 -2.00868
12.0779 138.058 10.1256
18.9986 131.623 3.70647
15.5494 149.285 -1.35169
19.1875 131.929 3.33363
19.3753 124.02 7.60424
19.4418 131.494 3.28743
10.7547 150.458 5.20401
25.0507 126.776 -2.13654
15.0737 150.494 -1.05323
19.581 118.72 10.5767
13.0984 128.189 14.6373
18.0397 121.931 11.0303
23.4799 129.075 -1.02718
18.3304 146.147 -3.26694
18.7229 132.016 4.2654
19.1849 131.897 3.78728
13.7579 126.962 14.5978
19.9806 130.485 3.48326
23.7228 134.26 -4.15506
23.033 137.638 -4.9991
18.0874 122.434 10.9941
11.4079 149.143 5.50814
22.8778 138.214 -4.94282
12.9785 130.355 14.0871
11.486 151.696 4.06513
11.9304 152.469 2.98765
12.7372 133.065 12.9723
16.8018 122.655 13.0101
13.5101 128.771 14.3289
12.5048 139.788 9.60061
14.4142 126.64 14.3846
25.6446 126.989 -2.18334
19.333 121.846 10.0401
16.1331 123.024 14.0648
11.8008 148.946 5.57289
13.9069 128.366 14.2956
14.5206 126.804 14.318
24.2794 132.886 -3.30455
23.9005 134.749 -3.76043
19.9453 144.286 -3.4314
25.5355 129.426 -3.06317
13.5829 130.636 13.7807
18.1999 123.548 11.1121
12.805 138.888 10.2172
18.5392 129.29 7.36663
23.0996 138.612 -4.55043
15.1679 126.25 14.1622
25.9816 127.156 -2.15917
12.0064 150.723 4.78453
19.1332 131.382 5.44613
12.4588 151.87 3.47551
24.6925 128.903 -1.18012
18.9701 123.899 10.0824
18.9469 129.836 6.90395
16.9287 123.916 13.2587
14.066 151.419 1.7204
16.7412 123.956 13.553
16.0258 150.361 -0.390344
14.0718 130.947 13.6484
14.3015 130.541 13.6138
14.2972 130.579 13.6129
25.3817 129.699 -2.10515
18.1658 127.26 9.87881
21.8015 130.25 2.95123
25.2308 129.846 -1.8228
13.5287 135.725 12.0762
24.3744 129.749 -0.336087
13.2247 145.26 7.09312
23.72 129.192 0.946413
19.0757 126.068 9.5375
19.176 125.892 9.56275
15.3181 128.975 13.5191
13.4802 138.957 10.49
26.1594 128.016 -1.66656
22.6705 129.849 2.43477
19.5467 125.206 9.70708
19.3828 146.547 -2.24202
26.4964 128.475 -2.27262
19.2072 131.977 6.42345
17.7146 124.842 12.7499
13.4671 146.276 6.69659
18.3527 126.035 11.1936
21.2043 132.781 3.23397
18.0301 147.343 -0.36793
14.3888 151.467 2.69716
25.5516 129.52 -0.993036
13.6328 147.667 6.09629
21.086 143.104 -2.1424
14.4113 133.811 12.9736
26.7681 128.869 -2.18152
25.9079 129.713 -1.30156
20.8592 133.443 3.96371
22.0198 132.506 2.88851
19.3453 131.741 7.32719
14.8744 133.278 13.0304
24.4287 137.552 -3.32345
24.9904 129.999 0.194187
21.7523 132.879 3.28839
17.0971 127.265 13.335
19.1044 134.434 6.32353
17.2321 149.728 0.301359
14.0155 149.056 5.56403
20.1365 134.304 5.07803
14.8256 134.642 12.68
25.9025 130.392 -0.900804
22.6145 132.366 2.80319
20.8634 145.168 -1.97206
26.4759 127.791 -0.146702
18.1226 133.065 9.06301
14.4786 139.641 10.65
26.4072 127.827 -0.0337226
17.5497 149.448 0.566454
18.8484 133.992 7.52861
14.4198 143.028 8.83906
21.9792 133.088 3.48183
25.2271 132.072 -0.602949
25.0355 129.318 1.28749
19.5687 147.166 -0.901663
14.6376 139.224 10.8952
22.2645 133.015 3.32167
18.0228 132.576 9.84466
26.1344 131.404 -1.24732
16.1705 131.853 13.1214
26.1523 130.45 -0.675109
24.5461 130.658 1.58287
18.3255 131.98 9.94039
17.629 128.81 12.8086
25.0656 133.864 -0.921363
25.7516 130.549 -0.00996374
25.0105 137.155 -2.71138
18.7385 134.559 8.01536
18.0934 132.102 10.377
14.8394 147.756 6.18147
18.3309 134.401 8.79478
18.0361 148.468 1.16178
17.6944 129.769 12.3918
25.4328 129.529 1.22346
24.8268 135.165 -1.09584
25.9843 130.225 0.0780591
26.411 129.907 -0.222365
22.1968 142.898 -1.49743
26.9399 129.104 -0.500044
22.5653 142.345 -1.59095
27.0916 129.261 -0.624067
26.3459 127.863 1.50979
16.2507 134.687 12.397
25.9025 130.499 0.689497
19.4833 136.327 6.77167
24.5363 131.382 2.31393
22.9531 134.122 3.2467
22.2041 143.765 -1.14969
17.646 135.408 10.3367
23.9307 141.064 -2.05777
24.7493 139.694 -2.40921
17.5419 149.901 2.29759
24.5245 140.255 -2.30269
20.2345 147.002 0.240916
15.8061 144.934 7.94012
26.1023 130.587 1.10003
19.4081 136.324 7.61491
19.0469 137.569 7.43318
19.4259 136.426 7.57643
19.0527 138.202 7.18438
16.6571 150.05 3.96932
26.2044 129.493 1.78848
26.7181 132.212 -0.488231
18.1468 136.465 9.69602
19.0697 147.118 2.33084
17.6045 136.765 10.5129
25.8814 133.723 0.193068
17.0323 138.127 10.8087
25.8666 130.704 2.17617
17.3137 138.282 10.4979
25.9447 131.556 1.83898
24.8959 132.849 2.78392
26.5 131.124 1.47931
21.1127 137.035 6.01917
21.0895 137.131 6.05371
25.7105 133.375 1.45008
18.5799 149.24 2.81732
16.834 149.089 5.60408
20.2736 146.814 1.90022
26.2198 131.456 2.00522
18.1058 149.465 3.75689
19.6308 139.236 7.45733
24.7047 132.588 3.85047
25.6455 137.772 -0.430613
26.9477 133.804 -0.049546
23.6168 143.213 -0.568824
18.0889 141.239 8.6811
19.5184 147.703 2.89215
25.6861 139.45 -1.07578
25.6556 135.204 1.42832
19.7653 139.69 7.54237
22.1598 136.76 5.74443
26.4634 130.891 2.83793
17.4828 148.723 5.80714
27.0902 132.339 1.14709
26.0384 132.933 2.41419
26.2976 132.236 2.48237
24.6747 137.286 2.02604
24.2241 138.332 2.20569
24.1109 135.945 3.74844
26.4259 130.784 3.33721
18.7604 141.496 8.43049
26.1962 136.421 0.48334
27.0458 133.339 1.01849
26.1405 133.124 2.47573
26.6854 135.687 0.330687
18.6065 148.813 4.70889
26.857 133.106 1.68387
21.0226 146.287 2.73089
19.3737 141.173 8.12373
27.248 132.599 1.52604
26.2058 135.142 1.62503
17.9376 146.72 7.10509
18.1795 143.619 8.58159
27.039 135.774 0.188707
27.8413 133.671 0.261945
26.7792 130.488 3.64556
18.6508 142.948 8.41755
18.0913 144.611 8.30468
18.6994 148.64 5.11406
26.6128 135.605 1.07959
23.6177 138.612 3.84904
26.2767 133.32 3.06145
24.0108 140.112 2.72831
26.4938 134.078 2.59501
19.5553 142.419 8.03185
19.0828 144.4 7.78096
24.5452 139.535 2.66745
27.517 132.173 2.56231
21.9908 146.179 2.63521
23.1182 137.879 5.88623
19.8729 143.14 7.63982
21.4761 146.071 3.61281
24.8488 137.143 3.86419
27.3449 134.681 1.63773
27.1085 130.35 4.46873
23.6596 137.39 5.57752
22.2723 146.057 2.68385
22.4129 139.4 6.35437
19.5584 145.218 7.25285
27.8511 132.195 2.63667
23.5099 145.517 1.4123
27.2145 131.122 4.28511
23.4658 145.573 1.48562
27.4134 135.939 1.25033
20.14 147.549 5.30655
26.7355 136.954 1.82073
25.2132 139.208 2.81247
28.2827 133.016 2.07865
22.8392 139.464 6.35912
22.0308 145.973 3.92914
27.2966 132.467 3.9815
27.6504 133.653 2.82476
22.8557 139.809 6.38284
27.3797 131.642 4.47747
20.0485 145.879 7.07757
22.9339 145.126 3.36557
26.3244 138.822 2.34956
21.479 142.579 7.29015
27.854 133.355 3.37156
23.5377 145.167 2.94097
23.8481 140.32 5.29809
24.2758 141.273 4.27344
21.2023 146.521 5.9408
22.5099 142.24 6.56826
26.4407 139.562 2.4864
23.1231 141.727 6.41554
25.775 141.515 2.69316
24.3051 141.441 4.90229
25.1122 142.484 3.14141
22.3878 146.091 5.07464
23.7973 141.316 5.85238
23.9265 141.525 5.72385
24.2444 145.089 3.26982
22.614 143.392 6.87536
23.3974 143 6.35058
22.4269 145.109 6.57122
23.3859 144.837 6.25738
