ply
format ascii 1.0
comment Created by Open3D
element vertex 1749
property double x
property double y
property double z
end_header
-12.72 136.601 6.12717
6.24568 84.2665 -13.3467
-14.3254 80.3444 -0.0671569
12.6443 139.321 -10.4052
-19.3906 98.8326 5.79875
-8.28322 142.834 4.084
-19.5538 100.993 6.19569
-17.0928 126.139 7.83432
-8.6461 143.123 4.38584
-18.0742 122.374 8.00546
11.1288 135.9 -9.75028
-19.3881 107.461 7.05385
-14.8953 130.12 7.0805
5.80715 80.2912 -13.2699
9.68344 105.445 -12.5912
9.33249 151.209 -6.39823
10.2604 112.562 -12.0402
-19.4768 110.835 7.70219
3.92265 77.506 -12.2758
-16.8568 126.302 8.00283
10.9855 122.99 -11.0628
-19.063 103.218 6.50786
3.24755 76.8615 -11.8655
11.6628 123.224 -11.4722
10.5968 121.643 -10.8918
6.83044 83.9366 -13.2572
-13.5614 135.282 7.09381
9.26729 93.7792 -13.5842
13.0036 127.38 -11.7155
13.0382 126.3 -11.8509
-18.1311 121.314 8.41599
11.9305 133.609 -10.1206
-17.2294 87.6677 3.48715
13.2634 131.011 -11.2745
10.6798 150.397 -7.02143
-19.1718 104.842 7.06122
-16.5769 79.6032 2.06277
-14.5161 129.744 7.23578
9.45255 93.7008 -13.4992
9.10782 91.804 -13.5098
-18.7621 93.6021 5.44585
-19.0879 104.16 7.03803
-18.7251 97.0373 5.90239
10.0656 106.359 -12.171
-7.66657 142.417 4.42246
10.2877 104.797 -12.4887
12.4534 146.746 -8.46993
13.186 131.628 -10.9043
-15.2487 130.278 8.02672
-9.6168 142.807 5.89315
-9.23726 141.837 5.52995
-18.4097 91.3223 5.12297
6.46864 79.832 -13.021
-9.36758 141.542 5.65852
-9.49251 143.053 5.97289
9.02051 89.5547 -13.3496
-14.8967 127.565 7.62335
-18.9233 98.2324 6.52149
-16.2045 126.754 8.4174
12.6692 133.136 -10.0908
-13.4166 134.51 7.60714
-17.0013 118.295 7.91785
-18.7628 97.8277 6.47305
10.9496 103.474 -12.6956
-12.26 135.393 7.0165
14.0727 142.783 -9.6439
5.50645 153.469 -2.50717
-18.4585 94.8825 5.93143
4.36553 155.035 -1.51115
10.9608 116.547 -10.9124
-6.88683 142.103 4.38802
-10.008 140.144 6.22997
-15.4509 131.255 8.72615
-17.1064 87.941 4.22948
-15.1596 78.899 1.77154
14.0758 138.428 -10.0569
-18.0536 90.1542 5.19547
5.82724 77.3107 -12.4177
13.6672 132.064 -10.5294
8.07739 152.869 -4.06356
-17.8289 122.662 9.39158
12.8141 137.577 -9.18052
-14.2727 132.856 8.50587
14.4138 128.781 -11.241
-19.0441 99.1808 7.34117
4.96458 76.3126 -11.6817
-15.0932 78.6636 2.07579
-15.1436 127.311 8.45054
7.19218 79.4527 -12.7175
-7.86624 141.741 5.4979
-17.861 89.808 5.45156
11.087 150.283 -6.07428
-17.2047 119.798 8.92355
11.9543 118.762 -10.723
5.39839 76.3023 -11.8401
10.9237 150.817 -5.78795
-17.4558 123.633 9.71701
-16.1897 84.4393 3.77334
12.3614 114.024 -11.4511
5.28064 155.365 -1.31199
-10.2673 136.082 6.60444
-17.0749 119.735 9.04245
6.88178 153.229 -2.61926
14.4095 126.767 -11.1011
10.8992 151.13 -5.56061
13.9602 122.636 -11.3109
14.2718 125.888 -11.0965
9.83888 152.167 -4.66048
-13.6215 129.063 8.05645
-8.34658 141.843 6.18684
-14.6734 78.6163 2.25296
-9.89382 138.418 6.82861
13.6444 134.763 -9.41774
9.07099 85.4159 -12.6983
13.9059 120.577 -11.3633
-13.0601 133.172 8.34976
10.3194 90.2437 -12.8644
-10.4697 135.331 6.95707
11.3016 109.229 -10.983
-13.9686 128.206 8.4397
11.5978 101.05 -12.2164
-17.2504 125.022 10.2419
-17.4802 122.921 10.1522
-18.7046 99.3003 7.93278
-16.6724 78.834 3.91279
-9.54405 137.016 6.71275
8.03456 80.5851 -12.3711
-18.8063 112.862 9.81714
-17.3207 123.268 10.1804
-17.927 94.6736 6.90015
-18.1138 93.683 6.92029
15.6625 143.176 -9.25702
14.482 125.687 -10.7311
9.84407 86.5532 -12.678
12.1383 111.551 -10.9368
15.8197 139.258 -9.77977
8.58767 153.221 -3.11646
-17.2467 115.911 9.35282
15.3655 140.451 -9.29005
-18.6969 107.781 9.30805
14.6484 128.239 -10.3617
-17.3977 117.401 9.73548
-14.6273 127.363 9.18163
-18.8554 104.142 8.99982
-15.2757 82.219 3.75515
-14.5089 128.295 9.24047
14.452 124.892 -10.5842
15.391 137.519 -9.56579
-17.2056 125.297 10.6919
9.5375 83.8146 -12.6074
14.031 120.786 -10.789
-15.2964 129.254 10.0457
-18.7555 110.104 9.92242
14.9696 132.243 -9.7935
-15.7381 83.4423 4.45214
13.1766 132.128 -8.58686
-15.4561 82.7241 4.18704
-13.9764 129.898 9.34685
8.59575 79.9638 -12.2314
11.7416 98.0893 -11.9505
14.1796 118.723 -10.8924
-5.24778 142.583 5.22938
-2.4015 143.927 3.50618
-17.7445 88.7799 6.63791
7.56817 153.649 -1.87673
10.247 85.4266 -12.5152
-7.14035 141.04 6.39102
7.88761 153.48 -2.04523
12.2661 108.105 -10.8479
11.8826 98.0332 -11.8731
14.9549 136.496 -8.91814
-16.6578 80.2925 4.96469
12.8622 112.087 -10.6738
-17.0941 124.685 11.0406
10.9474 88.4945 -12.4168
-17.0743 78.8934 5.11992
8.90264 79.2925 -12.2083
13.677 133.333 -8.37877
14.3582 146.666 -7.08218
-15.8233 128.186 10.7406
12.2892 109.582 -10.494
13.2286 131.607 -8.2435
14.4319 128.692 -9.41887
11.0191 88.2635 -12.3585
14.5416 130.254 -9.25666
14.5296 133.762 -8.7905
-15.8985 81.52 4.80577
15.4819 145.375 -7.91131
15.5361 141.791 -8.34782
15.1894 138.085 -8.50908
15.1636 136.519 -8.69238
13.3109 132.042 -8.02249
-5.01466 142.529 5.63065
13.1453 148.073 -5.78977
13.6326 118.062 -10.0083
9.08112 76.9236 -12.3033
-17.9865 98.6283 8.65902
-17.9101 89.0959 7.37115
-18.5568 106.098 10.0437
14.3397 132.915 -8.5063
-14.8959 129.222 10.6128
-9.92939 134.444 7.96491
-17.3561 115.541 10.4874
12.0586 96.6268 -11.6807
-1.5714 144.371 3.67725
-7.59318 140.297 7.20738
-17.9531 91.7066 7.86196
-15.5443 83.5522 5.24292
10.9672 86.0346 -12.1875
14.8323 118.233 -10.5875
-1.13599 144.932 3.60244
-17.9826 99.7183 9.01196
15.4028 136.87 -8.52561
-14.2042 129.966 10.4636
13.8953 117.862 -9.93731
12.369 99.3102 -11.3186
12.9159 110.618 -10.2027
-17.4749 115.456 10.7988
15.746 139.598 -8.28452
-8.39407 136.58 7.51715
15.5276 137.051 -8.43353
-17.6213 116.079 11.0551
-13.9486 130.95 10.5731
14.387 122.225 -9.54502
11.4593 87.6021 -12.0756
14.8645 125.51 -9.40296
14.3149 126.836 -8.84976
15.6067 141.649 -7.75584
15.2763 130.589 -8.9431
11.4102 86.8888 -12.0355
-17.8659 114.986 11.2523
-18.484 105.141 10.4003
14.879 124.716 -9.39807
15.8361 139.76 -8.08193
-17.573 120.479 11.8083
-10.0737 133.876 8.53532
-1.15196 144.684 3.97856
12.0462 92.1364 -11.6907
-6.92875 140.586 7.33849
15.086 127.069 -9.16161
16.2942 123.626 -10.4088
16.8142 137.353 -8.95244
-11.5153 133.143 9.5172
16.0376 138.209 -8.26492
15.9182 132.699 -8.8707
16.6753 136.831 -8.83685
11.9934 89.9527 -11.7946
15.9287 129.692 -9.24414
-7.87064 140.064 8.05662
13.5402 106.142 -10.6743
13.7193 132.516 -7.33204
-17.4962 97.3074 9.00873
10.2688 79.5414 -11.865
14.2592 121.355 -9.08415
-17.5095 90.9675 8.251
-15.6928 84.5665 6.20592
-17.518 91.5514 8.35271
13.6611 127.386 -7.86913
-16.9037 124.639 12.2609
-17.1179 80.9582 6.72545
-17.1135 79.1706 6.49988
14.764 124.498 -8.94831
-12.778 131.606 10.4361
-15.7319 83.0492 6.11732
14.1201 120.613 -8.97427
-17.7113 88.7296 8.21305
13.6358 128.361 -7.60392
13.1287 130.446 -6.98314
13.5462 149.903 -4.70926
15.9078 132.319 -8.55705
-7.56377 139.834 8.21704
-16.8356 78.5885 6.48208
15.4057 129.105 -8.53173
13.6943 104.596 -10.5608
-17.2474 118.749 12.0183
15.9226 143.07 -7.04186
-8.93216 134.766 8.53851
16.8329 123.51 -10.1838
12.6231 94.9894 -11.0517
16.2919 135.475 -8.22795
12.9025 150.973 -3.90144
17.4961 138.159 -8.64104
-12.6409 130.048 10.5705
15.3992 117.043 -9.9078
17.046 125.21 -9.90942
15.8605 128.879 -8.62647
15.714 127.816 -8.64603
16.0861 134.175 -8.06839
-16.2771 82.4829 6.92422
16.0074 145.144 -6.50932
14.1488 125.161 -7.85122
9.78331 153.297 -1.25374
14.2867 111.473 -9.68093
-12.4573 130.134 10.6704
14.9298 115.772 -9.54496
16.8223 132.434 -8.61821
-1.91063 144.038 5.44584
-10.8196 133.877 10.1105
14.0163 123.89 -7.81341
15.9423 127.015 -8.69742
13.7139 127.659 -7.11465
12.0731 85.2215 -11.5262
14.8063 127.095 -7.86797
-16.0335 83.4881 7.13848
17.4893 138.656 -8.14288
14.1511 108.983 -9.76222
14.2752 122.158 -8.13087
-17.0962 93.8589 9.22144
14.1472 125.76 -7.56008
11.7946 83.7852 -11.404
14.6919 122.978 -8.24688
16.8514 133.222 -8.35697
13.1745 96.7553 -10.5926
16.2245 136.096 -7.517
-17.0959 87.4553 8.51105
17.3676 139.675 -7.7815
-16.9992 87.2046 8.43422
15.1841 127.503 -7.88721
13.7783 103.472 -10.0437
-16.9191 117.148 12.3125
-17.4846 88.5241 8.96955
-17.1623 80.9195 7.77293
-17.8212 101.67 10.9166
-16.7503 86.7082 8.28146
-0.700203 144.825 5.08561
16.2691 133.122 -7.77655
-2.69169 143.153 6.24518
16.7239 141.541 -6.93234
13.7652 127.235 -6.77318
13.7863 126.678 -6.84897
12.3059 84.7422 -11.2784
15.9305 145.265 -5.83039
14.3339 104.449 -10.0619
-1.28851 144.261 5.60259
-16.6816 120.552 12.8598
17.2228 131.226 -8.44508
-10.9127 132.747 10.6041
17.2222 140.964 -7.16201
16.9497 134.177 -7.84767
17.2417 140.976 -7.15716
17.6137 140.349 -7.46431
-4.0756 141.658 7.2455
-16.5089 79.1796 7.55355
-15.9146 84.1022 7.80462
-3.91513 141.72 7.25987
-8.02197 134.462 9.08358
17.5553 132.519 -8.2896
14.7952 105.891 -9.90108
17.3746 122.511 -9.45832
16.004 145.221 -5.5834
-17.6417 112.528 12.73
-17.6679 110.853 12.5466
-8.80753 132.579 9.45712
14.5095 149.978 -3.90179
-2.70333 142.717 6.72973
-5.26541 137.925 7.85057
-15.5531 123.52 12.8725
-17.0999 81.1374 8.4239
14.3567 119.297 -7.68149
13.7032 128.642 -6.02218
-1.24353 144.035 5.99946
12.0181 81.3184 -11.0416
-17.6403 104.217 11.8242
16.4144 144.855 -5.70437
-14.2832 127.872 12.6629
14.3653 123.723 -7.04759
-0.365046 144.679 5.55151
14.6744 124.438 -7.14111
-6.82025 135.613 8.73599
15.3683 134.309 -6.25965
14.3673 123.809 -6.94528
17.6953 135.311 -7.61171
-15.7201 79.2558 7.50896
13.2058 87.4765 -10.7906
18.5169 139.553 -7.5648
13.7925 128.328 -5.84584
14.4973 118.777 -7.54068
14.9952 133.389 -5.95581
18.7183 139.044 -7.71095
-16.8639 87.1273 9.38556
16.1586 132.297 -6.85549
16.8971 130.282 -7.5729
10.5072 153.208 -0.305416
13.7292 101.711 -9.15715
-4.83503 138.483 8.08531
18.8646 136.707 -8.0244
15.8963 131.743 -6.65062
-0.670478 144.215 6.09718
14.8501 121.8 -7.18975
15.5167 125.384 -7.17004
15.3312 106.287 -9.49227
-16.3939 85.8964 9.13961
-15.5581 121.114 13.1875
-17.4098 104.671 12.2958
-13.7899 127.742 12.8786
-16.4641 91.4028 9.95814
-16.6924 98.7082 11.0771
-17.3797 104.553 12.3305
15.6457 134.119 -5.93569
8.73433 154.928 1.41642
17.4534 130.913 -7.50116
15.1623 104.65 -9.35858
13.6324 128.804 -5.1801
14.6543 122.526 -6.57652
18.6533 133.619 -7.80453
17.9441 134.926 -7.13147
13.8891 127.517 -5.36873
-17.2191 105.433 12.6205
-16.5624 98.5622 11.316
14.4501 121.301 -6.50142
16.4279 145.8 -4.62492
15.782 108.593 -9.02604
16.2981 114.412 -8.57842
15.14 103.59 -9.19452
16.5241 145.111 -4.69937
16.9513 131.53 -6.74872
-13.637 126.835 13.1676
19.0722 134.719 -7.71124
13.8002 87.9253 -10.2349
14.5493 121.251 -6.39222
13.5328 84.2166 -10.4887
14.1655 126.171 -5.42675
18.0406 131.262 -7.33272
-12.8377 128.737 13.0378
18.3584 131.664 -7.45117
-17.0164 102.391 12.4929
-13.0078 128.195 13.2115
-17.3461 80.1081 9.89215
14.8136 131.94 -4.9109
-7.53595 132.792 10.1986
-16.7196 113.089 13.7923
10.8269 153.331 0.577279
14.2197 129.995 -4.69577
-16.4597 113.886 13.787
-14.6136 120.988 13.4885
-9.37462 131.159 11.3033
16.1711 111.366 -8.38002
-15.9313 83.562 9.5541
19.861 135.066 -7.72529
14.8124 122.814 -5.9217
12.5752 78.156 -10.2086
14.0852 88.3036 -9.89524
19.9043 135.306 -7.67659
-16.3702 86.1416 10.2613
8.2215 154.857 2.73522
-1.48208 142.443 7.64597
18.5629 129.032 -7.51973
18.7712 123.124 -8.42088
-12.5072 128.651 13.2561
-15.8483 115.065 13.7531
-3.53742 137.4 8.43986
13.3536 80.3497 -10.2913
-13.0127 126.033 13.3223
-6.44856 133.847 9.95446
20.0727 136.286 -7.48417
-3.2864 139.285 8.5693
14.1863 129.428 -4.40734
16.1008 111.931 -7.9493
14.2411 88.3239 -9.74719
17.9481 130.617 -6.72742
-0.0814614 143.643 7.09178
-7.10599 133.015 10.4175
16.3383 114.224 -7.73313
-0.74862 142.495 7.43275
17.5452 144.889 -4.50078
16.1782 113.436 -7.66876
15.9836 108.042 -8.23433
-1.43603 141.382 7.80555
15.4411 130.995 -4.84623
-3.17167 138.307 8.6424
15.9933 107.789 -8.14999
14.3475 96.7518 -8.47784
12.9408 78.3081 -9.91996
17.5249 146.345 -4.11628
17.141 131.812 -5.74215
-15.2905 95.8445 11.3174
16.226 130.599 -5.25092
17.4638 146.804 -3.94746
-9.33444 131.028 11.9819
19.2086 143.516 -5.51057
-6.66502 133.173 10.4918
-16.0445 110.459 13.8504
-15.1684 116.142 14.019
1.54745 144.786 6.56614
14.8367 91.5641 -9.25651
-10.289 130.843 12.6938
-16.0904 109.439 13.8063
16.2393 124.907 -5.79469
-2.86807 136.777 8.56186
14.8767 119.184 -5.6068
15.1957 116.638 -6.14615
14.7425 90.8121 -9.17899
19.0893 122.67 -7.93637
17.3335 147.153 -3.56667
0.305623 142.02 7.20164
20.0494 133.289 -7.1383
-13.4535 122.521 13.9171
-2.64698 136.388 8.48208
12.0957 152.421 0.705385
14.4822 85.7209 -9.5546
14.5888 89.8187 -9.0548
-2.04508 138.359 8.4157
-16.8901 80.4583 10.8358
15.017 125.076 -4.72969
15.4426 124.268 -5.11984
0.704882 142.205 7.08761
14.8406 118.343 -5.47445
-3.13401 135.002 8.75932
16.3155 110.194 -7.47134
15.5669 149.711 -1.81353
-10.1882 130.578 12.9609
15.5035 103.745 -7.735
-16.5732 86.6658 11.545
-16.3063 102.689 13.4953
-16.2726 105.521 13.8809
14.5992 96.3407 -7.98892
16.2019 111.237 -7.11862
-10.8755 129.206 13.3633
15.6831 120.377 -5.57856
16.2393 120.684 -5.90871
20.5998 135.109 -6.89562
-16.2585 100.973 13.3646
14.9867 125.674 -4.35548
19.112 133.052 -6.14233
8.73217 154.605 3.62354
17.2982 130.718 -5.19614
14.6907 84.1641 -9.49217
-15.2146 114.916 14.5527
4.11934 148.352 5.94838
18.3102 128.454 -6.13965
18.0252 127.366 -6.07271
-2.5033 135.278 8.71682
-15.5538 110.304 14.2287
19.5072 144.352 -4.81053
15.3 124.993 -4.50789
16.0863 112.291 -6.68383
16.2413 110.69 -6.96055
15.4767 150.117 -1.32077
-16.0197 80.0847 10.6863
14.7366 128.843 -3.563
-1.02733 137.892 8.17927
-16.0501 106.776 14.2226
15.6002 103.098 -7.4596
0.785568 140.671 7.36312
-13.8146 120.123 14.4788
-16.5615 83.3477 11.5418
16.3319 109.225 -7.1078
16.3499 113.996 -6.49238
-6.23539 131.079 10.8679
9.07552 154.039 3.59724
-13.522 120.951 14.4523
15.1674 120.932 -4.77074
-6.34852 130.317 10.8725
8.76496 154.069 3.84036
-16.0434 105.909 14.2135
3.23694 145.795 6.48351
-5.19996 133.174 10.5045
20.2221 124.074 -7.68138
16.4771 121.917 -5.43692
19.5477 122.359 -7.38415
-15.6591 91.1518 12.1643
18.5581 133.313 -5.27212
17.7459 129.857 -5.17415
18.69 133.208 -5.36412
16.0173 130.301 -3.947
-0.487307 137.568 8.07102
17.877 133.831 -4.67962
16.8829 121.67 -5.56806
20.7404 134.229 -6.5136
21.074 136.025 -6.48767
6.81457 151.474 5.08229
-16.483 88.6546 12.5642
18.5559 128.242 -5.76267
14.0432 78.9867 -9.1317
13.6175 151.365 0.585024
-16.4535 86.0935 12.2872
18.0714 129.309 -5.2096
-6.12647 129.998 11.096
16.2519 122.17 -4.90335
15.0391 86.9386 -8.66274
16.3245 112.398 -6.18271
-0.380576 136.866 8.20468
12.1897 151.537 1.70188
6.85739 149.096 4.97713
17.0432 122.404 -5.31587
15.0651 120.173 -4.27932
17.3171 125.448 -5.10103
-5.01923 132.87 10.8431
16.3161 149.658 -1.2662
-10.8457 126.841 13.9736
-14.4133 94.3462 12.1689
-16.9193 81.4343 12.1811
16.4298 122.024 -4.88421
15.6161 116.104 -5.05327
-0.86349 136.01 8.59305
7.03797 148.891 4.97541
15.1044 126.923 -3.2663
-16.4881 85.6984 12.5444
-15.4767 97.9128 13.4623
15.9153 121.678 -4.46606
20.0454 122.598 -7.07999
17.2616 125.17 -4.866
16.8891 122.295 -4.98375
12.203 151.342 1.95411
8.31381 148.875 4.25796
-5.6761 129.855 11.2274
3.17146 143.823 7.14091
16.3401 107.472 -6.39194
16.531 114.695 -5.57456
-14.8304 112.592 15.1878
13.5515 150.944 1.16298
-16.6644 81.0219 12.3186
-15.4575 103.276 14.4617
16.3837 111.723 -5.77257
-0.226727 136.249 8.54968
9.28423 150.92 4.09532
8.70597 148.632 4.18587
16.7098 149.585 -1.04186
-9.99328 128.617 14.1429
5.84978 146.804 5.9285
20.378 127.178 -6.33198
-3.80916 133.122 10.6879
16.2549 108.837 -5.91239
4.57151 145.349 6.68673
-11.5135 124.108 14.72
-14.9457 91.6891 12.8728
21.8625 137.595 -5.81988
7.36174 147.589 5.2688
-14.9308 97.1357 13.6459
15.5956 99.3517 -6.50367
20.3255 127.645 -5.97941
-8.3217 129.441 13.4549
15.9271 93.1154 -7.5124
15.0872 150.525 0.527875
-14.1799 94.598 12.8672
16.6299 115.123 -5.08739
15.7527 115.985 -4.38198
21.988 136.896 -5.83332
18.0062 148.088 -1.70648
-1.61822 134.422 9.67305
18.5437 126.546 -4.83349
-6.35418 128.433 12.0988
17.6915 122.806 -4.71614
15.8956 105.629 -5.73571
20.6148 126.982 -6.11188
16.0334 106.132 -5.7116
-4.44427 130.126 11.1483
15.9201 93.6479 -7.23821
3.70212 143.513 7.43795
-13.2517 118.172 15.5043
20.8881 131.125 -5.66974
18.3799 122.507 -5.10383
-15.0537 80.1747 11.802
16.233 115.503 -4.49176
21.3134 139.802 -4.67141
18.0596 121.755 -4.81439
-10.0047 126.563 14.6284
14.4264 150.333 1.35461
20.6705 130.682 -5.37404
-10.2832 125.562 14.7292
18.3236 121.772 -4.91927
-12.8258 118.369 15.5133
15.6447 83.8079 -8.02316
-14.0981 94.2705 13.2804
-3.43322 132.16 11.0655
15.2711 150.145 0.87207
22.1792 138.627 -5.21623
15.5974 116.286 -3.70178
7.35871 146 5.6941
-14.7573 102.661 14.8952
22.3229 137.647 -5.38618
-3.61071 131.283 11.1711
19.2374 127.721 -4.5857
13.2109 150.106 2.42488
8.59591 144.931 4.8902
-14.6175 98.955 14.4691
1.64877 137.843 8.63041
21.8835 139.523 -4.6933
15.34 118.442 -3.0406
8.67403 144.848 4.86768
9.84507 145.203 4.14572
18.4833 129.422 -3.64323
7.07612 145.598 6.10431
9.99636 145.187 4.09938
16.0785 96.9959 -6.22329
-16.1644 81.5795 13.3756
20.7151 130.32 -4.91216
-3.46695 130.556 11.342
21.5205 125.615 -6.01584
10.25 144.255 3.9999
20.8601 127.604 -5.26871
21.9971 132.94 -5.32685
17.3497 149.207 -0.0896666
19.5498 123.446 -4.90941
16.7222 130.033 -2.15405
-15.9038 84.9334 13.8491
-3.43072 130.267 11.404
-15.9415 85.3281 13.9619
15.9006 85.5423 -7.25748
15.9971 86.6833 -7.16952
15.6193 78.421 -7.97613
-13.5129 109.26 15.5694
15.2835 117.013 -2.71006
19.9849 146.518 -2.02328
15.9032 85.2032 -7.23027
12.1795 149.581 3.64634
-12.4607 116.705 15.9416
-14.5197 97.2674 14.8014
9.09822 143.558 5.00813
18.9202 122.553 -4.30396
-3.12316 130.306 11.4852
11.1574 149.455 4.4179
7.0146 144.624 6.5717
15.9146 81.0349 -7.63693
8.11092 143.982 5.78419
17.1313 114.829 -4.0423
3.30366 140.542 8.58353
18.2093 124.878 -3.42421
21.0653 130.394 -4.613
-10.794 121.013 15.5137
16.3169 106.671 -4.51546
16.7641 110.476 -4.27484
-4.93837 127.586 12.5117
17.4095 131.636 -1.91726
21.0223 144.205 -2.68448
16.8136 100.644 -5.52774
19.1666 127.614 -3.58691
-12.5981 115.829 16.1718
16.0062 84.7243 -7.02212
18.2572 124.778 -3.25917
3.54018 140.375 8.65429
-13.9855 94.9824 14.5193
15.3912 148.889 1.85339
19.1709 127.332 -3.44009
-13.9646 98.7022 15.0532
16.2366 88.2655 -6.51574
21.9858 141.526 -3.40351
16.7602 148.684 1.0463
18.8814 124.382 -3.52545
-13.4159 104.265 15.553
16.29 86.1912 -6.6983
19.2368 127.067 -3.28535
12.1701 143.82 3.66232
6.81114 142.635 7.1378
16.2796 105.958 -3.96707
22.9983 134.452 -4.7596
23.2742 136.419 -4.59513
16.6143 91.7577 -5.9341
17.6749 112.8 -3.90413
14.6102 148.62 2.91654
7.33756 142.839 7.0568
22.9383 134.585 -4.42779
23.2755 138.535 -4.1377
-13.6231 81.3218 13.1746
22.0726 123.657 -5.23637
21.533 126.846 -4.45741
22.5133 141.413 -3.20978
-6.13405 126.643 14.0941
-12.3754 106.587 15.6889
16.907 127.307 -1.23468
13.1946 144.506 3.53256
16.6141 86.3603 -6.28344
-0.999876 129.786 11.1977
-2.00732 128.248 11.6754
-9.3289 122.255 15.8164
-1.81355 128.377 11.614
-13.0733 101.755 15.7223
16.8372 93.8369 -5.31813
2.61546 135.858 9.68467
14.9165 148.321 3.1414
-13.2454 91.2582 14.6098
16.7528 95.2263 -4.90917
-14.5739 87.008 15.0232
18.1811 121.466 -2.42568
-5.45867 126.26 14.0737
17.2978 114.804 -2.66243
16.6497 108.597 -3.02191
1.28647 132.315 10.3605
21.3342 127.186 -3.73469
16.665 80.0228 -6.71915
-6.00065 126.365 14.5015
-0.51703 129.336 11.2817
17.7247 128.469 -1.03355
-9.41187 120.059 16.0574
23.1115 135.037 -3.7753
21.8246 130.279 -3.52859
20.5345 127.208 -3.0599
13.5553 147.037 4.20048
2.48347 135.056 10.0701
20.808 146.534 -0.69882
13.9456 144.54 3.69103
16.7083 84.0611 -6.01784
17.731 120.334 -1.97729
19.5833 124.329 -2.68211
21.1377 129.252 -3.07109
15.8264 148.243 2.95917
23.7513 138.63 -3.57644
23.6233 139.249 -3.40646
18.6584 124.09 -2.03634
-12.5302 103.755 16.2275
23.5408 139.549 -3.28089
21.6452 129.912 -3.25979
7.49967 139.709 7.50752
22.3415 133.887 -3.17639
16.9459 95.3689 -4.56945
-10.0886 116.991 16.4169
11.8015 141.387 4.94156
19.7142 122.411 -2.80906
-14.1066 88.1129 15.3923
23.8276 138.357 -3.45546
13.9602 146.78 4.26091
1.82103 132.551 10.5477
17.8135 125.558 -1.0528
17.0001 85.8001 -5.67295
23.2555 126.984 -4.46878
16.8649 103.13 -3.25113
14.2107 145.127 4.02831
7.60626 138.806 7.63989
-8.7268 119.858 16.1257
-0.761717 127.795 11.8231
18.3188 124.917 -1.33161
18.1613 127.498 -0.887089
17.9916 147.386 1.82263
10.5428 138.307 5.63771
18.4428 128.595 -0.894477
11.7857 140.901 5.18068
-3.05561 125.845 13.172
-8.01715 121.633 15.9844
19.5899 147.324 0.828796
9.8799 138.288 6.178
22.4818 133.575 -2.82537
18.6498 128.299 -0.906586
18.8677 123.705 -1.64626
14.1968 141.186 3.76421
23.0016 142.522 -1.92688
23.2498 125.253 -4.28254
-8.65448 118.532 16.2284
-10.3141 115.445 16.9399
-12.9254 97.4754 16.3812
22.5801 143.733 -1.38654
19.1385 127.874 -1.133
-14.196 80.9071 15.1123
22.6465 132.884 -2.8067
-12.377 99.9409 16.3919
-12.5929 98.7142 16.4049
-5.33303 125.696 15.0738
-8.56744 118.405 16.3153
23.6927 140.234 -2.45314
22.872 132.826 -2.86313
17.2552 94.1353 -4.11745
0.134849 128.517 11.828
-13.037 83.6661 14.8531
-11.1359 105.891 16.4984
-12.883 95.8352 16.3676
18.6617 126.037 -0.82898
18.87 126.979 -0.835862
22.0298 128.195 -2.78384
23.6368 138.66 -2.46512
17.427 89.7266 -4.66124
16.9767 77.5215 -5.92756
18.2739 112.954 -2.16445
22.0601 128.186 -2.69011
-14.0892 81.3803 15.445
-7.13115 123.425 16.2552
22.8208 130.757 -2.85967
-1.37651 125.998 12.7499
-13.4102 80.4738 14.8944
23.6996 138.959 -2.29297
17.0094 103.298 -2.42281
21.1743 126.206 -2.18937
23.8958 132.694 -3.16452
22.8791 134.227 -2.24149
22.6308 134.75 -1.99668
17.1043 108.741 -1.66184
23.3466 129.091 -3.13048
17.2285 80.4414 -5.34683
18.8248 124.708 -0.625565
-12.5782 82.9568 14.9935
-6.88624 122.96 16.3833
23.25 130.899 -2.76583
9.8175 136.366 6.97429
23.6935 129.419 -3.22104
18.4098 121.197 -0.748109
-10.8083 105.774 16.8259
24.2416 130.159 -3.47915
23.5737 126.134 -3.54827
17.7135 146.811 3.12326
5.3781 136.798 10.0958
-3.18385 124.766 14.2796
-0.293646 126.336 12.5504
22.2743 135.818 -1.32721
16.45 147.294 4.07847
-12.6673 92.0535 16.446
24.0057 133.746 -2.70085
8.33978 136.639 8.17649
17.5695 130.502 1.20439
-6.89419 121.82 16.4735
23.41 130.972 -2.60765
21.8089 145.714 0.388185
-10.0484 108.389 16.8812
-12.619 89.4497 16.1427
17.2995 102.826 -2.16252
17.4926 84.5397 -4.64701
14.0563 140.086 4.90298
5.10436 135.96 10.3809
23.3638 134.778 -1.99364
23.3052 142.788 -0.903923
6.99636 137.669 9.36078
-10.0423 111.162 17.3354
23.7394 139.445 -1.61207
21.3761 146.066 0.836436
23.6029 126.628 -3.18122
23.5884 137.858 -1.68374
16.4709 135.37 2.7765
-6.73474 121.684 16.566
18.6512 126.065 0.162793
-12.0919 94.6203 16.7067
24.4461 130.466 -3.11142
0.624346 127.386 12.4592
-10.965 104.23 17.2391
-3.45427 124.634 14.8644
10.9579 135.481 6.64003
-12.477 85.0613 15.7859
18.3978 97.4192 -3.28947
23.6191 127.846 -2.8285
-12.379 90.3805 16.4249
11.1349 135.912 6.60057
17.5079 134.35 2.15344
24.8223 132.649 -2.9324
22.53 130.734 -1.63289
-12.4199 89.6633 16.4547
-11.5601 98.8633 17.0782
18.3564 146.247 3.19699
6.093 136.316 10.1596
17.9125 129.299 1.37508
17.957 134.724 2.0577
23.0801 143.654 -0.206432
23.2502 129.577 -2.12635
13.6405 137.765 5.38296
22.3729 130.493 -1.41086
20.3033 126.295 -0.558971
-10.8025 104.03 17.3947
22.3931 130.443 -1.39693
23.5718 131.537 -2.02274
-11.8336 84.2659 15.5806
23.156 127.809 -2.18532
22.935 144.11 0.0944037
18.4416 129.073 1.20175
17.4306 136.521 2.86258
17.6181 106.983 -1.08986
11.6191 136.991 6.83349
18.4819 128.268 1.10167
21.7738 145.292 1.11103
18.6109 128.594 1.07987
18.9316 127.734 0.755086
-1.50419 124.027 13.9767
11.5406 136.572 6.86862
-11.0937 100.335 17.323
23.5641 142.606 -0.393079
10.6199 134.969 7.3013
19.6015 127.677 0.364757
-9.54096 112.149 17.8761
12.3246 138.165 6.61897
18.1743 91.8326 -3.32382
19.2051 121.785 -0.118472
19.2242 125.584 0.367549
-5.40959 123.265 16.5756
23.9243 140.022 -0.889178
-11.4018 97.4803 17.2519
3.51 131.779 11.7293
-3.84468 124.448 15.7147
23.5245 125.701 -2.45107
18.4027 137.7 2.5436
13.6975 137.339 5.65856
18.7779 137.694 2.30934
18.6141 127.059 1.04878
20.0684 130.407 0.511476
16.8739 134.976 3.26289
24.0414 137.431 -1.19377
18.7604 99.7033 -2.557
7.62362 136.433 9.69387
20.4223 126.871 -0.0967692
17.6575 145.314 4.15882
18.4219 128.157 1.42143
7.53162 136.191 9.77008
-12.0377 91.5594 17.0839
24.0897 137.408 -1.14455
24.4851 132.861 -1.98865
19.4748 125.292 0.388484
8.57562 134.761 8.9282
20.9251 131.568 0.25209
6.76198 135.452 10.2549
-11.1319 97.7577 17.3776
23.4834 125.172 -2.24719
18.3651 91.4307 -3.19553
11.6568 134.415 6.90426
24.0327 140.205 -0.630605
-4.78908 123.422 16.5004
24.6116 129.17 -2.45006
23.6626 128.091 -1.94632
18.8054 98.7879 -2.48574
18.4068 91.3265 -3.17257
19.2209 127.973 1.05864
3.47544 131.006 12.0108
14.2039 136.729 5.57534
6.07636 134.37 10.7291
19.9639 126.795 0.444261
-3.52545 124.18 15.8469
21.8161 136.711 0.521087
21.5214 132.759 0.212686
6.88257 134.638 10.3097
-5.19016 122.565 16.8653
-0.144827 124 13.6784
-12.0318 87.0386 16.8402
22.8598 136.891 -0.0528476
22.6058 144.111 1.06585
18.5566 145.6 3.98234
18.5372 90.0332 -3.22998
9.08547 134.144 8.84811
25.297 131.089 -2.41049
-4.49492 123.298 16.5406
-11.1755 93.985 17.2177
22.1879 135.591 0.301235
-8.8112 110.255 17.7784
7.94908 133.769 9.62478
21.4253 129.759 0.0814103
9.61218 134.359 8.60147
7.12289 134.03 10.2309
2.42012 128.35 12.6493
18.0139 142.912 4.10638
-11.1351 95.7747 17.5094
23.7309 139.04 -0.211946
14.046 136.547 5.96747
20.8863 127.183 0.190977
22.8029 143.748 1.07059
18.1227 110.516 -0.111245
18.7639 131.953 2.24738
22.9584 143.671 0.971329
21.3123 136.127 1.1005
12.1366 134.9 7.11114
22.9463 137.187 0.173026
19.1857 128.017 1.5054
18.2995 138.683 3.5235
23.646 138.422 -0.0910864
-9.69488 105.339 17.9536
-5.73915 119.682 17.1721
23.9575 129.223 -1.46632
23.7957 130.501 -1.1503
7.88168 132.975 9.83644
23.0522 143.388 1.02759
25.4575 130.293 -2.28296
18.4636 88.3663 -3.04582
22.5454 127.458 -0.684372
22.4074 143.558 1.52043
18.5592 88.8014 -3.01119
21.0618 128.195 0.449174
17.6327 79.2339 -3.61743
23.8866 139.41 0.0190486
-11.2925 85.9222 16.6631
18.5165 141.503 3.92426
4.50328 130.923 11.9419
19.5109 135.193 2.48709
17.8994 81.0449 -3.45434
17.9756 102.732 -0.682359
24.7428 131.259 -1.48482
23.491 133.209 -0.380543
23.8142 129.35 -1.09553
19.5682 135.074 2.50222
-3.82444 123.035 16.6395
17.5208 130.023 3.28791
17.1953 134.607 4.11597
20.3616 126.733 0.977249
23.332 136.695 0.290119
2.77585 127.46 12.8724
19.7513 128.588 1.65717
-8.17894 112.47 18.2912
19.7465 134.471 2.45897
21.1837 127.509 0.590985
-9.9335 101.215 18.0289
23.2956 134.528 0.103335
-2.06378 123.449 15.6853
4.56075 130.09 12.1155
-11.8486 81.1466 16.7526
-6.09641 116.234 17.4694
23.6227 132.026 -0.380261
22.4235 137.753 1.21966
20.0625 127.648 1.50926
10.331 133.163 8.76334
24.4678 128.062 -1.34113
18.4712 87.1629 -2.64169
1.68586 124.925 13.5218
-9.39824 103.746 18.2541
18.1271 102.124 -0.379231
17.6173 130.301 3.63066
18.1361 101.919 -0.402809
20.6058 124.22 0.864559
-3.59192 122.499 16.8603
25.4988 130.39 -1.59753
-8.09922 110.717 18.362
14.5685 135.924 6.4665
-9.07836 105.209 18.3197
20.3239 135.299 2.53721
-8.83481 106.054 18.2881
21.9472 143.138 2.48986
23.4659 137.317 0.718097
7.34089 130.773 10.6913
25.9783 127.122 -2.27034
-10.3534 95.1186 17.988
23.1223 128.945 -0.0250787
26.4768 131.713 -1.9041
-10.4985 85.9439 16.9312
23.2127 129.175 -0.0308588
6.89906 130.393 11.0613
-10.0706 82.7582 16.2449
-10.9613 89.9125 17.784
11.9558 132.591 8.00202
-11.1521 80.4291 16.7111
25.4066 130.341 -1.28908
20.8016 135.54 2.50205
22.4815 138.094 1.72699
22.8004 128.552 0.277125
22.2435 138.235 1.92546
22.7416 128.522 0.359891
15.9974 135.328 5.76615
21.095 140.928 3.07979
12.0694 132.394 8.02678
17.9932 114.961 1.81293
-3.86013 121.04 17.3188
26.8434 132.041 -1.81907
-9.77211 84.9401 16.6223
16.9258 134.266 5.15996
-2.65227 122.219 16.7229
16.429 134.825 5.61435
19.1398 128.347 2.98523
17.4708 120.256 3.05807
21.6111 142.508 3.19987
10.1589 131.275 9.42013
19.3009 128.523 2.94587
9.8421 130.696 9.68926
19.3693 100.068 -0.661923
16.0615 134.79 6.13288
9.8256 129.813 9.6941
18.8855 87.2 -1.90992
19.4184 91.3946 -1.68915
18.5201 110.138 1.37629
11.4795 131.472 8.8833
-9.97772 79.7548 16.5503
20.12 124.3 2.19939
27.1199 126.592 -2.1685
10.0906 129.212 9.60319
22.6888 140.324 2.62649
18.5137 128.078 3.84807
-9.10762 84.0903 16.6505
-9.80198 86.5881 17.4534
10.733 130.242 9.38137
19.0893 126.344 3.29474
12.0478 131.282 8.65875
17.7582 130.995 4.81208
-2.02272 121.38 16.8367
-9.26006 96.7705 18.4859
2.60679 122.387 13.887
-8.92806 98.7855 18.5551
-7.30758 108.164 18.6935
17.205 116.854 3.39985
27.4487 130.101 -1.7205
-10.4557 80.2905 17.2097
19.6322 92.7591 -1.31106
7.29275 127.759 11.5448
-7.01706 108.89 18.6808
3.68145 123.307 13.3924
-1.90774 121.039 16.907
13.6991 131.868 7.86175
27.0607 127.4 -1.66888
16.4917 133.942 6.29212
4.57005 123.764 12.9588
-9.68154 79.9211 16.8146
-1.22337 121.72 16.6127
4.7791 123.805 12.8623
6.97903 126.5 11.8912
-3.33447 119.132 17.9208
-1.86656 120.529 17.1198
18.2269 77.0445 -1.99529
14.1869 132.033 7.86406
7.96367 126.76 11.3487
17.6583 120.669 4.07069
18.3194 127.449 4.52151
-9.61959 89.2095 18.3025
13.9412 131.51 8.03689
26.2343 127.79 -0.662792
18.8076 105.252 1.40018
-9.0893 86.696 17.6922
-8.9834 94.0286 18.6004
18.9128 105.863 1.47129
19.2254 86.833 -1.20393
-7.25253 103.11 18.6863
17.3968 116.147 3.88698
-9.30767 90.7532 18.5506
8.87122 126.466 11.0207
14.9772 134.53 8.00241
-8.76992 79.919 16.8145
-9.26049 88.6501 18.2904
18.4359 122.043 4.12995
19.7642 100.131 0.402025
-6.84235 106.052 19.0192
-8.03651 82.9477 16.8279
-9.02241 87.9095 18.189
-7.96682 82.1129 16.7489
5.33052 122.715 13.1371
14.7477 131.832 8.02136
18.6225 122.268 4.19695
18.7938 129.718 5.15098
27.7893 127.268 -1.18897
16.7407 132.283 6.89465
-6.30565 108.108 19.2355
19.8068 89.3284 -0.661922
-6.61173 103.173 18.848
17.2229 131.31 6.56761
17.6801 116.379 4.32346
18.195 118.953 4.36086
-6.34217 107.215 19.275
-7.76257 81.1583 16.8613
20.1388 92.9833 -0.294557
18.9351 111.718 2.95271
-7.94108 84.9601 17.5108
19.3872 85.8982 -0.64772
20.1194 95.2397 0.0838128
-4.16565 112.821 18.7106
19.4958 101.233 1.40134
20.0996 99.4347 0.764215
-4.57613 111.992 18.952
-8.07106 92.807 18.852
-8.24549 90.9343 18.7867
-2.11062 118.691 18.2914
-5.72587 109.101 19.4686
-5.50736 110.338 19.5217
20.1524 96.9571 0.613965
10.2813 126.968 11.1341
16.1659 133.2 8.08131
-7.38525 98.0818 19.3243
18.0509 120.625 5.21689
-5.64146 106.64 19.2728
15.0817 131.255 8.62145
20.2706 95.8424 0.565421
-6.17946 101.578 19.0408
-5.66748 104.038 19.0784
16.7713 132.492 7.75746
19.142 111.367 3.43721
5.3801 121.399 13.976
5.54776 121.434 13.8808
-7.7028 92.1479 18.9509
20.3377 95.4815 0.59744
-0.102699 120.068 17.5388
-6.93943 80.9743 17.0519
10.0711 126.249 11.5974
20.1897 89.6399 0.0682098
-7.00793 98.3457 19.441
19.2662 106.459 2.89623
19.6906 86.0274 0.0209005
19.4191 102.175 2.30415
19.6705 79.0447 -0.851374
-6.86404 82.6028 17.4327
19.0159 123.12 5.43772
2.80263 120.778 16.0434
-7.29954 90.6124 18.9878
-2.60331 113.697 18.8949
18.2478 121.823 5.98977
-4.71029 108.223 19.6193
-3.75998 111.399 19.4016
19.1556 103.206 3.00894
18.0053 115.766 5.47409
8.43456 123.455 12.919
18.3918 120.86 5.98542
19.3495 110.507 4.01081
20.1603 100.273 2.1388
18.8565 114.658 5.01415
20.6434 96.5748 1.51076
-6.13917 98.2783 19.6917
9.26447 124.028 12.7584
4.3463 119.562 15.4844
19.2231 125.375 6.28302
-6.75005 89.9764 19.1169
20.6506 97.8303 1.80145
-0.775715 117.232 18.6974
3.33611 119.528 16.2442
20.0322 78.1786 -0.278236
19.8399 112.097 4.33808
11.5048 126.154 11.8269
20.6723 91.8671 1.2583
20.7587 91.2507 1.18027
19.9554 77.1081 -0.0872936
18.646 125.994 7.15961
-6.35755 89.856 19.2174
14.4148 128.123 10.3005
18.6501 115.061 5.78502
19.5507 102.821 3.60164
20.8318 97.092 2.00085
20.4862 81.9955 0.324754
20.4582 80.2104 0.163004
17.0698 131.05 9.04528
20.403 78.9164 0.0807092
20.0156 100.81 3.19987
-5.15703 98.7731 19.8432
19.7255 110.562 4.72876
-0.377798 116.276 18.9925
19.4934 114.198 5.4592
5.10885 119.225 15.8063
0.295489 117.636 18.8853
19.2319 124.298 7.07579
19.3829 104.095 4.35474
-5.59819 84.1804 18.6326
-1.48032 112.968 19.6279
18.349 116.154 6.77745
15.2137 128.157 10.533
20.8172 92.4443 2.164
19.9474 101.698 3.95706
19.7109 114.055 5.73715
-5.42932 90.726 19.5765
-4.33941 99.25 20.0143
19.2738 104.799 4.95333
-4.87998 95.668 19.9743
12.4396 125.696 12.2879
-7.22175 79.9842 19.6013
20.7089 86.9367 1.83268
19.1993 123.71 7.7189
16.9649 128.17 9.80273
-5.09708 86.2996 19.1616
-2.06197 108.45 20.0213
19.6557 112.034 5.94361
8.11806 121.386 14.8963
-4.92759 91.6404 19.8133
0.923349 116.38 19.1439
21.129 97.0972 3.10492
19.3652 124.799 7.90841
-2.77094 104.434 20.1742
-6.59547 80.1658 19.5818
19.6358 103.054 4.99524
14.9643 126.998 11.2706
20.0909 109.942 5.62662
-2.8705 104.002 20.2532
19.9022 106.679 5.34941
19.1468 122.077 7.89058
-3.54382 101.649 20.4664
19.7381 110.848 6.07068
-4.73311 84.5919 19.0626
-1.23448 111.934 20.3026
19.9297 101.667 4.79742
18.9453 118.423 7.65816
19.5388 114.692 6.78513
4.52645 117.802 17.2612
21.3044 96.1214 3.28882
15.8541 127.712 11.0507
19.5162 123.681 8.10786
6.9847 119.751 16.0519
7.74281 120.47 15.643
19.9433 114.048 6.64655
19.7645 113.109 6.6803
16.2403 127.923 11.0206
19.7186 102.544 5.39955
15.3539 126.785 11.5208
-0.121745 113.231 20.1608
21.4173 80.2212 1.4985
19.487 119.763 7.98018
19.202 118.802 8.05074
11.1849 123.054 14.0161
-3.34878 96.4832 20.33
18.7562 117.337 8.24405
-3.42198 88.6149 19.3795
9.48437 121.349 14.9927
-3.41458 88.5954 19.3787
-5.44406 80.4814 19.7196
-1.11187 108.124 20.4537
20.0154 101.115 5.39592
-3.66983 82.1653 18.8404
18.2331 125.138 9.77321
19.5642 122.853 8.60993
19.1808 110.244 7.2776
19.8521 104.112 6.07681
15.3471 126.228 11.9796
-3.21459 82.4795 18.7309
21.4011 94.2599 3.79654
10.0262 121.383 14.9645
19.4305 109.213 7.09374
21.6806 79.5365 1.84384
-2.58464 93.7964 19.9854
-3.23906 80.1169 18.6522
19.3043 122.074 9.01502
-2.16628 102.945 20.9137
-2.45634 95.6625 20.166
-1.03536 106.595 20.6455
8.13722 119.777 16.2268
-2.86689 85.2245 19.1143
17.116 126.321 11.0771
21.4975 94.3975 3.99105
19.2384 109.111 7.4824
-2.07313 87.8637 19.0057
-2.25775 97.2911 20.3839
19.3289 115.175 8.25712
0.454708 112.866 20.6228
19.3355 115.162 8.29921
19.1318 109.334 7.69555
20.2779 100.99 5.89465
-3.11575 80.0734 18.8657
18.898 116.61 8.86752
21.8943 86.2133 2.93367
6.76939 118.129 17.2767
-1.59479 83.5616 18.3954
13.8535 123.902 13.3519
4.65914 116.158 18.5276
2.53714 114.287 19.7166
20.4671 100.667 5.94841
-1.02584 86.1365 18.5567
-1.35072 95.5108 20.0163
-1.69083 101.6 21.0458
-1.35809 92.286 19.6184
19.2002 112.684 8.59787
20.3047 104.643 6.83397
11.7126 121.726 14.8332
12.1492 122.081 14.6832
22.0225 86.7312 3.48519
2.59259 113.896 20.0544
-0.856064 93.4533 19.7094
18.6118 119.605 10.0702
-0.604354 89.9047 19.1982
16.9105 119.538 11.3524
2.12408 113.264 20.5845
22.1312 79.0119 2.77556
4.00054 114.486 19.542
-0.068243 89.6261 19.1222
0.0290682 86.3142 18.663
22.0023 88.9986 4.31958
18.9685 112.74 9.44175
-0.00280185 83.3855 18.3369
0.0308035 87.9856 18.9576
19.1868 118.679 10.1162
22.159 84.6857 3.71647
9.97677 119.199 16.3987
21.743 92.5006 5.05652
0.347321 106.059 21.1625
18.3796 109.574 9.56136
-0.424575 98.4192 20.7152
-0.127574 94.1717 19.9918
-0.178211 94.8199 20.1411
22.333 79.891 3.14855
15.1339 121.329 13.4021
15.8251 118.183 12.5329
15.808 117.641 12.4797
0.318582 90.6691 19.4522
21.6879 91.7552 5.33542
-0.471633 102.458 21.5898
18.5457 108.894 9.70908
21.776 91.3379 5.30658
21.0286 99.2833 6.86538
11.951 119.661 15.6196
9.90726 118.31 16.8395
0.529828 89.4607 19.4051
22.3912 87.9989 4.62042
14.6857 117.809 13.6627
1.30702 107.806 21.3629
13.4558 119.101 14.7198
21.2467 94.3789 6.32002
22.4525 81.4609 3.83375
21.613 91.1558 5.6851
21.3408 97.3757 6.67942
0.779023 87.5102 19.1847
21.2885 97.5775 6.81094
0.641992 104.121 21.4999
0.646688 91.3823 19.8632
18.8108 107.843 9.84874
18.285 111.071 10.6373
19.0834 113.735 10.4717
0.807347 89.3482 19.5814
18.3033 112.093 10.8431
11.6934 117.647 16.0293
20.4336 102.642 8.29424
22.4264 82.5892 4.36389
11.8977 117.035 15.9349
4.14393 112.178 20.5001
5.82735 113.968 19.6121
17.1928 115.586 12.2437
1.08987 87.0544 19.3335
20.9318 93.7798 6.93521
19.4508 105.315 9.43133
17.9543 109.291 11.0405
12.0072 115.858 15.8894
19.5878 104.799 9.3736
21.0082 97.807 7.53894
6.69054 114.348 19.2898
3.69159 111.073 20.9274
5.24017 112.481 20.0824
19.2834 105.908 9.83764
22.0649 87.2974 5.5762
19.1035 106.618 10.0751
11.219 115.691 16.543
11.8388 114.82 16.0584
0.564619 97.0589 21.3129
21.9625 87.898 5.78474
11.683 114.833 16.1869
18.9685 114.096 11.2462
2.35267 108.266 21.6425
0.732547 95.6551 21.0947
13.449 113.838 14.9601
13.5455 113.823 14.9043
2.41346 108.282 21.6509
17.2082 114.773 12.613
5.177 111.431 20.261
22.2711 80.7517 4.82138
5.608 111.766 20.0194
6.32195 112.12 19.6346
5.76173 111.321 19.9769
1.3008 80.5631 19.0431
1.70456 103.901 21.8617
8.29216 113.816 18.7654
20.4968 92.5625 7.83894
7.60266 112.743 19.1083
3.86866 109.409 21.1988
1.20895 94.0551 20.9948
20.8741 97.1095 8.23447
1.18687 101.623 22.0381
2.26681 105.849 21.8864
22.0732 78.9714 5.16222
20.7508 95.3392 8.25383
21.355 88.0698 6.94203
18.6743 106.51 11.1508
20.2206 103.115 9.68835
20.3355 92.3014 8.22891
20.0774 100.032 9.42389
5.17912 109.237 20.6344
6.31758 109.788 19.9668
22.5516 82.0077 5.52277
10.437 112.706 17.6451
19.6547 102.517 10.1973
16.8373 113.397 13.5003
16.6875 113.283 13.6182
1.30137 97.2208 21.8513
4.34319 108.469 21.2762
1.92612 90.1989 20.5333
1.33785 98.3182 21.9835
20.9903 87.6313 7.50257
19.1572 100.808 10.4557
7.91038 109.714 19.1773
22.4762 83.0985 5.96016
21.149 85.7796 7.2047
1.9383 91.9656 20.9139
5.98553 108.845 20.4271
20.7016 87.7902 7.91241
10.4838 111.726 17.874
6.75554 108.926 20.0098
10.6162 111.683 17.802
16.0373 112.408 14.2863
4.80467 107.892 21.2289
1.80232 100.016 22.2364
20.9932 85.0413 7.45264
9.66147 111.122 18.4539
6.05695 108.382 20.5557
11.6562 111.077 17.1684
9.40747 110.665 18.6331
11.0407 106.497 17.019
6.30154 108.37 20.4577
3.76016 106.026 21.8753
18.0032 106.188 12.3668
13.6472 111.689 16.0059
13.4072 107.375 15.6239
20.3338 90.132 8.76318
17.9736 110.428 13.0005
5.52045 107.673 20.9881
8.91194 108.805 18.8782
10.3345 106.864 17.6929
9.24425 104.526 18.1301
12.7744 110.795 16.6069
9.24327 107.035 18.4932
8.18966 106.693 19.179
11.7833 105.242 16.5843
10.94 107.398 17.4338
10.8859 104.087 17.0442
6.53812 107.033 20.3959
20.0642 94.1145 9.65897
14.4571 110.042 15.5022
14.1126 108.923 15.592
6.13563 107.267 20.7226
9.84435 103.368 17.732
18.7114 104.652 11.96
20.0926 97.4905 10.1189
8.72833 104.227 18.6105
9.17875 107.459 18.7432
2.11293 96.3544 22.0383
16.9444 107.108 13.5157
13.4303 102.773 15.3687
14.7658 107.173 15.0532
5.54273 106.07 21.1018
11.7184 103.885 16.69
12.9848 102.017 15.602
13.247 109.856 16.4535
9.8563 107.955 18.4804
14.4452 102.757 14.7307
15.7956 103.145 13.8857
18.4517 104.964 12.3431
15.4157 104.03 14.2704
10.8386 108.481 17.9252
15.0086 105.828 14.7991
15.1932 104.958 14.5643
8.62083 103.519 18.8048
1.97786 80.5633 20.2832
19.1891 97.6785 10.983
16.52 103.612 13.5442
11.2777 109.008 17.7698
16.4514 104.448 13.7416
16.0579 110.249 14.7859
17.2427 103.845 13.1916
19.4296 96.0281 10.7323
10.0021 101.223 17.735
14.2586 102.039 15.0452
14.9206 102.324 14.6399
13.0445 101.371 15.8184
11.8122 100.393 16.5176
19.2851 96.8121 11.064
14.6796 102.113 14.855
5.49806 104.407 21.4013
22.2271 78.5521 6.84914
6.48047 104.252 20.7462
17.0155 96.216 12.6427
17.2377 96.0683 12.5566
16.516 107.572 14.5789
3.61558 101.414 22.4255
17.6538 95.9717 12.343
19.5473 92.0909 10.5765
22.1451 78.5003 7.06919
3.1522 92.4108 21.6267
22.2542 80.3464 7.2853
15.9517 100.787 14.2757
17.9702 95.5144 12.2928
8.9985 100.72 18.983
15.5123 100.19 14.6062
13.7094 97.2286 15.4534
14.159 95.0702 14.9497
14.4532 98.8323 15.2459
18.1931 95.0362 12.3029
12.8249 97.017 16.1732
12.7182 96.9193 16.248
9.27334 99.5874 18.9657
7.01503 101.378 20.7125
3.52463 87.8983 21.3173
7.53489 100.751 20.3682
4.71049 81.2728 19.8411
19.0889 90.4556 11.4409
9.17911 99.0726 19.208
3.97569 98.0985 22.5778
4.6775 99.611 22.3097
19.337 88.0076 10.9791
3.14112 85.5781 21.5162
20.4178 81.5084 9.41841
21.2121 80.2979 8.76194
19.0032 90.3873 11.5863
4.14909 89.8654 21.5022
18.5992 92.6847 12.324
16.5684 92.9108 13.7195
3.71036 83.0652 21.0763
3.82633 93.3576 22.3731
21.2023 79.6214 8.95331
17.9158 92.952 12.9198
13.0581 93.332 16.2589
16.2675 92.4974 14.0013
7.90587 98.866 20.478
16.5356 92.3294 13.9018
15.6563 91.88 14.5318
5.45881 98.4928 22.2286
3.80256 79.7819 20.9106
6.08951 99.3007 21.9995
8.9303 97.4544 19.8818
18.7975 83.4052 11.4753
13.3099 92.4364 16.3748
4.80975 91.0451 21.9515
4.53687 92.2845 22.3038
6.13047 98.4603 22.0675
4.01666 80.2314 21.1579
18.1157 87.1614 12.624
19.9316 77.9122 10.2962
3.91273 84.4647 21.9861
3.38234 84.4471 22.3436
4.14887 88.0874 22.3107
17.4342 90.1905 13.7196
5.38955 79.759 20.4366
17.977 89.8377 13.3586
4.66316 93.0658 22.7261
17.694 89.9081 13.5956
8.18258 96.4827 21.0177
5.12344 92.279 22.6433
4.45072 87.6245 22.5503
10.7067 93.1563 19.0797
17.5278 87.782 13.904
7.73824 95.9834 21.5358
17.4641 88.3476 14.0435
17.5292 84.596 13.5428
17.3207 88.2662 14.1919
4.94802 85.2837 22.3629
7.5528 79.5419 19.879
5.30129 85.1368 22.1702
8.13635 93.7714 21.4699
18.5734 79.2725 12.5983
6.06126 92.4704 22.8314
7.80036 92.367 21.7197
13.1061 89.0573 17.7503
10.0842 91.6438 20.3915
15.1435 87.3228 16.4466
16.9707 82.9962 14.7429
11.5267 89.9533 19.3644
6.22017 90.6534 23.0747
8.03517 80.3777 20.6019
6.5036 90.4738 22.9534
7.55506 90.9214 22.3511
15.6565 84.8116 16.1705
6.37476 87.3272 22.7356
11.2965 89.3162 19.7048
7.05077 90.357 22.7526
17.038 79.5629 14.73
14.8936 78.8999 16.0986
13.575 86.3333 17.9705
10.558 87.4514 20.3254
7.33617 87.8967 22.5617
10.2987 87.6701 20.5673
12.4866 86.032 18.8958
14.3299 80.7984 16.9808
16.089 80.686 15.7935
10.4502 87.213 20.4205
14.5559 81.1348 16.8832
9.40542 88.801 21.3646
13.4437 82.0575 17.798
16.8506 78.1649 15.0135
13.2987 83.7062 18.1318
7.26042 85.7143 22.4554
9.00403 88.5993 21.6889
8.27956 81.6939 21.2763
13.7093 78.8235 17.2827
11.9054 84.9384 19.3357
8.20039 87.285 22.1589
8.3981 87.3824 22.0634
12.4588 82.0227 18.6806
12.2581 82.6293 18.9053
11.6513 83.449 19.4461
11.2162 83.792 19.8106
9.4231 85.4064 21.2357
11.1028 82.7733 19.811
8.64784 84.9525 21.7505
8.97484 84.5626 21.4882
9.01652 84.0621 21.4208
12.6332 80.0193 18.5116
9.20312 82.2269 21.1737
9.38503 81.2807 21.039
11.4659 79.917 19.5032
9.70402 80.1571 20.8138
