ply
format ascii 1.0
comment Created by Open3D
element vertex 1569
property double x
property double y
property double z
end_header
13.059 131.059 15.0956
-3.43986 81.3775 3.81391
6.71573 84.4447 20.7017
1.91918 140.473 -7.86608
-9.07003 84.9325 -7.27759
-9.79776 96.1022 -12.5646
8.08235 83.3958 23.6104
9.32541 91.062 23.0633
9.90982 101.76 20.2558
9.71047 154.362 0.988363
9.16311 104.239 18.0666
-7.34225 107.279 -12.1719
12.7937 134.307 13.7231
-2.49333 80.9299 5.91338
9.00298 83.965 25.143
-8.00637 90.2809 -7.18652
11.2261 118.676 16.6066
-6.12856 112.784 -11.9312
12.3985 136.579 12.2526
-9.03221 85.4648 -7.20488
-8.95087 102.373 -13.1144
6.27827 84.6067 20.195
6.86884 152.987 -3.34235
12.6675 127.252 16.1918
12.7266 128.173 15.9728
12.2745 139.24 11.2668
11.5174 146.229 7.42905
-9.77702 97.1586 -12.535
6.22179 83.2004 20.7675
-4.19604 81.4303 3.01307
11.1574 148.791 6.02667
9.29265 106.559 18.0169
-10.6679 91.6587 -11.8869
-9.54299 82.903 -6.73119
8.42663 154.224 -0.588948
9.5934 112.968 16.3482
11.1895 147.236 6.84535
3.10041 144.299 -6.29784
-9.99534 91.1223 -10.3022
-5.55335 83.4896 0.343661
7.79535 153.986 -1.39459
9.595 108.264 18.2468
12.4062 129.522 15.6008
8.39705 83.7087 25.0426
11.7265 139.719 10.8062
4.6813 83.2929 18.6658
11.136 145.705 7.65402
-6.01541 84.4931 -0.627625
9.74478 101.332 21.1829
3.48902 82.3153 16.9864
12.2221 132.544 14.3851
9.19613 83.7914 26.6439
-6.65512 111.515 -11.3242
6.313 83.5296 21.6813
10.7116 98.0899 24.2205
-0.5833 83.143 9.64183
11.34 93.8079 26.8919
-3.51378 126.527 -11.0258
9.1801 110.588 17.173
-6.02321 83.2032 0.162536
-4.12584 121.886 -10.3805
12.0215 131.875 14.6489
9.18337 109.576 17.6848
-6.16742 116.663 -11.9929
9.99386 99.8247 22.6658
-1.00471 83.0443 9.30226
-6.40101 116.238 -12.1758
9.60967 101.286 21.5249
11.0097 138.897 10.494
-9.16079 83.7813 -5.21027
-3.64418 124.936 -10.2644
3.44984 147.45 -5.82112
7.33796 89.8603 21.7759
11.0491 139.966 10.3057
-6.10869 83.1574 0.465846
-6.93287 111.43 -11.1452
2.97749 82.9448 16.646
0.3641 81.2397 12.644
-6.87199 84.5542 -1.33614
-6.63347 116.064 -12.2114
11.75 126.774 16.4497
5.58566 88.5918 19.3047
10.5122 93.1881 26.3825
8.90393 110.472 17.3332
-7.03054 111.176 -10.9786
10.8583 120.171 17.4022
-4.11503 122.854 -10.0228
-9.6427 84.1467 -5.85544
0.58582 81.8532 13.1405
7.27322 83.4133 24.4012
-9.9506 85.6512 -6.84253
11.0126 96.579 26.2857
1.45108 141.579 -6.78345
2.6892 145.159 -5.88208
-10.5014 97.6903 -12.0995
11.2372 132.997 13.6305
-10.7481 91.444 -10.2603
-3.90815 124.578 -10.0715
10.1531 149.259 5.92135
5.1308 86.5186 19.6925
-9.98802 82.4114 -5.52389
11.1065 132.957 13.572
-2.61864 82.4783 7.5435
1.57114 82.3008 15.028
9.97477 93.0147 26.0373
1.15662 82.2646 14.324
-7.46817 85.1561 -1.90975
-4.06287 126.369 -10.6161
-7.23915 115.347 -12.2422
-5.60769 119.872 -10.9305
11.0233 132.21 14.0765
2.76263 146.606 -5.6284
3.16331 82.6929 18.0913
-7.49326 110.076 -10.5751
4.41148 87.3199 18.7255
2.09626 83.6224 15.9699
-11.7367 93.4365 -12.0029
-2.0311 81.3016 9.53094
9.85858 139.104 9.75058
4.83634 152.558 -3.9246
-7.17036 116.182 -11.9904
6.45313 83.3443 23.9141
9.76999 139.124 9.72837
-10.0112 86.507 -6.27076
11.1081 128.896 15.8596
-0.471414 82.806 12.0166
-4.40412 126.632 -10.5695
9.75716 100.251 23.9892
10.176 98.3982 25.406
-11.4785 95.1951 -11.7061
9.13781 153.51 3.77062
4.00785 82.7927 20.1529
9.80689 143.688 8.50232
9.37872 150.629 5.25792
1.16779 83.707 14.8825
9.80267 117.949 17.8233
8.03772 105.127 19.3436
7.79675 154.918 1.02153
10.0473 135.863 11.9225
1.34629 142.97 -5.98736
-9.11109 105.937 -11.1428
-0.855247 82.677 11.8519
-8.70637 85.0211 -2.86086
-10.3769 87.1688 -6.58056
-7.77377 112.036 -10.9102
5.4447 83.4888 22.7394
10.0783 96.5925 26.2573
3.57534 86.7984 18.3167
-4.70203 81.6368 5.54853
-11.9123 94.4174 -11.72
9.89473 133.942 12.615
-9.55837 91.9028 -6.63033
9.21207 94.0098 25.8031
10.6563 128.842 15.8392
-11.2598 97.6222 -11.6533
6.04306 154.324 -1.46352
-7.34492 116.919 -11.6655
-9.1158 85.0201 -3.30311
1.92959 145.576 -5.55017
9.33126 141.329 9.13781
8.9612 152.23 4.56713
-3.33376 81.5976 8.26134
-11.7844 95.2771 -11.5755
6.17826 83.3254 24.5147
-6.87082 118.525 -11.1702
-9.61843 87.2774 -4.70836
5.53254 153.936 -1.87543
-12.2776 93.5324 -11.5972
-1.60863 82.941 11.0731
-8.64686 83.7779 -1.63817
4.69916 89.7646 19.7959
-12.0241 94.8795 -11.576
9.92626 120.161 18.1803
-0.148901 139.642 -6.56746
9.23197 142.867 8.87021
9.54616 135.965 11.9119
9.23274 142.788 8.91693
-4.0512 128.489 -9.38126
-12.2912 91.7844 -10.7131
10.3271 125.886 17.0111
7.72379 111.848 17.4783
7.81766 112.468 17.4251
-9.84369 84.0597 -3.53719
9.80576 97.9389 26.1991
10.0385 129.489 15.3035
-9.88352 86.9577 -4.59506
5.46863 92.1859 20.6854
10.13 128.434 15.8942
5.72522 93.0584 20.8852
2.04637 147.661 -5.26376
8.34879 114.418 17.8503
2.3548 85.7606 17.5994
0.581413 82.577 15.6705
-8.46755 109.706 -9.95615
5.58824 154.989 -1.35247
9.405 118.675 18.4769
9.02534 132.655 12.8116
5.00852 154.167 -2.00055
6.38378 155.279 0.0336781
0.478575 142.515 -5.78541
9.85873 127.988 16.0414
7.51421 107.96 19.1209
-11.052 87.2777 -6.17147
-7.82966 85.7488 0.0915468
8.37274 145.359 7.30101
1.55244 147.079 -5.30325
2.98378 89.5966 17.9249
-10.1129 85.271 -3.63141
3.18749 83.3586 20.6108
-8.3641 85.7649 -0.600722
-9.72611 105.038 -9.92861
8.19445 146.033 7.00889
8.958 100.392 24.7927
-10.3319 90.5333 -5.72991
0.69434 144.208 -5.52668
7.92373 140.674 8.52519
5.7996 93.7411 21.6686
8.7626 96.6524 25.913
9.57283 125.406 17.0416
7.21552 107.052 19.5257
8.3172 138.12 10.3145
-8.75708 110.362 -9.84006
1.06668 146.284 -5.37192
8.55901 133.43 12.5007
-10.3398 89.8968 -5.20145
7.6768 151.532 4.48924
2.04293 88.9229 17.1154
-9.77403 105.109 -9.56783
7.74781 149.111 5.58465
5.93109 94.0398 22.1987
-11.8655 100.293 -11.4989
-5.15713 82.6741 6.7845
-1.78077 137.321 -6.90854
0.361018 143.972 -5.49034
-10.3063 90.9762 -5.26255
7.65656 146.456 6.53034
7.61542 95.6754 24.759
9.40236 123.423 18.0001
-6.27392 83.6658 4.60308
-3.22086 83.1891 10.1777
7.45219 149.399 5.25673
-4.90659 129.372 -9.33888
-3.0321 134.78 -7.95883
2.2036 151.363 -4.65282
1.07849 88.3856 16.0528
-12.3387 93.0587 -9.32193
7.33989 147.312 5.9937
-10.6889 90.5305 -5.43299
6.80527 148.837 4.52861
8.52597 100.588 24.9509
-12.0474 86.8879 -6.47495
8.17604 131.68 13.1603
-8.94837 113.596 -10.5388
7.24719 148.869 5.39728
0.606273 146.154 -5.33746
8.14921 96.9909 25.7001
8.6895 118.538 18.9123
0.752842 146.751 -5.25486
-4.8556 130.148 -9.08732
-9.16992 110.961 -9.80636
3.61791 91.059 19.9632
6.68617 107.092 19.627
4.37102 154.894 -1.65364
-2.51081 136.259 -7.10897
8.43253 98.5826 25.8344
0.995842 148.02 -5.05598
-9.56983 107.107 -8.98805
-1.12467 140.167 -5.94816
-2.99498 135.353 -7.52078
-5.97581 123.829 -8.63364
6.96476 147.431 5.74747
-1.37497 139.581 -6.04773
-2.15423 84.494 12.4176
8.213 98.6157 25.7173
-12.6599 85.5549 -6.44755
-10.9181 88.2623 -4.32579
-12.1276 100.187 -10.7391
-13.3316 95.2334 -11.0291
7.78768 135.098 11.9664
0.385029 88.0177 15.8732
8.69492 123.482 17.8038
4.21246 155.051 -1.46119
2.14195 152.036 -4.03369
-2.01407 138.525 -6.4613
8.04685 128.54 14.9512
-12.8781 97.7771 -10.96
-7.45815 86.1653 2.81235
-10.0525 87.5325 -2.25318
-7.92631 86.0057 2.07428
6.45304 104.911 20.7996
0.184951 88.4042 15.6718
5.82777 96.1301 22.8721
8.55126 122.497 18.1992
6.35283 144.717 6.34694
-11.4234 89.9891 -5.37639
-13.0144 92.9551 -9.25376
3.95006 155.019 -1.43616
0.859541 89.7964 16.5888
6.7187 138.911 9.30777
-4.00513 133.864 -7.82291
7.32985 97.9761 25.2137
6.02753 145.638 5.81168
7.69199 115.78 19.4986
-4.05583 83.7404 10.2666
-11.2979 88.5174 -4.24251
7.13669 135.803 11.346
-6.1211 128.481 -9.43196
6.1277 110.509 18.7063
-11.1046 103.349 -9.13472
5.26885 146.792 4.1885
-11.2702 90.5649 -4.79267
7.99182 100.111 25.8258
6.36537 139.491 8.82455
5.9891 108.524 19.3194
6.09299 106.187 20.3598
-0.654296 144.44 -5.30085
-13.077 85.7519 -6.10712
-9.67513 112.59 -9.69479
-0.144963 146.659 -5.08362
7.60246 102.424 24.541
-12.8839 85.1056 -5.42505
-5.40841 84.2718 8.09325
6.18347 139.555 8.75398
6.23184 99.0049 23.4325
6.83363 98.6931 24.6209
7.61999 101.502 25.0098
-9.71135 112.73 -9.65882
7.62516 101.16 25.1992
5.83595 109.964 18.9142
7.13368 103.651 23.5319
5.40648 144.099 5.9612
3.2465 154.661 -1.64165
5.83514 98.5415 23.1371
-3.65363 135.762 -7.0251
-11.5774 85.4469 -2.89974
-12.9196 85.0827 -5.11334
-2.16574 141.235 -6.25471
-5.70901 130.842 -8.7207
-13.2403 85.6538 -5.75508
-11.3917 88.8474 -3.6234
1.23875 91.9017 17.6172
-11.6768 89.0084 -4.12425
6.44275 131.346 12.6772
-10.7711 105.601 -8.48009
7.83863 120.967 18.9347
-11.0206 88.7339 -2.76982
5.09351 142.88 6.22935
5.31578 98.1109 22.8202
-12.9156 89.1296 -6.1545
1.95358 92.1184 19.0971
1.21065 92.0557 17.8131
-11.2282 88.726 -2.95684
2.36411 94.2429 19.1014
5.03476 145.187 5.52132
-10.7316 106.367 -8.35554
-6.83015 127.978 -9.22547
-5.43244 84.4687 8.93869
6.98269 124.707 16.4186
6.48479 134.809 11.9084
-9.89086 114.666 -9.74528
-4.68221 134.093 -7.5073
-9.97872 113.366 -9.39082
-12.8468 93.715 -7.38476
0.168902 90.9999 16.6104
-13.379 86.6236 -5.75572
-3.43549 85.472 12.2564
1.82833 153.466 -2.8293
-10.9675 105.904 -8.24729
4.47018 146.44 4.5755
6.15194 134.999 11.6846
5.01186 140.39 7.74585
5.84688 126.235 14.3177
-4.10806 85.4448 11.4176
-12.5999 93.053 -6.32088
6.00457 100.315 23.9626
6.7008 123.346 16.9131
2.54954 154.549 -1.60205
-12.7441 91.8075 -6.03924
-8.73746 120.226 -9.15476
-8.01998 122.227 -8.5967
-1.6632 89.0425 14.6211
6.21148 124.567 15.802
5.88269 125.351 14.953
0.265648 92.0617 17.0129
-10.138 113.931 -9.23259
5.70525 125.659 14.5718
-13.3928 88.9956 -5.97224
6.58577 121.854 17.5595
-13.0379 86.1077 -4.24787
6.46611 122.584 17.133
-7.33048 86.2282 5.89579
5.86082 112.07 19.9283
5.61589 131.528 12.5654
-10.6444 110.897 -8.64696
-4.68329 137.406 -7.64631
6.48253 104.131 24.1195
4.60979 139.807 8.01263
-5.20757 84.9848 10.4153
4.10284 144.318 5.52405
-13.2866 90.1265 -5.70463
-6.1296 132.141 -8.17199
-7.25756 128.067 -8.64098
5.40235 130.969 12.7113
3.73471 97.7448 21.729
-2.64333 88.7539 13.7236
5.00445 128.69 12.8845
-10.5128 112.868 -8.84452
-5.06706 136.218 -7.60457
5.88912 122.386 16.7542
-10.2518 116.05 -9.48466
-2.7172 89.9334 13.238
6.58824 102.017 25.3373
6.00124 120.218 17.7695
0.442637 92.8375 17.8051
-13.4237 90.0621 -5.68563
0.527645 152.593 -3.51805
5.14164 107.259 20.9659
4.91159 126.44 13.6728
5.51146 123.18 15.9361
3.83063 145.629 4.90105
5.104 130.31 12.7199
5.57118 122.483 16.3699
-2.94098 88.4031 13.6524
-7.46017 127.653 -8.42896
-7.41199 126.511 -7.90514
4.70587 138.496 9.28344
-2.50431 90.352 13.936
5.21268 134.624 11.6584
-5.21695 137.283 -7.72707
-5.68698 135.2 -7.77571
-11.7507 105.098 -7.64452
5.45741 120.742 17.1515
-7.40249 128.485 -8.34792
5.54254 119.107 17.9619
-7.35765 128.856 -8.33944
-4.47441 86.2446 12.0989
-13.3701 99.2645 -8.248
-14.7121 94.2206 -8.79172
-7.41747 130.15 -8.76109
4.82952 110.374 20.071
3.31359 98.8718 21.5716
0.538614 93.2672 18.6907
0.163125 93.2086 18.1104
4.70205 135.349 11.0185
4.7557 107.602 21.1205
-5.97441 135.659 -7.87191
2.57337 98.4007 20.7027
4.59926 132.403 12.074
4.85653 119.861 17.0471
-2.98131 144.413 -5.59251
-7.77307 127.256 -7.86197
-5.84068 136.969 -7.79317
2.90423 145.716 4.52033
2.50275 98.7821 20.7228
3.72769 137.741 8.87359
-3.92182 90.1661 12.4907
-5.01625 139.484 -7.16884
-11.4944 110.376 -8.13024
-11.6135 108.979 -7.81808
-1.29465 93.1338 16.1222
-13.4166 92.984 -5.24254
4.55976 107.734 21.237
-1.88948 147.312 -4.36644
-8.14686 86.4732 6.47356
-7.22776 132.686 -8.52191
-10.6701 118.203 -9.37421
-8.80361 123.543 -7.96596
-13.4584 93.1053 -5.21919
-5.70964 138.442 -7.74522
-4.29228 89.6572 12.3711
-9.80936 120.772 -8.5324
0.401669 95.374 18.6767
-4.42984 89.8906 12.1127
-10.9502 86.9099 1.69183
4.13097 134.778 11.1864
-13.5556 93.8051 -5.25334
-3.9879 91.7358 12.4164
-11.3298 115.565 -9.02175
3.37473 131.534 11.2574
-11.0023 117.898 -9.23972
-5.41471 87.8548 11.451
-13.5237 100.009 -7.21311
4.75257 107.087 22.5476
-15.3822 97.2037 -9.47622
-0.748542 152.375 -3.4399
-12.7341 104.032 -7.20454
-8.88947 86.6643 5.91278
-4.69938 91.6414 11.546
2.92798 136.833 8.77837
-13.7732 90.5292 -4.06433
3.70063 135.014 10.8363
-2.31268 147.361 -4.22604
3.53506 123.059 14.8767
-2.4712 93.2053 15.0203
-13.3926 91.0336 -3.49291
-14.9292 95.208 -7.70916
2.93992 136.715 8.94781
-3.1191 145.607 -4.95223
-9.57235 86.6891 4.85408
-1.79182 149.33 -3.88163
-8.33123 131.893 -9.13389
2.10178 140.045 6.3917
3.22095 125.307 13.6971
3.41399 123.463 14.7077
-13.5049 91.9882 -3.83059
-4.65045 141.341 -5.87629
2.87284 128.62 12.1207
2.75553 136.329 9.24081
-11.3292 118.846 -9.36148
-5.18393 92.1964 11.1711
2.72719 128.458 12.142
3.22071 122.63 15.1793
-12.2993 111.116 -8.10531
-13.8176 92.873 -4.17732
-5.45263 92.1579 10.9067
-8.46259 130.414 -8.10043
3.91834 110.749 20.8646
4.33682 115.636 19.8596
1.30061 145.17 3.88635
4.4138 115.389 20.1072
2.0287 102.879 20.4259
4.16327 108.566 22.1528
-8.11416 133.939 -8.56474
-13.3802 103.682 -6.96107
2.42071 128.248 12.1388
-12.4942 108.749 -7.19167
1.54483 141.247 6.00464
1.26914 101.327 19.8824
-14.4653 94.5705 -5.48929
-6.43597 91.4186 9.87417
-6.5583 138.957 -7.2907
-5.54474 93.0787 11.0206
-12.165 87.5332 1.31538
3.57988 120.104 17.4234
-11.7847 119.026 -9.29897
-6.61838 91.5348 9.74103
4.10444 108.678 22.5252
-8.84395 132.07 -8.77512
3.79355 118.449 18.4679
-15.1804 97.4719 -7.50466
-13.8827 92.6569 -3.46185
1.41004 102.571 20.0276
2.62221 135.381 10.3711
-5.5163 140.938 -5.9972
-13.7473 88.4391 -1.61326
-12.5243 87.9392 0.754099
-2.15472 94.4859 16.837
-6.31889 92.5023 10.2088
-6.65207 91.9958 9.80935
-2.75782 94.3357 15.8955
-12.0358 118.325 -9.12869
-9.99566 124.015 -7.50005
-6.28415 92.9407 10.333
1.91285 103.609 21.0597
-10.2232 87.2697 5.5049
3.432 103.755 23.7285
-14.8671 98.8234 -6.82188
-9.08399 133.491 -9.05762
-1.86204 95.1455 17.5683
-7.10087 92.0292 9.43067
-13.4299 88.9186 -0.552535
-14.1484 101.238 -6.21554
-12.4154 117.716 -9.08143
-14.8657 99.2999 -6.67121
-8.76394 135.277 -8.78467
-14.7498 93.4906 -4.32615
-14.7861 99.672 -6.60283
-2.22331 95.0694 17.2668
-13.1864 110.37 -7.59787
-16.5185 96.1411 -8.33095
2.02619 103.84 21.7142
-15.2033 94.9298 -5.49994
1.39519 128.894 11.6778
0.519139 143.751 4.79491
1.86079 123.87 14.3253
-10.085 125.534 -7.37861
1.21338 135.174 9.12731
-0.889748 143.576 2.415
1.07512 104.032 20.1383
3.36281 117.972 19.1774
-10.6371 87.5491 5.38935
-14.6454 90.7449 -2.81437
0.573924 141.774 5.7234
3.20001 104.408 23.8147
-14.2521 101.563 -5.9962
-14.9006 99.8039 -6.48909
0.733193 135.981 8.17902
-10.0631 87.8307 6.57116
-7.52553 92.9177 9.25317
-9.24385 129.939 -7.1045
1.29325 131.438 10.983
-6.68512 139.859 -6.11305
-8.61005 90.7254 8.22085
3.40156 105.69 24.087
-15.1992 92.0452 -3.82077
-6.4161 94.3378 10.9106
-14.0146 105.298 -6.44104
-10.8867 123.982 -7.5836
-0.460162 143.534 3.81835
1.36654 133.606 10.6301
-9.53899 131.398 -7.79484
-7.66679 93.3244 9.2176
0.142771 142.708 5.28687
-9.61902 133.043 -8.46986
-14.3326 103.439 -6.12003
-12.7014 87.9018 2.35827
-14.9588 88.9182 -1.99155
-14.9057 100.598 -6.09995
-8.76333 91.4086 8.08554
-13.9091 106.145 -6.2977
-3.22442 150.209 -3.26554
-4.0709 147.272 -3.67441
-16.7802 96.5599 -7.86962
-14.3266 104.915 -6.36046
1.94633 122.506 16.0803
2.44838 120.938 17.5509
1.08278 124.677 13.8165
-15.9116 97.305 -6.37033
3.21457 109.299 23.1249
0.023937 140.013 6.45789
-15.5844 98.1167 -5.99318
-3.53504 95.3225 16.343
-2.24389 97.6859 17.809
-9.64422 134.95 -8.66002
-12.7326 87.9558 2.8467
-13.8309 112.567 -7.94891
-16.9338 96.2695 -7.54335
2.80259 110.006 22.429
-14.3385 105.473 -6.23035
-7.12514 139.745 -5.81099
0.744647 132.064 10.8966
-6.01518 142.871 -4.89258
2.8668 117.023 20.174
-15.9126 92.9249 -4.31226
-0.213876 135.056 8.30861
-13.8442 113.828 -8.11319
1.19514 104.878 21.6881
-4.10955 95.3525 15.7554
-1.02597 103.105 18.4471
1.93754 105.108 22.9904
-10.1053 130.928 -7.56358
-11.1883 88.8149 5.75131
-0.327002 139.959 6.57093
-14.1602 110.872 -7.37765
-10.2924 131.895 -7.94664
-8.57795 94.3973 8.57693
-0.036145 134.304 9.33147
2.18814 119.986 18.4984
-2.40039 101.866 17.0542
-16.7323 95.6512 -6.0282
-11.1398 126.732 -7.29385
-14.6214 107.217 -6.36107
-9.64052 93.0565 7.54525
-10.5448 133.858 -8.68849
-10.1159 135.239 -8.42706
-15.2798 89.1147 -0.931806
-15.5867 100.828 -5.62753
2.32623 106.986 23.8208
-6.33254 144.202 -4.77535
-14.5447 88.9956 0.603519
-11.6811 125.653 -7.51446
-8.87155 95.1628 8.46912
-1.89819 103.949 17.6903
-10.8495 131.257 -7.93445
-8.59024 138.63 -6.5757
-7.74504 95.9784 10.337
-10.9116 91.1968 6.462
-11.5352 126.36 -7.25931
-16.3738 91.883 -3.38271
-1.36096 142.64 4.91118
-14.4545 88.8162 1.14174
-4.31741 150.451 -3.11171
-13.9874 115.613 -7.66196
-7.5189 96.0593 10.8249
-1.26858 142.21 5.33531
-9.05084 138.177 -6.94954
-7.58349 96.2218 10.9159
-15.0796 89.2162 0.210733
-16.0777 98.6937 -4.96129
-0.860724 138.819 7.54258
-9.85799 94.4793 7.62389
-17.0813 96.564 -5.88349
-9.44849 95.5281 8.20009
-0.976133 138.718 7.64271
-1.89792 142.347 4.73681
-16.0257 100.13 -5.0048
-15.4162 89.3532 -0.0300808
-2.62006 104.673 17.0764
-2.11206 105.852 17.6194
-4.21954 97.5102 16.9015
2.12381 110.082 23.5988
-0.418336 106.318 20.4949
-2.83749 104.347 16.9732
-15.7897 89.7014 -0.627314
1.76511 117.463 20.4166
-0.902587 126.18 12.7276
-16.1887 99.0746 -4.50175
1.9631 109.757 23.739
-13.1183 123.259 -7.75338
-10.1111 137.078 -7.39917
-10.4048 94.9913 7.26331
-14.2993 90.9275 1.88747
-17.4599 94.8413 -5.10159
0.531382 107.141 22.2984
1.19069 109.971 22.4694
-2.6547 105.775 17.1887
-11.1971 93.8902 6.4055
-13.0579 90.7756 4.24231
-13.5555 121.745 -7.77518
0.520253 122.556 16.8305
-8.24021 96.8552 10.6297
1.74705 114.874 21.8271
-7.65194 143.447 -4.99196
-0.900991 132.518 10.9216
1.6663 114.528 21.944
-13.6086 121.794 -7.65431
-3.22431 105.338 16.6416
1.45828 114.387 21.7838
-4.62354 99.587 16.3744
-16.479 91.548 -1.64778
-7.91703 141.872 -4.61393
-7.95069 141.842 -4.6033
-1.56056 128.01 11.6938
-11.9863 131.471 -7.85133
-13.7186 121.844 -7.4319
-12.3664 126.377 -6.60829
-16.2885 101.93 -4.73777
-11.7782 133.525 -8.05134
-2.91848 106.846 17.2209
-10.9834 95.5872 7.02164
-16.1556 102.48 -4.43728
-0.222932 110.067 21.0597
-12.0381 128.083 -6.30514
-1.70899 126.532 12.5164
-0.214278 108.021 21.823
-5.62789 151.165 -3.26062
-15.6102 112.133 -6.8566
-1.67655 126.304 12.7032
0.727384 113.514 21.5715
-14.2629 117.802 -6.40539
-1.90377 126.979 12.1644
-15.4226 91.4313 1.07541
-14.2865 119.754 -7.05175
0.127549 119.798 18.4356
-7.51727 97.2858 13.0332
-15.6521 112.245 -6.66997
-4.72073 102.933 16.0197
-12.1169 128.452 -6.2192
-2.18278 128.016 11.5024
-15.7948 111.845 -6.7103
-2.34815 139.575 7.11957
-0.22606 120.642 17.7731
-1.91173 132.583 10.506
-5.06779 101.5 16.1196
-16.3823 91.3775 -0.154861
-1.69229 125.21 13.6378
-14.3914 119.317 -6.66078
-4.99933 153.178 -2.23687
-0.933101 108.258 21.1488
-14.7635 115.642 -5.94924
-0.419787 122.646 16.9183
0.234518 112.668 21.6651
-1.18117 124.098 15.0517
-16.833 92.188 -1.0826
-6.96905 149.375 -4.22259
-11.4253 135.2 -6.9845
-16.5118 102.526 -4.18961
-3.53638 141.333 4.83289
-12.4292 127.801 -5.99729
-8.99581 97.7778 10.9346
-5.48472 100.734 16.1761
-8.80918 141.898 -4.50894
-13.2182 93.0761 5.27098
-16.5882 91.9058 -0.243979
-4.70515 105.555 15.8616
-11.2637 96.9954 7.36073
-4.78274 105.045 15.9267
-12.827 94.5056 5.52653
-4.20007 141.215 3.98657
-14.4691 120.346 -6.63297
-1.78131 124.823 14.1873
-14.0154 123.536 -6.94687
-5.86925 152.307 -2.88312
-2.81629 132.978 9.56062
-3.089 140.34 6.44702
-11.9385 133.793 -6.80348
-0.213497 118.708 19.4094
-7.34669 98.5685 14.0594
-8.78895 145.001 -5.09496
-16.4706 110.776 -6.3345
-7.65268 98.7 13.6514
-7.64952 98.7345 13.6736
-3.26468 108.161 18.1101
-6.22966 99.421 16.0652
-11.0183 98.0739 8.0991
-7.35893 99.0602 14.2939
-17.2184 92.8585 -0.829108
-0.447718 117.279 20.0288
-2.37404 108.885 19.6683
-3.1604 128.815 11.1091
-13.1335 128.57 -6.39378
-1.00112 120.674 17.9075
-3.23252 129.811 10.6799
-14.9166 117.978 -5.69308
-7.23549 150.586 -3.83769
-11.2019 137.187 -5.99542
-17.0659 93.0168 -0.464142
-0.555135 117.38 19.9774
-17.42 93.3452 -1.11622
-1.11395 120.945 17.8099
-13.7623 94.3613 5.10506
-16.8158 93.2054 0.126561
-13.0894 127.754 -5.64305
-16.638 109.95 -5.47348
-5.5235 142.364 2.62652
-15.1468 118.378 -5.62098
-6.48587 101.08 15.9702
-18.3244 94.3207 -2.3585
-16.725 105.656 -3.60441
-1.30069 113.574 20.8183
-1.25069 114.16 20.7099
-17.8733 98.1306 -2.87685
-14.6487 122.236 -5.83876
-17.3983 94.6058 -0.753617
-4.14511 108.767 17.578
-14.5901 123.746 -6.26485
-2.40335 111.068 19.8462
-9.42245 146.046 -5.0837
-2.59595 124.952 14.6409
-1.64901 121.241 17.8046
-15.9565 115.477 -5.35108
-10.3718 140.95 -4.62
-2.63379 124.853 14.8854
-16.8452 107.814 -4.09228
-13.3162 131.136 -6.20709
-16.7236 94.62 0.915369
-16.8863 108.28 -4.24516
-3.77875 132.015 10.4642
-13.2292 131.18 -5.91466
-17.9939 98.2096 -2.4438
-4.98783 109.388 16.551
-5.13704 140.217 5.20596
-4.86288 140.062 5.83574
-8.20864 100.092 14.3525
-11.7796 99.5156 8.32735
-17.9644 101.228 -3.20631
-17.1763 105.64 -3.31991
-14.209 96.2998 5.3006
-5.51723 135.556 6.57636
-9.56111 99.4532 12.4311
-2.04107 119.698 18.4617
-6.34474 142.083 2.81003
-11.0183 99.6099 9.86287
-5.58866 135.49 6.63232
-10.2874 144.224 -4.80358
-7.74972 151.412 -2.84904
-6.47758 142.109 2.82236
-13.5001 98.5495 6.1026
-6.45246 141.823 3.01153
-11.7985 138.712 -5.3034
-16.5461 114.739 -5.0612
-16.0391 118.981 -5.66294
-4.37321 131.941 10.3003
-2.48639 112.864 20.5111
-18.1758 98.0719 -1.88916
-12.5481 133.941 -4.84467
-2.25303 120.583 18.17
-16.8631 112.498 -4.69516
-3.28863 111.816 19.5719
-12.4106 99.6361 7.83977
-15.6366 121.888 -5.8542
-2.99991 116.738 18.447
-8.63793 100.497 14.3409
-5.69753 139.566 5.56623
-18.0055 103.015 -3.02065
-10.4387 145.259 -4.79358
-8.50467 100.67 14.6713
-3.39291 116.758 18.0326
-2.57582 120.183 18.3339
-3.50327 114.955 18.5791
-12.9596 135.504 -5.50913
-6.02723 135.09 6.97165
-10.2647 147.184 -4.82148
-2.8661 121.087 17.6792
-6.21483 141.821 4.3011
-13.3383 131.141 -4.40844
-5.61201 111.1 16.4838
-7.55827 104.071 15.6583
-15.1393 97.4064 4.71025
-15.8221 96.6172 3.99818
-3.83364 118.725 17.259
-14.7629 98.5076 5.22297
-6.51488 110.32 15.5811
-17.5875 111.825 -4.49713
-3.85186 116.196 18.2472
-3.87989 116.371 18.196
-6.21577 137.15 6.61758
-3.94525 119.227 17.0856
-14.3503 99.5499 5.80882
-15.9582 123.334 -5.56687
-18.7179 96.3654 -0.689705
-7.04459 144.478 2.70999
-18.0741 105.734 -2.82745
-14.8169 128.294 -5.07966
-18.0394 106.711 -3.00812
-11.3847 142.929 -4.22894
-10.861 146.603 -4.58751
-4.89711 111.882 18.4496
-7.66637 107.171 15.2521
-12.5885 139.327 -5.01701
-13.0833 133.832 -3.86819
-5.15105 128.107 12.2268
-18.1192 110.917 -4.48448
-14.985 126.431 -4.48173
-12.168 100.91 9.72456
-14.2374 100.392 6.25691
-15.0428 127.996 -5.05712
-15.1251 127.661 -4.97656
-4.44457 117.692 17.5202
-9.66512 101.912 14.0317
-6.48298 141.371 5.51028
-18.9464 97.4308 -0.626468
-7.51131 142.726 3.32207
-16.5532 122.222 -5.23756
-4.15317 124.17 15.9827
-6.52443 137.957 6.84098
-4.72836 120.149 16.4258
-11.791 143.202 -4.28467
-5.97319 112.762 16.9629
-7.31618 134.83 6.76474
-16.1156 98.4904 4.34359
-9.02034 151.46 -2.14227
-17.7078 116.793 -5.00687
-17.0823 97.0015 3.23492
-9.76043 150.556 -3.08416
-7.5302 132.377 7.40352
-7.51866 145.333 2.85181
-10.3909 102.076 13.3434
-15.2038 126.55 -3.9529
-7.45987 140.573 4.6879
-15.6346 122.271 -3.15216
-8.21432 107.654 15.2452
-8.70801 134.434 4.77114
-4.97529 120.926 16.286
-4.8586 125.894 14.7275
-7.03805 141.656 5.23342
-15.9231 122.045 -3.33601
-10.4893 102.319 13.3835
-17.1185 97.5278 3.39628
-6.76275 138.691 6.93284
-7.82005 142.885 3.58588
-8.42472 107.494 15.2781
-16.7379 121.571 -4.43946
-17.0579 119.124 -4.07296
-9.08858 104.29 15.3615
-6.20914 113.544 17.1302
-10.5745 149.738 -3.54818
-9.34171 151.562 -1.95641
-7.88764 140.276 4.67513
-17.9172 118.718 -5.27364
-16.6659 121.09 -3.90364
-7.01579 139.1 6.70606
-12.4117 142.212 -3.92052
-19.1941 102.172 -1.49366
-5.55459 113.607 18.5249
-17.85 97.8008 2.48842
-4.9264 125.634 15.3437
-17.0834 98.3573 3.69255
-7.29401 139.821 6.08023
-16.3606 99.6472 4.53167
-17.4581 97.821 3.28243
-7.34578 139.701 6.09381
-15.145 101.448 6.12968
-8.68387 108.109 15.2048
-7.93393 145.34 3.13664
-16.6457 123.69 -4.31152
-15.2581 129.711 -4.02277
-13.8883 134.466 -3.30093
-5.86761 120.15 16.0881
-19.1569 98.8078 0.313148
-9.07306 152.409 -1.12828
-12.7876 141.641 -3.80673
-17.8721 118.681 -4.50225
-15.0885 120.598 -0.269295
-6.62503 114.7 16.9745
-10.4132 103.978 14.2692
-7.77947 152.455 1.48709
-5.97511 127.575 13.6786
-16.3338 125.51 -3.86326
-19.2787 105.931 -2.00442
-15.5111 121.855 -1.03415
-15.4952 101.964 6.21856
-5.80326 116.094 18.2714
-19.2808 106.388 -2.05152
-19.2812 106.35 -1.97698
-13.2406 102.246 10.1847
-16.7963 119.239 -2.20426
-18.2472 106.075 -0.0109291
-9.9361 134.515 4.65354
-16.5926 123.018 -2.96422
-8.38338 152.414 1.02386
-10.841 104.146 14.0503
-6.55145 122.93 14.9308
-8.46164 142.839 4.42666
-10.065 105.7 15.0246
-14.9832 102.253 7.57936
-19.4075 104.674 -1.0657
-6.29025 125.348 14.7229
-7.42065 129.893 11.1144
-14.899 132.418 -2.98298
-10.5002 151.348 -2.0022
-9.36741 137.37 5.08636
-16.941 120.92 -2.37204
-11.0678 150.698 -2.69115
-13.4702 141.875 -3.72444
-12.543 103.058 11.8926
-7.90666 114.226 16.0697
-18.9646 112.176 -2.68114
-8.85105 140.729 4.9488
-6.7547 120.73 15.8916
-6.69482 118.827 16.7623
-9.57301 136.18 5.48399
-16.5481 120.78 -1.29326
-11.8898 148.441 -2.99809
-19.1614 108.279 -1.37031
-7.80444 114.874 16.364
-9.43305 136.809 5.62813
-18.7773 99.584 2.57745
-19.0415 107.41 -0.687747
-16.5384 122.111 -1.54593
-16.2175 123.035 -1.30605
-9.76637 132.324 6.76742
-8.73323 147.831 3.05479
-16.7717 120.855 -1.44558
-17.3358 101.616 4.49661
-19.4484 100.216 1.33778
-9.93746 132.219 6.64971
-7.17277 116.175 17.3463
-16.2325 122.31 -0.869958
-9.95604 132.789 6.45598
-16.5015 119.217 -0.21714
-11.7621 104.433 13.4814
-16.9612 121.442 -1.81453
-10.7754 134.684 4.47825
-8.08124 130.568 10.7587
-16.2362 122.688 -0.795341
-16.6688 122.818 -1.57392
-9.84769 110.28 15.0315
-16.6504 109.711 3.22032
-8.90369 146.823 3.61609
-18.6615 100.154 3.18991
-15.3644 118.185 2.55754
-16.4418 120.926 -0.324101
-17.152 119.087 -0.909428
-16.8837 119.827 -0.697591
-19.0515 116.311 -3.23795
-16.9931 117.484 -0.00258151
-18.0504 115.599 -1.15772
-13.1185 145.476 -3.17219
-10.5434 152.005 -0.96316
-14.0044 142.319 -3.57791
-17.9757 107.422 1.97704
-16.4957 123.048 -1.01782
-14.1101 141.705 -3.43872
-16.9643 117.766 0.133747
-19.0142 103.676 1.59886
-15.7504 119.504 1.69128
-16.5951 121.971 -0.652995
-19.5819 111.427 -2.13004
-17.3593 119.55 -1.12298
-17.8805 102.035 4.27149
-12.5702 105.325 12.5001
-17.5881 118.988 -1.28319
-18.174 118.304 -2.06178
-12.6616 105.39 12.3626
-13.0731 105.39 11.6445
-15.825 131.512 -2.60328
-7.49565 120.334 16.1847
-10.5603 108.928 14.9475
-16.6159 124.58 -1.34745
-10.4047 109.818 14.9571
-16.8866 124.104 -1.63065
-18.7027 104.583 2.211
-17.8928 107.2 2.71913
-8.10092 124.957 13.6375
-18.386 101.652 3.84944
-18.0494 116.776 -0.995245
-9.3272 141.82 5.42535
-15.5292 132.328 -2.04816
-8.24733 124.66 13.602
-16.8726 124.203 -1.45585
-19.6267 102.304 1.59209
-9.2506 146.759 3.94758
-15.7727 120.059 2.1311
-18.7279 101.526 3.59184
-11.0249 131.504 6.42636
-16.3068 129.282 -2.09226
-15.896 120.221 1.91649
-8.33495 125.205 13.5004
-9.34642 148.935 3.17719
-16.3261 121.241 0.831117
-16.547 125.289 -0.970038
-14.6454 137.353 -1.93733
-16.3521 129.382 -2.05572
-12.2102 106.313 13.5763
-10.5781 131.28 7.53256
-18.5881 106.172 2.42128
-15.5348 132.713 -1.731
-8.40523 129.329 12.1159
-16.7377 115.978 2.19958
-15.0218 113.301 6.20776
-12.7519 106.484 12.731
-17.9772 123.736 -2.65669
-16.7091 116.043 2.35576
-19.7766 111.346 -1.31295
-18.0605 110.293 2.11702
-15.5828 137.876 -3.41761
-16.6269 125.855 -0.932785
-14.9579 115.237 5.8723
-9.7805 150.87 2.223
-16.6573 114.058 3.32518
-9.95701 141.96 5.15245
-11.5137 130.756 6.46625
-16.5059 113.886 3.77583
-16.8687 103.806 6.76326
-15.1102 104.528 9.63526
-17.7121 120.398 -0.647429
-15.5092 136.552 -2.51566
-17.6533 124.17 -1.8454
-16.208 131.421 -1.88611
-17.3363 113.746 2.54996
-17.7609 103.48 5.50902
-16.7416 119.582 1.52814
-17.6121 122.675 -1.10731
-18.0204 103.303 5.14475
-17.823 124.165 -2.00693
-15.9374 110.493 6.26267
-16.5952 112.178 4.5078
-17.2692 117.221 1.5077
-15.232 140.028 -3.08514
-16.7531 112.005 4.33531
-16.213 109.68 6.15679
-8.3704 117.287 17.2932
-8.90276 119.3 15.6618
-8.63276 128.141 12.9805
-18.6301 115.437 -0.11624
-16.9543 119.516 1.38043
-17.6172 116.889 1.17999
-11.3814 135.569 5.50373
-19.5683 112.214 -0.535086
-10.599 151.655 1.12526
-16.8505 119.275 1.73762
-11.2178 130.858 7.56412
-15.0055 114.263 6.89421
-17.4612 119.088 0.871665
-15.8737 120.108 3.32732
-19.3418 111.976 0.139411
-18.7467 115.381 -0.0269495
-12.2448 107.709 14.2522
-15.3918 136.562 -1.6647
-18.122 119.131 -0.197994
-17.5261 112.467 3.29159
-9.62465 115.433 16.1905
-12.2782 107.813 14.2484
-15.9644 120.019 3.34629
-18.4155 121.06 -1.35781
-15.7687 132.093 -0.63307
-19.7978 112.966 -0.859022
-16.3855 119.884 2.68309
-17.5343 106.558 5.449
-9.56617 124.689 13.0234
-14.6737 107.097 10.3492
-10.8682 141.297 4.77019
-17.5962 120.929 0.217891
-15.8573 110.776 6.96748
-14.914 115.132 7.09764
-16.0114 132.476 -1.08078
-9.90067 128.736 11.0727
-14.2483 107.636 10.9828
-19.7423 114.487 -1.17343
-17.2085 125.521 -0.651629
-11.3095 139.904 4.62893
-17.962 112.076 2.92365
-9.8842 115.266 16.0675
-9.24407 120.991 15.1423
-16.4413 120.003 2.8103
-15.8614 110.781 7.16198
-18.0413 111.881 2.96901
-9.22454 126.682 13.2276
-17.0238 132.181 -2.53343
-12.0236 133.59 5.79761
-15.2931 139.636 -2.08808
-18.1437 112.031 2.81049
-16.6371 108.71 6.70629
-17.6112 128.264 -2.03677
-9.5106 121.27 14.8756
-16.9488 119.935 2.21012
-12.4802 129.898 6.52929
-16.7679 132.99 -2.1026
-15.6827 112.33 7.28619
-14.4935 108.142 10.9232
-17.6796 104.365 6.65178
-12.189 129.305 7.4097
-16.9334 133.025 -2.29832
-10.7202 151.099 2.19887
-10.8532 151.098 2.13889
-11.8244 111.525 14.7506
-17.4393 128.256 -1.19082
-15.2587 114.697 7.57312
-19.5783 123.033 -2.90306
-9.92734 118.079 15.9388
-16.5221 105.664 8.75925
-10.4253 145.962 5.06531
-19.1998 114.232 1.01084
-13.8116 148.475 -1.77307
-10.0198 118.141 15.8443
-16.491 118.185 4.45308
-10.1812 118.48 15.5195
-14.3359 108.965 11.6668
-15.0801 143.138 -1.74674
-19.8039 120.651 -1.99604
-10.5247 125.303 12.7532
-10.4887 122.161 13.9785
-10.0129 127.389 12.9792
-19.7278 118.93 -1.1252
-12.4094 137.567 5.11228
-15.5369 121.85 5.2624
-15.0753 109.559 10.5786
-16.856 131.121 -0.307943
-18.3246 127.481 -1.56026
-15.1116 116.444 8.13785
-16.7498 109.168 7.88676
-15.1918 116.842 7.92991
-16.5995 121.547 3.76951
-17.9756 132.451 -2.58356
-10.7054 117.811 15.5651
-14.3942 127.667 5.51504
-15.4143 140.205 -0.794715
-14.5328 126.081 5.86785
-19.5671 118.816 -0.337396
-11.0471 146.264 4.8663
-12.6403 129.029 8.26959
-17.1201 130.058 -0.0172541
-16.02 118.384 6.14167
-15.8597 118.299 6.50868
-19.4962 128.053 -3.28555
-10.8107 126.167 12.7661
-20.3588 121.324 -2.35414
-11.1295 119.307 14.7126
-16.4541 116.682 6.26926
-12.7202 138.03 5.21442
-19.8509 125.839 -3.00038
-19.7396 125.645 -2.71999
-19.2728 126.609 -2.18709
-19.3892 125.01 -1.81183
-19.994 118.634 -0.450373
-16.7836 121.793 4.15639
-11.3824 124.461 12.7733
-17.121 107.588 8.71129
-11.9594 115.242 15.1565
-15.6901 121.613 6.32236
-15.9782 120.628 6.23856
-19.6764 120.318 -0.177317
-16.8088 109.974 8.62619
-15.9739 119.404 6.7812
-14.0103 125.422 8.12394
-16.5803 122.486 4.77103
-20.6987 123.081 -2.66642
-12.3921 150.195 2.26326
-20.9234 121.888 -2.59599
-16.3314 117.622 7.13335
-13.1047 136.804 5.93951
-13.1263 150.215 1.0824
-20.0674 129.384 -3.63125
-13.9625 131.974 6.25899
-15.3537 117.221 9.12955
-13.9112 133.133 5.96013
-14.7976 148.303 -1.04945
-12.1498 120.021 13.8528
-16.1955 111.41 9.80174
-19.9049 130.127 -3.47205
-13.2723 128.287 9.01864
-13.0567 136.378 6.58077
-16.3337 140.458 -0.574152
-18.5217 134.604 -2.32156
-14.8944 129.921 5.77987
-15.4583 113.677 10.6484
-15.7457 142.739 -0.30468
-16.1252 125.514 5.23395
-15.179 116.375 10.2234
-17.5136 136.783 -1.24506
-15.359 144.704 -0.273444
-16.7656 122.788 5.21747
-14.8367 130.556 5.91429
-20.1425 120.351 0.219818
-12.5612 149.749 3.04098
-15.8672 113.251 10.3518
-16.305 112.811 9.74256
-15.2762 116.613 10.2655
-12.3576 149.295 3.7017
-21.3208 121.719 -2.18481
-14.0812 134.238 6.11522
-20.5808 129.238 -3.52206
-14.6752 125.209 8.37931
-12.6286 149.625 3.23424
-19.354 132.538 -2.47643
-13.7251 127.377 9.39038
-15.4452 112.973 11.5805
-16.1962 142.046 -0.192098
-13.1322 140.769 5.68354
-18.0757 136.711 -1.56707
-16.5336 118.291 7.85537
-18.541 120.325 3.582
-15.2166 130.326 5.86228
-16.5108 141.1 -0.292835
-12.4752 127.2 11.8982
-12.6258 125.063 12.5336
-13.5267 136.867 6.76221
-15.4543 125.198 7.70826
-17.3432 122.956 5.19111
-14.1653 126.181 9.70045
-15.2943 125.151 8.14405
-12.8512 125.755 12.2449
-15.2469 131.094 6.09032
-18.5751 137.102 -1.85148
-14.668 132.872 6.58978
-14.1579 126.366 9.84718
-14.2144 135.174 6.60469
-12.9482 125.954 12.1737
-15.3939 113.114 12.4771
-19.931 133.546 -2.84021
-20.0718 134.395 -3.09934
-14.2838 125.758 10.2468
-15.1984 114.588 12.7659
-13.7708 118.21 14.0959
-13.8759 119.227 13.6209
-14.2032 125.814 10.6999
-21.6292 128.485 -3.30917
-22.0045 121.377 -1.34068
-16.7837 127.321 5.87899
-18.4909 122.547 4.66185
-17.5144 123.849 6.12413
-14.0026 121.803 13.172
-14.1738 138.531 6.88071
-16.0517 116.556 11.4923
-18.7928 122.385 4.55626
-14.0024 126 11.7492
-17.2289 123.757 6.88288
-22.3181 121.961 -1.46035
-17.6871 140.996 -0.057594
-14.0943 125.819 11.7955
-13.6277 144.056 6.09189
-16.9471 124.676 7.23642
-20.3613 120.008 2.92019
-14.1502 122.174 13.1357
-18.1772 140.046 -0.385568
-20.8442 120.146 2.10913
-17.2911 124.133 7.01199
-19.9146 120.775 3.63312
-14.3974 121.026 13.3328
-17.5706 125.472 6.22397
-19.5694 121.458 4.14388
-18.8262 122.73 5.01733
-17.2743 127.213 6.16996
-18.8664 138.761 -0.796957
-14.5474 149.006 3.20329
-22.6289 119.102 -0.309932
-17.466 126.157 6.28284
-13.9727 146.557 5.19088
-15.2229 124.622 10.8793
-16.391 124.758 8.8443
-17.1596 123.414 8.01444
-15.34 135.065 7.08197
-22.649 121.785 -1.04467
-14.9552 119.607 13.3731
-22.5596 120.264 -0.242469
-21.1796 133.58 -2.57809
-14.0578 145.867 5.61244
-13.9462 144.947 6.21006
-19.6255 122.244 4.34917
-17.5798 127.867 6.00786
-14.9496 120.704 13.2742
-15.5506 121.692 11.8753
-17.3531 119.775 9.38214
-15.6605 121.801 11.654
-22.6597 120.459 -0.226145
-16.3081 118.71 11.6348
-15.2338 120.211 13.0523
-14.4971 140.901 6.99454
-15.3529 120.732 12.7583
-22.5658 119.157 0.58518
-17.6533 129.364 5.81103
-16.3713 121.002 11.1094
-14.1966 145.23 6.26257
-17.217 120.703 9.94007
-15.1485 138.551 7.18754
-16.6986 119.688 11.2527
-14.8091 140.292 7.19926
-19.4939 122.643 5.30638
-16.3022 119.482 12.1116
-20.2405 137.298 -1.24873
-17.2795 123.396 9.00358
-15.4857 124.052 11.9648
-17.6855 124.203 8.13837
-23.8543 118.079 -0.322947
-21.9623 132.087 -1.96332
-20.0472 138.038 -0.677633
-23.4475 124.152 -1.64128
-17.8244 129.964 6.29883
-15.2891 147.746 4.47714
-21.8891 134.123 -2.28524
-17.0826 123.829 9.93443
-17.417 122.944 9.77981
-19.4689 123.17 6.18808
-15.398 140.126 7.35948
-16.6108 135.209 7.14337
-18.4159 144.8 0.555749
-23.946 117.843 0.553909
-16.5721 136.537 6.95412
-24.4845 117.774 -0.268289
-19.4626 124.484 6.22335
-24.0569 117.663 0.569074
-20.6853 122.369 4.84067
-18.6708 127.64 6.53959
-15.011 145.407 6.6428
-22.7499 129.679 -1.36092
-22.1224 134.898 -2.00605
-24.2283 119.453 -0.166229
-18.0336 131.823 6.42304
-21.4343 121.954 4.01515
-18.1147 131.189 6.64691
-15.5815 142.715 7.01179
-19.5542 125.158 6.43001
-18.7444 144.821 0.795866
-18.4316 146.028 0.996167
-16.7281 147.196 3.63745
-24.8 119.132 -0.140378
-20.2134 140.852 0.325026
-25.1373 117.513 0.044344
-23.0351 131.848 -1.3235
-16.0118 143.331 7.23305
-23.7828 120.419 1.75491
-18.8026 132.35 6.31486
-24.5464 123.363 -0.461602
-20.4865 124.477 6.36095
-17.9383 146.51 3.08833
-23.0918 132.461 -0.900408
-19.4454 129.242 6.89711
-19.269 129.625 7.09202
-16.538 144.046 6.84545
-17.1883 139.978 7.33183
-25.1283 120.995 0.180277
-24.7341 119.269 1.52969
-19.4634 130.444 7.04703
-24.9896 124.982 -0.724571
-18.791 145.947 2.72825
-24.7182 127.174 -0.910305
-23.1555 134.661 -0.796132
-24.6605 127.647 -0.790452
-25.0863 122.556 0.451073
-19.403 145.471 2.50088
-25.2077 122.724 0.438724
-24.339 129.781 -0.565563
-18.0883 138.475 7.45733
-23.9939 131.548 -0.349647
-17.6174 143.326 6.77217
-17.796 145.223 5.822
-17.7046 142.043 7.19441
-19.1797 135.053 7.11123
-19.5634 145.13 2.94664
-25.0986 127.739 -0.548786
-24.6922 129.717 -0.374632
-17.9293 142.652 6.96699
-20.18 133.535 6.30108
-19.4668 135.177 7.04065
-18.93 145.19 4.40624
-21.4731 140.303 1.70155
-24.6446 121.116 3.07042
-19.3368 135.945 7.2822
-18.3456 144.646 5.9481
-21.5436 139.97 2.06354
-18.4113 142.11 7.04435
-20.0899 134.676 6.76481
-25.8531 119.217 2.23417
-22.149 126.601 6.17632
-21.8888 126.399 6.71288
-25.7829 120.119 2.46008
-19.0568 144.228 5.69681
-20.0054 135.722 7.13202
-24.0727 132.992 0.950095
-21.26 131.267 6.56375
-24.4617 131.98 0.686873
-26.8051 120.639 0.690016
-25.7078 128.089 -0.0226904
-21.1173 133.425 6.21301
-22.7151 128.04 5.3477
-23.4289 126.143 4.81387
-19.1879 143.036 6.33208
-19.2053 143.239 6.23858
-20.1612 143.734 4.52078
-22.2886 139.3 2.51408
-27.1471 119.127 1.40572
-20.8087 142.956 4.20812
-21.9962 131.462 6.27302
-22.2318 130.759 6.15944
-23.1348 137.599 2.21505
-22.0236 132.307 6.19638
-23.4608 137.214 2.06224
-20.2695 140.219 6.66995
-27.2824 120.656 1.32111
-24.9428 122.136 5.0334
-23.996 124.338 6.04655
-27.4042 119.317 1.83843
-26.4059 127.923 0.514045
-26.6724 126.779 0.558954
-24.0907 123.661 6.36561
-20.5953 142.335 5.85207
-20.609 142.456 5.79468
-24.4613 123.989 5.6883
-23.7048 137.154 2.30147
-22.1314 134.245 6.25243
-24.8964 124.414 5.05008
-26.4052 120.16 4.01307
-24.0422 131.022 4.56254
-21.2181 139.239 6.71953
-25.2405 125.772 4.482
-25.52 122.428 5.32794
-24.0149 131.636 4.67914
-21.6395 137.89 6.93534
-23.9815 132.643 4.90441
-26.4143 121.822 4.54535
-22.1304 140.109 5.60504
-22.0261 139.606 6.032
-25.9121 124.041 5.14066
-23.2854 135.141 6.28718
-28.4615 120.513 2.44177
-23.5808 138.359 4.74173
-27.3812 121.642 4.05645
-25.6849 132.879 3.1042
-23.2813 138.156 5.4905
-28.0907 121.509 3.05298
-25.538 133.309 3.39808
-27.6109 121.718 3.94371
-25.5065 127.759 5.57344
-27.7298 121.829 3.84214
-24.4749 134.257 5.14042
-26.481 131.675 2.62379
-26.7781 125.315 4.3901
-27.207 122.957 4.50087
-24.8687 135.864 4.03634
-24.158 134.799 5.68798
-28.9203 118.675 3.26825
-27.6136 124.394 4.06837
-27.8355 124.365 3.89513
-27.6791 125.005 4.01517
-25.1206 135.297 5.02673
-26.1379 133.425 4.51644
-26.6696 127.254 5.94344
-28.3537 123.609 4.43372
-26.552 132.423 4.45259
-27.664 124.221 5.48386
-28.8423 124.453 3.4179
-26.9295 129.961 4.83606
-28.3146 126.768 3.57965
-28.2701 124.057 5.01982
-28.4101 124.134 4.81615
-28.4995 123.94 4.74336
-28.1516 128.065 4.26571
-27.6371 126.705 5.74591
