ply
format ascii 1.0
comment Created by Open3D
element vertex 1775
property double x
property double y
property double z
end_header
-16.9424 115.518 4.23983
17.38 144.017 -5.92427
-18.4333 131.168 -2.10006
-10.2241 97.3917 11.7483
19.354 112.215 6.88076
20.7283 126.702 1.08921
12.9513 86.0639 17.0727
-13.4614 101.996 9.69184
15.7413 95.0964 13.5351
-18.9597 106.223 7.78754
-14.3342 137.736 -4.74207
-17.8732 119.874 2.28292
17.3595 120.528 3.32122
-17.3711 132.352 -2.71132
-14.3879 102.472 9.33222
-21.0299 119.929 2.06252
-9.94607 94.4706 12.6826
18.8679 108.935 7.93471
-17.3266 121.041 1.72751
-21.4351 136.357 -4.58114
10.1676 80.0021 19.1741
17.5629 119.722 3.51488
-20.0678 110.201 5.92659
-19.0662 129.567 -1.81708
9.82827 147.776 -8.06498
18.7828 107.8 8.29494
-7.6912 85.8907 16.1018
-14.2192 139.199 -5.54717
-9.20881 87.2683 15.4574
-17.4183 120.82 1.69162
-31.1731 126.048 -0.921737
24.7042 130.198 -0.524663
23.9568 130.138 -0.52861
20.1509 141.858 -5.38046
-30.2262 126.343 -1.02325
-10.7465 98.7896 10.7462
-26.5815 130.188 -2.44731
18.5672 128.31 -0.0271499
-6.72619 140.561 -5.87723
14.4226 87.6259 16.1178
25.1937 131.377 -1.04159
19.8176 127.502 0.30909
-18.3514 129.724 -1.99465
25.0228 130.734 -0.80226
-19.0965 117.987 2.66472
-30.2538 121.413 0.871759
-20.2049 135.702 -4.51899
-4.38973 141.29 -6.18901
-28.4633 121.134 1.0055
26.1584 134.14 -2.20568
-19.8102 110.353 5.6272
-18.9436 120.218 1.6767
-28.9584 124.636 -0.472011
9.95604 147.667 -8.27197
22.0815 129.111 -0.412582
-15.3104 134 -3.75792
25.7991 134.19 -2.32015
-18.0528 113.066 4.5226
-31.1205 125.27 -0.863524
-17.9172 115.928 3.36919
-19.2492 117.943 2.50532
20.1447 126.137 0.662969
24.4009 136.948 -3.54159
-5.07026 141.056 -6.28616
16.2733 93.8611 13.4219
-29.3492 124.453 -0.536882
-11.0998 98.7417 10.4364
25.4015 133.19 -2.04585
10.7879 147.554 -8.3497
-30.14 126.031 -1.25559
-16.368 103.053 8.43754
-10.4823 88.7058 14.4065
-17.2266 115.251 3.50658
-29.7811 124.732 -0.772057
-3.09837 141.361 -6.50568
19.7911 113.495 5.46463
-14.3475 136.902 -5.19058
-21.0742 119.989 1.3439
-29.1155 122.104 0.197389
18.2783 130.967 -1.63307
-10.9793 94.5039 11.9105
-8.45133 80.6842 17.5457
5.93216 144.427 -7.49624
-6.72032 83.4294 16.4901
24.5876 134.178 -2.70983
-26.3471 129.692 -2.7952
-8.0135 80.3157 17.6859
-21.3762 135.561 -4.97692
-31.2333 125.567 -1.33985
-2.44012 140.664 -6.34628
16.6414 93.3405 13.3332
20.261 123.217 1.47507
-17.5047 132.054 -3.46673
-7.03487 140.014 -6.27786
9.7024 147.086 -8.51226
19.134 99.8952 10.7471
19.1201 99.5679 10.8766
-19.3236 120.098 1.18294
-11.1186 138.787 -6.02213
-12.9803 100.352 9.32007
18.2003 96.5536 11.9833
5.80464 144.194 -7.61549
-23.9343 119.439 1.19001
17.9128 115.207 4.43499
22.3359 139.408 -5.11036
11.9586 83.1257 17.0511
-18.0803 128.032 -2.07273
22.1231 127.044 -0.192914
-18.7895 128.234 -2.19011
-24.4073 119.319 1.16881
-14.1751 101.268 8.78746
-20.2138 134.86 -4.92124
-18.6726 128.139 -2.17871
20.2145 102.831 9.40108
-20.6578 134.411 -4.77902
-28.3712 125.385 -1.44474
-5.61164 81.5255 16.9766
17.769 130.017 -1.61112
19.4385 105.636 8.22749
-24.305 119.333 1.11322
20.028 125.186 0.363035
19.4127 99.9256 10.4575
-11.8183 98.0277 10.0627
17.2881 129.794 -1.61706
-17.4268 131.32 -3.52705
-18.1521 115.989 2.59026
-18.4412 130.175 -3.11401
-2.60497 140.025 -6.49203
19.5124 127.276 -0.560816
-8.73399 139.305 -6.43643
24.7281 129.844 -1.42844
-1.84031 139.272 -6.19399
18.134 127.512 -0.740115
26.8902 129.693 -1.2984
-4.18836 140.738 -6.90514
23.1654 127.51 -0.611287
-7.4782 83.3097 15.975
23.7466 137.17 -4.49589
19.3402 98.6458 10.791
-20.3278 109.247 5.05862
22.34 139.077 -5.33321
-11.5257 91.5 12.4714
24.8144 125.77 0.0595261
16.655 91.0712 13.6401
21.9898 129.073 -1.40737
17.6016 93.1499 12.8335
16.1853 89.5656 14.2143
25.003 125.99 -0.0696931
20.0327 100.808 9.84002
-20.1226 119.588 0.816772
-13.9554 134.788 -5.07968
-16.5605 132.553 -4.32146
19.6772 104.626 8.21201
25.9149 126.665 -0.43175
-18.6192 122.019 -0.222178
23.3904 137.642 -4.94328
-18.5567 127.343 -2.36833
-21.1427 119.51 0.67724
19.6121 111.628 5.33899
-21.2267 119.668 0.601249
24.9365 127.164 -0.69917
-29.19 120.777 -0.144177
-17.5159 118.701 1.09951
25.8464 129.3 -1.57356
-18.9312 128.174 -2.78997
20.0813 124.622 0.0743175
18.1281 114.899 3.89467
-11.6276 91.2058 12.2968
2.84541 141.657 -7.40829
-14.0607 100.342 8.53172
16.9165 131.124 -2.68484
-17.9009 120.311 0.353348
-23.8012 130.566 -3.97848
19.5433 98.2992 10.5663
21.6639 126.363 -0.636842
10.9066 79.3639 17.8039
-18.2453 113.636 2.9737
18.0436 120.947 1.36874
17.5291 91.8518 12.9758
23.7901 127.743 -1.18894
-28.9561 122.335 -0.973364
19.8635 124.473 -0.0298751
19.8941 99.9685 9.7847
23.7885 127.38 -1.06688
18.9956 125.12 -0.347488
25.6327 132.548 -3.08231
26.4083 127.405 -0.999746
24.1496 132.33 -3.07668
-17.5534 120.717 0.0264143
27.4362 131.013 -2.44718
-18.9997 117.271 1.34387
-12.6011 97.4795 9.51335
22.5067 128.641 -1.68891
23.3029 134.781 -4.13398
20.186 103.467 8.29696
-23.9703 130.234 -4.07713
-11.9944 137.559 -6.57317
24.0778 128.213 -1.49932
27.6663 129.033 -1.69817
-6.47421 80.8435 16.3632
25.6772 128.947 -1.74376
18.1913 132.794 -3.57501
15.9623 143.374 -7.90684
17.1116 90.3345 13.4076
19.3847 96.8639 10.871
-17.1311 118.935 0.652834
24.3344 127.112 -1.09946
23.4233 136.551 -4.93992
26.3589 129.632 -2.06143
-11.8996 91.4505 11.8321
16.8882 89.7238 13.5889
16.9908 127.623 -1.62957
9.70855 145.767 -9.1822
9.18912 145.638 -9.15272
23.5032 127.642 -1.40916
5.12958 143.01 -8.25676
26.952 129.923 -2.22737
9.99421 145.789 -9.22172
-18.771 126.496 -2.54936
19.9485 109.721 5.59999
4.14017 142.265 -8.03908
-3.04523 138.857 -6.93906
-8.26823 80.266 16.3664
-23.0328 130.895 -4.49832
16.8456 88.8418 13.8419
18.9113 140.509 -6.80594
-19.4014 128.966 -3.6087
-18.5063 123.072 -1.22087
16.2914 129.294 -2.43337
23.9725 128.972 -2.04588
18.7393 125.744 -0.950445
22.1905 128.626 -1.99495
-30.6941 122.848 -1.65884
-16.104 132.515 -4.9968
25.662 128.432 -1.82455
-19.5085 109.802 3.96441
23.0002 127.117 -1.40961
19.1868 124.995 -0.703562
-2.46405 137.505 -6.54587
25.9343 132.593 -3.52721
12.1937 81.5215 16.4408
-17.3065 130.022 -4.10696
-20.1281 118.849 0.254893
19.7838 110.722 4.98721
22.3347 126.618 -1.31722
-13.1772 134.667 -5.87299
-19.1039 120.828 -0.544287
-18.939 110.711 3.50818
16.5886 87.9092 13.9601
19.686 122.402 0.239434
-17.6659 118.855 0.27039
-18.0393 121.685 -0.905868
26.3018 131.958 -3.38857
-4.55448 139.239 -7.45612
-27.8248 120.657 -0.865709
-8.59681 82.1881 15.2606
25.3 129.175 -2.33326
25.5254 128.139 -1.91439
3.34047 141.504 -8.09968
9.66647 145.291 -9.401
12.1396 81.0584 16.4495
19.0224 125.922 -1.2935
-19.5778 127.708 -3.44968
16.5835 127.622 -2.08097
23.3438 131.887 -3.55333
23.0116 132.519 -3.82904
27.2102 130.495 -2.87065
-8.87728 82.4333 15.069
-15.1587 132.496 -5.24975
-18.0412 125.913 -2.72444
-18.7518 113.999 2.02545
-25.396 119.91 -0.602941
-6.81503 139.058 -7.5974
-18.7794 126.453 -2.99024
26.3488 131.669 -3.41802
-25.9399 120.569 -0.906836
17.6425 132.658 -4.18447
-21.0349 118.456 0.0633659
-9.05832 82.4368 14.9485
17.8077 90.1703 12.831
24.9357 127.405 -1.84266
-12.1563 89.9654 11.8002
25.5139 127.065 -1.70462
-22.0544 131.151 -5.10652
3.88545 141.717 -8.40063
22.7038 128.188 -2.29098
-18.761 127.786 -3.68076
17.1262 88.3595 13.4493
22.2126 126.212 -1.54584
-12.4819 89.5965 11.832
-18.4376 114.758 1.51363
17.7604 133.753 -4.78093
10.7825 145.116 -9.60204
-8.96036 81.8936 15.0248
23.774 127.475 -2.05312
26.0217 131.693 -3.66426
-17.311 120.627 -0.837035
18.5572 129.058 -2.89345
-13.0889 136.462 -7.04262
-19.4874 130.977 -5.08646
20.1102 97.2395 9.90636
15.6799 129.606 -3.24918
19.3346 125.003 -1.28044
-10.0891 81.2617 15.1434
-4.41725 138.686 -7.69106
-19.103 129.537 -4.58628
-3.62366 137.511 -7.21288
-15.0113 99.4249 7.62573
-19.0303 120.98 -1.18455
22.247 126 -1.67369
18.0528 134.006 -5.04636
-25.1786 119.43 -0.809887
12.9572 81.6445 15.7426
7.08988 143.891 -9.44267
24.379 128.932 -2.81432
-19.3638 123.692 -2.33508
19.2149 113.538 3.14837
-24.4934 128.802 -4.61346
23.8446 127.695 -2.38334
-19.4971 123.571 -2.33707
-27.1206 123.42 -2.57523
-19.0434 114.087 1.43221
17.4655 133.602 -5.04837
17.8711 89.7681 12.5325
-28.0211 121.664 -1.97464
-21.5989 105.452 4.75076
18.7303 128.747 -3.11143
-18.1919 124.953 -2.95727
15.0344 143.751 -9.27624
-18.7873 124.029 -2.63865
20.9972 124.106 -1.22927
-19.2949 119.808 -0.997602
-13.9034 97.1575 8.28184
0.0408644 137.925 -7.56041
18.3355 133.709 -5.19649
-18.9997 120.586 -1.32543
-12.9332 92.8705 10.0153
-18.494 123.325 -2.42951
22.8975 134.088 -5.23169
-9.7525 80.3291 15.1122
3.88843 141.338 -8.8542
-13.6541 96.3091 8.54008
10.4176 144.478 -9.91034
-19.4501 113.529 1.38404
19.3901 132.222 -4.69391
-20.8884 119.955 -1.26631
16.9359 118.761 0.582661
20.2769 97.6982 9.15272
18.5942 121.457 -0.444746
-20.9527 126.525 -3.9419
-23.1183 129.778 -5.34283
26.0238 130.021 -3.66316
19.1183 122.833 -1.04403
12.5233 80.3315 15.7519
21.4686 136.909 -6.61103
15.9559 142.2 -8.93921
-13.2541 94.1376 9.25668
19.6737 106.003 5.71041
10.8261 144.268 -9.96608
15.6945 130.78 -4.38779
19.6872 106.201 5.59648
18.1607 134.098 -5.65846
-18.9974 118.76 -0.895266
-18.8805 111.528 2.00152
-18.8294 126.132 -3.85829
-10.0545 80.266 14.859
18.4263 129.498 -3.83816
22.4171 134.273 -5.61235
-18.8678 117.055 -0.23538
-16.5306 130.129 -5.40753
19.0183 110.74 3.67748
-13.4952 86.6872 12.1015
1.54346 138.622 -8.17644
-18.9566 124.233 -3.16694
-18.1602 122.544 -2.4635
-17.9752 119.018 -1.0477
-20.4969 121.249 -2.04875
22.0433 130.322 -4.1154
13.6409 143.776 -9.82865
15.2934 83.5693 14.368
-17.3005 118.701 -0.939462
-24.7252 119.457 -1.52656
-10.7259 82.6832 13.7295
-9.57646 80.4509 14.6672
15.0334 133.779 -5.81365
-24.7505 122.976 -2.99103
-9.52685 79.7425 14.8919
-20.3508 121.702 -2.34943
-5.15049 136.642 -7.79562
-13.9483 95.5617 8.3508
-13.3166 91.967 9.79862
18.6522 123.051 -1.49399
16.3163 117.474 0.644419
22.6457 131.605 -4.79087
20.295 99.4467 8.01447
-24.7401 123.131 -3.18674
22.608 132.685 -5.27413
-14.2435 131.116 -6.01968
20.2948 98.9048 8.17413
-17.0443 99.9223 6.38417
-15.9749 131.136 -6.09688
5.78145 142.194 -9.72993
22.3975 124.999 -2.25395
-22.5243 129.479 -5.72034
-6.99864 137.611 -8.41165
18.7407 128.888 -3.96225
-13.7502 94.2348 8.72569
-16.5948 122.148 -2.57544
-20.4522 129.681 -5.75648
-20.9718 127.838 -5.03713
16.497 118.412 0.122821
-18.3152 121.577 -2.43543
-25.2175 123.868 -3.61362
-20.378 129.294 -5.61321
-21.7904 104.607 4.23305
15.5827 134.285 -6.30313
-21.3506 129.595 -5.79997
15.0516 134.68 -6.4941
-17.6526 118.871 -1.38275
14.7621 142.468 -9.64958
-5.90194 136.655 -8.09042
-19.16 121.594 -2.54543
-19.9126 120.856 -2.2801
19.2341 127.416 -3.4731
16.2461 84.8182 13.4847
-13.8036 93.933 8.71593
-0.81683 136.71 -7.9878
15.2567 142.318 -9.66521
-21.8043 119.503 -1.88557
16.8564 133.048 -5.88917
-17.3476 120.747 -2.22124
-24.3578 120.501 -2.39058
14.6801 132.009 -5.56642
-19.7293 101.769 5.28885
22.074 132.928 -5.7017
12.5821 143.022 -10.1045
-14.004 132.301 -6.7896
-16.8355 122.246 -2.86313
20.7988 123.135 -1.87474
17.5822 115.215 1.17736
22.1742 132.464 -5.59702
20.2843 137.138 -7.5414
-19.3718 120.68 -2.4137
-18.5873 126.756 -4.8386
-19.2277 125.135 -4.22021
-21.3483 102.878 4.6192
19.7665 94.7333 9.40347
-19.272 125.653 -4.45102
17.2003 137.511 -7.87403
17.422 137.475 -7.85292
-13.9597 93.3317 8.68723
-19.2968 124.955 -4.20186
-18.1811 100.402 5.68709
17.6893 137.287 -7.78239
17.1715 137.039 -7.7034
18.8323 128.572 -4.26358
-20.0312 113.078 0.50711
24.673 125.255 -2.72388
-19.298 123.246 -3.54451
-19.6097 114.356 0.00408882
17.6812 136.718 -7.60451
-23.0416 121.334 -2.94279
-17.4986 120.507 -2.43413
-23.2924 121.977 -3.25056
-13.9088 132.77 -7.23618
14.972 134.803 -6.99345
18.2012 123.362 -2.28835
20.1999 136.898 -7.65276
-19.7471 115.69 -0.625574
19.3019 131.695 -5.60945
17.3496 130.603 -5.2987
-20.879 121.516 -3.0691
-14.5612 89.7453 9.90775
-0.897051 136.248 -8.24006
9.57812 142.856 -10.5165
16.0642 83.4163 13.55
17.3692 136.12 -7.56005
18.2167 114.458 1.13
24.5336 125.949 -3.2514
16.4393 135.828 -7.52568
15.5241 132.662 -6.29412
2.23193 138.497 -9.13133
-21.6552 106.282 2.89676
19.451 126.765 -3.80617
-18.2995 122.896 -3.65278
20.515 122.853 -2.20259
12.5034 141.968 -10.1713
-22.0038 105.801 3.03689
-15.4406 130.167 -6.49622
16.676 140.867 -9.60385
14.9704 135.004 -7.32084
-13.5323 84.2964 11.9312
19.3282 107.658 3.75774
-22.3437 119.55 -2.55449
-17.73 120.465 -2.75201
-12.1552 82.2831 12.766
-17.0806 128.673 -6.03089
-6.28688 134.989 -8.16947
-19.6626 124.385 -4.41937
20.8427 125.241 -3.26702
20.8671 97.0824 8.02642
-14.7269 94.4921 7.72416
21.5243 132.421 -6.16392
-20.334 115.958 -1.12493
-16.1087 129.935 -6.58202
3.21883 139.83 -9.84087
17.241 131.791 -6.11298
-22.1055 104.565 3.33657
-15.2377 89.3935 9.6752
-19.4074 117.893 -1.92495
17.9362 129.611 -5.25039
12.5738 141.312 -10.1639
19.2368 103.818 5.11047
17.0511 135.327 -7.60981
17.3267 130.571 -5.69227
11.1447 142.023 -10.5328
20.8075 125.908 -3.71861
-19.381 121.262 -3.35993
21.4467 128.953 -4.94569
8.78713 141.065 -10.2869
-16.8616 97.619 6.18362
-23.1652 122.605 -4.09586
-12.0359 134.544 -8.48473
-18.6699 121.523 -3.51027
-22.9154 122.283 -3.97271
-21.847 105.951 2.61405
-19.7716 125.105 -4.99972
17.6102 120.423 -1.74753
-20.3895 124.203 -4.67382
4.80892 140.667 -10.3633
3.92498 140.033 -10.1441
-9.20109 136.163 -9.08167
-14.7173 91.0473 8.79958
-19.3839 121.429 -3.55966
17.3051 125.275 -3.74769
17.8292 136.595 -8.27115
23.2365 128.794 -4.95759
16.3702 131.026 -6.10669
2.01601 137.689 -9.35353
20.5399 134.63 -7.44435
-21.084 123.462 -4.50456
10.873 138.612 -9.40051
-5.96653 133.871 -8.12157
-16.126 87.7689 9.98625
-17.3097 125.878 -5.34677
16.626 134.754 -7.66198
-20.8541 114.647 -1.00223
12.0448 141.174 -10.4344
-21.8956 102.252 3.91245
-17.3537 127.727 -6.14016
-17.4189 126.348 -5.59602
-16.869 126.739 -5.73968
17.2819 85.7634 11.9565
-15.9325 89.1067 9.35908
18.5473 124.399 -3.52154
-15.03 84.5992 11.1981
17.3422 119.916 -1.77848
17.7998 124.838 -3.73866
11.9709 137.954 -9.22844
20.9615 131.151 -6.17144
20.2716 100.783 5.96976
-15.8719 127.402 -6.04414
-19.6601 100.352 4.64369
11.6645 141.171 -10.5767
-18.2707 120.141 -3.25246
11.533 138.335 -9.4485
-21.2157 123.894 -4.88425
11.2544 141.173 -10.6235
10.5185 138.325 -9.5115
18.9489 88.5503 10.7458
11.5115 138.558 -9.58865
13.3845 78.9444 14.3843
16.7729 134.952 -7.96797
24.403 126.98 -4.49793
-16.2838 87.0809 9.9988
-17.9427 97.8018 5.61928
10.1947 138.404 -9.64658
11.3043 140.883 -10.6063
20.9981 125.555 -4.09968
-21.8103 101.869 3.7816
-16.0526 94.7309 6.85712
12.7227 137.824 -9.37001
-15.6144 129.145 -6.94379
16.3869 132.232 -7.004
11.3129 140.588 -10.5489
11.4817 140.363 -10.4571
-18.4398 123.647 -4.86281
15.24 136.548 -8.80167
-23.0459 123.175 -4.86937
14.9125 127.249 -5.10473
11.6733 140.068 -10.3681
16.0699 134.517 -7.98999
13.7296 136.273 -8.78758
21.2251 128.664 -5.46319
-18.459 98.0469 5.34783
16.9413 134.308 -7.91216
6.816 141.13 -11.033
18.5093 110.123 1.80892
-15.7121 93.6644 7.14064
-15.7953 89.8228 8.67586
20.7715 124.519 -3.89194
12.9123 139.689 -10.2821
-2.07712 134.761 -8.87107
13.6365 136.226 -8.88333
18.8201 123.974 -3.77888
-0.317065 135.33 -9.0496
15.1149 136.461 -8.94224
16.007 118.521 -1.73106
-17.9174 119.397 -3.3484
-11.8677 81.362 12.1282
13.941 129.484 -6.23298
15.9185 125.958 -4.75677
-19.276 119.197 -3.34951
14.9227 80.1704 13.5499
24.2325 125.068 -4.12279
-22.4281 104.664 2.32898
-19.0897 119.112 -3.36192
-11.4144 134.541 -9.2685
-15.8121 93.1707 7.15881
19.4977 89.5 9.93166
-18.8816 119.104 -3.36696
18.4693 107.879 2.4868
-17.7868 119.143 -3.38109
-17.897 125.125 -5.79925
11.4144 136.812 -9.41757
13.869 130.981 -7.01357
19.3235 131.501 -7.05151
-18.1967 120.236 -3.94619
14.8069 134.537 -8.48768
13.8111 129.375 -6.48213
-14.4375 130.189 -7.87509
-20.4049 99.6296 4.15593
19.3683 130.1 -6.61298
-8.95172 134.399 -9.39407
18.1653 131.555 -7.25318
-17.6599 124.095 -5.59676
-20.6009 99.8157 4.02568
-11.6853 133.549 -9.18418
9.25581 138.066 -10.2313
13.5326 135.714 -9.13866
9.54399 137.862 -10.1565
-9.80967 134.58 -9.57265
-13.4871 80.8098 11.8524
-19.0322 122.141 -4.93494
18.1616 133.098 -7.95477
16.9594 124.332 -4.50753
-12.6238 129.498 -7.67567
-2.58064 134.093 -9.15208
-3.23624 133.691 -9.02157
-10.0123 133.927 -9.39323
14.9185 134.144 -8.56364
16.968 131.325 -7.37348
15.5163 133.38 -8.25185
-17.8222 125.665 -6.42751
-16.3367 86.4646 9.34337
20.7614 99.3091 5.55442
17.0712 121.824 -3.6181
18.2474 132.753 -7.96853
-16.9334 93.3746 6.51888
-17.1178 125.466 -6.36055
18.2376 110.291 0.986854
16.9955 81.9006 12.3155
-22.4154 102.43 2.62139
-20.0039 118.756 -3.89488
-12.6521 128.457 -7.51957
15.7909 80.363 12.8226
5.87526 139.337 -11.2
11.344 135.834 -9.60867
-11.7353 132.5 -9.12636
-17.5793 124.745 -6.24835
15.23 134.204 -8.8502
18.8843 103.641 3.5326
15.0498 134.289 -8.90293
-20.1064 97.7639 4.44446
17.5504 83.455 11.5585
-10.5231 129.459 -7.93561
21.4411 96.5672 6.42645
9.04756 137.502 -10.4581
17.453 83.0151 11.7067
-17.7187 120.626 -4.71233
-9.09755 133.785 -9.67345
-11.3362 130.841 -8.58637
18.1606 85.8314 10.5554
19.6663 102.156 4.05215
15.2452 126.21 -5.76333
13.4955 129.841 -7.29707
14.6058 127.345 -6.27545
-18.196 121.416 -5.15071
5.07756 138.722 -11.2349
19.6333 122.494 -4.19589
-10.4761 129.092 -7.95868
-17.9726 122.094 -5.4364
-13.2173 127.411 -7.44696
-20.3236 97.3431 4.33153
20.1544 92.1818 7.84951
-9.35254 131.728 -9.10853
17.2172 81.548 11.988
15.0466 132.752 -8.65112
-11.4579 128.198 -7.81234
-21.3222 98.6505 3.67357
13.9423 132.783 -8.73741
18.6046 104.005 2.97328
-18.6018 95.3997 5.04272
16.319 119.899 -3.50225
-4.8999 131.313 -8.87781
20.9186 128.024 -6.61241
16.0638 132.213 -8.50615
18.6808 129.954 -7.50521
16.9719 124.33 -5.36413
18.0912 84.1106 10.7861
18.3209 111.569 -0.246733
-3.54814 132.779 -9.56344
-2.57669 133.391 -9.80205
-9.89586 128.4 -8.0943
-20.8865 97.228 3.99803
20.2859 124.119 -5.28161
22.7268 126.782 -6.3202
18.1349 129.828 -7.71808
-1.58243 133.88 -10.1032
-14.5635 126.699 -7.70689
0.289407 134.424 -10.2677
-15.2284 126.75 -7.77691
-4.41373 131.052 -9.11962
16.3537 124.56 -5.74939
23.9436 126.163 -6.14734
21.569 95.7942 5.90698
-12.8644 81.2405 10.471
17.756 81.7591 11.3585
-18.2203 92.997 5.50512
13.5279 129.682 -8.03554
17.2843 130.456 -8.2176
-6.72504 131.183 -9.43836
-8.66664 128.684 -8.51664
16.8921 115.022 -2.1301
6.08939 136.969 -11.3498
3.268 136.011 -11.0828
21.8281 126.825 -6.7181
-20.5205 95.9473 4.09611
-22.0119 98.9499 2.83425
19.8691 123.56 -5.49954
20.4369 89.2774 8.24794
18.2141 83.2084 10.5934
20.6034 91.3495 7.41432
18.494 103.834 2.27316
-22.3012 105.173 0.211231
20.6176 124.609 -6.00342
21.7623 126.778 -6.83801
18.089 123.137 -5.51365
-21.4225 110.648 -1.99953
-18.2866 121.816 -6.37514
18.7485 122.155 -5.14353
16.5055 131.967 -9.1689
-10.3185 126.985 -8.17916
3.2135 135.717 -11.2003
7.65816 135.46 -10.9364
-3.8994 130.457 -9.3873
-18.2824 90.2368 6.19905
21.1916 98.0114 4.52278
15.4797 122.382 -5.50133
-14.4566 79.8463 10.4455
-14.4465 125.981 -8.10462
17.2481 129.727 -8.44068
20.0529 88.1329 8.3456
-18.8321 92.0792 5.31986
16.7653 131.065 -9.00923
-22.8303 101.475 1.38188
21.6885 96.1178 5.15534
15.3037 125.474 -6.8648
18.6218 124.175 -6.2363
-20.909 115.786 -4.3361
-3.14067 131.456 -9.97294
-15.8467 125.642 -8.12743
12.1587 133.094 -10.0998
15.4355 123.134 -5.99448
5.68471 135.934 -11.4915
3.70265 134.336 -10.9345
15.9611 129.969 -8.73423
-16.1915 81.8752 9.3333
-15.0957 80.1 10.0776
-8.40339 128.007 -8.92095
-22.1286 105.084 -0.246691
-20.0376 119.249 -5.86955
21.039 90.1525 7.30844
-20.5454 108.328 -1.5233
-8.73318 126.815 -8.54322
17.3293 109.489 -0.642373
-19.2489 91.4925 5.19644
-21.3408 106.948 -1.15487
-13.7547 80.849 9.59372
17.9353 128.597 -8.42133
-21.1242 95.159 3.53476
15.5092 116.359 -3.63168
2.37969 134.663 -11.489
12.24 132.689 -10.3385
-18.3475 120.228 -6.50956
-20.7427 108.722 -1.99099
-2.58416 131.304 -10.3804
-15.6273 124.72 -8.22659
21.0259 126.835 -7.72994
-18.7366 119.884 -6.42502
-19.6706 91.4437 4.94554
-22.1651 114.308 -4.32364
-20.1182 118.869 -6.09663
18.4107 128.324 -8.46768
-11.4345 125.401 -8.39979
15.2245 130.315 -9.38499
-13.9882 80.439 9.53123
-2.56904 131.097 -10.3964
-22.2488 104.667 -0.527361
-18.8186 88.5782 6.03074
21.6661 94.4034 5.18564
-6.36759 129.893 -10.0945
18.0946 105.866 0.438523
-5.93546 129.49 -9.98894
14.618 127.545 -8.49986
15.5272 124.276 -7.16582
-16.4203 85.1832 7.28599
17.5867 110.925 -1.81045
-18.8734 119.964 -6.79406
-15.3526 124.402 -8.45451
19.3806 101.452 2.02289
9.01296 133.762 -11.3583
-18.1542 121.756 -7.54895
18.0183 105.724 0.214343
-16.5226 80.6699 8.9782
20.6142 126.932 -8.2112
-19.0324 119.867 -6.84533
18.0094 112.734 -2.62562
14.847 120.206 -5.76592
-21.3632 116.397 -5.59699
14.9057 119.626 -5.55456
21.3123 91.6494 5.89149
16.2188 122.04 -6.49224
7.80725 133.905 -11.5825
15.6089 123.734 -7.2183
-5.76864 128.38 -9.8795
15.3721 124.153 -7.41446
14.782 127.958 -8.96682
22.5108 125.403 -7.66859
-14.8528 124.841 -8.88278
21.842 94.7025 4.55662
-20.8565 108.025 -2.39205
20.264 127.075 -8.56285
-21.2978 116.538 -5.9066
7.95124 133.486 -11.6313
-16.5354 121.746 -7.87301
20.7713 126.486 -8.41994
4.67574 130.593 -10.6713
15.4528 123.45 -7.4271
19.7634 85.044 8.12594
-21.9537 98.6697 1.07986
16.3125 122.935 -7.24062
15.1635 124.778 -8.04587
-21.8396 110.623 -3.76965
-14.938 123.71 -8.77215
-6.86409 127.67 -10.078
-21.9662 98.6989 0.922777
-11.6576 124.087 -8.89926
-19.4162 119.907 -7.51557
14.2543 130.967 -10.709
19.0407 80.6862 9.60779
15.5223 123.101 -7.57282
17.4314 126.704 -8.95521
-16.0819 81.9721 7.73512
-22.9815 102.354 -0.697488
21.323 96.0535 3.46839
2.49537 132.232 -11.7431
16.6966 122.794 -7.44224
17.4119 111.299 -2.93751
21.7253 88.1258 6.50929
21.8127 91.6839 5.05936
3.33362 131.148 -11.5096
14.907 122.002 -7.43997
-15.2978 79.9665 8.30272
17.5822 77.9867 10.302
17.4913 121.937 -7.33938
21.2026 96.1075 3.14472
5.82406 129.922 -11.0253
21.6557 124.863 -8.43801
3.60123 129.977 -11.1621
-14.4613 123.535 -9.24677
1.68925 131.101 -11.6935
6.221 130.28 -11.2179
15.5838 126.338 -9.34057
20.5695 98.4179 2.03907
-15.7655 79.9191 8.10366
-16.0931 82.3389 7.09128
-19.501 88.3463 4.45644
16.7073 107.843 -2.04973
14.9241 125.142 -9.05914
-3.48114 128.117 -10.9346
-12.4614 123.326 -9.38409
14.8014 120.855 -7.3865
-16.4388 81.0674 7.4003
-21.1785 106.71 -3.10134
11.1207 130.623 -11.5006
-19.9275 89.2121 3.94198
21.6729 92.9332 3.96701
-5.33144 126.821 -10.6387
-6.52715 124.895 -9.97876
16.7094 109.999 -3.14668
19.5536 80.3361 8.84716
-17.6681 85.9768 5.19365
9.01923 130.999 -11.9117
-3.51512 127.828 -11.1303
-20.4416 113.19 -5.9183
6.77613 128.046 -10.8739
6.92351 128.18 -10.9356
22.0073 91.7436 4.22805
17.1755 113.758 -4.79133
-5.65227 126.389 -10.7114
-17.4357 118.501 -7.99449
-18.8119 117.512 -7.69371
-5.36165 126.571 -10.8318
12.6609 130.065 -11.5774
16.9167 125.527 -9.62062
15.044 117.899 -6.63658
-20.7088 91.0229 2.8074
14.6353 128.263 -10.8689
19.7261 99.7924 0.735672
14.6152 126.92 -10.407
-18.0227 117.809 -7.99018
-11.2203 122.527 -9.63126
-5.70434 125.693 -10.7098
7.07161 127.513 -10.9688
19.8172 79.2 8.86344
15.5364 125.248 -9.78173
14.4116 121.263 -8.22799
20.8426 94.2704 2.82607
-2.1692 128.544 -11.7751
20.5718 80.1287 8.46834
19.3066 78.2554 9.16866
-21.4838 108.611 -4.54368
21.5959 83.5327 7.09908
14.4105 121.763 -8.53345
-16.6859 82.1046 6.20373
22.1733 86.6266 5.82306
21.6613 81.8597 7.70366
8.19893 128.232 -11.3994
21.9964 85.4244 6.28043
-15.3942 79.1438 7.41055
14.6573 123.68 -9.40289
-5.12732 124.591 -10.5074
15.0377 124.218 -9.61969
19.9766 124.592 -9.63033
7.85994 127.549 -11.2666
-21.3386 93.0418 1.48235
21.8654 90.521 4.08988
15.1712 124.126 -9.64838
-15.1075 120.484 -9.31862
-7.37059 122.965 -10.0395
-15.0983 120.441 -9.32046
13.7526 128.264 -11.4119
14.8348 121.202 -8.53949
-15.1261 120.155 -9.23894
6.18764 126.018 -10.8189
-16.002 117.606 -8.26686
-0.336743 129.878 -12.6453
8.34599 127.65 -11.4465
-18.6447 86.743 3.94181
16.8612 104.827 -2.00315
9.87993 129.35 -12.1148
15.7301 124.223 -9.84979
-17.2482 85.3506 4.50373
4.21071 128.07 -11.8503
-21.4852 107.145 -4.41097
16.4748 105.744 -2.45534
8.44109 127.534 -11.4944
13.5229 127.932 -11.4719
21.9272 79.2179 8.36881
-3.66797 126.675 -11.6156
22.1048 80.7796 7.71515
-17.221 80.72 6.24705
14.4192 127.115 -11.206
11.4095 129.036 -12.089
16.2264 116.252 -6.79406
12.2079 128.477 -11.8747
16.8286 104.443 -2.08939
16.6032 113.184 -5.64434
16.4454 113.509 -5.79049
14.4983 125.804 -10.8395
-22.9599 100.459 -2.09229
-15.2728 118.08 -8.89146
14.4966 125.481 -10.7747
-21.177 92.6837 1.05168
22.5049 87.5687 4.67151
-5.07297 123.17 -10.6323
-14.5727 120.146 -9.82615
22.4894 86.0217 5.22505
15.6043 116.987 -7.45827
21.243 90.8293 3.23546
-6.5038 122.414 -10.4649
-7.0718 122.297 -10.4436
16.4128 111.043 -5.08709
-21.6527 97.9354 -1.25111
-0.856161 128.602 -12.7872
-10.2364 121.431 -10.2709
4.33091 127.167 -12.1471
-20.5443 90.5226 1.60271
-14.3081 120.396 -10.158
-20.3983 111.014 -6.64432
14.5091 123.065 -10.1963
-17.779 113.72 -7.64273
-21.0787 107.455 -5.26485
20.6936 91.6996 2.59627
-22.5144 100.255 -2.44658
-9.04848 121.568 -10.501
22.5387 83.357 5.99085
8.67837 124.303 -10.9667
-16.844 83.1091 4.6114
-16.0123 116.373 -8.71977
6.09201 124.692 -11.2397
5.49949 125.277 -11.5099
19.3691 98.9201 -0.431159
-14.1039 120.399 -10.2964
-14.7789 118.233 -9.47336
16.165 113.521 -6.4407
-18.0111 85.7885 3.40791
9.62082 124.221 -10.9864
8.68547 125.202 -11.4262
-1.70507 125.798 -12.0736
1.52687 128.352 -12.984
-17.6769 79.7074 5.81486
-20.9534 92.2087 0.674889
-19.8529 111.103 -6.90167
-2.14542 124.665 -11.7448
20.3408 92.7651 1.87717
10.0372 123.888 -11.0314
9.28507 125.803 -11.8593
11.1935 126.474 -12.0628
-13.1111 120.715 -10.6994
-17.1576 84.9498 3.48574
19.0305 99.865 -1.21875
-17.8837 85.579 3.13584
21.7839 79.966 6.83687
9.87039 126.176 -12.1481
-15.4904 116.717 -9.3201
19.2637 97.8761 -0.483036
-19.5001 109.679 -6.66053
-0.583646 125.908 -12.4806
14.1587 120.321 -9.69918
16.0119 112.336 -6.45141
-21.3114 94.4853 -0.704716
17.8429 101.235 -1.96856
5.83309 123.935 -11.558
19.3358 96.6172 -0.134772
22.4225 85.6966 4.33327
22.4206 85.6981 4.32474
19.8948 95.163 0.433451
16.6285 102.886 -2.78572
11.2265 125.334 -12.021
16.1567 116.406 -8.27399
10.9933 124.185 -11.5891
19.8207 95.2403 0.33338
-0.315821 125.726 -12.6653
16.1837 114.206 -7.43709
22.0282 80.7546 6.19168
-21.3672 93.0552 -0.35034
18.4349 100.498 -1.86922
12.2788 124.842 -11.8961
14.6011 118.978 -9.4612
-0.0111291 126.828 -13.1766
19.0284 98.1954 -1.03828
0.620067 127.276 -13.4114
-19.0828 86.6868 2.12978
14.1608 121.029 -10.4711
22.4537 82.4036 5.32581
7.72047 122.986 -11.5367
16.1934 115.451 -8.23854
4.68853 124.425 -12.2971
-19.9605 105.244 -5.6468
19.7692 94.5029 0.0972762
3.38269 125.988 -13.1381
16.1416 115.493 -8.46957
-20.3978 104.742 -5.52116
21.5245 87.5941 2.89363
-20.6044 90.3629 0.173168
-9.03775 120.238 -11.392
-16.0871 77.6318 5.38427
0.321484 125.329 -13.1522
-19.0462 105.356 -5.90108
-21.0512 102.925 -5.00082
12.6933 121.831 -11.386
11.2279 119.58 -10.553
-7.26256 120.708 -11.6904
-11.9183 119.245 -11.3027
21.797 86.7555 2.95296
-19.2842 86.6184 1.48851
-21.7601 96.8897 -2.73146
18.602 98.668 -1.98474
-7.53722 120.518 -11.7403
3.61316 125.115 -13.1773
-20.0667 103.863 -5.56836
-5.07698 120.832 -11.8328
15.987 111.071 -7.2989
-21.0995 94.2225 -1.91445
16.1293 107.599 -5.9243
20.082 91.2023 0.795795
15.9972 114.299 -8.69221
-20.2095 102.922 -5.47145
22.2202 81.1555 4.82415
-20.1594 87.7748 0.568617
9.7121 120.405 -11.4307
20.4253 88.6916 1.56863
-20.2804 101.266 -4.99607
6.85792 121.917 -12.2786
13.8573 118.609 -10.7388
15.273 116.22 -9.7594
-17.6824 110.165 -8.56632
15.0377 115.143 -9.36992
18.1276 98.8345 -2.82822
20.3745 88.3211 1.45857
15.5565 104.67 -5.298
19.6645 91.9492 -0.15404
5.58685 121.713 -12.6216
-21.4417 95.8427 -3.2668
19.8626 89.3817 0.790251
-17.4937 81.0844 2.71063
1.41801 124.244 -13.9305
-21.7486 97.9672 -4.25258
7.3853 121.417 -12.5856
-17.5311 108.702 -8.41543
15.5065 105.191 -5.80816
16.0412 107.836 -6.87323
-10.3376 118.634 -12.1848
15.6008 103.404 -5.12095
-2.36973 121.435 -13.103
7.90391 121.124 -12.5992
8.70782 120.162 -12.2022
16.0027 107.904 -7.0462
-14.1716 113.524 -10.496
-18.4929 84.9487 0.779101
-17.1147 82.9187 1.63143
-17.9674 106.08 -7.70519
-15.2896 111.106 -9.65285
-16.9035 108.167 -8.53502
-15.1378 109.859 -9.15443
-8.30745 119.084 -12.6105
-16.5985 108.114 -8.602
-5.31649 119.288 -12.7005
15.9521 110.454 -8.3729
-18.948 100.695 -5.75795
8.309 120.196 -12.5862
20.0094 87.6082 0.905751
1.75579 123.915 -14.3357
14.0001 114.682 -10.2281
15.9431 110.993 -8.69716
-2.24468 120.927 -13.4182
16.9866 101.2 -4.83049
-18.0727 84.0681 0.715259
-0.540221 122.468 -14.0761
-18.6094 100.643 -6.00858
16.2145 102.246 -5.39887
17.8042 96.4927 -3.03494
-18.522 100.345 -5.9328
18.9024 92.4234 -1.3781
-14.6658 107.753 -8.82611
3.11658 121.974 -13.9008
17.6265 96.996 -3.41415
20.617 78.0414 4.29732
1.94985 123.16 -14.514
-16.7463 82.0737 1.27088
-20.6436 98.4318 -5.44013
-13.587 109.038 -9.44151
-17.3012 102.821 -7.09486
7.90924 119.86 -13.012
14.873 112.983 -10.0005
21.8754 80.5726 3.24284
-21.0238 89.962 -2.12805
21.8212 81.4687 2.82821
14.5654 111.711 -9.58811
-16.289 105.78 -8.35751
7.82241 119.735 -13.0667
5.55242 120.078 -13.3528
-20.8909 91.1756 -2.74835
16.5114 100.442 -5.09917
-18.6219 85.4986 -0.430451
13.2404 114.54 -10.9473
17.2356 98.0885 -4.21412
-20.2135 98.5204 -5.7825
-16.3288 103.496 -7.67797
-20.9429 90.3031 -2.5699
16.5631 99.7646 -4.97943
-13.3414 108.01 -9.40218
-13.268 108.053 -9.43656
3.80181 120.892 -14.0196
-12.857 108.395 -9.63334
15.5995 107.848 -8.42368
-17.6093 80.5113 1.28018
1.36572 122.165 -14.7403
-21.6565 95.3559 -4.85761
-17.6051 82.9388 0.271455
-16.8717 101.933 -7.33004
-15.4849 105.399 -8.70424
-18.1414 77.9371 2.19632
17.9943 92.6348 -2.37759
-12.0656 110.415 -10.6527
-17.214 82.4055 0.379499
21.18 83.4192 1.38123
13.3332 113.513 -10.9936
5.74212 119.287 -13.5999
15.219 103.267 -6.83218
16.0135 100.133 -5.63366
7.65374 118.34 -13.2496
13.0674 113.525 -11.1217
-1.84274 119.693 -14.1947
-17.1539 101.071 -7.30932
15.3557 108.685 -9.16437
-15.5409 104.436 -8.67923
-2.90914 118.343 -13.8565
-11.6983 108.42 -10.2213
-17.7253 83.2274 -0.346837
-15.5316 102.41 -7.96731
-17.7516 83.305 -0.395774
-18.5528 98.8516 -6.68375
-17.5891 82.9736 -0.307678
16.7235 94.8413 -3.80485
18.3581 90.9759 -2.21093
18.9575 88.6206 -1.25793
2.47802 118.429 -13.8259
-13.2782 106.08 -9.48911
-21.3756 95.2453 -5.44713
-11.0941 110.381 -11.1484
18.7416 89.4994 -1.67161
15.1727 104.764 -7.92956
-12.312 107.348 -9.99425
15.9361 101.233 -6.50264
18.5118 90.1931 -2.00411
-10.7985 110.61 -11.2833
4.26959 116.758 -13.2425
21.637 79.704 2.23955
-17.5515 83.1101 -0.594585
11.6082 114.307 -12.0412
5.43861 116.421 -13.1259
-9.70432 111.959 -11.9037
-20.7132 96.9281 -6.30661
13.3763 108.992 -9.89851
-1.26278 119.693 -14.7382
-18.9328 79.6121 0.665458
21.6152 80.0206 1.99407
19.4431 85.2876 -0.231991
-17.72 84.2992 -1.21227
20.6261 77.8318 2.79048
20.9475 82.7689 0.81194
-18.7789 79.9348 0.453835
0.829893 120.232 -14.9861
-19.9565 97.5586 -6.70307
-12.9625 105.455 -9.67169
0.395805 120.01 -15.0441
-0.45661 120.003 -15.0785
-18.7515 98.1799 -7.00425
20.8559 82.6633 0.658553
1.6758 118.934 -14.6306
15.1431 106.588 -9.25033
-8.95165 112.321 -12.4585
15.2166 105.874 -9.01282
16.4525 93.9747 -4.21426
13.8289 107.613 -9.7901
20.9103 82.1303 0.691722
-12.6496 105.384 -9.88367
15.1594 99.7243 -6.59787
-18.928 80.1847 -0.0332225
-1.5862 118.326 -14.691
11.4684 110.027 -10.8964
18.0418 90.1334 -2.70421
-17.406 83.3733 -1.32252
17.4033 91.3931 -3.27095
15.76 97.3655 -5.72826
-20.8818 92.9314 -5.31191
16.7332 92.5334 -3.76109
4.52273 115.076 -13.2657
20.7253 77.6537 2.32588
11.5145 109.353 -10.7335
18.1707 89.4408 -2.52626
15.1498 102.668 -7.95815
5.69928 115.048 -13.2755
-10.8312 107.226 -10.7497
-1.88399 117.729 -14.6494
-9.58716 109.089 -11.495
16.4388 93.6173 -4.3581
2.57524 115.845 -13.8088
-7.35767 114.935 -13.8467
-9.92477 108.339 -11.3457
15.154 100.885 -7.44269
-3.94962 116.994 -14.6567
15.8175 95.1127 -5.15012
-12.2187 104.901 -10.1539
13.675 106.984 -10.034
-17.6561 82.3147 -1.31141
-18.7666 80.8042 -0.76714
14.9846 103.937 -8.81568
10.2476 110.63 -11.6756
-16.217 99.9248 -8.37814
8.79786 114.13 -13.1706
-18.0174 98.121 -7.74522
7.05689 114.887 -13.556
-7.2617 111.769 -12.9029
14.9137 101.88 -8.11838
-15.5994 100.359 -8.64523
8.26015 114.539 -13.4623
-15.2005 100.75 -8.80566
9.72282 110.759 -11.9514
14.6991 101.601 -8.09648
21.1245 80.1114 0.735576
20.8184 80.9002 0.406018
20.4049 82.0448 -0.0840474
3.56129 114.064 -13.5719
9.42787 110.719 -12.0651
-4.14145 116.518 -14.9294
3.43538 113.928 -13.6132
-19.8539 92.3837 -5.8462
1.69418 115.35 -14.2914
20.7269 80.7764 0.243134
14.2394 98.5697 -7.14082
-19.6185 88.831 -4.49641
-19.735 91.1881 -5.45466
0.0933867 118.307 -15.6194
15.0455 96.9249 -6.4998
3.32855 113.724 -13.6719
-20.1924 95.0602 -7.06351
-5.72555 114.851 -14.4707
-18.5695 79.6245 -0.846792
21.1673 78.0835 1.19934
13.988 101.389 -8.4149
-18.0426 86.6306 -3.68066
14.2125 102.384 -8.83533
17.5664 89.1966 -3.42955
15.4846 94.7703 -5.78593
-17.872 97.9014 -8.28013
9.33616 109.662 -12.0001
13.9219 101.79 -8.67461
1.57695 114.647 -14.372
14.078 102.752 -9.17492
-17.4047 83.1438 -2.50577
15.0642 95.5013 -6.27395
13.8405 102.342 -9.09162
-16.8763 84.4101 -3.0425
4.79913 112.544 -13.5269
-18.554 94.6833 -7.23111
-9.39098 108.058 -12.2685
-17.2524 92.3355 -6.27389
-18.5704 82.6687 -2.45515
-17.4519 78.2373 -0.69119
-16.9604 83.7682 -2.90314
13.3177 100.82 -8.62669
-5.59149 112.559 -14.1087
-5.88735 111.229 -13.5979
-18.5536 95.3867 -7.73955
-18.2862 97.4295 -8.56616
-19.1089 96.8261 -8.37601
-12.8292 103.228 -10.8182
-13.264 102.36 -10.5061
7.83262 111.526 -13.4074
13.4253 103.922 -10.2051
-3.94642 114.876 -15.2465
-1.01096 116.653 -15.8745
-13.8576 101.397 -10.2719
13.4172 99.643 -8.57068
13.1684 105.354 -10.8898
-13.4721 101.721 -10.4203
5.74613 111.588 -13.697
13.1738 100.475 -8.96519
20.5697 78.752 0.0134067
-0.250709 116.22 -15.8063
6.74867 111.785 -13.7729
-3.29878 115.446 -15.6184
18.069 84.2682 -2.46804
3.1042 111.706 -14.1085
16.739 88.7656 -4.41839
-4.3421 112.108 -14.5871
-5.31856 111.069 -14.2125
-17.184 85.3642 -4.45995
-16.2186 98.3889 -9.66105
1.31743 111.962 -14.5115
-16.7403 94.6359 -8.25128
-11.4013 103.803 -11.7344
-2.56806 115.056 -15.9301
1.14533 112.193 -14.6637
-2.86738 114.066 -15.6103
-18.1592 87.1573 -5.38705
16.1619 89.0754 -4.93686
18.2172 82.8644 -2.46984
1.13293 111.732 -14.7211
13.5997 97.04 -8.43119
19.7393 77.4365 -0.422238
7.11563 109.405 -13.8749
13.0465 98.9466 -9.46251
5.49781 109.382 -13.9399
-16.3637 94.5066 -8.86722
-6.13208 109.471 -14.5259
-11.1862 103.56 -12.3853
-6.36432 109.112 -14.4813
-7.49308 108.099 -14.1241
-17.5023 95.8335 -9.57826
6.57805 108.864 -13.9465
11.8553 102.304 -11.1433
-16.0073 98.1838 -10.5474
16.7903 86.1643 -4.66653
-14.3272 88.7632 -6.88474
-15.2391 88.2011 -6.71103
17.3241 83.8706 -3.79573
-1.39534 113.41 -16.3405
-9.14059 105.644 -13.5279
7.54349 108.211 -13.948
11.6767 102.441 -11.5063
1.01358 109.879 -14.9094
3.27739 109.261 -14.6063
6.56684 108.188 -14.0751
0.0554234 111.853 -15.7919
-3.47446 111.287 -15.7075
-8.27763 106.322 -13.8942
16.3372 87.0959 -5.28758
-17.2968 97.0329 -10.5206
-7.7507 107.004 -14.1801
-12.2945 86.0509 -5.97601
-0.0914275 111.864 -15.9362
-11.9886 83.2131 -4.92437
-11.7787 85.3795 -5.8171
-4.35977 110.236 -15.5526
-12.4579 90.9018 -8.11627
-11.8637 80.8628 -4.07508
15.1656 92.0471 -7.5647
-11.6151 83.1351 -5.03328
-12.0661 91.1486 -8.27319
11.5022 102.068 -11.7999
17.2086 83.2973 -4.07632
-11.7692 80.3236 -3.98539
-19.3747 83.2929 -5.47216
-10.5074 103.805 -13.3872
0.34127 110.378 -15.632
-11.7285 80.8899 -4.25762
11.5067 101.635 -11.7388
11.2132 103.225 -12.4064
-18.2162 78.79 -3.69801
-17.2668 86.4879 -6.7549
-19.2911 84.0173 -5.87755
-11.6833 80.1592 -4.06158
-12.1604 101.261 -12.5593
-3.14513 111.024 -16.1699
-15.135 90.533 -8.40161
-18.5948 79.864 -4.30351
11.996 99.6286 -11.1061
-14.9931 88.9117 -7.82826
-13.7872 83.6658 -5.69496
6.04996 107.016 -14.3454
-10.9642 88.2698 -7.48407
-5.28284 108.782 -15.5185
-14.9323 88.9577 -7.92611
-18.9901 80.2252 -4.64451
12.9918 96.0984 -9.83849
-10.8622 102.955 -13.4841
-11.1354 83.9571 -5.87713
6.35454 106.705 -14.3635
4.67214 107.089 -14.5863
-16.09 87.694 -7.63505
-6.24491 107.415 -15.1998
-11.4036 82.0426 -5.22217
-16.1272 96.7056 -11.291
-1.3722 110.722 -16.3733
11.5448 100.356 -11.7729
-17.1659 85.2321 -6.77375
-16.4213 86.3972 -7.21438
18.1943 77.8241 -2.51808
-16.4052 94.8921 -10.6459
1.77705 106.635 -14.6954
6.79973 106.299 -14.3786
-10.9278 89.5574 -8.32602
-16.0396 96.5526 -11.3334
12.9738 95.5652 -9.90441
-16.8336 85.9685 -7.17025
-9.45602 103.025 -13.7526
-9.6405 102.921 -13.736
-17.3086 85.7362 -7.15501
-17.8792 85.2706 -7.08393
13.73 92.4527 -8.7964
-11.7096 91.0621 -9.18589
14.5496 90.2011 -7.88855
14.2279 91.3512 -8.44312
3.16811 106.059 -14.7695
-7.15666 105.091 -14.765
11.8168 98.4195 -11.3889
-10.8296 83.7841 -6.37442
-19.0219 82.278 -6.08302
-14.7531 84.1692 -6.69701
-10.66 85.6056 -7.14029
-16.3854 85.793 -7.45728
-16.7551 87.1886 -8.0429
-19.8328 80.1612 -5.37094
12.7425 94.9543 -10.1125
0.641641 107.46 -15.6036
-19.2949 82.9881 -6.54916
-3.83959 108.155 -16.0824
6.03122 105.146 -14.5201
-13.3674 92.5889 -10.2376
-13.2677 97.5698 -12.2319
-19.278 81.0088 -5.83527
1.76376 105.277 -14.8388
14.4859 88.0446 -7.46673
-19.1766 82.4137 -6.45801
-10.9673 101.247 -13.7744
-4.55254 107.15 -15.9156
-15.9221 84.2072 -7.15722
-1.19062 108.587 -16.4127
-11.6514 99.6998 -13.2399
7.78522 103.914 -14.2257
-15.4815 95.1425 -11.572
17.9492 76.9632 -3.05006
-10.294 85.785 -7.65708
-19.1044 82.1746 -6.64803
-11.5531 98.6922 -12.9942
6.77407 103.941 -14.4796
-18.6151 83.6888 -7.29679
-10.8505 99.834 -13.5293
8.73717 102.261 -13.7933
-10.6814 81.59 -6.22623
-15.8563 83.6756 -7.25441
-10.6397 81.4105 -6.22053
10.5105 98.7344 -12.3882
-6.81547 103.803 -15.0842
-17.7169 83.227 -7.26691
-2.84955 107.261 -16.3618
16.7528 79.5281 -4.56154
4.0896 102.703 -14.3302
-4.82843 105.647 -15.8508
-2.12812 107.348 -16.4379
-17.5663 83.1636 -7.32048
13.2977 89.8439 -8.8831
16.8322 79.2554 -4.51498
14.5989 84.6884 -6.78991
16.5014 79.7949 -4.79543
-19.2706 82.2832 -7.1281
8.51418 100.776 -13.574
5.78282 102.874 -14.5339
14.1972 87.0244 -7.90196
-10.2776 98.3938 -13.4278
-11.0165 97.3076 -13.0365
13.4894 88.7955 -8.73418
8.03927 101.167 -13.9229
2.65142 102.657 -14.7387
-10.1463 80.8781 -6.50016
-14.8959 82.1402 -7.18717
12.7023 90.4121 -9.50906
-0.495466 106.16 -16.3376
7.58984 101.852 -14.3134
-11.8542 95.9099 -12.6612
-9.78864 84.4726 -8.0279
-9.3221 86.8702 -8.99756
-9.41279 88.4981 -9.72939
1.50773 103.438 -15.3579
-10.094 79.0912 -6.0554
13.6399 87.6275 -8.6051
-11.7222 95.5721 -12.7483
-18.8801 81.1909 -7.2579
14.6697 82.0924 -6.47656
16.512 78.4601 -4.95491
-2.02018 105.338 -16.4573
-9.09521 87.9088 -9.73932
14.0629 84.0514 -7.35385
12.7494 89.1838 -9.46216
-18.4166 81.1152 -7.38437
7.13911 101.007 -14.4231
-7.67131 100.252 -14.7051
8.09642 99.7215 -13.9516
-9.98938 89.2689 -10.5199
-9.50479 88.6676 -10.3163
-11.0554 90.3659 -11.0655
-7.00863 100.176 -14.8814
-9.37171 88.4778 -10.3227
-14.7878 80.8748 -7.47958
-2.39166 104.382 -16.4589
2.9559 100.002 -14.5578
10.0972 96.2565 -12.7983
-6.41737 100.584 -15.1465
0.33881 103.513 -16.0747
-10.7449 95.4534 -13.3145
-4.86635 102.389 -15.9339
-13.0372 93.2353 -12.5707
8.25137 98.4313 -13.891
10.5635 94.4619 -12.2362
-9.26582 88.2758 -10.5306
10.6375 94.094 -12.1363
-9.28392 82.2955 -8.14824
14.7192 80.3024 -6.46317
10.5817 94.0796 -12.2027
3.73915 98.7427 -14.341
-4.63882 101.844 -15.9021
-16.5872 79.9617 -7.61276
0.30468 102.363 -16.0063
-9.41621 96.24 -13.9252
-4.62017 101.305 -15.8122
-10.8363 94.7483 -13.4445
15.5194 78.2361 -5.87647
8.60263 97.0511 -13.7879
-11.8236 93.5891 -13.155
-10.2929 89.3395 -11.4209
8.88027 96.551 -13.6271
-12.1121 93.2626 -13.1143
8.12001 97.4995 -14.1009
11.5164 89.3908 -10.7279
-10.5883 89.5956 -11.657
-7.87002 86.8517 -10.4747
-1.80749 102.506 -16.5352
7.08778 97.639 -14.2768
6.19776 97.6528 -14.3281
4.19879 97.5228 -14.3591
-10.7132 94.3226 -13.6309
13.5668 83.4134 -8.39898
11.2216 90.1146 -11.2047
-10.0812 94.7947 -13.8874
-1.36002 102.045 -16.4788
-11.7926 90.5008 -12.2379
8.32748 96.7181 -13.9877
-8.66942 83.5151 -9.38896
6.32642 97.025 -14.2549
-11.3383 92.5355 -13.1213
-11.0398 93.0333 -13.3952
14.7044 78.5922 -6.66541
-7.93321 85.3483 -10.2252
14.8593 78.0659 -6.50445
-9.0758 87.9133 -11.3675
-10.4746 93.9665 -13.8686
-3.23954 100.602 -16.2859
-3.73334 99.8097 -16.0085
8.16223 95.9717 -14.0518
10.7209 90.9148 -11.9617
-1.95771 100.972 -16.4865
3.6048 96.0775 -14.4628
0.16003 99.4249 -15.9711
9.88603 92.8677 -12.996
-10.3743 89.5968 -12.4542
9.16737 93.9333 -13.475
-5.61297 97.7418 -15.563
14.4923 77.3328 -6.68369
-7.87609 84.3485 -10.3274
-7.64492 95.9438 -14.9959
-1.43392 99.8528 -16.3634
-3.1081 99.5729 -16.3343
-8.24344 82.4313 -9.66959
8.30276 94.4272 -13.9223
-2.81876 99.5746 -16.4874
-7.55934 84.7165 -10.7047
-9.33214 88.1896 -12.274
-8.58167 93.9225 -14.6276
-3.12061 98.7933 -16.3976
-7.68414 80.8564 -9.40568
0.838145 96.9055 -15.5746
8.4939 93.1062 -13.7807
11.2875 86.2829 -10.992
4.9846 94.4021 -14.4833
-7.59141 86.6469 -11.8766
-8.54286 93.2659 -14.5703
3.29426 94.515 -14.6396
2.09807 95.433 -15.0607
-7.46665 80.7238 -9.51558
13.3518 77.755 -7.56413
2.82793 94.7262 -14.7983
1.59256 95.6177 -15.2051
13.0971 78.2171 -7.83325
11.0045 86.5936 -11.2836
-7.76924 93.6444 -14.8636
-0.153023 96.939 -15.971
4.1648 93.752 -14.5469
-5.48219 94.3478 -15.1623
-5.41241 94.3193 -15.166
-6.71579 86.0928 -11.969
-7.66586 86.7858 -12.2987
11.0624 85.7985 -11.2346
-8.08134 91.7539 -14.3875
-6.23752 93.4356 -15.0105
-5.72604 93.503 -15.0226
12.2674 79.2127 -8.675
-6.53274 80.0252 -9.83742
-7.89088 88.5346 -13.3384
-2.55082 96.77 -16.4603
11.3951 83.3434 -10.6008
5.52541 92.1237 -14.341
-4.88347 93.2154 -15.1753
-6.55232 86.113 -12.4363
-7.67738 91.4677 -14.6385
0.267683 94.7883 -15.7184
3.21995 93.0476 -14.9121
11.9366 80.9091 -9.76967
-7.72847 88.0527 -13.4387
8.70091 90.0706 -13.731
-5.74369 79.0723 -10.0025
-4.57482 91.9613 -15.1499
8.71819 89.0945 -13.5552
2.8563 92.123 -15.1669
8.34676 88.9983 -13.7792
-6.47342 90.1259 -14.8003
5.28443 90.5061 -14.5435
-6.10184 90.5446 -15.0094
-4.60031 90.8122 -15.1011
-5.81386 80.4541 -11.0332
8.19964 88.5848 -13.8046
10.3482 83.0052 -11.5677
-6.38936 83.4574 -12.371
-0.699991 93.4845 -16.1943
4.45204 90.4086 -14.8391
-3.1139 92.0208 -15.7761
-4.80305 78.0724 -10.2518
10.3136 81.4783 -11.1592
10.1642 82.6153 -11.6357
-6.19151 84.349 -13.0263
8.48005 85.7451 -13.1142
9.94414 81.7654 -11.5371
10.8785 78.2458 -10.0944
7.93313 86.5508 -13.578
-1.67922 91.3995 -15.8983
10.8212 78.255 -10.1638
-1.66628 80.0618 -11.3751
-3.22958 87.4751 -14.4146
-1.83861 91.0388 -15.8172
3.36789 89.7486 -15.1699
8.60298 84.7869 -13.0082
-5.94193 86.3057 -14.2078
-1.93306 88.9123 -15.118
-2.18501 87.8631 -14.7536
8.10718 84.9567 -13.2705
-3.86513 80.7388 -12.1083
-0.94383 90.317 -15.8812
10.6239 77.246 -10.2353
-1.91999 87.3904 -14.8284
10.1538 78.5178 -10.9094
-5.03425 84.854 -14.1144
-3.68337 84.1576 -13.8649
9.85643 77.6312 -10.8443
0.205523 78.9601 -11.8529
5.65682 86.2274 -14.5728
2.47819 88.3521 -15.5972
8.34169 81.4654 -12.6263
0.494231 79.8967 -12.3399
1.17203 79.7001 -12.3224
1.64366 88.0924 -15.6874
5.50608 85.5093 -14.6018
-0.133229 87.0397 -15.4412
1.8891 87.2849 -15.4699
1.66678 86.2757 -15.1665
0.962495 85.7803 -15.0468
-1.94691 83.1375 -14.1098
1.86044 85.6369 -14.9836
5.21683 85.3219 -14.7727
-1.47821 81.6021 -13.5867
3.3485 85.4168 -15.0312
3.91737 85.5184 -15.064
3.67666 85.4124 -15.0506
6.39912 83.5426 -14.3174
5.13318 84.4629 -14.796
-0.77681 83.3211 -14.5653
8.42331 77.6561 -11.982
0.0510563 77.3923 -12.2162
6.31002 83.2197 -14.3669
6.7505 82.512 -14.0741
6.04294 83.2005 -14.4861
2.06975 80.5196 -13.6166
5.54821 83.3203 -14.7023
0.979556 77.3705 -12.5256
2.14985 81.9113 -14.4009
7.31262 79.1226 -13.2062
7.41309 78.8304 -13.0921
2.07048 83.1969 -15.043
2.53495 81.3392 -14.3145
1.43704 77.2293 -12.7095
2.85585 80.0223 -13.792
1.97462 77.3879 -12.863
3.66862 78.9287 -13.5072
3.21315 80.2704 -14.1347
3.58911 79.3923 -13.7749
7.00362 77.9076 -13.2293
6.26898 79.9184 -14.1905
2.28249 76.4441 -13.2748
4.1467 77.0778 -13.9334
3.74522 76.4774 -13.9418
4.85044 76.8938 -14.2113
4.16807 76.5115 -14.1297
