ply
format ascii 1.0
comment Created by Open3D
element vertex 1931
property double x
property double y
property double z
end_header
16.2844 110.723 -7.11197
5.7321 109.835 -13.8874
-6.00708 100.966 15.0566
3.48771 109.565 -14.7569
16.1752 111.183 -8.93947
-0.727935 101.449 18.5904
-13.995 100.782 8.13605
-8.12364 101.384 11.7295
-6.94117 101.123 14.1819
4.08977 109.832 -14.5108
-2.97584 101.289 17.7595
17.0897 110.455 -3.3863
15.6244 111.4 -9.21119
-7.90756 107.303 -14.7556
12.8947 111.062 -10.3598
-11.5571 101.158 9.99182
13.3165 105.758 14.8185
19.9959 109.337 5.35918
16.2015 111.412 -8.20011
9.22642 110.711 -12.1702
-17.014 104.443 -10.5492
-18.1037 101.76 0.892167
-1.60587 101.721 18.5178
16.5507 110.958 -5.25503
6.84817 103.345 19.9373
9.05626 110.825 -12.329
-20.4361 103.105 -7.3441
-8.27727 101.757 11.7338
-20.9844 102.011 -2.4789
-3.64048 102.166 15.8437
16.0084 106.889 14.6064
-16.7596 101.568 4.99609
-21.2797 102.556 -3.94583
-16.7015 105.181 -11.2008
-13.6874 106.06 -12.0971
-5.36763 108.764 -15.8002
-12.1665 101.733 9.87812
-3.97685 109.255 -16.37
8.25718 111.326 -13.1194
-2.80443 102.061 18.2599
4.09426 103.048 21.3076
-11.4514 101.922 10.2942
19.7449 110.122 4.98813
-17.8121 104.836 -9.86804
18.7527 109.252 8.26918
-20.7705 102.395 -1.34118
-7.49824 108.243 -14.5255
4.69928 110.914 -14.0118
-1.54785 102.42 18.8694
-2.89094 102.334 18.0878
-20.5955 102.442 -0.753899
-0.474067 102.587 19.9565
-8.96339 102.509 11.5008
-13.6015 102.054 9.10272
-15.7801 106.025 -11.4301
17.8916 111.774 -2.68915
16.9512 108.175 13.0374
-8.16967 102.601 12.8058
12.873 106.833 15.2648
-9.17048 102.667 11.4863
5.23472 111.386 -13.7284
16.2832 107.824 14.4956
-1.10417 110.621 -16.6271
-16.9951 105.737 -10.5897
-8.67271 108.316 -13.6041
18.5168 109.648 8.74584
16.5174 108.02 14.3608
1.53649 110.946 -14.8559
2.36886 103.392 21.1016
-9.58331 108.085 -12.9517
0.0908596 103.111 20.2604
15.0977 107.723 14.7882
15.9425 113.203 -9.48542
14.4716 107.684 14.8708
19.7331 110.807 5.95954
19.0993 110.443 7.14652
-10.9973 102.852 10.8313
18.4894 110.053 8.52359
-15.8619 102.603 7.05696
17.6006 112.605 -4.142
-19.4222 103.201 0.667721
6.72149 104.926 20.1446
-8.26191 103.125 12.8068
19.2116 110.611 6.92046
6.72438 112.305 -13.7281
13.6587 107.74 15.0613
17.0295 108.887 13.5309
17.0323 112.987 -5.40126
-2.59568 103.76 16.9387
-0.313942 111.514 -16.5703
-1.89027 111.174 -16.6043
3.09462 111.815 -14.3383
-15.3099 102.861 7.90094
18.3217 110.278 8.82203
11.962 107.261 16.159
4.31725 112.019 -13.881
-7.64216 103.235 14.3656
-5.24732 110.128 -14.9881
-17.3634 103.37 3.85902
14.9464 113.665 -9.95913
-18.8124 105.652 -8.19258
19.5535 111.72 3.9024
-0.780607 111.578 -16.6832
-18.7851 103.582 1.62172
-17.4444 103.464 3.67281
-20.3964 105.137 -7.06888
3.75351 112.113 -14.0386
-14.0191 107.667 -11.8422
-4.43681 110.623 -15.3386
5.76871 112.584 -13.6715
-4.25151 103.99 15.7071
16.2581 113.817 -8.10818
19.305 111.359 6.48627
19.3039 111.406 6.45159
15.6573 114.004 -9.27989
18.4869 112.928 -1.3039
0.796775 104.557 19.7496
17.8661 110.103 12.2938
-6.39262 110.292 -13.8932
-5.7065 104.202 15.2702
0.713953 112.317 -15.512
9.9294 113.79 -12.6629
12.3014 114.184 -11.5767
18.5163 113.443 -1.62362
-1.46655 104.701 18.132
-3.54436 111.499 -15.5347
-3.45653 104.717 16.3215
18.651 111.319 8.90012
-1.89753 104.959 16.8744
15.0009 109.217 14.8499
-15.5207 103.778 8.12361
9.86712 114.042 -12.7836
19.7344 112.67 4.01808
-20.4907 105.009 -2.58272
7.33542 113.751 -13.7346
16.4576 114.424 -7.16263
-8.63122 104.487 12.707
8.04722 106.869 19.1811
-5.59651 104.581 15.5151
-13.8652 103.976 9.8226
13.686 108.969 15.6645
14.7391 114.736 -9.52187
10.5937 107.944 17.6345
-12.3949 104.305 10.8433
-8.04826 104.625 14.0258
-12.5201 104.323 10.788
-5.43318 111.293 -14.0842
18.2138 111.381 10.2891
-7.74013 104.574 14.6454
7.67582 114.163 -13.6376
-3.88035 105.122 16.3545
-20.3848 105.555 -2.81637
-18.4129 107.492 -9.47194
18.7568 111.915 8.99149
-12.1722 104.487 11.0373
18.0942 111.179 11.7603
4.94137 113.651 -13.477
-12.1684 104.498 11.0445
0.908704 105.644 19.561
5.22839 113.758 -13.4911
-16.633 104.444 6.84959
2.06971 105.692 20.6949
12.3603 108.937 16.8127
7.71921 114.48 -13.6775
-4.49895 105.272 16.2459
-8.628 110.707 -13.0242
-4.00041 105.414 16.4502
18.2741 111.773 10.3383
-20.0254 104.99 1.66559
-0.682332 105.727 18.6573
-18.4948 107.741 -9.32159
17.9856 114.329 -1.53121
19.453 113.59 3.4329
10.1761 108.36 18.2635
-17.0968 104.84 6.07455
1.47491 106.136 19.6935
-11.6053 110.028 -11.9684
-21.4627 106.447 -5.59025
-20.9442 106.374 -4.66371
19.5103 113.766 3.60549
16.4483 115.518 -7.72142
12.3949 115.367 -11.0354
-19.4915 105.279 2.32319
19.9217 113.333 6.35003
14.9489 115.681 -9.585
15.4845 110.589 15.0182
-0.51758 106.271 18.3386
13.1384 115.589 -10.4158
18.1554 111.956 11.7338
-4.77724 112.364 -14.1886
18.3249 114.519 0.360949
15.5283 116.009 -9.46244
-12.4451 110.189 -11.6632
15.7756 116.116 -9.37601
-18.0155 108.616 -9.72496
-20.9156 107.267 -6.42592
-20.3747 105.917 0.624383
18.1849 114.7 0.552028
-18.3071 105.82 3.71004
-8.22841 111.73 -13.0435
3.80014 107.056 21.2704
16.3476 116.21 -7.90604
8.30055 108.499 19.4381
16.2068 115.562 -4.9606
-10.927 105.805 12.0977
-12.9644 110.429 -11.4264
-15.2847 109.767 -10.5384
-0.432359 114.434 -16.2454
16.4447 116.258 -6.94707
-7.45736 106.162 15.0418
-1.07065 114.369 -16.235
14.4753 116.626 -10.085
-18.4283 108.945 -8.84832
-18.478 108.926 -8.77394
16.312 116.607 -7.78439
16.9786 115.229 -0.633988
17.8474 115.089 1.0047
-5.46618 106.491 16.6239
-6.14929 112.817 -13.3618
-0.84953 107.286 17.8395
19.2508 113.584 9.78399
2.67001 107.372 21.2855
-8.71481 112.187 -12.9099
-6.24997 106.463 16.2721
14.4094 116.831 -10.1274
-20.5049 106.692 0.293807
-2.35938 114.083 -14.9102
12.7267 110.714 16.6752
-14.8583 105.965 9.90848
-8.27517 106.551 14.4683
15.5246 116.516 -6.3118
-21.1077 107.87 -4.62542
-20.3674 108.597 -7.18388
13.073 111.058 16.4538
-16.7576 106.313 7.30978
-3.63714 107.161 17.1874
15.8423 116.854 -7.31078
15.9147 115.989 -3.11517
4.20761 115.602 -13.5328
15.3875 116.396 -4.98402
5.06258 115.895 -13.3447
10.2128 110.303 18.3719
-18.661 109.551 -8.26397
18.7116 114.973 5.85909
-21.4946 108.272 -5.10515
-14.1684 111.241 -11.0285
-12.9224 111.623 -11.3786
11.6057 110.975 17.3392
13.415 117.339 -10.0937
1.18255 115.637 -14.9061
17.3098 113.224 13.2861
15.4793 116.477 -3.6855
17.7851 115.27 4.47898
-2.73164 114.715 -14.4087
10.9986 110.911 17.826
14.4157 112.243 15.2669
10.7896 110.885 17.9576
13.1233 111.809 16.2072
0.624798 108.428 18.8853
15.9227 116.361 -1.63757
-6.2263 107.43 16.6347
13.2445 112.002 16.0701
-11.6618 112.473 -11.7559
7.43847 110.065 19.6593
6.61559 117.13 -13.2549
1.25816 116.381 -14.9478
-13.2032 112.328 -11.2965
-6.16065 114.456 -13.7457
-7.99763 113.889 -12.9034
2.60144 108.985 21.1996
-7.94458 107.971 14.9209
-18.1977 111.013 -9.83335
4.09109 116.942 -13.5146
-20.0501 108.623 -0.0990615
-1.8852 115.927 -14.4903
-1.55791 108.953 18.6181
8.709 118.12 -13.0572
18.2847 116.042 6.63166
6.38055 110.477 19.9531
8.68354 118.13 -13.0786
15.0711 117.329 -2.57303
17.3167 116.479 3.73689
-19.0445 110.971 -8.76674
8.12077 111.089 19.1724
-19.9387 108.73 0.708887
11.9838 118.458 -10.73
-14.0759 107.929 10.8659
-19.4155 110.902 -8.32605
6.50999 117.892 -13.5196
-7.27037 114.785 -13.356
-5.44273 115.323 -13.9247
17.7917 114.938 12.235
17.0618 116.906 2.66816
-19.8261 109.546 -1.87245
18.898 116.06 8.58933
17.0422 116.962 2.48902
14.1851 119.229 -10.4543
-14.6348 108.228 10.4883
15.885 114.714 13.2673
-1.14834 117.086 -15.1196
19.0751 116.447 9.29693
0.525381 110.013 19.6955
-19.4562 108.831 4.55052
-16.9956 108.612 8.17061
-16.852 108.59 8.52272
-11.1567 114.462 -12.3892
17.359 117.935 1.54639
12.2457 113.621 16.1913
-10.4327 114.788 -12.6021
-9.51054 109.189 14.3538
18.2121 116.063 11.5773
9.80162 112.744 18.1609
-1.65905 117.142 -14.1999
18.3875 117.296 6.11873
14.0719 114.521 14.4715
-13.8716 108.9 11.2613
-12.7683 108.903 12.4898
-20.8981 111.346 -7.20745
15.9415 118.782 -3.05478
-21.7249 110.874 -5.87578
17.8274 120.46 -8.84432
1.9541 110.507 20.7157
-13.0033 109.005 12.2325
-0.744445 117.717 -15.2627
-0.880008 117.667 -15.0979
10.1628 119.313 -11.1245
0.89801 118.161 -15.3674
2.92521 118.318 -13.9196
-19.161 110.158 1.03044
-11.9831 109.16 13.1934
-8.41451 109.514 15.3227
19.4781 116.841 10.8288
-13.9627 109.208 11.173
18.4244 117.757 5.49431
-15.797 109.137 9.97028
13.5215 114.753 14.7859
-9.39823 115.584 -12.983
17.428 118.452 1.86496
-19.1479 110.031 2.56734
-17.6637 112.972 -9.49723
19.4257 117.178 10.0115
18.6049 117.62 7.12213
-5.15875 116.712 -13.4613
-16.8527 109.231 9.10643
9.68419 119.692 -11.4756
17.7042 120.91 -8.61756
-16.6392 109.254 9.51387
5.68847 119.422 -13.8116
18.9159 117.674 8.30529
4.0173 119.223 -14.0967
5.27337 119.502 -13.9981
-13.0964 114.973 -11.9644
14.0433 120.737 -10.2066
-15.4842 114.258 -11.1056
14.1749 120.4 -8.48168
21.1344 121.644 -6.87967
-18.996 109.985 5.13374
-19.4075 111.061 -0.201542
9.01422 120.07 -12.0705
-18.6519 110.745 2.20132
13.933 121.026 -11.2057
-15.3872 114.402 -11.1137
7.45394 120.046 -13.2119
14.1955 120.577 -8.5762
3.43848 111.947 20.1586
-20.0957 111.216 -0.934025
18.8846 118.202 7.6288
-9.18569 110.21 15.2595
5.39524 119.792 -13.839
-17.1892 113.762 -9.42174
4.68625 119.764 -14.3079
-21.9552 111.805 -5.00224
-3.70898 110.904 18.7867
17.59 121.486 -7.92766
-0.919683 118.781 -14.7587
17.6846 120.118 -1.24873
-21.3205 111.59 -2.52682
17.7184 120.187 -1.40702
19.6899 122.862 -11.7105
3.56599 112.413 19.8217
18.4918 122.526 -11.3765
12.6898 121.206 -11.315
19.5817 122.93 -11.9393
18.5868 119.014 5.3306
-18.365 110.223 7.37187
17.3909 121.811 -8.72429
-18.321 111.447 1.89232
-19.7689 113.142 -7.47648
11.7237 115.092 16.5168
21.6584 122.135 -5.68646
-13.7774 110.394 11.6515
-18.4907 110.927 4.3048
19.9074 121.821 -5.91964
16.0251 120.663 -4.58987
17.6552 117.653 11.1172
-11.212 110.511 14.3221
14.6444 116.544 13.5001
-0.736469 119.222 -14.9906
-7.1242 117.321 -12.7232
-21.3729 111.966 -2.59768
19.2021 118.916 7.81528
13.1549 116.026 15.0154
-20.7304 113.05 -6.5652
0.583719 112.088 20.3338
-4.28463 111.376 18.6433
4.51516 113.182 19.5348
-12.5415 116.137 -11.9179
18.4373 122.229 -7.6044
-21.4148 112.876 -5.9238
-1.95838 118.967 -13.6661
17.8846 120.634 -0.591219
-2.5544 111.731 19.4454
11.4862 121.435 -10.7504
20.2056 122.457 -6.3176
20.8444 122.449 -5.50209
11.422 121.449 -10.7205
5.21066 120.714 -13.7179
9.86942 121.339 -11.4296
20.5656 122.307 -4.4407
18.4412 121.086 -0.752842
-17.0459 114.75 -8.47275
-21.4471 112.524 -2.68689
-1.10131 119.698 -14.5867
15.5701 117.618 12.6536
17.052 121.555 -3.98354
-13.9616 116.25 -11.4234
-10.5625 117.179 -12.1441
-8.26151 111.577 16.6692
17.4569 120.408 2.7323
23.787 124.107 -7.75751
19.1785 119.278 9.83035
18.4021 120.921 1.40777
-0.711131 112.612 19.8921
-10.1173 117.422 -12.201
16.8578 123.015 -9.71219
5.89907 114.374 18.8491
13.8191 122.806 -11.8883
-12.2365 116.89 -11.7625
3.42332 113.834 18.8152
-20.2314 113.965 -6.54843
14.5511 122.425 -9.2637
2.99886 120.905 -14.1811
21.2019 122.585 -2.81805
-21.9403 113.452 -5.65761
21.5535 122.812 -3.41239
14.4325 122.744 -10.0912
-9.82423 111.692 15.7467
-21.2403 113.802 -5.99159
-19.1672 114.582 -7.4126
-17.3655 115.199 -8.27676
6.22519 114.818 18.4683
-13.7105 116.782 -11.4701
12.6708 116.929 15.4936
14.6624 122.776 -9.32156
14.6421 122.095 -6.12175
13.8746 117.666 14.1131
10.3359 122.265 -10.9074
21.4909 122.991 -2.12845
7.68131 122.074 -12.3057
-21.3609 113.284 -1.98772
-2.69293 119.914 -13.1202
17.9178 119.528 10.3603
-10.9196 112.204 14.2942
16.9505 124.004 -10.596
19.1964 123.404 -5.29997
-22.2052 114.099 -5.51685
17.3222 122.695 -3.91561
15.9387 122.794 -5.74434
18.448 121.579 2.6833
-0.445403 121.1 -14.8793
3.35365 121.806 -14.1119
-13.9261 112.198 12.4014
16.689 122.872 -4.87084
-3.15448 113.184 19.3056
-2.56801 120.339 -13.1832
18.0091 124.588 -11.2888
-15.3975 116.7 -9.45631
-19.7783 113.655 0.0868098
21.415 125.053 -9.55211
-10.8524 112.63 14.373
-6.27729 113.001 17.4469
18.3524 120.195 9.98877
-15.7143 112.228 11.2403
12.3922 123.654 -12.1832
20.4929 123.54 -3.09007
-3.73153 120.004 -12.0793
17.1821 123.091 -4.19419
13.7991 123.878 -11.3715
-18.0277 113.389 4.46201
-17.3892 112.423 9.66373
-20.6638 115.248 -6.67965
-0.450212 114.369 18.7734
20.2169 122.795 1.43735
14.3781 124.109 -10.7183
-15.694 116.911 -8.72506
23.1924 125.729 -8.80986
14.7106 123.696 -8.1225
-4.53783 113.598 18.5278
19.0016 125.481 -11.761
-0.00939722 121.823 -14.7292
19.1693 123.95 -4.32587
15.0692 124.112 -9.32624
-20.1491 114.493 -1.09401
21.3075 125.829 -10.1444
20.5185 123.641 -0.811798
21.9038 125.928 -9.80469
22.8328 126.011 -9.20069
18.4223 121.84 5.73656
20.0708 125.872 -11.1887
17.1198 124.297 -6.77289
17.1456 120.484 10.9258
-8.90144 113.431 16.3768
-18.7558 114.456 1.31772
17.8302 125.548 -11.439
-2.2355 121.394 -13.1389
18.6015 121.816 6.85568
19.0006 122.672 3.3828
-3.96732 114.127 18.9248
-5.23206 114.037 18.0337
-18.5145 114.603 1.52561
-18.5039 116.744 -8.28393
11.7886 118.416 15.7307
19.7233 123.741 -0.604222
16.1049 124.079 -5.94907
17.2017 120.733 10.8439
14.5234 119.579 13.6622
17.6228 124.041 -3.73174
21.5822 125.01 -3.94475
19.595 124.348 -2.94246
-7.55528 120.05 -11.1705
20.0345 124.051 -0.690424
-4.56584 120.767 -11.231
-11.667 119.171 -11.2133
20.1653 124.235 -1.30836
3.3731 116.598 16.5194
-10.5753 119.46 -11.2571
-3.62763 114.606 18.6002
-18.3621 114.955 1.54219
15.4345 120.131 12.9942
12.639 119.011 15.2688
18.5097 122.165 6.87477
-20.4102 116.438 -7.36614
2.71937 116.548 16.4807
17.282 125.754 -10.8941
-13.3665 113.611 13.274
-1.63961 115.218 18.1246
-10.7354 113.852 14.9543
19.2431 124.26 -1.82772
15.0846 124.98 -9.51926
22.1475 125.506 -4.50527
18.7926 124.312 -2.41696
13.6988 125.018 -10.9736
2.91259 116.688 16.3945
20.7665 124.947 -2.96429
-1.39083 115.418 18.0148
14.4909 124.55 -7.50458
24.856 126.582 -6.03945
-13.5356 113.742 13.2389
-10.5034 114.046 15.2821
17.637 124.606 -4.10429
14.4391 120.024 13.79
-18.2057 115.27 1.63851
16.4892 125.379 -8.58994
-19.2785 115.436 0.145131
-17.685 115.3 2.6179
2.2091 116.824 16.4522
-13.0184 119.317 -11.0493
17.3724 124.815 -4.6459
24.0154 126.868 -7.17804
-3.03345 115.337 18.0987
-8.7285 120.254 -10.6228
-17.2496 114.426 7.47915
3.15559 123.754 -14.3571
-0.190355 122.959 -14.0231
20.8756 124.677 0.100606
18.4895 122.169 9.44257
19.4655 124.931 -2.29969
-19.7048 116.433 -3.81668
3.23995 117.377 15.874
15.9571 125.115 -6.64661
-17.7498 114.827 5.71394
22.4141 127.044 -8.55709
16.9418 125.175 -5.54912
-17.1162 114.047 10.381
-20.6282 116.884 -6.41032
10.921 125.309 -12.3754
5.21432 118.046 15.5132
23.0895 125.784 -1.2531
7.48263 118.508 16.1199
-8.28315 120.743 -10.5064
24.0595 126.045 -1.17297
14.9194 125.863 -9.7441
12.7139 125.798 -11.7483
6.00066 118.476 15.3862
18.6916 125.507 -3.84613
17.5826 126.596 -10.0308
-18.1385 115.874 2.26125
21.8986 126.355 -4.3163
16.4466 126.115 -8.82172
19.6397 123.93 4.82879
17.0832 125.423 -4.73295
-12.2188 114.765 13.9582
-4.30086 121.951 -10.9346
-21.0876 116.409 -2.30417
18.4204 125.825 -4.51525
4.27742 118.454 14.909
14.6882 125.682 -7.56296
0.808016 117.355 16.5161
-12.4335 120.192 -10.4885
16.5315 125.956 -6.80259
14.1123 120.925 13.9884
24.6426 127.276 -4.24698
3.34447 118.238 15.3276
19.0987 123.615 7.02067
4.78597 118.731 14.7803
19.2681 125.544 -1.55523
-20.1219 117.959 -7.66514
18.3624 125.504 -2.22816
25.359 127.596 -4.58765
11.1036 126.059 -12.3364
28.4549 128.169 -3.72188
21.4625 125.871 -0.379405
14.3171 126.598 -11.043
14.2399 126.616 -11.1035
19.0092 125.476 -0.80385
-17.3629 116.259 3.96228
21.6428 126.738 -3.62133
7.66316 125.316 -11.6639
7.1887 125.16 -11.3689
-16.7461 115.08 10.471
-17.276 115.046 10.0961
25.263 127.809 -4.46349
21.3045 127.966 -9.26875
23.2396 127.168 -3.52478
-17.2848 119.07 -8.39556
16.6424 125.97 -4.59687
6.95984 125.22 -11.2261
2.29751 118.398 15.5562
19.5041 125.774 -0.543331
14.0374 121.448 13.873
17.3339 125.929 -3.41445
-6.74809 121.943 -10.1634
-7.442 121.797 -10.1685
15.9512 126.67 -7.94962
16.6055 122.648 11.461
1.0409 118.192 15.805
17.9026 125.889 -2.14845
17.5185 125.996 -3.0102
0.245527 118.055 16.1653
-3.24704 116.984 17.5159
-1.39097 123.953 -12.6665
18.2653 126.01 -1.49898
25.7804 128.335 -4.36234
15.4915 126.809 -7.92781
-0.245225 124.381 -13.1076
-19.1206 116.532 3.53758
25.6147 128.428 -4.5578
19.8331 126.002 0.636659
19.114 126.471 -2.25086
25.9975 128.541 -4.61936
1.11807 124.922 -13.6947
26.2521 128.518 -3.98904
26.4988 128.456 -3.42851
15.0445 122.33 13.0741
7.94037 126.083 -11.7442
25.3662 128.446 -4.37501
23.7585 127.922 -3.58043
7.20715 125.865 -11.3727
15.7504 126.611 -5.84961
-3.41157 117.25 17.4782
-17.476 116.821 4.73392
16.5175 123.068 11.601
22.2042 128.306 -6.67084
-20.4117 117.223 0.134578
26.3554 128.47 -2.94915
20.8966 126.42 0.85834
26.0749 128.35 -2.64684
13.265 121.881 14.0037
16.1251 126.588 -4.80244
22.3471 127.402 -1.88931
26.3246 128.436 -2.5017
18.7999 126.517 -1.49099
-16.6756 115.993 10.1492
-19.6674 118.403 -4.07822
-10.4274 121.652 -9.41407
-14.0739 115.988 13.0622
-16.8119 119.99 -8.15808
-15.4042 116.115 11.3254
-16.6808 120.042 -8.13519
27.6239 128.761 -2.06342
0.839844 125.202 -13.6086
2.59222 125.735 -14.1148
2.21617 125.676 -14.2103
4.13276 125.829 -12.8202
21.7265 127.015 0.359924
-1.5193 124.503 -12.1501
5.20567 120.446 13.7248
-10.755 121.818 -9.33672
-17.6394 116.284 9.21014
18.8278 127.825 -5.72586
23.8549 128.955 -5.30457
7.79156 121.232 13.7027
22.5965 128.005 -2.16082
-20.0451 117.828 0.509083
-10.1558 116.814 15.6119
27.5616 129.325 -2.79977
-2.56 118.321 16.6895
26.1129 129.175 -3.43119
27.4724 129.457 -3.23725
-17.7985 119.735 -5.60331
27.418 129.559 -3.67813
22.1919 128.848 -5.84426
-19.5403 117.542 2.82221
16.967 128.141 -8.03101
-6.92968 123.098 -9.6346
-5.42454 117.598 17.4506
-3.85317 117.983 17.3286
-17.4145 117.108 7.27784
-19.7174 119.299 -5.24559
24.6749 128.609 -1.76559
-18.0011 119.65 -4.90468
23.1073 128.448 -2.46474
23.3719 128.606 -2.83757
-17.5414 118.789 -0.0607786
8.81278 121.769 13.8672
11.3453 122.323 14.1234
-12.9307 116.943 13.687
27.4682 129.661 -2.75368
-20.9282 118.173 -0.122843
-17.6393 119.459 -2.62221
-20.491 117.963 1.35537
-22.6513 117.332 2.12153
16.6887 128.799 -9.73233
20.1279 127.233 1.13642
18.4556 127.023 0.374678
11.7841 128.242 -12.2436
18.2816 127.304 -1.03956
-12.6586 117.107 13.8495
-17.6747 120.821 -8.50262
24.2052 129.195 -3.38279
20.2571 127.426 0.906438
26.1402 129.583 -2.83411
-13.7786 122.014 -9.57673
23.1053 129.379 -4.94433
-18.8219 119.72 -4.10848
-19.4346 119.077 -1.62266
9.04248 127.74 -11.9223
17.3055 124.633 11.2023
11.1146 122.722 13.9422
-20.1458 118.458 1.17982
19.2106 127.449 0.778253
9.23138 122.454 13.4831
-6.2431 123.901 -9.38366
8.92075 122.443 13.2825
24.1433 129.705 -4.39658
21.617 127.977 0.978409
17.9715 125.182 10.1496
-6.77555 123.82 -9.36799
5.31364 121.769 12.8757
18.7688 126.161 6.78081
26.133 129.974 -2.96365
19.0548 126.488 5.81765
19.5833 127.999 -0.627145
18.1142 127.442 0.446298
-13.8812 122.396 -9.51478
13.2647 129.003 -11.6429
27.8013 130.507 -3.37291
14.981 128.646 -8.06467
-22.8266 118.747 -1.80998
20.3764 129.817 -7.80375
12.6475 128.953 -11.8702
1.71562 120.78 14.5638
24.3409 129.767 -3.34568
17.0469 124.967 11.3711
-23.7874 117.723 2.21492
-20.616 119.04 -0.539696
-14.1427 122.409 -9.29709
17.5486 129.482 -8.85105
23.4016 129.463 -2.57834
24.6824 129.866 -2.98239
7.06078 127.684 -11.1281
26.8257 130.283 -2.44244
14.8249 129.435 -10.968
-18.5913 118.487 4.77711
-17.9142 120.293 -2.8797
5.42637 122.242 12.6086
-18.0174 120.621 -4.42792
-0.166842 126.519 -13.0269
-22.7576 118.265 1.75103
25.9323 130.088 -2.00773
18.8602 126.928 5.34444
-9.44895 123.623 -8.85688
-19.7433 120.12 -3.39901
-3.40356 125.515 -11.153
-14.0687 122.693 -9.20074
-20.0909 119.421 -0.342015
3.19581 127.463 -13.1108
-17.0851 119.938 0.56645
17.6953 125.663 10.4928
-17.8164 119.556 1.59177
15.1847 129.678 -10.6984
12.5654 123.935 13.1843
-17.2945 120.084 -0.169893
18.6055 128.797 -2.90473
15.0297 128.454 -5.05501
5.06209 122.421 12.5039
17.6898 125.791 10.144
25.6297 130.131 -1.48947
-17.5289 121.725 -7.75558
16.9847 129.799 -8.97536
14.6238 129.261 -8.84498
18.783 128.494 -0.807455
-26.8222 117.672 1.56333
-18.5179 120.406 -2.38518
3.15789 127.617 -13.0322
-21.1884 119.407 -0.0978676
27.3122 131.119 -3.51379
-17.1919 120.306 0.0524419
-18.4787 120.757 -3.22868
-18.4172 121.195 -4.93199
-17.039 120.78 -1.51974
17.3564 130.049 -8.41435
19.358 128.041 3.05742
14.8197 128.932 -5.72214
-16.8755 120.97 -1.93979
18.2367 129.477 -4.54295
-17.2902 122.224 -8.14738
18.6088 129.281 -3.19551
2.4328 122.159 13.0341
14.6365 125.089 12.3101
-22.7082 120.031 -3.3483
17.9598 129.619 -5.12565
24.7167 130.402 -1.62837
9.29598 123.958 12.0984
-2.04976 120.666 15.5392
17.555 126.348 9.77519
-3.90369 126.012 -11.0635
24.6007 130.429 -1.65493
-17.7693 120.267 1.20069
-22.673 120.131 -3.29901
-3.28526 126.323 -11.672
-20.6219 119.515 1.74
-17.727 121.881 -6.17047
-25.5995 118.646 0.605278
26.8555 131.503 -3.99216
-7.84278 119.267 16.3962
27.8319 131.598 -3.33717
-24.5523 118.397 3.00258
-15.3511 118.631 11.5754
-20.5718 119.496 2.09803
8.3315 123.94 11.8011
-0.496339 127.325 -13.1378
0.21756 121.541 14.5901
5.75624 123.346 12.0629
-21.0302 120.251 -1.46902
-22.1171 120.571 -3.90494
-1.55145 127.107 -12.5964
22.9669 130.757 -3.76658
-8.51531 119.331 16.2611
-2.82526 126.717 -12.0057
-19.5767 120.584 -1.08315
18.1453 127.727 5.48269
26.2378 131.717 -4.42372
-18.2609 120.797 -0.369559
15.1141 130.553 -10.4752
15.5224 129.307 -4.19458
26.7947 131.664 -3.24704
-19.2044 120.684 -0.517549
-9.48196 119.461 15.4141
-19.3069 120.89 -1.45025
-19.3608 121.044 -2.21352
17.9807 129.403 -1.77282
-19.4328 121.154 -2.71707
-11.7054 119.354 13.7551
-13.6825 119.213 12.3369
-18.3931 120.694 0.591448
-0.289709 121.787 14.6211
17.9769 127.895 5.5885
-28.214 118.237 1.94916
23.9391 131.274 -3.6721
-25.1489 118.451 4.40119
21.3757 131.365 -6.65777
23.3397 131.213 -3.88911
20.9546 131.287 -6.68333
17.6722 127.695 6.57206
7.39765 124.328 11.5439
3.69677 123.256 12.6827
-1.59974 127.547 -12.7243
-0.0663904 122.068 14.2896
-20.5802 120.887 -1.72133
14.6343 130.427 -8.90112
23.7187 131.358 -3.55273
-1.66253 127.646 -12.7441
-19.0947 120.869 0.397748
-19.5204 121.62 -3.43742
-17.4287 122.195 -3.89443
18.4176 129.776 -1.40597
16.0845 126.412 11.7469
-18.1848 119.21 9.23302
-29.5545 118.065 2.93529
24.083 131.541 -3.29676
-17.3942 122.239 -3.53174
-13.2124 124.304 -8.66716
20.4673 131.579 -7.05744
-6.53316 120.521 15.9242
-23.1559 120.608 -1.88245
-18.254 120.179 5.26805
-24.2201 118.942 4.75782
-1.85722 121.912 14.4766
-29.6707 118.028 3.35069
11.5857 130.62 -11.6642
-17.9815 120.993 2.00029
-17.7406 122.413 -4.32278
-18.7672 121.23 0.149998
7.2829 129.69 -11.7061
-19.6686 121.771 -3.23825
-18.1607 121.184 1.08175
17.0672 127.059 10.8403
-14.3851 119.794 11.5848
-21.1673 121.31 -2.5189
24.0289 131.463 -2.18222
-16.6293 119.455 10.9642
-17.2449 121.334 1.61229
-18.0796 122.055 -2.57235
-25.312 118.981 4.11631
-11.7652 124.699 -8.16634
-25.1899 119.022 4.11974
14.0117 131.124 -10.8593
-18.3402 121.594 -0.473393
-17.9582 122.41 -3.76905
17.2033 127.347 10.2447
-6.71175 120.776 15.7143
-9.68635 125.304 -8.3038
-24.3196 119.491 3.33328
-5.94636 121.108 15.2768
-20.0556 120.66 2.62645
-19.7649 120.763 2.60253
-23.4825 120.814 -1.49212
23.4092 132.234 -5.27414
24.124 131.278 -0.0159753
18.6338 131.5 -6.78697
-24.6466 119.143 5.2175
-20.7449 122.264 -5.14039
26.4007 132.683 -3.94709
17.7329 131.648 -8.17183
-16.8751 121.639 2.08006
-7.48653 126.154 -8.87446
18.5451 131.266 -5.14069
16.8 130.421 -2.94638
24.2759 132.04 -2.50052
18.7511 129.472 3.64739
5.48545 129.641 -10.9812
-18.8348 120.217 7.57992
-6.97023 126.62 -9.66099
-17.7587 121.656 2.05461
7.58627 125.478 10.9719
-19.0749 122.304 -2.12789
-22.3677 120.327 3.6285
4.82625 124.668 12.0486
-8.9993 120.816 15.7433
-18.2141 122.611 -2.11806
22.6832 132.732 -6.1102
-18.0998 123.202 -4.60207
-14.7618 120.521 11.3258
18.6938 129.732 3.75922
8.76684 130.953 -12.2775
-18.322 121.581 2.77782
-18.9974 120.396 7.56515
-18.9646 120.369 7.75867
-4.03297 127.728 -10.6939
2.43663 129.48 -12.0252
-17.2771 123.703 -5.87657
-23.7941 121.288 -1.41641
-21.6132 120.823 3.07985
17.5846 131.223 -4.02273
17.7455 131.278 -4.09002
-25.3858 120.74 -0.443435
-13.9833 125.046 -8.39153
-1.94183 123.026 13.629
-5.46419 127.352 -10.0908
7.964 130.842 -12.1882
17.3726 131.686 -6.18081
-24.4373 120.034 4.01175
-11.568 125.545 -8.02514
-18.107 123.051 -3.17946
-3.78411 127.921 -10.7039
-17.2348 121.792 3.6382
25.7125 133.088 -3.63893
15.9739 132.126 -9.34818
24.2893 132.32 -1.36375
26.4061 133.324 -3.71531
26.3942 133.309 -3.49276
-28.4795 119.621 2.44871
-22.155 120.859 3.48953
19.0526 129.774 5.47985
17.3926 132.101 -7.04008
22.344 131.7 0.104529
-5.79286 122.236 14.6046
-17.8169 122.127 2.74224
-16.7749 124.283 -6.13697
7.471 131.049 -12.046
-29.503 118.949 5.29695
15.695 131.659 -6.11395
-1.58334 129.092 -12.312
8.99385 126.694 9.90152
7.96688 131.269 -12.2578
-23.9264 120.11 6.05411
17.5075 131.954 -5.37251
17.7069 131.257 -1.90146
15.3325 131.527 -5.51014
-28.3587 119.296 5.41716
17.5994 132.88 -9.32654
24.832 133.349 -3.80878
-18.6558 123.222 -2.43581
0.403619 129.815 -12.9358
-17.7309 122.288 2.98207
-17.5856 124.301 -6.17779
-15.4514 125.229 -8.15636
17.478 132.939 -9.33679
-17.5854 122.382 2.91064
17.3302 129.203 7.90133
-15.7484 125.174 -8.08074
-17.1975 120.882 10.3116
-24.8655 119.844 7.1999
-19.1937 123.297 -2.69929
-29.8521 119.643 3.17696
-18.081 121.796 5.66723
7.87574 126.567 10.7993
24.0755 133.337 -3.58008
21.3478 131.81 0.771352
-19.5566 123.457 -3.375
18.7414 130.208 5.50863
14.8544 131.826 -6.01751
18.7203 130.267 5.39311
-6.56375 127.888 -9.99163
-17.252 122.439 4.11736
-24.7674 121.848 -0.822331
8.32674 126.913 10.3868
-17.3262 122.429 4.311
11.4335 127.671 10.1712
-19.0626 123.669 -3.24095
17.6375 133.009 -8.04407
9.16235 127.276 9.65908
18.6559 130.367 5.35813
-22.8161 123.196 -4.63597
-28.1337 120.637 1.7103
-24.6012 120.816 4.67486
-20.512 122.15 2.80265
-27.0212 119.896 6.45415
-29.6254 119.817 4.24864
14.4283 132.466 -8.19749
-17.8976 121.5 8.79287
23.9865 133.438 -2.57255
-19.1078 124.196 -4.86978
-24.0987 121.078 4.39718
-15.7136 121.559 10.9742
-18.6678 124.03 -3.50262
17.7612 132.756 -5.71343
-28.7403 119.764 5.94429
-17.1855 122.953 3.29653
-18.1942 124.265 -3.70723
3.05561 130.873 -11.8197
-25.955 120.357 6.67664
-17.6754 122.533 5.27531
-9.74002 122.274 14.8103
25.9019 134.231 -3.10116
-5.67956 128.582 -10.0059
17.7592 132.455 -3.20826
17.765 132.49 -3.35592
-28.3308 120.073 6.0479
-16.7642 121.681 10.8748
-28.9133 120.109 5.73262
16.1445 129.372 10.0245
7.09367 132.092 -12.0365
17.867 131.251 3.20957
-1.68626 130.074 -11.7877
16.2989 132.962 -6.2184
14.9104 132.629 -5.91253
-19.4746 124.393 -3.76687
5.79779 126.746 11.8292
8.8294 127.889 9.74541
-12.4786 126.831 -7.58972
17.3764 130.196 8.52622
18.0338 130.757 6.65156
-19.1796 124.734 -4.382
-22.301 122.106 4.58576
-18.7678 124.807 -4.21876
-23.7921 123.694 -4.20061
-14.5792 126.556 -7.72715
-0.923247 125.139 13.2807
-28.2396 121.569 1.3083
-12.7325 122.719 12.3123
-17.0143 125.656 -5.68691
11.12 133.135 -10.8604
-15.7684 126.098 -6.31265
19.8573 132.327 2.1627
-22.1063 122.177 5.24573
-7.67714 123.487 14.2968
15.1511 133.63 -8.75125
-28.9745 120.624 5.31397
-9.07008 128.049 -8.14868
-28.5413 120.573 6.33141
-8.04515 123.498 14.401
23.2946 133.77 -0.209971
-4.03614 129.623 -9.49436
14.5566 129.833 9.19605
2.66699 126.336 12.9767
-18.0914 123.182 5.86474
-19.323 125.188 -4.67383
-26.1745 122.647 0.00445373
-18.0749 125.568 -5.04244
-18.5082 123.532 4.03161
-18.8054 123.556 3.71051
-25.8509 122.905 -0.640938
-19.0222 122.745 7.28812
-24.2077 123.958 -3.75377
-18.5889 122.768 7.73001
-22.1462 122.149 6.93342
1.6564 126.196 13.1277
16.9976 134.329 -8.3845
-27.3558 122.323 0.774481
-14.0084 123.091 11.2336
14.8644 133.975 -8.92747
-19.0314 125.454 -4.85151
-25.2463 123.45 -2.07742
-16.804 122.65 10.5592
-11.7326 123.265 13.0557
-4.32902 124.787 13.9548
-18.787 122.944 7.52333
13.1966 133.959 -10.0126
-21.9119 122.403 6.85659
-7.77385 129.031 -9.00792
-18.8441 123.719 4.09746
-19.9241 123.616 3.53247
-9.35521 128.522 -8.0999
-28.1034 122.267 1.27724
14.8363 134.033 -8.23325
0.560675 131.694 -12.3497
24.7549 134.96 -2.06061
21.5067 135.348 -7.23528
-17.0329 122.948 10.0494
18.1089 134.782 -7.93576
-18.8234 123.84 4.21611
16.3342 133.984 -5.94
15.0323 134.284 -8.59195
18.0108 132.561 2.59288
17.345 134.689 -7.94507
0.628052 131.876 -12.342
-12.9524 127.701 -7.22081
25.0716 135.053 -1.43641
9.78943 129.402 8.75438
-25.6763 123.643 -1.51059
-18.6202 125.636 -3.34944
23.6045 135.679 -5.59454
23.6516 135.372 -4.07024
-28.4581 121.394 6.18653
-20.3291 123.827 3.57784
-12.0028 123.83 12.3926
16.6762 134.719 -7.97657
22.7504 135.726 -6.19338
-16.5053 126.88 -6.32471
-25.2015 124.105 -2.5377
23.1106 135.002 -2.37855
-17.9273 124.211 4.78401
18.0359 134.938 -7.21334
-27.7881 122.815 1.11243
-8.42584 129.294 -8.58835
23.2433 135.171 -2.46609
-29.3359 121.903 4.00982
19.8713 135.712 -8.36258
-23.4597 125.094 -4.46345
7.42766 133.681 -11.8808
-18.7669 123.579 7.53207
-24.7052 122.12 8.19689
18.0253 132.974 2.71813
-5.79301 125.089 14.3314
-11.9602 124.163 12.2236
3.23363 127.51 12.7357
-27.588 121.929 6.59031
-1.88817 126.293 13.4797
-13.2152 128.207 -7.15465
23.8687 135.393 -1.38902
13.3669 131.073 7.8675
-2.63441 131.416 -10.4522
-10.5786 124.424 13.6307
24.4931 135.487 -0.877168
-24.0305 122.571 8.26703
-14.5022 128.044 -6.99008
-21.3971 123.411 7.25638
-14.4748 124.157 11.0625
24.0292 136.326 -4.97257
-17.9297 124.971 3.77654
15.711 131.639 8.13728
-14.6052 124.163 11.0357
-5.59249 130.628 -9.43008
-11.261 124.564 12.7391
13.6946 135.021 -9.44911
-28.7681 122.791 2.74206
-18.6167 126.351 -3.04204
22.765 134.792 1.21438
-18.1143 126.487 -3.12696
22.7629 134.813 1.19514
-18.9762 124.563 4.97579
-13.5837 124.462 11.1889
-16.6786 123.952 10.4002
18.2742 133.603 2.30134
4.95531 133.539 -11.3508
15.3679 135.377 -8.75204
-26.0986 122.571 7.1947
18.341 135.968 -8.21201
-20.5065 126.183 -3.50133
17.6091 132.98 4.9811
-0.829474 126.997 13.4234
-10.5375 124.866 13.4375
19.7904 136.501 -8.54105
-29.0963 122.722 4.25708
-25.3451 125.022 -2.31706
17.5645 135.925 -7.69105
-28.8213 122.735 4.85542
-17.4147 125.717 2.99977
-23.2143 123.603 6.80752
16.8171 135.767 -7.58186
-16.7415 125.262 6.10482
-25.0142 122.957 8.21908
-26.0937 122.908 7.33417
7.96819 130.066 9.85481
-18.355 125.069 5.45881
-7.523 125.663 14.1814
-16.7471 124.8 8.67391
-15.5315 125.872 4.98891
3.96789 133.774 -11.15
1.01119 133.277 -11.924
-7.74111 125.672 14.166
-8.27181 130.622 -9.31375
-16.1005 125.938 4.39358
9.35244 135.083 -11.2927
12.3664 131.733 7.52369
17.4439 133.429 5.30569
15.7773 135.89 -7.37909
24.7249 137.104 -3.58798
-22.5323 124.137 7.00516
-15.2414 128.889 -7.25044
-19.3602 125.386 4.75736
6.64718 129.969 10.9809
17.917 136.765 -8.63395
0.297146 133.41 -11.5305
-24.8672 125.853 -2.86498
-15.676 126.591 3.55017
-26.7421 123.382 7.14796
-0.74823 133.26 -11.3249
23.8686 136.51 -0.543034
25.1559 136.861 -0.807635
-24.4273 126.241 -3.48455
-17.0422 126.513 3.10707
2.36574 128.855 12.7617
11.3502 132.02 7.53909
8.11939 130.865 9.51879
-10.5009 125.941 12.9276
-26.1597 123.58 7.56803
-15.6118 125.902 7.92003
-20.1092 125.137 6.78694
-23.3818 126.836 -4.37572
-27.4208 124.943 0.376632
17.7382 134.321 4.42516
3.3021 129.308 12.6282
-28.5359 124.242 2.81814
-28.4053 124.454 2.25722
-4.41421 132.366 -9.19967
21.953 136.077 1.26127
-24.7106 126.459 -3.04631
-19.691 125.468 6.81548
17.7324 134.47 4.31787
19.3254 137.564 -8.25385
25.2701 137.297 -0.629168
10.6517 136.044 -10.1408
-5.52841 132.039 -8.47581
-25.574 123.966 8.00659
-6.28243 127.039 13.9934
-8.97468 131.468 -9.32926
16.5777 133.698 7.25409
1.47317 134.321 -11.3274
-15.6019 126.196 8.44598
-21.1577 127.676 -4.19967
-15.6146 127.416 2.85199
7.76397 131.249 9.80942
8.42897 131.569 9.08588
3.89748 134.917 -11.1121
-18.7174 127.934 -2.28096
-9.54454 126.594 13.6002
-9.5306 126.649 13.6004
-28.1793 124.188 5.4693
15.2095 137.274 -9.56551
-20.4112 125.564 7.38708
24.1257 138.222 -4.46764
3.97644 135.144 -11.1018
-19.2702 128.38 -4.01165
9.74654 136.404 -10.6573
12.836 136.805 -9.27089
-18.5169 126.305 6.58856
-15.3384 126.736 7.93685
-27.631 124.268 6.55341
-15.5358 126.235 10.1929
12.4045 133.272 6.8593
-28.5281 124.55 4.40676
-11.8795 131.278 -9.29742
-14.715 127.739 4.28268
-15.3734 126.307 10.2392
-26.8527 124.385 7.16193
9.01821 132.233 8.52902
21.7452 138.346 -6.41635
11.0361 136.694 -9.78529
-20.6481 128.222 -3.62925
-2.82664 133.593 -9.6172
-18.6963 126.482 6.72001
12.3377 137.04 -9.35346
1.48801 134.92 -10.8958
14.1885 137.551 -9.5765
13.0321 133.751 7.04414
16.8465 138.17 -9.38739
24.0081 137.735 0.19841
-18.5792 128.893 -3.0832
-0.219483 129.596 12.9486
-18.5859 128.713 -2.20348
-17.2082 127.598 4.40495
2.22056 135.426 -11.4797
-12.9484 131.399 -8.69831
17.2006 138.179 -8.49153
17.0088 135.254 4.87872
-14.7859 126.906 10.3454
-18.0594 127.054 6.2883
-25.7441 126.894 -0.934581
-16.8494 127.983 3.36963
-27.7181 124.997 5.85289
0.984968 130.066 12.6146
-20.6375 128.852 -4.3433
-13.639 128.278 5.6705
24.3309 138.932 -3.91581
4.34144 130.942 12.2088
15.0492 137.891 -8.56535
-14.7688 127.526 8.22545
24.3507 138.172 -0.0206206
2.39644 130.576 12.296
-20.4334 129.086 -4.55264
-9.58162 132.573 -9.32456
2.64364 130.695 12.2717
-10.9472 132.226 -9.06138
24.412 139.042 -3.54324
-12.2833 131.945 -9.10513
-13.2043 127.386 11.1839
0.338981 134.999 -9.83937
-28.2073 125.485 4.45439
-26.1804 126.976 -0.270304
15.9364 138.254 -8.31562
-6.40505 128.583 13.1316
-25.8147 127.146 -0.535939
15.8685 138.271 -8.33101
-18.3061 129.315 -2.57323
-17.3 128.046 4.44584
22.8141 138.165 -0.243011
14.152 138.392 -10.1619
12.8962 138.078 -9.89379
-23.387 128.667 -4.21311
-14.7106 128.92 3.82391
16.6467 135.84 4.61875
-0.389148 130.199 12.9154
-16.7227 130.377 -4.817
2.33367 131.126 12.1783
11.7422 137.918 -9.39567
1.67031 135.932 -10.5492
16.8029 138.97 -8.71901
23.7905 139.614 -4.26262
6.55513 137.23 -11.245
-17.9405 129.831 -2.54227
3.01296 136.46 -11.1619
12.7082 138.452 -10.1584
18.352 137.17 2.75188
11.192 138.194 -9.46225
-11.3615 128.725 10.8541
-13.6146 132.266 -7.88912
24.1089 139.405 -1.36565
6.8356 132.969 10.4948
23.5492 139.946 -4.30654
-13.4873 129.143 7.04401
20.2384 139.689 -6.47387
-20.1832 130.26 -4.91033
-27.4212 126.388 5.61561
-9.94326 128.949 12.2288
-5.48018 134.354 -8.14351
16.6287 139.298 -7.84007
11.4806 135.09 6.28494
-16.4965 131.285 -5.25948
12.1443 138.852 -10.1652
-11.8507 129.518 8.04779
19.6979 139.881 -6.83428
6.63606 133.161 10.6678
-12.7464 129.971 5.25223
11.8738 138.84 -10.0369
-7.59421 134.186 -8.86102
-9.83855 129.173 12.1106
-0.0800241 135.942 -8.98315
-23.0269 127.422 6.49411
11.28 135.232 6.32282
-18.0016 130.652 -2.85168
-14.8591 131.941 -5.52709
6.93827 133.458 10.3162
16.0709 139.641 -8.65236
8.26443 138.294 -10.4862
4.62338 137.72 -11.3279
24.2497 140.072 -1.65486
-12.8788 133.121 -8.34938
23.4919 139.48 0.319982
11.3112 138.915 -9.81514
-22.5528 127.678 6.77366
3.73377 137.504 -11.1746
-24.8712 127.182 6.88128
4.19562 137.671 -11.2614
-11.9959 129.494 9.67406
-10.4697 129.546 11.0794
-24.8774 127.201 6.8777
21.092 140.26 -5.33115
-25.3 128.653 -0.101266
22.1289 139 1.8127
23.3675 139.612 0.285898
3.64975 137.744 -11.1945
-21.2917 130.677 -4.38845
-12.6216 130.649 5.00595
9.20634 135.032 7.64343
-5.39859 135.171 -8.12552
-0.532021 136.379 -8.58766
-17.2811 131.217 -2.06217
-26.7395 127.333 6.07972
-24.0041 129.611 -1.54612
5.23244 138.344 -11.3736
-23.3289 130.011 -2.48246
-6.88878 130.575 12.1919
2.0193 137.356 -9.8798
19.2018 138.605 2.69507
1.62104 137.191 -9.15235
-10.4946 130.944 7.1242
7.30593 134.399 9.80046
-17.3255 129.437 7.03741
15.6981 137.684 3.46
-2.81096 135.931 -7.7211
-26.1796 127.615 6.38395
5.12319 138.545 -11.4378
-11.0432 131.331 5.33474
8.90562 135.379 7.8634
-3.53022 135.84 -7.2662
0.757131 132.626 12.1926
15.7707 137.92 3.40435
3.47649 133.304 11.9551
-21.5716 128.7 7.15938
-0.822258 132.303 12.5515
23.1261 141.269 -3.89452
-15.6599 132.744 -4.69063
-9.23781 135.276 -9.44893
-15.7773 130.806 4.56773
6.23687 139.285 -11.3817
-20.3808 129.221 7.43563
10.8258 140.125 -10.3704
-27.1898 128.458 4.03529
21.7488 141.33 -4.31546
-6.99822 131.8 9.76382
11.1619 136.731 6.04685
6.2832 134.651 10.672
20.047 141.385 -6.09113
-7.49724 135.775 -8.89589
-0.0434165 132.888 12.34
18.7106 141.305 -6.99104
14.5815 137.917 4.41144
-8.08873 131.983 8.27494
-18.7859 132.282 -4.19376
-27.0282 128.805 3.2846
15.7821 141.23 -9.42932
23.2475 140.424 2.3811
7.53989 135.289 9.75145
16.2782 141.393 -9.21864
23.6592 140.679 1.88879
-25.3733 128.567 6.65151
-0.134101 137.45 -8.05469
-16.3612 130.861 5.4989
10.3028 140.323 -10.37
-15.3286 131.318 4.54276
-23.1128 131.094 -2.30246
-0.905819 137.317 -7.83676
16.1708 141.543 -9.52542
-4.30238 136.605 -7.6364
2.3828 138.566 -9.48836
21.3931 141.742 -4.18318
-2.15525 137.096 -7.26628
5.3344 134.815 11.3628
-5.59848 136.586 -8.18187
0.831198 138.066 -8.17735
-7.64322 132.954 6.77831
13.5907 137.936 6.05586
-26.6211 129.013 5.51139
11.9498 141.211 -10.5378
4.82098 134.848 11.5172
-26.0514 129.985 1.71558
8.01353 140.372 -10.5746
-5.30285 133.442 7.63199
9.91693 137.198 6.20706
-4.60763 133.288 9.2017
19.3056 142.065 -6.36496
21.6408 140.672 2.5749
-9.58457 132.69 6.84549
-25.7625 129.171 6.25053
24.2926 142.111 -1.19949
-7.73661 133.28 6.26957
0.921869 134.181 11.6534
-17.535 133.124 -2.73128
9.72685 137.384 6.30295
-25.2859 130.703 0.649766
18.44 142.209 -6.81591
-0.681376 133.826 12.0386
-0.193674 133.985 12.0096
-19.3938 130.695 7.36644
-4.54759 137.38 -7.85748
-14.8015 134.384 -4.57899
-1.60604 137.903 -7.04731
22.0465 141.115 2.88136
-2.60912 133.933 10.3341
-13.2165 135.174 -6.50051
24.3946 142.409 -0.348051
-26.7355 130.016 3.66855
-0.645106 134.131 11.9442
2.78188 139.574 -9.67689
19.2208 142.589 -6.23964
23.4922 142.763 -2.22994
3.32823 139.889 -9.97022
15.8761 142.181 -7.42656
-22.0815 130.541 6.78447
9.69747 137.839 6.28296
-17.733 131.497 7.02043
9.93618 137.99 6.08558
-17.3744 133.836 -3.26657
18.338 140.436 3.87584
19.6456 140.846 3.36669
17.9632 140.422 3.73205
16.0363 142.626 -8.43211
19.887 141.013 3.23182
23.4901 143.019 -2.04658
-8.57174 137.25 -8.57454
22.4976 141.83 2.83411
14.7717 139.632 4.95017
-8.48797 137.309 -8.55388
6.89813 141.341 -11.0798
4.58207 136.072 11.1549
-13.7249 133.441 4.51155
12.7564 142.573 -9.9943
8.11962 137.696 7.75771
-0.0959825 134.983 11.7226
-16.2956 134.629 -3.5046
7.8176 137.472 8.64455
7.1736 141.601 -11.1288
7.87605 141.71 -10.8484
-20.1398 133.947 -4.16622
-4.8298 135.482 4.77721
-10.4526 137.038 -8.21218
-6.11888 138.034 -8.18685
23.7702 143.247 -0.995879
8.26683 137.952 7.37281
15.8263 140.433 3.8775
-16.8282 134.534 -2.94102
-16.0403 134.926 -3.62188
22.2127 142.15 3.04913
7.54419 137.525 9.11717
-19.2334 134.248 -3.70406
2.97303 135.959 11.6602
-23.8871 132.546 -0.574049
20.3135 143.48 -4.86442
-0.181342 135.713 9.70866
11.9645 142.782 -10.3034
15.8252 140.608 3.83866
3.55887 136.234 11.3882
21.6907 142.074 3.3818
-15.6175 135.213 -3.78229
-8.50819 137.786 -8.23003
7.46348 137.709 9.03852
0.480029 135.805 10.7046
-1.71609 135.876 8.10592
-26.1485 131.122 4.88034
9.76992 142.601 -10.592
-1.18741 139.232 -6.45945
19.8282 143.784 -5.46737
16.2405 141.136 3.28225
14.7814 140.576 4.47775
16.1626 143.74 -8.53854
-0.826595 136.235 8.61215
1.0673 140.076 -7.18391
-1.15453 136.222 8.41253
3.6359 136.714 11.2252
7.39936 138.175 8.56407
10.2713 139.525 5.69856
-25.3537 132.018 3.18471
5.23622 141.757 -9.83539
-20.2671 132.347 7.06389
-3.44599 136.681 4.63203
-12.0018 137.195 -6.69771
-22.2753 131.988 6.82439
-23.7303 133.356 -0.974136
3.3389 141.162 -8.75794
3.13764 141.129 -8.56611
-17.4772 135.247 -2.87893
9.39211 139.377 6.37381
-2.29484 136.699 6.56066
-14.1767 136.634 -5.53364
0.228116 136.771 9.02089
-22.8384 134.068 -2.56477
-3.89195 137.017 3.63495
-21.7366 134.52 -3.47734
-10.3348 135.568 3.78227
-19.336 135.05 -2.80653
10.5044 140.09 5.24842
-23.2652 132.291 6.13322
-3.1999 137.173 4.59191
2.56028 141.191 -7.88118
19.8473 144.523 -5.07703
18.4348 144.265 -5.3104
-8.90751 138.547 -7.44159
-20.7929 132.726 7.09559
-4.76888 137.116 3.65164
7.40157 142.922 -10.501
-16.9223 133.642 7.39305
8.72008 143.27 -10.2591
-23.8552 133.685 0.106739
3.6559 141.758 -8.40331
-8.50009 136.295 4.26119
-22.8758 134.503 -2.4677
-23.8689 133.55 0.98289
-0.403758 140.444 -6.33945
5.79408 138.465 9.94121
0.650427 140.917 -6.6208
-16.6733 136.243 -3.09856
4.15969 137.978 10.8868
-8.18821 139.053 -7.03231
23.3318 144.642 0.111782
-0.115113 140.753 -6.36058
-23.3011 134.577 -1.97492
-11.9076 138.082 -6.24693
16.4686 142.406 3.45952
2.7495 141.684 -7.51882
20.6592 143.295 3.81599
-1.66448 137.676 6.73184
22.3405 144.225 1.54326
-6.79192 139.53 -7.13677
-22.9239 132.965 6.53575
1.88286 141.523 -6.93974
-6.42729 139.716 -7.21441
10.3997 144.188 -10.0052
-23.894 133.014 5.88176
19.3484 145.117 -4.79897
5.87797 139 9.71728
20.7288 143.729 3.61761
13.1767 141.909 4.18913
3.38966 142.276 -7.48222
-23.9573 134.271 1.02975
13.9231 144.995 -8.9669
20.6822 145.242 -3.02213
-9.84461 139.045 -5.92386
-4.41396 138.203 3.68523
15.233 145.269 -8.31466
-13.506 135.608 6.45067
-8.58787 137.294 3.80588
5.67891 143.257 -8.86808
-21.7134 135.746 -2.69551
1.37836 141.841 -6.54067
20.4402 145.447 -3.04834
-7.50485 139.843 -6.25835
-23.6274 135.074 -0.863067
-12.333 136.286 5.54421
13.06 142.45 3.71786
-24.5766 133.806 4.51275
8.41397 144.38 -9.69974
16.1864 145.352 -5.57868
-22.1044 135.966 -2.19905
15.2852 145.631 -7.75454
17.1365 145.367 -4.49806
19.0247 145.803 -4.50892
4.00554 139.141 10.7496
15.5048 145.612 -7.15559
-23.9403 134.74 2.0045
16.1815 145.396 -5.33358
-23.7305 133.887 6.21196
-11.7916 137.012 4.55815
-22.6219 134.104 6.88161
1.19016 139.174 8.36318
-0.332935 142.038 -5.79529
14.092 145.983 -8.53814
-0.336475 139.368 7.06921
21.5053 146.124 -1.28616
21.0549 145.223 2.53306
21.9537 145.873 0.883379
-13.9041 139.229 -5.64058
6.99814 140.985 8.29647
-22.0199 136.633 -1.52954
1.74849 143.029 -6.21171
3.30656 139.971 9.63261
-23.5075 135.958 0.14364
-2.42954 140.119 3.06268
-13.0796 137.048 6.6503
-14.1269 136.76 6.91011
-9.16292 138.707 3.32104
-8.89813 138.801 3.29416
3.01492 140.252 9.20357
1.81284 143.298 -6.12991
12.8504 143.698 3.80954
-16.7885 136.169 7.6631
2.02707 140.302 8.25717
-20.0015 137.526 -1.91685
-17.2498 138.161 -1.91506
-10.8586 138.247 4.46778
10.3685 143.069 4.39771
19.9251 146.766 -2.69781
8.3404 145.574 -9.12825
-7.36892 139.412 3.3312
-10.6167 138.461 4.36458
18.16 146.819 -4.02086
-18.1097 136.097 7.85578
4.34712 140.72 10.0406
5.25337 144.673 -7.20182
16.0528 144.656 4.3395
7.45965 142.023 7.68166
-22.9668 136.82 -0.0842225
-8.08173 141.335 -5.29058
11.0951 143.684 4.0534
0.133882 140.663 6.63111
-23.9888 135.538 5.63544
4.94364 141.295 9.45321
8.53514 142.746 6.68395
20.0333 147.233 -1.7314
20.7784 147.118 -0.366543
14.0274 147.217 -7.78252
11.7777 144.189 3.97102
-11.7451 138.73 4.74126
-11.6562 140.894 -5.10747
-13.7027 140.393 -4.68671
-5.69441 142.368 -5.20676
3.75225 141.383 9.27623
-11.4103 141.103 -5.04536
13.234 144.799 3.82211
19.0445 147.471 -2.4365
20.0219 146.842 1.78168
-3.58546 143.201 -5.96324
-15.6354 140.119 -4.28555
-18.2465 139.034 -1.97122
-22.1718 136.233 6.93708
12.1453 144.707 3.95055
-15.7735 140.106 -3.93409
2.62084 141.744 7.79816
18.2811 146.115 4.02765
-20.9172 136.554 7.49142
-3.85516 143.279 -5.79396
-8.21625 142.157 -5.06899
20.3927 147.351 0.98862
-12.8148 141.055 -4.51148
-23.3608 136.446 5.9077
12.4776 147.601 -8.11421
5.31798 142.401 8.61768
2.18353 144.87 -5.81551
-11.8499 139.474 4.55568
9.24543 144.143 5.11177
-23.6512 136.909 4.37937
8.77735 143.993 5.55861
-3.13015 143.79 -5.83885
1.25056 142.729 3.71588
-1.16724 142.446 2.57319
-23.3668 136.875 5.19403
-18.4139 139.477 -1.67134
19.0371 147.938 -1.57926
-18.8013 139.433 -1.5903
-15.7027 140.584 -3.60764
19.5368 147.503 1.30003
14.9334 145.786 4.44678
-16.7932 137.913 7.87732
19.6724 147.723 0.644049
5.81039 143.026 7.9797
1.8846 145.127 -5.6637
-14.0146 138.773 7.18846
7.88452 146.891 -7.28749
-2.10196 144.252 -5.41261
6.79837 143.528 7.43347
6.64153 143.492 7.50099
9.21789 144.669 4.95753
-8.16306 142.932 -5.17597
-5.88642 143.441 -4.98941
1.34716 142.84 5.74037
-4.17529 142.301 2.64109
-22.4514 138.546 0.970562
12.1358 145.737 3.98273
1.56555 143.155 4.97282
-18.8029 137.99 7.57225
15.4101 148.252 -3.8202
19.1613 148.42 -0.663589
3.38514 146.075 -6.01978
1.50712 143.128 5.89143
-15.4568 141.359 -3.52542
-7.43124 141.488 4.32025
17.8527 147.621 2.4322
-8.80832 141.225 4.28158
-22.8845 137.784 5.548
-7.95617 143.495 -5.27001
-7.84829 141.496 4.35305
-11.4094 140.756 4.14631
-21.3836 137.998 6.85325
-6.53804 141.914 4.27637
-9.97241 143.162 -5.03702
12.4844 146.322 4.07023
15.4382 148.672 -3.58301
-2.03812 143.586 1.72189
-15.1686 141.543 -2.28194
2.62829 143.619 6.81212
3.82819 146.687 -6.0792
-8.36275 143.777 -5.26781
11.716 149.031 -7.83336
-14.196 139.955 7.27553
17.213 148.214 2.31488
-11.1075 143.39 -4.84198
-6.51798 144.481 -4.98501
-19.8052 138.872 7.12331
-15.2609 139.827 7.54937
2.35352 144.368 5.05803
-16.0931 139.648 7.70424
-12.6495 143.098 -4.56492
17.5061 148.752 0.854973
-17.1787 139.511 7.63711
4.46473 144.239 8.43273
-3.21474 144.021 1.68314
-4.72571 143.549 2.41208
-15.417 142.481 -3.53024
-17.3155 141.532 -0.874304
-18.6224 139.521 7.23383
-22.6311 139.332 3.95171
-10.8871 141.964 4.08313
-21.9183 139.974 1.87186
11.2443 149.569 -7.57559
-15.3377 142.423 -2.25218
15.795 148.256 3.68294
16.3923 148.787 2.02003
-17.3549 141.774 -0.824765
13.8693 149.743 -4.69441
-1.3159 146.359 -4.77019
15.4108 149.702 -2.65424
16.1887 148.869 2.12902
-2.51972 146.168 -4.87528
2.24309 147.362 -5.4054
16.6267 149.363 0.790443
-16.0552 140.486 7.69966
-13.584 141.316 6.54733
11.6532 147.568 4.2574
4.2751 145.728 5.34513
-21.7613 140.528 2.3264
-3.78081 146.148 -4.5496
0.431035 147.289 -4.92192
-6.89739 143.77 4.08425
15.9015 149.55 1.28665
4.62457 146.178 5.13606
8.7585 149.732 -6.72915
7.52727 149.423 -6.57123
4.52227 146.106 5.73545
8.7761 149.797 -6.72128
16.5495 150.193 -0.208447
13.0156 148.4 4.48203
-6.2594 146.305 -4.81782
-9.949 143.536 4.29356
7.71549 147.271 5.68277
13.2854 148.856 4.36038
-6.63062 144.631 3.41884
14.7719 150.644 -1.76853
14.8795 149.905 1.87289
-16.3194 143.437 -0.701494
14.9568 150.009 1.67581
0.378524 148.15 -4.76479
14.8312 150.108 1.67908
-13.4152 144.86 -3.35853
15.0086 150.356 1.21725
-11.7005 145.637 -4.48567
-5.92535 145.501 2.43948
14.4895 150.936 -1.13601
-14.2985 142.784 6.87562
-11.4085 145.931 -4.61472
-6.79075 147.064 -5.00012
-18.0905 141.919 7.10116
-15.951 144.066 -0.579242
8.48129 150.821 -6.22022
-13.3473 145.261 -3.28004
-19.7971 142.957 0.704673
-12.225 143.84 4.92558
-1.84193 148.169 -4.09482
14.2875 150.641 1.52327
14.6496 150.905 0.716294
13.8046 151.21 -1.38351
13.9337 150.501 2.07045
12.8436 150.026 3.33322
12.2314 151.437 -3.7866
13.4118 151.335 -1.73631
-12.7566 143.875 5.45
-11.4263 146.347 -4.58313
13.2999 150.403 2.65035
-15.5512 144.678 -1.04963
-20.7213 142.429 4.12937
-20.5884 142.977 1.75398
5.98046 147.963 6.58677
12.8883 150.357 2.96959
-0.544733 148.91 -4.34783
13.8909 151.32 -0.328842
-19.667 142.537 5.94539
3.83213 150.412 -5.17288
11.4716 150.356 3.92745
0.309101 149.73 -4.40833
10.7633 150.227 4.49782
-0.995266 149.428 -4.12103
-11.1853 147.166 -4.22571
-20.1648 143.612 2.8563
12.374 151.885 -1.36948
8.57423 149.846 4.61799
0.762946 150.073 -4.44385
-14.7675 145.887 -1.21739
11.1575 152.138 -2.99416
-10.5192 147.605 -4.68716
-8.07201 148.188 -4.73122
-14.8924 145.878 -1.04051
-19.0027 144.555 1.27405
12.1401 151.352 2.57999
12.7126 151.901 0.661156
4.27293 151.24 -5.03734
-19.0538 143.718 5.47436
-11.9222 147.302 -3.37717
6.78924 151.92 -5.01138
12.4834 151.983 0.85345
9.35489 152.484 -4.11612
