ply
format ascii 1.0
comment Created by Open3D
element vertex 1729
property double x
property double y
property double z
end_header
13.9683 137.985 10.3325
19.6211 112.879 8.88504
-0.418794 139.802 5.60737
-19.55 100.252 -6.32636
19.6146 112.818 8.85271
18.4088 127.489 10.4165
19.4352 121.876 10.0075
-18.62 88.7715 -7.62391
-20.982 106.803 -6.00114
-12.0356 150.505 2.97701
-5.94294 140.629 3.71135
-8.19034 140.317 2.86992
-17.7496 147.248 0.515738
-20.0748 85.7547 -8.61272
-18.192 121.259 -3.20875
-8.53851 140.679 2.73572
-22.6723 122.146 -4.63519
-21.6822 137.657 -2.2288
-21.5534 108.464 -6.14874
-22.8636 131.062 -3.54721
-17.6106 120.338 -3.21069
-20.0272 84.0333 -8.96559
13.5892 138.395 9.94585
16.8403 137.547 10.9164
-21.9713 125.214 -4.12192
-21.6737 111.388 -5.9029
-18.9609 88.3275 -8.09615
18.9133 129.192 10.4387
-21.2681 108.365 -6.22475
21.839 89.3988 6.05085
8.82352 138.368 8.18346
3.50632 138.381 6.32722
-18.9222 87.2014 -8.31477
-19.8416 120.86 -4.13092
-17.6842 87.0488 -7.95875
-21.7296 122.607 -4.55468
-19.8625 104.16 -6.40509
-3.2898 141.786 4.38457
-19.9649 121.06 -4.17954
-16.5949 121.117 -3.01526
-19.6303 101.417 -6.72632
-6.14154 141.794 3.36757
-21.9509 124.659 -4.39289
-19.9468 116.666 -4.78908
-22.174 122.857 -4.72506
-23.5759 129.532 -4.30994
-6.06273 141.525 3.33196
21.555 95.0593 6.55798
-18.6755 88.3417 -8.25167
-1.07441 141.215 4.93693
-21.7816 137.063 -2.75603
-22.3611 136.422 -3.04973
-16.8897 85.9493 -7.98851
-17.7914 91.7332 -7.52606
15.767 138.774 10.3811
-17.9134 123.44 -3.30758
-19.7446 105.082 -6.43282
-19.4131 86.2544 -8.86963
-18.197 145.38 -0.468934
-19.4284 120.959 -4.21303
-2.37589 141.824 4.47432
-0.377182 141.108 5.06452
-18.6241 127.321 -3.08726
-18.1742 122.905 -3.53799
-18.3946 123.063 -3.61426
-17.4581 85.4587 -8.37668
20.1048 114.563 8.4804
-18.0672 86.377 -8.47008
-17.7028 91.4212 -7.67091
19.841 117.572 8.7757
17.3262 137.926 10.6596
-18.3793 127.696 -3.01959
-18.3402 129.601 -2.74942
-17.7363 85.7221 -8.47584
-21.3629 125.061 -4.4187
-19.553 98.2597 -7.42449
-21.8325 115.989 -5.81374
-16.4503 87.8171 -7.76875
-19.1028 87.0318 -8.82906
-17.2922 147.416 -0.050659
-19.2401 121.05 -4.29194
-18.1025 131.789 -2.45334
-22.4251 132.689 -3.82635
-18.4609 126.782 -3.26804
17.6157 137.625 10.6136
-18.5628 126.994 -3.28605
18.8588 126.848 9.55293
-19.1345 86.1427 -9.05741
-19.1212 121.136 -4.3256
-17.6682 133.651 -2.1385
-20.8625 127.562 -4.07243
-19.5678 103.155 -6.93028
-21.3486 126.505 -4.39573
-20.9609 113.274 -6.05229
-21.2578 110.96 -6.46898
-18.3868 126.287 -3.417
-21.5988 124.498 -4.77673
-6.48177 142.745 2.88314
-9.5585 146.577 2.30022
-16.2046 87.0489 -8.03906
-17.035 84.1498 -8.71995
-19.3821 124.253 -4.11202
-18.9771 121.585 -4.35655
-20.2736 82.9711 -10.0243
-8.84263 145.486 2.34775
22.5056 78.8361 4.12152
8.33778 139.385 7.41047
-17.662 118.917 -4.31043
-19.1521 121.056 -4.54968
19.9321 101.75 6.29152
-11.3142 151.55 2.2305
19.8067 117.325 8.31197
-19.2428 106.243 -6.65009
-18.7559 85.5544 -9.28646
-18.857 127.265 -3.68548
-20.4183 116.638 -5.67482
-18.944 140.124 -1.9982
-18.0842 125.918 -3.63071
-16.5751 83.0415 -8.9136
19.9898 111.968 7.58147
21.6403 93.1417 5.60015
-21.2853 124.55 -4.93505
-18.9679 121.235 -4.58901
21.8078 95.8175 5.9988
20.2056 123.457 9.16369
-22.2226 132.152 -4.2701
-7.96413 144.078 2.23431
-19.0825 121.935 -4.59081
-19.4456 119.896 -5.00814
20.6189 106.624 6.95126
20.0886 119.404 8.48772
-0.112506 142.138 4.60114
-17.228 90.6998 -8.24602
20.2093 108.605 7.05784
21.3106 98.1159 6.01746
-17.0478 82.4018 -9.31547
-17.8859 87.6218 -8.90531
-20.2863 125.702 -4.58662
-17.9105 120.924 -4.42419
19.3608 130.664 9.71602
-20.2517 96.694 -8.52187
-16.6671 92.9936 -7.79226
-19.9633 117.799 -5.58215
-20.0969 136.397 -3.14132
20.4922 107.154 6.86102
-17.2986 80.5946 -9.76026
-9.07095 146.172 1.92358
-16.9379 144.765 -0.975447
23.0113 81.9033 4.27829
-18.721 87.3877 -9.34683
10.5458 139.485 7.76315
-15.7391 81.7972 -9.09391
-18.1604 124.601 -4.1431
-18.9728 126.221 -4.20443
19.7883 102.178 5.88503
-19.1725 119.727 -5.16708
7.9504 139.955 6.90003
-18.0544 124.743 -4.11613
-20.715 132.016 -4.05127
-14.9017 87.4316 -8.07821
-18.9508 139.122 -2.48813
-18.9506 123.446 -4.62471
-17.9946 124.615 -4.14113
-14.4345 88.2164 -7.84384
-18.0797 126.132 -3.98912
22.111 91.4937 5.1591
-19.5946 125.953 -4.54449
3.99607 140.329 5.50861
-18.9929 138.613 -2.64305
-14.5469 87.4254 -8.03358
-10.6395 151.693 1.99724
-16.6671 144.051 -1.12121
20.3058 108.881 6.84734
-18.9089 125.292 -4.43724
-19.1734 123.905 -4.71737
-21.1891 128.981 -4.73097
-22.1524 128.343 -5.15972
22.5268 80.3009 3.72407
20.2152 125.058 8.97638
-18.0359 124.872 -4.21787
-14.7818 86.5423 -8.30148
-14.961 85.5535 -8.49789
-17.1551 138.679 -2.07492
-7.59995 144.387 1.93712
-16.3663 79.1995 -9.90932
-20.6129 112.64 -6.85265
-4.4636 142.421 2.73031
19.9934 116.294 7.59926
-18.3994 100.848 -7.73025
2.65828 140.262 4.84136
-18.6006 128.904 -4.04459
-16.8171 88.2807 -8.94265
-15.9873 147.404 -0.673569
-18.6295 138.615 -2.77523
-18.93 95.5994 -8.7024
-15.2934 148.761 -0.268106
-19.1707 121.39 -5.32158
-18.6679 102.462 -7.71712
20.0269 105.33 5.98914
-19.1287 135.291 -3.45054
-18.6181 98.0484 -8.32119
17.1159 140.263 9.68379
-18.0986 125.276 -4.50522
18.8599 137.579 9.8664
20.159 124.913 8.59386
19.7875 126.141 8.61428
18.9561 135.905 9.63812
19.9514 118.439 7.61398
-16.4956 139.276 -2.12536
-19.3563 131.666 -4.13933
-18.6816 135.268 -3.45228
-18.6456 135.292 -3.44078
-16.8638 135.872 -2.75297
22.7729 84.0553 3.87442
-15.5667 78.962 -10.0132
-15.7242 147.611 -0.81398
-9.83817 151.236 1.70205
-17.6608 130.203 -3.84257
19.8023 122.597 7.9977
-3.88611 143.02 2.59862
-20.9852 116.616 -6.86614
22.1928 93.3734 4.83933
-19.2136 124.607 -5.19513
22.6868 87.4165 4.18643
-18.1729 124.916 -4.82774
22.5014 90.8994 4.56609
-21.0942 117.117 -6.94215
-15.9405 91.9785 -8.57441
19.1634 134.936 9.29686
-15.7223 92.3726 -8.47638
19.1711 134.898 9.27311
-16.9721 87.9322 -9.55349
15.7166 141.542 8.94215
-16.2475 138.645 -2.46013
-19.0066 122.412 -5.61027
-20.099 115.638 -6.90319
-13.0792 86.2263 -8.46844
8.34517 141.551 6.38203
22.8831 86.5891 3.95183
-18.4919 123.12 -5.35571
20.2571 99.3904 4.76303
-19.3434 114.346 -6.85258
-16.0237 139.643 -2.29403
-17.1857 135.942 -3.2531
19.3 135.227 9.20759
-17.7864 133.979 -3.78186
2.60094 142.476 4.358
23.2611 79.837 3.00121
-19.6127 133.739 -4.49176
23.3252 80.6968 3.11736
19.9275 117.474 6.89402
20.3088 115.51 6.75914
18.3793 139.229 9.28963
17.0508 141.902 9.12867
-18.9878 96.2115 -9.48487
-18.5301 130.909 -4.65181
-20.5192 129.715 -5.50037
20.455 98.7933 4.41318
-10.2896 152.234 1.03878
-17.6892 101.235 -8.40644
-15.8471 89.179 -9.41163
23.4826 79.6827 2.84207
-14.3013 80.9658 -10.0053
15.6884 142.097 8.5769
-18.4192 106.123 -8.03228
-14.6322 89.9243 -8.93718
-1.74778 144.118 2.80051
-12.8071 85.3308 -8.97239
23.6087 79.516 2.76366
21.1733 96.8162 4.22953
-3.29908 143.735 2.11694
20.5338 114.701 6.38451
7.04359 142.104 5.42175
-16.5935 93.9449 -9.23014
20.3772 107.016 5.25845
-15.7073 143.912 -2.18983
-15.4366 142.737 -2.26685
-15.4837 91.4861 -9.21888
22.8107 86.3104 3.22171
-17.3232 121.803 -5.81827
-18.5217 109.145 -7.9635
17.6607 142.235 8.95444
6.97538 142.575 5.30962
19.9332 131.065 8.21418
-16.2799 135.402 -3.68508
21.8233 92.3502 3.60642
17.2279 142.501 8.74956
-0.334858 145.077 3.05005
-17.5091 95.2368 -9.60546
17.8717 141.542 8.8238
19.6989 132.877 8.26881
20.6202 110.118 5.5051
-15.9973 134.853 -3.76281
21.9579 95.3056 3.95724
-15.61 144.354 -2.35413
0.112332 145.223 3.1472
19.2908 129.659 7.62282
20.6036 114.429 6.01017
-15.6206 144.138 -2.45108
21.6677 93.0082 3.4695
11.9356 142.64 6.82546
-20.3897 118.343 -7.59686
23.2149 78.2825 1.98996
-18.1202 122.644 -6.25778
19.6847 134.184 8.30327
-17.6217 121.614 -6.2424
11.5977 142.925 6.67795
6.01393 143.966 4.89399
-17.0456 98.6042 -9.1784
14.0018 142.733 7.44862
21.4014 96.3485 3.72555
18.3106 140.415 8.59621
19.9583 137.264 8.71901
-19.3308 116.081 -7.67533
1.62931 146.104 3.5554
5.14451 144.852 4.59387
21.3292 89.5991 2.68994
-17.5835 128.922 -5.40535
-14.4793 147.666 -1.80851
-18.6521 110.587 -8.2586
13.0289 142.753 6.97412
0.111788 145.675 2.9199
20.2223 116.84 5.93924
21.604 94.6925 3.41328
-16.4427 132.864 -4.52756
-13.7755 79.5858 -10.8239
20.1009 117.589 5.94717
-13.6458 79.0179 -10.8871
-17.8261 128.445 -5.64632
20.2065 117.041 5.85892
0.304163 146.378 2.96763
-16.9857 124.518 -5.96662
19.5447 122.954 6.39696
20.3777 110.208 4.93521
-15.9753 140.014 -3.5551
19.9034 134.061 7.94978
19.9966 137.418 8.42969
-18.1031 123.136 -6.62608
19.8562 133.385 7.81412
20.2696 108.51 4.59203
20.0719 119.151 5.96097
22.6859 85.078 2.22848
20.0638 100.83 3.44449
-18.576 119.953 -7.27849
-17.4051 123.958 -6.3509
21.1339 92.6111 2.67399
-16.9789 122.985 -6.35665
21.1415 91.4951 2.46153
-17.359 95.3716 -10.2839
-19.2257 119.703 -7.64267
19.159 104.509 3.50736
18.7271 141.547 8.3627
20.0334 118.815 5.73064
-15.4979 141.207 -3.47897
-11.7267 79.9781 -10.4647
-12.459 78.8779 -10.9344
-11.1875 80.1642 -10.3257
-17.8131 114.58 -7.95522
-11.12 79.4608 -10.399
19.2681 138.968 8.07173
19.3506 105.29 3.5416
13.3829 143.613 6.64647
-10.9213 79.4168 -10.3991
-16.6602 105.486 -8.86304
8.65383 145.213 5.21955
-15.6338 103.134 -8.8299
12.4236 144.084 6.35005
8.39576 145.968 5.17186
-18.4972 120.169 -7.57546
-17.4087 97.6795 -10.2419
21.2303 86.4083 1.52
7.99902 146.788 5.09359
-17.9078 113.394 -8.35643
8.70635 146.324 5.24774
-16.7076 131.68 -5.48688
-11.2143 85.1939 -9.88991
6.23212 146.851 4.42326
18.6987 142.838 8.15608
20.0957 119.264 5.43638
20.1311 127.355 6.53892
-17.6583 126.227 -6.62419
22.3483 82.7793 1.26853
-16.2929 106.672 -8.8049
-17.1398 129.128 -6.06698
-17.5802 95.7763 -10.7394
9.30288 145.976 5.29267
20.3012 100.202 2.87512
19.2793 141.076 8.04619
22.295 82.7283 1.18626
-17.2688 128.851 -6.20806
-16.0154 104.472 -9.07342
19.4143 140.608 8.00371
19.682 128.576 6.43053
-16.7756 98.1443 -10.2452
-7.53464 154.011 0.482067
10.7689 145.48 5.62937
15.2926 143.906 6.95825
-15.5659 141.385 -4.04071
-10.9585 87.7362 -9.72337
-15.6708 140.01 -4.35497
-17.3612 125.27 -6.93494
20.7361 89.8174 1.36918
19.4742 120.948 5.09802
-10.7502 81.783 -10.6109
-17.0671 127.487 -6.61503
19.2555 102.772 2.53827
6.69916 147.605 4.26542
-9.60739 79.8728 -10.5096
8.10963 149.426 4.96929
19.5046 142.45 7.93255
-7.32986 154.437 0.302773
19.1504 122.066 5.03386
19.5773 129.056 6.09899
-16.0291 138.8 -4.86015
17.0226 144.008 7.21993
-17.2835 95.7842 -11.1519
16.018 144.435 6.87975
11.107 147.939 5.65524
-19.0249 120.285 -8.45862
6.22472 147.036 3.82564
13.7527 145.322 6.18148
20.8699 92.1925 1.44735
20.1036 119.016 4.80692
-8.58742 153.685 -0.402288
20.1028 101.264 2.37463
19.1507 102.71 2.24008
11.5948 147.814 5.70136
-8.5027 79.621 -10.436
12.4795 146.63 5.83547
20.3816 131.808 6.5453
-12.1269 150.571 -2.13239
-9.53599 80.1048 -10.7794
21.3074 95.7489 1.9268
14.9526 145.173 6.41078
-9.6847 80.2102 -10.8685
-17.9549 123.835 -7.82555
-10.6031 82.5024 -10.8858
-14.5499 102.379 -9.59417
7.3855 149.132 4.26314
-18.9837 120.447 -8.7038
15.5205 145.22 6.52049
8.73039 151.707 4.98904
-7.91716 153.807 -0.479288
20.0371 119.047 4.43398
19.0707 121.842 4.4687
21.4755 80.8576 -0.248737
20.9202 139.763 7.51776
-12.1035 150.415 -2.41084
20.464 142 7.63638
19.7024 111.377 3.22531
-16.3335 126.107 -7.1967
-10.0319 87.0142 -10.3531
-14.6912 107.296 -9.24276
-17.3295 119.522 -8.49944
21.0087 96.1701 1.50717
20.3632 133.978 6.3819
20.1442 142.889 7.49656
9.4968 151.717 5.02383
20.873 96.7148 1.50094
19.8832 112.295 3.23862
-15.0909 131.974 -6.1492
-15.1939 128.362 -6.69934
-14.5279 136.568 -5.36337
-13.7161 144.003 -4.08256
-9.67548 86.1164 -10.5151
-16.2138 116.786 -8.62679
-15.2966 93.5196 -11.5064
15.8946 145.983 6.29727
-13.9446 105.515 -9.49167
20.7063 92.2777 0.635074
-13.5384 141.279 -4.53471
-14.546 108.589 -9.30449
-16.7605 120.732 -8.4362
-16.3636 120.414 -8.42965
-16.3536 121.178 -8.3377
-14.2298 92.2727 -11.5403
8.90616 152.521 4.56437
19.1637 144.702 7.03148
20.1799 113.451 3.14395
-10.3048 88.0232 -10.7933
-14.2279 135.621 -5.72239
-13.6073 143.814 -4.40326
21.3114 78.1472 -1.26467
-13.4136 144.005 -4.32503
-14.3346 131.419 -6.36979
-16.4733 97.1112 -11.7445
-6.35982 154.159 -0.559524
-10.2861 151.486 -2.27288
-14.1434 108.413 -9.44512
9.54609 152.337 4.64181
-14.2868 131.952 -6.31977
15.9294 146.854 6.0918
-10.8794 88.9664 -10.9627
20.404 90.4441 0.00523187
20.242 84.0734 -0.916596
20.8526 142.832 7.23475
-9.69491 82.1558 -11.4814
-13.7123 143.377 -4.64563
-15.9666 130.23 -7.21035
19.1365 105.717 1.55411
-12.3075 146.911 -3.71129
10.1268 151.973 4.6892
11.4365 151.107 5.01768
-14.1432 137.349 -5.66388
20.421 131.038 5.35987
18.4877 103.913 1.02357
20.3588 90.4872 -0.155459
-14.2529 132.122 -6.45265
-14.5386 100.791 -10.7969
-14.983 93.8678 -11.893
-14.5726 139.698 -5.57526
21.3269 136.868 6.39402
-13.8873 133.495 -6.19373
15.3941 147.896 5.82224
18.5406 102.112 0.708583
13.1286 150.215 5.3395
19.8608 131.552 5.108
-13.4079 143.347 -4.7561
-15.9422 121.979 -8.51713
-11.2828 150.711 -3.03011
20.1074 126.097 4.42609
-13.6259 134.138 -6.10797
20.3975 127.302 4.66407
20.687 94.2994 0.298361
-13.3313 143.36 -4.78527
-13.2802 105.513 -9.88904
18.9581 121.241 3.31873
-13.0265 104.605 -10.0168
19.9329 88.1383 -0.925225
-15.679 129.125 -7.66031
-15.7959 96.8263 -12.0999
18.3412 108.303 1.19838
-8.43528 151.372 -2.2581
19.0729 116.714 2.5104
19.3864 119.971 3.03091
20.0645 98.7402 0.375625
-15.5675 111.677 -10.1524
19.2217 124.296 3.5255
-15.5815 123.08 -8.64342
20.4528 94.1482 -0.157796
-8.81628 86.378 -11.2968
-4.57223 79.9932 -10.7396
-13.0188 108.238 -9.84382
-13.8716 110.072 -9.94428
-14.9063 129.058 -7.7516
19.7587 118.281 2.69055
-16.2202 113.599 -10.3392
-14.1567 127.967 -7.7027
-11.1632 148.826 -3.86063
-12.7476 105.873 -10.2171
20.0004 90.1418 -1.07619
18.1554 102.173 -0.0875062
-12.0071 146.046 -4.54981
20.0183 79.2406 -2.566
-15.4609 112.322 -10.3087
18.1521 108.282 0.701163
19.3594 117.813 2.39921
-15.2438 127.04 -8.30321
-13.5669 135.81 -6.55723
-13.8569 136.423 -6.58091
11.8345 151.6 4.31194
-10.9701 149.408 -3.84196
19.0045 85.1004 -2.25821
-13.2901 109.633 -10.0639
18.0275 102.352 -0.269229
18.3704 101.594 -0.260948
21.8745 143.55 6.61189
-5.24678 80.4512 -11.2646
-14.1563 127.132 -8.05142
-15.3538 122.51 -9.10373
-14.7556 95.9268 -12.494
22.1907 139.821 6.1529
-10.6576 142.636 -4.84416
20.0922 126.633 3.54978
11.3764 152.035 3.97861
19.6713 97.5489 -0.563157
18.6185 110.442 0.814418
-13.5955 137.774 -6.60068
-14.8231 99.0957 -12.2651
-15.1637 123.437 -9.1011
-15.1127 119.588 -9.62759
19.1869 80.2514 -3.13715
-8.0005 81.3161 -12.359
-14.2771 95.9343 -12.5648
19.9856 133.5 4.29832
-15.6655 125.667 -9.04645
21.9794 144.213 6.40531
-12.1719 105.719 -10.5566
-7.62792 81.273 -12.3034
19.7187 99.3303 -0.463824
18.2309 104.803 -0.239458
-9.59451 87.5786 -12.1625
-14.1185 96.3903 -12.5404
-14.5801 112.351 -10.5668
-15.3799 124.858 -9.16319
-2.08449 79.8104 -10.6754
-1.38917 79.5286 -10.4784
-13.1324 101.791 -11.5209
20.2824 127.502 3.45348
-1.44316 78.7519 -10.6398
20.1231 133.021 4.10532
-1.53429 77.426 -10.8697
18.5965 110.691 0.552585
-11.7453 140.143 -5.94365
18.7795 86.9457 -2.64111
18.9123 81.047 -3.43361
-14.307 131.201 -8.09715
-14.3566 99.4621 -12.4184
-11.4823 89.848 -12.7561
18.5021 79.4457 -3.84389
-11.1531 89.4728 -12.7365
-12.831 128.457 -8.06469
20.222 127.601 3.19656
-10.4599 88.6322 -12.6328
17.8152 104.159 -0.804911
-0.804633 79.0531 -10.6232
-10.6947 144.062 -5.26165
-7.79274 83.161 -12.4968
17.9134 77.4653 -4.42569
2.11533 77.4189 -9.88715
-9.61141 87.7151 -12.5642
-10.2244 140.586 -5.63131
17.3984 102.944 -1.22227
12.7259 151.709 3.75928
-15.0517 120.919 -9.96608
12.3891 151.912 3.66698
-12.6398 126.959 -8.342
19.2637 90.0419 -2.35875
-9.61575 148.813 -4.3639
-14.9565 115.007 -10.7764
17.8738 104.978 -0.860743
-10.5379 89.202 -12.7809
19.6988 147.871 5.5477
23.3263 138.692 5.55223
-4.08511 154.492 -1.75614
-11.7782 104.775 -11.135
18.822 100.742 -1.14686
3.24393 77.3981 -9.68564
19.0715 89.09 -2.65723
17.3148 149.945 4.95918
-14.6609 119.874 -10.1395
17.9421 80.3443 -4.26073
17.4786 108.287 -0.647632
17.8662 78.9618 -4.49499
19.2208 100.217 -1.17594
19.2412 100.191 -1.17711
-10.4417 144.998 -5.34483
20.5368 132.843 3.67604
-3.07245 80.693 -11.5022
19.0395 93.7286 -2.13575
-4.94767 81.1303 -12.0962
-7.10143 81.7333 -12.7645
23.7519 140.013 5.71308
-11.2134 108.32 -10.6128
-14.7339 124.31 -9.6661
21.0024 146.962 5.68068
17.3162 103.782 -1.4248
-8.73322 141.449 -5.30143
-11.1713 106.956 -10.8026
-8.16563 148.963 -4.10192
17.1856 103.152 -1.56788
-4.35696 153.795 -2.14082
-10.316 145.123 -5.37084
-6.0517 152.27 -2.93922
17.3658 107.551 -0.928837
16.5168 77.8591 -5.24167
17.211 103.037 -1.64113
21.6165 146.617 5.74348
23.1698 135.604 4.77425
-12.3891 96.3761 -12.8098
8.29886 154.913 2.21289
-14.0942 130.02 -8.86662
-10.0354 147.938 -5.0677
-13.9901 130.041 -8.84848
-2.93098 80.8622 -11.7164
-12.1877 96.2705 -12.8526
-8.11612 141.494 -5.3403
-4.56748 152.386 -2.66124
-9.05777 148.19 -4.77654
17.1432 106.79 -1.36114
18.1797 83.1397 -4.20294
-12.2367 134.873 -7.70153
23.022 134.687 4.39885
20.2365 148.264 5.27451
7.8704 155.049 1.92497
-11.9942 124.824 -9.01351
12.0077 152.54 2.95837
18.7282 112.178 -0.187943
18.2009 92.5059 -3.0414
-8.89296 148.078 -4.86251
18.7233 90.0553 -3.20215
-11.5316 104.191 -11.7154
18.5936 90.7541 -3.16202
-3.76119 81.2392 -12.1531
17.1398 105.509 -1.67996
18.9413 114.614 0.165218
8.08194 155.009 1.87111
21.188 147.558 5.35816
18.53 111.726 -0.400656
-13.8382 114.944 -11.1093
20.0976 129.869 2.58701
-6.33451 151.05 -3.64993
-13.1393 100.376 -12.8538
-8.10206 148.252 -4.68599
-7.17726 148.756 -4.31145
20.3245 130.44 2.67238
-9.2701 145.717 -5.49299
16.9109 106.317 -1.81234
-10.2838 91.0324 -13.2449
-6.63721 82.8885 -13.0957
-6.77424 149.284 -4.17585
-7.68494 148.306 -4.62501
-11.0054 105.96 -11.4938
19.9158 127.485 2.05672
-4.53091 150.509 -3.2713
-11.5578 95.2919 -13.1701
-9.0466 89.2297 -13.1299
18.5813 100.769 -2.06626
-11.9682 102.324 -12.4065
18.418 95.1887 -2.91579
18.8199 112.835 -0.396775
7.67254 155.091 1.46554
20.8147 130.287 2.62872
-11.7066 102.81 -12.3292
-3.89151 149.07 -3.41957
-12.7025 130.589 -8.95177
15.5426 150.926 3.51941
-13.3092 123.105 -10.2041
-13.9895 120.355 -10.8177
-8.71134 146.651 -5.46181
-9.83366 91.0744 -13.3612
-13.8671 119.632 -10.89
-11.8922 135.443 -8.08458
-11.485 111.638 -11.1728
-11.5674 97.3536 -13.1369
11.4735 152.92 2.29444
-11.9057 114.412 -10.963
17.4545 93.4233 -3.70507
14.1514 76.6744 -7.12464
-5.65668 143.625 -4.90301
-11.0256 123.77 -9.44194
17.341 92.7413 -3.87421
-13.0562 122.878 -10.2679
-7.47221 143.912 -5.51217
-5.25937 146.097 -4.48627
19.1583 121.472 0.589859
-5.97435 143.017 -5.15287
22.8623 146.532 5.24078
15.2287 81.3317 -6.20437
21.9826 130.397 2.74763
16.8075 108.652 -1.97659
17.1504 85.1137 -5.04442
16.8266 84.7715 -5.20525
10.5128 153.37 1.87623
-9.95016 129.215 -8.45466
-3.01729 152.634 -2.90458
-6.78064 147.94 -4.89234
17.4401 95.0324 -3.72101
18.269 111.838 -1.16736
-5.18781 147.909 -4.38523
-13.2235 116.841 -11.3532
16.216 84.1447 -5.66684
-13.0278 130.975 -9.41603
-11.6353 114.571 -11.16
19.5143 131.248 1.80827
-10.6498 93.1287 -13.7291
-10.6022 106.424 -11.9318
-12.823 116.526 -11.3317
17.579 110.702 -1.65878
15.5764 151.165 3.08415
-13.5441 119.643 -11.2183
20.0796 129.12 1.632
15.8848 84.3367 -5.87303
-9.67481 108.708 -11.3832
14.0894 78.4236 -7.29927
17.0763 92.5894 -4.35861
-5.88745 147.072 -4.90129
17.0541 91.7607 -4.47942
-11.3995 113.213 -11.3807
17.4026 95.7689 -3.82669
18.4136 119.737 -0.265669
12.6046 76.5416 -8.10326
20.5534 129.883 1.82995
13.9753 151.842 2.53254
-13.4065 120.06 -11.1897
22.2517 131.156 2.57601
17.6393 119.23 -0.643344
-7.94867 88.308 -13.6329
-6.21754 148.033 -4.98489
19.8088 130.712 1.63053
12.4259 152.377 2.01463
12.9939 77.9159 -7.85354
16.3342 106.941 -2.78446
13.7721 79.2885 -7.40621
-11.6987 136.552 -8.43923
18.2224 119.658 -0.424493
-9.57494 108.826 -11.4588
16.9541 91.3234 -4.70192
-10.7572 97.4325 -13.4392
22.8798 133.322 2.9903
2.68964 78.8205 -11.3305
17.1071 117.132 -1.19401
16.8867 89.6943 -4.99437
13.3186 79.1213 -7.65179
-10.727 111.27 -11.5904
13.2677 79.3547 -7.65228
-10.4656 95.3162 -13.7012
-9.7395 109.454 -11.5615
-1.37226 153.124 -2.79193
-9.83416 138.231 -7.72014
12.3144 78.1185 -8.22244
24.7477 136.326 3.91002
24.6168 136.145 3.82806
20.2825 129.197 1.38856
15.229 84.1086 -6.45413
-11.9529 117.496 -11.3129
-11.8358 117.404 -11.3013
23.7024 146.517 4.86326
-9.64726 130.482 -8.78471
-9.75986 122.894 -9.87592
16.5673 89.9586 -5.26657
13.694 151.895 2.0849
-10.7821 104.944 -12.6891
14.6236 82.8714 -6.93121
16.128 105.644 -3.33699
16.4921 89.8564 -5.35687
-1.93125 81.5433 -12.8522
-3.92557 83.1206 -13.3351
17.2401 87.0541 -5.53115
4.83462 78.2204 -11.0035
24.9959 144.68 4.89828
-8.2714 126.538 -9.00581
16.6653 117.91 -1.59665
-12.6434 119.422 -11.4895
16.3771 108.779 -2.95242
-10.1127 94.9363 -13.951
-6.28135 85.936 -13.8545
16.3505 89.1349 -5.6459
-8.26118 125.61 -9.19031
-10.3777 106.131 -12.5845
-12.2606 132.224 -9.70863
17.6522 111.477 -2.22516
-1.71916 150.325 -3.64792
18.519 114.253 -1.56916
-11.6887 118.232 -11.4315
-4.39795 143.156 -5.55703
13.5826 81.1705 -7.75471
19.4471 126.91 0.436197
-9.08723 92.4321 -14.0679
19.7929 124.961 0.262281
7.19671 154.613 -0.0719542
1.12221 81.1986 -12.0908
-2.63054 81.946 -13.2829
18.4429 128.098 0.183682
-1.80806 81.7754 -13.0749
23.05 131.388 2.17405
-11.1676 133.045 -9.39503
17.6886 98.3039 -4.16873
18.737 127.084 0.0319224
-0.119148 153.27 -2.9261
17.8776 129.696 0.0793859
16.4505 86.8198 -6.21681
-8.25857 124.028 -9.71757
13.565 151.895 1.53821
6.92639 77.0809 -10.8622
16.0218 107.329 -3.65276
-7.23306 88.1304 -14.2841
8.80706 154.013 0.128628
27.83 129.239 3.32741
-9.63041 97.4589 -13.8751
17.2945 129.936 -0.219445
8.54612 77.9049 -10.2688
13.8479 82.0008 -7.91059
16.1653 87.8187 -6.32933
11.432 153.209 0.867163
-1.03335 150.782 -3.75191
24.882 138.153 3.4443
17.6396 115.263 -2.14478
-8.05008 90.7745 -14.3035
-5.57535 87.3543 -13.9436
17.2495 98.978 -4.52034
-8.98149 93.2689 -14.3323
-6.38285 87.8003 -14.1922
-8.73955 110.305 -11.9657
-3.83628 85.4585 -13.6391
23.4482 132.662 2.09648
16.4766 117.525 -2.3505
17.1262 102.005 -4.22915
16.4531 117.646 -2.34798
16.827 116.186 -2.42776
-10.1286 99.4625 -13.9888
17.9532 114.802 -2.25081
-8.46614 109.556 -12.081
13.8934 82.3131 -8.06686
-8.8455 111.245 -11.9878
1.84163 81.0155 -12.4003
-11.5264 119.816 -11.7622
22.2779 130.205 1.25238
25.6795 136.907 3.29593
21.2275 148.683 3.34309
13.2585 151.952 1.02302
14.7175 85.6267 -7.45259
18.5073 122.034 -1.24971
15.3807 151.062 1.59213
16.5407 102.593 -4.60503
1.67961 153.474 -2.85206
16.4847 99.6499 -5.07641
-10.3816 120.341 -11.5288
18.5216 127.267 -0.651707
-2.36323 143.668 -5.62483
6.96248 154.327 -0.974672
-0.600781 145.937 -4.71723
9.1862 78.1924 -10.5221
-1.41749 143.039 -5.41453
15.7255 104.041 -4.78406
14.776 151.272 1.26341
-1.84213 83.3749 -13.6506
-1.01156 143.193 -5.28237
7.03393 77.876 -11.3438
-8.95203 111.914 -12.2636
12.7853 152.145 0.581212
-6.97147 133.459 -8.77239
16.2288 102.837 -4.92723
-8.14945 110.599 -12.2871
-7.13731 133.524 -8.85533
20.8987 128.176 0.053707
0.87403 152.371 -3.58235
15.7753 98.8355 -5.69597
17.2762 129.254 -1.10512
17.7823 120.52 -2.1187
25.0641 140.179 3.04361
-1.81216 141.079 -6.1071
-6.52244 131.912 -8.98273
-5.3607 135.452 -8.10974
-3.71579 141.518 -6.72795
-9.53186 103.939 -13.8152
-4.59605 89.3188 -14.0923
3.59665 80.148 -12.5174
4.21652 154.252 -2.33029
-3.07851 141.782 -6.53807
18.0479 150.222 1.83978
25.0948 140.395 2.92473
15.4249 89.5391 -7.29161
21.173 148.783 2.68256
5.02401 153.788 -2.21384
-8.99074 112.682 -12.5973
-6.66525 136.14 -8.62863
-0.166876 83.1963 -13.5485
16.0561 90.6841 -6.96508
21.3678 128.079 -0.0845991
27.4235 130.175 2.27587
-8.3293 135.153 -9.36097
9.06311 152.863 -0.984367
-9.94867 115.115 -12.6307
-1.78364 138.003 -6.72841
21.2813 128.132 -0.122947
-9.13599 119.779 -11.7278
-5.78313 137.041 -8.25048
15.9965 90.6389 -7.03651
-8.17912 108.788 -12.9136
-2.55639 87.4314 -13.8666
17.5029 129.105 -1.32935
-8.69888 136.341 -9.42009
4.0457 153.752 -2.68589
11.8431 79.8565 -9.99179
24.5218 146.03 3.29906
-8.59618 98.5195 -14.5235
-3.41516 139.282 -7.24427
-6.38764 91.175 -14.7757
-4.99574 139.074 -7.83161
13.0353 82.7153 -9.24893
1.96167 152.342 -3.65351
24.8613 139.483 2.48857
-3.62376 138.42 -7.46464
-4.44461 139.5 -7.60713
-7.53158 109.879 -12.6839
-7.60651 137.199 -9.03099
-6.10711 122.413 -10.5184
16.0482 91.1514 -7.11802
-3.68125 139.709 -7.3501
2.68694 152.836 -3.39543
14.0503 86.5333 -8.4557
7.64075 152.91 -1.70329
18.4611 129.32 -1.16882
0.911015 147.58 -4.76225
17.6087 113.404 -3.63573
25.632 133.281 1.80885
-5.04866 138.344 -8.07081
5.85172 153.385 -2.2973
10.981 152.375 -0.668689
15.7402 108.967 -4.89989
27.4715 130.646 2.05719
13.3193 83.8893 -9.14846
-3.95442 89.7861 -14.2982
-4.378 133.67 -8.51818
-8.68805 103.372 -14.1084
15.6375 106.586 -5.30413
15.935 110.541 -4.69017
7.53333 80.1338 -11.7057
18.3715 128.062 -1.50699
-5.47532 130.818 -9.35284
-9.46837 115.098 -12.8765
-8.16761 98.2544 -14.7183
1.21632 147.194 -4.88347
16.7487 120.217 -3.21592
12.3598 83.2307 -9.75289
1.12405 143.302 -5.5058
14.5357 96.7231 -7.18999
13.8519 86.6944 -8.78568
-6.38314 128.38 -10.1485
17.1034 130.431 -1.78709
-8.24262 100.163 -14.6178
-3.05588 89.4137 -14.3009
15.7064 108.918 -5.20771
17.6178 130.857 -1.60521
18.2573 123.937 -2.33065
22.3441 129.955 -0.112732
-4.17775 91.6481 -14.423
8.39235 80.7955 -11.5674
14.8472 90.0521 -8.10334
12.4974 151.702 -0.591724
-7.10041 130.839 -10.172
25.8701 131.59 1.25575
18.7576 149.756 1.23887
-5.41428 93.9518 -14.6265
28.7025 130.859 2.10278
17.1772 114.546 -4.07687
9.92276 80.4773 -11.195
-5.48658 121.721 -10.953
14.7074 90.1593 -8.26763
24.7029 130.155 0.576354
1.79368 147.091 -5.03337
16.4957 120.657 -3.55677
18.5411 126.132 -2.11573
26.5236 135.425 1.88218
1.78084 149.366 -4.753
6.04962 152.699 -2.86336
15.4069 104.1 -6.22033
24.8786 128.452 0.314832
-8.50731 113.902 -13.1443
15.4928 106.056 -5.99126
12.0865 151.679 -1.01895
26.4425 130.667 1.07869
26.4915 134.671 1.60803
24.9684 128.422 0.236429
-8.64809 118.604 -12.6869
16.7871 114.644 -4.48783
-7.92782 103.978 -14.4828
2.19997 149.458 -4.85043
15.6534 108.676 -5.73571
4.2781 82.4938 -13.2012
-1.14123 87.9042 -14.3424
11.8089 85.4602 -10.2246
26.216 132.712 1.11461
22.5005 128.172 -0.782732
-3.5824 133.522 -9.04166
-7.90463 113.739 -13.2226
17.7156 128.404 -2.42827
18.3307 126.103 -2.54177
26.1831 135.203 1.38649
-7.47533 108.555 -13.8086
-7.86464 106.298 -14.2509
10.4047 152.074 -1.78251
-5.98549 120.589 -11.7097
-1.39777 136.118 -8.03203
17.1399 129.219 -2.58695
5.76978 82.4644 -12.8204
5.87724 82.4543 -12.7895
26.3915 140.098 2.05609
-6.08882 120.474 -11.7844
4.92096 82.6901 -13.1012
24.875 133.266 0.590416
13.8428 91.404 -8.87117
8.63707 82.2522 -11.9055
25.0939 133.297 0.65682
-2.20115 134.911 -8.54459
25.0855 133.321 0.631897
13.4769 151.224 -0.978251
28.4547 129.484 1.23487
4.71493 82.9959 -13.2334
21.5988 128.489 -1.2971
-8.39714 117.146 -13.1586
25.0558 133.312 0.531852
16.2625 114.917 -5.00485
25.8302 136.477 1.17693
-2.77365 133.988 -9.03079
4.62418 83.3029 -13.3384
16.4941 121.412 -4.10532
2.88572 148.064 -5.20503
-2.59771 91.0938 -14.7987
27.4391 129.714 0.752186
25.9486 134.687 0.889012
28.3466 132.579 1.42298
21.5443 130.25 -1.2357
23.4636 130.129 -0.595595
6.00646 83.3041 -12.9783
24.8253 146.085 1.95055
12.4443 151.371 -1.59896
-6.52055 112.866 -13.3325
16.9168 129.853 -2.98192
-7.8049 116.625 -13.2823
13.6522 100.107 -8.13812
14.0356 100.899 -7.91356
19.7154 128.268 -2.27417
-7.28986 103.788 -14.8888
-5.95326 97.924 -15.2329
25.0526 138.382 0.89271
27.3058 132.671 0.850487
9.50328 83.2707 -11.9593
20.469 148.778 0.607883
-4.16612 128.02 -10.6837
3.25762 145.263 -5.81839
3.48286 149.546 -5.18051
13.5024 100.048 -8.42824
15.4873 111.327 -6.22237
15.4637 109.383 -6.51372
23.7328 130.816 -0.771172
15.4211 110.254 -6.44404
3.11096 143.866 -6.13884
29.0627 132.65 1.27411
25.5682 136.867 0.630823
-2.11912 134.25 -9.25507
6.37202 85.1711 -12.9689
-7.26163 114.492 -13.712
22.0921 128.932 -1.67637
25.6186 135.102 0.370961
29.1846 132.104 1.18041
4.70234 151.917 -4.56991
4.25299 151.578 -4.77749
26.6956 141.455 1.57953
-1.79527 91.3701 -15.0257
26.0559 131.978 0.0188286
13.3395 100.077 -8.67261
24.9874 130.218 -0.593042
27.3047 134.34 0.760439
-0.436239 89.4851 -14.8624
26.324 132.19 0.111743
-3.63094 94.3679 -15.3273
-6.92434 105.665 -14.9493
16.9202 131.288 -3.2996
16.1193 114.753 -5.81079
9.74782 84.5494 -12.0888
5.13162 86.0146 -13.489
20.093 129.448 -2.47512
-5.22566 98.1719 -15.4287
22.8076 129.145 -1.60518
0.550087 137.304 -8.18051
26.1106 128.623 -0.574702
10.1812 85.9264 -11.8427
25.3249 137.447 0.291249
9.19005 85.6888 -12.2634
10.7755 88.99 -11.2745
22.4481 128.309 -1.9489
7.85057 86.0999 -12.6787
15.3008 102.663 -7.88783
27.2855 134.683 0.542756
-3.29135 123.283 -11.5623
26.9231 131.438 -0.0772415
1.51371 88.1186 -14.6947
4.08475 146.298 -5.95147
-3.61416 95.4763 -15.4759
14.5209 150.799 -1.77958
15.8135 122.441 -5.17329
16.7646 123.527 -4.70626
15.2313 105.278 -7.70815
15.4805 120.188 -5.62159
23.9491 129.955 -1.40365
9.08432 86.5366 -12.3991
27.6986 133.632 0.355084
-6.16744 103.571 -15.3837
17.2088 125.369 -4.40748
-4.27066 118.902 -12.679
16.6711 129.975 -3.9742
11.6952 92.8888 -10.7004
7.55101 86.8226 -12.9521
-4.95427 100.404 -15.4216
1.14986 137.843 -8.26126
15.6376 113.145 -6.62066
12.9831 96.3158 -9.83429
4.74622 149.82 -5.45883
20.7417 127.78 -2.94001
28.0704 134.715 0.519362
6.16845 87.2342 -13.4398
10.1251 88.1702 -11.9598
10.5071 89.5278 -11.6591
-5.92097 103.175 -15.4723
-6.27391 114.713 -14.0539
10.4135 89.3773 -11.7442
29.6932 132.595 0.724501
15.5178 119.03 -5.98986
23.2812 129.771 -1.88687
20.0377 127.495 -3.31119
1.13427 89.8064 -14.9185
23.4021 129.757 -1.85506
12.8386 96.4819 -9.99621
12.7025 99.1458 -9.69481
1.29442 89.8291 -14.8916
15.3223 121.97 -5.74525
29.3809 133.749 0.685378
22.0639 130.679 -2.26354
-3.49228 126.289 -11.6926
26.0481 136.973 -0.0908309
12.5743 99.7168 -9.80169
25.4989 132.542 -0.931205
15.2774 150.445 -2.05093
26.8365 140.072 0.478462
12.5273 98.7297 -10.0479
-4.06142 98.7565 -15.7624
15.9938 123.744 -5.51138
-3.70996 119.376 -12.8849
23.2536 147.427 0.16309
15.2506 122.38 -5.98842
-2.81488 122.989 -12.1306
10.476 91.3731 -11.8488
-3.12908 121.477 -12.4715
-2.88466 96.2568 -15.7978
1.50998 137.357 -8.73178
5.11083 146.268 -6.30446
11.0453 93.8644 -11.3813
-3.88647 100.149 -15.6799
5.04977 145.751 -6.45563
-5.82406 107.513 -15.3709
9.13444 152.205 -4.20002
-5.75145 107.227 -15.4047
10.71 92.8067 -11.7016
-5.14261 114.739 -14.2077
1.87126 91.8279 -14.8915
7.20598 88.9665 -13.4434
-3.58984 99.4025 -15.787
10.7303 93.3535 -11.698
27.8575 131.747 -0.615811
5.50939 148.147 -6.09633
27.9348 135.271 -0.139924
26.2327 140.387 -0.0636797
7.95582 89.4357 -13.2664
23.5383 147.025 -0.122488
5.58287 147.137 -6.29369
2.63354 93.0725 -14.6165
0.308738 94.6801 -15.2127
-1.19567 94.6348 -15.7617
18.8619 148.624 -1.5608
23.9506 146.533 -0.103581
5.7474 148.292 -6.14642
28.0174 134.573 -0.337652
-4.32756 111.513 -14.6094
4.05498 93.0508 -14.2344
7.35568 90.1196 -13.5111
19.0396 126.308 -4.60099
16.2181 130.811 -4.96683
-1.7884 131.173 -11.1248
22.8217 147.347 -0.474372
26.382 129.012 -1.76203
5.40458 92.3886 -13.9347
29.1735 133.377 -0.22706
26.3928 131.121 -1.50983
9.14629 90.8806 -12.8929
0.555656 134.759 -9.92546
26.5265 134.484 -1.05581
15.1229 106.09 -8.83022
27.3476 139.239 -0.14613
27.6907 135.022 -0.602422
6.10718 92.2525 -13.8305
17.5424 133.5 -4.33116
29.0946 133.947 -0.31566
0.530251 96.3103 -15.2388
15.5505 112.942 -7.82536
26.2479 140.321 -0.498526
16.624 128.764 -5.37652
-0.462993 96.3521 -15.648
9.4102 92.3897 -12.8285
17.8216 133.656 -4.35604
-2.83642 119.316 -13.4071
-0.73833 96.6147 -15.7868
-4.26321 104.597 -15.9216
-4.08732 103.374 -16.0324
19.4892 128.797 -4.48841
24.4562 130.835 -2.50673
21.3033 128.684 -3.90478
4.91827 143.15 -7.59211
14.8359 121.271 -7.14286
-4.49039 110.228 -15.3034
14.3192 105.456 -9.4955
26.8678 135.652 -1.10919
23.5209 146.454 -0.803648
16.0146 130.979 -5.49777
27.8769 131.866 -1.3155
-2.74923 100.095 -16.1535
9.99258 94.5639 -12.5149
28.5714 133.823 -0.830812
26.111 141.635 -0.62793
14.6942 120.205 -7.45607
24.9975 132.43 -2.26911
-4.6383 108.247 -15.7409
3.81592 98.6914 -14.1264
5.71014 95.0622 -13.9759
-2.36926 121.258 -13.2296
6.9456 93.2796 -13.8179
6.92634 146.235 -6.66806
10.5036 151.47 -4.74344
19.4015 148.195 -2.12736
17.8676 131.61 -4.90081
25.4652 134.518 -1.9114
9.2192 151.726 -5.20299
12.9226 108.876 -9.72451
12.7159 108.832 -9.83264
10.5758 97.8402 -12.0606
12.7679 109.591 -9.71873
-4.4728 109.751 -15.6401
11.6412 100.683 -11.3436
6.46381 95.5538 -13.8341
-1.41252 124.237 -12.67
21.1704 126.767 -4.55621
26.2786 125.934 -2.92596
2.24523 99.1604 -14.8603
7.16028 94.6252 -13.794
1.27919 98.5025 -15.3133
0.906543 98.7509 -15.4381
1.73669 99.9163 -15.0275
1.79937 100.12 -14.9816
27.1653 138.676 -1.04052
13.3112 150.927 -4.17628
12.515 107.592 -10.3241
20.5523 147.751 -2.13215
0.419025 133.808 -10.9651
-2.31376 117.896 -14.0923
14.9924 150.315 -3.7681
7.49699 96.0966 -13.7184
-1.59741 101.244 -16.1567
9.87855 99.2391 -12.4901
12.124 107.566 -10.6044
13.0059 105.098 -10.6392
26.118 141.54 -1.20324
11.7118 107.941 -10.7352
-1.45462 129.277 -12.3844
18.4873 133.402 -4.97063
15.0234 112.395 -9.00361
-3.30742 106.634 -16.0984
9.11436 98.6369 -12.9301
10.2343 108.344 -11.2548
11.9681 105.586 -11.043
11.7184 110.57 -10.4635
10.1305 108.248 -11.3312
8.414 147.719 -6.59335
2.69793 103.193 -14.5873
-3.41875 107.841 -16.0707
12.8625 111.676 -9.95078
26.3933 125.021 -3.49005
18.8814 129.415 -5.5098
-0.712891 131.931 -11.9209
1.4839 101.6 -15.2852
10.6232 105.714 -11.6096
-3.65786 109.926 -15.9708
-3.22339 107.979 -16.1113
12.1227 104.508 -11.3211
24.5558 142.999 -1.84628
0.575766 133.482 -11.3964
15.9501 116.548 -8.40968
20.9081 125.303 -5.52683
11.636 110.971 -10.6569
22.4093 145.861 -2.25041
8.26864 146.967 -6.96954
18.0885 127.585 -6.21974
1.93174 105.033 -14.8307
-0.972012 102.494 -16.1782
26.1125 128.341 -3.36393
-2.95735 107.763 -16.1681
11.2878 150.849 -5.44567
2.56213 138.346 -10.1455
1.81531 104.062 -15.0367
14.5967 149.92 -4.44235
1.83451 135.415 -10.8017
-1.12251 127.855 -12.8418
7.96723 146.439 -7.23402
9.28236 106.733 -12.1502
14.8406 113.897 -9.28422
26.1414 140.856 -1.75707
13.662 112.572 -9.88334
9.18741 107.002 -12.18
1.11207 102.365 -15.5984
1.87785 107.005 -14.7094
17.8863 132.236 -5.79541
1.59214 104.34 -15.1969
9.75504 110.347 -11.5834
2.0344 106.96 -14.7149
-1.79305 117.698 -14.5862
10.0394 104.501 -12.2996
14.8927 124.532 -7.93362
-1.94674 117.336 -14.7111
18.0244 127.668 -6.44187
18.575 128.179 -6.19391
14.5648 113.889 -9.53393
9.76294 104.376 -12.4777
16.9506 148.212 -4.0869
1.40436 104.887 -15.2973
9.9269 104.195 -12.4615
21.8881 126.671 -5.31986
17.6083 131.388 -6.16212
8.0019 99.3432 -13.8051
21.0076 122.31 -6.23088
1.21874 106.294 -15.2286
0.0901455 103.537 -15.9901
14.6694 113.344 -9.64683
-0.974207 104.944 -16.1843
17.1304 126.938 -6.97978
17.4929 131.735 -6.21054
10.5401 103.419 -12.4349
26.3539 140.31 -2.02345
12.9923 112.646 -10.3706
26.6168 124.414 -4.10415
-0.591736 104.676 -16.1596
-0.592446 104.719 -16.1583
10.1945 103.243 -12.6594
0.315769 130.493 -12.3823
0.237615 125.334 -13.1133
15.0312 116.076 -9.28764
9.19015 110.938 -11.995
-1.4621 120.06 -14.4415
18.7587 126.161 -6.66144
24.9402 141.833 -2.42202
1.00431 107.265 -15.341
-0.205934 104.706 -16.1249
22.9582 127.231 -5.11197
12.2486 117.93 -10.0805
-0.153286 128.545 -12.9154
5.35612 127.952 -11.1025
3.43844 138.933 -10.2788
5.91865 102.552 -14.3423
0.868987 106.819 -15.5141
5.8194 102.76 -14.3605
-0.445175 127.813 -13.1354
20.914 125.293 -6.12857
10.7948 150.602 -6.19605
10.3784 111.588 -11.6151
5.08418 141.857 -9.35735
0.684333 132.404 -12.1545
2.96012 107.337 -14.7721
3.58767 128.875 -11.6483
-0.433337 127.62 -13.2047
6.82288 123.466 -11.2763
5.9228 102.972 -14.3598
18.0423 134.201 -5.97916
3.36067 130.916 -11.4993
0.536903 104.744 -16.0089
8.58152 104.682 -13.2534
19.7947 124.525 -6.72874
0.789904 109.199 -15.3447
13.2234 117.709 -9.9148
19.7484 124.922 -6.69933
8.54061 104.442 -13.3259
15.6922 132.41 -7.08695
10.3019 149.94 -6.58407
11.2201 150.346 -6.22373
-0.180994 127.68 -13.2161
25.5579 128.329 -4.26974
-1.6376 108.626 -16.2986
-1.83277 109.126 -16.3086
21.7459 143.341 -3.58154
0.952239 129.701 -12.6052
2.85646 115.459 -13.8838
3.67012 131.847 -11.389
11.7806 116.614 -10.6645
4.86539 111.861 -13.6875
19.0722 146.012 -4.18163
0.536174 129.337 -12.8218
3.3514 131.688 -11.5432
13.8966 117.586 -9.82063
12.7944 118.252 -10.1144
1.83923 114.46 -14.4005
5.55552 122.944 -11.9759
17.8326 145.451 -4.71159
13.5104 115.989 -10.182
3.75255 111.344 -14.1779
12.9953 117.093 -10.2215
8.8844 102.813 -13.5787
19.9861 124.782 -6.80471
15.0891 148.309 -5.31368
3.16111 128.489 -12.115
17.7705 127.785 -7.18147
4.61164 127.969 -11.688
17.237 146.165 -4.89453
25.1734 134.567 -3.73444
15.3909 117.995 -9.34259
7.02149 126.666 -11.0625
3.67615 135.856 -10.9823
6.19533 143.124 -9.14844
7.10033 125.532 -11.2255
19.8215 146.013 -4.08129
2.23171 115.769 -14.2251
10.5804 149.515 -6.79824
3.48842 109.673 -14.6518
5.13771 115.96 -13.2377
4.18921 107.247 -14.744
4.40101 106.445 -14.783
19.662 145.717 -4.22736
5.29085 115.884 -13.2176
4.57683 106.423 -14.7463
10.5228 120.088 -10.853
7.92957 105.655 -13.6996
15.1331 118.362 -9.50311
-0.853182 121.025 -14.667
-1.77901 111.258 -16.3094
15.0487 117.676 -9.66835
5.03933 106.54 -14.6358
-0.935231 118.871 -15.03
2.4416 116.897 -14.1566
5.46658 106.239 -14.5662
5.50204 106.475 -14.5397
8.02455 109.288 -13.3029
7.66682 106.027 -13.8676
19.4898 124.003 -7.40396
5.34713 108.234 -14.4089
0.230867 112.581 -15.6143
-1.74474 112.04 -16.3726
15.0602 125.609 -8.75501
8.28516 124.638 -11.2195
1.79156 116.66 -14.5334
11.4875 115.216 -11.4052
6.33389 106.547 -14.3519
8.70754 113.084 -12.6539
21.1237 122.858 -7.06254
25.4332 124.055 -5.42969
0.798433 115.559 -15.0599
23.5319 132.149 -4.99332
14.5108 148.223 -5.92959
24.7374 141.103 -3.38073
14.5336 122.86 -9.41028
7.21686 106.445 -14.1553
9.61406 122.859 -11.1183
0.859004 126.883 -13.6087
17.8767 131.206 -7.19352
-0.148647 111.646 -16.0596
2.73117 120.042 -13.9363
14.0421 118.473 -10.2593
19.0535 144.57 -5.01364
13.3545 118.713 -10.5001
9.48924 119.114 -11.7816
12.2409 114.934 -11.4062
21.203 122.152 -7.35837
20.0635 144.76 -4.69651
5.02798 117.597 -13.5538
25.0432 136.083 -4.16714
16.9544 145.434 -5.69061
25.5287 124.572 -5.58498
22.2603 124.14 -6.78482
5.53356 117.497 -13.4536
7.17365 129 -11.3607
18.4354 127 -7.77409
11.7876 114.399 -11.7671
5.58766 121.81 -12.9118
19.6528 123.835 -7.79751
9.43214 113.788 -12.6761
24.4421 134.447 -4.71752
11.6001 121.937 -10.8379
6.1283 121.624 -12.7725
6.5035 121.733 -12.6443
10.2312 147.732 -7.84818
24.7254 140.47 -3.89862
20.691 122.388 -7.73169
9.7808 116.54 -12.2862
24.4811 135.457 -4.6771
17.7222 130.324 -7.70783
9.83832 116.313 -12.3462
4.34161 118.847 -13.8996
25.1523 124.513 -5.97742
21.0746 122.255 -7.69373
6.82407 121.67 -12.6824
14.1144 120.007 -10.4048
14.7044 123.541 -9.74007
5.50075 140.212 -10.6581
7.98733 122.019 -12.3145
19.7318 133.157 -6.77347
24.6323 136.763 -4.60537
19.2838 144.059 -5.46395
15.6216 146.194 -6.45099
7.62337 114.079 -13.5521
9.95125 146.836 -8.35674
6.9691 137.816 -10.6236
6.48346 137.878 -10.7872
7.04637 118.271 -13.3037
8.51301 119.18 -12.6873
18.708 131.372 -7.53201
7.2367 130.084 -11.6673
5.60269 138.656 -11.1036
5.53461 136.722 -11.3897
7.46233 118.302 -13.2167
7.10158 120.677 -13.0255
15.9203 133.553 -8.26039
19.6825 124.851 -8.14598
24.1416 123.437 -6.8316
8.30465 115.087 -13.4364
8.71311 115.272 -13.3
8.61673 126.688 -11.8006
2.47303 123.128 -14.4002
4.86693 119.775 -14.0345
14.0695 121.167 -10.6804
20.069 142.055 -5.85292
17.9961 129.514 -8.26416
8.84156 139.127 -10.1164
23.9272 129.493 -6.22771
7.60878 118.831 -13.2912
20.8803 141.256 -5.71057
24.0367 136.663 -5.27896
17.2801 142.353 -6.85972
14.0102 146.318 -7.51728
19.6719 126.833 -8.21056
14.9548 145.186 -7.36323
6.67876 141.818 -10.6752
23.9465 134.233 -5.82665
15.0151 125.052 -10.1507
16.9203 135.244 -8.13314
9.34782 140.083 -10.1212
13.1665 145.774 -8.04123
10.0107 137.218 -10.2907
20.8126 122.497 -8.56537
23.9131 136.94 -5.54951
17.1539 141.615 -7.24958
23.8661 136.186 -5.68914
18.4391 137.579 -7.37404
20.3343 122.689 -8.75816
21.0213 135.975 -6.75096
9.54157 144.779 -9.5179
12.9143 144.514 -8.39696
19.7569 126.826 -8.43549
24.1206 124.289 -7.28909
11.3889 134.793 -10.2757
17.5462 140.405 -7.40202
12.245 145.78 -8.52593
10.0029 135.759 -10.6581
7.96879 133.18 -11.7462
16.907 141.953 -7.48403
9.4488 127.359 -12.0347
21.0419 136.687 -6.79327
14.9487 127.656 -10.1441
11.7967 145.445 -8.82725
12.6395 136.778 -9.71005
10.598 139.467 -10.0621
18.287 135.131 -8.006
22.2638 132.411 -7.00866
17.7525 129.583 -8.94625
24.0054 128.715 -6.92658
12.0532 134.978 -10.197
20.7439 122.987 -8.83674
20.0096 124.395 -8.90429
19.8591 125.854 -8.76184
17.3745 140.418 -7.64984
20.648 137.949 -6.86055
17.7586 139.789 -7.62775
17.504 135.666 -8.28805
19.004 135.291 -7.8301
22.4518 128.2 -7.6019
18.0325 138.64 -7.72974
21.0277 130.28 -7.8579
19.7463 138.628 -7.18179
19.3141 134.877 -7.83786
12.418 134.653 -10.2706
22.5118 139.102 -6.19865
19.1608 134.077 -8.03243
17.4218 135.105 -8.49615
10.1113 134.043 -11.1637
14.3564 124.065 -11.0709
8.9617 131.899 -11.8777
21.1776 138.019 -6.85169
8.68303 131.345 -12.0555
14.0206 136.65 -9.50829
13.8748 121.78 -11.5788
15.9137 143.061 -8.03665
9.10422 129.81 -12.1927
21.9113 127.146 -8.14496
13.853 135.958 -9.7294
23.5016 137.144 -6.25752
18.9058 128.075 -9.0654
16.5799 133.817 -9.09599
12.2037 132.732 -10.7798
19.4445 133.572 -8.21335
21.3779 126.891 -8.47076
22.6357 133.932 -7.09108
18.5895 129.004 -9.1625
17.2333 135.746 -8.74101
10.8374 139.959 -10.3741
13.6323 135.098 -10.0693
21.2124 128.592 -8.34427
18.2971 131.672 -8.95711
18.3977 137.635 -8.15159
14.1418 125.065 -11.3217
23.0497 136.859 -6.73588
13.8759 141.293 -9.31657
21.9337 137.607 -7.05384
17.9845 135.309 -8.73774
14.29 140.707 -9.29385
21.6525 124.162 -9.0575
14.8204 140.965 -9.13919
13.6851 140.439 -9.65714
18.2151 135.534 -8.77222
14.5837 126.561 -11.2588
21.903 126.119 -8.82029
13.7798 124.886 -11.8404
12.5773 126.998 -11.9744
10.5866 128.949 -12.4129
17.3924 131.535 -9.78879
15.8693 140.814 -9.13879
18.0447 132.226 -9.57608
18.9989 137.753 -8.51886
17.9431 132.532 -9.59085
12.5175 131.155 -11.6537
13.843 132.087 -11.0747
21.0679 133.151 -8.47454
15.7291 140.226 -9.3636
15.9852 140.66 -9.22984
20.3862 129.044 -9.28795
19.2671 133.851 -9.04691
12.603 139.978 -10.5269
16.551 131.288 -10.3517
18.0242 135.899 -9.25668
22.1104 125.207 -9.30711
16.6085 130.709 -10.462
16.6486 130.778 -10.4619
17.6459 135.87 -9.44771
22.288 125.203 -9.30003
20.0079 131.787 -9.20599
18.8887 137.5 -8.93502
13.6573 128.884 -11.9632
14.2896 128.74 -11.8601
15.9533 136.288 -10.2825
18.7868 137.309 -9.32921
18.2999 135.688 -9.71786
14.8686 137.915 -10.6422
17.8297 138.761 -9.59934
18.6625 135.099 -9.90108
16.3237 136.802 -10.6834
