ply
format ascii 1.0
comment Created by Open3D
element vertex 1715
property double x
property double y
property double z
end_header
18.5639 128.272 0.267354
-15.8265 81.2844 -9.72594
19.6996 135.117 5.19427
25.942 130.119 -4.96912
17.6178 124.907 -1.94502
-5.7199 86.3747 -14.6112
-15.4602 107.026 12.4946
7.89734 129.032 10.4563
-11.4047 80.7497 -14.493
-14.9608 77.8055 -13.8642
13.169 132.56 8.68399
15.7754 115.849 -8.47476
-17.2839 96.7357 4.95187
14.6711 117.034 -6.46041
-15.0465 77.3564 -14.2511
-16.9439 100.674 8.03637
25.5726 128.745 -6.22754
24.1731 124.721 -8.51468
11.6194 131.793 9.2487
14.8973 113.774 -9.70119
-17.3528 83.8895 -6.54389
-15.1681 76.8716 -14.792
-14.3184 110.137 13.778
27.2612 133.967 -3.36564
10.0871 105.98 -12.412
3.82168 95.7423 -15.7316
6.56015 128.696 10.8579
-0.202128 92.286 -15.1215
22.6511 138.025 4.29629
25.9527 137.487 0.766583
13.2306 111.749 -10.3152
-9.34418 83.6555 -14.4317
-17.8683 92.302 1.01037
26.2536 131.335 -4.98455
21.0189 126.667 -4.30915
12.8316 111.246 -10.4318
4.8582 127.646 11.3169
27.4684 134.851 -3.13351
-3.01315 89.9387 -14.8493
-0.375839 124.367 13.1157
-5.96488 121.105 15.351
0.965821 125.425 12.8034
13.2981 133.209 8.35929
-12.5559 113.89 14.941
13.9745 119.499 -4.44939
16.6046 123.791 -3.07943
15.2556 115.786 -8.93891
-1.97399 91.1148 -14.9341
-6.75386 120.839 15.688
-2.48738 90.6687 -14.9015
-15.0164 79.2317 -13.5223
25.9909 133.492 -3.23439
27.3095 135.77 -2.44793
23.5722 124.946 -8.59114
-11.5395 115.897 15.6226
7.50778 101.524 -14.5503
-18.1936 88.9251 -2.1061
24.7547 128.306 -6.71707
-15.2132 81.4865 -11.4266
23.9762 125.607 -8.41133
-12.57 114.151 14.9581
-6.12098 87.0836 -14.9445
-5.78031 87.4905 -14.9048
14.1513 119.149 -5.23953
5.12552 98.892 -14.8805
11.4535 109.724 -11.1198
16.0447 122.881 -3.71948
15.8402 122.696 -3.7084
-14.8736 81.5294 -11.9787
-18.2866 88.177 -2.97744
2.56584 127.028 12.1714
-12.8643 114.049 14.8586
25.3735 126.9 -8.90687
19.2943 136.141 4.81409
9.12351 105.022 -13.3509
14.1496 119.423 -5.26824
-1.2903 124.409 13.2616
7.3987 130.111 10.3026
-18.3881 87.1471 -4.02786
-12.7746 80.4233 -15.1413
20.9416 137.488 4.32255
-5.6506 88.0373 -15.002
-5.72627 87.9717 -15.0153
22.3944 125.094 -8.03875
8.39319 130.757 9.7744
15.2656 117.391 -8.38539
2.37019 95.6948 -15.7326
6.30402 129.531 10.5483
24.135 127.516 -7.64487
17.0017 136.822 7.11507
3.05412 127.762 11.8885
8.03354 130.729 9.91222
-7.796 120.923 15.7356
18.2137 136.337 5.4799
19.3608 129.598 -1.54712
-16.9909 105.065 10.1204
-9.67892 84.3664 -14.8931
-6.05158 87.9162 -15.1353
24.7104 132.107 -4.37036
8.346 104.095 -14.1362
27.0601 137.543 -1.7743
25.5784 127.947 -8.89453
27.2102 138.903 -0.722493
-16.968 105.874 10.5895
23.7868 130.153 -5.38078
10.0929 132.333 9.10126
6.19526 101.439 -14.6174
21.6705 125.955 -7.15672
-15.358 83.0271 -11.1296
-13.8576 113.625 14.5166
14.7786 121.731 -4.6105
19.5296 127.308 -4.07422
17.8988 125.725 -3.99972
15.4372 122.774 -4.35149
17.672 129.383 -0.614898
-17.5765 102.285 7.76311
-1.25925 92.9771 -15.447
-18.277 90.4726 -2.08981
14.1253 119.181 -6.45816
-14.9489 82.637 -12.0862
11.9572 111.571 -11.2151
19.774 130.525 -1.64262
7.04329 102.734 -14.6013
-2.52835 91.9868 -15.3548
23.7388 131.197 -4.81309
-17.1739 105.759 10.2225
20.9517 126.373 -6.5542
-5.38992 122.924 14.5304
5.20931 101.018 -14.5848
1.97946 96.2867 -15.8145
5.23986 101.067 -14.59
-17.8777 99.973 5.64986
8.21974 104.642 -14.178
-15.0046 79.9354 -14.758
27.0981 138.49 -1.72019
-3.85326 124.089 13.949
-18.2205 91.4846 -1.73186
-6.95138 122.011 14.8956
-16.803 84.1913 -9.47789
-15.0605 80.471 -14.3814
-17.712 86.9212 -6.25179
-18.1481 97.7069 3.65321
0.415395 95.1506 -15.6354
-18.3572 92.661 -0.657183
-10.7106 83.6219 -15.6973
-10.5176 118.97 15.3369
-1.77667 93.026 -15.6118
1.38539 127.965 12.3126
-6.66496 122.407 14.7825
-4.40816 90.7912 -15.2371
13.9884 119.536 -6.72115
25.2719 135.084 -3.35337
-14.7731 80.1621 -15.1761
-15.5592 111.42 13.1282
7.44891 131.831 10.0495
-17.1481 85.4179 -8.39312
21.3256 126.093 -7.76496
8.7148 106.695 -13.3839
7.59509 132.032 9.92885
19.5221 130.784 -2.28742
-16.8295 85.1478 -9.25643
5.80171 102.472 -14.7361
24.4018 141.607 2.73244
19.7508 139.558 5.18389
21.1108 139.734 4.03782
-17.3186 106.468 9.79905
-15.4693 83.2228 -12.4716
-13.9827 115.447 14.6247
0.791938 96.2653 -15.9097
-13.7395 81.255 -15.8627
14.4581 137.322 7.78803
13.829 120.63 -6.40114
16.0245 137.66 6.60088
23.6678 127.869 -9.11057
-18.428 91.2729 -2.82638
19.3132 130.67 -2.6688
24.4207 129.143 -8.72482
19.5868 130.389 -3.19757
12.9428 136.302 8.09707
19.2338 127.95 -5.07922
-18.2864 93.5254 -1.12447
23.3276 132.042 -5.28726
8.33005 106.889 -13.7765
13.8779 137.386 8.07211
-7.82785 122.583 14.9045
-1.88503 126.881 13.2469
13.7415 120.249 -7.12872
-17.4237 106.499 9.30794
-5.44802 90.5618 -15.7823
24.687 142.349 2.27759
-18.6108 89.6979 -4.54866
-14.9414 114.038 13.542
0.638933 128.906 12.3649
24.1501 142.526 2.81523
-6.3657 89.7853 -15.8091
-18.6357 89.6686 -4.66854
5.00756 131.842 10.8969
26.0644 137.797 -3.1916
-6.45244 123.99 14.439
14.8768 118.395 -10.1244
-13.4002 117.085 14.6552
-15.2017 82.6101 -14.2026
13.7593 120.994 -6.94096
15.7764 124.976 -5.28204
-2.7411 126.999 13.3827
15.3332 138.197 6.69029
18.2059 128.807 -4.24597
-17.4715 107.963 9.99153
-16.5316 85.4078 -10.7981
-12.5883 83.6482 -16.0065
25.2087 136.17 -4.28798
-15.0351 83.1595 -14.2235
-17.0166 88.8013 -7.42447
-16.9754 110.481 11.6744
21.4391 141.725 3.99155
22.4858 131.522 -6.0076
21.9883 126.226 -10.2571
-12.6592 118.41 14.604
-16.9683 110.72 11.7536
14.1248 119.21 -9.28336
-18.443 96.1973 0.251681
25.0273 135.115 -5.25387
12.9536 116.764 -10.4032
24.0027 133.076 -6.13624
-8.8492 88.1669 -15.6898
1.77154 130.166 11.6636
9.80364 135.2 8.73589
-5.1436 125.666 13.994
14.197 123.31 -5.87742
-18.4241 89.5583 -5.77747
24.7702 129.687 -9.988
-9.21093 122.904 15.1112
-15.5783 84.911 -12.6521
22.8865 143.432 3.71133
-15.9387 85.2161 -12.1203
-14.8992 115.329 13.5217
15.6351 125.168 -5.81394
18.1605 139.975 4.91492
-18.1344 94.7799 -1.75141
8.17188 108.363 -13.9159
-13.3438 84.2486 -15.482
-17.608 108.2 9.5368
19.17 129.834 -5.09808
19.2365 130.079 -4.96254
14.4725 118.887 -10.4884
-3.87742 93.7393 -15.8772
22.1394 143.277 4.00348
-17.1436 89.4482 -7.52543
3.52479 131.821 10.9462
-16.3224 85.8766 -11.4422
-5.86566 125.755 14.182
6.81616 106.29 -14.676
23.4912 129.151 -9.81139
13.815 122.875 -6.49512
-16.3227 87.5603 -10.0603
-14.5315 116.776 14.0975
20.3566 142.35 4.64807
8.29358 135.071 9.27081
-9.38228 123.19 14.9895
22.9974 127.127 -11.2415
4.07517 132.55 10.8988
-18.2739 97.7799 0.681248
20.0834 126.722 -8.94585
-12.9864 85.792 -14.8523
-2.31012 95.4101 -16.1576
0.281997 97.8185 -16.4724
9.54928 135.825 8.5479
-17.9608 105.718 7.17168
20.5316 142.908 4.6366
12.2919 117.537 -10.3072
-17.8983 102.063 3.70542
25.0745 136.905 -4.98781
1.88172 99.9584 -16.386
6.15043 106.165 -14.87
12.0111 137.417 7.34016
-16.1834 87.7717 -10.6672
23.0105 131.714 -7.80725
13.638 121.253 -8.4878
-14.883 116.944 13.8553
18.0447 128.177 -6.44046
14.1898 119.064 -10.9821
-12.1544 86.5105 -15.5766
23.1572 144.235 3.01979
21.6024 126.747 -11.019
-18.3008 90.4569 -6.4896
20.9848 126.991 -10.2752
23.3822 128.721 -10.9667
-15.5466 115.187 12.7635
22.6926 144.347 3.44382
-17.9256 106.638 7.36019
-18.1852 98.3751 0.292207
9.93305 112.968 -12.617
13.9293 119.042 -10.9244
11.8066 117.266 -10.5501
20.1926 143.514 4.93212
10.9733 114.124 -12.6069
-18.2811 94.0938 -3.4953
-18.1686 98.4593 0.176048
-14.6026 117.753 13.8187
-18.3927 93.9164 -3.76375
9.10601 112.246 -12.8511
-2.33946 96.268 -16.4848
11.4406 117.117 -10.7163
13.7188 122.221 -8.32291
-18.0234 110.467 10.3845
-16.6777 113.92 12.1923
-18.005 108.967 9.03297
-17.9842 102.599 3.37031
8.16344 110.372 -13.7725
-16.2265 88.7148 -10.5395
9.74131 113.184 -12.7763
-9.98867 88.2206 -16.7317
11.809 118.123 -10.3243
23.2537 128.342 -11.8021
-13.5877 119.25 13.9564
17.6209 130.227 -4.9838
23.139 144.657 2.66862
-5.79041 93.3126 -16.1515
-10.6397 87.6839 -16.6829
23.698 129.01 -11.6891
-12.1845 121.23 14.3484
21.5473 128.195 -10.4825
24.3635 136.397 -5.84693
16.544 126.731 -7.24435
-9.41916 89.2913 -16.526
-15.8531 115.496 12.4702
13.661 121.86 -8.99255
7.21584 109.334 -14.1789
17.0352 129.774 -5.13277
13.9851 123.61 -7.78063
9.11973 136.719 8.23989
-0.030811 99.1714 -16.5357
7.90158 110.176 -14.0917
-16.2889 90.0166 -9.71402
20.715 132.19 -6.46784
-18.1618 103.087 3.46226
-12.5601 121.066 14.179
23.4062 133.939 -7.49986
21.1091 144.923 4.27051
23.4103 128.663 -12.2108
17.9545 128.428 -7.41437
-15.5366 88.3815 -12.2183
7.69379 110.33 -14.1494
5.44135 107.189 -14.8682
-18.4891 99.7301 0.443051
21.4241 129.416 -9.96698
8.55745 137.048 8.57032
-11.5874 88.4954 -15.8604
20.6886 145.052 4.48702
16.8707 129.616 -5.6607
2.84742 104.273 -15.2255
23.4551 134.782 -7.19387
-18.7398 94.0662 -4.45628
-4.7887 95.2838 -16.2803
16.0617 126.72 -7.66931
4.28251 135.346 10.7479
7.2788 110.241 -14.1854
-18.297 104.126 3.859
-17.1643 91.631 -8.24518
19.8254 131.009 -7.43246
-12.0391 122.263 14.0683
13.3077 140.498 6.91692
24.7059 144.313 -0.193646
-3.78445 129.853 13.1625
-14.8724 88.035 -13.6276
10.4455 115.36 -12.7417
20.3736 128.282 -10.5322
-18.6496 99.051 -0.559945
24.9076 140.014 -4.37881
24.3661 145.236 0.730428
16.5422 127.39 -7.87131
-11.2816 89.0357 -16.2835
-18.4776 109.918 8.71009
18.253 131.013 -6.39125
-18.2664 92.259 -7.20713
17.3586 130.528 -6.08101
2.75703 134.968 11.2047
-14.6348 89.3379 -13.2346
-9.28337 126.046 14.1574
20.8276 145.854 3.95357
7.80692 111.919 -14.0957
-10.395 124.988 14.1148
23.5453 145.61 1.19414
-18.767 103.507 2.81315
2.51822 135.124 11.1899
2.85023 105.505 -15.2897
-18.9152 99.2024 -0.891925
-0.808579 100.231 -16.6041
-16.7497 115.756 11.7302
-18.8384 102.002 1.49072
-1.20323 132.493 12.2461
11.5563 139.24 6.43469
23.3945 136.28 -7.08758
-16.372 117.055 12.4071
3.75101 106.614 -15.2847
19.9754 145.826 4.43135
-14.2431 89.6547 -13.8049
-19.1175 95.5096 -4.18604
-18.7989 106.315 5.05952
-18.7573 106.78 5.42256
24.1798 145.188 -0.0802104
-9.76858 90.9019 -16.9056
12.6456 140.63 6.45268
18.5238 145.067 4.96241
5.63603 109.796 -14.3904
-3.16992 98.1443 -16.6131
-9.68077 126.17 14.105
-18.8376 106.571 5.17684
-14.8267 90.4935 -12.7162
-8.7822 92.0734 -16.8731
-18.8417 105.217 3.92968
14.3559 123.565 -10.3205
8.91281 138.29 7.63327
-14.3954 120.12 12.9584
-18.8576 107.047 5.50162
-18.6094 93.3754 -6.80452
14.0476 122.978 -10.6362
14.7634 125.339 -9.23172
24.1816 144.874 -0.679191
-13.8229 89.1633 -15.0718
20.4791 131.598 -9.07647
-18.97 104.523 3.17191
17.6162 129.401 -8.43337
16.8666 128.477 -8.60993
-19.3191 94.6397 -5.31263
-1.55686 100.308 -16.6261
-19.0128 105.545 4.00358
8.47186 138.368 7.73518
-19.102 103.537 2.25983
23.2889 136.79 -7.29464
-7.26386 94.3267 -16.7897
4.45486 108.633 -14.9557
-16.7288 117.567 12.3046
-8.47408 93.2276 -16.7732
12.3099 140.877 6.2486
-18.5902 93.7308 -7.08504
-3.20253 99.2 -16.3731
-3.69465 98.4234 -16.61
18.7955 132.488 -7.20072
18.6567 129.484 -9.73888
11.7603 140.342 6.14694
24.1616 143.323 -2.61961
12.9392 141.732 6.2508
-13.8039 90.0079 -14.9219
-11.5728 90.944 -16.1436
18.4997 129.464 -9.72165
-3.52029 99.0043 -16.4554
13.1634 121.855 -11.5833
21.047 133.303 -8.71943
21.8934 133.822 -9.04508
18.3345 133.544 -6.04518
-13.982 121.347 12.819
18.2671 130.99 -8.30458
9.91921 118.027 -12.1082
13.9567 123.019 -11.419
2.70463 136.651 10.9145
16.9935 144.988 5.14358
18.3757 132.687 -6.99518
1.83089 105.554 -15.7884
-2.43124 132.782 12.161
16.3002 144.152 4.98584
-17.9337 113.717 9.49222
-3.0738 99.8496 -16.4188
8.32295 114.562 -13.8788
13.7547 122.545 -11.8272
14.0037 123.472 -11.2765
3.48785 108.089 -15.2466
16.7454 144.935 5.12612
-2.52004 100.348 -16.5908
19.3568 129.808 -10.7078
16.6168 129.377 -8.63332
0.818003 103.847 -16.7198
-19.6223 101.726 0.126627
-7.97962 128.546 13.1309
-19.2938 95.9571 -5.2952
0.921317 135.798 11.3306
19.7329 131.619 -9.68738
18.7296 129.995 -10.2193
-1.18664 101.914 -16.7886
-12.2407 91.7728 -15.6223
-17.0789 93.1154 -10.0156
-8.63615 128.276 13.2026
-12.3015 92.0273 -15.5205
-13.9263 91.213 -14.7885
-7.2601 95.68 -16.975
1.41391 105.66 -16.1208
11.5378 141.186 5.97593
16.2788 132.377 -6.17133
-12.5717 123.946 12.8365
17.1959 132.896 -6.58757
-7.44452 129.416 12.8819
-13.9781 91.3344 -14.7694
-17.526 93.6465 -9.4802
-4.589 99.3404 -16.375
-17.9454 94.0191 -8.82328
-3.11712 100.657 -16.5786
4.58724 111.078 -14.4889
-1.86032 134.173 11.7788
23.113 139.45 -6.49209
2.33178 107.947 -15.335
7.62609 115.043 -13.9408
-16.9787 118.955 12.0783
16.3222 132.699 -6.37328
-12.2318 124.61 12.6742
-7.57024 129.677 12.8191
0.130842 135.767 11.0957
17.9356 131.301 -9.19962
-15.3172 92.3903 -13.1243
22.9235 141.344 -4.97555
23.3096 145.148 -1.97083
-17.6629 117.675 11.329
-18.8529 111.013 6.47421
15.2816 128.551 -9.37803
-19.6097 105.626 2.35538
-4.94 99.7229 -16.3303
13.1421 123.466 -11.9763
22.9855 142.835 -3.90389
23.0298 143.366 -3.51879
-9.21236 95.5521 -16.185
14.3911 126.275 -10.7012
16.4576 146.56 5.29355
-18.7792 111.156 6.31904
17.1714 131.178 -9.02776
-12.3018 93.6142 -15.1861
4.77749 139.368 9.56315
-16.0686 93.4272 -11.9519
-1.8243 102.658 -16.8821
-15.238 121.594 12.1436
-0.449618 104.14 -16.8435
-19.6961 101.684 -1.36979
-8.55829 96.4487 -16.2673
5.79944 139.712 8.78006
5.4544 113.683 -13.9023
15.0357 128.53 -9.59266
22.4825 138.643 -7.60096
8.20203 140.808 7.39386
-19.4301 108.69 4.36685
7.2076 140.153 7.70066
-19.4884 107.839 3.6265
16.9409 131.112 -9.23543
-12.2722 125.544 12.6066
-18.5474 112.537 6.85693
10.8175 122.705 -11.1046
8.63948 141.264 7.25645
16.8523 130.832 -9.49949
0.326254 105.389 -16.823
-19.806 98.8836 -4.10718
19.6154 133.257 -9.93639
-2.4802 102.437 -16.8951
3.60902 139.3 10.0784
22.6474 146.616 -0.926176
-11.6227 95.2461 -14.8853
19.7589 133.745 -9.70243
-19.4424 109.037 4.41938
-11.3291 127.165 12.9657
12.8924 124.593 -11.5343
-1.49285 103.66 -16.8861
-11.3886 127.161 12.9483
-19.8339 99.2597 -3.95682
17.3735 147.576 4.58547
-19.8177 101.547 -1.99312
7.89618 141.041 7.46564
-0.723605 135.508 10.4427
18.7614 134.347 -8.45926
7.89046 141.091 7.46524
-19.7736 105.567 1.44828
17.6105 147.786 4.42237
22.2556 142.102 -4.88721
-5.86901 99.8162 -16.4587
-9.25337 96.9983 -15.8443
22.1077 140.585 -6.1418
10.1758 122.941 -10.8551
-11.5441 127.277 12.8924
22.0435 141.017 -5.7863
-18.6273 110.571 4.62097
2.88361 138.909 9.92158
-12.5995 125.739 12.4815
9.88974 121.89 -11.5611
21.5502 137.355 -8.6152
10.3483 123.091 -11.017
-0.398982 135.87 10.0492
-18.3991 113.496 6.77451
12.9578 144.156 5.07753
16.0168 130.057 -10.2026
1.70159 109.389 -15.3377
-13.5541 94.2722 -14.7525
-18.355 111.199 4.58038
1.20907 108.383 -15.8684
-10.6206 96.8792 -15.1955
10.4217 142.414 5.70111
18.9436 134.156 -9.43318
-18.362 113.757 6.74009
6.23045 140.724 7.95904
-18.7375 97.8067 -7.07785
5.60585 115.633 -13.6682
-9.79387 97.4464 -15.6158
6.26466 116.426 -13.59
17.011 134.608 -7.38815
-17.8047 115.773 7.87432
-7.95532 130.586 11.9188
2.72164 111.185 -15.0219
9.63561 122.211 -11.6421
-15.6264 122.645 11.9087
20.2561 137.53 -7.91196
15.7747 147.603 5.02297
11.8222 123.833 -12.3798
-15.861 122.583 11.91
9.63665 122.737 -11.4122
7.90715 118.407 -13.6594
-19.847 101.697 -2.96228
-16.9106 95.4379 -11.2196
5.40053 140.771 8.32306
16.7756 133.933 -8.15578
0.865721 137.27 9.35925
10.834 143.188 5.43323
21.907 144.975 -3.15146
-19.5205 108.798 2.86697
21.9595 145.258 -2.97915
-4.13613 133.426 10.4709
2.06192 110.909 -15.1344
-17.4142 96.0052 -10.4557
-18.5127 117.3 9.32907
16.6334 134.998 -7.30683
10.1781 123.754 -11.3193
21.3945 141.157 -6.25162
-18.1975 119.727 11.1365
16.5847 135.329 -7.01473
-14.4031 124.62 11.9293
-10.355 97.929 -15.3808
0.31227 136.852 9.18691
-19.8595 102.152 -2.96341
-18.8073 110.252 3.1489
3.40566 113.541 -14.342
-19.0758 98.956 -6.61116
-19.7697 107.466 1.48342
9.62051 123.866 -10.9928
-12.426 97.1282 -14.4134
-11.363 128.338 12.1823
-14.5798 124.768 11.8797
15.9375 133.25 -8.63197
-2.42895 104.796 -16.9347
17.5248 134.414 -9.09202
-16.9501 122.389 11.9026
-16.6205 96.2975 -11.476
-19.842 99.9081 -5.341
21.4689 143.562 -4.70739
7.74531 119.072 -13.7771
10.4415 143.795 5.51756
17.8599 135.686 -8.54011
-19.4757 108.885 2.01656
-3.21003 104.327 -16.9437
12.2897 145.455 5.15849
9.21952 123.462 -11.4592
-19.6167 104.253 -1.98814
-5.90662 132.748 10.6033
-6.89352 131.93 10.7842
18.2507 135.368 -9.27217
-19.3159 109.372 2.18822
14.574 129.273 -11.4175
-18.7713 119.48 10.4956
-18.3397 98.3005 -8.64174
-0.904303 107.093 -16.8927
18.0788 137.049 -7.93243
-16.3433 97.6015 -11.2367
7.6403 143.235 7.07267
12.5422 126.478 -12.2553
18.8659 148.624 1.46966
-3.86126 133.791 9.19084
17.7098 137.427 -7.47179
-7.76108 100.817 -16.4817
-13.8922 97.3069 -13.9617
21.237 144.419 -4.58364
1.02309 110.828 -15.7656
9.88976 124.635 -11.7199
-9.08775 99.8505 -16.2426
21.2477 146.773 -2.65268
0.00127091 108.667 -16.8551
-19.5128 108.709 1.04352
-3.5547 134.074 8.78957
4.53135 116.895 -13.8316
0.91492 111.016 -15.8413
19.3253 139.009 -8.0118
-13.0511 98.1123 -14.4729
-18.2775 99.4765 -8.48022
15.95 134.667 -8.90042
-18.7043 110.276 1.31793
17.3212 137.18 -7.99183
-19.1177 109.557 1.01324
7.79468 121.992 -12.6981
-18.1292 121.448 10.5736
-17.9533 99.0464 -9.38874
-2.69116 135.001 8.2714
-4.597 104.602 -16.8409
3.03179 141.194 8.48088
17.1842 135.733 -9.34079
7.54265 122.607 -12.1372
-18.3341 118.26 7.74405
20.5102 148.008 -1.64944
-17.8145 116.018 5.23675
14.387 148.876 4.71804
-19.4609 108.742 0.30871
-17.9948 117.206 6.38489
15.1486 148.993 4.05017
-16.1346 99.3118 -11.1513
-17.0655 99.4197 -10.353
-0.388637 109.41 -16.8328
20.3076 142.885 -6.26804
0.664857 138.815 8.14909
-10.8098 100.057 -15.5922
14.4599 132.008 -10.561
20.3162 143.071 -6.174
-18.8915 119.594 9.04998
-10.0968 130.722 10.7428
6.99412 122.316 -12.3946
-4.34054 105.566 -16.7982
-4.20078 105.746 -16.8017
5.70732 118.906 -14.3121
-18.9522 120.629 9.81757
-20.3484 103.417 -4.18601
-1.46113 108.956 -16.8394
-10.1919 101.063 -15.8134
17.0562 138.013 -8.17146
-2.08818 108.31 -16.8536
-19.0659 111.284 1.22762
11.8099 147.916 5.19105
1.74011 140.52 7.87387
-19.0446 110.374 0.24732
19.427 148.852 -1.0614
12.6033 129.217 -12.168
-18.4896 117.204 5.70961
6.5922 123.85 -11.4683
-3.20732 107.654 -16.811
17.3171 139.329 -7.71313
-18.2077 116.016 4.27305
-20.3779 103.389 -4.90031
-12.6392 129.107 10.7198
-19.1826 110.861 0.58786
-1.32877 137.525 7.71908
17.0751 139.09 -7.81407
-18.1802 122.685 10.0282
6.14266 121.549 -13.2896
-18.4452 116.179 4.52083
4.21593 143.379 7.71838
6.12132 123 -12.0497
-20.2483 104.788 -3.95826
19.2853 148.841 -1.31709
-15.1045 100.294 -12.6586
13.1646 130.811 -11.6394
8.29214 145.604 5.87958
-19.2636 119.957 8.39074
0.307078 112.601 -16.0628
-19.0394 101.687 -8.00764
-13.4352 100.256 -14.4955
7.40673 125.154 -11.639
-10.8814 130.841 10.0623
-0.473433 138.798 7.52594
13.9328 133.697 -10.2063
5.50872 120.626 -14.0295
-14.768 100.452 -13.2533
10.1743 147.468 5.35323
-19.4526 118.01 6.40455
-19.047 116.513 4.64107
0.320249 139.742 7.36768
-11.6781 102.392 -14.622
8.86053 126.461 -12.2251
-10.9676 102.984 -14.7944
-19.5961 108.7 -1.83638
13.465 149.57 3.918
-19.5877 118.053 6.3759
-4.36846 107.835 -16.6218
-2.61964 136.515 7.10546
-8.89753 104.521 -15.405
17.4861 142.099 -6.42456
-17.8275 102.01 -9.47948
-18.7606 102.538 -8.15748
-14.1744 127.783 9.91811
14.3725 149.615 3.01098
15.2331 149.715 2.26677
-17.9302 124.605 10.4509
-10.75 103.68 -14.642
-4.87981 107.799 -16.4938
-18.4526 102.989 -8.33501
7.81516 146.34 5.84446
-19.1063 122.04 9.05978
7.28164 126.332 -11.379
-10.0227 105.234 -14.2736
14.8957 149.826 2.21633
3.96252 119.646 -14.4186
-20.2266 104.272 -5.82647
5.34026 121.88 -13.775
-19.8841 108.534 -2.44563
-18.386 103.851 -7.99509
-19.9303 104.157 -6.32214
11.4863 149.595 4.97542
-9.94519 131.814 8.89303
-19.3116 119.396 6.46471
-8.63142 106.696 -14.564
12.9834 149.848 3.72497
-8.22756 106.892 -14.7667
-4.36997 134.872 6.363
19.02 147.634 -3.85345
8.09031 127.571 -11.6194
-11.8522 104.465 -13.741
-19.9224 104.541 -6.27848
-2.92475 136.653 6.48324
6.84347 126.963 -11.0411
-7.22374 108.036 -14.9295
-8.22677 107.547 -14.5135
2.3041 118.342 -14.6627
-18.8987 115.997 2.71403
-19.905 121.276 8.24754
-11.8799 104.954 -13.5508
18.3952 148.854 -2.54343
-7.65222 108.211 -14.5661
-11.3675 130.18 8.2268
18.0182 146.364 -4.486
-18.9358 115.178 1.81615
-19.8028 113.226 0.873074
-3.78489 135.769 6.08064
11.2244 150.08 4.94013
-17.3183 125.004 8.89443
-8.44086 108.083 -14.2077
-3.67741 111.477 -15.6656
-12.7299 129.098 8.20216
-18.7864 120.179 5.85265
-12.5553 105.082 -13.2314
0.919974 116.649 -15.422
-10.1025 132.025 8.25641
-19.3268 114.593 1.28159
-4.95549 111.409 -14.7421
-5.9646 110.881 -14.2842
4.78931 123.097 -13.3667
16.5509 142.276 -7.2191
-18.7941 118.765 4.384
-6.08521 110.992 -14.1651
-14.6311 103.345 -13.1304
-19.0825 124.062 9.23073
-2.06921 113.619 -15.6671
4.81212 123.5 -13.2607
-13.9235 104.042 -13.3033
-16.4455 125.42 7.86606
4.67175 123.148 -13.5167
9.94986 149.858 5.20427
3.63494 121.093 -14.4289
-20.4719 108.861 -3.12581
2.25166 119.335 -14.7648
-18.0125 124.982 8.78798
-2.06315 114.581 -15.1189
-8.99502 132.37 6.9468
8.6359 149.071 5.47247
-1.42208 114.512 -15.8633
-1.03936 114.398 -16.3543
6.03775 128.19 -10.68
-3.97329 113.404 -14.6296
-13.7958 105.318 -12.8052
-9.25591 132.396 6.9261
7.5202 128.819 -11.6305
-19.754 123.338 8.52784
-10.4654 132.196 7.80412
-10.9154 108.056 -13.1667
13.6699 150.422 1.67985
-15.5105 126.557 7.32996
-15.9785 125.949 7.22078
-12.3525 106.817 -13.0146
5.09306 125.663 -12.4385
9.02023 149.952 5.36367
-15.3761 126.452 6.97755
-1.99872 115.947 -14.584
7.30223 129.024 -11.5929
17.1821 147.203 -4.60272
12.3704 136.37 -9.76577
4.03937 122.66 -14.265
-15.9817 104.403 -12.0883
-8.65899 132.865 6.30868
-14.3062 105.602 -12.5961
2.24201 120.336 -14.7822
15.1728 150.74 0.197729
8.05682 129.499 -12.0393
-8.40001 110.678 -13.5916
-14.1645 105.917 -12.5488
-1.75141 116.329 -14.7402
-14.4398 127.988 7.18302
-14.2545 128.823 7.73821
-1.48509 116.178 -15.2289
-6.35285 112.928 -13.7048
-19.5426 123.538 7.76124
4.32913 124.453 -13.4359
-17.1405 104.901 -11.0459
-13.8748 128.709 6.97866
-0.990756 116.093 -16.0065
-16.4504 105.034 -11.6052
-18.1937 105.47 -9.64076
-19.3194 124.878 8.50731
-14.0403 128.182 6.57025
11.6464 136.316 -9.91788
15.2363 150.788 -0.560988
-19.0978 123.134 6.50403
-18.3561 106.595 -8.9268
-13.3149 129.225 6.38957
14.3842 138.826 -10.5912
-10.6127 132.274 6.5185
-15.2843 106.685 -11.8071
-15.5051 106.903 -11.4354
14.8604 150.851 -0.479705
-18.7577 119.298 2.47721
9.12478 150.95 4.8147
-20.7944 113.442 -0.889914
-12.7667 129.969 6.3424
15.0782 141.311 -9.18995
-20.1936 115.026 -0.11776
1.6192 143.761 5.23177
-15.1389 107.497 -11.4993
-20.1813 116.824 1.33611
-3.35177 117.11 -13.8707
-10.8919 110.414 -12.8937
-19.7662 108.36 -6.56899
0.531412 119.269 -15.5694
-21.0308 109.919 -4.0527
7.37181 130.462 -11.9943
11.0829 151.3 2.99465
1.67112 143.894 5.06529
-20.2932 115.21 -0.141587
0.209778 118.921 -15.6962
0.755445 119.979 -15.2793
-7.89723 113.29 -13.3319
16.2437 149.251 -3.71751
-13.4487 108.349 -12.6151
1.30177 120.745 -15.2137
14.0722 139.747 -10.1977
-3.27783 137.789 3.94435
-9.23853 112.392 -13.1587
3.98857 147.233 5.47747
-19.6863 124.048 6.70333
-14.4236 128.837 6.09043
-2.98671 138.305 3.895
-11.8032 110.597 -12.5106
15.2385 150.674 -1.93146
-7.64859 134.091 4.39301
14.5191 150.965 -1.03929
-19.8796 124.775 7.37484
-14.704 109.147 -11.1899
8.92981 132.82 -11.9705
-19.4839 123.419 5.78835
7.51747 131.15 -12.1848
-21.1609 113.06 -1.87569
0.0174637 119.956 -15.2346
3.98158 127.031 -12.6658
-2.75181 119.748 -12.9325
-18.4864 122.738 4.12493
-18.1855 120.069 1.48128
4.68576 148.778 5.81744
10.9424 151.759 2.69378
3.7598 126.721 -12.9092
-15.9719 126.794 5.20555
7.2186 150.64 4.98682
-1.66335 120.123 -13.8621
-18.9137 122.615 4.07189
-9.64355 132.921 4.65989
-5.40475 136.278 3.62666
14.5676 142.585 -9.14468
1.96931 144.714 4.28722
-21.1995 114.144 -1.4681
1.23376 143.733 4.07713
13.7623 141.441 -9.44458
-19.3183 121.654 3.41127
-11.8359 111.657 -12.2986
11.8708 151.506 1.15555
13.4396 151.2 -0.701329
-4.22976 120.175 -11.9174
9.56918 135.224 -11.303
-20.2897 117.292 0.211505
-19.2674 122.381 3.75913
-16.7998 108.831 -10.4809
14.9162 144.027 -8.52245
-6.58492 135.791 3.91801
-7.32918 115.294 -13.5887
-19.7009 124.387 5.76177
-4.74513 119.845 -12.0147
0.678804 122.341 -14.7985
6.32591 150.479 4.84865
15.3185 150.555 -3.35844
-20.9533 115.411 -1.14804
-8.70427 114.686 -13.0771
-19.8193 122.707 4.1396
-19.6494 122.259 3.527
14.8099 144.567 -8.39273
0.695993 143.316 3.43692
-7.42636 135.712 4.15711
-16.6059 109.484 -10.5922
-6.09717 136.778 3.79986
-0.0461895 142.457 3.26516
-0.882074 141.517 3.17217
-19.6691 122.472 3.55096
-8.20263 135.358 4.39984
-2.0723 122.103 -12.9531
9.53841 152.871 3.53027
-9.17036 114.74 -13.0031
-20.1709 117.1 -0.843324
-0.454725 122.442 -14.2196
-6.92386 117.325 -12.8612
-0.292219 122.805 -14.1332
14.4819 144.408 -8.62428
-19.2951 120.431 1.17734
14.5328 150.967 -2.90745
-15.2928 110.701 -11.1301
-3.91701 138.356 2.8573
14.9188 150.745 -3.47826
-15.8467 128.355 4.92091
-19.9151 122.174 3.16244
-0.478432 123.001 -13.9525
-0.503537 122.964 -13.9626
14.7533 146.994 -6.73891
-20.3035 116.949 -1.15
-20.5949 124.257 5.4466
-20.6903 120.779 2.45926
-3.6959 138.808 2.76007
-16.3045 127.802 4.58916
-18.6439 126.549 5.58321
-9.47148 134.913 4.54988
-22.8857 119.95 3.60072
14.5683 149.221 -4.92056
7.50384 134.089 -11.8309
-19.5685 120.614 1.06494
13.4857 143.147 -9.36469
-18.2717 126.013 4.61597
-2.82286 123.823 -11.5717
-20.363 116.536 -1.97416
2.09938 126.843 -13.5044
-21.357 121.365 3.16129
1.84413 125.929 -14.0969
-6.00771 120.891 -11.3756
-10.3089 134.41 4.51184
-8.68602 116.083 -13.2294
-19.7068 111.152 -7.56196
-19.5894 125.829 5.25566
-8.37385 136.424 4.30807
-20.4035 121.478 2.01214
-6.35517 121.061 -11.2491
-22.5479 120.525 3.1286
-16.2924 111.359 -10.7142
-21.6176 113.716 -3.75096
-3.52844 124.22 -11.0755
-4.04279 139.161 2.58844
-1.26181 125.235 -12.2749
13.9681 148.202 -5.98725
-24.1399 120.07 4.03705
-17.8691 120.46 -1.4402
14.2915 147.372 -7.17258
6.97202 134.857 -11.5506
14.2331 146.439 -8.01603
-18.5735 126.332 4.29492
4.35291 132.891 -10.9753
-19.7852 111.709 -7.54498
-7.6247 137.305 3.90298
-20.3827 120.899 1.0818
-6.10501 138.945 3.91115
-19.4775 125.41 4.20675
12.0133 141.642 -10.3675
-20.6434 127.304 6.88836
14.158 146.624 -7.97181
-10.2952 135.368 4.49027
-19.1486 126.008 4.33247
-7.81542 119.434 -11.8872
-21.9182 121.989 3.29476
10.2774 153.396 1.50107
-7.86057 119.379 -11.9126
-14.8001 113.061 -11.141
-15.0243 131.652 5.43714
-5.51583 123.997 -10.1107
1.21979 127.166 -13.5299
-17.2364 111.744 -10.2294
9.85475 153.701 1.95458
-18.7857 128.032 5.54862
-21.9903 120.484 1.80544
-21.9251 120.491 1.73648
-21.7562 114.436 -3.81066
-11.6366 115.143 -12.4853
-18.2521 111.634 -9.53334
12.909 145.103 -8.56424
12.8113 151.974 -2.53881
-13.9459 133.192 5.38979
13.611 146.454 -8.20187
5.92605 134.341 -11.9072
-2.22058 125.725 -12.067
-11.9466 115.388 -12.3037
-19.4582 121.707 0.168696
-21.5409 127.448 7.07263
-22.2537 120.772 1.81067
-10.5479 116.824 -12.426
-17.4622 121.388 -2.0734
-21.3718 113.936 -5.07692
4.78937 133.99 -11.3894
-20.1753 128.474 6.62269
-6.87677 123.773 -9.76795
-13.0995 134.351 5.2706
-24.0419 123.826 5.93428
9.59675 140.422 -10.2832
-25.5157 121.969 5.60024
-7.83219 122.089 -10.5195
-13.3096 134.202 5.17833
9.66398 154.135 1.67208
-23.9262 124.502 6.29445
-6.71979 124.483 -9.52245
13.2367 146.667 -8.23915
-21.6428 114.231 -4.92014
11.884 143.517 -9.81275
-12.3687 115.743 -12.1059
4.2584 134.178 -11.1218
-23.3061 126.496 7.34623
-24.4328 124.682 6.76635
-15.8956 132.932 6.21968
-17.5813 115.184 -7.97635
-19.6368 114.692 -6.52689
-22.9379 124.97 5.56862
-13.5679 134.887 5.65748
-13.8532 134.078 5.17737
13.0437 146.821 -8.24224
-21.3315 120.673 0.101782
-17.692 121.823 -2.34867
-9.21687 122.088 -9.92909
-19.4916 121.719 -0.840414
-1.54033 143.676 2.07847
-19.7099 121.211 -1.11236
-14.3069 134.531 5.68417
-9.31074 122.255 -9.81766
-21.4951 121.365 0.567768
-12.9264 116.213 -11.8766
-27.1826 119.854 4.4055
5.15308 135.507 -11.4481
-20.6812 121.889 0.218737
-19.3594 130.381 6.50547
3.50233 134.273 -11.0885
-15.7727 115.976 -9.5833
-26.7727 120.468 4.47465
-15.798 115.859 -9.67012
4.68411 135.393 -11.2384
-18.6397 130.641 5.8893
-20.1844 130.204 6.88023
-17.7402 131.826 6.03543
11.2464 152.862 -1.99485
7.77926 139.397 -10.7147
-17.2439 132.997 6.55973
9.42568 141.546 -10.3655
-26.2751 121.414 4.59124
-18.3069 120.053 -3.93724
-18.6216 119.953 -3.74581
-19.3805 119.437 -3.51268
2.34125 133.053 -11.4293
-20.5863 122.169 -0.0328483
-18.9076 120.449 -3.10761
-26.6922 121.262 4.70038
-8.90761 123.745 -9.44724
-25.9012 122.421 4.94999
-27.7499 120.36 4.82373
5.19896 136.198 -11.4266
-15.1967 116.648 -10.0008
-28.0354 120.185 4.87947
-10.0672 137.721 3.87385
-10.5085 122.176 -9.46524
7.79504 139.776 -10.7348
-21.4618 129.519 7.02614
-18.6256 121.366 -2.79371
-21.4691 121.812 0.157258
-12.0816 136.899 4.85648
9.11332 141.581 -10.4552
-20.4181 116.572 -5.48958
-17.5071 133.566 6.85227
-7.6149 140.439 3.82679
-11.1022 137.982 4.80672
-11.8156 119.011 -11.3402
-20.906 115.996 -5.68732
-18.8265 115.91 -7.68693
-11.8895 118.997 -11.337
-25.2846 118.792 0.764506
-28.1129 121.002 5.2816
-8.64912 124.993 -9.05155
-23.9657 127.34 7.07224
10.4933 143.86 -9.97914
-9.04393 124.592 -9.10222
-7.64133 140.972 4.06648
-14.7939 136.89 6.93224
-18.1481 122.399 -2.81068
-21.7789 122.092 0.213966
-5.12971 126.545 -11.1628
-1.16163 129.383 -12.3749
-5.05365 126.994 -10.9422
-8.81167 125.575 -8.74952
-12.2509 137.645 4.99795
-5.09964 127.849 -10.2866
-21.7987 130.14 7.01652
-22.1003 122.29 0.33058
-21.2491 122.157 -0.584133
-18.0274 134.422 7.27659
-5.81879 141.352 2.18322
8.57566 154.713 0.730991
-2.82658 129.121 -11.4303
-20.422 122.727 -0.942864
-25.6539 118.92 0.460813
0.240842 132.305 -11.501
-19.7268 123.84 -0.662701
-20.4367 122.806 -0.950315
8.54916 154.666 0.587672
-29.5949 121.582 6.32045
-3.03568 129.35 -11.1988
0.908553 134.01 -10.7246
-25.0788 119.872 0.625225
-25.1978 118.907 -0.119325
-27.7365 124.78 7.35424
-20.6996 122.113 -1.52705
-29.7636 122.413 6.97455
-18.0736 122.594 -3.65853
-23.0675 121.36 -0.169363
-1.35368 131.155 -11.449
-18.0067 122.31 -3.99109
-19.5916 123.32 -1.65672
-17.966 122.669 -3.76047
-2.20311 129.585 -12.1582
-18.5738 134.042 6.74512
-20.302 123.327 -1.14833
-24.2486 120.581 0.0344028
-28.8095 122.467 5.86995
-10.1983 139.895 4.17848
-24.6845 119.85 -0.261222
-19.0295 123.605 -2.15298
-6.80963 127.038 -10.3558
0.794965 135.669 -9.70818
11.5227 149.212 -7.59362
1.71678 135.591 -10.6378
10.0252 146.102 -9.00329
-20.5432 117.278 -6.48859
-30.4695 121.166 6.00947
5.5976 139.254 -11.1322
-24.5113 120.967 0.322377
-15.9186 137.411 6.94529
8.9119 144.468 -9.61573
3.19759 137.126 -10.9314
-9.45986 141.312 4.36789
-14.0089 119.999 -10.2992
-13.5125 138.608 5.62488
-28.1184 119.801 2.37958
-26.7631 126.26 6.80122
-14.7343 139.255 7.23495
-28.9198 119.829 3.08349
-16.5436 137.002 6.89031
-21.0283 123.612 -0.838315
-17.744 118.659 -8.23088
10.8238 150.766 -6.07745
-18.8563 121.699 -4.52857
-22.5322 122.217 -0.71181
-7.02683 143.32 3.69133
0.630341 136.996 -8.92661
-23.11 122.641 0.130374
-18.9974 121.2 -4.91778
-9.74445 126.992 -8.32032
8.10668 143.849 -9.82117
-22.642 122.309 -0.670401
-18.938 118.051 -7.84479
10.8169 149.531 -7.34759
10.3058 152.42 -4.34891
-26.2803 126.973 6.71467
-22.2352 131.138 6.64788
8.80233 145.577 -9.09332
-21.7529 123.081 -0.963208
-17.3271 119.699 -8.02323
-13.6522 139.169 5.77998
-19.791 123.759 -2.21496
9.02723 147.417 -7.75609
-16.8009 137.364 7.0433
-26.395 127.001 6.68763
8.78568 148.239 -6.8541
10.6254 151.539 -5.63465
-15.4881 121.282 -8.42828
-20.5724 122.894 -2.35135
-13.2737 122.228 -9.65862
-14.5256 120.72 -9.8522
10.0776 152.477 -4.36827
-19.9072 118.082 -7.26798
-5.19257 130.646 -9.67425
-18.9678 122.909 -3.88071
-18.1787 120.54 -6.71543
7.20372 145.712 -7.81951
6.60476 145.448 -7.50915
-25.1578 128.47 6.60537
5.98692 144.331 -8.01868
-3.61916 131.513 -10.553
-19.8028 118.344 -7.35469
-13.9228 139.873 6.26159
5.96564 142.321 -9.82189
-30.0134 122.874 6.00426
-20.9101 123.464 -1.84479
-16.6949 123.478 -5.71109
2.43412 139.339 -9.25062
5.64528 143.515 -8.54466
-30.093 122.903 6.01944
8.77169 153.723 -2.44139
-29.2442 119.862 2.47199
-30.8232 123.281 6.92712
-20.9031 124.054 -1.50431
-27.8807 119.786 1.11708
-6.69037 143.195 2.35617
-17.9623 121.784 -6.21838
-31.5953 120.128 4.81428
3.55361 139.85 -10.0105
-0.533468 137.262 -8.57268
-14.8705 121.995 -8.91769
7.17697 147.482 -6.63574
-8.2859 128.89 -8.94264
4.01841 141.303 -9.28221
-10.1302 127.884 -8.16103
4.02002 143.719 -7.16395
-18.0305 121.775 -6.32171
3.06609 140.087 -9.51437
1.27282 140.835 -7.21584
2.64918 140.392 -8.89376
-26.9558 123.177 2.99076
-31.7463 123.862 7.96549
1.87037 141.172 -7.58962
-13.0342 140.632 5.58903
-18.8715 124.017 -3.74112
-22.8474 131.383 6.40794
-17.9709 122.597 -5.846
8.51203 149.449 -6.42547
-16.7551 125.238 -4.71212
-16.6908 125.384 -4.64842
5.30169 145.806 -6.82202
-13.9537 141.012 6.60108
3.53973 144.567 -6.37181
-7.21133 129.436 -9.913
-25.7323 123.639 1.95576
-14.5684 123.188 -8.70107
8.99562 152.869 -4.11964
-19.1863 137.272 7.89818
-5.02717 133.6 -8.34532
-5.86196 132.444 -8.62517
-4.05842 132.701 -10.0565
-2.35356 136.757 -8.04635
-4.01021 135.393 -7.73757
-25.2404 123.764 1.45496
7.0222 154.239 -1.22477
-19.0495 123.082 -4.83585
-19.9202 124.477 -2.8092
-2.5553 135.11 -9.37571
-6.67395 143.583 1.88522
-4.06668 134.118 -8.876
-17.7944 123.756 -5.44854
-3.36484 134.083 -9.58383
-7.63777 129.791 -9.46844
-30.7192 125.284 7.71889
-22.8492 122.925 -1.61664
-27.8475 123.475 3.44767
5.44306 146.975 -6.33784
-20.8175 123.87 -2.72558
-1.66043 139.509 -6.51335
-18.6422 120.213 -7.98342
-24.5414 130.299 6.293
-27.1505 128.28 6.89988
-20.7415 134.706 6.57438
-10.5406 128.8 -8.05416
-26.6097 128.593 6.48298
-27.0815 128.502 6.82894
6.41178 154.952 -0.535844
7.17074 153.161 -2.82595
6.71156 149.632 -5.60404
-2.44544 138.725 -6.90321
-31.9425 123.769 6.92959
-11.0907 128.573 -7.96251
8.81128 152.079 -5.4667
7.84241 151.433 -5.198
-15.2836 124.021 -8.20024
-28.1937 123.812 3.42168
-8.78093 144.722 4.0596
-20.2089 136.82 7.55268
-22.5509 123.707 -1.90626
-21.7399 134.039 6.41511
-17.6924 127.232 -3.31623
8.05995 152.091 -4.98752
-15.4529 126.605 -5.9342
2.16478 145.349 -5.54438
-18.7842 124.5 -4.74796
0.18586 142.962 -5.84946
-18.6699 125.823 -3.70123
4.5223 147.244 -6.06203
-2.28323 139.473 -6.72829
-16.6844 123.64 -7.55875
-19.1898 124.51 -4.56968
-18.6698 127.436 -2.48804
-32.4571 123.399 6.57114
1.68342 145.239 -5.51455
-18.4206 127.987 -2.34705
-18.2822 128.461 -2.05792
6.22552 150.117 -5.46521
-11.5716 143.186 4.73136
-18.577 127.41 -2.78541
-24.8001 123.943 -0.163853
1.03431 144.742 -5.57055
-18.0078 139.941 7.6325
-20.9975 136.713 7.48534
-8.53965 145.616 3.8888
-10.918 129.734 -7.99427
-0.0150398 143.482 -5.85372
-0.650902 142.75 -5.93204
-15.7333 124.926 -7.95932
-0.786075 142.773 -5.94383
-18.5246 139.813 7.71157
-16.5071 127.009 -5.46611
-23.3376 133.752 6.63135
-2.07355 140.989 -6.501
3.1979 147.742 -5.37131
-33.2678 124.252 7.32205
-15.3267 127.947 -5.89996
-19.7671 126.696 -2.93422
-1.72811 141.761 -6.18567
-31.0104 124.327 5.26066
-17.2815 125.814 -6.03896
-17.2939 125.22 -6.55367
-19.7059 126.91 -2.89535
-2.50994 140.404 -6.76406
-22.992 134.46 6.76572
4.82358 149.618 -5.3628
-0.138516 143.971 -5.8332
2.39753 147.424 -5.12243
-8.35561 146.049 3.48049
-1.44132 142.491 -6.02492
0.795859 145.491 -5.46218
-27.6213 130.226 7.12086
-25.4536 124.426 -0.0205175
-27.6073 124.649 2.14499
-33.379 124.401 7.16136
-15.0802 126.655 -7.6844
-9.39964 146.141 4.27735
-16.2763 126.294 -6.95244
-20.5913 125.511 -3.72539
-31.8636 124.556 5.74294
-3.43231 139.443 -7.37473
-33.2436 124.647 6.8074
4.72498 153.497 -2.53768
-2.21681 142.106 -6.27287
-18.6158 140.945 7.72092
4.88133 152.905 -3.27967
-25.2851 132.005 5.85457
3.9842 149.928 -5.17837
-31.7881 126.601 7.0228
3.40703 149.39 -5.1514
-30.0151 124.982 3.94502
2.09134 148.315 -4.915
-24.0596 134.341 6.64947
-32.0472 124.861 5.59768
-22.9557 125.666 -2.08321
-25.4496 132.066 5.82875
4.54794 152.842 -3.41369
-11.3366 130.552 -8.53898
-32.6056 125.075 6.06844
-17.8544 130.343 -2.82002
-12.5132 145.069 5.21679
-15.7359 128.561 -6.43893
-16.9569 128.077 -5.82722
-18.0143 129.991 -3.19014
-9.81525 146.918 4.2172
-7.78201 134.233 -8.90018
-10.6548 131.514 -8.67138
-14.1659 131.244 -5.70032
-0.117787 146.382 -5.23591
-8.38961 147.095 2.9309
-26.3457 131.895 5.97003
1.9016 149.092 -4.75988
-16.6419 129.153 -5.36681
3.87639 150.934 -4.98133
-21.609 126.943 -2.80079
-26.1994 132.073 5.90344
-26.3926 125.008 -0.174695
-23.1181 126.097 -2.29175
-25.0473 133.346 5.87304
-14.0354 130.857 -6.43577
-27.9789 131.384 6.79886
-8.6254 132.668 -9.8703
-4.63364 138.993 -7.98028
-31.5417 126.562 5.69709
-24.668 125.332 -1.71072
-12.8812 145.554 5.29634
-23.3018 137.294 7.5456
-8.26525 147.447 2.71294
-7.55381 135.189 -8.82546
-23.4773 126.135 -2.2643
2.13627 149.991 -4.7213
-0.875051 146.622 -4.95627
-4.94166 139.002 -7.9803
-25.2768 125.579 -1.33133
-14.3773 145.837 6.51113
-20.8151 128.801 -2.64062
3.03357 152.268 -3.789
-15.0719 133.631 -3.66389
-13.7762 133.254 -5.20453
-29.196 126.005 2.53359
-16.5218 133.497 -2.48042
-15.3888 133.798 -3.32532
-15.506 130.261 -6.3784
-5.59298 138.467 -8.22644
-18.7927 142.537 7.3967
-0.977356 147.664 -4.49736
-19.7773 141.56 7.32798
-31.1385 126.627 4.52465
2.39067 151.389 -4.39577
-13.8868 132.771 -5.96832
-5.39346 142.046 -5.56608
-11.2981 131.987 -9.04818
-23.8895 126.496 -2.35051
-3.50544 142.931 -6.53379
-1.5512 147.211 -4.57831
-16.2918 132.416 -4.14299
-8.01586 135.475 -9.03335
-15.6183 132.332 -4.8627
-18.3552 130.9 -3.62044
-25.7502 134.015 5.84035
-14.7813 129.573 -8.19194
-3.97378 143.149 -6.13787
-8.78098 134.61 -9.38063
-0.453866 149.222 -4.17549
-28.4367 126.479 1.34847
-16.5277 135.166 -1.92927
-25.9284 134.362 5.96131
-18.9687 131.115 -3.3042
-15.237 145.969 6.38523
-11.3978 147.87 4.49413
-14.4593 130.053 -8.45475
-10.9325 148.059 4.20984
-28.2231 126.562 1.05627
-22.6678 127.857 -2.92123
-30.4534 127.662 4.04031
-25.5545 126.783 -1.23314
-7.38069 139.994 -6.26264
-23.3127 138.68 7.17545
-19.4795 131.47 -2.77815
-29.6716 126.748 2.36089
-10.4386 148.438 3.80958
-30.3344 129.478 5.25562
-23.4352 127.789 -2.56738
-7.32769 141.605 -5.14447
-18.3297 131.978 -3.55899
-30.0694 127.928 3.60799
-20.4334 141.787 7.0004
-23.99 138.174 7.01603
-23.7709 130.942 0.414992
-23.3805 131.066 0.15859
-23.6559 131.436 0.70396
-20.3484 129.969 -3.68501
-19.9545 129.893 -4.15112
-22.8496 131.32 -0.243591
-13.0398 132.272 -8.46401
-13.5587 132.41 -7.89038
-13.4312 134.982 -5.82561
-26.947 127.675 0.108796
-29.2127 127.99 2.42506
-24.5643 129.548 -0.493377
-29.6141 128.662 3.34939
-27.314 128.446 1.02404
-25.949 128.171 -0.475204
-25.3355 131.549 1.90199
-17.3544 136.028 -1.47863
-25.5237 133.287 3.57312
-23.3655 139.144 6.75598
-19.9652 130.834 -3.73056
-25.1387 134.506 4.23725
-12.7433 134.955 -6.80076
-8.40648 141.762 -4.79993
-10.0347 139.091 -5.68834
-26.3996 136.051 6.61336
-0.277692 151.391 -3.81896
-27.0738 129.625 1.5199
-12.8374 132.889 -8.66395
-28.9453 129.234 2.86377
-11.1316 148.861 3.84199
-28.3162 129.796 2.72904
-9.99245 138.69 -6.23344
-12.1174 133.089 -9.25483
-27.5854 129.431 1.67805
-9.13854 141.187 -4.90065
-23.991 129.661 -1.46201
-27.3145 131.536 3.2253
-10.5964 134.453 -9.54273
-14.5414 135.754 -4.78822
-22.4004 140.566 6.59807
-9.68938 138.571 -6.82656
-8.9561 137.818 -8.18297
-2.52558 149.581 -3.69308
-11.2438 137.891 -6.04523
-21.4684 132.968 -1.04639
-20.9225 130.839 -3.42821
-28.6315 132.243 4.87715
-25.6911 136.866 6.26179
-11.5336 133.901 -9.38251
-23.0526 139.85 6.41594
-9.72244 136.189 -9.05322
-13.7174 135.695 -5.85999
-23.0393 139.917 6.39932
-27.4655 134.765 5.90783
-24.9697 136.456 5.11095
-1.21968 151.357 -3.53442
-8.93538 150.17 2.48189
-10.5721 137.763 -7.1053
-9.70571 141.664 -4.5743
-18.3852 144.853 6.13402
-27.5638 132.896 3.97661
-12.1003 149.088 4.08848
-1.18045 152.148 -3.2994
-23.8437 139.381 6.20905
-8.41627 142.802 -4.96958
-15.1762 137.117 -3.83561
-15.8868 139.09 -1.52686
-9.80484 142.045 -4.54265
-21.6035 141.875 6.11689
-18.3366 137.167 -1.08206
-7.09682 144.235 -5.15412
-11.0659 136.169 -8.65622
-6.88267 144.675 -4.9933
-11.3095 135.915 -8.69109
-12.2341 136.739 -7.15073
-14.3746 137.83 -4.33555
-14.1889 137.879 -4.49115
-21.9242 133.755 -1.04776
-9.43486 142.632 -4.7854
-16.6375 136.93 -3.25924
-19.2809 136.702 -1.05568
-11.1411 140.78 -4.95834
-15.9631 138.519 -2.93665
-11.799 141.666 -4.06633
-24.7866 138.256 4.82168
-20.2919 134.261 -2.86031
-2.4909 153.024 -2.63382
-3.62933 151.491 -2.95929
-19.9799 137.122 -0.68483
-18.3791 138.34 -1.07772
-1.95132 154.382 -1.98555
-23.8159 135.183 1.0732
-15.8734 139.392 -2.49539
-7.06524 145.69 -5.03454
-19.2152 138 -0.715878
-7.80211 144.736 -5.27973
-8.02783 152.336 1.51886
-13.2564 139.755 -4.88623
-15.2154 141.43 -1.61349
-4.32126 151.276 -2.91603
-3.09977 153.017 -2.59585
-23.337 135.734 0.541421
-17.3499 141 -0.315211
-20.8181 138.502 0.636595
-15.8651 138.672 -3.82074
-19.9362 139.059 0.229697
-18.6065 145.682 4.83661
-14.0131 140.615 -3.87237
-15.0302 141.649 -2.04381
-22.4157 141.553 4.64265
-15.4564 140.707 -2.5991
-22.8532 141.136 4.50599
-20.9414 138.948 0.815132
-7.57831 153.209 1.1445
-21.7232 138.064 0.738051
-23.3174 139.878 3.72656
-18.6724 141.044 0.318152
-9.15899 152.064 1.26343
-9.29807 144.849 -5.10919
-20.2795 140.134 0.789194
-8.64334 152.404 0.938024
-13.7659 149.405 2.94398
-4.49803 152.935 -2.54003
-16.6409 143.001 -0.181082
-4.29874 153.476 -2.28816
-18.5661 145.952 4.11241
-14.1521 149.168 2.83245
-22.5378 138.386 0.961367
-22.6083 138.666 1.24192
-14.9352 141.43 -3.48171
-7.54375 153.836 0.631483
-22.2205 140.345 2.06039
-18.1018 142.529 0.206418
-16.669 143.777 -0.0569438
-21.2943 143.128 3.59712
-11.8326 143.938 -4.44045
-8.87268 146.385 -5.11036
-16.8948 143.877 0.00951747
-5.71397 152.649 -2.6423
-15.2937 145.042 -0.636393
-7.13283 154.493 0.206341
-7.09071 154.34 0.00156467
-21.4349 141.696 1.7615
-11.0875 151.434 0.839714
-15.3538 143.702 -2.10204
-10.908 145.441 -4.65236
-13.0873 144.579 -3.44728
-15.314 143.747 -2.19842
-9.32054 146.733 -5.07029
-14.2554 145.171 -1.92653
-11.4331 145.383 -4.34829
-17.0177 145.137 0.350595
-7.69373 152.729 -1.52591
-10.0149 152.322 0.220339
-14.3122 146.355 -1.25442
-12.7305 146.29 -2.89169
-19.6221 144.539 1.86415
-12.2915 150.771 0.584049
-16.1917 147.854 1.49579
-18.1748 146.554 2.04588
-8.19444 151.117 -3.23391
-10.2117 147.835 -4.67442
-15.5843 148.084 0.417603
-9.9121 148.767 -4.22603
-14.694 148.226 -0.56479
-10.3024 149.114 -3.89477
-13.927 149.236 -0.463915
-12.6879 150.168 -0.826848
-11.1167 151.148 -1.5542
-10.502 149.671 -3.50296
-12.1253 149.355 -2.39617
-11.8923 149.831 -2.49237
-11.8273 150.042 -2.50568
-11.4791 150.41 -2.6742
