ply
format ascii 1.0
comment Created by Open3D
element vertex 1923
property double x
property double y
property double z
end_header
-14.2879 114.843 14.6177
16.5208 108.46 12.5943
25.8142 127.856 -3.92256
21.9254 130.774 -5.24519
-14.7883 139.121 -3.40998
-0.0416519 106.679 17.5312
19.1355 124.854 -0.270741
18.1809 118.009 5.03689
19.3247 124.704 -0.210016
20.7699 125.041 -0.789117
18.711 133.803 -6.8856
23.2532 127 -2.83101
2.22909 140.589 -8.38695
-8.9982 138.897 -4.67477
19.5277 131.869 -5.72755
17.6045 130.7 -4.43676
20.4561 124.808 -0.716771
16.7951 137.417 -9.32449
16.2666 133.176 -6.05246
-10.9762 139.087 -4.49231
-13.2898 114.03 14.6953
8.11952 104.303 17.236
17.271 132.941 -6.15949
8.86322 104.237 17.102
17.8 119.152 4.00696
18.0847 116.335 6.03757
-1.33513 103.839 19.6283
18.8178 126.578 -1.77925
-17.8494 124.49 7.82531
19.428 131.731 -5.79102
15.6063 135.81 -8.02959
18.0757 116.36 5.93481
-22.4951 132.505 2.80045
-22.1303 125.525 7.92267
24.8234 128.642 -4.7409
15.4276 134.986 -7.41723
-18.2395 121.909 9.74727
20.3165 123.517 0.0265821
21.039 131.417 -6.03182
24.4927 127.694 -4.02679
-0.482484 102.364 20.3276
-0.80192 107.447 16.5986
18.0873 117.107 5.22744
6.13338 102.989 18.3896
17.4641 130.725 -4.80472
-22.7464 131.743 3.25632
-22.2134 135.073 0.606169
7.70817 141.807 -11.0166
-11.3328 112.834 14.7668
17.8142 132.485 -6.3125
16.561 129.928 -4.12949
-4.02565 139.457 -6.7389
24.0725 130.85 -6.51016
-18.3234 122.116 9.33284
19.2128 109.758 10.2624
19.3755 125.881 -1.80331
21.8826 132.465 -7.27955
24.9424 127.674 -4.40324
-15.7514 137.183 -2.56008
-3.95688 139.364 -6.78428
-0.752254 105.027 18.1207
-22.2044 135.016 0.450906
-18.3359 124.164 7.69505
20.7265 131.746 -6.56399
-20.7106 126.445 6.49128
12.1876 104.301 15.7594
-15.8538 134.62 -0.697633
11.6234 139.042 -10.0544
24.1961 128.427 -4.90759
18.7405 115.145 6.18399
-0.802803 107.06 16.4538
-18.4956 124.124 7.61518
15.6737 137.148 -9.62751
10.7539 138.848 -9.8141
19.1349 131.218 -5.97211
-23.8931 130.267 4.20879
-15.1506 126.346 5.1981
20.9076 124.671 -1.4923
-14.8434 135.889 -2.00678
2.05587 102.195 19.4027
16.7802 135.32 -8.57478
-15.8381 137.134 -2.757
14.635 137.096 -9.44888
24.29 130.63 -6.75713
-16.34 116.868 12.4462
-21.8391 123.556 8.66101
2.92631 140.472 -9.41296
11.6067 138.452 -9.81988
17.9772 115.716 5.7362
25.2584 128.446 -5.36576
20.8109 124.578 -1.51006
-15.2137 126.344 5.09867
-5.59891 139.244 -6.65046
13.0816 138.828 -10.4645
18.9253 133.873 -8.07242
-16.5883 117.713 11.7982
-0.127861 138.42 -7.27751
19.5589 123.895 -0.77744
17.0312 107.727 11.8382
-24.6643 128.117 5.79202
18.9805 132.576 -7.14228
13.3033 138.696 -10.4631
-15.0271 135.429 -1.79243
24.3846 129.691 -6.18887
14.0933 105.488 14.1303
-16.3982 134.416 -0.747169
19.2672 112.347 7.86083
-16.6196 125.997 5.57395
15.2804 134.509 -7.8224
17.379 127.631 -3.15443
25.4716 127.777 -5.05807
16.6022 130.282 -4.97822
21.9036 125.378 -2.4966
18.0547 115.574 5.65671
26.4737 128.975 -6.20732
18.7054 134.429 -8.56646
-16.9651 125.255 6.12928
-20.8642 123.161 8.54525
17.7146 120.7 1.87554
-18.84 134.969 -0.732114
-10.9324 137.959 -4.7048
-5.61741 139.09 -6.72878
-16.7731 134.532 -0.877705
15.9117 132.581 -6.66639
19.9805 123.133 -0.515141
21.1189 124.388 -1.70541
18.1402 108.115 11.0872
16.1987 129.214 -4.25152
17.4642 131.606 -6.32352
-16.8689 117.807 11.5161
15.9477 135.086 -8.60051
-14.3154 113.297 14.2841
16.0566 130.752 -5.42715
24.3762 130.28 -6.90899
9.33484 139.013 -10.1207
13.426 136.665 -9.28508
19.8505 132.329 -7.47416
-22.8232 124.015 8.09489
19.2882 127.913 -4.1093
22.5927 130.387 -6.69637
-16.2381 134.075 -0.902338
-11.4313 137.776 -4.72554
8.76988 103.162 16.6429
7.14072 141.04 -11.2603
16.5125 130.589 -5.53006
-1.44426 106.901 16.0814
15.3932 135.257 -8.79413
-14.4885 127.507 3.56178
6.42885 140.937 -11.064
23.2485 128.965 -5.97771
16.3793 134.027 -8.24224
19.369 110.365 8.7479
-21.9282 122.97 8.43458
6.88468 102.844 17.0922
-14.9855 127.439 3.55517
-16.8164 115.509 12.85
-17.6684 118.483 10.8176
-15.3401 133.989 -1.30077
-6.04284 108.944 15.3207
23.5519 129.569 -6.59112
-2.32764 101.853 19.7584
19.5651 110.094 8.78898
-16.8008 132.358 0.18259
1.32005 138.509 -8.39734
-21.822 134.62 -0.416428
-22.8598 123.665 7.97944
-16.7997 132.528 0.0101125
-24.3982 125.368 7.02188
-17.6689 116.692 11.9697
19.3793 132.405 -7.93214
-8.0406 110.293 14.5914
20.0161 113.333 6.14696
17.8704 129.57 -5.51815
17.9107 133.035 -8.11736
20.8108 130.571 -6.92239
-6.34948 138.496 -6.97605
-2.85452 136.976 -6.6177
17.6957 115.637 4.77762
-15.7462 133.078 -0.915639
-17.2112 115.056 12.8265
-4.88651 101.977 19.8258
7.53998 139.524 -10.9254
21.6091 124.417 -2.77605
12.3562 103.193 15.0596
-8.19324 110.191 14.3288
-11.8966 111.312 14.231
21.7207 123.544 -2.29635
-17.4306 122.451 7.09332
18.3803 130.973 -7.14819
19.5292 110.263 8.04037
14.4252 104.213 13.6549
15.0983 133.871 -8.62594
-16.528 123.522 6.01721
21.5892 124.381 -3.02085
-21.1711 124.038 6.62978
-17.362 119.463 9.17365
22.6417 124.024 -3.03673
-15.1412 132.96 -1.4015
17.1495 132.429 -8.12035
14.2345 103.839 13.8082
-20.024 122.77 7.22397
-16.9332 125.489 4.49938
-16.4853 124.118 5.40193
-24.9438 127.551 4.70031
17.1919 118.54 2.1454
-16.5798 123.075 6.17948
19.0462 126.154 -3.96838
-3.78053 101.335 19.5669
19.2595 127.42 -5.00263
15.8443 132.909 -8.38161
22.6587 123.978 -3.22799
-3.06271 101.09 19.4951
-2.10424 136.391 -7.06603
16.9812 131.31 -7.48721
-2.2658 101.107 19.2591
-0.878656 101.027 19.0042
13.8815 134.826 -9.46091
18.7784 126.123 -4.05005
1.00145 101.377 18.314
-12.5933 111.357 13.8484
13.4391 135.194 -9.70439
21.7744 123.587 -2.87951
16.9669 116.606 3.38123
9.7629 137.35 -10.5155
18.6113 131.531 -8.13442
-22.0227 121.839 8.03922
-25.0699 124.986 6.3626
18.2657 124.189 -2.61292
-25.0168 127.466 4.45116
-17.7901 117.749 10.1071
19.1469 125.888 -4.10815
21.6949 129.251 -7.18118
-18.427 123.763 5.72226
-16.9752 119.306 8.72099
-16.7973 132.179 -0.935934
15.931 128.553 -5.44635
6.79326 139.009 -11.2384
19.7549 111.883 6.06783
-22.2542 132.812 -0.303749
-17.1666 133.006 -1.59038
-7.15063 137.618 -7.25734
18.2533 128.542 -6.09073
19.3479 132.837 -9.55226
15.0771 133.407 -9.04309
-17.4903 114.258 12.4067
19.8125 113.357 4.83855
5.11371 101.361 17.0156
-13.2813 135.121 -4.12652
16.8878 116.937 2.79282
21.4543 129.439 -7.57835
-3.31357 104.256 16.6614
-5.43244 101.709 19.0082
22.7593 124.15 -3.95008
-17.8746 115.338 11.5464
-17.3422 133.005 -1.78328
15.9744 128.247 -5.59247
22.2941 123.46 -3.43145
-21.034 134.076 -1.81558
21.788 124.287 -3.95986
2.49804 101.791 17.0322
22.4945 123.62 -3.70194
13.4326 134.593 -9.89861
7.36864 137.602 -10.8158
-16.9334 125.483 3.56045
17.882 130.35 -7.73565
-17.0989 123.889 4.78192
17.4939 126.956 -5.15441
-16.7166 118.753 8.48362
-15.6725 131.968 -1.61218
5.08912 138.861 -11.3308
-16.4921 123.403 4.95008
-16.874 123.861 4.66774
-2.93309 135.367 -6.99326
11.6126 101.383 15.1134
-17.7427 124.26 4.47825
2.30088 137.819 -10.0563
21.8538 128.81 -7.65327
18.4453 127.732 -6.11714
-20.6052 121.879 6.83812
-2.5759 135.527 -7.31397
21.2966 129.478 -8.07077
-3.93007 135.384 -6.93654
-18.3859 119.929 7.76877
-15.0068 132.125 -2.08121
17.6952 120.627 -0.740443
-19.5678 133.354 -2.05194
17.3071 132.911 -9.84397
17.3611 129.743 -7.49287
-11.2191 136.169 -6.02546
-14.4558 111.59 12.9729
17.0116 103.043 12.3905
-12.2111 135.85 -5.66087
-18.6322 124.196 4.42391
-24.992 123.477 6.34416
-21.5722 132.953 -1.48519
-3.78207 103.79 16.34
-15.5153 112.072 12.719
-21.8936 120.958 7.46238
19.7725 112.963 4.24611
22.6046 123.427 -4.20544
22.3467 128.057 -7.60748
8.28648 136.628 -10.9153
-3.69253 103.939 16.1007
14.2835 101.703 13.7779
-6.02727 100.392 19.2171
-23.2838 121.284 7.41893
-16.7037 123.769 4.11424
-19.7358 121.646 6.3554
-25.417 125.131 4.96991
-7.59237 100.501 19.3974
-12.621 133.279 -3.9541
-16.4023 122.946 4.57909
14.2774 133.28 -9.8885
-5.95792 107.32 13.9216
-17.6392 123.085 4.71645
-18.3786 119.447 7.58531
-15.4477 111.869 12.561
16.1569 128.021 -6.4544
5.92247 100.487 16.2973
1.77114 101.307 16.5668
15.4348 131.56 -9.03327
17.2251 129.511 -7.89891
-6.97718 136.349 -7.67426
-19.0553 132.137 -1.8751
-23.1309 120.757 7.5104
-13.3697 110.816 12.7607
-16.7125 121.935 5.19823
16.4759 101.999 12.6985
17.0357 127.267 -6.29203
-11.7209 135.336 -6.00138
-16.7967 130.378 -1.19636
23.2063 126.115 -6.8264
-3.77344 105.598 14.4187
-21.3096 121.326 6.53989
-18.8773 124.144 3.88729
6.72608 100.165 16.1362
10.001 135.387 -10.8635
20.1948 129.707 -8.8763
-7.97589 136.394 -7.66722
-19.7897 121.574 5.9745
-1.32748 100.393 17.7121
20.1305 110.865 5.16685
-22.1063 122.557 5.73315
-16.5137 130.626 -1.51989
6.26797 100.2 16.1375
4.13601 101.398 15.7083
16.8466 130.171 -8.56117
18.8045 103.484 10.9063
17.3885 119.93 -1.06835
17.0626 115.428 2.34618
-18.4145 124.136 3.65737
-16.7844 116.936 8.66191
-17.7836 118.849 7.4311
19.1667 103.729 10.5676
15.9169 128.341 -7.09202
-10.2833 109.438 12.7618
19.4177 104.887 9.61539
17.0255 124.769 -4.71506
11.3837 100.576 14.5745
20.2254 129.428 -8.90383
12.3423 133.558 -10.277
-24.1746 127.555 2.23281
-20.5856 122.367 5.30596
16.275 116.579 1.50584
-23.2272 120.152 7.50449
-4.25028 103.342 15.8637
-21.7364 122.629 5.31854
-13.0104 110.384 12.5245
17.1576 129.68 -8.51829
-17.4031 130.832 -1.79871
-16.6704 122.534 4.21449
-3.99523 105.175 14.3628
-22.5556 122.576 5.44991
16.6044 129.582 -8.40222
15.9331 131.479 -9.67278
17.2922 126.562 -6.32067
-25.2928 126.124 3.36657
-15.9928 130.22 -1.75252
-23.2403 119.937 7.51099
17.1103 123.579 -4.09153
-17.1289 129.948 -1.31688
17.0798 129.454 -8.553
-6.02724 134.65 -7.39609
-21.2866 122.673 4.89776
-25.3778 122.373 6.02068
0.182171 135.325 -9.28389
17.183 129.058 -8.36145
-21.5906 131.352 -1.54987
-20.264 122.144 5.02116
-4.36294 105.307 14.0818
20.535 129.102 -9.20926
-20.6957 121.487 5.53095
13.1101 100.284 13.9061
15.7361 131.243 -9.77046
19.5291 111.653 3.99451
-19.8884 131.2 -1.91796
-4.88262 102.495 16.1774
17.3311 130.073 -9.31265
17.1066 128.399 -8.02942
13.6832 100.318 13.6442
11.0905 100.131 14.298
-14.2298 131.053 -3.22035
-22.296 122.523 4.91826
-6.03798 134.178 -7.39536
-25.6366 122.545 5.58056
21.6749 123.298 -5.41698
13.4925 132.381 -10.4269
-22.3798 121.331 5.69371
-5.23275 105.852 13.466
16.799 130.454 -9.74073
17.4918 121.017 -2.86797
-4.5591 104.346 14.4193
-8.56545 99.9028 18.6121
19.4846 103.062 10.0765
-22.1978 122.542 4.7083
-17.8389 119.298 6.16806
-19.264 123.936 2.99134
21.8772 128.05 -9.14024
-3.01307 99.9406 17.3081
-16.6629 121.917 3.9123
15.2713 129.299 -8.63313
0.989054 100.946 15.6539
16.9926 122.559 -4.03425
7.73714 99.3425 15.3173
18.3988 102.241 10.8078
-5.05664 133.361 -7.30859
17.0719 122.177 -3.83638
16.8123 122.972 -4.38329
-3.26321 133.839 -8.07848
-8.03678 135.135 -8.02299
16.0072 116.322 0.713948
0.051116 134.868 -9.65187
-16.8828 121.431 4.08212
11.1309 133.245 -10.8986
7.6351 134.918 -11.4214
-22.7873 122.345 4.64971
-23.0956 120.097 6.37671
-17.6476 130.191 -2.38932
9.94576 99.4463 14.4596
17.1887 120.233 -2.64791
-8.7087 108.043 12.1304
-14.7811 130.319 -3.18837
-15.9476 121.731 3.45962
15.9002 129.417 -9.30573
-19.3333 123.565 2.79661
20.8916 123.259 -5.86206
16.6618 118.971 -1.74432
18.5967 102 10.486
-4.96511 103.134 14.8081
-8.88976 99.937 18.0326
-2.2255 100.116 16.4272
5.02982 135.286 -11.4276
-6.3573 105.751 13.0875
7.78561 134.59 -11.5454
-12.6288 130.946 -4.34672
-14.6095 130.235 -3.41918
17.3131 129.392 -9.82462
-8.85165 98.8211 18.7385
-12.7511 131.706 -4.95608
16.181 123.876 -5.48595
-9.92633 99.1281 18.707
20.3425 106.165 6.79377
17.0314 115.477 0.5659
-18.2654 127.846 -0.92573
-8.60767 98.7275 18.6665
16.8441 121.31 -3.78972
-23.2749 122.246 4.33564
7.10043 134.635 -11.6189
16.292 100.045 12.1563
20.5136 125.891 -8.07204
16.7663 99.9967 12.0641
-17.7091 128.348 -1.5004
-3.76104 133.094 -8.1277
-22.8754 120.041 5.77059
6.75109 134.634 -11.6666
-16.5561 121.579 3.17964
-4.97818 99.3742 17.1905
21.6182 123.021 -6.312
-24.2931 119.035 6.72172
16.9127 99.8323 11.9741
-12.6707 131.319 -5.00814
-16.8769 128.459 -1.94914
-18.3286 113.627 9.40683
21.5202 123.012 -6.3876
20.3723 107.723 5.24789
17.427 127.645 -8.97207
-25.8567 122.682 4.25794
-15.8928 121.365 3.04144
-6.89056 98.6623 17.9742
-25.1465 125.377 2.05432
-8.86398 100.027 17.3792
16.5761 119.508 -2.78655
5.03436 134.462 -11.5032
18.2728 127.85 -9.48825
-15.9326 121.241 2.93986
21.0124 123.168 -6.63737
-25.8058 122.248 4.34909
-23.9997 126.39 0.838376
19.0058 112.343 1.85091
-18.0993 119.097 4.90438
-17.0098 121.311 3.01186
-22.8363 127.927 -0.663332
15.0153 117.521 -1.23262
3.51535 134.235 -11.1839
-7.26977 105.301 12.7394
-18.8921 112.763 9.72229
-16.9134 128.181 -2.23228
-20.6846 120.915 4.01799
17.1442 127.588 -9.28895
19.216 109.373 3.83434
17.5816 100.077 11.0911
3.75978 100.168 14.0535
-21.4376 122.289 3.09252
16.99 115.298 -0.232995
-21.1966 122.294 2.93087
17.3468 99.4149 11.5044
1.70919 100.443 14.1799
-8.80362 133.658 -8.28963
-10.2901 107.728 11.3589
-17.6783 121.122 2.9633
-8.57429 133.469 -8.25344
-17.7203 126.594 -1.11522
19.5625 125.401 -8.43494
-17.6629 126.831 -1.34033
-16.4344 128.051 -2.52403
-18.6728 128.546 -2.40863
14.7945 129.964 -10.8413
5.46347 99.4414 13.9735
2.08934 134.807 -11.6702
-16.4033 128.014 -2.54891
15.3722 123.44 -6.13216
16.1223 119.273 -3.20015
-17.7929 126.526 -1.14819
17.8528 127.033 -9.39809
18.478 114.208 0.029361
14.6183 126.082 -7.98271
-16.6484 117.147 5.56269
20.911 122.999 -7.10179
-9.85543 132.546 -7.46428
18.6746 125.838 -8.74403
20.1352 107.384 4.68271
-3.65294 132.494 -8.81757
18.4392 126.18 -8.97191
-7.13531 103.341 13.6755
17.4217 99.1068 11.4236
18.6585 113.696 0.265903
-17.9939 126.559 -1.29051
-2.48105 133.114 -9.60128
20.9951 122.577 -6.90839
-15.4495 108.486 11.5708
-25.4722 122.897 3.00706
-12.7725 130.426 -5.41541
-0.90415 100.008 14.6634
15.0071 128.908 -10.4195
12.7958 98.4772 12.7481
-17.8097 120.952 2.69927
-18.1736 127.067 -1.78733
-18.796 121.819 2.2552
-18.3114 129.131 -3.3122
-12.1606 130.772 -5.9411
-18.9201 118.697 4.55442
14.7042 127.067 -9.09839
-12.0278 98.1607 18.347
5.41511 132.372 -11.0366
-17.5604 127.064 -2.0979
18.9135 126.841 -9.96634
-8.24052 99.9612 16.0634
-16.5439 119.952 2.96915
4.57415 132.483 -11.0636
-20.8128 121.35 2.80762
-11.3797 127.776 -4.07042
-19.2169 119.301 3.97237
-19.4774 121.397 2.44588
-6.87605 101.405 14.559
-25.7007 121.511 3.6792
-17.2746 117.025 5.15735
-11.6054 107.587 10.9424
-23.4542 118.467 5.43313
-25.6977 121.488 3.6692
-8.09286 104.58 12.3834
12.0327 97.9276 12.9062
-16.6779 116.859 5.09376
-10.565 131.301 -7.02938
-11.1332 131.545 -7.1133
16.8367 127.531 -10.3033
-24.7802 124.209 1.33415
-19.0531 118.692 4.1762
-18.6551 117.937 4.64497
7.40005 132.579 -12.0687
-8.49668 130.668 -7.16707
14.5784 127.957 -10.2312
-8.1652 129.704 -6.53843
-4.03091 131.022 -8.44478
-6.90778 100.623 14.8669
6.98572 132.644 -12.0961
-18.677 119.174 3.59104
-14.0666 126.95 -3.23596
-16.7866 119.444 2.95067
15.2991 118.554 -3.48439
16.035 98.2155 11.4918
18.4447 99.0618 10.323
-19.1288 112.065 8.88103
-19.8445 121.098 2.28268
-17.4227 121.734 1.26944
6.56875 98.394 13.3811
14.6197 126.998 -9.73223
-12.8688 98.253 17.7482
-18.1331 126.174 -1.9313
-17.3465 121.233 1.57294
19.8563 106.331 4.4835
20.0496 102.74 7.0786
-22.5802 128.065 -2.43304
-17.3884 121.585 1.2434
-7.76683 102.904 13.0505
-15.8822 125.798 -2.27735
21.0047 122.82 -8.1841
-25.9678 118.835 5.08752
-18.1221 125.779 -1.83447
-14.387 126.208 -2.99185
-8.31085 103.784 12.3783
19.8883 104.568 5.5692
-7.69966 129.753 -7.16252
-24.3753 124.11 0.71071
-18.5238 117.837 4.10206
10.0987 97.2063 13.166
3.75194 132.074 -11.4505
-8.05958 131.599 -8.57824
18.5935 112.482 -0.211558
-17.0819 114.662 5.98192
-26.0488 119.21 4.55925
-3.56046 99.1193 14.5856
17.8815 122.415 -7.54699
18.6462 108.526 2.63284
-23.4993 125.816 -0.996982
18.5516 122.215 -7.58542
-3.71838 130.144 -8.6083
-14.7727 125.753 -2.90462
5.62051 130.651 -11.0534
-7.56345 130.134 -7.77757
-8.70144 127.795 -5.81684
20.4624 101.429 7.41828
18.5017 113.148 -0.896399
19.9696 103.264 6.14479
19.9406 103.46 6.00363
-13.454 97.8407 17.5458
10.5084 130.326 -11.9655
13.5638 128.919 -11.6038
-7.54562 128.413 -6.60678
-7.51204 130.395 -8.14804
-20.5 128.068 -3.5647
-7.82864 98.2514 15.8848
-11.0675 106.236 10.6369
-8.85304 97.6983 16.4897
18.0181 126.012 -10.5544
-8.43264 127.551 -5.92787
-10.0122 105.606 10.7782
-18.1613 125.799 -2.50358
18.4683 113.247 -1.22325
-17.6893 113.578 6.47872
-16.5996 120.032 1.41158
14.308 127.867 -11.2408
1.90475 132.432 -11.9302
-18.2385 125.876 -2.62392
-4.2122 129.99 -8.78699
-18.6479 121.629 0.623118
6.97026 130.711 -11.7965
19.2908 98.8287 9.2665
-13.811 96.926 17.9571
-21.0776 127.253 -3.11701
17.5239 123.847 -9.08593
-16.6971 119.29 1.82412
20.033 122.271 -8.51497
-7.33756 98.3142 15.3803
18.4294 97.6535 10.1846
-19.0503 121.987 0.273926
14.4881 120.067 -5.68681
18.7785 122.431 -8.41246
-1.53085 99.2419 13.3545
13.0139 128.698 -11.8269
18.3355 108.362 2.15697
-3.19888 98.9886 13.8873
13.3279 96.8206 11.8505
18.4382 122.855 -8.73159
-5.43262 98.633 14.5537
18.1963 108.611 1.89551
-6.80052 130.076 -8.61727
-22.7424 122.199 0.768354
-17.1463 114.264 5.44365
-7.46469 127.223 -6.38629
-23.9039 123.827 -0.253834
-18.4494 120.809 0.786896
1.70149 131.8 -11.8682
-15.4988 124.825 -2.91935
-17.8803 122.959 -1.01833
-14.3584 98.0216 16.8086
-25.9407 118.369 4.17483
-18.2929 122.35 -0.485768
17.1009 123.936 -9.49282
-17.4603 123.106 -1.26846
-16.9683 120.377 0.650417
-3.27104 129.377 -9.08723
-23.1516 122.649 0.293176
-16.3698 120.99 0.0298197
18.5619 124.414 -10.2267
-18.3338 120.868 0.53878
-18.8168 117.699 2.9921
17.1792 123.403 -9.19014
8.15345 96.7443 12.6727
-8.94896 103.156 11.648
-18.118 112.614 6.60036
17.754 114.398 -2.63687
-16.4745 124.887 -2.93146
-19.557 122.243 -0.289665
-12.4414 126.13 -4.78849
-16.3292 124.786 -2.93743
-11.0086 96.4959 16.9869
-5.64918 129.827 -9.06654
-17.471 123.328 -1.63276
14.7298 125.19 -10.1152
-17.706 124.14 -2.19181
2.5572 130.96 -11.7733
-8.85948 97.8015 15.4657
-19.4082 117.994 2.72281
-2.81825 98.8025 13.3877
-18.9624 121.525 -0.0133534
-18.8229 123.22 -1.33215
-4.45981 98.5903 13.8706
12.0961 96.3351 11.8987
-17.8897 121.037 0.0692588
-17.4306 116.1 3.64162
19.5813 105.753 3.21081
-18.3798 112.235 6.72471
17.9467 114.238 -2.78474
-7.06876 127.36 -7.08775
-17.5832 124.337 -2.5685
17.9448 108.712 1.24752
-9.31865 103.432 11.1504
-10.7327 125.715 -5.17476
-17.9722 122.367 -1.08748
-17.0139 124.484 -2.88065
-15.6502 121.584 -1.05523
-0.116448 98.8742 12.4602
-10.0855 99.3196 14.3168
3.49112 129.805 -11.4352
2.25993 130.552 -11.7472
14.2909 120.43 -6.85078
-19.1576 122.449 -0.994088
-20.7492 125.767 -3.12524
-6.89507 126.822 -6.97319
-18.2082 120.95 -0.108563
20.1373 101.849 5.69219
5.17394 128.647 -11.0081
-19.6202 122.174 -0.732932
-19.4053 122.92 -1.33964
-16.1739 124.783 -3.4898
17.882 109.837 0.139954
-16.3826 106.368 10.2672
-24.3646 120.165 1.71112
-19.6412 125.239 -3.11894
-17.9152 106.618 10.3748
17.8015 108.993 0.732285
18.5257 107.542 1.65217
-12.1962 96.0135 16.9974
-19.7065 117.883 2.33345
-11.6049 125.447 -5.13081
-0.567632 98.7059 12.3526
-12.6943 105.399 10.0194
18.168 112.214 -1.88844
-17.856 116.137 3.11053
14.0568 121.655 -8.04481
-25.5247 117.565 3.66445
-17.6743 122.829 -2.03211
17.9641 110.86 -0.9691
-18.1795 123.825 -2.71989
10.6745 128.416 -12.5002
-25.6734 117.691 3.4971
-25.5338 117.54 3.56956
-15.8761 97.4174 16.4516
-8.33208 97.7863 14.5145
-12.0708 125.407 -5.27785
-17.7204 122.889 -2.15691
19.6853 105.02 2.9267
-18.3607 121.96 -1.34222
-23.4206 120.261 1.03454
10.3894 95.7785 11.8351
-21.2569 121.72 -0.55847
-23.539 118.863 2.07244
6.30154 96.7696 11.9699
-18.5356 123.713 -2.66867
18.7631 96.6326 9.30196
-17.9432 120.683 -0.575963
-14.9812 98.3402 15.4337
9.10166 95.9179 11.9134
-5.39922 98.1205 13.4276
-19.9201 123.397 -2.25338
-18.9859 111.342 6.5332
-2.58497 128.848 -10.1566
1.70715 130.106 -12.0628
-18.0923 115.57 3.1124
-14.5324 105.493 9.84503
19.1012 106.653 1.57034
-17.5652 122.976 -2.54113
-17.5603 121.472 -1.45115
-18.0118 119.079 0.414091
-18.8312 122.524 -1.99635
2.56713 97.8287 11.7087
-18.3043 120.693 -0.777078
-19.34 124.651 -3.52469
-15.6541 122.847 -3.0148
-16.6036 97.2758 16.264
14.0307 121.972 -8.91833
-18.7843 121.583 -1.42717
-7.55172 97.8275 13.8155
-18.2008 115.804 2.73708
20.1695 101.948 4.57578
12.9154 125.708 -11.6
-9.57839 124.808 -5.98175
10.8285 127.5 -12.489
-18.5266 116.367 2.18456
13.8327 124.366 -10.918
8.59325 127.131 -11.8285
-17.9866 122.192 -2.2961
-20.4806 121.541 -1.30712
-19.3768 109.993 7.04255
-18.2761 121.075 -1.49644
21.176 99.3801 5.99517
-16.626 119.754 -0.889564
-17.1132 105.669 9.72339
7.26465 126.581 -11.2596
-9.31648 100.547 11.7672
6.49413 96.1631 11.53
-18.535 122.906 -2.94851
17.6368 110.897 -1.96189
-22.1606 124.172 -3.11404
-12.1654 95.6749 15.9438
-17.9049 112.125 4.90081
-21.918 122.403 -1.88898
12.885 124.943 -11.454
15.5865 95.9967 9.53347
-4.49465 97.7616 12.5546
-16.9618 97.4959 15.4889
-6.9314 97.5603 13.2297
-18.5057 120.969 -1.69229
-6.59445 97.6105 13.1113
-17.2213 120.02 -1.30929
3.69704 128.38 -12.1723
-19.6607 122.634 -2.75524
14.8904 117.8 -6.77557
-17.5919 112.512 4.31127
17.3284 109.736 -1.3312
-2.3964 128.075 -10.6924
-17.6312 120.971 -2.04014
-6.81703 97.4804 13.0793
8.57159 95.464 11.1884
-20.9826 119.679 -0.373368
13.2266 95.2768 10.2928
-16.8257 122.466 -3.45682
14.0173 119.763 -8.23493
-9.56641 100.714 11.1559
-17.7635 120.102 -1.51656
-7.96642 97.2293 13.3426
-10.5783 98.7952 12.749
-17.7449 122.237 -3.16271
17.2633 109.783 -1.57709
-18.019 118.546 -0.361471
-17.0742 121.868 -3.07928
-21.8717 123.591 -3.34895
-13.8622 123.877 -5.33398
20.7743 96.6865 7.30608
-18.0588 121.185 -2.49174
-5.59039 125.664 -8.62309
-18.139 118.369 -0.427341
-18.3731 107.606 7.65221
-6.30747 97.3312 12.6444
-15.9541 104.52 9.36
-1.23733 129.237 -12.3323
-1.26359 129.202 -12.319
14.5929 118.057 -7.60069
18.0476 95.0889 8.77088
17.262 107.848 -0.575375
18.8803 105.821 0.579007
9.63196 94.9785 10.6919
9.17042 124.641 -11.3437
-13.0309 124.261 -6.21634
-15.299 103.97 9.40976
-7.76499 96.9651 12.9696
-17.4765 112.505 3.50114
-19.1073 115.814 1.37172
-16.9546 119.072 -1.53848
13.9263 121.178 -9.91919
-19.3367 117.599 0.0458972
10.093 124.888 -11.9051
-21.5736 118.606 -0.265313
-18.5406 105.02 9.19915
-18.5033 111.491 4.36351
5.09043 126.422 -11.9717
20.107 102.867 2.25022
-13.0696 123.939 -6.19886
-11.0412 102.208 9.53375
-16.9575 121.486 -3.56342
-5.30017 125.127 -8.85794
-20.3466 116.886 0.59288
-15.9689 123.145 -5.04574
-15.881 123.457 -5.30607
20.1643 102.606 2.30807
-2.53982 127.232 -11.0803
-14.139 103.187 9.41141
7.34628 124.794 -11.4716
-18.0228 121.044 -3.12521
-12.651 102.705 9.33248
-19.4128 96.0776 15.7208
5.36002 125.645 -11.8054
16.346 116.438 -7.36323
20.4201 95.6707 7.21739
16.84 109.309 -2.17375
7.68786 124.042 -11.1722
-13.1013 102.693 9.3234
-21.1292 122.218 -3.50188
20.5989 101.163 2.98875
-11.4423 98.4572 12.0533
-18.7396 94.9118 16.2994
-9.24386 123.262 -6.95053
-10.5847 100.703 10.0972
16.8619 109.774 -2.72642
13.9281 120.918 -10.4073
-17.5744 97.0054 14.3619
-0.431632 97.0682 10.5147
16.239 116.766 -7.8791
-19.612 109.103 5.72578
14.5935 94.7756 8.87655
-9.45213 96.3459 12.9908
-19.1129 96.4632 14.9924
11.7238 123.868 -12.2417
16.3824 94.1396 8.90247
21.1413 99.3451 3.95835
-2.22894 127.029 -11.5735
-10.6112 99.5873 10.7434
6.86498 95.2835 10.0987
2.69734 127.663 -13.1818
8.01972 123.474 -11.307
16.359 115.528 -7.2275
13.8836 94.6631 8.85149
16.4094 114.913 -6.83164
-19.2063 104.469 8.77789
-18.0724 107.366 6.32249
-4.22011 124.696 -9.66597
21.4501 97.8168 4.71107
17.7425 106.216 -0.743474
16.857 112.062 -4.91819
-18.6641 107.705 6.1076
13.9688 119.575 -9.96402
-18.1871 117.561 -1.46657
-19.5425 110.277 4.25375
14.301 94.3153 8.70702
20.0242 94.5555 7.20194
21.3313 95.8459 5.95072
8.99259 122.99 -11.5913
20.8115 100.465 2.60431
-18.9945 118.056 -1.85322
-14.7895 97.9093 12.2335
16.1711 116.186 -8.23647
16.3142 114.565 -7.09393
4.4218 125.48 -12.6531
-19.3596 116.875 -1.03886
20.8836 100.132 2.57374
-15.2214 102.368 8.84109
-20.1574 115.323 0.249185
-17.6057 93.7285 15.7323
14.1306 119.35 -10.3866
14.3327 93.8524 8.58237
-16.809 120.293 -4.33366
-2.1539 124.606 -10.781
-20.5956 115.986 -0.314588
0.888074 95.8479 9.96846
16.581 110.28 -4.25333
5.50943 123.91 -11.995
-11.4502 100.302 9.327
-19.3724 118.888 -2.86013
16.1638 115.639 -8.32432
18.886 103.584 0.0286187
-16.799 120.845 -5.00554
11.8146 93.5821 9.01727
21.6124 96.5462 4.6447
-20.635 95.4665 14.725
-18.2021 111.291 2.37915
16.326 93.0161 8.39832
16.2239 115.074 -8.09456
-20.2495 93.2488 16.2066
-19.2596 103.676 8.1845
11.2417 93.3465 9.17276
-6.77521 95.6436 11.4141
-16.2769 96.6525 12.7458
-16.9036 94.3778 14.5049
11.0368 119.859 -10.6675
0.346645 126.061 -12.9773
13.4202 93.6303 8.2701
-8.51754 95.3066 11.8478
-18.8372 118.929 -3.50793
18.4975 92.1206 8.24969
12.4598 93.4865 8.54478
-13.2591 94.97 13.0948
17.1666 92.4528 8.23437
-20.5264 114.317 0.213839
15.4249 117.707 -10.2345
21.2331 98.5095 2.78734
14.3882 119.008 -11.0112
-10.5485 95.1496 12.235
14.1783 118.386 -10.6092
11.8739 119.348 -10.8429
-16.2229 121.229 -6.06675
-11.5925 122.201 -7.8186
-20.3935 95.9581 13.661
16.2074 109.468 -4.48651
13.2085 93.4643 8.10095
-2.42154 95.5852 9.95123
-12.9985 95.0031 12.7069
14.1284 119.151 -11.338
-21.4987 94.6956 14.7457
-18.8581 119.167 -4.11052
15.6736 115.703 -9.13804
-15.0799 120.107 -5.68521
-5.21157 122.021 -9.29145
-13.4219 94.7564 12.8549
-19.7802 108.025 4.33318
-2.39427 95.4742 9.86159
-11.8275 98.7533 9.45523
-8.49932 121.58 -8.31129
-0.416032 95.5702 9.29668
-19.6587 96.5402 12.7859
14.1526 92.9044 8.03256
-11.8021 121.88 -7.88528
-18.1958 96.7249 12.2834
16.0332 113.563 -7.86526
-20.6992 114.151 -0.242831
-18.9173 118.219 -3.68612
-15.5875 101.41 8.09046
4.8902 123.226 -12.7352
0.362427 124.707 -12.9216
-18.4406 102.201 7.99651
-19.3195 96.7447 12.2146
-15.6797 94.2735 13.2018
-4.25947 94.8827 10.1898
-6.12983 94.753 10.6977
-3.25661 122.506 -10.6609
-21.8995 94.4409 14.3729
10.3118 92.8927 8.41499
-22.0518 94.2628 14.4635
10.7941 92.7232 8.26366
-13.7565 120.547 -7.10852
-20.4449 116.133 -2.35545
-9.11251 121.027 -8.50342
17.7219 103.664 -1.47609
-22.9109 92.8644 15.5246
-13.356 99.8138 8.20925
17.4546 104.21 -1.88532
-18.93 103.374 6.74421
-19.2217 116.777 -3.24197
-0.468841 124.141 -12.8698
-14.8645 119.041 -5.95773
-9.28051 120.944 -8.61283
-1.71574 123.323 -12.0542
9.03342 120.138 -12.0673
-20.5648 112.895 -0.163976
-18.6921 103.634 6.31715
8.81698 93.0208 8.1633
-21.1976 95.745 12.7221
18.6713 91.1352 7.33912
-21.2767 95.7183 12.6887
16.07 109.051 -5.51381
-20.6133 96.1315 12.192
-1.44434 94.908 8.85566
-7.56109 93.9935 10.8497
14.1934 115.25 -9.88204
-4.18408 94.3882 9.69903
19.3696 91.9517 6.31872
-12.3556 120.779 -8.22848
-4.21537 94.3557 9.67903
-22.9781 91.4944 15.9302
16.2193 105.744 -3.342
0.0206522 123.837 -13.2907
-20.0406 92.9048 14.2006
15.9912 90.8851 7.76494
16.6577 104.705 -2.72381
16.1622 106.852 -4.2228
-4.06035 94.3039 9.57794
-10.3582 120.827 -8.87276
2.1694 124.443 -14.3819
13.8538 91.9413 7.28747
-14.7901 93.2571 12.6052
-18.0188 118.97 -5.89666
21.1259 96.6879 2.10374
-19.8706 116.349 -3.56356
-2.03778 122.648 -12.2259
15.7553 112.765 -8.79605
20.2096 98.245 1.02803
-21.1796 114.679 -2.12426
-22.4138 93.6392 13.8292
-18.0864 96.4692 10.7586
17.0268 89.9059 7.91144
-19.3512 102.812 6.26609
20.8638 94.4024 3.66139
-17.2782 93.1782 12.9512
-16.4397 93.0995 12.8002
7.10877 120.717 -13.0314
-13.5576 119.331 -7.45576
7.01983 93.1951 7.50164
-15.0379 99.5627 7.52805
20.6163 96.8695 1.66061
-17.7982 101.034 6.95013
20.6273 91.8378 5.26092
1.34458 123.677 -14.2522
15.8533 111.892 -8.70328
-16.6172 92.526 12.8855
16.0248 110.616 -7.80185
6.29706 93.2015 7.32393
-3.86902 120.455 -10.8211
-19.4273 96.4208 10.4974
-17.9393 103.8 4.61036
-11.5675 92.4807 11.5902
7.75007 92.6152 7.23177
-2.28431 121.742 -12.3318
0.874924 93.7672 7.83335
-18.8283 117.442 -5.52002
6.22022 93.0311 7.13001
-14.3358 91.8608 12.5009
17.1324 89.1007 7.58518
-18.8211 109.914 -0.0949427
-22.4146 93.4878 12.9504
16.2991 104.364 -3.69235
5.05645 121.084 -13.7004
-7.27924 93.2765 9.74957
17.2885 102.674 -2.68672
10.8351 91.8536 6.79808
2.59187 122.981 -14.6198
-2.40151 93.6756 8.33677
-16.6239 91.6153 12.969
7.61566 119.628 -13.3211
12.9906 90.8366 6.96405
21.0326 92.6156 3.8661
-20.2481 115.762 -4.31933
-2.53863 121.173 -12.2734
-19.1406 116.744 -5.33414
-21.7551 93.8816 12.2813
2.87908 122.413 -14.4586
2.44846 122.811 -14.6748
10.5137 116.422 -11.6866
-19.1021 116.58 -5.28977
9.32735 117.93 -12.5605
13.0512 114.775 -11.0521
-21.117 93.7228 12.1501
-11.1002 119.721 -9.49586
-15.8728 96.0168 9.23202
-19.1185 90.2109 14.2646
-21.7676 93.0509 12.7018
-12.7989 118.968 -8.61431
-19.4237 115.746 -4.77746
-3.09188 93.3708 8.31739
2.24549 93.2324 7.19063
15.3136 88.9947 7.46172
14.6455 112.188 -9.69592
12.6041 90.5636 6.88379
-19.07 109.501 -0.275369
10.2893 116.446 -11.9241
-12.4283 119.317 -9.0758
16.1795 104.085 -4.04155
-4.9575 93.1281 8.77391
-18.7379 104.286 3.48021
16.9939 102.804 -3.28884
-2.21873 121.087 -12.714
-20.2308 94.2557 11.256
-21.1583 112.897 -2.48882
-14.9178 96.7264 8.20003
-16.2077 116.335 -6.20716
-21.3485 91.4079 13.5179
-18.8856 104.321 3.32559
-19.4284 99.6272 6.94018
8.8181 91.6631 6.64166
20.9767 91.379 4.16804
-17.1608 97.4829 7.9941
11.0114 115.429 -11.6246
-19.6034 114.595 -4.26476
-20.5793 94.4157 10.96
-18.3641 98.644 7.31076
-20.78 95.7868 9.96209
-20.1227 92.15 12.5109
-22.3624 91.174 13.7151
-19.5932 92.5088 12.0685
14.9008 88.7365 7.28919
-20.1733 110.3 -1.0951
18.105 101.149 -2.69474
8.20904 91.5673 6.59091
-21.3334 113.172 -3.05814
19.8185 92.7287 3.09603
15.9 107.069 -6.757
20.6014 91.2554 3.98566
-20.5525 110.467 -1.29813
-20.1766 105.844 1.98289
-16.4981 98.1158 6.90811
19.6981 93.0784 2.69101
-15.4274 96.1921 8.0263
-17.0279 115.561 -6.07242
-17.7662 115.499 -5.87047
-18.9116 91.5994 12.2112
-16.4895 115.486 -6.16642
19.6574 92.3504 3.11657
15.7825 108.055 -7.77413
18.8101 98.7962 -1.53479
-12.5796 91.2967 10.9231
-7.11773 92.4203 8.87303
-21.207 112.238 -2.81422
3.29311 120.313 -14.2331
-15.6116 115.751 -6.66921
-7.09825 92.3817 8.84821
-21.2008 112.154 -2.82378
-17.3551 97.3675 7.35322
-10.705 118.751 -10.0706
-20.8225 110.821 -1.93239
-20.0094 106.47 1.1216
-21.0445 111.576 -2.46644
18.6157 99.3664 -2.10263
-21.5703 91.978 12.2391
-19.1537 114.148 -4.8353
-0.584141 121.514 -14.4298
9.69406 116.178 -12.7622
2.76465 120.028 -14.1275
-21.2613 90.7801 12.9525
0.213013 92.7135 6.76835
-7.97699 92.0156 9.08236
-20.9005 95.1223 9.57434
-16.9281 114.904 -6.09597
-18.5005 101.993 3.88009
-10.3955 91.4864 9.91687
3.07231 92.2566 6.34743
-20.6453 94.2065 10.0939
15.6849 107.761 -8.02093
9.76414 115.933 -12.8186
-19.3008 95.5806 8.7521
-20.3131 90.3489 12.8716
13.941 110.244 -9.54209
-20.3995 89.5681 13.3918
-19.4051 103.755 2.49951
-21.7664 91.2269 12.3568
11.3091 89.1279 6.64002
18.001 100.72 -3.48468
-6.01954 118.598 -11.552
-0.33272 121.217 -14.7602
18.3134 87.4703 6.2923
0.960576 121.308 -15.1409
-10.7188 118.262 -10.3111
12.4023 88.2916 6.94541
7.48311 116.935 -13.3603
-6.61212 91.8546 8.44738
15.542 104.45 -5.8503
9.76189 89.5918 6.49354
-10.5209 118.224 -10.4301
-19.4066 107.645 -0.600928
-7.50551 91.6402 8.71857
-12.9585 117.732 -9.56749
9.50286 89.5425 6.47916
-20.1771 100.78 4.58612
-16.7968 95.7537 7.57434
18.717 95.7148 -0.226706
7.31438 116.615 -13.346
-19.292 107.059 -0.361639
-13.7109 90.4262 10.8066
-19.4961 105.983 0.436138
-18.0788 89.3823 12.5042
-21.1576 94.7236 9.16194
18.7169 95.5648 -0.261859
-4.30904 118.098 -12.0092
6.07065 116.767 -13.3091
19.8072 89.4423 4.03051
5.0328 117.701 -13.8073
-19.1629 102.769 2.63923
17.6803 100.598 -3.85144
-17.5177 88.5371 12.8873
-7.34476 91.3224 8.52015
19.1791 90.4708 3.30265
18.9319 95.1304 -0.137887
11.8336 112.228 -11.3346
-22.108 90.201 12.5701
15.3941 104.968 -6.70377
-19.1745 106.359 -0.164038
-10.8652 117.761 -10.5111
5.15604 90.9995 5.91242
-18.9421 92.9955 9.71506
19.1707 94.6141 -0.00741411
15.3737 104.744 -6.77175
-5.92195 91.2805 7.93717
-18.3048 92.7237 9.52028
3.0315 117.947 -13.9943
-20.2324 91.0503 11.17
-11.9425 89.7131 10.3138
18.0462 95.767 -0.854222
-18.8857 94.9411 7.87079
-10.7643 90.0031 9.74336
-15.9417 89.0073 11.6237
19.4478 93.453 0.510837
-15.7706 89.0774 11.5025
2.12952 91.5129 5.74046
17.2124 100.732 -4.49048
15.4338 106.682 -8.56529
-5.93679 117.571 -12.0033
18.0733 86.6772 5.75802
16.6378 86.4699 6.20494
18.9825 89.2938 3.57954
2.92856 117.675 -14.0788
-18.4157 87.8785 12.8486
-14.192 116.078 -9.13708
16.5262 101.828 -5.27947
-16.3973 87.3695 12.7429
-21.6276 89.8427 12.029
6.04886 115.714 -13.3769
-20.6854 109.045 -2.53473
-17.5276 97.201 5.59807
17.246 96.3816 -1.47375
-19.1703 112.859 -5.75111
-1.68243 118.229 -13.6764
-3.81083 117.612 -12.7565
-18.2142 87.8806 12.5715
-7.05165 117.465 -11.9818
-17.0839 113.516 -6.85324
14.7873 86.4933 6.28179
6.74538 115.394 -13.5408
-17.9994 94.6034 7.40766
11.6463 110.411 -10.9154
-11.0827 89.0133 10.0431
-16.2451 90.5786 10.006
12.4613 109.244 -10.291
12.4717 109.229 -10.2867
-21.1361 94.7641 7.8509
-9.14731 89.8271 8.86976
-2.03174 117.756 -13.6289
-6.60301 90.1517 7.95426
6.47769 115.121 -13.554
-16.8439 89.3509 10.8052
-5.65701 90.4604 7.49252
-17.5637 96.4584 5.57507
-20.6448 90.2049 10.912
4.92443 89.8603 5.52631
-3.13426 90.6824 6.67028
-4.31324 90.6633 6.94401
1.49951 118.791 -15.3337
-15.4239 114.923 -8.79643
-20.0334 100.26 3.12593
2.11382 90.8073 5.26962
-0.960793 118.338 -14.5987
-16.2942 91.7052 8.63497
-17.6243 112.9 -6.89186
15.8673 85.7388 5.98812
8.7057 113.267 -12.9786
2.05066 90.7836 5.24403
3.71479 115.73 -13.7349
10.3949 86.8819 6.2857
-15.0879 86.7396 11.9857
-8.04344 116.971 -12.2181
4.13793 115.254 -13.6475
9.64304 86.9896 6.16328
8.09273 113.585 -13.3502
15.1155 104.465 -8.10366
3.20191 90.2601 5.10725
13.3268 107.527 -10.0317
2.1714 116.914 -14.607
-18.5356 112.406 -6.69426
15.1888 103.369 -7.38066
-4.71055 89.9565 6.9919
-10.8084 87.7125 10.008
20.2587 86.0878 4.3458
5.86694 114.378 -13.5949
7.18446 114.26 -13.8227
5.41318 114.376 -13.523
14.5659 85.5987 5.92693
-19.6516 98.2263 4.01173
-16.2091 88.469 10.4471
8.9135 87.0238 5.99357
18.3705 89.6077 1.95784
17.4135 94.4364 -1.45258
1.654 117.412 -15.127
7.9871 113.232 -13.4197
17.034 85.3998 5.34796
-3.33241 90.0255 6.36546
7.55609 113.783 -13.7785
-1.92832 116.903 -14.0866
-12.8544 115.085 -10.3306
13.4827 106.956 -10.0911
-4.38642 116.728 -13.4525
-15.4373 90.6927 8.39952
4.50883 114.245 -13.6214
16.3792 95.3623 -2.15245
-5.34961 116.463 -13.1224
-12.4206 115.083 -10.559
-20.1107 101.716 1.05411
-2.88572 89.7778 6.12628
18.3491 92.6566 -0.700749
-15.0245 86.1522 11.4119
-5.0401 116.387 -13.3563
17.8713 87.7095 2.93956
-19.1722 93.4738 6.79321
-13.5884 114.066 -9.80265
-14.5304 87.9165 9.89116
12.057 107.845 -10.8353
-10.4267 115.271 -11.429
1.5131 116.78 -15.1851
19.9975 85.4838 4.08136
-14.8533 89.4088 8.80428
-20.3921 94.704 6.06615
-5.40036 88.2321 7.57132
-19.4856 103.441 -0.676518
-0.96261 117.331 -15.1497
-12.5516 114.162 -10.2678
-0.606895 117.645 -15.4963
-16.5879 92.2971 6.93196
-19.1068 109.286 -5.19707
-11.6974 114.507 -10.7339
16.2571 84.7205 5.31602
1.71872 116.134 -15.0246
9.24887 109.995 -12.1184
5.15578 88.1945 5.01884
-9.99815 114.719 -11.4626
-10.6554 114.5 -11.1677
-19.7288 102.886 -0.512872
-20.324 94.9596 5.45868
17.8173 90.0716 0.709153
-13.9379 86.9531 10.0043
-17.7533 110.096 -6.44352
7.23181 112.712 -13.8958
1.56464 89.756 4.47306
19.2106 84.3841 4.57525
-19.4784 96.9785 3.68931
-18.6189 93.5021 6.06972
1.07959 89.6374 4.58894
4.76584 88.1065 4.88881
-3.40149 88.5326 6.35239
15.0055 102.597 -8.24268
-19.2145 107.627 -4.48744
15.4696 98.5944 -5.40768
2.76137 114.108 -14.1964
-17.8973 109.291 -6.06524
-20.0703 104.425 -1.97146
-18.3686 96.3109 3.70375
-19.5039 97.1488 3.32294
14.1034 104.835 -9.84753
-3.51335 87.4709 6.90602
-17.1528 93.143 5.65317
12.9181 106.206 -10.7178
-15.0127 111.831 -8.9288
8.91845 109.463 -12.4995
-3.91616 86.7166 7.29215
8.64426 109.788 -12.7669
-14.8076 86.3032 9.89028
-0.358718 88.7852 4.81105
-18.229 96.1612 3.15111
-19.8264 98.6989 1.60347
9.84565 84.7183 5.47222
16.1255 83.9767 4.6383
14.547 99.7511 -6.85344
16.6815 84.0963 4.33673
3.26477 88.3936 4.0732
-13.5638 86.6094 9.06028
1.03969 88.6759 4.26406
4.12319 87.686 4.3063
-14.3047 111.229 -9.25336
14.8931 83.9496 4.66125
-2.47844 87.4732 5.80804
-14.1635 111.184 -9.31314
-13.9222 88.1477 7.72351
16.6252 89.5297 -0.0342933
7.38413 85.4618 5.00655
-14.5476 86.5691 8.97589
-4.98928 113.998 -13.5952
-18.8301 106.25 -4.79459
16.2968 87.0202 1.81473
16.2463 87.2326 1.58265
18.2836 86.3896 1.73831
19.1527 83.4848 3.67273
-18.8598 99.1445 0.316461
-16.0626 110.082 -8.48599
-19.8159 102.901 -2.31921
8.51384 108.867 -13.0338
11.786 83.8206 4.90373
-18.5932 105.9 -4.90236
5.37291 86.3419 4.40951
-19.1163 105.73 -4.71714
-16.3116 109.822 -8.40076
13.0273 103.309 -10.0025
9.86197 83.9164 5.14294
17.8556 84.2089 3.15897
12.6304 104.939 -11.1567
-12.2836 85.6855 8.68156
16.0555 88.2763 0.484066
5.53646 110.657 -13.9175
13.4492 100.034 -7.7349
18.6485 86.0752 1.48032
1.29568 113.661 -15.3135
13.6407 99.1503 -7.20758
12.8918 83.5002 4.6302
-10.1941 111.904 -11.484
-18.8507 99.6464 -0.438257
14.2285 97.9804 -6.48594
15.3744 94.2432 -3.97109
-19.0676 94.0239 3.6235
-20.5854 100.569 -0.987662
-9.69971 111.885 -11.8424
-6.65048 112.361 -12.965
-13.6667 85.7078 8.46401
2.32006 87.7382 3.42271
15.7969 88.9247 -0.434035
-1.84564 86.4376 5.28115
-7.40614 112.224 -12.7606
13.6614 98.2161 -7.00272
15.8542 86.3657 1.32076
-0.955786 86.7642 4.71945
-19.1218 99.4659 -0.787609
-16.7766 108.009 -7.69804
13.61 98.1772 -7.07097
7.87267 108.833 -13.7607
-20.1591 103.242 -3.44634
3.18369 111.298 -14.6022
19.314 84.997 1.44462
15.8527 89.1894 -0.951182
15.4768 88.4631 -0.401985
-15.5527 90.2834 5.0348
-18.0028 93.4037 3.24201
14.6649 94.8995 -5.18583
3.43332 86.7987 3.26658
15.316 88.4251 -0.565075
-15.9099 107.473 -7.94795
4.81022 85.7658 3.67339
-13.8998 87.308 6.55875
15.3544 83.5807 2.87373
12.0094 103.522 -11.2822
-13.585 85.4656 7.73739
2.11617 86.9352 3.12476
12.7885 100.402 -9.2747
15.3052 85.9839 0.915885
2.79065 110.807 -14.8882
4.89688 109.457 -14.3617
-20.5065 99.7146 -1.52191
-17.1379 93.5321 2.29354
16.3955 85.6206 0.797451
1.25638 86.6555 3.34267
-14.1109 88.4494 5.35839
10.8059 104.512 -12.1399
13.4183 97.3624 -7.42518
-19.9665 101.62 -3.30395
-14.168 86.6389 6.58932
14.8797 92.8599 -4.45882
17.916 84.4451 1.13208
-13.9104 87.0983 6.15199
17.6979 85.073 0.702223
0.844008 86.417 3.38753
-17.7863 105.63 -6.84572
13.1979 98.5507 -8.43901
-20.5084 99.0088 -1.38389
-7.99933 110.742 -12.9449
7.62683 83.6509 3.80682
-2.78881 112.829 -15.6691
-0.708224 113.336 -16.5214
-6.79622 110.838 -13.3296
12.117 83.3065 3.03586
-16.3003 91.2193 3.36419
-14.4487 107.725 -9.39888
11.5165 103.622 -12.0683
13.191 98.2186 -8.42514
13.5994 96.0295 -6.90763
11.7993 101.84 -10.8839
-19.0055 95.0223 0.973413
14.103 94.9797 -6.30184
5.50617 108.197 -14.3789
7.38786 83.5397 3.57713
16.5781 82.1795 2.45935
-15.9738 106.383 -8.46748
16.5863 81.9556 2.55506
7.92494 83.1404 3.55634
17.0697 83.6513 1.10485
-9.73713 109.73 -12.4663
-14.4437 88.3661 4.48908
-4.2054 111.585 -15.0975
3.36626 109.204 -14.9912
14.6397 93.7917 -6.02377
11.3968 83.6891 2.22477
-6.50964 110.414 -13.776
-19.3659 95.0119 0.533848
2.82781 85.9603 2.36423
-17.0541 92.1356 2.12286
17.035 84.0015 0.672999
-19.1603 101.54 -4.46793
17.9879 82.0294 1.90397
-20.3308 99.4599 -2.67158
-19.0545 102.476 -5.23926
-14.4388 107.115 -9.71899
5.82175 107.454 -14.4356
6.97153 83.4159 3.23711
1.82843 85.6703 2.64156
7.7306 106.29 -14.0593
17.0301 81.81 2.14382
7.78071 106.151 -14.0233
-13.0727 107.639 -10.5863
16.7844 83.6201 0.735044
17.8611 83.1626 0.832563
4.47609 84.6926 2.5883
-15.9814 89.2788 3.66778
13.6865 85.7987 -0.274137
17.756 83.4713 0.533065
-14.7647 106.647 -9.61048
-17.9815 102.829 -6.06055
-13.5795 88.4125 3.69549
-19.8876 99.4093 -3.13693
1.41037 109.291 -15.2201
3.97304 84.939 2.35529
-15.8649 88.6735 3.92416
15.6312 83.1666 1.05131
13.5525 83.2219 1.45849
16.4755 81.7878 1.8792
-10.8628 87.9927 3.26582
-12.8337 86.032 5.11021
-18.8736 99.8929 -3.96474
13.6297 94.9935 -7.48583
-14.3022 88.5051 3.49461
10.7148 102.654 -12.6006
14.9249 83.8673 0.391285
-11.044 88.1766 2.87076
16.237 82.296 1.18679
17.8293 82.7998 0.446279
-14.3717 106.225 -9.97443
13.9718 89.718 -3.94445
11.4061 100.684 -11.5879
3.98709 107.502 -15.0507
-18.7603 94.92 -0.68626
-5.87985 109.856 -14.6652
6.68235 106.059 -14.609
-16.1942 104.803 -8.72489
-18.7589 93.6827 0.0966617
-11.3883 87.9249 2.69573
14.5943 82.9919 0.647196
13.4429 83.8869 0.226198
-17.8641 91.3055 1.54051
-14.2737 88.6399 2.73577
-16.1992 88.9669 2.87623
14.4485 85.9343 -1.62397
2.06865 107.7 -15.1906
-16.006 103.327 -7.95499
-11.607 106.532 -11.3754
-10.3042 107.262 -12.213
-18.7253 92.7908 0.413609
0.100672 109.556 -16.2845
3.28711 107.051 -15.1854
9.0386 103.12 -13.5963
-11.05 88.4986 1.73242
-10.2018 107.029 -12.3417
2.17596 107.175 -15.1815
-11.8818 106.017 -11.2576
-16.3262 89.0546 2.37061
-4.46161 109.908 -15.8241
15.6949 82.8709 -0.0955593
-19.4266 97.1092 -2.99124
-4.36069 109.904 -15.9125
15.3158 83.0249 -0.203876
-18.2479 92.2817 0.2538
-12.4665 105.638 -10.9923
-13.5499 88.7452 1.8397
-18.3173 98.6635 -4.5495
-11.8689 105.76 -11.2741
3.75253 106.356 -15.193
-15.805 102.155 -7.92504
-17.9419 99.4437 -5.43852
-9.45293 87.4517 1.62741
3.65204 106.064 -15.1743
-13.2991 87.4756 2.41585
-14.9783 88.8941 1.65202
-15.5877 102.699 -8.59184
1.51271 106.764 -15.4033
15.675 81.8123 0.082991
14.2291 86.2108 -2.8885
-16.5845 100.291 -6.65212
-13.5718 88.6867 1.34037
8.09716 103.149 -14.2403
-17.6201 90.6445 0.645252
-18.3538 94.3903 -1.99914
-15.4102 102.407 -8.64829
1.56645 106.421 -15.397
13.9884 87.5946 -4.09352
-11.592 88.792 0.626297
-5.1116 108.882 -15.8019
-12.1322 87.6597 1.57587
13.7975 89.6369 -5.60889
-12.6777 86.7047 2.3971
13.9293 85.9034 -2.86603
-10.3623 88.1338 0.778398
-14.3647 104.191 -10.3385
12.8474 94.2112 -8.88386
15.4337 81.4692 -0.0292911
-19.3138 96.3375 -3.49443
13.1442 82.7579 -0.547914
-11.5147 88.7811 0.363737
8.99146 100.937 -13.2698
-16.4942 99.8859 -6.87972
12.7899 93.8177 -8.86158
13.4374 87.717 -4.4653
12.2435 95.1469 -9.78146
2.51604 105.074 -15.0913
2.0409 105.364 -15.2197
9.71204 99.6235 -12.6363
-8.8947 86.9566 0.893328
-8.64831 106.679 -13.8757
-8.81577 87.3822 0.483797
13.6998 91.0384 -7.2489
9.41553 99.7231 -12.8094
-11.7146 89.0554 -0.204443
-16.4258 99.576 -7.05345
-18.9819 96.5442 -4.23684
-15.8981 89.1095 0.624894
12.7117 82.1807 -0.51378
12.8311 81.5659 -0.0844373
-14.3618 102.597 -9.85686
-11.6415 104.362 -11.787
-10.9258 89.1819 -0.977771
5.39424 102.884 -14.8137
-19.1216 93.8698 -2.73059
0.0661015 106.781 -16.5998
-16.3373 99.0432 -7.32766
-8.31697 87.5098 -0.624738
-15.4263 88.9616 -0.150116
-4.54153 107.006 -16.0406
8.44353 99.8755 -13.6217
4.60595 102.535 -14.7774
-15.1694 91.8451 -2.57725
-18.7489 93.6641 -3.16408
-15.1998 92.2118 -2.94458
-5.52708 106.392 -15.6668
-18.5311 96.5855 -5.5268
-17.2481 91.4718 -1.99995
-3.89825 106.52 -16.234
-14.3759 90.4622 -2.07045
-18.3589 93.4487 -3.451
-2.11532 106.328 -16.653
8.06462 99.679 -13.9975
0.11398 105.403 -16.5248
-8.20505 84.043 1.12758
-13.2743 88.0107 -0.721377
-17.007 93.2265 -3.81564
9.14769 97.6777 -12.922
-14.8598 99.2726 -8.86148
-13.7589 88.3605 -1.00755
-9.59207 89.6464 -2.93711
10.79 94.4163 -10.9848
-18.1651 95.4617 -5.43753
-9.17059 104.072 -13.8486
10.1298 95.6999 -11.9303
-17.0179 97.7224 -7.47586
9.45352 96.8164 -12.6496
13.296 83.4629 -3.54944
12.8604 89.0436 -7.65119
12.8003 87.8898 -6.8114
-3.67094 105.395 -16.2716
-16.4405 94.3234 -5.21475
12.9471 88.6387 -7.45917
-9.99829 90.2237 -3.61872
-14.0567 93.0302 -4.8396
-8.81512 88.8141 -2.87692
-9.16635 103.281 -13.6303
-8.06276 88.196 -2.64395
12.1543 90.202 -8.63412
-1.97232 105.109 -16.6747
-9.09468 89.0127 -3.12521
-8.73418 86.1392 -1.1806
-9.31963 90.3768 -4.29158
-13.2066 93.1101 -5.54407
-13.8464 94.0586 -6.11732
1.22325 102.956 -16.0872
-8.96948 84.3879 -0.0778435
11.6132 91.0685 -9.60957
-6.33645 103.429 -14.9416
5.13492 99.4221 -14.5519
5.50972 99.1255 -14.4326
-12.9422 91.2348 -4.48656
11.0536 92.1607 -10.5047
-10.3632 90.1327 -4.31614
-8.20849 87.1874 -2.62049
-14.8139 94.7208 -6.85117
13.0359 79.4117 -1.62321
10.6607 92.5731 -10.9856
-10.4895 101.703 -13.1983
-8.5449 88.8813 -4.07521
-1.68212 103.771 -16.7525
-7.75284 101.738 -13.9593
11.2393 90.7521 -9.98524
10.1516 93.3146 -11.6875
10.2768 93.0264 -11.506
-10.4198 91.1696 -5.6436
-12.8006 100.196 -11.8852
-11.6943 90.3892 -4.86039
-6.14125 102.059 -14.9253
-10.6739 91.2875 -5.94978
8.54863 95.7384 -13.5386
12.4391 84.8944 -6.47493
12.5958 81.8277 -4.22635
-15.485 95.2544 -8.12972
12.4574 78.5913 -1.98677
1.92202 99.9119 -15.6115
6.54978 96.4761 -14.0728
-7.81242 86.7697 -3.67945
-8.76572 99.414 -12.9711
-12.3749 98.9305 -11.8262
-12.55 98.7093 -11.6428
-12.4745 93.176 -7.56078
-11.5952 92.8585 -7.55178
12.5684 78.2513 -1.97772
0.768068 100.485 -16.0315
-5.47006 101.01 -15.0873
-7.95672 89.7402 -6.13494
-15.2909 96.5318 -9.63183
-0.79914 101.519 -16.618
-6.66908 99.7912 -14.0403
12.1694 83.6353 -6.17075
-9.73296 97.7042 -11.8737
5.09689 96.8728 -14.5384
-11.2643 96.7686 -10.8786
-7.6235 83.0909 -1.54155
5.16465 96.5929 -14.4675
-7.60165 82.6375 -1.26503
11.7506 86.2892 -8.28795
-13.6931 96.6675 -10.4409
2.30098 98.7844 -15.5566
-7.99359 98.4506 -13.0893
-7.54314 98.7593 -13.4366
-0.716392 100.9 -16.551
8.702 93.5962 -13.1937
-10.8554 92.2117 -7.87499
11.5395 85.2925 -7.81012
-12.6387 92.9257 -8.2067
11.6216 84.8935 -7.56341
12.503 80.1189 -4.19713
-8.04927 89.9134 -7.27728
2.23855 98.0853 -15.6859
-7.94372 97.4607 -12.9793
-13.2976 95.6812 -10.4777
0.123908 99.4612 -16.2726
-13.576 95.5436 -10.4338
-9.13274 96.1356 -11.8834
-7.96435 97.0474 -12.8934
11.0696 85.9907 -8.99664
-7.23213 88.7299 -7.16534
-13.3598 94.1315 -9.85287
-7.5567 83.904 -3.5012
-7.48696 97.0952 -13.3615
-11.3627 92.0198 -8.73704
-1.66744 99.7017 -16.612
4.86823 94.7622 -14.4329
-6.14708 97.6828 -14.1946
5.12058 94.5615 -14.45
-6.89078 87.7774 -6.84088
3.52629 95.1436 -14.6804
-7.40872 83.6215 -3.69273
-11.2301 94.0332 -10.6565
3.50491 95.0268 -14.659
11.406 77.5662 -3.39781
-6.43429 81.7496 -2.63645
-11.6559 93.9261 -10.5944
2.57377 95.6396 -15.0205
8.6484 90.2666 -12.6149
-8.40786 90.0568 -8.70824
-2.52295 98.8908 -16.7073
-12.6018 92.923 -10.0464
11.4228 79.648 -5.60792
-3.63628 98.1115 -16.084
9.6448 87.3047 -10.9697
-6.56815 87.3961 -7.51169
-7.78472 95.1945 -13.0626
11.0466 82.4541 -7.77146
5.9188 92.7748 -14.5113
10.0556 85.2801 -9.93609
-1.31587 96.9815 -16.2665
-6.54878 87.6105 -8.21256
-9.8591 92.8497 -11.5052
10.9015 81.7311 -7.80529
-4.94973 96.3579 -15.2707
10.6195 77.3252 -4.50339
11.0891 78.8034 -5.80302
-1.90476 96.5614 -16.3983
9.75798 83.8399 -9.50113
-1.0685 95.9607 -16.186
-5.22581 95.6576 -15.0552
6.00853 91.3778 -14.35
1.81022 93.4292 -15.0169
4.56808 92.2776 -14.8378
9.49354 84.7718 -10.3972
5.16823 91.8773 -14.7547
8.33291 87.3412 -12.0729
7.0165 89.7503 -13.6027
-10.3434 90.3761 -10.4958
-5.75951 83.428 -6.32645
-5.9193 83.4483 -6.44733
-6.04481 93.923 -14.2982
-3.99358 83.0637 -6.78755
-6.67471 83.5394 -6.58256
6.66288 89.0391 -13.6664
6.00561 89.7654 -14.1245
-6.8467 83.561 -6.69724
-10.4612 90.9362 -11.4041
10.1449 80.165 -7.92692
-6.5403 93.112 -13.9526
8.88726 84.5306 -10.9527
-7.05665 84.2626 -7.43959
-7.72305 92.2471 -13.254
8.96434 82.6747 -9.922
4.63478 90.4808 -14.8126
-5.11131 83.1333 -7.25645
9.89133 79.2299 -7.66892
-4.51353 83.1259 -7.45247
-9.50905 89.42 -11.1205
-1.5601 93.2764 -15.7982
-9.22911 91.2132 -12.6079
1.59594 91.6852 -15.3984
-5.20182 92.8753 -14.8752
6.78202 86.8028 -12.9924
-3.33371 83.0327 -7.97257
-8.96221 91.1272 -12.7999
5.08375 89.153 -14.4435
2.71517 91.0121 -15.3285
-8.67749 89.1031 -11.5072
-3.56132 93.4589 -15.981
-8.80651 90.4977 -12.6297
