ply
format ascii 1.0
comment Created by Open3D
element vertex 1930
property double x
property double y
property double z
end_header
22.8263 125.603 -1.93048
9.48741 94.9267 22.1837
-14.9194 89.9376 -0.351531
18.0737 110.224 12.4703
17.0592 122.026 -4.11172
24.2299 127.264 -2.39974
12.0819 123.618 -12.0966
20.0945 128.789 -9.30138
-18.2448 91.0898 -5.7562
6.00857 91.9614 22.0138
17.2489 108.743 13.5326
-7.93211 87.2507 11.6284
-10.912 104.516 -14.4168
3.57534 117.072 -13.5425
19.7688 128.604 -9.29995
26.9175 129.312 -1.67141
18.3416 111.779 10.9975
11.1835 98.9708 19.1826
15.6835 122.013 -5.39826
-9.02969 106.447 -14.458
-12.2066 86.835 7.33811
23.2178 126.21 -1.82397
-13.5136 87.6538 4.75663
-0.972686 89.059 17.8524
26.4953 129.406 -1.97445
4.09339 91.1527 21.2332
24.9325 130.374 -5.08266
14.6006 121.043 -5.20515
-6.2087 87.8514 13.3295
22.8978 125.608 -1.22131
-6.19474 109.407 -14.7015
-11.1507 104.55 -14.221
16.6722 124.953 -7.68872
-1.35193 114.767 -15.855
27.1558 130.13 -1.94584
4.27642 91.4269 21.2903
24.6184 130.522 -5.4038
26.7212 130.597 -2.98121
19.7333 128.985 -9.19329
15.6816 126.149 -10.3115
-15.1211 90.0491 0.103223
26.7517 130.391 -2.64366
18.2282 111.125 12.3315
-4.98117 110.798 -14.825
16.1974 107.297 14.9361
-4.05917 111.772 -14.9819
22.4881 126.31 -2.32844
25.5805 130.687 -4.32752
26.3554 131.26 -4.15169
-13.0162 87.7527 5.78798
5.24875 92.2158 21.7763
18.1691 122.696 -2.57087
27.4234 131.055 -2.44141
11.0556 100.781 17.6233
23.2871 126.811 -1.72698
27.0728 130.004 -1.37027
17.4953 120.059 0.235153
-16.2293 91.8367 -3.105
22.622 126.33 -1.82062
10.7956 99.7471 18.7602
-3.8127 112.269 -14.939
1.23469 116.928 -14.9956
12.7082 102.991 16.8437
20.3575 124.169 -1.61829
-16.7811 91.6546 -3.41023
-18.8459 94.5203 -9.58451
14.582 122.409 -6.09345
-4.8637 88.7542 14.6379
10.7588 98.471 20.5711
18.2601 111.9 12.0002
9.315 95.9486 22.1521
-3.9206 112.281 -14.8751
19.5278 122.058 0.298622
-13.6906 88.2102 4.89851
-10.7857 87.9003 8.87124
21.1895 129.194 -6.79764
5.71684 120.103 -13.3131
-9.99203 88.0808 9.73902
-15.3124 90.1258 0.763537
-9.91534 88.1433 9.77977
-5.19968 88.8796 14.4527
20.0408 129.604 -8.54314
16.1475 127.009 -9.77722
21.7944 125.222 -0.718378
19.6844 122.283 0.614616
8.60377 95.5339 22.3299
-18.8295 95.4375 -10.1763
-15.1149 89.8557 1.59473
-15.5453 90.3011 0.54942
-14.3448 88.9514 3.80714
7.01515 94.1491 22.4621
-14.5122 101.758 -13.017
-7.0152 109.5 -14.1853
0.528679 117.429 -15.5355
10.6818 99.2588 20.2285
-0.708616 90.536 18.1076
20.469 124.046 -0.367559
16.4025 108.773 14.7451
-11.1362 88.5665 8.38569
-10.144 88.8576 9.21397
-14.1129 89.3856 3.82865
19.3925 124.832 -2.48479
-9.01808 89.3296 10.0213
24.3027 130.871 -4.43196
3.9958 92.5593 21.4007
16.0732 124.697 -6.09585
17.7936 124.245 -3.4181
13.2247 104.633 16.7097
2.44017 118.416 -14.0843
18.0052 124.199 -3.09689
-5.45158 89.3741 14.3915
2.16349 91.8689 20.2223
16.7714 124.674 -5.15297
15.6765 125.279 -7.18476
-11.7379 105.106 -13.4704
19.067 124.908 -2.59808
-10.3921 89.3691 8.73326
16.4093 128.353 -10.1824
17.6743 125.748 -5.2639
25.697 130.653 -2.09995
14.5316 124.461 -7.29719
-15.5706 90.8625 0.700263
17.8645 118.968 3.90257
22.9877 126.469 0.234524
-15.1583 101.063 -12.0266
-6.25563 89.5034 13.6958
14.5269 124.807 -7.5716
10.3787 99.9535 19.8909
14.6222 126.825 -10.0798
18.2907 126.675 -5.50298
-12.714 89.7546 5.8173
-19.2748 95.8174 -9.85895
20.022 124.338 -0.262181
19.2113 122.016 1.9071
18.4059 117.583 6.81442
24.1485 131.007 -3.82607
-14.1854 90.6175 3.27856
26.3748 132.816 -3.45398
17.205 120.246 2.07482
15.6869 127.543 -9.19516
10.1674 100.352 19.6959
1.35315 92.3447 19.6527
14.2267 107.078 15.8368
15.1068 108.209 15.4479
7.56706 122.337 -11.9289
22.8907 130.634 -4.4843
-2.99551 90.8148 16.6322
2.99103 119.696 -13.8745
23.0552 130.599 -4.20581
-0.930924 117.28 -15.3159
17.925 112.641 13.2036
-9.72734 90.8806 8.69024
18.5177 117.383 7.77018
2.92106 93.0704 20.99
9.9771 99.7292 20.7307
-10.7109 90.7687 7.80158
-14.3444 103.8 -13.4378
9.82958 99.3027 21.2015
2.75023 119.744 -13.8513
17.5277 128.696 -7.92935
13.3297 106.219 16.3891
-6.80362 90.2658 13.2685
19.0594 127.841 -4.91168
15.3618 127.831 -9.29369
5.13035 94.4389 22.0695
-6.78291 111.032 -13.6944
19.8303 124.773 0.128917
5.13881 94.5412 22.0664
24.2768 128.732 0.282776
12.7637 127.598 -11.9163
-10.4697 91.3129 7.80846
18.9724 125.055 -1.10077
15.6672 129.185 -10.4138
2.9412 120.314 -13.9498
19.305 124.546 0.00399436
-15.6596 101.723 -11.8335
11.8824 104.437 17.3993
0.902833 92.8989 19.4066
15.4683 126.997 -7.69975
-15.318 91.2159 2.35794
10.7833 103.312 17.7082
-19.2363 94.0811 -5.86427
-14.0648 91.4842 3.74416
-16.0544 92.9835 -0.548468
-8.3012 110.032 -13.5436
7.33588 96.8254 22.2949
-10.5924 91.8226 7.50181
23.5194 132.078 -4.37653
-9.11856 91.3006 9.97011
-10.1768 91.9829 7.83404
20.779 132.054 -7.53734
9.43239 124.508 -11.1938
16.5919 129.664 -9.36122
-3.42999 115.252 -14.3352
19.6736 125.813 -0.485972
20.7568 132.635 -8.02414
17.2623 129.321 -7.80318
-19.1084 97.2057 -9.21275
17.6691 121.156 3.33846
-10.3007 92.3928 7.5637
9.63669 125.633 -12.0373
-19.7252 95.8187 -8.0717
19.5255 117.671 10.1588
18.6626 128.492 -4.94767
-18.497 94.0617 -4.1734
-15.2075 91.8045 2.68431
17.3267 113.402 13.2588
-19.3138 96.7742 -8.64441
-3.02461 92.253 16.6542
25.5142 133.78 -3.49832
-11.4627 92.6846 6.09163
4.15022 95.0318 21.6775
-19.9482 95.4302 -7.51361
17.6459 130.973 -9.09464
-11.1529 92.6743 6.56738
18.1871 131.1 -8.56562
23.3387 133.092 -5.02719
7.08935 123.155 -11.345
16.6752 129.818 -8.58741
17.6213 131.175 -9.20616
23.0301 129.897 -1.02459
-19.7271 94.6795 -5.96272
12.6012 106.683 16.9009
19.4598 132.686 -8.81323
14.5278 109.286 15.8233
19.6108 118.728 9.56583
-9.79137 92.6981 8.5322
18.9837 126.031 -0.608025
18.7057 125.954 -0.814744
-3.48222 116.004 -14.2457
-18.4123 94.1828 -3.54822
10.1588 103.678 18.0972
-10.7977 108.382 -12.9585
7.92095 123.984 -11.0009
19.908 123.77 3.54687
18.3635 130.488 -7.04599
14.7994 130.127 -10.7816
16.6644 112.968 13.8043
8.7536 99.7416 21.6734
-4.80351 114.81 -14.0782
16.3692 130.859 -9.7908
19.69 119.148 9.44441
18.6882 127.298 -2.33744
10.1238 127.172 -12.3481
19.6894 126.445 -0.0109307
-16.7915 100.778 -9.93929
19.5244 126.993 -0.826781
-20.1551 94.8873 -6.16307
23.4761 134.092 -5.29029
18.6194 127.038 -1.86831
15.0897 110.676 15.399
14.1681 109.34 16.0614
-11.6451 93.645 5.86767
18.086 131.135 -7.58471
-0.737556 119.637 -14.9754
15.2074 130.196 -9.73531
-1.44575 93.7321 18.0119
16.837 131.12 -8.95255
0.506987 120.87 -15.011
6.1173 123.265 -11.4437
21.1849 133.98 -7.45442
19.5632 127.059 -0.360342
14.7117 129.028 -8.58953
18.5551 125.933 0.0183471
-6.79246 92.9318 12.8773
-4.0775 116.168 -14.1192
18.1738 131.537 -7.58396
0.293021 94.6483 19.2725
19.6527 123.768 4.36132
23.7178 132.208 -1.79701
-16.3459 93.6489 0.804771
22.4425 129.026 0.89513
24.7792 133.939 -2.71479
24.3418 131.736 -0.360996
10.9054 105.457 17.9136
-19.3144 95.4426 -4.98082
17.6169 129.811 -5.77788
-5.72966 92.987 14.5308
18.8573 133.237 -8.63565
-17.7398 93.8462 -0.802725
14.4778 110.577 15.7356
17.4519 132.634 -9.41556
19.7215 124.656 3.71486
19.4665 126.836 0.625683
23.232 133.725 -3.80459
18.1498 132.439 -8.17083
13.154 130.476 -11.4982
18.25 127.29 -1.26933
-15.102 93.4433 3.1977
18.8034 127.681 -1.08189
12.7769 130.306 -11.6382
25.9051 134.581 -1.55558
19.2266 132.139 -6.28692
23.7049 135.352 -5.11828
4.85266 123.731 -12.3784
-19.2626 97.821 -7.28785
16.0354 114.278 13.2873
18.355 127.397 -1.04283
-10.3651 110.357 -12.9697
18.9058 126.798 0.431192
-20.4303 95.8836 -6.04548
-18.2028 94.2626 -1.27237
19.2727 131.581 -5.31797
24.9273 134.473 -2.27562
18.0425 127.298 -1.04329
-5.02668 116.139 -13.9319
-7.26678 113.717 -13.429
-4.64715 116.477 -13.8781
-3.03039 94.3039 16.9718
-0.271248 121.223 -14.8215
23.2293 133.985 -3.45905
1.0335 95.8107 19.9572
23.8327 132.066 -0.159966
15.1264 127.823 -4.98881
14.9131 112.574 14.7207
6.24999 98.9839 22.1365
16.5066 115.832 12.4009
16.041 127.629 -3.49087
14.9928 131.762 -10.0758
8.28994 102.521 20.1139
-19.9446 97.046 -6.33402
17.3023 131.697 -7.14821
11.8412 130.296 -11.7098
17.2145 131.502 -6.86623
25.0852 134.782 -1.76477
15.7068 114.644 13.347
23.6681 133.047 -1.16045
-0.351981 95.6546 18.9993
18.4403 131.273 -5.06361
18.7174 127.941 -0.355364
0.128306 95.8691 19.3414
12.6973 109.156 17.0109
-12.2198 95.06 5.74828
18.0151 128.171 -1.28807
18.9538 133.446 -7.02434
21.7829 130.368 0.380537
-7.31202 95.0968 11.7671
19.0189 127.45 0.948098
-18.31 95.0314 -1.19409
-15.5941 105.943 -12.1748
16.4633 127.903 -2.65101
-16.956 103.644 -10.7687
14.7883 128.744 -5.64334
3.39068 124.64 -13.7795
18.6017 131.533 -4.62638
-11.0524 95.4872 7.0721
-18.6554 95.4477 -1.91506
5.70134 125.062 -11.436
-14.0285 94.3576 5.11122
11.544 130.552 -11.617
-20.1673 96.4417 -4.8608
0.881645 122.979 -14.4019
-2.67444 118.835 -13.2315
-19.2889 96.75 -4.20496
16.6533 128.086 -2.17078
17.3052 133.84 -8.88833
23.6593 132.843 -0.00970744
-1.45006 95.8706 18.3052
-5.56323 116.544 -13.5025
16.7185 130.8 -5.53873
20.0334 135.976 -8.32853
-3.1204 95.3741 17.0406
18.5884 123.322 6.44412
-7.69837 95.6702 11.2247
24.2516 136.545 -4.01549
-16.9638 104.56 -11.3552
3.32686 124.917 -13.7442
-9.70434 95.9729 8.49431
-12.2337 109.841 -12.5241
17.7654 133.868 -8.12225
6.85897 126.11 -10.9823
-5.58771 95.5436 14.1178
16.1086 128.665 -3.23225
-15.6586 106.343 -11.8949
15.2376 132.278 -8.89812
18.8851 132.95 -5.38618
5.51593 125.432 -11.4778
23.8006 137.088 -4.7855
18.4488 129.715 -1.52557
16.0557 133.477 -9.23983
14.3268 131.855 -9.16981
9.76722 106.399 18.589
-18.8189 96.5577 -2.56412
-1.87616 96.2003 18.0666
16.517 130.526 -4.78379
13.3363 111.573 16.1741
14.1511 131.778 -9.1846
-0.855393 121.924 -14.1613
-12.4126 95.8735 6.05617
-5.9651 95.9522 13.6685
-16.6362 105.523 -11.4671
-10.9261 111.601 -12.5914
3.01212 125.403 -13.932
19.5213 129.256 0.705012
8.39348 128.605 -11.6707
0.976586 97.4974 20.0706
-12.8881 109.737 -12.3665
15.8051 117.051 12.2651
-13.2343 95.8686 5.38985
-20.4466 98.0614 -6.04778
-11.6822 96.2142 6.91257
11.3504 108.94 17.7659
-16.37 95.5624 2.21969
17.6976 129.525 -1.46087
14.2755 114.298 14.3227
1.97761 124.764 -13.9398
-14.8226 107.823 -11.7889
-2.37179 96.527 17.7527
3.19138 125.742 -13.6282
17.7603 133.011 -5.73862
14.7222 115.417 13.629
17.0017 131.307 -4.33991
14.9125 130.056 -5.17621
17.848 129.559 -1.02665
-2.9931 119.811 -12.9588
13.1078 112.4 15.8728
16.7261 130.046 -2.79541
19.4238 124.68 7.45045
18.4286 133.339 -4.97578
-7.91546 96.7834 11.3318
23.824 134.359 0.183815
-4.59158 118.164 -12.5011
17.5509 131.285 -3.24348
10.7753 108.831 18.0461
15.5785 130.471 -4.39471
16.8871 119.86 11.0257
17.5685 131.328 -3.10832
12.9069 112.488 15.9237
24.2958 137.941 -3.69196
18.6932 127.197 3.68361
7.62677 128.691 -11.4256
5.45509 126.698 -11.4001
17.2644 130.825 -2.70303
18.732 123.264 8.93572
7.14897 103.174 21.3749
2.44527 99.2957 20.869
-11.8332 96.732 7.27021
-16.1833 106.88 -11.0383
-3.69856 96.9424 16.7901
-6.85061 116.93 -13.0017
24.5104 137.363 -2.29029
9.16358 107.142 18.8925
5.70719 101.447 22.2178
24.8341 136.322 -0.402221
20.3141 130.945 1.23723
-15.8591 95.8107 4.01252
-14.2669 109.335 -11.7001
18.1141 133.627 -4.75339
17.0089 131.385 -3.11804
17.9273 134.439 -5.90333
-1.36179 97.9461 18.7104
7.88803 105.735 19.5694
12.0487 111.808 16.6902
2.67398 99.9955 20.9359
17.8024 134.289 -5.74492
-18.6443 97.3891 -1.01096
17.5035 135.505 -7.65862
17.5463 132.214 -3.30751
3.86517 100.645 21.6481
17.5625 122.01 10.1017
24.1412 138.721 -3.81253
17.7407 132.002 -2.668
-20.8317 98.6064 -5.03088
24.3553 138.639 -3.41257
19.3826 128.755 3.55488
14.8775 131.698 -5.60701
-20.7774 99.8976 -6.49221
9.96817 108.833 18.4441
-13.5699 96.9297 5.96204
10.2381 131.988 -11.3944
-20.5268 100.435 -6.84956
-8.60754 97.8572 10.7073
-16.6099 106.959 -10.5664
11.6756 111.538 17.1325
17.9023 122.994 9.63121
18.4935 128.009 3.8548
17.5412 131.936 -2.36882
9.06682 131.55 -11.9279
14.7299 132.701 -6.66317
12.7813 113.963 15.4484
15.0637 118.088 12.8706
7.50431 105.86 19.8182
23.1342 134.677 0.926743
16.179 133.44 -5.6943
-18.4856 97.1207 0.422066
13.4761 134.261 -9.92446
14.7155 117.719 13.1137
19.1259 129.153 3.52356
-13.2126 97.2687 6.63073
-14.2092 110.392 -11.6422
16.3959 120.598 11.527
16.9539 135.82 -7.64857
17.2335 136.322 -7.92051
0.416765 99.7229 19.7809
21.5805 133.155 1.38932
-4.04135 119.967 -11.8756
22.924 136.204 -0.842103
18.0833 129.287 2.42873
10.9022 133.013 -10.9281
18.313 130.638 1.01756
-4.17655 98.8995 15.6361
0.806842 100.15 19.9907
14.4219 117.645 13.3913
-3.10302 98.5442 17.4784
-8.93493 98.4711 10.6653
12.6289 134.128 -10.056
18.0661 130.33 1.37339
-6.74228 118.266 -12.3828
15.6857 134.412 -6.67699
15.2054 135.733 -8.95548
-1.88879 99.0935 18.4743
2.18997 101.088 20.7416
22.8413 135.636 0.357567
-8.55973 117.175 -12.9241
15.7 134.677 -6.81662
15.6103 134.607 -6.75659
19.5347 131.623 1.86647
1.13134 126.813 -13.6471
15.4802 119.688 12.7196
11.2024 112.276 17.3173
-16.6241 108.381 -10.712
7.21289 131.021 -11.8002
14.027 135.21 -9.14533
14.247 118.06 13.5213
22.6219 135.632 0.59379
-6.61015 118.76 -12.1764
23.9959 138.892 -1.9525
-19.6582 103.444 -7.68978
18.4198 131.169 1.487
0.301945 125.888 -13.1205
-3.93423 120.874 -11.5867
-1.02764 124.379 -12.6797
-2.46121 122.729 -12.2187
-4.37219 120.46 -11.4852
8.27508 108.446 19.2846
9.43143 109.948 18.7175
-10.5913 115.904 -12.8289
24.0372 137.408 0.412336
22.203 139.826 -4.91318
15.3882 135.269 -7.03417
-8.54754 99.2698 11.4567
-17.482 107.864 -10.3561
-18.3534 99.0665 0.14792
11.3902 113.442 16.8468
6.78255 106.745 20.1002
7.65076 108.003 19.596
-8.97153 99.4312 11.0227
16.1773 137.153 -8.21205
18.7729 129.285 5.14951
24.1268 139.558 -1.85706
20.1216 132.713 2.29996
-2.90144 99.9256 17.6417
8.78114 133.106 -11.6963
5.76034 104.815 21.5879
-17.8144 97.7168 2.80544
-20.8039 102.29 -6.65138
24.1782 138.439 -0.213614
17.897 125.854 8.80673
16.7162 137.418 -7.66572
-1.16867 124.686 -12.326
18.4691 130.08 4.041
-13.7615 112.688 -11.6049
17.4921 138.643 -8.13863
-4.01097 121.47 -11.3379
-7.99289 99.7696 12.2168
17.5891 128.053 5.8223
-15.5882 98.325 5.19405
-1.54989 100.642 18.9509
-1.13796 100.92 19.1578
17.293 138.74 -8.13814
-15.9186 110.66 -11.0549
-7.36086 100.11 12.8943
23.6504 140.714 -3.12513
-13.1148 114.028 -12.0647
19.0424 132.379 2.32387
20.3768 133.623 2.37156
-17.4333 97.9056 3.94729
17.4451 127.12 7.43172
-18.2756 99.0687 1.4972
17.4449 126.977 7.6352
-17.418 109.245 -10.7327
-0.170821 101.684 19.6448
8.67086 110.306 19.0272
-0.15733 127.02 -13.1822
24.2115 139.718 -0.6328
15.0374 137.587 -8.76164
18.5492 139.958 -7.63728
13.0122 117.629 14.8808
17.5706 125.954 9.47166
2.16222 103.059 20.9915
10.9052 135.025 -10.2112
-18.2199 100.379 0.293357
18.1732 129.332 5.87892
-12.6416 115.189 -12.3004
10.4989 113.389 17.5811
6.38708 107.714 20.1599
14.4802 138.465 -10.2307
15.0306 120.982 13.2797
-6.81151 100.736 13.8078
14.1851 138.231 -10.0577
1.35807 128.817 -13.0054
2.42753 129.178 -12.036
23.3937 141.358 -2.95503
15.9403 138.733 -8.35621
14.9882 139.121 -9.94481
-0.477556 127.491 -13.1565
-3.83722 101.899 16.2271
-10.3469 117.865 -12.2156
10.4219 135.436 -10.4049
14.3237 138.929 -10.306
-20.7278 101.629 -3.38869
11.2741 115.53 16.6159
7.4697 109.803 19.5852
4.15892 130.177 -10.9019
-18.5776 108.05 -9.03243
15.5385 138.623 -8.28035
-1.98315 102.032 18.6328
17.6224 131.841 3.14984
18.9513 140.755 -6.87994
-15.8774 99.2568 5.77693
-15.0434 99.4099 6.62066
-6.43369 120.828 -11.0475
-18.138 100.101 2.04309
-14.7575 113.564 -11.4791
6.90605 109.304 19.8633
-20.1371 100.916 -1.37042
17.6258 132.261 2.71128
12.4214 117.82 15.3684
24.5677 140.354 0.491509
-16.6653 111.446 -10.8418
-7.37693 120.237 -11.243
4.12675 130.667 -11.0336
-0.0272824 103.086 19.9781
-10.8887 100.625 10.3428
4.03163 105.306 22.0355
17.6964 132.802 2.46382
17.1572 128.166 7.95471
24.6137 140.9 0.268644
-12.3036 100.208 9.39864
-14.7001 114.156 -11.6185
-9.39236 101.359 11.3935
-7.13961 101.48 13.9247
-4.01008 123.33 -10.7241
-1.26724 127.341 -12.6527
-15.5659 99.6813 6.39865
16.3966 140.602 -8.83404
16.4447 140.824 -9.05939
15.6751 139.661 -8.38988
-20.9444 104.617 -6.22393
-1.24786 103.076 19.2686
24.0494 141.996 -1.32837
-9.48621 119.287 -11.5921
19.6205 135.082 2.48333
6.40511 133.987 -11.7601
4.73932 106.58 21.9806
-18.631 108.614 -8.43242
-1.03719 103.396 19.4361
24.1139 142.079 -1.01813
1.56991 130.038 -12.1204
-5.60609 122.097 -10.2909
-18.0475 101.272 2.12303
16.146 140.02 -7.66254
13.7676 139.798 -10.1859
-20.6101 105.803 -6.73676
-20.9799 104.996 -6.09416
3.25866 105.7 21.854
-1.01561 128.468 -12.8853
-16.053 113.342 -11.0359
15.1175 140.418 -9.23351
14.1824 122.119 13.5339
16.9883 128.955 8.00296
20.6072 142.053 -4.75437
11.0275 137.106 -9.67493
10.1828 136.813 -10.2216
18.5828 141.85 -6.78428
-17.3774 99.9545 5.08229
-0.259407 129.334 -12.8149
-7.14423 121.357 -10.6049
-13.0459 100.78 9.22125
-4.07816 124.095 -10.4643
15.4952 124.497 12.3631
-13.4534 116.652 -11.8284
24.0912 142.386 -0.63607
17.8586 134.263 2.58329
24.0459 140.69 1.57849
-18.0177 101.483 2.68191
15.9788 125.403 11.977
4.33087 132.409 -10.9892
24.0388 140.799 1.56322
24.2736 142.326 -0.13256
19.693 142.521 -5.82143
17.9584 134.832 2.26485
-13.2543 101.042 9.2097
-13.1784 101.081 9.27358
-11.7923 101.549 10.3228
-15.5271 114.684 -11.2063
-20.5815 103.27 -2.28917
-6.75831 103.16 14.3704
14.3448 123.444 13.0958
17.9265 134.806 2.55178
-11.7746 101.682 10.3928
-17.8522 112.092 -10.3933
17.7575 134.07 3.36038
12.0353 119.871 15.0657
0.297692 105.123 20.383
-7.68874 103.02 13.6287
-19.0024 102.576 0.876923
19.3539 142.825 -5.93192
-8.52698 102.931 12.9516
15.2117 125.205 12.1655
2.16107 131.701 -11.7882
-1.22721 104.856 19.1729
-11.1818 102.126 10.9521
14.5535 124.498 12.4464
-2.38416 104.71 18.0975
16.2299 142.544 -9.01381
8.57941 136.909 -10.7117
10.6688 118.116 16.3311
-11.6817 119.089 -11.4559
-1.25373 105.138 19.1924
21.3605 138.884 2.16428
20.4177 143.202 -4.56687
21.1425 138.534 2.38452
16.9767 129.557 9.21795
4.34358 133.715 -11.078
-7.3017 122.284 -10.0214
-16.2469 101.203 6.81439
13.1304 122.971 13.4463
-7.25868 104.134 14.0393
-16.3436 114.699 -10.4973
14.356 125.402 12.1049
-20.1385 105.001 -2.30231
-15.7202 115.508 -10.7328
-20.192 105.871 -3.43536
5.20505 110.741 20.4425
-0.693802 130.671 -12.5375
2.71685 107.64 21.6077
-17.0529 113.928 -9.93395
14.2675 126.063 11.6103
-20.027 109.639 -7.71973
6.00423 112.501 19.546
-17.5658 102.463 4.63273
13.1561 141.679 -9.83698
-3.51537 105.38 17.6876
1.82248 132.97 -11.8797
-5.66964 104.983 15.7393
-20.5586 103.719 -0.282798
-0.671895 131.149 -12.3601
15.959 142.907 -7.82892
7.78377 115.837 17.7287
-20.0736 103.635 0.494814
-12.8945 102.776 10.2074
0.0957414 106.926 20.3861
19.9346 138.672 2.62202
12.9994 124.961 12.3022
0.608306 132.391 -12.12
-20.9238 107.298 -4.98422
18.78 137.789 2.58643
14.5818 128.344 9.90583
-14.8921 117.14 -10.4655
16.8786 132.2 7.74331
8.68703 118.535 15.8445
17.3881 136.331 3.01236
-12.8498 119.587 -11.136
-6.31145 105.262 15.3128
-18.233 103.972 2.84976
-20.9978 107.496 -4.92377
-20.359 105.91 -2.02937
-9.34671 104.737 12.6261
-11.0091 104.126 11.5061
0.0234394 132.235 -11.9935
-20.8589 107.577 -4.59688
-4.53129 127.192 -10.7287
20.9211 144.508 -2.99329
-2.85629 128.811 -10.8258
-20.6903 109.851 -7.32779
15.6665 130.201 9.43017
22.2464 141.032 3.16256
-19.6969 104.075 1.42728
13.7907 128.501 9.49048
-11.9135 103.933 11.0037
15.1906 129.813 9.55234
-14.3207 118.163 -10.2932
-1.94859 130.53 -11.6262
7.56647 118.262 15.7024
10.8776 141.467 -10.5972
-18.1365 104.045 3.67543
-8.47978 105.491 13.3587
-11.3204 104.438 11.4054
1.2466 108.564 21.0096
4.17266 111.8 20.3156
-10.0783 105.079 12.2279
-15.9095 102.934 8.10551
-15.9436 102.947 8.0792
5.79028 115.044 18.1793
-16.1002 116.194 -9.36196
11.2678 125.695 10.8424
-13.2326 103.667 10.4398
5.33026 137.404 -11.4219
13.5851 129.495 8.76387
8.4752 120.25 14.7494
12.2113 127.238 10.1028
-8.76361 105.771 13.2177
9.2007 121.902 13.6149
-15.5764 103.219 8.56548
19.4135 145.287 -4.61949
18.3292 138.161 3.38903
2.88725 110.31 21.3188
21.436 145.382 -2.28126
14.7409 144.416 -8.93696
-21.1628 109.519 -6.16525
21.3246 145.491 -2.29179
14.0399 131.011 7.97063
-11.5826 121.471 -10.0138
-7.22564 106.459 14.745
19.5099 145.541 -4.37129
16.1731 144.341 -6.76143
16.4912 144.338 -6.22131
-11.5278 105.099 11.6035
1.14452 134.024 -10.9503
10.0847 125.607 10.7067
-6.46527 106.678 15.7035
-6.42726 106.688 15.7598
5.40192 116.882 16.5885
-17.6574 104.121 5.82496
18.1159 138.504 3.61195
16.2824 137.027 3.37691
3.65829 113.338 19.2999
2.36472 110.806 21.104
-19.2988 105.185 2.70697
5.15086 138.245 -11.2352
18.4328 138.97 3.64836
21.647 145.71 -1.26971
16.2714 135.716 5.37704
16.8068 144.786 -5.78308
-17.6901 104.378 5.85497
10.116 142.341 -10.5255
2.28538 111.3 20.6872
-20.3973 107.239 -0.993261
-2.47404 108.294 18.9621
19.7424 140.575 3.3328
17.5478 144.725 -4.65116
0.396709 109.702 20.6225
21.6204 142.138 3.66322
4.59814 116.627 16.7126
4.55302 116.606 16.7259
21.3183 145.97 -1.49239
-3.00014 108.265 18.7239
-19.063 105.564 3.25714
20.5791 146.144 -2.43716
-20.3197 106.512 0.688356
0.590472 110.255 20.6938
17.7548 139.196 3.40121
-16.5738 117.134 -8.64066
4.54054 117.682 15.7857
4.59973 118.183 15.2465
-20.3521 112.731 -7.3274
8.77661 125.727 10.4262
15.7266 137.544 3.44562
-17.2713 104.776 7.01146
-3.15258 130.985 -10.301
19.8192 146.326 -2.89388
8.78889 126.309 10.0814
-6.42361 107.657 16.3019
-20.7258 109.36 -2.92174
12.8991 144.73 -8.93219
2.64043 114.848 17.8536
8.11941 141.765 -10.7051
-14.2939 120.828 -10.0075
7.91584 125.279 10.6858
-17.8686 105.575 5.7148
-5.13935 129.138 -9.80277
-18.6281 115.656 -8.2639
3.59866 138.003 -10.9209
3.47258 137.902 -10.9241
3.38277 116.919 16.3655
-18.0406 106.046 5.05497
14.5517 146.021 -8.19906
11.0067 130.247 8.23567
16.9297 139.644 3.14438
4.76014 139.286 -10.8163
16.9896 145.661 -4.48223
16.9644 139.797 3.22348
-18.1817 106.442 4.88754
21.4481 146.445 -0.0483056
14.858 134.439 7.82483
2.17811 137.06 -10.5256
5.92252 140.638 -10.7328
5.87705 140.627 -10.7176
-21.0156 112.755 -6.3644
-8.13705 126.197 -8.53189
14.8283 137.538 4.05298
-1.63734 133.59 -10.3865
-21.4025 112.318 -6.08875
5.37878 122.765 12.2927
19.2084 147.061 -2.78466
-16.7384 118.601 -8.44474
11.7506 145.183 -9.13215
5.89168 123.741 11.8496
-1.03172 111.15 20.0349
10.6777 131.174 7.89196
5.81051 123.729 11.8589
-2.56044 133.005 -10.1902
1.27544 136.122 -9.61313
-10.8227 124.288 -8.55232
-6.85615 128.963 -9.8391
12.3663 133.862 6.66107
-4.78804 109.408 18.1332
-16.2536 105.825 9.17428
-15.4191 120.626 -9.09557
2.82145 118.588 15.2973
-9.23953 125.738 -8.36925
20.2618 143.034 4.1913
-15.1427 106.057 10.2602
8.90684 143.552 -9.99125
18.4085 147.123 -3.3389
-20.3726 114.269 -6.61454
14.508 146.514 -7.08411
-21.9437 112.134 -5.64213
12.6456 134.18 6.78819
18.4556 141.498 4.27112
-19.9432 108.437 1.69263
-14.0539 106.594 11.1466
-16.8021 106.268 8.3307
-6.69878 129.508 -9.81598
1.56205 136.754 -9.38582
-13.716 122.932 -9.54501
21.1191 146.533 1.15207
-2.90642 110.728 19.252
-1.25123 134.432 -9.64551
16.8746 140.963 3.444
-17.6472 107.061 6.56127
-21.6054 111.364 -3.71012
-8.70457 108.972 14.8363
3.05651 138.924 -10.16
-16.1913 106.446 9.54541
-14.1365 122.836 -9.35599
-19.1797 117.421 -8.25189
-13.2699 123.595 -9.18716
5.81174 125.144 11.5045
-5.17901 110.177 18.0361
15.0818 146.698 -5.45537
10.9238 133.452 6.87111
8.74929 129.864 9.13382
-1.15967 112.699 19.8415
18.3402 147.701 -2.57365
10.2023 132.579 7.45599
6.27986 142.341 -9.9195
12.1846 146.691 -8.5509
-20.2687 116.29 -7.52501
-18.6642 110.891 1.479
13.8042 137.412 5.56187
-5.06992 131.198 -8.77407
11.5441 134.927 6.14692
19.0133 147.772 -1.70647
14.3389 147.063 -6.31513
-14.3633 122.971 -9.06119
5.46176 141.681 -9.8453
-10.3769 125.897 -8.11154
-1.82279 134.603 -9.2639
2.76946 121.109 13.7948
0.885621 116.938 17.0065
-9.57468 126.765 -8.1145
20.3338 145.541 3.01429
9.0894 144.915 -9.43757
7.88124 129.005 9.92715
-5.18981 131.414 -8.72465
-12.4085 124.564 -8.3586
7.75362 128.902 10.0489
0.155211 115.776 18.1326
-1.22045 113.381 19.6499
13.7936 138.226 5.13523
5.43543 141.947 -9.60962
-10.9607 125.831 -8.05395
0.092297 115.922 18.0588
13.5511 137.5 5.95519
-21.1605 115.443 -6.59139
10.9441 134.703 6.52247
12.732 135.937 7.12335
16.4455 142.251 3.53406
10.0847 133.604 7.24263
-15.5822 107.784 10.3908
-1.65005 135.236 -8.80504
-14.4416 108.207 11.2514
-20.7367 111.778 -0.887579
-0.493625 115.379 18.5426
-8.00957 110.299 16.2279
4.9538 125.507 11.8849
3.37698 140.401 -9.33789
18.3259 148.231 -1.65854
7.90009 130.157 9.58122
-19.7575 111.966 0.466212
0.681625 118.942 15.7229
-21.5622 112.762 -2.61353
0.0357201 136.944 -8.22181
-2.55587 134.936 -8.59335
-19.8151 112.205 0.512478
16.6253 142.89 3.93399
19.3494 147.193 1.61614
12.529 136.856 6.99498
-17.8333 108.724 7.54654
-21.6619 115.083 -5.25797
18.0973 143.966 4.46073
19.2241 147.15 1.71061
7.42409 129.977 10.0917
-8.48005 129.85 -8.65993
19.1504 147.541 1.26136
3.09073 140.61 -8.81023
-18.2508 108.959 7.11451
16.7741 143.253 4.19695
18.661 144.882 4.33796
-16.6506 108.464 9.79222
-20.5773 117.759 -6.99449
9.51913 146.572 -8.72609
12.5858 137.465 6.80416
-2.89255 113.977 19.0513
-10.7705 110.242 14.6487
-20.401 113.198 -0.646285
14.9703 142.373 3.4217
-9.98791 128.349 -7.89749
-19.2674 109.572 5.60966
-13.2376 125.481 -7.94574
-18.7078 110.89 4.59411
6.35059 143.926 -8.5715
15.1089 142.683 3.46905
-16.4145 122.722 -7.98401
5.407 127.579 11.7122
-15.3951 109.234 10.8868
-18.8965 110.553 5.01804
8.2015 132.483 8.681
-7.75043 131.898 -9.47794
16.5333 143.561 4.24603
16.8389 148.956 -2.35515
-2.62654 114.931 18.854
15.0884 148.763 -4.13755
17.2185 148.987 -1.8328
18.4651 146.735 2.6784
-5.31344 113.426 17.8754
-1.55652 136.659 -7.83206
-21.6725 114.12 -2.36773
-9.12295 130.383 -8.56764
-19.7105 113.468 0.898137
-10.2688 128.812 -7.83581
-5.37842 113.598 17.8464
-4.16747 114.116 18.6215
11.963 138.698 5.81743
7.69524 132.183 9.2451
2.04027 124.314 12.963
13.6763 142.189 3.5412
-18.2735 119.872 -5.3848
17.7195 149.269 -0.764543
7.37017 131.858 9.64881
-18.5458 113.886 2.24319
8.56635 134.275 7.93043
-4.83579 134.206 -7.80944
1.56782 139.813 -7.49213
-20.4957 116.317 -3.10645
-18.6952 111.777 5.00415
-17.3239 122.982 -7.92674
16.729 149.384 -1.81238
-13.8987 110.418 12.5987
-2.35144 116.873 17.9681
4.89738 143.225 -7.7477
16.6064 149.435 -1.8641
2.31071 140.882 -7.72096
6.80223 131.073 10.4123
11.4959 149.259 -7.65099
-18.883 110.988 6.10783
-17.664 122.861 -7.84492
7.33235 132.343 9.56034
9.65095 147.817 -7.83546
-10.1253 112.28 15.0585
2.71107 141.371 -7.56255
3.81265 127.18 12.2583
-17.934 120.543 -4.94346
-5.21098 134.506 -7.91266
-8.29919 113.008 16.4373
-6.8195 113.806 17.1609
-18 110.238 8.55108
-4.55114 134.997 -7.64416
-12 128.154 -7.55722
11.6516 149.365 -6.98272
11.0713 139.806 4.85004
15.1064 149.876 -3.47235
-18.3967 113.091 4.63058
5.13292 143.781 -7.36024
-15.4259 125.654 -8.18965
1.98494 125.362 12.9337
-15.9924 110.48 10.9403
-4.57245 115.249 18.3396
-19.2672 115.436 0.676879
-19.3544 118.812 -3.82495
-18.3234 120.496 -4.7482
-9.47649 131.917 -9.08824
17.2986 148.116 1.66701
7.89021 134.233 8.57545
2.75661 141.71 -7.2292
9.10865 137.088 6.35628
-17.5646 110.409 9.40371
-2.98203 117.247 17.8841
17.2583 148.097 1.81329
-14.1577 111.129 12.6432
9.0878 147.765 -7.44724
5.08951 143.963 -7.21392
13.4128 143.245 3.65174
2.02966 125.792 12.8698
-1.52321 120.43 15.6428
-10.634 130.539 -8.3254
-18.018 115.331 2.79712
-0.513482 123.128 13.5063
-9.41142 132.544 -9.29787
-18.1305 122.806 -6.96024
-7.1872 114.512 16.8899
-2.68437 136.889 -6.88459
-18.5127 113.1 5.34496
-18.0682 118.674 -1.38317
-4.97929 115.687 18.0851
12.2791 142.324 3.92637
-18.0226 119.256 -2.05207
-1.42042 121.427 14.9006
11.4034 149.709 -6.6924
10.5604 140.056 4.89832
12.2932 142.584 3.67692
-13.4016 111.868 13.2331
-19.2035 115.926 1.09678
5.24865 144.641 -7.0229
-2.22359 120.209 15.9581
-10.0312 132.075 -8.77746
-12.3592 128.99 -7.5244
-7.12076 134.638 -8.48161
-17.1897 123.614 -6.04711
-17.9921 114.774 4.56826
-2.41507 120.288 15.9518
3.46438 128.607 12.156
9.27131 148.593 -6.93172
-18.0271 111.412 9.12005
-4.8597 116.62 18.0418
15.8407 150.204 -1.08293
2.0033 127.008 12.7125
-20.8283 116.317 -0.477729
-17.9419 115.8 3.66342
-17.8641 115.333 4.49805
-10.2546 114.203 15.0304
-12.9861 128.889 -7.27377
11.6166 150.059 -5.51035
-17.8657 123.164 -5.48297
-13.9826 112.441 13.1148
-13.2017 128.965 -7.4288
-2.94035 137.979 -6.94149
-18.3147 123.441 -6.20811
-17.8645 115.618 4.55398
-18.1952 112.24 8.58501
-18.2724 121.112 -3.0541
16.0445 148.99 1.46033
-3.23737 138.101 -7.12009
3.04893 129.057 12.2068
-18.9255 122.632 -5.55115
10.3992 141.735 4.47912
1.68615 127.488 12.6978
-18.2887 120.783 -2.32536
-5.78771 116.886 17.6592
-19.5996 121.161 -4.34203
-14.7577 127.651 -7.02987
-19.551 121.147 -4.23606
-3.57417 120.299 15.9245
-4.89145 117.898 17.4905
-11.5444 132.183 -9.03963
0.827516 126.634 12.944
-19.4371 121.072 -3.85571
15.1282 150.486 -1.03899
4.1258 144.623 -6.47118
7.98349 148.365 -6.73638
-13.3714 113.337 13.5263
-17.2396 112.317 10.3076
-18.4882 120.905 -2.35699
-14.2631 128.588 -7.29004
-13.8664 130.032 -8.69947
8.98434 149.414 -6.74193
16.0517 148.32 3.10787
-10.5692 133.504 -9.24904
3.08692 129.584 12.118
13.8675 150.804 -2.70219
9.87777 141.73 4.49384
11.394 150.667 -5.29314
-19.6587 119.663 -1.79101
-4.48187 119.137 16.9874
-16.796 112.605 10.8588
-20.0632 120.25 -2.97801
15.1096 150.519 -0.564017
13.0384 151.048 -3.704
-14.5944 127.875 -6.33434
-19.9691 120.565 -3.1986
-20.0537 120.235 -2.85987
-14.1111 130.106 -8.61808
-19.5381 116.711 2.41846
-17.9513 124.683 -6.06737
7.03699 135.678 9.39907
-19.7063 120.615 -2.7133
-9.7515 134.821 -9.37376
-17.9447 116.044 5.40186
-19.5361 120.267 -1.98896
-19.8038 120.657 -2.78401
-15.1285 113.65 11.9243
-19.5104 119.788 -1.11054
-20.2735 119.797 -2.00736
-18.2881 121.77 -2.10977
2.88626 130.333 11.9449
-5.59654 137.884 -7.96752
-14.173 129.638 -7.38623
-17.5417 114.069 8.90312
-6.95845 137.059 -8.45928
-6.01111 118.253 17.1818
-1.70906 125.196 13.2554
11.2681 144.265 3.90029
-17.5826 114.802 7.97884
0.498093 127.568 12.8746
9.67277 142.296 4.59965
13.9963 150.945 -1.46829
15.0649 149.253 2.01001
-11.592 115.332 14.5436
-3.2397 123.556 13.81
-1.08083 125.991 13.2083
-19.806 117.149 2.47302
-6.42303 137.531 -8.14875
-15.086 128.506 -6.62251
14.7037 147.083 4.66552
7.25116 137.083 8.86614
-21.0039 117.782 0.487819
-6.70352 118.124 17.0773
-21.2013 117.364 0.826341
5.68178 134.457 10.5399
12.2564 145.553 3.90253
2.13207 130.051 12.0717
-19.6273 121.36 -2.46161
-8.57311 117.166 16.1566
-18.8873 122.989 -3.68649
-15.3327 128.326 -6.37034
-21.2332 118.959 -1.17824
-14.8172 114.622 12.1529
5.01444 133.485 11.2115
-4.41001 122.51 14.3205
9.22948 150.931 -6.46183
-20.4953 118.541 0.387254
-11.7581 115.668 14.5376
-18.6573 124.489 -5.15594
-15.8693 127.736 -5.98676
-21.2058 117.821 0.598645
-18.389 119.475 1.89536
-13.2897 131.836 -8.14023
10.6887 151.534 -5.28073
-19.6131 119.098 0.967294
-17.8153 117.02 5.8152
-19.5369 121.578 -2.16015
8.59739 140.699 6.40594
8.13081 140.203 6.60215
-20.0461 117.514 2.65503
-19.6136 120.178 -0.279896
-18.9038 123.616 -3.77305
-18.9881 120.182 0.661651
-21.271 119.631 -1.27991
-13.2647 115.354 13.8351
-19.6168 117.909 2.97838
-19.4483 122.876 -3.29057
4.82171 147.224 -6.14635
-19.1228 124.356 -4.8269
-19.514 119.915 0.49915
-13.0742 132.493 -8.21468
-19.2028 120.284 0.500566
5.82039 135.899 9.93542
11.8967 146.046 3.9521
-4.2458 139.898 -7.23672
-18.6662 122.559 -1.79135
5.86662 135.998 9.90794
-15.4537 129.264 -6.63447
-21.6587 117.928 0.760434
-20.2661 121.203 -1.82649
4.68946 133.946 11.2724
-18.5439 119.748 2.17183
-20.7584 120.334 -1.17869
-17.8254 116.181 7.78942
-11.567 116.557 14.7572
-10.6786 117.022 15.2158
-18.9415 123.865 -3.48767
-4.56004 123.432 14.1968
-12.7709 115.999 14.1466
-19.7472 123.543 -3.95244
13.585 151.357 -0.544056
-18.9671 124.222 -3.86551
14.1562 148.58 3.87208
-13.3962 132.471 -7.90567
-17.4841 121.298 1.79644
14.1097 150.003 1.99541
12.344 151.621 -2.19144
-19.4435 120.027 1.22439
-19.4539 121.771 -1.0418
-21.2427 118.441 1.17016
-13.8606 131.901 -7.54769
-18.2545 117.361 6.29226
-19.2166 122.138 -1.06077
-0.448422 142.71 -5.5016
-20.0733 123.179 -3.35903
-20.0805 123.135 -3.30862
-18.6326 124.421 -3.25757
-0.139073 143.05 -5.48218
-19.6206 121.381 -0.329177
-19.5829 122.077 -1.14298
-16.063 129.257 -6.3082
13.4513 151.513 -0.149016
-1.88762 127.199 13.307
-18.0184 116.485 8.102
-13.5054 116.36 13.6402
-12.6009 133.698 -7.87008
-20.5074 122.085 -2.14001
-15.1723 130.153 -6.27471
-19.8176 122.423 -1.72599
13.7747 149.944 2.379
11.0615 146.22 4.01799
-18.5704 124.727 -3.20066
-19.1099 120.592 1.55162
-8.89871 118.781 16.0768
12.7645 147.57 4.34388
8.42186 142.224 6.15619
-13.6286 116.416 13.5563
-18.8879 119.561 3.20528
13.0856 151.617 -0.510687
-12.5859 133.772 -7.76016
-8.65393 137.691 -8.13277
-19.9574 122.759 -2.10428
-11.5351 135.377 -8.43441
-17.9324 121.47 2.17465
-7.56118 138.6 -7.7646
-6.38671 139.461 -7.39804
-18.8989 119.919 3.26066
-20.5902 122.711 -2.37065
9.02125 152.085 -5.40315
-1.59697 128.165 13.1646
-21.0353 119.15 1.79069
10.2904 152.177 -3.96512
-1.59765 142.596 -5.58072
-17.4997 116.372 9.70128
-19.1405 125.873 -4.61076
-18.4363 125.396 -3.14972
-18.53 120.865 2.66826
-18.4252 120.84 2.87342
11.375 147.146 4.12795
-11.2009 118.642 14.4295
12.1032 147.69 4.30083
-7.91034 120.352 16.1605
-20.9252 124.316 -4.47318
-19.2045 118.343 5.41715
-4.0828 125.977 13.6013
-21.6004 121.304 -1.1065
-15.8336 130.487 -6.16848
4.10244 135.621 10.8942
-11.0126 119.106 14.4463
-18.6354 121.366 2.4833
10.1383 152.302 -3.59887
8.51867 144.025 5.26281
12.9427 151.756 0.540095
-21.5168 120.963 -0.325248
-23.3471 117.231 2.37688
-19.5932 125.653 -4.07146
-20.359 125.362 -4.59621
12.9325 149.3 3.83749
8.63146 152.275 -5.14235
-18.3497 121.367 3.04194
-18.5517 125.704 -2.82783
-18.0539 118.226 7.53971
-12.6093 118.475 13.6971
2.30218 146.759 -5.35133
-8.41315 120.742 15.8171
-18.5645 121.346 2.99016
-0.0788144 144.506 -5.1697
-22.0043 123.946 -4.42025
-16.4589 129.729 -5.35472
-4.91962 125.508 13.8862
-14.1588 132.058 -5.63934
-7.73465 122.199 14.8666
-13.9063 132.723 -6.17926
-21.6579 124.302 -4.41984
-23.6605 117.508 2.09267
10.2009 146.857 4.1703
-13.7176 118.21 13.0731
4.12421 136.431 10.5628
-4.90247 125.732 13.8459
-17.8848 121.749 3.63178
9.31534 152.491 -4.04458
-3.09154 127.876 13.4318
12.5868 151.5 1.32487
-12.5728 134.959 -7.03962
-18.7123 121.669 3.02819
-20.3784 120.429 2.66534
-7.16953 139.651 -6.61491
-14.3703 118.437 12.5086
-18.1504 120.873 4.85148
-18.1296 128.146 -4.59271
6.69832 141.773 7.1913
-10.2221 120.314 15.08
-13.6284 118.857 12.955
-7.84854 122.924 14.5374
2.00087 134.404 11.3165
8.05754 144.33 5.58918
10.2797 152.517 -2.43297
1.72831 134.18 11.2978
-18.2509 118.426 8.06403
-18.1222 122.458 2.966
-22.5573 118.89 2.40239
5.29043 139.319 8.94258
-5.48924 141.114 -6.1728
9.84373 152.6 -2.84507
-24.5212 116.372 3.52356
5.52511 140.227 8.23083
12.3249 150.693 2.68754
-21.1821 125.288 -3.88415
-18.3628 122.299 3.40154
9.68634 152.704 -2.82479
-22.6126 124.058 -3.88622
-18.3618 118.99 7.82224
4.02994 137.463 10.3942
-13.5158 133.905 -5.80401
-1.25462 144.544 -5.07037
-14.2809 132.66 -5.04382
-18.8317 120.308 5.7352
-6.68659 124.906 14.2663
-0.292845 145.466 -4.90704
-10.2902 137.956 -7.01246
-6.94201 140.311 -6.09327
-18.8815 127.173 -3.16872
-8.47472 122.967 14.7129
-8.0864 123.69 14.2573
4.26533 150.061 -5.2969
-18.2344 128.011 -3.2959
6.32869 142.54 7.01497
-21.6571 120.322 2.69217
-18.4607 118.163 9.34855
-21.2979 125.504 -3.52406
-9.45407 138.763 -6.69075
9.20948 147.418 4.25981
-22.4597 122.639 -1.09105
-19.029 122.509 3.18512
-18.192 122.749 3.96377
5.43009 151.392 -5.17773
-4.24932 136.144 3.17865
-10.2092 121.759 14.8486
-6.14453 126.038 14.1099
-22.4935 121.485 0.618234
-18.8349 119.483 7.58345
-21.1386 125.795 -3.38268
-18.9751 122.901 3.00282
-14.3524 120.341 11.8721
-3.53918 136.58 3.64755
6.06505 151.918 -4.89151
5.01347 151.233 -5.20965
4.96377 140.707 8.45866
-12.3305 136.807 -7.02732
-16.4972 131.581 -5.15358
-13.0094 120.758 13.1398
-19.2691 122.463 3.47873
-23.0184 124.878 -4.0925
-3.20546 129.773 13.2162
-3.67372 129.329 13.2539
-4.84787 128.086 13.5202
-3.12737 137.07 3.86498
-3.1333 138.003 2.66419
-15.5721 132.442 -4.87747
1.50093 135.771 11.2925
-11.865 121.637 13.8283
-20.2236 122.419 2.94003
-15.7605 119.961 11.4552
-20.2879 127.127 -3.25972
-18.6481 127.96 -2.38097
7.84287 146.341 5.21671
-18.5853 128.045 -2.36827
-15.1741 132.854 -4.50496
-11.1264 122.178 14.2445
7.41489 152.833 -3.63514
-19.0305 123.005 3.80101
-21.4363 121.649 2.72266
-18.9758 127.868 -2.43655
11.2052 151.245 3.03538
-18.2715 122.301 5.6957
-1.08282 133.14 12.0582
-3.04065 135.431 6.78916
-1.38616 135.617 8.54328
1.51812 137.062 10.116
-22.9633 122.23 0.328709
-1.68272 140.485 1.89311
-22.1192 121.14 2.79833
-6.42335 141.666 -5.27083
-11.2926 122.402 14.0435
-2.26976 139.86 2.03245
-23.3254 123.488 -1.65229
-17.6178 119.282 10.626
0.873867 135.67 11.3585
-20.9445 127.293 -3.62496
6.17032 152.34 -4.00484
-1.42766 136.09 8.17366
-1.94659 134.536 9.58287
-2.41925 134.286 9.42348
-11.7741 122.538 13.6202
-2.24842 145.513 -4.98932
9.69208 149.215 4.40613
-7.36077 126.358 13.964
-18.7917 124.486 2.80686
-15.9198 125.78 4.54912
-23.9092 125.338 -4.37811
-2.51215 137.114 5.75802
4.44846 141.299 8.62364
-2.24275 136.462 6.96972
-3.293 139.043 2.37864
-0.788265 137.03 8.03492
5.73381 152.217 -3.99163
-0.346557 140.736 3.7552
5.09382 142.966 7.33592
-4.0728 138.262 2.56355
-18.8223 123.488 4.29518
-3.59351 138.826 2.42731
-18.4183 128.814 -2.15704
-1.67675 133.325 11.911
-0.781812 134.311 11.7272
-11.9258 122.91 13.3845
-2.78592 134.026 9.77178
9.96459 153.489 -0.416365
-16.8721 131.964 -4.28731
6.92481 145.675 6.16546
-4.56371 130.041 12.9104
-6.79951 127.433 13.6586
-1.61512 137.388 6.8759
-1.42683 137.281 7.30277
8.23994 148.143 4.71077
-2.8238 145.533 -5.03142
-15.3478 126.933 4.32613
-1.51219 138.294 5.98627
-8.70955 133.226 4.03301
-0.907279 137.653 7.57375
-0.812125 142.211 1.7932
1.64076 139.663 8.03881
-18.0486 130.485 -3.38779
-16.458 127.295 2.72135
-13.0117 123.168 12.2508
-1.0954 142.272 1.54518
3.03733 140.353 8.99413
-18.1695 129.734 -2.37316
-11.8142 123.766 12.9775
-18.0598 125.433 3.38487
-9.41893 132.18 4.873
0.428698 141.66 4.27351
7.69267 153.319 -2.26411
-10.749 124.125 13.8829
-1.99825 146.376 -4.64791
-15.4185 127.433 4.08182
-16.3726 121.165 11.1486
-7.10754 127.929 13.375
-9.86976 131.971 4.86205
0.164254 148.328 -4.50611
-8.24274 132.391 6.31579
-3.70167 131.933 12.3477
-2.47158 133.532 11.727
-16.5855 132.634 -3.83759
-17.5847 126.714 2.69358
-11.6928 124.45 12.6661
-8.31538 126.698 13.7576
-10.1332 131.557 5.29812
-10.0251 132.375 4.3696
0.685111 140.385 6.70633
-11.0465 124.662 13.26
-19.7221 123.529 4.42396
-23.6623 120.649 3.52977
-19.5215 123.488 4.7632
0.109201 140.36 6.14219
2.05664 143.694 4.14387
-4.37849 133.168 10.2152
-4.09093 144.995 -4.82809
-3.31128 133.529 11.0716
-3.62961 140.347 1.83589
-9.56465 125.659 13.929
-10.2243 132.214 4.60063
-18.6116 125.744 3.09338
-5.27666 132.877 9.66827
-8.40722 141.398 -5.16142
-19.5496 121.468 7.57144
-11.8813 138.88 -5.95701
-24.45 125.965 -4.06774
0.924312 149.475 -4.51389
-4.95506 144.308 -4.7754
-5.20342 132.888 9.82987
-7.30631 131.992 8.50057
-9.52142 133.439 4.03514
2.03926 141.948 6.71877
-18.7953 124.129 5.15695
-3.37044 133.446 11.3869
-13.7616 127.883 6.28878
-17.6519 130.707 -1.97704
-18.0615 121.766 9.19925
-12.8535 138.32 -6.13375
-16.24 124.944 7.3057
-14.8359 128.418 4.4594
-4.85725 131.75 12.0178
-13.5894 129.07 5.1388
-14.7629 123.311 11.2948
-17.6132 130.892 -1.94821
-14.7009 129.007 3.98189
-7.12792 131.938 9.19524
-18.9427 124.26 5.1497
-17.5048 132.13 -3.36498
-11.2309 130.649 6.05998
-13.3167 129.801 4.6867
-5.51575 131.628 11.6601
-5.38569 132.069 11.2478
3.61748 145.291 4.74393
-18.4215 126.014 3.66837
5.93163 146.38 6.14069
-5.61928 131.435 11.8815
-15.8012 128.572 3.53202
-5.76547 132.15 10.8429
-11.2973 129.796 7.37945
-15.7456 134.098 -3.4799
-19.5152 122.148 7.62383
6.96872 148.015 5.43467
-15.8118 125.811 7.27592
4.01256 143.303 8.08404
-4.03398 141.058 1.4931
-12.8076 125.183 11.7485
-12.0504 125.625 12.1529
-6.2065 131.07 12.1305
-18.3105 125.812 4.58422
-18.0888 125.993 4.67982
-7.29336 136.519 3.81882
9.55037 151.618 4.19885
2.41231 143.869 5.81633
-22.1465 122.46 4.53202
-11.9985 129.249 7.78221
-1.30548 148.163 -4.10769
-7.89101 135.884 4.11981
-10.2932 132 6.32813
-10.7509 126.685 12.7325
-19.6138 125.088 4.27861
-15.2015 135.691 -4.25908
-10.4662 131.251 7.20156
-1.58838 147.999 -4.05152
-7.32695 143.782 -5.33734
-10.6548 133.312 4.39865
-19.414 125.55 4.09944
-10.3587 133.701 4.27669
-14.4965 136.883 -4.78056
-16.4268 133.752 -2.99242
-16.8805 133.401 -2.93121
-23.504 121.909 4.25432
-9.36182 128.133 12.9726
3.24807 144.665 6.44771
-26.1664 118.999 4.95071
-11.2475 126.828 12.5138
9.0999 154.568 0.579203
-23.3901 122.007 4.40404
-12.8849 125.97 11.7592
-10.4871 130.819 8.29835
-14.605 130.006 4.49904
-23.0969 129.288 -4.6658
-7.99979 129.988 12.3983
-18.9196 124.858 6.10389
-19.1707 124.775 5.97084
-20.7009 124.716 4.23809
-26.2186 124.874 -2.51817
-14.1837 127.534 8.33995
-8.31837 129.651 12.5676
-17.3495 133.046 -2.47442
5.21825 147.176 6.04649
-18.3422 126.508 4.97284
-7.67541 137.337 3.56605
-19.1056 123.504 8.03361
-18.0276 123.494 9.33778
-21.4288 124.125 4.51208
4.05035 146.329 5.8923
-18.3921 132.872 -3.24881
-13.6995 127.643 9.15902
-11.8235 127.033 12.277
-19.4319 124.353 6.74208
2.08343 152.108 -3.75873
7.31575 154.435 -0.534217
-6.52766 145.176 -4.89025
9.41374 154.02 2.5537
-9.92392 130.976 9.71105
-11.6326 128.174 11.3686
-3.80908 147.202 -4.03382
-16.3336 129.343 4.36839
8.56191 152.081 4.40328
-23.7554 122.061 5.08171
-10.1062 129.443 11.7094
-6.05482 139.485 3.46566
5.99686 148.828 5.65434
-17.8568 124.515 8.97697
-16.113 125.898 9.27848
7.4776 150.998 4.76107
-15.2496 137.108 -4.17404
-12.2554 128.121 11.1127
-19.8869 132.583 -3.75031
-25.9792 120.804 4.434
-11.0216 134.302 4.6892
-5.07893 142.065 1.73141
5.79932 154.528 -1.47488
-14.8204 127.411 9.35273
-28.4012 120.789 1.87716
-2.64159 148.686 -3.78409
4.46242 147.811 5.82328
-25.2003 127.8 -3.36145
1.78797 152.55 -3.44578
9.1484 154.022 3.39789
-25.8548 119.773 6.45552
-11.0195 141.84 -4.60376
3.72819 153.798 -2.61283
-9.14174 144.071 -5.23024
5.11363 149.092 5.43079
-14.1102 139.762 -5.14965
-28.925 120.867 1.85029
-15.3667 130.925 4.90639
8.066 152.681 4.45133
-6.64159 140.069 3.42388
-8.57103 138.467 3.26102
-10.5595 136.017 4.24986
-23.8112 122.421 6.29765
-16.5662 136.973 -3.82737
-6.99684 140.113 3.50587
-17.4514 134.817 -2.02906
8.78353 154.5 3.65832
8.3811 154.798 2.90416
-8.4267 139.12 3.38243
-23.6485 130.226 -3.1283
6.13349 155.32 -0.302463
-16.6644 130.229 5.27692
-20.2561 125.973 6.55186
8.6262 154.376 3.92156
-11.8052 134.597 5.39291
5.52779 155.422 -1.11186
-10.2464 137.115 4.10877
-28.8641 122.908 0.486447
-15.9214 130.971 5.3992
-22.9008 131.391 -3.33803
-27.2969 124.883 -0.0785723
-19.8256 134.626 -3.82289
-21.1823 125.516 6.53948
-10.7835 136.746 4.41755
-28.0358 121.828 3.56161
-27.5358 120.45 6.00188
-9.13471 146.081 -5.33125
-20.0211 134.881 -3.63215
-20.3433 126.611 6.77011
-26.9161 127.276 -1.80509
-15.8784 138.537 -3.24805
-27.9266 125.267 -0.210486
-28.0352 125.999 -1.24823
-27.2469 121.095 6.14327
-12.5858 134.912 5.66875
-15.2157 132.415 5.93332
-28.1805 125.932 -1.04205
-6.4333 142.876 3.08023
-3.27871 150.587 -3.19985
-16.7901 137.543 -2.15224
-18.4066 129.282 6.82955
-2.86612 151.199 -3.10725
-26.4645 122.278 6.71804
-7.24394 142.2 3.74353
-10.7563 145.735 -5.01656
-3.61526 150.771 -3.07891
-17.5727 130.727 6.46491
-8.50825 147.854 -4.95564
-18.0566 130.073 6.95936
-27.2338 121.732 7.09641
-7.77477 141.95 3.9367
-21.6757 135.248 -3.85424
-27.3584 127.883 -0.993273
-25.1044 130.494 -1.60635
-25.83 123.419 6.88742
-26.8788 122.275 7.26187
-25.5147 130.083 -1.21973
-29.9151 121.952 4.37707
-24.1204 125.71 6.37354
-15.5623 133.344 6.73611
-23.9177 126.01 6.37433
-3.42965 151.816 -2.87922
-15.9455 133.022 6.72545
-29.0565 121.997 5.52086
-1.26722 153.511 -2.46649
-19.256 129.823 7.11056
-9.12104 141.39 4.10522
-28.2763 122.182 6.3662
-7.02637 144.129 3.10119
-25.369 130.814 -1.2322
-9.62293 148.058 -4.96041
-15.4701 141.616 -3.5166
-7.34348 143.615 3.56942
-23.2034 134.056 -2.83858
-28.3271 127.519 -0.352637
-23.1727 134.314 -2.83817
-14.4692 134.926 6.73762
-25.1106 131.429 -1.35795
-19.9881 129.604 7.14581
-4.98183 151.184 -3.11001
-19.5203 137.692 -2.70346
-30.0103 122.253 5.01289
-9.34932 141.873 4.07972
-21.4531 136.344 -2.98137
-11.6044 146.539 -4.47278
-28.9717 122.696 6.03398
-27.1725 129.118 -0.100483
-28.957 122.433 6.53407
-11.1791 140.586 4.16044
-3.49798 152.823 -2.63586
-1.49719 154.245 -2.07717
-15.3506 142.505 -3.22718
-21.4848 136.558 -2.76777
-19.2082 131.385 6.84779
-30.4122 122.048 5.74363
-30.1906 122.272 5.82646
-12.0882 146.456 -4.09247
-18.4375 132.37 6.71635
-15.6607 134.897 6.73489
-19.5599 131.267 6.86902
-16.2189 140.943 -1.62708
-29.6911 125.661 2.37717
-25.662 126.455 6.20143
-13.5695 137.21 6.6026
-28.9211 122.82 7.14558
-27.1299 129.63 0.419554
-4.13133 152.912 -2.55399
-18.9131 132.438 6.6437
-21.9691 129.888 6.51089
-18.9515 132.629 6.61708
-22.3914 129.813 6.3265
-10.5404 148.814 -4.2398
-17.7873 140.272 -1.66215
-23.332 129.432 5.89789
-28.8899 125.145 4.94691
-28.7246 128.134 1.44243
-28.9276 125.474 4.71391
-29.412 126.324 3.03475
-21.0385 131.371 6.47872
-6.81031 151.884 -3.23475
-29.0327 127.513 2.14237
-23.9762 135.017 -1.61778
-11.5513 148.063 -3.70749
-16.8569 141.39 -1.22712
-11.4396 141.933 4.60706
-10.5068 143.253 4.07184
-28.6075 125.999 5.16901
-24.1368 134.677 -0.790641
-11.9241 147.879 -3.43131
-13.003 139.986 5.59185
-5.4474 152.964 -2.32379
-20.1511 132.799 6.46868
-15.8993 136.414 6.85321
-28.9867 126.779 3.9494
-22.411 137.228 -1.70967
-16.6519 135.8 7.02548
-22.1157 131.53 6.25488
-27.3339 130.723 1.38964
-24.2188 135.168 -0.483764
-27.4624 130.709 1.70432
-8.94585 146.33 3.5343
-12.8494 147.727 -2.70176
-8.17714 152.012 -2.4811
-10.8199 144.455 4.34548
-6.23701 153.323 -1.56979
-7.3111 152.708 -1.85981
-11.2032 144.317 4.47352
-25.1117 131.301 5.02475
-16.1776 143.937 -0.796515
-20.1856 134.587 6.65002
-8.68728 151.967 -2.28983
-14.5748 146.265 -1.84152
-26.3442 132.367 2.30739
-28.0134 129.816 3.79079
-14.844 139.303 7.13404
-13.5735 147.681 -2.21859
-12.3797 143.134 5.24398
-15.0215 145.796 -1.26237
-27.0895 131.77 2.7648
-27.2829 130.907 3.98933
-27.0753 130.422 4.89102
-15.8391 138.984 7.16528
-24.7859 132.597 4.92143
-16.0294 138.96 7.17713
-5.82417 154.375 -0.700397
-11.0685 145.621 4.47412
-17.1782 144.138 -0.720059
-16.27 144.902 -0.599759
-25.4836 133.652 3.19154
-22.4151 134.168 6.31563
-26.9062 131.636 4.34156
-24.4684 135.182 2.63692
-16.1951 145.191 -0.5434
-6.61195 154.037 -0.578562
-8.50646 152.73 -1.11909
-25.2224 134.158 3.42192
-15.3583 146.419 -0.631481
-19.6807 142.425 -0.394697
-16.6705 145.284 -0.4299
-19.7282 142.53 -0.285957
-9.89789 149.041 2.95938
-25.4748 133.36 4.87608
-7.72817 153.658 -0.460757
-12.8109 149.937 -1.62579
-12.3125 150.424 -1.38384
-8.13148 152.161 1.35175
-26.0992 133.206 4.73387
-23.9752 134.464 5.70264
-22.3592 139.555 1.12245
-21.3162 136.215 6.90749
-18.9788 143.873 -0.186471
-23.5424 137.804 2.41545
-9.27993 152.858 -0.0701935
-13.5829 149.646 -0.8485
-13.1503 150.006 -0.793249
-12.0518 146.925 4.55342
-19.3776 138.258 7.18355
-10.1847 152.355 -0.206862
-21.8674 136.426 6.74585
-19.0693 144.195 0.230661
-10.3352 150.608 2.33075
-11.1179 151.452 0.404409
-15.6659 148.059 -0.451408
-18.9536 144.457 0.405486
-21.9591 140.518 2.08345
-10.6395 151.115 1.75215
-24.4528 135.806 5.31282
-13.8693 145.072 6.05065
-13.2725 149.922 0.535369
-18.1176 145.612 0.39076
-20.5071 138.56 6.78433
-17.9915 145.827 0.391498
-15.8861 148.005 0.123059
