ply
format ascii 1.0
comment Created by Open3D
element vertex 1556
property double x
property double y
property double z
end_header
-1.70397 124.874 -11.784
-8.3283 89.2091 14.2203
-2.69303 94.187 19.0614
5.93171 107.705 20.2059
-15.9849 92.4342 -3.04355
2.52968 100.422 21.688
11.9221 145.193 -9.04465
19.0066 147.765 0.981021
-15.4082 91.0595 -0.733653
-12.1856 107.619 -12.574
19.1445 147.517 1.41457
-15.9001 99.6298 -10.7799
19.2803 146.428 2.53999
-18.172 92.3421 -7.40368
14.9953 136.997 4.79025
9.92395 116.97 16.9288
-9.99594 87.6057 12.2747
11.9213 144.814 -9.14374
1.87477 99.0446 21.4556
-9.69672 87.7132 12.6427
11.8992 124.268 12.636
11.7612 123.444 13.1875
0.345864 128.736 -13.0195
-16.6073 91.0485 -3.52069
6.18709 107.425 20.0829
19.2723 147.781 0.687345
-12.4443 106.56 -12.6113
3.9673 101.781 22.0413
-13.6818 85.6182 7.39665
-15.3945 92.3587 -2.90669
-10.3916 86.8965 11.9045
15.5086 146.762 -5.19769
13.4912 130.949 7.96604
12.2954 126.055 11.016
-14.2633 88.6723 2.92673
-13.4429 87.0083 6.09142
13.7248 131.348 7.82899
10.9469 119.672 15.2216
-15.8759 91.5116 -3.22471
12.2381 123.944 12.912
10.2329 116.856 16.8159
11.1908 143.63 -10.0489
-17.5089 93.1678 -8.07205
15.2786 146.159 -5.45205
-1.91511 93.4767 19.5453
12.6041 124.915 12.2404
8.61062 112.347 18.3689
8.99954 139.551 -9.88603
-17.382 90.2649 -5.00512
11.3443 120.156 14.8838
-12.2619 85.7464 8.92588
-4.03819 90.992 18.128
-6.1987 89.0821 16.2263
-1.36005 93.8048 19.8967
-13.1449 86.2666 6.61578
14.9221 146.156 -6.60714
-17.013 93.4622 -8.08677
12.6616 144.53 -9.0342
17.4287 140.555 3.66949
-11.5677 106.811 -12.6649
-12.4178 105.349 -12.6503
5.70076 104.131 21.2605
-4.69772 118.24 -12.4963
12.9516 124.523 12.5913
15.7727 135.166 6.34718
15.7347 136.674 4.66176
13.6071 128.468 9.51187
-14.678 100.72 -11.9947
-17.3304 95.9458 -11.7031
-13.9493 103.171 -13.3577
-12.9974 86.0848 6.52496
14.1692 129.404 9.29088
-15.4562 90.9545 -3.24178
4.66964 101.277 21.9906
15.8218 145.727 -5.2272
14.4395 129.768 9.24635
-11.9631 105.677 -12.6958
0.798632 127.896 -13.3661
-11.1346 85.1506 10.6184
8.64576 110.961 18.7658
4.63777 132.118 -10.9906
-1.14572 124.048 -12.8908
3.81072 99.5826 22.0524
19.9153 147.737 -0.211423
-8.56033 86.3974 13.586
-4.32019 89.5638 17.8086
9.89352 139.811 -10.0544
2.67204 97.7393 21.6803
-17.5029 89.6914 -6.12506
-7.26315 113.84 -13.3878
20.524 146.272 2.13848
11.4683 117.797 15.9256
-9.3526 85.6859 12.5611
-16.5421 97.2751 -12.8161
-2.98295 120.26 -12.9238
6.31131 134.716 -11.6073
0.780728 127.209 -13.6081
-16.2609 95.3909 -10.4785
15.7666 132.178 8.03794
4.7115 100.32 21.9875
14.7971 128.776 9.87408
-8.07456 111.857 -13.3368
-0.939601 123.765 -13.1709
14.9823 129.07 9.82729
11.2794 141.821 -10.4497
-3.42211 89.6926 18.4388
-4.44675 88.7117 17.6352
2.63 96.9207 21.6238
9.1095 137.931 -10.4034
-12.1281 104.441 -13.0532
3.84295 98.4123 22.0395
2.40799 128.503 -12.6613
20.8673 146.566 1.33575
1.09933 127.144 -13.6257
19.9361 142.505 3.94016
-15.9197 92.15 -7.10311
10.6181 139.979 -10.2054
-13.245 90.1354 -0.191975
-12.5417 87.0832 4.30505
-15.6379 89.4175 -3.78264
-12.2661 86.7249 4.97785
8.83144 137.126 -10.6505
-5.65658 87.1529 16.391
14.2414 124.408 12.5443
-15.0192 98.7448 -12.8866
-3.04294 119.115 -13.0167
12.2368 118.171 15.4968
-15.1245 89.6647 -3.49002
19.0857 140.703 3.6997
11.7521 141.548 -10.4391
1.46987 127.058 -13.5518
13.9109 122.722 13.4725
-8.14239 85.3951 13.4414
-15.3519 93.9701 -8.68826
17.6252 145.754 -4.38539
21.0124 146.828 0.494023
-14.8266 98.8639 -13.0793
16.3296 135.855 3.6712
13.2481 120.553 14.3988
-3.25512 88.7709 18.4619
21.1255 145.223 2.29508
2.03413 127.496 -13.2734
6.96168 104.695 19.8643
-12.5344 87.9395 2.53927
-12.4651 87.8269 2.72096
10.3357 112.143 17.9162
16.4973 131.106 8.80004
-8.57433 109.365 -13.2657
-0.871116 91.313 19.8109
20.4257 142.392 3.82255
-1.45241 90.5909 19.4659
10.5811 112.545 17.7721
-7.7219 110.843 -13.3956
-2.22734 120.29 -13.5752
2.95979 95.9357 21.6694
-9.45932 84.1953 11.7713
-6.88116 112.23 -13.4458
9.93657 137.566 -10.1504
-9.9579 106.754 -13.2496
-3.73671 117.398 -13.4424
-11.0773 83.2531 9.6424
-0.0243593 91.8796 20.3072
16.9731 135.331 4.58965
17.0464 131.824 8.36092
16.9205 133.312 6.52427
14.1478 143.649 -9.50808
19.9476 141.274 3.27787
-14.8519 94.3395 -9.52839
18.7785 138.918 3.62419
-15.6636 96.4862 -13.2792
2.02183 126.671 -13.5842
-12.3503 88.7951 0.794422
16.6994 144.345 -6.03243
17.6201 144.653 -4.74655
10.7633 111.761 17.8751
21.0189 146.756 -0.894951
15.8163 125.829 11.9629
16.9659 136.105 3.08472
-15.1832 92.594 -8.56669
-14.8429 91.179 -6.72994
-1.145 89.7203 19.4934
6.49596 131.737 -11.4829
-13.512 89.778 -2.92551
-15.8051 95.3617 -13.0323
5.70519 98.9812 21.789
9.53557 108.44 18.5742
2.15478 93.3476 21.3282
14.1046 120.412 14.0479
17.3143 134.695 4.57624
-13.2967 100.583 -14.3185
-12.1871 82.2211 7.04039
-6.60226 111.052 -13.59
-9.73054 106.053 -13.9375
1.66024 92.3203 21.1612
5.07573 97.1962 22.1072
-0.610547 89.7392 19.7478
2.88885 93.8551 21.5478
-3.75452 116.163 -14.1685
-11.7224 84.0116 5.58388
-5.82811 112.261 -13.8583
-6.21305 111.447 -13.7158
-12.8801 100.844 -14.4518
15.4795 143.585 -8.91864
22.1842 145.939 0.63478
11.893 137.795 -9.27775
13.5785 141.064 -9.72864
21.878 143.043 3.09588
10.6983 110.034 18.0684
-2.2918 117.79 -13.6867
19.2728 145.665 -4.51055
-5.46536 84.6488 15.8027
15.1141 143.164 -9.3899
0.16391 122.535 -14.3904
4.49093 127.566 -11.9582
3.38969 126.756 -13.1212
6.38786 99.0726 21.7032
18.9494 145.112 -4.66969
5.75589 128.272 -10.5644
4.59009 127.493 -11.9118
10.4037 109.077 18.16
15.9447 142.272 -7.19442
16.1937 124.556 12.0693
-3.39376 116.09 -14.2213
-3.66218 86.147 17.1568
-13.2454 88.9133 -3.06054
1.61939 91.4273 21.0327
-7.09077 109.478 -13.9058
0.482186 122.727 -14.4353
6.18653 129.098 -10.9843
-14.5534 91.8403 -8.71536
-11.0667 87.6948 1.96994
-12.0514 82.2667 5.96638
11.5659 111.794 17.0456
0.976397 123.286 -14.2697
17.4326 131.122 7.03663
-5.6513 111.659 -14.0063
-14.9596 93.4459 -11.482
-4.63666 84.8506 16.2519
-4.85147 112.949 -14.111
-3.96264 85.3981 16.7603
-11.0166 84.492 4.93438
-10.9453 88.0188 1.26183
7.04611 100.398 20.3651
7.69108 102.66 19.1051
10.3966 135.045 -10.4974
-6.81808 109.291 -14.1269
6.21133 97.5072 21.8692
-14.1347 96.3132 -13.5186
8.40418 104.305 18.4016
-10.6475 80.7523 9.13624
-14.2105 93.7345 -11.1588
-13.1539 97.9206 -13.7813
7.0112 129.878 -11.5358
4.90951 126.622 -11.9032
6.32804 97.282 21.8677
22.8156 145.388 0.371513
-12.7364 99.2115 -14.6166
-11.8655 82.3216 4.90164
-1.03052 86.9677 19.4771
-12.0679 100.443 -14.7642
22.679 144.184 1.27259
-9.49044 81.5721 9.93054
16.0693 122.732 12.1775
-3.06148 85.058 17.7693
-11.4511 83.1615 4.67051
-13.9004 88.6336 -5.57523
-5.80113 80.8991 17.2358
-9.62221 81.1964 10.0235
-6.75759 80.8047 15.5557
-11.8249 88.5449 -1.90589
-6.97243 80.7327 15.0433
-6.15318 83.0681 14.0132
21.0598 140.07 2.37576
-5.59883 110.564 -14.2653
12.6795 136.75 -9.21388
-13.9644 87.3819 -4.71614
2.2793 124.03 -14.5785
8.47151 103.569 18.3238
13.7992 116.534 14.0986
-0.212015 120.217 -15.0919
1.86055 89.87 20.9273
-14.2665 93.4667 -11.9653
-13.4385 93.7343 -10.8027
21.5505 145.129 -2.46036
-3.34968 84.2786 17.2811
17.359 126.451 9.70704
-10.3065 102.574 -14.8112
-5.27619 82.786 15.2867
-5.37385 82.7677 15.1112
7.97297 101.793 18.9113
-10.3241 80.2725 8.82293
-13.2387 89.4796 -6.30015
-0.170613 86.8373 20.0518
17.9592 129.81 6.96403
-12.263 98.1406 -13.8105
15.9912 140.839 -8.34866
-9.06164 104.692 -15.0326
-1.88751 85.1293 18.6775
20.2492 137.585 2.60738
4.5433 125.014 -12.3884
7.35068 98.7454 20.4976
-10.7478 83.3965 4.22107
-2.29845 115.313 -14.5302
-2.00059 84.5044 18.656
-11.6364 87.7723 -2.19574
14.713 139.405 -9.69307
-1.12688 85.2757 19.3202
15.7539 120.229 12.5396
20.3174 137.243 2.6151
7.2632 97.7191 21.1298
-12.5189 96.5416 -13.2589
-7.633 80.3617 12.7271
-4.94664 80.5692 17.2765
20.8925 138.095 2.57686
-14.1179 89.0962 -8.42585
4.20124 124.396 -12.9992
15.5083 119.349 12.6876
-10.3436 80.449 7.344
10.4848 133.038 -11.1012
14.4047 138.841 -10.2139
4.87009 124.528 -12.1707
-13.4263 93.5859 -12.2172
-13.0129 90.7887 -8.52404
7.50366 98.348 20.3898
-10.2646 83.8721 3.77803
-11.6255 90.2883 -5.61445
-9.93002 82.803 5.38503
-9.72752 84.0601 4.40538
15.73 138.71 -7.90189
-4.61621 80.4364 17.4502
17.8618 131.125 3.99313
20.9927 137.478 2.78297
-5.53257 81.8219 14.2102
-7.93472 80.2673 11.5218
7.34303 96.8742 21.3679
-2.04531 80.3892 21.9775
9.82227 104.57 17.6228
6.7296 95.021 22.1225
-11.7601 89.5641 -5.40542
16.3567 140.203 -8.669
10.1708 132.257 -11.3603
-13.6007 87.9346 -7.07172
21.552 138.85 2.02158
-5.99004 81.4039 13.5207
11.2455 133.263 -10.6386
-6.51061 107.563 -15.2929
-12.7242 88.8421 -6.57267
14.8292 116.988 13.1091
2.79597 122.375 -14.3233
15.8803 138.289 -7.71828
14.0195 114.33 14.413
13.5686 112.803 15.2164
-10.8912 82.2439 3.64663
-11.9866 91.9698 -8.69374
-12.9294 94.8914 -13.5185
-12.9686 91.2152 -9.67999
10.6274 132.483 -11.1096
-3.52847 80.5207 18.6152
17.3712 123.439 10.5872
6.96061 126.137 -11.0633
19.9501 135.374 2.51034
-12.2013 90.3892 -7.62241
-8.61334 102.984 -14.7334
-3.05205 112.709 -15.0972
-11.9483 90.9952 -8.02904
18.11 141.093 -7.1853
23.7358 143.664 0.0656131
-12.7879 89.6885 -8.34316
4.49041 91.3198 20.992
-1.22064 81.5196 21.1236
16.0871 119.336 12.065
-7.87843 104.414 -15.2577
11.7133 107.079 17.1623
-11.327 87.5936 -3.63867
-7.93399 104.161 -15.1717
-12.8553 89.2766 -8.20639
21.8253 143.026 -2.94269
-1.60742 115.052 -15.4019
16.5272 138.787 -7.99682
-12.3226 89.7261 -7.7687
17.9949 130.356 3.61757
2.03111 87.4986 20.4164
16.8922 121.506 10.9676
8.33972 99.7595 18.6877
-9.91875 84.6528 1.82835
18.4623 130.401 4.26466
-10.0192 90.598 -4.70264
-12.4444 92.0783 -10.6523
15.7889 137.711 -8.3669
8.73496 128.981 -11.8853
-11.9723 88.4138 -6.05975
6.80398 93.7765 22.0579
18.2177 131.707 2.19301
22.8998 139.468 2.33193
-11.1909 92.8206 -9.47625
18.8132 129.491 5.53982
4.53738 90.9026 20.8528
0.27193 117.998 -15.668
21.4474 136.692 2.59107
4.51678 122.793 -13.1518
-0.993418 81.6697 20.6404
-2.22757 80.9381 19.1243
-11.9121 89.8083 -7.78294
22.0734 138.135 2.00573
15.7325 136.437 -7.62308
-2.77402 81.9829 16.9489
-11.8698 91.2975 -9.37751
-12.9815 92.4492 -12.6662
-8.48588 101.793 -14.5201
-11.8509 89.7748 -7.82761
11.4485 105.723 17.1673
-11.9691 91.1718 -9.55981
14.1632 111.947 15.4117
16.0436 137.193 -8.07304
-10.9444 92.5655 -9.24756
16.486 119.397 11.6077
-11.9551 91.1121 -9.57389
-1.62657 82.0628 18.6021
19.8274 133.574 2.34528
-12.0461 88.605 -7.2866
13.5591 109.888 16.1922
-11.7329 89.6168 -7.82647
-11.9554 89.3435 -8.0213
6.17861 123.25 -11.4334
-9.10875 86.1113 0.543169
8.12007 126.685 -11.6087
-9.33078 85.4415 0.833695
17.852 130.6 1.68849
-9.82272 82.3942 3.12254
-10.2243 87.1483 -2.67159
-0.00252076 82.1594 21.0217
16.1189 136.373 -7.68997
2.43115 119.248 -14.1579
-9.08666 85.9486 0.479736
3.7675 87.9907 21.3621
-10.2838 88.3713 -4.42009
10.0576 102.575 17.1028
17.2477 139.612 -9.3639
-9.06689 83.5946 2.81585
15.3077 135.79 -8.83279
17.8208 130.138 1.67514
8.14273 126.258 -11.6871
-11.1676 89.3157 -7.16918
-0.36044 115.839 -15.9448
-12.0605 87.6282 -7.00595
0.233762 83.2699 19.7624
-1.97656 113.03 -15.9332
24.153 141.003 1.33653
-1.40857 113.97 -15.9592
22.8144 142.592 -2.81715
-11.4856 87.0643 -5.62695
-9.516 89.1915 -4.34555
6.03641 122.586 -11.8784
-11.9154 88.4421 -7.89475
18.0537 122.789 9.51618
-9.26377 98.5985 -14.051
-0.415035 82.1888 19.286
-11.2536 88.6229 -7.09352
8.48477 97.2198 19.2604
7.9081 94.0353 21.6097
15.5094 114.547 13.4167
-10.8854 90.0222 -8.13158
16.7844 136.192 -7.47152
1.46791 82.8902 21.6514
-9.90384 87.6992 -3.97956
19.1715 131.473 1.79926
16.22 134.481 -6.74224
-10.4133 89.067 -6.43484
24.3786 142.077 -0.185346
1.69225 84.3536 20.3103
-1.6325 113.082 -16.2574
1.6446 82.9386 21.7199
-10.3826 92.7703 -10.4247
-8.89867 89.5845 -4.36825
-10.816 88.8593 -7.07482
22.1867 141.666 -3.81439
3.13131 118.681 -13.7042
-6.24937 104.339 -15.3586
-9.47357 97.4459 -13.8991
16.5268 134.264 -6.27935
-9.74918 96.7868 -13.7442
-11.0947 88.2669 -7.11725
0.257211 82.368 19.6088
14.6277 131.77 -7.117
-11.4916 92.3091 -12.1911
0.187998 79.7723 22.1577
-10.4087 89.475 -7.26054
-8.34976 90.3402 -4.47678
0.481524 82.5308 19.7397
24.4363 141.812 -0.183861
1.57478 82.0159 22.2528
19.2236 139.695 -7.33009
-10.3687 89.4545 -7.23475
1.00316 83.1342 19.9727
8.70387 97.0501 18.9915
-9.80375 87.2395 -3.92616
-7.6329 101.131 -14.8099
14.6692 131.283 -6.72545
8.56275 95.8452 19.955
18.9275 126.206 6.27701
-0.463713 114.532 -16.2522
-5.32953 105.775 -15.7785
14.4682 131.994 -8.03112
-10.6214 87.4174 -5.80837
-9.1073 84.2494 0.260292
-11.4407 87.5244 -7.43441
22.8597 137.95 0.655085
-10.5037 88.2789 -6.60796
-8.36959 86.1048 -0.549854
-10.6521 88.8675 -7.61432
-10.465 89.9034 -8.41312
-10.3411 87.449 -5.6097
15.9417 114.192 13.255
15.3586 111.783 14.7396
14.798 133.294 -9.19984
-11.2296 87.6791 -7.55766
20.3591 132.092 2.05893
16.2419 115.056 12.7527
17.1078 134.773 -6.69411
2.24082 83.6285 20.9264
-0.891298 113.678 -16.7036
4.2109 85.4749 22.486
8.74228 95.9055 19.5149
2.23583 82.1901 22.3382
-8.19845 89.5355 -4.28639
6.34633 89.3486 22.0729
2.49081 83.7934 21.0238
24.2787 139.783 0.678534
17.3046 134.696 -6.48483
-9.83706 86.9655 -4.6302
-10.2365 89.3628 -7.9041
-9.14786 87.9839 -4.52058
-9.58659 91.8439 -9.42533
22.1285 134.744 2.04688
20.3343 131.812 1.93339
15.9376 113.296 13.7111
-3.79523 108.091 -16.3146
14.3412 130.575 -7.61704
17.6441 132.371 -3.58882
4.92792 86.6945 22.0835
18.2053 120.669 9.82146
-4.56671 106.287 -15.9022
-8.483 85.0708 -0.397423
8.4398 93.0908 21.4954
18.6762 127.253 3.55956
-2.69179 110.099 -16.6931
16.6081 115.397 12.4274
9.00195 124.971 -11.4876
14.2508 131.729 -9.23492
-9.3473 91.4873 -8.98414
7.46499 122.577 -11.785
-6.53786 102.107 -15.2704
8.92572 124.304 -11.0421
21.306 133.122 1.82864
19.4094 124.96 7.09369
-9.37519 87.6902 -5.13607
3.24624 83.048 22.532
16.0478 112.557 14.0927
8.80603 93.8843 20.9023
22.1552 134.369 1.82081
-9.47594 91.9988 -10.0864
16.9859 134.683 -7.90171
10.7928 128.404 -12.4236
16.0939 132.267 -7.05095
9.28111 124.821 -11.417
9.3094 124.913 -11.4871
16.9355 131.076 -4.31951
18.2703 136.498 -7.70349
19.1256 122.233 9.01342
16.1338 128.735 -3.30682
-9.06089 91.2065 -8.7885
-8.99632 91.0373 -8.50759
9.38154 124.94 -11.5158
-8.33211 86.2695 -2.31632
16.9252 132.714 -6.24626
16.0128 131.461 -6.55694
0.792931 113.807 -15.2018
-10.0176 94.3503 -14.0028
9.59492 125.73 -12.1104
-11.5204 90.8354 -13.0537
14.6259 129.053 -6.70537
23.2291 137.533 -0.251912
19.5304 128.769 2.40161
-8.81548 83.7209 -0.826738
19.0082 128.778 1.32251
7.65921 90.1562 21.9519
16.338 130.381 -5.24271
14.5888 130.783 -8.86623
-7.88315 87.6459 -3.47556
-7.3192 88.578 -3.4527
3.28151 116.113 -13.682
19.9925 138.588 -7.53095
18.9888 126.783 3.21542
14.6106 128.86 -6.89037
4.76902 118.817 -13.9701
19.1387 124.702 5.65334
10.4625 99.6851 16.6368
16.8109 127.938 -2.0352
17.7404 132.776 -5.51352
17.0488 133.955 -8.01854
14.4238 107.494 15.3559
-7.97083 86.0895 -2.25542
11.8413 128.86 -12.0996
17.4183 130.975 -4.30669
-6.41427 101.057 -15.4301
-2.60952 108.787 -16.8232
18.9673 128.122 1.42516
-9.98919 91.5079 -11.7987
-3.58123 106.565 -16.3215
11.9741 128.877 -12.0515
18.8122 121.994 7.59263
17.9018 128.982 -1.5074
16.1832 133.294 -9.19806
18.2884 135.765 -8.0801
18.427 133.442 -5.37382
2.46016 114.587 -14.1131
-10.0403 93.3743 -14.1292
19.4925 137.718 -8.24569
9.0261 122.997 -11.4589
-3.80971 105.654 -16.2194
11.7702 101.788 15.9642
-8.62614 95.8417 -14.4599
19.1338 128.529 0.748514
-7.25808 87.3817 -3.07025
13.6214 130.404 -11.2428
18.951 128.052 0.853875
23.0411 136.28 -0.534887
9.44679 95.0406 18.8177
7.87939 89.5106 21.8496
18.2641 121.968 6.00043
-8.03737 84.9655 -2.04655
-8.31011 85.1416 -2.73283
19.273 128.4 0.83854
15.0779 128.218 -6.55101
18.2411 130.154 -2.94195
14.6587 129.821 -9.08558
19.1866 128.097 0.850902
9.52419 94.3722 19.3068
13.0897 103.449 16.0472
-1.01957 110.351 -16.7424
10.3974 98.0381 16.8435
24.0354 138.871 -2.05478
18.6052 117.588 10.802
23.2662 139.791 -4.48777
22.0939 138.916 -5.7368
9.54291 93.1465 20.3154
5.83726 118.904 -13.7916
22.4777 133.54 0.576919
15.2098 127.931 -6.57249
19.8029 128.36 1.23427
10.2973 124.354 -11.6376
19.3387 128.055 0.649037
-7.17831 86.7546 -3.34293
18.2325 128.44 -1.96553
-7.05497 86.7758 -3.20269
15.1523 130.15 -9.36255
19.0704 132.523 -4.89121
11.0256 99.0505 16.1976
18.656 134.677 -8.03555
3.6765 81.4181 21.6471
16.167 131.861 -9.59019
23.8199 139.558 -4.01773
16.1016 126.91 -4.47554
19.1288 131.866 -4.32253
10.9624 125.492 -12.3094
19.8929 136.882 -8.34379
18.6306 127.962 -1.12696
5.74392 117.856 -13.6411
17.8402 121.358 4.38342
19.6507 119.995 9.02985
16.4773 131.399 -8.82439
-10.2743 91.3512 -14.4265
24.0185 136.208 -0.381919
19.7563 127.563 1.10732
22.3352 132.842 0.11397
20.068 128.089 1.07688
6.86709 119.313 -13.4205
18.4844 133.821 -7.97961
19.0077 131.62 -4.7032
-5.97624 99.1241 -15.1834
4.75601 82.4614 21.7842
17.5373 120.92 3.88073
3.26767 113.443 -13.9041
17.8164 129.74 -5.03931
20.482 128.691 0.829
-7.46888 83.2723 -1.20016
-8.61526 94.1546 -14.8516
-8.8941 90.7402 -11.7691
0.0243324 110.246 -16.4975
2.627 79.2089 21.188
2.27944 112.094 -14.4655
7.78848 87.7487 21.3651
21.7656 137.763 -6.6793
19.3925 128.162 -0.747167
17.917 132.444 -8.03472
17.4613 120.817 3.50032
23.4674 135.036 -0.837484
19.4523 131.99 -4.87515
-5.04049 100.908 -15.9356
-10.2504 89.5652 -13.2593
15.8002 130.667 -10.1069
16.845 126.297 -3.57394
6.18222 117.466 -13.4018
12.2095 126.431 -12.1363
-7.23815 96.3854 -15.2041
24.4432 135.989 -0.331735
18.9023 119.872 6.82437
19.895 127.645 0.337989
17.6449 121.1 3.22789
10.7946 96.8631 16.6407
15.3153 129.305 -9.74344
18.8633 126.889 -0.826339
-7.3513 96.0126 -15.2183
19.5699 127.29 -0.0056126
-7.82981 95.0881 -15.1304
20.4845 126.927 2.00139
17.7754 119.844 4.65171
18.2399 113.102 12.6586
13.984 128.425 -11.3946
-2.53728 105.635 -16.9153
17.6171 131.449 -8.10697
23.3044 138.306 -5.19332
19.8838 123.821 4.04884
18.632 132.259 -7.22024
-7.58854 89.8004 -9.34185
14.9534 129.37 -10.8419
8.52103 120.026 -12.5016
15.8498 129.403 -9.28026
-9.1324 87.0993 -9.38006
17.1734 120.357 2.59207
19.9428 124.018 3.63188
18.6016 118.095 7.51622
18.68 125.368 -0.101807
18.6668 126.571 -1.44394
22.3971 131.123 0.397067
20.9448 127.954 1.11477
14.5456 125.358 -7.67822
20.7414 126.926 1.78771
19.9923 123.79 3.77045
17.1528 129.544 -7.48472
19.4196 125.96 0.364225
14.9857 125.957 -7.63304
1.23337 109.727 -15.1666
-9.02991 87.529 -10.0574
10.8415 121.794 -10.7356
18.3034 116.894 7.88516
13.1839 101.205 15.3424
5.4809 115.024 -13.2796
18.6435 125.734 -1.01733
-8.1534 87.4952 -8.62373
3.73833 79.7306 21.062
7.49859 86.1073 21.0494
16.5735 129.962 -9.28196
23.8982 133.782 -0.150402
10.578 94.7404 17.3562
-3.11421 103.647 -16.8103
17.7899 120.884 2.4735
22.4106 136.936 -6.31378
18.8477 125.055 -0.121816
14.7839 126.827 -9.42541
15.7905 126.684 -7.49942
-8.1072 90.0503 -11.5961
21.8255 129.543 0.257179
17.5052 129.68 -7.67614
6.6007 116.389 -13.1839
20.5553 135.246 -8.21348
15.7693 126.715 -7.76703
1.16121 109.053 -15.2991
13.2128 100.665 15.3381
17.5857 119.119 3.56391
-7.82462 93.8816 -15.3712
23.5108 134.653 -2.36944
0.663278 108.689 -15.9515
17.8296 129.892 -7.60308
20.4793 125.361 1.96424
15.7949 126.69 -7.9301
-6.15485 96.8373 -15.7344
10.8725 94.8686 17.0099
-7.79941 88.6592 -10.0288
-8.87142 86.5674 -9.80755
4.40105 112.606 -13.6396
10.0784 90.4004 20.2091
18.1268 116.397 7.03008
14.7931 103.277 14.9742
19.7396 133.54 -8.35142
17.0982 119.216 2.11871
16.6777 129.378 -9.50777
18.3913 112.952 11.0397
-8.56252 87.2352 -10.1664
9.39738 119.226 -11.8554
17.3517 129.724 -8.77092
22.0434 128.886 0.562265
6.12366 82.5621 21.1634
9.4019 119.111 -11.8995
-9.07431 90.8434 -15.1505
13.8207 101.139 15.1178
-7.96409 88.0737 -10.2927
11.2737 120.988 -10.662
24.6773 136.022 -2.58731
19.1654 127.574 -3.62281
14.547 121.914 -5.9288
6.24653 114.842 -13.431
14.2095 125.834 -10.8156
17.5659 128.429 -7.56695
0.623039 107.767 -16.1372
8.63026 86.4224 20.9446
-4.46308 99.0365 -16.1072
19.5608 124.923 -0.37708
-7.39188 86.9567 -8.57876
17.3985 117.442 3.63927
17.5031 127.593 -6.97651
15.4062 103.684 14.6817
17.2129 126.741 -6.61256
13.4254 124.65 -11.212
20.55 125.643 0.540152
24.4521 136.388 -3.9493
17.9784 116.431 5.61088
-7.4 86.8345 -8.6266
17.276 129.058 -9.10168
15.3857 122.718 -5.76033
16.9848 124.218 -4.51071
17.3535 126.469 -6.25152
-7.5341 87.9945 -10.1737
-0.227905 106.544 -16.7907
-8.09141 88.8945 -12.2045
-8.21025 86.5881 -10.0328
23.3175 135.8 -5.64019
10.9167 92.8097 17.7499
14.5325 119.576 -4.28723
18.4314 112.459 10.3096
23.9313 130.873 0.596952
-7.34581 85.9359 -7.96238
18.3355 127.891 -6.33852
-6.6543 94.5732 -15.9187
18.3529 127.746 -6.20668
18.277 120.982 0.777334
23.5355 132.598 -2.12256
-6.65647 94.4068 -15.912
22.4786 127.729 1.11998
16.4511 123.396 -5.13904
17.4598 108.575 12.4193
14.9953 120.258 -4.45917
3.86215 110.57 -14.3483
23.7237 130.479 0.237808
16.3627 125.821 -8.10511
18.5178 125.4 -3.80432
16.0405 117.025 0.62069
16.2492 117.414 0.559743
23.5303 130.372 -0.136233
17.4025 108.299 12.2959
18.6302 121.238 0.735764
11.7554 120.456 -10.8326
17.2268 119.395 0.148956
17.6791 123.422 -3.32224
18.7936 125.699 -3.80829
17.6308 120.504 -0.393783
-6.7082 88.7936 -10.5027
16.9785 116.066 3.13492
19.3825 114.901 8.70535
15.8297 122.037 -5.31
17.0536 125.193 -6.49719
20.5256 132.154 -7.66397
18.9702 126.109 -4.05476
17.762 128.748 -9.0482
14.4876 118.572 -4.12137
17.5095 120.219 -0.490167
-6.90169 85.9968 -8.06357
-6.04158 94.9464 -16.116
15.966 121.839 -5.13307
23.9466 131.22 -0.737799
-7.5343 87.0153 -10.4214
19.6121 124.092 -0.967471
14.4128 118.168 -4.08856
15.7897 121.271 -4.95036
-5.96337 94.9295 -16.1347
17.6924 115.335 4.73658
19.1951 121.658 0.704582
20.5622 130.36 -6.1152
19.4492 114.8 8.42436
-8.0044 88.7489 -13.3267
11.4396 93.3167 16.8361
20.4467 123.489 0.934937
17.5413 108.47 11.6807
25.9668 134.958 -1.33276
-6.45185 93.7793 -15.9363
19.8805 123.753 -0.396297
15.6253 102.736 14.2898
9.97728 117.662 -11.8695
15.6383 119.516 -3.65399
14.563 121.903 -8.15816
23.6768 134.672 -5.3471
14.3441 120.428 -7.00883
14.5964 119.708 -5.8062
16.7272 118.6 -0.833023
-7.8914 88.6558 -13.3294
20.7125 130.161 -5.96802
13.9994 123.704 -11.2386
21.5914 132.611 -7.05018
14.7048 122.978 -9.21617
19.4596 114.797 7.99869
2.115 106.914 -14.9855
21.2249 132.269 -7.56639
16.5957 120.774 -3.89822
19.7508 114.287 8.67183
-2.409 101.018 -17.1767
7.3894 82.0733 20.6227
14.2042 120.054 -7.51902
-6.0091 86.5657 -8.30306
23.2334 132.819 -4.8385
21.0313 125.011 -0.514424
19.518 129.921 -8.51708
14.3509 122.96 -10.4265
-6.05502 86.2788 -8.20825
10.6145 117.3 -11.2782
17.6738 121.445 -2.97231
-7.75297 89.2606 -14.5928
17.221 124.745 -7.36414
19.052 114.887 6.42275
-6.40344 88.6302 -11.5287
20.2442 123.977 -1.13581
23.8311 130.379 -1.52897
25.2031 133.859 -2.77658
6.05754 111.648 -13.7078
-6.0574 86.3507 -8.69008
-6.17449 86.2055 -8.75675
10.5851 117.04 -11.3744
12.5222 120.088 -11.1294
16.0089 124.849 -9.93447
-7.7352 89.8727 -15.5719
17.8728 120.913 -2.49105
15.4248 116.656 -2.42026
-7.57116 87.831 -13.2396
11.5748 90.3706 18.4522
19.6992 114.415 7.47949
14.0128 119.881 -8.66977
-1.74811 101.119 -17.1075
21.496 124.966 -0.697218
19.4894 114.604 6.71232
22.8886 131.476 -5.15307
-3.75676 97.1568 -16.745
15.4072 116.593 -2.93165
9.68016 116.035 -12.7232
16.3859 125.319 -10.5335
-0.116996 103.237 -16.7792
-2.33418 99.8582 -17.2002
11.7146 91.0166 17.5015
0.0947433 103.443 -16.7033
20.0934 124.527 -3.15371
10.4082 86.1402 20.2366
23.0054 130.496 -4.29325
0.66 104.128 -16.5101
3.66753 107.641 -14.831
-6.10817 88.0289 -11.6244
19.8809 114.113 7.44063
-6.2055 86.641 -10.3676
16.6738 115.518 0.0859451
-0.0616889 102.925 -16.7344
23.5393 130.871 -3.95689
20.7759 129.449 -7.45622
9.85922 84.9111 20.2506
-0.0977168 102.805 -16.7416
17.0258 123.68 -8.28398
1.06571 104.085 -16.2308
19.0144 127.949 -9.3542
14.358 118.641 -7.97687
23.1796 130.521 -4.78832
13.9163 97.0591 14.1283
25.1786 130.838 -1.53519
14.3275 118.866 -8.39604
-4.66883 85.5181 -7.13702
15.1278 99.0338 14.0019
16.4251 115.588 -1.36239
-2.24786 98.8281 -17.1922
11.1403 86.6511 19.8687
12.1244 116.955 -10.6152
13.9986 119.961 -10.466
21.8162 125.1 -1.87197
7.7256 80.2919 20.3686
8.65656 112.872 -12.7432
-5.92477 87.7529 -12.2852
20.0718 123.858 -3.88486
-1.24953 100.03 -16.9699
18.5687 109.174 9.00404
13.9585 120.472 -11.3691
19.135 111.68 7.27097
16.2637 101.032 13.4106
12.1068 88.8625 18.8075
18.795 127.055 -9.83715
18.6994 109.419 8.70426
11.3203 86.5004 19.7762
19.8548 128.376 -9.45245
7.02073 78.5998 20.3634
18.2513 105.329 12.0567
-6.43013 87.436 -13.3855
24.3731 129.065 -2.19415
17.7243 123.25 -8.08486
7.89761 111.468 -13.3874
20.7105 123.592 -3.21037
5.54921 108.184 -14.1613
22.2403 128.879 -6.1937
-6.37984 84.8246 -10.9201
-5.25739 91.829 -16.3856
7.96678 111.202 -13.2911
9.67037 82.9514 19.8296
-6.09922 84.262 -10.0161
21.9308 123.394 -1.16792
19.9919 122.98 -4.30567
15.622 116.063 -4.88355
-6.14576 85.9291 -12.0749
25.2365 131.276 -3.82859
24.4178 129.036 -2.94491
-5.95748 87.2733 -13.242
13.9478 95.3655 13.9969
10.2319 114.171 -12.7332
15.5162 116.164 -5.34179
18.8278 108.677 8.53444
12.408 88.2808 18.6474
25.704 130.121 -1.95816
17.3212 121.678 -8.10582
-1.67603 97.8086 -16.9799
9.87632 82.8432 19.7479
21.9045 128.628 -7.30346
18.7996 123.321 -7.2727
25.7952 132.247 -4.20569
15.5652 98.5102 13.2233
17.3291 102.139 12.5233
18.6581 105.388 11.4358
-2.15442 96.8746 -17.0282
23.1335 125.407 -1.83976
-4.9321 91.5959 -16.4505
21.4951 123.943 -3.26462
-6.03487 89.0145 -15.7618
8.80862 80.4968 19.9751
18.6038 104.724 11.8129
13.9463 117.389 -10.1715
12.961 91.0205 16.056
24.6169 130.371 -4.88566
0.0269519 99.7485 -16.6649
-6.41281 87.2553 -14.9762
-1.20663 97.8158 -16.8637
3.19226 103.091 -14.5716
26.8991 132.69 -3.36373
8.66629 110.394 -12.5471
25.0814 129.35 -3.17225
-6.46978 86.774 -14.7502
23.5158 125.229 -1.73631
18.5538 113.927 1.33893
8.298 78.9291 20.0359
19.3214 121.593 -5.57984
8.50067 79.1658 19.9791
26.319 131.144 -3.24119
12.7706 88.8257 17.3789
8.70124 79.5178 19.9328
18.2582 121.635 -7.67293
18.4712 103.889 11.5834
0.788575 100.063 -16.2659
2.20278 101.665 -15.4255
25.3587 129.668 -3.52095
-4.17071 91.7997 -16.5318
-5.45807 88.8911 -15.787
18.4578 121.78 -7.70434
19.1525 105.653 10.5941
19.9156 112.058 5.14722
19.0835 122.186 -7.13359
24.3395 128.312 -4.50386
25.1233 128.059 -2.90348
1.4849 100.138 -15.8598
18.6547 113.67 0.623964
14.3653 93.7941 14.0431
8.47 109.107 -12.8752
9.45857 109.813 -11.8956
7.66452 108.473 -13.7769
14.6528 94.6123 13.5593
4.31694 103.496 -14.5173
18.9592 111.585 3.22604
20.5175 122.119 -5.24166
24.4892 127.52 -3.89356
24.4068 127.657 -4.25252
15.324 96.125 12.9333
16.4712 115.275 -5.41536
23.1969 128.073 -7.00959
17.5233 100.899 11.6547
17.3539 100.551 11.7132
15.4173 117.772 -10.1272
27.3861 131.046 -2.69189
20.0725 111.434 4.91131
21.2139 122.296 -4.62024
9.80997 80.2605 19.547
14.6385 93.843 13.781
19.0227 112.405 1.85677
11.6246 83.4457 19.2715
19.0003 103.795 10.901
10.4561 81.3372 19.4039
9.82134 80.1115 19.5247
19.3529 110.797 4.04332
19.5432 110.905 4.26911
24.707 127.936 -4.59929
8.27096 108.173 -13.1863
14.6569 115.927 -9.93518
-0.504697 96.5313 -16.6131
19.8526 109.064 6.60995
14.3208 115.077 -9.85544
-3.82163 84.5946 -10.1281
19.582 110.326 4.6234
24.6947 127.265 -4.19124
25.0723 128.019 -4.40484
24.9625 128.116 -4.71679
16.6252 114.907 -5.69083
27.2781 130.875 -3.49523
9.62497 108.824 -11.8533
-0.396948 96.1701 -16.5404
21.3032 126.946 -10.2262
25.6454 128.976 -4.59592
19.062 109.86 3.88206
14.9797 93.884 13.4591
19.8687 108.542 6.66335
1.97533 99.3095 -15.7544
10.4333 109.405 -11.3258
3.255 100.467 -14.7778
1.08604 98.148 -16.2415
26.1302 128.27 -3.20226
-3.22156 90.7692 -16.3391
-0.0500537 96.1846 -16.3932
19.8345 121.658 -7.68881
18.9011 111.635 1.28491
24.724 126.345 -3.9305
16.4839 114.407 -6.08216
24.575 126.087 -4.1441
14.6333 114.493 -9.74312
7.78141 106.526 -13.7158
19.2339 123.396 -11.0792
0.198352 96.049 -16.2771
25.8949 126.98 -2.90913
18.411 113.717 -2.28841
20.0996 121.615 -7.68177
-4.54773 86.3714 -14.5918
4.908 102.142 -14.3787
12.4346 83.5186 18.937
18.5752 110.784 0.914504
15.8445 115.398 -8.92549
24.7519 126.972 -5.2105
16.0808 115.763 -8.94175
16.3563 114.264 -6.85031
18.5137 111.678 -0.229583
17.0277 113.629 -5.16527
18.4764 109.342 1.9828
4.78918 101.41 -14.2795
13.9787 88.3206 16.1962
13.7919 113.166 -10.606
18.0272 109.897 0.47959
18.2314 113.188 -2.68996
25.2655 127.598 -5.45654
19.3763 122.822 -11.0052
24.0884 125.77 -5.68458
-3.67169 87.4269 -14.9115
24.4996 126.078 -5.31314
15.748 114.552 -8.82034
18.229 111.768 -1.40094
24.4378 125.996 -5.36715
26.5717 128.528 -4.28913
24.65 126.831 -6.00256
12.8917 110.785 -10.1352
19.9345 105.901 7.74079
15.2827 92.472 13.6397
24.9985 126.841 -5.42865
20.479 124.326 -10.8988
-3.75874 86.5008 -14.4218
17.3456 109.215 -0.609399
24.025 127.363 -7.96872
6.03445 102.893 -14.3625
14.2052 112.844 -10.2518
16.9537 112.701 -5.16833
17.2149 109.658 -1.57923
16.1119 113.617 -7.79076
25.5507 126.422 -4.44451
27.8052 129.319 -3.48164
-3.76515 85.6582 -13.9459
0.69642 95.0673 -15.9717
19.5517 108.458 3.69022
0.583427 94.8076 -15.9934
-0.3844 93.3426 -16.1814
-1.23219 91.9174 -16.1988
5.67422 101.851 -14.3295
14.4747 112.714 -10.0573
15.7523 93.1572 13.0523
16.8481 109.31 -2.16673
16.822 109.353 -2.29979
24.3657 126.74 -7.22251
9.79348 106.542 -12.0118
12.3361 81.8991 18.7299
16.0133 113.447 -8.25644
16.0617 111.432 -6.07806
17.9609 97.9446 11.6065
-0.321995 93.0215 -16.0995
19.3335 108.101 3.16632
16.7744 110.894 -4.46849
26.9503 128.246 -4.64073
16.6632 110.461 -4.26854
23.7612 125.387 -7.36305
0.554021 94.1307 -15.9326
-2.74482 88.2825 -15.6723
15.1214 90.2053 14.4633
14.3925 111.554 -9.57393
17.2397 96.054 12.0451
15.9126 113.317 -8.79037
19.4208 107.988 3.19892
15.8691 112.749 -8.35598
-3.11028 85.5106 -13.6478
16.0684 110.748 -5.96523
20.2879 106.943 5.47941
8.71664 104.797 -13.1514
3.78515 97.9135 -14.7694
15.3599 112.463 -9.50194
4.64071 98.8691 -14.3552
1.14332 94.1745 -15.7305
7.25089 103.055 -14.2547
4.38163 98.3475 -14.5017
27.6151 127.578 -3.82392
-2.88151 84.6753 -13.1203
13.5638 109.332 -9.74512
15.4147 89.8382 14.3246
27.7141 127.908 -4.0552
19.2663 99.8888 10.5272
20.0397 106.505 4.86211
-2.29269 87.4378 -15.1733
16.0674 111.114 -7.3732
3.40475 96.9517 -15.1759
-2.47646 86.1645 -14.3145
13.3448 108.764 -9.86814
-1.90132 88.533 -15.878
11.1647 106.497 -11.4948
9.57208 104.733 -12.5031
16.0876 109.799 -6.19374
-2.43641 83.457 -11.5625
11.1938 106.453 -11.4865
19.0968 98.7966 10.8349
-1.52243 82.7783 -9.36664
2.34706 95.1099 -15.6029
16.1445 91.1608 13.3654
2.65652 95.3374 -15.5925
1.34365 93.1602 -15.6768
20.5796 102.758 8.76257
16.1664 108.499 -5.31835
12.8594 80.518 18.2346
20.5557 104.106 6.92078
12.467 106.942 -10.7824
20.5655 102.413 8.6028
12.2437 78.9764 18.2203
11.9077 106.049 -11.2369
-2.33571 82.2466 -11.6132
-0.0833333 90.1871 -16.1167
15.4994 86.9437 15.3189
8.68319 102.642 -13.6803
16.1314 107.101 -5.12001
19.9811 99.3261 9.94558
20.2304 100.223 9.16159
15.7164 109.098 -8.48587
18.6147 94.9871 11.724
15.8524 105.659 -4.74862
16.9377 90.8054 12.8135
6.78599 98.7619 -13.9516
20.0756 99.1355 9.57242
19.7151 105.331 2.24592
9.86542 102.691 -12.9731
19.8141 97.4846 10.4544
20.1924 101.997 6.17175
19.5417 105.192 1.37803
18.6664 93.8864 11.7268
20.0258 102.769 4.70579
-0.821339 82.6108 -11.4725
15.6101 105.686 -6.44213
1.20563 89.8518 -15.7119
2.47573 91.7411 -15.4812
15.67 106.649 -7.64893
-0.59009 82.5196 -11.3131
19.3422 94.8539 11.3167
20.5357 100.067 7.87458
11.9182 102.909 -10.9413
1.58331 89.766 -15.5977
16.2244 85.4366 15.3878
14.9724 106.443 -9.22441
7.95185 98.7453 -13.7203
-0.747077 81.1266 -10.7425
2.05571 90.376 -15.5756
1.27859 88.2451 -14.7279
19.8405 96.1542 10.2754
15.4434 106.538 -8.69957
5.85046 95.483 -14.2382
13.2712 104.386 -10.3657
16.1317 103.688 -4.47002
20.2241 101.674 4.94049
20.2631 101.407 5.28894
5.9396 95.4325 -14.2093
12.9292 103.359 -10.0816
20.0682 103.079 2.89303
0.339407 83.8243 -12.2069
11.4227 102.057 -11.6939
15.293 104.888 -7.78443
19.6259 94.8668 10.6735
11.7529 101.792 -11.0009
0.344624 83.239 -11.8761
0.279207 80.435 -9.15652
11.8667 101.575 -10.7922
12.9412 101.834 -9.14492
3.35644 91.265 -15.3411
3.16317 90.9651 -15.3769
15.198 104.94 -8.68492
17.4134 102.828 -2.49019
15.3031 103.814 -7.35128
20.1656 102.996 2.2479
14.226 103.979 -9.53835
19.7716 103.147 1.28146
15.1276 104.862 -8.91561
18.5984 90.8527 12.1134
0.421817 82.3136 -11.5693
9.59871 98.3731 -12.3067
21.0818 99.6181 6.74224
1.80817 85.5443 -13.091
11.7974 100.228 -11.0627
5.56867 92.8037 -14.4772
14.31 101.192 -7.83034
15.1492 79.0176 17.2515
20.2614 102.252 1.67844
0.753674 81.6215 -11.5468
2.76039 87.4525 -14.3808
21.0764 97.5441 7.85738
14.446 100.682 -7.49324
20.8574 99.5919 5.1748
20.3499 94.7363 9.37481
16.8534 81.833 16.4493
13.6311 98.8957 -7.65006
15.4942 101.579 -7.30772
21.1086 99.0297 5.33791
8.25738 94.8364 -13.4378
2.18205 84.0545 -12.9772
18.5376 87.929 12.3289
10.9629 97.3541 -11.5498
7.66756 93.6747 -13.6593
2.1643 83.3038 -12.7374
17.6756 83.5664 14.88
17.0329 101.215 -5.06476
18.2523 101.064 -2.74406
20.8597 99.9936 2.81538
16.8412 99.9494 -4.63278
17.3081 100.535 -4.43905
19.2718 100.576 -1.0375
11.716 97.09 -10.9461
19.9828 90.5594 10.8626
19.1621 100.569 -1.30828
16.9664 99.811 -4.49542
9.34729 94.4611 -12.6121
16.2125 78.701 16.3943
3.26031 84.5175 -13.1974
9.79027 94.687 -12.272
20.1173 91.6508 9.44069
4.80653 87.7515 -14.1138
16.4827 79.3554 15.7295
16.4806 79.3593 15.7034
18.4085 84.3479 13.7636
1.92909 78.9454 -10.2584
5.04332 87.6391 -13.9775
16.6364 79.751 15.2699
5.30882 87.8558 -13.8963
16.8721 97.7434 -3.7716
5.19634 87.4102 -13.8567
15.6335 95.2518 -3.50127
20.1117 99.6242 -0.133122
20.4686 92.3558 8.19984
18.5417 98.7418 -2.10479
2.33798 80.0894 -11.4961
10.207 93.5927 -11.773
8.07448 91.1263 -13.1051
18.2679 97.1893 -1.22516
19.4178 98.136 -0.30629
11.4285 94.0456 -10.4828
4.16273 84.1948 -13.1228
21.4157 98.3736 2.84258
8.01256 90.5962 -13.0451
19.1755 85.583 12.3529
10.407 92.9142 -11.5353
10.9011 92.9889 -10.9857
19.3834 96.5893 0.403221
21.5173 94.8873 6.04277
19.8378 96.8719 0.844969
19.2267 84.6953 12.6772
10.9814 92.8709 -10.894
20.2795 89.3491 9.59387
8.41425 90.0653 -12.7237
20.0126 86.9231 11.4728
8.05352 89.4685 -12.8147
3.35623 80.4742 -11.7271
6.92397 87.7737 -13.1072
15.6972 93.0023 -2.87386
11.1728 92.5911 -10.6817
2.96717 79.0404 -11.0555
12.9747 93.7948 -9.049
15.3959 94.0282 -4.9754
16.3458 93.1134 -2.31744
19.5056 84.6315 12.3824
15.2416 92.7654 -4.1461
20.7735 91.6412 7.00892
21.8514 95.8163 4.49646
6.57911 85.7195 -12.3394
21.8694 95.719 4.53792
12.2828 92.6536 -9.47853
15.1682 92.6993 -4.37058
20.4199 88.6236 9.40855
15.559 93.6892 -4.75671
11.8614 92.1937 -9.93009
9.42614 89.9457 -11.9535
21.6578 95.8753 3.60201
10.2118 90.2716 -11.4272
20.5061 86.5471 10.884
19.2908 94.8633 -0.175195
21.0605 94.382 3.49433
20.9803 94.3198 3.40562
20.8221 94.2921 3.12529
6.56496 84.4279 -12.0939
20.5844 88.4339 8.8218
21.3745 94.229 4.05094
4.75354 80.8884 -11.7161
20.4802 95.4139 1.15038
12.402 91.3548 -9.18367
15.5935 91.3289 -3.42432
19.2456 81.9898 13.0814
14.4046 90.123 -4.31154
12.4604 91.1454 -9.04787
20.6085 87.9903 8.95186
9.52063 88.2083 -11.5345
4.5981 79.7031 -11.3755
11.1943 89.8074 -10.3448
17.1292 92.106 -2.17954
19.6097 82.5669 12.437
17.3656 80.0224 11.0919
10.3192 88.6859 -11.0433
4.57778 78.6884 -10.8806
13.3954 90.57 -7.84308
19.3574 93.2446 -0.0618209
15.4478 87.3531 -0.838743
18.5548 92.7516 -1.1152
20.6837 86.8169 8.8549
5.99798 80.2012 -10.6233
20.6854 86.0429 9.61729
18.5403 79.9855 12.1889
4.8063 77.608 -10.0493
20.8069 91.8564 3.60681
10.8741 88.3347 -10.5678
21.6184 91.9174 4.95315
21.3098 92.3034 3.90279
17.7343 90.3359 -0.449621
6.04592 79.9395 -10.4665
17.3546 89.4355 -0.207314
20.6626 91.4725 3.58402
18 81.2683 9.49732
20.5964 84.8741 10.3121
16.5838 87.3985 0.394968
18.0446 90.1835 -0.00589303
6.70481 80.6297 -10.2914
14.2587 84.2132 -0.503808
19.7116 91.7751 1.26085
16.596 89.3002 -1.7224
11.8051 88.5295 -9.54229
10.7855 87.5633 -10.4115
20.4185 83.8802 10.7963
14.0987 87.6224 -4.58143
17.885 91.1341 -1.55337
15.2917 86.741 -1.55681
10.6264 87.0547 -10.3674
19.0111 91.6479 -0.170612
6.7007 80.0238 -10.0125
12.9877 88.9011 -8.19286
19.5041 81.1377 11.7814
17.643 87.9149 1.17415
17.9339 88.3595 1.10641
14.5339 87.6847 -4.3135
13.1318 87.3668 -6.51009
13.1406 87.3201 -6.46403
17.6939 87.4545 1.59531
11.6225 87.7809 -9.72078
18.5611 89.4502 0.875916
12.6042 88.3187 -8.67618
15.7817 88.1747 -2.82669
13.5643 88.6138 -7.2947
20.6844 86.3117 7.96222
20.2877 89.6191 3.64703
14.1763 82.7574 -0.105078
6.45542 78.3323 -9.39871
13.9723 85.446 -3.44007
10.4965 85.7374 -10.0316
9.15542 84.2026 -10.9071
20.651 85.6721 8.18032
21.4739 89.4517 5.52828
13.381 86.0268 -5.4592
18.2765 81.1018 8.53688
19.3903 81.9831 9.59083
20.7629 84.4772 9.3985
8.53168 82.0014 -10.167
15.4347 87.4452 -3.55404
14.6259 82.7654 -0.0507675
15.4386 82.588 1.57946
20.6951 84.8783 8.59175
6.6875 77.2795 -8.65256
13.0595 87.4797 -8.11082
15.3491 83.2371 0.472655
8.51303 81.1433 -9.72372
15.3059 86.6311 -3.37274
20.3642 82.5051 9.98961
6.82953 76.6827 -8.21923
17.5643 85.7138 1.11664
15.7718 82.863 0.861222
12.3569 84.9235 -7.52139
9.13806 81.4878 -9.677
13.3835 84.8424 -5.60239
19.1926 86.9303 2.49424
20.8475 88.2183 4.01102
17.1484 85.1408 0.586732
13.1727 84.2008 -5.6693
15.3029 82.652 -0.206047
15.9394 83.0059 0.494551
16.9376 83.987 1.03197
16.7133 82.3745 2.22047
10.2952 82.1056 -9.10792
14.099 81.1837 -1.3489
13.9318 83.5512 -4.18544
17.5302 82.4975 2.90733
12.1229 83.2556 -7.72164
16.5258 82.735 0.7028
20.8216 83.9331 7.14408
13.0672 80.3036 -3.18787
21.5693 87.5384 4.30219
14.1459 82.2191 -3.6666
18.0804 84.0307 1.12284
12.141 81.8119 -7.2628
21.4756 86.955 4.03989
14.4952 80.7212 -2.13393
18.9028 80.7265 5.75357
20.9704 84.7597 5.1528
20.3815 85.957 2.77535
21.0082 85.7922 4.04491
18.4223 80.2037 5.26983
14.6863 80.6914 -2.1413
18.5765 83.4567 1.75044
20.9107 84.175 5.12401
19.1524 80.9632 5.2023
20.5304 83.4085 5.06486
13.4884 79.5652 -3.59559
19.5769 81.5244 5.2378
12.4509 80.0208 -6.05195
10.7167 77.3396 -6.46416
16.842 81.8049 -0.327931
19.4031 81.3464 4.31749
11.298 77.1514 -5.86861
19.8925 82.4875 3.43259
19.1229 81.0639 3.46435
12.7127 78.1328 -5.45015
13.7483 78.5071 -4.12239
