ply
format ascii 1.0
comment Created by Open3D
element vertex 1868
property double x
property double y
property double z
end_header
-24.6237 141.238 1.46667
-18.225 123.423 -2.29515
-13.9381 138.795 8.07295
-13.7849 139.039 8.27553
-13.7803 139.125 8.28294
-18.5662 122.84 -2.92922
-9.71142 137.278 10.3334
-20.4832 122.966 -4.34906
19.9203 88.5356 8.85885
-20.7041 122.669 -4.66873
17.6738 98.7276 11.9968
-20.0102 123.827 -3.66362
14.8339 109.426 14.9458
-0.2873 76.9336 -11.479
-19.7507 123.666 -3.63122
-5.90247 134.462 11.5716
-19.5374 143.216 5.7309
-18.4603 123.011 -3.04148
-18.7695 121.706 -3.90417
4.30473 122.736 13.4116
-4.36642 133.363 12.1009
-24.6289 124.467 -6.90024
-19.6253 143.324 5.66491
-25.9121 135.361 -2.72123
-20.7862 117.563 -7.41335
-25.7916 136.239 -2.24479
-25.4583 125.814 -6.9385
-21.2377 121.684 -5.81356
-18.888 123.657 -3.18876
-16.8542 140.967 6.47205
-17.556 105.28 -10.9136
13.505 112.829 15.3255
-19.4583 112.676 -8.81047
-19.6139 124.785 -3.21682
19.3278 92.9397 10.154
-0.29271 77.1666 -11.6583
-1.02887 78.5216 -11.557
-8.65431 136.883 10.4456
-20.9815 121.346 -5.93664
-6.45656 85.1757 -12.4458
2.10807 126.206 13.1934
-19.3592 112.216 -9.10158
20.4648 86.8117 7.93508
3.46193 124.136 13.166
8.86215 120.117 15.1894
-17.1873 104.531 -11.2237
-26.0029 128.857 -6.19224
-25.7155 135.607 -2.80132
-25.2619 140.433 -0.225078
-22.5551 122.327 -6.82975
-25.6904 138.648 -1.41411
18.291 98.6426 11.7489
18.0938 99.2423 11.8315
20.3624 87.6606 7.99255
3.34624 124.738 13.0798
-19.457 123.992 -3.95379
16.3081 107.057 14.1322
18.3541 98.6971 11.6726
-5.83214 83.9174 -12.994
2.46217 126.367 13.0825
10.7563 118.97 15.6223
-13.1507 95.4985 -12.9411
0.358195 128.938 12.6826
5.96234 122.233 13.6009
20.1453 81.8329 4.85354
-11.5866 139.3 8.8534
15.5 110.213 14.8684
-12.0058 140.176 8.94276
-20.5994 118.257 -7.70729
-18.2596 110.034 -9.89581
-17.7818 122.675 -3.587
17.0376 104.102 13.0499
-22.4084 144.398 3.27948
-17.9595 123.128 -3.56875
3.34598 125.228 12.9719
-6.86508 86.7055 -12.7303
17.8199 100.606 11.8395
19.0928 96.3722 10.7675
-12.0238 94.3983 -12.8828
-19.7373 124.184 -4.44903
19.7729 80.1224 3.56165
19.6593 92.879 9.45295
-14.4487 97.8196 -13.1279
-17.455 108.253 -10.398
-17.038 107.555 -10.5128
1.98929 127.482 12.7944
-13.7713 97.3577 -12.9656
10.8517 119.351 15.3717
-0.307193 78.1205 -12.2879
-18.475 124.757 -3.50954
21.3763 85.1733 6.85522
-19.0485 144.465 5.36558
19.095 97.1836 10.8352
19.2302 96.0316 10.3638
-1.90954 80.3575 -12.4773
-4.35533 134.627 11.3879
-0.293691 130.326 12.2798
16.5548 107.588 13.8108
-13.1922 140.512 7.63597
-19.615 124.474 -4.63897
11.5657 118.847 15.4525
-18.8271 121.713 -5.42526
16.3072 109.687 14.5349
-25.5076 131.949 -5.49919
-24.3369 141.632 -0.0742071
-9.57577 138.569 9.2445
-16.4634 104.634 -11.8245
-25.1481 129.664 -6.34047
-14.658 141.706 6.99392
-6.50932 86.4695 -13.1701
-24.7225 126.633 -7.51807
-25.081 130.808 -5.88317
-25.0404 129.795 -6.33772
-25.003 130.492 -5.99887
-15.6627 102.902 -12.2252
-25.1933 137.042 -3.04888
-18.3546 124.998 -3.75281
10.5966 119.995 15.0024
-19.8237 125.571 -4.57256
-19.0437 121.071 -6.18545
-24.035 142.255 0.156559
-1.94777 132.834 11.8121
18.0581 101.589 11.6146
-18.0314 110.624 -10.4731
-14.5968 100.053 -12.9909
20.6624 88.7266 7.37974
-24.8516 130.018 -6.33743
-24.8541 129.888 -6.42108
-7.32933 87.3576 -13.7808
-10.5946 140.721 9.03876
-4.97942 135.512 10.6638
20.4933 80.0701 3.04704
-8.2515 89.2559 -13.5981
-19.9727 127.296 -4.18646
-12.7499 97.3072 -13.0959
-8.78486 89.822 -13.7416
7.39623 122.615 13.5517
10.7224 120.246 14.8287
18.2286 100.839 11.1318
-18.7542 121.325 -6.22952
-24.7666 129.307 -6.87219
-10.9805 94.7399 -13.2621
21.4788 86.3112 6.43943
-19.5999 126.505 -4.55652
-24.3013 140.978 -1.15774
-17.9371 115.587 -8.53454
-3.06246 134.675 11.3424
-1.9498 80.8109 -13.3097
16.9209 107.371 13.0149
-9.96299 92.0391 -13.8871
-19.8646 123.838 -6.13532
-14.2594 99.024 -13.7754
18.4511 100.756 10.9152
-18.6036 125.883 -4.26707
19.2732 98.9364 10.5968
-24.68 135.608 -4.17723
-21.5105 123.072 -7.78975
-18.2362 145.402 5.09308
-19.6023 122.52 -6.73323
14.8279 113.648 14.1953
22.387 82.7932 5.12741
0.103306 78.5687 -13.1369
-12.8996 141.478 7.10694
-20.2958 129.204 -4.10323
-10.4555 94.0858 -13.5358
-1.99348 133.913 11.4624
20.8627 80.0085 2.66224
-0.616663 132.178 11.6395
-18.1681 145.475 5.10127
-20.2107 146.792 4.23172
10.5083 121.117 14.4942
-24.9693 137.561 -3.64286
-18.6486 125.253 -4.85133
0.591207 130.789 11.8053
21.271 80.6409 3.18683
-10.7163 94.9367 -13.4067
-8.33626 89.8092 -14.102
-19.4948 118.79 -8.55251
-8.56336 139.625 9.26404
-24.32 130.097 -6.75468
-19.4051 122.877 -6.60165
-12.2661 141.603 7.44744
-18.4265 117.258 -8.60822
-3.92816 135.534 10.6133
8.70178 122.646 13.7351
-10.8237 141.98 8.6042
-3.01882 82.5664 -13.8072
-18.9766 124.525 -5.64051
1.38596 130.184 11.8802
-4.45619 84.6404 -13.9371
-18.6217 125.361 -5.06221
-22.5504 145.462 1.57104
-18.7398 125.722 -4.9833
-12.8193 141.896 6.96266
20.2966 93.3009 8.16135
17.4547 106.888 12.5019
2.99324 76.1368 -12.6031
22.0219 81.3411 3.69587
-18.8653 121.343 -7.25755
18.2351 105.298 12.2371
-8.98191 141.438 9.43373
-13.7234 142.821 6.5531
-24.824 137.884 -3.91574
-22.4846 145.536 1.40582
-23.7266 127.176 -8.18703
-15.2863 104.883 -12.5791
-18.6369 123.826 -6.07494
13.217 118.015 14.4107
-14.3358 143.183 6.18688
22.4819 84.429 5.27376
2.53907 77.2356 -12.686
7.77041 123.668 13.0747
-19.8226 147.431 4.16122
8.05001 123.526 13.1851
-8.90766 91.4096 -14.3915
-24.4076 134.326 -5.43741
-0.623564 133.053 11.3213
-17.6182 112.897 -10.6248
22.1098 82.5159 4.01189
-7.96849 140.638 9.52685
-10.1073 142.886 9.00812
5.58142 125.311 12.1103
-0.632979 80.8573 -13.4432
-18.9481 121.392 -7.65448
9.89274 122.532 13.929
19.943 97.9045 9.6168
-0.0183726 132.447 11.346
12.8848 119.309 14.5499
-14.0645 143.292 6.19932
17.3764 109.478 13.1624
-5.34725 86.3333 -14.3711
4.10028 128.085 12.2174
-17.146 116.203 -8.90887
-16.5354 145.362 5.21185
-21.7973 125.5 -8.06564
-7.24906 140.197 9.46832
-15.506 107.645 -11.9573
-13.5812 143.944 6.60565
-20.1644 128.458 -5.52772
-10.2761 143.18 8.64701
-19.1987 123.341 -7.25946
14.2886 115.918 13.6655
4.95055 127.274 12.2093
-2.86874 135.717 10.462
-21.5517 124.477 -8.53599
9.68906 123.161 13.5599
19.4715 80.615 0.572774
-16.4223 111.313 -11.1457
4.32339 76.4286 -12.5199
-9.26133 143.389 9.20481
-19.7223 131.446 -4.08602
22.329 85.0404 4.67076
21.1684 90.3384 6.29513
-11.5642 98.5241 -13.7367
18.2369 78.9664 -1.24799
-2.24093 83.8157 -13.9481
0.551713 132.568 11.1162
21.6109 89.0327 5.88573
-4.36694 86.5888 -14.2479
-2.17062 135.664 10.5497
-4.64507 137.569 9.63889
19.9844 98.4988 9.12877
-4.28301 137.327 9.74898
-22.2021 125.794 -8.8096
-23.3066 128.228 -8.47323
-10.3586 97.2376 -13.7117
-23.2154 131.892 -6.72016
-18.8901 126.45 -6.13666
-12.1818 145.374 7.67488
16.889 113.044 13.6102
-11.7438 145.002 7.80795
-5.12848 138.348 9.43129
-24.227 136.209 -5.54962
-16.4784 112.295 -11.2045
20.8582 92.0066 6.42456
-15.075 109.119 -11.7547
3.22218 130.259 11.5661
-7.70993 142.27 9.24372
3.42687 78.6739 -12.7026
-19.6335 131.456 -4.59619
-11.3312 145.532 8.03041
-18.8016 127.399 -6.05194
20.6922 96.4103 8.10385
-18.2955 124.692 -6.9948
20.6074 82.4395 1.42003
19.2886 104.379 10.8163
22.1389 85.5873 4.00498
-23.7256 134.536 -6.34488
7.41997 76.7372 -10.9495
-9.85298 97.278 -13.888
2.76652 79.5321 -13.0648
-13.1116 146.402 6.90605
-10.1241 97.7518 -13.9257
21.6325 84.5603 3.01352
13.7032 120.003 13.9703
19.9764 99.4759 8.80286
-19.0785 129.898 -5.33268
21.2117 83.9724 2.33354
10.2456 123.888 13.1884
-4.7352 88.3878 -14.5884
-23.1371 130.184 -8.27359
18.6717 106.375 10.9778
-9.76048 145.347 8.59877
-20.9916 129.981 -6.86363
-7.00104 142.107 9.06745
-8.96243 144.561 8.78082
-14.8629 110.084 -11.8758
14.162 119.097 13.526
19.222 105.195 10.6332
-22.6336 131.76 -7.40048
-22.9096 141.799 -2.86498
-18.4282 123.689 -8.15936
12.7797 122.015 13.825
-4.02384 88.2309 -14.4695
15.4169 116.107 12.8941
18.341 107.373 10.8972
-17.3874 120.81 -8.83939
-22.9751 129.909 -8.6285
-16.4542 147.822 4.58214
-21.1951 147.17 0.81257
17.9832 110.355 12.0068
16.4878 79.3063 -3.80314
-8.07136 94.3955 -14.6035
20.9863 84.5176 1.93347
15.1726 116.586 12.8439
-18.4908 125.33 -7.6393
-17.0012 120.612 -8.78304
16.9318 82.7919 -1.9143
17.2378 113.808 12.9548
21.8633 90.3493 5.21969
-22.4436 129.685 -8.53194
20.1322 83.9624 0.92576
21.5279 91.422 5.43589
4.77672 130.021 11.4403
21.1295 84.9698 2.07852
2.1255 81.7026 -13.3521
21.6497 86.0479 2.9322
-16.1575 117.144 -9.96771
22.0159 88.1577 4.17908
-23.1364 134.246 -7.0036
7.17435 78.1383 -11.3999
-18.3437 126.22 -7.30969
6.59377 78.3863 -11.7218
-18.317 133.503 -3.85539
21.0114 95.8482 7.053
-18.4973 128.882 -6.1739
19.71 85.1661 1.04452
-18.1165 123.114 -8.66774
21.6505 88.2704 3.88006
22.3103 89.2105 4.79219
22.3563 88.9179 4.68294
-8.85007 96.9231 -14.3144
-10.4763 99.3636 -14.3651
21.117 94.4097 6.32904
-4.28801 140.477 9.55334
-1.71459 136.915 9.70767
16.6806 114.861 12.6789
16.6132 81.7011 -3.06417
18.0607 111.217 11.9359
18.1385 112.84 12.7587
16.3135 115.443 12.6407
3.78276 131.638 11.1316
-9.42225 145.988 8.20646
0.612285 135.292 10.442
-18.8781 133.766 -4.52305
15.9086 116.228 12.5516
-19.0287 130.416 -6.26262
5.51061 129.56 11.2406
20.3815 99.3589 7.81663
-2.97857 139.012 9.49554
21.1942 95.2852 6.46941
-19.4058 132.545 -5.66586
7.60527 78.9185 -11.3033
3.36784 132.706 11.0159
-18.0541 131.329 -5.2788
4.2019 81.0181 -12.8162
6.89982 79.2823 -11.6768
-14.8405 112.042 -12.0915
18.0883 85.3903 -0.722609
-23.1299 139.41 -5.295
-22.0629 130.893 -8.58204
18.105 111.158 11.4046
4.81328 81.0312 -12.5561
17.1522 84.4815 -1.9368
-18.5408 133.267 -4.9976
-22.6934 134.799 -7.34754
5.39359 130.498 11.105
-13.1063 148.443 6.07361
-16.3788 121.867 -8.88178
-17.1466 128.09 -6.50586
21.9423 90.545 4.28054
-6.61903 93.8019 -15.0561
-1.93036 87.1683 -14.7733
-22.5496 139.572 -5.06475
6.53714 128.948 11.1076
21.4088 95.1867 5.98825
18.31 108.736 10.1305
-17.2487 124.212 -8.51301
-14.7824 149.177 5.01508
8.08415 79.7092 -11.1374
-15.1311 149.229 4.77627
-6.08093 93.1484 -15.1366
5.95796 129.853 10.992
-22.3624 143.524 -3.24041
-15.2078 149.303 4.7096
20.3228 88.4453 1.87669
-18.9649 148.919 1.75939
-7.67828 145.456 8.36127
3.20053 82.8703 -13.3554
-16.2092 149.628 4.02555
-6.73995 143.989 8.27134
-17.7916 134.271 -4.40269
-18.4393 149.511 2.31189
0.420734 85.6578 -14.13
20.5492 89.559 2.4045
-15.3595 118.541 -10.1178
19.6258 87.749 0.860416
-10.512 147.142 6.92807
20.5811 101.495 8.04018
-16.8608 150.125 3.68167
4.91274 82.041 -12.6068
21.731 91.24 3.98585
12.7254 78.0405 -8.84038
-17.885 134.413 -4.54112
-3.385 89.9199 -15.042
-11.4795 148.083 6.53921
-13.1535 108.987 -13.1691
-20.2488 132.282 -7.34097
18.159 111.68 10.9469
21.6464 94.1014 5.17736
5.05782 82.1939 -12.5708
13.4827 123.464 13.0759
15.0731 120.859 12.978
13.6337 78.3511 -8.19469
-19.0033 133.601 -5.90731
13.6309 78.3663 -8.20385
9.73545 79.3499 -10.6265
2.75552 84.207 -13.4303
20.4535 89.869 2.12047
-22.1657 135.479 -7.43662
-16.9514 127.121 -7.6068
17.8339 86.2451 -1.58176
-10.6459 147.668 6.66038
7.49096 81.227 -11.5061
-16.4696 128.01 -6.91864
9.19184 80.0775 -10.8436
21.5138 96.9002 6.1012
-16.9517 127.009 -7.74737
14.685 78.2495 -7.71732
-9.78215 100.896 -14.8918
9.82732 79.6597 -10.6289
-15.721 120.796 -9.83888
-21.7586 138.763 -5.75683
16.3507 82.2216 -4.6724
-11.3503 148.425 6.38698
-7.58302 97.2234 -15.0731
-0.26332 86.7695 -14.672
-2.61377 89.3694 -15.1603
-20.1504 131.463 -8.06896
-20.1438 131.789 -7.92013
-6.89171 145.197 8.09088
0.570512 86.4767 -14.228
-11.5476 105.242 -14.2287
16.0026 118.305 12.0303
6.49171 130.211 10.709
-11.7174 106.634 -13.7381
-0.00404753 137.653 9.47189
14.8615 122.036 12.9165
17.4306 115.938 11.8858
-7.46079 97.3971 -15.0693
9.15187 80.566 -10.9078
-21.6138 144.185 -3.30002
-21.562 143.374 -3.64767
16.7697 83.6834 -3.88656
15.8336 81.1872 -5.75478
15.0952 78.387 -7.62483
-14.9845 115.536 -12.0235
-17.2484 133.862 -5.03171
-1.05697 87.9188 -14.9944
-19.8775 134.682 -6.66704
14.545 123.068 12.891
11.1144 125.749 11.6427
2.74094 85.7877 -13.3616
19.7995 88.84 0.53127
4.25381 83.8617 -13.1747
-20.9052 135.394 -7.22495
17.885 115.749 11.8033
12.9599 79.2802 -9.03667
-11.2604 148.882 6.17637
10.3796 126.238 11.2611
21.5374 96.8471 5.48356
16.1063 118.99 11.9668
21.4016 97.9505 5.8766
-16.9007 134.813 -4.70104
-17.5018 136.215 -4.5393
6.70737 130.714 10.5272
21.8939 94.8456 4.64444
-21.0988 143.309 -3.83174
14.1477 123.904 12.7224
-6.56545 145.45 7.75419
-19.2848 135.713 -6.13523
16.2266 118.933 11.8423
-3.89639 91.6838 -15.7496
-7.92309 99.5717 -14.9899
17.1374 85.8145 -3.21345
9.88053 126.822 10.8674
21.0495 93.4839 3.2425
-18.2756 149.21 0.853742
-8.50676 148.047 7.4337
-15.4551 150.962 3.67301
11.5501 125.905 11.5301
-20.5911 146.88 -2.04638
-16.4853 129.804 -7.12385
18.4423 110.694 9.32115
4.66611 84.563 -13.0891
-3.62859 91.7533 -15.7597
6.5362 83.1281 -12.437
0.195104 138.437 9.04067
7.12533 82.8845 -12.166
4.47616 84.8575 -13.1679
1.76815 137.587 9.77616
-16.1973 127.958 -7.91984
4.55231 84.8713 -13.1418
-20.351 137.353 -6.5172
5.16791 84.3707 -12.9426
-15.7662 128.987 -7.14538
7.02146 130.814 10.3151
-2.89963 91.4255 -15.6018
15.8519 121.32 12.1635
-17.9966 139.268 -4.07863
17.3159 86.509 -3.27713
-20.479 137.808 -6.61885
16.4611 84.8617 -4.70353
18.519 112.145 9.6921
-13.4045 114.086 -12.7231
-19.8293 138.984 -5.64786
-18.1697 148.907 0.235688
-0.836696 140.146 8.72467
-15.1963 128.606 -7.22268
11.0502 81.352 -10.5027
15.9116 82.4274 -6.4565
18.4455 110.562 8.66924
-20.1205 146.224 -2.65745
-10.3189 149.186 5.89533
20.1593 91.124 0.683866
8.35209 129.161 10.0206
-16.3856 131.292 -7.03541
-19.9795 146.775 -2.35485
-5.38852 96.2949 -15.579
20.2972 92.1207 1.18619
-11.3441 149.426 5.14147
14.4339 124.737 12.2644
-12.6406 113.271 -12.9427
-9.85467 104.594 -15.0607
-17.072 138.581 -4.28954
15.9032 83.1154 -6.4366
-2.21046 142.905 8.58969
19.1826 115.207 11.1026
-9.81802 149.181 5.971
-0.0744086 139.654 8.55751
-19.8039 146.097 -2.85685
-12.0789 112.388 -13.1662
20.1503 104.673 6.68144
-15.6623 151.034 2.44802
-7.13138 100.321 -15.3354
2.90804 87.6049 -14.0189
-5.86286 98.4763 -15.2837
8.27151 129.863 9.84697
16.6557 119.789 11.1989
-17.8303 140.183 -4.3623
4.81285 86.6831 -13.1264
19.7289 106.835 7.26643
-18.3924 141.142 -4.35393
-18.4148 142.966 -3.52736
15.6355 82.7204 -7.15616
15.1316 80.5307 -8.57457
-14.7626 128.062 -7.94975
6.5903 132.722 9.83212
-14.675 123.471 -10.0731
-13.0347 115.056 -12.8686
15.6017 82.7528 -7.23873
21.1001 95.2264 2.66824
-17.5989 141.795 -3.61876
3.83718 136.227 9.38432
-14.0962 118.886 -11.9191
17.4487 87.3699 -3.79515
11.6731 127.004 10.7082
-15.0798 129.456 -7.69126
-5.76048 99.1065 -15.2393
-11.6619 112.388 -13.2982
18.3128 89.0566 -2.45085
-14.6201 126.082 -9.00359
-19.3816 143.915 -4.06088
19.9954 105.228 6.39184
-10.0669 107.602 -14.4331
16.8023 119.978 11.0194
14.0616 125.917 11.8194
-17.4252 138.08 -5.43053
-10.5977 149.642 4.96469
-14.7261 151.41 2.77397
17.8541 88.4433 -3.20996
-15.2262 133.965 -5.84895
-14.0967 151.591 3.2615
10.0045 128.415 9.89141
-0.777218 91.2256 -15.5584
-1.41764 142.806 8.34329
16.9748 119.803 10.879
-11.8154 150.354 4.30324
-5.73697 146.466 6.898
-12.5074 151.424 4.2682
-15.169 133.076 -6.35515
-12.4506 151.462 4.2702
-0.757498 91.4324 -15.5952
-14.988 132.329 -6.65289
19.8418 107.165 6.84538
-9.82305 107.827 -14.5407
-4.46259 145.426 7.11234
21.1703 96.3611 2.62029
20.6302 94.6761 1.40957
-8.94788 105.058 -15.2767
10.7506 83.3401 -11.1772
19.18 90.6751 -1.59943
21.1408 96.7677 2.69731
3.9363 88.4024 -13.8238
21.1375 96.2627 2.44403
17.4742 87.7914 -4.25821
-14.3779 130.709 -7.24087
-18.1148 148.642 -1.51385
16.7726 86.506 -5.43078
8.24531 131.169 9.43773
-13.6708 120.29 -11.7546
-12.287 115.292 -13.1184
8.11571 85.7598 -12.2085
-3.8782 96.2586 -16.0105
13.6497 126.607 11.1198
15.8219 85.3393 -6.81142
20.8697 95.5087 1.66622
-2.38103 93.8287 -16.1292
-11.9056 151.745 4.28847
-16.4234 141.827 -3.74402
-13.0847 125.312 -9.13858
14.6792 126.271 11.5717
-14.3513 131.417 -7.19874
-12.115 115.358 -13.1804
7.80872 132.353 9.36027
-4.26122 97.3949 -16.0476
20.0436 106.47 5.98171
1.05251 91.0471 -15.1845
-10.1232 110.437 -14.1777
10.8357 84.0628 -11.3459
-8.77228 106.117 -15.2631
10.0382 84.4531 -11.7858
19.4338 117.105 10.5033
-16.8063 144.717 -2.91747
-14.3942 131.239 -7.58533
1.21695 140.929 8.38759
14.6008 82.4551 -9.5055
16.4387 123.686 11.3113
-17.6695 148.795 -1.75729
17.4958 88.925 -4.39401
9.15015 85.6127 -12.0545
15.3246 126.258 11.6646
-2.75753 144.826 7.24181
-0.459322 92.6761 -15.7583
10.3276 84.6692 -11.6959
-9.21844 108.264 -14.8146
6.92861 133.741 9.0044
16.6357 87.2858 -5.87988
-0.646289 92.9037 -15.8463
20.3419 95.3243 0.606813
14.9411 126.501 11.3934
0.137748 92.3823 -15.5471
3.58756 138.979 8.9819
-1.55934 93.9145 -16.0788
-15.5065 136.491 -6.13937
19.1144 116.41 9.61919
19.0587 116.785 9.74039
19.1268 104.096 3.78783
16.7584 122.382 10.6919
-12.8083 119.869 -12.0854
-16.1503 142.418 -3.87611
-5.88204 101.415 -15.8383
-17.2098 149.007 -1.63463
-14.521 130.114 -8.64151
-11.9707 125.097 -9.15775
-0.0259252 142.8 7.90697
-14.5151 151.393 1.37362
1.39012 92.0854 -15.1025
16.2082 86.9221 -6.72774
-16.3302 141.16 -4.85356
-14.6707 151.211 1.09127
7.75448 133.259 8.94257
-15.4247 137.599 -5.92713
-12.4694 121.743 -11.3447
-11.5758 116.143 -13.3583
16.754 89.3918 -5.36604
19.2192 93.1233 -1.82612
-0.826407 94.2232 -15.9828
-16.2446 149.49 -1.12935
11.6362 128.826 9.45174
17.8874 91.7749 -3.4999
6.66333 134.925 8.70112
20.1965 100.307 2.21605
-11.7191 126.303 -8.80074
6.35765 136.043 8.97336
14.7478 127.172 10.8995
-14.2389 132.217 -7.87588
-15.7797 149.944 -0.627724
19.3722 117.796 9.83175
17.3281 121.82 10.2322
18.8415 103.749 2.79355
-11.8435 126.944 -8.64648
17.7662 91.9153 -3.61373
18.9961 117.285 9.23568
3.19586 140.434 8.63749
-11.2442 124.039 -9.67042
-14.5366 130.85 -8.88915
-11.1902 123.995 -9.69236
16.2729 88.9824 -6.20597
1.73677 92.7494 -15.0822
-10.8436 115.301 -13.6059
-10.784 115.258 -13.6234
15.5951 86.6713 -7.88215
18.3828 93.5267 -2.6297
19.3133 111.706 6.6235
11.4031 129.223 9.1185
-10.9803 122.373 -10.4607
16.612 90.4116 -5.44564
-10.4395 114.771 -13.6831
19.3329 106.259 4.02222
-16.2635 144.866 -3.73464
-11.3539 117.01 -13.3193
-14.5845 130.685 -9.22132
17.6474 93.2362 -3.40435
-3.89761 99.9917 -15.9676
9.92276 86.9168 -12.0846
20.276 98.5058 0.927503
19.2483 117.987 9.3697
15.6375 87.3407 -7.77883
16.879 125.21 11.0094
-11.1684 126.718 -8.76963
19.9355 100.727 1.61964
-14.4727 131.271 -9.06799
-14.3705 135.904 -6.81135
3.95043 91.32 -14.514
17.7187 121.699 9.86198
9.23461 87.6927 -12.4199
-11.3014 118.463 -12.8812
19.9157 110.225 5.92294
17.4063 93.759 -3.7119
-3.35788 99.4893 -16.1677
19.7541 113.806 7.45901
-10.1482 115.173 -13.7871
-11.1656 119.284 -12.6162
19.8864 107.626 4.49521
18.255 121.052 9.64864
18.5743 103.474 1.56275
9.54343 87.9735 -12.3795
17.4096 123.727 10.256
1.21338 94.7657 -15.2698
15.9998 89.464 -7.01936
20.0249 110.234 5.73635
13.604 86.2764 -10.2767
13.9668 128.373 9.86185
-9.59089 114.519 -13.8867
-10.8131 127.285 -8.75394
19.9063 109.591 5.27361
-7.61298 108.177 -15.4905
-8.0525 110.6 -14.6808
19.549 97.6473 -0.744129
-3.23001 146.705 5.80116
18.7146 101.898 0.637458
14.2575 86.6403 -9.83012
19.5542 119.465 9.49794
13.0065 87.0317 -10.6625
9.85059 88.3786 -12.3608
16.7336 92.6849 -5.32766
17.2395 94.7359 -3.99456
-13.2821 151.788 0.677442
19.5465 108.192 4.03067
-8.73127 112.705 -14.4936
-0.218019 145.383 7.1652
17.0397 94.736 -4.1864
-5.02696 103.668 -16.1044
-9.08251 114.013 -14.1883
14.5303 128.599 9.91854
7.78557 89.984 -13.2581
-13.4756 135.036 -7.49402
2.03237 94.799 -15.2153
18.3285 117.108 7.21874
4.98519 92.3572 -14.2699
-10.3266 118.318 -13.1813
19.4192 107.161 3.25101
16.4528 91.3591 -6.44028
-15.8029 143.113 -5.53761
5.20116 139.7 8.18023
4.0078 93.0423 -14.7603
3.4348 141.843 7.88719
19.3625 107.814 3.42667
1.17717 143.994 7.24297
16.3894 127.806 10.6815
-5.30412 105.035 -15.938
19.7397 99.8681 -0.12616
18.3929 101.627 -0.29221
19.2027 100.526 -0.254511
19.1521 106.186 2.35594
8.39637 134.731 7.92994
-9.35835 125.774 -9.30479
-13.4629 135.668 -7.6255
14.1049 88.295 -9.90163
-4.89893 104.574 -16.0966
11.4882 130.869 8.27346
10.8267 88.8822 -12.0625
15.7802 128.587 10.2999
19.445 119.418 8.63128
12.904 88.4472 -10.7848
7.08525 91.4376 -13.6587
-9.85766 127.676 -8.92145
15.9959 90.3178 -7.71547
-13.4015 134.297 -8.38785
16.3655 91.3846 -6.96868
16.5007 95.6547 -4.88123
-0.710486 98.5767 -16.1028
16.3593 91.6138 -6.99755
-13.1875 131.431 -9.75863
13.8879 89.2578 -9.96227
19.8726 113.905 6.03531
9.36954 133.719 7.69484
10.6195 89.6419 -12.2352
18.2529 103.873 0.0501479
-5.32319 106.384 -16.0509
18.3843 117.594 6.54756
18.7437 114.695 5.4073
-14.5695 145.835 -4.28764
19.5591 121.1 8.93253
-13.0366 132.445 -9.51283
12.9188 90.0826 -10.6469
-8.38485 121.724 -11.2446
13.3842 90.2039 -10.3039
-7.73674 113.923 -14.6087
7.98438 91.8724 -13.5743
-14.4486 140.398 -7.03708
-8.8689 117.315 -13.8944
-14.0001 139.304 -7.26045
-4.23549 105.282 -16.2153
18.5606 106.367 0.914702
1.3035 145.983 7.03726
-5.49328 107.415 -16.1571
18.7825 98.891 -2.50821
-12.6579 151.51 -0.604573
-13.7749 150.557 -1.87607
-13.732 137.125 -8.19632
-2.54933 102.253 -16.5394
18.469 118.024 6.24201
11.1563 132.239 7.61735
18.2354 97.7727 -3.51473
-4.95655 106.885 -16.1378
9.45133 91.4006 -12.9698
18.0927 104.16 -0.710251
15.4585 95.8535 -6.63748
-5.97881 109.365 -15.8999
-5.84861 108.904 -16.038
17.9834 125.307 9.06096
2.15576 145.535 7.05269
8.50659 92.3837 -13.4575
-7.42199 122.609 -10.8146
-8.20294 119.752 -12.7379
5.93661 140.458 7.36463
-8.28943 119.29 -13.041
15.0827 93.0122 -8.43419
-7.48786 121.89 -11.288
18.0599 98.1746 -3.86423
18.0422 116.708 4.86666
9.04502 135.47 7.15649
19.2565 121.919 8.20118
-13.488 142.595 -5.92854
8.29781 92.807 -13.5866
19.6662 113.333 4.41356
3.88535 97.2527 -14.7376
17.429 104.009 -1.69667
16.5427 128.774 9.34457
14.8007 95.5424 -7.64374
14.4704 93.203 -9.02352
-8.36465 127.381 -9.55118
18.0239 105.069 -0.881618
13.8896 91.858 -10.1483
10.0513 92.2105 -12.8005
-10.5229 131.499 -9.25935
6.61024 94.4698 -14.2614
10.0631 134.324 7.09331
-7.67691 120.061 -12.6059
-7.93943 118.134 -13.7214
0.450834 100.528 -15.9337
16.5854 128.992 9.265
6.07109 95.5458 -14.2393
6.3291 95.2658 -14.2124
4.49897 142.934 6.94799
6.81124 139.527 7.01789
11.4307 92.5897 -11.8048
-8.55932 128.052 -9.64806
7.53779 138.197 6.83768
3.24996 145.091 6.95732
18.5493 121.524 6.97601
15.2831 97.0663 -6.987
17.8825 106.895 -0.459093
-5.47145 111.088 -15.5463
-8.00668 127.14 -9.8288
2.50471 99.7783 -15.1078
-13.6217 149.197 -3.56394
7.30919 94.6717 -14.0724
11.0959 133.409 6.99848
15.9769 98.0525 -6.15508
17.0471 127.095 8.34826
11.4632 93.4824 -11.66
-7.26988 116.781 -14.3261
17.508 117.073 3.89753
4.23118 143.905 6.8766
11.7273 93.6882 -11.4038
2.75167 100.119 -14.9287
-9.77291 131.148 -9.41564
-12.0327 151.472 -1.51555
0.576013 101.411 -15.9869
-8.56946 129.316 -9.47797
10.1605 93.4431 -12.7964
14.2876 96.7951 -8.24398
9.58718 93.7181 -13.1572
-1.73143 103.97 -16.5961
12.0126 132.824 7.07064
16.7173 99.3482 -5.33152
2.78119 146.218 6.64242
7.25977 95.7243 -13.9581
12.8943 132.188 7.34483
-11.091 132.842 -9.86666
-10.6501 152.699 -0.177452
18.3641 114.555 2.95818
11.655 133.293 6.91302
13.2835 94.2309 -10.3715
11.5772 94.5106 -11.4871
-10.8774 152.472 -0.485779
18.3023 118.658 4.80806
-6.69481 118.859 -13.3671
14.458 98.5848 -7.53487
14.2499 97.6515 -8.15347
-11.7098 139.734 -7.28135
-10.0422 153.034 0.21677
7.8854 95.5422 -13.8821
17.9881 109.841 0.246374
8.08397 138.381 6.48987
6.00595 98.365 -14.0088
-11.9996 135.397 -9.70506
17.7749 120.696 5.02703
17.388 107.856 -1.33337
12.9438 132.978 7.27219
0.281441 103.058 -16.1251
-12.5923 148.586 -4.02471
6.94771 97.4349 -13.9584
-12.5727 150.789 -3.02918
-8.7545 153.984 1.25771
7.18651 140.905 6.65869
-5.88618 124.518 -10.6443
19.0629 124.078 7.35282
8.86466 95.9563 -13.418
16.4255 100.273 -5.8703
13.7472 95.8727 -9.91054
17.4239 117.449 2.9401
-11.4173 134.101 -10.272
4.92032 144.569 6.55704
19.0695 113.374 2.0906
16.9734 128.06 7.48183
13.9647 98.3992 -8.74071
-0.835267 105.034 -16.4195
11.7877 134.199 6.57485
10.1932 96.4974 -12.4103
-0.398385 104.575 -16.3685
-11.6214 134.885 -10.2634
-2.20955 106.921 -16.6248
11.9182 95.9853 -11.512
-8.46884 154.087 1.06336
1.4264 103.684 -15.5762
-5.24087 124.244 -10.773
10.3324 135.949 6.08712
17.7163 110.013 -0.794838
4.56677 101.875 -14.2905
-9.51362 153.161 -0.329732
9.61539 136.95 5.9473
-12.0266 144.604 -6.23773
-7.75304 129.961 -10.0969
16.3934 116.747 1.27099
1.18206 104.372 -15.7017
-0.660534 105.775 -16.4081
16.9082 128.933 7.36056
18.7139 111.732 0.537064
-3.31079 109.583 -16.5676
17.6079 119.597 3.43414
7.38244 141.958 6.53744
1.65067 104.652 -15.2869
16.1823 100.625 -6.59436
17.5911 117.842 2.56346
-10.4976 152.24 -1.68301
12.4963 134.735 6.81962
15.3445 132.458 7.77913
-9.83618 133.232 -10.2587
8.91778 138.562 5.94478
-4.56622 119.529 -12.9244
17.5745 119.394 3.16834
8.82673 97.8621 -13.3998
18.9176 124.403 6.49659
18.4261 114.358 1.38765
17.7867 115.092 1.22142
7.00501 142.68 6.39115
8.68543 139.28 5.95405
17.2872 109.801 -1.73441
5.64556 101.281 -14.2654
-10.2228 134.089 -10.3536
-2.58985 109.016 -16.6349
17.3661 120.108 3.07842
18.5736 111.722 -0.00502875
7.95304 141.365 6.23527
17.3875 118.459 2.26727
3.67887 146.959 5.70233
3.34041 104.437 -14.6455
-4.64889 117.15 -14.5118
9.05668 138.941 5.78907
6.42812 143.897 6.20126
-3.87389 114.778 -15.1021
-3.84821 114.593 -15.1872
-1.92299 108.914 -16.5978
5.23188 145.797 6.05485
18.0688 121.69 3.97231
-8.62333 153.459 -0.518228
17.7994 127.097 6.25868
0.738149 106.952 -15.7552
18.9536 123.2 5.19704
15.7087 104.007 -6.27413
-5.84729 126.377 -11.4933
-11.2734 146.76 -5.87954
-8.7202 141.019 -6.73265
7.39739 100.585 -14.1277
-9.1014 152.288 -1.74612
4.98699 146.582 5.83635
16.7821 109.649 -3.02712
17.1781 110.154 -2.51437
0.243507 107.419 -16.1706
-9.64578 151.895 -2.36953
-9.33365 143.396 -6.16537
-3.71662 117.596 -14.3287
-3.66838 119.388 -13.4752
5.35365 103.367 -14.4788
-2.8662 112.028 -16.3899
3.12063 106.138 -14.8493
10.243 99.8046 -12.6498
18.7669 113.386 -0.0558745
-11.0281 149.164 -4.9101
3.55647 105.68 -14.8324
15.0109 101.808 -8.31836
5.96405 102.924 -14.4425
11.2568 137.707 5.85732
15.7268 101.807 -7.85923
16.5558 107.996 -4.33115
-7.96416 133.894 -9.99027
17.4238 128.909 6.17705
18.74 126.313 5.89497
15.3153 117.181 -0.93492
16.2657 133.421 7.32518
6.24563 102.955 -14.4293
-7.50821 153.937 -0.389723
18.3688 122.188 3.47057
-9.13514 135.295 -10.4584
-7.84221 135.043 -9.72413
14.03 135.784 6.58206
8.45985 142.175 5.4929
-6.79923 134.519 -9.27523
16.506 132.769 6.8066
16.5425 132.421 6.52393
18.3962 114.03 -0.858248
-4.79929 126.774 -11.7695
-4.96682 131.174 -9.83381
-7.53142 140.271 -7.41139
15.438 103.856 -7.8715
-7.28913 142.799 -6.08156
-2.30966 115.872 -15.2211
11.4444 100.88 -12.2881
-7.03361 135.559 -9.38591
7.06981 103.206 -14.4007
16.2633 107.134 -5.84196
8.94282 141.622 5.10105
-1.53236 111.943 -16.5806
16.4998 109.965 -4.41055
-8.7666 151.285 -3.35501
16.4074 107.611 -5.65779
-7.19439 136.036 -9.49955
-6.75847 135.853 -9.29391
14.8771 103.025 -9.05566
12.0778 102.695 -11.2644
-6.93565 153.457 -1.19423
7.84574 144.176 5.2069
15.5256 116.655 -2.19686
-4.78386 131.628 -9.96004
18.1788 129.884 5.94917
-1.12058 112.126 -16.5704
14.7306 103.159 -9.24016
-4.88345 134.002 -9.00465
-6.48868 136.075 -9.19755
6.49926 104.999 -14.408
3.58713 108.84 -14.737
10.2585 102.149 -13.1155
-2.91626 123.076 -12.8548
15.2608 103.301 -8.93457
14.9751 103.309 -9.15777
11.3919 102.015 -12.4119
5.96336 105.851 -14.5668
1.08876 112.548 -14.9745
13.3156 137.541 5.75967
11.4329 102.127 -12.3752
16.992 115 -2.26843
15.5402 135.004 6.10768
0.930199 112.724 -15.0942
17.5386 114.593 -2.08979
2.12873 112.406 -14.4111
15.0752 103.518 -9.18282
-9.14237 147.233 -6.22561
-7.41845 137.561 -9.57314
10.8584 139.676 4.75649
7.91922 104.362 -14.0836
-0.832182 112.794 -16.5765
-8.72658 146.961 -6.20136
-5.7272 142.239 -6.24676
-6.58725 140.524 -7.69044
11.8443 139.599 5.31835
10.241 104.079 -12.6998
-6.11637 141.406 -7.01727
-1.00233 113.242 -16.6138
6.66887 147.282 5.07282
6.20131 107.037 -14.3049
-0.129387 113.472 -15.9234
10.4359 104.455 -12.4807
-8.90506 148.782 -5.65882
16.1568 109.959 -5.76647
6.19611 107.538 -14.1971
8.85179 143.275 4.60779
14.1175 136.694 5.33093
14.9058 136.118 5.58289
10.9835 104.581 -12.1987
17.5841 112.167 -3.83253
13.9614 104.273 -10.2183
0.837162 114.341 -15.0622
12.658 104.159 -11.2497
18.9717 126.356 3.83795
-4.07541 134.627 -9.09372
-7.51647 146.277 -6.11015
9.55875 107.109 -12.2019
-4.24127 132.505 -10.2945
4.28153 111.549 -13.9839
-8.2323 149.441 -5.22113
-1.90194 120.254 -14.4063
18.191 127.794 3.77942
0.191561 114.664 -15.5739
-0.9842 114.825 -16.3571
14.7806 104.681 -9.6569
0.0485911 114.749 -15.6838
13.9766 104.63 -10.3593
9.54329 142.418 4.25256
-7.79163 148.453 -5.58527
8.52949 107.317 -13.1161
-7.71555 147.819 -5.84711
-1.71689 120.161 -14.5489
-5.76217 146.17 -5.21276
18.5283 127.084 3.48604
13.6665 104.798 -10.6314
-7.5887 148.173 -5.67264
13.4239 139.225 5.40147
4.46998 112.813 -13.6251
19.1233 121.519 1.14594
17.0239 112.054 -4.86598
18.8475 128.856 4.29299
-7.19217 150.611 -4.45542
18.0765 130.582 4.47801
-3.0213 129.984 -11.2061
-3.53186 134.83 -9.2908
5.92211 110.946 -13.7946
6.68896 109.776 -13.8535
-0.739041 118.056 -15.4343
18.2967 121.001 -0.14999
16.4598 134.863 5.04174
14.1644 106.14 -10.229
16.8495 112.394 -5.33867
5.59654 112.17 -13.6647
11.8792 107.926 -11.1186
-5.11391 147.831 -4.68619
11.7631 108.579 -10.9462
-4.94742 147.983 -4.53647
11.4548 109.058 -10.9632
6.91335 109.98 -13.8444
12.4734 140.911 4.82362
-2.53969 137.569 -7.72022
15.2435 136.573 4.73826
-2.64748 128.974 -11.9262
-6.10446 150.387 -4.34507
-4.33874 148.421 -3.99242
0.58046 117.061 -15.2266
-4.60639 149.668 -3.74648
-4.07539 145.414 -5.38346
-4.9232 150.49 -3.61715
-4.06659 149.92 -3.26895
11.0445 142.001 4.01177
19.5871 125.34 2.35038
5.05993 114.646 -13.3258
19.1767 128.769 3.61896
18.4932 121.18 -0.468146
-3.78015 148.197 -3.97504
15.8448 108.166 -8.57852
19.6453 125.473 2.32193
2.70482 117.167 -13.9882
19.6846 125.385 2.28849
14.1109 138.777 4.53113
17.0683 119.516 -2.42054
-3.88988 150.283 -3.19852
7.88143 110.324 -13.5014
-1.07862 122.746 -14.1709
16.511 115.241 -4.90143
4.85145 115.453 -13.322
13.9103 108.87 -9.84819
13.2641 109.469 -10.0596
3.55497 116.907 -13.6413
8.6511 146.657 4.13034
-0.902313 121.654 -14.7093
13.8541 109.194 -9.8412
-1.78387 139.587 -6.9158
7.31531 150.142 4.64259
15.8174 108.69 -8.78254
17.3148 129.745 2.20132
-3.53769 144.593 -6.03709
16.0664 112.417 -6.95525
8.73902 111.634 -12.6759
14.8089 117.74 -5.39461
17.3553 131.404 2.90285
15.891 115.797 -5.55261
14.1164 109.777 -9.69998
-0.191153 120.113 -15.2817
15.0945 116.675 -5.79207
12.3596 110.734 -10.6033
14.4817 139.397 4.34406
6.81539 113.066 -13.7333
-0.336356 123.23 -14.1587
-2.90145 146.817 -4.89745
11.4318 142.56 3.49114
10.2879 111.763 -11.9403
17.7542 120.481 -2.47148
-1.91109 142.974 -6.25481
-1.37232 142.09 -6.30496
-2.59268 145.297 -5.69269
-3.05439 152.484 -2.6336
11.0892 111.675 -11.6085
7.78696 151.224 4.61037
-2.26233 145.162 -5.64725
15.7113 136.224 3.2171
14.4886 120.377 -5.16685
-2.64601 151.39 -3.02205
-0.894683 141.072 -6.63579
-2.19501 133.316 -11.2708
-1.73897 130.197 -12.428
-0.743667 140.169 -7.0021
-1.45768 143.426 -5.99264
7.5724 113.224 -13.6822
-1.65988 129.339 -12.8146
-2.03532 147.602 -4.45701
-1.99956 147.681 -4.40608
12.0577 111.858 -11.0779
18.0226 126.548 0.202212
-2.0748 147.123 -4.78997
10.259 146.635 3.9327
17.1739 127.84 0.0847064
17.4508 131.167 1.83753
14.9949 117.676 -6.37711
17.162 120.707 -3.40068
-2.26165 152.034 -2.80372
12.5078 112.096 -10.9103
-0.659986 137.632 -8.48621
0.577294 123.353 -14.3456
6.09712 117.037 -13.3161
9.75078 148.596 4.22061
-0.356158 138.621 -7.87919
-1.76177 148.295 -4.3325
17.8157 131.905 2.19788
-1.59043 132.284 -11.7903
17.1747 120.898 -3.51672
7.26388 114.885 -13.6125
2.24203 120.921 -14.431
18.6451 129.03 1.3539
14.9331 118.274 -6.48095
18.5757 121.952 -2.12432
1.43494 121.113 -15.0578
-1.60762 148.568 -4.31149
20.1095 126.59 1.08372
17.6966 121.406 -3.14677
-1.84491 151.334 -3.28755
17.6107 134.463 2.92713
14.7855 117.457 -7.19697
12.7938 142.716 3.28118
9.32159 113.907 -12.9194
16.0217 111.629 -9.12232
8.19088 152.637 4.54326
14.5373 119.903 -6.30418
-0.0343466 142.62 -6.22069
-0.851376 128.829 -13.3465
-1.66808 153.877 -2.18672
3.34927 120.693 -14.2163
17.6463 133.275 2.12844
9.12123 150.951 4.25734
12.0791 113.152 -11.4743
14.8212 112.376 -9.84183
19.1185 128.241 0.793737
19.9864 127.865 1.2219
13.1233 112.88 -10.8797
20.3873 125.758 0.465425
10.5212 149.541 4.47529
-1.21165 133.284 -11.8151
14.4563 121.125 -6.14595
18.4912 127.584 -0.189402
10.8981 149.058 4.41267
3.73762 120.561 -14.2875
-0.334291 134.81 -10.5287
17.6725 128.366 -0.443699
11.4204 147.681 4.1216
15.0046 121.912 -5.44365
19.9308 123.543 -1.10685
12.2283 145.866 3.7393
15.7408 139.644 3.32148
19.3722 124.087 -1.38407
11.9384 116.144 -10.6685
-0.933188 153.497 -2.48161
17.3931 137.458 3.29198
13.9857 142.414 3.13867
19.9599 126.823 0.0742535
8.72811 152.851 4.16798
-0.201343 134.212 -11.1679
-0.891658 152.404 -3.07538
18.1618 123.684 -2.74317
0.415063 128.531 -13.4319
15.1582 122.299 -5.61859
-0.591545 133.288 -11.9609
15.1687 113.782 -9.68765
5.9326 123.873 -11.6957
0.694209 127.635 -13.7545
12.5294 147.335 4.16515
0.890926 140.293 -7.66889
4.27377 121.575 -14.0889
0.02252 147.022 -5.18136
4.60946 121.601 -13.8589
13.3961 145.274 3.74437
19.2606 132.649 2.05506
0.813011 127.867 -13.6798
16.2914 116.41 -7.80608
14.2871 142.725 3.15812
6.78091 122.777 -11.8296
17.4899 138.153 3.23571
5.7682 124.707 -11.678
14.4419 122.823 -6.26286
16.2293 115.112 -8.61537
16.2765 122.364 -5.16178
17.2114 138.438 3.08961
1.59603 125.976 -14.216
9.72371 119.457 -11.4187
19.1339 133.509 2.08729
19.1995 124.478 -2.13925
6.54486 121.051 -13.0322
17.6715 128.624 -1.33667
4.08742 124.205 -13.3518
2.29299 124.279 -14.6336
16.2941 128.463 -2.45158
19.7502 130.944 1.22381
4.23877 125.368 -12.7516
16.9861 138.884 2.93478
14.3587 144.632 3.70887
5.78055 125.959 -11.3884
0.532049 134.208 -11.3276
6.10674 126.139 -11.089
13.4648 116.712 -10.1979
16.8347 123.241 -4.65575
18.8633 134.382 2.08175
3.55668 124.319 -13.8572
2.55084 129.051 -12.3652
1.32149 144.596 -5.91928
1.96042 128.011 -13.3373
13.3971 117.106 -10.1439
2.01755 127.953 -13.3346
3.57488 129.371 -11.5644
16.5447 123.109 -5.06859
14.4801 122.82 -6.72929
18.0911 127.788 -1.76288
3.52453 125.832 -13.3353
12.6232 149.032 4.25148
2.58413 126.277 -13.8348
15.1935 115.928 -9.60037
3.22471 125.926 -13.6145
16.4531 140.262 2.79348
15.3253 142.099 2.82835
18.3944 128.37 -1.42299
18.0701 136.643 2.24985
5.88135 127.589 -10.9278
7.71405 122.521 -12.0293
23.6192 125.777 1.08838
14.6428 122.196 -7.17601
7.59674 121.931 -12.451
0.766977 132.163 -12.6245
0.12862 151.99 -3.72014
18.699 128.312 -1.38458
15.8822 127.158 -3.99034
11.8435 119.093 -10.7937
20.1712 133.905 2.22321
22.1763 128.435 1.0975
14.6402 122.27 -7.33018
15.9197 129.144 -3.16357
17.4082 130.444 -1.47006
16.8936 129.6 -2.24742
23.4269 126.931 1.2241
3.54219 130.47 -11.6334
14.7591 123.599 -6.73343
1.40101 135.557 -10.8326
19.2639 125.2 -2.70241
15.7267 145.669 4.38366
21.7499 128.815 0.776228
17.2734 129.82 -2.01648
8.44471 124.231 -11.1269
15.8227 143.747 3.45802
16.1871 126.715 -4.34488
23.7099 126.586 1.06619
20.8443 130.011 0.577441
24.0897 125.442 0.767299
15.7644 129.543 -3.38002
16.2951 124.193 -5.59544
4.88254 130.467 -10.9726
14.204 117.904 -10.1461
18.6756 125.265 -3.47483
15.3833 127.726 -4.72086
23.6377 124.96 -0.00282517
23.7739 124.903 -0.0141363
19.1635 124.267 -3.68118
18.1298 128.798 -2.36301
16.4872 145.277 4.20945
18.7375 125.4 -3.54538
1.0185 151.075 -4.37861
14.2502 121.161 -8.94066
2.30163 141.546 -8.079
1.66711 133.502 -12.3556
17.8638 130.576 -1.92806
14.22 121.16 -9.06833
3.27459 132.301 -11.8217
23.7979 127.317 0.784025
20.5563 136.093 2.55263
6.65488 128.52 -11.2084
2.4584 146.966 -5.61545
15.3339 147.929 4.16114
19.2815 124.013 -4.28192
1.79863 149.875 -4.85882
24.5103 125.699 0.230313
8.5456 154.846 2.29988
3.4255 154.878 -1.46123
2.07248 134.412 -12.1479
3.85295 133.358 -11.3673
19.3015 123.914 -4.59678
3.09753 145.318 -6.31194
2.79353 153.584 -2.63785
14.8841 129.368 -5.274
11.6748 122.069 -11.0709
4.64918 132.548 -11.2571
24.6746 125.143 -0.167006
3.41821 154.53 -1.79439
7.98228 126.359 -11.7852
4.61683 132.788 -11.2164
15.6917 127.025 -5.87954
24.3315 126.988 0.397013
11.174 151.787 2.50789
3.36584 144.49 -6.69202
3.38771 134.308 -11.4911
21.1926 124.835 -3.03455
2.64223 140.857 -9.01482
12.0873 121.845 -11.1262
9.42519 124.987 -11.5924
19.3328 139.453 2.41787
13.9173 149.261 3.05721
14.798 128.368 -6.20386
16.4826 126.09 -6.08862
14.5869 122.474 -9.20661
14.8776 123.034 -8.76157
6.64222 155.28 0.462622
16.3546 147.819 4.01133
8.9835 125.53 -11.9546
6.09612 131.062 -11.4529
12.9854 150.264 2.59778
19.8778 142.857 4.09303
15.8744 148.091 3.60339
12.7152 121.323 -11.3705
20.8295 123.728 -4.32393
3.54032 153.249 -3.03439
19.1919 144.218 4.09475
3.6608 146.34 -6.27728
2.72976 150.552 -5.00835
21.0614 123.143 -4.61183
17.59 132.13 -2.90525
23.5698 130.546 0.691542
4.08812 135.375 -11.321
3.46139 148.346 -5.71201
8.93449 126.292 -12.1504
3.34808 141.321 -9.14944
3.86067 146.689 -6.28372
15.2691 126.03 -7.72955
6.20972 155.086 -0.616532
4.42143 153.324 -2.79331
13.5009 150.167 2.33741
14.5673 128.966 -6.92357
3.59789 141.887 -8.83653
19.2971 127.609 -4.1361
20.2 140.746 2.64205
3.19577 151.371 -4.76833
18.5375 128.768 -4.26326
3.15627 151.152 -4.9327
5.12724 153.526 -2.41554
20.7701 138.849 2.06364
14.8588 128.587 -7.10285
7.89078 129.3 -11.897
19.3765 127.347 -4.45475
17.3387 132.067 -3.7212
6.42396 131.976 -11.7345
3.91872 142.39 -8.64468
13.0394 122.155 -11.6161
17.4433 131.076 -4.22524
17.3199 130.555 -4.56783
3.32162 139.778 -10.4274
21.0766 123.609 -5.1577
19.3247 122.691 -6.89802
20.2472 143.704 3.69164
4.11034 136.76 -11.3742
4.47769 136.24 -11.3637
14.5804 130.988 -6.48657
13.4416 121.612 -11.7501
4.22357 152.556 -3.86804
18.0401 129.267 -4.87661
7.46267 154.337 -0.749332
19.1203 127.321 -5.01233
4.02673 149.122 -5.73506
25.275 125.535 -1.48378
3.79481 140.768 -9.97835
4.37939 136.857 -11.4156
15.5392 127.059 -7.90638
18.659 127.342 -5.51602
16.0805 130.713 -5.81154
15.4679 127.481 -7.79714
18.5715 122.133 -8.14227
14.7701 126.447 -8.89842
5.01005 135.86 -11.5863
11.5026 152.564 1.02532
9.18206 154.381 0.125238
23.02 132.817 -0.0325938
18.1137 124.048 -7.78591
23.4725 129.75 -1.24616
15.4427 127.782 -8.07907
6.88419 153.512 -2.18089
8.7318 154.244 -0.496149
22.0365 139.578 2.26048
23.8875 125.471 -3.07057
14.4298 124.41 -10.5034
14.7423 133.1 -6.18224
5.19576 144.097 -7.95746
10.3986 126.608 -12.4891
17.0396 127.408 -7.2782
16.2506 126.069 -8.54795
8.6156 129.953 -12.3074
17.2547 124.218 -8.73319
12.4142 125.086 -11.864
18.2967 123.349 -8.40978
6.64242 152.982 -2.92512
5.09366 148.305 -6.31321
14.2939 130.721 -7.95075
17.5077 129.481 -6.21151
16.2879 127.416 -8.07894
4.87979 142.508 -9.31631
11.8255 125.639 -12.2463
14.0288 150.714 1.14103
15.2408 128.509 -8.52227
22.7745 138.085 1.46125
15.325 149.575 1.42762
17.1623 130.054 -6.49063
17.1972 124.19 -9.23883
16.7448 148.398 1.86098
11.979 126.094 -12.2137
8.20309 131.931 -12.2283
19.1031 146.455 2.57149
5.24755 150.586 -5.61288
18.7363 131.489 -4.79408
8.25146 153.552 -2.0708
17.5269 147.96 2.03049
16.2367 133.785 -5.64477
24.7347 126.703 -2.86339
14.2132 150.826 0.832551
16.3826 131.181 -7.00787
7.79514 134.375 -11.7725
17.3199 129.919 -7.03402
8.46283 133.279 -11.95
6.88376 136.983 -11.3558
18.6125 131.123 -5.57706
22.8423 139.574 1.4737
5.80685 143.499 -9.11536
17.3257 123.618 -10.1301
23.9417 127.898 -3.336
7.14899 137.728 -10.9729
11.9931 127.644 -12.2043
11.5728 128.209 -12.3417
10.2024 132.109 -11.567
7.89087 153.061 -3.36607
9.38641 133.013 -11.7606
10.196 132.212 -11.5562
16.6974 126.446 -9.53879
23.7497 126.876 -4.25225
24.5844 128.599 -2.86086
25.5583 127.064 -2.87855
22.4685 142.849 2.32269
5.91785 142.943 -9.72242
12.1288 128.329 -12.1047
17.1997 123.768 -10.5616
22.3753 143.025 2.30766
19.6223 122.35 -9.50079
11.0781 132.192 -11.0949
16.5995 126.384 -9.8345
6.38712 150.204 -6.0304
17.682 129.965 -7.37227
14.9955 130.13 -9.25758
22.8571 142.316 2.19381
16.7474 124.785 -10.5908
10.6977 132.827 -11.2097
22.6589 137.354 -0.400653
12.622 151.791 -0.969039
18.6838 133.031 -5.42498
10.0499 152.833 -2.46543
18.0166 148.111 1.11113
15.1416 150.519 0.148299
22.2847 130.173 -4.2782
9.85772 134.552 -11.2826
22.2352 130.286 -4.26727
23.8573 126.681 -4.8237
23.1253 126.492 -5.45054
15.1815 135.051 -7.208
10.0652 135.101 -10.9324
21.568 129.789 -5.06648
8.30322 139.113 -10.3978
24.2118 128.839 -3.67235
23.7426 137.588 0.118009
23.8011 137.711 0.212492
23.1347 136.46 -0.882263
22.6621 130.632 -3.98423
6.21454 141.13 -11.1002
24.4402 136.921 0.197092
23.6551 138.718 0.471337
10.5396 152.556 -2.59691
16.1805 134.805 -6.88781
7.89893 152.665 -4.52134
23.1974 135.904 -1.28043
21.1423 129.353 -5.91358
7.44171 148.454 -6.88603
22.2163 143.923 1.74457
21.2063 125.067 -7.91708
24.5432 138.121 0.687868
8.57523 139.577 -10.2975
28.145 127.482 -1.73916
17.2989 130.682 -8.18132
7.61972 151.11 -5.63755
11.4538 136.551 -9.72301
24.611 136.329 -0.265546
13.0077 130.251 -11.609
22.0735 144.309 1.64668
9.45996 139.191 -10.0323
15.3759 133.943 -8.22526
16.8784 126.647 -10.5966
16.3354 127.634 -10.6044
25.6279 129.464 -2.97623
16.4902 131.612 -8.65044
15.3188 130.849 -9.87291
18.2266 134.001 -6.30229
26.9488 126.605 -3.43963
21.6474 145.194 1.46879
23.484 126.434 -6.07418
16.6867 127.224 -10.681
28.2241 126.981 -2.37526
12.9212 151.511 -1.96466
26.1029 129.508 -2.80525
14.3669 130.73 -10.8033
7.4775 145.02 -9.10348
14.6511 133.313 -9.40676
16.9585 130.994 -8.82818
23.1829 130.41 -4.58114
27.8279 128.577 -2.0649
17.048 125.756 -11.2677
21.9626 127.229 -7.00909
13.0145 135.88 -9.53422
23.4207 127.198 -6.04529
25.179 132.422 -2.31233
20.8776 125.027 -8.99376
8.50581 148.103 -7.14603
19.2069 147.82 0.522182
21.2345 146.182 1.22212
24.1337 128.519 -5.01576
27.1873 128.856 -2.65058
17.1608 133.288 -7.8863
16.5632 128.254 -10.7137
13.4249 136.143 -9.30077
23.2461 129.96 -5.09449
17.9213 127.757 -10.0609
27.0798 127.946 -3.32243
8.67329 152.105 -5.35498
27.9915 128.752 -2.3013
16.0109 131.544 -9.89602
23.6961 129.051 -5.48329
23.3383 143.384 1.02725
18.3007 124.099 -11.8042
22.6873 144.533 1.01501
20.6787 129.665 -7.51808
14.5024 136.207 -8.95244
24.2353 138.203 -0.919677
24.0994 138.335 -0.967475
16.3499 134.968 -8.23544
8.06978 144.423 -9.81623
24.2558 134.193 -2.84183
9.02535 148.88 -7.04238
23.6303 132.027 -4.3867
21.6323 146.241 0.854361
16.5564 149.805 -1.24411
24.7283 135.521 -2.07132
16.2042 133.588 -9.31316
18.8542 132 -8.16915
16.1883 136.985 -7.76107
13.4854 151.049 -3.09554
17.8281 135.293 -7.38122
11.2569 151.85 -4.35841
18.5725 134.056 -7.44924
22.6299 145.171 0.756981
14.682 150.454 -2.55679
25.5769 134.979 -1.9219
17.2271 135.714 -7.67517
21.3901 125.973 -9.25741
26.2374 134.669 -1.618
18.5845 148.669 -0.592779
16.9479 136.278 -7.72153
20.5812 147.081 0.0227601
24.7318 134.639 -2.83222
12.5213 151.374 -3.83724
28.0186 128.447 -3.46442
16.5663 133.838 -9.28264
23.5074 135.075 -3.65498
17.8137 148.864 -1.32841
10.0165 151.626 -5.73541
25.9137 134.546 -2.23997
21.6841 146.219 0.1802
27.234 130.548 -3.17735
9.87606 141.744 -10.581
18.3913 125.712 -11.9773
24.1223 138.221 -1.88344
15.9114 137.48 -8.27688
29.3057 128.031 -3.00209
23.266 133.488 -4.83388
27.3392 130.771 -3.17484
28.2269 129.671 -3.06127
28.1976 129.064 -3.39261
12.1353 150.938 -4.78963
22.3704 145.618 0.148688
23.3258 133.91 -4.7077
24.9444 137.407 -1.87486
11.8393 149.836 -5.62245
20.2059 147.406 -0.680526
24.9333 134.147 -3.51134
18.8481 124.503 -12.5803
11.5412 140.202 -10.5117
18.3543 132.088 -9.3983
9.6084 147.372 -8.56124
10.272 151.208 -6.27941
24.2295 135.971 -3.30075
16.5577 138.231 -7.85187
14.7394 137.443 -9.55234
21.81 132.105 -6.92287
22.6489 132.564 -6.14001
11.8745 139.982 -10.5179
11.9633 149.53 -6.00324
21.2589 124.995 -10.8496
17.193 148.546 -2.68851
13.3933 148.091 -5.70536
16.4089 148.755 -3.19078
19.6013 127.494 -10.9182
17.8816 148.182 -2.40251
25.6899 133.434 -3.68587
21.5603 132.556 -7.12552
28.4947 128.982 -3.78346
16.4273 140.694 -7.06763
14.6619 147.853 -4.99328
14.1153 147.713 -5.47381
21.1023 146.521 -0.943497
19.1669 123.396 -13.3207
19.8716 147.319 -1.50238
20.5446 128.948 -9.69537
28.4591 129.165 -3.88344
25.4341 133.969 -3.82699
19.6746 125.663 -11.9611
18.4913 135.626 -8.12559
16.4322 148.284 -3.64638
14.0007 149.827 -4.70949
19.3778 124.403 -12.8648
22.2069 145.195 -1.02066
23.2516 143.784 -0.937102
22.9711 133.717 -5.90046
15.3212 146.492 -5.48417
13.386 139.275 -10.3093
27.709 130.773 -3.92797
16.8412 140.894 -7.08298
18.559 136.54 -7.90179
25.642 133.339 -4.24877
11.428 141.9 -10.582
28.0001 130.344 -3.94773
22.7807 134.037 -6.06162
21.654 126.455 -10.4693
20.2265 126.922 -11.2928
10.8941 147.028 -8.60143
19.6879 133.777 -8.47483
21.258 126.578 -10.7499
24.2431 141.475 -1.536
27.9877 131.47 -3.5406
22.0863 134.109 -6.60264
10.9839 145.942 -9.18704
19.8581 133.14 -8.87349
11.3345 144.82 -9.57766
17.944 144.985 -4.67836
18.2085 136.908 -8.31507
11.7253 149.283 -7.20762
17.4762 138.733 -8.0079
12.6979 141.655 -10.1395
16.8374 138.831 -8.48595
20.278 146.565 -2.37336
20.2137 133.52 -8.58896
11.2758 148.952 -7.85016
21.3006 142.842 -3.42685
18.8705 136.904 -8.05667
21.2593 142.671 -3.59796
21.5422 145.434 -2.09571
20.6169 145.521 -2.83941
13.5658 148.007 -6.81554
18.1227 146.132 -4.38191
20.6698 145.171 -2.9829
24.3929 137.366 -3.98909
20.9609 145.299 -2.75139
12.2698 146.878 -8.45855
21.7223 141.709 -4.02404
15.4967 138.823 -9.99921
21.1073 141.025 -4.88941
15.6639 140.273 -9.22703
23.4349 141.306 -3.11422
17.0448 138.419 -9.2328
18.6435 138.475 -8.08829
23.262 136.657 -5.65761
18.0344 143.937 -6.11748
19.2977 140.858 -6.73418
22.7124 136.922 -6.14649
16.3152 144.641 -7.18658
23.0981 137.366 -5.72057
14.1215 147.123 -7.69006
13.8166 147.428 -7.8642
19.9152 142.274 -5.92647
19.9144 143.09 -5.6555
14.1472 144.886 -9.03056
19.6905 143.489 -5.66424
20.2915 138.129 -7.79746
16.1432 143.955 -8.40473
