ply
format ascii 1.0
comment Created by Open3D
element vertex 1776
property double x
property double y
property double z
end_header
18.163 126.467 -4.43035
1.78478 83.4377 -14.6542
1.41337 125.067 12.054
1.46413 125.14 12.0316
15.4756 117.476 -7.38401
-2.20847 80.9434 -12.1497
8.81338 96.9677 -13.4854
-7.9765 114.912 15.3059
5.79807 130.872 11.0681
19.8702 124.434 -7.64006
19.053 144.897 6.13855
-11.2469 102.195 10.5047
21.7667 124.548 -9.64384
2.27352 84.7857 -14.5753
18.7437 127.231 -4.84945
-12.117 97.9996 8.64674
19.9141 125.181 -7.47386
18.8779 127.433 -5.00252
-14.0617 92.3338 6.97628
-3.81714 80.5082 -11.149
-9.32425 111.865 14.3864
17.2666 125.629 -4.5503
25.4216 139.453 -4.28512
-11.9063 99.0427 8.83768
21.6096 124.881 -9.69378
-4.68847 120.678 14.9406
-11.7345 100.841 9.67893
4.94569 130.607 11.1872
6.39037 93.097 -14.0836
-11.8654 99.4819 8.90443
21.2632 124.568 -9.65366
4.6439 130.333 11.2548
25.1955 144.628 -1.06312
17.3584 125.847 -4.83472
1.8427 126.402 11.6268
-14.999 91.1395 6.56161
10.9439 104.096 -12.1843
22.0018 128.737 -8.09495
4.47743 89.7238 -14.59
-10.245 109.304 13.0833
14.4893 113.653 -9.91169
-17.7355 79.7856 2.1193
23.9459 135.241 -6.09017
17.955 130.888 -2.63009
19.8663 123.208 -9.47769
17.6909 129.122 -3.49306
24.0909 136.24 -5.64236
-16.6094 88.5084 6.36042
18.1929 132.195 -2.15759
-13.1762 95.9324 7.46585
-16.9121 78.2577 0.159473
1.13251 84.4442 -14.7014
24.9831 143.951 -1.8586
-17.8713 78.838 1.41086
-8.58251 115.248 14.804
-16.5124 87.0706 5.16892
-17.4124 81.0548 2.26022
-9.67972 112.296 13.9902
-16.1837 85.7546 3.90478
-12.9495 97.2829 7.81078
17.641 128.493 -4.20904
-0.322928 83.2719 -14.1822
4.78711 91.377 -14.3854
6.51846 94.7429 -14.0832
6.12242 93.9873 -14.1955
23.9298 136.129 -6.03633
21.4737 128.154 -8.5345
-16.517 82.5071 1.97146
14.6698 115.532 -9.52232
24.7948 144.085 -1.97411
-17.3454 81.1906 1.97936
24.7672 143.515 -2.42417
-6.34844 79.9725 -10.3499
-10.746 107 11.3215
13.5312 112.758 -10.3251
23.7342 147.544 1.07091
-12.4805 100.338 8.80476
-15.0339 92.0956 6.23121
-4.8614 122.182 14.6792
-16.3393 89.8159 6.031
-5.00409 122.216 14.645
-10.2026 112.101 13.5929
-2.58077 81.8807 -13.4693
18.6593 130.576 -4.76943
9.42288 136.889 8.813
-1.41916 124.43 12.1879
2.56179 128.957 10.8994
0.984312 85.9995 -14.6678
-17.0712 87.7746 5.17473
24.2021 138.455 -5.62282
-10.3931 111.911 13.4749
-11.1737 107.681 11.5626
18.0935 146.567 5.7088
18.9217 126.813 -7.70109
-15.6626 91.5376 5.87893
-15.7467 91.3749 5.85978
24.0116 146.572 -0.529575
8.52168 100.658 -13.5356
17.21 130.08 -3.9452
18.5835 127.079 -7.27627
14.9908 143.301 6.70206
-5.93282 121.036 14.3335
11.9576 110.944 -10.6434
7.15064 97.5866 -14.1148
17.9691 132.342 -3.35622
9.70542 103.72 -12.8955
19.8565 127.329 -8.51207
17.9042 132.37 -3.31112
5.50015 133.588 10.3281
8.32189 100.428 -13.6713
5.64419 95.2859 -14.1691
-12.4612 104.442 10.3961
-16.4623 83.3253 1.16471
-11.5205 109.539 12.5675
5.07738 133.303 10.3513
22.0641 148.457 2.28505
-15.7355 91.9289 5.75066
17.5505 126.975 -6.66156
-12.7518 103.806 10.132
-8.60185 78.4356 -10.249
4.36328 132.488 10.4825
23.8153 146.538 -0.865989
-0.618057 84.6845 -14.6811
-10.437 112.936 13.3757
8.47899 101.309 -13.6396
-0.342298 85.0577 -14.7875
5.16175 94.9618 -14.2454
-9.92503 115.12 14.1536
2.74813 89.7482 -15.0867
-12.712 104.446 10.2429
-16.6605 82.8321 0.64916
-8.63919 117.804 14.4424
7.25454 135.669 9.24029
-3.63938 81.9743 -13.4297
-13.2599 100.554 8.30972
-9.66236 116.027 14.3482
20.1464 148.61 4.00507
0.213874 126.723 10.832
12.7008 112.85 -10.9333
21.5211 132.065 -8.05715
-15.5187 93.3873 5.90997
-6.12372 80.9915 -11.7394
7.54622 99.5817 -14.1935
19.6385 127.994 -8.82093
-2.89709 83.4949 -13.5925
16.973 129.483 -5.14947
21.459 148.741 2.34402
18.28 133.116 -4.25752
19.1583 127.337 -8.82966
-18.9801 78.7711 0.0186176
14.5552 121.002 -8.09094
9.20571 104.717 -12.8426
7.2858 136.15 9.04411
18.0098 128.066 -7.27232
-13.4354 102.685 9.27304
8.60422 102.423 -13.8031
17.1288 131.246 -4.43161
0.418566 87.0426 -15.0598
6.94446 135.854 9.04028
16.198 145.909 5.71657
23.465 141.039 -4.92716
23.4131 146.64 -1.3407
16.928 126.659 -7.25302
4.57555 133.866 9.99193
9.38198 106.659 -12.2688
-13.6966 101.944 8.69286
6.53039 135.656 9.0077
21.6647 132.737 -8.56059
23.2684 138.398 -6.64716
21.3425 132.235 -8.58542
23.2653 142.444 -4.1566
8.15548 102.174 -13.9831
15.1832 145.23 5.90896
-17.4033 90.2928 4.98291
-17.2521 90.539 4.97026
20.302 128.367 -10.1107
-18.0873 88.453 4.44293
14.6692 122.03 -8.36235
1.95873 130.15 9.97239
-6.50526 122.459 13.8789
-9.91312 79.3523 -9.90998
-11.3924 113.571 13.2562
21.5082 134.929 -7.4391
16.715 129.397 -5.97778
-17.4241 81.4946 -0.920019
-19.2553 79.0384 -0.672233
-17.1848 91.3794 4.98389
10.0879 110.086 -11.546
18.6944 128.47 -8.88493
-10.8165 78.3832 -10.0244
8.77033 138.154 7.45518
13.9093 144.341 6.01534
18.3429 133.792 -5.3041
16.5429 147.995 5.52989
22.8778 147 -1.68623
19.4196 133.837 -6.43727
2.4828 92.5271 -14.9953
18.2248 129.102 -8.19885
5.89113 135.797 8.81904
10.4576 111.027 -11.6404
22.7619 142.269 -4.66592
5.61272 98.8183 -14.3705
21.8295 148.467 0.207105
5.9441 135.898 8.7375
-14.6161 99.0426 6.76408
5.3022 98.399 -14.3375
-11.0879 116.046 13.842
19.2724 132.201 -7.48473
20.0891 129.284 -10.1927
2.80434 93.8088 -14.7138
8.22553 104.23 -13.7602
-4.94044 125.1 13.121
21.1074 136.004 -7.08184
17.6156 129.266 -7.73994
18.0306 149.719 4.73431
-17.9811 86.284 1.98623
-19.4376 79.7111 -0.667647
17.2275 127.906 -8.30565
13.4622 118.434 -10.4041
5.28234 98.813 -14.3514
18.1889 130.886 -7.47492
-1.52594 126.878 10.4581
19.3279 132.533 -7.63703
-17.9117 85.9267 1.50178
-12.1481 113.867 13.1834
-14.8034 99.6995 6.96463
-14.6136 101.752 8.0553
-17.6429 82.5211 -1.03192
-7.12898 81.5741 -12.5748
12.327 116.204 -10.8781
-13.6267 106.526 9.9256
14.5143 145.999 5.65618
9.34724 109.684 -11.976
22.22 147.556 -1.4155
5.86728 100.146 -14.4378
18.4783 149.766 3.83044
19.2694 134.091 -6.96403
-12.0502 78.094 -9.91029
22.3537 147.212 -1.91385
7.06942 137.488 7.78515
2.1201 93.4693 -14.9519
18.2223 132.584 -6.95816
-0.20608 129.091 9.96776
7.8014 104.159 -14.1364
18.561 130.983 -8.35821
-6.45224 82.6395 -13.0231
-0.395968 128.921 9.96944
-13.8257 107.778 10.5192
-2.06284 87.7585 -14.3864
-14.8768 103.671 8.93992
-9.38984 120.18 13.6635
-12.7025 113.855 13.0429
-15.0082 103.288 8.74146
12.097 117.563 -10.4071
-5.56409 125.485 12.9358
-8.83051 81.4746 -11.584
15.1529 125.178 -8.9227
22.0561 144.658 -3.79515
18.4481 134.806 -6.28888
8.01195 138.943 7.15983
18.0349 150.015 3.73471
-4.4621 85.1204 -13.9747
20.2897 134.529 -8.45545
-13.9406 109.809 11.4128
0.193117 90.3996 -15.5981
4.94045 136.177 8.43426
21.8958 142.467 -5.19526
-9.54501 81.6644 -11.0278
-4.06316 125.966 11.3024
-18.2252 83.2353 -1.08549
3.24637 97.2763 -14.5032
18.1262 134.663 -6.31719
-1.29781 128.544 9.94997
-3.87474 126.267 11.0616
-4.21528 86.2727 -13.8994
-19.8682 79.7442 -1.79808
-4.77811 85.1718 -14.0531
-10.8804 118.465 13.322
6.5748 103.224 -14.4649
-6.0478 125.726 12.8796
-14.5632 106.63 9.6065
-8.11977 83.7448 -11.5716
19.2177 131.719 -9.64745
21.5832 147.306 -2.29057
18.8935 134.675 -7.5152
18.0078 130.757 -9.14073
3.18906 97.9572 -14.5089
20.1228 149.04 0.225164
-18.913 90.5349 3.73603
12.4179 118.816 -10.9116
-14.6272 108.052 10.3556
18.2739 131.673 -8.88018
6.48333 103.496 -14.4782
-2.29399 127.616 9.902
-8.55698 83.7098 -11.4129
18.3312 150.05 2.6061
15.2202 126.701 -8.94415
-19.003 87.1916 1.59523
-2.5178 88.8351 -14.5039
-11.7332 80.5101 -10.2104
-5.88919 84.4447 -13.7915
-9.25328 121.786 13.3135
-15.9244 99.4849 6.12425
10.1678 142.721 6.31711
16.5179 131.241 -7.56399
14.1075 121.666 -11.1449
-4.51087 126.306 11.1139
13.6382 120.352 -11.5043
16.4881 131.416 -7.46794
-6.94681 125.24 12.9592
12.4423 119.293 -10.9421
-18.7848 86.1931 0.539511
-9.83603 82.5075 -11.1211
9.80222 142.575 6.38814
19.2588 133.797 -9.01221
-10.9586 81.9545 -10.4386
10.5757 114.049 -12.5262
16.9526 129.637 -9.28559
17.1179 130.77 -8.80075
2.9374 98.3868 -14.6292
-13.6117 78.151 -10.2522
-18.8507 85.9022 0.0722744
6.31463 104.288 -14.4792
14.2274 148.563 5.32329
16.3424 150.11 4.09458
-13.7939 113.885 12.4362
-15.6625 105.145 8.83518
-18.2262 93.5292 4.13246
-17.4392 96.0871 4.93366
-6.22605 85.5001 -13.4256
16.3822 150.153 3.99764
17.0346 131.037 -8.77975
-19.1054 91.4266 3.67956
15.1704 126.277 -9.87416
3.51377 100.246 -14.2813
6.69998 105.313 -14.4149
-16.3218 100.179 6.19186
8.33041 110.39 -12.9638
-13.8657 113.964 12.3404
4.95521 137.74 7.82958
-13.7034 114.34 12.387
-12.0901 81.0252 -10.4127
20.736 139.44 -7.55088
-6.37814 126.374 12.3408
17.0042 133.852 -7.21266
-7.5655 85.9216 -12.0903
18.0303 132.217 -9.42259
16.4706 129.39 -9.62565
-5.28048 86.8033 -13.9875
17.8149 132.551 -9.0278
16.9584 133.498 -7.574
-11.9408 81.4656 -10.4982
6.9156 106.285 -14.3784
-20.3471 79.1966 -3.22339
19.9672 148.498 -1.2343
-14.9225 111.141 11.3185
-18.0286 82.9532 -3.33097
7.59906 108.373 -13.9556
10.8169 118.824 -10.6865
-13.2274 79.5132 -10.5965
16.7592 132.646 -8.11592
-1.48788 130.681 9.56878
-20.4079 79.8768 -2.95794
-0.939544 91.8275 -15.7293
-18.2341 83.4686 -3.0742
-2.25658 90.6803 -15.1666
14.8447 150.168 4.6859
15.0482 127.163 -10.1005
3.57973 101.883 -14.2385
-6.43076 126.856 11.9541
11.8191 146.415 5.35049
16.3347 133.923 -7.25098
-18.8208 84.9113 -1.78994
16.0752 133.293 -7.43897
20.5561 146.943 -3.48135
-0.533933 92.9966 -15.7939
-10.8917 84.0997 -10.7042
10.0179 144.217 5.54299
-4.30928 127.594 9.89926
-16.028 108.631 10.022
-10.9534 120.991 12.5454
7.23372 109.028 -13.9299
5.40718 139.258 7.07684
0.537187 133.704 8.61218
0.851309 134.139 8.53838
1.78113 98.1129 -15.2419
10.9956 120.554 -10.6397
3.59453 137.445 7.73629
1.6451 135.17 8.31006
-0.410073 93.7969 -15.7461
17.7385 150.408 1.20411
10.2494 144.807 5.41429
9.92581 115.757 -12.6381
7.72474 110.697 -13.6478
19.0243 148.902 -1.24791
9.69624 114.951 -13.0804
-16.6163 106.405 8.83008
16.7139 132.295 -9.41823
8.70141 143.167 5.78325
-8.86345 124.804 12.3965
-13.8589 116.136 12.077
18.3063 137.928 -7.55967
-2.74912 91.3164 -15.204
13.7712 123.581 -11.9515
-4.41719 89.979 -14.3556
17.4279 134.761 -8.70269
-13.4865 81.6292 -10.2239
0.44932 96.248 -15.4481
-12.6987 82.5549 -10.4605
-4.19497 90.1987 -14.4612
16.3966 134.529 -7.79223
-18.778 83.226 -3.74867
18.2857 136.916 -8.30374
-3.82212 90.6237 -14.6448
-18.9262 85.6614 -2.10573
17.195 135.108 -8.331
-15.7003 111.975 11.1873
18.2878 137.981 -7.65914
-18.4282 96.9704 4.51194
1.97032 99.6614 -15.0078
-4.09224 128.337 9.4235
5.84512 106.804 -14.5303
-20.1025 90.9012 2.35219
18.312 138.166 -7.66308
19.6961 147.571 -3.17057
-17.7906 98.8597 4.91678
-12.0227 84.0881 -10.4385
-19.9565 91.8453 2.70123
0.226837 96.183 -15.5413
-14.2869 115.188 11.5273
17.0515 136.174 -7.75318
8.45451 143.242 5.63085
-15.7987 112.353 11.2378
9.3387 115.015 -13.1964
-17.2442 104.455 7.71963
8.13364 113.053 -13.2188
19.7779 147.207 -3.71011
17.5301 136.872 -7.93272
18.8624 135.847 -10.0021
2.71906 102.01 -14.6872
-13.9677 82.453 -9.73983
17.7301 135.727 -8.95056
-11.0202 87.5685 -9.58591
-9.41085 87.2566 -11.5018
12.3428 122.876 -11.554
-10.7007 87.7771 -9.84493
-11.9241 87.1376 -8.98146
1.24084 135.295 7.81834
-5.95321 127.847 10.554
18.7411 138.509 -8.3483
-13.8137 83.3757 -9.45306
-5.97534 127.884 10.5381
-14.9005 81.4753 -9.56668
-17.7983 99.9838 5.11239
18.559 140.143 -7.33478
-20.1283 82.8647 -3.40933
-19.1473 96.0459 3.89241
-2.16554 132.11 9.06985
12.5229 150.132 5.1846
-6.89669 87.6132 -14.2446
2.36713 101.971 -14.8843
14.8407 151.159 3.263
12.899 123.978 -11.9514
13.4647 124.956 -11.9264
-9.71656 87.5832 -11.53
18.2144 139.221 -7.88051
-21.0233 79.9713 -4.62632
-14.8448 82.5798 -9.4104
-15.3541 81.8245 -9.37408
5.98107 109.455 -14.059
4.99304 106.874 -14.6804
10.8277 147.892 5.20434
12.8198 124.101 -11.9444
3.53327 104.652 -14.6166
0.197119 134.63 7.77993
-0.0318176 97.102 -15.7339
6.9359 142.009 5.44479
-12.212 88.1453 -8.76736
7.6066 112.889 -13.6967
-9.21263 125.567 11.7747
-10.9232 88.2909 -10.0452
3.29879 138.215 6.741
-19.854 87.0406 -1.60204
-17.9192 103.566 6.83214
18.699 136.964 -10.0745
0.936671 135.457 7.36428
-16.5337 111.746 10.4826
2.09018 102.028 -15.0529
-20.5775 89.8152 0.757231
-1.67192 133.18 8.51381
-6.5348 128.443 10.5236
-12.3968 88.4081 -8.72729
1.80514 136.5 6.95117
6.17346 141.552 5.59066
18.0387 141.354 -6.87082
-13.1491 87.8967 -8.31113
-13.972 87.0091 -8.0294
-9.57585 87.6445 -12.2177
14.4211 151.38 3.15735
-15.5268 114.729 10.9768
-15.5117 83.0333 -9.10284
-20.6531 88.1687 -0.514221
18.4351 138.202 -9.46718
16.1075 134.822 -9.24603
-3.58476 130.889 8.69355
15.4665 132.784 -9.94066
-12.382 121.038 11.5448
-19.895 95.9391 3.46285
3.97654 106.268 -14.8609
18.352 147.914 -3.45225
7.98335 114.896 -13.6331
6.57922 142.587 5.30415
4.32208 107.27 -14.7766
12.6353 151.089 4.32056
-17.7074 108.262 8.69544
11.0414 149.828 5.1213
13.1223 126.549 -11.8147
3.23922 139.088 6.38521
-16.1782 82.8442 -9.0704
17.6111 140.353 -7.7965
-20.3382 94.9705 2.89066
-3.21702 132.325 8.73334
16.2167 150.694 0.164321
17.5724 140.157 -7.96214
0.901023 135.985 6.70539
2.17939 137.474 6.31317
14.9067 130.661 -11.226
-12.8574 89.2224 -8.64993
-16.2786 83.0042 -9.05153
10.4369 123.656 -11.0922
15.7436 150.774 0.531369
10.2186 149 5.13023
-19.0288 86.5402 -4.02591
10.3078 149.174 5.1228
-18.1097 107.233 8.06144
-15.0637 116.628 10.8414
11.0342 150.375 5.07567
-9.01535 88.9418 -12.9996
13.0947 151.496 3.6124
1.28328 101.942 -15.4923
7.87296 145.069 4.94248
5.70873 111.96 -13.7709
1.61036 102.702 -15.3735
-13.0175 120.795 11.175
-4.89849 93.1699 -14.7484
-6.09246 91.1358 -14.8603
-19.1806 85.0409 -5.15235
-13.1469 89.5409 -8.57145
7.4682 115.662 -13.4877
-6.55822 129.275 9.69008
-1.77738 133.834 7.59749
8.01682 117.005 -13.3032
15.1378 150.935 0.74892
2.74762 139.022 6.07049
-16.4603 114.822 10.6902
4.34625 141.032 5.56767
5.48953 142.508 5.30606
-20.1675 84.2854 -4.95902
-20.6969 91.0511 -0.132229
-20.9693 93.9089 1.93518
17.1924 149.277 -2.65914
-4.36734 131.559 8.51336
12.0464 126.215 -11.9187
-6.98726 129.467 9.89536
10.875 150.98 4.91635
-6.07258 91.9524 -14.8477
-18.4259 107.792 7.98317
17.4891 148.051 -3.88934
17.4755 137.807 -10.3822
10.6741 150.898 4.91742
-21.1632 82.8486 -5.10273
-18.4263 108.244 8.12353
-17.3137 113.15 10.0724
-20.8236 90.7253 -0.491199
-0.0204607 135.919 6.40067
-19.7349 99.5933 3.87074
1.33561 103.663 -15.4493
2.83425 139.822 5.87855
-20.7414 91.289 -0.390924
-19.3786 100.711 4.15171
11.8998 126.594 -11.9554
5.29393 113.102 -13.6504
3.21145 107.933 -14.7829
-3.01702 95.8682 -15.9748
9.15713 149.055 5.03694
9.32459 124.259 -10.8904
-20.7752 96.9417 3.05149
-10.3416 89.1489 -12.7167
14.2916 151.434 1.109
-22.0355 80.7596 -5.89653
-0.694786 100.009 -16.0537
-19.5646 86.8614 -4.7809
1.05361 103.495 -15.7018
4.05361 110.666 -14.2961
-12.5 90.3004 -10.0012
-9.51128 90.2208 -13.1621
8.77123 124.018 -10.8475
-20.6487 88.8083 -2.58921
-9.51216 128.357 10.8501
-15.7663 116.862 10.0557
-20.5176 88.1786 -3.17075
-14.9737 89.118 -8.3447
-17.1355 86.6337 -7.7831
-22.0729 81.0167 -6.22088
-18.4257 85.9461 -6.90409
6.21327 116.553 -13.1276
-8.76001 129.281 10.4782
8.57158 123.968 -10.8862
-19.7974 101.949 4.57353
16.8782 147.86 -4.47294
-13.6252 90.6524 -9.02228
17.0316 139.233 -10.164
17.3644 144.492 -7.1831
-19.6251 104.206 5.71544
11.7971 152.242 3.40021
2.09713 107.687 -14.7324
4.99643 114.665 -13.3284
-1.50492 135.219 6.42127
-16.6514 116.12 10.0483
2.93874 109.177 -14.7116
9.41691 150.797 4.89528
11.9616 128.086 -12.1223
8.34692 121.82 -12.3399
0.776532 138.629 6.15503
-13.865 90.5519 -9.07217
12.9097 152.067 2.03779
5.57651 115.947 -13.2074
6.87545 117.973 -13.2895
-18.5836 86.335 -6.93845
12.8141 130.034 -11.9063
-16.3191 116.65 9.87029
7.35164 147.882 5.02873
-9.13912 91.245 -13.6958
5.33281 115.76 -13.2371
-8.46061 129.827 9.94639
-16.1725 87.9043 -8.58275
-6.10305 130.819 8.09293
-19.6873 105.479 6.14843
-12.2973 90.3972 -11.0984
16.3519 138.606 -10.4287
-7.23375 130.011 8.61197
9.08564 151.014 4.95159
-3.66463 96.9174 -16.0532
-19.0907 86.963 -6.34196
16.5176 139.921 -9.83263
-2.29666 134.747 6.40719
-18.9612 109.378 7.64123
-11.8208 90.211 -11.942
12.8806 133.111 -10.459
-0.290205 138.139 6.40209
9.27482 125.397 -11.6348
-5.98601 131.627 8.12451
14.2085 136.768 -9.60507
-21.535 90.0047 -2.08465
-17.8295 84.625 -9.38509
12.6189 131.253 -11.5077
11.5377 128.373 -12.2274
1.00747 106.126 -15.383
-22.3198 81.1803 -6.95226
-1.78786 100.157 -16.2682
-16.7497 116.57 9.65313
14.4778 150.924 -1.03839
8.62505 150.831 4.97488
-18.6048 111.472 8.32353
3.30407 112.019 -14.0882
-6.37646 131.083 8.01561
16.2403 148.139 -4.69654
-1.93476 135.87 6.40835
9.51546 125.765 -11.8964
6.52746 118.37 -13.4926
-20.3595 103.07 4.7222
14.847 150.789 -1.67822
14.1674 136.997 -9.70637
-20.7046 84.7309 -6.57432
12.0929 129.955 -12.0389
-1.64295 100.854 -16.269
-9.34383 92.1303 -13.7965
15.4027 150.46 -2.69071
-20.2108 81.1557 -9.58524
-21.3892 92.5381 -1.16785
-21.4489 97.4456 1.9943
16.0257 148.084 -4.892
-1.95783 100.647 -16.3107
-5.76903 96.0833 -15.2479
-6.22262 131.83 7.82023
2.87923 111.985 -14.1931
-12.2509 90.5802 -12.1169
-6.26155 95.7466 -15.0702
8.42717 151.533 4.97007
-4.12522 97.7285 -16.0561
-12.1833 90.5594 -12.2411
1.43372 140.851 5.42888
-16.7319 88.9931 -8.59689
11.0727 152.734 2.86028
-12.2118 90.5867 -12.2893
-18.6802 84.2174 -9.65255
-14.9413 90.6568 -9.46787
6.78471 123.876 -11.0622
-16.4585 89.2122 -8.91842
-18.8125 90.2308 -5.845
-8.27609 130.437 8.61676
-12.9441 90.9039 -11.5743
10.3844 128.143 -12.2419
-16.9916 88.0399 -9.24265
-16.0354 89.2329 -9.49352
-18.9888 83.2123 -10.2497
-21.3896 100.02 2.8521
11.3607 131.014 -11.5723
4.30806 145.21 4.72696
-14.4553 91.9252 -9.51838
11.6916 152.87 1.86627
11.7157 152.864 1.79538
-21.3304 88.6716 -4.54232
-16.774 89.8978 -8.50594
-19.6141 109.201 6.63978
-5.28813 133.668 7.2188
-19.2866 83.1945 -10.2266
2.81584 113.653 -13.9112
-21.6587 96.4719 0.591235
-0.606277 104.417 -16.2535
1.91525 142.416 5.17562
-19.3871 87.0304 -7.81122
-12.3722 126.744 10.0215
9.02939 152.901 4.3302
-8.50595 94.2791 -14.5838
-18.8068 85.5896 -9.41231
5.83846 147.014 3.84176
1.06577 141.749 5.45471
-5.11221 98.4934 -15.527
-16.0614 92.307 -8.09047
-16.1754 90.4248 -9.18049
-18.1538 88.2844 -8.498
2.25194 143.294 5.02874
-17.7827 90.82 -7.37332
0.155644 141.05 5.78164
10.6529 130.974 -11.5779
-11.4621 92.1867 -13.18
14.5497 139.559 -10.2251
-1.61662 103.305 -16.3978
15.387 143.891 -8.39419
13.1582 137.795 -9.99941
6.052 123.762 -11.5055
2.50338 143.963 4.94837
6.54774 125.633 -10.9014
-3.75619 100.765 -15.9579
-2.2647 102.637 -16.3415
-20.9623 105.367 4.80016
11.8239 152.95 0.857474
4.5037 145.97 4.02647
-21.5729 94.428 -1.52659
-20.0123 85.8218 -8.60853
-14.398 124.587 10.0931
-17.0641 119.525 9.62211
14.7034 141.596 -9.41136
-3.41079 101.185 -16.1739
-13.5753 125.739 9.8716
14.9308 142.421 -9.18589
-20.0729 86.168 -8.43534
-17.5129 116.721 8.24197
3.27739 145.054 4.57763
-19.748 87.1474 -8.16784
1.71763 143.508 5.15855
-0.707385 105.705 -16.2496
0.239303 107.692 -15.982
-20.6706 85.6893 -8.19573
0.0835401 107.088 -16.2114
-18.2987 87.6716 -9.42523
-21.3484 85.092 -7.90549
-21.8553 92.8468 -2.47997
-8.37605 95.7554 -14.7469
-13.9156 91.8662 -11.4629
-1.71796 104.138 -16.3919
-17.8549 114.317 6.77935
-7.08742 97.7029 -14.9348
5.47331 120.944 -13.3031
-21.5394 91.3706 -4.02605
-17.8192 92.6181 -7.12036
-17.917 92.5597 -7.0831
-8.76856 95.9057 -14.468
-5.20206 100.401 -15.4234
-16.4922 93.4362 -8.22245
13.7349 139.495 -10.5304
-4.6637 135.511 6.02677
11.9806 151.84 -0.946188
11.4853 137.045 -9.81299
-9.85837 130.459 8.18461
11.4456 152.691 0.0829844
0.774319 143.153 5.09717
-22.0822 100.268 1.62676
-16.8469 93.544 -8.06643
-7.40579 98.6752 -14.6491
12.3999 138.288 -10.1548
-5.00348 135.383 6.0272
-18.0977 114.126 6.1677
4.79675 146.827 2.99471
-17.6826 119.1 8.78206
-20.1944 109.596 5.35741
-3.19215 103.425 -16.2397
10.902 153.427 0.757161
-11.123 95.0177 -13.335
10.7855 135.84 -10.2569
1.11176 143.722 4.64972
-13.0872 127.917 9.32196
-21.7444 97.1551 -1.16284
9.90501 132.942 -11.4074
-21.4039 94.6323 -3.13602
-8.19535 98.2096 -14.6184
-21.5452 93.4707 -3.76798
-8.88753 97.8258 -14.1913
-16.2934 93.5826 -9.18839
-6.58104 100.301 -15.0266
10.6486 136.168 -10.2453
-16.6079 117.116 5.89542
13.5615 151.122 -4.05863
4.01839 119.708 -14.0327
10.9799 137.802 -9.84588
-21.3361 91.2406 -5.76854
12.414 138.897 -10.7223
-19.0064 110.379 3.81078
14.1083 147.407 -7.2654
-17.8301 112.992 4.07175
4.55629 122.705 -13.058
-11.0917 96.9194 -13.1382
11.3999 138.897 -9.94188
4.61924 123.263 -12.812
4.59979 122.145 -13.5377
-12.4267 95.4266 -12.7938
-5.6918 135.539 5.56992
0.860793 114.015 -14.8618
-16.6635 94.1027 -9.30508
4.42266 121.734 -13.7421
-17.2919 113.567 3.53369
-19.06 110.101 3.06756
-16.3395 124.487 9.28081
-19.4337 109.427 2.95143
-2.24569 107.124 -16.3682
-4.14565 139.609 6.14212
-8.63689 99.9633 -14.2841
-1.18439 108.926 -16.3653
11.4408 151.758 -2.40444
-4.1996 104.577 -16.0303
-21.8762 98.4245 -1.63709
-16.4843 124.073 8.93117
-16.7167 116.168 4.16489
11.4811 139.576 -10.3133
-19.3099 93.9597 -7.25936
9.45569 135.037 -11.1805
-6.10467 135.658 5.36534
9.28032 134.608 -11.2865
12.2571 140.259 -10.827
-18.349 94.634 -7.92388
-18.1477 111.634 2.55923
-11.7739 97.6247 -12.9353
5.1499 128.369 -11.074
-10.8973 130.387 6.85835
12.8255 145.449 -8.27638
-2.5362 107.509 -16.3566
-16.7564 117.215 4.51993
11.8111 140.024 -10.7383
-18.3088 94.796 -8.10654
11.4948 139.959 -10.5222
10.5034 139.232 -9.95998
-17.9121 94.8857 -8.51467
-22.2505 104.371 1.95521
9.96935 138.192 -10.1422
0.31191 114.199 -15.3495
-6.73518 102.933 -15.1618
-15.8785 125.216 8.32347
-18.7799 94.9262 -7.84078
-22.1446 98.7246 -1.95184
-21.3634 93.2592 -6.22499
-13.0111 97.083 -12.4848
-17.9483 95.0855 -8.73344
-21.8426 95.5697 -4.50006
-16.9913 115.916 3.25612
-10.8998 130.845 6.3707
-20.3997 93.8196 -7.20045
4.75312 129.644 -10.6839
-21.4879 93.7355 -6.16388
-16.8736 115.778 2.97143
-15.233 125.636 7.45102
-2.85588 108.473 -16.2665
-5.18942 139.676 5.90463
-19.9392 108.517 1.47884
3.7697 123.449 -13.7033
-17.3921 117.101 4.22494
-21.6822 106.215 1.77512
4.01598 125.654 -12.6927
0.248947 115.404 -15.3384
-15.2941 95.127 -12.0447
8.19501 135.14 -11.1508
-14.8775 127.249 7.77873
-17.0938 95.2038 -10.2499
-6.76435 104.591 -15.0726
-22.6798 103.464 0.696404
-17.5683 114.241 2.20589
-12.5431 129.488 6.63235
-17.6021 116.321 3.53627
8.73201 137.074 -10.6816
3.71908 124.887 -13.2193
0.216182 115.809 -15.4156
-20.9007 107.37 1.16797
4.26419 127.967 -11.9384
-17.2336 123.749 7.66167
2.84965 122.271 -14.1485
-12.8078 129.432 6.58977
6.49519 132.452 -11.5517
-15.0047 125.771 6.42718
-3.54775 109.08 -16.0601
-20.414 108.1 0.758423
-17.4289 123.688 7.46356
1.03895 145.739 2.23061
-14.8152 126.606 6.56744
-22.7613 99.5185 -2.37149
12.1026 148.152 -7.80334
3.90616 127.406 -12.4401
8.52106 153.252 -0.938237
3.96427 129.897 -11.0121
-18.4929 119.684 5.83156
-2.90692 110.404 -16.2327
-18.3196 119.337 5.42308
10.0813 140.819 -10.514
-17.8152 114.442 1.7604
-1.96449 143.381 3.6065
-21.9763 95.8345 -5.73872
3.71608 127.096 -12.642
-22.6258 98.098 -3.65574
11.001 142.385 -10.5555
-22.9986 100.162 -1.9863
-16.7929 95.711 -11.2509
-6.06814 106.916 -15.3036
-14.1304 101.889 -10.1354
-0.262642 115.71 -15.7918
-17.7495 118.886 4.36699
3.27448 124.971 -13.6202
-22.1725 96.4537 -5.2744
-17.4484 124.249 7.40327
-16.0367 100.5 -9.10673
-13.491 101.599 -11.056
-17.3632 124.543 7.47051
-15.6444 99.0735 -10.4636
-13.7505 102.068 -10.544
-14.2456 101.378 -10.4999
-0.89589 113.922 -16.4692
-14.407 126.48 5.50657
-7.98195 105.864 -14.2161
-18.9289 98.9986 -7.20266
-18.7148 98.8958 -7.49656
-15.0286 97.7151 -12.0893
11.532 149.971 -6.61082
-15.7807 98.8485 -10.6011
-19.1527 98.4931 -7.33293
-20.988 100.059 -4.48723
-1.15782 143.929 2.67246
-17.3049 119.641 4.04363
-21.7518 100.097 -3.74642
-17.3115 118.504 3.28946
6.0906 133.461 -11.5668
-21.5747 100.254 -3.85142
-18.8493 97.8003 -8.23481
0.321339 145.279 1.89675
-17.233 119.313 3.68742
3.49257 127.425 -12.7226
-11.4149 103.638 -12.3161
-13.2492 102.834 -10.9445
-21.5842 97.1999 -5.87536
-13.7524 100.27 -12.0758
-14.3804 100.14 -11.5259
-22.8723 99.5849 -3.07624
-5.75149 108.411 -15.2845
8.56452 139.904 -10.2317
11.0315 145.168 -9.46686
-6.81397 107.392 -14.8441
-11.4315 131.831 5.40911
-1.40381 143.927 2.64608
-19.951 96.097 -8.37858
-16.0158 102.622 -8.34118
-12.8264 103.416 -11.1545
-11.2524 104.657 -12.0193
-5.30139 109.277 -15.2891
-13.5051 99.4586 -12.9843
4.78381 132.798 -10.913
10.9985 146.836 -8.50429
-5.96952 109 -14.8487
-14.4323 98.7749 -12.5491
-1.11596 114.63 -16.3647
1.41103 121.143 -14.8868
10.9837 145.865 -9.1906
-11.0983 102.774 -13.5512
-17.5963 124.926 7.16277
-17.1286 97.6221 -10.6379
-14.6511 99.0163 -12.3381
-17.1364 101.113 -8.45522
-17.3918 100.593 -8.52444
-9.67096 133.88 4.5192
-23.1743 100.981 -2.3112
-10.8332 104.37 -13.0071
8.44337 140.337 -10.3032
-15.8085 125.843 5.70133
-17.5998 125.035 7.03938
-19.3324 96.4344 -9.29315
-22.2088 101.169 -3.31889
-9.02763 109.072 -12.0232
-1.11076 115.398 -16.2581
-7.37465 139.542 5.49262
-20.7714 108.068 -0.52363
8.93305 141.195 -10.4126
-13.3937 128.82 4.87954
-19.4133 112.731 0.918761
-8.70634 107.929 -13.2477
-18.495 117.094 2.70692
-17.6537 101.196 -8.24043
-22.8149 104.064 -1.11469
9.79297 151.839 -4.75924
-0.96833 144.268 1.59949
-9.47681 107.269 -12.9921
-10.6256 108.55 -11.0286
2.06229 124.464 -14.2295
-22.811 104.03 -1.33504
9.7379 151.786 -4.91659
-6.48266 140.479 4.77095
-13.6511 128.459 4.59111
-17.4458 123.493 5.29801
-14.5117 105.31 -9.33419
-1.71567 117.082 -15.187
9.23874 148.204 -6.8845
9.71839 149.379 -6.65883
9.99065 146.034 -9.06843
0.88315 121.929 -14.8878
-13.4553 129.565 4.83222
-14.03 106.103 -9.43048
-13.0833 106.896 -9.94043
-13.3072 129.941 4.82645
-1.99619 144.081 2.00599
7.9129 140.494 -10.6065
8.23721 152.691 -3.2298
-11.2323 132.753 4.36567
-18.3352 101.907 -7.80815
-19.6025 101.702 -6.66809
-8.25938 137.589 4.23234
-4.13121 142.747 3.17584
-15.9001 104.433 -8.98044
-21.3622 107.013 -1.67614
-18.1849 103.413 -7.27325
-17.0908 125.519 5.56755
3.44262 132.457 -11.398
-1.94626 119.016 -14.3104
-16.2913 104.387 -8.68624
-22.2869 104.804 -2.23257
-12.9972 107.972 -9.88426
7.89706 146.896 -6.96228
8.94368 144.284 -9.76289
4.32671 134.587 -11.1105
-14.2499 127.257 3.54303
0.253929 124.757 -13.1116
-20.1641 112.234 0.141352
-0.675786 120.422 -14.9427
-13.0692 108.125 -9.85891
-1.86521 119.742 -14.1888
-14.1127 128.443 4.02329
-0.0584647 123.866 -13.4909
7.60896 140.846 -10.7818
-10.5233 110.057 -11.475
-6.67026 112.886 -13.7169
-4.17274 114.754 -15.1666
-16.7286 125.778 4.81499
-17.2823 119.458 1.34446
-21.1014 107.348 -2.38573
-20.3337 112.353 -0.0227283
-14.2397 128.412 3.79878
6.83063 146.018 -6.94551
-18.389 104.353 -7.12727
4.47424 135.753 -11.0304
-16.9827 123.081 3.21765
7.60989 145.633 -8.06446
7.15725 145.561 -7.64315
5.82063 137.916 -11.1419
7.54014 145.439 -8.20505
-1.8547 121.461 -13.6409
0.351656 125.674 -13.2753
-2.58504 121.375 -12.9823
-16.2526 126.03 4.13047
5.67026 137.573 -11.3394
-3.09513 121.198 -12.6
-14.4246 107.836 -9.29842
1.46044 127.685 -13.2557
1.69936 129.899 -12.1243
-9.46979 137.061 4.00262
6.49671 144.89 -7.63844
-1.10681 122.909 -13.663
-0.823797 124.89 -12.7057
-1.65074 122.338 -13.5193
-2.76247 121.863 -12.6824
-4.41304 115.506 -15.0038
-5.89906 114.1 -14.3714
-16.7274 121.461 1.53025
-14.9092 126.893 3.07806
-7.04551 142.05 4.49709
-17.2517 120.537 1.48067
6.14157 154.699 -1.2445
-4.27831 115.774 -15.0629
-18.0783 104.799 -7.70878
-16.715 121.069 1.14684
6.8534 144.372 -8.63186
-21.5443 106.418 -3.18303
-3.44251 122.312 -11.9642
-3.6692 121.646 -12.1563
-1.90563 123.852 -12.6073
-13.384 109.272 -9.93614
-9.94289 135.995 3.35504
-2.92652 123.23 -12.0118
-0.735199 126.102 -12.5372
-22.7198 104.782 -3.23831
-21.3092 103.213 -5.71435
-20.1646 113.447 -0.441982
-10.4086 135.193 3.18465
1.18953 128.534 -13.0827
7.57739 149.63 -6.38817
-17.1824 122.278 1.91865
-4.60309 116.428 -14.8597
7.16183 142.407 -10.67
-20.1718 104.733 -6.12823
5.22279 145.303 -6.85759
-19.6553 105.458 -6.24443
-6.62232 142.405 3.5985
2.23026 132.49 -11.8855
-3.78208 123.491 -11.3415
-22.5463 104.51 -3.88537
-4.06249 123.083 -11.3434
4.28221 143.2 -7.29702
-18.0254 125.049 4.32412
4.39795 144.628 -6.62042
-21.5498 103.868 -5.52671
-17.5174 122.732 2.2087
-9.31108 112.777 -12.6177
-18.2675 124.51 4.08224
5.68891 140.325 -10.8055
-17.9713 121.044 1.56347
-0.773085 126.712 -12.7241
-17.8012 120.282 0.872446
-4.51408 123.262 -11.0794
-17.2062 121.8 1.15829
-20.2838 105.291 -6.09609
-5.57273 118.342 -13.1688
-13.1782 132.971 3.94663
-18.4065 123.809 3.56732
-18.7406 117.415 -0.145717
-17.38 121.206 0.802491
-21.3227 107.74 -3.62652
-20.7769 104.936 -5.98188
3.75852 142.324 -7.82179
4.15817 142.349 -8.22616
-17.8173 106.24 -8.26921
4.57001 146.004 -6.37479
3.28841 142.194 -7.48884
-17.1857 121.561 0.710624
4.57818 142.174 -8.90361
-14.4015 130.93 3.68921
-6.87925 115.092 -14.3003
-14.0545 110.313 -9.94889
-12.7295 111.465 -10.6094
-0.845712 127.353 -12.9
-21.5378 107.127 -4.2189
-17.9068 120.352 0.3583
4.10944 141.657 -9.04199
4.54435 146.867 -6.20747
-6.35386 116.325 -14.2204
-10.7212 112.754 -11.9575
2.173 141.567 -7.14657
-11.8633 112.437 -11.0912
-19.8447 107.187 -6.12805
-18.2477 120.957 0.868941
-17.2498 125.217 2.48403
2.07747 140.527 -7.96801
-2.53118 126.278 -12.2084
-18.1716 123.231 2.08243
-2.85065 126.06 -12.0603
1.00346 139.077 -7.8285
-19.2477 119.174 0.571463
-19.5592 120.735 1.87923
0.756174 140.535 -6.78495
-17.6891 107.68 -8.45085
1.82229 136.506 -10.474
1.78339 136.68 -10.3507
3.09843 140.381 -9.39909
-17.5924 124.35 1.92594
1.24074 142.63 -6.07211
-17.7274 124.601 2.21607
-8.7848 142.735 4.3913
2.40921 145.163 -5.69994
-17.7393 124.69 2.26362
-3.37221 126.123 -11.7917
0.99638 133.008 -12.0352
-0.149326 130.066 -12.7242
5.58171 151.119 -5.3544
5.5617 151.477 -5.1376
-21.3522 106.467 -5.67195
-0.0850201 138.712 -7.35818
0.183772 140.317 -6.63404
-16.7731 108.64 -9.07769
-17.1163 119.339 -1.96143
-21.7432 108.387 -4.10524
2.36991 137.31 -10.862
-17.9457 121.046 -0.0925933
-13.7054 111.726 -10.4295
2.39791 145.861 -5.55246
-6.93809 122.771 -10.4737
-17.7754 126.534 3.10708
-14.844 131.995 3.47048
0.648815 142.926 -5.71284
-17.2122 120.523 -1.35798
-2.29147 128.128 -12.0637
-2.69529 127.894 -11.8002
-12.9401 136.609 4.29134
-17.0636 120.563 -1.58812
-19.3249 117.079 -1.54067
-12.95 135.172 3.28681
-18.8906 125.974 3.60851
-1.02778 138.212 -7.22851
-17.3827 120.18 -1.66743
-12.9791 136.031 3.7772
-21.4977 112.047 -2.56469
-0.1255 133.635 -11.1147
-2.38039 130.153 -11.0715
1.93978 146.266 -5.36499
4.11902 149.848 -5.37743
-1.33403 139.046 -6.56052
-19.3499 108.948 -6.91024
-20.6298 123.016 3.31627
-0.60081 130.738 -12.6046
-3.96386 128.823 -10.3864
-12.4746 114.098 -10.8817
-1.44782 130.85 -11.7408
-19.5937 125.711 3.84038
-19.9039 118.218 -0.582887
-8.44164 116.612 -13.5794
-1.71967 136.094 -8.23367
2.69855 148.012 -5.33251
-16.3031 128.363 1.96601
-17.4093 128.125 2.96374
-19.5501 126.679 4.26698
-10.2617 115.316 -12.5885
-1.63812 131.536 -11.2973
-12.5326 114.267 -10.9119
-19.2272 119.071 -0.942204
-19.4283 118.849 -0.87917
-2.00044 138.397 -6.61867
-21.2996 124.018 4.31431
-21.238 120.008 1.69595
-1.80309 131.824 -11.029
-10.9262 139.178 3.04948
-19.7077 118.631 -0.847568
-18.6188 120.674 -0.743806
-3.57885 130.862 -9.91682
-10.0777 140.537 2.95016
-18.8274 119.862 -1.11528
-19.4105 109.505 -7.07089
-1.7174 134.028 -9.95426
-2.12091 134.205 -9.47873
-2.60327 134.796 -8.61161
-2.13375 138.719 -6.64068
-2.7213 137.316 -6.95218
-20.3603 126.556 4.55129
-11.7418 115.739 -11.2868
2.89602 149.337 -5.23489
-9.7132 143.716 4.2988
-11.4968 139.51 3.47825
-5.4002 127.059 -10.747
-19.6469 109.621 -7.01672
-9.71175 116.553 -12.9727
-8.53847 118.477 -12.9984
-15.1191 135.853 4.79122
-18.0633 110.007 -8.5373
-21.6407 112.766 -3.07684
-15.1149 135.032 4.19535
-10.6253 141.216 3.43976
-15.7151 135.011 4.79717
-21.868 120.237 1.83494
-8.88223 120.833 -11.2907
-17.31 119.683 -3.26608
-9.34159 143.434 3.47065
-5.16076 129.077 -9.95786
-21.1858 122.492 2.48118
3.03187 150.368 -5.052
-19.6461 119.496 -1.04992
-22.5186 123.212 4.27535
-17.4089 119.348 -3.50085
-18.9809 117.103 -3.30194
-17.7358 121.659 -1.72377
-19.3434 117.627 -2.62246
-9.1222 120.628 -11.3443
-17.3981 120.413 -2.8861
-17.8981 110.172 -8.86881
-20.9636 109.168 -6.34966
-9.23852 121.89 -10.5393
-5.68688 128.389 -10.1191
-14.8869 138.069 5.46585
-11.9247 139.903 3.53596
-22.6285 123.075 3.9815
-19.9274 110.11 -7.03433
-22.1632 119.777 1.35893
-13.0327 138.052 3.4241
-12.6323 139.01 3.6005
-16.4223 133.52 4.05513
-13.7095 114.317 -10.9554
-20.3565 116.535 -2.65259
-4.26442 134.657 -7.9682
-9.04305 124.296 -9.58357
0.475993 147.316 -4.91139
-4.08764 133.768 -8.76525
-11.33 141.726 3.69828
-22.4008 119.482 1.0487
-7.72137 126.684 -9.65235
-15.4099 137.767 5.34693
-17.6964 119.145 -4.06743
-1.57032 143.285 -5.5465
-18.8628 117.925 -3.67367
-17.8458 120.29 -3.27432
-16.2925 112.324 -9.93495
2.17202 150.848 -4.74762
-17.7178 119.392 -4.02115
-4.33665 135.595 -7.68876
-3.3853 137.823 -7.32328
-16.2537 112.541 -9.98655
-20.1119 110.785 -7.13165
-12.3559 116.974 -11.2874
-20.0986 119.74 -1.50437
-18.7926 118.232 -3.81594
1.02021 149.214 -4.82845
-3.96049 136.824 -7.50823
-16.6136 112.44 -9.85261
-18.5721 121.147 -2.30843
-19.4511 120.472 -1.82366
-17.3541 133.655 4.30848
-17.349 133.158 3.97998
-21.9216 113.022 -4.01557
-14.4636 139.408 4.90255
-17.9389 121.048 -3.11128
-17.1788 135.236 5.05486
-18.1101 121.928 -2.42688
1.78042 151.416 -4.43453
-22.1217 111.985 -4.66379
-17.6326 122.273 -2.81758
-17.2876 112.152 -9.58415
-11.2578 145.084 4.99073
-5.89004 130.911 -9.55949
-12.8359 116.86 -11.3062
-10.6169 122.751 -9.88987
-11.2295 144.361 4.41691
-13.9686 139.452 4.13093
-20.2347 118.826 -2.4282
-3.5766 138.197 -7.48241
-23.2178 120.897 1.91996
-19.1387 120.82 -2.37899
-17.5276 112.244 -9.52375
-6.74884 128.768 -10.2901
1.23262 152.977 -3.27844
-0.222329 148.709 -4.53336
-0.920838 147.806 -4.3871
-18.9893 113.714 -7.22096
-20.3337 120.288 -1.73916
-20.1857 119.723 -2.25681
-17.2784 113.423 -9.31416
-19.4659 120.118 -2.82238
-18.9436 119.331 -3.86618
-18.6456 122.898 -1.92371
-0.391821 148.84 -4.4699
-3.21241 140.205 -7.04741
-4.03365 137.844 -7.71598
-18.5539 120.629 -3.57683
-19.6751 112.163 -7.79015
-6.11395 133.263 -8.55416
-14.9453 115.405 -10.695
-19.9177 112.112 -7.64961
-20.7736 112.421 -6.56689
-18.699 114.649 -7.31888
-12.4612 142.199 3.61222
-18.2268 114.877 -7.70144
-21.8453 113.146 -5.04956
-20.9628 115.962 -4.22124
-13.6019 142.033 4.61729
-21.1358 129.513 4.50602
-18.1145 123.157 -2.654
-11.1745 120.657 -11.4882
-7.22861 129.521 -9.99625
-11.2168 124.148 -9.25871
-15.9607 117.234 -8.71682
-11.2414 146.218 4.68684
-16.0829 117.326 -8.57821
-17.6031 120.492 -5.01468
-16.982 116.564 -8.15804
-3.39738 140.574 -7.09722
-20.2737 120.684 -2.15994
-12.9841 118.212 -11.2959
-21.1493 129.881 4.55777
-21.6812 113.772 -5.11598
-12.6768 118.749 -11.3204
-18.2236 122.286 -3.36649
-1.55512 148.445 -4.12863
-18.5912 123.343 -2.32496
-18.0034 120.071 -5.01725
-15.3461 115.785 -10.5606
-24.0555 120.834 1.65398
-17.7123 123.312 -3.38485
-16.3531 117.725 -8.33554
-17.9824 123.905 -2.73425
-20.8591 115.994 -4.82186
-14.3636 116.909 -11.0036
-18.8108 123.347 -2.38825
-20.7919 114.912 -5.70337
-19.628 115.172 -6.75224
-18.9104 133.181 3.84189
-5.4811 136.214 -8.2028
-19.8239 132.448 4.29256
-14.7329 117.836 -10.2444
-15.9931 118.349 -8.63898
-17.8021 123.753 -3.34295
-20.3756 121.339 -2.20177
-12.6496 119.414 -11.4445
-3.34195 142.625 -6.44522
-25.9146 121.345 3.47922
-16.37 141.3 6.16378
-13.4071 118.611 -11.2851
-11.4294 146.698 4.42679
-17.0621 122.408 -5.11046
-24.2289 126.073 4.60627
-20.1741 119.717 -3.63977
-21.9403 114.856 -4.89359
-2.90675 145.84 -5.07112
-21.6835 130.424 4.64711
-2.74424 148.045 -3.94217
-12.284 121.796 -10.6681
-18.1921 123.015 -3.76303
-19.2672 122.808 -2.78486
-0.62382 151.884 -3.75902
-26.1964 121.492 3.56435
-10.6362 128.204 -8.37281
-17.6941 123.729 -3.89144
-19.0005 122.083 -3.58945
-14.9539 119.257 -9.64481
-7.2717 131.11 -10.1256
-18.3302 124.15 -3.04594
-17.9847 123.655 -3.75604
-14.8871 119.378 -9.73961
-21.718 119.663 -2.51169
-12.2862 125.34 -8.71633
-26.8629 121.204 3.76265
-18.9277 121.849 -4.07915
-22.1328 115.442 -4.85449
-10.4287 129.108 -8.37045
-22.55 129.641 4.54848
-17.5408 123.16 -4.78494
-6.71751 134.965 -8.56779
-25.3023 120.776 1.74982
-19.2012 121.598 -4.07143
-4.61323 140.25 -7.42998
-2.56963 149.302 -3.85086
-11.8618 147.062 4.34225
-19.9538 121.19 -3.64342
-12.7129 124.448 -9.13686
-15.0561 144.696 6.05279
-18.1396 124.121 -3.77661
-19.6605 135.325 4.87518
-17.8352 123.603 -4.49326
-25.4534 120.577 1.47158
-5.79111 141.997 -5.42821
-3.85361 147.472 -3.97586
-12.5815 146.145 4.18448
-18.2081 124.174 -3.90667
-6.71001 135.686 -8.6149
-19.4533 122.127 -3.97068
-21.1276 116.53 -5.7763
-19.4201 137.921 5.98421
-12.4248 146.625 4.21584
-25.4164 125.544 4.34437
-18.103 125.542 -3.26849
-5.34881 139.134 -7.96504
-19.1561 121.508 -4.90727
-13.259 123.806 -9.64951
-19.1666 138.957 6.03806
-16.475 143.88 6.34131
-13.2862 124.61 -9.18947
-17.4905 119.135 -8.31967
-12.9552 146.197 4.09338
-13.3799 123.667 -9.76168
-9.43815 131.104 -9.17007
-20.0409 118.613 -6.09926
-5.56424 140.407 -7.34578
-9.48969 131.14 -9.15348
-20.5538 134.559 4.48126
-27.0733 124.341 4.70068
-5.98576 140.651 -6.89377
-21.1726 116.688 -6.46407
-17.1403 125.243 -5.24109
-13.6733 124.921 -9.08303
-18.6213 124.453 -4.26091
-22.7216 119.242 -3.31964
-19.4953 117.685 -7.73555
-25.6557 118.966 -0.560633
-13.2551 128.092 -7.68736
-20.4574 137.95 6.0315
-21.0278 135.013 4.72815
-2.81508 154.514 -1.8739
-18.6284 118.36 -8.36426
-20.1216 119.002 -6.50045
-2.94698 154.527 -1.86028
-9.55542 131.854 -9.40535
-19.6692 119.525 -6.72681
-18.7508 127.213 -2.86065
-11.45 130.382 -8.45348
-13.6686 147.044 4.31152
-18.4 121.211 -7.19959
-21.9991 133.891 4.55554
-18.1889 123.208 -6.17539
-25.9526 119.353 -0.745596
-18.1296 129.792 -2.29149
-18.8738 126.046 -3.9232
-8.7985 133.005 -10.0321
-13.3716 129.092 -7.76094
-24.4856 129.829 4.16302
-20.0028 118.63 -7.58779
-29.57 121.924 4.42547
-6.49676 144.965 -5.0833
-17.9566 128.286 -3.75049
-12.8346 129.839 -8.0962
-9.85114 150.53 1.8932
-7.5445 137.151 -9.01439
-15.633 128.276 -6.32383
-16.7588 126.646 -6.25438
-7.40793 138.468 -8.48563
-19.1975 126.933 -3.5462
-6.74087 144.702 -5.2391
-25.104 120.6 -1.50025
-18.0609 129.34 -3.38534
-26.4344 119.654 -0.87895
-17.3935 131.924 -2.52172
-23.9028 132.241 4.42794
-10.357 132.872 -9.26637
-29.6774 122.843 4.41268
-7.13478 144.188 -5.50639
-5.77523 147.423 -4.88681
-17.6731 122.054 -8.62569
-14.4307 128.871 -7.67949
-5.16736 151.329 -3.12817
-15.0167 128.515 -7.35
-12.2683 130.791 -8.8848
-11.4082 131.747 -9.22354
-8.96945 139.183 -7.0651
-25.3384 121.006 -1.61976
-15.013 128.894 -7.416
-18.5214 131.598 -2.10862
-19.2236 126.587 -4.5834
-22.6077 137.487 5.82912
-19.9394 142.115 5.92457
-15.1694 134.075 -4.26046
-20.1596 127.016 -3.60877
-12.6953 150.131 3.25429
-17.0404 126.414 -7.2673
-9.33921 134.97 -9.87131
-10.2047 151.993 1.79545
-6.28682 153.71 -1.20787
-15.1515 132.997 -5.13807
-17.0103 125.385 -8.06896
-20.8294 124.162 -4.892
-12.6235 150.357 3.10946
-18.0663 127.074 -6.01779
-16.2937 127.23 -7.88026
-27.398 119.988 -1.01953
-29.2176 125.724 4.49066
-17.5226 131.507 -4.03909
-17.0755 131.532 -4.52786
-14.1963 134.995 -5.33704
-6.6066 153.215 -1.75778
-15.6833 129.889 -7.12007
-9.70229 136.418 -9.26459
-20.8457 141.514 5.53008
-12.3483 134.865 -7.53215
-17.1395 128.797 -6.48712
-16.4297 129.945 -6.51522
-27.7727 120.024 -1.03698
-12.728 131.359 -9.48921
-7.02001 148.054 -4.90101
-16.1646 129.313 -7.2829
-14.4201 129.97 -8.68601
-11.7541 151.501 2.12845
-16.6178 129.447 -6.77922
-11.5996 138.023 -6.57832
-18.0628 146.091 5.21899
-10.0642 137.662 -8.43409
-31.8592 120.943 3.55781
-28.4041 128.378 4.64175
-21.4571 126.039 -4.08108
-16.3546 136.506 -2.78903
-10.8019 137.626 -7.90022
-7.17193 152.794 -2.07407
-15.38 148.846 3.95004
-32.1097 121.556 4.03531
-24.3086 122.677 -3.36247
-24.7909 133.698 4.08129
-32.0718 122.536 4.52617
-31.462 123.931 4.77376
-22.2268 124.983 -4.17488
-16.9632 135.796 -2.88924
-28.9132 120.037 -0.464738
-32.0616 120.047 2.78245
-30.6867 125.252 4.62662
-12.3705 134.351 -8.66984
-8.15144 153.352 -1.02824
-8.48243 153.657 -0.496564
-7.84307 152.005 -2.2675
-7.90497 153.005 -1.58531
-8.32101 153.383 -0.924135
-23.2192 122.962 -4.74988
-30.6059 121.94 2.25188
-13.2678 150.433 2.27665
-20.9639 127.669 -4.17856
-28.5309 120.454 -0.981214
-8.01286 148.387 -4.6599
-21.1633 142.474 5.18716
-21.4585 126.624 -4.53874
-8.64044 151.876 -1.88646
-11.9199 139.914 -6.0775
-28.7618 121.244 -0.608829
-8.60361 146.632 -5.53583
-25.8488 132.949 3.71108
-31.9496 121.972 3.08321
-8.77443 150.803 -2.74165
-14.0082 136.459 -6.40876
-9.12016 152.213 -1.52613
-21.7286 126.509 -4.75825
-17.0608 136.343 -3.40224
-12.7799 136.682 -7.66233
-22.7509 125.331 -4.49936
-30.9976 124.841 3.74281
-9.65656 145.253 -5.51528
-29.9569 121.847 0.730243
-31.9269 121.097 2.26299
-8.81787 149.796 -3.59903
-17.2729 136.421 -3.29623
-11.2081 143.694 -5.11091
-21.4439 127.336 -4.83416
-9.53447 153.03 -0.94396
-30.6862 121.503 1.05883
-28.3911 121.892 -1.08439
-12.6641 140.27 -5.79546
-13.9742 138.251 -5.72858
-18.1448 134.396 -3.89652
-17.742 147.105 3.68593
-31.7027 123.166 2.93633
-28.1656 122.123 -1.45742
-31.8452 121.968 2.23971
-17.9896 137.355 -2.43286
-14.7243 138.567 -5.06154
-18.1922 135.227 -3.5891
-13.0954 139.246 -6.35606
-19.5813 130.115 -5.40334
-26.1246 133.565 3.56819
-15.19 149.517 2.2874
-31.5318 124.022 3.11389
-9.05966 147.97 -5.07364
-19.9168 129.94 -5.24945
-14.2457 138.834 -5.52859
-23.3201 139.766 4.38327
-16.1885 140.727 -2.4404
-10.4711 152.755 -0.77444
-19.5799 132.64 -4.05031
-10.8551 152.52 -0.569141
-12.2399 151.468 0.179766
-30.5947 123.19 1.31862
-18.9144 133.225 -4.47989
-20.0754 144.841 4.0756
-13.4855 139.705 -6.0281
-29.5867 124.161 0.833311
-27.8644 131.515 3.60491
-9.94872 151.135 -2.68676
-28.1388 123.218 -1.47161
-22.3067 141.608 3.94839
-30.789 124.184 1.70616
-20.4112 132.598 -3.86013
-15.7937 140.781 -3.4824
-21.6359 128.244 -5.35494
-16.4126 142.253 -1.93547
-15.6914 143.135 -2.18417
-21.4138 143.391 3.89822
-28.4266 124.902 -0.583372
-16.7765 148.299 2.02284
-10.1095 148.378 -4.88186
-14.0883 142.387 -4.54179
-10.3563 150.529 -3.29331
-15.8176 140.097 -4.22579
-13.2537 150.803 -0.116347
-27.9979 131.758 3.10409
-11.3416 147.279 -4.48225
-10.3653 148.213 -4.91144
-17.8208 139.527 -2.67982
-28.8883 126.496 0.54774
-27.0222 124.646 -2.56431
-30.3272 126.937 2.30239
-19.4071 133.964 -4.64416
-19.1682 134.328 -4.67009
-15.7745 145.53 -1.13834
-26.0291 125.083 -3.43778
-29.9152 128.6 2.81445
-18.8885 146.603 2.74264
-20.9508 132.756 -3.88662
-22.7746 128.1 -4.94592
-26.3596 135.077 3.13574
-15.1517 146.064 -1.55977
-20.5548 133.367 -4.03538
-16.3412 144.716 -1.23465
-13.3874 146.254 -3.33204
-15.7657 145.171 -1.55373
-11.5732 148.848 -3.59888
-27.6552 133.126 3.12117
-13.6979 146.704 -2.78593
-15.8647 144.326 -2.05717
-13.5192 146.99 -2.81398
-14.1348 146.29 -2.62315
-15.5798 141.634 -4.11617
-26.0251 135.095 2.58776
-29.6882 127.604 1.64602
-15.6854 144.099 -2.5686
-15.6786 145.068 -2.00661
-24.4614 127.262 -4.21773
-21.6516 142.849 2.66967
-12.6127 150.48 -1.99716
-25.6844 127.951 -2.68488
-14.6031 147.276 -2.00705
-23.4274 128.29 -4.88297
-21.1279 133.482 -4.05122
-23.8454 139.69 2.65387
-23.1639 131.376 -3.31852
-21.045 144.169 2.53189
-22.6109 129.585 -5.10974
-13.9163 148.536 -2.22683
-24.5939 138.503 2.49365
-27.4383 127.333 -1.6607
-21.7806 132.598 -4.22434
-28.0994 127.9 -0.70698
-23.2934 139.947 1.91356
-23.4801 129.964 -4.30685
-27.4788 132.959 1.73302
-19.1076 140.507 -2.19717
-22.6968 139.687 0.775788
-14.491 149.174 -1.76879
-22.511 132.536 -3.98363
-20.3974 139.084 -2.12412
-24.6429 135.415 -0.0406298
-18.421 143.395 -1.48305
-24.4584 137.915 1.20026
-22.4368 133.17 -3.93579
-21.0479 138.853 -1.86065
-17.3419 146.924 -0.637394
-22.3243 140.503 0.457788
-24.9485 132.92 -1.65362
-24.3754 133.573 -1.88667
-16.8067 147.983 -0.693553
-22.6695 133.518 -3.80513
-21.6123 142.868 0.979777
-24.5735 132.909 -2.26942
-22.2195 141.033 0.381661
-21.5923 142.908 0.879726
-18.8586 145.328 -0.476181
-24.5362 135.653 -0.801742
-21.3187 137.222 -3.25869
-19.422 144.13 -0.922583
-19.708 144.425 -0.568082
-21.0807 141.827 -0.902018
-21.4653 143.16 0.256572
-21.0894 143.817 0.237207
-21.5526 141.765 -0.653686
-21.7811 142.619 0.0471667
-21.52 142.808 -0.172841
-22.71 140.309 -0.721106
-22.8346 139.578 -1.12579
-22.8816 136.799 -2.98388
