ply
format ascii 1.0
comment Created by Open3D
element vertex 1881
property double x
property double y
property double z
end_header
18.3619 135.877 6.30613
-8.12033 94.422 16.9013
13.9134 129.859 9.98753
7.02638 106.374 -14.6214
6.4038 105.184 -14.9102
18.2948 129.704 -7.13384
24.583 142.068 -4.28817
12.6429 118.313 -10.3999
-6.34154 98.1098 17.6616
12.3897 127.928 11.0978
8.46001 122.395 13.9597
2.17657 97.3225 -16.2999
-3.74647 103.194 18.5269
13.9788 121.602 -8.78289
8.78845 110.702 -12.7883
1.05359 112.434 20.069
10.8854 125.933 11.974
11.2957 115.94 -11.0864
-6.1995 98.7067 17.7867
15.8478 133.08 8.52041
-6.99255 82.3915 -14.3055
22.754 142.898 3.35861
16.1147 126.152 -7.6719
-4.66843 101.858 18.3801
20.5277 139.537 4.32691
15.4039 132.468 8.42728
1.83633 113.763 19.3269
-10.5743 89.7244 14.444
-8.77299 93.9089 16.5332
20.1957 133.343 -7.96664
-6.88 97.6651 17.4234
13.9747 122.046 -8.84583
13.9247 120.696 -11.6052
20.0092 132.683 -8.88061
-9.30135 92.6785 15.4958
19.9393 132.435 -9.31806
-15.0862 80.5374 11.1414
-1.97605 107.403 19.4299
19.3559 132.154 -7.81006
-10.7854 77.0971 -12.5026
6.82911 107.144 -14.4722
11.3983 127.207 11.2748
4.85856 118.078 16.2693
-6.44593 84.1803 -14.2348
6.8909 107.523 -14.3928
1.72331 97.544 -16.3788
-16.371 77.1891 8.05355
-10.8593 77.3361 -12.5488
23.9511 145.27 2.13965
10.0912 114.015 -12.7807
-2.1201 91.2873 -15.6445
-2.65063 90.5345 -15.3903
20.3563 133.912 -8.96384
24.7866 145.927 0.139304
19.6292 133.671 -6.75597
17.5695 130.43 -6.00664
14.5628 124.347 -7.85846
-9.95307 78.9452 -13.0421
6.46798 120.729 14.6468
10.4107 126.208 11.5353
-16.9363 75.4662 5.36753
9.4271 124.905 12.2047
17.5934 129.408 -8.91344
14.9869 124.406 -9.88706
18.4882 131.139 -8.70903
-9.44752 79.9418 -13.4745
14.5081 123.489 -10.2661
11.337 127.78 10.8274
5.63713 105.679 -15.2097
10.6165 115.961 -11.8989
9.86639 114.187 -12.9488
-2.39653 91.4612 -15.7013
-3.29991 105.984 18.8957
13.6056 131.005 8.91909
20.2218 134.579 -8.42297
-10.9179 90.255 13.6856
22.6727 139.56 -7.00386
-11.3673 89.2669 13.1873
10.5845 116.241 -11.7655
19.6814 133.754 -8.47666
1.54212 114.625 18.7562
14.9665 125.311 -8.90362
-2.63985 91.3149 -15.5878
14.1621 132.01 8.37226
5.65279 120.132 14.8698
-4.14652 104.67 18.5321
22.4326 139.273 -7.30399
-5.07634 87.6721 -14.5809
18.0931 131.478 -7.99562
6.76992 108.735 -14.1897
19.2211 133.074 -8.90515
-15.3789 81.4891 10.5863
23.2882 145.743 2.62658
18.0842 131.732 -7.90232
13.9674 122.922 -11.4469
18.5337 131.861 -9.46117
-9.146 95.2914 16.1862
-7.4141 98.8911 17.3376
14.707 126.04 -7.71656
24.2494 145.681 -1.49088
14.8932 133.759 8.11406
-13.6717 85.6011 12.164
19.2995 139.901 4.45888
6.20278 121.364 13.9815
23.7394 144.234 -3.04955
14.9347 125.637 -9.87696
-5.25652 103.275 18.1631
-16.1975 79.9462 9.25051
-6.87455 85.4741 -14.1082
9.17313 125.628 11.5064
23.8272 144.838 -2.4832
-3.1899 91.3954 -15.496
0.0483585 113.406 19.5588
21.8575 139.045 -7.62583
-11.4026 90.1883 12.7695
20.6042 142.404 4.26673
24.0612 145.779 -1.55979
20.9683 137.69 -7.34642
-7.91478 98.3444 16.9067
19.4255 134.417 -8.76536
-6.54349 101.277 17.7609
-6.2421 86.8268 -14.4434
23.6505 144.908 -2.50698
23.7243 146.9 1.45158
7.64737 123.909 12.5616
13.6054 122.972 -11.9798
16.0912 128.7 -9.09397
18.1943 132.628 -8.63517
15.9146 136.095 7.28219
18.184 132.684 -8.60246
6.3982 109.465 -14.1161
23.4467 144.634 -2.84344
-3.68345 91.223 -15.37
-11.429 78.7367 -13.0577
-7.46177 85.2717 -13.9936
-15.0585 83.6101 11.0678
18.2152 132.803 -8.67668
-16.9029 79.0121 8.04131
16.3188 136.679 6.66608
17.4656 131.337 -9.13711
23.7005 147.135 1.22449
3.27474 118.176 15.8996
16.0324 128.848 -9.29389
18.4349 133.143 -9.24394
13.9565 124.661 -10.6712
19.3656 135.534 -7.69882
-13.3871 87.2975 12.1117
21.0982 144.147 4.25
14.5558 134.375 7.85011
-3.96318 91.1132 -15.3117
-17.6736 75.625 3.03038
14.8383 126.682 -9.87952
-4.89833 105.258 18.4256
17.5891 132.084 -8.70232
-1.89248 94.3566 -16.3513
14.8768 127.343 -8.79085
19.5979 141.909 4.61483
13.7473 133.1 7.71939
-2.28451 110.506 19.5786
-9.92543 81.6333 -13.6799
10.961 119.8 -10.6286
0.885058 115.662 18.3885
6.99453 111.325 -13.9791
18.0471 133.449 -8.164
17.7728 138.886 4.43282
16.5888 130.156 -9.97972
16.9011 130.875 -9.76463
21.7081 141.031 -6.22054
-8.91866 83.8232 -13.6995
-14.7598 85.1704 11.1628
16.8119 137.859 5.31431
-9.14157 83.5259 -13.64
-15.4593 83.4756 10.0526
9.46931 116.513 -12.9834
18.0098 133.828 -8.02968
19.0312 134.962 -9.49581
22.8576 144.65 -3.11302
-17.8623 77.1311 5.22751
-2.6122 110.564 19.4063
22.2747 143.126 -4.66019
10.8962 129.682 9.11694
-17.9633 77.1496 4.86125
-12.4873 78.265 -13.3931
-7.62805 101.095 17.3045
12.9264 123.546 -11.9865
3.16509 119.176 15.3189
14.813 127.918 -9.98387
18.4661 135.056 -8.49436
21.1939 140.538 -7.13492
18.2999 134.738 -8.73854
9.7626 118.219 -12.1008
-6.23547 104.158 17.8418
6.61809 124.152 12.1915
4.31184 107.273 -15.5239
-17.8316 78.4988 6.11337
-7.46413 102.002 17.4009
5.50657 110.063 -14.3084
17.0919 139.199 4.60975
-16.4638 81.9605 8.07493
4.14804 120.974 14.0651
17.9078 135.146 -7.49131
18.4154 135.194 -9.31371
-15.2862 85.1173 10.1218
9.62629 118.522 -12.1163
14.7588 128.15 -10.8351
-7.77972 86.9976 -14.5016
19.0114 137.435 -7.16385
17.9193 135.216 -7.86384
-0.412407 115.332 18.4626
-18.2635 76.3607 2.00438
7.02039 113.316 -13.9157
22.9476 147.731 -0.161334
-18.1764 77.7981 4.58552
-9.53566 84.3299 -14.0104
17.7259 135.294 -7.41412
-1.22386 114.225 18.6934
16.7328 133.067 -8.51459
18.4943 142.143 4.33229
-11.605 93.0009 12.1218
9.78888 129.285 9.24478
-16.3635 83.0568 8.49651
-9.01241 99.4473 15.9874
-18.2495 76.1501 0.68676
7.75322 126.588 10.9987
-9.36431 98.8027 15.7317
13.4977 134.968 7.21996
-18.3761 76.4157 1.41306
6.63509 125.141 11.6174
4.94365 109.935 -14.7209
-12.7611 90.8383 10.9803
1.66576 118.559 16.0559
-18.4231 76.606 1.59753
2.76928 119.977 14.8966
6.96352 125.707 11.3799
-8.83437 86.0803 -14.3715
21.9034 144.993 -3.66267
2.69274 119.985 14.9071
16.2492 139.246 5.16638
-6.12134 105.751 17.4939
16.5998 139.768 4.9146
21.2226 142.972 -5.6316
-6.40021 89.9568 -15.4234
20.8613 142.137 -6.09842
2.27109 105.069 -15.8688
-14.6922 76.7741 -12.8586
-10.368 83.7245 -14.4778
-1.6211 98.1912 -16.4025
15.5197 131.075 -10.3709
-10.3143 83.8865 -14.4678
11.8387 133.047 7.58317
-14.1759 88.7975 10.5538
-10.9794 95.9319 13.6959
-0.76574 99.8169 -16.4863
14.9338 129.897 -11.0837
-18.1883 76.0981 -1.90237
10.486 122.339 -10.7242
1.52281 104.042 -16.3338
-2.40271 97.039 -16.6097
-17.4701 81.4148 6.43159
4.12617 109.238 -15.3017
-10.4048 84.167 -14.5841
-3.09997 112.545 18.8479
-13.6009 90.206 10.2278
13.3848 127.367 -11.8279
15.5082 139.251 5.63916
3.62432 122.052 13.4511
0.976839 103.51 -16.5617
0.203579 102.147 -16.5964
10.1246 122.102 -11.1275
-13.0422 80.088 -14.0857
-3.16011 96.3134 -16.5039
17.1979 141.72 4.2925
8.48757 118.271 -13.3379
21.077 147.872 2.70794
0.241535 118.029 17.0246
17.9223 137.61 -7.5611
-10.5766 84.2811 -14.7295
17.5742 137.198 -7.15441
-2.17018 98.352 -16.3379
-2.79421 113.477 18.4694
17.9454 143.24 4.22786
-13.9392 89.9919 9.98809
-5.68836 108.194 17.8638
-5.54388 108.497 17.9251
10.7503 123.59 -11.4369
18.7882 139.646 -7.3961
-12.5114 93.2645 10.8882
8.93655 120.11 -12.3248
17.517 142.785 4.03496
-18.5533 77.0451 -1.47164
14.0726 129.695 -11.4632
8.64404 119.626 -12.7177
-12.2174 82.0589 -14.8221
-2.97719 113.708 18.3079
5.09201 124.905 11.7798
-18.1817 80.5191 4.11693
-18.1406 80.6547 4.16437
8.41774 119.259 -13.0207
9.93842 131.816 8.19461
-16.3625 85.7029 8.06471
20.5747 148.003 2.67406
17.6595 143.602 4.13697
-13.9828 79.5293 -14.2886
-18.8494 75.1275 -5.5045
16.5228 141.884 4.51183
18.3524 139.767 -7.06513
-16.616 85.2388 7.57837
4.32987 111.69 -14.5741
17.7525 138.82 -7.05779
0.919258 104.892 -16.5279
16.172 141.611 4.7113
-9.3012 87.7545 -15.0126
-13.084 92.8514 10.1905
15.1144 133.188 -9.49395
-0.122446 103.129 -16.6511
-11.2699 84.2908 -15.1488
-6.51969 107.746 17.3332
0.0932727 103.533 -16.6475
21.2521 147.001 -3.06633
-18.7857 76.8631 -2.92291
0.0757161 118.92 16.3267
15.8847 141.368 4.8857
-14.2435 90.6943 9.34404
-15.7303 77.3559 -13.7465
-11.2295 98.1714 13.8586
15.9015 141.623 4.73607
18.6833 141.407 -6.24159
14.7401 140.15 5.77754
17.24 137.442 -9.55373
-8.55411 104.305 16.373
-14.6619 79.2022 -14.571
-7.99142 105.366 16.4548
-11.6883 84.2083 -15.1127
2.32401 122.15 13.4327
5.13447 114.532 -13.6877
-18.7286 76.9062 -4.63679
14.9632 140.713 5.45606
19.9399 144.319 -5.57683
-16.2228 78.2932 -11.1921
-11.6161 97.6417 13.0018
-18.7526 75.6894 -7.35042
8.22222 120.392 -13.003
-8.86589 104.063 16.2488
18.2415 141.272 -6.00156
-2.41624 100.199 -16.4218
-5.50421 94.858 -16.317
-16.2001 77.6532 -13.0554
10.6903 125.133 -12.4222
8.72821 121.756 -12.3445
8.23092 130.785 8.90008
20.7166 149.001 0.963051
17.5264 139.058 -8.43694
-10.2763 87.0698 -15.4066
-2.35293 116.345 17.5725
-16.7056 78.067 -10.6784
11.0313 125.927 -12.4105
-18.624 80.4738 1.68371
14.1413 132.555 -10.0018
16.5939 136.91 -9.89291
3.53772 111.604 -15.0713
-18.4623 81.1918 2.35149
5.68095 127.407 10.6276
-1.50201 102.115 -16.6621
1.96629 108.612 -15.8045
-16.3804 79.2972 -9.67483
-14.1486 80.858 -14.7583
-5.70048 94.9556 -16.3977
-8.01174 106.119 16.2608
2.90819 123.597 12.6184
15.6998 142.249 4.39725
13.2196 130.507 -11.4973
11.5711 136.014 6.44224
9.24075 123.878 -10.9419
-5.77734 95.0129 -16.4357
9.14404 123.731 -11.0518
10.8821 135.162 6.89814
6.14898 128.417 10.1763
8.08819 121.122 -12.8345
-17.5824 78.952 -6.84004
-3.62155 114.932 17.8182
-11.3899 85.8725 -15.6225
-17.1846 76.8831 -13.2109
-16.7319 87.4678 7.79683
4.03169 113.653 -14.2339
3.68247 112.869 -14.623
-3.81442 98.9943 -16.1958
10.3748 134.745 7.12712
5.76565 117.038 -13.5821
20.3672 147.045 -4.15053
0.888581 107.297 -16.3427
0.112828 105.808 -16.68
14.4404 141.183 5.31452
-8.6427 105.663 15.9847
0.788644 107.194 -16.3988
17.2116 140.143 -7.66227
7.69896 121.204 -12.9295
-1.23128 119.258 16.4389
19.1831 148.5 2.26075
-9.33852 90.0562 -15.804
5.48661 128.234 10.2685
-7.10779 109.411 17.2344
-13.4971 94.9897 10.2284
-11.1666 87.0379 -15.6947
-6.16853 95.4595 -16.4574
17.2818 146.568 4.72495
-0.951753 119.869 15.9229
-5.07553 97.6308 -16.4057
-17.6281 86.2671 6.17159
-0.261471 106.149 -16.687
-14.5978 82.0595 -14.4487
17.5445 147.341 4.64221
-0.810753 105.26 -16.6565
-6.48729 111.387 17.7921
2.74631 112.157 -15.3562
6.15676 118.883 -13.9621
-12.7039 97.8859 11.9463
-1.22428 119.911 15.9638
-15.4148 91.3092 7.8725
-6.90356 94.9654 -16.4679
-16.4853 81.1743 -10.1617
-17.0665 80.7728 -8.89187
-10.7923 103.143 15.3859
13.9092 134.839 -9.65087
16.4832 139.778 -8.79485
18.5816 145.2 -5.12697
-4.84976 99.0213 -16.0297
13.6219 134.358 -9.83974
-12.6183 86.1926 -14.4221
-2.42723 103.05 -16.6639
-16.5441 81.363 -10.0966
1.22334 109.77 -16.0683
1.46641 123.64 12.7073
7.90043 133.021 8.51485
-17.4444 81.0461 -7.67705
-12.2013 87.0013 -14.6982
12.6291 139.972 5.50006
3.74246 115.226 -14.1822
-16.4996 81.6774 -10.1061
16.8438 141.8 -6.6874
-2.51786 118.892 16.9006
-8.88875 92.6083 -16.1513
-2.62409 103.369 -16.6518
16.8581 142.328 -6.51019
0.872745 123.385 12.9027
-11.9958 101.223 13.7699
6.97036 122.537 -11.9357
5.95658 119.953 -13.7539
15.9722 146.148 4.73118
0.213112 122.656 13.6256
-18.7789 80.4301 -5.52328
9.67876 127.339 -12.089
19.2206 147.996 -3.73993
-12.2137 100.895 13.5023
-12.4023 100.656 13.2828
-19.4631 81.7414 -0.7793
-16.8365 82.3838 -9.30472
12.5033 140.661 5.26206
-3.2046 102.984 -16.6266
-0.102021 108.426 -16.714
3.93107 116.8 -13.9716
-17.6583 88.4931 6.47674
-3.33112 118.557 17.0595
5.35924 130.573 10.0776
1.65416 112.003 -15.8863
-1.48093 120.996 15.2492
7.27338 133.425 8.81245
6.99301 123.809 -11.085
16.7622 143.15 -6.40793
18.3159 146.916 -4.31226
17.6369 149.071 2.73359
17.4113 144.832 -5.52778
-15.918 92.5006 7.56905
15.1563 138.663 -10.417
-15.1348 84.5315 -12.7605
-14.819 85.057 -12.9074
11.7186 132.898 -10.1601
-19.3155 81.5847 -3.45845
12.1033 140.72 5.14608
0.82659 111.107 -16.2128
-6.03374 114.739 17.3544
-19.5883 82.4569 -1.20822
6.79139 133.554 9.13354
-7.67155 96.3769 -16.2473
5.73259 132.144 10.0637
9.69324 128.808 -12.0439
-7.34163 112.741 17.6411
-14.3246 86.1183 -13.2417
-14.2371 97.2118 10.2242
-19.6502 82.213 -1.72259
-18.789 86.0999 3.03894
13.257 136.438 -9.59973
13.3333 143.028 4.24223
-15.5553 94.1016 8.00808
-19.4504 83.5712 -0.0360571
5.14467 131.446 10.114
-14.8923 95.7312 8.74561
1.49534 113.049 -15.8491
-13.3595 100.258 12.517
-12.405 102.844 14.1949
-19.4744 82.6922 -2.46336
-8.87548 95.031 -15.9221
2.02173 114.454 -15.3434
5.69289 122.128 -12.7313
9.95295 138.407 6.0327
1.51942 113.491 -15.8045
-14.5148 97.3586 9.92173
11.9698 134.727 -9.66435
1.89962 114.377 -15.4414
7.97587 127.045 -11.2605
12.257 135.346 -9.60833
-4.28054 118.745 17.027
-8.6998 95.7639 -15.7888
-13.1944 88.7097 -14.153
-7.34172 98.198 -15.9082
-18.7249 82.5991 -6.55207
-10.9292 106.111 14.4574
1.44441 113.901 -15.7939
-17.6704 83.8179 -8.49165
16.2608 149.17 4.00603
14.1764 145.737 4.38765
10.3637 131.934 -10.9478
17.8862 150.188 -0.125111
-17.8651 83.7199 -8.21503
-6.48516 115.435 17.0192
16.1867 149.168 4.01826
-19.6769 83.6545 -1.58116
2.13926 115.609 -15.1578
-19.247 85.6814 1.1488
-4.55984 103.253 -16.4704
16.1762 149.222 3.88785
10.5665 132.663 -10.5761
-8.8722 96.3311 -15.4862
15.979 149.11 4.17232
0.811388 126.265 12.2479
7.19373 126.997 -10.829
11.4016 134.978 -9.55148
-16.2519 85.5132 -11.6418
-19.4201 85.5505 0.30246
-15.1075 86.9694 -12.9693
-10.4273 94.1782 -15.1299
-9.96554 109.326 15.6178
-15.134 86.9762 -12.9305
16.335 149.577 2.95052
4.37408 120.522 -14.4196
15.9576 144.35 -7.05093
4.2669 131.863 10.1784
-19.2074 86.5929 1.32944
16.6052 146.35 -5.44646
-18.8555 88.1157 3.02793
-17.3463 92.4225 6.5319
-16.7083 85.5146 -10.8074
-5.53017 102.599 -16.303
-19.6174 85.0383 -1.05407
-10.9059 94.01 -14.8443
2.96716 118.735 -14.1911
-18.6582 84.1344 -7.02475
7.78882 137.429 7.71868
-13.6834 89.5794 -14.1735
-13.667 102.254 12.9772
5.83582 134.918 9.41837
5.29503 134.312 10.1377
12.8671 138.062 -10.3468
15.1786 143.26 -7.89754
-19.128 84.4519 -4.94924
-13.1292 90.5312 -14.5527
-17.3798 92.8172 6.2863
-19.3548 84.5054 -4.23338
-2.78321 107.908 -16.5393
-12.0032 92.6707 -14.59
-19.5337 85.9936 -0.630183
4.52203 133.265 10.2349
-14.0195 101.808 12.531
-17.0036 85.9692 -10.2643
-18.8721 88.9474 3.05637
6.59479 127.298 -10.5713
-3.72614 106.458 -16.455
-9.17291 112.403 16.824
-16.2578 86.8847 -11.3545
2.3706 129.919 10.8628
-12.5354 91.9398 -14.5503
-11.9295 106.351 14.0736
-11.1752 94.3813 -14.531
12.3134 144.419 4.25506
12.5804 144.909 4.27574
-19.6518 85.7138 -1.44691
-19.8001 85.1012 -2.21965
-18.8237 84.733 -6.75014
-18.1285 91.5392 5.24639
-14.9923 99.4006 10.3085
-19.497 86.5048 -0.449792
13.728 147.136 4.57029
-18.8654 84.8238 -6.53414
-14.7957 100.302 11.2865
14.0855 147.989 4.69645
15.0189 143.903 -7.76036
-8.88916 98.4036 -15.4992
-0.762726 112.216 -16.6287
-6.02745 118.481 16.6669
-19.2826 87.9035 0.888211
-10.6966 109.782 15.4823
-9.32619 97.9099 -15.2056
-14.2927 102.068 12.3665
-17.5902 86.7503 -8.2796
-8.42411 99.4112 -15.7198
8.69693 139.645 6.15532
-8.32143 99.6567 -15.7314
-6.31162 103.014 -16.1262
7.60703 129.615 -11.5051
-14.3431 102.307 12.4014
-10.3007 96.8353 -14.6049
-19.3557 88.0445 0.54387
-3.29765 108.323 -16.4413
-16.486 87.911 -10.634
-12.2289 93.7376 -14.2945
-2.34645 110.18 -16.4981
3.82248 122.176 -13.9874
6.15961 136.86 8.7195
-16.8819 87.8783 -9.73323
-5.42469 120.099 16.2375
-14.7079 90.4333 -12.5616
-18.1575 92.5507 4.93047
-17.8376 93.266 5.20326
6.4811 137.525 8.36307
-17.192 95.4156 6.99898
-19.1051 89.5229 1.53565
-17.8988 93.2903 5.07761
-0.459651 127.329 12.4641
-1.05228 126.49 12.7113
-18.296 92.5204 4.68514
-16.0113 98.2258 8.29202
14.3668 149.352 3.6354
-19.7056 85.8697 -4.36991
10.7909 143.527 4.5077
-9.00597 99.4851 -15.5433
-16.5677 88.7677 -10.2442
16.5668 150.395 -2.76585
7.18969 138.694 7.40898
15.8031 147.952 -5.33312
-0.474394 127.679 12.4038
-19.6535 87.7037 -1.24621
8.55312 140.638 6.13259
-5.50177 120.506 15.8433
8.84602 141.124 6.00525
-4.75644 121.438 14.9212
10.655 136.996 -9.91765
-19.727 87.5235 -1.71748
-17.0093 96.443 7.11516
16.3276 150.45 -2.55473
12.8371 140.945 -9.89003
15.5598 150.652 0.538145
0.74101 117.331 -15.5315
-19.0333 87.2129 -5.82696
7.26445 139.341 6.963
15.378 150.644 0.640827
3.80981 123.644 -13.7763
-13.3806 93.4365 -13.9972
-4.01499 108.912 -16.2748
-0.418234 128.53 12.227
-14.4992 104.123 12.8582
9.12619 134.885 -10.1277
-10.4442 113.004 16.0855
-2.21707 112.375 -16.3244
-17.6174 95.8819 6.23993
-17.6016 95.9908 6.3777
-3.67172 123.889 13.7306
-7.2883 103.854 -15.744
6.08979 129.627 -10.8312
14.7533 146.685 -6.9063
8.47367 133.949 -10.6773
-12.6433 108.516 14.242
-5.32322 107.262 -16.0733
-8.50272 116.783 16.2706
2.45259 121.741 -14.3816
15.9299 150.521 -3.44607
-7.82086 118.118 16.4247
-12.6188 95.8313 -13.6679
-19.044 91.7672 1.70728
11.1691 139.172 -10.3257
5.70513 138.455 8.62435
5.81116 138.642 8.53026
-17.565 96.8141 6.75378
11.2238 146.286 4.47214
11.0354 145.932 4.41961
-7.57236 103.981 -15.6038
-13.504 107.241 13.5255
3.69056 135.923 10.2698
15.6377 150.667 -3.1204
7.62607 141.088 6.44333
11.5767 147.21 4.60918
3.60663 135.907 10.3258
-15.007 92.5381 -12.8123
10.9131 139.227 -10.2728
-20.0181 88.5223 -2.76004
9.60112 137.295 -9.80737
15.5129 150.483 -3.83988
2.43401 134.275 10.545
-17.5613 90.5915 -7.95864
-20.0587 88.4269 -3.2569
-4.48088 109.84 -16.0021
-19.1417 92.553 2.05492
-19.2015 91.8794 0.832777
-14.0135 94.2453 -13.6653
-11.1226 98.9958 -14.458
3.46261 136.139 10.3334
-18.6202 89.54 -6.5691
-2.65312 113.276 -15.7979
-17.5502 90.83 -7.93744
-19.2324 91.9377 0.766725
-11.153 112.985 15.4331
-3.0156 126.219 13.1397
-8.67425 103.094 -15.2807
5.55939 130.285 -10.5423
3.4954 125.453 -13.2708
-1.83272 128.25 12.7492
-15.6698 92.4227 -12.1052
2.59436 135.091 10.6313
-19.0464 93.8424 3.42384
12.8901 144.324 -8.49991
11.5512 148.123 4.67956
-10.0687 115.526 16.0879
9.1728 144.062 4.83373
-15.8587 102.972 10.868
10.0479 145.4 4.34776
-5.53145 108.759 -15.7411
-15.8475 103.072 10.9074
-10.0038 115.794 16.0566
-16.8444 91.8663 -9.6302
-17.3073 98.9477 7.29531
-4.39032 124.691 13.7298
-16.7922 100.783 9.07188
-10.2038 101.14 -15.0805
2.42419 135.33 10.6494
-5.15262 123.692 14.1784
1.85011 122.592 -14.6238
-13.4672 109.118 14.1349
-14.6179 106.581 13.0204
3.84736 127.245 -12.33
-13.3741 96.6302 -13.2755
4.41155 129.027 -10.7622
-17.7433 98.265 6.64668
-6.58627 107.553 -15.4945
-17.8331 98.102 6.56234
1.67132 134.229 10.5919
-5.15127 110.199 -15.429
0.705781 120.685 -15.0149
9.67323 145.469 4.40966
12.2979 143.788 -9.13374
-8.68359 118.869 16.1232
-18.2563 97.476 6.14179
-20.1559 89.2938 -4.34512
-0.29393 118.984 -15.4747
3.77511 127.729 -12.0891
-19.2557 94.3197 2.90863
-8.97107 118.506 16.093
11.7262 149.58 4.80634
-13.1588 110.534 14.5064
-14.2179 95.8108 -13.246
-19.6746 92.1508 -0.859618
2.9164 126.066 -13.4365
9.33075 145.708 4.4327
-19.3691 94.5275 2.64057
-17.8863 99.1569 6.92939
-14.0416 96.6259 -13.0938
-6.00842 123.543 14.3435
-15.6823 94.2367 -12.1652
2.074 136.099 10.8112
-17.8228 99.6754 7.24549
-20.1175 90.1719 -4.60562
-17.1518 92.9068 -9.92258
-7.61405 121.497 15.3498
-19.418 90.7845 -6.19055
-2.75234 128.956 12.9657
-1.84406 117.772 -14.5785
14.3209 151.146 -3.82406
-14.4526 96.3823 -13.0411
8.85151 138.74 -9.89753
2.32533 125.522 -13.8929
3.34337 128.442 -11.4787
-5.73148 124.485 14.1467
-3.89727 114.143 -15.0819
9.49372 140.016 -10.0149
3.12215 138.066 9.75907
-7.89463 107.427 -14.6645
12.6567 146.442 -8.36252
-11.3501 115.485 15.537
-6.05675 110.754 -14.5795
-8.93573 105.752 -14.4922
-12.3954 99.8264 -14.2686
-19.8826 93.1406 -0.457285
0.691266 122.758 -14.41
10.0451 141.116 -10.2281
-4.61066 126.49 13.5018
-13.2359 98.7087 -13.7781
-12.7464 99.5104 -14.1022
-5.81816 124.81 14.1002
-17.7954 100.984 8.02982
-17.3109 102.37 9.02618
10.8619 142.98 -9.91476
7.46086 144.184 5.38131
-8.68585 106.668 -14.3705
-3.11249 116.19 -15.0182
-0.312823 133.502 11.5915
-16.8822 103.69 9.98533
-18.819 98.0787 5.21594
-20.1112 91.4749 -4.53966
5.49161 141.746 6.95718
-3.53356 115.658 -15.2048
12.6172 147.297 -8.14003
12.908 151.199 -0.886505
2.70686 128.064 -12.1954
-15.1058 108.485 12.7701
9.1327 147.332 4.63032
9.91567 141.805 -10.2397
-20.0035 91.5923 -5.51863
5.5765 133.804 -11.2547
-19.4315 96.6108 3.00685
11.9169 151.252 2.21163
3.96657 131.182 -10.9703
8.99564 147.387 4.64357
-5.17958 113.645 -14.4519
-3.41082 129.618 12.8825
-12.1268 115.408 15.0818
-18.4359 100.638 7.02604
-17.0529 104.572 10.1657
-8.22842 122.4 15.1479
5.87143 134.823 -11.3416
8.20233 139.527 -10.269
-17.7799 102.818 8.65676
-9.65786 106.692 -13.7338
-5.35289 114.004 -14.3367
10.5319 150.652 4.43121
-19.6081 92.7726 -6.31749
-11.1448 104.169 -13.7555
-1.26378 121.569 -14.0444
-3.46817 117.778 -13.8821
2.37037 129.315 -11.1907
-16.4727 96.1962 -11.3567
-0.941397 134.075 11.4756
-0.146449 135.221 10.6844
-11.7799 117.003 15.3906
-10.6664 118.967 15.1704
11.1754 151.581 2.82631
-18.83 100.268 5.67043
13.1088 151.657 -4.37648
10.2311 150.728 4.39252
1.21886 136.962 8.664
0.75793 136.328 8.80953
4.65375 134.005 -10.8719
9.34579 149.651 4.99088
-7.73221 123.996 14.2254
-15.7821 97.8306 -11.6659
-13.2414 101.293 -13.8233
-4.60099 116.135 -14.567
-0.344684 135.147 10.2337
2.86214 139.844 8.22384
0.327023 135.837 9.16332
-19.6089 97.082 1.0339
12.4209 150.243 -5.5646
4.04245 133.243 -10.5351
-15.8379 97.9118 -11.5131
0.730412 126.157 -13.3372
-0.458956 124.206 -13.0519
-11.8269 104.147 -13.3392
-19.619 96.7625 -0.0462616
-19.6235 96.7352 -0.202143
-18.797 94.5414 -8.10225
-16.4959 97.3412 -10.7652
-17.1338 106.318 10.861
4.12148 142.202 7.74868
-11.3368 105.387 -13.1654
-14.6139 99.8366 -12.7771
-4.44365 117.096 -14.1597
10.7316 151.768 3.07116
-2.01618 121.843 -13.2933
-19.8086 95.3884 -3.1417
-19.2679 98.9781 2.51148
11.3751 152.14 1.07602
-12.0244 104.555 -13.0937
-9.68016 121.886 15.182
3.13593 132.191 -11.0104
-10.6195 107.157 -13.0888
-1.94948 122.354 -13.1387
-7.83538 124.778 14.1886
8.8389 142.799 -10.0008
-13.5987 114.93 14.5332
-19.1537 99.336 1.94468
-19.4524 97.5402 -0.825959
-12.9809 103.116 -13.311
-16.6852 108.234 11.6064
-0.59037 135.209 8.79511
3.88319 134.048 -10.5758
-18.7161 95.4241 -8.38931
-0.756032 135.037 9.01887
-19.4624 97.4774 -1.23232
-1.9213 122.843 -12.9569
-20.2526 94.5688 -4.63199
-2.68975 121.628 -12.7957
-19.4997 97.2006 -2.00849
-9.94829 108.765 -13.1669
-11.3324 106.47 -12.8922
-14.8974 112.632 13.6937
11.3838 152.351 -0.248946
0.169677 136.668 8.28313
-14.2611 101.57 -12.7682
5.64903 145.184 5.76491
-17.1157 98.1133 -9.68422
-20.3656 94.7805 -4.75105
-0.844221 135.298 8.48178
11.8491 152.456 -2.51662
-11.9006 118.811 14.6829
-17.5736 97.6623 -9.44211
9.06683 144.507 -9.31815
-18.788 101.425 3.06718
-7.46804 126.401 13.8113
10.7509 152.728 1.64709
-8.23724 125.259 14.1934
-19.1147 100.268 1.36802
-2.64242 122.852 -12.3031
-18.9486 96.293 -7.95562
-17.5142 107.418 10.5303
-18.6636 102.44 4.16201
-13.7406 102.976 -13.2804
0.650708 138.047 7.81643
-0.150274 136.771 8.0668
-13.8446 102.895 -13.2266
11.6537 152.499 -2.8158
-18.5506 102.794 4.21582
-9.51253 110.578 -13.2658
7.32669 148.548 4.83405
-18.9245 101.357 2.35926
7.0809 140.942 -10.6657
-2.54651 123.403 -12.0776
9.26766 151.689 4.08444
-19.7915 98.0462 -1.87718
-6.3748 115.894 -14.1019
-15.3107 113.101 13.4715
-17.5376 107.839 10.479
-14.4691 102.64 -12.4538
-17.2193 108.861 11.2566
-18.8737 102.118 2.86172
-18.5467 104.384 6.41721
-15.9294 111.973 12.8345
8.75523 145.145 -8.93417
2.80734 133.816 -10.8731
-19.8123 98.5914 -1.33152
-13.8536 103.752 -12.9029
-19.8009 98.8384 -1.04805
10.082 152.965 2.60122
-16.4532 100.569 -9.96157
9.80736 152.829 3.33692
4.60729 137.152 -10.7625
-19.8595 98.7496 -1.24475
-3.63351 122.41 -11.6617
-12.6954 118.786 14.3888
-11.1412 108.941 -12.6279
-14.1019 103.731 -12.8028
9.50811 147.578 -7.66206
-18.0527 98.7655 -8.76852
4.30808 137.204 -10.723
-20.26 97.0511 -4.8792
-20.5212 96.7912 -4.48078
5.41911 139.644 -10.4535
2.8141 134.91 -10.8889
-10.3366 123.669 14.4778
3.44116 144.166 6.31906
-12.9354 119.206 14.211
-16.219 101.853 -10.7316
-3.32608 124.418 -11.0346
-16.3441 112.612 12.5896
9.70108 149.329 -6.83018
9.0037 148.156 -6.77598
6.34067 142.192 -9.60315
-1.77822 135.97 7.49652
3.69047 137.562 -10.6654
-0.777548 129.016 -12.1986
10.5094 152.445 -4.43652
7.69586 146.151 -7.42336
1.43746 141.6 6.2862
8.9738 153.677 3.77996
-13.4489 106.957 -12.1234
-19.0861 104.55 3.90929
-1.65072 136.675 7.13205
-2.79851 125.857 -11.8044
-20.1369 101.28 0.720633
-18.5078 100.349 -7.58095
10.1916 153.475 -1.61604
-20.2815 100.951 0.322364
-5.32534 132.26 11.1611
0.533733 132.136 -11.2121
-6.25556 119.922 -11.9181
10.216 152.917 -3.12804
-20.5741 98.2046 -4.68443
-12.0583 121.95 14.0297
-17.4802 111.233 11.3456
6.50539 144.37 -7.93836
-16.8723 102.449 -10.0048
6.34524 144.154 -7.99744
-19.413 99.7111 -6.42181
-16.8482 112.976 12.2252
5.84085 149.268 4.57138
-0.779467 130.276 -11.3053
-5.03451 133.045 10.6651
-5.74988 121.873 -10.67
-15.1178 116.622 13.3552
-5.07579 123.251 -10.4505
-13.9771 106.964 -11.9192
-3.07479 126.172 -11.7629
-12.7696 121.123 13.9131
-11.7963 110.721 -12.134
-13.7587 119.289 13.6316
-1.8723 136.899 6.65417
9.24107 154.407 2.37291
-2.86721 135.335 6.68593
-19.8289 99.7791 -5.99653
-6.79167 120.005 -11.821
-10.9538 124.597 13.5537
-13.7523 119.697 13.5077
-8.24931 116.971 -13.1424
1.81535 142.436 3.55969
-20.0846 103.054 1.4704
9.64614 152.022 -5.40687
-17.8942 111.314 10.8882
4.92913 142.351 -8.48161
9.64003 153.282 -2.77346
1.39973 141.948 3.85008
-9.78215 126.826 13.4663
-5.65196 123.088 -10.2355
2.06678 136.715 -10.1768
-20.099 103.35 1.68347
9.5985 152.43 -4.90357
2.91308 138.337 -9.9973
-20.8761 99.7884 -3.17553
-7.34994 130.751 12.1713
-16.1079 115.429 12.1427
-20.8493 100.127 -2.8861
-6.88253 120.761 -11.2431
-18.6543 109.165 8.142
6.90499 147.286 -6.32576
-1.42014 130.302 -11.466
-17.1601 103.503 -9.71712
2.62023 138.166 -9.86436
-15.9217 104.929 -11.3981
-20.465 99.9077 -5.41383
2.75373 145.414 4.72288
4.09542 141.903 -8.19654
-10.8033 113.813 -12.394
-6.19279 132.492 10.3114
5.71196 145.47 -6.68542
7.3018 148.714 -5.85991
-4.93905 133.601 7.75471
-7.77437 119.442 -11.9775
-14.9532 107.129 -11.3746
-18.1378 102.866 -8.54321
1.57139 143.229 3.88399
-2.23965 129.261 -11.8052
-7.35532 120.557 -11.2485
4.41737 143.018 -7.38588
6.95342 148.129 -5.97681
-20.0927 100.672 -6.08855
-20.6846 102.206 -0.726919
-19.7463 106.234 4.29197
-3.97786 134.6 5.60293
-14.3167 119.915 12.9275
-7.11522 131.48 10.6125
-5.51202 124.62 -10.3036
-18.6948 110.556 9.10675
-20.6186 103.327 0.776484
2.72302 145.7 3.77066
-3.1512 128.642 -10.8814
-1.55344 138.881 5.09287
-1.95699 130.483 -11.4744
2.07005 138.969 -8.4839
-4.26666 134.311 5.34901
-11.1784 125.689 12.8079
-1.22581 139.403 4.74425
-6.4801 123.462 -9.78738
-8.21917 119.502 -11.7398
-8.08322 130.536 11.3752
-8.38351 119.147 -12.0004
-6.63941 132.303 9.65634
-18.471 111.741 10.0606
-12.3341 123.85 12.9246
-6.73477 132.19 9.72016
-8.21237 119.694 -11.5651
-19.2778 102.167 -7.6401
-8.10088 130.602 11.1724
2.55299 140.33 -8.28311
-20.1395 106.032 3.49849
0.0559734 141.375 3.30296
6.0197 147.665 -5.83638
2.5801 140.564 -8.14859
1.53469 143.882 2.84337
-17.88 104.297 -9.05557
-20.6368 101.193 -5.36372
-3.06702 136.495 4.24558
-20.9081 102.34 -1.92014
3.83773 143.524 -6.7169
-3.39277 135.871 4.08635
8.09055 151.756 -5.15335
-17.025 105.214 -10.4935
-1.21318 139.147 2.59787
-2.34815 137.626 3.51953
-2.94916 136.82 3.97215
-17.3859 104.911 -10.173
8.453 153.061 -4.24031
-7.09279 123.268 -9.72724
-9.10167 129.993 12.1475
-20.1386 106.693 3.56418
7.78319 151.737 -5.00363
-4.51004 134.632 4.43622
-8.51189 120.595 -10.7386
-18.6829 112.25 9.64772
-1.33898 133.125 -10.8958
2.34574 141.386 -7.21073
-9.75676 117.771 -12.4121
-12.7701 124.087 12.4653
-17.3122 105.711 -9.94796
-1.36011 139.508 2.53193
-6.71608 132.638 7.90383
-9.83244 129.271 12.3801
-1.16183 140.062 2.72721
-16.4785 117.536 12.044
6.37891 149.544 -5.40874
-10.7403 116.187 -12.6406
-0.915954 140.726 2.96285
-18.7869 104.462 -7.62291
-9.08273 120.022 -10.9059
7.78925 153.804 -1.92724
-17.4299 106.011 -9.66587
-5.36293 126.686 -10.7304
4.49646 146.313 -5.89902
-12.7977 124.435 12.2208
-13.6303 112.107 -11.1956
-1.08702 140.725 2.93704
-17.9771 114.151 9.44509
-15.8198 108.887 -10.1314
3.59536 144.892 -5.96967
-14.4156 121.815 12.2995
-11.2292 127.604 12.6769
-2.87895 131.131 -11.2859
-20.7356 105.177 0.0505365
-19.4107 110.139 5.48368
-12.0824 126.253 12.3862
-18.5277 113.221 8.51596
-13.2033 124.286 12.1001
-4.13106 130.207 -9.53488
-8.38617 131.526 9.26465
-19.1658 105.207 -6.7611
-1.70278 134.502 -9.66159
7.16549 152.883 -3.61485
-19.0523 111.612 6.29759
-4.34647 135.992 3.22991
-15.8047 109.734 -10.2413
-18.7676 111.259 4.19743
-16.8426 118.394 12.1096
-20.1639 106.019 -2.0321
-20.9745 103.281 -5.20785
-7.14808 125.601 -9.45339
-13.4926 113.571 -11.4626
5.31081 149.443 -5.27397
-10.2854 119.145 -11.6544
-0.907707 137.3 -8.16132
-14.0151 123.725 11.9588
4.61293 148.334 -5.4067
1.76049 143.064 -6.01487
-18.5499 113.738 7.40517
6.51871 153.033 -2.78996
-19.8251 109.708 3.36217
-20.6748 106.554 -0.322331
-5.83866 134.452 3.68528
-17.4925 107.909 -9.52334
-15.4033 111.091 -10.629
-12.0862 116.316 -11.9284
-1.38716 142.342 3.53232
-20.5265 107.332 -0.0177492
-17.8305 107.764 -9.28142
2.05717 144.685 -5.49827
-3.74201 132.389 -10.2263
-9.39074 122.941 -9.25962
-19.9714 109.342 1.32462
-14.8203 112.923 -10.7893
6.41061 154.91 -0.616462
-2.26913 136.026 -8.51282
-9.50687 123.061 -9.18351
-19.5273 109.742 -0.0543476
-20.1939 108.665 -0.0262059
-5.59874 135.93 3.51685
-17.247 109.258 -9.96015
-5.13488 130.894 -9.20079
-6.9792 127.205 -10.2279
-7.86401 133.076 5.59145
-3.62855 133.426 -9.66106
-20.1227 108.712 -0.668113
-18.1214 116.751 8.92981
-3.45325 134.097 -9.22061
-12.3002 128.322 11.6439
5.37275 151.718 -4.78976
-17.9515 115.367 5.02118
-9.62151 123.695 -8.97214
-2.70219 136.489 -7.71852
-8.13971 126.446 -8.80361
5.44664 152.949 -3.07166
-16.452 111.276 -10.248
-14.7456 113.9 -11.0959
-15.6014 112.763 -10.5311
-2.34777 142.559 3.38285
-3.94404 134.185 -8.7138
-10.5149 130.418 7.93725
-3.63139 134.95 -8.30619
-6.09942 129.778 -10.1777
-16.3731 121.99 11.7784
-15.3958 123.678 11.6967
-5.77159 130.729 -9.52365
-10.713 130.429 8.37767
-7.75973 127.32 -9.53041
-10.7545 130.559 8.69706
-3.40339 135.821 -7.72406
-10.7804 130.207 7.93063
-5.12621 132.27 -9.16491
-11.1116 130.341 8.9759
-19.3266 112.689 1.98304
3.42959 149.39 -4.99543
-5.80447 131.367 -8.97127
-12.9771 117.73 -11.321
-18.2639 118.609 10.4095
-14.2738 115.547 -11.3344
-11.0508 122.241 -9.12127
-14.4062 126.06 11.3821
-5.65311 137.847 3.67084
-15.0305 125.114 11.5597
-19.9422 108.141 -6.39917
-10.9917 130.242 7.27385
-12.1312 129.542 10.0145
-12.067 120.121 -10.6388
-13.8599 116.649 -11.4381
-1.7287 140.387 -6.18073
-18.853 114.559 2.63389
-5.71484 138.199 3.63133
-3.45596 141.486 2.12846
-16.3454 123.352 11.701
-11.696 129.61 7.58532
-9.96304 132.29 6.77614
-14.0314 127.325 11.2384
-17.7447 111.084 -9.74292
-12.7756 119.246 -11.0211
-10.5707 130.944 5.53385
5.19105 155.417 -1.3047
-7.36036 129.736 -9.62688
-5.87286 132.943 -8.36588
-18.4156 117.954 6.65052
-11.5168 130.175 6.82517
-18.3096 119.211 8.83431
-11.1196 130.726 6.29326
-12.8919 128.685 8.33396
-17.3773 112.344 -9.91946
-3.99623 141.33 1.45367
-8.2389 135.342 4.39899
-21.2542 108.719 -3.91886
-3.52047 142.805 2.17781
-18.9437 117.026 4.81481
-10.8506 131.606 5.54544
3.90981 154.007 -2.40262
-3.14876 139.5 -7.00176
-21.1108 110.262 -2.15431
0.185131 146.19 -5.24375
-20.7215 109.106 -6.15247
-21.246 109.847 -2.6775
-14.8499 117.814 -9.67841
-14.2499 118.785 -9.86692
-15.5938 116.73 -9.38527
-14.7256 118.242 -9.42109
3.97402 154.721 -1.7263
-15.6974 116.794 -9.0764
-15.4468 117.297 -9.00352
0.971814 148.162 -4.61928
-20.1273 113.719 0.734648
-0.274152 145.717 -5.35521
-11.8621 130.56 5.74801
-12.8912 128.994 6.25686
-10.8748 132.371 5.66004
-19.4657 111.062 -7.75253
-11.7334 124.341 -8.37081
-20.8634 109.462 -5.98676
-16.5486 125.041 11.1257
-9.68821 133.918 4.13619
-14.6087 127.889 9.72221
-7.15538 132.229 -9.12093
-14.4378 119.162 -9.75048
-0.755883 145.132 -5.55741
-8.70858 135.846 4.35036
-19.5065 115.365 0.958516
-1.29469 144.146 -5.85939
-17.3352 115.117 -7.81116
-16.331 116.811 -8.037
-14.7422 126.878 7.25241
-19.407 116.923 3.43603
-7.32184 138.204 3.49283
-21.1786 109.872 -5.26706
-18.797 112.997 -7.56219
-5.59848 141.43 3.74739
-20.3023 110.7 -6.95991
-14.5673 127.962 8.44748
-19.4655 117.024 3.40205
-7.20436 138.553 3.37248
-12.8696 122.881 -9.14868
-16.2583 117.476 -8.0285
-2.95248 141.449 -6.68873
-5.7875 141.449 3.84267
-18.8871 113.388 -7.24287
-10.0594 134.25 4.28102
-16.1749 125.808 9.16558
-12.1219 131.34 5.76968
-10.2946 128.076 -8.17186
-21.1671 110.262 -5.73398
-18.8604 119.698 5.8336
-13.3886 122.261 -9.42077
0.0394391 148.116 -4.51227
0.465287 149.041 -4.32468
-18.389 114.516 -7.54325
-19.7672 116.114 1.07817
-18.8762 120.05 6.04121
-6.01829 141.639 3.92024
-13.6832 122.035 -9.44079
-19.5429 119.536 7.0235
-7.1245 134.246 -8.52529
-10.3522 135.072 5.35596
2.31427 153.813 -2.37177
-0.679258 147.628 -4.55192
2.06565 153.109 -3.14255
1.89244 152.794 -3.30787
-18.256 123.425 9.36462
-3.13801 142.66 -6.35739
-8.203 138.465 3.66344
-1.31631 146.589 -4.89804
-19.4284 114.165 -6.49817
-7.32299 140.571 4.46585
-18.7558 121.492 6.37382
-18.0058 119.947 0.149786
-1.29548 147.124 -4.62192
2.05153 154.379 -1.681
-15.1633 127.264 4.86743
-16.6437 125.599 6.8527
-5.20183 138.769 -8.01704
-7.42476 134.593 -8.64799
-9.13927 137.43 3.88045
-17.9584 119.514 -1.39111
-14.2074 129.043 4.82529
-9.02423 131.548 -9.52718
-18.977 119.822 2.77363
-14.709 128.383 4.95446
-19.2186 122.157 8.41212
-18.4645 118.336 -2.77911
-19.0698 121.816 6.9679
-18.9626 119.15 0.824294
-1.2203 147.89 -4.346
-12.0882 133.487 5.57393
-19.2412 120.074 3.62224
-9.38914 131.432 -9.22235
-12.1162 127.272 -7.90347
-18.4565 118.909 -2.00036
-17.3403 125.395 7.63075
-18.1024 122.419 4.09061
-21.5681 113.747 -1.57876
-18.1438 122.338 3.49673
-21.1551 112.986 -5.26273
-5.10955 140.135 -7.43059
-8.52619 133.158 -9.61117
-21.9788 111.94 -4.52013
-7.74143 134.926 -8.82018
-15.2464 128.002 4.44758
-21.6791 113.717 -2.12195
-17.8517 117.678 -8.08476
-6.52308 143.118 3.84167
-20.3111 118.506 2.80661
-18.0658 120.024 -2.46376
-18.4697 124.825 9.15112
-15.3179 122.309 -8.28771
-2.34354 146.764 -4.72259
-15.7834 121.746 -7.85205
-21.0108 113.752 -5.37315
-9.24798 132.398 -9.68594
-2.00817 147.634 -4.27736
-17.6959 121.566 -1.16875
-18.809 123.53 7.1589
-14.8524 129.201 4.40946
-20.6468 117.601 1.25767
-21.1736 115.548 -1.20344
-20.1554 117.555 -0.895037
-8.82464 133.324 -9.72903
-18.4544 120.934 -0.0756938
-13.6633 131.86 5.27696
-20.1201 117.434 -1.44869
-18.298 123.395 4.4366
-18.3536 120.979 -0.562178
-21.3868 115.26 -1.4348
-18.8041 119.086 -3.0963
-18.6951 120.157 -1.24974
-22.0035 113.124 -3.95782
-17.6578 121.557 -2.26745
-21.0181 116.652 -0.155682
-18.8545 122.117 3.4253
-17.421 122.194 -1.91989
-17.8234 120.357 -4.40175
-20.3896 116.24 -3.58115
-6.55733 143.853 3.55436
-2.60894 147.344 -4.34796
-17.3101 122.374 -2.65008
-15.4172 123.237 -7.95486
-4.31094 143.834 -5.59041
-11.9482 135.945 6.23722
-12.9462 133.852 5.45838
-17.4589 126.081 5.44343
-19.0133 124.725 8.37435
-0.348183 151.918 -3.60466
-18.7036 120.507 -1.93026
-18.3356 121.017 -2.348
-18.1968 121.11 -2.69044
0.422831 153.946 -2.33903
-12.8217 134.627 5.89966
-21.9798 114.362 -3.22112
-21.0295 115.82 -3.85656
-6.75423 138.895 -8.19544
-17.5525 121.495 -4.99156
-19.0172 123.838 5.5268
-12.1635 136.219 6.02158
-6.58241 139.788 -7.39502
-19.2972 122.588 3.55105
-17.2314 122.215 -5.10365
-5.75198 142.401 -5.21351
-18.1968 119.268 -8.04535
-18.9563 121.496 -0.485991
-20.0755 120.167 0.803768
-15.6159 130.098 5.25835
-16.2759 123.03 -7.51836
-17.3369 122.538 -4.59006
-10.6923 132.205 -8.89114
-22.0461 114.918 -3.28168
-18.2333 125.397 4.82062
-20.2181 117.316 -5.09062
-20.2136 117.546 -4.61467
-4.98093 144.111 -5.02512
-12.6711 136.34 7.10906
-17.2379 122.442 -5.69226
-6.85846 140.451 -6.32118
-10.5063 132.879 -9.08909
-21.8262 114.919 -5.06722
-18.421 125.487 4.78946
-4.00871 146.483 -4.42417
-19.2924 123.418 3.59812
-14.5574 132.787 5.86624
-19.5608 121.574 0.584588
-17.0274 127.48 3.57187
-7.60852 144.303 4.05228
-22.028 115.036 -4.67271
-18.1071 126.466 5.00848
-20.7229 120.063 0.937221
-19.5066 122.758 2.12547
-14.3271 127.481 -7.3573
-20.7985 116.547 -6.51777
-18.2294 120.468 -7.95674
-16.6086 129.416 5.07632
-17.5259 127.195 3.71013
-2.28397 150.562 -3.54678
-19.4933 122.098 0.114109
-22.0361 115.251 -5.01652
-17.6079 127.192 3.64232
-17.8146 122.689 -5.34342
-13.0773 129.767 -8.12654
-15.4634 126.549 -6.04767
-17.9541 127.025 4.28699
-9.20121 142.828 5.21682
-7.99787 144.575 4.24328
-6.50995 142.775 -5.25506
-18.3826 121.178 -7.01045
-19.6242 124.278 4.15787
-7.47134 141.164 -5.46897
-20.7986 117.467 -6.36583
-18.968 125.971 4.73115
-20.627 120.576 -0.621601
-13.2511 137.312 7.51167
-18.3495 126.53 3.51465
-14.7217 128.217 -6.58666
-15.3128 133.142 6.16722
-18.7386 122.799 -3.1595
-7.05514 146.151 2.93535
-18.4621 122.237 -5.48556
-6.31818 143.777 -4.99286
-3.0864 150.229 -3.50049
-19.3962 121.258 -4.47363
-10.5961 134.265 -9.7064
-18.7699 123.464 -2.29605
-14.4917 128.645 -7.3604
-19.6281 125.089 4.32539
-15.327 133.766 6.7022
-15.4111 133.69 6.65012
-8.61123 144.717 4.57353
-15.1711 134.302 6.86247
-17.338 129.626 4.9554
-10.5474 141.982 5.80696
-18.441 123.446 -4.30425
-19.8129 125.045 4.2377
-19.0348 122.949 -3.25026
-6.59657 144.111 -5.00333
-16.4762 126.338 -6.0346
-17.8572 123.92 -6.03882
-19.488 123.295 -1.24316
-20.1712 122.03 -1.39367
-15.7394 133.504 6.54058
-18.7942 123.815 -2.79764
-14.6417 135.706 7.04567
-5.25981 146.876 -4.3346
-10.8984 134.59 -9.48669
-15.1268 128.456 -6.78956
-17.72 123.696 -7.28795
-21.1203 120.25 -1.92075
-17.207 125.583 -5.40646
-21.8583 120.835 1.88118
-5.893 145.854 -4.62549
-19.9065 122.555 -2.09831
-14.9323 128.852 -7.37656
-14.4286 129.636 -7.66792
-19.0087 124.261 -2.11311
-5.22192 147.464 -4.29281
-14.2695 130.428 -6.95041
-7.49117 143.195 -5.18964
-19.7464 122.944 -2.61494
-17.194 130.991 5.04344
-18.2068 124.458 -5.41052
-16.9503 126.2 -6.5128
-21.8498 120.513 -0.337563
-19.4162 123.774 -2.5379
-15.0059 129.063 -7.80733
-18.592 124.641 -3.83302
-14.4954 129.78 -8.24849
-22.1546 120.102 -0.203111
-13.5882 131.109 -8.8772
-16.5986 132.769 5.9592
-2.91372 152.757 -2.76735
-15.0479 136.145 7.07994
-18.7447 124.683 -3.65198
-6.43399 145.75 -4.79729
-11.8436 141.414 6.07696
-21.3318 121.168 -1.69876
-20.3727 122.442 -2.62151
-20.9006 122.061 -1.50734
-18.7867 129 5.43072
-19.947 127.466 6.36496
-17.7537 130.913 5.50123
-18.4743 129.74 5.69019
-20.3295 122.871 -2.26104
-19.2681 124.685 -2.4195
-3.81373 151.541 -2.99909
-18.1414 125.439 -5.1577
-18.1673 130.682 5.87921
-5.24389 148.782 -4.02753
-12.2171 134.539 -8.38964
-12.5075 133.866 -8.80646
-19.2022 124.996 -2.64619
-12.5345 133.782 -8.9345
-14.4613 130.475 -8.79532
-13.2464 140.138 7.35409
-20.2647 127.361 6.35252
-15.492 129.527 -7.06702
-18.7946 125.224 -3.89617
-21.5112 121.513 -1.63724
-14.2604 132.094 -6.32931
-14.383 132.252 -5.56489
-21.2215 122.026 -1.77704
-9.49034 145.822 4.945
-18.7949 130.206 6.40951
-2.98007 154.209 -2.01821
-20.8346 122.913 -2.03143
-19.2819 125.39 -2.73956
-17.3016 132.9 5.91701
-17.4307 132.53 5.5292
-21.0109 122.679 -2.20579
-13.5254 134.165 -5.83693
-11.0531 144.087 6.13556
-21.1395 123.06 -1.04798
-17.5735 127.1 -5.87255
-13.5126 134.255 -5.80796
-14.7208 138.453 7.49472
-9.68401 141.68 -4.66055
-21.5221 124.79 3.66891
-19.4748 124.573 -4.61804
-12.3125 142.467 6.61459
-10.9421 139.141 -5.76817
-20.7121 123.99 -1.60185
-3.6995 153.503 -2.33736
-16.512 135.645 7.49241
-11.1479 138.928 -5.8359
-14.0088 140.403 8.03204
-8.64829 143.7 -5.09444
-23.3299 120.642 0.616683
-4.8295 151.416 -3.05082
-15.9295 130.24 -6.8141
-18.1545 127.067 -5.29632
-24.1666 120.486 3.03822
-19.3953 125.791 -3.60964
-21.9758 124.89 3.94616
-18.4365 126.908 -5.13919
-24.2177 120.75 3.3732
-17.8531 133.046 5.60265
-8.02792 149.07 2.7078
-10.217 146.393 5.01885
-18.234 132.639 5.58371
-10.212 142.274 -4.56001
-9.506 143.347 -4.93214
-20.9854 124.288 -2.6379
-22.9489 124.51 5.13433
-5.31184 151.672 -3.07993
-20.9284 128.9 6.81795
-24.8177 119.443 1.11357
-22.3681 126.073 6.03272
-19.6474 126.402 -3.66998
-12.9416 136.553 -7.17784
-7.39402 147.361 -4.9409
-19.0738 127.384 -4.02298
-22.9093 125.419 6.03153
-13.3468 136.227 -6.85415
-21.4556 124.409 -1.7371
-19.599 126.252 -4.78239
-24.8898 120.103 1.90501
-24.9806 119.535 1.02224
-13.188 136.694 -6.75829
-5.6061 151.675 -3.15644
-11.7275 139.879 -5.50536
-23.3427 121.764 -0.684935
-18.5876 133.115 5.58086
-24.883 121.443 4.21538
-24.9772 119.938 1.23524
-21.369 124.51 -2.72685
-9.91999 147.823 4.13709
-24.4255 122.365 4.00668
-25.1879 119.628 0.906121
-21.9417 123.839 -2.41858
-18.6758 129.639 -2.40478
-11.8278 145.578 5.96942
-19.0162 128.702 -3.32863
-18.3734 129.431 -4.26165
-5.565 152.856 -2.47256
-17.2268 131.285 -5.01778
-18.3671 134.566 6.26627
-12.4698 139.404 -5.63371
-17.723 136.806 8.5073
-21.0629 125.519 -3.18688
-9.72714 144.561 -5.04939
-11.0688 142.535 -4.36317
-18.1592 130.176 -4.20274
-17.508 131.709 -3.40794
-21.2777 125.308 -3.11216
-19.2609 128.61 -3.67078
-13.7797 137.26 -6.12031
-24.2679 121.725 -0.17007
-19.2089 128.918 -3.93295
-15.1448 135.71 -4.6683
-16.0797 134.587 -3.58419
-21.9954 124.458 -3.13301
-7.32985 152.268 1.33663
-20.0435 127.712 -3.58712
-16.8054 133.613 -3.11648
-13.3819 138.345 -5.9587
-11.3897 147.081 5.20743
-16.0653 134.864 -3.59112
-26.0747 119.861 1.71379
-16.8672 133.945 -2.91287
-25.4463 120.745 0.869324
-10.7789 148.252 4.29026
-12.1239 146.835 5.53642
-15.7717 136.138 -3.70821
-27.2395 118.806 1.94764
-10.2026 149.379 3.38007
-12.7425 141.517 -4.00281
-23.7398 127.291 6.88061
-17.6563 133.603 -2.50588
-7.54875 150.959 -3.6717
-24.8017 125.795 7.0024
-14.6447 144.108 7.80193
-17.8817 133.224 -3.65641
-15.4576 137.275 -4.19462
-13.0755 141.763 -4.03161
-21.4902 127.778 -2.64181
-12.4977 142.856 -4.18458
-14.9793 138.369 -4.55613
-16.6716 141.507 8.5513
-23.8744 123.979 -2.02082
-12.7571 142.562 -4.1275
-17.7056 134.527 -2.79048
-20.1184 134.537 6.1396
-28.154 119.133 3.02713
-26.1404 124.585 7.10658
-21.3335 132.378 5.60506
-10.9959 145.738 -4.65879
-20.9285 129.298 -2.6114
-20.803 133.428 5.61965
-7.62348 154.097 0.120495
-21.4085 132.717 5.45357
-8.04782 153.616 -0.129134
-8.83285 150.873 -3.12802
-16.5398 137.057 -3.91704
-8.75466 151.199 -2.89147
-26.5495 121.881 1.18109
-19.7494 132.185 -2.38478
-18.4973 134.191 -2.83103
-19.0474 133.132 -3.05087
-18.3147 134.726 -2.48143
-16.5156 138.286 -1.71701
-10.7108 150.375 2.34719
-10.0725 151.208 1.72179
-19.9699 131.974 -2.37818
-18.1012 140.434 8.63525
-26.7939 123.864 5.60138
-9.40916 152.094 0.579749
-13.6526 147.011 5.48968
-26.8831 124.289 6.53268
-25.46 126.967 6.83311
-14.5337 145.985 6.36483
-12.215 145.281 -3.97434
-23.6836 126.482 -1.77344
-15.2716 141.229 -1.83586
-21.5082 129.77 -3.02946
-15.4317 141.008 -1.80989
-21.0218 135.642 7.35098
-15.7734 140.652 -1.69895
-15.9508 139.971 -2.78006
-15.7375 140.439 -2.78262
-28.4725 120.943 3.27549
-19.3389 134.115 -3.06292
-9.63279 152.209 -0.849414
-16.007 140.875 -1.30596
-19.3475 134.354 -2.73099
-23.1814 127.688 -2.73361
-22.0417 134.291 7.14792
-24.4748 129.642 6.19278
-15.8638 140.36 -3.42096
-25.1997 124.906 -1.61729
-28.4059 122.713 5.57792
-13.2829 148.484 3.7335
-24.109 126.973 -1.75439
-25.9772 127.894 7.04803
-20.6702 138.018 8.69491
-15.9986 141.723 -0.9583
-19.6839 134.862 -1.82661
-17.0727 139.857 -1.02874
-22.6866 133.093 5.51741
-14.4833 147.22 4.91208
-12.4031 147.481 -2.40459
-28.2533 123.889 6.39961
-21.4724 130.98 -4.03126
-18.6156 137.366 -1.08199
-22.1359 135.55 8.05889
-26.7258 123.921 0.342155
-15.1333 146.624 5.16628
-22.4573 129.86 -3.30456
-21.6352 132.019 -1.78007
-15.9424 142.601 -0.536619
-13.5889 148.388 3.01035
-14.2344 147.843 4.23102
-13.8431 148.186 3.40046
-20.0582 135.021 -1.50176
-20.9397 138.241 8.62175
-15.304 146.618 5.10855
-27.2143 123.786 0.909207
-26.5291 124.507 -0.175654
-22.8202 129.577 -3.27004
-22.4486 131.627 -0.280238
-22.9581 133.581 5.77364
-25.706 129.37 6.72042
-25.9513 129.093 6.9971
-22.8738 134.46 6.8912
-29.521 122.19 5.18139
-29.0188 124.079 7.31778
-17.4078 140.963 -0.204918
-18.8919 138.205 -0.783929
-29.3016 123.165 6.10323
-26.3037 129.049 7.38788
-15.3609 144.6 -0.570617
-23.466 131.806 2.47126
-19.5047 141.28 7.85897
-22.4249 133.02 1.10034
-23.1415 134.39 6.51842
-12.3501 150 -0.923009
-24.176 132.346 5.58889
-22.7488 136.268 8.50281
-19.4242 141.855 7.72054
-23.3904 130.227 -2.66578
-14.9695 146.282 0.00621277
-14.9363 146.482 0.000380727
-14.5947 146.913 -0.415545
-23.6949 133.259 4.4374
-18.062 141.269 0.408643
-22.6105 133.513 0.86437
-18.3488 140.931 0.524344
-27.7288 124.713 0.966296
-15.5708 145.891 0.516147
-28.1416 124.393 1.48183
-23.625 130.854 -1.67356
-14.5694 148.074 1.15425
-23.5559 135.505 8.02103
-13.6294 148.773 -0.937883
-14.2676 148.357 0.479841
-21.409 134.93 -1.5191
-26.3769 130.407 7.47043
-20.6091 140.65 7.70011
-18.969 140.227 0.607294
-19.8093 138.809 0.661805
-22.8414 137.243 8.21255
-24.845 132.664 5.8431
-20.8147 137.338 0.691318
-21.6353 134.729 -1.8489
-28.7344 127.171 8.46958
-16.287 145.474 0.806943
-29.5224 126.007 8.75256
-30.2422 123.7 6.25595
-22.5729 134.275 0.0345027
-20.0272 142.05 6.86309
-26.4389 127.374 -0.707799
-16.0947 147.045 2.42999
-24.9733 129.935 -0.892296
-19.9671 139.779 1.32717
-26.8568 130.664 7.59048
-20.8812 138.354 1.55249
-29.9467 122.989 2.52233
-23.0486 134.26 0.736451
-30.1247 125.057 7.54452
-23.236 134.33 1.47841
-25.5454 129.511 -0.209848
-23.1735 134.379 1.08941
-22.86 134.686 0.521204
-25.7972 130.044 1.34098
-22.5388 138.702 7.52791
-22.6838 135.304 0.529687
-20.9022 141.236 6.52755
-28.841 125.111 1.78942
-21.6562 140.203 6.90727
-18.2319 145.199 4.70625
-24.6038 135.539 7.87664
-21.7738 137.783 1.65204
-18.0859 144.342 1.64436
-31.5868 122.323 5.1963
-17.4215 145.723 1.77659
-29.5411 124.716 2.29852
-20.0522 141.249 2.01337
-26.8396 128.365 -0.492026
-20.7396 140.515 2.24465
-18.6825 144.234 2.27263
-28.6239 126.351 1.31476
-27.149 129.29 1.48264
-27.9408 127.468 0.460373
-22.9499 138.934 6.22316
-26.7263 130.351 1.94762
-30.1848 124.822 3.02982
-27.2381 128.854 0.569116
-18.703 145.265 3.6203
-30.7032 126.768 8.78893
-27.4356 128.747 0.623715
-31.5067 123.292 4.13051
-28.0609 130.932 7.36506
-32.2565 122.809 5.43407
-26.8221 131.064 2.68074
-30.1162 128.211 8.49815
-32.0217 123.26 4.88545
-26.6691 133.347 6.35175
-32.0211 124.122 6.6043
-31.1789 126.789 8.84574
-27.3574 130.598 2.36178
-30.3114 125.931 3.38559
-27.4622 132.522 6.62674
-32.3956 123.398 5.53073
-30.4129 128.301 8.19175
-32.6091 124.078 5.73869
-29.4987 129.02 3.54478
-30.1296 128.293 3.98544
-29.3253 130.881 6.44705
-31.285 127.147 5.28765
-32.5867 125.239 6.09165
-29.2153 130.541 4.7399
-29.6323 129.981 4.98746
-29.4521 130.674 5.71439
-31.9474 126.811 6.32539
-33.55 124.277 6.77908
