ply
format ascii 1.0
comment Created by Open3D
element vertex 1916
property double x
property double y
property double z
end_header
-18.5555 114.079 -5.61686
16.2084 106.452 -3.87239
-16.9052 113.977 -10.555
-13.5162 112.013 15.7418
16.3901 106.495 -3.08521
-14.0539 113.595 -12.5862
-11.1127 113.009 -13.5409
-15.3609 112.58 14.6317
1.32602 110.473 -16.1773
6.99522 109.232 -14.77
8.82595 108.811 -13.6868
7.0711 109.245 -14.7535
-17.6042 113.475 8.73234
-10.3035 111.544 17.0385
3.49366 108.389 21.3541
10.1923 108.579 -12.164
16.7998 105.909 13.1916
16.3072 106.885 -3.80599
-10.5128 113.202 -13.6733
-18.2931 114.234 0.912823
-9.04953 112.955 -13.8589
-9.67885 111.577 17.2935
-16.5901 114.474 -10.8941
-1.51468 109.655 21.4563
-15.4718 113.074 14.6783
-18.4545 114.456 0.576231
-1.51997 111.611 -16.2728
-2.8791 110.146 20.8358
-1.64208 111.715 -16.2528
15.2215 106.589 14.3636
17.9673 106.784 -0.453725
16.4527 107.26 -3.28818
-15.3468 114.595 -11.9103
13.6871 106.996 16.2672
8.55423 107.988 19.4655
11.1595 109.014 -11.406
-13.3759 114.433 -12.8649
13.0422 107.256 16.7257
7.63615 108.28 19.7869
3.76907 109.075 21.042
-17.7211 114.183 12.1444
17.9179 107.097 -0.292018
-2.03713 112.227 -16.184
-16.6084 113.969 13.7946
-19.3301 115.468 -4.41352
-12.8895 114.505 -13.0079
-1.61386 110.402 21.2617
16.9199 107.552 -1.92034
20.1876 106.411 7.15632
9.31517 109.75 -12.8489
18.9587 106.482 11.2286
-11.6269 114.352 -13.4226
10.5179 109.498 -11.849
6.18049 110.625 -14.7435
-17.5023 114.567 10.2296
15.7645 108.273 -7.71575
-8.83871 112.41 18.2088
9.32853 110 -12.7963
-16.6867 114.705 6.82129
3.06068 111.551 -15.8605
-3.21042 112.924 -15.1896
18.9694 106.846 11.0942
18.0298 107.612 0.549083
-16.9423 114.921 7.51226
-19.4929 116.005 -2.59841
-2.86128 111.248 20.95
-8.42238 112.588 18.5963
15.5708 108.758 -8.34504
2.47281 111.979 -16.0043
-14.8657 115.629 -12.2741
20.157 107.187 5.21572
13.8048 109.31 -9.75757
-6.92145 114.087 -14.0556
-3.11968 111.567 20.9004
-16.281 115.199 6.32385
5.49719 109.804 20.7344
-16.1839 115.358 4.5928
5.57295 111.579 -14.613
-8.72755 113.075 18.4453
-8.88658 113.159 18.3301
17.275 108.426 -0.878637
17.3576 108.423 -0.65239
16.1614 108.871 -4.48909
15.2498 109.313 -8.98642
-16.6267 115.152 13.4933
16.2517 108.902 -3.90337
9.82829 109.181 19.1581
18.6443 108.106 2.22863
17.4005 107.914 12.1288
16.5749 108.8 -2.25892
2.72302 112.561 -15.6921
17.2144 108.058 12.2991
7.83247 109.787 19.9066
14.2385 109.854 -9.48523
-17.0172 115.72 10.865
-27.275 118.439 1.33403
-19.1428 117.055 -5.90706
-15.764 116.627 -10.5499
-15.4852 116.687 -11.6611
-7.69231 115.14 -14.1903
-19.6131 116.786 5.63572
-17.8703 116.475 4.27725
-11.7442 116.026 -13.5494
-1.16927 112.083 20.8059
17.5632 109.045 0.546379
-17.3164 116.059 12.1259
-2.54398 114.205 -15.4566
16.3833 108.685 13.8572
-8.60542 115.509 -14.1057
1.9137 113.334 -15.9606
-27.2067 118.793 2.03242
-10.3456 114.375 17.7425
-0.564599 113.948 -16.313
-17.2396 117.167 -8.15081
10.9387 111.253 -12.1286
8.48979 111.885 -14.0452
-15.126 116.918 -12.0249
-3.96523 112.919 20.4151
17.8934 108.626 11.6295
-18.3421 117.177 -2.27418
17.2805 109.376 -0.264768
17.5202 109.343 0.432344
-10.6833 114.646 17.6166
9.24946 110.253 19.3113
20.0451 108.646 5.20442
14.0788 109.441 15.4913
-16.0559 116.566 4.26038
12.137 109.833 17.0738
8.96698 110.417 19.3184
-12.7934 115.399 16.8572
-23.4873 118.213 6.78183
-2.7384 114.811 -15.2949
0.607796 112.362 20.4157
-18.1046 117.506 -1.55831
10.0956 111.951 -12.7083
-16.9467 117.674 -8.58664
17.7885 109.121 12.2282
-9.73283 116.425 -14.1593
19.842 108.954 7.59495
-16.9981 117.229 1.97491
-15.9286 116.443 13.546
-13.033 117.139 -13.2083
-19.8376 117.742 5.97832
17.9888 109.779 1.34054
-8.16367 114.605 18.9209
-14.5519 116.229 15.3415
3.98644 111.986 20.0737
-16.2547 116.725 13.2093
-26.019 119.722 -4.3931
-17.2841 117.553 1.42452
16.6687 110.441 -3.46257
-15.6185 116.639 13.6358
-2.36569 113.466 20.7514
-26.3301 119.816 -2.64783
-0.978508 115.001 -16.2673
8.655 111.191 19.0685
-7.82602 116.423 -14.3031
-26.0382 119.412 5.60672
20.1049 109.443 5.48746
18.5702 109.51 11.1451
7.82726 111.461 19.3065
-1.49475 115.218 -15.9544
7.55329 113.194 -14.6207
-12.9162 117.569 -13.263
-4.27113 114.103 20.0046
-18.7192 118.501 -5.25517
18.0943 109.669 12.1326
-17.2714 117.836 3.2449
19.0762 109.92 3.8654
-17.6367 118.539 -8.49654
-8.09749 116.754 -14.272
-25.5726 120.123 -4.86861
-17.3098 117.59 10.6381
-21.6364 118.736 6.61622
-17.0328 117.989 2.66432
11.6869 112.565 -12.1602
-26.973 120.197 3.56054
-17.828 118.856 -8.49301
17.8232 110.732 -0.0299433
19.102 109.945 10.5499
7.86911 113.62 -14.5841
-20.6465 119.365 -5.54256
-1.62723 115.779 -15.8114
-25.7549 119.96 5.77667
-23.6582 119.465 6.78872
16.2841 111.384 -5.09298
-7.66084 115.431 18.8432
-26.1052 120.522 -3.39623
-16.1018 117.9 7.60716
-21.8436 119.205 6.73566
-4.04947 116.404 -14.5742
-20.348 118.928 6.48273
2.44323 113.376 20.058
-19.1152 119.361 -6.65776
-7.49708 115.596 18.8554
-17.4828 118.583 2.23255
1.24301 113.65 20.3245
-23.9717 120.365 -5.08929
10.2553 113.344 -13.1157
-15.0101 117.472 14.6794
6.61428 112.62 19.8587
-17.1496 118.77 0.250984
16.9999 110.69 13.9963
-16.1083 117.95 12.6857
18.6429 110.486 11.7368
18.4844 110.524 12.1397
-22.0132 120.181 -5.2328
-3.83005 116.704 -14.7569
16.0506 110.945 14.8449
8.1863 114.117 -14.3679
-17.3039 118.953 0.772948
8.39331 112.508 18.6272
-18.2202 119.646 -8.14966
7.72918 112.697 19.0276
-22.7484 120.518 -5.10174
-16.431 118.569 6.91428
5.79702 113.121 20.0802
14.2258 111.497 16.2956
5.50311 114.875 -14.0159
-17.0627 119.233 -2.60927
-19.5372 119.902 -5.21194
-18.038 119.537 -3.74545
-16.5619 118.733 6.99427
-17.1567 119.68 -8.71993
-18.047 119.695 -4.41575
-14.5905 117.984 15.4553
6.32634 113.247 19.7126
13.8049 113.118 -10.7537
19.1807 111.054 7.81409
-3.21278 117.055 -15.2007
11.578 112.267 17.8384
8.0009 114.668 -14.5048
-25.5846 121.494 -4.7312
-11.5786 118.916 -13.6843
5.7069 115.18 -13.9742
12.9406 112.101 17.0973
-17.7718 119.899 -4.88125
-17.2019 119.499 0.777119
10.0455 114.305 -13.6433
-16.9081 119.303 4.77212
-25.584 121.682 -4.70483
9.30044 114.584 -14.0497
-9.84631 118.756 -14.1781
-12.2799 117.792 16.6957
16.2246 111.71 14.7642
1.88147 114.568 20.3043
-21.1652 120.821 -4.96663
16.3873 112.731 -5.5838
-15.2575 119.852 -10.3738
-8.52822 118.613 -14.2409
-15.7658 118.821 13.7876
-17.4233 120.34 -8.63487
13.7633 112.391 16.6358
-0.72107 115.361 20.5471
9.85223 113.231 17.8796
-17.3381 119.997 0.246992
18.2253 111.724 11.7268
18.5585 112.2 0.96256
-26.7911 122.031 1.33739
-17.134 120.465 -8.72031
14.2483 112.469 16.3291
3.5206 116.347 -14.4992
18.7186 111.861 9.87605
11.4396 113.103 17.473
-17.3768 120.542 -6.64709
-3.442 117.944 -15.1659
-25.704 121.782 5.29884
-15.0632 119.057 14.7115
2.07054 116.812 -15.1558
-16.9909 120.046 3.25946
-16.5032 119.816 5.90717
7.23177 115.68 -14.1235
-8.59631 117.563 17.9418
-7.71857 118.97 -14.3139
-26.6107 122.229 3.09056
-19.6219 120.539 6.90596
13.774 114.171 -11.002
14.4577 114.006 -10.0946
18.8145 112.149 9.02537
-16.2742 120.29 -1.56405
-1.18964 115.948 20.3776
-16.7711 120.285 1.09117
-17.5481 120.157 7.48972
-21.9177 121.702 -4.65181
16.5725 112.449 14.5309
-25.7856 122.552 -3.81927
-16.1367 120.2 2.47511
-2.33695 116.344 20.0936
-16.8651 119.872 12.4647
-14.6485 120.607 -11.9301
-16.8217 120.822 -6.11799
-10.9284 119.932 -13.9024
-16.453 120.302 3.10588
-11.2953 118.522 16.8959
-1.24855 116.184 20.3062
-23.217 121.642 6.80148
8.05934 115.919 -14.1455
19.8253 112.453 4.61671
4.33167 115.095 20.1196
-15.7614 120.559 -2.27236
18.1472 112.536 11.5587
8.29034 115.96 -14.1593
-17.1347 121.131 -7.02948
-8.43056 119.607 -14.379
1.11075 117.601 -15.3538
16.5634 112.795 14.5222
10.304 114.009 17.4627
18.185 113.275 -2.20308
-2.39548 118.412 -15.611
1.83853 117.523 -15.1055
-17.0895 120.545 7.09064
5.61624 115.019 19.6131
10.5739 115.548 -12.9414
-1.47786 118.301 -15.4357
-4.14028 117.201 19.8393
-4.74496 117.345 19.5804
-0.659042 116.474 20.2936
-17.9797 120.966 6.35393
-26.079 123.146 -2.24308
-14.1004 119.701 15.4732
-26.0066 123.171 -2.54059
-26.5657 123.157 0.231082
-17.304 120.906 5.91369
-18.3885 121.662 -4.50561
19.7025 112.882 6.33834
-1.58206 116.833 20.0908
-5.11435 117.669 19.3296
-26.5176 123.174 1.92144
17.6275 113.902 -3.97382
11.3189 115.711 -11.7796
6.79549 115.205 18.7521
8.67426 114.847 17.9187
19.6718 113.134 4.2255
-18.4815 121.9 -4.99364
-15.8365 120.966 3.12343
-16.124 121.408 -4.58439
-15.495 121.563 -10.4385
18.5812 113.604 1.37122
-16.2295 121.11 3.2344
-16.3175 121.143 3.66463
-17.7117 122.026 -8.14515
-18.7106 121.565 6.8125
-15.6469 121.733 -9.97974
-0.982606 117.102 20.0851
-16.3482 121.704 -5.24546
-14.5909 121.646 -11.8066
-15.6838 121.319 0.216584
-26.2698 123.686 -1.07942
-17.7057 121.997 -4.53735
12.7895 115.734 -11.6544
11.5778 114.6 16.9153
13.5106 115.556 -11.1592
-16.5227 121.566 0.50982
6.24296 115.726 19.0831
17.6144 114.393 -3.93711
-16.2992 121.767 -4.16855
-2.47162 117.601 19.8921
18.3482 113.494 11.9458
-3.49464 117.863 19.7996
12.8452 114.49 16.5808
-16.0968 121.384 4.07105
19.1788 113.517 9.25816
-8.43708 120.676 -14.4386
19.3338 113.552 8.35788
-7.16917 120.435 -14.4815
13.6788 115.741 -10.7964
-13.7607 120.473 15.5474
19.4609 113.663 7.81356
-17.2777 121.452 11.6594
-23.0145 122.977 6.74649
-17.3901 122.535 -8.95277
3.32735 118.309 -14.1916
15.7829 115.292 -7.43439
-16.2506 121.976 -1.30096
-26.2504 124.131 -0.985623
-10.9835 121.464 -13.6873
-16.3418 122.153 -3.98681
-22.7923 123.624 -5.09228
-26.3437 124.221 -0.246663
-16.0622 122.115 -2.3944
-19.3288 122.96 -5.15169
-20.5332 123.237 -5.28927
-8.13019 120.997 -14.4761
-2.57431 118.127 19.8225
18.2605 113.961 12.7456
-4.22259 118.518 19.4774
6.77851 117.787 -14.0334
-3.28163 118.327 19.757
-22.4015 123.095 7.1691
-16.2382 121.865 5.13329
-15.4497 122.453 -10.353
11.7249 116.624 -11.3126
-17.3146 122.082 5.99122
-10.7008 121.663 -13.7512
6.37145 116.366 18.9065
9.66797 117.214 -13.002
-2.87213 118.348 19.7784
-18.7288 123.022 -5.11838
-17.4145 121.984 10.7876
16.8666 115.221 -2.81502
-16.0331 122.274 -0.625891
17.2617 115.086 -0.810211
-17.5576 122.869 -4.92182
-15.6628 122.076 3.2548
-24.6385 123.923 5.7594
11.5796 115.535 16.699
-16.5269 122.116 6.97268
-16.4817 122.714 -4.91554
0.615747 117.794 19.8821
-17.7502 122.315 9.12599
-16.3874 122.563 -1.93057
-15.4761 121.605 13.7738
1.63981 119.312 -14.6658
-16.0727 122.682 -4.96901
-7.89305 119.782 18.1082
18.6254 114.765 3.25442
-18.5839 122.664 6.96602
-24.062 124.451 -5.02484
-23.6017 124.355 -5.11155
-4.86913 119.103 19.1899
-16.9515 122.328 7.53575
1.28743 117.79 19.7293
-17.4784 123.078 -5.05897
-4.09144 120.677 -14.4729
-17.1468 123.019 -4.12166
16.552 115.604 -1.77485
17.597 115.276 0.38614
-25.0385 124.3 5.50997
-17.1726 123.154 -5.7471
-11.8202 122.372 -13.1444
3.86428 119.094 -14.3667
-15.9149 122.973 -5.64889
-16.7771 123.218 -6.70899
-21.8755 124.307 -5.4381
-16.2036 123.291 -9.35985
19.2646 114.876 6.27245
-15.4281 122.504 4.36482
-16.3181 123.009 -1.44793
-15.843 123.064 -4.12322
-16.2477 123.017 -1.34273
-15.1969 122.658 2.60758
-15.7031 122.702 5.93631
-15.5943 122.868 2.18688
9.22847 118.232 -12.9748
15.6782 116.349 -2.93089
-24.2171 124.584 5.94663
-17.2236 122.97 8.07358
-0.287146 120.456 -15.4332
-16.5191 123.531 -6.20272
4.24816 117.792 19.2065
1.68763 120.009 -14.559
-12.3532 123.028 -13.0472
-17.4937 123.056 9.18527
-15.9614 122.94 4.85272
-16.9193 123.675 -5.66473
3.24787 118.102 19.1346
-16.4799 123.438 -2.26158
-14.6168 122.233 14.141
18.7785 115.106 11.9366
-15.7989 123.215 -0.442399
-25.6806 125.145 4.14738
7.24481 117.315 18.2083
10.373 118.119 -11.7056
-3.48944 121.302 -14.6532
-3.03242 121.208 -14.6807
-22.6855 125.029 -5.5041
-8.06657 120.708 18.1497
7.09502 119.034 -14.1555
-16.4842 123.787 -6.66544
17.9977 115.806 3.88244
-15.9273 123.215 3.1808
-16.0696 123.594 -3.34258
-8.71523 122.572 -14.3835
15.3404 116.8 -2.76356
17.7922 115.544 12.6692
-18.8124 123.735 7.68554
-14.5994 122.508 14.1172
-15.7687 123.529 -1.21457
-9.16782 121.225 17.7384
-0.931609 121.091 -15.5469
-15.4747 123.407 2.86338
-15.8965 123.718 -1.37137
-15.7219 123.782 -3.27762
-7.20262 120.874 18.4531
-22.7345 125.439 -5.49656
-25.5724 125.937 -2.87914
3.7467 118.512 18.9562
-15.3784 123.453 3.10995
-24.8712 125.419 5.34111
-25.4454 125.974 -3.30901
-12.5251 123.648 -13.0377
-15.4161 123.537 2.65354
15.289 117.442 -8.80699
-14.3693 122.759 14.4132
11.5253 117.048 16.4314
14.9901 117.444 -6.42998
-16.7424 124.256 -3.55566
-13.4813 122.64 15.5934
15.3203 117.67 -10.1568
-16.0025 124.038 -1.1338
-16.0596 124.13 -2.6116
-15.0956 123.597 4.21214
3.62289 120.501 -14.5028
-17.2859 124.71 -7.61947
-1.89741 120.056 19.3259
-15.6903 123.7 6.24052
-10.6244 123.585 -13.6889
-16.0575 123.981 2.56619
0.502756 119.601 19.015
-15.3362 123.83 2.98299
14.6555 117.67 -3.04352
-17.0077 124.626 -4.79551
18.0226 116.231 12.2788
-16.1096 124.266 0.311228
12.9033 118.548 -11.0399
15.2066 117.551 -0.436546
-14.6942 124.616 -11.5685
14.9669 118.063 -8.97894
-16.0603 124.107 5.06448
-7.92288 121.725 18.1859
-15.822 124.439 -2.00856
-2.76339 120.603 19.1597
-16.5378 124.76 -4.49414
-16.307 124.73 -4.89797
-15.3265 124.156 2.5625
-16.9032 124.156 10.1647
-3.38628 122.504 -14.8133
-16.73 124.918 -4.36753
10.6911 118.061 16.5329
-15.9221 124.819 -3.44733
12.7361 118.99 -11.3025
-25.9847 126.886 -0.655347
14.5162 118.351 -4.94206
-5.46765 123.174 -14.7938
0.987333 121.851 -15.1674
-5.96069 121.725 18.5305
8.57845 120.133 -13.1414
15.2158 117.343 15.058
-13.9485 124.99 -11.7183
-2.89327 122.844 -14.8998
-25.4259 127.167 -2.94702
-24.271 127.036 -4.83136
-2.14817 122.742 -14.9484
-12.3606 124.868 -12.9206
-17.2205 124.861 9.18497
15.8776 117.436 14.3189
-8.76668 124.182 -14.1341
-14.799 125.413 -11.1856
-16.5667 125.554 -5.98608
10.2815 118.624 16.5994
-18.202 125.275 7.82669
14.3069 118.813 -3.98738
-16.7755 125.676 -5.53679
-16.038 125.346 -1.65484
-16.2284 125.487 -3.65589
-15.9138 124.974 5.92244
-25.9112 127.328 2.24791
-16.9339 125.218 6.68415
-12.1073 125.171 -12.9902
-15.3161 125.003 4.6789
-17.5839 126.084 -5.97383
-15.9504 125.796 -6.6844
0.33062 121.069 18.5333
13.9422 119.48 -9.3002
-24.2812 127.547 -4.34949
5.80945 121.466 -13.2251
-25.5931 127.744 -2.20147
5.29561 120.076 18.2366
8.35425 120.959 -13.0935
-15.704 125.396 4.00692
-15.0083 126.021 -10.8448
14.2897 119.47 -6.50515
1.95949 122.598 -14.9004
-6.52087 124.407 -14.2081
-10.0888 125.192 -13.7976
-15.9334 126.156 -6.91244
-0.35425 121.539 18.4524
-10.8205 123.882 17.0556
-16.1761 126.236 -6.8593
-21.5127 126.693 7.54276
14.1613 119.624 -4.82211
14.0178 119.767 -7.0539
14.9423 119.498 -5.4934
-23.5366 127.865 -5.36848
-7.87921 124.925 -13.9716
14.8904 119.579 -5.5011
-16.1378 126.47 -8.09977
-15.7845 125.781 4.83716
13.9866 120.157 -11.7262
13.7684 120.243 -11.711
-4.9793 124.445 -14.2353
14.0586 119.933 -6.23313
13.7612 118.957 15.5804
-13.1861 126.157 -11.5063
-16.4434 126.493 -3.85637
14.027 119.932 -4.60089
-11.4411 125.902 -13.1723
9.72815 121.246 -11.8257
16.6245 118.492 13.9447
8.55791 121.577 -12.7476
8.57626 120.152 17.1067
10.9395 119.689 16.2324
-16.2219 125.763 12.622
8.5135 120.198 17.147
-16.8112 126.001 11.1477
-19.8398 127.524 -6.24472
-8.67078 125.483 -13.9592
-15.1504 125.564 13.3922
14.5991 119.982 -3.6731
-16.9499 126.224 8.83139
13.5394 120.619 -11.6578
13.9714 120.375 -8.13687
7.937 120.45 17.5284
-16.0127 126.853 -6.83258
-22.6051 127.664 6.23712
-1.68108 124.154 -14.7006
-15.4928 126.216 4.55476
-2.41513 124.323 -14.5287
-12.5017 125.085 15.7051
16.8685 118.81 13.8245
16.9881 119.219 5.03896
-23.5233 128.537 -5.10759
-16.6006 126.216 11.7459
-16.2778 126.951 -4.2535
-21.3198 127.505 7.63318
-2.20046 124.452 -14.4793
-16.8746 126.513 8.67073
-25.6055 128.905 -0.736263
-16.0917 126.54 5.60091
-15.0091 125.955 13.4607
5.72979 122.713 -12.1365
15.7871 120.079 -1.79297
15.9239 120.034 -1.32289
-23.5434 128.279 5.29375
-20.6243 128.218 -6.32658
16.3532 119.744 3.9148
16.469 120.051 -2.85408
11.3856 121.593 -10.8838
-1.80724 123.063 17.6792
10.2699 121.927 -11.2042
13.9039 120.935 -6.91052
-17.0702 127.597 -4.75784
17.8991 119.361 8.66842
3.95628 121.936 17.976
17.072 120.075 -1.85528
3.76 123.563 -14.1102
18.7834 119.128 10.0501
14.5597 120.785 -4.331
-19.2779 127.555 8.09668
17.3591 119.622 7.85756
-23.3841 129.115 -5.05111
-24.1478 129.194 -2.74812
4.55457 123.499 -13.5684
4.42209 123.602 -13.6171
-16.3013 127.789 -7.27285
14.5932 120.962 -4.62753
17.2114 119.852 7.24488
16.3415 120.536 -2.87032
15.6004 119.861 14.7439
-16.607 127.83 -4.57082
13.8693 121.346 -6.54053
-0.243091 123.23 17.6016
-16.0142 127.056 9.50526
5.24153 123.53 -12.5926
6.46185 121.817 17.9356
-5.63832 124.491 17.1501
11.6737 122.129 -11.3079
-18.5409 128.471 -6.29197
15.3443 121.048 -3.4967
14.8937 120.279 14.856
-24.5651 129.372 4.29029
5.83676 122.13 17.8086
16.1216 120.852 -1.05265
-9.19744 125.523 17.0285
13.7751 121.736 -7.31164
-15.929 128.237 -8.23294
18.1492 119.848 12.4802
18.666 120.388 -0.180808
-16.1673 128.375 -8.88902
16.6925 120.525 6.22494
-15.5404 128.233 -8.27973
14.106 121.86 -8.88721
-16.5727 128.293 -4.18118
-16.1915 128.408 -7.84682
-2.37492 125.717 -13.8842
14.6289 121.812 -9.44336
-23.5282 129.4 4.93267
-7.34037 126.825 -14.0254
1.76648 123.321 17.2579
13.9085 120.826 15.0204
16.2474 121.067 1.11695
15.8358 121.109 3.88923
14.2184 122.073 -8.32901
-7.01689 125.457 16.689
14.1761 122.141 -8.90408
-21.5236 129.776 -6.52043
-16.0326 128.496 -4.7027
14.6088 120.9 14.8268
10.4105 121.762 16.1812
-18.9186 128.515 8.34841
16.306 121.02 5.54471
-21.2528 129.766 -6.58818
-18.8968 128.528 8.36136
-5.50164 126.752 -14.0202
-7.86626 127.304 -13.9641
-19.4212 129.479 -6.84241
16.8225 120.946 7.23056
7.98282 122.395 17.6031
5.19604 124.517 -12.5287
15.4681 121.843 -3.17491
-15.74 128.712 -4.93664
14.0424 122.543 -10.4719
14.5894 122.4 -9.46076
17.7779 120.842 8.77724
15.1492 122.052 -3.80974
14.0948 122.372 -5.35425
-3.72553 126.661 -13.9993
12.5893 123.054 -12.0936
7.31392 122.758 17.5294
5.84086 123.081 17.4968
15.6942 121.979 -3.11383
-8.75391 127.802 -13.7007
15.7939 121.633 3.5955
15.1541 122.123 -3.28686
13.6181 121.569 15.133
14.9387 122.229 -3.95709
18.4171 120.734 11.8358
14.6842 122.386 -4.52584
-7.82291 127.786 -13.9066
-1.09087 126.349 -13.7374
16.857 122.316 -10.7362
-12.2841 127.388 15.3571
-14.892 129.177 -9.61466
15.976 121.785 4.64034
-19.3291 129.281 8.10814
-11.9036 127.347 15.5194
17.9193 121.667 -0.295483
14.9305 121.587 14.8028
14.3584 122.856 -8.24991
-14.0556 128.16 9.48289
13.1943 123.314 -11.9831
-16.1767 129.535 -8.379
8.22685 122.991 17.3537
-6.86242 127.82 -13.9895
18.3804 121.091 11.8785
5.70587 125.017 -11.8355
-15.2046 128.386 13.1288
6.76656 124.804 -10.9713
-14.069 128.322 9.85403
14.0347 123.142 -8.43537
-14.7444 128.314 13.7141
-5.14867 127.591 -14.0217
-2.09623 125.438 16.4503
19.4125 121.583 0.422677
14.8622 122.683 -1.81456
0.957686 124.819 16.3763
16.1285 122.451 -2.31913
8.7362 124.518 -11.4544
-15.534 129.679 -9.20515
-16.0252 129.783 -9.11874
-13.8388 128.434 9.20439
0.992888 124.88 16.3421
22.5513 121.004 0.452812
-14.2845 128.704 7.39587
13.4627 122.32 15.2428
2.49383 124.65 16.3836
14.316 123.134 -4.83155
-23.7345 130.95 4.27329
-17.6951 130.149 -5.38795
14.2561 123.223 -5.37749
-9.73999 128.806 -12.9104
-15.9131 129.79 -5.21712
-14.6823 128.952 6.56583
4.72795 125.687 -12.4595
-20.727 130.915 -6.43666
-16.3004 130.031 -7.32332
-23.8758 131.471 -2.89718
-14.3861 128.601 13.9404
12.2233 122.766 15.475
14.153 123.414 -6.22415
-23.4074 131.06 4.49797
-11.5269 127.955 15.7275
-16.6632 130.151 -5.30463
13.6071 123.723 -7.59157
-7.00077 128.501 -13.7581
-8.85097 127.413 16.696
-13.6495 128.867 8.68648
14.4232 123.667 -9.31371
17.4605 122.561 0.0938613
5.60799 124.348 16.7556
-14.3126 128.817 13.9555
-8.19109 127.457 16.3612
18.3405 121.995 10.628
15.4835 123.634 -10.0365
16.2003 123.498 -10.4308
-21.4383 131.416 -5.3281
19.235 122.304 0.755846
19.6905 122.791 -11.125
14.5097 123.671 -5.74639
-25.2453 131.915 2.32753
-6.0864 128.593 -13.4235
14.1437 124.092 -10.5892
2.67853 126.739 -13.2344
-7.38253 128.973 -13.6764
24.1567 121.484 -0.0314988
-20.2096 130.765 7.81714
13.0355 123.227 15.3267
14.8052 123.788 -3.84132
-13.3939 129.266 9.48876
16.0054 123.468 -2.19219
16.0574 122.705 14.4925
7.43756 125.874 -11.4385
-15.2628 130.785 -10.7649
-14.175 129.514 10.6341
-6.85661 129.127 -13.4403
14.4877 123.106 15.0413
15.3133 123.794 -2.47528
-24.0795 132.326 -1.61004
-13.2894 129.471 9.28239
13.3261 124.531 -7.2608
16.7735 123.967 -10.7765
-25.0349 132.45 1.79346
-2.39723 126.846 15.9415
-11.9547 128.939 15.6083
-21.5119 132.021 -4.78802
-12.6169 130.425 -11.4353
-14.3354 130.799 -11.2987
-14.8519 130.941 -11.1714
-20.5673 131.264 7.71256
-16.2828 130.914 -3.92084
22.7907 122.211 0.779037
15.6325 123.916 -1.95463
9.61052 124.346 16.4788
6.05546 126.47 -10.9079
-14.8842 130.191 6.11561
-13.9388 129.649 13.3566
-24.4299 132.572 0.698881
-18.084 130.845 7.96862
-13.674 129.78 10.3741
25.0768 121.949 -1.28512
-22.4176 132.403 -3.82848
-14.9446 131.197 -11.2601
-13.6242 130.01 7.68681
9.3983 126.052 -12.5968
-1.47126 127.024 15.7319
-17.0017 130.806 7.45808
17.6506 124.215 -11.1328
14.7089 124.567 -5.1386
24.2874 122.239 -0.0429907
16.5532 123.578 6.94556
17.1361 123.75 0.83464
-18.033 131.766 -6.94416
-17.4463 130.975 7.5782
-0.894142 128.445 -13.7541
13.8271 125.021 -8.00543
17.7978 123.744 1.02605
10.7797 125.969 -12.7016
15.8913 124.251 -0.238587
8.33525 125.08 16.45
21.328 123.008 1.23813
11.3344 124.471 15.7487
16.1983 124.204 -0.0539714
-24.6161 132.992 1.52446
14.8626 124.816 -4.98092
-24.951 133.089 2.5587
16.4048 123.988 5.92374
16.5548 123.963 7.09577
-1.09321 127.431 15.5049
-24.2642 133.299 -0.667411
-17.8063 132.199 -6.42638
-19.3959 131.81 8.86082
4.57567 127.616 -11.6731
14.1467 125.424 -9.01051
-14.858 131.845 -11.1172
13.5976 125.51 -7.77421
-9.19213 129.287 16.167
24.37 123.202 -7.69188
3.50526 126.607 15.313
-20.6891 132.878 -5.47313
10.6184 125.033 16.0873
-10.5129 129.635 16.0716
24.163 123.337 -7.95262
21.1328 123.557 1.45633
16.1312 124.736 -0.269507
6.3355 126.127 15.61
-24.4051 133.404 3.48968
15.7191 125.389 -10.0285
-13.8294 130.94 8.04526
-1.08207 129.238 -13.5507
20.6595 123.795 1.56114
11.7491 126.431 -12.5683
23.0238 123.343 0.878813
-8.36214 130.81 -12.5085
14.3997 125.47 -4.0993
-23.1194 133.173 4.91145
17.6239 123.977 12.5425
-20.4236 132.463 8.32826
15.0304 124.496 14.788
15.6993 125.286 -2.89875
9.77854 125.648 16.3936
-5.2367 129.017 15.405
-1.5093 129.666 -13.4902
-14.5852 131.521 6.68435
24.1143 123.838 -7.78547
-0.911635 129.605 -13.2126
13.764 126.212 -8.7928
15.1933 125.744 -5.54116
-0.799741 129.593 -13.1397
12.2245 125.371 15.542
-21.3405 133.639 -4.45337
5.06955 126.963 15.1317
-19.6584 132.659 8.72403
-7.69653 129.719 15.9269
22.2592 123.944 1.31692
0.26421 128.075 15.0167
-21.4974 133.774 -4.28163
24.8003 123.879 -7.24207
-16.9072 132.802 -3.98614
-13.7134 131.469 9.12162
-14.1989 131.716 7.05767
-3.62175 130.426 -12.9674
16.623 125.463 0.814327
15.057 126.321 -9.4397
22.913 124.647 -9.10722
10.8661 126.064 16.0609
13.446 125.594 15.3093
22.329 124.359 1.44947
2.29521 128.066 14.7172
-10.4119 132.13 -11.8088
-16.7514 133.212 -5.40119
24.6766 123.985 -0.377223
14.7389 126.48 -7.27729
-16.0015 133.078 -5.56575
26.4708 123.908 -5.76356
-4.31162 130.917 -12.4164
-11.7603 132.524 -11.7915
-19.463 133.923 -4.937
-12.4646 131.575 12.0114
12.8151 125.925 15.4744
13.6697 126.94 -8.2034
-16.7561 133.447 -6.24979
-6.65773 131.596 -12.8157
-22.434 134.587 -3.85596
15.9593 126.059 0.385417
24.2816 124.679 -7.66215
-7.22125 131.802 -12.9182
-14.8271 133.266 -8.92932
-23.0574 134.355 5.45487
24.8786 124.27 -0.719472
11.7779 126.343 15.7331
23.2786 124.576 1.20291
4.33919 128.046 14.5727
-0.215223 130.379 -12.3113
-3.41381 129.8 15.001
22.7054 125.33 -8.99644
8.41318 128.574 -11.8929
-3.20223 129.788 14.9673
15.5022 125.764 14.3001
25.7049 124.601 -6.46068
17.3998 125.596 10.1686
-16.4261 133.039 8.06529
13.7556 127.354 -9.44445
16.9372 125.822 8.16209
4.47148 128.231 14.4766
14.5581 127.176 -8.17608
-14.6763 132.748 8.08426
2.62283 128.705 14.3542
14.6403 126.074 14.8718
16.3308 126.647 -4.28679
11.977 128 -12.4374
15.1214 126.783 -0.456843
-16.6899 133.897 -4.41871
21.1597 125.999 -10.7854
-9.92895 132.835 -12.2193
16.7737 126.244 4.48352
-12.2583 133.353 -11.9423
14.4604 127.447 -7.98026
17.0362 125.874 13.0681
-14.0126 133.794 -10.9081
-15.0115 133.892 -8.43651
-16.261 133.953 -4.06614
16.8601 126.162 8.35335
25.5551 124.765 -1.62285
6.85924 128.013 14.8929
13.3373 127.501 -3.13193
16.2282 126.722 2.03349
21.5333 126.175 -10.2617
13.7405 126.655 15.1288
16.6845 126.394 7.77069
16.8862 126.305 8.86244
19.1505 126.194 2.37766
-16.7135 134.299 -4.23327
-3.45045 131.843 -12.4439
-10.5196 133.37 -12.0937
-15.5065 134.256 -7.6849
5.41899 128.651 14.286
24.4613 125.238 -0.295638
2.64321 129.275 14.0705
3.9463 129.002 14.1414
14.2458 127.974 -8.21365
-24.1175 135.975 -0.991983
26.5104 125.237 -5.81865
12.6613 127.211 15.3783
15.545 127.411 -1.39691
17.3116 126.337 12.9717
12.8761 128.276 -6.58538
18.9269 127.171 -10.5374
-14.8974 134.395 -8.15568
-16.803 134.699 -5.81554
-10.9094 132.439 14.3177
9.87144 129.292 -12.764
17.4273 126.411 12.9198
10.6288 127.807 15.2356
-8.93436 132.073 15.1534
-20.2997 134.894 8.18285
-3.7931 132.389 -12.1732
-18.1978 135.231 -5.92913
18.3561 127.542 -10.1936
-16.3815 134.84 -5.29211
-11.0875 134.03 -11.9829
14.9641 128.262 -8.72559
27.3713 125.456 -4.94849
13.4345 127.505 14.9989
0.00991713 130.478 14.1074
15.9059 127.69 1.18852
5.1434 129.411 13.9111
13.5589 128.346 -1.49029
14.1552 128.673 -9.73968
7.96305 128.831 14.5796
15.8815 127.795 1.13054
26.2766 125.706 -1.14151
-23.1105 136.526 -3.14578
-14.9217 134.153 9.09681
17.3926 127.023 11.8507
25.2563 126.241 -6.91131
-4.3628 131.574 15.5586
-16.9427 135.281 -4.09944
15.0026 128.186 0.410745
18.8804 127.879 -10.2156
-18.0994 135.657 -5.00326
2.80203 130.239 13.9167
28.1188 125.621 -2.64946
3.08805 130.24 13.9426
-7.58831 132.521 14.9713
-15.9954 135.44 -7.21902
14.3277 129.006 -9.70966
21.2691 127.53 -9.86529
15.1837 128.346 0.835051
4.41549 131.26 -10.7031
-24.0761 136.892 0.777899
-7.95341 134.015 -11.8802
20.9262 127.05 2.75706
11.525 129.907 -12.8007
15.7003 128.728 -7.1388
17.3986 127.424 12.1645
17.2722 127.871 3.87456
-16.8783 135.746 -5.62411
-14.6799 135.391 -8.10732
12.4606 129.389 -5.40917
12.9939 129.347 -6.30272
-15.9519 135.677 -7.25113
16.4141 128.206 2.15147
16.1842 128.293 1.54679
1.28481 132.151 -10.8045
-20.5192 135.969 8.11195
7.49958 129.636 13.9952
17.1915 128.007 4.35221
-12.7504 134.228 10.2947
-16.8377 135.966 -6.33652
17.5624 128.701 -10.0123
11.0589 128.906 14.8072
-10.8428 133.803 11.9873
21.4722 127.843 -9.46787
21.4598 127.864 -9.47103
-7.26629 134.211 -11.4672
-20.4217 136.154 8.14639
14.5589 128.949 0.334815
6.60098 131.243 -11.156
14.7119 128.934 0.501139
-4.80743 132.436 15.6215
10.4755 129.184 14.4396
10.3832 129.21 14.3895
26.2185 126.805 -6.1234
-15.6591 135.957 -7.48263
0.856507 131.335 13.8668
21.613 127.966 -9.24403
-17.2874 135.514 9.08539
16.1614 129.004 -5.97991
-8.78094 133.466 13.945
22.9095 127.67 -7.9677
16.6316 128.371 5.98227
15.5762 129.037 -2.44095
16.4891 128.336 8.07731
16.0029 128.189 14.1323
28.8475 126.159 -1.21776
15.8053 128.86 1.47378
14.4817 129.757 -10.8656
23.2282 127.248 1.91042
-23.3871 137.22 4.85872
-19.548 136.821 -3.87063
16.0979 129.048 -2.86734
29.3011 126.1 -1.11022
17.0672 128.561 3.20302
15.2168 129.546 -8.11462
-6.29456 133.062 15.4377
-16.997 136.456 -5.12053
24.2071 127.61 -6.95466
12.9077 130.044 -6.45759
-2.67263 132.357 15.345
13.2901 129.7 -0.721431
15.745 129.073 1.57964
13.0426 129.831 -1.92158
4.26887 131.034 13.7998
-9.42163 134.018 13.7047
-6.91027 133.421 14.779
15.5967 129.39 -2.48073
1.12122 132.963 -10.6381
-19.1462 136.419 9.10605
-23.7482 137.677 3.88253
-6.90654 133.514 14.7121
17.6596 128.747 3.42162
1.30467 131.816 13.7675
14.6359 129.692 -1.71654
14.9811 129.477 1.14687
-23.0565 137.964 -2.32943
-12.9753 136.182 -10.117
17.4044 128.473 12.957
-9.53228 134.319 13.4166
16.2163 129.28 2.89877
28.4951 126.793 -0.528187
14.0642 130.323 -8.56947
14.9644 130.132 -8.42548
1.3757 133.175 -10.3455
0.0574654 133.504 -10.9681
12.9318 130.332 -3.08789
22.9405 127.98 2.28296
-16.7767 137.028 -4.61464
-18.5882 137.391 -3.82595
22.4257 128.202 2.53698
15.5166 130.199 -7.23339
-8.72488 134.501 12.8559
24.9392 128.145 -6.46919
14.5157 130.611 -10.6418
17.8204 129.217 3.52267
15.5257 130.289 -7.85419
15.103 130.467 -9.17529
17.0147 129.345 5.26654
13.4395 130.449 -0.92243
-21.4173 137.601 7.53945
13.9737 130.72 -8.65433
-22.876 138.383 -1.86145
15.4074 130.278 -5.91861
-6.15721 133.944 14.948
22.4283 128.894 -8.03842
-14.6228 136.986 -8.55148
4.84219 131.689 13.7898
12.8362 130.953 -6.48823
11.6361 131.519 -12.7114
-7.60414 135.624 -11.1701
-5.37407 133.861 14.9916
-12.154 135.563 10.873
-19.8953 137.343 8.81894
29.3605 127.129 -0.664009
5.88239 131.567 13.7166
6.65018 132.637 -11.3401
27.6697 127.764 -4.73523
22.5027 129.052 -7.89657
15.3235 130.542 -6.50893
-20.9972 137.72 7.91793
-23.1271 138.37 4.94221
15.9238 130.304 -2.80705
16.1009 130.324 -3.41846
16.3093 129.963 3.44039
26.2121 128.267 -5.69771
12.0429 130.372 14.363
-5.84639 135.497 -10.7585
16.494 130.006 3.07917
-9.22716 136.324 -11.9584
3.06758 133.606 -10.3178
1.41943 132.79 13.7544
-6.80647 134.58 13.835
27.5413 127.833 -0.519599
-7.21904 135.896 -11.0572
29.0153 127.541 -0.421753
-10.6453 135.593 11.0272
12.5536 131.393 -5.15552
20.795 129.808 -9.26058
4.77732 133.372 -10.4857
26.0759 128.296 -1.14207
-10.8807 135.71 11.2139
10.2354 132.303 -12.4123
-19.747 138.364 -3.16401
29.0972 127.64 -0.423731
14.4465 130.808 0.0674651
-23.4349 138.868 3.91137
29.0781 127.744 -1.26029
-9.61293 135.483 12.1251
-13.3474 136.387 10.3303
17.1532 129.726 11.5649
17.5736 129.93 5.54564
17.2101 129.908 8.07389
-9.83601 136.768 -11.9873
-19.1223 138.411 -3.585
15.2957 131.246 -9.23915
22.9368 129.047 2.09754
17.1973 130.261 3.67296
-5.69275 134.734 14.5167
-17.1917 137.464 9.72034
-2.93255 135.404 -10.9834
16.4132 130.009 13.7445
3.57063 132.805 13.5888
4.88164 133.754 -10.5719
16.5593 131.009 -6.06364
16.1725 131.091 -5.76772
-1.81651 135.247 -10.8031
17.3246 130.398 3.85936
15.1283 131.305 -4.73079
5.43956 133.753 -10.8468
-22.5911 139.032 5.80947
-7.23576 136.542 -11.0508
16.2478 130.735 3.60304
-14.512 137.199 9.44853
24.958 129.181 -1.43237
-8.14791 135.694 12.6226
15.3352 131.338 -2.39425
5.29341 132.736 13.7509
12.3663 132.498 -12.6743
0.623676 133.736 14.0834
1.4225 134.755 -10.0498
-17.568 138.616 -4.5592
12.9301 132.104 -6.19386
16.1096 131.368 -5.21656
16.7434 131.273 -5.62658
-15.6545 138.35 -6.59469
21.1992 129.881 3.39761
21.5321 130.381 -8.27992
12.3206 131.298 13.8739
-13.214 138.016 -10.0905
-16.173 138.496 -6.52868
-1.39166 134.267 14.8887
22.9883 130.05 -6.91633
22.7039 129.687 2.6192
-10.2258 136.453 10.7862
25.4553 129.531 -5.67074
13.1803 132.521 -12.1035
0.225983 134.049 14.3163
21.0629 130.646 -8.51241
17.5173 130.57 8.85814
-22.746 139.56 5.31582
-2.75939 136.019 -10.6499
12.6334 132.415 -4.88035
16.9042 131.747 -9.72785
22.4129 129.941 2.97141
-16.5211 138.781 -5.0223
14.4169 132.051 -3.91648
-21.9834 139.85 -1.7917
18.1303 131.552 -9.79513
3.05533 134.864 -10.3766
17.3458 131.787 -9.78972
-16.5832 139.014 -6.66448
4.7549 134.578 -10.4567
15.109 132.13 -6.22862
4.85404 133.393 13.6143
16.8496 131.169 5.98659
-22.6685 140.05 -0.14178
-18.9518 138.816 8.75287
-16.6697 138.276 9.87437
17.4046 131.849 -9.78928
-16.7621 139.178 -6.69498
-14.6308 138.79 -7.86476
3.8785 134.899 -10.3026
-12.6341 137.478 10.3963
-3.5103 136.604 -10.1696
14.8364 132.581 -8.80157
-22.077 139.898 5.96042
5.93813 133.466 13.747
9.65443 132.7 12.9779
25.6227 129.955 -1.57274
-14.667 139.057 -7.65426
5.34448 134.883 -10.7254
7.92379 134.357 -10.9827
24.0138 130.376 -0.358397
-16.7098 138.731 9.79502
21.5594 130.785 3.49156
-15.6011 139.374 -7.02951
15.5193 132.596 -5.50277
-14.0843 139.201 -9.06454
-23.0878 140.533 3.62941
17.6556 131.291 11.984
-10.582 137.499 10.4653
21.3748 130.958 3.60159
-10.0374 137.448 10.3272
13.5546 133.166 -5.88676
28.2863 129.8 -0.695711
23.3342 131.157 -6.10328
-0.445604 135.302 14.6402
-11.3176 137.919 9.81935
-17.7003 139.358 9.06249
4.00595 135.643 -10.2915
27.7269 130.189 -3.86858
-11.7555 138.065 10.2793
10.6324 133.092 12.682
15.7613 132.923 -6.18944
-0.999072 135.543 14.7625
28.339 130.007 -2.05969
24.1093 131.107 -5.37451
15.8057 133.109 -9.15766
7.21207 135.07 -10.8696
-15.8885 139.066 9.98254
13.1414 133.878 -12.4041
-20.7015 140.733 -2.07006
-9.54253 137.674 11.1876
28.1119 130.109 -1.12507
17.5476 131.838 10.3762
13.6524 133.492 -6.00153
15.9199 133.166 -9.21475
28.2442 130.216 -2.74491
-10.8342 138.1 9.86825
7.10419 135.284 -10.888
-20.605 140.864 -2.08443
-20.7149 140.916 -2.04749
14.8856 132.453 13.6374
-8.82558 138.833 -11.3779
-11.0603 138.289 9.81887
8.08464 135.146 -10.6981
-19.282 140.717 -3.07121
28.4637 130.317 -2.14071
23.0192 131.71 -6.34012
17.5885 132.282 6.96002
26.1458 130.87 -1.44557
23.4004 131.692 -5.86472
17.4429 132.175 10.9585
14.8556 132.683 13.5286
-7.06496 137.552 12.7453
20.3361 132.031 4.43403
-1.65619 136.322 14.4431
24.7198 131.547 -4.77484
21.3098 132.47 -8.04839
15.3536 133.859 -8.63624
-22.3718 141.401 4.71828
-13.0724 139.138 10.2269
15.8695 132.76 13.3886
-0.275372 137.389 -9.12414
-9.05719 139.42 -11.137
-22.7074 141.798 1.19146
-12.3364 140.079 -9.23709
-17.6329 140.337 9.00589
-16.1606 139.996 10.0166
25.0779 131.593 -0.687595
-19.9521 140.974 7.83448
-19.3587 140.832 8.29109
15.3498 133.98 -5.45405
23.998 132.126 -5.26919
-13.735 139.597 9.58866
-12.0388 140.237 -9.28071
-5.34891 138.84 -10.3689
17.7146 133.812 -9.60048
14.627 134.466 -9.05317
23.8279 132.317 -5.37508
-0.823754 137.861 -9.26043
-2.24276 137.026 14.1544
0.778998 137.523 -8.95503
23.9252 132.053 0.264032
4.59568 135.609 13.6137
17.4415 132.95 11.1227
0.580477 136.459 14.2327
-0.826791 137.918 -9.24678
-16.0373 141.139 -6.89266
-8.55356 138.576 12.4132
-10.8798 139.201 10.506
-18.5322 141.573 -3.29749
-10.9389 139.301 10.4934
-0.300033 136.848 13.5837
21.7938 133.164 -7.43593
5.27094 135.791 13.1949
-16.7839 141.479 -4.67314
8.00355 136.4 -10.522
-17.3921 141.667 -3.74905
27.3078 131.903 -1.86901
10.109 134.954 12.358
17.3606 133.553 8.94
16.1716 134.491 -4.88601
-16.8855 141.637 -4.04674
-22.3712 142.587 0.877768
0.0447182 137.133 13.3956
-9.83409 140.487 -10.5172
-2.11578 137.695 13.4954
6.06863 137.134 -10.7238
21.3938 133.086 4.26322
-8.9153 139.326 11.972
27.04 132.272 -1.70997
-14.8004 141.661 -7.34778
23.1426 133.349 -5.67134
-7.30677 139.065 12.5793
20.8569 134.038 -7.86476
1.36536 137.245 13.6656
0.773962 137.396 13.3416
17.0195 134.968 -8.94352
25.0559 133.003 -3.73124
17.7867 134.052 7.859
-21.0705 142.642 5.87314
17.4426 134.071 11.0012
5.74808 136.548 12.2429
16.1975 135.317 -8.81587
26.7787 132.775 -3.61972
-1.10665 139.081 -8.75628
-1.44727 139.233 -8.74363
-3.60682 139.754 -9.34906
2.21881 137.425 13.6275
14.6005 135.79 -7.43278
-2.11497 138.443 12.6629
-9.91163 140.232 11.3759
-0.125798 139.092 -8.66003
-13.9012 142.037 -7.59404
5.01321 136.96 12.3011
-2.46549 138.576 12.6901
-7.2849 140.767 -10.502
20.1435 134.045 5.28889
19.9064 134.793 -8.63765
26.9332 132.924 -1.53719
15.8614 134.633 12.7379
14.6724 135.914 -7.44957
-12.4043 140.996 9.37674
-4.52413 139.176 12.7055
11.9088 136.823 -11.3724
-15.581 141.804 9.13301
-18.0079 142.365 8.77332
24.2191 133.837 -3.46221
27.0488 133.236 -3.18384
1.09504 139.166 -8.54745
18.2068 134.693 7.20386
18.4947 135.465 -9.3532
-2.68821 139.001 12.3804
4.7613 138.537 -10.3272
17.9998 135.594 -8.81567
2.63902 138.963 -9.42464
-15.91 142.774 -5.0605
-6.4722 140.986 -10.2814
10.6305 136.239 11.9126
4.87546 137.483 12.2046
-4.46383 139.511 12.6738
18.6655 135.579 -9.32333
-5.65838 140.918 -10.1201
-6.54968 140.136 11.8744
-1.17489 139.995 -8.44921
25.2218 134.019 -3.15598
22.6479 134.708 -5.66481
18.455 135.783 -8.97289
-20.9955 143.635 5.44696
11.7967 136.229 11.7348
-7.04277 141.402 -10.2087
25.8977 133.933 -3.12001
24.0215 134.136 1.29968
-5.0614 141.06 -9.96235
15.9897 136.502 -9.99236
0.0511514 138.944 12.0418
10.9157 137.718 -11.014
16.5374 136.376 -8.1142
-11.4698 141.616 9.34112
19.8024 135.028 5.5678
23.2784 134.842 -4.97629
12.5776 136.407 11.5625
11.881 136.663 11.6006
-16.728 143.642 -4.13276
-2.39989 139.777 11.6865
26.7051 134.183 -2.7611
-18.0588 143.403 8.51165
13.9534 136.313 11.6707
-21.5397 144.519 1.85311
-15.4938 142.994 8.83881
13.2192 136.66 11.4469
-12.8967 143.267 -7.18472
-21.3714 144.79 1.38849
-1.70026 141.015 -8.5099
17.1799 136.93 -7.64661
23.5276 135.064 2.66139
-4.59907 140.731 11.5646
8.68758 137.872 11.4238
24.0187 135.283 -3.17572
10.3143 137.555 11.2784
24.0694 135.07 1.44555
27.203 134.574 -1.50584
1.58814 140.5 -8.35001
3.10125 140.222 -9.26536
16.6405 136.26 11.7582
12.8631 137.146 11.3187
-6.44123 141.411 10.9796
11.2639 137.595 11.4297
9.45742 138.072 10.7084
-10.67 142.504 9.39523
27.0527 134.912 -2.08435
7.58238 139.556 -10.6361
23.9751 135.406 1.70983
7.332 138.559 11.1662
22.3487 135.677 4.23104
24.0829 135.454 1.4233
-6.98297 142.763 -9.31422
1.29685 140.934 -8.20803
7.47431 138.682 10.9291
17.1844 137.571 -9.34845
-5.31071 141.462 10.8742
-11.8348 142.955 9.38044
3.1975 139.558 12.1843
-10.1499 142.584 9.71515
24.8234 135.456 0.338737
1.37388 140.071 11.0734
16.9004 136.699 11.3373
2.7208 140.779 -8.76802
17.3684 137.583 -8.39299
23.5751 136.056 -4.27579
13.1545 138.697 -11.8603
-19.7438 144.952 6.14566
-19.726 144.967 6.15709
16.0241 137.936 -8.21145
-0.221571 140.506 11.6714
-14.8654 143.825 8.87056
16.6617 137.828 -7.60706
-16.3443 144.184 9.00949
-5.81835 142.809 -9.16412
4.08445 140.678 -9.48577
15.97 138.058 -7.93659
11.449 138.154 11.2231
-0.200852 140.693 11.5646
-6.16365 142.998 -9.06145
-19.4185 145.524 -1.74647
24.1262 135.93 1.32498
1.00036 141.425 -8.05853
23.5992 136.341 -4.32349
-3.94349 142.578 -9.22327
-3.77226 141.621 10.7501
21.2105 136.572 5.32708
-13.1474 144.648 -6.93358
8.19915 139.272 10.2961
9.22156 139.093 10.1164
6.69153 139.635 10.6126
14.4902 137.919 11.4317
23.3761 136.8 -4.80284
-0.390993 141.194 11.4957
-17.7857 145.162 7.87091
-3.48058 142.931 -8.96534
21.7517 136.865 4.88482
-0.641805 141.4 11.5862
19.2633 138.075 -8.17804
26.9377 136.112 -1.48482
2.4684 140.814 11.0371
21.3189 137.65 -7.6484
-20.3161 146.27 1.62474
-14.0418 144.553 8.94922
6.27724 140.091 10.7066
-9.69585 144.538 -8.68363
22.6704 136.9 3.96832
20.2066 137.334 6.03297
-16.6168 145.787 -3.36659
-0.204599 142.476 -8.18183
-0.624725 141.614 11.5074
10.7066 140.258 -10.7214
-17.0546 145.912 -2.75763
6.85001 141.126 -10.4343
13.8526 139.656 -11.1624
5.95863 141.333 -9.96163
22.7587 137.493 -5.79418
18.5442 138.525 -8.1837
11.2414 139.233 10.4398
21.2406 137.33 5.43996
-0.00104526 142.62 -8.08969
-5.78452 142.981 10.6077
21.1957 137.395 5.49663
-18.5826 146.389 -1.59287
12.947 138.942 10.9436
4.34085 141.795 -9.12738
0.991167 142.471 -7.87416
19.7653 137.73 6.23459
2.34798 142.246 -8.1354
2.91555 142.13 -8.2803
21.8015 137.446 4.90666
-16.8267 145.707 8.22463
-2.33092 142.475 10.763
4.99716 141.887 -9.34498
23.9943 137.295 1.71469
-11.3709 144.577 9.98481
6.05378 141.785 -9.83041
-0.298273 142.152 11.1322
11.933 140.618 -11.3498
-5.64493 143.36 10.5432
22.1221 138.187 -6.81069
11.0091 140.806 -10.819
16.6331 138.555 10.8755
-12.7961 145.809 -6.60397
17.356 139.521 -9.81027
4.3991 141.321 11.1007
-7.76613 144.922 -8.41205
-19.4889 147.028 0.663396
1.44301 142.924 -7.85152
-3.5226 144.042 -8.55482
-14.4131 146.254 -4.75696
10.6433 140.166 9.57953
16.2235 139.933 -8.2413
16.2516 139.921 -7.98995
17.4398 139.693 -8.06971
-8.90092 144.552 10.5615
7.19036 142.08 -10.2461
22.2556 138.651 -6.48418
-14.8588 146.057 8.56281
17.1012 140.021 -9.68766
3.06833 142.098 10.3087
-15.5525 146.833 -3.14956
16.5678 140.166 -8.71227
17.8935 139.852 -7.97244
-9.32076 145.785 -8.20817
5.26015 142.677 -9.12188
-11.5863 145.459 9.82927
26.0884 137.822 -0.531921
-3.44417 144.648 -8.39553
-15.1691 146.976 -3.44914
-17.4775 147.38 -1.2666
-2.99391 143.684 10.2566
20.5727 138.777 6.30661
14.0731 141.015 -10.0965
5.11799 141.98 10.3505
-15.2649 147.1 -3.24997
14.3574 141.021 -9.8618
17.8056 140.173 -7.71022
4.49919 142.233 10.4436
-18.5092 147.677 1.26321
-8.94759 146.091 -8.25506
-14.5736 147.124 -3.97626
18.0673 139.524 7.75663
16.7831 139.731 9.6474
-3.14617 144.046 10.1192
21.7117 138.922 4.90735
6.13224 142.098 9.78604
0.307144 144.23 -7.64775
12.6378 141.732 -10.6765
-12.0071 146.938 -6.4337
21.1822 139.78 -7.2879
16.4882 140.825 -7.55548
7.79004 142.854 -10.1674
17.999 140.559 -7.40032
-17.5752 147.939 -0.373412
7.23476 142.081 9.67488
-17.6458 147.992 0.19156
5.95438 142.43 9.61588
-17.3292 147.997 -0.894239
24.3479 139.058 -2.134
-10.0724 145.928 10.3536
-17.4772 148.068 0.0103372
-9.49569 146.719 -7.68778
11.2144 141.43 8.6885
-7.5314 146.318 -7.81241
-1.18159 144.957 -8.01675
-9.60489 145.874 10.6825
2.96545 143.22 9.35172
25.6113 138.766 0.166541
21.6313 139.992 -6.54702
23.348 139.56 -4.79386
-7.76661 145.551 11.1181
11.7268 142.401 -10.5634
23.7508 139.495 -4.06117
-11.0973 146.42 9.49259
14.4141 140.874 9.93256
4.73263 143.903 -8.35578
16.7532 140.476 8.70931
-9.1852 146.149 9.35683
25.4788 139.119 0.964672
2.63833 144.507 -7.57413
20.6919 140.072 5.83412
2.16506 144.748 -7.47515
13.0972 141.596 9.07202
2.87982 143.867 8.83865
5.97489 143.189 9.05932
20.3768 140.865 -7.18093
-5.76961 146.57 -7.06368
16.9604 141.627 -6.43885
-16.3382 148.625 -0.797195
14.4743 142.382 -9.67447
3.84049 143.775 9.30274
12.2975 141.985 8.53534
-9.89545 146.829 8.11348
10.6786 143.273 -10.0061
24.9835 139.699 0.0133352
3.47229 144.787 -7.61557
-0.413185 145.699 -7.63433
20.3843 140.555 6.29551
-14.3149 148.579 -3.22743
17.0529 141.198 8.59314
-11.9362 147.6 7.08694
-6.98654 146.381 10.3366
8.09065 144.14 -9.70643
-6.94464 146.413 10.7314
6.84412 144.445 -9.16704
16.654 141.413 9.36303
17.4701 141.316 8.1357
7.01199 143.582 8.69906
-9.67702 147.401 7.13495
4.81347 144.162 9.19113
20.3672 140.934 6.29723
16.2357 142.595 -8.89179
7.02182 143.746 8.6054
15.6799 141.948 9.37796
9.7729 143.335 8.28785
1.95127 145.038 8.58729
21.1692 141.673 -6.33594
14.5014 142.374 8.90141
-14.5495 148.939 4.40917
18.3532 142.409 -6.31995
-9.29842 147.79 6.74638
11.1242 143.345 7.6951
9.21348 143.759 8.27285
-14.5959 149.154 4.08475
14.8489 143.434 -9.30344
16.757 142.115 9.19441
15.1206 143.375 -9.17779
3.0095 145.987 -7.32233
23.9751 141.223 -2.66636
22.1931 141.726 -4.65112
-12.0902 148.657 5.91797
4.73868 145.682 -7.71204
-15.4553 149.619 1.82999
0.59171 145.796 9.31683
20.876 142.178 -6.61498
5.04839 144.914 8.75706
21.335 142.126 -5.67557
-7.94568 148.549 -7.0459
-15.3466 149.714 2.02998
17.6026 142.281 7.98702
17.331 142.356 8.35121
-8.24754 148.025 6.70481
9.49972 144.984 -9.68339
7.90055 144.474 8.17828
-3.14555 146.833 9.6246
24.464 141.397 -1.38311
21.7726 141.734 4.40941
7.42369 144.67 8.07165
22.8178 141.576 3.63479
8.12324 144.587 8.02767
-14.7257 149.896 0.851592
11.209 143.974 7.48664
15.8069 142.962 8.02658
-13.2947 149.488 4.17703
24.5574 141.536 -1.00266
-12.2918 149.756 -4.52145
-6.88997 148.719 -6.80503
20.3116 142.335 6.20976
21.6036 142.595 -4.67577
-13.3893 150.149 -2.85849
9.41108 144.703 7.52886
5.2222 146.373 -7.66443
1.12139 147.316 -7.31331
-6.51481 148.953 -6.56728
23.737 142.003 2.63523
15.7522 144.279 -8.4389
10.3604 145.53 -9.59609
6.0496 145.616 8.06271
-10.1044 149.34 5.00706
-0.494026 147.085 9.67726
3.48622 146.359 7.93485
17.3858 143.391 7.90263
4.98081 146.903 -7.392
-12.6815 150.662 -3.17078
1.00198 147.155 9.29208
22.0362 143.282 -3.83706
16.4889 144.726 -7.81972
14.5976 145.189 -8.74439
24.7522 142.556 0.290052
3.66992 146.787 8.66212
2.22371 147.132 9.64478
10.0834 146.408 -9.19301
-0.803582 148.691 -6.17911
1.74361 148.188 -7.08024
5.54703 147.406 -7.45318
5.68581 147.481 -7.48468
0.00764675 147.89 9.96429
19.1068 143.982 6.28491
2.57168 148.323 -7.0527
22.1428 143.918 -3.27518
8.88685 147.101 -8.7336
-4.35718 149.816 -5.09596
23.6694 143.608 -1.64262
-12.3631 151.355 0.20634
11.1442 146.765 -8.74657
2.43696 148.57 -6.99868
18.8683 144.397 5.97464
-11.4416 151.456 -3.6536
21.8775 143.868 4.49628
-11.9726 151.549 -1.7195
-1.82641 149.543 -5.44328
-11.4854 151.556 -3.47229
-12.0413 151.492 0.465466
0.457506 149.202 -6.0149
23.246 143.969 2.68342
-2.90034 150.037 -5.03741
-11.4464 151.79 0.600558
7.96953 147.332 6.73935
14.5377 145.959 6.23214
24.2388 144.161 -0.0111548
16.932 146.063 -5.77099
0.945541 149.547 -5.86137
-11.2242 152.04 -0.350518
16.4939 146.333 -6.40475
-11.2068 152.063 -0.455951
14.9914 146.926 -7.62882
19.6359 145.81 -5.12154
10.0106 147.352 6.2329
-8.85309 151.946 -3.7114
23.0158 144.756 2.43465
17.676 145.758 5.66817
12.5182 147.579 -8.3478
7.36422 148.012 6.61959
15.5114 146.333 6.03921
-5.76291 151.54 -4.40448
23.9531 144.958 0.24056
-4.22937 151.313 -4.07703
6.9525 149.049 -7.36144
4.44174 149.571 -6.70945
22.4818 145.443 -2.21771
-10.3896 152.513 -0.702798
23.8668 145.063 0.549105
2.694 149.983 -5.99152
15.3071 147.312 -7.16997
-4.66487 151.517 -3.99033
17.6983 146.729 -4.69414
16.6493 147.227 -5.6749
3.15929 150.173 -5.94877
9.24371 149.04 -7.56262
19.8387 146.186 4.83945
-5.59862 152.156 -3.74097
19.1773 146.883 -4.66663
6.21654 149.821 -6.96517
12.6782 147.823 5.68974
18.14 147.183 -4.60999
1.56842 150.804 -4.92397
-4.93785 152.148 -3.49055
5.94002 149.315 7.42706
19.7915 146.456 4.69068
20.0369 146.821 -3.67149
15.6346 148.079 -5.92211
6.2753 150.163 -6.69426
22.0507 146.581 -1.39206
-7.52251 153.036 -2.05484
-1.90123 151.905 -3.79669
-7.68428 153.068 -1.83873
6.45367 150.24 -6.64842
6.88411 149.591 6.1257
22.7012 146.416 0.977711
6.49783 149.679 6.31647
15.5467 148.303 -5.55193
11.2648 149.347 -7.84283
19.967 146.877 4.13697
9.59172 149.699 -7.34367
-0.550843 151.797 -3.99552
-2.87203 152.372 -3.39082
15.1147 148.083 5.26055
-3.67316 152.594 -3.14412
19.2082 147.404 4.03652
13.4596 148.656 5.23019
-8.02471 153.625 -0.633077
6.3367 150.185 6.56833
5.73102 150.956 -5.93512
-7.51118 153.615 -1.036
-8.36314 153.754 0.0100135
0.315904 152.138 -3.83397
7.94145 150.638 -6.67134
20.7736 147.612 -1.19753
-7.90395 153.848 -0.357244
10.1597 150.293 -7.19858
-8.1058 153.897 0.151723
12.8194 149.251 5.10745
4.61196 151.695 -5.06597
16.1748 149.154 -3.41881
10.769 150.503 -6.95079
20.2383 148.167 -0.636022
15.7464 149.014 4.45621
14.3482 149.314 4.60695
16.1558 149.439 -3.06698
7.81794 150.865 5.43883
18.6945 148.898 -1.14695
16.1449 149.235 3.70682
-6.78071 154.486 -0.0382733
15.5155 149.489 3.24284
18.2248 148.951 2.59107
17.1691 149.418 -2.02703
16.612 149.325 3.32522
12.9305 150.097 4.24944
-3.57646 154.035 -2.17962
-6.59832 154.602 -0.00310409
14.5685 150.288 -4.61674
16.4395 149.593 2.57329
18.5375 149.287 -0.106335
18.3874 149.311 0.626079
11.5025 151.135 -5.30605
8.59365 151.398 5.04487
18.0805 149.57 0.426053
17.4256 149.811 -1.23715
14.9307 150.48 -3.71008
7.54619 151.768 5.33553
10.8042 151.207 4.41271
11.3963 151.113 3.98924
10.1622 151.961 -4.99639
16.2551 150.593 -0.844115
13.8877 151.277 -2.76536
12.7445 151.573 -3.43157
14.8713 151.015 0.0877172
14.1687 151.255 -1.58033
1.28904 154.131 -2.03454
1.76525 154.184 -1.92387
10.6636 152.404 -3.26769
11.8882 152.257 -1.70038
11.4001 152.528 -2.00211
8.46865 153.041 4.59255
10.8652 152.856 -1.60431
9.41785 153.349 -2.13149
10.5825 153.267 -0.178499
9.36115 153.771 -0.841891
7.76257 154.165 -1.10494
8.27002 154.145 -0.956977
6.14394 154.857 -1.15756
