ply
format ascii 1.0
comment Created by Open3D
element vertex 1890
property double x
property double y
property double z
end_header
19.1329 83.3711 4.01557
-20.3107 100.484 -3.29252
-22.9799 121.694 1.16725
-18.5502 122.505 2.65949
19.3184 107.351 9.97573
-19.6507 107.667 -1.34473
0.131661 134.752 11.1368
4.95208 130.099 11.3883
-15.5783 121.28 3.18898
-20.2502 102.563 -2.80789
-20.7167 104.921 -2.36611
-11.8104 133.692 7.34877
-16.3187 126.214 4.18062
-20.823 121.771 1.76437
-20.5683 101.031 -3.29209
-20.3189 103.026 -2.7315
7.35358 126.625 11.1921
-25.0575 125.823 1.49596
-22.9787 120.899 0.869762
-20.2154 107.005 -1.77224
-20.118 110.105 -0.977858
-16.0969 126.589 4.27298
19.4848 83.1163 3.90472
-20.7847 112.222 -0.703349
-15.0878 142.389 8.41676
-9.49531 130.624 7.14169
-18.2099 141.669 7.31457
-20.3566 103.098 -2.85655
20.1664 101.152 8.50763
-6.35859 81.4915 -4.11523
11.0491 125.578 11.8725
19.682 90.0153 5.6034
-22.5532 122.378 1.24344
-10.6997 135.901 8.04827
18.5123 81.5566 3.13686
-19.4642 108.165 -1.40021
13.7403 82.7885 2.02001
20.2047 98.43 7.77441
9.87594 125.495 11.4338
-20.6515 106.577 -2.19633
18.9305 114.006 11.1953
4.9054 135.824 12.4839
-14.2362 142.654 8.56328
19.4751 91.5788 5.78561
-5.26901 81.1412 -4.03345
12.1058 125.727 12.0701
20.2585 86.7139 4.80586
16.3657 119.665 11.81
-14.7871 127.03 4.51973
18.2538 81.9322 3.02668
17.2269 83.315 3.01835
15.7358 82.7272 2.42973
-18.241 121.693 2.10765
19.4437 109.174 10.0235
-9.243 130.94 6.96289
17.3376 82.0884 2.64921
-11.0759 131.958 6.66314
-11.7853 133.291 6.76913
-14.1573 91.8011 -4.21223
1.31022 135.67 11.1499
-13.9936 128.718 4.94442
-20.8701 113.617 -0.807521
-24.8363 125.57 0.985213
2.54723 136.377 11.6552
-21.0497 138.804 5.3323
18.3275 116.922 11.4323
19.4401 105.718 8.9845
-22.2639 134.947 4.01211
-11.1416 132.395 6.63111
-15.0163 127.43 4.26196
19.831 85.603 4.09681
-10.764 135.299 7.42605
-8.07992 131.803 7.33247
-7.85691 84.0113 -4.4294
-21.9693 120.697 0.473288
18.7761 116.637 11.3401
19.4859 105.268 8.72497
-19.8058 121.562 1.21562
-17.7366 121.316 1.75465
-19.3269 123.18 1.74851
-22.5253 131.376 2.80837
-20.0678 118.646 0.377806
14.8506 81.9648 1.50379
-14.4588 127.453 4.15939
-18.5224 118.765 0.820368
-18.9903 121.061 1.23955
-20.6201 103.804 -3.51052
20.3764 100.299 7.6088
16.3574 81.1824 1.6715
18.4212 80.9329 2.20542
17.4839 81.623 2.0965
20.017 92.5205 5.52392
-22.2522 122.659 0.590193
9.17929 126.123 10.634
-20.8339 109.293 -2.30991
6.55204 131.486 11.1784
-20.6384 106.331 -2.99322
-11.5691 89.9749 -4.3893
-10.622 134.833 6.96206
-11.5184 133.574 6.38607
-18.87 121.11 1.1541
10.8171 126.41 11.1292
-22.7206 130.933 2.41208
-5.99805 132.863 7.77967
-20.6325 104.379 -3.54642
20.4799 86.6852 4.09713
-17.8828 121.944 1.58971
16.5377 124.166 12.1647
16.4498 82.3434 1.79702
16.491 124.57 12.2191
-13.647 143.889 8.13534
18.099 118.142 11.0528
-20.3053 102.29 -4.11686
5.30106 137.653 12.0857
-11.3135 138.664 7.43932
-22.2328 131.855 2.53889
19.7616 84.6203 3.1411
-4.93816 81.3972 -4.92635
17.705 82.693 1.99689
6.79589 132.747 11.1815
-21.1163 112.654 -1.95443
-23.0768 123.093 0.0295031
19.342 117.062 10.9103
8.34 127.572 10.2849
1.49186 137.189 10.6589
20.5996 92.1255 5.10419
-10.8843 134.236 6.30427
20.8431 99.2251 6.92157
-21.1268 113.136 -1.92074
-16.9187 121.47 1.36437
5.96819 135.861 11.6145
13.951 126.935 11.7388
0.61922 137 10.2757
-2.20392 134.266 8.77061
-16.5522 119.562 0.933965
21.0014 95.4577 5.95616
3.13403 137.483 11.105
-21.146 137.619 4.02181
21.3372 97.0212 6.37702
-23.6344 127.096 0.643873
18.2078 80.6314 1.35741
-11.9065 90.5876 -5.0257
-3.07957 134.119 8.30964
14.1349 80.1838 0.00122531
19.6832 89.8209 4.00462
14.3515 80.1234 0.0413169
14.5739 80.082 0.0904735
18.5627 118.331 10.7134
-19.8896 120.044 -0.122053
20.7456 93.7769 5.24516
13.9837 79.5679 -0.282369
15.8959 79.9695 0.369657
16.0011 79.417 0.250916
-19.0466 122.075 0.524281
-23.0957 128.22 0.852398
-21.1817 114.836 -1.93199
6.89138 134.273 11.0475
-22.6741 130.591 1.49039
14.4547 127.468 11.5432
15.9258 80.1819 0.272736
19.6183 109.959 8.70486
-16.9354 119.242 0.30704
17.6305 86.7951 2.36653
-12.248 144.416 7.85976
13.5934 82.6178 0.133149
15.8973 80.3284 0.220475
-10.0581 136.096 6.39362
19.3553 116.299 10.096
-17.9968 120.523 0.186466
-11.2686 142.29 7.523
-18.5688 97.301 -5.75023
-10.9057 140.212 7.08151
21.392 91.6836 4.52699
-11.8166 90.7743 -5.45188
-22.0799 131.93 1.71382
-8.33758 133.059 5.99755
-23.0875 127.76 0.341375
-20.5627 116.696 -1.65882
15.3829 83.0234 0.526862
17.5183 81.4609 0.758236
15.7575 80.8457 0.047597
2.86564 138.52 10.5118
-22.5025 130.795 1.1762
5.13668 139.692 11.4532
19.7675 82.3705 1.54309
19.1756 81.8293 1.23219
17.5387 87.7893 2.19674
18.8268 82.264 1.19754
-18.1604 117.666 -0.882327
-18.9168 122.386 0.0506357
-9.83698 137.562 6.43951
-21.2079 112.232 -3.15452
-0.564589 136.12 8.77922
-20.4332 139.841 3.87958
-17.2874 122.946 0.609502
-11.0714 142.475 7.2471
17.1787 125.815 11.3807
-18.63 121.649 -0.122057
-19.6343 103.755 -4.84038
16.8129 82.3041 0.507536
-22.5834 129.755 0.716624
13.7036 83.5235 -0.121052
17.4798 122.382 10.5706
-17.8829 120.912 -0.140174
-18.5139 121.134 -0.278534
-16.5437 119.804 -0.0372167
3.63284 138.861 10.5739
18.942 119.213 10.1841
19.7933 85.412 2.06973
0.812747 139.073 9.76903
-19.2618 119.327 -1.00414
-21.1013 137.908 3.04628
-18.3634 120.669 -0.431036
-14.3635 145.478 6.85938
18.3363 88.8787 2.41467
19.3968 84.9448 1.74387
19.7168 118.226 10.0591
-17.6522 122.028 0.0575387
-9.50138 89.7487 -5.5625
-14.7168 145.394 6.65704
19.0991 115.928 9.25932
19.8067 108.802 7.69948
-7.97118 134.885 6.02014
2.76122 139.209 10.222
15.8216 81.506 -0.245106
-3.55428 80.947 -6.07571
-18.2619 121.008 -0.490981
-19.1147 119.138 -1.20765
-16.4246 120.413 -0.113194
21.2959 97.5957 5.25242
-4.84261 81.8762 -6.31084
18.99 116.07 9.09596
20.9832 100.092 5.72263
7.25052 135.306 10.41
16.4319 84.3396 0.488635
-8.96024 137.577 6.22317
-23.5113 125.477 -1.02931
14.7049 84.0284 -0.125504
-17.2619 121.479 -0.225097
19.3198 114.984 8.85384
-7.09594 133.044 5.57024
18.9606 117.056 9.21732
-7.02438 134.355 5.88311
8.00605 130.946 9.42434
7.6269 133.732 9.99788
-7.52121 135.468 5.98475
17.886 124.067 10.5957
21.6231 95.4207 4.58678
20.9239 100.336 5.58691
14.8597 85.7248 0.18691
-21.4333 122.554 -1.34693
-18.3847 120.867 -0.887582
-18.1371 99.4722 -6.10773
-20.692 116.228 -2.71582
19.9347 108.675 7.28899
20.7021 100.758 5.5432
-16.4089 121.183 -0.320748
-11.9406 91.6087 -6.33135
-7.05541 133.609 5.45759
11.2889 128.616 9.5829
-6.49735 135.076 5.97671
18.7477 116.383 8.73331
-19.3248 122.179 -0.97609
8.04328 131.699 9.34171
-19.0682 117.207 -2.18059
-18.7527 104.898 -5.15555
-13.9161 146 6.41984
-17.2823 120.767 -0.818071
13.9609 83.0891 -1.0034
-19.0745 121.086 -1.32162
3.63639 140.28 10.0626
-16.8657 120.991 -0.712547
7.81515 134.124 9.72756
11.5886 128.799 9.50293
-17.8298 100.395 -6.14044
-18.8834 119.788 -1.67502
-5.94436 134.986 5.86259
20.0339 101.953 5.27111
16.1791 87.5667 0.586836
-5.83849 134.555 5.75063
14.2448 129.249 10.3062
1.25093 140.913 9.35249
-16.9064 119.405 -1.28285
-9.45396 139.529 5.85818
-17.7537 97.2048 -7.04098
-12.157 145.558 6.54761
-17.6901 122.282 -0.831963
3.05705 140.43 9.72208
18.1857 123.017 9.83309
0.364378 140.406 8.91088
-9.16483 139.302 5.84893
-18.5462 122.581 -1.03352
-14.8617 94.171 -6.98027
-19.5282 142.314 3.55292
-2.60234 80.5578 -6.76759
1.78722 140.861 9.42206
-5.66312 135.288 5.86188
19.7595 102.976 5.27416
-20.8273 139.119 2.30552
-17.5741 122.642 -0.821113
-3.85645 81.5104 -7.00011
-5.00629 134.36 5.73004
-4.53779 81.9184 -7.10765
8.28208 131.93 8.9865
8.00089 134.13 9.44439
20.5993 94.3976 3.29407
16.6989 128.968 10.7
-18.7497 122.95 -1.15688
19.6736 93.1544 2.68018
0.13635 139.72 8.46808
14.0884 84.0411 -1.23497
-17.5933 97.1838 -7.29294
19.6699 110.762 6.95707
20.3123 106.847 6.1746
20.3531 106.986 6.20867
20.0852 109.877 6.83524
-15.7789 121.557 -0.766554
21.1854 97.6762 4.12887
2.4384 141.365 9.43931
-16.6857 121.763 -1.0012
-17.8117 120.087 -1.78343
-20.9043 116.326 -3.6397
-0.957264 136.862 7.22464
-17.1943 120.043 -1.76578
-20.5213 138.245 1.76146
-19.1107 143.138 3.38221
9.67558 130.313 8.6132
-8.35198 139.178 5.52971
-16.5176 122.034 -1.10997
-18.5149 120.842 -1.99335
-16.7306 122.097 -1.17053
19.19 91.6527 1.79827
-1.56393 136.258 6.729
-17.1466 98.6652 -7.12399
-11.4123 145.53 6.13829
18.8063 115.924 7.65091
12.1654 77.6239 -3.79225
2.36897 142.663 9.41119
-18.8867 109.1 -5.10406
-18.4535 121.086 -2.0348
-18.1359 122.491 -1.59631
-17.1782 100.357 -6.81094
-14.269 93.2747 -7.71315
7.20647 138.567 9.74457
-12.9087 92.8736 -7.44716
8.50844 132.688 8.65549
-17.214 122.563 -1.37114
-19.7208 114.283 -4.17114
-19.8601 123.371 -1.9728
19.4326 114.823 7.40151
-3.22904 81.335 -7.54994
12.397 78.4183 -3.71538
2.80475 142.548 9.33353
-15.6072 145.993 4.77452
-9.3164 89.8654 -7.2694
-18.8366 118.579 -2.97126
-1.57582 136.451 6.44829
21.0789 98.238 3.61233
0.967934 142.856 8.74468
20.9274 95.3425 2.79917
-21.6448 132.183 -0.547909
-17.9455 145.098 3.71148
2.64656 143.163 9.24965
2.72203 143.075 9.24965
-20.2839 116.981 -3.93187
-17.2263 121.362 -1.99372
-16.8163 100.398 -7.07146
-4.4867 81.9325 -8.0437
7.24917 138.859 9.45774
-20.217 116.565 -4.11973
-6.8953 85.3284 -7.95067
-10.6342 145.715 5.82773
-16.717 130.917 0.385627
-17.138 127.275 -0.642243
14.7845 86.2542 -1.47728
-3.6391 81.7556 -7.97786
-19.1317 117.943 -3.56977
12.6038 80.0056 -3.67
-21.7427 129.173 -1.60216
-17.1143 122.819 -1.81959
14.1635 130.283 9.17297
-19.3867 117.727 -3.74906
-7.3968 87.7536 -7.66995
-15.7362 122.432 -1.54776
16.8507 89.4501 -0.199453
-16.912 126.802 -0.842811
19.5952 104.567 4.33317
18.7953 91.3247 0.803932
-16.9737 131.106 0.170821
-17.4906 104.221 -6.6436
16.7867 130.364 9.83503
-2.19939 136.392 5.77238
-9.64673 145.207 5.72974
-19.549 140.479 1.65282
19.003 91.6953 0.864255
-15.9427 146.103 4.07187
-19.9949 124.208 -2.56649
-0.424104 139.783 6.99732
-16.4482 121.484 -2.2185
-18.2752 105.997 -6.58956
-2.43417 136.384 5.554
-20.1056 137.033 0.536437
-19.6392 125.649 -2.15124
-21.2501 123.55 -3.1458
19.3808 123.657 8.75292
-3.45517 138.647 5.77866
-17.2219 127.229 -1.07669
-16.3877 121.167 -2.33584
20.9997 96.8988 2.59706
19.6472 114.202 6.44658
19.7973 111.348 5.77224
-17.6882 125.609 -1.66784
1.23768 143.512 8.28395
-16.2344 120.907 -2.41794
19.9106 102.322 3.54724
5.49618 144.239 9.68604
21.0115 98.1293 2.81907
-2.77579 137.242 5.51688
-19.3211 126.965 -1.88678
-21.2719 130.778 -1.51979
14.8488 85.647 -2.1354
-17.9486 105.527 -6.81296
-18.01 124.128 -2.24371
-19.11 123.613 -2.70644
19.8237 94.1585 1.38509
12.4554 79.4954 -4.41534
-7.6538 88.2606 -8.13181
20.4649 95.1975 1.79978
-19.9517 123.661 -2.98532
-22.1337 126.882 -2.83144
-10.3436 146.88 5.54925
-18.8683 114.077 -5.05816
-16.8758 102.808 -7.28384
-17.0508 128.063 -1.09437
9.65872 132.966 7.91991
-17.6974 123.196 -2.49911
5.4544 144.531 9.52846
19.1249 92.3797 0.624982
-18.7997 123.478 -2.77943
-18.6441 123.684 -2.70831
-17.4369 125.188 -2.00904
-21.6478 126.414 -2.94365
-16.9824 122.466 -2.55939
-18.4391 123.063 -2.84236
-16.6712 102.067 -7.51856
-18.4194 123.233 -2.79943
-16.9947 121.537 -2.81236
19.7773 109.437 4.92919
20.815 96.3852 1.99739
12.1932 131.267 8.07312
20.065 111.003 5.35968
-18.7325 115.993 -4.75686
20.9519 97.6555 2.31438
-14.0157 147.504 4.41016
17.4171 129.181 9.07208
-18.1454 107.577 -6.67705
14.8716 85.9352 -2.37752
-16.7315 122.55 -2.57346
-2.97332 81.6324 -8.66915
-3.34118 139.173 5.44029
-17.622 125.063 -2.23212
-17.5624 125.409 -2.1297
-16.4554 130.764 -0.501877
15.0832 87.4788 -1.98829
-16.8743 130.815 -0.659113
-15.4571 146.628 3.6646
-16.2939 122.887 -2.46141
-19.1124 113.011 -5.72904
16.5183 131.133 9.16925
20.6727 100.306 2.75537
-10.2286 147.266 5.32507
18.9579 120.348 7.1993
-9.18565 89.9049 -8.56972
-3.6942 140.342 5.50015
-21.057 130.382 -2.04334
-16.3606 132.177 -0.226245
-15.9522 98.1106 -8.53916
-17.2481 132.079 -0.527292
12.5078 80.0285 -4.69841
-1.11778 138.946 5.88214
-8.71793 89.4563 -8.57721
19.5383 106.017 3.76102
-16.5396 121.406 -3.00856
-7.99055 144.327 5.14921
-11.6132 91.6013 -8.94792
-19.1028 125.567 -2.74686
20.0448 94.6871 1.05397
20.5373 96.8517 1.71535
19.6326 104.473 3.33201
19.9476 112.888 5.50392
16.0651 88.9064 -1.56253
-4.53396 81.9758 -9.31317
8.06221 138.191 8.23732
20.5825 100.665 2.62065
-14.7682 94.9133 -9.14123
-17.9215 110.317 -6.25755
18.6914 114.786 5.54633
-14.9769 95.19 -9.16785
-17.3934 120.158 -3.7035
9.99728 133.542 7.60871
18.7158 114.762 5.50252
20.3006 96.6733 1.49331
18.5495 118.84 6.45484
-6.52681 85.8609 -9.04338
-17.5069 123.432 -2.96899
-17.976 110.616 -6.28344
-15.9136 122.931 -2.6438
10.4213 133.085 7.55508
-4.15438 140.907 5.20767
20.4934 97.4172 1.65518
-17.8933 109.948 -6.47404
-18.7515 123.993 -3.25486
-18.512 141.905 1.24243
19.576 104.79 3.19453
-14.8861 147.12 3.57027
-21.0975 131.765 -2.05002
-19.6459 136.717 -0.408207
-17.9672 107.642 -7.10863
-17.1987 128.073 -1.83801
-17.3996 145.099 2.30298
-16.3344 132.495 -0.519132
-15.4794 122.607 -2.7287
-17.0995 145.992 2.51999
19.309 93.9616 0.279592
2.7462 144.15 7.81784
10.0904 77.0324 -6.63121
19.6634 96.0058 0.829229
-16.7099 103.998 -7.84242
-19.1668 131.079 -1.87279
-16.669 127.82 -1.9498
-15.3741 123.695 -2.59581
18.3042 126.404 7.91905
18.1814 91.6962 -0.708173
18.4468 92.5327 -0.43593
-2.04653 138.759 4.93912
-15.2057 123.715 -2.63509
-18.9467 130.997 -1.93217
-17.5479 114.849 -5.51632
14.8277 131.76 8.12371
-15.0904 123.31 -2.71986
12.4413 132.344 7.53979
-17.4306 114.239 -5.67496
-9.27434 90.1462 -9.25377
-19.3513 132.457 -1.74391
-17.8641 110.849 -6.67023
-6.7923 87.2389 -9.3007
-10.8205 90.8872 -9.58082
-16.8471 128.05 -2.16029
-14.5914 147.493 3.30546
-1.44478 140.1 5.31446
19.8464 112.605 4.73577
16.4931 89.5886 -1.93768
-18.3972 139.535 0.204502
-16.905 136.265 -0.174815
-15.7453 129.518 -1.50518
-17.9401 142.939 1.14488
-13.8319 148.012 3.60043
-8.13384 88.8814 -9.3533
-16.039 122.78 -3.28618
-17.333 108.064 -7.35747
15.6102 88.3552 -2.60178
-20.639 128.521 -3.27359
-17.4288 113.956 -5.95501
-5.5989 82.7125 -10.2407
-10.3689 90.6125 -9.68735
12.7341 132.559 7.43623
-15.1538 126.359 -2.25503
18.9697 94.6916 -0.115236
20.5477 99.3185 1.48169
-17.0407 134.398 -0.861815
-9.12279 89.7527 -9.59482
-10.6738 148.529 4.47173
-17.9399 139.506 0.10652
18.2765 92.9522 -0.813643
-17.3563 141.383 0.715349
-18.2776 138.144 -0.357954
18.2096 120.863 6.01909
-15.1559 100.957 -8.66999
-18.5003 118.664 -5.27272
5.49739 146.459 8.60217
8.46632 138.357 7.43375
18.2111 119.849 5.70441
19.3542 111.393 3.94577
-19.9527 128.121 -3.4158
18.2166 119.599 5.63875
20.4535 99.2246 1.23838
-12.7999 93.2926 -9.96271
-15.7711 131.604 -1.36765
18.4238 122.134 6.26907
-13.6145 148.227 3.34958
-16.1381 121.317 -4.04738
-16.998 120.399 -4.57993
-16.7831 106.914 -7.86467
4.65146 146.355 8.11712
-16.0847 124.134 -3.45194
16.0226 133.433 8.23669
15.4169 134.347 8.24408
-18.3167 119.51 -5.3316
-18.2488 119.928 -5.23346
-0.894322 143.77 5.71897
-13.2954 94.5354 -10.1
17.4747 115.447 4.04929
-18.7354 133.895 -1.98097
1.23339 143.099 6.13131
-4.26532 142.508 4.37688
-2.08394 81.4853 -10.0964
-16.2297 140.506 0.353284
-16.8627 116.413 -5.78874
-8.1738 147.309 4.3877
-14.9383 129.201 -2.07232
14.5388 135.321 8.04552
-14.8192 100.63 -9.11932
-17.3984 129.338 -2.77668
-6.37324 145.66 4.46722
13.0986 133.746 7.19841
-11.9892 148.92 3.60001
-16.0207 141.395 0.523603
-3.44535 141.665 4.25293
-16.5966 106.162 -8.40169
-17.4953 137.887 -0.875604
19.5786 103.305 1.41259
19.2688 114.159 3.99985
-17.6406 118.788 -5.65487
17.0615 93.339 -1.81792
17.8343 118.226 4.55572
2.61552 144.242 6.5174
-15.0282 125.993 -3.16577
-5.91946 84.0319 -10.8911
-9.56002 89.3952 -10.6671
-15.8483 145.968 1.47347
10.2156 136.098 6.65092
19.1899 112.591 3.4598
15.2915 89.0588 -3.5101
-16.8888 114.107 -6.73979
-15.4116 134.564 -1.25401
18.3414 114.723 3.70053
18.5649 107.639 1.98931
-10.029 89.6715 -10.8184
19.051 112.391 3.29563
-2.26332 140.869 4.08073
-17.4424 119.258 -5.72399
9.01967 139.759 7.06967
17.6135 94.9385 -1.50083
16.069 91.8978 -2.71
12.7353 135.679 7.13788
14.0164 87.1974 -4.49126
-15.4418 147.338 1.75745
10.9296 80.2756 -7.11947
-13.7857 126.867 -2.85119
-1.7479 142.015 4.40328
17.7356 119.366 4.49159
19.4428 101.29 0.511754
17.38 117.628 3.93401
1.1092 143.184 5.48958
-15.6695 116.703 -5.9969
-4.60875 82.1529 -11.332
-15.1911 139.09 -0.362924
12.1719 134.906 6.59763
-17.3624 120.49 -5.62266
-13.1973 96.4699 -10.344
9.00247 140.821 7.0879
19.1855 103.513 0.826147
15.4184 135.319 7.58039
17.6811 119.276 4.27363
10.2907 136.772 6.43759
-16.0758 106.193 -8.85267
-17.6529 112.541 -7.74696
17.3614 132.492 7.42485
-17.1888 120.152 -5.73205
-2.58252 81.8999 -10.9306
9.4423 139.451 6.80161
-16.1456 109.182 -8.18634
-13.194 96.9068 -10.3642
-14.0825 132.994 -1.72346
-15.1389 144.867 0.843392
-0.158791 143.044 4.77283
-15.9566 106.19 -8.96627
-14.9216 102.553 -9.56442
-14.2128 100.216 -9.94602
-13.587 127.796 -2.94838
17.1282 95.8275 -1.87706
-10.042 90.0558 -11.2539
-15.6312 118.099 -5.98008
19.3233 124.456 5.80544
-14.097 126.62 -3.44728
-14.0748 126.664 -3.43316
9.64195 139.507 6.67359
-14.9715 144.344 0.667388
9.01461 141.71 7.01021
15.9931 94.2489 -2.68829
-16.6823 120.046 -5.88795
15.0069 90.9971 -3.81989
-15.8607 121.893 -5.21922
18.5684 106.505 1.02599
-12.8968 127.437 -3.01684
-7.68282 87.5019 -11.373
18.7226 129.772 6.78343
18.9166 112.368 2.53592
-9.67922 149.658 3.37689
-13.1551 97.6507 -10.5154
3.86601 145.304 6.22108
14.1901 89.945 -4.46274
-14.4745 131.444 -2.59257
12.7393 84.7672 -6.20612
14.3243 90.3898 -4.35739
-14.5799 130.729 -2.85512
18.3876 106.451 0.760319
-13.6398 127.932 -3.32437
13.7431 137.058 6.92429
6.48903 147.325 7.33589
-15.2737 107.702 -8.82622
-4.00162 82.1144 -11.8958
19.4651 99.6677 -0.698386
-14.8003 141.87 -0.33372
13.7493 137.308 6.86686
10.0522 139.759 6.37062
-12.4146 127.509 -3.23224
-10.4002 93.3637 -11.129
6.45963 77.1469 -10.2246
16.2896 134.739 6.88208
8.74358 78.9791 -9.12023
18.3286 102.294 -0.575469
-15.8073 115.259 -7.36206
19.3289 99.7648 -0.920595
18.9957 113.695 2.4227
19.512 123.434 4.97641
6.62434 147.531 7.14677
18.5563 128.706 5.96173
19.0641 113.129 2.24427
10.8388 81.4006 -8.05444
-15.0618 137.119 -1.85978
10.5823 138.883 6.06328
-2.75641 142.445 2.99936
-14.1578 134.426 -2.32766
-15.0289 143.888 -0.244608
-13.652 99.0021 -10.9541
-15.217 121.982 -5.73131
-14.6287 140.649 -0.94931
-14.65 141.736 -0.696658
17.6063 108.665 0.549396
-10.0582 91.8356 -11.7246
14.2451 137.074 6.55972
9.04667 142.789 6.45107
-12.5645 128.282 -3.47613
-13.0822 128.817 -3.50295
-14.859 144.439 -0.161233
18.9223 100.428 -1.1714
-15.8245 136.905 -2.31753
13.622 88.9085 -5.60139
18.0586 102.865 -0.866617
-13.0369 129.705 -3.32717
8.76486 143.393 6.42502
-14.8345 105.904 -9.74627
-11.3633 96.9676 -10.9547
-13.8085 101.386 -10.6259
-5.26473 83.4489 -12.5681
11.1121 138.21 5.72526
-14.5182 104.707 -10.0607
8.62447 79.7061 -9.47382
18.5564 131.172 6.14438
-14.7737 107.24 -9.52272
-13.398 123.133 -5.19731
11.7509 83.3719 -7.67904
-12.3517 129.266 -3.38976
13.2775 88.2588 -6.03941
8.78045 79.939 -9.4177
-5.44266 83.8814 -12.6178
-3.0447 82.0166 -12.384
16.9583 115.544 1.73691
11.1501 82.656 -8.0972
19.5589 123.465 4.44524
18.3485 110.613 0.897869
-14.6411 106.521 -9.77332
-13.3481 99.0665 -11.2515
19.8907 124.367 4.71549
17.1171 120.136 2.85503
16.3929 96.5519 -3.19273
15.3885 95.4461 -3.77295
17.4873 115.196 1.70128
-10.339 95.9754 -11.2356
-5.74379 86.0912 -12.3493
18.6799 99.6003 -1.87866
14.9631 92.7149 -4.67573
-14.0075 103.346 -10.5267
10.6957 82.6337 -8.48713
17.307 108.413 -0.190314
-13.2154 123.498 -5.39468
-10.1668 95.4872 -11.4348
6.94159 78.7762 -10.5714
-9.97263 94.6141 -11.6048
17.9077 132.343 5.8384
-15.8156 114.095 -8.54684
-13.5935 101.78 -10.9604
17.6733 102.525 -1.63407
16.9239 118.733 2.15305
18.3578 114.318 1.47279
13.1185 88.1399 -6.53503
-15.1132 112.328 -8.82374
14.8459 92.2723 -5.02373
-14.1528 117.57 -7.2742
-7.75408 150.211 2.65638
9.85328 81.9531 -9.07784
-3.35088 82.0661 -12.9168
5.35196 77.1241 -11.6024
17.8523 104.984 -1.07107
19.5603 123.501 4.00257
-3.59265 82.1057 -13.0046
6.27796 149.797 6.60886
-13.9205 105.959 -10.1565
-11.4471 128.056 -3.98741
-13.4647 101.67 -11.1109
-14.1216 145.333 -0.528259
-14.7712 112.36 -8.93924
16.7443 118.082 1.6715
-9.24927 90.8469 -12.6663
-1.83329 78.4399 -13.5722
-9.70296 151.134 2.0485
16.6961 118.022 1.58149
8.91685 81.5013 -9.73926
-13.624 106.339 -10.2353
-13.2373 149.215 0.475295
-14.7099 112.987 -8.92147
7.13323 79.9003 -10.7208
16.0834 136.572 5.83749
19.0403 130.984 5.28873
16.0211 116.176 0.734306
-14.964 137.633 -3.02717
-12.5764 132.787 -3.5317
15.1048 94.1853 -5.00116
-8.56669 90.2997 -12.8901
18.0906 132.553 5.35022
4.33412 77.0155 -12.4055
7.31912 148.636 6.15535
16.551 115.75 0.698025
8.4987 145.764 5.75713
-13.0179 149.48 0.361753
-13.15 105.067 -10.6801
-12.9087 101.228 -11.6073
-13.1724 106.366 -10.4264
9.59148 143.448 5.39768
-7.61518 89.3418 -13.0186
14.8169 94.9701 -5.07459
17.6061 110.022 -0.537641
16.2303 136.678 5.63637
3.84263 77.0163 -12.758
-14.9787 138.965 -2.95115
11.4091 140.874 5.20979
7.81562 148.067 5.91946
14.2895 90.5506 -6.41251
11.1049 141.025 5.12635
-12.4179 124.958 -5.74008
12.138 141.005 5.40305
18.2714 132.582 5.11317
-9.95959 97.3748 -11.8655
14.6901 95.6149 -5.14076
-13.1307 134.715 -3.62387
-12.8417 104.967 -10.8964
-12.7136 102.897 -11.3857
-14.8985 142.504 -2.23273
-14.8497 140.912 -2.62813
-11.5147 128.611 -4.70283
5.41989 78.9436 -12.0346
-13.8683 113.205 -9.20679
16.9563 109.048 -1.22645
17.3706 101.897 -2.87622
-13.4877 111.075 -9.6425
-13.7515 145.268 -1.30124
-11.6918 124.689 -5.80036
-11.0124 124.68 -5.63473
-1.85651 81.8096 -13.5775
-14.4511 141.007 -2.68001
-13.3927 148.901 -0.43563
16.6285 107.739 -1.83536
-10.4329 124.546 -5.6008
-12.4921 104.735 -11.1105
8.97751 145.754 5.30324
-3.79142 82.3809 -14.1302
-12.283 128.729 -5.19559
-12.0817 100.534 -12.1222
-12.4442 131.128 -4.66553
8.0391 148.515 5.60794
13.7826 90.259 -7.1248
17.1184 119.944 1.13741
16.682 108.423 -1.87999
-13.8514 140.593 -2.86432
19.4649 126.686 3.43216
-9.80519 127.774 -4.87456
18.2112 121.107 1.66438
-7.42214 89.4727 -13.7173
-7.94207 91.4704 -13.3759
15.8921 97.6397 -4.89719
-9.27908 126.959 -5.02911
-3.78222 83.6663 -14.1263
-11.0641 151.227 0.423332
-7.91156 90.7316 -13.6568
-11.7724 100.876 -12.3214
-0.50389 79.4452 -14.3496
-8.23556 93.7385 -13.0828
-10.9449 123.734 -6.46697
-12.5855 108.541 -10.7266
-11.4707 129.128 -5.33275
8.36932 148.74 5.31532
14.3845 93.4375 -6.60039
-0.766699 79.7032 -14.4511
-1.10612 78.3708 -14.8859
-9.26181 127.638 -5.12939
-8.97385 126.467 -5.35671
-11.8109 106.778 -11.0999
-3.29793 82.9005 -14.5398
-9.2892 124.479 -6.07213
16.9273 101.938 -4.02483
-11.23 100.78 -12.5641
-1.41095 80.0431 -14.8196
12.2014 88.7383 -8.69852
10.0206 85.5567 -10.1357
-13.3264 114.554 -9.82293
-12.185 109.002 -10.8897
-8.36339 152.354 0.922689
-8.88132 97.8198 -12.7229
15.0021 117.427 -0.904735
-10.7893 122.964 -7.0789
17.56 120.678 0.645709
-11.2472 150.853 -0.342115
9.27295 84.622 -10.7326
20.0746 127.533 3.00792
-7.79084 94.0895 -13.4273
-9.88572 122.845 -6.95544
15.7101 118.103 -0.668977
16.058 116.019 -1.08684
18.4108 121.209 0.858773
16.5166 136.9 4.15888
-13.2884 115.773 -9.84578
18.7363 133.385 3.83949
-12.0884 131.522 -5.6359
11.5489 144.088 4.38357
-11.4852 121.975 -7.84167
-2.5349 82.1097 -15.0977
4.32882 80.4197 -13.5191
-8.27594 125.693 -6.02128
-13.1273 116.402 -9.77642
-11.8059 130.283 -5.9585
16.1314 140.053 4.62499
-11.149 122.144 -7.82404
-6.82552 89.7884 -14.563
-0.965305 81.1815 -14.9813
10.9014 146.693 4.65247
-13.1056 143.038 -3.27856
-3.37365 85.2772 -14.722
12.0196 144.342 4.36699
13.8237 142.175 4.35474
-2.6787 83.8486 -14.9342
-8.44393 97.8652 -13.1579
-0.58524 81.0459 -15.022
1.97163 78.5204 -14.9503
-11.9521 134.492 -5.19533
-9.72815 122.108 -7.64191
7.7487 84.1175 -11.9985
-9.87305 100.653 -13.0816
-10.5199 103.072 -12.6767
9.28643 86.3178 -11.0349
10.8807 147.795 4.63007
-8.60507 123.359 -7.11983
-10.5175 103.937 -12.5198
15.3837 141.525 4.32083
-11.9067 119.818 -9.05763
18.509 131.368 2.68841
13.5789 97.576 -7.12186
-11.8496 139.779 -4.17598
3.56702 80.6147 -14.3062
11.9235 90.8982 -9.33007
6.9422 83.6921 -12.5981
-6.21036 92.9146 -14.1665
-6.49569 90.6234 -14.8226
-9.89343 101.841 -13.045
20.9569 128.519 2.53013
-4.42235 87.3492 -15.0836
13.1968 145.022 4.32198
18.5412 130.267 2.21165
20.5216 128.86 2.43815
16.1715 115.616 -2.16578
16.4849 140.687 4.11571
7.18243 84.7031 -12.461
16.8186 139.781 3.93158
16.0162 106.997 -4.43661
-11.4128 119.644 -9.33271
16.852 110.514 -3.37883
14.072 144.909 4.30773
-11.389 134.031 -5.84608
-8.35395 129.677 -6.03983
13.139 94.385 -8.48678
-8.99383 101.149 -13.3098
-10.9927 120.13 -9.27637
-8.81664 101.049 -13.3588
-7.97791 153.449 -0.175745
14.8078 144.674 4.28668
-2.88215 86.4929 -15.2755
-8.31042 122.132 -8.08049
-10.7391 138.821 -4.6671
-10.5691 120.661 -9.11015
1.74511 80.7061 -15.3957
3.3453 81.5534 -14.7195
3.29029 81.4818 -14.7537
-9.63084 106.189 -12.4256
9.93327 151.152 4.41152
19.801 122.546 0.222278
-6.02189 91.6667 -14.9678
16.3999 141.634 3.94189
18.89 138.89 3.99041
-7.10306 124.88 -7.07602
-7.69262 98.3645 -13.8371
16.5366 145.473 4.82692
16.7886 119.276 -1.59326
8.30585 86.8636 -12.0961
13.3835 148.358 4.58488
-1.64003 84.5837 -15.5858
-10.2681 112.556 -11.2288
18.6305 142.199 4.54823
16.6014 145.699 4.79933
6.50885 85.563 -13.0221
16.5172 145.862 4.81038
16.8399 140.983 3.69486
19.0323 141.213 4.37302
-8.21529 129.919 -6.4027
15.3533 118.368 -2.37592
15.1883 147.247 4.71554
3.91239 82.5879 -14.5776
6.08019 85.3342 -13.3426
-10.3527 142.724 -3.96603
17.5224 142.246 4.06272
-9.04159 120.771 -9.02016
18.0046 113.312 -2.98884
16.9529 111.089 -3.86345
-7.60716 129.16 -6.59178
16.8204 110.88 -3.975
-9.49386 107.951 -12.4049
-10.1256 111.775 -11.6466
-7.17577 123.94 -7.82225
17.7202 112.756 -3.32304
13.2242 149.228 4.37768
17.7748 127.748 0.379367
-7.17574 123.831 -7.89839
-5.31706 92.0247 -15.2214
9.09018 88.5607 -11.8705
-9.92689 120.329 -9.57857
19.2529 138.103 3.30971
4.6705 83.788 -14.4252
5.64247 85.629 -13.6961
13.3521 149.254 4.27208
12.0005 93.9719 -9.80938
-11.2642 146.204 -3.72454
4.69155 84.2485 -14.4826
17.9559 127.541 0.0752962
20.2569 124.545 -0.000361654
15.9904 147.733 4.43262
20.1964 136.06 2.77143
6.08003 86.3775 -13.6524
1.40067 86.4902 -14.996
13.1093 149.618 3.99534
20.0446 130.866 1.35088
20.6896 125.274 0.0897938
16.5436 115.165 -3.63889
15.2053 104.296 -6.72673
-3.97819 91.0749 -15.6448
-6.07591 98.2391 -14.4931
-9.84694 115.041 -11.4802
17.4955 146.707 4.32482
11.6637 94.5319 -10.2844
15.9102 109.504 -5.34297
20.0363 141.129 3.67459
-9.61905 137.706 -5.87819
-5.58637 95.9126 -15.0361
-8.49963 142.605 -4.35998
-1.24195 86.8042 -16.089
21.6052 128.961 1.00318
-10.2969 148.912 -3.40608
12.2814 96.0425 -9.8878
-10.5991 147.189 -3.94269
10.9494 93.627 -10.8847
0.556367 87.9904 -15.3495
18.5094 145.879 4.18089
-10.0334 115.922 -11.5905
20.1216 127.492 0.0471486
21.8648 135.864 2.61499
21.8795 136.589 2.77412
15.9672 107.511 -6.17015
-6.64381 122.215 -9.21428
-7.62266 152.058 -2.12978
18.9592 123.77 -1.37599
-7.36004 152.206 -2.04642
9.3316 90.9028 -12.3246
-8.14055 143.149 -4.53984
15.0049 102.776 -7.75993
18.2524 127.469 -0.730586
6.02043 87.6898 -14.1478
-9.03429 119.131 -10.7791
9.47341 91.288 -12.283
19.1379 128.444 -0.274147
-8.65863 119.284 -10.6745
2.17265 87.6627 -15.3413
18.0692 127.976 -0.728516
21.2473 130.732 0.851212
-1.12643 92.5546 -15.1528
0.15729 89.2629 -15.6182
19.241 125.268 -1.14364
-9.32743 149.364 -3.54515
12.1622 97.6297 -10.0765
11.3671 95.305 -10.9108
17.0546 148.294 3.82198
14.5158 102.301 -8.29912
-8.63719 150.287 -3.22609
-5.05974 124.204 -8.6322
-8.36021 114.693 -11.9599
22.5938 135.485 2.19712
21.961 129.663 0.559332
19.6064 145.709 3.83761
-0.519585 92.3003 -15.2887
20.065 126.42 -0.840092
-8.36429 110.794 -13.0318
19.9118 128.72 -0.337921
21.7325 126.046 -0.483464
22.7514 135.235 2.06842
-6.71519 152.256 -2.35022
19.8392 126.707 -0.921064
17.7513 129.672 -0.834506
18.0782 147.295 3.61357
15.9236 110.447 -6.12876
21.0117 141.772 3.06895
11.1668 95.7252 -11.2074
0.774665 90.1038 -15.6465
22.9248 135.252 1.99351
-4.75884 154.404 -1.36967
-5.14601 124.838 -8.80795
-7.17208 151.786 -2.76081
-6.80147 104.608 -14.3277
11.7351 97.1395 -10.7691
0.559068 90.4053 -15.7212
17.8124 122.661 -2.7101
16.5497 112.67 -5.57063
14.8652 103.841 -8.25149
-9.58391 135.886 -7.50373
21.9447 124.587 -1.10534
0.41253 94.2771 -14.9066
-8.49527 117.939 -11.6642
-6.15477 102.294 -14.8538
3.06553 89.4516 -15.3529
19.2343 146.427 3.45782
-7.53961 108.084 -13.8534
24.4503 129.079 0.682366
12.7893 151.03 2.68577
-5.09076 144.682 -4.13763
-5.99687 101.623 -15.0736
22.2513 137.082 1.88253
11.3063 96.8326 -11.288
22.1309 132.533 0.6788
-4.61879 99.3329 -15.3618
-4.73945 153.692 -1.98595
24.16 130.491 0.705369
-7.41295 150.44 -3.60309
23.7173 130.398 0.545769
19.0957 129.431 -1.05056
-4.16374 97.1188 -15.8514
-4.75099 124.61 -9.23569
21.5118 125.195 -1.41547
2.01067 94.6029 -14.7043
-6.70634 119.771 -11.0398
22.1271 140.922 2.62139
16.7416 121.409 -3.78538
-6.33608 105.113 -14.5702
2.67651 94.3846 -14.6221
-9.18191 133.832 -8.39797
-1.25065 94.541 -15.798
-6.41951 132.088 -8.04413
-9.02087 133.454 -8.4752
10.795 152.738 2.08085
-6.39548 131.794 -8.12966
-8.1316 132.011 -8.62019
15.8358 149.22 2.64221
9.21171 154.633 2.03903
-5.16653 132.37 -7.69994
-1.62014 94.6637 -16.0057
-7.62198 134.371 -7.95628
22.584 137.427 1.60984
17.5812 128.365 -2.09694
-4.83261 132.299 -7.6821
9.5556 94.9645 -12.7167
-5.49883 126.451 -9.35084
0.767823 96.1703 -15.0055
11.6132 99.2559 -11.074
10.3348 96.6047 -12.1253
21.8919 124.419 -1.87641
-6.76712 134.748 -7.72716
-4.53901 150.134 -3.27328
-3.78078 147.643 -3.68791
-5.18211 127.79 -9.03057
-6.53506 130.829 -8.70333
24.2826 131.009 0.342128
7.96071 92.8958 -13.8597
-6.33732 129.824 -8.91173
11.7618 100.376 -10.9154
22.5645 126.377 -1.33215
-5.48942 128.187 -9.10335
23.1704 132.522 0.348145
-5.43929 104.008 -15.069
7.03129 92.4759 -14.2803
-3.69212 149.536 -3.31415
-5.09613 140.827 -5.90493
17.3225 123.478 -3.63905
14.7044 119.172 -5.47775
14.7542 118.439 -5.65318
-5.50208 130.698 -8.54909
3.97501 95.333 -14.5261
22.9442 135.92 1.05331
0.0707072 96.7956 -15.3107
-3.82877 145.996 -4.2876
-4.10722 133.787 -7.39531
16.0521 113.263 -6.57686
23.6656 127.159 -0.94984
11.9542 102.19 -10.5531
14.5224 104.504 -9.23682
21.9693 123.807 -2.28896
-6.48236 111.341 -13.6929
18.7866 147.311 2.57103
15.9477 112.808 -6.80405
-6.38822 107.004 -14.7749
23.1456 134.437 0.61397
-6.15206 113.352 -13.1888
-6.34483 112.125 -13.5526
-5.88833 129.283 -9.18297
-6.41822 111.243 -13.8082
16.6265 149.102 2.27551
-5.25806 128.504 -9.22679
18.8122 125.159 -3.07853
16.8867 123.09 -4.15517
23.9425 132.23 0.14586
-3.7426 144.68 -4.88038
-3.15541 147.115 -4.11258
0.41381 97.3295 -15.412
-3.99925 142.754 -5.47475
-2.86746 148.419 -3.75931
15.0712 121.635 -5.13787
-5.49054 136.457 -7.48874
-2.9676 151.383 -3.06218
-6.31429 111.069 -14.0127
-2.99866 149.997 -3.41947
17.4067 148.651 2.21008
-2.9027 147.316 -4.06685
-3.3597 145.965 -4.53922
-4.93752 118.929 -11.688
-6.00813 137.352 -7.44898
9.50821 97.8643 -12.6829
17.2785 128.595 -2.81769
4.94579 96.2434 -14.4257
-2.65411 147.963 -3.8946
6.1418 95.9236 -14.2318
6.22531 95.6986 -14.2676
12.4115 103.418 -10.5534
1.37114 97.473 -15.2923
19.5542 125.995 -2.92693
14.506 105.469 -9.48145
-4.86808 129.02 -9.32658
-6.15823 111.14 -14.1255
23.4146 135.702 0.593716
22.6451 125.159 -2.25526
-4.49456 102.375 -15.8324
18.5717 128.817 -2.55425
14.9085 106.232 -9.21778
-6.56021 116.038 -13.0739
-2.52423 149.089 -3.73178
-6.25023 110.588 -14.3588
1.05058 97.6987 -15.4141
23.2406 134.182 0.0791455
-5.67727 138.116 -7.42474
16.3468 114.935 -6.71609
14.8578 122.092 -5.39786
-2.74457 135.895 -7.16266
22.0553 144.788 2.28377
23.7518 132.648 -0.22827
-3.13388 123.327 -10.4041
-4.48007 129.608 -9.25088
-2.04152 152.81 -2.81137
-4.13062 127.145 -9.78056
-6.49231 115.447 -13.3905
-4.27174 129.879 -9.18979
5.18617 97.4314 -14.4626
-6.04773 114.826 -13.4703
16.3149 115.736 -6.72715
20.6554 125.162 -3.13057
-2.07743 150.602 -3.50856
15.4033 108.526 -8.80009
9.80249 99.4919 -12.6917
0.509226 98.676 -15.6408
-1.57713 138.541 -6.41145
23.7588 132.806 -0.426382
-4.60672 138.165 -7.43642
-1.51335 99.2594 -16.1538
-4.48145 138.035 -7.44283
-1.60253 139.107 -6.34627
13.9603 107.471 -9.65396
-1.83345 146.889 -4.52688
16.2671 114.706 -7.19124
15.0748 122.571 -5.60036
15.8464 122.717 -5.37645
-2.87228 139.236 -6.77014
5.30708 98.6198 -14.4342
-3.32775 101.346 -16.3031
13.5815 105.329 -10.3785
16.8972 128.959 -3.56833
-4.40154 105.977 -15.4865
-3.54631 138.932 -7.08915
5.61748 98.7717 -14.3519
11.2118 152.986 0.683851
-1.87221 99.7986 -16.3026
-3.65399 140.4 -6.80557
18.1318 131.145 -2.7346
3.7917 100.056 -14.6341
-2.41458 100.098 -16.4698
-1.91433 136.925 -7.22519
-1.0062 152.701 -3.06396
17.0665 149.235 1.32887
-0.778656 141.46 -5.81306
15.7923 116.707 -7.10121
23.2298 125.756 -2.69551
15.0942 109.58 -9.09277
18.4986 130.074 -3.06983
-5.41569 111.344 -14.6968
15.3261 110.096 -8.96695
15.197 117.045 -7.30111
21.919 125.479 -3.28565
14.6113 118.053 -7.26677
3.7591 101.217 -14.6106
24.9576 127.216 -1.98515
18.0667 148.63 1.25146
-0.540862 141.133 -6.04872
5.57305 99.6654 -14.531
23.3258 127.657 -2.42242
10.6286 101.562 -12.5988
19.4893 125.811 -4.01273
24.8416 127.336 -2.07387
12.4723 104.743 -11.2814
10.0582 101.234 -12.8735
16.7534 128.708 -4.12836
3.88495 155.052 -1.38855
16.988 128.149 -4.21103
-5.1775 110.439 -15.0935
-0.779001 152.056 -3.52386
-5.1476 110.895 -14.9789
12.8335 109.078 -10.1886
6.89389 154.411 -0.761616
24.4249 126.987 -2.42819
-0.471612 101.331 -16.0539
6.91869 99.1074 -14.4476
19.7817 147.808 1.33642
-0.660201 149.7 -4.18912
-1.37514 137.418 -7.43918
-3.26208 127.748 -10.385
14.493 118.045 -7.60162
14.2597 122.85 -6.48267
23.8942 129.118 -2.1239
24.7146 129.215 -1.86658
9.79282 153.734 -0.210373
24.3612 128.947 -2.08453
-2.15016 101.74 -16.5667
11.8992 108.58 -10.7909
23.125 138.824 -0.0366429
22.891 124.531 -3.6394
3.85354 154.675 -1.75464
11.6911 152.484 -0.0364784
-3.5213 105.919 -16.0033
4.86597 101.141 -14.7328
22.9272 123.171 -4.00876
13.2186 151.442 0.130721
19.1981 148.183 1.03332
2.73489 103.401 -14.8579
15.0826 123.536 -6.27527
-2.53255 125.385 -11.0135
9.39188 101.793 -13.3678
24.6349 125.904 -2.9946
-2.69295 129.088 -10.2186
1.0041 152.995 -3.23748
8.73448 101.613 -13.6905
11.4582 107.951 -11.3282
11.221 109.062 -11.1312
15.9385 124.561 -5.92254
-3.20089 132.912 -9.45656
16.9106 130.195 -4.24801
24.8696 139.338 0.333835
11.1357 109.007 -11.1844
-2.17143 123.402 -11.5224
23.4615 137.737 -0.505946
5.58673 154.396 -1.62863
0.72341 152.498 -3.54055
8.88593 101.866 -13.6759
9.82721 105.553 -12.5001
0.726498 144.512 -5.54003
23.9491 127.476 -2.96084
25.2278 127.745 -2.5244
23.5305 137.316 -0.660572
10.6925 107.393 -11.823
7.03984 154.13 -1.35128
16.0925 116.246 -8.13358
21.624 124.38 -4.5154
4.44022 154.439 -2.11336
-2.61715 119.339 -12.877
25.0305 129.825 -2.21028
9.1678 153.943 -0.912198
14.0807 120.991 -7.65689
-4.12654 109.25 -15.8904
0.467258 149.025 -4.71657
-3.52076 115.109 -14.2816
-2.79666 105.371 -16.4877
-2.82502 117.706 -13.4471
16.9878 125.592 -5.70699
20.2744 125.209 -4.85511
24.6852 129.399 -2.53363
5.04369 103.142 -14.7967
25.2184 137.978 -0.288513
-2.37666 118.573 -13.173
24.2016 128.677 -2.92313
23.412 136.089 -1.35711
24.0087 128.381 -3.09525
7.95301 102.109 -14.3117
12.1071 152.049 -0.75566
22.5669 123.846 -4.66973
22.4911 145.912 0.761697
1.24446 142.877 -6.20617
8.23504 154.01 -1.41556
14.9227 117.494 -8.4957
0.544424 103.948 -16.0549
-2.25412 122.032 -12.4209
15.1697 124.272 -6.7734
22.3906 123.589 -4.85594
0.0107899 104.053 -16.2343
-1.54182 135.127 -9.00864
0.343934 104.094 -16.1321
-2.81564 117.402 -13.8054
18.1183 129.883 -4.61066
25.0798 127.952 -3.11684
-3.07428 115.919 -14.3291
15.7066 130.056 -5.35445
3.31558 152.957 -3.32213
-3.76902 111.924 -15.5412
8.25083 103.198 -14.2071
2.72665 106.31 -15.0687
17.5585 131.571 -4.49394
24.5193 138.79 -0.681762
19.7343 125.497 -5.37305
1.57176 147.175 -5.33348
23.8319 132.438 -2.46926
3.81218 105.333 -15.0443
11.0149 110.888 -11.6119
15.3841 150.768 -0.489101
5.45189 104.249 -14.9052
22.041 123.886 -5.20973
18.8774 127.217 -5.31179
2.47367 152.051 -3.99977
16.9997 126.026 -6.19199
16.4349 130.469 -5.26437
3.22305 106.278 -15.1103
15.6009 115.732 -9.15358
5.78538 104.314 -14.849
23.899 128.436 -3.61979
-3.52772 110.799 -16.0253
7.84966 103.744 -14.4624
18.8626 128.003 -5.25729
6.71184 104.163 -14.74
10.129 110.903 -12.0938
24.0186 144.423 0.25354
25.7675 129.996 -2.80844
-1.01448 124.809 -11.9281
5.12437 153.049 -3.15273
17.826 126.722 -5.94911
0.857036 107.575 -15.6463
9.52074 110.682 -12.3551
13.6197 112.981 -10.5964
25.7795 135.867 -1.39078
24.1114 128.636 -3.67525
18.8453 132.404 -4.31615
8.19153 106.913 -13.7377
14.2458 115.722 -9.81419
25.7828 130.489 -2.79321
13.9048 114.238 -10.2996
-0.996463 106.879 -16.4945
-1.69585 118.73 -13.8083
-0.403191 135.218 -9.35979
8.47208 153.606 -2.23415
0.114682 106.689 -16.2825
20.5363 147.754 -0.165259
-3.03975 112.979 -15.6598
-0.283743 106.725 -16.4147
7.93982 106.796 -14.0099
4.55355 152.731 -3.65189
1.20081 109.974 -15.2456
19.5857 125.515 -6.05568
17.3465 127.138 -6.36138
24.618 129.117 -3.75532
3.73358 107.968 -15.0949
18.2339 131.101 -5.1393
10.3602 153.017 -2.0278
12.0265 112.678 -11.5196
3.89169 152.295 -4.13395
13.6576 151.421 -1.49558
24.1087 128.169 -4.19267
17.0506 150.114 -0.859616
22.0049 123.31 -6.06247
15.7699 131.485 -5.88894
14.502 125.148 -7.83302
9.70945 153.195 -2.32375
2.66589 148.941 -5.4424
-2.70703 112.254 -16.0887
21.0559 124.563 -6.10112
0.452971 109.633 -15.826
23.0223 124.019 -5.6702
24.7643 135.948 -2.215
10.987 117.413 -10.84
18.9191 122.78 -7.19986
24.1018 134.629 -2.78253
13.5954 117.455 -10.109
4.79041 108.444 -14.9124
6.79889 107.494 -14.5635
-0.0966045 108.579 -16.33
25.3804 128.143 -4.04957
12.5841 113.582 -11.3967
7.96653 108.617 -13.9845
24.6581 135.318 -2.50297
0.413804 110.041 -15.8445
25.4696 132.906 -2.87665
12.0634 113.396 -11.6344
2.29471 112.485 -14.7183
3.0302 144.218 -6.66421
3.45102 109.935 -15.0376
14.528 117.181 -10.0601
12.1713 118.169 -10.5098
25.221 128.39 -4.17153
4.97151 111.968 -14.1565
5.03796 111.932 -14.1606
24.105 129.401 -4.28211
17.474 131.287 -5.76116
2.20516 141.969 -7.62141
15.0725 150.609 -1.75055
3.22347 149.654 -5.46545
-0.324161 109.388 -16.4594
-2.30965 112.024 -16.4005
7.21831 109.342 -14.2778
14.6088 126.17 -7.96741
15.2473 117.375 -9.95914
3.68188 114.275 -14.1435
4.35254 113.92 -14.0375
10.5166 118.929 -11.04
20.0657 147.927 -1.07978
-1.47639 111.208 -16.465
21.7549 123.541 -6.62895
25.5795 132.924 -3.19419
19.9431 123.614 -7.14727
20.0223 125.153 -6.75922
6.79765 152.745 -3.81494
-1.52983 131.555 -11.4991
-0.909214 110.634 -16.5074
-1.72579 129.868 -12.0112
10.2865 113.3 -12.6098
-0.573952 126.505 -12.5235
-0.544794 110.225 -16.5426
22.3861 145.906 -1.01625
14.6629 118.542 -10.0851
23.3454 134.241 -3.66899
-1.75289 112.16 -16.4923
17.3852 133.314 -5.67526
6.34189 111.97 -14.1834
5.44133 114.332 -13.8733
-1.66983 113.817 -16.0817
17.6914 122.495 -8.29611
19.888 147.869 -1.41728
26.3231 132.934 -3.23129
0.888415 113.225 -15.5429
8.26409 112.527 -13.5695
24.4642 139.965 -2.07413
20.1999 125.009 -7.01971
1.37225 113.592 -15.3603
24.2103 134.743 -3.45609
10.1605 118.256 -11.6424
3.9415 149.032 -5.86217
7.25865 111.318 -14.2658
10.6303 120.508 -11.0304
-0.039083 133.818 -10.8838
-0.965209 111.894 -16.589
3.65439 116.537 -14.1104
-0.408233 123.356 -13.6191
4.40959 149.699 -5.69851
6.59109 112.887 -14.1661
4.71386 151.228 -5.23847
17.382 129.771 -6.84288
4.02935 148.239 -6.18621
13.4409 118.637 -10.7724
23.5504 131.298 -4.77017
-0.559983 113.072 -16.3355
8.73381 113.802 -13.4599
6.51377 113.889 -14.0884
24.301 132.124 -4.38507
17.0278 148.83 -2.40803
5.25556 151.566 -5.17445
14.3559 122.886 -9.62395
-1.21086 129.287 -12.6011
10.2205 115.631 -12.6474
9.76057 120.136 -11.6828
24.9682 133.711 -3.88438
15.1636 150.119 -2.70478
27.0208 132.881 -3.5023
-0.63985 118.044 -15.2735
6.05085 123.502 -11.977
10.4132 122.036 -11.0721
6.33253 127.084 -11.0805
23.6464 133.357 -4.47235
24.0418 142.992 -1.97475
-1.09494 128.363 -12.9488
-0.771724 117.223 -15.624
26.8583 129.836 -4.44313
4.73428 129.813 -10.9257
7.36703 152.59 -4.53457
14.22 122.648 -9.93382
5.95646 126.41 -11.4218
9.5987 118.229 -12.385
6.87081 116.117 -13.7289
0.131742 114.227 -16.1787
15.2078 132.28 -7.31687
26.2829 132.775 -3.96701
13.8971 120.173 -10.7262
5.77839 124.14 -12.121
17.0524 131.101 -7.11138
25.0993 129.796 -5.08251
18.351 148.012 -2.5935
25.3543 134.728 -3.83407
21.452 131.352 -5.81273
11.4063 152.036 -3.64577
23.0879 129.504 -5.80632
18.1343 148.051 -2.67976
7.3481 115.497 -13.8905
5.62735 122.517 -12.6668
18.7993 130.979 -6.73621
25.5007 132.96 -4.31147
4.39098 118.075 -14.1905
13.8899 120.756 -10.7584
17.9838 132.489 -6.66042
4.7825 145.829 -7.22378
4.6674 144.375 -7.62106
1.29887 115.747 -15.6898
16.3416 128.022 -8.26861
8.99268 120.143 -12.3814
9.40644 115.185 -13.4879
1.69618 130.649 -11.9687
2.72436 119.158 -14.5229
24.392 130.302 -5.45498
23.6516 143.002 -2.56457
23.3087 125.805 -6.9196
8.88591 119.063 -12.811
15.8502 134.901 -6.86342
8.95007 121.126 -12.3024
3.11863 141.273 -9.03383
2.89573 129.257 -12.0723
1.25552 131.094 -12.1111
-0.113255 129.005 -13.0306
16.6957 132.021 -7.37266
-0.250107 118.74 -15.6208
21.0863 122.61 -8.4327
-0.11758 131.079 -12.5488
15.3934 134.094 -7.28005
6.94663 150.479 -5.7063
19.1547 122.819 -8.98446
0.440588 132.706 -12.0258
6.23249 121.697 -13.0557
-0.0638994 127.594 -13.4739
5.45075 118.151 -14.2262
23.8915 131.488 -5.54213
5.60989 146.841 -7.09511
4.2379 143.366 -8.36144
15.1348 130.011 -8.47773
16.5826 148.16 -3.56945
-0.169807 119.038 -15.7018
15.1403 129.969 -8.52501
21.7793 144.065 -3.10319
21.2143 145.572 -2.90075
13.8456 121.695 -10.9673
2.03944 131.406 -12.0284
0.884752 123.367 -14.4012
26.1644 132.981 -4.64756
2.0564 119.107 -15.129
4.89994 143.983 -8.15177
23.9379 131.28 -5.73889
8.85688 116.951 -13.7109
24.8971 130.174 -5.75387
7.6027 126.963 -11.606
17.7253 123.137 -9.59564
26.3487 132.059 -4.86823
1.27174 129.791 -12.763
6.24693 147.486 -6.94321
24.3841 129.952 -5.9752
0.45686 126.889 -13.7478
0.650005 120.273 -15.3366
24.3317 140.928 -3.30395
18.0552 123.887 -9.36419
2.31454 137.397 -10.6277
11.6443 151.698 -4.36939
22.5128 129.044 -6.8209
25.393 131.519 -5.37379
6.48371 120.657 -13.5948
4.51129 127.212 -12.5739
3.64687 120.121 -14.582
0.852449 128.654 -13.3115
0.903128 129.1 -13.1986
7.16772 120.262 -13.5637
19.2724 132.635 -6.97769
23.8698 128.89 -6.56617
23.1369 130.254 -6.46106
27.1984 130.777 -5.14766
3.7018 133.064 -11.4615
0.992737 120.291 -15.4193
20.379 126.334 -8.25776
7.11463 119.405 -13.8643
2.83395 131.927 -12.0362
3.61006 133.826 -11.343
2.22755 121.313 -14.8432
17.0898 127.715 -8.92287
23.9142 129.569 -6.48156
7.81313 127.997 -11.6015
4.59695 143.217 -8.79607
14.2797 123.933 -10.7342
10.1662 124.491 -11.8177
2.9073 139.546 -10.2212
17.0709 145.717 -4.5661
20.524 124.8 -8.73319
2.21439 135.79 -11.4027
1.01052 122.695 -14.9947
6.25062 130.353 -11.5736
1.13177 126.326 -14.1134
23.7167 130.376 -6.50863
24.621 139.048 -4.10689
18.8576 146.91 -3.86326
2.41432 137.103 -11.1283
2.49121 134.4 -11.7838
13.7983 122.255 -11.4957
24.575 138.992 -4.22085
24.0232 134.821 -5.41545
7.12929 147.112 -7.3278
17.1209 131.922 -8.1958
2.4672 136.817 -11.318
22.6361 126.416 -8.00131
13.2832 122.317 -11.7665
25.0457 129.475 -6.56329
16.2127 132.453 -8.41333
19.0316 133.57 -7.33482
19.7188 145.937 -4.09585
4.92017 133.519 -11.4996
19.8234 132.341 -7.44034
18.341 146.391 -4.40718
13.9687 148.023 -5.28651
2.90268 136.262 -11.4408
20.793 143.422 -4.47793
3.35058 126.134 -13.8699
8.25413 149.148 -6.77922
4.09305 141.041 -10.0141
8.90948 151.274 -6.09497
23.8569 127.879 -7.51428
12.2903 149.552 -5.5706
8.82936 127.529 -12.0331
12.4379 149.372 -5.58229
21.3443 130.141 -7.74827
19.7616 145.656 -4.41456
18.0556 132.2 -8.24473
17.8414 124.641 -10.2048
16.742 137.581 -7.33595
9.04009 151.14 -6.25977
17.3363 135.562 -7.69203
3.77323 139.065 -10.8145
15.7745 129.494 -9.68151
3.13577 124.309 -14.694
14.3161 126.479 -10.9113
20.9902 142.009 -5.16059
21.6965 140.421 -5.38329
5.28896 142.979 -9.57902
15.1474 132.877 -9.23813
16.9265 128.493 -9.81937
14.6204 135.104 -8.87839
10.0865 151.383 -6.20654
17.3876 136.018 -7.87788
15.9254 131.294 -9.47762
23.7579 136.247 -5.96279
15.4112 132.262 -9.39316
4.33774 139.171 -10.9843
15.5453 129.534 -10.0944
7.16571 131.304 -12.1316
17.2237 134.474 -8.41263
18.2508 134.858 -8.09908
6.6525 132.677 -12.0339
18.469 127.798 -9.79745
12.3027 125.714 -12.1164
17.7539 144.271 -5.93731
23.1309 127.876 -8.4215
11.1519 135.328 -10.1365
19.6616 144.496 -5.43119
18.6781 134.531 -8.18318
23.5128 138.359 -5.82571
17.5699 137.713 -7.74118
12.7902 133.027 -10.3047
11.4318 126.052 -12.4328
4.91928 139.703 -10.974
23.2813 137.422 -6.23815
17.3739 141.189 -7.05761
10.8306 126.675 -12.5605
7.547 145.577 -8.85797
22.1498 135.221 -7.16012
10.9334 134.231 -10.698
13.4375 135.932 -9.55137
18.9073 136.006 -7.93509
20.3806 129.788 -9.04952
15.5795 130.548 -10.2803
7.1689 135.765 -11.4534
16.2979 139.525 -7.87749
16.0433 141.906 -7.38293
17.2822 134.301 -8.91126
10.7098 127.148 -12.6095
10.3344 131.401 -11.6726
14.6884 146.48 -6.68142
12.9117 148.42 -6.73134
16.1401 135.61 -8.96603
18.8898 136.766 -7.90931
19.535 142.867 -6.21525
6.81483 136.179 -11.5983
14.2351 131.788 -10.5296
18.4934 135.142 -8.45992
14.5823 131.028 -10.6463
16.4186 134.384 -9.31087
8.66243 131.843 -12.2081
12.319 131.428 -11.2529
9.04242 138.363 -10.4968
20.0438 127.585 -9.96696
19.1611 125.136 -10.8465
5.34695 138.72 -11.5461
6.8778 144.067 -9.78603
19.9805 126.097 -10.4087
18.3041 131.613 -9.55115
16.9473 133.668 -9.46612
16.9497 133.704 -9.46904
18.4248 136.101 -8.44991
9.74526 129.86 -12.5338
12.7495 128.396 -12.0312
14.6629 136.868 -9.38162
9.29693 139.945 -10.2157
14.0555 130.02 -11.2789
16.7516 138.97 -8.36664
16.2106 145.236 -6.97743
21.8543 128.883 -9.38749
17.2041 131.247 -10.1832
8.26336 145.79 -9.21548
21.6141 134.299 -8.18486
19.9204 126.84 -10.5261
22.7355 127.889 -9.50089
17.6448 137.9 -8.54017
6.43106 140.629 -11.1489
23.0557 127.343 -9.58255
20.2816 127.21 -10.4493
22.1228 137.817 -7.29371
9.43034 147.263 -8.71337
18.5994 139.764 -7.88647
15.9812 145.331 -7.30561
6.64905 141.444 -11.0658
19.4592 139.847 -7.73395
19.5455 125.944 -11.1493
17.8956 136.898 -8.95114
21.0015 138.369 -7.75975
20.4182 126.746 -10.8205
16.7998 136.973 -9.3692
20.2155 126.264 -11.044
10.4777 146.39 -9.07123
21.2664 135.724 -8.58588
16.4075 140.873 -8.76008
7.52041 141.807 -11.1637
11.8622 145.276 -9.14185
8.8095 142.794 -10.6678
16.213 142.855 -8.50373
10.8465 145.612 -9.42543
11.5956 140.208 -10.5646
14.1394 146.492 -8.30348
15.2262 141.123 -9.37958
16.6526 139.749 -9.403
17.1567 139.732 -9.26797
16.9974 140.14 -9.25125
11.1768 144.058 -10.0488
15.904 139.224 -9.86988
12.4896 141.539 -10.308
11.0346 142.328 -10.5428
11.0766 142.375 -10.5281
14.8672 142.307 -9.52773
