ply
format ascii 1.0
comment Created by Open3D
element vertex 1943
property double x
property double y
property double z
end_header
-19.742 121.611 -3.58196
22.126 83.9633 6.04855
-19.3473 121.434 -4.43536
-18.3413 120.521 -3.66874
-9.71696 114.631 -11.7281
-19.0319 120.839 -2.11814
-21.9208 123.773 -4.56356
-17.7712 120.152 -4.1883
20.4437 85.2125 7.73875
9.76702 91.9161 21.0662
-17.7674 120.101 -3.78288
-16.5473 117.184 6.60003
-17.765 119.977 -2.77907
19.2333 87.9131 -0.734556
-16.7363 118.555 0.230257
19.0756 86.073 10.1853
-1.5304 102.239 18.274
13.5252 89.5712 17.1309
10.4309 91.6748 20.247
11.903 90.7383 18.593
-26.5027 126.919 0.951061
7.39226 100.674 -14.0669
-16.5995 120.148 -8.17822
4.48095 103.244 -14.342
10.7558 91.5763 19.8322
-18.582 121.154 -4.03616
-26.841 126.259 6.84273
-18.3266 120.363 -0.54127
20.1344 87.1069 1.1617
-17.8603 120.588 -3.71084
14.879 93.3819 -7.95136
-18.6515 121.344 -3.69356
-17.9463 120.791 -3.4242
4.78313 103.367 -14.3778
-27.5071 127.667 3.98217
-5.42988 106.964 13.7464
-17.5087 120.507 -3.32635
-10.7458 111.822 12.3978
3.47903 97.9754 21.4808
-17.3007 120.751 -5.11002
-26.7571 127.637 1.48644
-26.4847 127.486 1.0563
22.2456 84.883 5.68529
13.8411 94.8097 -8.9819
-17.2164 120.283 -2.7588
5.7121 95.9746 22.5808
-13.8528 114.807 11.4313
4.30617 104.046 -14.4753
13.1974 95.5812 -9.75301
-3.8774 111.239 -15.2792
-17.1604 119.181 3.34061
5.01816 103.481 -14.4138
-14.441 119.346 -9.93818
-10.5492 116.347 -11.6321
4.09056 97.6333 21.8781
-27.007 127.041 7.00824
-15.3872 120.081 -9.15078
-18.0274 120.654 0.0391539
-17.2395 118.616 7.57503
-17.5047 119.103 6.22342
-0.838682 102.566 18.6716
-18.275 121.121 -0.574463
8.76161 93.8265 21.9138
1.24833 100.641 19.8926
-26.3172 127.8 0.929321
4.57051 104.224 -14.5114
-3.67697 105.812 15.389
22.2971 85.8067 3.49503
-1.97153 104.039 17.3917
-17.1434 120.505 -1.30799
0.124221 101.969 19.0252
18.6951 89.924 -1.88619
-18.5253 122.16 -3.55823
-17.034 120.076 0.982991
21.5144 86.7598 2.65362
-25.0869 127.385 -0.894781
6.48168 96.0149 22.5406
-21.2899 123.109 4.74505
-17.7193 120.796 0.730865
-18.4123 122.441 -4.67019
0.109678 102.228 19.0737
-26.5674 127.281 7.19275
-11.7943 118.004 -11.0618
16.4689 89.0357 14.7321
11.8969 97.8215 -11.5657
-7.27846 109.538 13.9608
-13.9371 115.721 11.3971
-24.144 125.621 5.17268
13.0177 96.5936 -9.78625
-13.1359 119.27 -11.209
18.3645 88.0469 12.2419
-24.011 127.211 -3.18198
18.8558 90.209 -1.6381
22.0596 86.5758 3.26383
-17.1398 121.77 -5.44592
-17.2996 121.594 -3.68658
-18.5523 123.067 -5.64393
-14.5246 120.444 -10.1191
-7.02499 109.55 14.085
-19.2336 123.317 -3.52051
-2.54404 111.397 -16.3002
-18.0362 121.929 -1.38871
-21.2259 123.409 5.42662
-2.35453 105.148 16.7884
-17.4196 122.706 -8.37595
7.66575 102.297 -14.2225
1.42616 101.304 20.2646
-19.2946 123.498 -3.61936
-8.67084 111.206 13.893
17.121 92.3519 -3.62544
8.98006 101.13 -13.3428
-13.6614 120.065 -10.8036
1.54693 107.759 -14.691
-9.36432 111.933 13.4161
8.26673 95.2797 22.0291
-17.8512 122.232 -2.53847
-19.2294 123.787 -4.5587
-16.8363 120.786 0.777587
-17.2298 120.48 4.31586
8.71854 101.592 -13.5599
-3.79469 112.539 -14.6415
-18.3367 123.266 -5.17256
-16.9748 121.001 0.864079
-27.5389 129.263 5.21374
-10.5997 113.35 12.8357
-27.5525 129.294 5.2621
-14.4902 120.955 -10.1151
-16.0317 121.928 -8.20995
13.2585 97.0229 -9.21016
-19.9623 124.782 -5.26218
-17.8917 123.307 -6.85147
-23.0598 125.421 5.79076
13.4975 96.7997 -8.80088
19.3306 90.3699 -0.850613
21.473 87.7897 3.3631
-27.1977 129.336 4.20007
-17.8301 122.901 -4.25595
-9.84151 117.541 -12.0907
8.37751 95.704 21.8574
4.24167 99.2445 22.0302
-14.2155 121.044 -10.2117
16.3199 90.3582 14.3303
-2.40077 112.062 -16.1689
4.94344 105.499 -14.6678
-16.5833 121.93 -3.71397
9.45485 95.1061 20.7296
18.2468 89.1292 12.4722
15.9873 94.4164 -5.55052
-19.755 123.292 4.15516
-17.8734 123.219 -4.11227
-8.0041 111.362 14.3307
-18.6196 123.891 -4.25022
18.29 91.9471 -2.35116
-17.8804 123.648 -5.81412
-2.67265 112.453 -15.6951
12.6661 98.2974 -10.0546
18.1813 92.1659 -2.44234
-24.4632 128.435 -0.945168
-9.03084 112.523 13.6926
17.3248 89.9558 13.6357
10.989 100.218 -12.3796
-27.0981 129.531 5.67239
-3.24571 112.903 -14.9198
12.3459 93.633 17.1756
21.1843 88.0397 6.74084
-2.36359 112.426 -15.9797
-17.6138 122.419 0.643924
-19.1883 124.753 -4.6825
10.4768 94.9608 19.3193
-12.7182 120.454 -11.0698
-10.2229 118.475 -11.9228
19.3135 91.1447 -0.961521
21.3097 88.6516 3.30462
2.1313 101.863 20.8929
2.98783 107.77 -14.7741
19.0361 91.5574 -1.44297
-18.3925 124.065 -3.78826
21.8659 88.1755 3.93976
-2.24958 106.522 16.6216
-21.5059 124.998 6.02554
-17.1723 123.915 -8.01802
-8.54632 112.429 14.2407
-14.4751 118.079 11.2625
-23.8395 127.307 4.85624
-7.91527 111.863 14.6117
9.52238 95.8927 20.414
-5.53426 115.144 -13.8923
14.9424 96.2866 -6.72853
20.6945 88.7598 7.34344
-16.9282 121.589 4.11887
-16.7351 121.766 2.36601
2.44658 108.539 -14.7547
-9.72503 113.79 13.3642
5.80678 105.643 -14.5343
12.4533 99.1733 -10.3235
-17.1875 123.776 -5.98198
-23.2227 126.956 4.84935
-8.69791 112.853 14.039
-21.3882 125.227 5.95294
14.8603 96.5594 -6.85359
-0.872937 105.399 18.348
13.6444 97.9017 -8.29731
18.6784 89.9372 11.6135
-17.5456 122.943 1.10036
-10.1751 114.331 13.5335
21.2391 88.7032 6.59437
14.1014 93.2377 15.685
9.52144 96.3247 20.2871
-9.18627 113.62 13.4579
-0.13487 104.781 19.3462
10.8577 101.265 -12.5827
-0.690055 105.418 18.5714
-17.567 124.431 -5.74854
-10.033 114.437 13.5951
-3.24956 113.904 -14.9675
-14.0266 122.316 -10.1296
13.3713 98.7075 -8.75827
13.2783 98.8447 -8.94683
-6.16012 116.325 -13.3756
-10.4432 115.016 13.6104
-26.2972 130.015 6.02389
19.6236 91.9066 -0.517919
-18.2937 125.248 -4.89756
-25.9185 130.562 1.83851
-17.9141 123.462 3.19311
14.9667 93.1399 14.853
-1.99249 113.355 -15.8262
-13.0492 117.708 12.105
-0.53005 112.249 -16.3375
-17.2281 124.796 -6.78705
-17.7877 123.558 2.75315
-16.6656 121.456 8.9757
19.5688 90.2659 9.81032
-14.7548 119.574 10.4721
-17.4478 122.889 5.39422
-17.9609 125.07 -3.85489
2.18992 109.815 -14.6517
-2.64951 114.115 -15.4764
-26.9693 131.369 3.99254
5.44079 100.275 22.1548
-14.43 119.442 10.6372
-17.0401 122.216 7.77203
-26.1638 131.019 2.52311
-24.9391 129.328 6.15127
-26.7436 131.358 3.60227
-5.26812 110.691 15.8794
-16.9769 122.817 4.6076
-26.3458 131.208 2.89352
11.5538 96.0604 17.3917
-14.1749 123.175 -9.98435
5.88999 100.044 22.1853
15.8759 92.9826 14.1466
-25.4679 130.807 1.15968
17.9786 94.3069 -2.68197
9.50281 97.3522 20.1424
13.204 94.9739 16.044
-18.5694 124.485 3.74027
16.1607 92.8343 14.0088
-18.3686 124.432 3.17574
-4.97417 116.161 -14.1141
13.2229 99.6595 -8.988
2.32373 103.415 21.2186
-10.3329 120.322 -11.3143
-14.9516 120.28 10.3958
9.17293 97.7493 20.4826
-18.195 125.833 -4.25065
9.14105 104.052 -13.0745
20.3609 90.5934 7.88113
-17.5395 123.989 2.94974
-7.40367 113.002 15.4535
10.5508 102.883 -12.7449
17.9254 91.8401 12.942
12.2919 101.033 -10.4161
17.9093 91.9022 12.9483
3.3708 109.506 -14.6483
-0.16547 106.341 18.9473
22.2996 89.771 4.96888
-17.9029 126.328 -6.3596
-10.1761 120.58 -11.0411
4.50517 108.676 -14.5326
14.3178 94.7874 15.1546
-12.9889 122.883 -10.1134
8.95435 104.697 -13.0368
-19.5937 127.421 -3.56835
-8.36284 114.544 14.3319
-1.66284 108.323 17.0897
-1.27755 114.214 -16.3314
-0.533046 113.582 -16.2093
-20.3378 128.191 -3.34234
5.24532 101.579 22.0818
-14.5896 120.737 10.4149
15.1584 98.3517 -6.33904
8.02265 105.865 -13.6471
-26.0939 131.986 3.18612
-2.78177 115.512 -15.394
6.52831 100.685 21.77
3.08407 103.648 21.8045
-13.8589 120.252 10.5888
-17.8097 124.404 6.47997
-11.2343 121.899 -10.2238
2.56253 110.894 -14.5518
20.0711 91.6598 8.37101
18.9806 92.05 11.3753
-17.1529 126.338 -6.61779
-17.0853 126.353 -6.95362
-7.83536 119.38 -12.0321
-25.3909 131.186 5.75641
10.6396 103.742 -12.4739
9.9754 98.4446 19.312
14.114 100.004 -7.70732
-23.0077 129.415 5.314
16.1689 94.3138 13.6425
-17.8317 124.865 6.01697
-16.5172 126.107 -6.79674
1.72033 111.923 -14.4649
11.4678 103.118 -11.9523
17.7799 96.1338 -3.18703
-21.4713 130.049 -4.65478
-2.08473 109.461 17.0321
0.210147 107.112 19.139
11.7502 102.915 -11.3955
-17.7788 126.757 -3.37532
-23.1442 129.764 5.27836
14.2886 95.9431 14.9577
-24.1985 130.797 4.78736
-17.1434 124.996 3.56343
2.54143 111.454 -14.4049
-10.2827 117.199 13.991
11.2505 98.1435 17.5675
-16.7218 123.884 8.02635
-3.02191 110.463 17.1393
-18.2696 127.276 -3.01543
-14.0381 121.224 10.3642
14.3048 100.277 -7.67781
-2.1979 115.887 -15.5294
10.1744 104.71 -12.3276
9.10452 105.74 -12.6786
-12.0168 119.277 12.0715
-23.604 131.639 -1.06948
-20.3044 129.511 -4.6984
-11.7446 119.034 12.3124
-2.42001 110.15 17.2141
4.76298 109.837 -14.2279
-7.48006 114.863 15.34
17.3347 97.1738 -3.94932
-17.8949 127.69 -5.7543
12.1287 97.7613 17.0437
-16.3879 123.835 8.59427
-1.10361 109.079 17.5963
-19.7189 129.116 -4.3114
-11.0928 118.593 12.8142
-16.9821 127.218 -6.39263
-4.74549 117.946 -12.8421
11.6067 103.785 -11.9643
12.9507 97.4419 16.5633
0.116722 108.011 18.8777
19.3252 95.1828 -0.685213
9.20092 100.061 19.9261
18.5277 96.1275 -1.99435
1.0894 107.146 19.9889
7.01849 101.848 21.2284
16.2852 98.8307 -5.17475
-22.5987 131.684 -2.59718
-4.38602 112.471 17.1865
14.5429 96.6893 14.8584
-7.4803 120.414 -11.4187
-22.6458 131.749 -2.43012
-18.0605 128.054 -3.6455
18.8677 93.6536 11.5334
-10.1266 118.158 13.6082
0.0436492 114.847 -15.6181
-6.71827 114.884 15.6378
20.3129 93.1079 8.39017
-3.56037 111.851 17.6577
-25.3485 132.844 5.31783
-21.8411 131.51 -3.66009
-16.3275 127.349 -6.69586
-23.0966 132.229 -1.66014
-20.427 128.766 4.94529
9.98096 100.154 18.8237
-16.6776 125.792 3.7727
-8.12727 116.435 15.0306
-8.13644 116.463 15.0137
12.226 103.859 -11.1794
-14.5356 126.309 -8.50729
15.6474 100.103 -6.27583
11.9176 104.319 -11.6793
-0.465399 115.737 -16.0004
15.9335 96.3392 13.442
19.5909 93.7807 10.3374
1.92186 106.977 20.8809
-19.2967 128.091 5.06982
9.44617 100.821 19.4219
-13.8067 126.007 -8.74793
-14.4215 123.155 10.0172
-18.1689 128.799 -2.76483
3.69704 112.137 -13.9247
21.4216 93.695 3.76106
-8.76827 117.65 14.2389
-16.4173 128.193 -7.17224
5.11002 104.446 21.7139
21.6759 93.3126 5.25645
13.3557 103.235 -9.79663
-22.6969 132.759 -2.28218
20.1436 93.9497 9.22773
-16.5507 128.329 -6.68046
1.33672 108.087 20.0577
20.3892 93.8753 8.67551
19.2793 94.4306 10.8178
6.69708 109.791 -13.933
-17.7282 127.412 3.98088
11.1354 105.614 -11.5639
-4.40412 119.08 -12.2174
-7.60022 121.555 -10.7514
-7.31514 116.552 15.1736
17.5441 95.7811 12.4625
-15.698 127.688 -6.04739
13.3997 98.6491 16.2352
-15.8826 126.297 2.44669
-11.2313 120.521 12.2021
17.1837 99.2848 -4.44724
16.65 99.8576 -4.90123
5.92241 104.271 21.3045
-24.9029 134.009 3.41359
21.9252 93.6228 4.87526
-6.15253 115.734 15.5762
-10.5792 124.143 -9.28102
21.1138 94.7401 2.97763
15.396 97.5446 14.3733
7.14039 103.487 20.5436
13.4524 98.8972 16.2311
-18.079 128.226 3.89908
-15.1433 127.858 -7.68842
20.3285 94.4328 8.81106
-23.9828 133.818 1.15501
-14.7015 124.295 9.82604
-18.3925 128.347 5.0478
14.755 102.449 -8.36581
-23.5017 133.941 -1.40539
8.53355 102.619 19.7276
-15.5803 125.353 8.61432
-15.308 125.31 7.64117
-13.2449 126.554 -8.37759
-17.2104 129.307 -4.88309
-1.90477 112.031 18.0547
2.52873 107.649 21.4036
-12.6574 122.673 10.5123
-5.93182 120.966 -11.2566
7.75361 103.479 20.0227
16.0238 97.5823 13.7206
-23.6727 134.36 -0.727945
8.69586 102.896 19.518
12.7515 105.12 -11.0036
13.2877 104.564 -10.3848
13.7829 99.2731 16.1185
-19.7822 131.67 -3.51247
-15.095 128.274 -6.71539
9.4941 108.185 -11.9385
9.15585 102.715 19.2485
17.5159 96.9694 12.3088
1.59524 109.165 20.1239
-25.0127 134.727 5.6191
-17.5211 130.137 -4.14198
-2.63705 113.382 17.6683
19.8671 95.6248 9.42696
-16.4811 129.751 -6.12847
-11.7292 126.177 -8.66202
8.17255 103.9 19.6179
-7.74399 123.019 -10.0185
-22.9185 134.581 -2.1338
-16.1224 128.111 1.67505
14.6271 99.2274 15.5526
-14.8134 126.128 6.58966
16.3664 101.691 -5.52788
-18.4755 129.609 4.99457
-10.3794 121.271 12.5909
-22.2993 132.644 6.33521
7.08147 104.92 20.1855
21.5345 95.5621 3.94368
-2.33693 119.264 -13.6098
-7.3207 122.883 -10.0692
-13.7269 127.951 -7.58193
-14.7325 126.246 6.38697
-8.33316 119.364 14.0084
10.0095 108.412 -11.5721
-17.6721 130.718 -3.83689
-2.75728 119.681 -13.1968
-8.95161 124.312 -9.45439
21.6476 95.2693 5.85635
-15.404 127.827 1.47916
-12.1354 126.869 -8.4264
-23.2367 135.137 -1.60479
18.5827 96.9021 11.6883
2.57483 115.383 -13.9735
-8.66063 124.249 -9.53425
-14.8229 126.311 8.03116
7.55694 104.983 19.8316
-24.0878 135.459 1.62914
-18.6955 130.234 5.04816
10.0581 103.186 18.1872
-14.6021 129.181 -8.15375
-5.55191 117.164 15.1861
-6.6005 122.754 -10.1825
-15.1649 127.986 1.76161
-17.9543 130.066 3.45341
-24.5341 135.613 4.05654
-23.3893 134.257 6.34771
-16.2251 130.511 -6.58801
-24.1418 134.944 6.20863
2.27721 116.134 -14.2179
-14.5226 126.808 6.06217
8.7743 110.262 -12.4073
2.9599 115.505 -13.7683
17.2501 98.4621 12.4419
16.2115 102.582 -4.99064
-21.4629 132.875 5.75151
15.0253 104.127 -7.71878
-17.0375 129.697 2.59311
21.1659 96.0945 7.31583
-20.659 133.979 -3.53444
20.2772 97.9559 1.63789
-24.5975 135.908 4.38754
2.39646 109.772 20.8725
1.3088 110.871 20.2629
-18.0731 132.064 -3.99054
-1.10276 119.568 -14.7795
3.79949 115.195 -13.4815
-16.2307 131.031 -6.27388
-5.28832 117.733 14.978
-24.2281 136.2 3.00425
15.0337 104.578 -7.46993
-16.572 131.309 -5.37989
-14.4177 126.892 8.73018
17.202 99.1188 12.5088
4.97746 108.132 21.1752
-22.7141 134.523 6.77624
8.06482 111.886 -13.2988
2.55663 116.795 -14.1218
20.7042 97.0627 8.53321
12.0545 103.015 16.9904
-20.6253 134.809 -3.53165
21.4959 96.8407 6.65292
-17.7849 131.081 3.57785
-9.24492 126.059 -8.79234
-8.97415 121.759 13.2239
-17.6309 132.081 -2.47571
-6.37288 119.363 14.2471
16.6608 102.855 -3.18664
6.76375 107.01 20.2828
-14.257 127.234 8.37533
-14.321 130.532 -9.12438
5.0029 108.427 21.0794
6.60046 113.521 -13.7565
-10.7305 123.801 11.0172
20.5238 98.6219 2.40607
21.3413 97.3365 5.75219
4.60033 108.883 21.0222
-4.11325 117.329 15.8397
-18.8313 133.649 -4.16706
12.822 102.695 16.6494
-14.3525 130.534 -8.00135
-17.9958 131.399 4.24535
21.4965 97.1726 6.52328
-18.1559 132.951 -3.23796
2.34666 117.454 -14.1575
-24.0822 136.326 6.36687
-4.11204 117.513 15.7619
-9.06487 126.298 -8.77116
14.3771 101.712 15.7672
3.81403 109.839 21.0274
8.03007 106.544 19.347
19.7832 99.8837 1.05568
-19.5821 134.481 -3.61916
3.98543 116.107 -13.3631
-18.9919 132.47 4.61706
12.2361 103.436 16.9537
-17.2609 132.438 -2.87349
9.33557 105.78 18.4023
16.4305 100.564 14.012
-14.2518 130.674 -6.60014
-19.2975 134.462 -3.55581
-10.616 127.9 -8.24508
4.60493 109.536 20.6371
20.1338 99.7951 2.10538
-5.89384 124.436 -10.1653
18.0979 101.963 0.240408
-12.6193 129.863 -8.21306
-16.4238 132.454 -4.52021
8.07025 113.094 -13.2434
20.6319 98.4337 7.91883
-5.84948 124.47 -10.1969
-23.8643 137.462 3.11457
-5.21331 119.454 14.5865
-13.7174 128.179 6.80734
20.2812 98.7406 8.4993
-23.9006 137.144 6.12746
-23.2671 137.385 1.91066
2.21531 118.556 -14.1386
5.87022 115.313 -13.3056
-22.8273 137.528 -0.353701
15.8016 105.143 -4.08956
8.78262 112.743 -12.6169
-4.32279 123.632 -10.7677
-22.0088 137.049 -1.30586
2.77096 118.137 -13.8279
4.00739 116.992 -13.341
-2.74067 117.261 16.7908
3.12837 117.914 -13.6561
20.4658 99.6261 5.45098
-12.355 130.457 -8.73186
14.6659 102.844 15.4501
-4.53753 119.372 15.161
-9.12556 127.694 -8.46902
15.701 105.674 -4.33936
-2.32279 117.197 16.873
-12.9843 128.226 6.90783
0.85519 114.11 19.2954
-14.0374 131.789 -7.31757
5.63697 109.932 19.8887
-8.5105 127.393 -8.89592
-8.20499 123.097 12.9567
3.00883 118.429 -13.6567
-13.2697 128.833 5.52446
3.62259 111.581 20.7709
-13.706 129.532 4.01409
19.8995 100.618 4.76834
-2.9274 118.013 16.6354
16.1404 105.353 -3.22995
-9.46434 124.541 11.7577
-13.5302 129.12 6.04314
19.7934 101.13 3.14516
9.94151 106.834 17.9662
-21.0518 137.044 -1.69944
-23.632 138.261 3.80676
-18.2433 134.932 -3.16284
-15.9912 133.186 -4.01479
14.2403 108.283 -9.37379
18.4841 102.636 1.51822
1.07161 114.31 19.2213
-15.5054 131.529 3.0264
-12.5101 128.225 7.06394
-22.3314 136.633 7.16832
-14.0552 132.248 -7.03792
0.874829 114.698 18.9123
-19.3306 134.525 5.36369
9.49921 113.264 -12.5655
11.9887 105.721 16.7159
18.1798 103.36 0.806378
2.44364 119.603 -14.0946
-22.0162 138.102 -0.281262
-1.58534 117.423 16.9818
-22.6463 138.248 2.21998
19.7442 101.78 3.14252
1.20645 114.766 18.8224
2.68961 113.247 20.2028
1.18164 114.801 18.8123
-9.53495 129.017 -8.41462
-14.3224 132.627 -5.38628
-12.8537 129.241 6.22627
1.98271 114.106 19.3729
-6.06624 122.104 14.0109
7.72315 109.288 19.5096
19.5445 102.183 3.20464
-0.476708 116.734 17.4891
-9.77658 125.923 10.8955
9.52326 107.99 18.4949
-6.21245 122.331 13.892
18.9474 102.89 2.65586
-3.04762 119.292 15.8912
-14.2261 132.828 -5.41588
19.7816 101.947 4.08922
-11.2386 127.38 10.3185
11.8016 106.472 16.7111
-14.5391 133.063 -4.99511
15.4927 107.376 -5.22674
-10.8438 127.056 10.4944
-5.47702 126.456 -10.8988
10.6007 112.902 -12.0415
-12.1115 128.915 6.63013
-2.91964 124.394 -11.2866
12.7731 110.694 -9.89849
19.9545 100.882 10.025
-11.0522 127.409 10.4194
18.3703 102.003 11.5956
1.97832 114.728 18.7399
-12.6817 129.815 5.12022
1.056 115.574 18.5134
-19.5505 137.094 -2.12738
20.2858 101.401 6.66707
20.31 101.386 6.6949
9.24635 108.718 18.6774
15.7813 107.371 -4.28817
-9.50673 129.845 -8.51512
2.46782 114.553 18.8879
-2.72834 119.616 15.6885
-12.1896 129.464 6.28226
19.7061 102.424 4.77895
-17.1288 133.949 5.16587
-14.5274 132.158 3.10017
-15.0694 132.606 3.26303
-5.1023 122.018 14.5257
17.9203 105.074 -0.467549
-3.78517 125.735 -11.2112
20.259 101.742 7.19394
-16.6907 135.357 -3.24799
-22.0846 139.021 2.21595
-13.534 133.494 -7.20811
15.7425 107.96 -4.50629
-11.3773 129.137 6.8919
10.1354 108.622 18.1733
15.2594 108.777 -6.37931
-14.9068 134.263 -4.35836
-7.87084 125.14 12.5337
-5.09939 127.095 -10.7429
18.7875 104.128 3.02143
13.289 111.238 -9.70557
3.70835 120.382 -14.1409
20.7039 101.626 8.89885
0.561344 123.193 -14.1783
-12.2318 130.789 4.04745
-13.6342 133.857 -5.8641
7.26971 117.369 -13.2234
-19.986 136.976 7.18664
-13.9407 132.528 3.3027
18.8316 104.621 2.56235
-9.93568 127.837 10.7112
-4.37981 122.399 14.4852
-4.68825 127.363 -10.9157
5.1969 113.17 20.121
-4.56989 127.306 -11.0726
-14.3223 133.089 3.16284
2.96748 121.49 -13.9697
3.63272 114.919 18.6703
20.3623 102.543 8.08884
-21.1241 139.556 0.22066
-12.8195 133.952 -7.86563
8.18702 117.005 -13.3373
19.0031 104.551 4.11537
15.7776 108.923 -4.5392
3.52609 115.193 18.4232
-19.5782 137.16 7.12132
-11.2401 130.254 6.08626
16.2956 105.162 14.5169
-16.0686 136.238 -3.59099
13.8234 107.111 15.5734
5.32018 119.835 -13.6679
19.0699 103.477 11.2841
-11.5329 130.759 5.54265
8.78142 116.862 -13.3388
18.8816 105.407 1.91214
3.48551 121.553 -13.9612
5.08689 120.178 -13.7293
18.9558 105.314 2.43867
18.2936 106.224 0.682418
-4.0971 127.595 -11.1578
-10.0865 132.465 -9.27816
16.1272 109.044 -3.709
4.00763 121.352 -14.0599
-14.7719 135.808 -4.9883
-21.093 140.219 0.478356
-16.331 136.832 -3.15071
16.8924 105.295 13.9997
19.144 105.178 4.24149
3.89912 121.624 -13.9979
2.33003 117.224 17.2445
-18.5503 137.033 6.878
-9.66367 132.466 -9.51374
-11.1429 133.806 -9.60725
18.1319 106.864 0.596391
17.3331 107.879 -0.863879
6.39108 113.485 19.7174
-12.2938 134.596 -7.68596
-0.760319 125.608 -12.3205
20.204 103.495 10.2621
-16.4481 137.55 -4.07099
-2.64086 127.213 -12.14
-13.2188 135.258 -6.60775
-0.149223 119.933 15.8146
-16.4781 137.276 -2.31122
19.9798 103.688 10.5253
-11.7858 132.217 3.94744
-6.00212 125.705 12.7733
-19.4944 139.743 -0.571949
10.5857 110.672 17.4375
-16.0976 137.426 -3.61387
-2.31892 122.268 14.7193
-21.8579 140.625 6.04287
19.1915 106.039 2.91117
-14.1514 136.268 -5.97186
-21.8958 140.701 5.9465
-0.501257 125.813 -12.5637
5.3619 114.892 19.4289
-17.3611 138.396 -1.83343
-2.65519 127.661 -11.8687
5.42145 115.033 19.3365
16.9224 109.137 -1.85895
4.71163 115.857 18.4573
4.69164 121.856 -13.5871
15.2056 112.087 -9.11402
-3.34074 123.724 13.9289
10.7864 116.411 -11.2989
-11.9219 133.093 3.76507
15.4368 111.571 -6.47966
-14.9237 135.471 5.22828
19.331 106.561 2.86971
17.394 108.936 -0.812038
10.6979 116.618 -11.3322
15.5076 111.687 -6.86507
15.6618 111.772 -7.85155
11.4865 110.838 16.7662
19.2357 106.808 2.66451
-11.6468 135.53 -8.89401
18.6594 107.58 1.85941
-15.5141 137.76 -2.78234
-5.15531 126.285 11.3302
15.6876 107.793 14.8338
14.2312 113.672 -10.1419
20.233 105.412 6.74472
4.46498 122.667 -13.2587
7.29665 114.189 19.5046
19.5916 105.227 11.0769
18.9652 105.669 11.7857
19.8079 105.305 10.3873
-8.71955 129.865 9.7451
-3.92228 125.394 11.7118
-7.39894 128.638 10.4686
19.6312 105.382 11.0073
-0.701345 127.235 -12.965
3.13145 124.173 -14.1556
4.75196 116.98 17.4209
-12.1165 134.054 3.35989
-15.6338 138.308 -3.18525
-8.02255 132.977 -9.56869
-10.5582 135.194 -9.4975
9.05181 118.933 -12.3039
10.2158 117.846 -11.5285
-21.1509 141.541 5.69625
19.6349 106.901 4.08164
5.8556 121.803 -12.575
-0.542369 122.414 14.5255
5.04236 117.152 17.3174
-6.1598 128.042 10.3244
-1.66837 128.447 -12.5003
-2.19612 124.333 12.2786
1.70467 120.401 15.584
11.9234 116.59 -10.761
-19.0028 139.811 7.30574
-19.6794 141.677 0.366547
-8.36319 130.561 8.18535
-0.211235 122.444 14.3236
-9.70284 132.136 6.01568
-0.507918 122.837 13.8307
4.27913 118.354 16.0392
3.46574 124.638 -13.6602
5.71591 116.916 17.7928
5.97891 122.247 -12.2515
-18.7142 141.247 -0.22291
2.85155 125.327 -14.0338
19.6766 106.636 9.25771
3.89233 124.349 -13.3454
-20.7648 142.485 2.87205
-16.545 138.248 6.39342
17.4672 107.84 13.3216
-6.08803 128.813 9.33696
19.0803 108.501 2.66253
-11.7932 134.919 2.92693
-12.4116 137.308 -6.70081
1.38202 121.506 14.928
15.8646 113 -5.88656
-20.7502 142.428 4.76951
7.25677 121.659 -12.5754
11.1405 117.961 -10.4678
-9.92766 133.512 3.39133
20.323 107.121 6.03093
10.0526 113.974 16.6057
15.7523 113.655 -8.02688
12.7187 111.885 15.787
18.5114 109.655 1.10062
20.1231 107.215 7.01859
14.9045 114.683 -9.19599
-8.47206 134.81 -9.41883
18.3262 107.851 12.2871
12.7001 112.044 15.7136
17.0507 108.652 13.9951
19.3517 107.221 11.075
-9.96224 136.133 -9.25736
-0.323961 128.582 -12.9812
-2.67402 126.282 10.4314
8.03474 121.374 -12.5779
-1.13786 124.836 11.5156
19.6361 107.36 9.97725
18.4961 110.084 0.800309
15.8408 113.976 -7.43085
-12.962 138.492 -6.27645
16.2703 113.353 -5.41809
6.34245 123.027 -11.6557
-20.5245 143.06 4.73429
7.8434 121.999 -12.2956
17.1052 109.219 14.0152
-11.5869 135.779 3.46422
-6.09712 133.301 -8.56288
18.7212 110.266 1.12268
-6.07256 133.353 -8.54851
-13.1669 136.976 4.91161
9.8773 114.953 17.3402
-7.12396 131.558 6.54048
15.3211 115.249 -8.89434
6.0798 118.598 16.1238
6.82721 117.78 17.3018
-8.90828 133.754 3.91297
-12.2869 136.713 3.5808
-8.25165 133.019 4.98193
5.26485 119.603 15.2075
-4.22309 128.93 8.77906
-12.747 137.268 3.58097
-9.57355 134.741 2.76335
-1.22606 130.382 -12.3074
18.3016 109.111 12.4
18.5067 109.019 11.9477
0.347652 124.659 11.5503
6.3181 123.808 -11.3594
-19.9348 143.963 1.3864
-18.7041 143.167 0.071947
-14.958 140.816 -4.30221
17.5257 109.699 13.6335
10.0185 120.757 -11.2759
-4.66705 132.924 -8.98301
19.0931 110.629 1.61146
-8.28166 133.602 4.40755
-10.8311 136.084 2.81036
14.4847 112.186 14.8699
18.3004 109.389 12.4881
-9.90299 135.352 2.79356
-8.46255 136.45 -9.45444
17.8951 112.61 -2.24922
6.38491 124.181 -11.2563
-19.8093 144.285 1.55299
-18.7371 143.631 0.220906
10.1646 115.713 17.4247
6.97665 123.737 -11.0987
15.6578 115.912 -9.00262
17.8493 112.899 -2.72821
10.8566 115.318 16.6088
-18.2816 143.389 -0.156815
10.7078 115.433 16.8005
9.72413 121.571 -11.4782
-14.7706 141.225 -4.10953
18.3216 109.809 12.5739
-10.5369 138.174 -6.98894
1.79182 124.133 12.0347
19.3729 109.383 10.4615
-6.3524 132.067 7.02869
2.95596 123.058 12.7337
-9.51776 135.631 2.67674
5.46091 125.46 -11.6319
10.1632 121.375 -11.2018
-13.7982 138.838 5.48562
-13.9095 138.935 5.68253
-14.0315 140.911 -4.30082
8.56441 122.932 -11.6521
-3.16607 132.712 -10.1746
19.9597 110.047 5.32851
-13.7956 138.947 5.44427
8.71511 117.281 18.3613
-4.41237 133.588 -8.73476
-1.88826 128.038 9.6616
-4.1991 130.271 8.45422
-15.1863 141.795 -2.95335
-14.9999 141.564 -2.30825
-5.7585 131.746 8.04267
17.93 113.562 -3.23927
-4.61594 130.759 8.39982
1.0377 125.459 11.0052
-3.41218 133.104 -9.68223
-2.24234 128.586 9.39351
18.3746 110.333 12.6261
-19.7001 144.546 4.13266
-8.58586 137.486 -8.78467
4.92364 126.555 -11.9773
-7.84712 137.021 -9.1911
10.6881 116.262 17.2426
19.6281 110.252 8.32254
-9.95162 138.465 -7.17442
13.9307 118.665 -10.6692
-13.9062 139.531 5.47935
-13.4306 139.411 4.53998
7.84305 124.092 -11.0607
2.55886 128.877 -12.3078
6.26852 120.737 14.6554
2.61111 124.375 11.9821
-14.1131 139.85 5.80034
16.5435 115.413 -4.00111
10.2298 122.175 -10.9775
-17.2047 142.311 7.34391
-1.76967 132.505 -10.9541
15.7207 113.006 13.8714
17.6054 111.509 13.4779
3.16511 128.645 -12.1233
15.6183 116.915 -6.27943
7.16699 120.095 15.7097
16.1935 116.708 -7.75303
-15.6081 142.787 -1.35788
-13.7228 139.956 5.25634
15.3326 117.546 -8.1493
-15.246 142.987 -3.58727
2.10016 129.715 -12.0538
-10.4695 137.756 2.79712
-8.61839 136.051 3.63145
-19.1659 144.964 4.47182
15.4315 117.927 -9.59831
-12.4423 141.004 -4.81181
6.24382 126.164 -10.8615
18.6464 111.353 11.8098
2.67348 125.098 11.4994
18.6097 111.391 11.8934
5.16186 122.682 13.2391
-18.337 145.15 0.880914
18.9804 113.248 0.54317
0.078936 131.871 -12.4156
-16.3408 142.311 7.28889
15.2242 117.784 -6.31632
17.9831 114.675 -1.59528
6.33609 126.366 -10.8211
4.9215 127.746 -11.6252
19.7184 111.434 8.08352
19.6451 112.331 3.60741
-15.8143 143.526 -0.75469
-14.8527 141.363 6.7717
8.8086 119.149 17.6103
9.02782 124.29 -10.9681
16.9936 115.788 -1.88729
-0.484355 128.628 9.71572
2.79161 129.792 -11.7036
13.304 120.771 -11.4567
6.92747 121.443 14.5545
19.987 111.911 5.62009
11.7767 122.069 -11.0514
18.9927 113.61 1.28622
-3.68372 131.704 8.7456
10.6225 117.882 17.4093
4.09294 124.497 12.0871
-6.59025 137.475 -8.58744
-13.3758 140.76 5.25733
-16.0385 142.742 7.32708
18.1869 112.432 13.0306
19.4221 112.001 9.77727
6.90022 126.6 -11.0651
-14.0887 141.369 6.36576
-11.8825 141.525 -4.68375
20.0153 112.263 5.99886
-10.5534 138.978 3.17117
18.4929 112.501 11.7978
13.562 121.071 -11.6297
-18.1175 145.889 1.07783
-16.1582 144.54 -0.382146
16.8035 116.493 -1.34838
-9.94275 138.692 2.55734
-16.2544 143.295 7.17401
-9.75458 138.573 2.59667
10.6336 123.684 -11.2832
19.3601 112.371 9.79984
13.1928 116.762 14.9389
3.74851 125.49 11.5353
-11.5945 141.654 -4.72084
12.127 122.577 -11.4017
-7.12397 138.56 -8.54052
-2.86998 134.95 -8.47636
14.3815 120.648 -10.8727
17.6556 113.451 13.0558
-15.5258 144.509 -1.09905
-11.7621 141.943 -4.42819
1.90858 127.542 10.2158
-14.1413 143.809 -3.39608
-14.5688 144.189 -2.72753
6.23252 127.93 -10.8241
-3.8024 135.914 -7.5022
16.3546 114.95 12.724
10.7105 124.354 -11.63
17.7156 113.87 12.8121
15.1977 119.334 -4.83963
16.5529 117.488 -0.690823
17.0429 114.677 12.6088
-16.039 144.083 6.98342
15.0755 116.345 12.8838
10.2251 125.158 -11.8719
6.21969 124.039 12.9244
7.42312 127.529 -11.244
-16.9381 145.168 6.5099
-9.61611 139.668 2.74692
-8.68482 138.675 3.81763
-17.3767 146.712 0.702293
-7.7356 139.813 -6.61232
7.32716 127.87 -11.2182
-12.5262 141.942 4.91144
3.63739 131.192 -11.5358
15.2199 120.448 -6.99521
-4.98646 138.004 -8.24607
5.1362 129.826 -10.8735
10.6133 120.026 16.976
16.5969 115.775 12.3456
-7.05064 139.686 -7.24009
15.996 118.999 -2.11338
9.54072 126.397 -12.1845
-1.6666 132.056 9.15087
20.0809 114.009 5.99393
18.8455 114.068 11.4375
10.6744 120.1 16.9259
-15.0768 144.053 7.15231
16.0704 119.339 -2.50727
12.4704 124.182 -12.0054
19.3424 114.209 10.2941
-0.172842 134.693 -10.0453
16.1339 116.643 12.2793
15.3748 120.823 -6.44884
19.1073 115.784 3.5214
5.9805 129.751 -11.1877
16.8679 118.412 -0.0235393
13.1273 123.87 -11.9937
3.78415 127.872 10.4769
3.46012 132.249 -11.5393
15.0709 121.266 -5.79363
-4.25375 135.782 5.71045
8.91509 127.799 -11.8333
17.71 117.822 1.41559
19.8589 115.397 4.74792
16.172 117.208 12.0677
-8.56646 141.605 -5.22986
-1.91115 133.489 7.85419
13.7557 118.872 15.227
-1.79398 136.509 -8.01293
8.21702 123.917 13.8056
-13.6353 144.098 6.29279
-8.00646 139.755 3.70538
-13.6736 144.144 6.33908
-11.1958 144.134 -5.01092
4.3149 132.014 -11.2842
7.90063 124.395 13.4255
-6.16017 140.31 -7.27044
9.78321 127.586 -12.1866
17.0143 117.027 11.7311
-7.58132 139.304 5.24528
-10.8623 144.034 -5.0992
16.9808 119.404 -0.773271
-0.831303 132.888 9.06108
1.35011 131.011 9.28633
-12.6779 145.5 -4.00037
17.3013 116.961 11.618
-11.5039 144.674 -4.72028
11.2267 121.317 16.4673
-16.3839 147.6 2.25563
16.1267 117.96 11.9662
16.8001 117.475 11.6678
19.6709 115.38 9.77027
-15.2071 145.868 6.4976
-10.8633 142.637 3.93048
-11.8917 145.074 -4.46414
-11.1282 144.56 -4.89952
12.323 125.787 -11.9699
-1.42357 134.045 7.47649
0.234047 135.717 -9.24841
3.17987 129.764 9.85181
19.546 115.995 8.97504
-5.85628 138.293 6.12221
11.0869 121.919 16.4764
-0.572461 136.549 -8.49923
-6.93964 141.522 -5.59747
13.8964 119.83 15.3942
-8.47283 141.111 4.00686
-15.6498 146.99 5.55359
1.02731 135.696 -9.88341
14.0073 119.967 15.3424
17.3903 117.958 11.2216
14.9932 123.666 -8.21894
-12.2157 144.75 4.43962
19.4937 116.678 9.70202
14.8716 124.446 -10.8408
-14.2506 146.284 6.01082
-6.78129 140.23 4.72669
14.7938 119.936 14.6565
-4.43656 140.513 -7.50024
-11.9798 146.404 -4.10964
18.1055 119.579 1.59868
0.926182 136.33 -9.27888
-2.63416 136.577 6.03522
-11.3483 144.346 4.54517
1.17203 132.837 9.02023
-1.69161 138.287 -7.02199
5.36162 129 10.692
-6.49992 140.428 4.18245
-5.03615 141.213 -6.7441
-0.352025 137.478 -8.11191
4.76635 133.723 -11.3522
2.35479 135.882 -11.5787
15.2159 123.911 -6.08759
5.38055 133.338 -11.3755
19.4279 117.633 8.78626
-12.9442 146.182 4.92492
11.0684 123.674 15.4487
0.381119 134.076 8.8423
-8.61949 142.575 4.78691
-4.06897 140.943 -7.36505
-12.6377 147.459 -2.68521
9.57357 125.415 13.9603
-6.94764 141.303 4.61475
7.45081 132.105 -12.1091
12.6257 127.661 -11.9516
16.3584 122.982 -3.75874
-1.55742 136.395 6.80101
15.3987 125.022 -10.0912
17.7737 120.995 0.733813
-4.64646 139.264 6.10206
17.0507 122.01 -1.09149
17.7755 121.188 0.309142
-10.4277 146.473 -5.18591
14.3291 121.523 15.077
-14.8779 148.697 3.55689
-9.06576 143.577 4.40099
-11.0098 145.134 5.06689
5.03109 130.403 10.5127
-5.31942 140.409 4.49977
9.24802 131 -12.0794
-5.16082 142.208 -5.84293
-4.07309 141.476 -6.90068
-0.758208 136.139 6.7961
-7.67825 142.67 3.54997
-9.05885 143.744 4.18505
17.7209 119.606 10.6941
7.53778 128.099 11.9481
3.44501 132.038 9.67661
-9.82509 144.413 4.81093
10.5052 125.186 14.6057
-10.3454 144.859 5.17779
2.23994 133.41 8.96652
-14.6271 148.899 3.42155
9.72761 130.95 -11.939
8.52172 127.412 12.8777
18.7841 119.089 10.4024
-8.56849 143.899 3.17672
10.4975 125.473 14.5223
19.07 119.914 5.20819
-14.4352 149.04 2.97864
16.7757 123.097 -1.31752
-12.2122 146.802 4.93976
3.48093 136.339 -11.148
12.4704 123.649 15.9487
15.4832 125.398 -7.29557
6.63373 129.659 10.7222
17.7608 121.889 1.20573
15.6117 125.227 -6.69364
-7.60656 144.894 -5.44078
5.6863 130.577 10.4865
-3.59729 139.328 6.23259
17.7508 121.876 1.71697
15.1638 126.182 -9.50139
14.9774 126.17 -8.16
8.33369 128.129 12.3995
9.40478 131.737 -11.9131
-13.1151 149.263 -1.88322
15.0564 126.58 -8.93766
-1.40953 137.862 6.69213
17.8391 122.376 1.37358
-13.6142 149.607 -0.142734
19.3049 120.25 6.22139
8.42376 128.484 12.2199
-6.31864 144.455 -5.10731
2.77941 137.797 -10.9867
14.6053 127.843 -11.6842
14.8297 127.466 -10.407
0.9471 138.938 -8.01576
-2.02927 138.798 6.593
15.6487 126.429 -8.39934
14.6295 127.893 -11.5399
-0.919571 137.898 6.66765
4.51909 132.615 10.1982
-13.609 149.453 3.14357
14.96 127.28 -9.18951
-9.90197 147.831 -5.08208
17.6877 123.795 -2.88927
16.0266 125.607 -4.71152
17.7704 122.802 2.73409
-4.64421 142.38 1.23015
3.02551 134.372 9.1512
7.65429 134.299 -11.7312
12.6442 130.125 -12.0513
17.9045 124.229 -4.45796
-9.54565 147.872 -5.0627
-8.44493 146.967 -5.26144
18.8658 123.908 -7.07864
11.3275 131.235 -11.64
-8.60156 147.142 -5.24073
16.4073 125.23 -2.55663
1.61137 139.041 -8.37201
17.3515 121.918 11.4306
18.6993 124.265 -7.51109
18.6084 124.308 -7.03365
9.37749 133.103 -11.7286
15.3121 123.157 14.6496
19.2263 123.931 -7.60507
14.2225 129.003 -11.8479
16.3208 126.204 -6.34624
18.7587 124.387 -7.81461
16.7176 122.302 12.9527
20.0091 122.976 -5.58907
2.98726 138.503 -10.6907
18.8293 124.547 -8.2025
-11.4606 149.568 -3.17155
19.3204 124.115 -8.06879
-9.74455 148.406 -4.76793
18.4218 122.305 6.47613
-10.175 148.819 -4.37153
7.9674 134.606 -11.5592
15.7523 123.163 14.3552
5.63997 132.583 10.2994
20.2771 122.959 -5.40351
0.449245 140.253 -6.94091
16.5012 126.17 -4.83599
19.6777 121.066 8.07832
-0.272634 138.451 6.56831
9.26358 129.239 12.2447
3.26644 134.943 9.24634
20.4094 122.952 -5.30887
-3.95933 142.478 2.05568
2.80561 135.422 8.9395
9.68591 133.326 -11.6128
-4.86808 144.6 -5.03564
-7.19604 146.646 -5.26611
14.258 129.483 -11.8455
8.83506 134.133 -11.649
-1.65024 142.1 -6.11702
18.3914 123.973 -0.802279
17.1719 122.715 11.862
13.6718 125.22 14.7773
18.3997 124.163 -1.36607
16.6576 126.324 -4.68039
18.2289 124.425 -1.55452
18.3644 124.625 -3.04183
18.4524 122.857 6.3419
17.5693 126.387 -8.65584
-2.02854 140.605 5.27337
10.941 132.548 -11.2363
20.1817 123.375 -4.43229
17.7361 124.6 0.343158
20.3268 124.222 -9.22594
10.6204 128.321 13.7329
18.6612 125.046 -5.8184
4.12849 134.686 9.58118
8.68131 134.698 -11.5476
19.7414 121.323 9.55797
-5.009 145.173 -4.70229
18.6057 124.944 -4.62937
18.687 124.231 -0.766344
18.7591 122.673 7.39458
18.1698 125.99 -7.70086
5.61913 133.468 10.3496
15.2924 128.98 -10.1667
17.5776 124.444 3.82538
16.8983 126.501 -4.06952
-7.80091 146.474 2.47898
12.8039 131.431 -11.5789
-2.77041 141.785 4.62022
19.3632 124.093 -2.21151
17.6613 126.634 -8.04528
19.6695 123.79 -1.96338
17.2225 127.197 -9.01085
-11.487 150.608 -2.51076
17.361 127.017 -8.49534
-8.64371 147.202 3.14591
16.824 123.526 13.2649
14.478 125.353 14.2892
20.3254 124.35 -7.33337
19.1272 122.234 9.72004
19.2029 122.484 8.21368
16.7906 127.601 -8.10193
-8.10613 146.971 2.67779
17.5163 125.37 1.01455
17.4254 126.829 -6.38053
16.5817 128.03 -8.87461
13.6979 126.24 14.4294
17.0202 127.383 -6.55669
17.645 125.731 -0.396502
16.4962 128.099 -7.78883
18.1945 125.615 -2.18613
4.53877 135.195 9.38154
-2.85793 142.688 3.19749
3.26123 136.444 8.67253
-3.02132 143.227 1.26024
-9.87018 148.617 3.87658
18.6458 124.865 0.292644
16.7068 128.243 -8.93621
0.187054 139.714 5.69568
2.07955 137.981 6.3012
6.24502 133.669 10.3468
-11.7979 150.533 2.74381
15.7189 124.899 14.0104
-7.65032 148.456 -4.79128
20.2122 123.783 -0.375264
13.388 126.949 14.4711
16.2142 127.314 -0.595585
18.66 123.809 7.07545
13.612 131.565 -11.4527
16.2078 128.415 -6.38352
-10.4071 149.441 3.6236
16.8686 128.439 -8.99595
18.3995 123.689 10.139
16.7115 127.453 -2.38414
15.4459 125.508 14.0244
21.7279 124.278 -8.42149
3.01498 140.505 -9.34131
19.8908 124.548 -1.13064
16.0991 129.438 -9.88158
15.996 128.287 -3.15234
20.039 124.296 0.095729
0.94612 141.904 -6.56269
19.3625 123.273 9.41295
0.494799 140.193 5.37475
16.9918 128.738 -9.08554
15.4037 129.188 -4.00274
17.1228 127.262 -1.49228
2.33847 141.146 -8.00084
-2.96412 145.28 -5.66366
5.4243 139.151 -11.3583
8.38584 136.554 -10.9546
15.1235 129.84 -5.83699
-7.56666 149.081 -4.55507
10.1433 130.937 11.7561
20.9643 124.432 -2.90028
17.8269 126.51 0.458057
17.2928 126.608 2.47271
8.70155 132.52 10.4455
11.003 130.127 12.7393
15.2178 130.114 -6.33526
12.2949 128.789 14.3955
17.1051 124.855 13.3862
15.4896 129.036 -1.49693
20.7924 124.719 -2.66338
20.5021 124.636 -0.548501
19.1573 124.169 8.30442
5.57829 135.632 9.29784
2.31828 141.543 -7.53396
16.8427 127.969 -1.10937
-8.46142 148.961 2.79043
16.366 128.5 -1.50783
17.9232 126.207 3.7036
22.991 124.136 -8.46386
6.99133 134.436 10.1271
12.8124 128.673 14.3322
21.4743 125.737 -9.78164
18.2341 126.596 0.650928
17.7664 128.998 -9.58127
16.0821 128.602 0.384689
19.9474 127.246 -9.99725
17.5499 127.278 1.03959
15.0434 130.082 -2.4443
15.859 126.407 13.7734
19.0806 128.134 -10.1898
19.0288 124.529 9.58871
17.3408 128.278 -2.85105
17.8767 124.988 12.5607
18.0725 126.43 3.96283
8.09804 137.705 -10.7887
14.9417 127.384 13.823
17.4899 127.696 0.404797
-4.66697 147.595 -4.22937
20.6296 125.046 0.68067
-10.4969 151.433 2.22671
15.7967 130.745 -7.48139
14.7093 130.599 -1.59992
15.788 130.79 -7.43738
8.10068 138.01 -10.7044
-6.45305 149.327 -4.42331
18.2566 128.037 -3.65619
-2.56237 146.206 -5.27355
1.61684 142.857 -6.41219
18.1158 125.286 12.2896
15.7739 129.634 -0.0277668
15.0121 130.698 -2.06258
2.55918 139.951 5.64183
12.5937 134.369 -10.4162
15.0904 131.34 -5.58309
15.8388 129.689 -0.0301485
-5.81397 149.09 -4.35745
1.64896 143.119 -6.3172
4.52088 137.984 8.24186
16.3586 129.596 -0.649986
7.40959 139.194 -10.9222
17.1413 130.324 -7.84244
8.68826 134.239 10.2455
8.21787 134.67 10.1708
0.402748 144.32 -5.74354
14.6148 128.549 13.7224
17.0075 130.821 -9.64958
17.4848 128.348 1.63711
18.3921 126.993 5.07075
19.0345 125.92 7.89734
16.9662 128.975 0.993683
-9.87797 152.325 -0.845035
23.6986 125.13 -9.16251
-6.22296 149.954 -4.17905
3.62511 139.503 6.77419
17.7648 128.261 2.22447
19.3748 127.014 1.60054
5.58267 141.141 -10.7369
17.2102 130.398 -6.44345
13.3043 134.51 -10.3819
18.023 126.817 9.4082
12.2923 135.406 -10.1955
-0.561221 143.874 3.57339
17.7509 127.05 9.74059
-3.10395 147.538 -4.33763
7.46101 135.894 9.72954
20.4103 126.208 2.30142
15.7242 131.945 -6.71573
-2.08565 146.889 -4.92751
17.5863 128.686 2.42358
18.0939 127.164 8.38035
17.88 126.582 12.6052
16.9473 131.023 -6.94746
4.00709 139.539 7.01897
17.8569 130.474 -7.9398
13.3975 134.748 -10.3438
-0.390103 144.043 3.38377
17.8725 126.969 11.141
16.5493 131.806 -8.85426
17.2025 130.598 -5.25134
18.0708 126.645 12.4226
3.49908 140.357 5.9817
-9.26001 152.21 1.0754
16.1606 130.73 -0.53115
17.0816 129.503 1.86763
-0.734357 146.119 -5.42978
0.268092 143.451 4.38692
4.66286 139.091 7.72079
16.8809 131.501 -7.83172
8.97926 138.758 -10.439
17.8203 130.939 -8.98266
15.3077 132.918 -7.95816
23.3973 126.325 -9.71948
15.2559 132.968 -7.91128
15.6242 131.747 -2.84197
17.1289 130.821 -4.78274
21.9012 125.379 2.69035
9.14458 134.958 10.0558
-8.59636 152.369 -1.70404
16.325 132.206 -8.09644
7.32078 136.718 9.31391
-4.73137 149.526 -3.78754
23.829 126.106 -9.41913
15.6761 132.468 -5.95792
17.1899 131.317 -6.68057
5.47672 141.974 -9.9978
6.00488 141.647 -10.6362
1.62103 142.52 4.96623
-8.95398 152.377 0.854652
0.179876 143.976 4.0907
-0.983795 146.743 -5.0727
15.6219 133.137 -8.04152
11.3498 133.236 11.4833
15.4709 132.233 -2.15954
9.39529 135.194 10.0047
13.7251 130.861 13.6005
16.94 132.367 -8.44613
-7.7024 152.357 -2.26436
15.2191 134.052 -9.40981
17.4204 131.685 -6.78572
-2.66723 148.425 -4.11026
18.1719 131.362 -8.00523
13.7145 131.191 13.597
4.82579 140.045 7.07651
15.0682 134.325 -9.44075
15.3422 133.967 -8.35914
1.10742 145.664 -5.64154
17.5668 132.237 -9.13921
10.6816 134.604 10.2661
6.96647 141.746 -11.1573
17.6186 129.486 6.63779
17.9019 128.55 10.3877
15.865 132.991 -4.00268
15.8292 133.89 -8.41225
16.0259 132.577 -2.08088
8.50247 140.571 -10.4466
12.0609 137.403 -9.70677
22.4884 126.194 2.73102
15.916 133.056 -3.44739
7.73858 138.029 8.40023
10.3451 135.581 9.87511
8.67496 137.155 9.4288
16.839 133.68 -9.14812
-5.92812 152.08 -3.16009
8.24221 137.779 8.69186
22.8918 126.585 1.48287
-0.491536 147.789 -4.80179
15.8096 134.669 -9.14415
23.0488 127.676 -4.5643
23.2026 126.475 1.54239
18.8031 129.898 3.4911
3.59807 142.7 4.95603
19.0572 132.279 -10.2914
13.8018 136.663 -9.47654
4.22984 144.401 -6.91339
17.6521 130.997 3.6123
5.70881 143.516 -8.75278
11.3512 135.129 10.5334
17.2894 132.976 -4.71157
8.25044 138.401 8.18686
-1.34517 148.959 -4.27451
18.0216 129.611 10.9721
22.1359 127.515 3.2978
8.74207 141.618 -10.6999
16.9605 130.164 13.1859
11.1398 135.818 10.0315
23.8838 126.956 -0.73251
14.1315 137.051 -9.72207
5.85012 141.174 6.41441
-1.31618 149.29 -4.20157
16.9282 133.822 -5.05149
7.36887 139.733 7.32011
16.8516 133.763 -4.22271
16.7685 133.896 -4.39168
18.2171 132.843 -5.20849
7.21373 143.214 -10.3063
17.78 133.93 -8.95231
16.0561 131.33 13.3462
12.9722 138.4 -10.6072
4.91587 142.311 5.74042
16.9222 134.45 -7.18601
18.568 133.542 -9.08826
16.3961 135.328 -8.62605
19.9519 132.483 -9.67431
14.8707 136.935 -9.96628
25.0008 126.396 0.264223
16.5026 135.393 -8.69892
-0.899763 149.494 -4.24522
6.40585 141.324 6.44316
12.3531 135.372 11.1265
-0.302166 149.125 -4.46673
24.1582 128.002 -3.38194
12.7847 139.128 -10.8253
5.83186 144.514 -7.72536
9.08208 138.828 8.03087
18.0044 133.993 -6.77044
3.07874 144.653 4.75585
19.9826 132.904 -9.99089
9.44525 138.587 8.14776
23.9457 127.306 2.12003
-3.11784 151.523 -3.19749
23.1831 128.864 -2.31505
17.8288 130.845 11.858
15.0857 137.29 -10.2422
16.7291 133.15 4.68237
18.1958 131.065 9.21171
-2.23174 150.931 -3.56516
25.5503 126.421 0.34416
16.6277 133.158 5.40552
6.38633 141.821 6.24338
18.2096 131.508 7.25045
24.8493 127.289 -0.481886
6.05804 142.21 6.02516
6.27171 142.043 6.13193
-2.70036 151.506 -3.29872
24.7524 128.631 -6.75807
17.6653 135.251 -9.39632
25.3763 126.906 0.0550189
18.1354 131.417 9.45001
2.42756 147.643 -5.41462
13.5715 139.091 -10.7585
5.53221 142.978 5.61136
18.1285 131.847 7.53229
23.6121 130.33 -9.09938
25.7031 126.972 -0.348298
24.8815 127.655 -0.155863
18.9816 134.37 -9.05223
15.2655 137.856 -10.6269
6.08737 145.138 -7.41229
18.0355 132.304 6.79495
17.6753 135.528 -8.73132
21.7155 131.526 -5.39377
17.7842 131.911 10.9037
21.7073 131.882 -6.73608
9.14713 139.973 7.7119
17.4645 133.071 6.58246
24.2632 127.95 3.01409
17.5252 136.02 -8.71956
17.1121 132.518 12.2879
25.8896 127.581 -1.18279
24.4321 128.612 -0.00473726
23.5171 130.79 -7.38928
23.557 130.775 -7.46525
23.8615 128.801 1.99769
25.8791 127.735 -1.27127
-3.49963 153.16 -2.62287
20.768 133.611 -9.30697
24.669 129.568 -5.48185
7.89497 144.708 -9.58341
-2.11175 152.229 -3.2367
23.2817 129.327 3.1575
12.9518 136.747 10.9733
23.6573 130.076 -2.51228
6.91249 142.859 6.17649
5.70442 144.028 5.49225
22.1481 130.267 3.81255
24.9997 129.321 -3.92888
24.8412 129.506 -3.80406
7.23535 145.426 -8.28219
21.1575 131.363 3.27575
-4.55539 154.301 -1.62788
19.1115 132.973 4.13102
25.8166 128.226 -1.25918
22.3532 132.027 -5.48742
17.8376 132.772 11.4141
13.9377 136.337 11.4968
16.3004 138.485 -10.3436
23.0004 130.375 2.91942
26.2605 128.44 -1.26959
21.7375 133.423 -7.13058
19.2113 133.432 4.55792
20.5114 134.752 -8.21232
26.2406 128.544 -0.824182
10.0109 144.263 -10.0881
22.4032 132.993 -6.52186
8.62393 142.226 7.47541
4.57159 148.274 -6.06653
22.9491 132.425 -4.68046
23.7723 131.445 -3.15687
13.8828 141.167 -9.90958
11.9259 139.316 9.37493
19.9579 133.348 4.47859
23.7234 131.506 -2.95998
17.3244 138.004 -8.00102
7.86449 143.394 6.75583
22.7606 133.117 -6.64037
17.5332 134.291 11.5087
23.057 132.893 -6.26238
8.98874 142.365 7.71709
25.2195 130.319 -1.78171
11.175 144.032 -10.1275
13.6138 138.159 10.5263
23.1079 131.404 3.19364
13.4756 138.45 10.413
-2.4132 154.441 -1.93707
1.91364 151.287 -4.6521
3.37839 150.154 -5.27518
11.8548 140.325 8.83332
8.27211 143.75 7.01897
21.2193 133.387 3.32718
12.793 143.11 -10.1388
25.238 130.331 1.60572
18.1039 135.565 6.64672
14.5141 137.88 10.8908
7.37114 144.886 6.29327
10.6002 141.798 8.0427
22.9819 133.883 -6.17486
22.3379 132.818 3.19524
22.1324 133.031 3.2098
18.0417 135.451 9.09068
7.94064 144.595 6.6612
7.86577 144.699 6.60404
10.095 145.756 -9.3925
13.3147 139.456 10.0587
-0.12937 153.377 -2.86837
16.9108 136.107 11.6299
6.84326 145.885 5.76036
23.7302 132.128 2.49275
15.2914 137.855 11.1519
26.461 130.476 -0.457346
24.3971 132.509 -1.69307
23.9189 132.32 2.22181
4.71157 150.226 -5.56667
20.806 136.93 -7.53349
4.18031 150.844 -5.23951
23.8988 133.664 -3.61759
24.0788 132.788 0.606412
24.9109 132.58 -1.70854
18.5712 136.42 7.19324
16.4791 141.295 -9.39782
18.3965 136.416 8.18927
5.78033 149.891 -6.04268
19.9119 135.672 5.46598
16.3013 141.455 -8.71713
18.1292 136.663 9.17139
24.0796 133.169 0.648963
9.12762 144.942 6.72723
25.6521 132.053 -0.107026
18.0113 136.814 9.61743
14.2569 143.688 -9.65075
18.0852 137.272 7.50989
10.5352 143.762 7.46418
22.0238 136.79 -7.59866
13.5758 140.856 9.56369
16.1902 142.031 -8.8989
23.1046 133.978 2.83349
23.29 133.902 2.7822
24.0476 134.48 -3.64233
16.1863 142.251 -8.72188
17.6603 137.921 7.97679
3.09191 152.577 -3.66693
23.322 134.111 2.80645
8.91173 145.913 6.33582
24.6066 133.962 -1.73641
21.2137 135.629 5.08952
16.1993 142.599 -7.99143
20.9615 138.509 -7.28794
19.2175 137.582 5.96438
5.1093 151.73 -4.95766
25.4966 133.702 -1.70799
23.8984 134.503 2.09695
27.0106 132.369 -0.520146
5.11109 151.935 -4.66424
9.89355 148.409 -7.61543
20.4308 136.931 5.65605
23.7067 135.025 0.826804
24.1232 135.573 -4.03372
7.49921 150.242 -6.22069
23.9682 135.336 -1.84514
14.3636 141.44 9.8945
16.0229 143.318 -7.59754
17.6466 141.618 -5.77049
14.0239 141.911 9.57312
24.2047 134.929 0.214029
26.5109 133.381 -1.59084
25.5628 134.336 -1.59971
22.9242 137.399 -5.74615
11.1904 145.097 7.32396
20.9951 139.293 -6.56219
8.55627 147.7 5.83356
19.2705 140.719 -5.9651
13.4623 143.135 8.83225
26.7672 133.402 0.259612
20.9303 139.675 -6.03247
19.4832 138.71 6.07151
4.23301 153.419 -2.77856
24.9348 135.217 -0.213908
26.4979 134.031 -0.930466
24.2708 136.529 -3.8788
5.4677 152.603 -3.68392
14.6108 145.731 -8.25789
6.87304 150.01 4.51472
16.8736 140.575 9.78691
25.3654 135.177 -0.233016
16.4271 144.114 -5.91448
14.1911 143.261 9.13095
4.95577 153.396 -2.68413
21.6683 139.602 -5.45247
23.7123 137.757 -4.63948
5.65972 153.171 -2.87056
23.5991 136.875 2.36982
19.1259 141.998 -4.43965
23.3987 138.562 -5.06672
14.3382 143.758 8.87591
9.22871 148.75 5.71772
20.1302 141.303 -4.33274
17.1901 141.395 9.17977
25.5558 135.857 0.607821
25.6721 135.813 0.543652
11.9097 146.502 7.02598
14.1956 147.358 -7.93193
22.5749 139.602 -4.77624
11.6527 149.451 -7.2867
16.3033 145.14 -5.30243
23.4468 138.933 -4.82753
13.3164 148.272 -7.97754
7.73458 150.771 4.75509
15.3043 146.474 -6.94054
26.5405 135.616 -0.156659
8.8461 151.884 -5.49413
23.7435 138.952 -4.43375
22.5586 138.326 4.53978
18.8894 143.078 -4.09391
22.8971 139.768 -4.50483
14.7445 147.563 -7.1743
25.2908 137.556 -1.48138
12.2802 147.201 6.86404
7.37105 153.219 -2.30453
22.1175 140.882 -3.41848
23.9713 138.43 1.91732
20.2492 142.563 -3.15351
15.3525 144.698 8.44647
15.5814 147.255 -6.3265
13.6444 148.81 -5.63703
7.786 152.106 4.2926
24.6593 139.043 -3.10921
8.51147 152.991 -3.36983
16.3702 146.593 -5.0595
11.2945 148.977 5.71213
11.8904 148.439 6.16503
14.0031 148.853 -5.21228
26.0559 137.628 -0.143911
19.3971 142.05 7.34974
9.31163 152.728 -3.42875
25.92 137.756 0.915743
19.8501 143.874 -3.56235
8.03002 153.639 -1.49379
21.488 142.345 -2.58216
23.3234 140.851 -2.97081
20.2848 141.677 7.12893
25.14 138.97 -0.337046
22.7042 141.537 -2.26215
6.19166 155.311 -0.224424
7.76827 154.099 -0.916652
15.5399 145.899 7.53189
24.0562 139.844 2.25315
14.6922 149.229 -4.21545
15.5932 146.342 7.26424
12.2636 151.334 -3.83275
7.4321 154.763 0.441257
13.3583 148.75 5.68264
11.4939 150.499 5.07792
19.1472 145.659 -3.67955
24.1805 140.279 2.33378
18.6545 146.208 -3.69487
8.47199 154.293 -0.152143
23.0886 142.112 -1.59839
21.3968 142.178 6.65247
18.1885 146.902 -3.72742
23.0674 142.433 -1.50918
21.0386 142.687 6.60422
12.291 151.854 -2.37952
22.8662 141.336 5.54277
23.6843 141.996 -1.28189
20.5145 143.324 6.56979
19.9309 143.969 6.64594
12.3844 150.985 3.78752
9.80844 153.459 2.54397
14.8201 150.147 -2.62193
23.7189 142.272 -1.13311
23.8275 141.333 3.45344
14.5373 150.519 -2.98267
11.5184 152.646 -0.337079
21.7123 144.178 -1.65897
24.8537 141.18 0.515853
24.8261 141.523 -1.19467
13.1876 150.62 3.72562
9.52446 154.115 2.02157
11.536 152.391 2.17878
21.0373 145.034 -1.93784
13.5914 151.401 -1.21849
10.7034 153.493 1.1659
16.9543 147.172 6.70869
14.867 149.421 4.4204
21.1078 145.526 -1.79083
21.2265 143.959 6.32982
18.5915 146.137 6.81258
14.9244 150.223 3.10372
19.8865 146.876 -1.38002
