ply
format ascii 1.0
comment Created by Open3D
element vertex 1920
property double x
property double y
property double z
end_header
1.90924 122.182 -2.17155
-1.49602 130.244 7.41128
10.0305 100.976 16.7909
4.95339 113.747 14.7068
3.75429 116.84 10.2003
8.23429 105.373 16.5022
-3.25934 134.564 3.84369
4.99533 114.05 -2.03021
-3.098 134.305 -1.70349
6.43735 109.817 15.4748
-9.59259 150.584 -2.3533
3.61767 116.963 11.8322
10.6719 99.7098 -2.09437
10.4811 99.5458 16.887
11.125 98.4481 -0.72809
5.42571 112.631 2.16837
-1.57336 129.984 7.4983
-4.94484 138.58 2.90082
1.79539 121.79 -2.29331
0.299785 125.107 8.43728
1.81269 121.312 7.94268
-9.31163 149.584 -3.4106
3.51096 116.945 11.0399
-10.0374 151.289 -1.45819
-1.19277 128.802 7.436
4.32202 114.888 8.75436
-10.3298 151.909 -0.145623
12.4709 94.609 1.73172
5.23407 112.457 8.08742
-4.99873 138.505 -4.06063
6.65358 109.011 3.91645
3.45732 116.753 11.4476
6.51472 109.227 5.83244
12.7594 93.2193 15.7161
3.71148 115.979 12.6553
-4.13264 136.101 -2.8071
13.51 91.5488 4.97178
-10.0708 150.796 -1.97292
5.78338 110.887 2.50944
12.4321 94.1513 1.7367
10.6158 98.189 17.0627
7.48558 105.998 16.3426
5.98308 110.04 7.45973
4.55012 113.923 -1.92499
5.56567 111.181 2.38282
-1.6731 129.422 -1.56515
3.53144 115.954 10.9001
-1.4772 128.603 7.3485
11.1589 96.5485 17.1587
3.95469 114.805 9.39166
9.53152 101.191 -1.93849
-10.6556 151.656 -0.247101
7.43283 106.309 -1.45585
11.983 94.7435 1.39574
4.32408 113.486 14.4771
2.82724 117.564 4.20315
7.41088 105.652 16.3837
4.51281 113.202 2.32388
12.2476 93.4657 11.4843
1.34375 121.235 -2.94898
2.07329 118.981 7.60029
6.51263 107.826 4.8795
-6.91329 141.688 -4.87616
0.327573 123.438 -2.46809
0.828771 121.787 8.88429
10.1892 97.9771 17.0081
2.52749 117.527 6.28918
13.2503 90.6521 5.41649
-4.26578 134.62 3.66107
3.47152 114.902 12.9008
-0.0919119 124.298 -2.15603
4.85694 111.445 8.87295
-4.21079 134.342 3.91509
1.69514 119.35 8.29852
6.17201 108.29 2.9196
12.6079 92.1761 2.10249
12.7744 91.2565 14.8596
12.9495 91.0762 6.66945
-10.8748 150.972 1.32459
12.2366 92.3412 17.1698
3.00276 116.141 -2.16127
-6.29522 139.266 3.12278
6.9886 106.077 -1.66992
13.0092 90.4843 12.972
2.4382 117.173 6.35408
12.4965 91.6392 15.5882
-7.74157 142.811 2.46341
10.7386 96.5241 0.604354
6.38282 107.264 5.65391
13.0133 90.2764 14.6761
6.8372 106.307 -1.71133
-4.22126 134.039 -2.24239
2.51445 116.791 5.3997
6.31539 107.216 6.43241
12.0087 92.7885 10.5215
4.99347 110.73 -1.64306
-3.55228 131.924 5.01543
3.96002 113.136 2.4873
2.16133 117.768 -1.87186
-9.61109 147.317 -4.61557
-0.0157607 123.163 -2.40229
0.32165 121.905 8.89702
9.66919 98.0063 16.8312
4.22602 111.888 9.66474
12.4458 90.9622 16.408
-2.09686 128.007 -1.54823
5.90078 107.741 2.81313
5.79585 108.149 -1.78513
12.9399 89.7011 13.6274
-5.47621 136.184 2.36209
4.28633 111.614 2.32461
3.97702 112.116 9.93843
5.94838 107.238 7.66292
3.52434 113.162 10.3791
13.0571 89.3981 5.16161
-5.43032 136.048 -4.00801
-3.56021 131.25 -1.85157
11.2433 93.9935 0.794998
2.70346 115.304 3.82478
-5.54918 136.265 -4.15946
3.66032 112.689 10.1921
11.8286 92.2241 9.40355
7.21685 104.158 -2.2834
8.78021 100.224 -3.15189
-4.18529 132.697 -2.2735
4.49863 110.741 2.25394
3.61272 112.535 14.2459
-5.35679 135.401 2.66047
5.48936 107.725 15.4297
-5.38797 135.609 -3.85186
-6.09733 137.368 -4.95665
11.9244 91.6097 11.6086
-1.56487 125.86 -1.75132
4.20208 111.224 2.35546
-1.16356 124.784 -1.95355
8.22939 101.176 -3.0266
0.199536 121.247 -3.54911
-4.98598 133.993 4.01588
-9.50223 145.348 2.55707
1.4745 117.954 -2.86309
-10.0164 146.781 -4.60092
7.90142 101.782 -2.931
3.149 113.137 13.2173
12.4416 89.6374 16.3941
-0.804174 123.129 8.08401
-9.48355 145.322 -4.94033
10.5857 94.2351 17.2892
3.94412 111.357 2.44486
-4.45318 132.237 4.85911
-7.98259 141.367 -4.8746
12.199 90.5201 1.77269
-11.2478 149.248 3.42044
-11.4904 149.975 -1.6087
-1.62519 125.221 -1.89981
5.64821 106.632 8.24665
1.75092 116.712 -2.24134
9.17146 97.3771 16.7124
-5.91141 135.667 2.62024
1.35225 117.628 -2.87186
1.66185 116.812 -2.32848
-10.2448 146.485 3.1467
-11.781 150.452 -0.43816
11.7448 91.1613 8.33398
-9.50082 144.835 -4.92677
12.5698 88.874 12.9755
3.22538 112.36 11.0415
3.13998 112.519 11.5398
-9.22626 143.808 2.46666
11.6446 91.1951 8.46691
4.50172 109.308 2.23186
-11.4178 149.335 -2.41234
12.2586 89.4816 6.63665
6.85466 102.659 16.4989
1.45185 116.425 8.52542
3.12642 112.355 2.75938
-8.45138 141.386 2.76746
4.19728 109.818 -2.04268
-2.02289 125.058 7.20019
4.32975 109.434 -2.0166
-8.41598 141.231 2.83026
9.11898 96.7866 16.7403
-6.54636 136.811 -5.53306
6.8638 103.087 -3.374
3.98059 109.658 15.0806
-2.04964 124.877 7.18545
9.72959 95.0045 17.0888
2.96162 112.079 12.7194
3.89101 110.04 2.46228
4.0806 109.708 -2.14263
-1.66853 124.116 -2.11437
2.73327 113.057 -2.34025
-4.45566 130.813 5.50257
-1.31368 122.837 7.73994
-6.72339 136.831 -5.78791
11.2352 91.2465 9.97747
11.8626 89.8752 1.46583
4.73656 107.215 15.1907
3.70332 110.224 2.53009
4.25915 108.799 2.31553
1.54973 115.364 8.19937
3.99753 109.56 -2.25293
-1.55306 123.127 7.58091
-9.07693 142.16 2.34845
-11.7709 148.849 3.83529
4.30733 108.154 15.0335
-2.70122 125.96 6.77439
3.93647 109.456 2.40591
-3.66118 128.341 6.72047
11.2289 91.1996 0.670413
1.43087 115.773 -2.75324
1.62491 115.281 -2.66887
6.08151 103.823 3.53444
6.13087 103.651 4.60234
-12.0491 149.356 -1.34109
6.73792 102.195 -3.88453
3.85445 109.387 -2.97299
11.0482 90.7989 9.75538
5.02953 105.881 8.84684
-5.69118 132.797 4.8079
3.55864 109.247 14.8875
-12.5453 150.03 1.07676
3.15986 110.755 -2.72998
-1.95506 123.556 -2.21485
7.00239 101.098 -4.22122
2.66069 111.708 3.24995
3.47821 109.33 11.2951
7.31172 100.134 -4.00462
3.09444 109.993 13.974
9.57003 93.6463 16.9933
7.69828 98.3535 16.5272
6.86023 101.097 -4.3582
5.55387 103.993 6.23493
11.1856 90.0372 0.720132
-8.98058 140.771 -4.97918
-8.41692 139.379 -5.70423
11.7478 88.1982 12.5748
2.00326 113.099 -3.08996
-10.0727 143.422 -4.80549
9.42756 94.3365 0.286729
6.21186 102.558 -4.50771
12.3089 86.566 16.2857
1.89682 113.311 -3.17768
-7.76331 137.544 -6.52155
5.41139 104.164 3.11585
4.39937 106.261 15.34
-3.64113 126.993 -1.92055
0.854766 115.764 -3.72899
6.05076 102.427 4.41192
-12.0833 147.861 4.27005
3.21301 109.221 11.8895
2.30608 112.008 -3.8527
-3.26084 125.494 7.54456
-8.86298 139.635 2.5105
-6.89539 134.976 -5.90842
1.73568 113.205 -4.3567
8.29546 96.0288 16.8679
2.64817 110.611 2.92925
2.89458 109.615 13.9971
-1.06926 120.121 -3.89078
5.71856 102.425 16.1909
5.82526 102.476 4.91214
-3.63303 126.024 7.67864
13.0182 83.9722 15.3904
2.77755 109.524 12.4464
-2.39084 122.579 8.02812
-9.22563 139.785 2.53461
6.76524 99.1905 16.58
-5.24192 129.65 6.01318
-11.6807 146.114 -3.66474
10.8878 88.8141 16.6051
-4.96058 129.182 -2.53322
3.49135 107.473 12.3267
-13.0236 149.265 0.654047
12.2197 85.3935 16.3512
-10.2587 142.185 3.3406
11.0625 88.688 2.56777
10.8868 88.9193 8.19578
4.34127 104.939 15.7509
5.81916 101.586 4.70904
-9.17089 139.253 2.37104
-2.24679 121.978 -2.31726
11.8692 85.9206 16.7364
-6.05859 131.24 5.11601
4.07614 105.897 2.38876
-6.8473 133.159 4.21143
7.3509 97.7437 -3.26858
4.05649 105.811 2.4016
3.10545 107.757 14.4921
-9.14117 138.744 2.52104
0.23487 115.474 -4.97192
-4.42276 126.486 7.97423
9.24448 92.4769 -0.218403
12.0526 84.9287 14.3927
7.86449 95.8376 -2.47882
4.48644 104.042 2.70942
3.13472 107.098 12.3936
-12.096 145.481 4.70356
-11.7037 144.729 -4.0643
-1.20503 117.914 9.29792
-13.2255 148.213 4.23737
3.71738 106.024 -5.63843
8.15431 94.0722 16.8701
-0.52142 116.547 -5.00599
-12.8295 147.031 4.83415
8.00613 94.9975 -1.79876
-7.44546 133.397 3.78467
-13.594 148.708 3.98541
-11.1421 142.488 4.22408
5.30278 101.095 4.81311
-7.11327 132.447 -4.75226
-6.49875 130.83 -3.92274
-10.4403 140.47 3.19174
12.2363 83.1402 15.5864
10.3066 88.0973 11.8055
12.2835 82.9904 13.1105
5.26496 100.501 15.7525
1.01833 111.802 -5.07719
6.07793 98.3934 16.5127
-8.09825 134.349 3.72936
2.13912 108.596 5.01295
-12.7916 146.258 -2.54013
-1.03199 116.745 -5.05781
-10.8702 141.361 -4.23574
-11.2036 141.868 4.25801
-0.919578 115.863 9.90087
2.00867 109.02 -5.31214
-8.73369 136.007 -7.01564
-7.09025 131.483 4.99158
10.0176 88.6793 0.997223
2.99258 105.983 10.3779
-10.32 139.59 3.07028
-5.833 128.206 6.29101
0.312409 112.637 9.12469
5.23586 99.9546 15.7269
-9.64585 137.673 2.81618
2.39328 107.412 3.70698
9.91151 88.6495 0.502192
-13.5692 147.349 4.84428
11.9858 82.9328 12.5118
-4.16772 123.903 -2.0657
1.73392 109.194 -5.30926
-10.2232 138.884 3.09916
-10.8301 140.654 -4.55281
-4.15128 123.716 -2.06982
-0.60606 114.416 9.71075
-12.4913 144.618 -3.35936
-12.8853 145.309 5.05805
-12.9148 145.626 -2.67756
8.62503 91.5309 -0.841813
3.50904 103.724 14.9446
10.2171 87.0912 9.01964
7.8179 93.4249 -1.03251
11.4727 83.7924 12.6527
9.98955 87.6212 9.23566
6.8331 95.2035 16.6101
9.85916 87.8458 9.3695
-6.91413 130.358 -4.33808
-5.72876 126.937 8.69898
1.97348 107.723 5.64923
-12.2896 143.511 4.92552
9.88312 87.7588 9.35072
0.446758 111.429 8.76828
-6.21076 128.535 -3.54937
-5.27551 126.129 -2.51664
-13.6875 147.146 -0.704185
4.20432 101.925 6.40383
0.338909 111.985 -5.25366
3.44121 103.938 2.45372
9.9789 87.3039 9.28932
6.78336 95.7222 -3.0974
10.7182 85.0652 16.5345
-6.23871 127.874 7.84549
-8.41518 133.438 3.86765
-4.66723 124.181 -2.39132
0.252005 111.405 8.94011
-8.64151 133.868 3.92674
11.9282 81.9046 12.9251
-7.99114 132.471 -6.01382
2.61668 105.462 3.56425
10.0855 86.6743 3.97397
-1.32641 115.307 -5.16453
-10.7381 138.91 -5.47627
-10.8326 138.82 4.22368
11.4401 82.71 10.9609
-3.18026 119.834 -2.93004
-3.61218 120.518 8.99886
2.82661 104.84 -5.33113
6.91825 94.3525 -2.53001
9.1595 88.0727 15.6496
-5.25366 124.403 9.44946
8.53081 89.6112 15.3942
-7.7457 131.07 -5.43414
-2.78489 118.564 -3.48132
9.82645 86.4994 9.58165
11.3672 82.4186 15.8495
5.02229 98.2708 16.2804
3.2589 103.318 -4.59662
-10.956 138.985 -5.44414
3.90711 101.301 5.95884
1.11599 108.223 7.83768
-4.90538 123.177 9.56448
1.70733 107.088 -5.85104
-14.4114 147.123 4.95723
-5.6918 124.972 9.54156
2.20406 105.1 10.3518
-11.9413 140.716 4.81337
10.4448 84.4224 9.09627
6.66439 93.651 16.3358
9.89188 85.7771 6.74278
-11.8007 140.464 -4.20689
-14.8218 147.785 1.7878
9.74121 85.8231 11.5835
3.20527 102.079 14.715
-2.58058 117.209 -4.10036
5.79091 96.181 -3.39085
9.4622 86.2297 15.9504
1.16999 107.668 -5.64198
-14.8231 147.411 4.57421
-5.35922 123.904 -2.89778
-6.89889 127.378 8.49994
6.44698 94.2802 -2.83713
-8.10902 130.761 -5.70324
0.0205237 109.885 8.8935
9.81717 85.2702 10.2163
1.67891 105.721 6.74975
7.25528 91.9858 -1.26451
9.7819 85.3606 6.2812
-13.9758 145.076 0.274908
5.86148 94.7834 16.3959
-0.633739 111.197 9.41228
-14.6823 146.636 1.27373
-12.8851 141.947 5.2516
-0.700815 111.247 9.44611
7.66667 90.5794 -1.50938
-10.1016 135.301 -6.82796
6.2795 94.057 -2.84913
4.85122 96.9697 16.3956
9.46169 85.3822 16.0425
-9.87184 134.249 4.16965
5.02077 97.0154 -3.87189
7.10264 91.1276 15.589
-1.61968 113.636 -5.56303
-14.0438 144.314 6.80478
2.61092 102.329 12.9693
-7.04708 126.677 8.65914
9.1673 85.9367 10.7701
8.95004 86.726 3.35253
6.63314 92.7002 -1.61667
9.7183 84.2035 11.1052
-5.16018 121.539 9.70975
-9.33409 132.555 -7.47058
-2.76754 115.989 -4.57793
-1.1376 111.412 9.58211
5.181 95.9586 -3.66018
-8.44292 130.125 -5.78711
8.33853 87.7546 2.44617
11.462 79.488 15.0216
-1.61511 112.936 -5.71458
-5.39282 121.816 9.70353
9.6725 83.9436 11.2024
-15.1589 146.409 2.09334
3.20578 99.8131 15.1531
-10.4311 134.364 4.22934
9.2 84.9235 10.4651
8.81115 86.1486 2.79162
-12.7419 140.424 -3.9967
8.2687 87.5467 -0.623256
2.79756 101.014 3.79909
5.28802 94.2994 16.3313
8.48017 86.7448 2.6126
-2.16224 113.641 -5.60819
-9.85563 132.521 4.99463
4.08347 97.5525 4.49628
5.1807 95.053 -3.56101
-7.50231 126.804 -4.04399
2.39614 101.555 7.07194
8.59355 86.0568 5.55341
4.10175 97.3536 4.42555
-15.872 147.476 3.28715
8.10575 87.3594 2.81961
4.21062 97.0686 4.27491
9.34365 83.9261 12.2018
-7.57518 126.359 8.52654
8.30704 86.6618 4.26985
-3.97612 117.258 9.95696
8.51981 86.0592 4.97729
-8.91648 130.153 -6.20726
-7.39544 125.838 8.77182
10.2997 81.2079 16.1942
0.817203 105.221 7.20355
2.0086 102.067 11.9999
9.49081 83.2766 11.4138
10.6939 80.1322 11.4861
-4.42251 118.069 9.73696
-7.27503 125.644 -3.85881
9.9591 81.7916 14.1562
-4.47239 118.545 -2.97345
1.43222 103.253 10.9904
3.6147 97.9642 4.89954
8.15381 86.6093 2.35086
-12.7431 138.913 5.24888
10.1618 81.2355 10.2933
10.7749 79.5202 12.1517
-16.0963 147.182 3.50079
-10.5575 133.196 5.35688
-10.7845 134.12 -6.35657
4.7822 94.9692 -3.76747
3.39115 98.1549 5.09015
-7.33357 124.885 9.48683
-1.46994 110.097 9.46077
2.80389 99.7989 -4.16248
-12.1104 137.207 -5.46445
2.75166 99.5974 3.17332
2.95323 99.2937 -4.18182
9.96307 81.2384 9.74194
7.91305 86.5936 2.15626
-13.8173 141.255 -3.56888
-10.1344 132.165 -8.01689
-16.2987 147.104 4.13829
1.5441 102.322 3.10295
-4.11489 116.269 10.2018
2.46234 99.9904 3.36752
-15.7361 145.543 5.90549
9.10506 83.0413 11.433
1.16934 103.48 -5.67333
0.807531 104.35 -6.57341
-2.81329 112.862 9.78225
7.74662 86.1374 15.9803
-1.70819 110.571 -5.86906
2.33612 100.353 -4.03899
-14.1668 141.703 -3.41318
-3.04456 113.849 -5.05755
-9.46898 129.553 6.92123
-11.1132 133.678 5.62678
-9.83751 130.407 6.74664
2.96424 98.092 12.5147
6.94344 88.3813 1.92613
9.15453 82.5695 8.45351
-15.1354 143.731 -0.0337616
9.84971 80.5927 12.6155
1.00381 102.853 9.40354
0.815986 103.386 7.27754
7.40275 86.9466 4.22557
4.86113 93.5607 -3.48697
6.80714 88.4991 0.954433
-10.0047 130.433 6.6383
-8.30057 126.054 8.79589
6.02574 90.2446 1.80351
-14.6045 141.792 6.6498
-9.54472 129.526 -6.43306
-1.5835 109 9.29
7.63209 85.9074 8.42067
6.98388 87.3065 13.7401
4.52719 94.0236 -3.74786
-11.0149 132.597 5.97884
6.04986 89.8173 2.13611
7.89895 85.1614 2.24072
6.94812 87.4908 3.66979
-8.05046 125.358 -4.65579
-6.89964 122.382 -3.55017
5.67615 90.7549 -2.30717
0.73272 102.867 5.12602
-15.5523 143.827 0.228464
-12.3836 135.643 6.63121
8.00417 84.3879 10.207
-12.9786 137.059 6.27223
7.97505 84.224 13.9909
7.95159 84.2035 15.1827
-15.2859 142.983 -0.20425
-12.6813 136.578 -4.76917
6.93378 87.1361 1.22057
9.56751 80.1435 11.4382
-14.394 140.58 -1.50731
2.70612 97.4642 5.39698
5.40462 90.5684 7.09881
7.09323 86.389 5.33759
-4.36814 114.975 10.0164
4.62006 92.4445 9.63274
7.09371 86.3786 5.35697
6.00511 89.1087 5.1142
-9.68359 128.828 -6.15867
5.97186 89.1718 5.3345
6.42274 87.7767 11.9301
-5.05841 117.067 -3.45424
6.09436 88.7735 4.25832
6.07724 88.8055 4.48077
7.11073 85.9671 10.6412
6.50581 87.346 14.3612
-9.70177 128.618 -6.06269
4.49149 92.5325 8.39038
5.63898 89.7047 6.77922
7.83595 84.1691 7.34518
-4.58576 115.622 -3.65571
4.94709 91.2392 10.4473
6.97889 86.2458 6.80583
5.53 89.8586 7.30159
9.43405 79.7954 14.6584
-11.1541 131.697 6.43981
7.72088 84.2315 10.1597
-12.0112 133.842 5.96571
7.54829 84.6364 10.4164
6.96515 86.25 5.69115
-16.7273 145.751 2.64534
-15.2094 142.015 -0.340655
-2.8617 111.231 -5.96159
0.601701 102.005 9.62435
7.68586 84.1812 10.3816
2.22131 97.8108 11.7261
-12.7364 135.846 -4.71666
-1.92626 108.79 -6.63946
7.37766 84.8881 10.3601
4.36407 92.3432 13.0437
4.32986 92.4072 13.4653
6.01478 88.5265 -1.99473
3.7762 93.8277 5.77848
-9.88145 128.389 -6.13539
2.08951 97.7776 11.5492
5.94945 88.064 12.4096
0.382301 102.274 4.77847
3.57402 93.8618 15.1873
6.47582 86.7289 10.628
7.54258 84.0602 10.1642
-13.4005 136.636 7.28124
-5.42147 116.985 -3.6431
2.51518 97.0465 -3.99356
3.88754 93.0275 11.977
-16.4278 144.316 1.03398
6.43782 86.6453 10.4877
0.547577 101.411 9.28483
4.25614 92.2529 4.32285
1.11956 100.139 3.17207
7.97962 82.6904 9.59578
-15.1792 140.808 7.48231
5.69277 88.2357 12.5133
7.30595 84.272 10.0157
-11.7851 132.565 -6.02661
1.35853 99.2458 2.77154
5.81765 87.8304 7.78733
6.95849 85.0879 2.61487
0.478973 101.134 8.51302
-16.7826 144.644 1.47759
-0.649789 104.452 -6.896
-2.36034 108.724 -6.5387
-7.74931 122.094 -3.86513
6.97984 84.6772 9.86558
0.108026 102.409 -6.0683
8.11072 81.7218 9.62523
3.20174 93.7882 14.416
2.56008 95.5535 9.41739
7.55161 83.0122 9.91718
-8.19807 122.501 9.54119
-10.9887 129.431 7.51458
3.55704 93.0148 5.57223
3.68027 92.2578 14.9843
6.26318 86.1844 1.94638
0.889251 99.8416 -3.94929
-12.912 134.425 -4.38759
-4.13982 111.942 9.49909
2.93559 94.0333 13.5081
2.6096 95.0346 7.57166
-17.4947 145.596 2.73753
-2.04214 106.637 8.65163
-13.8802 136.739 -4.06978
4.26055 90.6214 14.4504
2.11922 96.1338 9.61798
-13.8689 136.616 -4.01675
5.84985 86.7801 7.29686
2.29153 95.5085 10.1311
2.65785 94.8481 2.32128
2.96758 93.6589 13.9573
7.08463 83.5324 7.77729
0.203525 100.896 4.01354
5.84441 86.5689 7.2579
5.05147 88.326 13.4787
4.7945 88.9988 12.5374
-10.0991 126.958 -6.11191
5.60047 87.321 1.67367
0.245293 100.469 9.54741
-11.7521 130.631 6.54863
-17.6235 145.439 2.83609
6.50075 84.9202 1.89064
-3.94282 111.346 -5.34046
4.06516 90.6642 12.2493
-9.04922 123.612 9.97077
0.194585 100.407 7.49131
4.52392 89.867 -3.01396
-3.82395 110.377 9.65169
2.24503 95.0076 12.8455
4.80851 88.5235 13.7257
2.64827 93.9399 12.9209
3.10901 92.9163 6.06033
0.125484 100.249 9.07566
-12.9049 133.332 -4.32233
5.707 86.3758 2.8022
4.56149 88.8753 13.4567
-1.68167 104.62 7.87003
-6.51774 117.126 -4.09076
4.21607 90.1647 -3.2113
4.65164 88.5825 10.5925
0.423209 99.4073 2.91673
5.6618 86.1777 4.3403
8.04967 79.9541 10.2479
-15.4627 138.737 7.39391
1.78133 95.3325 12.1428
-2.24657 106.039 -7.03899
1.54962 95.8044 12.5662
1.34045 96.3296 11.5752
-1.87049 104.888 -7.16669
-11.107 127.493 8.23594
2.10438 94.4041 4.71059
-6.57701 116.454 -4.24754
-11.4445 128.786 -8.04241
-4.26566 110.667 -5.35772
0.0631826 99.335 8.38225
-6.79649 116.426 9.92706
1.14232 96.6162 5.9498
6.03337 84.3686 4.92433
1.65498 95.5747 -3.82979
4.67018 87.7141 2.59027
-4.84049 111.801 -4.95948
-18.0859 144.667 5.03994
1.80694 94.8385 2.30051
-9.11067 122.379 -4.45443
0.758837 97.173 9.1914
-2.55405 105.416 8.37098
-6.70947 115.782 9.81074
-13.5533 133.016 6.94453
2.62755 92.4525 6.21187
5.30098 85.6727 3.49751
-0.418561 99.8379 7.50602
0.736407 96.89 8.90828
-16.8093 141.165 -0.516948
-11.9408 128.678 7.60921
-9.03886 121.784 -4.48743
5.76409 84.4542 1.25907
-6.07632 113.817 9.54837
-4.62664 110.13 9.66333
2.31034 92.9361 2.71889
-4.15978 109.414 -5.81256
-11.0047 126.51 -6.73505
-9.26865 121.573 9.55705
3.92918 88.8235 -2.59557
3.57766 89.5091 3.13844
-3.91827 108.071 9.60177
0.511955 96.8006 11.4525
-14.6248 135.216 -3.29411
-0.654109 99.8125 5.36786
-1.7236 102.893 -7.41586
-14.4023 134.541 -3.36517
2.1856 92.6508 2.1917
0.264882 97.1781 10.4338
4.10331 87.7949 2.93871
-17.7852 142.557 6.74849
-10.5946 124.382 10.0873
-1.23987 100.986 7.32679
-14.4469 134.012 7.78653
0.93708 95.4882 5.51739
5.07937 85.2302 1.07271
-0.0666703 97.8243 9.93091
-13.2013 130.825 6.99426
0.398539 96.8256 2.61686
1.94054 92.8744 3.25607
3.88463 87.8863 2.92902
-14.5987 134.053 7.76821
2.11943 92.3046 2.0058
-2.17112 103.337 -7.51259
-0.717975 99.5062 -5.12383
-10.4847 123.116 10.0027
-1.41076 100.385 7.80157
-0.947289 99.6457 -5.46038
-0.392294 97.8316 6.77074
-13.1138 130.033 -6.06384
5.14907 83.814 5.81691
5.23211 83.73 1.74799
-10.0564 122.282 -5.01226
-0.809889 98.5849 8.44661
-9.559 120.453 9.59628
-12.2222 127.165 7.42283
1.86634 91.9214 4.033
-16.3295 137.405 7.54773
-1.06269 99.4473 -5.39257
1.94344 91.6004 3.77026
1.68236 92.2245 4.20451
-1.91158 101.563 -7.37092
-13.1088 129.617 -6.72708
-13.0922 129.53 -7.34204
1.71579 91.9515 4.12723
-5.77394 110.41 9.59842
-14.2534 132.103 -3.93527
2.01453 91.3039 -3.95972
-2.5921 102.339 8.34854
-1.51761 100.058 -6.31743
1.60866 91.8428 4.04644
4.42322 84.7457 4.1958
-1.44358 99.7931 -6.02814
4.4633 84.6557 1.27721
-2.68569 102.283 8.36352
-18.764 142.652 6.22923
0.000731516 95.6614 2.89059
-9.21297 118.53 9.64854
-16.4023 136.571 7.49298
-12.7605 127.91 -7.66793
-0.556507 96.7703 7.27807
4.52983 84.0455 6.29986
1.20339 92.4096 3.80274
-8.87246 118.002 -5.98674
0.776265 93.7176 -3.915
-9.00733 117.584 9.90296
4.97811 82.5285 7.83314
3.31431 86.9725 -0.403144
2.04415 89.9982 4.26658
2.58378 88.6905 2.64801
-6.78699 112.421 -5.20655
-19.1767 143.127 4.9634
-18.2618 140.712 7.30487
0.977769 92.5497 3.77287
-0.00698224 94.8462 8.33168
-0.347715 95.7073 7.87989
-7.32052 113.118 9.34477
3.49523 86.0471 6.46514
1.75786 90.4806 3.20931
3.09708 87.261 -1.25892
-0.62953 96.4273 3.78837
-8.22965 115.281 9.48859
3.87867 85.1328 2.56949
-1.40065 98.5191 -4.8056
-0.929226 97.189 -3.6004
-17.6772 139.083 -1.48059
-10.0993 119.697 9.59201
3.18852 86.4947 5.76828
-12.8772 126.694 6.56377
-9.20975 117.912 -6.23858
-16.6996 136.183 7.58304
-0.326772 95.0957 6.59337
-1.76839 98.6656 7.91048
0.0503684 94.4677 -3.66259
0.0498698 94.1371 2.68206
-12.5127 125.397 9.40475
-2.2148 99.4727 8.88466
-0.0627637 94.482 -3.62306
-15.7582 133.797 -2.41701
1.56069 90.0543 4.20174
0.57164 92.55 2.30509
4.24556 83.3283 2.45403
1.82392 89.5878 -3.38097
3.0271 86.2963 4.22189
1.05646 91.2867 1.68092
-12.8586 125.884 7.91377
-0.345368 94.5008 5.83315
0.954424 91.5012 -3.88377
-1.94463 98.8084 -5.62606
0.383981 92.691 2.69717
3.45915 84.9003 4.90916
0.949005 91.2788 1.34725
-13.9538 128.875 -6.04368
-15.9133 133.567 -2.17158
0.638606 91.8683 2.98014
2.23629 88.0187 -2.29535
-13.3562 127.271 -7.06252
2.52989 87.0886 2.72878
0.513659 92.1379 1.98095
2.70616 86.527 4.92531
-13.0766 126.037 6.65536
1.63228 89.1934 1.85907
2.77137 86.179 5.91967
1.07094 90.7326 -3.88825
-19.397 141.81 0.991773
-10.5788 119.321 9.68732
-12.3166 123.485 10.2713
0.679429 91.1385 2.30275
0.0602277 92.6792 2.12485
3.17414 84.8799 1.57007
-9.5366 117.022 -6.54435
-17.1805 135.983 -1.9796
-10.9024 119.844 9.80581
-9.27136 115.713 9.59948
-19.68 142.079 1.65386
2.92703 85.368 1.28146
-15.2306 130.71 6.86702
-18.9484 140.266 -0.200544
-0.501199 93.7499 7.03496
2.03003 87.6807 -2.05839
1.3344 89.2372 3.00864
-10.4007 118.977 -6.3559
3.1742 84.5597 3.73708
0.0207644 92.4342 2.43706
-9.74696 116.664 9.7068
3.12941 84.5974 2.03571
2.34909 86.6255 -0.254438
-11.3266 121.106 -5.99789
-5.86333 107.409 -6.52974
0.710786 90.5721 3.43867
-0.17077 92.7926 2.74545
-11.8864 121.895 10.5148
-9.90889 117.456 -6.78142
2.4014 86.2505 2.50065
-16.2841 133.232 -1.85
-12.8966 124.344 9.22774
-19.3322 140.736 0.358459
-0.33852 93.0084 3.09915
0.340875 91.2965 2.45684
-13.062 124.689 8.90986
-14.9693 129.528 7.17273
-19.8239 141.68 1.47872
-2.15092 97.1204 7.63948
0.787029 89.9705 1.01838
1.26604 88.8112 -0.278741
-7.11139 109.985 -6.16703
-6.22526 107.703 -6.43147
-7.2062 110.117 -6.16659
2.66129 85.0029 4.16246
-0.321394 92.4268 4.76367
-0.76802 93.5263 5.37824
2.00177 86.7647 -1.01237
-8.13208 112.314 -6.03412
-4.24028 102.061 8.50402
-0.668879 93.2481 3.08513
-10.2133 117.478 -7.0033
-3.58942 100.295 9.50341
-17.5099 135.526 -1.9762
-0.35095 92.2637 2.67873
-14.1331 126.698 5.9615
-2.4298 97.6856 -4.55344
-15.9406 131.495 -3.15449
-11.5337 120.545 -6.52352
2.54956 84.9566 1.11993
2.16167 85.6177 6.11439
1.89419 86.4534 0.0093811
-14.9762 128.543 5.84063
0.652099 89.4908 1.4977
-7.63287 109.963 9.50749
-19.2051 139.289 -0.33727
-6.0123 106.396 -7.03483
1.30197 87.8082 -0.197688
-14.8125 127.967 6.21432
-1.35369 94.1949 4.91114
0.0407024 90.7505 2.525
-0.568443 92.2094 2.8944
-0.190029 91.3876 -3.66634
1.70529 86.4844 -0.324011
1.63008 86.655 -1.09404
-0.172806 91.0671 1.85362
-13.6499 124.628 6.97591
-4.46059 102 -8.10098
-7.93667 110.037 9.50396
-3.0418 97.7477 9.52712
-6.39952 106.711 -7.02621
-6.4697 106.197 9.331
-20.5181 141.626 2.85186
-14.0226 125.67 -7.20308
-15.4125 128.977 -5.52922
2.14594 84.7184 1.1935
0.120192 89.5581 0.882415
-0.197309 90.1182 1.41537
-13.4505 123.054 9.03548
-14.3083 125.735 -7.43078
-15.6109 128.924 -5.1465
-0.269332 90.058 5.56439
2.16542 83.9958 2.82611
-14.5753 126.265 -6.84637
-1.67742 93.4698 4.69886
-16.6399 131.123 -1.4198
-12.7694 121.558 -7.45614
-8.1004 109.825 -6.87469
-6.20922 104.489 8.91869
-3.06686 97.0299 -4.21181
-15.4786 127.884 -6.0581
-10.6494 115.777 -7.46665
1.10929 86.0115 0.644816
0.937147 86.4 -0.541042
-1.66497 92.689 4.03402
-17.7374 132.861 6.01793
-18.2161 134.353 -2.84231
-3.05716 95.9091 9.4057
-10.0581 113.34 10.033
-2.46686 94.7291 -3.32416
-3.62154 97.675 -5.80777
-12.9479 120.504 10.8664
-0.960773 90.6755 3.55327
-0.727332 90.0501 3.51536
-4.70906 99.7792 9.71644
-9.78848 112.31 10.1098
-17.9718 132.947 5.88566
-17.4263 131.881 -3.29801
-19.4968 136.696 7.65967
-8.2115 108.824 -7.15779
-0.558633 89.2467 3.00988
-9.61209 112.204 -7.19033
-1.0747 90.6406 -3.37683
-14.7689 125.116 -7.76268
-6.34995 103.443 8.92557
-7.50618 106.862 -7.23559
-0.116508 88.1404 -2.76863
-12.7469 119.963 -7.66701
-11.6107 117.046 -7.82331
-12.217 117.967 10.1284
0.934348 85.237 0.534012
-20.9609 139.872 5.89909
-18.2257 133.262 -3.9909
-9.58054 111.654 -7.15369
-12.4062 118.732 -7.7894
-4.40992 98.5233 -7.51462
-7.1999 104.957 9.0541
0.947485 84.7069 3.0476
-2.95381 94.341 7.35197
-1.46229 90.5351 5.51036
-1.74549 91.4728 -3.25751
-1.69348 90.938 6.87573
-21.1177 139.645 5.85707
-6.88108 103.769 9.07662
-19.2552 134.866 6.88981
-0.619222 88.1485 5.19866
-1.45632 90.2244 5.06565
1.21515 83.6452 1.27503
-4.82191 98.4658 10.3258
-14.7975 123.512 8.05584
-16.4918 128.167 -4.20908
-15.3512 124.93 6.063
-20.2585 137.352 -0.194041
-19.7988 136.202 -1.77984
-1.85572 90.9145 6.85261
-20.5172 137.803 0.0959416
-19.3922 134.682 6.52128
-13.2824 119.785 -7.88517
-19.1959 134.005 5.92322
-12.0101 115.853 9.79099
-3.23471 94.2579 -3.28618
-14.6543 122.434 9.64746
-15.2664 123.85 7.45145
-15.7457 125.53 -6.95998
-19.3168 134.333 -3.61914
-14.3417 121.973 -7.63661
-20.7027 137.415 7.18652
-0.961657 88.0355 3.1816
-1.29107 88.7048 1.66567
-0.349873 86.1318 5.28196
-10.0456 110.841 -7.42225
-17.2411 128.394 6.9655
-7.37434 103.557 9.19396
-21.8109 139.892 3.21728
-5.73703 99.9357 -8.2583
-1.87882 90.0765 -3.31658
-4.45603 96.5446 -4.87205
-17.8998 130.121 -1.44188
-4.65546 96.5073 10.4587
-7.49546 103.635 9.20465
-5.16078 98.3346 -8.05016
-14.953 122.248 9.56473
-4.12603 95.0089 10.138
-14.2721 120.421 9.6958
-21.7704 139.397 2.86528
-17.1848 128.055 -3.75016
-9.83766 109.677 -7.64593
-8.41494 106.085 -7.94531
-11.7301 114.41 -8.31868
-16.1185 124.923 5.6599
-13.0312 117.626 -8.10965
-16.1084 125.279 -6.67567
-19.1347 132.747 -3.66554
-12.4348 116.042 -8.42989
-6.47409 101.063 -8.5629
0.054701 84.3124 0.875777
-2.32871 90.0569 7.59168
-14.11 119.48 9.931
-17.8218 129.161 -2.00688
-4.13365 94.4202 9.75886
-14.3048 119.859 9.6732
0.463975 82.9916 3.5212
0.931416 81.8557 2.25865
-20.2271 135.067 -3.35016
-2.43627 89.8768 7.82644
-20.5259 135.297 6.08588
-9.12242 106.58 9.64222
-14.4299 119.867 9.55231
-20.4115 135.254 -2.71445
-7.80288 103.798 -8.47414
-13.9077 118.452 10.4973
-3.87043 93.3938 7.0206
-4.73657 95.3297 10.5261
-4.33163 94.2858 9.96547
-6.97193 100.884 9.48896
-1.28921 86.9581 -2.28466
-21.6889 137.92 1.99865
-11.5709 112.813 -8.17666
-2.91863 90.5351 5.62059
-14.6921 119.882 9.37865
-12.3091 113.868 9.85478
-1.31161 86.442 4.66903
-18.7569 130.421 -3.75136
-18.4292 129.208 7.38718
-16.8231 125.598 -5.54769
-1.37327 86.4933 5.10588
-18.6852 130.19 -3.91005
-1.54775 86.9815 2.96351
-12.7729 115.47 -8.69835
-16.7182 125.154 -6.66618
-6.73741 99.5455 9.89825
-17.8153 127.754 -3.59044
-4.64857 94.7151 -3.82363
-1.3049 86.2084 -0.429273
-16.2527 123.405 7.6705
-8.0169 102.672 9.43621
-0.314462 83.6306 0.822615
-11.8335 112.203 10.0151
-8.43472 104.117 -8.73899
-2.21037 87.9791 6.59771
-17.7197 127.193 -3.96738
-1.69306 86.6396 6.54176
-10.1835 108.389 -8.21209
-8.62285 103.7 9.6018
-18.0089 127.619 -3.34095
0.309565 81.4064 3.36591
-6.12413 97.2207 10.6458
-3.88017 91.5195 6.86165
-17.1749 124.9 5.05753
-1.5657 85.8803 -1.22382
-15.5579 121.168 -7.4976
-5.97934 97.1093 -6.75699
-10.584 108.058 10.6584
-18.3348 127.963 -3.56455
-9.40276 105.03 9.92258
-18.0057 127.018 -3.88859
-12.2027 112.52 -8.64797
-7.67754 101.147 -8.60942
-12.0831 112.161 -8.59114
-12.4601 112.477 9.88007
-21.759 136.023 0.0733637
-4.44586 92.3005 7.77842
-0.548555 82.6825 -0.194338
-18.4163 127.578 -3.03984
-18.5382 127.824 -3.12467
-12.5162 112.904 -8.8758
-3.61881 89.928 9.0936
-15.5556 120.39 -7.68069
-15.0895 119.209 -8.03387
-17.9589 126.117 -2.93304
-12.3663 112.256 -8.7881
-14.0224 115.722 10.547
-7.73559 100.528 -8.38043
-20.8435 132.791 5.27751
-1.85227 85.2907 0.549921
-2.12558 86.0177 -0.933671
-18.3749 126.752 -2.67761
-3.22756 88.7112 -3.2735
-20.7467 132.598 -3.6162
-19.2907 128.865 -4.49852
-7.19678 98.6087 -8.17333
-18.7124 126.897 8.01251
-19.7641 129.416 7.64065
-1.65319 84.2618 -1.04414
-10.3678 106.377 -9.11855
-0.617642 81.3546 3.34368
-18.6875 126.841 -2.5286
-6.29398 95.3197 10.5259
-14.857 117.402 -8.08897
-22.178 135.18 6.31498
-9.42449 103.039 10.1819
-17.2121 122.958 -5.68252
-18.8079 126.805 -2.48765
-11.4398 107.839 10.8653
-17.8464 124.464 -5.94989
-7.79838 99.2305 -8.35721
-8.53192 100.399 10.0751
-2.70522 85.8624 7.68329
-19.6895 128.417 8.21402
-21.2067 132.592 -3.66922
-14.003 114.027 10.5706
-10.1813 105.01 -9.28795
-11.322 107.191 10.8674
-22.7395 135.867 6.21404
-20.6606 130.543 6.01128
-18.6166 125.372 6.70688
-17.9038 123.941 -6.32382
-2.15079 84.1694 -1.37036
-0.479526 79.9005 0.916839
-17.9293 123.279 6.91712
-15.0605 115.975 9.95527
-18.4928 124.962 -2.5767
-20.7745 130.387 6.04536
-20.0424 128.409 8.10247
-17.8291 122.882 6.8857
-20.2154 129.187 -4.82077
-23.4896 137.082 3.63894
-4.88951 90.2176 9.9753
-12.7991 110.675 -9.13721
-21.3857 131.675 4.86005
-18.2978 124.091 -2.05361
-22.912 135.581 0.314975
-8.11292 98.1242 10.6196
-21.1462 131.283 -4.41063
-19.0123 125.89 -3.89455
-18.9902 125.488 6.33266
-18.2369 123.885 -3.19817
-20.7878 129.857 6.87893
-8.15744 98.0468 10.6269
-18.7868 125.098 -2.65009
-15.6974 116.854 8.95435
-19.1564 125.828 -3.36801
-17.9616 122.875 -5.68118
-10.7252 104.847 -9.2675
-20.4615 128.671 7.81153
-5.73701 92.1056 -3.29726
-2.7251 84.4656 -1.62085
-16.2087 118.472 -7.97355
-4.3843 88.6226 -2.74599
-18.6749 124.396 -1.1459
-23.3381 135.985 1.71916
-6.34851 93.0477 11.3654
-19.1856 125.702 -2.56183
-6.96311 95.1791 -7.15173
-3.16944 85.1425 4.30296
-6.35582 93.4043 -4.99298
-22.3328 133.351 -2.19391
-19.3134 125.794 -2.79536
-19.2857 125.723 -2.74335
-1.55197 81.019 3.00976
-19.6812 126.673 -3.05521
-19.3249 125.447 5.20048
-5.87253 91.5015 11.1188
-8.69756 99.2413 -8.81739
-22.5851 133.812 -1.39295
-21.0823 129.809 5.36227
-11.9921 106.702 10.8276
-3.15797 84.8123 2.44518
-18.8379 124.166 -1.81666
-15.8714 116.193 7.88669
-23.1532 134.663 0.50624
-20.2993 127.261 6.69094
-8.96866 99.3652 -8.89756
-20.1173 126.696 7.76453
-18.2805 122.434 -5.21701
-9.01756 99.2693 -8.94712
-20.8902 128.478 6.41222
-16.7758 118.034 8.0216
-17.616 120.15 7.03064
-19.7176 125.693 -1.89617
-18.7368 123.181 -3.72515
-20.7674 128.292 -4.47083
-20.4176 127.011 6.52759
-12.1029 106.7 -9.72026
-18.4729 122.406 -5.17824
-2.51002 82.1545 0.5756
-22.9441 133.246 5.13348
-10.5326 102.553 -8.8335
-19.2645 123.957 5.23012
-5.96096 90.4033 10.7755
-1.92386 80.5582 1.7221
-5.85926 90.5514 -3.25075
-20.2242 126.157 6.88621
-21.3021 128.914 5.16068
-3.70403 84.7665 4.27648
-19.9225 125.355 6.03567
-18.8597 123.035 -4.7523
-10.5591 101.666 11.1137
-24.0358 135.627 5.21815
-20.8009 127.402 7.49402
-23.4563 134.126 5.27767
-21.8913 130.409 -2.51195
-12.3476 105.974 10.8087
-16.0807 115.455 6.89655
-4.47011 86.6496 -2.46824
-2.74266 82.2095 -0.155338
-5.84041 90.0178 -3.17598
-19.079 122.886 6.46076
-2.50825 81.4761 0.966659
-23.0718 133.069 0.0707654
-4.97308 87.3483 9.83319
-7.67064 94.018 11.3802
-18.5687 121.754 -2.91877
-17.1922 118.434 -8.07293
-23.9755 135.023 3.72481
-16.9184 117.13 7.30058
-19.7294 124.434 -2.5575
-12.2363 105.185 10.802
-15.9739 114.674 7.00493
-17.3663 118.134 7.64019
-15.6225 113.675 9.68234
-20.6794 126.79 -3.45205
-4.99505 87.3782 -2.27022
-10.6546 101.77 -8.90946
-15.8281 114.117 9.31911
-7.88146 94.6773 -7.03905
-18.4701 120.75 5.58128
-19.5093 123.5 0.366661
-7.15905 92.7426 -6.17328
-21.1602 127.358 7.82576
-3.94121 84.2967 2.73052
-14.7202 110.984 10.4714
-11.1752 102.736 -8.96886
-20.9357 126.693 6.34819
-7.37457 92.4992 10.9065
-7.96882 93.9385 11.4148
-20.0311 124.289 7.67803
-4.04184 84.2588 5.46238
-19.383 122.952 -1.54914
-14.1579 109.434 10.4171
-22.2231 129.812 4.90547
-19.8176 123.972 -2.11037
-17.1007 116.804 6.94198
-20.5748 125.71 -2.4183
-7.24263 91.8265 10.7296
-22.1959 129.772 -4.03748
-16.6431 115.499 6.24679
-9.33723 96.9607 11.0903
-20.1891 124.598 -1.8032
-20.0274 123.848 7.89207
-20.5635 125.15 8.06972
-23.6474 132.992 4.7558
-2.56401 80.1799 1.64877
-16.5434 115.074 5.47126
-23.0382 131.38 4.55091
-3.42562 82.3812 -1.30351
-12.791 105.453 10.7702
-2.80512 80.7019 0.535452
-15.9413 113.935 -9.25061
-24.4659 134.801 5.14453
-15.6346 112.518 9.18009
-19.2665 121.975 -1.42614
-18.4415 120.038 -5.69015
-18.6086 120.49 -6.80303
-21.1277 126.318 6.40088
-19.3148 121.888 0.496148
-18.38 119.227 6.55321
-19.6879 122.749 -1.14072
-23.0359 131.131 -1.30744
-22.7769 130.39 -1.64858
-19.0526 120.823 4.7665
-20.2794 124.117 -2.55789
-10.9026 100.82 -9.1338
-14.3567 108.815 10.1836
-23.0746 130.855 4.66479
-19.4532 121.956 -1.9735
-20.6744 125.037 -2.82611
-2.60871 79.5224 1.94249
-21.6077 126.989 6.60693
-23.2395 131.197 -1.09554
-7.57241 92.0252 -5.9914
-6.3842 88.942 -2.97204
-23.5695 131.927 -0.0386008
-7.36526 91.4114 -4.46688
-2.72769 79.5299 1.559
-11.6872 101.68 10.9292
-20.3364 123.792 -1.92529
-10.8414 100.213 -9.29853
-19.9887 122.696 3.57633
-19.3361 121.195 -1.00944
-4.99976 85.2509 -1.81253
-4.27968 83.3298 -0.592479
-19.6991 122.106 -4.50695
-20.7687 124.421 6.2887
-4.479 83.4773 7.10741
-7.45448 90.8398 9.80462
-4.18792 82.9898 -0.907626
-24.2428 133.095 4.67811
-4.54811 83.8248 0.492371
-20.1311 122.661 5.68537
-16.5571 113.676 6.30525
-20.6622 124.263 -2.61711
-18.8261 119.365 5.89516
-21.7589 126.955 -3.22598
-6.66841 89.0785 -3.29448
-20.8307 124.558 -2.35225
-20.2098 122.784 3.65086
-8.44022 93.6054 -7.21271
-18.1234 117.36 5.93501
-8.04887 91.8861 10.2615
-12.3513 102.521 10.6671
-8.01229 91.6432 10.078
-19.3495 120.454 -3.12825
-8.55411 92.9192 10.4867
-18.4321 118.275 -8.29076
-22.8265 129.078 -1.82145
-20.2638 122.591 -0.0664491
-21.3261 125.052 5.85308
-20.4355 123.031 -0.614142
-15.2604 110.332 -9.64525
-4.29061 82.5367 -1.15027
-2.82379 78.8181 -0.199091
-21.0423 124.188 8.15637
-15.7232 110.783 9.54892
-20.3737 122.461 4.08477
-4.88986 83.4754 7.97338
-22.8141 128.493 5.57289
-22.3072 127.116 6.63735
-8.10338 91.3415 9.53801
-25.0037 133.868 4.88639
-14.2089 106.604 10.0324
-7.75007 90.4044 8.85549
-17.9382 116.036 5.49494
-11.9143 100.749 10.7084
-19.9167 121.077 2.17477
-14.8771 108.829 -9.58491
-16.9793 113.563 4.85714
-19.1128 119.195 -4.10158
-17.1119 113.915 3.63446
-11.4049 99.3495 10.9363
-10.1466 96.1984 10.4883
-20.4196 122.107 5.66147
-22.6873 128.105 -3.89697
-8.02573 90.8502 9.01194
-13.9935 105.761 10.1215
-5.24979 83.8366 8.21309
-9.39436 94.7045 -7.59635
-18.6669 117.96 -8.34991
-25.1027 133.581 4.51026
-9.90459 95.8899 -8.1766
-22.6938 127.709 -2.48387
-20.8455 123.06 -2.27739
-13.3584 104.501 -9.8633
-23.1434 128.747 -3.06182
-3.27365 78.8848 -2.67002
-20.6882 122.387 1.36639
-20.8294 122.587 5.53827
-20.5727 121.851 6.94694
-20.3568 121.403 3.19513
-20.0596 120.892 -4.10776
-22.6122 127.111 -1.89561
-20.8784 122.519 4.52352
-20.2858 121.253 -3.43149
-20.3983 121.553 -4.00465
-24.7066 132.016 4.59077
-22.8288 127.23 6.59402
-20.4625 121.415 1.84004
-16.7736 111.967 6.72538
-14.8878 107.751 -9.38488
-23.6693 129.433 0.0598902
-19.8864 119.928 -1.72362
-17.8832 114.685 3.89531
-21.0179 122.608 1.44099
-16.114 109.984 8.95943
-18.7904 117.228 -8.33248
-21.6966 123.93 6.45557
-21.3022 123.003 4.34029
-20.6075 121.279 2.94073
-18.9638 117.081 3.99581
-6.84299 86.5128 8.91345
-20.7044 121.501 1.64694
-8.62302 91.4873 -7.35566
-11.0209 96.9224 9.88251
-23.5264 128.303 5.95952
-21.4288 123.031 6.17067
-13.5499 103.093 10.2364
-7.58992 88.1392 9.14294
-9.95713 94.0451 9.34576
-20.6277 121.037 2.00531
-8.72218 90.9091 8.00069
-23.415 127.802 6.26635
-20.697 121.101 1.34256
-21.3339 122.382 7.7181
-5.39227 82.7177 -2.09423
-15.3866 107.402 9.24492
-8.51051 90.5941 -5.97316
-20.6736 120.757 2.00103
-3.96294 78.9734 -2.80711
-18.7109 116.04 -8.3698
-20.7803 120.82 3.19412
-4.01138 78.8925 -2.29262
-12.9 101.391 -10.001
-21.5405 122.393 7.77032
-21.7443 122.96 4.13986
-21.8428 123.162 5.31639
-9.10124 91.6217 -7.85576
-24.2894 129.245 5.64858
-20.9471 121.004 1.21798
-19.8823 118.409 -2.36593
-21.0342 121.114 3.0204
-10.4886 94.43 8.83078
-23.4372 126.818 7.10611
-21.5376 122.067 3.7064
-12.2449 98.5322 9.88771
-18.0864 113.399 2.61861
-22.1631 123.503 4.70108
-21.3512 121.523 2.98024
-17.065 110.645 6.4622
-8.4471 89.3944 -4.95802
-21.4697 121.766 2.16528
-15.2519 105.894 9.12966
-12.3251 98.4776 9.80529
-11.4415 96.8856 -9.4915
-15.5007 106.434 8.8279
-10.1841 93.6428 -7.84687
-16.3791 108.639 7.99757
-22.2475 123.631 -0.512154
-18.7429 114.707 3.01275
-20.7013 119.564 2.0121
-21.1122 120.511 2.82502
-24.7931 129.644 2.03848
-9.43844 90.8796 7.28349
-22.2237 122.957 6.83265
-25.2495 130.676 2.01921
-6.03931 82.5642 -1.35308
-9.99576 92.1578 7.55422
-13.0095 99.6153 9.87581
-21.5043 121.078 3.84701
-16.9263 109.484 7.02862
-21.0091 119.859 2.59926
-20.1646 117.855 -1.41062
-21.8041 121.729 3.31494
-11.4568 95.5968 8.67425
-23.8297 126.902 -0.555176
-12.274 97.5246 9.30006
-7.30273 85.0316 8.59523
-25.7605 131.452 3.29438
-23.9336 126.958 -1.15455
-25.588 130.964 2.57853
-7.23681 85.0578 -1.55776
-21.5598 120.629 3.10799
-23.3948 125.308 -1.13105
-21.3044 119.904 2.77331
-7.30305 84.4473 8.52144
-5.79385 81.0027 -2.3847
-25.569 130.257 5.08037
-5.08918 79.1586 -3.32817
-24.122 126.728 -0.296154
-8.52964 87.2947 8.08428
-13.3436 99.9468 -10.2694
-7.31511 84.1987 8.44341
-15.7239 105.232 8.18383
-24.4158 127.285 -2.2563
-21.0822 118.802 0.752857
-22.8767 122.958 5.26035
-6.28213 81.2014 7.52729
-6.55486 82.0546 1.02863
-14.3975 101.418 9.07961
-14.0545 101.196 -10.1365
-12.1425 96.3843 -9.65378
-20.4391 117.027 -6.57297
-11.4355 93.9524 7.48843
-16.8827 108.124 -9.69854
-24.1138 125.677 7.23857
-9.28816 88.4792 7.33518
-18.4798 111.937 -8.87988
-19.2498 113.492 1.61926
-20.9136 117.623 1.65729
-25.2586 128.443 2.90152
-25.4036 128.781 3.11482
-20.4499 116.64 -5.49972
-11.4755 94.2226 -8.49875
-6.54347 81.4733 2.16791
-25.6295 129.278 3.18426
-18.9961 112.613 1.86963
-23.0279 122.587 5.77344
-9.60094 88.8609 6.92934
-19.0001 112.545 1.8689
-22.6704 121.837 -2.23065
-6.44621 80.8619 6.20814
-6.89454 81.8223 7.68314
-22.3545 120.616 3.38295
-17.1204 107.885 -9.71327
-18.7019 111.72 -8.72892
-6.70321 81.2378 2.14929
-13.0435 96.8545 8.29203
-17.8044 109.369 -9.21315
-9.69769 88.9466 -6.51763
-25.0528 127.208 -2.13832
-20.5215 115.852 -4.73659
-8.83477 86.0959 7.86069
-22.3935 120.22 2.42291
-24.4462 125.216 6.91971
-19.3304 112.821 -8.09795
-8.42299 85.1068 -2.74989
-24.9322 126.181 6.36234
-13.0673 96.9322 -10.1054
-8.49845 85.1393 -2.84889
-12.7396 95.9189 -9.7349
-10.7692 90.437 6.20128
-6.90003 80.8492 2.37621
-19.9339 113.784 -7.57136
-6.94689 80.8408 2.21668
-16.16 104.341 -9.78091
-16.8087 105.324 6.58468
-25.6176 127.57 -0.767629
-7.25851 81.4755 0.577047
-6.72927 80.2302 -2.84891
-6.24509 79.0135 -4.06683
-6.30106 79.1149 -3.37563
-23.333 121.688 -0.549996
-24.011 123.199 5.03821
-20.9657 115.607 0.75432
-13.9486 97.7111 8.18749
-11.9558 93.2313 -9.03527
-24.385 123.787 6.85297
-7.37077 81.4605 -4.06887
-17.1041 106.024 -9.35253
-15.7405 102.005 7.93086
-23.9135 122.56 4.57925
-19.0708 110.495 1.14715
-19.2605 111.281 -8.34757
-7.1456 80.4588 2.41971
-13.7541 97.4124 -10.3263
-22.9337 119.979 1.98657
-9.26592 85.4533 7.83058
-7.28812 80.7595 -3.65035
-8.70484 83.8634 7.97941
-18.5201 108.689 1.38784
-26.4883 128.573 4.18913
-20.0339 112.658 -7.48301
-18.8227 109.215 0.321608
-23.9657 122.092 0.13451
-23.9862 122.068 1.58931
-21.1195 115.012 -2.8771
-19.5011 111.118 -8.18291
-18.6941 109.066 -8.29483
-25.0692 124.535 6.14649
-26.1372 127.239 4.88612
-17.7079 106.522 -9.34829
-24.0812 121.935 1.20275
-23.2975 119.938 1.31039
-7.96678 81.2988 6.90532
-7.1083 79.163 6.32911
-15.4348 99.9503 7.73151
-8.66469 83.3105 -2.48163
-17.7366 106.27 -9.27664
-23.8259 120.968 5.88689
-12.9902 93.7448 6.49835
-24.8296 123.315 6.25922
-7.57681 80.1778 1.85251
-20.9919 114.085 -6.23218
-7.75433 80.6361 0.919475
-14.8925 98.8872 -9.97803
-18.247 107.248 -8.59049
-21.1827 114.433 -4.16362
-11.1764 89.4938 -8.91778
-7.46741 79.6246 6.41732
-7.14169 78.7785 6.01176
-11.5325 89.712 5.57479
-25.2955 124.198 5.84144
-24.2707 121.569 4.59201
-25.0052 123.555 -1.39489
-24.2774 121.575 3.16706
-8.15247 81.3587 -4.29059
-18.8655 108.015 1.61325
-21.0195 113.454 0.0321344
-19.4309 109.468 -0.0445511
-24.7236 122.431 4.22786
-25.1201 123.361 5.93406
-18.6256 107.485 -7.89471
-7.90983 80.3168 -4.53935
-17.1475 103.086 6.46562
-15.652 99.7496 -10.0502
-19.0823 107.975 0.671395
-24.4057 121.095 4.99946
-24.4092 121.144 1.71837
-11.5572 89.2085 -9.05902
-19.2847 108.437 -7.70393
-19.4334 108.5 -0.989935
-24.4982 121.065 2.47598
-15.1375 97.4195 6.85399
-21.5774 113.943 -4.82562
-24.6085 121.257 3.79095
-16.0222 99.613 7.02125
-15.5332 98.8455 -9.75337
-7.43275 77.9896 5.74597
-10.3963 85.7727 -6.25136
-7.5889 78.2384 5.86941
-14.8144 96.8632 -9.94816
-8.24471 80.2078 -4.83543
-18.8948 106.625 3.58193
-18.3312 105.628 -9.1133
-20.1081 109.79 -0.41753
-9.97848 84.4352 -3.78994
-12.37 90.1033 4.9779
-10.4719 85.2672 7.12966
-9.79755 83.4987 7.43063
-15.8674 98.7311 6.83573
-24.7506 121.074 3.88937
-10.5521 85.7593 -6.30934
-12.5317 90.2573 4.88835
-12.8356 90.9282 4.97799
-19.1002 106.985 -7.51695
-17.6587 102.92 5.85332
-24.8553 120.97 5.09566
-25.6472 122.886 5.04882
-17.184 102.048 -9.50839
-20.9829 111.273 -0.618503
-21.9156 113.552 -2.78166
-9.91291 83.0271 7.31096
-25.9578 123.285 1.08737
-24.8858 120.5 2.49099
-16.765 100.467 -9.87536
-17.51 101.808 5.90292
-21.0107 110.797 -0.886292
-20.4814 109.662 -7.22661
-24.9163 120.417 2.3469
-21.1164 111.143 -6.05938
-11.1903 85.7453 6.47638
-26.5283 124.267 1.47917
-16.8009 100.157 -9.90046
-9.37418 81.3032 -4.223
-26.3612 123.691 1.68285
-25.9695 122.445 2.28854
-16.6946 99.5857 -9.78802
-9.5827 81.0034 6.63635
-19.7546 106.652 0.00107175
-15.8537 96.6193 5.66315
-8.68772 78.6653 3.7108
-18.5363 103.322 4.69066
-10.8552 84.284 -4.82608
-21.6768 111.222 -4.35942
-8.68313 78.3871 2.40645
-13.3378 89.9854 4.28571
-18.6036 103.012 4.45156
-14.1142 92.0748 -9.71647
-8.27658 76.9246 4.86719
-12.7816 88.214 4.49044
-14.1888 91.7273 4.68689
-18.3372 102.108 4.9319
-21.5986 110.566 -3.95135
-20.3147 107.22 -7.00042
-8.82262 78.0221 1.75354
-16.3736 96.8117 5.38177
-20.6847 107.785 -2.61229
-17.5963 100.202 -9.34397
-16.3911 96.5677 5.18694
-15.5855 94.7988 -9.81281
-17.9822 100.776 -9.04505
-11.3712 84.0602 -5.38562
-10.731 81.9829 6.72768
-17.9783 100.169 4.89418
-19.2485 103.362 3.08059
-12.5573 86.9411 -8.72226
-8.66451 76.7005 4.62249
-21.4969 109.044 -3.09725
-10.3123 80.9222 -4.42718
-21.4316 108.73 -2.75638
-20.4927 106.389 -3.27662
-17.8337 99.9062 -9.22754
-16.0344 94.9049 4.68962
-11.4077 83.4927 -4.39575
-9.17901 77.4097 4.27213
-16.9136 97.2056 -9.16815
-18.2692 100.138 4.4963
-12.985 87.3081 -9.11459
-16.1041 94.6607 4.57696
-19.346 102.837 2.69603
-9.29522 77.5677 2.99874
-19.0867 102.067 3.39992
-9.85559 79.2197 -5.68893
-16.0615 94.8755 -9.55844
-18.3966 100.241 4.37195
-13.7622 88.8918 -9.00907
-21.1882 107.414 -6.25953
-21.6272 108.414 -4.43591
-12.3222 85.0153 -6.64921
-17.1159 96.6278 4.81354
-10.7182 80.7875 -4.52741
-17.4208 97.2523 4.98298
-12.8899 86.2723 -8.2538
-18.2713 99.3365 4.37407
-12.3647 84.7654 -6.54581
-21.4321 107.439 -5.10737
-20.1765 104.08 0.923504
-18.1568 98.847 4.50594
-10.5688 80.0855 -5.41116
-21.2054 106.662 -4.01295
-19.7878 102.895 1.83191
-16.5687 94.7185 4.31204
-17.7885 97.7138 4.86105
-15.4976 92.3543 -9.68156
-10.6129 79.5459 6.25794
-17.017 96.0954 -9.08984
-21.4723 107.137 -5.26255
-20.5074 104.458 0.160881
-20.8057 105.245 -4.19004
-13.9604 87.8064 3.51803
-13.1205 86.0454 -8.24342
-21.131 106.064 -6.261
-17.3598 95.9617 4.3139
-20.75 104.822 -6.56262
-19.8935 102.652 -7.46711
-20.5682 104.13 -2.83503
-13.155 85.6553 -7.43141
-15.0714 90.4265 -9.41415
-15.7443 91.6661 3.81709
-16.2195 92.5166 3.67072
-14.3168 87.5016 3.25973
-13.5583 85.9397 -8.96332
-18.849 98.7628 3.80666
-10.2179 76.8836 5.33742
-13.7553 86.2349 -9.12292
-18.9823 98.7694 3.67076
-20.1672 102.052 -7.50191
-16.359 91.979 3.1321
-11.2165 79.2723 -7.27429
-13.1322 84.0271 -6.52692
-19.3302 99.1224 3.30432
-18.1469 96.1115 3.82538
-15.3917 89.5087 -8.69339
-11.5091 79.6455 -7.68809
-13.3065 84.0834 -6.61173
-14.2317 86.0069 3.78303
-21.0347 103.157 -3.00568
-12.0229 80.6013 -4.77274
-11.6432 79.747 -7.79655
-11.5996 79.3757 -8.26128
-18.9951 97.904 -8.95543
-10.69 76.5241 4.98644
-17.2725 93.0012 2.63964
-12.6069 81.155 5.1181
-12.0711 80.1227 -5.35543
-16.7854 91.9907 -9.20546
-19.1884 97.5897 3.3555
-16.8377 91.5567 2.40205
-21.6404 103.721 -6.04816
-21.6464 103.678 -5.88032
-12.3789 80.3246 -5.14805
-21.1589 102.236 -2.68415
-21.2027 102.099 -1.58901
-11.8328 78.7453 -6.30405
-16.6338 90.8583 -9.0984
-12.1811 79.5586 -5.85785
-13.2697 82.1972 -5.62568
-17.8713 93.4343 2.32438
-11.7709 77.5424 5.13905
-21.7873 102.75 -5.82097
-18.6083 94.485 2.27915
-17.235 91.3367 -9.04843
-12.2107 78.2196 4.73673
-12.476 78.7184 4.87469
-12.4712 79.0851 -6.71126
-16.9734 90.4314 -8.64
-16.2475 88.5228 -8.10251
-19.0387 95.4521 -8.92577
-11.9813 77.2163 4.28438
-12.9374 79.969 -7.83788
-14.5307 83.9246 -6.92003
-21.4611 101.011 -2.03618
-21.2169 100.176 -0.41607
-21.0323 99.5375 -0.0202088
-21.3399 100.217 -0.723625
-19.0179 94.225 1.93404
-12.7368 78.3063 3.72351
-20.0173 96.5111 1.90786
-20.9667 98.9541 -7.80083
-17.0862 88.8904 1.56388
-15.4922 84.7175 3.13942
-20.3148 96.7424 1.14182
-15.7417 85.5286 -9.1312
-14.6207 82.5709 -6.32039
-17.5096 89.8306 -7.86664
-18.197 91.5664 -8.8898
-20.8798 97.9858 -0.317836
-15.756 84.9753 2.91034
-18.0439 90.8228 -8.35212
-16.7615 87.2648 1.60721
-21.4827 99.3864 -7.17687
-15.2286 82.591 3.5589
-14.4487 80.8996 -5.39715
-13.5527 78.7206 -9.55207
-21.8711 99.2747 -3.21439
-15.3559 82.674 3.50247
-18.5253 91.004 -8.25942
-13.9549 79.4832 -6.62829
-21.7994 99.0454 -5.3246
-21.3993 97.9765 -7.2007
-19.9509 94.3526 -8.64763
-20.8486 96.1475 -0.823068
-21.9238 98.8334 -6.29305
-19.0898 91.7852 -8.64451
-21.785 97.8395 -6.68315
-15.1327 81.0562 -5.72821
-13.4744 76.3502 2.30101
-20.8834 94.8071 -0.222298
-14.9081 79.972 -7.54248
-17.9501 86.7589 0.982204
-21.7308 96.1923 -3.66144
-15.1135 79.3671 2.72364
-14.9076 79.1928 -9.72033
-15.3489 79.8545 -9.17138
-20.594 92.9423 -8.26375
-14.6843 77.4076 2.28371
-15.1535 78.9614 -9.48964
-15.5442 79.8794 -9.59742
-15.3929 79.4892 -9.58529
-19.8359 90.5301 -7.45594
-21.0483 93.3302 -0.749797
-19.6057 89.704 -0.557282
-15.346 79.1323 -10.1508
-21.4152 94.1496 -7.59343
-15.9589 80.517 -9.14901
-16.1913 80.8053 -6.74784
-15.9894 80.2886 -10.2665
-18.8617 86.9824 -0.0678596
-14.6979 76.5239 -0.0447392
-22.0722 95.1521 -4.57298
-17.0056 82.1001 2.22789
-20.4129 90.9535 -7.68779
-21.0281 92.2365 -0.654599
-14.9522 77.0094 -1.05379
-16.1557 79.8331 2.74846
-14.8453 76.4782 -0.577495
-18.9181 86.8576 -7.70379
-21.5648 93.2676 -4.24437
-16.0612 79.5484 -7.33354
-22.1139 94.6502 -6.72527
-16.2547 79.2884 2.32851
-17.6069 82.6489 1.64792
-19.1462 86.4839 -0.116457
-15.4601 77.1059 1.91648
-21.8224 92.7401 -4.48685
-18.146 83.5029 -7.65892
-18.5052 84.29 -9.2161
-20.2368 88.2011 -1.56732
-16.4011 78.6326 -6.70539
-17.9465 82.1229 1.29475
-18.8078 84.3496 -8.97472
-17.188 79.9283 1.69642
-18.2924 82.6676 -8.20643
-22.2435 92.4625 -5.16261
-16.9586 78.8445 1.69665
-15.8158 76.0388 -0.387037
-17.4894 80.454 -9.44008
-18.894 83.6361 0.517674
-18.1305 81.9784 -7.64519
-21.9723 91.4177 -2.66565
-21.8864 90.7342 -2.33553
-19.864 85.5916 -7.79231
-18.9924 82.9281 -7.81675
-22.5453 91.714 -5.30217
-18.3649 80.8544 0.705461
